# .PCD v0.7 - Point Cloud Data file format
VERSION 0.7
FIELDS x y z rgba
SIZE 4 4 4 4
TYPE F F F U
COUNT 1 1 1 1
WIDTH 1292
HEIGHT 1
VIEWPOINT 0 0 0 1 0 0 0
POINTS 1292
DATA ascii
-0.0051323324 0.38197285 2.0176566 255
0.056988291 0.36982518 2.0156386 255
0.10852867 0.36829489 2.0078721 255
0.24413857 0.38857669 2.0109961 255
-0.072583474 0.41537064 2.0024934 255
-0.13599749 0.46700493 2.0371585 255
-0.053870562 0.48273006 2.0119002 255
-0.16910496 0.52329367 2.0041676 255
0.22630307 0.51677752 2.035742 255
0.31666055 0.5337826 2.0015531 255
0.22150417 0.59730721 2.0186794 255
0.47801232 0.5983066 2.0368209 255
0.22888944 0.67861098 2.0059924 255
0.032412868 0.71868569 2.0196593 255
0.13491414 0.74639273 2.0145233 255
0.47779721 0.72501236 2.0493524 255
0.76300853 0.99330705 2.0149648 255
-0.36527181 -1.1051408 2.06742 255
3.8300667 -1.1395634 2.0802948 255
-0.55997705 -1.0661331 2.0772464 255
3.8987632 -1.0625291 2.0618887 255
-0.47256252 -1.0185913 2.0689583 255
-0.54446447 -0.98932451 2.0696919 255
-0.41620469 -0.98006999 2.0729065 255
-0.069816545 -0.90744293 2.0772669 255
-0.47095448 -0.87826711 2.0782592 255
-0.12176999 -0.88192141 2.0780888 255
-0.03695124 -0.86919558 2.0630355 255
3.3654227 -0.86821383 2.0989954 255
-0.38344434 -0.82882792 2.062614 255
0.2698645 -0.82777256 2.0566168 255
1.2340176 -0.8344329 2.0599122 255
0.18204865 -0.78941232 2.0639262 255
0.23275276 -0.79431397 2.0651534 255
-0.41711882 -0.73733443 2.0722787 255
1.2111692 -0.72438693 2.0541325 255
0.20446835 -0.68697131 2.0600107 255
0.27296302 -0.6975376 2.0600455 255
1.217479 -0.68026632 2.0516937 255
3.3671057 -0.66966015 2.0916648 255
-0.31583053 -0.62875623 2.0562589 255
0.25576776 -0.64326149 2.0555217 255
3.3860018 -0.61896765 2.0527368 255
-0.1008472 -0.55921841 2.0517304 255
0.25832006 -0.56669903 2.0522089 255
1.1899952 -0.51757246 2.0826681 255
-0.16702408 -0.4946107 2.0673943 255
1.1374743 -0.38504666 2.0780518 255
1.3045148 -0.37026092 2.0995398 255
1.1067476 -0.33642662 2.075933 255
1.1655817 -0.33068207 2.0780001 255
0.37955758 -0.24720578 2.0514476 255
1.2217137 -0.24843273 2.0784276 255
-0.043559592 -0.19055274 2.0962763 255
-0.088590592 -0.14077739 2.0796428 255
-0.10242223 0.095852651 2.0886936 255
1.1410574 0.05628109 2.0693014 255
1.3962227 0.078563802 2.0865526 255
0.3105785 0.14142498 2.0948298 255
1.1774417 0.10411108 2.0696886 255
1.2465553 0.16940506 2.0760183 255
1.2235327 0.25110468 2.0784903 255
0.29441857 0.36847886 2.0668628 255
0.20253322 0.42731494 2.0831285 255
-0.19023441 0.47994414 2.0901134 255
0.27777788 0.46094158 2.0622654 255
-0.14697945 0.54884869 2.0823162 255
0.28270155 0.51809889 2.0723553 255
-0.059244152 0.56913197 2.0563736 255
0.28833443 0.58688366 2.089746 255
0.020217709 0.63422352 2.0666099 255
0.33306128 0.60013032 2.0510044 255
0.27905512 0.67935264 2.0914636 255
0.37573206 0.67032051 2.0973268 255
0.29562658 0.76623172 2.083128 255
0.5009501 0.80215865 2.0859687 255
0.51348501 0.94752419 2.0542784 255
1.0425203 0.91721433 2.0851769 255
-0.4062447 -1.0170889 2.1334147 255
-0.3468079 -1.0284632 2.1128421 255
-0.29274958 -1.0331198 2.1183882 255
-0.33103213 -0.95168763 2.1283545 255
-0.21213298 -0.95718521 2.1290312 255
-0.41247606 -0.93572634 2.1400099 255
-0.26744765 -0.92893034 2.1096289 255
0.05559751 -0.91330284 2.1319945 255
0.3180986 -0.91817856 2.1138802 255
3.3515735 -0.93276697 2.1181943 255
-0.31220299 -0.86564046 2.1405787 255
0.11172134 -0.8887701 2.1292899 255
-0.80946195 -0.84334826 2.1264763 255
-0.23152688 -0.84028947 2.1402624 255
0.040424582 -0.8304354 2.1288571 255
0.1028031 -0.82800996 2.1407473 255
0.19891427 -0.81223691 2.1138802 255
0.28278473 -0.81223691 2.1138802 255
-0.8211987 -0.78465372 2.1379199 255
-0.74024522 -0.7594921 2.143652 255
0.013516389 -0.7703017 2.1138802 255
0.20774274 -0.79457998 2.1138802 255
0.41079757 -0.79899424 2.1138802 255
3.3770626 -0.78443152 2.1256535 255
-0.7932722 -0.70832664 2.1467009 255
-0.44114983 -0.72395229 2.1138802 255
0.03117333 -0.72836649 2.1138802 255
0.19891427 -0.74160922 2.1138802 255
-0.48087797 -0.66656721 2.1138802 255
0.03117333 -0.67539567 2.1138802 255
0.28278473 -0.67318857 2.1138802 255
-0.78852177 -0.61137545 2.1318905 255
-0.63658381 -0.60258877 2.1357293 255
-0.30811942 -0.64205086 2.1182635 255
-0.10125373 -0.60476792 2.1138802 255
-0.017383261 -0.6238963 2.1138802 255
0.03117333 -0.62242484 2.1138802 255
0.2783705 -0.64008176 2.1138802 255
0.34016979 -0.64449596 2.1138802 255
3.372334 -0.61295402 2.1385407 255
-0.56417137 -0.58850712 2.1499314 255
-0.38516793 -0.58205086 2.1324553 255
-0.30301327 -0.57268327 2.122716 255
-0.069471233 -0.56945401 2.1138802 255
-0.036511611 -0.55768275 2.1138802 255
0.022344859 -0.5959394 2.1138802 255
0.18125732 -0.55768275 2.1138802 255
0.20774274 -0.56503975 2.1138802 255
1.1435606 -0.56503981 2.1138802 255
-0.65590107 -0.52381039 2.1366556 255
-0.35546672 -0.51714885 2.1355956 255
-0.11891067 -0.50765473 2.1138802 255
-0.07476832 -0.54296857 2.1138802 255
-0.027415609 -0.5269168 2.1138802 255
0.12240086 -0.53708291 2.1138802 255
0.17621247 -0.52405047 2.1138802 255
0.26733494 -0.52200097 2.1138802 255
1.1413535 -0.52751875 2.1138802 255
-0.54602927 -0.45880455 2.1277335 255
-0.35810891 -0.46089372 2.1339221 255
-0.29498512 -0.49719143 2.1250296 255
-0.083596788 -0.49882624 2.1138802 255
-0.024004612 -0.49661914 2.1138802 255
0.078258507 -0.46645519 2.1138802 255
0.11357239 -0.46645519 2.1138802 255
0.19891427 -0.4546839 2.1138802 255
0.23128532 -0.47528365 2.1138802 255
0.2783705 -0.47399616 2.1138802 255
0.31478795 -0.47896221 2.1138802 255
1.1391463 -0.47675508 2.1138802 255
-0.38725767 -0.4097563 2.1352673 255
-0.3179062 -0.41255969 2.1275163 255
-0.21602385 -0.43702695 2.1138802 255
-0.19836691 -0.42819849 2.1138802 255
0.11819683 -0.42504546 2.1138802 255
0.15477192 -0.41054153 2.1138802 255
0.22775392 -0.42290142 2.1138802 255
0.26954201 -0.42378426 2.1138802 255
0.31999043 -0.4307209 2.1138802 255
0.48402727 -0.40833905 2.1473031 255
1.0994183 -0.40171307 2.1138802 255
1.1369393 -0.41937 2.1138802 255
1.1662624 -0.41306394 2.1138802 255
0.19891427 -0.39288458 2.1138802 255
0.22392829 -0.38994178 2.1138802 255
0.27395627 -0.37964189 2.1138802 255
0.32741755 -0.37130389 2.1138802 255
1.0905898 -0.3663992 2.1138802 255
1.1288465 -0.38405612 2.1138802 255
1.1650012 -0.38783973 2.1138802 255
1.3583846 -0.35120761 2.1189287 255
-0.81559634 -0.3107858 2.1304119 255
-0.31426248 -0.34777039 2.1370561 255
-0.27782315 -0.31342837 2.1138802 255
-0.20719536 -0.31342837 2.1138802 255
0.26954204 -0.33991376 2.1138802 255
0.33840409 -0.32225686 2.1138802 255
1.2306652 -0.32971281 2.1061382 255
1.3343403 -0.30141079 2.1282604 255
-0.34440354 -0.27544689 2.1288433 255
-0.2601662 -0.2825287 2.1138802 255
-0.20719537 -0.29577142 2.1138802 255
-0.19836691 -0.26928601 2.1138802 255
0.12828651 -0.26928601 2.1138802 255
0.34237692 -0.27590737 2.1138802 255
1.1450768 -0.28715029 2.127703 255
1.2148393 -0.26835594 2.128298 255
-0.21602385 -0.23397213 2.1138802 255
0.1295059 -0.24905531 2.1452315 255
0.34723258 -0.22514364 2.1138802 255
-0.53384876 -0.16334437 2.1138802 255
-0.47530076 -0.15741134 2.1343114 255
0.11875621 -0.16625106 2.1233852 255
0.32140929 -0.17217284 2.1138802 255
1.2774769 -0.19800696 2.1485813 255
1.321893 -0.15667003 2.1181414 255
1.4109221 -0.18742885 2.1381693 255
-0.70158976 -0.11920201 2.1138802 255
-0.68393278 -0.12361624 2.1138802 255
-0.61771929 -0.11920201 2.1138802 255
-0.55150574 -0.11037354 2.1138802 255
-0.5250203 -0.12803048 2.1138802 255
-0.37052208 -0.10154507 2.1138802 255
-0.23005211 -0.10829195 2.1380725 255
0.11945804 -0.13685894 2.1138802 255
0.32604426 -0.1209677 2.1138802 255
0.41836879 -0.12109835 2.1477787 255
1.4312698 -0.12515207 2.1384928 255
-0.81812555 -0.05916841 2.1138802 255
-0.78398877 -0.066231191 2.1138802 255
-0.73690367 -0.073588245 2.1138802 255
-0.46763527 -0.088302359 2.1138802 255
-0.4367356 -0.083888128 2.1138802 255
-0.032418355 -0.060067128 2.1335676 255
1.3647606 -0.076113842 2.1206007 255
-0.71041822 -0.033860128 2.1138802 255
-0.67731142 -0.041952893 2.1138802 255
-0.62801915 -0.026503069 2.1138802 255
-0.42316499 -0.040843248 2.14764 255
-0.32196549 -0.013260363 2.1138802 255
-0.021797493 -0.013260363 2.1138802 255
0.022344859 -0.0088461274 2.1138802 255
0.34899828 -0.0044318922 2.1138802 255
1.3336374 -0.025791537 2.1172786 255
-0.60889077 0.03088199 2.1138802 255
-0.59123385 0.015432166 2.1138802 255
-0.37052208 0.03088199 2.1138802 255
-0.13206428 0.006659477 2.1477859 255
-0.068146959 0.03088199 2.1138802 255
-0.048282906 0.0043965783 2.1138802 255
0.079729915 0.015432168 2.1138802 255
0.10474392 0.045596108 2.1138802 255
0.23588453 0.037715018 2.141098 255
0.34475085 0.022121869 2.1228592 255
1.3446969 0.0487618 2.1167474 255
-0.77663171 0.092681281 2.1138802 255
-0.58681959 0.070610106 2.1138802 255
-0.40142173 0.083852813 2.1138802 255
-0.083596788 0.057367403 2.1138802 255
0.10768674 0.060310226 2.1138802 255
0.35782674 0.066195875 2.1138802 255
1.1205878 0.089536898 2.1253412 255
-0.78104597 0.10150976 2.1138802 255
-0.72807515 0.13682364 2.1138802 255
-0.43906835 0.13275808 2.1482718 255
-0.388179 0.11916669 2.1138802 255
-0.071825497 0.13976645 2.1138802 255
0.079729915 0.1456521 2.1138802 255
0.10768674 0.12505235 2.1138802 255
0.3269271 0.14123787 2.1138802 255
0.35782674 0.11916669 2.1138802 255
-0.38376477 0.19862293 2.1138802 255
-0.32902825 0.18979445 2.1138802 255
-0.27782315 0.19862293 2.1138802 255
-0.1100822 0.19862293 2.1138802 255
-0.061525609 0.19862293 2.1138802 255
-0.04534008 0.1691947 2.1138802 255
0.088558391 0.18538022 2.1138802 255
0.11357239 0.1956801 2.1138802 255
0.2783705 0.17213753 2.1138802 255
0.33248609 0.17504209 2.1458871 255
1.3646741 0.16585037 2.1134663 255
-0.37052208 0.21186563 2.1138802 255
-0.33079398 0.2074514 2.1138802 255
-0.27076036 0.20745139 2.1138802 255
-0.22926655 0.21627986 2.1138802 255
-0.16535947 0.2227782 2.130564 255
-0.14539608 0.21627986 2.1138802 255
0.012768006 0.24867941 2.1434186 255
0.12534368 0.21922271 2.1138802 255
0.17684309 0.24276528 2.1138802 255
0.28278473 0.21627986 2.1138802 255
0.32070184 0.22301817 2.1296444 255
-0.29145539 0.25357193 2.1476603 255
-0.22287913 0.25020307 2.1475635 255
0.0742101 0.29514039 2.1478772 255
0.11156868 0.29609677 2.1489608 255
0.18439643 0.26690075 2.1408303 255
0.27558148 0.27527073 2.1221731 255
-0.25152746 0.30661264 2.1477039 255
0.092700027 0.34134588 2.1410279 255
0.1150438 0.32663575 2.1138802 255
0.17470601 0.31349882 2.146471 255
0.2251904 0.3341071 2.1454711 255
0.26824582 0.31451738 2.1289186 255
-0.14513417 0.38065517 2.1188083 255
-0.060566764 0.39663306 2.1332455 255
-0.039065849 0.35021311 2.1497211 255
0.043328434 0.37581432 2.1389046 255
0.14719358 0.36759484 2.1453772 255
0.25680697 0.39481914 2.1384327 255
0.31752819 0.35011294 2.1151474 255
-0.0575407 0.43390104 2.133687 255
0.0079534473 0.40462568 2.149044 255
-0.15879185 0.49017176 2.1489599 255
0.37738734 0.49408805 2.1165414 255
0.02618067 0.51498467 2.1387472 255
0.20423084 0.50888538 2.103971 255
0.23150103 0.57550389 2.1193459 255
-0.11305524 0.61948657 2.1181083 255
0.043342933 0.71587586 2.1448112 255
0.39351302 0.73057276 2.1224771 255
3.8011391 -1.0238526 2.1612105 255
-0.55663723 -0.99719018 2.1703565 255
-0.48993385 -0.97494197 2.1609635 255
0.089120448 -0.98731422 2.1642404 255
3.733279 -0.97669268 2.1888185 255
-0.046884522 -0.91486865 2.1971011 255
0.12736626 -0.93468982 2.1631496 255
-0.47085384 -0.88798714 2.1631372 255
1.2977121 -0.86847514 2.1935706 255
3.9186778 -0.87689847 2.1759531 255
-0.66404164 -0.84659952 2.1904051 255
-0.42883819 -0.8189469 2.1576767 255
0.14645378 -0.81191498 2.172123 255
0.17593314 -0.82435197 2.1737587 255
0.21758202 -0.80173337 2.1910491 255
-0.50536412 -0.79451585 2.1674745 255
-0.33586293 -0.79921627 2.150187 255
-0.01939931 -0.7781139 2.161052 255
0.061591055 -0.77823609 2.1851158 255
0.3073898 -0.76731217 2.1958685 255
1.283113 -0.79363769 2.1896324 255
-0.48863313 -0.70574278 2.1637878 255
-0.42406127 -0.74093163 2.1567531 255
-0.3436735 -0.70017707 2.1812091 255
-0.26982886 -0.72234285 2.1769168 255
-0.21592316 -0.73879063 2.1634965 255
-0.18805772 -0.70928878 2.1930206 255
0.037099902 -0.72482783 2.1795692 255
0.074997045 -0.74065238 2.1747522 255
0.145192 -0.72652853 2.1737261 255
0.1542297 -0.73671156 2.1703126 255
0.2155571 -0.71406114 2.1937058 255
1.3108995 -0.74349761 2.1866992 255
3.3487976 -0.71312708 2.1685388 255
-0.43911931 -0.67745841 2.172524 255
-0.38806909 -0.68162745 2.179601 255
-0.32643646 -0.67315638 2.1957464 255
-0.22274287 -0.65063047 2.1853912 255
-0.066395462 -0.67234194 2.1739855 255
0.032876916 -0.67214835 2.1801119 255
0.075563841 -0.66871637 2.1781771 255
0.1417972 -0.69628423 2.1933224 255
0.19869603 -0.65094715 2.1904206 255
1.2824185 -0.69529128 2.1843123 255
0.070469238 -0.60971522 2.1696808 255
0.11573987 -0.6212579 2.1732142 255
0.19205701 -0.62181151 2.1670742 255
0.20848338 -0.64178008 2.1669846 255
0.26494193 -0.62264138 2.1800449 255
0.33939096 -0.6226393 2.1634974 255
-0.33712897 -0.57968134 2.1815507 255
-0.18603988 -0.56699461 2.175616 255
0.032252487 -0.58304054 2.1753168 255
0.064135082 -0.57231778 2.1812694 255
0.18582623 -0.55522144 2.1647339 255
0.2230635 -0.59246707 2.1666265 255
0.2760888 -0.55316579 2.1877577 255
-0.11160344 -0.52765429 2.1657405 255
-0.075781986 -0.5069958 2.1707399 255
-0.011492603 -0.50565732 2.1692019 255
0.019836526 -0.52867198 2.1759977 255
0.18673301 -0.50153017 2.1644597 255
0.21630451 -0.53452599 2.1749406 255
-0.41297001 -0.4807238 2.1564865 255
-0.065837957 -0.49158993 2.1816394 255
-0.031563412 -0.46855578 2.1774011 255
0.09299887 -0.49133426 2.1719594 255
0.10818281 -0.45250252 2.1803851 255
0.1595221 -0.48413241 2.1780756 255
0.21988925 -0.48853368 2.1730742 255
0.28505403 -0.47406468 2.1714001 255
-0.11430697 -0.4457601 2.1700652 255
-0.064416163 -0.4212873 2.1686831 255
-0.044891343 -0.40130356 2.1767912 255
0.025540693 -0.44745517 2.1678991 255
0.11926527 -0.42327854 2.1680117 255
0.2107237 -0.44257084 2.178575 255
0.31812012 -0.43157002 2.1598616 255
-0.17420399 -0.37271512 2.1690478 255
-0.13918953 -0.39071536 2.1684856 255
0.12462971 -0.39115223 2.1648242 255
0.18698862 -0.39082947 2.169066 255
0.22264835 -0.36888003 2.160887 255
0.2650604 -0.37344095 2.1654747 255
0.32025045 -0.37263894 2.158536 255
1.2610414 -0.39930886 2.1528089 255
-0.22854708 -0.34899583 2.1719158 255
-0.17051347 -0.31469274 2.1687536 255
-0.14064205 -0.32449454 2.1683125 255
-0.066287071 -0.34104946 2.1727951 255
0.067385837 -0.34063175 2.1645141 255
0.12916085 -0.32795033 2.1669784 255
0.17876893 -0.3288362 2.1634192 255
0.23168421 -0.32857317 2.166769 255
0.28408003 -0.32191011 2.1654367 255
0.31945902 -0.31191191 2.1574905 255
1.2209028 -0.34365374 2.151449 255
-0.27489841 -0.25229371 2.1703932 255
-0.22764914 -0.28272447 2.1689036 255
-0.12728997 -0.26933283 2.1604919 255
-0.099331938 -0.28236163 2.166431 255
-0.033403262 -0.29505923 2.1651583 255
0.27806199 -0.27337435 2.1640491 255
-0.53202748 -0.20826489 2.1651635 255
-0.3878217 -0.21388224 2.1586077 255
-0.3393974 -0.20563953 2.1587684 255
-0.26234183 -0.20340206 2.1556232 255
0.28489268 -0.23823912 2.1673951 255
0.31112614 -0.21625715 2.1635714 255
-0.41538638 -0.15333708 2.1546013 255
-0.21370964 -0.16033752 2.1589239 255
0.17359285 -0.17106591 2.161742 255
0.21154973 -0.17112091 2.1629639 255
0.33941868 -0.18411498 2.1540058 255
-0.67087489 -0.14501734 2.1510158 255
-0.57139927 -0.14881103 2.1719301 255
-0.54891139 -0.11889985 2.1561918 255
-0.36515313 -0.14406867 2.1512661 255
-0.28282255 -0.12949628 2.1560311 255
0.006892574 -0.10872753 2.1574373 255
0.31360137 -0.13284899 2.1605775 255
-0.46846166 -0.09316241 2.1514325 255
-0.28717265 -0.056008298 2.1531615 255
-0.17450783 -0.075665213 2.1612072 255
0.33039674 -0.097861007 2.153173 255
-0.61160952 -0.011621775 2.1725957 255
-0.58304042 -0.00020203224 2.1709177 255
-0.54424351 -0.0019463929 2.1679952 255
-0.48137689 -0.016055182 2.1680341 255
-0.33857048 -0.023764443 2.1584554 255
0.12731729 -0.039397486 2.1556578 255
0.1648258 -0.038701031 2.1549847 255
0.30774355 -0.042105556 2.153693 255
0.39357403 -0.025873333 2.1774697 255
-0.6345669 0.042275939 2.1712575 255
-0.59367609 0.035913471 2.1703274 255
-0.54617918 0.030578122 2.1676505 255
-0.48452765 0.037893604 2.1622157 255
-0.42271149 0.045396134 2.1640673 255
-0.38558787 0.0040858164 2.1651332 255
-0.29210803 0.021878764 2.1630929 255
-0.24877158 0.0027898867 2.1510415 255
-0.05849557 0.0031763136 2.181535 255
-0.012196737 0.011296582 2.1585526 255
0.021365859 0.021109685 2.1586823 255
0.32973644 0.0063413703 2.1509418 255
-0.66946238 0.062215209 2.1723557 255
-0.62535006 0.077930301 2.16576 255
-0.57590693 0.073543236 2.1699145 255
-0.53460592 0.089653894 2.1655734 255
-0.43009728 0.080010429 2.1623459 255
-0.365201 0.051544774 2.1563756 255
-0.34046072 0.094341911 2.1543396 255
-0.2912035 0.080836259 2.1617782 255
-0.10889412 0.068257511 2.1538901 255
-0.041628756 0.07872761 2.1559076 255
0.017423997 0.091270663 2.1551805 255
0.080009885 0.058555704 2.1600127 255
0.29632047 0.059368692 2.158283 255
-0.48709437 0.11715363 2.1614244 255
-0.34573492 0.14549747 2.1594944 255
-0.089594662 0.12045023 2.1563888 255
0.067846403 0.12161247 2.1534336 255
0.30576488 0.12435632 2.1663282 255
-0.50558805 0.19269957 2.1606932 255
-0.45642439 0.18859312 2.1646199 255
-0.34180745 0.19255459 2.1609082 255
-0.067127794 0.19232342 2.1532795 255
0.10917325 0.17655842 2.1512749 255
0.27160138 0.17740808 2.1658154 255
-0.33487043 0.2469257 2.1581795 255
-0.11098195 0.24807286 2.1502333 255
-0.045037374 0.23566593 2.1527059 255
0.079770528 0.21695003 2.1542013 255
0.13288318 0.24497375 2.1587732 255
0.25802177 0.21427558 2.168957 255
-0.32608759 0.2991983 2.1569686 255
-0.29082289 0.29673812 2.1571507 255
-0.15458924 0.29950213 2.1540282 255
-0.054935534 0.2952241 2.15165 255
0.071534 0.25088131 2.1503048 255
0.17651325 0.25227782 2.156606 255
0.22769049 0.27677166 2.1584237 255
0.26829472 0.28189725 2.15769 255
-0.23078732 0.33469486 2.1536894 255
-0.19387914 0.30879793 2.1527791 255
-0.10213921 0.30878347 2.1526341 255
-0.096179195 0.3324616 2.1500671 255
0.24389911 0.34240744 2.1526501 255
-0.26552901 0.39411166 2.151279 255
-0.20447987 0.354545 2.1602528 255
0.28657717 0.3625567 2.1978111 255
0.2674208 0.4154273 2.169095 255
-0.068800524 0.49471956 2.1582019 255
0.30553102 0.51956224 2.1627152 255
0.24809042 0.5530982 2.1754539 255
0.32735854 0.58511168 2.1898837 255
0.020769386 0.62671083 2.1864326 255
0.25813451 0.60729408 2.1986146 255
0.18571374 0.65441251 2.1515799 255
0.28885043 0.71081758 2.1751878 255
0.30392078 0.76533383 2.1925378 255
0.34927478 0.82663417 2.1934531 255
0.39812905 0.81979555 2.166358 255
0.58496511 1.0013461 2.1732941 255
0.84929955 1.0998871 2.1833408 255
-0.64726686 -1.1742066 2.2132807 255
-0.36596289 -1.1517937 2.2433293 255
-0.49060297 -1.0874079 2.2111583 255
-0.54218501 -1.045385 2.2279773 255
-0.4877345 -1.015588 2.2193398 255
-0.48741546 -0.95986462 2.2205729 255
-0.10868377 -0.94786549 2.2265921 255
0.14568466 -0.91928327 2.2459977 255
0.15506491 -0.90521288 2.2459977 255
-0.42288426 -0.88990635 2.2119837 255
0.042501912 -0.85831165 2.2459977 255
0.14568466 -0.85831165 2.2459977 255
0.15506491 -0.88332558 2.2459977 255
0.21134642 -0.87707216 2.2459977 255
-0.027849961 -0.80203015 2.2459977 255
0.028431538 -0.80203015 2.2459977 255
0.14568466 -0.83955115 2.2459977 255
0.2113464 -0.82548076 2.2459977 255
-0.20846216 -0.77540988 2.2003574 255
0.02203591 -0.77559489 2.2459979 255
0.055008914 -0.75825566 2.2459977 255
-0.52031308 -0.74574864 2.2459977 255
-0.48748219 -0.74105847 2.2459977 255
0.020614661 -0.72803038 2.2459977 255
0.068766616 -0.7269882 2.2459979 255
0.13630441 -0.72698808 2.2459977 255
0.29107851 -0.70822763 2.2459977 255
0.3051489 -0.70822763 2.2459977 255
-0.47341183 -0.67070663 2.2459977 255
-0.093511716 -0.65194613 2.2459977 255
-0.013779587 -0.66132641 2.2459977 255
0.032079414 -0.67591786 2.2459977 255
0.063427083 -0.67720062 2.2459979 255
0.29107851 -0.69884735 2.2459977 255
0.3051489 -0.69884735 2.2459977 255
-0.10758208 -0.61442518 2.2459977 255
-0.064700946 -0.61978531 2.2459977 255
-0.020814775 -0.61677015 2.2459977 255
0.034997709 -0.62755752 2.2459977 255
0.080022909 -0.63162225 2.2459977 255
0.18633242 -0.61442518 2.2459977 255
0.23198295 -0.61630118 2.2459977 255
-0.28815082 -0.57181823 2.23576 255
-0.10758208 -0.59097451 2.2459977 255
-0.051300585 -0.58159423 2.2459977 255
-0.024202086 -0.58419991 2.2459977 255
0.014361163 -0.56752384 2.2459977 255
0.08940316 -0.56283379 2.2459977 255
0.13496438 -0.58494431 2.2459977 255
0.16444516 -0.56908727 2.2459977 255
0.21885061 -0.56939995 2.2459977 255
0.25824767 -0.55814362 2.2459977 255
1.2244134 -0.55814362 2.2459977 255
1.2601464 -0.58984637 2.2189612 255
-0.18614708 -0.54475886 2.2376339 255
-0.070061088 -0.52062261 2.2459977 255
-0.025035888 -0.52062261 2.2459977 255
0.090743199 -0.51124239 2.2459977 255
0.14568466 -0.54407322 2.2459977 255
0.16913529 -0.53187889 2.2459979 255
0.23831463 -0.52531278 2.2459977 255
0.27700818 -0.52156061 2.2459979 255
0.33328965 -0.50186211 2.2459977 255
1.2244134 -0.52531272 2.2459977 255
-0.26704633 -0.45496088 2.2459977 255
-0.22483522 -0.4784115 2.2459977 255
-0.050685637 -0.49836868 2.2303789 255
-0.013779587 -0.4784115 2.2459977 255
0.090255916 -0.47372147 2.2459979 255
0.13630441 -0.47372139 2.2459977 255
0.17148036 -0.47606644 2.2459977 255
0.21864216 -0.47215801 2.2459979 255
0.29576865 -0.47059464 2.2459977 255
0.32078263 -0.47059464 2.2459977 255
0.35205016 -0.47372139 2.2459977 255
1.2300416 -0.46058902 2.2459977 255
-0.23890558 -0.44558063 2.2459977 255
-0.13572283 -0.40805963 2.2459977 255
-0.060680836 -0.42212999 2.2459977 255
-0.041920338 -0.41743988 2.2459977 255
0.019051287 -0.41274977 2.2459977 255
0.12826419 -0.41475981 2.2459977 255
0.17382541 -0.42682013 2.2459977 255
0.22072667 -0.42916521 2.2459979 255
0.28451234 -0.4193159 2.2459977 255
0.35205016 -0.42682013 2.2459977 255
1.2123826 -0.41361547 2.2378714 255
1.2588077 -0.41118637 2.2459977 255
-0.26704633 -0.37053862 2.2459977 255
-0.22014509 -0.35177812 2.2459977 255
-0.12165245 -0.38929909 2.2459977 255
-0.08882159 -0.38460898 2.2459977 255
0.023741413 -0.39867938 2.2459977 255
0.12223403 -0.39867938 2.2459977 255
0.23010691 -0.39867938 2.2459977 255
0.28169829 -0.39398924 2.2459977 255
0.32963592 -0.37092724 2.2457819 255
0.36330646 -0.37241468 2.2459977 255
1.1857712 -0.39272326 2.2122335 255
1.2311136 -0.39063913 2.2459977 255
1.2588077 -0.39555264 2.2459977 255
-0.28580683 -0.31425714 2.2459977 255
-0.21545497 -0.3236374 2.2459977 255
0.13005091 -0.30800363 2.2459977 255
0.18320566 -0.30487689 2.2459977 255
0.2863884 -0.3423979 2.2459977 255
0.3426699 -0.3423979 2.2459977 255
0.35908535 -0.32598245 2.2459977 255
1.2609954 -0.317875 2.2135181 255
-0.27642658 -0.28611639 2.2459977 255
-0.21545497 -0.28142625 2.2459977 255
0.080022909 -0.29549664 2.2459977 255
0.13317765 -0.27360937 2.2459977 255
0.17516543 -0.28611639 2.2459977 255
0.36143041 -0.29080653 2.2459977 255
0.41660476 -0.26363987 2.2407668 255
0.055318937 -0.24589181 2.221293 255
0.13630441 -0.23921514 2.2459977 255
0.3239094 -0.20638426 2.2459977 255
0.36143041 -0.22983488 2.2459977 255
0.41612294 -0.21307829 2.247566 255
-0.73605883 -0.15479289 2.2459977 255
-0.56721431 -0.17355338 2.2459977 255
0.083270997 -0.15810311 2.2380393 255
0.12692416 -0.18293363 2.2459977 255
0.16444516 -0.16417314 2.2459977 255
0.33797979 -0.16886327 2.2459977 255
0.35205016 -0.19231388 2.2459977 255
-0.75481933 -0.14541264 2.2459977 255
-0.73605883 -0.11258176 2.2459977 255
-0.63287604 -0.12665214 2.2459977 255
-0.57190442 -0.14072251 2.2459977 255
-0.52969331 -0.13603239 2.2459977 255
-0.42651057 -0.11101838 2.2459977 255
-0.3702291 -0.10789163 2.2459977 255
-0.14510308 -0.10789163 2.2459977 255
0.098783411 -0.13603239 2.2459977 255
0.13161428 -0.13134226 2.2459977 255
0.2416584 -0.12884751 2.2035351 255
0.25824767 -0.11727189 2.2459977 255
0.33485305 -0.13290563 2.2459977 255
0.35908535 -0.11492683 2.2459977 255
-0.86738235 -0.064117134 2.2459977 255
-0.8079741 -0.073497385 2.2459977 255
-0.78296012 -0.051610131 2.2459977 255
-0.46403158 -0.098511383 2.2459977 255
-0.44527107 -0.098511383 2.2459977 255
-0.19200434 -0.079750888 2.2459977 255
-0.13572283 -0.093821257 2.2459977 255
0.3689346 -0.087255083 2.2459977 255
1.139883 -0.078437872 2.2042046 255
-0.779208 -0.038477786 2.2459977 255
-0.72902369 -0.035194699 2.2459977 255
-0.69853783 -0.042229887 2.2459977 255
-0.36084884 -0.0047088857 2.2459977 255
-0.026286587 -0.010962386 2.2459977 255
0.03312166 -0.0093990108 2.2459977 255
0.068766609 -0.0065849358 2.2459977 255
0.23444846 -0.037321292 2.2077796 255
0.36846557 -0.018779259 2.2459977 255
-0.6516366 0.032812115 2.2459977 255
-0.63100004 0.017803714 2.2459977 255
-0.41244018 0.042192366 2.2459977 255
-0.11696234 0.032812115 2.2459977 255
-0.078268811 0.021086803 2.2459977 255
0.096907362 0.015927663 2.2459977 255
0.1135238 0.026111936 2.2459977 255
0.37081066 0.03750224 2.2459977 255
-0.82048106 0.089093603 2.2459977 255
-0.66101682 0.060952865 2.2459977 255
-0.6141156 0.070333116 2.2459977 255
-0.11696234 0.051572613 2.2459977 255
-0.08882159 0.051572613 2.2459977 255
0.13005091 0.095347106 2.2459977 255
0.23859891 0.05601228 2.2185965 255
0.38019091 0.079713367 2.2459977 255
1.166144 0.076243237 2.2020657 255
1.2341135 0.079207741 2.2045281 255
3.9617138 0.069455683 2.2049055 255
-0.81110084 0.10785411 2.2459977 255
-0.77357984 0.13599487 2.2459977 255
-0.40775007 0.12661462 2.2459977 255
-0.3702291 0.13599487 2.2459977 255
0.098783411 0.14537512 2.2459977 255
0.12223403 0.12661462 2.2459977 255
0.33797979 0.13599487 2.2459977 255
0.36768389 0.14224838 2.2459977 255
1.2702171 0.13382919 2.2047684 255
-0.68915761 0.17351586 2.2459977 255
-0.36788404 0.1711708 2.2459977 255
-0.32614192 0.18102005 2.2459979 255
-0.19200434 0.19227636 2.2459977 255
-0.070061088 0.15788211 2.2459977 255
-0.041920338 0.17351586 2.2459977 255
0.086276412 0.17976935 2.2459977 255
0.10816366 0.19227636 2.2459977 255
0.2863884 0.17586093 2.2459977 255
0.31452915 0.17351586 2.2459977 255
1.352141 0.1786924 2.2221308 255
3.9726632 0.16322383 2.2203479 255
-0.37752485 0.21312135 2.2459977 255
-0.31394759 0.20165662 2.2459977 255
-0.27642658 0.20869181 2.2459977 255
-0.22600776 0.21689951 2.2459977 255
-0.18074803 0.216665 2.2459977 255
-0.12868765 0.21103686 2.2459977 255
-0.081786402 0.20869181 2.2459977 255
0.13630441 0.21729036 2.2459977 255
0.15506491 0.2344875 2.2459977 255
0.28951514 0.22667062 2.2459977 255
0.3051489 0.22979736 2.2459977 255
0.36143041 0.24855787 2.2459977 255
1.3194956 0.24859071 2.2247281 255
0.17382541 0.25793812 2.2459977 255
0.21134642 0.25793812 2.2459977 255
0.27968824 0.28339881 2.2459977 255
0.31452915 0.25793812 2.2459977 255
0.2863884 0.30952948 2.2459977 255
-0.19357131 0.39056531 2.2150729 255
0.12379741 0.35799408 2.2459977 255
0.40390816 0.44509807 2.2131765 255
-0.17454962 0.48736104 2.2399714 255
0.21688677 0.48854136 2.2338915 255
0.34291756 0.51055217 2.2096133 255
-0.12382812 0.56799954 2.2267375 255
0.3915301 0.57675016 2.2104106 255
-0.050103221 0.60446197 2.2151093 255
0.28099182 0.69989955 2.2424278 255
0.30943069 0.65102559 2.2405968 255
0.41749254 0.87647307 2.2105134 255
0.52164519 0.97147173 2.2142527 255
-0.4360466 -1.1194715 2.2740734 255
-0.37117246 -1.074968 2.2814667 255
-0.45889464 -1.0339141 2.2934344 255
-0.40266016 -1.0136125 2.2777109 255
-0.23238277 -1.0159315 2.2794225 255
3.7958279 -1.0237043 2.2596288 255
-0.4926199 -0.96035051 2.2971516 255
-0.33356029 -0.96315354 2.271275 255
-0.25997478 -0.96082389 2.2723293 255
3.8068781 -0.9495213 2.257174 255
-0.24858195 -0.89270288 2.259558 255
-0.093811147 -0.86412925 2.2837119 255
-0.017587423 -0.88313043 2.2992253 255
-0.88005602 -0.8305648 2.2779441 255
-0.79098225 -0.83444262 2.2949033 255
-0.20732054 -0.83367586 2.2612083 255
-0.85471582 -0.76176745 2.2878544 255
-0.79146761 -0.78143948 2.2948861 255
-0.93325996 -0.72527033 2.2990277 255
-0.85647839 -0.66473693 2.2861533 255
-0.37674212 -0.66307217 2.2777336 255
-0.29838148 -0.63203967 2.2568026 255
-0.6842041 -0.56006128 2.2853875 255
-0.39101651 -0.5943867 2.2756624 255
-0.56155598 -0.54341394 2.2880118 255
-0.40035319 -0.53368342 2.2813776 255
-0.34901619 -0.53929359 2.2810264 255
-0.578471 -0.46590537 2.2782013 255
-0.413546 -0.47519416 2.2856281 255
-0.35495967 -0.48166806 2.2743785 255
1.3891078 -0.40178186 2.2681069 255
-0.40000236 -0.39252675 2.2853496 255
-0.29714692 -0.39301813 2.2722871 255
1.3045577 -0.3513456 2.2607238 255
1.4693953 -0.39633533 2.2679136 255
-0.8730973 -0.32971892 2.2807298 255
-0.3783994 -0.32710448 2.2767041 255
1.4274179 -0.32153001 2.2823501 255
-0.72384113 -0.27170709 2.2888038 255
0.028282864 -0.26998448 2.2947791 255
1.3074368 -0.26063666 2.2791951 255
1.4325074 -0.24404788 2.2673728 255
-0.27587441 -0.19515677 2.2957098 255
1.4207493 -0.18329452 2.2671309 255
1.4893081 -0.19784676 2.2878294 255
-0.42596403 -0.10401484 2.299149 255
-0.29966074 -0.13798888 2.298702 255
1.406575 -0.10925969 2.2668343 255
1.5192628 -0.12779377 2.2881913 255
-0.52579749 -0.089611888 2.2924876 255
-0.47421175 -0.099696293 2.294745 255
1.4728047 -0.070647679 2.2885046 255
0.27129987 0.0011317931 2.2955117 255
0.35317954 0.009119262 2.2998695 255
1.4278588 0.041770708 2.2657676 255
0.35442945 0.080882713 2.2983797 255
0.26495564 0.1074871 2.2951257 255
1.1892895 0.11003981 2.2750301 255
0.35717466 0.17809536 2.2949455 255
1.4605095 0.16006988 2.2671735 255
0.11640044 0.22880523 2.2993855 255
0.276272 0.22969881 2.2920809 255
0.32671863 0.22834799 2.2947454 255
0.35070467 0.20324695 2.2951667 255
-0.33892691 0.25041255 2.2988501 255
-0.25074819 0.25553769 2.2949123 255
-0.17871863 0.25698495 2.2990122 255
-0.12677114 0.25400808 2.2994578 255
0.0078192437 0.25726056 2.2931099 255
0.073675893 0.2755844 2.29775 255
0.14105554 0.25092319 2.2958162 255
0.1884456 0.26908234 2.290638 255
0.2597906 0.26704618 2.2953146 255
-0.25045636 0.31370342 2.2994463 255
0.1112385 0.3074899 2.298609 255
0.15514123 0.32327652 2.2967961 255
0.20198138 0.31014603 2.2950981 255
0.25683406 0.32612666 2.2917106 255
0.30691954 0.32115102 2.2936428 255
-0.072159961 0.38291952 2.2903666 255
0.10657485 0.35028458 2.293417 255
0.21718158 0.35759535 2.295109 255
0.30383697 0.35084799 2.2924969 255
0.050172672 0.40667951 2.2870896 255
0.11010405 0.42661071 2.2921176 255
0.26765925 0.40257886 2.2924514 255
-0.073043913 0.45968235 2.2823699 255
0.07902734 0.45148095 2.2961712 255
0.59916866 0.46524271 2.278543 255
0.014844354 0.52646911 2.2955103 255
0.10945358 0.5013119 2.2625113 255
0.18863977 0.54793102 2.2612042 255
0.26090494 0.54190844 2.2517529 255
0.37445807 0.51241791 2.2697606 255
-0.13436861 0.62659216 2.2682512 255
0.23070854 0.61841369 2.2602699 255
0.034610938 0.74701244 2.2996728 255
0.43178916 0.7357198 2.2583196 255
0.3216745 0.79061073 2.2578645 255
0.32796937 0.84652597 2.2612216 255
0.49091908 0.87295532 2.2935836 255
-0.51097351 -1.0637835 2.3103364 255
0.11582565 -1.0522279 2.314832 255
0.10217062 -1.0158859 2.3207996 255
-0.65339106 -0.95372331 2.3365879 255
-0.54377985 -0.99308062 2.3184385 255
-0.42233202 -0.96594131 2.3023658 255
0.1569415 -0.97275412 2.3133001 255
3.7877491 -0.97339326 2.3452699 255
-0.21427885 -0.90231746 2.3023407 255
-0.038097799 -0.94968885 2.3487034 255
0.13609138 -0.90840942 2.3127089 255
0.20184763 -0.90464962 2.3198152 255
1.3688266 -0.91261423 2.3453596 255
1.4201359 -0.93669742 2.3462608 255
-0.53048301 -0.86884087 2.3202527 255
-0.42865515 -0.86874032 2.3046842 255
-0.33283332 -0.86770701 2.304271 255
-0.27221802 -0.85745043 2.3399982 255
1.3596116 -0.86715955 2.3429704 255
3.8235407 -0.89919829 2.3289034 255
-0.2629416 -0.8088488 2.308387 255
-0.017590176 -0.83536392 2.3191512 255
0.024295071 -0.83869082 2.3279777 255
0.070282348 -0.83447832 2.3315687 255
0.1427727 -0.8305192 2.3303571 255
0.21060637 -0.8332355 2.3299499 255
0.31862837 -0.80910677 2.3480005 255
1.3942764 -0.81697398 2.3399806 255
-0.47139651 -0.77928042 2.3120596 255
-0.32684526 -0.75209719 2.3289151 255
0.041645765 -0.78596216 2.3489223 255
0.090172455 -0.77976036 2.335984 255
0.17335376 -0.79082149 2.3344169 255
0.24334359 -0.77463585 2.3467252 255
-0.45591569 -0.71447939 2.3331516 255
-0.40840447 -0.74639106 2.3266442 255
-0.38216409 -0.72835517 2.3338478 255
-0.33821344 -0.72608304 2.3285332 255
-0.25424236 -0.72833699 2.3346701 255
-0.20216313 -0.73761982 2.3482187 255
0.040921628 -0.73123956 2.3228526 255
0.076098375 -0.7318511 2.3289785 255
0.13470289 -0.73584217 2.3427923 255
0.16657567 -0.7233485 2.3297558 255
0.2227121 -0.73945069 2.329303 255
-0.6024909 -0.66757733 2.3017213 255
0.014961988 -0.67576146 2.3293431 255
0.085408211 -0.69731128 2.3424222 255
0.12910201 -0.67819768 2.3270576 255
0.17807168 -0.66398811 2.3186483 255
0.22965525 -0.67893744 2.3260748 255
-0.62007529 -0.61666346 2.3003666 255
-0.36812159 -0.61462516 2.3499167 255
-0.26636195 -0.62573898 2.3168914 255
-0.20687401 -0.61740506 2.3390632 255
-0.015059493 -0.63352293 2.3223875 255
0.022709738 -0.64756435 2.3349104 255
0.079747386 -0.63714278 2.3199806 255
0.11362658 -0.6350925 2.3374095 255
0.28327051 -0.62065417 2.3359301 255
-0.32227764 -0.56215811 2.3399096 255
-0.09297011 -0.55929673 2.3292902 255
-0.012468505 -0.55647314 2.3352954 255
0.03556088 -0.57014167 2.3252599 255
0.071923375 -0.57165903 2.3260331 255
0.1792708 -0.57317513 2.3252068 255
0.23398452 -0.5783273 2.3219936 255
0.26100469 -0.5753001 2.3141224 255
-0.066454455 -0.52520674 2.3213294 255
-0.02012041 -0.52912438 2.3197219 255
0.03167364 -0.52730072 2.3218427 255
0.07066714 -0.50024378 2.317616 255
0.13375033 -0.53229833 2.3302858 255
0.17434567 -0.51655352 2.315989 255
0.2254366 -0.52347571 2.3254993 255
0.27587342 -0.52331984 2.3154161 255
-0.32572815 -0.48730028 2.347342 255
-0.065583184 -0.45713055 2.3196628 255
-0.030051453 -0.4829331 2.3274815 255
0.025528179 -0.4843044 2.3294575 255
0.092275865 -0.49057969 2.3319132 255
0.13815367 -0.4872961 2.3232436 255
0.2080715 -0.48587301 2.3306627 255
0.29666317 -0.49972174 2.3210549 255
0.31403041 -0.48333111 2.3114464 255
-0.21443968 -0.44297996 2.3111537 255
-0.11914381 -0.42895213 2.3202651 255
-0.06643945 -0.41212827 2.3185112 255
-0.037214343 -0.43871915 2.3228774 255
0.024246935 -0.44545862 2.3177917 255
0.11759001 -0.42697605 2.319387 255
0.16237898 -0.44279987 2.3216212 255
0.21890515 -0.41685134 2.3127303 255
0.27129117 -0.42443773 2.31651 255
0.31979492 -0.43453768 2.3151727 255
0.37781233 -0.42278516 2.3080797 255
1.3492907 -0.40068492 2.3029854 255
-0.29996836 -0.39711675 2.3468645 255
-0.23075725 -0.38150555 2.3244708 255
-0.17249385 -0.37504661 2.3200393 255
-0.12466311 -0.37742323 2.3281052 255
-0.06775067 -0.39330965 2.3271248 255
0.089008629 -0.38724965 2.3143935 255
0.13162284 -0.36499584 2.3193722 255
0.17898983 -0.38741618 2.3194482 255
0.23373866 -0.3910802 2.3263049 255
0.26203603 -0.37160856 2.3188124 255
0.32226276 -0.37499058 2.3138542 255
0.36717191 -0.39299005 2.3076847 255
-0.24415578 -0.34769803 2.3201861 255
-0.12741803 -0.3190577 2.3177223 255
-0.06362582 -0.32865122 2.3188982 255
-0.027339645 -0.32663521 2.3151677 255
0.025499476 -0.32256091 2.3141804 255
0.072260328 -0.3395246 2.3142068 255
0.1371634 -0.31906986 2.3172748 255
0.17759849 -0.33118004 2.3150096 255
0.2283334 -0.32782602 2.3144443 255
0.31583223 -0.3371951 2.3234234 255
0.36419067 -0.34702668 2.3067598 255
-0.82084757 -0.26569703 2.3146214 255
-0.54968786 -0.25603431 2.3229034 255
-0.35634372 -0.26032937 2.3017721 255
-0.27883106 -0.27021569 2.3249896 255
-0.24520914 -0.29567912 2.319953 255
-0.17734721 -0.29842547 2.3177183 255
0.13438603 -0.26776481 2.3104386 255
0.15559711 -0.28424129 2.3209808 255
0.26353472 -0.29905832 2.3084908 255
0.30625966 -0.26867101 2.3116961 255
-0.56918716 -0.22611409 2.3145027 255
-0.41705981 -0.23815255 2.3199215 255
-0.1538973 -0.22910075 2.307512 255
0.081917964 -0.2189412 2.3175151 255
0.17358638 -0.20259455 2.316076 255
0.22290456 -0.24495804 2.3283923 255
0.27639109 -0.23666981 2.3239541 255
0.31290177 -0.24454987 2.3204546 255
-0.58846998 -0.16025344 2.3226299 255
-0.51865172 -0.18232346 2.3037302 255
-0.41170117 -0.1932047 2.3096657 255
-0.31854299 -0.19876964 2.306109 255
-0.2652882 -0.16295537 2.3359282 255
-0.21308321 -0.16378956 2.313508 255
0.11779397 -0.19444682 2.3173215 255
0.18424276 -0.18167976 2.3074052 255
0.21116498 -0.16741778 2.3126297 255
0.26622739 -0.16672364 2.3133175 255
0.3318575 -0.18206552 2.3096247 255
0.36258629 -0.17796661 2.3031385 255
-0.37329248 -0.14444254 2.3063927 255
-0.022094442 -0.13607156 2.3064153 255
0.034887988 -0.13209464 2.3141599 255
0.10550632 -0.14135306 2.3162718 255
0.22007695 -0.1329163 2.3055663 255
0.34309879 -0.14163989 2.3043468 255
0.36151987 -0.12796113 2.3020813 255
-0.58107793 -0.096233442 2.3164217 255
-0.28698552 -0.082398079 2.3246748 255
-0.18858871 -0.089489624 2.3134751 255
-0.083155677 -0.065008707 2.3077545 255
0.082876801 -0.095045865 2.3135142 255
0.17030591 -0.074183963 2.3075283 255
0.28159857 -0.068480626 2.3102355 255
0.33066684 -0.083384328 2.3193829 255
0.43426165 -0.072742186 2.3270938 255
-0.66641814 -0.014288338 2.3237495 255
-0.6296488 -0.011703545 2.3186669 255
-0.58708453 -0.0059247077 2.319303 255
-0.52801704 -0.030961191 2.316577 255
-0.48194504 -0.024092659 2.3135965 255
-0.37673649 -0.0294323 2.3132946 255
-0.33806801 -0.022238633 2.3120885 255
-0.2288965 -0.0026963986 2.3037553 255
-0.18104899 -0.04004509 2.3262372 255
-0.011273989 -0.0056508724 2.3081846 255
0.021772947 -0.023464873 2.3080702 255
0.13637672 -0.026780777 2.3056402 255
0.17374232 -0.048545741 2.3049614 255
0.21874291 -0.028373731 2.3081889 255
0.34166905 -0.032518968 2.3007207 255
-0.62985343 0.034332003 2.3207514 255
-0.59000421 0.03434132 2.3192301 255
-0.51204914 0.018942256 2.319407 255
-0.48900962 0.042742841 2.3163607 255
-0.43333268 0.02201459 2.3160505 255
-0.30590153 0.0062384862 2.3087265 255
-0.29216939 0.037605368 2.3135121 255
-0.1883418 0.0090060169 2.3120236 255
-0.13864198 0.02011149 2.3096828 255
-0.01202048 0.029352954 2.3074446 255
0.070985995 0.036704209 2.3106272 255
0.21736497 0.022438487 2.3186729 255
-0.68535882 0.052854657 2.322741 255
-0.62326401 0.073324755 2.3208406 255
-0.54952896 0.09921708 2.3068373 255
-0.47985137 0.072975457 2.3174818 255
-0.37661028 0.067039624 2.3023069 255
-0.30158243 0.088255987 2.3110917 255
-0.18394811 0.05448303 2.3236227 255
-0.13041687 0.086917385 2.3085911 255
-0.024369199 0.077030674 2.3051825 255
0.0072591924 0.084419623 2.3049719 255
0.090828709 0.075522564 2.3081739 255
0.33321673 0.064095035 2.3303528 255
-0.58386606 0.10249404 2.3192844 255
-0.52928942 0.1236414 2.3175457 255
-0.48405832 0.14271924 2.3091733 255
-0.36781207 0.14589138 2.3122554 255
-0.33648145 0.1206111 2.3114223 255
-0.092054598 0.12589754 2.3069441 255
0.076674454 0.12170325 2.3032022 255
0.10774657 0.11539917 2.3062589 255
0.17585756 0.13331994 2.3007843 255
0.31908703 0.11919715 2.3113794 255
-0.51819384 0.19223167 2.3107316 255
-0.36222315 0.19166608 2.3101799 255
-0.11479889 0.157285 2.3070881 255
-0.088084579 0.1961433 2.3048015 255
0.087861501 0.18383716 2.3060486 255
0.11465911 0.1503372 2.3015656 255
0.29934657 0.17202809 2.3236504 255
-0.051438585 0.22886632 2.301455 255
0.08704561 0.24183831 2.3058293 255
0.12651241 0.24979304 2.3081851 255
0.30849868 0.2337923 2.3106947 255
-0.3386803 0.29830143 2.3080578 255
-0.12068736 0.29929462 2.3493667 255
-0.063183807 0.27439308 2.3026156 255
0.21374679 0.26379609 2.3183837 255
0.28053778 0.25413722 2.3127501 255
-0.34067425 0.32808146 2.3041096 255
-0.28928572 0.31807101 2.305572 255
-0.24369846 0.33720225 2.3062198 255
-0.18928882 0.31925011 2.3044629 255
-0.14420119 0.30470258 2.3035166 255
-0.084685735 0.32005963 2.3014364 255
0.26823488 0.32809898 2.3235705 255
0.30832389 0.30653015 2.3007641 255
-0.17250466 0.38320524 2.3269062 255
-0.15101558 0.43726933 2.302263 255
-0.10247651 0.49581221 2.3293033 255
-0.045944929 0.51441973 2.3199124 255
-0.031202806 0.59419072 2.3461483 255
0.92563021 1.2580271 2.3245358 255
-0.6132952 -1.2585722 2.3822565 255
-0.38745859 -1.2834359 2.3813686 255
-0.36163449 -1.2290572 2.3854551 255
-0.60535169 -1.1934178 2.3845649 255
-0.51766491 -1.1819197 2.3789039 255
-0.45011052 -1.1527746 2.3955228 255
-0.58421254 -1.1203185 2.3981094 255
-0.50193864 -1.0996004 2.3860416 255
-0.38912469 -1.0887693 2.3724976 255
-0.55667901 -1.0483018 2.3941796 255
-0.4813894 -1.0144535 2.3874705 255
-0.082918175 -1.0216783 2.3962579 255
-0.43223193 -0.96504831 2.3534048 255
-0.053578086 -0.99452358 2.350352 255
0.13538578 -0.97556603 2.395731 255
0.15539698 -0.97223085 2.395731 255
0.4655706 -0.98557168 2.395731 255
-0.47296333 -0.94382668 2.3929024 255
-0.3427034 -0.92801386 2.3760574 255
-0.10008923 -0.94608325 2.3784106 255
0.021988973 -0.91219729 2.395731 255
0.077853575 -0.91553247 2.395731 255
0.12538017 -0.92053527 2.395731 255
0.15789838 -0.93554366 2.395731 255
0.4655706 -0.91553247 2.395731 255
-0.20666294 -0.86039203 2.3917298 255
0.030326976 -0.87551004 2.395731 255
0.072016984 -0.87217492 2.395731 255
0.16340147 -0.86350334 2.395731 255
0.23544179 -0.88551563 2.395731 255
-0.50497264 -0.81547648 2.395731 255
-0.48246002 -0.81297505 2.395731 255
-0.36489424 -0.80547082 2.395731 255
-0.30986345 -0.82548207 2.395731 255
-0.26736686 -0.805457 2.3930137 255
0.071713783 -0.82275331 2.395731 255
0.11537458 -0.81297505 2.395731 255
0.16540259 -0.8354876 2.395731 255
0.21876578 -0.83548766 2.395731 255
0.07262338 -0.77636361 2.395731 255
0.12162808 -0.77545404 2.395731 255
0.16790399 -0.78545964 2.395731 255
-0.49496704 -0.72542602 2.395731 255
-0.20585611 -0.72500998 2.3826497 255
-0.056923028 -0.74949354 2.3543689 255
-0.039712228 -0.71041763 2.395731 255
0.017319694 -0.71742153 2.395731 255
0.091611281 -0.72292459 2.395731 255
0.12237849 -0.7314294 2.395731 255
0.18255505 -0.72113794 2.395731 255
0.23544177 -0.70541483 2.395731 255
0.26545858 -0.70541483 2.395731 255
-0.2412291 -0.67351675 2.3770192 255
-0.11140582 -0.68732089 2.3849475 255
-0.068728469 -0.66739357 2.395731 255
-0.021065427 -0.66448283 2.395731 255
0.025324175 -0.67539805 2.395731 255
0.077117875 -0.67480946 2.395731 255
0.11870977 -0.66706008 2.395731 255
0.17290679 -0.66789389 2.395731 255
0.26545858 -0.65538687 2.395731 255
-0.31723183 -0.61781967 2.3569219 255
-0.11975703 -0.61036164 2.395731 255
-0.013447528 -0.62787145 2.395731 255
0.010315773 -0.62370247 2.395731 255
0.086608484 -0.62662071 2.395731 255
0.13872097 -0.63037282 2.395731 255
0.17540818 -0.62718922 2.395731 255
0.2216841 -0.61911654 2.395731 255
0.26045579 -0.60535884 2.395731 255
1.306041 -0.61536443 2.395731 255
-0.11475423 -0.58034486 2.395731 255
-0.084737428 -0.55533081 2.395731 255
-0.0046926267 -0.57534206 2.395731 255
0.015318574 -0.56733751 2.395731 255
0.088692985 -0.57700968 2.395731 255
0.12538017 -0.58034486 2.395731 255
0.17651993 -0.56311297 2.395731 255
0.22810434 -0.57000571 2.3957312 255
0.26212338 -0.58201247 2.395731 255
1.3160466 -0.56533647 2.395731 255
-0.24353518 -0.53933489 2.3931026 255
-0.064726226 -0.52281266 2.395731 255
-0.029706629 -0.53365201 2.395731 255
0.067347698 -0.51730955 2.395731 255
0.14539137 -0.53031683 2.395731 255
0.17478281 -0.52468866 2.395731 255
0.21342948 -0.53131735 2.395731 255
0.34050059 -0.50530285 2.395731 255
1.2860298 -0.51530844 2.395731 255
1.3169562 -0.51803726 2.395731 255
1.3684024 -0.53677636 2.3717763 255
-0.22981864 -0.48529163 2.395731 255
-0.17621721 -0.48386231 2.395731 255
-0.13476543 -0.49029443 2.395731 255
-0.070729591 -0.47528601 2.395731 255
-0.019701026 -0.4690325 2.395731 255
0.017819975 -0.47278461 2.395731 255
0.077353306 -0.4782877 2.395731 255
0.10536898 -0.48529163 2.395731 255
0.17257984 -0.47791553 2.3958206 255
0.20709258 -0.4719508 2.395731 255
0.26545858 -0.47028324 2.395731 255
0.32949442 -0.47528607 2.395731 255
0.36369452 -0.47688496 2.3885062 255
1.2860298 -0.49529722 2.395731 255
1.3360578 -0.49529722 2.395731 255
-0.17312025 -0.43192843 2.395731 255
-0.13351473 -0.42400736 2.395731 255
-0.079734623 -0.42859325 2.395731 255
-0.024530016 -0.43696111 2.3954382 255
0.022822775 -0.42525804 2.395731 255
0.065346576 -0.44526923 2.395731 255
0.13338466 -0.41325131 2.395731 255
0.17707579 -0.42775941 2.395731 255
0.22918829 -0.42275661 2.395731 255
0.27832291 -0.41382307 2.395731 255
0.330495 -0.42150593 2.395731 255
0.35550898 -0.43026084 2.395731 255
1.2460074 -0.44526923 2.395731 255
1.2829125 -0.4195137 2.3898778 255
1.3110437 -0.40524682 2.395731 255
-0.58251607 -0.36272305 2.395731 255
-0.21981303 -0.36522442 2.395731 255
-0.12225843 -0.38273424 2.395731 255
-0.094743036 -0.38523564 2.395731 255
0.025324173 -0.38523564 2.395731 255
0.080354974 -0.35521883 2.395731 255
0.13538578 -0.37523001 2.395731 255
0.18020339 -0.38145411 2.3912351 255
0.24544738 -0.37856522 2.395731 255
0.28046697 -0.38523564 2.395731 255
0.37218499 -0.36522445 2.395731 255
1.3243364 -0.37286225 2.366842 255
-0.58501744 -0.34521323 2.395731 255
-0.21481024 -0.33020484 2.395731 255
-0.1049269 -0.32171142 2.3975136 255
0.035329774 -0.32520202 2.395731 255
0.083356664 -0.32720315 2.395731 255
0.12183148 -0.3208918 2.3942745 255
0.17374417 -0.32245404 2.3925967 255
0.22697552 -0.31827503 2.395731 255
0.25545299 -0.31519642 2.395731 255
0.3755202 -0.32520202 2.395731 255
1.3356982 -0.3366262 2.3665342 255
-0.26984105 -0.29518524 2.395731 255
-0.23482144 -0.27517402 2.395731 255
0.0053129736 -0.27017123 2.395731 255
0.1231567 -0.27739748 2.395731 255
0.1762619 -0.27397034 2.3933754 255
0.21918269 -0.28267822 2.395731 255
0.34550339 -0.25516284 2.395731 255
0.38152355 -0.27517402 2.395731 255
0.42183924 -0.29663119 2.3892117 255
1.3758489 -0.28670356 2.3670194 255
1.5058085 -0.26886368 2.3940957 255
-0.26984105 -0.21013762 2.395731 255
-0.059001848 -0.21755944 2.3967841 255
0.030326974 -0.20513482 2.395731 255
0.065346576 -0.20513482 2.395731 255
0.13038297 -0.22514603 2.395731 255
0.17826691 -0.23801038 2.395731 255
0.34550339 -0.24015442 2.395731 255
0.36551461 -0.21847564 2.395731 255
-0.75511265 -0.17511801 2.395731 255
-0.61503428 -0.17845322 2.395731 255
-0.59502304 -0.15510681 2.395731 255
-0.26984105 -0.19512922 2.395731 255
-0.21481024 -0.19512922 2.395731 255
-0.13869044 -0.18187125 2.3903866 255
-0.084737428 -0.17511801 2.395731 255
0.030326974 -0.17511801 2.395731 255
0.06994579 -0.16851492 2.3952036 255
0.12287878 -0.17011522 2.395731 255
0.16540259 -0.1701152 2.395731 255
0.22409387 -0.17280702 2.3832359 255
0.27546418 -0.15510681 2.395731 255
0.35550898 -0.18012083 2.395731 255
-0.68007064 -0.13509561 2.395731 255
-0.62503988 -0.13509561 2.395731 255
-0.57167667 -0.13843082 2.395731 255
-0.51998103 -0.10507882 2.395731 255
-0.47162065 -0.11841962 2.395731 255
-0.43493345 -0.12509002 2.395731 255
-0.20480463 -0.11008161 2.395731 255
-0.17478783 -0.11508442 2.395731 255
-0.11875647 -0.11108217 2.395731 255
-0.094743028 -0.12509002 2.395731 255
0.026324738 -0.12609056 2.395731 255
0.068681777 -0.12509002 2.395731 255
0.12752846 -0.12389705 2.3945744 255
0.23210658 -0.12064307 2.395731 255
0.26914805 -0.12468807 2.3912818 255
0.3254922 -0.12008721 2.395731 255
0.36551461 -0.11908666 2.395731 255
-0.92320669 -0.065056413 2.395731 255
-0.87336063 -0.070514016 2.395731 255
-0.20480463 -0.085067615 2.395731 255
-0.17879006 -0.089069858 2.395731 255
-0.12976263 -0.090070412 2.395731 255
-0.094743028 -0.095073216 2.395731 255
-0.014698227 -0.085067607 2.395731 255
0.019070674 -0.08881972 2.395731 255
0.072016977 -0.095073216 2.395731 255
0.22543618 -0.090070412 2.395731 255
0.34550339 -0.095073216 2.395731 255
0.38886097 -0.07339441 2.395731 255
1.216557 -0.066245049 2.3566711 255
-0.83015466 -0.030036811 2.395731 255
