# .PCD v0.7 - Point Cloud Data file format
VERSION 0.7
FIELDS x y z rgba
SIZE 4 4 4 4
TYPE F F F U
COUNT 1 1 1 1
WIDTH 1286
HEIGHT 1
VIEWPOINT 0 0 0 1 0 0 0
POINTS 1286
DATA ascii
2.8416119 1.028167 -0.12142713 255
-0.21973728 1.0983639 -0.14363918 255
-0.13827254 1.09949 -0.11850967 255
0.029392008 1.0723631 -0.13582493 255
0.48397717 1.0613075 -0.10068782 255
0.62368035 1.0642096 -0.13535744 255
0.71981633 1.0586154 -0.11864047 255
0.83181113 1.0597887 -0.13427028 255
0.99793488 1.0931107 -0.13748552 255
1.066074 1.0711136 -0.11895335 255
0.025313234 1.1406217 -0.10709502 255
0.20268005 1.1456906 -0.12211633 255
0.36742279 1.1312009 -0.11260787 255
0.44125485 1.1391158 -0.10870157 255
1.1713796 1.1312089 -0.10676627 255
1.2355469 1.1117201 -0.11300404 255
1.3512899 1.1105938 -0.1188172 255
1.4517527 1.108039 -0.10995533 255
1.88387 1.1277369 -0.11879964 255
2.0192051 1.1485176 -0.11952231 255
2.1584888 1.1210124 -0.14871517 255
2.3287144 1.1108876 -0.1257775 255
2.5571687 1.1393952 -0.14183509 255
3.3704419 1.1443951 -0.14140821 255
-0.055704664 1.18313 -0.12699826 255
0.0244713 1.1943604 -0.14470945 255
0.50174731 1.1737505 -0.14115585 255
0.81880331 1.1704879 -0.14852361 255
0.90294939 1.1899649 -0.1361481 255
1.0158408 1.1834463 -0.11844945 255
1.108225 1.1719147 -0.12142639 255
1.9522839 1.1789653 -0.13409148 255
3.0467379 1.1674941 -0.13078354 255
-0.20079929 1.2017425 -0.13024959 255
1.6523131 1.2075193 -0.1072396 255
1.7988199 1.204028 -0.1263092 255
2.3183646 1.2429005 -0.14685948 255
0.087743349 1.2756354 -0.10953085 255
0.27498111 1.2836972 -0.10532515 255
0.39049923 1.2504296 -0.13673028 255
0.54091811 1.2640126 -0.13973594 255
0.67341936 1.2623576 -0.1191802 255
0.7621994 1.2621773 -0.10893417 255
0.9435004 1.2973464 -0.14444153 255
2.1178975 1.252771 -0.13412535 255
-0.059396949 1.3136432 -0.13879743 255
0.34075448 1.3459015 -0.13377252 255
0.4385457 1.3203983 -0.13365236 255
0.50418437 1.3306359 -0.1307344 255
0.7886768 1.3447828 -0.10691381 255
1.1112578 1.3255155 -0.13817073 255
1.538684 1.3017541 -0.12266022 255
-0.29620922 1.3882427 -0.10207959 255
-0.24004345 1.3544769 -0.10439991 255
0.15331189 1.3772458 -0.14402625 255
0.24751996 1.3520253 -0.13988076 255
0.61033648 1.3644168 -0.14748628 255
0.68812764 1.3989078 -0.12467304 255
0.85972989 1.3679869 -0.10735197 255
0.91133189 1.3829105 -0.13476223 255
0.97825229 1.3958334 -0.14446785 255
1.2284626 1.368361 -0.10512511 255
1.4006679 1.37955 -0.12669276 255
1.6487715 1.3765851 -0.10231946 255
1.7820045 1.3763595 -0.10599975 255
1.9333354 1.3735918 -0.11178977 255
2.1068025 1.3865601 -0.14677149 255
2.536448 1.3909451 -0.1396184 255
3.1392598 1.3816977 -0.12870364 255
3.5414455 1.3655468 -0.11292955 255
0.071431823 1.4129738 -0.10458463 255
0.35158765 1.4369671 -0.1395589 255
0.7421127 1.4323053 -0.12012921 255
1.094419 1.4073561 -0.11958266 255
1.1667181 1.4401847 -0.14703861 255
2.3010128 1.4153581 -0.11894488 255
-0.33568549 1.4616482 -0.11899059 255
-0.25239828 1.4513304 -0.1156027 255
-0.10731313 1.464137 -0.12403772 255
0.23507261 1.4708443 -0.13950181 255
1.9252081 1.4571863 -0.10236435 255
-0.14820868 1.5270631 -0.13647193 255
-0.021430736 1.5418774 -0.12609687 255
0.062106531 1.5181772 -0.12000199 255
0.12659784 1.5233097 -0.14534274 255
0.75825143 1.5140737 -0.13202253 255
0.87193882 1.5137883 -0.1205168 255
0.94834191 1.509114 -0.1231948 255
1.0780793 1.5422877 -0.1375878 255
1.1529526 1.5299273 -0.1222966 255
1.3190045 1.5302498 -0.14689101 255
1.4314311 1.537465 -0.12468965 255
1.522245 1.5445282 -0.11290861 255
1.7698796 1.5333318 -0.13376831 255
-0.26138055 1.5684127 -0.10844641 255
-0.19875185 1.5832639 -0.14724027 255
0.050585527 1.5874673 -0.10590252 255
0.12962478 1.5781922 -0.10856413 255
0.27063614 1.57091 -0.11149609 255
0.45490065 1.5640352 -0.11217939 255
0.72777784 1.5928944 -0.12330091 255
1.1463895 1.5875721 -0.10394393 255
1.2276195 1.5913634 -0.14960437 255
0.19607738 1.6182152 -0.11567176 255
0.35875741 1.6165559 -0.1281745 255
0.43451607 1.6428587 -0.12285601 255
0.49966991 1.6390926 -0.13073452 255
0.80037916 1.6167622 -0.14482863 255
1.5093888 1.6396424 -0.13607575 255
1.6359113 1.6106818 -0.1446819 255
1.7435718 1.601539 -0.12798132 255
1.8517834 1.6493292 -0.111116 255
1.9124612 1.6102685 -0.11602952 255
2.1104615 1.6242135 -0.11654089 255
2.3009562 1.6450268 -0.12036744 255
0.25571388 1.6809914 -0.14957401 255
0.4774814 1.69564 -0.10761641 255
0.65075296 1.6736115 -0.1443143 255
0.73537797 1.6684747 -0.13291377 255
0.83799958 1.6967399 -0.13870318 255
1.7540766 1.684695 -0.13939156 255
1.9929808 1.6959393 -0.1044893 255
3.1136785 1.6805255 -0.14528699 255
-0.10780659 1.707489 -0.11047869 255
-0.056584064 1.7309499 -0.13439329 255
0.12363377 1.7007434 -0.11709999 255
0.17198458 1.7167999 -0.13773456 255
1.2118262 1.7328658 -0.10412794 255
1.9028559 1.7100587 -0.10617088 255
0.082558379 1.7737523 -0.11905718 255
0.82322878 1.781075 -0.13569541 255
0.90191704 1.7689916 -0.14164783 255
1.3740342 1.7535869 -0.14210856 255
1.6152858 1.7703243 -0.12738954 255
1.8959931 1.7995695 -0.12274835 255
0.13055305 1.814726 -0.11291786 255
0.5182876 1.8105662 -0.14294459 255
0.98548412 1.8072032 -0.12207758 255
1.0505929 1.8127942 -0.14556006 255
1.1138666 1.8255669 -0.13819326 255
1.1837057 1.8442357 -0.13111506 255
2.4974287 1.8235141 -0.13488904 255
2.7697089 1.8167326 -0.10152221 255
2.9966688 1.8192306 -0.11921762 255
0.23070909 1.8714541 -0.11689781 255
0.28793284 1.8962921 -0.14714143 255
0.42268032 1.8642018 -0.11226776 255
0.97583979 1.8729228 -0.1293072 255
1.3380333 1.8950384 -0.12103093 255
3.0938804 1.8844994 -0.12273666 255
3.306994 1.8952633 -0.11822743 255
0.62416518 1.9377649 -0.14354719 255
0.86341524 1.9286166 -0.10811973 255
1.0449024 1.9347285 -0.10139915 255
1.7442443 1.9068128 -0.10553131 255
2.9045181 1.9347891 -0.13310474 255
3.4928043 1.9300532 -0.13967943 255
0.39259177 1.9579446 -0.10870753 255
0.47512853 1.9527373 -0.13968773 255
0.55685556 1.9523392 -0.10503577 255
0.71522164 1.9925566 -0.13136321 255
1.2332001 1.9594963 -0.148922 255
1.5329753 1.9673057 -0.10044438 255
1.6520991 1.9962876 -0.10577852 255
2.0661547 1.9968302 -0.10669702 255
3.2110133 1.9519707 -0.13125098 255
0.50769824 2.0317976 -0.13405727 255
1.400099 2.0405095 -0.14914441 255
1.5896658 2.033704 -0.1444113 255
3.2045805 2.0319424 -0.13076906 255
0.60909754 2.0773332 -0.1453169 255
1.7869477 2.0603106 -0.12681201 255
1.8670605 2.0973325 -0.11505199 255
2.3947709 2.1382294 -0.11130147 255
3.5567544 2.1359251 -0.1112155 255
0.77010804 2.1602173 -0.1493029 255
1.8126998 2.1623282 -0.10235193 255
0.82943714 2.2180514 -0.11246904 255
2.457727 2.2637041 -0.12773843 255
2.8630698 2.2898259 -0.10965911 255
3.39834 2.3364983 -0.11100468 255
3.9926658 2.3007469 -0.10316277 255
3.0502887 2.4051087 -0.14784247 255
3.1467867 2.5698178 -0.10011914 255
3.8960147 2.5785141 -0.10563326 255
1.6719253 2.6362484 -0.14377739 255
3.4605162 2.6716731 -0.13557117 255
3.5061524 2.7189636 -0.10072824 255
3.9618018 2.9197619 -0.13517042 255
2.3893764 3.0351264 -0.13943629 255
2.9674728 3.3176353 -0.14841007 255
3.6494033 -0.69919688 -0.061548334 255
3.5936935 -0.52022314 -0.059573114 255
3.1853774 -0.38001528 -0.057474848 255
3.1849098 -0.31877124 -0.078318715 255
3.5776076 -0.3220081 -0.05272587 255
2.8787229 -0.27308297 -0.060896941 255
3.1720259 -0.26839325 -0.09437032 255
2.8433652 -0.169484 -0.096841961 255
2.8090386 -0.1170838 -0.056895476 255
2.8718626 -0.10842621 -0.091360755 255
3.1807623 -0.11579432 -0.092692971 255
2.3632519 -0.055752024 -0.081643537 255
3.6712368 -0.096179292 -0.099222243 255
3.400161 -0.044390585 -0.057238821 255
2.3084657 0.022277046 -0.099663742 255
2.5846739 0.023570528 -0.0693826 255
2.8364539 0.020496024 -0.097137697 255
3.0804217 0.036205273 -0.059914783 255
2.5415623 0.073855057 -0.073561527 255
2.8195894 0.075398244 -0.075498454 255
2.8256197 0.12891084 -0.051929913 255
3.2502456 0.10393845 -0.080857463 255
3.4038997 0.13536726 -0.084031284 255
1.9582201 0.1974204 -0.088252373 255
2.1059825 0.24338622 -0.058391523 255
2.3024528 0.23956232 -0.082108952 255
2.3786926 0.20874317 -0.068173304 255
2.5832756 0.21254294 -0.090797685 255
1.5600351 0.2911858 -0.089350805 255
1.6636715 0.2653791 -0.082279496 255
1.7948992 0.28509203 -0.05745795 255
1.951242 0.27161971 -0.092749968 255
2.2093544 0.25209439 -0.080673024 255
1.5514336 0.34621397 -0.079574525 255
1.6627092 0.31847343 -0.052304387 255
2.0552061 0.33860475 -0.089096479 255
1.6387819 0.39013574 -0.05107753 255
1.7804278 0.39971325 -0.056793515 255
2.1052074 0.35386309 -0.08967685 255
1.5078132 0.43275437 -0.096417591 255
1.2379549 0.47143081 -0.082096986 255
1.4379022 0.48326221 -0.06088452 255
1.9261725 0.45099017 -0.070654236 255
0.95632625 0.54623079 -0.053195432 255
1.1600504 0.51711363 -0.092870794 255
1.3286601 0.50370532 -0.085513957 255
1.5407438 0.51782209 -0.082783513 255
0.89218503 0.5983246 -0.057859119 255
1.3309683 0.58919358 -0.094468169 255
0.75530279 0.6428771 -0.064282633 255
1.1483247 0.61566359 -0.088738054 255
1.6739372 0.61417162 -0.061766747 255
1.7990322 0.6479314 -0.076352969 255
1.0251483 0.66709119 -0.055600259 255
1.7124016 0.68514454 -0.059845202 255
-0.20732771 0.73934805 -0.058726225 255
0.41013077 0.74534041 -0.051347882 255
0.54161793 0.74622238 -0.093169011 255
0.95731735 0.71242577 -0.07043606 255
1.0902777 0.72974956 -0.086904101 255
1.4615594 0.70154476 -0.092927292 255
0.31040451 0.78448069 -0.077745706 255
0.6150142 0.77767849 -0.065330558 255
0.75313771 0.78617668 -0.084608808 255
0.90768701 0.78591776 -0.089533739 255
0.96293545 0.7746352 -0.093616992 255
1.1898695 0.78233379 -0.094999701 255
1.2611207 0.78006464 -0.07186 255
1.3517901 0.75043207 -0.057433028 255
2.318305 0.79214317 -0.089488424 255
-0.20341882 0.81553185 -0.090087913 255
0.21979427 0.81937045 -0.099752657 255
0.85537583 0.82479191 -0.094358101 255
1.5552653 0.81535769 -0.092459723 255
1.7709723 0.80362236 -0.089720763 255
2.8584058 0.81114084 -0.083508432 255
-0.022583487 0.89104754 -0.098490804 255
0.46786189 0.85440189 -0.063238911 255
0.56653374 0.85689366 -0.067787454 255
0.98555338 0.85278052 -0.057485934 255
0.16613393 0.91424322 -0.054931071 255
0.43349111 0.90599656 -0.051688544 255
0.75499725 0.93842274 -0.058391195 255
0.97368449 0.93157029 -0.053708486 255
1.7815866 0.92901909 -0.094272889 255
-0.24672888 0.97814828 -0.089593768 255
-0.05754675 0.95587587 -0.06974417 255
0.047246478 0.99209666 -0.086892657 255
0.28270793 0.97326654 -0.074790701 255
0.71749598 0.98170871 -0.05386338 255
0.8306976 0.97353619 -0.051327519 255
0.9170869 0.98020852 -0.057213765 255
1.243144 0.96922076 -0.0501501 255
2.1378565 0.98775715 -0.079910763 255
2.8442628 0.97417039 -0.089831874 255
0.59148175 1.0373539 -0.051439684 255
1.0901854 1.0368426 -0.054611407 255
1.1777217 1.0420458 -0.067850545 255
1.9617506 1.0358354 -0.08577425 255
-0.28038883 1.0596685 -0.055151418 255
-0.068169564 1.0577335 -0.067760065 255
0.022303967 1.0775052 -0.064417116 255
0.09180034 1.0536151 -0.057671972 255
0.95605922 1.0814366 -0.065540373 255
1.6618202 1.0798146 -0.092549756 255
1.8093603 1.0524985 -0.082650751 255
2.3285933 1.0570979 -0.054263689 255
-0.21249282 1.1208887 -0.05979339 255
-0.068477549 1.1165066 -0.09048871 255
0.2969262 1.1336173 -0.05360619 255
0.51340044 1.1429975 -0.063078709 255
0.59590471 1.1174437 -0.086774729 255
1.5288881 1.1457983 -0.052700154 255
1.9531608 1.1213824 -0.072166555 255
2.1280591 1.1033586 -0.087775089 255
-0.26413146 1.1653892 -0.073134899 255
-0.13592744 1.1602783 -0.09472736 255
0.28659087 1.1970099 -0.099415563 255
0.64101887 1.1818445 -0.084988177 255
0.72955626 1.1925908 -0.076747373 255
1.1591188 1.1989517 -0.085159697 255
1.7982248 1.1589485 -0.059289631 255
-0.20577069 1.2014173 -0.059218466 255
-0.085119575 1.219662 -0.08945287 255
0.0065896898 1.2346704 -0.051912732 255
0.41061682 1.2062778 -0.05300406 255
0.56014866 1.2158556 -0.089264907 255
0.96427703 1.2075058 -0.05283026 255
1.324945 1.2461332 -0.093502879 255
1.4345659 1.2030993 -0.081226937 255
1.5003629 1.2391511 -0.056482948 255
-0.28139728 1.298202 -0.091755606 255
-0.14681843 1.2771994 -0.096813746 255
-0.080201298 1.2746429 -0.05890255 255
0.1313481 1.2507751 -0.053654175 255
0.17935412 1.2727064 -0.098942958 255
0.36262622 1.2566799 -0.063203074 255
0.43088695 1.2651166 -0.055207755 255
0.87242764 1.2993039 -0.071418665 255
1.2337663 1.259603 -0.065544695 255
1.4078104 1.2779322 -0.0690092 255
1.496891 1.2987432 -0.057988282 255
-0.10647719 1.3329831 -0.082729481 255
0.045210034 1.3413849 -0.077638589 255
0.14364219 1.3391985 -0.063804902 255
0.42348808 1.322777 -0.051622566 255
0.70564497 1.3354286 -0.084437862 255
1.0005398 1.3198864 -0.080096327 255
1.1691623 1.3173976 -0.094393529 255
1.330145 1.3066753 -0.08927384 255
-0.070222743 1.3912563 -0.067431025 255
0.35855529 1.3913199 -0.082510106 255
0.48532623 1.3726255 -0.082511492 255
0.54234409 1.3746312 -0.075865775 255
0.63129216 1.3768029 -0.072745278 255
1.0363985 1.3970562 -0.085108615 255
1.5230399 1.3743241 -0.095843382 255
2.8066661 1.3977362 -0.094016016 255
-0.010804603 1.4127202 -0.081785768 255
0.21486264 1.4403183 -0.078803003 255
0.79121202 1.4383616 -0.085101135 255
0.85277671 1.4483603 -0.074553356 255
0.94036484 1.4054395 -0.064004987 255
1.3211186 1.407485 -0.064011946 255
1.7737514 1.4261863 -0.050986972 255
2.098047 1.4331713 -0.080313414 255
-0.17226578 1.4522934 -0.08798565 255
-0.030019782 1.4900249 -0.053663865 255
0.03469399 1.493454 -0.052189801 255
0.27704027 1.4741564 -0.077763058 255
0.34964508 1.4593426 -0.070552096 255
1.0074023 1.4932715 -0.090333641 255
1.0762668 1.4775511 -0.077200055 255
1.1488287 1.4925454 -0.073848248 255
1.3174512 1.4873123 -0.05863414 255
1.4193119 1.4867616 -0.074702464 255
-0.33368772 1.5304421 -0.097832277 255
0.14971742 1.5183098 -0.056913599 255
0.54698491 1.5296774 -0.084465213 255
0.62637967 1.5109062 -0.099077813 255
0.76156127 1.5128524 -0.06440796 255
1.2276422 1.544171 -0.094427958 255
1.6236523 1.515882 -0.083460681 255
1.7406695 1.5118321 -0.07498806 255
-0.18038559 1.5658405 -0.059728861 255
0.19779387 1.5542016 -0.095512517 255
0.54534853 1.5820659 -0.071818814 255
0.63908577 1.590765 -0.064005896 255
0.94028479 1.5600817 -0.09411402 255
1.0709938 1.5820596 -0.083747685 255
1.6214268 1.5768189 -0.09330304 255
1.9764533 1.5917397 -0.096785225 255
0.57849973 1.643012 -0.056659389 255
0.85466546 1.6197007 -0.071440309 255
1.2147777 1.615675 -0.05691012 255
1.3159041 1.6177856 -0.064158693 255
2.1059535 1.6327924 -0.060725905 255
1.0593352 1.667883 -0.063901395 255
1.6206841 1.6700579 -0.075646967 255
2.2773235 1.669067 -0.060733672 255
0.32458141 1.7413486 -0.082505487 255
0.54644638 1.7118796 -0.083651356 255
0.63947511 1.7084651 -0.056807492 255
0.80728662 1.7415738 -0.053029437 255
1.0515909 1.7483721 -0.071466148 255
1.472509 1.7220194 -0.098202571 255
2.114825 1.7186552 -0.085629664 255
0.24765615 1.7514312 -0.094967999 255
0.44288346 1.7562289 -0.09887743 255
0.56170946 1.7772948 -0.094789557 255
0.63731372 1.7764326 -0.071196273 255
0.76437694 1.7863717 -0.089902647 255
1.1247748 1.7651742 -0.09217795 255
1.2944649 1.7652076 -0.095803522 255
1.3870429 1.7824041 -0.080529116 255
1.4920353 1.7854242 -0.073538721 255
2.4972391 1.7744563 -0.068499893 255
0.424288 1.807235 -0.079263262 255
0.58137083 1.8379785 -0.068928622 255
0.8424651 1.8312796 -0.084916934 255
0.92649549 1.8064233 -0.080724522 255
1.1979619 1.8022236 -0.057784282 255
1.7409108 1.804729 -0.065710552 255
2.0632548 1.8240422 -0.082731836 255
2.2614143 1.8401079 -0.095646799 255
0.33722985 1.8687364 -0.090089492 255
1.0483181 1.8640435 -0.074780837 255
1.380435 1.8503755 -0.082819246 255
1.482632 1.8888007 -0.086436644 255
1.6072462 1.8796697 -0.09942764 255
1.9517155 1.8595688 -0.093940601 255
2.4903264 1.8576865 -0.076229736 255
0.31076574 1.9418322 -0.085505821 255
0.46174666 1.9102116 -0.075016335 255
0.60107344 1.9116553 -0.05021349 255
0.69977129 1.9214534 -0.056970917 255
1.1162007 1.90415 -0.08567097 255
1.1946471 1.9218444 -0.098057099 255
1.2785231 1.9378536 -0.088557594 255
1.3728272 1.9275368 -0.062638335 255
1.9940219 1.9064605 -0.094621472 255
3.4896033 1.9142233 -0.072845988 255
1.8738433 1.9626464 -0.087492138 255
2.2908874 1.9775425 -0.086258762 255
2.9571886 1.9737643 -0.069297858 255
3.2648687 1.9589305 -0.053476125 255
3.6671226 1.9541618 -0.092423454 255
0.449671 2.0012224 -0.070427366 255
0.50083709 2.0390658 -0.069721214 255
0.65256876 2.0140922 -0.085911565 255
1.4730586 2.0011182 -0.089041747 255
1.9253608 2.0265095 -0.052673306 255
2.0120618 2.0077803 -0.098435827 255
2.2170005 2.0444746 -0.057136331 255
4.1163607 2.0423856 -0.078244127 255
0.58764017 2.0548754 -0.062100202 255
0.81331301 2.0914657 -0.070938103 255
1.7175186 2.0702078 -0.070856348 255
2.0877821 2.0751476 -0.060102947 255
2.7499096 2.0950484 -0.086543247 255
0.63623953 2.114815 -0.062573574 255
0.78918928 2.1396556 -0.052561034 255
1.9210953 2.1452663 -0.061010506 255
2.274323 2.1423287 -0.069841541 255
2.4899201 2.1015644 -0.071049735 255
2.1200962 2.1617725 -0.094155654 255
2.4886017 2.1982725 -0.075882398 255
2.8037772 2.1855299 -0.086887501 255
0.77619976 2.2070627 -0.066267014 255
2.2238812 2.2329812 -0.060930807 255
2.3459499 2.2178795 -0.078816704 255
2.6439245 2.2010283 -0.070458539 255
3.0388284 2.2105875 -0.084804192 255
2.7319226 2.2780745 -0.069267243 255
3.3820691 2.2803211 -0.065198794 255
2.5488923 2.315589 -0.093790121 255
2.3418081 2.4138238 -0.056775134 255
2.8142574 2.4360914 -0.087386169 255
3.2375181 2.412019 -0.07553684 255
2.5571873 2.5079451 -0.054287408 255
3.0922561 2.5664518 -0.051270358 255
2.8119709 2.612071 -0.057180759 255
3.4616888 2.6813273 -0.056528248 255
3.8053734 2.6527772 -0.089229628 255
3.1305969 2.7521713 -0.096154049 255
3.9299996 2.8463583 -0.064441718 255
3.7729454 3.0258224 -0.063960157 255
3.9187329 3.1144226 -0.082263917 255
3.5711508 -0.5667569 -0.010715441 255
3.2171276 -0.43578279 -0.032635331 255
3.6154492 -0.44592899 -0.042309124 255
3.5853305 -0.38516507 -0.02079908 255
3.6569936 -0.35629368 -0.046483912 255
3.1426523 -0.23375306 -0.038536292 255
3.5650527 -0.18535069 -0.0067906948 255
3.7710292 -0.1811174 -0.027572896 255
2.3472402 -0.10409378 -0.020796245 255
3.1627982 -0.11748022 -0.0087934835 255
2.5752223 -0.098232508 -0.047524858 255
2.8229425 -0.064888693 -0.0029420259 255
2.5635881 -0.011262503 -0.012525555 255
3.1585019 -0.017271938 -0.031533841 255
2.3098111 0.083472461 -0.019079348 255
2.5493181 0.095210403 -0.019075319 255
1.9606472 0.10867979 -0.026460493 255
2.0927801 0.14182156 -0.010852925 255
2.3675888 0.10099965 -0.047212083 255
1.8082489 0.18427698 -0.049663741 255
1.9362812 0.19948751 -0.019050587 255
1.5279229 0.25425279 -0.015673777 255
1.9342554 0.27545628 -0.0086304154 255
-0.23516703 0.30645573 -0.0025315722 255
1.4183153 0.30603844 -0.016335383 255
2.090426 0.34628794 -0.020092748 255
2.305316 0.31760859 -0.047684845 255
1.929611 0.35071334 -0.031709615 255
2.6205153 0.37927577 -0.046626091 255
1.2304432 0.42357555 -0.010570647 255
1.3243551 0.42745733 -0.031802144 255
1.4277402 0.41250414 -0.046067692 255
1.5292515 0.42538723 -0.013660212 255
1.9000574 0.42433947 -0.016555047 255
-0.18642353 0.46406895 -0.028138716 255
1.0791547 0.4965083 -0.02430045 255
1.1527711 0.4708415 -0.025145188 255
1.665764 0.49277619 -0.04885146 255
1.7953391 0.48197326 -0.019277878 255
2.1798179 0.45870492 -0.0022486588 255
2.3768313 0.48542234 -0.012347971 255
-0.19165561 0.53746796 -0.035564683 255
1.0171219 0.51412565 -0.047567789 255
1.2331951 0.51580542 -0.022284431 255
1.3150016 0.52859789 -0.0029988629 255
2.00576 0.53822863 -0.01297877 255
1.227316 0.57851273 -0.02202498 255
-0.19220527 0.614048 -0.029939944 255
0.81347561 0.61817914 -0.037716437 255
1.8564793 0.60915822 -0.031365924 255
-0.19756839 0.67933357 -0.040142413 255
0.62934035 0.67481107 -0.031516716 255
0.94639885 0.65721858 -0.023658082 255
1.0823689 0.69395226 -0.028041244 255
1.1509981 0.68088812 -0.00016982229 255
1.253642 0.68257964 -0.029012376 255
1.5802498 0.69188035 -0.033136413 255
1.683704 0.66907018 -0.0020164701 255
1.6795343 0.73236465 -0.024157699 255
0.51578057 0.79695219 -0.011440371 255
0.64861649 0.79912758 -0.0046175583 255
0.73115706 0.76650655 -0.013234444 255
0.87188649 0.78643215 -0.021487359 255
1.1846441 0.76697832 -0.0044253697 255
1.556326 0.77366239 -0.0055575268 255
-0.14206953 0.80916107 -0.0057387045 255
0.73044997 0.84536356 -0.018834077 255
1.1105213 0.81214964 -0.012478158 255
1.1811358 0.83720309 -0.048925363 255
1.4602315 0.80610228 -0.0097934902 255
3.1784842 0.84403068 -0.00021706693 255
-0.13338481 0.88047791 -0.042294685 255
-0.044552613 0.85555226 -0.022466583 255
0.30246603 0.8699851 -0.042988013 255
1.0433592 0.85252565 -0.031521711 255
1.1003903 0.89028287 -0.042998463 255
1.2285937 0.86138272 -0.0048197857 255
1.7776297 0.86591989 -0.047494169 255
-0.17092741 0.94861329 -0.01036543 255
0.066681206 0.93544197 -0.041840315 255
0.89895082 0.90386569 -0.043462418 255
1.0353329 0.92641991 -0.033787914 255
1.5248541 0.90149665 -0.0031705573 255
2.5707519 0.92146897 -0.028262816 255
2.8446555 0.90046811 -2.9084249e-05 255
-0.11608683 0.95795369 -0.046452194 255
0.11325699 0.95753318 -0.014031559 255
0.1980119 0.97278816 -0.0082860449 255
0.32395041 0.96251345 -0.015729494 255
2.8375804 0.98867708 -0.011819279 255
-0.1288182 1.0233152 -0.027599668 255
0.76839072 1.0148293 -0.034301791 255
1.4476471 1.0308583 -0.015261835 255
2.3327699 1.0044752 -0.046602309 255
-0.12616204 1.0901333 -0.03841481 255
0.36793652 1.0963911 -0.0095686223 255
0.46599212 1.0619221 -0.0034639251 255
1.2614336 1.0816525 -0.015558468 255
1.3460298 1.0761613 -0.00077460107 255
-0.0337287 1.1374718 -0.0088857757 255
0.15696654 1.1439375 -0.036276262 255
0.97675866 1.1251653 -0.0061436668 255
1.1115546 1.1122195 -0.034048934 255
2.1224172 1.1073718 -0.011195114 255
-0.12727739 1.1781063 -0.037902929 255
0.80014163 1.1833985 -0.032196779 255
0.92511392 1.150108 -0.0029594726 255
1.0264186 1.1924973 -0.034233291 255
-0.12629406 1.2463964 -0.016675482 255
-0.0028183348 1.2282411 -0.00063034525 255
0.50083238 1.2270569 -0.039626244 255
0.70045608 1.2003982 -0.01062421 255
1.638446 1.2140179 -0.028023815 255
-0.36831459 1.2811952 -0.031369787 255
0.59479642 1.2564484 -0.02971958 255
0.80720985 1.2746924 -0.0088447174 255
1.090264 1.2831759 -0.017277775 255
1.3336046 1.2640656 -0.013472544 255
-0.0088010859 1.3120736 -0.02883983 255
0.070877425 1.3438514 -0.020172317 255
0.23768957 1.3045501 -0.044194635 255
0.30067933 1.3013375 -0.034121476 255
0.52496171 1.3078241 -0.037630435 255
0.74568397 1.3188041 -0.032963149 255
1.022735 1.3434567 -0.011217729 255
-0.14203764 1.3796015 -0.027447825 255
0.20506629 1.3591627 -0.017203325 255
0.66214818 1.3873149 -0.021425499 255
0.79295939 1.3989731 -0.0017265882 255
0.85587734 1.3732159 -0.039951663 255
1.1609607 1.3645786 -0.024046682 255
-0.2390624 1.4073589 -0.038371928 255
-0.10134322 1.4464643 -0.041312572 255
-0.021304557 1.4058558 -0.012847301 255
0.067189388 1.4128896 -1.6326288e-05 255
0.11683499 1.4235985 -0.00080627087 255
0.72324133 1.4069026 -0.034945313 255
1.2316281 1.402437 -0.018979212 255
1.6407675 1.4190757 -0.041423693 255
0.18428691 1.4510496 -0.0023867777 255
0.41471434 1.470385 -0.022772828 255
0.49195698 1.4983363 -0.045304976 255
0.60427225 1.496565 -0.046615425 255
1.4772776 1.454179 -0.026687881 255
1.6341492 1.4767935 -0.020302026 255
0.084656425 1.5245762 -0.039939158 255
0.67609423 1.525741 -0.039450839 255
0.81332392 1.5385571 -0.037157238 255
0.93611258 1.517565 -0.019427387 255
1.8092446 1.5280488 -0.036728237 255
-0.24729151 1.5837765 -0.00071807712 255
-0.052493423 1.5778462 -0.023748284 255
0.24976856 1.5940262 -0.038310513 255
0.34173048 1.5927006 -0.035523608 255
0.55923742 1.5782549 -0.017000575 255
0.6297794 1.5849751 -0.00067832018 255
0.89379239 1.5741398 -0.032048304 255
0.98197913 1.5740669 -0.040109295 255
1.1326795 1.5913149 -0.030658122 255
1.5092983 1.5677328 -0.041562036 255
1.938692 1.5520673 -0.027755553 255
0.064779125 1.6030124 -0.042100567 255
0.17030837 1.6304898 -0.016287494 255
0.35721993 1.6473889 -0.039434358 255
0.68083674 1.6386608 -0.012293135 255
0.74281925 1.6355269 -0.037618324 255
0.92986298 1.6374608 -0.036972772 255
0.98743802 1.6400367 -0.021776943 255
1.3987982 1.610759 -0.036197837 255
-0.037703384 1.651559 -0.0090519954 255
0.033707421 1.6829734 -0.029419573 255
0.22146723 1.6837431 -0.0093987398 255
0.43241504 1.6733478 -0.0028871987 255
0.51338559 1.6510862 -0.020761548 255
0.56362325 1.6999248 -0.0011160296 255
0.81214666 1.68467 -0.03965544 255
1.1546469 1.6833822 -0.021654041 255
1.4991608 1.6804093 -0.01636726 255
1.7488227 1.6964024 -0.039983764 255
-0.11143667 1.7104447 -0.023880886 255
0.13179873 1.7231082 -0.025140379 255
0.41304636 1.7324345 -0.026209019 255
0.4758113 1.7033685 -0.034394957 255
0.73988068 1.7101868 -0.035386484 255
0.89372712 1.7172893 -0.020007668 255
0.99261934 1.7303556 -0.036421869 255
1.069464 1.745631 -0.0017896594 255
1.2055287 1.7194494 -0.0088959141 255
1.2995589 1.7349674 -0.0050049527 255
2.0676498 1.7345577 -0.030452037 255
2.4653459 1.7169002 -0.048091542 255
-0.054272082 1.7515159 -0.032988846 255
0.037495095 1.7530506 -0.025080349 255
0.33672652 1.7915829 -0.0038862275 255
0.85130346 1.7820468 -0.0067288205 255
0.93601906 1.7738744 -0.0085124793 255
1.1496454 1.7600238 -0.010602717 255
2.2660737 1.7501155 -0.046521656 255
0.10179869 1.8132781 -0.021774981 255
0.16240172 1.8391463 -0.024731413 255
0.72057533 1.8068374 -0.017205663 255
0.97846794 1.8487971 -0.013357445 255
1.2842816 1.8344705 -0.025969556 255
1.3738922 1.8403679 -0.013130653 255
1.4775617 1.825635 -0.024411725 255
1.6061512 1.8100687 -0.04654048 255
2.257257 1.8365564 -0.030792637 255
2.9308188 1.8115151 -0.005817608 255
0.22911125 1.8572189 -0.00075471704 255
0.33980578 1.8548652 -0.0063797454 255
0.52484745 1.8755057 -0.0070814765 255
1.2999693 1.8923056 -0.018227944 255
1.4770658 1.8779775 -0.016578421 255
1.5947845 1.8959213 -0.0048079053 255
1.7238227 1.8739204 -0.0011611972 255
2.253499 1.888164 -0.043235276 255
2.4829731 1.8995723 -0.023947857 255
0.2382609 1.930887 -0.027990235 255
0.29732251 1.9054538 -0.029076813 255
0.36230603 1.9396081 -0.033067591 255
1.2154326 1.9359671 -0.011516526 255
2.7531404 1.9433495 -0.025518093 255
0.74039328 1.9910955 -0.044630121 255
1.1407039 1.9546238 -0.012568967 255
3.4802477 1.9812455 -0.024133591 255
0.64971215 2.0127859 -0.021976057 255
0.79970098 2.006722 -0.012749984 255
0.88622129 2.0218706 -0.042627066 255
0.95767945 2.0397389 -0.048620719 255
1.0313243 2.0380311 -0.037293553 255
1.482951 2.0338593 -0.013892408 255
1.5829612 2.0026209 -0.030590486 255
1.6478938 2.0156085 -0.024743382 255
3.6216397 2.0148618 -0.021594729 255
0.6244325 2.0984964 -0.011197225 255
0.88476366 2.0996134 -0.016216418 255
1.7667637 2.0852482 -0.027392155 255
1.0968363 2.123677 -0.033977501 255
1.1772137 2.1230288 -0.022710444 255
1.5767406 2.1012816 -0.0133504 255
1.8364018 2.104809 -0.0014887773 255
0.7173425 2.1540101 -0.049572375 255
1.0325083 2.1545894 -0.020097153 255
1.0878501 2.1766491 -0.029055981 255
1.6806252 2.156945 -0.0014819345 255
2.0445554 2.1675425 -0.013532116 255
0.83537209 2.213901 -0.043388542 255
1.1782163 2.2263141 -0.0079442682 255
1.2496811 2.2004116 -0.010904871 255
2.0558422 2.2258444 -0.02951701 255
0.90973431 2.2599416 -0.027645694 255
1.003268 2.293622 -0.039682664 255
2.0531194 2.2844691 -0.044424392 255
2.4611909 2.2785776 -0.046106998 255
2.7062166 2.3395531 -0.017339222 255
1.0330095 2.3520355 -0.041401614 255
1.1464009 2.3873501 -0.019737365 255
2.22335 2.3658447 -0.047607444 255
1.1434385 2.4388332 -0.02812024 255
1.2287593 2.4211833 -0.020423917 255
1.3230411 2.4364674 -0.00082696421 255
2.4015393 2.4520833 -0.022520877 255
2.5012436 2.4795589 -0.030473432 255
2.8740196 2.4778757 -0.010934277 255
3.0057135 2.4542277 -0.040287111 255
1.2224211 2.5124037 -0.020237334 255
3.3610678 2.5114381 -0.047385756 255
3.7944217 2.5411508 -0.04834361 255
2.6198449 2.5779803 -0.018276764 255
2.9913945 2.5945706 -0.025808319 255
3.3563774 2.609139 -0.04970374 255
1.6522257 2.7488525 -0.0042447597 255
2.893769 2.702244 -0.043625753 255
3.3319142 2.733423 -0.0092372028 255
3.1927731 2.8800464 -0.034846403 255
3.4602783 2.9181731 -0.043184564 255
3.5446498 3.085948 -0.011630866 255
3.8897245 3.130178 -0.029808529 255
4.0090532 3.2625682 -0.033394985 255
3.6253331 -0.6685186 0.0089412807 255
2.8455849 -0.35786232 0.048603281 255
3.5326793 -0.35176787 0.039465252 255
3.1705415 -0.33813888 0.045141272 255
3.5943015 -0.29668367 0.016445169 255
2.5666664 -0.22232339 0.026988586 255
2.8446069 -0.22162712 0.049676105 255
3.1999876 -0.23349369 0.044356316 255
3.5586863 -0.21267933 0.045544442 255
2.5672402 -0.15582529 0.01279469 255
3.2056372 -0.17789187 0.016231006 255
2.8128839 -0.14882997 0.0022162623 255
2.8698161 -0.1362976 0.024053453 255
-0.30430302 -0.070873782 0.045132153 255
2.3247967 -0.037653927 0.01550524 255
3.1473625 -0.035833903 0.035502221 255
2.1289046 0.021899236 0.010899602 255
2.2833028 0.050579667 0.031330097 255
2.5243356 0.060520891 0.048702396 255
2.8271224 0.077209033 0.016479796 255
3.030735 0.094316348 0.018384615 255
2.1192672 0.10268037 0.03608511 255
2.2954528 0.17518389 0.0042421152 255
2.9071741 0.17037502 0.040274382 255
3.237272 0.1797471 0.0088751931 255
2.529948 0.20236741 0.019035766 255
2.091228 0.251241 0.020158023 255
2.2958696 0.26398575 0.030956419 255
1.4036883 0.342094 0.039522987 255
1.6286989 0.34606037 0.0022093831 255
1.7756557 0.31630328 0.037064619 255
1.9165356 0.32155079 0.04460502 255
-0.27649862 0.39297852 0.0057376768 255
2.3839409 0.38227388 0.01829624 255
-0.21350539 0.40259102 0.047949091 255
-0.13365382 0.42947537 0.035817116 255
1.3051327 0.40186867 0.034312651 255
-0.27227631 0.4907622 0.02542758 255
1.4114661 0.45163807 0.015857672 255
1.5209416 0.4992519 0.039764911 255
-0.12945053 0.51239198 0.018354937 255
1.2198364 0.53932667 0.042117961 255
1.4064279 0.50531149 0.045704547 255
1.6670964 0.51274037 0.017155349 255
-0.2641353 0.5564208 0.049152792 255
-0.13496628 0.59623814 0.045679118 255
1.1410784 0.59345388 0.035453863 255
1.557394 0.57242942 0.040500961 255
1.6533736 0.56960171 0.017727867 255
0.99793655 0.63375181 0.030974587 255
1.0698924 0.61141032 0.021757364 255
1.5634748 0.62897873 0.042692643 255
-0.13420281 0.66967756 0.035426758 255
0.65351576 0.67837352 0.039612226 255
0.88603735 0.69367069 0.0087884627 255
1.0737109 0.69671059 0.032857697 255
-0.11914831 0.74971581 0.026887015 255
0.61079025 0.73888361 0.0073707937 255
0.80401582 0.74561828 0.0019499543 255
1.0064162 0.72682136 0.045242894 255
-0.23153712 0.79049367 0.043549187 255
0.7253226 0.75949126 0.044572797 255
0.94762242 0.75079387 0.02087108 255
1.2727677 0.77643883 0.024264378 255
1.7753539 0.78292781 0.029042663 255
3.582232 0.78599364 0.047191247 255
0.032306757 0.82666224 0.0021262262 255
0.1070703 0.8036648 0.010413203 255
0.81378818 0.80987191 0.037899215 255
1.3543952 0.8104316 0.010218807 255
1.65881 0.80059969 0.013771738 255
-0.095524631 0.85502714 0.009397136 255
0.24503893 0.87493718 0.029233167 255
0.43416688 0.86418611 0.017802143 255
0.53166467 0.85149825 0.034043137 255
0.95250994 0.87437308 0.017910426 255
-0.30886048 0.94305021 0.031101298 255
-0.22804624 0.94088823 0.027699711 255
-0.15267238 0.90549302 0.047396846 255
-0.073789611 0.94076836 0.0024079713 255
0.0033852479 0.93726254 0.049050871 255
0.91694957 0.93764353 0.032824263 255
0.97160333 0.93046516 0.0042400043 255
1.0530642 0.91607392 0.034558978 255
1.8073601 0.94177753 0.048310634 255
3.1688535 0.93492723 0.021550611 255
0.38286045 0.97140563 0.01599816 255
0.48933455 0.96656996 0.030861123 255
0.62186104 0.97243845 1.7065069e-05 255
0.68895268 0.96679527 0.0034115035 255
1.1026582 0.98627901 0.033210423 255
1.4410043 0.98822427 0.049273979 255
-0.20600978 1.0178792 0.024476858 255
-0.067749217 1.0263113 0.016453901 255
0.012160551 1.0071871 0.0240626 255
0.53673333 1.0164651 0.0058389301 255
0.65564615 1.0378389 0.020453036 255
0.73079187 1.0258344 0.04441892 255
1.2331218 1.014421 0.041944329 255
2.5589178 1.0287912 0.0041294522 255
-0.28671563 1.0726465 0.016818263 255
-0.16809388 1.0916418 0.021249106 255
0.13099794 1.0795331 0.033853661 255
0.19587342 1.0815418 0.048621751 255
1.0882459 1.0608449 0.047511727 255
1.1786766 1.0847932 0.026587501 255
2.3210447 1.0739385 0.033261407 255
-0.22423448 1.10258 0.0035236918 255
-0.090476736 1.116899 0.020955298 255
0.1661443 1.137805 0.040198676 255
0.28311318 1.1268693 0.020329533 255
0.57132602 1.1093245 0.018830642 255
0.66550791 1.1047623 0.030768093 255
0.74837351 1.1039201 0.02456665 255
0.85623443 1.1485237 0.010203266 255
1.0786604 1.1348959 0.017130902 255
1.4269834 1.1344556 0.043426853 255
1.7929872 1.1338882 0.049084708 255
1.9478947 1.1195656 0.0065203612 255
-0.17156056 1.1597531 0.012112578 255
0.10958661 1.1848178 0.049679194 255
0.36387327 1.1717277 0.018031595 255
1.7888038 1.1897417 0.033917934 255
1.940181 1.1736284 0.048185281 255
-0.1992574 1.2301769 0.042642348 255
0.067779802 1.2464695 0.0041449913 255
0.48696628 1.2101238 0.042345986 255
0.89380962 1.2315892 0.016433585 255
0.97404873 1.2180951 0.021078715 255
1.0268568 1.2404429 0.036634371 255
1.0939531 1.2302816 0.02474316 255
1.5327588 1.2377694 0.029760996 255
-0.23264554 1.2835606 0.0035399625 255
0.2580018 1.2786131 0.036621306 255
0.68415487 1.2840126 0.021931473 255
1.4265854 1.2651675 0.011127098 255
-0.12507237 1.3432426 0.037120502 255
0.14267221 1.3046125 0.027798412 255
0.35102674 1.3429942 0.015250495 255
0.4535509 1.3306329 0.02930128 255
0.9425739 1.3455393 0.010942241 255
1.0865946 1.3280183 0.040275715 255
1.1593146 1.3044134 0.0069460687 255
1.3080837 1.3481246 0.012608038 255
1.6351358 1.3419662 0.014571952 255
1.9187002 1.3430829 0.0062743779 255
2.2881103 1.3396664 0.025510551 255
0.26238513 1.3796848 0.0046957098 255
0.44800165 1.3978962 0.042868212 255
0.54399598 1.3766847 0.03602168 255
0.62405968 1.3631806 0.032464687 255
0.85086071 1.3895401 0.033919834 255
1.1568351 1.3661075 0.033779431 255
1.4322867 1.3976895 0.016430147 255
1.5198612 1.3994064 0.023526266 255
1.7741057 1.357928 0.023729661 255
2.0966496 1.3733575 0.01746374 255
2.2930787 1.3944063 0.023201182 255
2.5262837 1.3645942 0.041787706 255
-0.32679448 1.4125665 0.0064998595 255
-0.12054038 1.4377522 0.02249906 255
0.33957034 1.4153719 0.024593811 255
0.52205086 1.4271476 0.016940463 255
0.61503297 1.4404362 0.012036002 255
0.89986169 1.4155591 0.028732643 255
1.0156574 1.4125297 0.0343334 255
1.0838481 1.4027009 0.0082938839 255
1.2168462 1.4335394 0.036463957 255
1.6353602 1.4238791 0.030716866 255
1.9216639 1.4148184 0.0039346558 255
0.34531638 1.4813298 0.0063647213 255
0.43402407 1.4675282 0.038874172 255
0.50781959 1.4804258 0.011974022 255
0.67890006 1.487497 0.028461901 255
0.87218934 1.4750351 0.023528216 255
0.94948387 1.4689784 0.046659466 255
1.0303961 1.4845941 0.045115937 255
1.1249595 1.4744961 0.010999811 255
1.3090061 1.4595412 0.047821403 255
1.7650869 1.4625512 0.037090514 255
1.914941 1.4623351 0.039769404 255
-0.10800026 1.5473173 0.016385818 255
0.053719155 1.53056 0.048155401 255
0.14645424 1.513826 0.028120812 255
0.26258525 1.504867 0.021334762 255
1.0656217 1.5455458 0.034294005 255
1.1981615 1.5260309 0.045582589 255
1.629981 1.5364548 0.041439179 255
-0.32655105 1.5674855 0.0029564423 255
0.3841019 1.5568137 0.048632413 255
0.45671195 1.5857284 0.015169452 255
0.67673403 1.5641154 0.040883251 255
0.81753808 1.5699883 0.031486582 255
0.99493247 1.5900453 0.038855206 255
1.1356995 1.5850912 0.049036406 255
1.3971816 1.5673611 0.042592887 255
1.502158 1.5891881 0.029145515 255
0.28077102 1.649909 0.018252963 255
0.73523945 1.6470397 0.043671526 255
0.93582296 1.6026486 0.048220776 255
1.3909335 1.6357807 0.034638647 255
1.6151975 1.6399027 0.033385679 255
1.0468087 1.6547636 0.01802906 255
0.27133602 1.7353052 0.040852796 255
0.34366447 1.7097838 0.032064248 255
0.49492726 1.7052039 0.030672498 255
0.82320338 1.7116783 0.035052247 255
1.4920328 1.7325059 0.0058812671 255
1.743331 1.7049934 0.028492697 255
-0.010382015 1.7731061 0.045788415 255
0.24092764 1.7850848 0.0063239997 255
0.49495843 1.7888031 0.0075705703 255
0.62008989 1.7594308 0.0053430293 255
1.2464718 1.793467 0.034460846 255
1.3816569 1.7574338 0.024278447 255
1.6039424 1.7557294 0.0076605449 255
1.7220261 1.7881328 0.022027222 255
0.17692269 1.8038362 0.040735923 255
0.6334306 1.827384 0.0032004379 255
0.78163069 1.8349218 0.015502451 255
0.46360111 1.8710889 0.016635414 255
0.62104648 1.8936356 0.032758024 255
0.71479207 1.8755807 0.017121647 255
1.0232941 1.8950285 0.0085602468 255
1.11853 1.8843395 0.03514991 255
3.0859921 1.8655715 0.016109833 255
0.45457202 1.9488878 0.017265845 255
0.7509231 1.9290332 0.028618379 255
0.87177235 1.9226313 0.019778138 255
1.032254 1.9479239 0.049307622 255
1.6963294 1.9416732 0.0023540317 255
2.4116414 1.9472017 0.0015432442 255
0.94973606 1.9640144 0.038828805 255
1.0175571 1.9976606 0.038054194 255
1.1973038 1.9892211 0.0043499297 255
1.2893957 1.988008 0.0059014694 255
1.3609685 1.9610167 0.028718896 255
2.0129833 1.963256 0.015409682 255
2.4999425 1.9763002 0.041649632 255
0.51909304 2.0147271 0.024285071 255
0.58241957 2.0477421 0.027201941 255
0.71612751 2.0393779 0.03741385 255
0.85112339 2.0011234 0.017251303 255
0.9543438 2.0453384 0.014187662 255
1.0910064 2.0377698 0.025140718 255
1.8985598 2.0451512 0.016636075 255
2.185353 2.0242803 0.033185959 255
1.01232 2.0635567 0.024735687 255
1.1672059 2.0805249 0.033063333 255
1.3484763 2.0853422 0.034172088 255
1.6576513 2.0910964 0.032073975 255
0.68745279 2.1463139 0.024351615 255
1.0217949 2.1378477 0.0412931 255
1.0887895 2.1172299 0.04314623 255
1.1518267 2.1459205 0.046919227 255
1.2657161 2.1359794 0.037614044 255
2.0504239 2.1042881 0.023563994 255
2.2299802 2.1366177 0.034954377 255
0.73573118 2.1695788 0.029529938 255
1.1002045 2.1827214 0.043345429 255
1.8120146 2.1987631 0.0047617289 255
2.2735481 2.1859484 0.027269574 255
2.4425206 2.1997323 0.032008976 255
1.2529742 2.2602196 0.0034772672 255
1.6561491 2.2680469 0.027105333 255
2.1898723 2.2816532 0.012511698 255
2.3455532 2.2744279 0.032732427 255
2.4380691 2.2785201 0.031727869 255
2.489152 2.2840626 0.021675641 255
2.6849148 2.2659874 0.042644974 255
2.9113092 2.2765641 0.048200883 255
1.7581494 2.3322837 0.032165572 255
1.9667693 2.3009648 0.043007884 255
2.0977104 2.3891928 0.041178208 255
2.2537625 2.3502345 0.045829974 255
2.3029854 2.3741004 0.022297807 255
2.3721092 2.3631554 0.044726469 255
3.2568395 2.3825731 0.0384744 255
1.6762637 2.4433784 0.043341141 255
3.0928581 2.4499321 0.01915963 255
2.6045318 2.4841158 0.01854354 255
1.2968795 2.5241613 0.0028259824 255
1.4219841 2.5076542 0.005475373 255
2.9678876 2.5349507 0.037455548 255
1.4095272 2.5823903 0.002587945 255
3.2054067 2.5944672 0.0038197068 255
3.4435279 2.6111739 0.033197444 255
1.5250424 2.6794364 0.002059466 255
1.6578377 2.665071 0.0229923 255
1.8046479 2.698499 0.035843294 255
2.8472638 2.7082508 0.03515837 255
3.1681304 2.7146342 0.026037652 255
3.4458969 2.710381 0.014255011 255
1.8005582 2.7507291 0.027420109 255
3.153873 2.7949626 0.041281365 255
3.8935211 2.7805352 0.01401448 255
1.965693 2.8193517 0.041027546 255
2.3982818 2.8157935 0.015790781 255
3.15644 2.8828552 0.026914462 255
3.2278533 2.851932 0.044195052 255
3.8870552 2.9228561 0.0054670121 255
2.144922 3.0335417 0.045670591 255
3.5324588 3.0182481 0.016891075 255
3.514677 3.080996 0.040148579 255
3.6150901 -0.5217945 0.073812269 255
3.5010219 -0.49336013 0.085409507 255
3.1582654 -0.40328854 0.097161777 255
3.5434525 -0.44748214 0.056755524 255
2.8468556 -0.27998734 0.070478432 255
3.1353192 -0.23868635 0.057638492 255
2.834094 -0.16831559 0.092724957 255
3.1600215 -0.15055738 0.085242763 255
-0.17372774 -0.10633087 0.094345704 255
2.7916393 -0.10488273 0.067675322 255
-0.26566976 -0.06912034 0.089129314 255
-0.1688358 -0.055708583 0.083032951 255
2.3081708 -0.062144928 0.097036831 255
2.5300989 -0.088670269 0.073211752 255
-0.23746341 -0.025590172 0.061235223 255
-0.15060364 0.01796424 0.096185207 255
-0.085577369 0.024313321 0.064808466 255
2.5183134 0.029742366 0.09944582 255
2.8041947 0.0068598259 0.051743522 255
3.2475734 0.030750616 0.052722037 255
1.7688671 0.18057178 0.054744992 255
2.0890985 0.19667278 0.07133311 255
2.2782106 0.15125379 0.080998406 255
2.5318632 0.15156057 0.05257437 255
-0.38710034 0.21895875 0.077636853 255
1.9171743 0.24892262 0.079211541 255
1.6251603 0.26588249 0.052676521 255
-0.38717392 0.34225333 0.057970263 255
1.5018141 0.32081941 0.061526701 255
1.6103271 0.34644678 0.075777099 255
-0.14489093 0.35732689 0.050764922 255
1.3901691 0.39179349 0.059882931 255
1.7694135 0.39567623 0.063266687 255
1.9181813 0.37600571 0.080629542 255
1.9668374 0.39980271 0.054960359 255
-0.39499971 0.41738933 0.064169534 255
1.2062582 0.44754267 0.063115716 255
1.2889299 0.40485743 0.085773014 255
1.6358587 0.42437291 0.053301897 255
-0.38842165 0.48345849 0.070375085 255
-0.2122989 0.45226246 0.096856631 255
1.300938 0.47511369 0.069170669 255
0.82895613 0.54256672 0.08992064 255
1.3006788 0.5402323 0.061495468 255
-0.38094541 0.5904786 0.074620448 255
0.75248861 0.5671792 0.078465775 255
0.9186244 0.57047874 0.097685449 255
0.97613084 0.5758028 0.099770613 255
-0.26208785 0.62686515 0.052049212 255
0.66879594 0.60133862 0.052540112 255
0.73542428 0.62556487 0.069015138 255
1.6866564 0.60095423 0.076557331 255
-0.36970922 0.67006677 0.094441608 255
-0.27382341 0.69534445 0.062543668 255
0.84550613 0.68755776 0.066471003 255
0.92594832 0.67675483 0.056130502 255
1.1431128 0.67457265 0.067678928 255
1.2521278 0.69963992 0.064201549 255
1.5658135 0.68465883 0.082721107 255
-0.366034 0.74509561 0.097755462 255
0.3049902 0.71854115 0.077108823 255
0.77360755 0.70613384 0.08485496 255
1.4616324 0.71524161 0.08324749 255
-0.15491667 0.7649281 0.083009273 255
0.57246846 0.76565647 0.07288219 255
1.2630903 0.77837932 0.09390185 255
1.3613701 0.75225401 0.062815934 255
-0.36807647 0.80786461 0.070100211 255
-0.27101189 0.84663218 0.085499823 255
-0.17694274 0.84268272 0.097611994 255
-0.096006215 0.82694966 0.087934002 255
0.64394379 0.80363327 0.055410307 255
1.0422516 0.83422107 0.052095577 255
1.1054438 0.82019258 0.085267119 255
1.1749289 0.81785911 0.085992828 255
1.3408101 0.80960178 0.095518179 255
1.4588225 0.81049353 0.089760117 255
-0.35349104 0.88743556 0.096703283 255
0.15766664 0.85253638 0.077439278 255
0.22638333 0.86873865 0.097620919 255
0.96297079 0.89739907 0.081406333 255
1.6331657 0.87999302 0.080398172 255
1.76502 0.86236697 0.070936941 255
3.1684792 0.89817238 0.074618399 255
0.30994001 0.9299351 0.051772308 255
0.86636728 0.92641872 0.073213927 255
-0.30203933 0.99582875 0.066416658 255
0.11488643 0.98634779 0.071731731 255
0.57782382 0.97667527 0.059610564 255
0.77968282 0.95303619 0.064578183 255
0.87014198 0.98004013 0.091214053 255
1.3146962 0.9907636 0.05828191 255
1.5242108 0.9666602 0.062406633 255
1.6444743 0.96263343 0.057237972 255
1.8033335 0.99540347 0.078638181 255
2.8343799 0.9557426 0.07725282 255
-0.14023812 1.0029993 0.073008433 255
0.18175727 1.0002728 0.05495457 255
0.35798368 1.018847 0.090998434 255
0.43827105 1.0386742 0.089069039 255
0.8165077 1.0269502 0.05820841 255
0.92186284 1.0174063 0.077940911 255
1.4424872 1.0483875 0.067384526 255
1.550055 1.0267023 0.051696531 255
2.5545411 1.0100932 0.091811597 255
-0.33845595 1.0520753 0.060058616 255
-0.02072777 1.0669408 0.094726063 255
0.038586672 1.0934174 0.089678146 255
0.51467454 1.0668476 0.071112975 255
0.58132958 1.0509641 0.074635625 255
1.2591813 1.0807006 0.052461058 255
1.3447028 1.0550449 0.056145865 255
1.795665 1.0644143 0.092632458 255
1.9475836 1.0545721 0.09523987 255
2.5475118 1.0849062 0.096710682 255
-0.33925048 1.1436765 0.054284517 255
-0.25229388 1.1074396 0.087339796 255
0.27668694 1.1099693 0.071632907 255
0.34517589 1.1198924 0.087163724 255
0.42145485 1.1280813 0.085020147 255
0.94755632 1.1110551 0.062473148 255
1.5356951 1.1293403 0.071159787 255
1.6538287 1.1407272 0.058362916 255
1.9387219 1.128975 0.095676899 255
2.1151755 1.1359364 0.056744814 255
-0.10940345 1.1971831 0.062003788 255
0.23398472 1.175283 0.063863494 255
0.29835519 1.1813788 0.075424276 255
0.36269197 1.1934627 0.095098421 255
0.54998302 1.1778773 0.076924719 255
0.609101 1.181702 0.082925238 255
0.70550966 1.157828 0.082690597 255
1.2455775 1.1790048 0.063445263 255
1.3329587 1.1827679 0.070547648 255
1.5348662 1.1839106 0.085417889 255
-0.33003992 1.2377318 0.055372264 255
-0.25295401 1.2015048 0.055627346 255
-0.034147795 1.2403612 0.085705407 255
0.18071462 1.2323359 0.062121931 255
0.30925435 1.2456723 0.079677396 255
0.57684374 1.2493538 0.082934096 255
0.6842826 1.2134818 0.098492399 255
1.1666003 1.2083036 0.052720509 255
1.6393219 1.2254244 0.067262851 255
0.065533891 1.2793353 0.077224091 255
0.37161526 1.2867165 0.067614079 255
0.47889498 1.2705114 0.068361498 255
1.2233053 1.272966 0.05468427 255
1.3248328 1.2762141 0.077052593 255
1.4194187 1.2585694 0.086034343 255
2.2803214 1.2790338 0.07907819 255
2.5107923 1.2777429 0.094114304 255
-0.24082628 1.3132647 0.056132652 255
-0.032791071 1.3216426 0.09176755 255
0.21166705 1.341998 0.082389504 255
0.3155362 1.3421042 0.084245726 255
0.54712641 1.3405083 0.086442806 255
0.78338176 1.3209114 0.080055393 255
0.87517512 1.3250364 0.099122606 255
1.160464 1.3044149 0.061137583 255
1.2359341 1.3382369 0.057997555 255
1.404729 1.3192677 0.090617038 255
1.8854659 1.3225955 0.08924298 255
3.1284032 1.3466995 0.074069932 255
-0.30447131 1.3538827 0.065825984 255
-0.14780764 1.3854878 0.090207539 255
0.027479384 1.3599291 0.076163866 255
1.0189663 1.3575157 0.057675589 255
2.0366666 1.3722712 0.087242663 255
-0.25400299 1.4000356 0.071268648 255
0.20312697 1.4292552 0.070619784 255
0.5025124 1.410748 0.083846122 255
0.60674691 1.4399465 0.09625075 255
0.84154546 1.4485023 0.080087394 255
2.2213488 1.4307704 0.061962485 255
-0.2290528 1.460595 0.050338164 255
0.76947582 1.4630531 0.057186075 255
0.89220119 1.4610419 0.086731799 255
2.0845258 1.4648035 0.074651755 255
2.2823136 1.4641813 0.088757835 255
2.4040773 1.4658786 0.085099079 255
-0.21553621 1.5357482 0.065250784 255
-0.041898873 1.528959 0.059800129 255
0.52782679 1.5203193 0.077669077 255
1.1386309 1.5058346 0.062189024 255
1.4090248 1.5159574 0.067604326 255
1.5172315 1.5104088 0.062073354 255
2.634563 1.5154632 0.077188887 255
-0.048233282 1.5947956 0.062008955 255
0.58234763 1.5665145 0.099443719 255
0.66355598 1.5596027 0.099728324 255
1.206532 1.5922036 0.052103985 255
1.2923288 1.5934447 0.055234749 255
1.748162 1.5812687 0.060391128 255
2.0321658 1.5515299 0.074583203 255
0.26378977 1.6236377 0.089101687 255
0.3510581 1.6270459 0.089692317 255
0.4349139 1.6104431 0.089551874 255
0.51834458 1.6256551 0.094061337 255
0.64065868 1.6305473 0.061556663 255
0.84653026 1.6316504 0.051542431 255
1.1132183 1.6370572 0.091007397 255
1.7350132 1.6405673 0.081050411 255
2.3903015 1.6314243 0.08984255 255
0.7032811 1.6519189 0.094485782 255
0.98554075 1.6809855 0.06692294 255
1.4898539 1.6645997 0.052189268 255
1.5544324 1.6725694 0.078724973 255
2.0167482 1.6688269 0.087611035 255
2.6135745 1.6810675 0.094254658 255
-0.10522682 1.7182512 0.05080685 255
0.10185793 1.7206466 0.0719238 255
0.15889236 1.7121286 0.079956524 255
0.44052458 1.7463431 0.064395092 255
0.5180307 1.716823 0.091319218 255
0.59597027 1.7475967 0.077719569 255
1.0501038 1.7014749 0.066876605 255
1.1195755 1.7198584 0.062499285 255
1.1979188 1.7089753 0.072161853 255
1.6364882 1.7120076 0.095988527 255
2.1981418 1.7031499 0.070697613 255
0.071991749 1.7928649 0.062105849 255
0.71061325 1.7587593 0.056403667 255
0.79689425 1.7882273 0.068538152 255
