<?xml version="1.0"?>
<opencv_storage>
<gps_time_stamp>309190</gps_time_stamp>
<gps_x>-1.2419030189514160e+001</gps_x>
<gps_y>1.0963334083557129e+001</gps_y>
<gps_z>-2.0315160751342773e+000</gps_z>
<image_time_stamp>300057</image_time_stamp>
<depth type_id="opencv-matrix">
  <rows>80</rows>
  <cols>320</cols>
  <dt>s</dt>
  <data>
    0 0 0 0 0 0 0 0 0 0 0 0 0 0 0 0 0 0 0 0 0 0 0 0 0 0 0 0 0 0 0 0 0 0 0 0 0 0 0 0 0 0 0 0 0 0 0 0 0 0 0 0 0 0 0 0 0 0 0 0 0 0 0 0 0 0 0 0 0 1565 0 2044 1839 1936 2044 2374 2102 1936 1839 1936 2044 1989 1936 1839 1839 2044 2044 2102 2044 2044 2044 2102 2044 2299 2044 2299 2299 2230 2299 2374 2374 2537 2299 2725 2453 2374 2725 2725 2537 2628 0 0 0 0 4088 3873 4329 5256 6133 4599 4599 4599 0 0 0 0 0 0 0 0 0 0 0 0 0 0 0 0 0 0 0 0 0 0 8177 8177 6133 6133 6133 6133 6690 6690 7359 7359 7359 8177 8177 7359 7359 7359 7359 6690 6690 7359 6690 7359 8177 0 6133 6690 5256 3679 3345 2943 3066 2830 2725 2628 2537 2374 2453 2374 2453 2102 1936 1839 1795 1795 1711 1672 1599 1533 1471 1443 1338 1314 1362 1338 1362 1314 1314 1314 1362 1314 1362 1291 1291 1168 1098 1098 1051 994 994 981 968 897 943 931 886 919 908 886 886 876 908 886 886 919 0 0 876 876 0 0 0 791 774 774 774 735 721 714 687 675 669 651 651 645 639 634 634 623 608 598 584 561 574 570 566 574 561 566 566 0 0 0 0 0 0 0 0 0 0 511 518 497 497 497 500 487 490 477 465 457 459 457 459 451 446 443 438 440 0 0 0 0 0 0 415 406 408 411 413 413 411 413 413 413 415 408 0 0 373 371 369 0 0 0 0 0
    0 0 0 0 0 0 0 0 0 0 0 0 0 0 0 0 0 0 0 0 0 0 0 0 0 0 0 0 0 0 0 0 0 0 0 0 0 0 0 0 0 0 0 0 0 0 0 0 0 0 0 0 0 0 0 0 0 0 0 0 0 0 0 0 0 0 0 0 0 1565 1752 1839 1887 1989 2102 2537 2453 2164 1887 2044 2374 2164 2102 1839 1839 2044 2102 2164 2044 2044 2044 2102 2102 2299 2044 2299 2299 2230 2230 2374 2453 2537 2374 2725 2537 2453 2725 2830 2628 2628 0 0 0 0 4088 3873 4599 5256 6133 4906 4906 4906 0 0 0 0 0 0 0 0 0 0 0 0 0 0 0 0 6133 6133 7359 7359 8177 8177 8177 7359 6133 5661 6133 6133 6690 6690 7359 7359 6690 7359 8177 7359 6690 6690 7359 6690 6690 7359 7359 6690 7359 8177 6133 6133 4599 3504 3345 2943 3066 2725 2725 2628 2453 2374 2374 2299 2453 2044 1936 1839 1795 1795 1752 1672 1599 1565 1471 1471 1362 1338 1388 1362 1388 1338 1314 1314 1362 1314 1362 1291 1268 1132 1082 1082 1051 994 994 981 981 908 955 931 886 919 897 876 876 865 897 876 886 908 865 0 886 876 0 0 808 791 774 774 766 735 721 707 687 675 675 657 657 651 645 639 639 634 618 603 588 561 574 570 574 579 566 570 570 0 0 0 0 0 0 0 0 0 0 511 518 497 497 493 497 484 481 477 468 462 462 462 462 454 448 443 440 440 0 0 0 0 0 0 406 402 404 408 413 411 411 411 413 413 411 406 0 0 375 373 371 0 0 0 0 0
    0 0 0 0 0 0 0 0 0 0 0 0 0 0 0 0 0 0 0 0 0 0 0 0 0 0 0 0 0 0 0 0 0 0 0 0 0 0 0 0 0 0 0 0 0 0 0 0 0 0 0 0 0 0 0 0 0 0 0 0 0 0 0 0 0 0 0 0 0 1565 1752 1752 1795 1795 1887 2299 2299 2102 1839 1936 2164 1989 1936 1795 1795 1936 2044 2044 1989 2044 2044 2102 2102 2230 2044 2230 2299 2299 2230 2374 2453 2537 2374 2725 2537 2453 2725 2830 2628 2725 0 0 0 0 3873 3679 4599 5256 6133 4329 3873 3873 6133 0 0 0 0 0 0 0 0 0 0 0 0 0 3679 3345 5661 5661 6133 6690 7359 6690 6690 6133 5661 5661 5661 6133 6133 6133 7359 6690 6690 7359 7359 6690 6690 6690 6690 6690 6690 7359 6690 6690 7359 8177 6133 5661 4906 3679 3504 2943 3066 2830 2725 2628 2537 2374 2374 2299 2374 2044 1936 1839 1795 1795 1752 1672 1599 1565 1501 1471 1388 1362 1415 1388 1388 1362 1338 1338 1388 1338 1388 1291 1268 1132 1082 1066 1036 981 981 981 981 908 955 931 886 919 897 865 865 865 886 865 876 897 865 876 886 886 0 0 808 782 766 758 750 728 721 707 687 681 675 663 663 657 651 645 645 639 639 608 593 557 579 570 0 584 566 574 574 0 309 0 0 0 0 0 0 0 0 511 521 497 497 493 500 481 481 477 471 468 468 465 465 459 454 448 443 443 0 0 0 0 425 420 411 404 406 411 411 411 411 413 413 413 408 406 391 0 375 375 373 0 0 0 0 0
    0 0 0 0 0 0 0 0 0 0 0 0 0 0 0 0 0 0 0 0 0 0 0 0 0 0 0 0 0 0 0 0 0 0 0 0 0 0 0 0 0 0 0 0 0 0 0 0 0 0 0 0 0 0 0 0 0 0 0 0 0 0 0 0 0 0 0 0 0 1635 1752 1795 1795 1795 1839 1887 1887 1795 1795 1839 1887 1887 1839 1795 1752 1839 1936 1936 1936 1989 2044 2102 2102 2230 2044 2230 2299 2299 2230 2374 2453 2537 2453 2725 2628 2537 2830 2943 2725 2725 0 0 0 0 3873 3679 4329 4906 5256 3504 3199 3066 3066 2725 2537 2537 2537 2628 0 0 0 0 0 0 0 4088 4088 3679 5661 6133 6690 6690 7359 6690 6690 6133 5661 5661 5661 6133 6690 6133 7359 7359 6133 7359 7359 6690 6133 6133 6133 6133 6133 7359 6690 6690 6690 7359 6133 5661 4599 3679 3504 3066 3199 2943 2830 2725 2537 2453 2374 2299 2374 2044 1887 1795 1795 1795 1711 1635 1599 1533 1501 1501 1443 1388 1443 1415 1415 1388 1388 1388 1415 1362 1415 1291 1291 1115 1098 1066 1036 0 981 981 981 0 955 931 886 919 897 865 865 855 886 855 876 0 0 0 886 886 0 826 808 782 758 750 743 721 714 700 687 675 669 663 663 663 651 651 645 651 0 618 603 553 579 574 0 0 574 579 579 0 309 0 0 0 0 77 77 0 0 511 521 0 497 493 500 481 481 477 468 462 462 459 462 457 454 451 0 0 0 0 0 0 427 422 415 411 413 413 411 411 411 411 411 408 404 402 389 0 373 373 371 0 0 0 0 0
    0 0 0 0 0 0 0 0 0 0 0 0 0 0 0 0 0 0 0 0 0 0 0 0 0 0 0 0 0 0 0 0 0 0 0 0 0 0 0 0 0 0 0 0 0 0 0 0 0 0 0 0 0 0 0 0 0 0 0 0 0 0 0 0 0 0 0 0 0 1635 1752 1752 1752 1752 1711 1752 1752 1711 1711 1752 1752 1752 1711 1752 1711 1795 1936 1887 1887 1936 2044 2044 2102 2230 2044 2230 2299 2299 2230 2374 2453 2453 2453 2725 2628 2537 2725 2943 2725 2725 0 0 0 0 3679 3504 4329 4329 4599 3199 2725 2725 2725 2537 2453 2453 2453 2628 2537 2943 3199 0 0 0 3504 4599 4329 3873 5661 6133 6690 6690 6690 6133 6133 6133 5661 5661 5661 5661 6133 5661 6690 6690 5661 6690 6690 6133 6133 6133 6690 6690 6690 8177 7359 7359 6690 7359 6133 5256 4599 3679 3504 3066 3199 2943 2943 2725 2628 2537 2374 2374 2374 2044 1839 1752 1752 1752 1672 1635 1599 1533 1501 1533 1501 1415 1443 1415 1443 1388 1388 1388 1415 1338 1362 1268 1268 1115 1115 1066 0 0 994 994 981 0 955 931 886 919 897 855 855 0 876 855 865 0 0 0 886 886 0 826 808 774 743 743 735 721 714 700 687 675 669 669 663 663 651 651 651 663 0 639 608 553 574 574 0 0 579 579 584 0 0 0 0 0 0 77 77 0 0 514 525 240 500 497 507 484 481 481 468 462 462 459 459 454 457 451 0 0 0 0 0 0 432 427 420 418 420 418 415 413 411 408 408 408 402 399 387 371 371 371 369 0 0 0 0 0
    0 0 0 0 0 0 0 0 0 0 0 0 0 0 0 0 0 0 0 0 0 0 0 0 0 0 0 0 0 0 0 0 0 0 0 0 0 0 0 0 0 0 0 0 0 0 0 0 0 0 0 0 0 0 0 0 0 0 0 0 0 0 0 0 0 0 0 0 0 1635 1672 1672 1672 1672 1599 1672 1672 1635 1635 1672 1672 1672 1672 1752 1752 1839 1936 1887 1936 1936 2044 2044 2102 2164 2044 2230 2299 2299 2230 2374 2453 2453 2453 2725 2725 2537 2725 2943 2725 2725 0 0 0 0 0 3345 4088 4088 4088 2943 2453 2628 2628 2453 2453 2453 2453 2628 2453 2943 3066 3199 3679 4329 4088 4906 4906 4088 5661 6133 6690 6690 6690 6133 6690 6133 5661 5661 5661 5661 6133 6133 6690 6690 5661 6690 6690 6133 6133 6133 6133 6133 6133 7359 6690 6133 6690 6690 5661 5256 4906 3873 3873 3345 3345 3066 3066 2725 2725 2628 2374 2299 2230 1989 1839 0 1752 1752 1672 1635 1635 1565 1533 1565 1533 1443 1471 1443 1415 1388 1388 1388 1388 1314 1314 1247 1247 1115 1132 1082 0 0 0 994 981 0 955 919 886 908 886 0 114 114 0 845 865 0 0 0 886 886 886 826 808 774 743 735 735 721 721 700 687 681 675 669 663 663 657 657 657 0 0 0 613 553 574 574 593 593 579 579 584 0 0 0 0 77 0 77 77 0 0 514 525 0 504 504 514 490 487 487 471 462 462 459 457 451 454 448 448 448 451 0 0 0 0 432 422 420 422 418 418 415 411 408 408 408 404 399 387 371 369 369 367 0 0 0 0 0
    0 0 0 0 0 0 0 0 0 0 0 0 0 0 0 0 0 0 0 0 0 0 0 0 0 0 0 0 0 0 0 0 0 0 0 0 0 0 0 0 0 0 0 0 0 0 0 0 0 0 0 0 0 0 0 0 0 0 0 0 0 0 0 0 0 0 0 0 0 1565 1599 1635 1635 1599 1533 1635 1635 1565 1599 1599 1635 1635 1599 1711 1711 1795 1989 1887 1936 1989 2102 2102 2102 2164 2102 2230 2299 2299 2230 2374 2453 2453 2453 2628 2628 2537 2725 2943 2725 2725 0 0 0 0 0 3345 4088 3873 3504 2830 2299 2453 2453 2374 2374 2374 2374 2628 2453 2830 2943 2943 3345 3873 3873 5256 5256 4329 6133 6133 6690 6690 6690 6133 6690 6690 5661 5661 5661 6133 6133 6690 7359 7359 6133 7359 7359 6690 6133 6133 6133 5661 6133 6690 6133 5661 6133 6690 5661 4906 4906 4088 3873 3504 3345 3066 2943 2725 2628 2628 2230 2164 2164 1936 1795 0 1711 1752 1672 1635 1635 1533 1565 1599 1565 1471 1471 1443 1415 1388 1415 1362 0 1291 0 1247 1247 1115 1132 1082 0 0 0 994 981 0 943 919 886 908 886 0 114 114 0 845 855 0 0 0 886 886 886 0 0 774 743 735 735 728 721 700 694 687 675 675 669 663 657 663 651 0 0 663 618 561 574 574 593 588 579 574 579 0 0 0 0 77 0 77 77 0 0 518 529 511 511 511 521 500 497 504 474 465 462 459 457 448 448 443 0 0 0 0 0 0 0 427 422 420 425 420 413 413 408 406 406 408 402 399 389 0 0 367 367 0 0 0 0 0
    0 0 0 0 0 0 0 0 0 0 0 0 0 0 0 0 0 0 0 0 0 0 0 0 0 0 0 0 0 0 0 0 0 0 0 0 0 0 0 0 0 0 0 0 0 0 0 0 0 0 0 0 0 0 0 0 0 0 0 0 0 0 0 0 0 0 0 0 0 1533 1533 1565 1635 1565 1501 1599 1635 1533 1565 1565 1599 1599 1565 1672 1672 1752 1887 1887 1989 2044 2164 2102 2164 2164 2102 2230 2299 2374 2230 2374 2453 2453 2453 2628 2628 2537 2628 2830 2725 2725 0 0 0 0 3679 3345 4329 3873 3345 2725 2164 2374 2453 2374 2453 2453 2374 2537 2453 2725 2830 2830 3066 3345 3504 5661 5661 4906 6690 6690 7359 7359 7359 6690 6690 6690 5661 6133 6133 6133 6133 6690 7359 6690 5661 7359 6690 6133 6133 6133 6133 5661 6133 7359 6690 6133 6690 6690 6133 4906 4906 4088 3873 3504 3345 3066 2943 2725 2628 2628 2230 2164 2102 1936 0 0 1711 1711 1635 1635 1635 1533 1565 1599 1599 1471 1471 1443 1415 1388 1388 1362 0 1268 1247 1226 1247 1115 1149 1098 0 0 0 994 981 0 943 919 886 897 876 0 114 114 0 836 855 146 0 0 886 876 876 0 0 782 743 743 735 728 721 700 694 687 675 675 669 663 657 663 651 0 0 669 618 566 574 574 588 0 574 574 574 0 0 310 0 77 0 77 77 0 0 518 529 514 514 514 525 511 507 521 481 474 471 465 462 454 448 443 0 0 0 0 435 0 0 0 427 430 432 425 415 415 406 404 406 406 399 397 389 0 0 369 367 0 0 0 0 0
    0 0 0 0 0 0 0 0 0 0 0 0 0 0 0 0 0 0 0 0 0 0 0 0 0 0 0 0 0 0 0 0 0 0 0 0 0 0 0 0 0 0 0 0 0 0 0 0 0 0 0 0 0 0 0 0 0 0 0 0 0 0 0 0 0 0 0 0 0 1533 1501 1565 1635 1565 1501 1599 1599 1533 1565 1533 1599 1565 1565 1672 1635 1711 1887 1839 2044 2102 2164 2164 2230 2230 2102 2230 2374 2374 2230 2374 2453 2453 2453 2628 2628 2537 2537 2830 2628 2725 0 0 0 3066 3504 3345 3873 3679 3066 2537 2102 2299 2299 2374 2453 2374 2374 2537 2453 2628 2725 2830 2943 3066 3199 5256 5661 5256 6690 6690 7359 7359 7359 6690 6690 6690 5661 6133 6133 6133 6133 6690 7359 7359 6133 7359 6690 6133 6690 6133 6133 6133 6133 7359 6690 6690 6690 6690 6133 4906 5256 4088 4088 3679 3345 3066 2943 2725 2725 2628 2299 2164 2044 1936 0 0 1711 1711 1635 1635 1635 1533 1565 1599 1599 1471 1471 1415 1388 1388 1388 1338 0 1247 1247 1226 1247 1132 1168 1115 0 0 0 994 981 919 955 919 886 897 876 0 115 114 0 826 845 0 0 855 876 855 0 0 0 782 743 743 735 728 728 700 694 687 669 669 663 657 651 657 645 0 0 669 623 584 584 579 593 0 574 570 570 0 0 310 0 77 0 0 0 0 0 518 529 518 518 518 525 511 507 521 484 484 481 474 471 465 459 451 448 446 446 440 435 435 438 435 430 432 432 427 422 420 411 404 406 404 397 393 387 371 0 367 367 0 0 0 0 0
    0 0 0 0 0 0 0 0 0 0 0 0 0 0 0 0 0 0 0 0 0 0 0 0 0 0 0 0 0 0 0 0 0 0 0 0 0 0 0 0 0 0 0 0 0 0 0 0 0 0 0 0 0 0 0 0 0 0 0 0 0 0 0 0 0 0 0 0 0 1501 1471 1533 1599 1565 1471 1599 1599 1501 1565 1533 1565 1565 1565 1672 1635 1711 1887 1839 2044 2102 2230 2164 2230 2230 2164 2230 2374 2374 2230 2374 2453 2453 2453 2537 2537 2453 2453 2830 2628 2628 2943 0 3066 3066 3345 3199 3504 3504 2830 2453 2102 2230 2230 2374 2374 2374 2374 2453 2453 2628 2725 2943 3066 3345 3504 5256 6133 5256 6690 7359 7359 7359 7359 6133 6133 6133 6133 6133 6690 6690 6690 6690 7359 7359 6133 6690 6690 6133 6690 6690 6133 6133 6133 6690 6133 6133 6690 6690 6133 4906 5256 4329 4329 3873 3504 3199 3066 2830 0 2725 2374 2164 2044 1936 0 0 1711 1711 1635 1635 1635 1533 1565 1599 1599 1471 1471 1415 1388 1388 1362 1338 0 1247 1226 1247 1268 1149 1187 1115 0 0 0 1008 994 919 955 931 886 886 865 0 115 114 0 817 836 0 0 0 855 0 0 817 799 791 750 750 743 735 735 707 700 694 669 663 657 645 645 645 634 675 663 663 629 593 588 579 593 0 574 570 566 0 0 0 0 77 0 0 0 0 0 518 525 518 518 518 525 514 507 525 484 484 481 474 471 465 465 454 451 446 440 438 435 432 432 430 427 430 430 427 420 415 406 397 397 397 389 387 381 371 0 366 366 0 0 0 0 0
    0 0 0 0 0 0 0 0 0 0 0 0 0 0 0 0 0 0 0 0 0 0 0 0 0 0 0 0 0 0 0 0 0 0 0 0 0 0 0 0 0 0 0 0 0 0 0 0 0 0 0 0 0 0 0 0 0 0 0 0 0 0 0 0 0 0 0 0 0 1471 1443 1501 1599 1565 1471 1565 1565 1501 1533 1533 1565 1565 1533 1635 1635 1711 1839 1839 2102 2102 2230 2230 2299 2230 2230 2230 2299 2374 2230 2299 2374 2374 2374 2453 2537 2374 2299 2725 2537 2628 2943 3066 2943 3066 3199 3066 3066 3199 2164 2230 2044 2230 2164 2299 2374 2374 2299 2453 2537 2725 2725 3066 3504 3873 4329 6133 8177 8177 0 0 0 8177 8177 6133 6690 6690 6133 6133 6133 6133 6133 6690 6690 7359 6133 6690 6133 6133 6690 6690 6133 6690 6133 6690 6133 6690 6690 6690 6133 4906 5256 4599 4599 4088 3679 3199 3199 2943 0 2725 2453 2164 2102 1936 0 0 1711 1711 1635 1635 1635 1565 1565 1565 1565 1471 1471 1415 1388 1388 1362 1314 0 1247 1226 1247 1268 1168 1187 1149 0 0 0 1008 994 919 955 931 886 886 865 836 115 114 0 817 826 0 438 826 0 0 0 817 799 791 758 758 750 750 750 714 700 694 669 657 651 639 639 634 629 663 651 657 629 603 593 584 0 0 574 566 0 0 0 0 0 0 0 0 77 77 0 518 525 518 518 518 521 511 507 521 484 484 481 474 468 462 462 451 446 440 435 432 432 430 430 427 427 430 427 425 415 408 404 395 395 395 391 389 385 371 360 366 364 0 0 0 0 0
    0 0 0 0 0 0 0 0 0 0 0 0 0 0 0 0 0 0 0 0 0 0 0 0 0 0 0 0 0 0 0 0 0 0 0 0 0 0 0 0 0 0 0 0 0 0 0 0 0 0 0 0 0 0 0 0 0 0 0 0 0 0 0 0 0 0 0 0 0 1443 1415 1471 1599 1533 1471 1565 1533 1501 1533 1501 1565 1565 1533 1635 1635 1711 1839 1839 2230 2230 2374 2299 2374 2299 2299 2230 2374 2374 2230 2230 2374 2299 2299 2374 2453 2299 2230 2628 2537 2537 2830 3066 2830 2943 3066 3066 2453 2725 1989 2164 2044 2164 2164 2299 2299 2374 2299 2453 2537 2725 2830 3199 4088 4599 4906 6133 0 0 0 0 0 0 0 8177 8177 8177 7359 7359 7359 6133 6133 7359 7359 7359 6133 6690 6690 6133 6690 6690 6690 6690 6133 7359 6690 6690 7359 6690 6133 4906 5256 4599 4329 3873 3679 3199 3066 2943 0 2725 2453 2164 2164 1989 0 0 1752 1752 1672 1672 1635 1565 1565 1565 1565 1471 1471 1388 1362 1362 1338 1291 0 1226 1206 1226 1268 1168 1187 1149 0 0 1066 1051 1008 931 955 931 886 876 865 836 115 114 0 817 817 817 0 817 0 0 0 817 799 799 774 774 758 766 766 721 707 694 669 651 645 639 639 634 623 657 639 645 634 608 603 584 0 0 574 566 557 553 0 0 0 0 0 0 77 77 0 518 525 518 518 518 521 511 507 518 481 481 481 468 462 457 457 446 443 438 432 432 432 430 430 425 427 430 430 427 422 415 406 397 397 399 395 395 393 371 0 364 362 0 0 0 0 0
    0 0 0 0 0 0 0 0 0 0 0 0 0 0 0 0 0 0 0 0 0 0 0 0 0 0 0 0 0 0 0 0 0 0 0 0 0 0 0 0 0 0 0 0 0 0 0 0 0 0 0 0 0 0 0 0 0 0 0 0 0 0 0 0 0 0 0 0 0 1443 1415 1443 1565 1533 1471 1533 1533 1501 1501 1501 1565 1565 1565 1635 1635 1711 1839 1839 2453 2374 2453 2374 2453 2374 2374 2299 2374 2374 2230 2230 2299 2299 2230 2299 2453 2230 2164 2453 2453 2453 2628 3066 2725 2830 2725 2830 1989 2299 1936 2102 2102 2164 2164 2299 2299 2374 2299 2374 2537 2725 2830 3345 3873 4329 4599 6133 0 0 0 0 0 0 0 0 0 8177 7359 7359 8177 6690 6133 7359 6690 7359 6133 6690 6690 6133 7359 7359 6690 6690 6690 8177 6690 6690 7359 7359 6690 4906 5661 4599 4329 3873 3679 3066 3066 2830 2725 2628 2453 2164 2164 1989 0 0 1795 1795 1711 1711 1672 1635 1599 1565 1533 1443 1443 0 1338 1314 1291 1268 1247 1226 1187 1226 1268 1168 1187 1168 0 0 1098 1082 1022 931 955 943 886 876 865 836 115 114 0 817 808 817 0 808 0 0 817 817 808 808 791 782 774 774 782 728 714 700 675 657 651 639 639 634 629 651 634 639 629 613 608 588 598 0 574 566 557 549 0 0 0 525 521 514 77 77 0 518 521 514 514 514 518 511 507 518 481 477 477 465 465 459 459 448 446 440 438 438 438 432 432 430 432 430 427 427 425 422 413 406 408 406 402 402 399 373 0 364 362 0 0 0 0 0
    0 0 0 0 0 0 0 0 0 0 0 0 0 0 0 0 0 0 0 0 0 0 0 0 0 0 0 0 0 0 0 0 0 0 0 0 0 0 0 0 0 0 0 0 0 0 0 0 0 0 0 0 0 0 0 0 0 0 0 0 0 0 0 0 0 0 0 0 0 1443 1415 1443 1565 1533 1471 1533 1533 1471 1501 1501 1599 1565 1565 1635 1635 1711 1795 1839 2453 2374 2453 2453 2537 2537 2537 2453 2537 2453 2299 2299 2374 2299 2164 2230 2374 2230 2164 2374 2453 2374 2628 3199 2725 0 0 1936 1887 2164 1989 2102 2102 2164 2164 2299 2299 2374 2299 2374 2628 2725 2943 3504 4088 4329 4599 5661 0 0 0 0 0 0 0 0 0 0 0 0 0 7359 6690 8177 6690 7359 6690 7359 6690 6133 6690 7359 6690 7359 6690 7359 6133 6133 7359 6690 6133 4906 5256 4599 4329 3873 3504 2943 2943 2830 2725 2628 2374 2164 2230 1989 0 0 1839 1839 1795 1752 1752 1672 1635 1565 1501 1415 1388 0 1291 1291 1268 1247 1226 1206 1187 1226 1268 1168 1168 1149 1168 0 1098 1082 1022 931 968 943 897 876 876 845 115 114 0 817 808 808 0 799 0 799 808 817 808 817 799 791 782 782 782 728 0 700 675 657 651 645 645 639 629 651 634 634 629 618 608 593 593 0 574 561 553 545 0 525 0 525 521 514 0 0 507 514 521 511 511 511 511 511 504 511 484 481 477 471 468 465 462 448 448 443 440 438 435 432 432 427 0 427 425 425 420 420 415 406 408 404 399 399 395 369 0 362 360 0 0 0 0 0
    0 0 0 0 0 0 0 0 0 0 0 0 0 0 0 0 0 0 0 0 0 0 0 0 0 0 0 0 0 0 0 0 0 0 0 0 0 0 0 0 0 0 0 0 0 0 0 0 0 0 0 0 0 0 0 0 0 0 0 0 0 0 0 0 0 0 0 0 0 1443 1415 1443 1565 1501 1471 1533 1533 1471 1501 1501 1599 1565 1533 1635 1635 1711 1795 1795 2453 2230 2453 2453 2537 2537 2628 2537 2537 2537 2374 2299 2374 2299 2102 2230 2374 2299 2299 2537 2628 2537 2628 3199 2537 0 0 0 1887 2044 1936 2102 2164 2164 2164 2299 2299 2374 2299 2374 2628 2725 2830 3873 4599 4599 4906 5661 0 0 0 0 0 0 0 0 0 0 0 0 0 8177 7359 8177 7359 8177 7359 7359 6690 6690 7359 7359 7359 7359 7359 7359 6690 6690 7359 6690 6690 4599 5256 4599 4329 3679 3504 2943 2943 2725 2628 2628 2453 2164 2299 2044 2044 1936 1936 1936 1839 1795 1795 1672 1672 1533 1443 1388 1362 0 1291 1268 1247 1226 1206 1206 1168 1226 1268 1168 1168 1149 1149 1168 1098 1082 1022 943 968 955 919 876 886 855 0 0 0 0 808 808 101 799 0 791 799 817 799 817 808 0 782 782 0 0 0 0 669 651 651 651 651 639 634 651 634 634 634 623 618 593 0 0 570 0 549 537 533 525 525 525 521 518 0 0 507 511 518 507 504 504 504 507 497 500 484 484 481 474 471 471 468 454 457 443 440 438 432 430 430 427 0 427 425 427 420 425 418 408 406 399 395 393 381 369 348 362 360 0 0 0 0 0
    0 0 0 0 0 0 0 0 0 0 0 0 0 0 0 0 0 0 0 0 0 0 0 0 0 0 0 0 0 0 0 0 0 0 0 0 0 0 0 0 0 0 0 0 0 0 0 0 0 0 0 0 0 0 0 0 0 0 0 0 0 0 0 0 0 0 0 0 0 1443 1415 1443 1565 1533 1471 1533 1501 1471 1501 1501 1599 1565 1533 1635 1635 1672 1795 1795 2299 2102 2299 2453 2453 2537 2537 2537 2537 2453 2299 2299 2299 2299 2102 2299 2374 2374 2453 2725 2830 2628 2830 3199 2453 0 2230 2164 2044 2164 2044 2102 2230 2230 2164 2299 2374 2453 2374 2453 2725 2830 2943 4329 4906 4906 4906 5661 0 0 0 0 0 0 0 0 0 0 0 0 0 0 8177 0 7359 8177 7359 7359 7359 6690 7359 7359 7359 8177 7359 7359 7359 7359 7359 7359 6690 4906 5661 4599 4329 3504 3504 2830 2830 2725 2628 2628 2453 2230 2374 2102 2102 1989 1989 1989 1839 1839 1795 1711 1672 1533 1443 1388 1338 1268 1268 1268 1226 1206 1187 1206 1168 1206 1247 1149 1149 1149 1149 1168 1098 1082 1022 955 968 968 931 886 897 865 0 0 0 0 808 808 101 799 102 782 791 808 799 826 817 0 0 0 0 0 0 0 669 657 657 651 657 645 634 651 634 634 634 623 618 598 0 0 570 0 549 537 529 525 525 525 521 518 514 511 507 507 511 500 500 497 497 504 481 481 484 481 481 474 471 471 471 462 465 448 443 438 435 430 430 430 432 427 425 425 422 422 418 411 406 402 395 393 383 369 352 362 360 0 0 0 0 0
    0 0 0 0 0 0 0 0 0 0 0 0 0 0 0 0 0 0 0 0 0 0 0 0 0 0 0 0 0 0 0 0 0 0 0 0 0 0 0 0 0 0 0 0 0 0 0 0 0 0 0 0 0 0 0 0 0 0 0 0 0 0 0 0 0 0 0 0 0 1471 1415 1443 1565 1533 1471 1533 1501 1471 1501 1501 1599 1565 1533 1635 1635 1711 1795 1795 2230 2044 2230 2453 2453 2453 2537 2537 2537 2374 2230 2299 2230 2299 2164 2374 2453 2453 2628 2943 2943 2725 2943 3199 2453 2725 2453 2374 2164 2230 2164 2164 2230 2299 2164 2299 2299 2453 2374 2453 2725 2830 2943 4599 5256 5256 5256 6133 0 0 0 0 0 0 0 0 0 0 0 8177 0 8177 8177 0 7359 8177 7359 7359 7359 6690 6690 7359 6690 7359 6690 6690 6690 6133 6690 6690 6133 4599 5256 4906 4088 3504 3345 2830 2830 2628 2628 2537 2453 2230 2374 2102 2164 1989 2044 1989 1887 1839 1795 1711 1672 1565 1415 1362 1314 1247 1268 1247 1206 1206 1187 1206 1168 1206 1247 1149 1132 1132 1132 1149 1098 1082 1022 955 968 968 943 886 908 876 886 865 0 0 0 0 101 799 102 782 791 808 791 826 817 0 0 0 0 0 0 0 675 657 657 657 657 645 634 645 634 634 629 618 613 593 0 0 570 553 553 537 533 529 529 529 525 518 507 507 504 500 504 493 493 493 0 497 474 477 481 474 474 468 462 462 462 459 459 443 440 440 438 432 432 430 432 427 427 425 420 420 418 413 408 404 399 397 381 369 355 362 362 0 0 0 0 0
    0 0 0 0 0 0 0 0 0 0 0 0 0 0 0 0 0 0 0 0 0 0 0 0 0 0 0 0 0 0 0 0 0 0 0 0 0 0 0 0 0 0 0 0 0 0 0 0 0 0 0 0 0 0 0 0 0 0 0 0 0 0 0 0 0 0 0 0 0 1471 1443 1443 1565 1501 1471 1533 1501 1471 1501 1501 1599 1565 1533 1599 1635 1672 1795 1795 2230 2044 2164 2453 2453 2453 2537 2537 2537 2299 2102 2164 2164 2230 2164 2453 2453 2537 2628 3066 3066 2725 2943 3066 2453 2628 2453 2374 2164 2299 2230 2230 2230 2299 2230 2374 2374 2537 2453 2537 2830 2943 3066 4329 4599 4906 4906 5256 0 0 0 0 0 0 0 0 0 8177 8177 8177 8177 7359 7359 8177 7359 8177 7359 7359 7359 6690 6690 7359 7359 7359 6690 6690 6690 5661 6690 6690 5661 4329 4906 4599 3873 3199 3199 2628 2725 2537 2453 2453 2299 2164 2374 2102 2164 1989 2044 1989 1839 1839 1795 1711 1672 1565 1388 1338 1291 1247 1247 1226 1206 1187 1168 1187 1149 1206 1247 1149 1132 1132 1115 1132 1098 1051 1022 955 955 968 943 897 919 876 897 876 0 0 0 0 101 0 102 0 791 808 799 826 817 0 782 0 0 0 0 0 675 663 663 663 657 639 634 645 629 629 629 618 613 588 0 0 570 553 553 541 541 533 529 529 525 521 504 504 504 0 500 490 490 490 0 0 471 474 481 471 468 465 457 459 457 454 454 440 438 438 435 432 430 430 430 427 427 425 420 420 420 415 408 404 402 397 385 369 357 364 362 0 0 0 0 0
    0 0 0 0 0 0 0 0 0 0 0 0 0 0 0 0 0 0 0 0 0 0 0 0 0 0 0 0 0 0 0 0 0 0 0 0 0 0 0 0 0 0 0 0 0 0 0 0 0 0 0 0 0 0 0 0 0 0 0 0 0 0 0 0 0 0 0 0 0 1471 1443 1443 1565 1501 1471 1533 1501 1471 1501 1501 1599 1599 1533 1599 1672 1672 1795 1795 2230 1989 2164 2453 2537 2453 2537 2537 2537 2374 2164 2230 2230 2230 2299 2628 2537 2628 2725 2943 2943 2725 2943 2943 2374 2628 2374 2374 2164 2230 2230 2230 2230 2374 2299 2374 2453 2537 2537 2628 2943 3066 3199 4329 4329 4599 4599 4906 0 0 0 0 0 8177 0 0 0 7359 7359 8177 7359 6690 8177 8177 7359 8177 8177 8177 7359 6690 7359 7359 7359 7359 7359 7359 7359 6133 6690 6690 6133 4599 5256 4599 3679 3066 3066 2537 2537 2374 2374 2374 2230 2102 2299 2044 2102 1989 1989 1936 0 1795 1795 1711 1711 1565 1362 1338 1268 0 1226 1206 1187 1168 1149 1187 1149 1206 1247 1149 1115 1115 1098 1115 1082 1036 1008 955 943 968 955 897 919 886 908 886 0 865 0 0 0 0 101 101 799 0 0 0 817 0 791 0 0 0 0 0 681 669 663 663 663 639 634 639 629 629 623 613 608 588 584 579 574 557 557 545 545 541 533 533 525 521 500 504 0 0 493 490 487 487 487 0 471 471 477 465 462 462 454 457 457 457 462 443 443 440 432 432 427 427 430 425 422 422 418 418 415 413 406 402 402 397 389 373 362 366 364 0 0 0 0 0
    0 0 0 0 0 0 0 0 0 0 0 0 0 0 0 0 0 0 0 0 0 0 0 0 0 0 0 0 0 0 0 0 0 0 0 0 0 0 0 0 0 0 0 0 0 0 0 0 0 0 0 0 0 0 0 0 0 0 0 0 0 0 0 0 0 0 0 0 0 1471 1443 1443 1565 1501 1471 1533 1501 1471 1501 1501 1599 1599 1565 1599 1672 1672 1795 1795 2230 1989 2164 2537 2537 2453 2537 2537 2628 2453 2230 2374 2453 2374 2453 2725 2725 2725 2830 2943 2943 2725 2830 2830 2299 2537 2374 2453 2299 2299 2299 2299 2299 2453 2374 2453 2453 2628 2725 2830 3066 3199 3199 3873 3679 3873 3873 4088 8177 8177 0 8177 0 8177 8177 8177 0 7359 6690 7359 7359 6690 8177 8177 8177 0 8177 8177 7359 7359 7359 7359 7359 7359 7359 7359 7359 6690 7359 7359 5661 4906 5256 4906 3679 2943 2943 2453 2453 2299 2374 2374 2230 2102 2374 2044 2102 1936 1989 1887 0 1752 1795 1711 1711 1565 1338 1314 1226 0 1206 1187 1168 1149 1149 1168 1149 1206 1226 1132 1098 1098 1082 1082 1051 1008 994 955 931 968 955 897 931 897 908 897 876 876 0 0 0 0 101 101 0 102 0 0 817 0 791 0 0 0 0 0 681 669 669 663 663 639 634 639 629 623 618 613 603 593 584 579 574 561 561 545 549 545 533 533 525 525 497 504 0 0 493 490 484 484 484 0 471 471 481 468 465 465 457 462 459 459 468 451 457 446 435 0 0 0 430 420 418 418 415 418 415 413 406 404 404 399 389 373 0 366 366 0 0 0 0 0
    0 0 0 0 0 0 0 0 0 0 0 0 0 0 0 0 0 0 0 0 0 0 0 0 0 0 0 0 0 0 0 0 0 0 0 0 0 0 0 0 0 0 0 0 0 0 0 0 0 0 0 0 0 0 0 0 0 0 0 0 0 0 0 0 0 0 0 0 0 1471 1443 1443 1565 1501 1471 1501 1501 1471 1501 1501 1599 1599 1565 1599 1672 1672 1795 1839 2164 1989 2102 2453 2537 2453 2453 2537 2537 2453 2374 2537 2537 2453 2628 2830 2830 2830 2830 2830 2830 2628 2830 2725 2374 2537 2453 2537 2453 2374 2453 2453 2374 2537 2537 2628 2628 2725 2830 2943 3066 3199 3066 3504 3345 3345 3345 3504 6133 6690 8177 7359 0 8177 8177 8177 9199 7359 6690 7359 7359 6690 8177 8177 8177 8177 8177 8177 8177 7359 7359 7359 8177 8177 7359 7359 7359 6690 7359 7359 6133 5256 5256 4906 3504 2725 2830 2374 2453 2299 2374 2374 2230 2102 2374 2044 2044 1936 1989 1839 0 1752 1795 1711 1711 1599 0 1291 1206 0 1206 1168 1149 1149 1132 1168 1149 1187 1226 1115 1082 1082 1066 1066 1036 994 981 955 919 968 955 908 931 897 919 897 886 886 0 0 0 0 101 101 0 102 0 836 817 817 791 782 0 0 0 0 681 675 675 669 663 645 634 639 623 623 618 613 603 593 579 579 574 561 566 549 553 549 537 0 525 525 497 504 0 0 490 490 484 484 484 0 471 471 481 471 468 468 459 462 459 454 457 443 443 438 432 432 430 0 0 420 418 418 415 415 413 413 406 402 402 397 385 373 0 366 366 0 0 0 0 0
    0 0 0 0 0 0 0 0 0 0 0 0 0 0 0 0 0 0 0 0 0 0 0 0 0 0 0 0 0 0 0 0 0 0 0 0 0 0 0 0 0 0 0 0 0 0 0 0 0 0 0 0 0 0 0 0 0 0 0 0 0 0 0 0 0 0 0 0 0 1471 1443 1443 1565 1501 1471 1501 1501 1471 1501 1501 1565 1599 1533 1599 1672 1672 1839 1839 2102 1989 2102 2374 2453 2453 2374 2537 2537 2537 2453 2628 2628 2537 2725 2943 2830 2830 2830 2830 2830 2725 2830 2830 2453 2628 2628 2628 2628 2537 2628 2537 2537 2628 2725 2725 2725 2830 2943 2943 3199 3199 3066 3345 3199 3199 3345 3504 5661 7359 8177 8177 8177 7359 8177 8177 8177 7359 6690 7359 7359 6690 8177 8177 7359 8177 8177 8177 7359 7359 7359 7359 7359 8177 7359 7359 7359 7359 7359 7359 6690 6133 5661 5661 3679 2725 2830 2374 2453 2230 2374 2374 2230 2102 2299 2044 1989 1936 1936 1795 1752 1711 1795 1711 1711 1599 1338 1291 1206 0 1206 1168 1149 1149 1132 1168 1149 1206 1247 1115 1066 1051 1036 1051 1008 994 981 968 919 968 968 908 931 908 919 908 0 908 865 876 454 448 0 101 102 102 0 845 826 817 799 782 799 0 0 0 687 681 675 675 669 645 634 639 623 623 618 613 598 593 579 584 579 561 566 549 553 549 0 0 525 525 500 504 0 0 493 490 484 484 484 0 471 471 481 474 471 471 459 462 457 451 448 435 435 432 430 430 425 422 0 415 0 0 0 411 408 0 402 0 399 395 385 373 0 367 366 0 0 0 0 0
    0 0 0 0 0 0 0 0 0 0 0 0 0 0 0 0 0 0 0 0 0 0 0 0 0 0 0 0 0 0 0 0 0 0 0 0 0 0 0 0 0 0 0 0 0 0 0 0 0 0 0 0 0 0 0 0 0 0 0 0 0 0 0 0 0 0 0 0 0 1471 1443 1443 1533 1501 1471 1501 1501 1471 1501 1501 1565 1599 1533 1599 1672 1672 1839 1839 2044 1989 2102 2299 2374 2374 2299 2453 2453 2453 2374 2628 2628 2453 2628 2943 2830 2830 2830 2830 2830 2725 2830 2725 2537 2628 2628 2725 2725 2628 2725 2628 2628 2830 2830 2943 2943 2943 3066 3066 3345 3345 3199 3345 3199 3199 3679 4329 8177 0 0 8177 0 8177 8177 7359 8177 7359 6690 7359 7359 6690 8177 7359 7359 8177 8177 8177 7359 7359 7359 7359 7359 8177 7359 8177 7359 7359 7359 7359 6690 6690 6690 6133 3873 2725 2830 2374 2537 2230 2374 2374 2230 2044 2230 1989 1936 1887 1887 1795 1711 1672 1795 1711 1711 1635 1338 1291 0 0 1206 1168 1149 1149 1132 1168 1149 1206 1226 1098 1066 1051 1036 1051 1008 994 981 968 908 955 955 908 931 908 919 908 0 919 876 886 457 451 876 0 0 0 0 855 826 0 799 791 808 0 0 0 0 681 681 675 675 651 634 639 623 618 613 608 593 593 579 584 579 566 570 553 553 549 0 0 525 521 500 507 0 0 493 493 487 487 487 0 471 471 481 474 471 471 457 457 451 448 443 435 432 432 427 427 422 420 422 413 411 413 411 408 406 0 402 402 402 397 391 377 369 369 369 0 0 0 0 0
    0 0 0 0 0 0 0 0 0 0 0 0 0 0 0 0 0 0 0 0 0 0 0 0 0 0 0 0 0 0 0 0 0 0 0 0 0 0 0 0 0 0 0 0 0 0 0 0 0 0 0 0 0 0 0 0 0 0 0 0 0 0 0 0 0 0 0 0 0 1471 1443 1443 1533 1501 1471 1501 1471 1471 1501 1501 1565 1599 1565 1599 1672 1711 1839 1839 2044 2044 2044 2299 2299 2374 2299 2453 2453 2453 2453 2628 2628 2453 2628 2830 2725 2725 2725 2830 2830 2725 2830 2830 2628 2628 2725 2725 2725 2725 2830 2725 2725 2943 3066 3066 3066 3199 3199 3345 3679 3679 3504 3504 3345 3199 3504 4088 0 0 0 0 0 0 8177 8177 8177 7359 6133 7359 7359 6690 7359 7359 7359 7359 7359 8177 8177 7359 8177 7359 7359 8177 7359 8177 7359 7359 7359 8177 7359 7359 6690 6690 3873 2725 2830 2374 2537 2230 2374 2299 2164 2044 2230 1989 1887 1839 1839 1752 1672 1672 1752 1711 1711 1635 1362 1291 0 0 1206 1187 1149 1149 1132 1168 1132 1187 1226 1098 1051 1036 1036 1051 1022 994 981 981 908 955 955 908 931 897 919 908 0 919 876 897 457 451 897 0 855 0 845 865 0 377 808 791 817 0 0 0 0 687 681 681 675 651 639 634 623 613 613 603 588 588 579 584 584 570 574 557 557 0 0 0 525 521 500 507 0 0 497 500 490 490 487 504 474 471 481 474 465 465 454 454 448 446 440 435 435 432 430 430 425 422 420 415 413 413 411 408 408 0 404 0 404 397 393 379 371 369 367 0 0 0 0 0
    0 0 0 0 0 0 0 0 0 0 0 0 0 0 0 0 0 0 0 0 0 0 0 0 0 0 0 0 0 0 0 0 0 0 0 0 0 0 0 0 0 0 0 0 0 0 0 0 0 0 0 0 0 0 0 0 0 0 0 0 0 0 0 0 0 0 0 0 0 1471 1443 1443 1533 1501 1471 1471 1471 1471 1501 1501 1533 1599 1565 1599 1672 1711 1839 1839 2044 2044 2102 2299 2299 2374 2299 2537 2453 2453 2453 2628 2628 2453 2628 2830 2725 2725 2725 2830 2830 2725 2943 2830 2725 2725 2725 2830 2830 2830 2943 2830 2830 3066 3199 3199 3345 3504 3504 3504 4088 3873 3873 3679 3679 3504 3873 3873 0 0 0 0 0 0 8177 8177 8177 6690 6133 6690 6690 6133 7359 7359 6690 7359 7359 0 8177 7359 8177 8177 8177 8177 7359 8177 7359 7359 7359 7359 6690 7359 6690 6690 4088 2943 3066 2537 2628 2299 2453 2374 2230 2044 2164 1989 1887 1839 1839 1752 1672 1672 1795 1752 1752 1672 1388 1291 0 0 1206 1187 1149 1149 1149 1168 1132 1187 1226 1082 1051 1036 1022 1051 0 994 981 981 908 955 955 908 931 897 919 908 886 931 886 908 0 0 908 865 865 865 855 876 836 379 817 799 817 0 0 728 333 0 687 687 681 663 639 639 623 613 608 603 593 593 584 588 588 574 574 561 557 0 0 0 0 525 500 511 0 0 500 504 493 493 490 511 474 474 487 474 468 468 457 454 448 446 438 435 435 432 430 430 425 422 420 413 411 413 411 408 406 0 0 0 0 0 393 379 0 367 366 0 0 0 0 0
    0 0 0 0 0 0 0 0 0 0 0 0 0 0 0 0 0 0 0 0 0 0 0 0 0 0 0 0 0 0 0 0 0 0 0 0 0 0 0 0 0 0 0 0 0 0 0 0 0 0 0 0 0 0 0 0 0 0 0 0 0 0 0 0 0 0 0 0 0 1471 1443 1443 1501 1501 1471 1471 1471 1471 1501 1501 1533 1599 1565 1599 1672 1711 1839 1839 1989 2102 2164 2299 2299 2374 2299 2537 2453 2453 2537 2628 2628 2453 2628 2830 2725 2725 2725 2830 2830 2725 2943 2830 2830 2830 2830 2943 2830 2943 3066 2943 3066 3199 3504 3504 3679 3873 3873 3679 4599 4329 4329 3873 3873 3504 3873 3679 7359 0 0 0 0 0 8177 8177 8177 7359 6133 7359 7359 6690 7359 7359 7359 8177 8177 0 0 8177 8177 0 8177 0 8177 8177 7359 7359 7359 7359 6690 6690 6133 6690 4329 3066 3199 2725 2725 2453 2453 2453 2230 2044 2164 1989 1887 1887 1887 1752 1672 1672 1795 1795 1795 1672 1388 1291 0 0 1206 1187 1149 1149 1149 1168 1132 1187 1226 1082 1036 1036 1022 1051 0 1008 994 994 919 968 968 919 931 897 919 908 886 931 886 908 0 0 908 865 876 876 855 886 845 381 826 808 826 0 0 728 333 0 687 687 687 669 645 639 629 613 613 608 598 598 593 593 593 579 574 566 557 0 0 0 0 525 500 0 78 0 500 511 497 497 493 514 477 0 500 477 474 474 465 462 454 446 440 438 435 432 430 427 422 413 0 0 0 0 408 404 0 0 0 0 0 397 393 383 0 369 367 0 0 0 0 0
    0 0 0 0 0 0 0 0 0 0 0 0 0 0 0 0 0 0 0 0 0 0 0 0 0 0 0 0 0 0 0 0 0 0 0 0 0 0 0 0 0 0 0 0 0 0 0 0 0 0 0 0 0 0 0 0 0 0 0 0 0 0 0 0 0 0 0 0 0 1471 1471 1443 1501 1501 1471 1471 1471 1471 1501 1501 1533 1599 1565 1599 1672 1711 1839 1839 1936 2102 2230 2299 2299 2374 2230 2537 2537 2537 2537 2628 2628 2453 2628 2830 2628 2725 2725 2830 2830 2725 2943 2943 2830 2830 2943 3066 2943 3066 3345 3199 3199 3345 3873 3873 4088 4599 4329 4088 4906 4599 4599 4088 4329 3873 4329 4329 7359 0 0 8177 0 8177 7359 7359 8177 7359 6690 7359 7359 7359 8177 7359 7359 8177 8177 0 0 8177 0 0 8177 0 8177 8177 7359 7359 8177 7359 6690 6690 6690 6690 4599 3199 3345 2830 2830 2537 2537 2453 2299 2102 2230 1989 1936 1887 1936 1795 1711 1711 1839 1839 1839 1711 1415 1314 0 0 1206 1187 1168 1149 1149 1168 1132 1187 1206 1066 1036 1022 1022 1051 0 0 994 994 931 968 968 919 931 897 919 919 897 931 897 908 0 0 919 876 876 886 865 897 855 0 836 817 826 0 0 735 331 0 0 694 694 675 651 645 639 613 613 608 598 598 593 593 593 579 574 566 557 0 0 0 0 525 0 0 78 0 504 511 497 497 497 518 481 0 511 481 477 477 468 465 457 448 440 438 438 435 430 430 425 415 0 0 0 0 408 404 0 0 0 397 397 395 393 385 0 369 367 0 0 0 0 0
    0 0 0 0 0 0 0 0 0 0 0 0 0 0 0 0 0 0 0 0 0 0 0 0 0 0 0 0 0 0 0 0 0 0 0 0 0 0 0 0 0 0 0 0 0 0 0 0 0 0 0 0 0 0 0 0 0 0 0 0 0 0 0 0 0 0 0 0 0 1501 1501 1471 1501 1501 1471 1443 1471 1471 1501 1533 1501 1599 1565 1599 1672 1672 1795 1795 1887 2102 2230 2299 2230 2374 2164 2453 2537 2453 2537 2537 2628 2453 2628 2830 2628 2628 2725 2830 2830 2725 2943 2943 2943 2943 2943 3066 3066 3345 3504 3345 0 0 4329 4329 4599 4906 4599 4599 5256 4599 4906 4329 4906 4329 5256 6133 0 0 0 0 0 8177 8177 7359 7359 7359 6690 7359 6690 7359 7359 7359 7359 8177 8177 0 0 0 8177 8177 8177 0 8177 8177 7359 6690 8177 7359 6690 7359 6690 6690 4906 3345 3504 3066 3066 2628 2628 2628 2374 2164 2374 2102 1989 1989 2044 1839 1752 1752 1887 1887 1887 1752 1443 1314 0 0 1206 1187 1168 1149 1149 1187 1132 1168 1187 1036 1008 0 1022 1036 0 0 994 994 943 981 968 919 931 908 908 908 886 931 886 908 0 0 919 876 886 886 865 897 0 0 836 817 817 799 758 735 331 325 0 0 694 681 657 645 645 613 613 608 598 603 593 598 0 584 574 570 0 0 0 0 0 0 0 0 77 0 507 514 500 500 500 518 487 500 525 487 484 481 471 465 459 448 438 438 438 438 432 432 430 425 422 422 418 420 415 406 406 404 404 402 399 397 395 389 0 367 366 0 0 0 0 0
    0 0 0 0 0 0 0 0 0 0 0 0 0 0 0 0 0 0 0 0 0 0 0 0 0 0 0 0 0 0 0 0 0 0 0 0 0 0 0 0 0 0 0 0 0 0 0 0 0 0 0 0 0 0 0 0 0 0 0 0 0 0 0 0 0 0 0 0 0 1533 1501 1501 1501 1533 1501 1443 1471 1471 1501 1533 1501 1599 1565 1565 1672 1672 1795 1795 1795 2102 2230 2299 2230 2299 2164 2453 2537 2453 2537 2537 2628 2453 2628 2830 2628 2628 2725 2830 2830 2725 2943 2943 2943 2943 2943 3066 3066 3345 3679 3504 0 0 5256 4906 5256 5661 5256 4906 5661 4906 5661 4906 6133 5661 7359 8177 0 0 0 0 0 0 8177 7359 8177 7359 6690 7359 6690 7359 7359 7359 7359 7359 8177 0 0 8177 8177 8177 8177 0 8177 8177 7359 6690 8177 7359 6690 6690 6690 6690 5256 3504 3679 3199 3199 2725 2725 2628 2453 2299 2453 2164 2044 2044 2102 1887 1839 1795 1989 1936 1887 1795 1501 1338 0 0 1226 1206 1187 1168 1168 1187 1132 1149 0 1036 994 0 1008 1036 0 0 1008 1008 943 981 0 0 931 908 908 908 886 931 886 908 0 0 908 886 886 897 865 897 0 845 836 817 817 791 750 0 330 325 0 0 700 681 663 645 657 618 618 608 598 603 598 0 0 584 0 570 0 0 0 0 0 0 0 0 77 78 507 518 504 504 504 521 497 507 533 484 481 477 468 462 457 448 440 440 438 440 438 438 432 430 430 430 430 430 420 408 408 406 404 402 402 399 397 391 0 0 366 0 0 0 0 0
    0 0 0 0 0 0 0 0 0 0 0 0 0 0 0 0 0 0 0 0 0 0 0 0 0 0 0 0 0 0 0 0 0 0 0 0 0 0 0 0 0 0 0 0 0 0 0 0 0 0 0 0 0 0 0 0 0 0 0 0 0 0 0 0 0 0 0 0 0 1533 1533 1533 1533 1533 1533 1471 1501 1471 1501 1533 1471 1599 1533 1565 1635 1672 1752 1752 1752 2102 2230 2299 2230 2299 2102 2453 2537 2453 2537 2628 2628 2453 2537 2830 2628 2628 2725 2830 2943 2725 2943 3066 2943 2943 2943 3066 3066 3504 4088 3679 0 0 6133 5661 6133 6690 6133 5661 6133 5661 6133 6133 7359 8177 0 0 0 0 0 0 0 0 8177 7359 8177 7359 6690 7359 6690 7359 7359 7359 7359 7359 7359 0 0 0 8177 8177 8177 0 8177 8177 7359 6690 8177 7359 6690 6690 6690 6690 5661 3679 3873 3345 3345 2943 2725 2725 2537 2374 2537 2299 2102 2102 2102 1936 1839 1839 1989 1936 1936 1839 1533 1362 0 0 0 1226 1206 1187 1187 1206 1132 1149 0 1036 1008 0 1008 1036 0 0 1008 1008 943 981 0 0 931 908 897 897 886 931 886 897 0 0 908 886 886 897 865 886 0 0 0 808 808 791 743 0 330 325 325 0 0 687 669 651 663 618 618 608 598 603 598 0 0 584 0 570 0 0 0 0 0 0 0 0 77 78 511 518 507 507 504 521 497 511 533 481 481 477 468 465 459 457 446 443 443 443 443 440 435 435 435 435 432 432 422 408 408 406 404 404 402 402 399 395 0 0 366 0 0 0 0 0
    0 0 0 0 0 0 0 0 0 0 0 0 0 0 0 0 0 0 0 0 0 0 0 0 0 0 0 0 0 0 0 0 0 0 0 0 0 0 0 0 0 0 0 0 0 0 0 0 0 0 0 0 0 0 0 0 0 0 0 0 0 0 0 0 0 0 0 0 0 1565 1565 1565 1565 1565 1565 1471 1501 1501 1533 1565 1471 1599 1533 1533 1635 1635 1711 1711 1752 2102 2164 2299 2230 2299 2102 2453 2537 2453 2453 2537 2628 2453 2537 2830 2537 2628 2628 2830 2830 2725 2943 2943 2943 2943 2943 3066 3066 3345 4088 3873 4906 0 6690 6133 6690 7359 7359 6133 6690 6133 6690 6133 7359 8177 8177 0 0 0 0 0 0 0 8177 7359 8177 7359 6690 6690 6133 6690 7359 7359 7359 8177 8177 0 0 0 0 0 0 0 8177 0 7359 6690 8177 8177 6690 6690 6690 6690 6133 3873 4088 3504 3504 3199 2830 2830 2725 2537 2628 2374 2164 2164 2164 1989 1887 1887 2044 1936 1936 1839 1533 1388 0 0 0 0 1226 0 1226 0 1149 1149 0 1036 1022 0 1022 1036 0 0 1022 1008 955 981 968 919 931 897 897 897 876 919 876 897 0 0 897 886 897 908 865 886 0 0 0 808 799 782 743 0 330 324 325 0 0 687 669 651 669 623 618 613 598 603 598 0 211 0 0 0 0 0 0 0 0 0 0 0 77 0 511 518 507 507 504 518 497 511 533 481 477 474 471 465 462 459 443 443 440 440 440 438 435 432 430 432 432 435 425 411 411 408 406 406 404 402 399 395 0 0 366 0 0 0 0 0
    0 0 0 0 0 0 0 0 0 0 0 0 0 0 0 0 0 0 0 0 0 0 0 0 0 0 0 0 0 0 0 0 0 0 0 0 0 0 0 0 0 0 0 0 0 0 0 0 0 0 0 0 0 0 0 0 0 0 0 0 0 0 0 0 0 0 0 0 0 1565 1565 1565 1599 1565 1565 1501 1533 1501 1533 1565 1471 1565 1533 1533 1635 1635 1672 1711 1752 2044 2164 2299 2299 2299 2102 2374 2537 2374 2453 2537 2537 2453 2537 2830 2537 2628 2628 2830 2830 2725 2943 2943 2943 2943 2943 3066 3066 3345 4088 4088 4906 0 7359 6690 6690 7359 7359 6690 6690 6133 6690 6690 7359 7359 7359 8177 0 0 0 0 0 0 8177 8177 8177 7359 6690 6690 6133 6690 7359 7359 8177 8177 0 0 0 0 0 0 0 0 8177 0 7359 7359 0 8177 6690 7359 7359 7359 6690 4088 4329 3679 3679 3345 2943 0 0 2628 2725 2537 2230 2230 2164 2102 1887 1936 2044 1936 1936 1887 1565 1415 0 0 0 208 207 209 0 0 1187 0 0 1051 1022 0 1022 1036 0 0 1022 1008 943 981 968 919 931 897 886 886 876 919 876 897 0 0 897 897 897 908 0 0 0 0 0 808 799 782 743 331 330 324 324 0 0 687 669 651 669 629 623 613 603 603 598 0 211 0 0 0 0 0 0 0 0 0 0 0 77 0 507 518 507 507 504 518 497 507 525 481 477 477 474 468 465 459 443 440 440 438 438 438 435 435 432 435 438 440 432 422 420 415 406 406 406 404 402 0 0 0 364 0 0 0 0 0
    0 0 0 0 0 0 0 0 0 0 0 0 0 0 0 0 0 0 0 0 0 0 0 0 0 0 0 0 0 0 0 0 0 0 0 0 0 0 0 0 0 0 0 0 0 0 0 0 0 0 0 0 0 0 0 0 0 0 0 0 0 0 0 0 0 0 0 0 0 1565 1565 1565 1599 1599 1599 1533 1533 1501 1565 1565 1501 1599 1533 1533 1635 1635 1672 1711 1752 2102 2164 2299 2374 2299 2044 2374 2453 2374 2374 2537 2537 2453 2453 2725 2537 2537 2628 2830 2830 2725 2943 2943 2943 2943 2943 3066 3066 3345 4088 4088 5256 7359 7359 6690 6690 7359 7359 6690 6690 6133 6690 6690 7359 7359 7359 8177 0 0 0 0 0 8177 8177 7359 7359 6690 6690 6690 6133 6690 7359 7359 8177 8177 0 0 0 0 0 0 0 0 8177 0 8177 7359 0 8177 7359 7359 7359 7359 7359 4329 4599 3679 3873 3504 3066 0 0 2725 2830 2628 2299 2299 2230 2164 1936 1936 2044 1989 1936 1887 1565 1443 0 0 0 209 209 210 0 0 0 0 0 1066 1022 0 1022 1036 0 0 1022 1008 943 968 968 908 931 897 876 876 865 908 865 886 0 0 886 897 897 919 0 0 0 0 0 808 791 782 743 330 330 324 324 0 0 687 669 651 675 629 623 618 603 608 603 0 212 0 0 0 0 0 0 0 0 0 0 0 77 0 511 518 507 507 507 514 497 504 511 481 481 481 477 474 471 468 443 443 440 440 438 438 438 438 438 446 446 451 440 0 422 418 408 404 404 402 399 399 375 0 366 0 0 0 0 0
    0 0 0 0 0 0 0 0 0 0 0 0 0 0 0 0 0 0 0 0 0 0 0 0 0 0 0 0 0 0 0 0 0 0 0 0 0 0 0 0 0 0 0 0 0 0 0 0 0 0 0 0 0 0 0 0 0 0 0 0 0 0 0 0 0 0 0 0 0 1599 1599 1599 1635 1599 1599 1533 1565 1501 1565 1565 1501 1599 1533 1565 1635 1635 1711 1711 1795 2102 2102 2299 2374 2299 2044 2299 2453 2299 2374 2537 2537 2453 2453 2725 2453 2537 2628 2725 2830 2628 2943 2943 2943 2943 2943 3199 3066 3345 4329 4088 5256 6690 7359 6690 6690 6690 6690 6690 6133 6133 6690 6690 7359 7359 8177 0 0 0 0 0 8177 7359 7359 7359 7359 6690 6690 6690 6133 6133 7359 6690 7359 7359 8177 0 0 0 0 8177 0 0 8177 0 8177 8177 0 0 7359 7359 8177 7359 7359 4329 4599 3679 3873 3504 3066 0 0 0 2830 2628 2374 2299 2230 2230 1989 1989 2102 1989 1936 1936 1599 1471 0 0 209 210 210 211 0 0 0 181 0 1066 0 0 1008 1036 0 0 1022 1008 931 968 968 908 919 897 876 876 865 897 865 876 0 0 886 897 897 919 0 0 0 0 0 817 799 791 750 331 330 324 324 0 0 687 669 651 669 634 623 618 608 608 603 0 0 0 0 0 0 0 0 0 0 0 0 0 77 0 511 518 507 507 507 0 497 500 497 481 477 477 477 474 471 471 446 443 440 440 438 438 438 438 440 446 443 448 440 430 422 415 408 402 402 399 397 395 375 0 366 0 0 0 0 0
    0 0 0 0 0 0 0 0 0 0 0 0 0 0 0 0 0 0 0 0 0 0 0 0 0 0 0 0 0 0 0 0 0 0 0 0 0 0 0 0 0 0 0 0 0 0 0 0 0 0 0 0 0 0 0 0 0 0 0 0 0 0 0 0 0 0 0 0 0 1599 1599 1599 1635 1635 1635 1599 1599 1533 1565 1599 1501 1599 1565 1565 1672 1672 1711 1711 1839 2102 2102 2299 2299 2230 1989 2299 2453 2299 2374 2537 2537 2453 2453 2725 2453 2537 2628 2725 2725 2628 2830 2943 2830 2943 2943 3199 3199 3199 4329 3873 4906 6690 6690 6133 6690 6133 6690 6690 6133 6133 6690 6690 7359 7359 8177 0 0 0 0 0 8177 7359 7359 6690 7359 6690 6690 6133 5661 6133 6690 6133 7359 7359 8177 8177 0 0 0 8177 0 0 8177 0 8177 9199 0 0 8177 8177 8177 8177 7359 4329 4329 3679 3873 3679 3066 0 3066 2725 2830 2725 2374 2374 2230 2299 2044 1989 2164 1989 1989 1936 1599 1533 0 207 0 211 0 0 1388 0 0 181 0 1082 1022 0 0 0 0 0 1008 994 919 955 955 908 919 897 865 0 0 886 855 876 91 0 876 897 897 919 0 0 0 0 0 826 799 791 750 331 330 324 324 0 0 687 669 651 669 634 623 618 608 608 603 613 0 0 0 0 0 0 0 0 0 0 0 0 77 0 511 518 511 511 511 0 497 497 484 481 471 474 474 471 468 468 448 443 438 438 435 432 432 435 438 443 446 448 446 438 430 425 413 406 404 399 395 391 373 0 364 0 0 0 0 0
    0 0 0 0 0 0 0 0 0 0 0 0 0 0 0 0 0 0 0 0 0 0 0 0 0 0 0 0 0 0 0 0 0 0 0 0 0 0 0 0 0 0 0 0 0 0 0 0 0 0 0 0 0 0 0 0 0 0 0 0 0 0 0 0 0 0 0 0 0 1599 1599 1635 1672 1635 1672 1635 1635 1599 1635 1635 1533 1635 1565 1599 1672 1711 1752 1752 1936 2102 2102 2299 2299 2230 1989 2299 2453 2230 2374 2537 2537 2537 2453 2830 2537 2537 2628 2628 2628 2537 2830 2943 2830 2943 2943 3199 3199 3199 4088 3873 4599 6133 6133 6133 6133 6133 6690 6133 5661 6133 6133 6690 7359 7359 8177 0 0 0 0 0 8177 7359 7359 6690 6690 6690 6133 6133 5661 5661 6690 6133 7359 6690 7359 8177 0 0 0 0 0 0 0 0 8177 0 0 0 8177 7359 8177 7359 7359 4088 3873 3504 3873 3679 3066 3066 0 0 2830 2830 2453 2374 2299 2374 2044 2044 2164 1989 1989 1989 1635 1565 0 208 0 0 1443 0 1415 0 0 181 0 1115 1036 0 0 0 0 0 0 994 908 955 955 897 919 886 0 0 0 886 845 865 91 91 865 886 897 919 0 0 0 0 0 836 799 799 758 331 328 322 324 0 0 687 669 651 663 634 623 623 608 608 603 613 0 0 0 0 0 0 0 0 0 525 511 0 0 0 511 521 511 511 511 0 497 493 481 481 468 471 471 468 465 468 448 443 438 438 432 430 432 432 435 0 0 454 457 443 430 432 425 418 411 406 399 0 0 0 364 0 0 0 0 0
    0 0 0 0 0 0 0 0 0 0 0 0 0 0 0 0 0 0 0 0 0 0 0 0 0 0 0 0 0 0 0 0 0 0 0 0 0 0 0 0 0 0 0 0 0 0 0 0 0 0 0 0 0 0 0 0 0 0 0 0 0 0 0 0 0 0 0 0 0 1599 1599 1635 1672 1635 1672 1672 1672 1635 1672 1672 1565 1635 1599 1672 1711 1752 1795 1839 1989 2102 2102 2230 2299 2230 1989 2299 2453 2230 2374 2628 2628 2537 2453 2830 2537 2537 2628 2628 2628 2537 2725 2830 2830 2943 2943 3199 3199 3199 4088 3873 4329 5661 5661 5661 6133 5661 6133 6133 5661 6133 6133 6690 7359 7359 8177 8177 8177 0 0 8177 7359 6690 6690 6690 6690 6133 6133 5661 5661 5661 6690 6133 7359 7359 7359 0 0 0 0 0 0 0 0 0 9199 0 0 0 7359 7359 7359 7359 6690 4088 3504 3345 3679 3504 2943 2943 0 2725 2725 2830 2453 2374 2230 2374 2044 2044 2164 1989 1989 1989 1635 1599 1501 208 1533 0 1471 1443 1415 0 0 0 0 1149 1066 0 1036 1036 0 0 0 994 897 943 955 897 908 886 0 0 0 876 0 0 91 91 0 886 886 919 855 886 0 0 0 836 808 808 0 331 328 322 322 0 0 0 669 651 663 639 618 618 608 608 603 613 0 608 0 0 0 0 0 0 0 525 514 0 0 0 511 518 511 511 507 0 497 490 477 481 465 468 468 468 465 465 451 446 440 0 0 432 432 435 0 0 0 443 448 438 425 430 422 415 411 406 402 0 0 0 364 0 0 0 0 0
    0 0 0 0 0 0 0 0 0 0 0 0 0 0 0 0 0 0 0 0 0 0 0 0 0 0 0 0 0 0 0 0 0 0 0 0 0 0 0 0 0 0 0 0 0 0 0 0 0 0 0 0 0 0 0 0 0 0 0 0 0 0 0 0 0 0 0 0 0 1635 1599 1635 1711 1672 1711 1711 1711 1672 1672 1711 1635 1711 1711 1795 1795 1795 1887 1887 2102 2102 2102 2230 2374 2299 1989 2299 2453 2230 2453 2628 2628 2537 2453 2725 2537 2537 2628 2628 2537 2453 2628 2830 2725 2943 2943 3199 3345 3345 4088 3873 4329 5661 5256 5661 5661 5256 6133 5661 5256 5661 5661 6133 6690 6690 7359 7359 7359 0 0 8177 6690 6133 6690 6690 7359 6690 6133 5661 5661 5661 6690 6133 6690 6690 7359 8177 8177 8177 0 8177 0 0 0 0 0 0 0 0 7359 7359 6690 6690 6690 3873 3199 3066 3504 3345 2830 2830 0 2628 2725 2725 2453 2374 2230 2374 2102 2044 2164 1989 1989 1989 1635 1599 1471 207 0 0 1443 1443 1415 0 0 0 0 1168 1082 0 1051 1051 0 0 0 994 897 943 955 897 908 886 0 0 0 876 0 0 91 91 0 876 886 908 855 886 0 0 0 845 817 817 0 331 327 321 0 0 0 0 663 645 657 634 613 618 603 603 598 608 0 0 0 0 0 629 0 0 0 521 514 0 0 0 507 518 507 507 504 0 497 484 474 477 465 465 468 468 465 465 454 451 0 0 0 0 0 0 0 0 0 440 440 438 427 432 425 415 411 406 402 0 0 0 366 0 0 0 0 0
    0 0 0 0 0 0 0 0 0 0 0 0 0 0 0 0 0 0 0 0 0 0 0 0 0 0 0 0 0 0 0 0 0 0 0 0 0 0 0 0 0 0 0 0 0 0 0 0 0 0 0 0 0 0 0 0 0 0 0 0 0 0 0 0 0 0 0 0 0 1635 1599 1635 1711 1672 1711 1711 1711 1672 1711 1711 1752 1795 1839 1887 1887 1887 1936 1989 2102 2164 2102 2230 2374 2299 1989 2299 2453 2230 2453 2628 2628 2628 2453 2830 2537 2537 2628 2628 2537 2453 2628 2830 2725 0 2943 3199 3345 3345 4088 3873 4088 5256 4906 5256 4906 4599 5256 5256 4906 5256 5256 6133 6133 6690 6690 6690 6690 7359 8177 6690 6133 5256 6133 6690 6690 6690 6690 5661 6133 6133 7359 6133 6690 6690 7359 7359 8177 8177 8177 8177 0 0 0 0 0 0 0 8177 7359 7359 6690 6690 6133 3873 2943 2943 3199 3199 2725 0 0 2537 2628 2725 2374 2374 2299 2374 2102 2102 2230 1989 1989 1989 1635 1599 1471 207 0 210 0 0 1415 0 0 0 0 1187 1082 0 1051 1051 0 0 0 994 897 931 943 897 897 886 0 0 0 876 845 0 91 91 0 876 886 908 845 886 0 0 855 845 826 826 0 331 327 321 0 0 0 0 657 639 645 629 608 608 603 598 598 608 0 0 0 0 0 629 0 0 0 521 514 0 0 0 0 511 504 504 504 0 497 477 471 477 462 465 468 468 465 465 454 451 0 0 0 0 0 0 430 0 425 425 427 425 413 420 418 408 406 404 397 393 371 0 364 0 0 0 0 0
    0 0 0 0 0 0 0 0 0 0 0 0 0 0 0 0 0 0 0 0 0 0 0 0 0 0 0 0 0 0 0 0 0 0 0 0 0 0 0 0 0 0 0 0 0 0 0 0 0 0 0 0 0 0 0 0 0 0 0 0 0 0 0 0 0 0 0 0 0 1635 1599 1672 1711 1672 1711 1711 1711 1711 1711 1752 0 1839 1887 1936 1989 1989 2044 2044 2164 2164 2102 2299 2374 2299 1989 2374 2453 2299 2453 2725 2628 2628 2537 2830 2537 2628 2628 2628 2537 2453 2628 2830 2725 0 0 3345 3345 3345 4088 3873 4088 4906 4599 4906 4599 4329 4906 4906 4599 4906 5256 5661 6133 6690 7359 7359 7359 7359 8177 6690 6133 5256 6133 6690 6690 6690 6690 6133 6690 6690 7359 6133 6690 7359 7359 7359 7359 7359 8177 8177 0 0 0 0 0 0 0 8177 7359 7359 6690 6133 6133 3679 2725 2830 3066 2943 2537 0 0 2453 2537 2725 2374 2374 2230 2374 2102 2102 2230 1989 1989 1989 1635 1599 1471 207 208 210 210 0 1415 0 657 0 0 1187 1098 0 1051 1051 0 0 0 0 886 931 943 897 897 886 0 0 0 865 836 845 0 91 0 865 876 897 845 876 865 0 865 845 826 0 0 331 327 321 0 0 0 0 657 639 645 629 603 608 603 593 593 598 0 603 0 608 0 618 0 0 0 521 514 0 0 0 0 507 500 500 500 497 497 474 471 477 462 465 465 468 465 462 454 454 0 0 0 0 0 0 0 0 415 411 415 408 402 402 404 402 399 397 393 385 0 169 362 0 0 0 0 0
    0 0 0 0 0 0 0 0 0 0 0 0 0 0 0 0 0 0 0 0 0 0 0 0 0 0 0 0 0 0 0 0 0 0 0 0 0 0 0 0 0 0 0 0 0 0 0 0 0 0 0 0 0 0 0 0 0 0 0 0 0 0 0 0 0 0 0 0 0 1672 1599 1672 1752 1711 1711 1711 1711 1711 1711 1795 0 1936 1989 2044 2102 2044 2102 2102 2164 2230 2102 2299 2374 2299 1989 2374 2453 2299 2537 2725 2725 2725 2537 2830 2628 2628 2628 2628 2537 2537 2628 2830 2725 0 3066 3345 3345 3345 3873 3873 4088 4599 4329 4599 4599 4088 4906 4599 4599 4599 5256 5661 6133 6690 7359 7359 7359 8177 8177 7359 6133 5661 6133 6690 6690 6690 6690 6133 6133 6690 7359 6133 6690 6690 6690 6690 7359 7359 8177 8177 0 0 0 0 0 0 0 8177 7359 6690 6133 5661 5661 3679 2628 2725 2830 2830 2453 0 0 0 2453 2628 2299 2374 2230 2374 2044 2044 2164 1989 1989 1989 1635 1599 1471 0 0 209 209 0 1388 0 657 0 0 1187 1098 0 1066 1066 0 0 0 0 886 931 943 897 886 886 0 0 0 865 836 0 0 91 0 865 0 886 836 0 865 0 865 855 836 0 0 333 327 321 0 0 0 0 657 634 639 623 603 603 598 588 588 593 598 598 593 603 0 0 0 0 0 521 518 504 507 0 497 504 500 500 497 497 497 474 471 474 462 465 465 468 465 465 459 459 0 0 0 0 0 0 0 0 413 411 411 406 399 402 402 399 395 395 391 385 371 0 364 0 0 0 0 0
    0 0 0 0 0 0 0 0 0 0 0 0 0 0 0 0 0 0 0 0 0 0 0 0 0 0 0 0 0 0 0 0 0 0 0 0 0 0 0 0 0 0 0 0 0 0 0 0 0 0 0 0 0 0 0 0 0 0 0 0 0 0 0 0 0 0 0 0 0 1672 1599 1711 1752 1711 1752 1711 1752 1752 0 1839 0 1989 2044 2044 2102 2102 2164 2102 2164 2230 2102 2299 2299 2230 1989 2374 2453 2374 2537 2725 2725 2725 2537 2943 2628 2628 0 2628 2537 2537 2628 2725 2725 0 0 3345 3345 3345 3873 3873 4088 4599 4088 4599 4906 4329 5256 4906 4906 4599 5661 6133 6690 6690 7359 7359 8177 8177 0 8177 6690 6133 6690 6690 7359 6690 7359 6690 6690 6690 6690 5661 6133 6133 6690 6133 6690 6690 7359 7359 8177 0 0 0 0 0 0 8177 6690 6690 6133 5661 5256 3504 2537 2628 2628 2725 2374 0 2453 2299 2453 2628 2299 2374 2230 2374 2044 2044 2164 1936 1936 1936 1635 1599 1471 1501 0 209 209 0 1388 0 657 663 0 1187 1098 0 1066 1066 0 0 0 0 886 931 943 908 886 886 0 0 0 865 836 0 0 0 0 0 0 0 0 0 865 0 865 855 836 0 0 333 328 321 0 0 0 0 657 634 634 623 598 598 593 584 584 584 593 593 584 593 584 593 0 0 0 521 518 0 507 0 493 497 497 497 493 493 497 474 471 477 465 468 468 468 465 465 462 462 459 451 443 435 430 432 430 425 408 408 408 404 397 397 397 395 391 391 387 381 373 0 366 0 0 0 0 0
    0 0 0 0 0 0 0 0 0 0 0 0 0 0 0 0 0 0 0 0 0 0 0 0 0 0 0 0 0 0 0 0 0 0 0 0 0 0 0 0 0 0 0 0 0 0 0 0 0 0 0 0 0 0 0 0 0 0 0 0 0 0 0 0 0 0 0 0 0 1672 1599 1711 1752 1711 1752 1752 1752 1752 0 1887 1887 2044 2044 2044 2164 2102 2164 2102 2164 2230 2102 2230 2299 2230 1989 2374 2453 2374 2628 2830 2830 2830 2537 2943 2628 2725 0 2628 2537 2537 2628 0 2725 0 0 3345 3504 3345 3873 3873 4088 4599 4088 4599 5256 4599 5256 5661 5256 4906 5661 6133 6690 6690 7359 8177 8177 8177 0 8177 7359 6690 6690 6690 7359 6690 6690 6690 6133 6690 6133 5661 6133 5661 6133 6133 6133 6133 6690 7359 8177 8177 8177 8177 8177 0 8177 7359 6690 6133 5661 5256 5256 3504 2453 2628 2453 2628 2299 2453 2453 2230 2374 2537 2230 2374 2164 2374 1989 2044 2102 1887 1887 1887 1599 1599 1471 1501 0 0 209 0 0 645 651 663 0 1187 1098 0 1066 0 0 0 0 0 897 931 943 908 886 886 0 0 0 865 836 0 0 0 817 0 0 0 826 0 865 0 855 0 836 0 0 334 330 322 0 0 0 0 657 634 634 618 593 593 588 574 574 579 584 584 574 588 574 584 0 0 0 521 521 0 504 0 0 0 497 493 493 490 500 474 471 477 465 471 468 471 468 465 465 465 465 457 0 435 430 0 0 0 0 402 404 399 393 395 389 387 381 385 381 379 373 0 367 0 0 0 0 0
    0 0 0 0 0 0 0 0 0 0 0 0 0 0 0 0 0 0 0 0 0 0 0 0 0 0 0 0 0 0 0 0 0 0 0 0 0 0 0 0 0 0 0 0 0 0 0 0 0 0 0 0 0 0 0 0 0 0 0 0 0 0 0 0 0 0 0 0 0 1672 1565 1711 1752 0 0 1752 1795 1752 0 1936 1936 2044 2102 2102 2164 2102 2164 2102 2102 2230 2102 2230 2299 2230 1989 2374 2453 2453 2628 2830 2830 2830 2628 2943 2628 2725 0 2628 2537 2537 2628 0 2725 0 0 3345 3504 3345 0 4088 4088 4599 4088 4599 5256 4599 5256 5256 5256 4906 5661 6690 7359 7359 7359 8177 8177 8177 0 8177 7359 6690 6690 7359 7359 7359 7359 6690 6133 6690 6133 5661 5661 5661 5661 5661 5661 5661 6133 7359 7359 8177 8177 8177 8177 8177 8177 6690 6133 6133 5661 5256 4906 3504 2537 2725 2374 2537 2230 2374 2374 2230 2374 2537 2230 2299 2164 2299 1989 1989 2044 1839 1839 1839 1599 1599 1471 1501 0 0 208 0 0 645 651 657 0 1206 1098 0 1066 0 0 0 0 0 897 931 943 919 886 886 135 0 0 865 836 0 0 0 817 0 0 0 817 0 855 0 855 0 836 0 0 336 330 322 0 0 0 0 657 629 629 618 588 584 579 566 570 570 574 574 570 579 566 574 566 0 0 525 0 0 0 0 0 0 493 490 490 490 0 474 471 481 474 477 477 474 474 468 468 465 465 457 448 440 435 0 0 0 408 404 406 399 393 393 387 385 377 379 377 375 371 0 366 0 0 0 0 0
    0 0 0 0 0 0 0 0 0 0 0 0 0 0 0 0 0 0 0 0 0 0 0 0 0 0 0 0 0 0 0 0 0 0 0 0 0 0 0 0 0 0 0 0 0 0 0 0 0 0 0 0 0 0 0 0 0 0 0 0 0 0 0 0 0 0 0 0 0 1672 1533 0 0 0 0 0 1795 1752 0 1936 1936 2044 2044 2102 2164 2102 2164 2102 2102 2230 2102 2230 2299 2164 1989 2374 2453 2453 2628 2830 2830 2830 2537 2943 2628 2725 0 2628 2537 2537 2628 0 2725 0 0 3345 3504 3345 3873 4088 4088 4599 4088 4906 5256 4599 4906 5256 4906 4599 5661 6133 6690 6690 7359 8177 8177 8177 0 0 8177 7359 7359 8177 8177 7359 7359 6690 6690 6690 6133 6133 5661 5661 5661 5256 5256 5661 6133 6690 6690 7359 7359 7359 8177 8177 7359 6690 6133 6133 5661 5256 4906 3504 2537 2725 2299 2453 2164 2374 2374 2164 2299 2453 2164 2230 2102 2164 1887 1936 1936 1795 1795 1795 1599 1599 1471 0 0 0 0 0 0 645 651 657 0 1206 1115 0 1082 0 0 0 0 0 908 931 943 931 886 897 135 0 0 865 836 0 0 0 817 0 0 817 808 0 855 0 0 352 0 0 0 336 331 324 0 0 0 325 657 629 623 613 584 579 574 561 570 570 574 574 570 579 561 570 566 0 0 529 0 0 0 0 0 0 490 490 487 487 0 474 474 481 477 481 481 477 477 471 468 459 465 451 446 438 0 0 0 0 413 408 406 402 393 391 389 385 377 377 377 375 371 0 366 0 0 0 0 0
    0 0 0 0 0 0 0 0 0 0 0 0 0 0 0 0 0 0 0 0 0 0 0 0 0 0 0 0 0 0 0 0 0 0 0 0 0 0 0 0 0 0 0 0 0 0 0 0 0 0 0 0 0 0 0 0 0 0 0 0 0 0 0 0 0 0 0 0 0 1672 1533 0 0 0 0 0 0 1795 0 1936 1936 2102 2044 2102 2164 2102 2164 2102 2102 2230 2102 2230 2299 2164 1989 2374 2453 2453 2628 2830 2830 2830 2537 2943 2628 2725 0 2628 2537 2537 2628 0 2725 0 0 3345 3504 3345 3873 4088 4088 4906 4088 4906 5661 4906 4906 5256 4906 4599 4906 5256 6133 6133 6690 8177 8177 8177 0 0 0 8177 8177 8177 8177 7359 8177 6690 6690 6690 6133 5661 5661 5661 5661 5256 5256 5661 5661 6690 6690 6690 7359 7359 7359 8177 7359 6690 6133 6133 6133 5661 5256 3679 2830 2830 2299 2453 2164 2299 2299 2164 2230 2374 2102 2230 2044 2102 1887 1887 1887 1795 1795 1795 1635 1599 1501 1501 0 0 0 0 0 645 0 0 0 1226 1115 0 1082 0 0 0 0 0 908 931 943 943 886 908 0 876 865 876 845 0 0 0 808 101 799 808 808 0 845 0 0 352 0 0 0 336 331 324 0 0 324 325 657 623 623 608 584 574 570 561 566 570 574 579 570 574 561 570 570 0 0 529 0 0 0 0 0 0 490 487 487 487 0 471 474 481 481 481 481 477 474 468 462 451 459 446 440 435 432 0 0 0 415 408 406 402 393 389 389 385 375 375 375 373 371 0 366 0 0 0 0 0
    0 0 0 0 0 0 0 0 0 0 0 0 0 0 0 0 0 0 0 0 0 0 0 0 0 0 0 0 0 0 0 0 0 0 0 0 0 0 0 0 0 0 0 0 0 0 0 0 0 0 0 0 0 0 0 0 0 0 0 0 0 0 0 0 0 0 0 0 0 1635 1501 0 0 0 0 0 0 0 0 1936 1936 2102 2044 2044 2164 2102 2164 2102 2102 2230 2102 2230 2299 2164 1989 2299 2453 2453 2628 2830 2830 2830 2628 2943 2725 2725 0 2628 2537 2537 2628 0 2725 3345 3345 3345 3504 3345 3873 3873 4088 4599 4088 4906 5256 4906 4906 4906 4906 4329 4906 5256 6133 6690 6690 8177 0 0 0 0 0 8177 8177 8177 8177 7359 7359 6690 6133 6690 5661 5661 5661 5661 5661 5256 5256 5661 5661 6690 6690 6690 6690 6690 7359 8177 7359 6133 5661 6133 6133 6133 5661 3873 3066 3066 2299 2453 2164 2299 2299 2164 2230 2374 2102 2164 2044 2102 1887 1887 1887 1795 1795 1795 1599 1599 1471 1501 0 0 0 0 0 0 1206 0 0 1226 1132 0 1098 0 0 0 1082 0 919 943 943 943 897 919 876 876 865 0 845 0 0 0 808 0 791 799 799 0 855 0 0 353 0 0 0 337 331 325 0 0 324 325 663 629 623 608 584 574 570 561 566 570 574 579 570 574 557 566 566 0 0 0 0 0 0 0 0 0 490 487 487 487 0 471 474 484 484 484 484 481 474 462 451 448 448 443 438 435 0 0 0 0 0 411 408 402 395 391 393 389 379 379 377 375 371 0 362 0 0 0 0 0
    0 0 0 0 0 0 0 0 0 0 0 0 0 0 0 0 0 0 0 0 0 0 0 0 0 0 0 0 0 0 0 0 0 0 0 0 0 0 0 0 0 0 0 0 0 0 0 0 0 0 0 0 0 0 0 0 0 0 0 0 0 0 0 0 0 0 0 0 0 1635 1471 1672 1711 0 0 0 0 0 0 1936 1936 2102 2044 2044 2164 2102 2164 2102 2102 2230 2102 2299 2299 2164 1989 2299 2537 2453 2628 2830 2830 2830 2628 2943 2725 2725 0 2628 2537 2537 2628 0 2830 3199 3345 3199 3345 3345 3679 3679 4088 4599 4088 4906 5256 4906 4599 4906 4329 3873 4329 4906 5256 5661 6133 8177 0 0 0 0 0 0 0 0 8177 7359 7359 6690 6133 6690 5256 5256 5256 5256 5256 4906 5256 5661 5661 6690 6133 6133 6133 6690 7359 7359 7359 6133 5661 6133 6690 6690 6133 4088 3199 3066 2230 2374 2102 2299 2299 2102 2230 2299 2102 2164 2044 2102 1887 1839 1887 1752 1752 1752 1599 1599 1471 1471 0 0 0 0 0 0 1206 1168 0 1247 1132 1115 1098 0 0 1115 1082 0 919 943 943 943 897 919 876 886 876 876 845 0 0 0 808 808 782 791 799 817 855 0 855 353 347 0 0 337 331 325 0 324 324 325 675 634 634 618 588 579 574 561 570 566 574 579 570 570 557 561 566 545 0 533 533 0 511 0 0 0 493 487 487 487 0 471 474 487 487 484 484 477 474 462 457 451 446 443 438 435 0 0 0 0 422 415 413 406 397 397 397 395 387 385 383 379 371 0 362 0 0 0 0 0
    0 0 0 0 0 0 0 0 0 0 0 0 0 0 0 0 0 0 0 0 0 0 0 0 0 0 0 0 0 0 0 0 0 0 0 0 0 0 0 0 0 0 0 0 0 0 0 0 0 0 0 0 0 0 0 0 0 0 0 0 0 0 0 0 0 0 0 0 0 1599 1443 1672 1672 0 0 0 0 0 0 1887 1887 2044 1989 2044 2102 2102 2164 2102 2102 2299 2044 2299 2299 2164 1989 2299 2537 2453 2537 2830 2830 2830 2537 2943 2725 2725 0 2628 2537 2537 2628 0 2830 3199 3199 3199 3345 3199 3504 3679 3873 4329 3873 4599 5256 4599 4599 4599 4088 3873 3873 4599 4906 5256 5256 6690 8177 0 0 0 0 0 0 0 0 7359 7359 6690 6133 6690 5256 5256 5256 5256 5256 4599 4906 5256 5256 6133 5661 5661 5661 5661 7359 7359 6690 6133 5661 6690 6690 6690 6690 4329 3345 3066 2230 2374 2102 2299 2299 2102 2164 2299 2102 2102 2044 2102 1839 1839 1887 1795 1752 1752 1635 1635 1471 1471 0 0 0 0 0 0 1206 1187 0 1268 1168 1115 1115 0 0 1098 1066 1022 919 943 955 943 897 931 886 897 876 876 845 0 0 0 808 808 791 791 808 0 865 865 855 355 0 0 340 337 331 325 0 0 324 324 675 639 639 618 588 584 574 566 570 570 574 579 570 574 557 561 561 545 0 537 533 511 514 0 0 0 493 487 487 487 0 474 474 490 487 484 484 477 474 462 457 448 446 440 438 435 0 0 0 0 425 420 418 411 404 402 402 399 393 391 389 383 375 0 364 0 0 0 0 0
    0 0 0 0 0 0 0 0 0 0 0 0 0 0 0 0 0 0 0 0 0 0 0 0 0 0 0 0 0 0 0 0 0 0 0 0 0 0 0 0 0 0 0 0 0 0 0 0 0 0 0 0 0 0 0 0 0 0 0 0 0 0 0 0 0 0 0 0 0 1565 1415 1635 1599 1711 0 0 0 0 1672 1795 1839 1936 1887 1989 2044 2044 2102 2102 2102 2230 2044 2299 2299 2164 1989 2299 2537 2453 2537 2830 2725 2725 2537 2943 2725 2725 2725 2725 2537 2537 2628 2830 2830 3066 3199 3066 3345 3199 3345 3504 3679 4088 3679 4088 4599 4088 4088 4088 3504 3345 3345 3679 3873 4088 4088 5256 6133 8177 0 0 0 8177 8177 0 0 8177 7359 6690 6690 6690 5256 5256 5256 5256 5661 4599 4906 5256 5256 5661 5256 5256 5256 5256 6690 7359 6690 6133 6133 6690 6690 6690 6690 4329 3504 3066 2374 2453 2102 2299 2299 2102 2164 2299 2102 2102 1989 2102 1839 1839 1839 1795 1752 1752 1635 1635 1471 1443 0 0 0 1291 1291 1291 1226 1187 1247 1291 1206 1132 1115 1115 1066 1082 1051 1022 919 943 943 943 897 931 886 897 886 876 855 0 0 0 808 808 791 791 808 817 865 865 865 0 0 0 0 336 331 325 0 0 322 0 681 645 645 623 588 588 579 566 570 570 574 579 574 574 557 566 566 549 0 0 533 511 514 518 0 0 493 490 490 490 0 474 474 493 490 487 484 484 477 468 457 448 443 440 438 435 0 0 0 435 427 420 418 413 406 404 404 399 391 389 387 381 373 0 0 0 0 0 0 0
    0 0 0 0 0 0 0 0 0 0 0 0 0 0 0 0 0 0 0 0 0 0 0 0 0 0 0 0 0 0 0 0 0 0 0 0 0 0 0 0 0 0 0 0 0 0 0 0 0 0 0 0 0 0 0 0 0 0 0 0 0 0 0 0 0 0 0 0 0 1533 1415 1599 1565 1635 1599 1565 1565 1501 1533 1635 1711 1795 1795 1936 1989 1989 2044 2044 2102 2230 2044 2299 2374 2230 1989 2299 2537 2453 2537 2725 2725 2725 2537 2943 2725 2725 2725 2725 2628 2537 2628 2830 2830 2943 3066 3066 3199 3199 3345 3345 3504 3679 3504 3873 3873 3679 3679 3504 3199 3066 2943 3066 3199 3345 3345 3679 4329 6690 0 8177 8177 7359 7359 0 0 8177 7359 7359 6690 6690 5661 5256 5661 5661 5661 4599 4906 5256 4906 5661 5256 4906 4906 5256 6690 7359 6133 6133 6133 6690 6690 6690 6690 4599 3679 3199 2453 2453 2102 2299 2299 2164 2164 2230 2102 2102 1989 2044 1839 1839 1839 1795 1752 1752 1599 1635 1471 0 0 1291 1291 1291 1268 1268 1226 1187 1268 1291 1226 1187 1168 1168 1082 1082 1051 1022 919 943 943 943 897 931 897 908 886 886 855 0 0 0 817 817 791 791 808 817 865 865 855 0 0 0 0 0 0 0 0 0 0 694 675 645 645 623 593 598 588 574 579 574 579 584 579 579 561 566 566 553 553 545 537 511 514 518 497 0 493 490 490 490 511 474 477 493 490 490 487 484 484 477 468 457 448 443 443 438 0 0 0 0 430 422 420 415 411 411 408 404 399 395 393 383 0 0 0 0 0 0 0 0
    0 0 0 0 0 0 0 0 0 0 0 0 0 0 0 0 0 0 0 0 0 0 0 0 0 0 0 0 0 0 0 0 0 0 0 0 0 0 0 0 0 0 0 0 0 0 0 0 0 0 0 0 0 0 0 0 0 0 0 0 0 0 0 0 0 0 0 0 0 1565 1415 1565 1533 1533 1443 1443 1443 1415 1443 1533 1599 1672 1711 1839 1887 1887 1989 2044 2102 2230 2044 2299 2374 2299 1989 2299 2453 2453 2453 2725 2628 2725 2537 2830 2830 2725 2725 2725 2628 2628 2628 2830 2830 2943 3066 3066 3199 3066 3199 3199 3345 3504 3345 3504 3504 3345 3345 3199 2943 2943 2830 2943 2943 2943 2943 3199 3504 5661 7359 7359 7359 7359 8177 0 0 8177 8177 8177 7359 7359 5661 5661 5661 5661 5256 4599 5256 5256 4906 5256 5256 4906 4599 5256 7359 7359 6690 6133 6133 6690 6690 7359 7359 4599 3873 3199 2537 2453 2164 2374 2299 2164 2164 2230 2102 2102 1989 2044 1839 1795 1839 1795 1795 1752 1599 1635 1443 0 0 1291 1291 1268 1268 1268 1247 1206 1291 1314 1268 1226 1247 1226 1098 1082 1051 1022 919 943 943 943 897 931 897 908 897 886 865 845 845 0 817 0 799 791 808 817 876 865 865 0 0 0 0 0 0 694 687 681 681 687 663 645 645 629 603 608 598 588 588 584 584 588 579 579 566 566 566 557 557 553 541 514 518 521 504 0 497 490 490 490 518 474 477 497 493 490 487 487 484 481 471 459 451 446 446 443 0 0 440 440 435 427 425 420 413 415 415 411 406 404 404 393 0 0 0 0 0 0 0 0
    0 0 0 0 0 0 0 0 0 0 0 0 0 0 0 0 0 0 0 0 0 0 0 0 0 0 0 0 0 0 0 0 0 0 0 0 0 0 0 0 0 0 0 0 0 0 0 0 0 0 0 0 0 0 0 0 0 0 0 0 0 0 0 0 0 0 0 0 0 1533 1388 1471 1443 1415 1388 1388 1388 1362 1415 1471 1501 1599 1672 1839 1839 1887 1936 2044 2044 2164 2044 2299 2374 2299 2044 2230 2453 2453 2453 2628 2628 2628 2537 2830 2830 2725 2725 2725 2628 2628 2628 2830 2830 2830 2943 3066 3199 3066 3066 3066 3199 3345 3199 3066 2943 2943 2830 3066 2725 2830 2725 2830 2943 2943 2943 3199 3199 4906 6690 6690 7359 7359 8177 0 0 0 8177 8177 0 8177 6690 5661 6133 6133 5661 4599 5256 5256 4906 5256 5256 4599 4599 4906 6690 6690 6133 6690 6690 7359 7359 7359 6690 4329 3679 3066 2628 2453 2299 2453 2453 2299 2299 2230 2164 2102 2044 2044 1839 1795 1839 1795 1795 1752 1599 1599 1415 0 0 1291 1291 1268 1268 1268 1268 1247 1314 1362 1291 1268 1291 1268 1115 1066 1036 1022 919 943 943 943 897 931 897 908 897 897 876 845 845 0 0 0 799 799 817 817 876 865 0 0 0 0 0 0 700 687 675 675 675 681 663 651 651 639 618 618 608 603 598 593 588 588 579 579 566 561 566 557 557 557 541 518 521 521 507 500 497 493 493 493 521 474 477 493 490 487 484 481 481 477 468 462 451 446 448 446 0 0 446 448 438 430 427 422 415 418 415 413 408 408 406 397 385 0 0 0 0 0 0 0
    0 0 0 0 0 0 0 0 0 0 0 0 0 0 0 0 0 0 0 0 0 0 0 0 0 0 0 0 0 0 0 0 0 0 0 0 0 0 0 0 0 0 0 0 0 0 0 0 0 0 0 0 0 0 0 0 0 0 0 0 0 0 0 0 0 0 0 0 0 1471 1362 1415 1388 1388 1362 1362 1388 1362 1388 1443 1471 1565 1635 1752 1839 1839 1936 1989 2044 2164 2044 2299 2299 2299 2044 2230 2453 2453 2453 2628 2628 2628 2537 2830 2830 2725 2725 2725 2725 2628 2628 2725 2725 2628 2830 2943 2943 2943 2943 2943 2943 3066 3066 2830 2537 2453 2374 2537 2453 2537 2537 2628 2725 2725 2628 2830 2830 3679 5661 5661 6133 6133 8177 0 0 8177 8177 8177 0 7359 6133 5256 5661 6133 5256 4329 4906 4906 4599 4599 4906 4329 4329 4906 6690 6690 6133 6690 6690 8177 7359 7359 6690 4329 0 0 2830 2628 2537 2628 2628 2537 2453 2374 2299 2230 2164 2102 1887 1839 1887 1839 1795 1752 1565 1599 1415 1338 0 1291 1291 1268 1268 1291 1291 1268 1362 1415 1362 1314 1362 1314 1115 1051 1022 1008 919 931 943 943 886 931 897 908 897 886 876 855 855 0 0 0 808 808 826 817 0 865 0 0 0 743 0 694 694 687 675 675 669 681 663 651 657 645 623 623 618 608 608 598 588 584 579 574 566 557 557 557 557 557 545 518 521 521 511 504 500 497 497 497 529 477 474 490 487 484 477 477 474 471 465 468 454 448 0 454 0 457 454 457 443 0 432 425 420 420 415 413 408 408 406 397 391 0 0 0 0 0 0 0
    0 0 0 0 0 0 0 0 0 0 0 0 0 0 0 0 0 0 0 0 0 0 0 0 0 0 0 0 0 0 0 0 0 0 0 0 0 0 0 0 0 0 0 0 0 0 0 0 0 0 0 0 0 0 0 0 0 0 0 0 0 0 0 0 0 0 0 0 0 1471 1362 1388 1388 1362 1362 1362 1415 1362 1388 1443 1471 1533 1599 1711 1795 1795 1839 1936 1989 2102 2044 2299 2299 2299 2044 2230 2453 2453 2453 2537 2537 2537 2537 2830 2830 2725 2725 2725 2725 2725 2628 2628 2628 2537 2725 2725 2830 2830 2830 2830 2943 2943 2943 2830 2453 2374 2230 2374 2299 2374 2453 2537 2537 2537 2453 2725 2725 3199 4329 4599 4906 5661 7359 0 8177 8177 8177 0 0 7359 5661 5256 5256 5661 5256 4088 4906 4906 4599 4599 4906 4599 4329 4906 7359 6690 6690 7359 7359 0 8177 7359 7359 4088 3679 3199 2830 2628 2628 2725 2725 2628 2628 2537 2453 2374 2299 2230 1936 1887 1936 1795 1795 1752 1533 1533 1388 1314 1314 1314 1314 1291 1291 1291 1314 1314 1415 1443 1388 1338 1388 1314 1132 1036 1008 1008 919 943 943 943 886 931 908 908 897 897 886 865 855 0 0 0 817 817 826 817 0 865 0 0 0 721 694 687 687 681 669 669 663 675 657 657 657 645 629 629 618 613 608 598 593 588 584 579 566 557 561 557 557 561 545 518 521 521 514 504 504 500 500 497 529 477 474 487 484 477 474 474 471 468 465 474 459 457 0 465 0 468 459 465 446 0 432 427 422 420 413 411 408 406 404 395 393 0 0 0 0 0 0 0
    0 0 0 0 0 0 0 0 0 0 0 0 0 0 0 0 0 0 0 0 0 0 0 0 0 0 0 0 0 0 0 0 0 0 0 0 0 0 0 0 0 0 0 0 0 0 0 0 0 0 0 0 0 0 0 0 0 0 0 0 0 0 0 0 0 0 0 0 0 1471 1362 1388 1388 1362 1362 1362 1415 1388 1388 1415 1443 1533 1565 1635 1711 1752 1752 1839 1839 2044 2044 2230 2299 2299 2044 2230 2453 2537 2453 2537 2453 2537 2453 2725 2830 2628 2628 2725 2725 2725 2628 2628 2537 2537 2628 2628 2725 2725 2725 2725 2830 2830 2830 2725 2374 2374 2164 2374 2230 2299 2453 2453 2537 2537 2453 2725 2628 3199 3679 3873 4088 4906 6690 8177 8177 7359 8177 0 0 7359 5661 4906 4906 5661 4906 4088 4599 4599 4599 4599 4906 4906 4599 5256 8177 7359 7359 8177 8177 0 8177 6690 0 3679 3345 3066 2830 2725 2830 2830 2830 2725 2725 2628 2628 2453 2374 2230 1936 1936 1936 1795 1752 1711 1533 1501 1362 0 1314 1314 1338 1314 1291 1291 1338 1338 1443 1471 1362 1338 1388 1314 1149 1036 1036 1008 931 943 955 943 886 931 908 908 897 897 886 865 865 876 0 0 826 817 836 817 0 0 0 0 0 707 687 681 681 675 669 669 657 675 657 657 657 645 629 629 623 618 613 603 593 588 584 584 574 561 561 557 557 561 549 518 525 521 521 507 507 504 504 504 529 481 474 484 481 477 474 471 468 465 465 471 457 454 0 462 0 471 465 468 448 438 432 427 422 420 411 408 406 404 399 393 391 375 0 0 0 0 0 0
    0 0 0 0 0 0 0 0 0 0 0 0 0 0 0 0 0 0 0 0 0 0 0 0 0 0 0 0 0 0 0 0 0 0 0 0 0 0 0 0 0 0 0 0 0 0 0 0 0 0 0 0 0 0 0 0 0 0 0 0 0 0 0 0 0 0 0 0 0 1471 1362 1388 1388 1362 1362 1362 1388 1388 1388 1388 1415 1501 1533 1565 1635 1672 1672 1752 1795 1936 1989 2164 2230 2299 2102 2230 2374 2537 2453 2453 2453 2453 2453 2725 2830 2628 2628 2725 2725 2725 2725 2628 2453 2453 2628 2628 2628 2628 2628 2628 2725 2830 2830 2725 2374 2374 2164 2374 2230 2374 2537 2537 2537 2537 2453 2725 2725 3066 3199 3504 3873 4329 6133 7359 6690 6690 6690 7359 6690 6133 5256 4906 4599 5256 4906 4088 4599 4599 4599 4599 4906 5256 4599 5661 7359 7359 7359 8177 0 0 7359 0 0 3679 3504 3199 2943 2830 3066 3066 2943 2830 2830 2628 2628 2453 2374 2230 1936 1936 1936 1839 1752 1711 1533 1471 1362 0 0 0 1338 1314 1291 1291 1362 1362 1471 1501 1362 1338 1415 1314 1187 1066 1066 1022 968 955 968 955 897 931 919 908 908 897 897 876 876 876 836 826 826 808 826 791 0 766 121 0 0 700 681 681 675 675 663 663 651 669 651 651 657 645 634 634 623 618 618 608 598 593 588 588 579 561 566 557 557 561 549 521 529 525 525 514 511 511 511 507 533 490 481 484 481 477 471 474 471 468 462 465 0 0 0 0 0 471 465 471 457 454 0 432 427 422 413 408 404 402 397 393 389 377 0 0 0 0 0 0
    0 0 0 0 0 0 0 0 0 0 0 0 0 0 0 0 0 0 0 0 0 0 0 0 0 0 0 0 0 0 0 0 0 0 0 0 0 0 0 0 0 0 0 0 0 0 0 0 0 0 0 0 0 0 0 0 0 0 0 0 0 0 0 0 0 0 0 0 0 1471 1362 1388 1388 1362 1362 1362 1415 1415 1415 1415 1415 1501 1533 1533 1565 1599 1635 1711 1711 1936 1989 2102 2230 2299 2102 2230 2374 2537 2453 2453 2374 2453 2453 2628 2725 2537 2628 2725 2628 2725 2725 2537 2374 2453 2628 2537 2537 2725 2628 2628 2725 2830 2830 2725 2374 2374 2164 2299 2230 2374 2537 2537 2537 2628 2537 2725 2725 2943 2943 3066 3504 3873 6133 6690 6133 5661 5661 5661 5661 4599 4329 4329 4088 4906 4599 4088 4599 4599 4599 4599 4906 5256 4906 6133 6690 7359 6690 8177 0 0 6133 5256 4599 3873 3679 3345 3199 3066 3199 3199 2943 2943 2830 2725 2725 2453 2374 2230 1989 1989 1887 1795 1752 1711 1501 1443 1338 0 0 0 0 0 0 1314 1388 1388 1471 1501 1362 1338 1388 1314 1226 1115 1132 1051 994 981 981 968 897 943 919 908 908 897 897 876 876 876 836 826 826 808 817 774 758 707 0 0 0 687 675 675 675 675 663 663 651 663 645 651 651 645 634 634 623 623 623 613 603 593 588 588 579 557 561 557 557 561 549 521 529 525 529 518 514 514 514 514 533 497 487 484 481 477 474 474 471 471 465 465 0 0 0 459 457 465 462 471 462 468 471 448 438 427 415 408 402 402 395 393 387 375 0 0 0 0 0 0
    0 0 0 0 0 0 0 0 0 0 0 0 0 0 0 0 0 0 0 0 0 0 0 0 0 0 0 0 0 0 0 0 0 0 0 0 0 0 0 0 0 0 0 0 0 0 0 0 0 0 0 0 0 0 0 0 0 0 0 0 0 0 0 0 0 0 0 0 0 1443 1362 1388 1415 1388 1388 1388 1415 1415 1415 1415 1415 1501 1533 1533 1533 1565 1599 1672 1672 1887 1989 2044 2164 2299 2164 2230 2374 2537 2453 2453 2374 2374 2453 2628 2725 2537 2628 2628 2628 2628 2628 2453 2299 2453 2537 2453 2453 2628 2628 2628 2725 2830 2725 2725 2299 2299 2230 2299 2299 2453 2628 2537 2537 2628 2628 2725 2725 2830 2725 2453 3199 3345 4906 6133 5661 4906 4599 4599 4599 4088 3873 3873 3873 4599 4329 4088 4329 4599 4599 4599 4906 5256 4599 5661 6133 6690 6133 7359 8177 8177 5256 4599 4329 4088 3873 3504 3345 3066 3345 3345 3066 2943 2943 2725 2725 2537 2453 2299 2044 2044 1936 1795 1711 1711 1501 1443 1362 1314 0 0 0 0 0 1314 1388 1388 1471 1443 1338 1338 1388 1314 1247 1206 1226 1098 1036 1008 1008 994 908 955 931 919 908 897 886 876 876 876 826 826 826 799 808 774 721 694 0 0 0 681 669 675 675 675 663 663 651 663 651 657 651 645 639 634 623 629 629 618 0 593 593 588 579 557 561 553 553 557 549 525 533 529 529 521 518 518 518 518 537 504 487 484 477 471 468 471 468 468 465 465 454 454 459 457 459 465 462 468 462 465 0 448 0 425 408 404 399 399 395 391 387 377 0 0 0 0 0 0
    0 0 0 0 0 0 0 0 0 0 0 0 0 0 0 0 0 0 0 0 0 0 0 0 0 0 0 0 0 0 0 0 0 0 0 0 0 0 0 0 0 0 0 0 0 0 0 0 0 0 0 0 0 0 0 0 0 0 0 0 0 0 0 0 0 0 0 0 0 1415 1362 1362 1388 1388 1388 1388 1443 1443 1443 1443 1415 1533 1533 1501 1533 1565 1599 1635 1672 1887 1936 2044 2164 2230 2164 2230 2374 2537 2537 2453 2374 2374 2453 2628 2725 2537 2537 2628 2537 2628 2628 2453 2374 2453 2537 2453 2453 2537 2537 2537 2725 2830 2725 2725 2230 2299 2230 2299 2299 2453 2628 2453 2537 2628 2628 2628 2628 2725 2537 2102 2725 2628 3199 4906 4599 3873 3873 3504 3873 3679 3504 3873 3679 4599 4329 4088 4329 4599 4599 4599 4906 5661 4906 5661 6133 6690 6133 7359 8177 8177 5256 4599 4329 4088 3873 3504 3345 3066 3345 3345 3066 2943 2830 2830 2725 2628 2537 2299 2044 2102 1936 1839 1752 1752 1533 1501 1388 1338 1362 1388 1388 0 0 1388 1443 1471 1565 1635 1443 1415 1533 1338 1291 1247 1226 1149 1082 1051 1036 1008 931 955 943 919 919 897 886 876 876 886 836 826 836 808 817 799 0 0 0 0 0 0 669 681 675 675 669 669 657 669 657 657 657 651 639 634 623 629 623 613 0 593 593 588 574 553 557 553 553 557 549 529 537 533 533 529 521 521 521 521 537 504 0 477 471 459 459 462 457 459 459 459 448 448 454 454 454 465 462 468 462 465 468 448 0 425 404 399 397 397 393 393 387 377 0 0 0 0 0 0
    0 0 0 0 0 0 0 0 0 0 0 0 0 0 0 0 0 0 0 0 0 0 0 0 0 0 0 0 0 0 0 0 0 0 0 0 0 0 0 0 0 0 0 0 0 0 0 0 0 0 0 0 0 0 0 0 0 0 0 0 0 0 0 0 0 0 0 0 0 1388 1338 1362 1388 1388 1415 1415 1443 1443 1443 1443 1415 1501 1501 1471 1471 1501 1565 1599 1635 1887 1936 2044 2164 2230 2230 2230 2374 2537 2537 2537 2374 2453 2537 2628 2725 2537 2628 2628 2537 2628 2725 2453 2374 2453 2537 2453 2453 2537 2537 2537 2725 2725 2725 2725 2164 2230 2230 2299 2299 2453 2628 2453 2537 2628 2628 2725 2628 2830 2628 2299 2830 2725 3199 4329 4088 3504 3504 3345 3504 3504 3504 3873 3504 4329 4329 3873 4329 4599 4599 4599 4599 5661 4599 5256 6133 6690 6133 8177 8177 9199 5256 4599 4329 4088 3873 3504 3345 3199 3345 3345 3066 2943 2830 2830 2725 2628 2537 2374 2102 2164 1989 1795 1752 1752 1533 1501 1415 1362 1388 1415 1415 1388 0 1443 1471 1501 1635 1672 1471 1415 1443 1314 1291 1247 1226 1132 1098 1082 1051 1022 943 968 943 931 919 897 886 876 876 897 845 836 855 826 836 817 750 0 0 0 0 0 0 694 681 687 681 681 669 675 663 663 657 645 639 629 623 623 623 608 0 593 593 588 574 553 553 549 545 549 545 525 533 529 533 529 525 525 525 525 537 504 0 468 465 454 451 454 451 451 454 457 446 448 451 454 457 465 465 468 0 471 474 454 0 418 397 395 393 395 393 391 387 375 0 0 0 0 0 0
    0 0 0 0 0 0 0 0 0 0 0 0 0 0 0 0 0 0 0 0 0 0 0 0 0 0 0 0 0 0 0 0 0 0 0 0 0 0 0 0 0 0 0 0 0 0 0 0 0 0 0 0 0 0 0 0 0 0 0 0 0 0 0 0 0 0 0 0 0 1388 1338 1388 1415 1415 1415 1415 1471 1443 1471 1443 1415 1471 1471 1443 1443 1471 1533 1565 1635 1839 1936 2044 2164 2230 2230 2230 2374 2537 2537 2537 2453 2453 2537 2537 2725 2537 2537 2628 2537 2725 2725 2453 2374 2453 2537 2453 2453 2537 2537 2537 2725 2725 2628 2725 2230 2299 2230 2299 2230 2374 2537 2453 2453 2628 2628 2628 2628 2725 2628 2374 2830 2628 2943 3504 3504 3199 3199 3066 3345 3199 3345 3679 3504 4088 4329 3873 4088 4329 4329 4599 4599 5661 4599 5256 6133 7359 6690 8177 0 8177 5256 4906 4906 4599 4088 3679 3504 3199 3345 3199 2943 2830 2830 2725 2725 2628 2537 2374 2164 2230 1989 1839 1711 1752 1501 1533 1443 1362 1415 1415 1415 1415 1388 1471 1471 1501 1635 1672 1501 1443 1443 1338 1291 1268 1226 1115 1098 1082 1051 1022 955 968 955 943 931 908 886 886 886 908 855 845 855 826 836 817 774 735 728 728 721 728 728 714 707 721 707 707 687 687 675 657 651 634 634 623 618 618 618 603 0 598 598 588 570 553 553 545 541 545 541 521 533 529 529 529 525 529 525 525 537 504 0 468 465 454 451 454 451 454 454 457 448 448 451 454 457 465 459 462 457 459 0 0 427 408 397 395 393 395 393 391 387 375 0 0 0 0 0 0
    0 0 0 0 0 0 0 0 0 0 0 0 0 0 0 0 0 0 0 0 0 0 0 0 0 0 0 0 0 0 0 0 0 0 0 0 0 0 0 0 0 0 0 0 0 0 0 0 0 0 0 0 0 0 0 0 0 0 0 0 0 0 0 0 0 0 0 0 0 1362 1362 1388 1443 1415 1415 1443 1443 1443 1443 1415 1388 1443 1415 1415 1415 1443 1501 1533 1599 1795 1936 1989 2164 2230 2230 2164 2374 2537 2537 2537 2453 2453 2537 2537 2725 2453 2537 2628 2537 2628 2725 2453 2453 2537 2537 2453 2453 2537 2537 2537 2628 2725 2628 2830 2299 2299 2299 2299 2230 2374 2537 2453 2453 2628 2628 2628 2628 2830 2628 2374 2830 2537 2830 3199 3345 3066 2943 2830 3066 3199 3199 3504 3345 3873 4329 3873 4088 4599 4599 4906 4599 6133 5256 5661 6690 7359 6690 7359 7359 7359 4599 4599 4599 4599 4088 3679 3345 3066 3199 3066 2830 2628 2628 2628 2628 2537 2374 2299 2164 2164 1936 1839 1711 1752 1533 1533 1443 1388 1415 1415 1415 1415 1415 1501 1471 1471 1635 1635 1415 1388 1362 1291 1268 1268 1226 1098 1082 1082 1051 1022 955 968 968 943 943 931 886 897 897 919 865 845 845 817 826 817 774 743 743 743 743 758 791 782 791 799 808 808 782 774 700 669 651 618 629 618 608 613 613 603 603 608 603 593 579 561 557 545 541 541 541 525 537 533 533 529 529 529 529 529 541 507 487 477 471 465 462 462 459 459 462 457 448 448 451 451 457 468 459 454 448 443 0 0 415 408 404 397 397 397 395 395 391 377 0 0 0 0 0 0
    0 0 0 0 0 0 0 0 0 0 0 0 0 0 0 0 0 0 0 0 0 0 0 0 0 0 0 0 0 0 0 0 0 0 0 0 0 0 0 0 0 0 0 0 0 0 0 0 0 0 0 0 0 0 0 0 0 0 0 0 0 0 0 0 0 0 0 0 0 1362 1362 1388 1443 1443 1443 1443 1415 1443 1443 1388 1388 1415 1415 1388 1415 1443 1471 1471 1565 1752 1887 1936 2102 2164 2230 2164 2374 2537 2537 2537 2537 2453 2537 2537 2725 2453 2537 2628 2453 2628 2725 2537 2453 2537 2537 2374 2374 2537 2537 2453 2628 2628 2628 2725 2299 2299 2374 2374 2230 2453 2628 2453 2537 2628 2725 2725 2725 2943 2537 2230 2725 2230 2537 2943 3066 2943 2830 2725 3066 3199 3066 3199 3066 3679 4088 3873 3873 4329 4599 4599 4599 6133 5256 5256 5661 6690 4329 6690 6690 6690 4329 4088 4329 4599 3873 3504 3199 3066 3199 3066 2725 2628 2628 2628 2537 2453 2299 2230 2102 2102 1936 1839 1752 1752 1533 1565 1471 1388 1415 1415 1415 1415 1415 1471 1443 1471 1599 1471 1314 1291 1291 1247 1226 1247 1226 1115 1082 1082 1066 1022 968 968 968 955 943 931 876 876 886 908 865 836 836 817 826 817 774 743 743 743 750 766 799 791 799 799 808 817 808 817 728 687 687 618 629 613 608 608 608 598 598 608 603 588 574 561 553 545 541 541 541 525 537 533 533 533 529 533 533 533 549 514 490 484 477 474 471 471 468 468 468 462 451 451 451 454 459 468 462 454 451 0 0 0 425 411 406 399 397 399 397 395 391 379 0 0 0 0 0 0
    0 0 0 0 0 0 0 0 0 0 0 0 0 0 0 0 0 0 0 0 0 0 0 0 0 0 0 0 0 0 0 0 0 0 0 0 0 0 0 0 0 0 0 0 0 0 0 0 0 0 0 0 0 0 0 0 0 0 0 0 0 0 0 0 0 0 0 0 0 1338 1362 1388 1443 1443 1443 1443 1415 1415 1443 1388 1388 1388 1388 1388 1388 1415 1443 1443 1533 1752 1887 1936 2102 2164 2230 2164 2374 2537 2537 2537 2537 2453 2537 2537 2725 2374 2537 2628 2453 2628 2628 2453 2453 2537 2537 2453 2374 2537 2453 2453 2537 2628 2537 2725 2374 2374 2374 2374 2230 2453 2628 2374 2537 2628 2725 2628 2725 2830 2453 2164 2628 2102 2299 2628 2830 2725 2725 2830 2943 3066 3066 3199 3199 3679 3873 4088 3873 4599 4599 4599 4906 6133 5256 5661 4599 6133 3345 5661 6133 6133 4599 4329 4329 4906 4088 3504 3199 3066 3066 2943 2725 2628 2537 2537 2537 2453 2230 2164 2044 2044 1887 1795 1752 1752 1565 1565 1471 1388 1443 1443 1443 1415 1415 1471 1443 1443 1565 1362 1314 1291 1291 1247 1226 1268 1206 1115 1066 1066 1036 1008 955 968 955 955 955 943 886 876 886 897 855 845 836 817 826 817 791 750 758 758 758 774 791 791 799 799 808 817 817 817 714 687 694 639 645 629 608 613 613 598 603 608 598 574 561 553 545 541 537 537 537 521 537 533 533 533 529 533 533 533 557 518 490 487 481 477 474 474 471 471 471 468 459 454 454 457 462 468 457 446 446 438 430 0 432 420 411 406 404 399 399 397 393 377 0 0 0 0 0 0
    0 0 0 0 0 0 0 0 0 0 0 0 0 0 0 0 0 0 0 0 0 0 0 0 0 0 0 0 0 0 0 0 0 0 0 0 0 0 0 0 0 0 0 0 0 0 0 0 0 0 0 0 0 0 0 0 0 0 0 0 0 0 0 0 0 0 0 0 0 1338 1362 1388 1443 1443 1443 1443 1415 1415 1443 1388 1362 1362 1362 1362 1362 1388 1415 1443 1501 1711 1887 1936 2102 2164 2230 2164 2374 2537 2537 2453 2537 2453 2537 2537 2628 2299 2453 2453 2374 2537 2628 2453 2453 2537 2453 2453 2374 2537 2453 2374 2537 2453 2537 2628 2299 2299 2374 2374 2230 2453 2537 2374 2537 2725 2725 2725 2725 2830 2453 2230 2537 1936 2044 2299 2537 2537 2537 2628 2943 2943 3066 3199 3066 3504 3873 4088 3679 4088 4329 4329 4599 5661 4329 4599 4329 6690 3679 4599 5256 5256 4329 3873 4088 4088 3679 3345 3199 3066 3066 2830 2628 2537 2537 2537 2537 2453 2230 2164 2044 1989 1887 1795 1752 1752 1565 1565 1471 1388 1443 1443 1443 1388 1415 1471 1443 1443 1565 1338 1314 1291 1314 1268 1247 1291 1206 1098 1051 1051 1036 994 943 955 943 955 955 943 886 876 897 919 876 865 845 845 855 886 826 817 799 774 791 791 799 808 791 791 799 817 808 791 700 687 700 657 675 687 623 634 623 598 598 603 598 570 561 553 545 545 537 537 537 521 537 533 533 533 529 533 529 529 553 518 487 487 481 477 474 474 474 474 474 474 465 457 457 462 465 468 457 446 440 438 430 432 427 415 411 406 404 402 402 397 395 377 0 0 0 0 0 0
    0 0 0 0 0 0 0 0 0 0 0 0 0 0 0 0 0 0 0 0 0 0 0 0 0 0 0 0 0 0 0 0 0 0 0 0 0 0 0 0 0 0 0 0 0 0 0 0 0 0 0 0 0 0 0 0 0 0 0 0 0 0 0 0 0 0 0 0 0 1338 1362 1362 1415 1415 1415 1415 1388 1388 1388 1362 1338 1338 1338 1338 1362 1362 1415 1415 1471 1672 1839 1887 2044 2102 2164 2102 2374 2537 2537 2453 2453 2374 2453 2453 2628 2164 2230 2299 2299 2537 2537 2374 2537 2537 2453 2453 2453 2453 2374 2374 2537 2453 2537 2628 2299 2299 2374 2453 2230 2453 2537 2374 2537 2628 2725 2628 2537 2830 2453 2164 2374 1887 1989 2164 2374 2453 2537 2537 2725 2830 0 0 0 0 0 0 0 3873 4088 4088 4599 4906 4329 4329 0 0 0 0 0 0 0 0 0 3345 3345 3345 2943 2943 2943 2725 2628 2628 2537 2628 2453 2453 2230 2164 2044 1989 1887 1795 1795 1752 1565 1565 1471 1388 1471 1415 1443 1388 1388 1443 1415 1415 1565 1314 1338 1314 1338 1247 1226 1268 1187 1082 1051 1036 1022 994 955 955 943 955 955 955 897 886 908 931 886 876 855 855 865 919 855 845 855 817 845 836 817 826 799 799 808 808 791 766 707 694 700 663 675 694 629 639 623 598 603 608 603 584 579 566 549 549 541 541 541 521 533 529 529 529 529 529 529 529 545 521 487 490 487 481 477 477 471 474 477 474 471 465 462 468 471 474 468 462 451 440 430 430 422 408 408 406 404 402 402 397 397 381 0 0 0 0 0 0
    0 0 0 0 0 0 0 0 0 0 0 0 0 0 0 0 0 0 0 0 0 0 0 0 0 0 0 0 0 0 0 0 0 0 0 0 0 0 0 0 0 0 0 0 0 0 0 0 0 0 0 0 0 0 0 0 0 0 0 0 0 0 0 0 0 0 0 0 0 1314 1362 1388 1388 1388 1388 1388 1362 1362 1362 1338 1338 1338 1338 1338 1338 1362 1388 1388 1443 1599 1795 1839 2044 2044 2102 2044 2374 2537 2453 2453 2453 2374 2453 2374 2537 2044 2044 2044 2299 2537 2537 2299 2453 2453 2374 2453 2453 2453 2299 2374 2453 2374 2537 2628 2299 2374 2374 2453 2230 2374 2453 2374 2537 2628 2628 2374 2230 2537 2044 1936 1989 1795 1887 2044 2164 2374 2453 2537 2628 0 0 0 0 0 0 0 0 0 0 0 0 0 0 0 0 0 0 0 0 0 0 0 0 0 0 3066 2374 2628 2830 2537 2537 2537 2453 2537 2374 2374 2164 2102 2044 1936 1839 1795 1795 1752 1565 1501 1443 1362 1443 1415 1415 1362 1362 1415 1415 1415 1565 1338 1338 1291 1338 1247 1226 1247 1149 1082 1036 1036 1022 994 968 968 955 955 955 955 908 908 919 931 908 897 876 876 876 919 865 855 865 817 0 897 919 876 799 826 845 836 826 774 700 687 700 657 675 694 634 645 629 603 603 608 603 579 574 579 553 549 545 545 541 525 533 533 529 529 529 529 525 525 537 521 493 493 493 487 487 481 474 474 474 474 468 465 462 468 468 474 468 465 459 443 430 427 420 411 411 408 406 404 402 397 397 379 0 0 0 0 0 0
    0 0 0 0 0 0 0 0 0 0 0 0 0 0 0 0 0 0 0 0 0 0 0 0 0 0 0 0 0 0 0 0 0 0 0 0 0 0 0 0 0 0 0 0 0 0 0 0 0 0 0 0 0 0 0 0 0 0 0 0 0 0 0 0 0 0 0 0 0 1314 1362 1362 1388 1388 1362 1388 1362 1362 1362 1314 1338 1314 1314 1314 1338 1362 1362 1388 1443 1501 1711 1795 1989 1989 2044 1989 2374 2537 2537 2453 2453 2299 2374 2299 2374 1936 1936 1887 2164 2374 2453 2230 2453 2453 2299 2453 2453 2374 2164 2299 2374 2299 2453 2537 2374 2453 2374 2537 2230 2453 2537 2628 2628 2628 2453 2164 1936 1936 1795 1752 1752 1752 1887 2044 2102 2299 2374 2537 0 0 0 0 0 0 0 0 0 0 0 0 0 0 0 0 0 0 0 0 0 0 0 0 0 0 0 0 2537 2830 2830 2374 2628 2537 2453 2537 2374 2299 2102 2044 2044 1887 1839 1795 1752 1752 1533 1443 1388 1338 1388 1388 1388 1338 1338 1338 1388 1388 1443 1291 1291 1268 1314 1226 1206 1226 1149 1098 1066 1051 1036 1008 981 981 955 968 968 968 919 919 919 931 897 886 855 865 865 897 845 826 836 808 981 876 981 0 0 886 876 845 826 758 700 707 707 675 669 707 645 669 639 603 603 608 598 579 574 579 557 545 541 537 537 521 529 529 525 525 529 525 525 525 533 521 500 504 507 497 500 487 481 477 477 474 471 465 465 468 471 474 468 465 459 443 430 430 425 411 413 408 406 402 402 395 395 377 0 0 0 0 0 0
    0 0 0 0 0 0 0 0 0 0 0 0 0 0 0 0 0 0 0 0 0 0 0 0 0 0 0 0 0 0 0 0 0 0 0 0 0 0 0 0 0 0 0 0 0 0 0 0 0 0 0 0 0 0 0 0 0 0 0 0 0 0 0 0 0 0 0 0 0 1338 1362 1362 1388 1362 1362 1362 1338 1362 1362 1314 1338 1314 1314 1338 1338 1362 1388 1388 1471 1443 1599 1752 1839 1887 1936 1887 2230 2299 2299 2230 2299 2102 2230 2102 2044 1839 1839 1752 1989 2164 2164 2102 2230 2374 2164 2374 2374 2299 2164 2230 2374 2374 2453 2453 2374 2537 2374 2628 2453 2453 2374 2102 1887 1839 1711 1672 1565 1501 1501 1501 1599 1752 1887 1936 2044 2164 2230 2374 0 0 0 0 0 0 0 0 0 0 0 0 0 0 0 0 0 0 0 0 0 0 0 0 0 0 0 0 0 2725 2830 2374 2537 2453 2374 2453 2299 2230 2044 2044 2044 1839 1887 1795 1711 1752 1533 1415 1388 1338 1362 1362 1338 1291 1291 1291 1338 1338 1362 1268 1226 1226 1268 1206 1168 1187 1132 1115 1082 1066 1036 1022 994 994 968 968 968 968 931 931 931 931 897 886 845 855 855 865 817 808 817 791 836 845 876 955 0 955 897 876 855 808 735 817 728 694 681 707 657 669 639 618 629 618 603 588 584 584 566 553 553 545 541 521 529 529 525 525 529 521 518 521 529 518 504 507 511 504 507 497 484 481 481 474 474 465 465 468 468 474 465 454 446 432 427 430 425 415 415 411 408 404 402 395 397 379 0 0 0 0 0 0
    0 0 0 0 0 0 0 0 0 0 0 0 0 0 0 0 0 0 0 0 0 0 0 0 0 0 0 0 0 0 0 0 0 0 0 0 0 0 0 0 0 0 0 0 0 0 0 0 0 0 0 0 0 0 0 0 0 0 0 0 0 0 0 0 0 0 0 0 0 1362 1388 1362 1362 1362 1338 1362 1338 1338 1338 1291 1338 1314 1314 1338 1362 1388 1388 1415 1471 1415 1533 1635 1711 1752 1752 1795 1936 1989 2044 1989 2044 1936 1989 1936 1839 1795 1795 1752 1887 2044 2044 1989 2102 2299 2102 2299 2374 2374 2230 2374 2453 2374 2453 2374 2299 2537 2102 2537 2374 2102 1795 1795 1711 1672 1635 1599 1501 1471 1443 1501 1599 1752 1795 1887 1936 2102 2164 0 0 0 0 0 0 0 0 0 0 0 0 0 0 0 0 0 0 0 0 0 0 0 0 0 0 0 0 0 0 2830 2943 2537 2628 2537 2374 2453 2299 2164 1989 1989 1936 1795 1839 1795 1711 1711 1533 1388 1362 1314 1338 1338 1314 1291 1268 1268 1314 1314 1291 1247 1187 1187 1206 1168 1132 1168 1132 1115 1082 1082 1051 1036 1008 994 968 968 955 955 931 931 919 908 876 876 845 855 865 876 817 791 799 750 808 817 0 855 0 876 876 876 855 799 0 826 735 694 675 675 663 669 669 700 681 663 639 623 608 608 603 603 603 588 549 529 529 529 525 525 525 514 514 514 521 518 504 511 511 504 507 500 487 481 477 474 474 465 465 468 468 471 462 451 446 435 432 432 430 425 422 415 413 404 404 395 395 379 367 0 0 0 0 0
    0 0 0 0 0 0 0 0 0 0 0 0 0 0 0 0 0 0 0 0 0 0 0 0 0 0 0 0 0 0 0 0 0 0 0 0 0 0 0 0 0 0 0 0 0 0 0 0 0 0 0 0 0 0 0 0 0 0 0 0 0 0 0 0 0 0 0 0 0 1362 1388 1362 1362 1338 1338 1338 1314 1338 1338 1291 1338 1338 1338 1362 1388 1415 1443 1415 1471 1443 1501 1635 1599 1635 1635 1635 1752 1752 1795 1795 1752 1711 1795 1795 1711 1752 1752 1711 1887 2044 2044 1989 1989 2102 1989 2164 2374 2299 2164 2299 2374 2299 2374 2299 2164 2299 1936 2230 1936 1752 1533 1471 1471 1471 1501 1501 1471 1443 1471 1501 1635 1711 1752 1795 1839 1936 0 0 0 0 0 0 0 0 0 0 0 0 0 0 0 0 0 0 0 0 0 0 0 0 0 0 0 0 0 0 0 0 0 3199 3066 3066 2830 2537 2537 2102 1989 1936 1887 1752 1795 1752 1711 1711 1533 1388 1362 1314 1338 1338 1314 1268 1268 1247 1314 1314 1291 1247 1149 1168 1168 1132 1115 1149 1132 1115 1098 1098 1066 1051 1022 1008 981 981 968 943 908 908 886 865 855 855 836 855 876 897 836 826 836 782 0 817 782 817 791 826 836 826 817 758 694 766 728 694 663 669 669 681 0 721 694 675 669 651 618 629 618 623 608 598 557 533 529 529 521 521 525 507 507 511 518 511 500 507 507 500 504 500 484 481 477 477 474 468 471 471 471 468 462 451 446 440 435 438 435 432 427 420 415 402 399 393 391 377 369 0 0 0 0 0
    0 0 0 0 0 0 0 0 0 0 0 0 0 0 0 0 0 0 0 0 0 0 0 0 0 0 0 0 0 0 0 0 0 0 0 0 0 0 0 0 0 0 0 0 0 0 0 0 0 0 0 0 0 0 0 0 0 0 0 0 0 0 0 0 0 0 0 0 0 1362 1362 1362 1362 1338 1314 1314 1314 1314 1314 1291 1338 1362 1338 1388 1415 1443 1501 1443 1565 1501 1501 1635 1533 1533 1565 1565 1635 1672 1711 1711 1672 1672 1711 1672 1635 1711 1672 1635 1839 1936 1936 1936 1989 2102 1989 2102 2453 2299 2044 2230 2230 2230 2230 2164 1989 2044 1752 0 1501 1471 1443 1415 1415 1415 1443 1471 1443 1443 1471 1501 1599 1635 1672 1711 1711 0 0 0 0 0 0 0 0 0 0 0 0 0 0 0 0 0 0 0 0 0 0 0 0 0 0 0 0 0 0 0 0 0 0 0 0 0 0 0 2102 1989 1936 1887 1752 1711 1752 1711 1672 1672 1501 1388 1388 1338 1338 1338 1314 1291 1268 1247 1314 1314 1291 1226 1149 1149 1149 1115 1098 1115 1115 1115 1115 1082 1066 1066 1036 1022 981 981 955 919 886 897 855 836 826 826 817 836 865 897 845 845 855 817 855 826 791 791 766 817 808 799 799 743 694 0 721 694 657 681 669 675 0 721 687 675 663 645 618 623 613 613 603 593 557 537 529 525 518 518 521 500 504 507 511 507 500 507 507 500 507 500 484 477 474 474 471 465 471 468 462 459 451 440 435 435 432 432 427 422 425 413 411 397 393 389 387 375 369 0 0 0 0 0
    0 0 0 0 0 0 0 0 0 0 0 0 0 0 0 0 0 0 0 0 0 0 0 0 0 0 0 0 0 0 0 0 0 0 0 0 0 0 0 0 0 0 0 0 0 0 0 0 0 0 0 0 0 0 0 0 0 0 0 0 0 0 0 0 0 0 0 0 0 1388 1388 1362 1362 1338 1314 1338 1314 1338 1314 1314 1362 1362 1362 1415 1415 1471 1501 1471 1599 1565 1599 1672 1565 1565 1565 1565 1635 1672 1711 1711 1672 1635 1635 1599 1599 1635 1599 1471 1635 1839 1839 1839 1839 1887 1839 1887 2230 2164 1989 2230 2299 2230 2230 0 0 0 1362 0 1247 1291 1362 1362 1362 1362 1388 1415 1415 1443 1471 1533 1565 1599 1635 0 0 0 0 0 0 0 0 0 0 0 0 0 0 0 0 0 0 0 0 0 0 0 0 0 0 0 0 0 0 0 0 0 0 0 0 0 0 0 0 0 0 1936 1887 1887 1672 1672 1711 1672 1635 1635 1501 1415 1388 1362 1338 1338 1314 1291 1268 1247 1314 1291 1268 1226 1168 1149 1149 1115 1098 1115 1115 1115 1098 1082 1066 1066 1051 1022 994 981 955 931 876 886 836 817 817 817 808 817 836 855 826 845 845 799 0 0 758 0 782 826 817 791 808 774 707 766 735 700 623 645 639 645 629 657 663 651 645 629 603 608 603 608 598 593 566 545 533 525 514 514 514 493 497 504 504 504 500 504 504 500 511 504 481 474 468 468 468 0 0 465 459 457 446 438 432 435 432 432 422 0 0 0 0 0 393 389 385 0 0 0 0 0 0 0
    0 0 0 0 0 0 0 0 0 0 0 0 0 0 0 0 0 0 0 0 0 0 0 0 0 0 0 0 0 0 0 0 0 0 0 0 0 0 0 0 0 0 0 0 0 0 0 0 0 0 0 0 0 0 0 0 0 0 0 0 0 0 0 0 0 0 0 0 0 1388 1388 1362 1388 1362 1314 1338 1338 1362 1362 1362 1415 1415 1415 1501 1501 1565 1565 1501 1599 1533 1533 1672 1501 1533 1501 1565 1635 1672 1672 1672 1599 1599 1533 1565 1565 1565 1501 1362 1388 1635 1501 1672 1635 1752 1752 1752 1936 1989 1936 2299 2299 2164 0 0 955 1051 1247 1206 1226 1268 1314 1338 1362 1362 1388 1415 1415 1443 1471 1501 1533 1565 0 0 0 0 0 0 0 0 0 0 0 0 0 0 0 0 0 0 0 0 0 0 0 0 0 0 0 0 0 0 0 0 0 0 0 0 0 0 0 0 0 0 0 1887 1839 1839 1635 1635 1672 1635 1599 1599 1501 1388 1388 1362 1338 1338 1314 1291 1268 1247 1291 1268 1226 1226 1149 1149 1132 1115 1098 1098 1098 1115 1098 1082 1066 1066 1051 1036 1008 994 968 955 886 908 845 817 817 808 808 817 826 0 817 0 0 743 0 0 0 0 0 0 791 766 808 782 0 799 0 700 608 618 623 623 613 618 639 634 634 623 593 598 598 603 593 588 574 553 541 529 507 504 507 487 493 500 500 500 500 504 504 500 511 504 481 474 465 465 468 462 0 465 462 459 0 0 435 438 435 432 427 425 427 0 0 0 0 387 383 377 0 0 0 0 0 0
    0 0 0 0 0 0 0 0 0 0 0 0 0 0 0 0 0 0 0 0 0 0 0 0 0 0 0 0 0 0 0 0 0 0 0 0 0 0 0 0 0 0 0 0 0 0 0 0 0 0 0 0 0 0 0 0 0 0 0 0 0 0 0 0 0 0 0 0 0 1388 1388 1362 1388 1362 1338 1362 1362 1362 1388 1388 1471 1443 1443 1533 1533 1599 1599 1501 1599 1471 1501 1672 1415 1443 1471 1501 1565 1635 1635 1635 1565 1565 1501 1533 1533 1501 1388 1247 1247 1291 1247 1338 1338 1501 1599 1711 1936 2044 1989 2164 2164 2044 0 0 0 1066 1247 1206 1206 1247 1314 1362 1362 1362 1388 1415 1415 1415 1415 1443 1471 0 0 0 0 0 0 0 0 0 0 0 0 0 0 0 0 0 0 0 0 0 0 0 0 0 0 0 0 0 0 0 0 0 0 0 0 0 0 0 0 0 0 0 0 1839 1795 1795 1599 1635 1635 1635 1565 1599 1501 1388 1388 1362 1338 1338 1314 1291 1268 1226 1268 1247 1187 1187 1149 1132 1115 1098 1115 1098 1098 1115 1082 1082 1066 1066 1051 1036 1008 994 968 968 897 919 855 826 817 808 808 817 817 817 799 721 707 714 694 694 694 0 0 0 721 721 799 799 0 0 0 0 603 618 618 623 618 618 639 629 623 613 584 579 570 574 574 574 561 553 545 529 514 511 504 487 493 500 500 497 497 500 500 500 507 500 481 477 471 474 474 0 0 0 0 0 0 0 0 0 430 432 427 422 425 411 402 395 389 385 379 0 0 0 0 0 0 0
    0 0 0 0 0 0 0 0 0 0 0 0 0 0 0 0 0 0 0 0 0 0 0 0 0 0 0 0 0 0 0 0 0 0 0 0 0 0 0 0 0 0 0 0 0 0 0 0 0 0 0 0 0 0 0 0 0 0 0 0 0 0 0 0 0 0 0 0 0 1388 1388 1362 1388 1388 1362 1388 1388 1388 1388 1415 1501 1443 1443 1599 1565 1635 1635 1533 1635 1501 1501 1672 1388 1415 1471 1501 1501 1565 1599 1599 1533 1565 1501 1501 1533 1443 1388 1247 1247 1268 1247 1338 1314 1415 1635 1672 1887 2044 1989 2230 2102 0 0 994 0 1132 1268 1247 1226 1247 1338 1362 1362 1362 1388 1388 1415 1415 1443 0 0 0 0 0 0 0 0 0 0 0 0 0 0 0 0 0 0 0 0 0 0 0 0 0 0 0 0 0 0 0 0 0 0 0 0 0 0 0 0 0 0 0 0 0 0 1839 1752 1752 1533 1599 1599 1565 1533 1533 1443 1388 1388 1362 1338 1314 1314 1268 1268 1226 1247 1226 1168 1187 1149 1132 1115 1115 1115 1115 1115 1132 1098 1082 1082 1082 1066 1036 1008 994 955 955 897 908 865 836 826 817 817 826 817 808 791 721 714 714 700 700 694 687 687 694 694 694 700 728 0 0 791 687 618 623 623 623 618 618 639 629 623 618 593 588 579 579 570 566 553 549 541 521 504 500 500 487 493 500 497 497 497 500 497 497 504 497 481 481 474 0 0 0 0 0 0 0 0 0 430 0 427 0 425 0 418 0 0 0 0 385 0 0 0 0 0 0 0 0
    0 0 0 0 0 0 0 0 0 0 0 0 0 0 0 0 0 0 0 0 0 0 0 0 0 0 0 0 0 0 0 0 0 0 0 0 0 0 0 0 0 0 0 0 0 0 0 0 0 0 0 0 0 0 0 0 0 0 0 0 0 0 0 0 0 0 0 0 0 1415 1388 1362 1388 1415 1362 1415 1415 1415 1415 1443 1533 1443 1443 1599 1565 1635 1635 1501 1565 1471 1501 1672 1338 1362 1415 1443 1443 1501 1533 1533 1501 1533 1501 1471 1501 1443 1388 1291 1268 1291 1291 1338 1338 1362 1565 1599 1887 2230 2044 2453 2230 0 0 1036 1082 1168 1268 1247 1226 1268 1338 1362 1362 1362 1362 1362 1388 1388 0 0 0 0 0 0 0 0 0 0 0 0 0 0 0 0 0 0 0 0 0 0 0 0 0 0 0 0 0 0 0 0 0 0 0 0 0 0 0 0 0 0 0 0 0 0 0 1839 1752 1711 1501 1565 1565 1533 1501 1471 1443 1388 1388 1362 1338 1314 1314 1268 1268 1226 1226 1226 1149 1168 1149 1132 1115 1115 1115 1115 1115 1149 1082 1082 1066 1082 1051 1036 1008 981 931 943 876 886 865 845 836 826 826 836 826 0 808 728 721 714 694 694 687 681 681 687 694 694 694 700 687 0 0 669 629 623 623 623 618 623 639 634 629 623 603 593 588 588 584 574 557 553 541 514 500 497 497 487 490 497 497 493 500 497 497 497 500 497 481 481 474 474 0 0 0 0 0 0 0 0 430 430 427 427 425 0 0 0 0 0 0 387 387 387 377 0 0 0 0 0
    0 0 0 0 0 0 0 0 0 0 0 0 0 0 0 0 0 0 0 0 0 0 0 0 0 0 0 0 0 0 0 0 0 0 0 0 0 0 0 0 0 0 0 0 0 0 0 0 0 0 0 0 0 0 0 0 0 0 0 0 0 0 0 0 0 0 0 0 0 1388 1388 1362 1388 1415 1362 1415 1415 1415 1415 1443 1533 1443 1443 1565 1533 1565 1533 1362 1415 1415 1443 1501 1314 1314 1388 1415 1415 1415 1443 1443 1415 1443 1388 1362 1388 1362 1338 1247 1268 1291 1268 1362 1362 1415 1533 1599 1839 2230 1989 2537 2230 0 0 1036 1082 1115 1247 1206 1206 1226 1314 1362 1388 1388 1388 1388 1388 0 0 0 0 0 0 0 0 0 0 0 0 0 0 0 0 0 0 0 0 0 0 0 0 0 0 0 0 0 0 0 0 0 0 0 0 0 0 0 0 0 0 0 0 0 0 0 0 1887 1795 1711 1471 1565 1565 1501 1533 1443 1415 1388 1388 1362 1338 1314 1314 1268 1247 1226 1187 1187 1132 1168 1149 1115 1115 1115 1115 1115 1115 1149 1082 1066 1066 1066 1051 1022 994 968 919 931 876 876 865 845 836 836 826 845 826 0 808 743 728 714 694 694 687 687 681 687 687 694 700 700 694 694 714 700 675 675 657 645 623 629 645 639 634 623 608 598 593 593 584 574 561 553 545 507 500 500 497 487 493 497 497 493 500 497 497 497 504 493 481 481 474 474 477 477 0 0 0 0 0 0 430 430 427 427 420 408 0 0 0 0 0 387 385 385 377 0 0 0 0 0
    0 0 0 0 0 0 0 0 0 0 0 0 0 0 0 0 0 0 0 0 0 0 0 0 0 0 0 0 0 0 0 0 0 0 0 0 0 0 0 0 0 0 0 0 0 0 0 0 0 0 0 0 0 0 0 0 0 0 0 0 0 0 0 0 0 0 0 0 0 1388 1388 1388 1415 1443 1388 1415 1415 1415 1415 1443 1501 1415 1415 1533 1471 1443 1362 1291 1362 0 0 0 7 1247 1338 1362 1362 1338 1362 1362 1338 1338 1314 1291 1291 1291 1291 1226 1247 1268 1291 1362 1388 1471 1599 1672 1839 1989 1887 2299 2102 0 0 0 0 1098 1226 1206 1187 1226 1314 1388 1388 1388 1388 1388 0 0 0 0 0 0 0 0 0 0 0 0 0 0 0 0 0 0 0 0 0 0 0 0 0 0 0 0 0 0 0 0 0 0 0 0 0 0 0 0 0 0 0 0 0 0 0 0 0 0 1887 1839 1443 1599 1599 1471 1471 1443 1415 1388 1362 1362 1314 1291 1291 1268 1226 1206 1149 1168 1098 1149 1132 1098 1115 1115 1115 1115 1115 1149 1066 1066 1066 1066 1051 1022 1008 981 943 943 876 886 876 855 845 845 836 855 826 826 808 750 728 728 700 700 700 694 687 694 694 694 700 707 700 700 707 694 681 681 669 645 629 634 639 634 634 623 608 598 593 593 588 584 570 561 545 507 504 504 500 487 493 497 497 493 497 493 493 493 500 490 477 477 471 474 474 474 471 462 0 0 440 435 430 430 425 420 413 402 402 399 397 393 391 389 387 387 379 0 0 0 0 0</data></depth>
</opencv_storage>
