<?xml version="1.0"?>
<opencv_storage>
<gps_time_stamp>281085</gps_time_stamp>
<gps_x>-1.3988629341125488e+001</gps_x>
<gps_y>1.1279031753540039e+001</gps_y>
<gps_z>-2.2936418056488037e+000</gps_z>
<image_time_stamp>271957</image_time_stamp>
<depth type_id="opencv-matrix">
  <rows>75</rows>
  <cols>320</cols>
  <dt>s</dt>
  <data>
    0 0 0 0 0 0 0 0 0 0 0 0 0 0 0 0 0 0 0 0 0 0 0 0 0 0 0 0 0 0 0 0 0 0 0 0 0 0 0 0 0 0 0 0 0 0 0 0 0 0 0 0 0 0 0 0 0 0 0 0 0 0 0 0 0 0 0 0 0 2628 2725 2537 2725 2628 2628 2628 2537 2628 2725 2628 2725 2725 2537 2453 2453 2453 2453 2453 2453 2537 2537 2453 2537 2628 2537 3199 3199 0 3066 0 0 3345 3345 127 0 2453 2725 2725 3066 2453 2374 2230 2628 2725 2725 2725 2725 2537 2725 2725 2628 2299 2164 2102 2299 2453 2537 2299 1936 2102 0 1989 1989 1936 1887 1887 1887 1989 1936 2453 1936 1989 2628 2830 2725 2230 2537 2537 2537 2453 2453 2537 2537 2628 3345 3504 3345 3199 2628 2628 2537 2537 2628 2628 2537 2537 2453 2628 2628 2374 2453 2628 2453 1989 2374 2299 2374 2453 2537 2453 2374 2374 2830 2628 2725 2453 2044 1989 1887 1752 1711 1752 1635 1471 1415 1388 1314 0 0 0 0 2044 2102 1887 2044 1887 1887 1887 1936 1936 1936 1936 0 1752 2164 2102 2453 2299 0 0 0 1247 0 0 0 0 3345 3066 0 0 0 0 2374 0 2164 0 0 0 0 0 0 471 0 1887 2102 2102 1936 1839 1887 1839 1839 1839 1839 1565 1635 1565 1711 1672 1672 1635 1635 1672 1752 1672 1752 1711 1672 1711 1711 1752 1672 1635 1795 1711 0 0 1362 0 0 1082 1008 0 1051 1022 0 1314 1314 1291 1314 1314 1314 1314 1314 1314 1291 1268 1268 1268 1247 1247 1206 1168 1168 1149 1098 1082 1082 1082 1098 1098 1115 1132 1098 1098 1149 0 0 0 0 0
    0 0 0 0 0 0 0 0 0 0 0 0 0 0 0 0 0 0 0 0 0 0 0 0 0 0 0 0 0 0 0 0 0 0 0 0 0 0 0 0 0 0 0 0 0 0 0 0 0 0 0 0 0 0 0 0 0 0 0 0 0 0 0 0 0 0 0 0 0 2628 2725 2537 2725 2628 2537 2628 2537 2537 2628 2628 2628 2628 2537 2453 2453 2453 2453 2374 2453 2453 2453 2374 2537 2537 2453 3066 3066 0 0 0 0 3199 3199 127 0 2537 2725 2725 3199 2628 2453 2299 2628 2537 2628 2537 2374 2164 2299 1936 1887 1887 1936 1989 2102 2374 2374 2230 1887 2044 0 1989 1989 1936 1887 1887 1887 2044 1989 2453 1936 1936 2537 2725 2628 2164 2453 2453 2374 2374 2374 2453 2453 2453 3066 3066 3066 3066 2374 2537 2453 2537 2537 2628 2628 2628 2537 2830 2725 2725 2725 2830 2725 2044 2453 2453 2453 2537 2537 2537 2453 2374 2943 2628 0 2453 1989 1936 1795 1711 1672 1635 1565 1471 1415 1388 1338 0 0 0 0 2044 2102 1887 2044 1887 1887 1887 1936 1936 1887 1887 0 1752 2102 2102 2537 1936 0 0 0 1247 0 0 0 0 3199 0 0 0 0 0 0 0 0 0 0 0 0 0 0 0 1887 1887 2102 2102 1936 1839 1839 1839 1839 1839 1839 1565 1635 1565 1711 1672 1672 1672 1635 1672 1752 1711 1752 1711 1672 1711 1711 1752 1672 1635 1795 1752 1599 1501 1338 0 0 1149 1115 1098 1168 1268 1268 1314 1314 1314 1314 1314 1314 1338 1314 1314 1268 1268 1268 1268 1226 1226 1206 1168 1168 1168 1082 1082 1098 1098 1098 1115 1115 1149 1098 1098 1132 0 0 0 0 0
    0 0 0 0 0 0 0 0 0 0 0 0 0 0 0 0 0 0 0 0 0 0 0 0 0 0 0 0 0 0 0 0 0 0 0 0 0 0 0 0 0 0 0 0 0 0 0 0 0 0 0 0 0 0 0 0 0 0 0 0 0 0 0 0 0 0 0 0 0 2628 2725 2537 2725 2537 2537 2537 2537 2537 2537 2537 2628 2537 2374 2453 2374 2374 2374 2374 2374 2453 2374 2374 2453 2537 2374 2830 2943 2830 0 2830 0 0 0 126 2725 0 0 2725 3199 2628 2453 2230 2628 2537 2537 2453 2230 2102 2044 1795 1795 1887 1839 1887 1989 2230 2230 2102 1839 0 0 1989 1936 1887 1887 1839 1887 1989 1936 2374 1839 1887 2299 2628 2537 2102 2453 2374 2374 2374 2374 2453 2374 2453 2943 2628 2943 2943 2164 2453 2374 2374 2453 2537 2537 2537 2537 2830 2830 2830 2830 2830 2830 2044 2453 2453 2453 2453 2537 2453 2374 2374 2830 2537 0 2299 1887 1887 1752 1711 1635 1599 1501 1415 1388 1362 1338 0 0 0 0 2044 2102 1887 2044 1887 1887 1839 1936 1887 1887 1887 0 1752 2044 2044 2537 1839 0 0 1268 1226 0 0 0 0 3345 0 0 0 0 0 0 0 0 0 0 0 0 0 0 0 1887 1887 2044 2102 1936 1839 1839 1839 1839 1839 1839 1565 1635 1565 1711 1672 1672 1672 1635 1672 1795 1711 1795 1711 1672 1711 1711 1752 1672 1672 1795 1752 1635 1415 1268 1187 1247 1187 1206 1115 1206 1247 1247 1314 1314 1314 1314 1314 1314 1338 1314 1291 1268 1268 1268 1247 1226 1226 1187 1168 1187 1168 1098 1082 1098 1098 1115 1115 1115 1149 1098 1115 1149 0 0 0 0 0
    0 0 0 0 0 0 0 0 0 0 0 0 0 0 0 0 0 0 0 0 0 0 0 0 0 0 0 0 0 0 0 0 0 0 0 0 0 0 0 0 0 0 0 0 0 0 0 0 0 0 0 0 0 0 0 0 0 0 0 0 0 0 0 0 0 0 0 0 0 2628 2725 2453 2628 2537 2453 2537 2537 2537 2537 2453 2628 2537 2374 2453 2374 2374 2374 2374 2374 2374 2374 2374 2453 2537 2299 2725 2830 2725 2725 2725 0 0 0 126 2725 0 0 2725 3199 2628 2453 2230 2628 2537 2453 2230 2102 1936 1989 1795 1839 1887 1887 1936 1989 2164 2164 2044 1795 0 0 0 1936 1887 1887 1887 1887 2044 1989 2453 1887 1887 2299 2628 2537 2044 2374 2299 2299 2374 2374 2453 2374 2453 2943 2628 2943 2943 2102 2374 2299 2299 2374 2374 2453 2453 2453 2725 2628 2725 2830 2830 2830 2044 2453 2453 2453 2453 2453 2453 2374 2299 2830 2230 2230 2102 1795 1795 1711 1672 1565 1533 1471 1415 1362 1362 1338 1314 1362 0 0 0 1936 1887 2044 1887 1887 1839 1936 1887 1887 1887 0 1752 1989 2044 2453 1795 1672 1565 1291 1206 1082 0 0 0 0 0 0 0 0 0 0 0 0 0 0 0 0 0 0 0 1936 1887 2044 2102 1936 1839 1839 1839 1839 1839 1839 1599 1635 1599 1711 1711 1672 1672 1672 1672 1795 1711 1795 1752 1711 1711 1752 1752 1672 1672 1795 1711 1415 1291 1226 1187 1247 1226 1247 1149 1226 1268 1247 1291 1291 1291 1291 1314 1314 1314 1314 1291 1268 1268 1268 1247 1226 1226 1187 1187 1187 1187 1098 1098 1132 1132 1132 1132 1149 1149 1098 1132 1149 0 0 0 0 0
    0 0 0 0 0 0 0 0 0 0 0 0 0 0 0 0 0 0 0 0 0 0 0 0 0 0 0 0 0 0 0 0 0 0 0 0 0 0 0 0 0 0 0 0 0 0 0 0 0 0 0 0 0 0 0 0 0 0 0 0 0 0 0 0 0 0 0 0 0 2537 2628 2374 2628 2453 2453 2453 2453 2453 2453 2374 2537 2537 2374 2453 2374 2374 2374 2299 2299 2374 2230 2299 2374 2453 2230 2537 2628 2537 2628 2628 0 0 2943 0 2725 2628 2943 2943 3345 2725 2453 2230 2628 2374 2374 2164 1989 1936 1989 1839 1839 1887 1887 1887 1936 2044 2044 1936 1711 0 0 0 1887 1887 1887 1887 1887 2044 1989 2374 1887 1936 2230 2537 2453 1989 2374 2230 2299 2299 2299 2374 2374 2374 2830 2537 2830 2830 2044 2299 2230 2230 2299 2299 2374 2453 2374 2725 2628 2830 2943 2943 2943 2044 2453 2453 2453 2453 2453 2453 2299 2230 2725 2044 2044 2044 1752 1752 1672 1599 1533 1533 1471 1415 1388 1362 1362 1338 1362 0 0 1887 1936 1887 2044 1887 1887 1839 1936 1887 1887 1887 0 1752 1989 1989 2453 1795 1599 1565 1268 1168 1066 1051 0 0 0 0 1533 1533 0 0 0 0 0 0 0 0 272 271 0 0 1936 1936 2102 2102 1936 1839 1887 1839 1839 1839 1839 1599 1635 1599 1711 1711 1672 1672 1672 1711 1795 1711 1795 1752 1711 1752 1752 1752 1672 1635 1752 1672 1362 1314 1268 1247 1268 1247 1268 1168 1247 1268 1247 1291 1291 1291 1291 1314 1314 1314 1314 1314 1291 1268 1268 1268 1226 1247 1206 1187 1206 1206 1115 1098 1149 1132 1132 1132 1149 1149 1098 1132 1149 0 0 0 0 0
    0 0 0 0 0 0 0 0 0 0 0 0 0 0 0 0 0 0 0 0 0 0 0 0 0 0 0 0 0 0 0 0 0 0 0 0 0 0 0 0 0 0 0 0 0 0 0 0 0 0 0 0 0 0 0 0 0 0 0 0 0 0 0 0 0 0 0 0 0 2374 2537 2299 2537 2453 2453 2374 2453 2453 2453 2374 2537 2453 2374 2374 2374 2299 2374 2299 2299 2299 2230 2230 2299 2374 2164 2453 2628 2537 2628 2628 0 0 2725 0 2725 2628 3066 2943 3345 2725 2299 2164 2628 2374 2374 2230 2044 1989 2044 1936 1887 1887 1887 1887 1887 1989 1989 0 1672 0 0 0 1887 1887 1887 1887 1936 2044 2044 2453 1936 2044 2453 0 2537 1989 2374 2230 2299 2299 2299 2374 2374 2453 2943 2628 2830 2830 2044 2374 2230 2230 2299 2299 2374 2374 2374 2725 2537 2830 2943 3066 2943 2102 2453 2453 2453 2453 2453 2453 2230 2230 2725 1989 1989 1989 1752 1752 1711 1599 1533 1533 1533 1443 1443 1388 1362 0 0 0 0 2164 2230 1887 2044 0 1887 1887 1936 1936 1887 1887 0 1752 1989 1989 2453 1795 1795 1672 1291 1206 1098 0 0 0 0 0 1471 1471 0 0 0 0 0 0 0 0 0 271 0 0 1989 1936 2102 2102 1936 1839 1887 1839 1887 1839 1839 1635 1672 1599 1752 1711 1672 1672 1672 1711 1795 1711 1795 1752 1711 1752 1752 1752 1635 1599 1752 1672 1362 1338 1291 1268 1314 1268 1291 1187 1247 1268 1247 1291 1291 1291 1291 1314 1314 1314 1314 1314 1291 1268 1268 1268 1247 1268 1226 1206 1226 1226 1115 1098 1149 1132 1132 1149 1149 1149 1082 1098 1082 0 0 0 0 0
    0 0 0 0 0 0 0 0 0 0 0 0 0 0 0 0 0 0 0 0 0 0 0 0 0 0 0 0 0 0 0 0 0 0 0 0 0 0 0 0 0 0 0 0 0 0 0 0 0 0 0 0 0 0 0 0 0 0 0 0 0 0 0 0 0 0 0 0 0 2374 2453 2230 2453 2374 2374 2299 2374 2374 2374 2299 2453 2374 2299 2374 2299 2299 2299 2299 2230 2299 2230 2230 2299 2374 2164 2453 2537 2453 2537 2537 0 0 2628 3066 2725 2537 3066 2943 0 2453 2102 2102 2537 2453 2537 2374 2102 2044 2164 2164 1936 1936 1936 1936 1989 2044 1989 0 1672 1887 0 1936 1936 1887 1936 1936 1989 0 0 2628 0 0 2830 0 2943 2102 2453 2299 2374 2374 2374 2374 2374 2453 2943 2725 2830 2830 2044 2374 2230 2230 2299 2299 2299 2374 2374 2725 2628 2943 3066 3066 2943 2230 2537 2537 2453 2453 2453 2453 2230 2230 2725 1989 2044 1989 1752 1752 1672 1565 1501 1471 1533 1443 1443 1415 0 0 0 0 0 2374 2537 1936 2044 0 1887 1887 1936 1936 1936 1887 0 1752 2044 2044 2537 1839 1887 1711 1415 1338 0 0 0 0 0 0 0 0 0 0 0 0 0 0 0 0 0 274 0 0 2044 1936 2102 2102 1936 1887 1887 1887 1887 1839 1839 1672 1672 1635 1752 1711 1711 1711 1711 1752 1795 1752 1795 1752 1711 1752 1752 1752 1599 1565 1711 1565 1338 1338 1291 1268 1314 1291 1291 1187 1247 1268 1247 1291 1291 1291 1291 1291 1291 1314 1314 1291 1268 1268 1268 1268 1247 1268 1226 1206 1226 1226 1098 1082 1149 1132 1132 1149 1132 1149 1066 1051 1022 0 0 0 0 0
    0 0 0 0 0 0 0 0 0 0 0 0 0 0 0 0 0 0 0 0 0 0 0 0 0 0 0 0 0 0 0 0 0 0 0 0 0 0 0 0 0 0 0 0 0 0 0 0 0 0 0 0 0 0 0 0 0 0 0 0 0 0 0 0 0 0 0 0 0 2374 2453 2230 2453 2374 2374 2299 2374 2374 2374 2299 2453 2374 2299 2374 2299 2299 2299 2299 2230 2299 2230 2230 2299 2374 2102 2374 2453 2374 2453 2453 0 0 2537 2943 2628 2453 2943 3066 2830 2230 0 2299 2830 2725 2725 2537 2299 2628 2537 2628 2299 2230 2044 2164 2299 0 2044 0 1672 1887 0 1989 1989 1887 1936 1936 2044 0 0 2628 0 0 2943 0 2943 2164 2453 2374 2374 2374 2374 2374 2374 2453 2943 2830 2943 2943 2102 2453 2299 2230 2299 2230 2299 2299 2374 2725 2628 2943 2943 2943 2943 2299 2537 2537 2453 2453 2453 2453 2299 2230 2725 2102 2230 2102 1795 1752 1635 1533 1501 1443 1533 1443 1443 1443 0 0 0 0 0 2299 2453 1887 2044 0 1936 1887 1936 1936 1936 1936 0 1795 2044 2044 2537 1887 1989 1795 1672 1635 0 0 0 0 0 0 0 0 0 0 0 0 0 0 0 0 0 0 0 230 1989 1936 2102 2044 1936 1887 1887 1887 1887 1839 1795 1672 1672 1635 1752 1711 1711 1711 1711 1752 1795 1752 1795 1752 1711 1711 1711 1711 1599 1533 1635 1501 1338 1338 1291 1291 1314 1314 1314 1206 1268 1268 1247 1291 1291 1291 1291 1291 1291 1314 1314 1291 1268 1268 1268 1268 1247 1268 1226 1226 1247 1226 1098 1082 1132 1115 1115 1132 1115 1115 1051 1022 994 0 0 0 0 0
    0 0 0 0 0 0 0 0 0 0 0 0 0 0 0 0 0 0 0 0 0 0 0 0 0 0 0 0 0 0 0 0 0 0 0 0 0 0 0 0 0 0 0 0 0 0 0 0 0 0 0 0 0 0 0 0 0 0 0 0 0 0 0 0 0 0 0 0 0 2374 2453 2230 2453 2374 2374 2299 2374 2374 2374 2299 2453 2374 2299 2374 2299 2299 2299 2299 2230 2230 2164 2230 2299 2374 2044 2299 2374 2299 2299 2374 0 0 2374 2830 2453 2374 2943 3066 2299 0 0 2374 2725 2537 2453 2374 2164 2453 2453 2453 2299 2230 2102 2299 2537 0 0 0 1635 1887 0 2044 1989 1936 1936 1989 2044 121 0 0 0 0 3066 3199 3066 2299 2537 2374 2374 2453 2374 2374 2374 2537 2943 3066 3066 3066 2299 2537 2453 2299 2299 2299 2299 2299 2374 2725 2537 2830 2943 2943 2830 2299 2537 2453 2453 2453 2374 2453 2299 2299 2725 2164 2230 2164 1795 1752 1599 1533 1501 1415 1533 1471 1471 0 0 0 0 0 0 2102 2164 1887 2044 0 1887 1887 1936 1936 1936 1936 0 0 2044 2044 2537 1936 2044 1839 1752 1752 0 0 0 0 0 0 0 0 0 0 0 0 0 0 0 0 229 0 0 229 1989 1936 2044 2044 1936 1839 1887 1887 1839 1839 1795 1672 1711 1672 1752 1752 1711 1752 1752 1795 1795 1752 1795 1752 1711 1711 1711 1672 1533 1501 1599 1443 1338 1338 1314 1291 1338 1338 1314 1226 1268 1291 1247 1291 1291 1291 1291 1291 1291 1314 1291 1291 1268 1268 1268 1268 1247 1268 1226 1226 1247 1247 1115 1082 1115 1098 1098 1098 1098 1098 1036 994 968 0 0 0 0 0
    0 0 0 0 0 0 0 0 0 0 0 0 0 0 0 0 0 0 0 0 0 0 0 0 0 0 0 0 0 0 0 0 0 0 0 0 0 0 0 0 0 0 0 0 0 0 0 0 0 0 0 0 0 0 0 0 0 0 0 0 0 0 0 0 0 0 0 0 0 2453 2537 2230 2453 2374 2299 2299 2374 2374 2299 2230 2453 2299 2230 2374 2299 2230 2299 2230 2230 2230 2164 2230 2299 2374 2044 2299 2374 2230 2299 2374 0 0 2299 2725 2299 2230 2830 3066 1989 0 0 2102 2374 2230 2230 2299 2102 2230 2299 2299 2230 2164 2102 2230 2725 0 0 0 0 0 0 2102 2044 1936 1989 1989 2102 121 0 0 0 3066 3199 3345 3066 2453 2628 2453 2453 2453 2374 2374 2453 2537 3066 3199 3199 3199 2537 2725 2537 2374 2374 2374 2299 2299 2299 2628 2537 2830 2830 2830 2830 2299 2537 2453 2453 2453 2374 2537 2299 2230 2725 2164 2164 2164 1795 1752 1635 1565 1565 1443 1599 1533 1471 0 0 0 0 0 1752 2102 2044 1887 1989 0 1887 1887 1936 1936 1936 1936 0 0 2044 2102 2537 2044 2164 1936 1887 1936 1936 0 0 0 0 0 1362 1362 0 0 1268 0 0 0 0 0 0 0 0 0 2044 1936 2044 2044 1936 1887 1887 1887 1839 1795 1795 1711 1711 1672 1752 1752 1752 1752 1752 1795 1795 1752 1752 1711 1672 1711 1672 1635 1471 1471 1565 1415 1338 1338 1314 1338 1362 1362 1338 1247 1291 1291 1247 1291 1291 1291 1268 1291 1291 1291 1291 1291 1268 1247 1247 1268 1247 1247 1226 1206 1247 1226 1115 1082 1115 1098 1082 1098 1098 1066 1022 955 931 0 0 0 0 0
    0 0 0 0 0 0 0 0 0 0 0 0 0 0 0 0 0 0 0 0 0 0 0 0 0 0 0 0 0 0 0 0 0 0 0 0 0 0 0 0 0 0 0 0 0 0 0 0 0 0 0 0 0 0 0 0 0 0 0 0 0 0 0 0 0 0 0 0 0 2374 2537 2230 2453 2299 2299 2230 2299 2299 2230 2230 2374 2230 2230 2374 2299 2230 2299 2299 2230 2230 2164 2230 2299 2374 2044 2299 2374 2230 2299 2299 2374 2230 2230 2725 2102 2102 2628 2830 1839 1711 1388 0 2044 2044 2044 2230 2044 2164 2299 2374 2374 2299 2164 2453 2725 0 0 0 0 0 0 2164 2102 1989 1989 2102 2164 0 0 0 0 3199 3345 3504 3199 2537 2628 2453 2453 2537 2453 2374 2453 2628 3066 3199 3199 3199 2628 2725 2537 2374 2374 2374 2299 2299 2299 2628 2453 2943 2725 2830 2725 2299 2537 2453 2374 2374 2299 2537 2299 2299 2725 2164 2164 2230 1839 1795 1672 1635 1635 1501 1672 1752 0 0 0 0 0 0 1752 2044 1887 1839 1936 1839 1839 1839 1887 1887 1887 1887 0 0 2102 2102 2537 2102 2230 1989 1887 1936 1887 2164 1989 2164 0 0 0 0 0 0 1314 1247 1247 0 0 0 0 0 0 0 2044 1936 2044 1989 1936 1887 1887 1887 1839 1795 1795 1711 1711 1672 1752 1752 1752 1752 1752 1795 1795 1752 1752 1711 1672 1672 1672 1599 1471 1471 1533 1388 1362 1362 1338 1362 1388 1388 1338 1268 1291 1291 1247 1268 1291 1291 1268 1268 1291 1291 1268 1268 1268 1247 1247 1247 1226 1247 1226 1206 1226 1206 1098 1082 1132 1098 1098 1115 1132 1098 1036 955 919 0 0 0 0 0
    0 0 0 0 0 0 0 0 0 0 0 0 0 0 0 0 0 0 0 0 0 0 0 0 0 0 0 0 0 0 0 0 0 0 0 0 0 0 0 0 0 0 0 0 0 0 0 0 0 0 0 0 0 0 0 0 0 0 0 0 0 0 0 0 0 0 0 0 0 2374 2453 2230 2374 2299 2299 2230 2299 2299 2230 2164 2374 2230 2230 2374 2299 2230 2374 2299 2230 2230 2164 2230 2374 2453 2044 2299 2374 2230 2299 2299 2374 2230 2230 2725 2102 2044 2628 0 1839 1338 1314 0 1887 1936 1887 2044 1936 1936 2102 2164 2164 2164 0 2374 0 0 0 0 0 0 0 2299 2164 0 0 2164 2299 0 0 0 0 3345 3504 3679 3199 2537 2628 2453 2453 2537 2374 2299 2453 2628 3066 3199 3066 3199 2628 2725 2537 2374 2374 2374 2299 2299 2230 2537 2453 2943 2628 2725 2725 2299 2537 2453 2374 2374 2299 2537 2299 2299 2725 2230 2299 2299 1887 1839 1711 1672 1711 1752 1752 1936 0 0 0 0 0 0 1795 1989 1839 1635 1887 1795 1795 1795 1887 1887 1839 1887 0 0 2044 2044 2537 2044 2102 1887 1795 1936 1752 0 2044 2725 0 0 0 0 0 0 1338 1247 1226 1247 0 0 0 0 0 0 2044 1936 2044 1989 1936 1887 1887 1887 1839 1795 1795 1752 1752 1711 1752 1752 1752 1795 1795 1795 1795 1711 1752 1711 1672 1672 1635 1599 1471 1471 1533 1415 1388 1388 1388 1388 1415 1415 1338 1314 1291 1291 1247 1268 1291 1291 1268 1268 1268 1268 1268 1268 1268 1247 1247 1247 1226 1226 1226 1206 1226 1187 1098 1082 1115 1082 1115 1115 1206 1168 1036 919 886 0 0 0 0 0
    0 0 0 0 0 0 0 0 0 0 0 0 0 0 0 0 0 0 0 0 0 0 0 0 0 0 0 0 0 0 0 0 0 0 0 0 0 0 0 0 0 0 0 0 0 0 0 0 0 0 0 0 0 0 0 0 0 0 0 0 0 0 0 0 0 0 0 0 0 2299 2453 2230 2374 2299 2230 2164 2230 2230 2230 2230 2374 2230 2230 2299 2299 2230 2299 2164 2164 2164 2102 2164 2374 2374 2044 2299 2374 2299 2299 2299 2374 2230 2230 2628 2044 2044 2453 2102 1887 1635 1443 0 1887 1887 1887 1989 1936 1936 2044 0 2102 0 0 0 0 0 0 0 0 0 1989 0 2230 0 0 0 2374 0 0 0 3066 3345 3504 3679 3199 2628 2628 2537 2537 2537 2453 2299 2537 2725 3066 3199 3066 3066 0 2725 2537 2453 2374 2453 2299 2374 2299 2537 2537 2943 2628 2725 2725 2230 2537 2374 2374 2374 2299 2537 2299 2299 2725 2230 2299 2374 1936 1887 1752 1672 1752 0 1752 1887 0 0 0 0 0 1936 1887 2102 1887 1533 1887 1711 1752 1752 1839 1839 1839 1839 0 0 2044 2044 2537 2044 2230 1936 1887 2453 0 0 0 4088 0 0 0 0 0 0 0 1226 1226 1206 0 0 0 0 0 1887 2044 1989 2044 1989 1936 1936 1936 1887 1839 1795 1795 1752 1795 1711 1752 1752 1752 1795 1795 1795 1752 1711 1752 1711 1672 1672 1635 1599 1471 1501 1565 1443 1415 1443 1415 1415 1443 1443 1362 1314 1314 1314 1247 1291 1291 1291 1268 0 1291 1268 1268 1268 1268 1226 1226 1247 1226 1226 1206 1187 1206 1168 1098 1082 1082 1066 1098 1098 1187 1132 994 876 855 0 0 0 0 0
    0 0 0 0 0 0 0 0 0 0 0 0 0 0 0 0 0 0 0 0 0 0 0 0 0 0 0 0 0 0 0 0 0 0 0 0 0 0 0 0 0 0 0 0 0 0 0 0 0 0 0 0 0 0 0 0 0 0 0 0 0 0 0 0 0 0 0 0 0 2299 2537 2230 2374 2230 2164 2102 2102 2102 2164 2164 2374 2164 2299 0 2299 2230 2374 2230 2164 2230 2230 2164 2453 2537 2102 2453 2453 2299 2299 2374 2453 2299 2299 2628 1989 1989 2299 1839 1887 1887 1795 1887 1887 1887 1936 1989 1936 1936 1989 0 2044 0 0 0 0 0 243 0 0 0 0 0 0 0 0 0 0 0 0 2943 2943 3199 3345 3504 3066 2725 2725 2628 2628 2628 2537 2374 2537 2725 3066 3199 3066 3199 0 0 2628 2453 2453 2453 2374 2374 2299 2537 2537 2943 2537 2628 2628 2230 2453 2374 2299 2299 2230 2537 2230 2230 2725 2230 2299 2374 1936 1887 1752 0 1752 0 0 0 0 0 0 2374 1936 2102 2044 2230 1887 1599 1839 1672 1752 1752 1795 1795 1795 1839 0 0 2044 2102 2537 2102 2537 2230 2943 2943 0 0 0 0 0 0 0 0 0 0 0 1268 1268 0 0 0 0 0 0 1887 2102 2044 2044 1936 1936 1936 1936 1936 1887 1795 1795 1795 1795 1711 1752 1752 1752 1795 1795 1795 1752 1711 1752 1711 1635 1635 1635 1599 1471 1533 1565 1471 1443 1443 1415 1443 1471 1501 1362 1338 1338 1314 1268 1291 1291 1291 1268 0 1291 1268 1268 1268 1268 1226 1226 1247 1206 1206 1206 1187 1206 1168 1115 1098 1066 1066 1168 1187 0 0 0 855 845 0 0 0 0 0
    0 0 0 0 0 0 0 0 0 0 0 0 0 0 0 0 0 0 0 0 0 0 0 0 0 0 0 0 0 0 0 0 0 0 0 0 0 0 0 0 0 0 0 0 0 0 0 0 0 0 0 0 0 0 0 0 0 0 0 0 0 0 0 0 0 0 0 0 0 2374 2628 2374 2299 2102 1989 1989 1989 1936 2044 2164 2230 2102 0 0 2164 0 2537 2164 2102 2164 2230 2164 2453 2537 2164 2537 2537 2374 2374 2453 0 0 2374 2628 1989 1936 2102 1795 1839 1839 1795 1887 1887 1887 1936 1989 1936 1936 1936 0 0 0 0 0 0 0 0 0 0 0 0 0 0 0 0 0 0 0 0 2943 2830 3199 3345 3345 3066 2725 2725 2537 2628 2537 2453 2299 2537 2725 2943 3199 2943 0 0 0 2628 2453 2453 2537 2453 2453 2374 2537 2628 3066 2628 2725 2628 2230 2453 2374 2299 2299 2230 2453 2230 2230 2725 2230 2299 2374 1936 1839 1672 0 0 0 0 0 0 0 2628 2299 1989 2102 2044 2102 1887 1711 1839 1672 1752 1752 1795 1795 1795 1795 0 0 2044 2044 2628 2044 2537 2628 0 3199 0 0 0 0 0 0 0 0 0 0 0 0 1291 0 1635 0 0 0 0 1887 2102 2102 2044 1936 1936 1936 1936 1936 1839 1795 1795 1795 1839 1711 1752 1752 1752 1795 1795 1795 1752 1711 1752 1711 1635 1635 1635 1599 1501 1533 1565 1501 1471 1501 1443 1471 1501 1533 1362 1338 1338 1314 1268 1291 1291 1291 1268 0 1291 1268 1268 1268 1268 1226 1226 1247 1206 1206 1206 1187 1187 1168 1132 1132 1082 1098 1268 1247 1362 1338 0 0 845 0 0 0 0 0
    0 0 0 0 0 0 0 0 0 0 0 0 0 0 0 0 0 0 0 0 0 0 0 0 0 0 0 0 0 0 0 0 0 0 0 0 0 0 0 0 0 0 0 0 0 0 0 0 0 0 0 0 0 0 0 0 0 0 0 0 0 0 0 0 0 0 0 0 0 2453 0 2628 0 2102 1839 1936 1936 1795 1989 2164 2299 2102 0 0 0 0 0 0 0 0 0 2044 2453 2453 2230 2537 2537 2374 2453 2537 95 0 2453 2628 1989 1936 0 0 0 0 1635 0 0 0 0 0 0 0 1887 0 0 0 0 0 0 0 0 0 0 0 0 0 0 0 0 0 0 0 2537 2830 2453 3066 3066 3199 2830 2537 2628 2537 2537 2537 2453 2299 2537 2830 2943 3199 2943 3199 0 0 2628 2537 2537 2628 2453 2537 2299 2537 2628 3066 2537 2628 2537 2102 2374 2299 2299 2230 2230 2453 2230 2230 2725 2102 2102 2230 1839 1795 1672 0 0 0 0 0 0 0 2725 2374 1989 2102 2102 2164 1887 1839 1839 1672 1752 1752 1795 1795 1795 1795 0 1795 2044 2044 2537 1989 2299 0 0 0 0 817 799 750 0 0 0 0 0 0 0 0 0 0 1635 0 0 0 0 1839 2164 2230 2044 1887 1936 1936 1887 1887 1839 1752 1752 1752 1839 1711 1711 1752 1752 1795 1752 1752 1752 1711 1752 1711 1635 1635 1635 1599 1471 1533 1565 1501 1471 1501 1471 1471 1501 1533 1362 1338 1338 1314 1268 1268 1291 1291 1268 1291 1291 1268 1268 1268 1268 1247 1226 1247 1206 1206 1226 1206 1206 1187 1168 1168 1115 1115 1247 1206 1291 1314 0 0 876 0 0 0 0 0
    0 0 0 0 0 0 0 0 0 0 0 0 0 0 0 0 0 0 0 0 0 0 0 0 0 0 0 0 0 0 0 0 0 0 0 0 0 0 0 0 0 0 0 0 0 0 0 0 0 0 0 0 0 0 0 0 0 0 0 0 0 0 0 0 0 0 0 0 0 2453 0 0 0 2102 1887 2044 1936 1795 2044 2230 2453 2299 0 0 0 0 0 0 0 0 1887 2044 2374 2374 2299 2628 2628 2453 2453 2537 0 0 2537 2628 1989 1989 0 0 0 0 1887 0 1887 0 0 0 0 0 1795 1752 1752 1711 0 1752 0 0 0 0 0 0 0 0 0 0 0 121 0 2628 2537 2628 2102 2374 2725 2830 2628 2453 2453 2453 2453 2453 2453 2299 2537 2725 2725 2943 2725 3066 2830 2830 2628 2537 2537 2628 2453 2537 2299 2374 2537 2943 2374 2537 2537 2102 2374 2299 2299 2230 2230 2453 2164 2230 2725 2044 2044 2230 1887 1839 1752 1936 2102 0 0 3345 0 2725 2725 2453 2102 2230 2164 2230 1936 1887 1839 1711 1752 1752 1795 1795 1795 1795 0 1795 2044 2044 2453 1887 1936 1711 0 0 0 826 836 0 0 0 0 0 1635 1672 1672 1443 0 1599 1711 1672 1752 0 0 1839 2164 2230 2044 1887 1936 1887 1887 1887 1839 1752 1752 1795 1839 1711 1711 1752 1752 1752 1752 1752 1711 1672 1711 1711 1599 1599 1599 1565 1471 1565 1565 1533 1501 1501 1471 1471 1501 1533 1362 1338 1338 1314 1268 1268 1291 1291 1268 1291 1291 1268 1268 1268 1268 1247 1247 1247 1226 1226 1226 1226 1226 1226 1206 1226 1149 0 1314 1247 1338 1338 1268 0 0 0 0 0 0 0
    0 0 0 0 0 0 0 0 0 0 0 0 0 0 0 0 0 0 0 0 0 0 0 0 0 0 0 0 0 0 0 0 0 0 0 0 0 0 0 0 0 0 0 0 0 0 0 0 0 0 0 0 0 0 0 0 0 0 0 0 0 0 0 0 0 0 0 0 0 2453 2830 0 0 2044 1887 1989 1887 1795 1989 2164 2453 2374 0 0 0 0 0 0 0 0 1839 1989 2374 2374 2374 2628 0 0 0 0 0 0 0 2725 2102 2102 2453 0 0 0 1989 2044 1989 0 0 0 0 0 1795 1752 1752 1711 1752 1752 1795 1936 0 1936 0 0 0 121 121 121 121 121 122 2725 2537 2537 2044 2164 2374 2453 2299 2230 2374 2299 2374 2374 2299 2299 2374 2537 2453 2537 2537 2830 2725 2725 2628 2628 2628 2725 2537 2628 2299 2299 2453 2830 2102 2537 2453 2044 2374 2299 2299 2299 2299 2453 2164 2164 2725 2102 2102 2374 2102 2044 1989 2537 2628 2943 3199 3199 3066 2725 2725 0 2102 2299 2230 2299 1936 1936 1887 1752 1752 1752 1795 1795 1795 1795 1795 1752 1936 1936 2230 1795 1388 1415 1268 1226 1168 1022 0 0 0 0 0 1936 1752 1887 1795 1635 1711 1672 1795 1752 1795 1795 1752 1887 2164 2299 2044 1839 1887 1887 1887 1887 1839 1795 1795 1795 1887 1711 1711 1752 1752 1752 1752 1752 1711 1672 1711 1672 1565 1565 1565 1565 1471 1565 1565 1533 1533 1533 1471 1471 1501 1501 1362 1314 1314 1314 1268 1268 1291 1291 1268 1291 1291 1268 1268 1268 1268 1247 1247 1268 1226 1226 1247 1247 1226 1247 1226 0 0 0 0 0 1388 1362 1362 1565 0 0 0 0 0 0
    0 0 0 0 0 0 0 0 0 0 0 0 0 0 0 0 0 0 0 0 0 0 0 0 0 0 0 0 0 0 0 0 0 0 0 0 0 0 0 0 0 0 0 0 0 0 0 0 0 0 0 0 0 0 0 0 0 0 0 0 0 0 0 0 0 0 0 0 0 2299 2628 0 0 1989 1936 1989 1936 1839 2102 2299 2537 2537 0 0 0 0 0 0 0 0 0 1989 2299 2299 2453 0 120 120 120 121 95 0 0 2725 2164 2230 0 0 0 0 1989 0 0 0 0 0 0 0 1887 1839 1839 1795 1887 1887 1839 1989 0 1936 0 0 121 121 121 121 121 121 122 2725 2537 2453 1989 2044 2164 2102 2102 2102 2164 2230 2230 2299 2299 2374 2374 2374 2299 2374 2230 2628 2537 2537 2453 2537 2628 2725 2537 2725 2374 2299 2537 2725 1989 2453 2453 1989 2299 2299 2230 2230 2230 2374 2164 2164 2725 2044 2044 2164 2044 1989 1989 2374 2299 2725 2830 2830 2830 2537 2628 2299 2102 2299 2230 2230 1887 1936 1887 1752 1795 1752 1795 1795 1795 1795 1795 1752 1887 1887 1989 1752 1314 1338 1268 1268 1268 1168 1206 1247 1187 1268 1226 0 1795 0 1839 1635 0 0 1752 0 1752 1795 1752 1887 2230 2453 2102 1839 1936 1936 1936 1936 1887 1795 1795 1795 1887 1711 1752 1795 1752 1752 1711 1752 1711 1672 1711 1672 1565 1533 1565 1565 1471 1565 1599 1565 1533 1501 1443 1471 1501 1471 1338 1314 1314 1291 1291 1268 1291 1291 1268 1291 1291 1268 1268 1268 1268 1247 1247 1268 1247 1226 1247 1247 1247 1291 0 0 0 0 0 0 0 0 1338 1501 1362 0 0 0 0 0
    0 0 0 0 0 0 0 0 0 0 0 0 0 0 0 0 0 0 0 0 0 0 0 0 0 0 0 0 0 0 0 0 0 0 0 0 0 0 0 0 0 0 0 0 0 0 0 0 0 0 0 0 0 0 0 0 0 0 0 0 0 0 0 0 0 0 0 0 0 2299 2453 1936 1887 1989 1936 1936 1989 1839 2374 2374 2628 2628 0 0 0 0 0 0 0 0 0 1989 2299 2299 2537 0 120 120 121 121 95 120 0 2725 2230 2453 0 0 0 0 0 0 0 0 0 0 0 0 0 1887 1839 1795 1887 1887 1887 1989 0 1936 0 0 0 0 121 121 121 0 122 2628 2453 2374 1936 1989 2044 1989 2044 2044 2102 2164 2164 2230 2230 2374 2374 2299 2230 2299 0 0 2453 2453 2453 2628 2628 2725 2628 2725 2537 2453 2628 2537 1936 2299 2299 1936 2230 2230 2164 2230 2230 2374 2164 2164 2725 1989 1989 2102 1887 1887 1936 2044 1989 2299 2374 2537 2628 2537 2725 0 2299 2453 2374 2374 1887 2044 1936 1839 1839 1795 1839 1839 1839 1839 1795 1752 1887 1887 1936 1711 1338 1338 1268 1291 1291 1247 1247 1226 1168 1226 1206 0 0 0 1839 1599 0 0 0 0 1795 0 1795 1936 2299 2628 2102 1887 1936 1936 1936 1887 1887 1795 1795 1795 1887 1711 1752 1795 1752 1752 1711 1752 1672 1635 1672 1672 1533 1533 1533 1533 1471 1533 1565 1533 1471 1443 1415 1415 1443 1443 1338 1314 1314 1314 1314 1268 1314 1291 1291 1291 1291 1268 1268 1268 1268 1268 1247 1268 1247 1247 1247 1247 1247 1291 0 0 0 0 0 0 0 1291 0 0 0 0 0 0 0 0
    0 0 0 0 0 0 0 0 0 0 0 0 0 0 0 0 0 0 0 0 0 0 0 0 0 0 0 0 0 0 0 0 0 0 0 0 0 0 0 0 0 0 0 0 0 0 0 0 0 0 0 0 0 0 0 0 0 0 0 0 0 0 0 0 0 0 0 0 0 2374 2374 1936 1887 1936 1936 1936 1989 1839 2299 2453 2628 2628 0 0 0 0 0 0 0 0 0 1989 2230 2230 2537 0 121 121 121 121 0 121 122 2725 2299 2537 0 0 0 0 0 0 0 0 0 0 0 0 2102 1936 1887 1936 1989 1989 2044 1989 1839 1989 3345 0 0 0 0 121 0 0 0 2628 2374 2299 1936 1989 1989 1989 2044 2044 2102 2164 2230 2299 2299 2453 2453 2374 2299 2299 0 0 0 0 2725 2830 2830 2943 2725 2830 2537 2537 2299 2102 1936 2044 2102 1887 2164 2164 2164 2164 2164 2299 2164 2164 2725 1936 1936 2044 1887 1839 1936 1936 1936 2164 2230 2537 2453 2453 2628 2453 2453 2537 2453 2374 1936 2164 1989 1887 1887 1839 1887 1887 1887 1887 1795 1795 1887 1839 1887 1672 1338 1362 1291 1314 1314 1268 1247 1206 1168 1206 1168 1247 0 0 0 0 0 0 1887 0 1839 0 1795 1936 2374 2725 2164 1887 1936 1887 1887 1887 1839 1795 1752 1795 1839 1711 1711 1795 1752 1752 1711 1752 1672 1635 1672 1635 1501 1501 1501 1501 1443 1501 1501 1443 1388 1362 1362 1362 1388 1362 1314 1314 1338 1338 1314 1291 1338 1314 1314 1314 1291 1291 1291 1291 1291 1268 1268 1268 1268 1268 1268 1268 1268 1362 0 0 0 0 0 0 1268 1247 1291 0 0 0 0 0 0 0
    0 0 0 0 0 0 0 0 0 0 0 0 0 0 0 0 0 0 0 0 0 0 0 0 0 0 0 0 0 0 0 0 0 0 0 0 0 0 0 0 0 0 0 0 0 0 0 0 0 0 0 0 0 0 0 0 0 0 0 0 0 0 0 0 0 0 0 0 0 0 0 0 1795 1795 1839 1887 1936 1795 2164 2299 2628 2628 0 0 0 0 0 0 0 0 0 1989 2164 2164 2537 0 120 120 121 121 0 121 122 2725 2299 2537 0 0 0 0 0 0 0 0 0 0 0 0 2164 1989 1989 1989 1989 1989 2044 2044 1887 1989 3066 0 3066 0 0 0 0 0 0 2628 2453 2299 1936 1936 2044 2044 2044 2102 2164 2164 2230 2230 2299 2453 2374 2230 2299 2230 2299 0 0 0 0 2943 2943 2943 2628 2725 2628 2537 2230 2044 1887 1936 1989 1887 2164 2164 2102 2164 2230 2299 2230 2230 2725 1989 1936 2044 1887 1887 1936 1936 1887 2044 2044 2230 2164 2230 2230 2102 2374 2537 2453 2374 1936 2230 2044 1936 1936 1887 1936 1936 1887 1936 1795 1752 1839 1795 1795 1635 1314 1314 1291 1314 1314 1291 1247 1226 1187 1206 1187 1247 1206 0 0 0 0 0 1936 0 0 0 0 0 2537 2943 2164 1795 1887 1887 1839 1887 1839 1752 1672 1752 1839 1711 1711 1795 1795 1752 1711 1752 1672 1635 1635 1635 1501 1471 1471 1471 1388 1443 1415 1338 1338 1314 1291 1291 1314 1291 1291 1268 1338 1314 1314 1268 1338 1314 1314 1314 1291 1291 1291 1291 1291 1268 1268 1291 1268 1268 1291 1291 1291 1471 0 0 0 0 0 0 1247 1226 1268 1362 0 0 0 0 0 0
    0 0 0 0 0 0 0 0 0 0 0 0 0 0 0 0 0 0 0 0 0 0 0 0 0 0 0 0 0 0 0 0 0 0 0 0 0 0 0 0 0 0 0 0 0 0 0 0 0 0 0 0 0 0 0 0 0 0 0 0 0 0 0 0 0 0 0 0 0 0 0 1839 1752 1795 1887 1887 2044 1936 2299 2374 2628 2628 0 0 0 0 0 0 0 0 1989 1936 2164 2044 0 0 0 0 121 121 0 121 0 2725 2374 2628 0 0 0 0 0 0 2299 0 0 0 0 2453 2164 2102 2102 2044 2164 2164 2164 2102 1936 2044 2830 2830 2943 0 0 0 0 0 0 2628 2453 2374 1936 1936 2044 1989 2044 2044 2102 2102 2164 2164 2164 2230 2230 1989 2102 2044 2102 2044 2102 1989 2230 2230 2374 2230 2164 2102 2164 2102 2230 1989 1887 1989 1989 1887 2164 2164 2102 2164 2230 2230 2164 2164 2537 2044 2044 2044 1936 1936 2044 1989 1989 2102 2164 2299 2299 2299 2230 2102 2453 2537 2453 2299 1936 2299 2044 1936 1936 1887 1936 1936 1936 1936 1752 1711 1795 1752 1752 1565 1291 1291 1291 1291 1291 1268 1247 1226 1187 1187 1187 1226 1187 0 0 0 0 0 0 0 0 0 0 0 0 0 2230 1711 1839 1839 1795 1839 1752 1711 1533 1711 1795 1711 1752 1795 1795 1752 1711 1752 1672 1635 1635 1599 1471 1443 1443 1415 1362 1362 1362 1291 1268 1247 1247 1247 1247 1247 1268 1226 1291 1291 1314 1226 1338 1314 1314 1314 1291 1291 1291 1291 1291 1268 1268 1291 1291 1291 1291 1291 1314 1565 0 0 0 0 0 0 0 0 0 0 0 0 0 0 0 0
    0 0 0 0 0 0 0 0 0 0 0 0 0 0 0 0 0 0 0 0 0 0 0 0 0 0 0 0 0 0 0 0 0 0 0 0 0 0 0 0 0 0 0 0 0 0 0 0 0 0 0 0 0 0 0 0 0 0 0 0 0 0 0 0 0 0 0 0 0 0 0 1839 1795 1839 1936 1989 2299 2164 2374 2453 2628 2725 0 0 0 0 0 0 0 2102 1989 1936 2044 1989 0 0 0 0 0 121 0 121 0 2725 2453 0 0 0 0 0 0 0 0 0 0 0 0 2453 2230 2164 2164 2102 2230 2299 2230 2230 2044 2102 2628 2830 2830 2943 2830 2830 2830 2943 0 2628 2453 2374 1936 1936 2044 1989 2044 2044 2044 2102 2102 2102 2102 2102 2164 1936 2044 1936 2044 1989 2044 1989 2102 2102 2164 2102 2102 1989 2044 1989 2102 1887 1839 1936 1936 1887 2102 2044 2044 2102 2102 2164 2102 2102 2374 1989 2044 1989 1936 1936 2044 1989 1989 2044 2164 2299 2374 2374 2299 2164 2628 2725 2537 2102 1887 2230 2044 1936 1936 1887 1936 1936 1887 1887 1752 1672 1711 1599 1599 1471 1291 1268 1268 1291 1291 1291 1247 1226 1168 1187 1168 0 1149 0 0 0 0 0 0 0 0 0 0 0 0 0 2230 1533 1752 1795 1711 1752 1672 1672 1443 1672 1752 1711 1752 1839 1795 1795 1711 1752 1672 1599 1635 1599 1471 1443 1415 1388 1338 1338 1314 1247 1247 1226 1226 1226 1226 1226 1247 1226 1291 1268 1291 1187 1338 1314 1314 1291 1291 1291 1291 1291 1291 1268 1268 1291 1291 1314 1314 1291 1291 1599 0 0 0 0 0 0 0 0 0 0 0 0 0 0 0 0
    0 0 0 0 0 0 0 0 0 0 0 0 0 0 0 0 0 0 0 0 0 0 0 0 0 0 0 0 0 0 0 0 0 0 0 0 0 0 0 0 0 0 0 0 0 0 0 0 0 0 0 0 0 0 0 0 0 0 0 0 0 0 0 0 0 0 0 0 0 0 0 0 0 0 2044 2102 2537 2230 2374 2453 0 2725 0 0 0 0 0 0 0 0 0 0 1989 0 0 0 0 0 0 0 0 0 0 2725 2628 0 0 0 0 0 0 2537 0 0 0 0 2453 2537 2299 2230 2230 2164 2164 2299 2230 2164 2044 2044 2453 2725 2725 2830 2725 2725 2725 2830 0 2628 2374 2374 1887 1936 1989 1887 1989 1936 1989 2044 2044 2044 2044 2044 2102 1989 2044 1936 1989 1936 1989 1989 2044 2044 1989 1989 1989 1887 1936 1839 1936 1839 1839 1936 1936 1839 2044 1989 2044 2044 2044 2044 2044 2044 2230 2044 2044 2044 2044 2044 2102 1989 2044 2044 2102 2230 2374 2230 2164 2102 2830 3066 2628 1936 1887 2164 1989 1936 1887 1839 1887 1887 1839 1795 1711 1565 1635 1443 1471 1415 1291 1268 1268 1268 1268 1291 1247 1206 1132 1149 1132 1168 1098 1036 0 0 0 0 0 0 0 0 0 0 0 0 0 0 0 1711 1635 1635 1501 1599 1362 1672 1752 1711 1795 1839 1795 1795 1752 1752 1672 1599 1635 1565 1443 1415 1388 1362 1314 1291 1268 1206 1206 1226 1247 1226 1247 1247 1268 1226 1291 1291 1291 1168 1338 1314 1314 1291 1291 1291 1291 1291 1291 1268 1268 1291 1291 1314 1314 1291 1291 1443 0 0 0 0 0 0 0 0 0 0 0 0 0 0 0 0
    0 0 0 0 0 0 0 0 0 0 0 0 0 0 0 0 0 0 0 0 0 0 0 0 0 0 0 0 0 0 0 0 0 0 0 0 0 0 0 0 0 0 0 0 0 0 0 0 0 0 0 0 0 0 0 0 0 0 0 0 0 0 0 0 0 0 0 0 0 100 0 0 0 0 2044 2044 2537 2164 2299 0 0 0 0 0 289 0 0 0 0 0 0 0 0 0 0 0 0 0 0 0 0 0 0 2725 2725 0 0 0 0 0 2537 2537 2453 2453 2453 0 2628 2628 2453 2453 2299 2230 2230 2230 2164 2164 2044 2044 2374 2537 2453 2725 2628 2628 2628 2725 0 2628 2374 2453 1887 1936 1989 1887 1936 1887 1936 1989 1989 1989 1989 1989 2102 2044 2102 1989 1989 1936 1989 1989 1989 1989 1936 1936 1936 1887 1989 1795 1795 1795 1795 1887 1887 1795 1989 1936 1989 1936 1989 1989 1989 1989 2164 1989 2044 1989 2044 2044 2164 1989 2044 1989 2044 2044 2102 2044 1989 2044 2830 3066 2628 1989 1887 2164 1989 1887 1839 1839 1887 1839 1795 1752 1635 1501 1533 1388 1388 1362 1291 1291 1268 1268 1268 1291 1247 1206 1115 1132 1132 1168 1098 1066 1082 1051 0 0 0 0 0 0 0 0 0 5661 0 0 0 0 0 0 0 0 0 1711 1795 1711 1839 1839 1839 1795 1752 1795 1672 1599 1599 1533 1415 1338 1314 1268 1247 1226 1226 1168 1187 1226 1247 1247 1291 1268 1291 1247 0 0 0 0 1338 1314 1291 1291 1291 1291 1291 1291 1291 1268 1268 1291 1291 1314 1291 1268 1247 1291 0 0 0 0 0 0 0 0 0 0 0 0 0 0 0 0
    0 0 0 0 0 0 0 0 0 0 0 0 0 0 0 0 0 0 0 0 0 0 0 0 0 0 0 0 0 0 0 0 0 0 0 0 0 0 0 0 0 0 0 0 0 0 0 0 0 0 0 0 0 0 0 0 0 0 0 0 0 0 0 0 0 0 0 0 0 0 0 0 0 0 1989 1989 2453 2102 2230 2164 0 2537 0 0 0 0 0 0 0 0 0 0 0 0 0 0 0 0 0 0 2537 2537 2943 2725 2628 2830 0 0 0 0 0 0 2164 0 2299 2299 2628 2628 2374 2374 2230 2230 2164 2230 2164 2164 2102 2044 2299 2374 2374 2628 2537 2537 2537 2537 0 2453 2374 2374 1887 1936 1989 1839 1887 1887 1936 1936 1989 1989 1936 1936 2102 2044 2102 1989 1989 1936 1989 1989 1989 1936 1936 1936 1936 1839 1936 1795 1752 1795 1839 1936 1887 1795 1936 1887 1936 1936 1936 1936 1989 1989 2102 1989 2044 1989 1989 2044 2164 1936 1936 1936 1936 1887 1936 1989 1936 2044 3066 3199 2830 2044 1936 2164 1936 1839 1839 1795 1839 1839 1752 1711 1599 1443 1471 1362 1362 1362 1291 1291 1268 1268 1268 1291 1268 1206 1132 1149 1132 1187 1132 1098 1098 1082 1066 0 0 0 0 0 0 0 5256 5256 4599 0 0 0 0 0 0 0 0 0 0 0 0 1936 1839 1839 1752 1795 1672 1565 1533 1471 1338 1247 1226 1168 1168 1168 1206 1168 1187 1247 1268 1268 1314 1314 1291 1268 0 0 0 0 1338 1314 1314 1291 1291 1291 1291 1314 1291 1268 1268 1291 1291 1314 1291 1268 1247 1291 0 0 0 0 0 0 0 0 0 0 0 0 0 0 0 0
    0 0 0 0 0 0 0 0 0 0 0 0 0 0 0 0 0 0 0 0 0 0 0 0 0 0 0 0 0 0 0 0 0 0 0 0 0 0 0 0 0 0 0 0 0 0 0 0 0 0 0 0 0 0 0 0 0 0 0 0 0 0 0 0 0 0 0 0 0 0 0 0 0 0 1989 2044 2299 2044 0 0 2374 2453 2943 2725 0 0 0 0 0 0 0 0 1795 1752 0 0 0 0 0 2299 2453 2453 2830 2537 2537 2725 2725 0 0 0 2374 2299 2164 2102 2164 0 0 2537 0 0 0 2164 2102 2230 2164 2230 2102 2044 2299 2299 2299 2537 2374 2453 2374 2453 0 2374 2374 2299 1887 1989 1989 1839 1887 1887 1989 1989 1989 1989 1936 1936 2102 1989 2044 1936 1989 1887 1989 1989 1989 1936 1936 1936 1887 1839 1887 1752 1752 1839 1887 1936 1887 1839 1936 1936 1989 1936 1989 1936 1989 1989 2044 1989 2044 1936 1989 1989 2164 1887 1936 1887 1887 1839 1936 1936 1936 2044 2830 3066 2725 1989 1936 2044 1887 1795 1752 1711 1795 1752 1672 1599 1565 1415 1388 1338 1338 1338 1291 1291 1268 1268 1268 1291 1268 1247 1149 1168 1149 1187 1149 1149 1115 1115 1098 1115 0 0 0 0 0 0 0 0 0 0 0 0 1206 0 1115 1098 1149 1132 1132 1115 1115 1115 1187 0 1471 1672 1533 1533 1443 1362 1206 1115 1132 1115 1115 1132 1187 1149 1206 1247 1291 1291 1362 1338 1314 1291 0 0 0 0 1362 1338 1314 1314 1314 1314 1314 1314 1314 1268 1268 1291 1314 1314 1314 1268 1247 1291 0 0 0 0 0 0 0 0 0 0 0 0 0 0 0 0
    0 0 0 0 0 0 0 0 0 0 0 0 0 0 0 0 0 0 0 0 0 0 0 0 0 0 0 0 0 0 0 0 0 0 0 0 0 0 0 0 0 0 0 0 0 0 0 0 0 0 0 0 0 0 0 0 0 0 0 0 0 0 0 0 0 0 0 0 0 3066 2725 2628 2537 2299 2374 2453 2537 2453 2537 0 2628 2537 2943 2628 2725 0 2453 2537 2299 1936 0 0 1752 1752 0 0 0 0 2164 2299 2374 2374 2830 2537 2537 2830 2725 0 2102 1989 2164 2102 2102 2044 2102 0 0 0 0 2164 0 2102 2044 2102 2102 2164 2102 2044 2230 2230 2299 2453 2374 2374 2299 2374 0 2374 2453 2299 1936 2044 2044 1887 1936 1887 1989 1989 2044 2044 1936 1887 2044 1989 1989 1936 1989 1887 1989 1989 1989 1936 1936 1989 1936 1887 1936 1752 1752 1839 1936 2044 1936 1887 1989 1936 1989 1989 1989 1989 1989 2044 2044 2044 2102 2044 1989 2044 2164 1936 2044 1989 1989 1936 2044 2044 2102 2102 2628 2725 2230 1839 1887 1887 1839 1711 1711 1672 1672 1635 1565 1533 1471 1362 1362 1314 1314 1314 1291 1291 1268 1268 1268 1291 1268 1247 1149 1168 1132 1168 1149 1149 1115 1098 1098 1115 0 0 0 0 0 0 0 1247 1291 1268 1247 1247 1226 1168 1115 1115 1149 1115 1098 1098 1115 1082 1115 1098 1226 0 0 1443 1388 0 1149 1082 1098 1115 1098 1149 1187 1168 1226 1268 1314 1338 1443 1388 1338 1291 0 0 0 178 1388 1338 1314 1314 1314 1314 1314 1314 1314 1291 1291 1291 1314 1338 1338 1291 1268 1314 0 0 0 0 0 0 0 0 0 0 0 0 0 0 0 0
    0 0 0 0 0 0 0 0 0 0 0 0 0 0 0 0 0 0 0 0 0 0 0 0 0 0 0 0 0 0 0 0 0 0 0 0 0 0 0 0 0 0 0 0 0 0 0 0 0 0 0 0 0 0 0 0 0 0 0 0 0 0 0 0 0 0 0 0 0 3066 2830 2725 2628 2453 2453 2537 2537 2628 2628 3066 3066 2830 3066 2830 2830 2725 2628 2628 2299 2044 1989 1752 1795 1752 0 0 0 0 2164 2299 2374 2374 2943 2628 2628 2943 2943 0 0 0 2102 2044 2044 1989 2044 0 0 0 0 0 0 2102 2102 2102 2102 2164 2102 2044 2164 2164 2230 2374 2230 2230 2230 2299 2537 2299 2453 2230 1989 2102 2102 1887 1936 1936 2044 2044 2044 2044 1936 1887 2044 1989 1989 1887 1936 1887 2044 1989 2044 1989 1989 1989 1989 1936 1989 1795 1795 1887 2044 2299 1989 1936 2044 1936 2044 2044 2044 1989 1989 2044 2044 2044 2102 1989 1989 2044 2164 1989 2102 1989 2044 1989 2164 2164 2230 2164 2537 2102 1936 1752 1795 1752 1711 1635 1635 1565 1565 1533 1471 1443 1415 1362 1338 1291 1291 1291 1268 1268 1268 1268 1268 1291 1268 1247 1149 1168 1132 1149 1149 1168 1149 1132 1132 1168 1132 1187 1149 1168 1187 1226 1226 1206 1247 1226 1226 1226 1226 1168 1098 1115 1168 1115 1098 1082 1098 1066 1098 1132 0 0 0 0 1388 0 1149 1066 1082 1115 1115 1168 1206 1187 1247 1291 1362 1415 1565 1501 1388 1314 0 1989 0 178 1362 1314 1314 1314 1314 1314 1314 1338 1338 1291 1291 1291 1314 1338 1362 1291 1291 1314 1711 0 0 0 0 0 0 0 0 0 0 0 0 0 0 0
    0 0 0 0 0 0 0 0 0 0 0 0 0 0 0 0 0 0 0 0 0 0 0 0 0 0 0 0 0 0 0 0 0 0 0 0 0 0 0 0 0 0 0 0 0 0 0 0 0 0 0 0 0 0 0 0 0 0 0 0 0 0 0 0 0 0 0 0 0 3066 2725 2725 2537 2453 2374 2537 2628 2628 2628 3345 3199 2943 3066 2830 2830 2830 2725 2725 2374 2102 2044 1839 1839 1795 0 0 1989 2102 2230 2299 2374 2374 2830 2537 2628 2943 2943 0 0 0 2628 2537 2537 2299 2537 0 0 0 0 0 0 2230 2102 2164 2164 2164 2102 2044 2164 2102 2164 2374 2230 2164 2164 2230 2453 2230 2453 2230 1936 2102 2102 1887 1936 1936 1989 1989 1989 1989 1936 1936 2102 1989 1989 1936 1989 1936 2044 2044 2044 1989 1989 2044 1989 1936 2102 1795 1795 1936 2102 2453 2044 2044 2044 1989 2044 2044 2044 1989 1989 2044 2044 2044 2102 2044 2044 2044 2164 1989 2164 2102 2102 2044 2299 2299 2537 2453 2374 2102 1936 1795 1839 1711 1672 1599 1599 1565 1533 1443 1415 1415 1388 1338 1314 1291 1291 1291 1291 1291 1268 1268 1268 1291 1291 1268 1149 1168 1149 1168 1168 1206 1187 1187 1187 1206 1206 1226 1206 1187 1187 1206 1206 1168 1206 1187 1206 1187 1187 1149 1098 1115 1168 1132 1115 1098 1115 1115 1115 1206 1247 0 0 0 1338 0 1149 1066 1082 1115 1115 1206 1226 1226 1291 1338 1415 1533 1635 1565 1471 1362 0 1887 0 177 1362 1314 1314 1314 1314 1314 1314 1314 1338 1291 1291 1291 1314 1314 1338 1268 1291 1291 1565 0 0 0 0 0 0 0 0 0 0 0 0 0 0 0
    0 0 0 0 0 0 0 0 0 0 0 0 0 0 0 0 0 0 0 0 0 0 0 0 0 0 0 0 0 0 0 0 0 0 0 0 0 0 0 0 0 0 0 0 0 0 0 0 0 0 0 0 0 0 0 0 0 0 0 0 0 0 0 0 0 0 0 0 0 3066 2725 2628 2537 2374 2374 2453 2537 2628 2725 3345 3199 3066 3066 2943 2943 2943 2830 2830 2374 2164 2164 1936 1989 1839 2044 2102 2044 2164 2230 2374 2374 2299 2725 2453 2537 2830 2725 2537 2628 0 2725 2943 2943 2628 0 0 0 0 0 0 0 2299 2102 2164 2102 2102 2102 2044 2164 2102 2164 2299 2164 2164 2164 2164 2374 2164 2374 2164 1936 2102 2102 1887 1936 1936 1989 1989 1989 2044 1936 1936 2164 2044 2044 1989 1989 1936 2102 2102 2044 1989 1989 2044 1989 1989 2164 1795 1752 1936 2230 2453 2044 2102 2102 1989 2102 2044 2102 2044 2044 2044 2044 2044 2164 2044 2044 2044 2164 1989 2164 2044 2102 2102 2374 2374 2537 2537 2102 2164 2044 1887 1839 1711 1635 1599 1565 1533 1471 1415 1362 1388 1362 1338 1314 1291 1291 1291 1291 1291 1291 1268 1268 1291 1291 1291 1168 1187 1187 1206 1206 1226 1226 1206 1206 1247 1226 1247 1206 1206 1206 1206 1206 1149 1187 1187 1187 1187 1187 1149 1098 1132 1187 1149 1149 1098 1132 1132 1115 1226 0 0 0 0 1338 0 1132 1066 1082 1115 1132 1206 1247 1247 1314 1388 1471 1565 1672 1599 1565 1471 1635 1839 1388 0 1362 1338 1314 1338 1338 1314 1314 1314 1314 1291 1268 1291 1291 1291 1314 1268 1268 1291 1415 0 0 0 0 0 0 0 0 0 0 0 0 0 0 0
    0 0 0 0 0 0 0 0 0 0 0 0 0 0 0 0 0 0 0 0 0 0 0 0 0 0 0 0 0 0 0 0 0 0 0 0 0 0 0 0 0 0 0 0 0 0 0 0 0 0 0 0 0 0 0 0 0 0 0 0 0 0 0 0 0 0 0 0 0 3066 2628 2628 2453 2374 2299 2453 2537 2725 2725 3345 3345 3066 3199 2830 2830 2830 2725 2830 2453 2299 2374 2164 2164 1936 2164 2164 2102 2230 2299 2453 2299 2299 2725 2374 2453 2725 2537 2299 2299 2374 2374 2537 2537 2453 0 0 0 0 0 0 0 2299 2044 2102 2102 2044 2102 2044 2164 2044 2164 2299 2164 2164 2164 2164 2299 2102 2374 2102 1936 2102 2102 1887 1989 1936 2044 2044 2044 2044 1936 1989 2230 2102 2102 2044 2044 1989 2164 2164 2044 1989 1989 2044 1989 1989 2164 1795 1752 1989 2230 2453 2044 2164 2164 2044 2102 2102 2164 2044 2044 2102 2044 2044 2230 2044 2044 2044 2164 2102 2299 2102 2102 2102 2299 2453 2537 2537 2044 2164 2044 1936 1839 1752 1711 1635 1599 1565 1471 1415 1388 1388 1362 1338 1314 1314 1291 1314 1291 1291 1291 1291 1291 1291 1291 1268 1187 1206 1206 1226 1226 1226 1226 1226 1226 1247 1247 1247 1206 1206 1206 1206 1206 1132 1168 1168 1149 1168 1149 1149 1098 1132 1187 1149 1149 1115 1149 1168 1132 1268 0 0 0 0 1314 0 1115 1066 1082 1115 1115 1206 1226 1247 1314 1415 1501 1599 1672 1635 1599 1565 1672 1839 1471 0 1388 1338 1338 1338 1338 1314 1314 1314 1291 1268 1268 1268 1268 1268 1291 1247 1247 1291 1415 0 0 0 1226 0 0 0 0 0 0 0 0 0 0 0
    0 0 0 0 0 0 0 0 0 0 0 0 0 0 0 0 0 0 0 0 0 0 0 0 0 0 0 0 0 0 0 0 0 0 0 0 0 0 0 0 0 0 0 0 0 0 0 0 0 0 0 0 0 0 0 0 0 0 0 0 0 0 0 0 0 0 0 0 0 3066 2725 2628 2537 2374 2299 2537 2537 2725 2830 3504 3345 3199 3199 2943 2943 2943 2830 2830 2453 2374 2453 2374 2299 1989 2230 2230 2164 2299 2299 2453 2299 2299 2725 2299 2299 2628 2299 2102 2044 1989 2102 2044 2230 0 0 0 0 0 0 0 2230 2374 2102 2102 2102 2044 2102 2044 2164 2044 2164 2230 2164 2164 2230 2164 2230 2102 2374 2102 1989 2102 2102 1887 2044 1989 2102 2044 2044 2102 1989 2044 2299 2164 2164 2102 2102 2044 2164 2299 2102 2044 2044 2102 2044 2044 2164 1795 1795 2044 2164 2453 2044 2230 2230 2044 2164 2164 2164 2164 2102 2164 2102 2044 2299 2044 1989 1989 2102 2164 2374 2164 2102 2164 2299 2537 2537 2537 1989 2164 2102 1989 1887 1795 1711 1672 1599 1599 1471 1388 1388 1388 1388 1338 1338 1314 1314 1314 1291 1314 1291 1291 1291 1291 1291 1291 1206 1226 1226 1247 1226 1247 1226 1226 1226 1247 1226 1247 1187 1187 1187 1187 1187 1132 1149 1149 1149 1149 1149 1132 1098 1132 1168 1149 1149 1115 1149 1168 1115 1268 0 0 0 0 0 1008 1115 1066 1082 1115 1132 1206 1247 1247 1338 1443 1501 1599 1672 1635 1672 1635 1672 1839 1565 0 1388 1338 1338 1338 1338 1338 1314 1314 1291 1268 1268 1268 1268 1247 1268 1247 1247 1314 1415 0 0 0 0 0 0 0 0 0 0 0 0 0 0 0
    0 0 0 0 0 0 0 0 0 0 0 0 0 0 0 0 0 0 0 0 0 0 0 0 0 0 0 0 0 0 0 0 0 0 0 0 0 0 0 0 0 0 0 0 0 0 0 0 0 0 0 0 0 0 0 0 0 0 0 0 0 0 0 0 0 0 0 0 0 3066 2830 2830 2628 2453 2453 2537 2537 2725 2943 3679 3504 3345 3345 2943 2943 2943 2943 2830 2537 2537 2537 2537 2537 2044 2374 2374 2230 2374 2299 2453 2299 2299 2628 2164 2230 2628 2230 2044 1989 2044 2102 2230 2374 0 0 0 0 0 402 0 2374 2453 2230 2230 2102 2044 2102 2102 2164 2044 2164 2230 2164 2164 2164 2102 2164 2102 2299 2044 1989 2164 2164 1936 2044 1989 2102 2102 2044 2102 1989 2044 2299 2164 2164 2164 2102 2102 2230 2299 2164 2102 2044 2102 2044 2102 2102 1839 1839 2102 2102 2453 2044 2299 2299 2102 2230 2299 2299 2230 2164 2299 2102 2102 2374 2044 1936 1989 2102 2230 2453 2230 2230 2299 2453 2628 2628 2537 1989 2102 2044 1936 1839 1752 1672 1672 1599 1599 1471 1388 1388 1388 1388 1338 1338 1338 1314 1314 1291 1291 1291 1291 1291 1291 1291 1291 1206 1247 1247 1247 1226 1247 1226 1206 1226 1247 1226 1226 1187 1187 1168 1187 1187 1149 1168 1149 1149 1168 1149 1149 1098 1132 1168 1149 1149 1115 1149 1149 1115 0 0 0 0 0 0 1022 1115 1082 1098 1115 1149 1226 1268 1268 1362 1471 1533 1599 1635 1635 1672 1635 1635 1795 1533 0 1388 1338 1338 1338 1362 1338 1338 1314 1314 1268 1268 1268 1247 1247 1268 1247 1247 1291 1415 0 0 0 0 0 0 0 0 0 0 0 0 0 0 0
    0 0 0 0 0 0 0 0 0 0 0 0 0 0 0 0 0 0 0 0 0 0 0 0 0 0 0 0 0 0 0 0 0 0 0 0 0 0 0 0 0 0 0 0 0 0 0 0 0 0 0 0 0 0 0 0 0 0 0 0 0 0 0 0 0 0 0 0 0 3199 2943 2830 2725 2628 2628 2628 2628 2830 2943 3679 3504 0 3199 2943 2943 2943 2943 2830 2537 2537 2628 2725 2628 2164 2453 2453 2299 2374 2374 2537 2299 2299 2725 2230 2299 2830 2628 2374 2164 2628 2374 2628 2453 2453 0 0 0 0 0 0 2453 2537 2374 2230 2102 2044 2102 2102 2164 2044 2164 2164 2164 2164 2164 2102 2164 2102 2299 2044 1989 2102 2164 1989 2164 2102 2102 2164 2102 2164 2044 2102 2299 2230 2230 2230 2164 2164 2230 2374 2164 2164 2044 2102 2102 2164 2102 1839 1887 2102 2044 2374 1989 2299 2299 2102 2299 2299 2299 2299 2164 2374 2102 2102 2453 2102 1936 1989 2102 2374 2537 2299 2374 2374 2453 2628 2628 2453 2044 2102 2044 1936 1839 1752 1711 1711 1599 1599 1471 1415 1388 1415 1415 1338 1362 1338 1314 1314 1291 1291 1291 1291 1291 1291 1291 1291 1206 1247 1247 1268 1247 1247 1247 1226 1247 1247 1247 1247 1206 1206 1187 1187 1187 1149 1168 1149 1149 1187 1187 1187 1132 1168 1206 1187 1187 1149 1168 1149 1098 0 0 1132 1098 1051 1132 1008 1115 1082 1082 1115 1149 1226 0 1291 1388 1471 1533 1565 1635 1635 1672 1635 1599 1752 1501 1362 1388 1338 1338 1338 1338 1338 1338 1314 1314 1291 1268 1268 1247 1247 1268 1247 1247 1291 1415 0 0 0 0 0 0 0 0 0 0 0 0 0 0 0
    0 0 0 0 0 0 0 0 0 0 0 0 0 0 0 0 0 0 0 0 0 0 0 0 0 0 0 0 0 0 0 0 0 0 0 0 0 0 0 0 0 0 0 0 0 0 0 0 0 0 0 0 0 0 0 0 0 0 0 0 0 0 0 0 0 0 0 0 0 3199 2943 2943 2830 2628 2725 2725 2628 2830 3066 3679 3345 0 3066 2943 2830 2830 2830 2725 2537 2537 2725 2725 2725 2164 2453 2453 2299 2374 2374 2537 2299 2299 2725 2374 2374 2943 2725 2537 2230 2628 2453 2628 2374 0 2537 2725 2943 2725 2299 2374 2537 2537 2537 2299 2102 2044 2102 2164 2164 1989 2164 2164 2164 2102 2164 2102 2102 2102 2299 2102 2044 2102 2164 2044 2164 2102 2102 2102 2102 2102 2044 2164 2230 2230 2230 2230 2164 2164 2299 2374 2164 2230 2102 2102 2164 2299 2164 1887 1936 2044 1989 2299 1989 2299 2299 2164 2299 2374 2374 2374 2230 2453 2230 2230 2537 2164 2044 2102 2164 2453 2628 2374 2374 2374 2453 2628 2628 2374 2102 2102 2044 1989 1887 1795 1795 1752 1672 1635 1501 1443 1415 1415 1415 1362 1362 1362 1314 1338 1291 1291 1268 1291 1291 1268 1268 1268 1206 1247 1247 1268 1247 1268 1247 1247 1247 1268 1268 1268 1206 1206 1187 1187 1187 1149 1168 1149 1149 1187 1187 1206 1168 1168 1226 1206 1206 1187 1187 1168 1115 0 0 1115 1082 1051 1066 1008 1115 1082 1098 1115 1168 1226 0 1291 1388 1471 1501 1533 1599 1599 1672 1635 1565 1752 1501 1362 1362 1314 1314 1338 1338 1314 1338 1314 1314 1291 1291 1291 1268 1247 1268 1247 1268 1291 0 0 0 0 0 0 0 0 0 0 0 0 0 0 0 0
    0 0 0 0 0 0 0 0 0 0 0 0 0 0 0 0 0 0 0 0 0 0 0 0 0 0 0 0 0 0 0 0 0 0 0 0 0 0 0 0 0 0 0 0 0 0 0 0 0 0 0 0 0 0 0 0 0 0 0 0 0 0 0 0 0 0 0 0 0 3199 2943 2943 2830 2628 2725 2725 2725 2830 3066 3504 3345 0 2943 2830 2830 2830 2830 2830 2628 2628 2725 2830 2725 2230 2453 2453 2299 2374 2374 2537 2299 2299 2725 2299 2374 2830 2725 2453 2299 2943 2725 0 0 0 0 0 2943 2628 2299 2374 2537 2537 2537 2453 2102 2102 2230 2299 2230 1989 2164 2164 2164 2164 2164 2102 2102 2102 2374 2102 2044 2164 2102 2044 2164 2164 2102 2102 2102 2044 2044 2230 2230 2230 2230 2230 2164 2230 2299 2374 2164 2230 2102 2102 2164 2299 2102 1887 1936 1989 1887 2230 1989 2230 2230 2164 2374 2374 2374 2374 2230 2537 2230 2299 2628 2044 1989 2044 2230 2628 2628 2299 2299 2374 2453 2628 2537 2230 2102 2102 2044 1989 1936 1839 1839 1795 1711 1672 1501 1443 1415 1443 1443 1362 1388 1362 1338 1338 1291 1291 1268 1291 1291 1268 1268 1268 1206 1247 1247 1268 1247 1268 1247 1247 1247 1268 1268 1268 1206 1206 1168 1187 1187 1149 1168 1149 1149 1168 1187 1226 1168 1187 1226 1206 1226 0 1206 1206 1149 0 0 1115 1098 1051 1082 1022 1115 1098 1098 1115 1168 1226 1291 1291 1388 1443 1471 1501 1599 1599 1635 1599 1565 1752 1533 1362 1362 1314 1314 1338 1338 1314 1314 1314 1314 1291 1291 1291 1268 1247 1268 1268 1247 1268 0 0 0 0 0 0 0 0 0 0 0 0 0 0 0 0
    0 0 0 0 0 0 0 0 0 0 0 0 0 0 0 0 0 0 0 0 0 0 0 0 0 0 0 0 0 0 0 0 0 0 0 0 0 0 0 0 0 0 0 0 0 0 0 0 0 0 0 0 0 0 0 0 0 0 0 0 0 0 0 0 0 0 0 0 0 3199 3066 3066 0 2725 0 2725 2725 2830 3066 3345 3199 0 2943 2830 2830 2830 2830 2830 2628 2725 2830 2943 2830 2230 2537 2453 2374 2453 2374 2453 2299 2299 2725 2299 2299 2725 2537 2453 2230 0 2830 3199 0 0 0 0 0 2453 2230 2374 2453 2537 2537 2374 2102 2164 2299 2299 2230 1989 2164 2230 2230 2230 2230 2102 2102 2102 2453 2164 2102 2102 2044 1989 2102 2102 2044 2044 2044 2044 2044 2230 2230 2230 2230 2230 2230 2230 2374 2374 2164 2164 2102 2102 2164 2230 2044 1887 1887 1989 1887 2164 1989 2230 2164 2164 2299 2374 2374 2374 2230 2537 2230 2374 2628 2164 2044 2102 2453 2830 2725 2374 2453 2374 2453 2537 2453 2044 2044 2044 2044 1989 1936 1839 1839 1795 1711 1672 1533 1443 1443 1443 1471 1388 1388 1388 1338 1338 1314 1291 1268 1268 1268 1268 1268 1268 1206 1247 1247 1268 1247 1268 1247 1247 1247 1268 1268 1268 1206 1206 1187 1187 1206 1168 1168 1149 1149 1187 1187 1206 1187 1187 1226 1206 1247 0 1226 1226 0 0 0 1168 1149 1066 1115 1036 1115 1115 1115 1115 1168 1206 1268 1291 1362 1415 1443 1471 1565 1565 1635 1599 1599 1752 1565 1388 1362 1314 1314 1338 1338 1314 1314 1314 1314 1314 1291 1291 1268 1268 1291 1268 1247 1247 0 0 0 0 0 0 0 0 0 0 0 0 0 0 0 0
    0 0 0 0 0 0 0 0 0 0 0 0 0 0 0 0 0 0 0 0 0 0 0 0 0 0 0 0 0 0 0 0 0 0 0 0 0 0 0 0 0 0 0 0 0 0 0 0 0 0 0 0 0 0 0 0 0 0 0 0 0 0 0 0 0 0 0 0 0 3199 3066 0 0 0 0 2725 2628 2725 2943 3066 2943 0 2830 2725 2725 2725 2725 2725 2628 2725 2830 2943 2830 2299 2537 2537 2374 2453 2374 2453 2299 2299 2725 2299 2299 2628 2374 2453 2164 2628 2537 2830 0 0 0 0 0 2044 2102 2230 2299 2374 2374 2164 2102 2164 2374 2374 2230 2044 2230 2230 2299 2299 2299 2164 2164 2102 2537 2164 2102 2044 2044 2044 2102 2102 2044 2044 2044 2044 2102 2164 2230 2230 2230 2230 2230 2230 2374 2299 2164 2164 2102 2102 2230 2230 1989 1887 1887 2044 1839 2164 1989 2230 2164 2164 2299 2299 2299 2374 2164 2453 2230 2374 2537 2044 1989 2102 2537 3066 2725 2453 2453 2374 2453 2453 2299 1989 1989 1989 1989 1936 1887 1795 1795 1795 0 1672 1501 1443 1443 1443 1471 1388 1388 1388 1338 1338 1291 1268 1268 1268 1268 1268 1247 1268 1206 1247 1247 1268 1247 1247 1247 1226 1247 1247 1247 1247 1187 1187 1168 1187 1206 1168 1187 1168 1168 1187 1206 1226 1187 1187 1226 1206 1226 1226 1247 1247 1206 0 1187 1187 1168 1082 1132 1036 1132 1132 1132 1115 1168 1206 1268 1268 1362 1388 1443 1443 1533 1565 1635 1599 1599 1711 1565 1388 1338 1314 1314 1338 1338 1314 1314 1338 1338 1314 1314 1314 1291 1268 1291 1291 1268 1247 0 0 0 0 0 0 0 0 0 0 0 0 0 0 0 0
    0 0 0 0 0 0 0 0 0 0 0 0 0 0 0 0 0 0 0 0 0 0 0 0 0 0 0 0 0 0 0 0 0 0 0 0 0 0 0 0 0 0 0 0 0 0 0 0 0 0 0 0 0 0 0 0 0 0 0 0 0 0 0 0 0 0 0 0 0 3199 3199 0 153 153 152 2725 2628 2628 2830 2830 2725 2628 2725 2628 2725 2628 2628 2628 2537 2725 2830 2830 2830 2299 2537 2537 2453 2453 2374 2453 2299 2299 2725 2374 2453 2628 2230 2374 2044 2230 2164 2230 2044 0 1936 1936 1887 1936 2044 2164 2230 2230 2299 2102 2102 2230 2374 2299 2230 1989 2230 2230 2299 2299 2230 2164 2164 2164 2537 2164 2164 2102 2044 2044 2102 2102 2044 2044 2044 1989 2102 2164 2164 2230 2230 2164 2164 2230 2299 2230 2230 2164 2102 2102 2299 2299 1936 1936 1936 2102 1839 2164 1989 2164 2102 2164 2299 2299 2299 2374 2164 2537 2230 2453 2537 2044 2044 2164 2725 3066 2725 2453 2374 2299 2374 2453 2164 1936 2044 1989 1989 1936 1887 1795 1795 0 0 1635 1501 1471 1443 1443 1471 1388 1388 1388 1314 1338 1291 1268 1247 1247 1247 1247 1226 1247 1206 1247 1247 1268 1247 1226 1226 1206 1226 1226 1226 1226 1168 1168 1149 1187 1187 1168 1168 1168 1149 1187 1187 1206 1168 1168 1206 1187 1206 1226 1226 1226 1206 0 1206 1206 1168 1098 1132 1051 1132 1132 1132 1115 1168 1206 1268 1268 1362 1388 1415 1443 1533 1565 1635 1565 1599 1752 1599 1388 0 1291 1291 1314 1314 1314 1314 1338 1338 1338 1338 1338 1314 1314 1338 1314 1291 0 0 0 0 0 0 0 0 0 0 0 0 0 0 0 0 0
    0 0 0 0 0 0 0 0 0 0 0 0 0 0 0 0 0 0 0 0 0 0 0 0 0 0 0 0 0 0 0 0 0 0 0 0 0 0 0 0 0 0 0 0 0 0 0 0 0 0 0 0 0 0 0 0 0 0 0 0 0 0 0 0 0 0 0 0 0 3345 3199 3199 0 0 152 2830 2628 2628 2725 2725 2628 2628 2628 2537 2628 2628 2537 2628 2453 2725 2725 2725 2725 2299 2537 2537 2453 2537 2453 2453 2374 2374 2830 2453 2537 2725 2299 2725 2044 2299 0 2537 2164 0 1989 1989 1936 1989 2102 2164 2230 2299 2299 2102 2102 2299 2299 2299 2230 1989 2230 2230 2299 2299 2230 2230 2230 2230 2628 2230 2230 2102 2102 2102 2102 2102 2044 2044 2044 1989 2102 2102 2102 2164 2164 2102 2164 2230 2299 2230 2230 2230 2102 2164 2374 2299 1989 1936 1936 2102 1839 2102 1989 2164 2102 2164 2299 2299 2230 2374 2230 2537 2230 2537 2453 2102 2044 2230 2830 3066 2628 2453 2374 2299 2374 2453 2044 1989 2044 1989 1989 1936 1887 0 0 0 0 1635 1533 1471 1443 1443 1471 1388 1388 1362 1314 1314 1291 1268 1247 1247 1247 1247 1226 1247 1226 1247 1226 1247 1226 1226 1206 1206 1206 1206 1206 1226 1149 1168 1149 1168 1187 1168 1168 1168 1168 1187 1206 1226 1187 1187 1206 1187 1206 1226 1226 1206 1187 0 1168 1187 1168 1098 1132 1051 1149 1149 1149 1115 1187 1226 1268 1268 1362 1388 1388 1415 1533 1565 1635 1533 1635 1752 1599 1362 0 1291 1314 1338 1338 1314 1338 1362 1388 1388 1362 1362 1338 1362 1388 1362 1314 0 0 0 0 0 0 0 0 0 0 0 0 0 0 0 0 0
    0 0 0 0 0 0 0 0 0 0 0 0 0 0 0 0 0 0 0 0 0 0 0 0 0 0 0 0 0 0 0 0 0 0 0 0 0 0 0 0 0 0 0 0 0 0 0 0 0 0 0 0 0 0 0 0 0 0 0 0 0 0 0 0 0 0 0 0 0 3345 3345 3345 3504 0 0 2830 2725 2725 2725 2725 2628 2537 2628 2453 2628 2537 2537 2537 2374 2628 2725 2725 2725 2299 2537 2628 2537 2628 2537 2453 2374 2374 2830 2453 2537 2725 2628 2830 2453 2537 0 2537 2230 0 1989 1989 1887 1989 2044 2102 2164 2164 2164 2044 2102 2299 2299 2230 2230 1989 2230 2299 2299 2299 2230 2299 2230 2230 2628 2299 2230 2102 2102 2164 2102 2044 1989 2044 2044 1989 2102 2102 2102 2102 2102 2102 2164 2164 2230 2230 2230 2164 2102 2230 2374 2230 1989 1989 1989 2102 1887 2164 1989 2164 2102 2230 2299 2299 2230 2374 2230 2537 2230 2537 2299 2044 1989 2164 2943 3066 2453 2230 2374 2299 2453 2453 1989 1989 2102 1989 1989 1936 1887 0 0 0 0 1635 1533 1501 1443 1471 1471 1388 1362 1362 1314 1314 1291 1247 1226 1226 1247 1247 1226 1247 1206 1226 1206 1226 1226 1206 1187 1187 1206 1226 1226 1247 1168 1168 1149 1187 1187 1168 1187 1168 1168 1187 1206 1226 1206 1206 1226 1187 1206 1226 1226 1206 1206 0 1168 1187 1168 1132 1168 1066 1149 1149 1168 1132 1187 1226 1268 1268 1338 1362 1388 1415 1533 1565 1599 1501 1599 1711 1565 1388 1362 1314 1314 1338 1338 1338 1362 1388 1415 1415 1388 1415 1388 1415 1443 1415 1362 0 0 0 0 0 0 0 0 0 0 0 0 0 0 0 0 0
    0 0 0 0 0 0 0 0 0 0 0 0 0 0 0 0 0 0 0 0 0 0 0 0 0 0 0 0 0 0 0 0 0 0 0 0 0 0 0 0 0 0 0 0 0 0 0 0 0 0 0 0 0 0 0 0 0 0 0 0 0 0 0 0 0 0 0 0 0 3199 3199 3345 3504 3504 3345 0 2830 2830 2725 2725 2628 2537 2537 2453 2537 2453 2374 2453 2299 2537 2725 2725 2725 2299 2537 2628 2537 2725 2628 2537 2453 2453 2830 2537 2628 2830 2628 2725 2453 2230 2374 2230 2102 1936 1887 1887 1887 1887 1989 2044 2102 2102 2102 2044 2164 2299 2299 2299 2299 1989 2230 2299 2299 2299 2230 2299 2299 2299 2725 2374 2230 2102 2164 2230 2164 2102 2044 2044 2044 2044 2102 2102 2102 2102 2102 2102 2164 2230 2230 2164 2230 2164 2164 2299 2453 2299 2102 2164 2164 2374 1936 2230 2044 2230 2102 2230 2299 2299 2230 2374 2230 2537 2230 2628 2230 2102 2102 2299 3199 3345 2628 1936 2299 2299 2374 2374 1936 1989 2102 1989 1989 1936 1887 0 0 0 0 1672 1565 1533 1443 1471 1501 1388 1362 1338 1291 1291 1291 1247 1226 1226 1247 1247 1226 1247 1206 1226 1187 1226 1206 1206 1187 1187 1206 1206 1226 1247 1187 1168 1168 1187 1206 1168 1187 1187 1187 1206 1226 1226 1226 1206 1226 1206 1226 1226 1226 1206 1206 1187 1168 1187 1168 1132 1168 1066 1168 1149 1149 1132 1187 1226 1268 1247 1338 1362 1362 1388 1533 1565 1533 1471 1599 1711 1533 1388 1362 1338 1338 1362 1362 1338 1388 1415 1443 1443 1443 1471 1415 1443 1443 1443 1388 0 0 0 0 0 0 0 0 0 0 0 0 0 0 0 0 0
    0 0 0 0 0 0 0 0 0 0 0 0 0 0 0 0 0 0 0 0 0 0 0 0 0 0 0 0 0 0 0 0 0 0 0 0 0 0 0 0 0 0 0 0 0 0 0 0 0 0 0 0 0 0 0 0 0 0 0 0 0 0 0 0 0 0 0 0 0 3066 3066 3345 3345 3504 3345 0 2943 2830 2830 2830 2537 2537 2537 2374 2537 2453 2299 2453 2230 2537 2628 2628 2628 2374 2628 2725 2628 2725 2628 2537 2537 2537 2830 2628 2628 2830 2628 2725 2453 2230 0 2164 1989 1887 1839 1887 1839 1887 1936 1989 2044 2102 2044 2044 2164 2230 2299 2299 2299 1989 2230 2299 2299 2230 0 2299 2230 2299 2725 2453 2164 2164 2230 2230 2164 2044 2044 2044 1989 2044 2102 2044 2102 2102 2102 2102 2164 2230 2230 2164 2230 2102 2164 2299 2537 2230 2164 2453 2374 2537 1989 2230 2044 2230 2102 2230 2299 2299 2230 2374 2230 2537 2299 2725 2230 2102 2230 2453 3199 0 2374 1795 2044 2102 2230 2102 1887 1989 2102 1989 1989 1936 1887 0 0 0 0 1672 1599 1533 1471 1471 1501 1388 1362 1338 1314 1291 1291 1247 1247 1247 1247 1268 1206 1226 1206 1226 1187 1206 1206 1187 1187 1168 1168 1187 1187 1206 1149 1132 1149 1168 1206 1168 1168 1187 1187 1187 1206 1206 1206 1187 1206 1168 1187 1187 1206 1187 1187 0 1168 1187 1168 1132 1149 1066 1149 1149 1149 1132 1187 1226 1247 1247 1314 1338 1362 1388 1565 1533 1501 1471 1635 1711 1533 1415 1388 1362 1338 1388 1388 1362 1388 1443 1471 1501 1471 1533 1471 1501 1533 1565 1443 0 0 0 0 0 0 0 0 0 0 0 0 0 0 0 0 0
    0 0 0 0 0 0 0 0 0 0 0 0 0 0 0 0 0 0 0 0 0 0 0 0 0 0 0 0 0 0 0 0 0 0 0 0 0 0 0 0 0 0 0 0 0 0 0 0 0 0 0 0 0 0 0 0 0 0 0 0 0 0 0 0 0 0 0 0 0 2943 2943 3199 3199 0 3345 0 0 2830 2830 2830 2537 2628 2537 2374 2537 2453 2230 2374 2230 0 2628 2628 2537 2374 2628 2725 2628 0 2725 2628 2628 2628 2830 2628 2628 2830 2628 2830 2628 0 0 2102 1936 1887 1795 1887 1887 1887 1936 2044 2102 2164 2044 2102 2230 2230 2230 2299 2374 1989 2230 2374 2299 2164 0 2299 2230 2299 2830 2537 2164 2164 2230 2230 2102 2044 1989 2044 1989 2044 2102 2044 2102 2102 2102 2164 2164 2299 2230 2230 2299 2164 2230 2374 2537 2230 2299 2628 2453 2628 2044 2299 2044 2230 2102 2230 2230 2230 2164 2299 2230 2453 2230 2725 2164 2164 2299 2537 2830 0 2044 1711 1989 1989 2102 1936 1795 1936 1989 1936 1989 1936 1887 1839 1795 0 0 1672 1599 1533 1443 1471 1471 1388 1338 1338 1291 1291 1291 1247 1247 1247 1247 1268 1206 1226 1206 1206 1168 1168 1187 1168 1168 1132 1149 1168 1149 1168 1115 1098 1132 1149 1187 1168 1168 1168 1168 1187 1187 1206 1187 1168 1187 1149 1168 1168 1187 1187 0 0 1168 1187 1168 1132 1149 1082 1168 1149 1149 1132 1187 1226 1247 1247 1314 1338 1338 1388 1599 1565 1501 1501 1672 1711 1471 1415 1415 1388 1362 1415 1443 1415 1415 1471 1501 1533 1501 1533 1471 1501 1533 1635 1471 0 0 0 0 0 0 0 0 0 0 0 0 0 0 0 0 0
    0 0 0 0 0 0 0 0 0 0 0 0 0 0 0 0 0 0 0 0 0 0 0 0 0 0 0 0 0 0 0 0 0 0 0 0 0 0 0 0 0 0 0 0 0 0 0 0 0 0 0 0 0 0 0 0 0 0 0 0 0 0 0 0 0 0 0 0 0 2830 2725 3199 0 0 0 0 0 0 2830 2830 2537 2628 2537 2374 2537 2374 2230 2374 2230 0 2537 2537 2537 2453 2628 2830 2725 0 2830 2725 2725 2725 2830 2628 2537 2725 2628 2830 2453 1989 0 1989 1887 1839 1752 1839 1887 1936 1989 2044 2164 2164 2044 2102 2230 2230 2230 2299 2299 1989 2230 2299 2299 2164 0 2299 2299 2299 2830 2537 2230 2164 2299 2230 2102 2044 1989 2044 1989 2044 2102 2044 2164 2102 2164 2164 2230 2299 2230 2299 2299 2164 2299 2453 2537 2374 2453 2725 2453 2628 2102 2299 2044 2230 2044 2230 2230 2230 2164 2299 2230 2453 2299 2725 2164 2164 2299 2537 2537 2044 1989 1711 2044 2164 2230 1936 1711 1936 1936 1887 1936 1887 1839 1795 1752 0 1711 1672 1599 1501 1443 1471 1443 1362 1338 1314 1291 1291 1291 1247 1247 1247 1247 1247 1206 1226 1206 1206 1168 1168 1187 1168 1168 1132 1168 1168 1149 1187 1115 1115 1132 1149 1187 1149 1168 1168 1187 1187 1206 1206 1187 1168 1187 1149 1168 1168 1187 1187 0 0 1187 1206 1187 1149 1168 1082 1168 1168 1168 1149 1206 1226 1247 1247 1314 1338 1338 1388 1599 1599 1501 1533 1711 1672 1471 1388 1443 1415 1388 1443 1471 1443 1443 1533 1533 1533 1501 1533 1471 1471 1501 1565 1415 0 0 0 0 0 0 0 0 0 0 0 0 0 0 0 0 0
    0 0 0 0 0 0 0 0 0 0 0 0 0 0 0 0 0 0 0 0 0 0 0 0 0 0 0 0 0 0 0 0 0 0 0 0 0 0 0 0 0 0 0 0 0 0 0 0 0 0 0 0 0 0 0 0 0 0 0 0 0 0 0 0 0 0 0 0 0 2725 2725 0 0 0 0 0 0 0 2830 2830 2537 2628 2537 2374 2537 2374 2230 2374 2230 2453 2453 2453 2453 2453 2725 2830 2830 0 2830 2830 2830 2830 2830 2537 2453 2628 2537 2628 2453 1989 0 2044 1936 1887 1839 1887 1936 1989 1989 2044 2164 2164 2102 2164 2230 2164 2164 2299 2299 2044 2299 2299 2299 2164 2230 2374 2299 2299 2725 2453 2230 2164 2374 2299 2164 2102 2044 2102 2044 2102 2102 2044 2164 2102 2164 2230 2164 2299 2230 2299 2299 2230 2299 2537 2628 2453 2537 2830 2537 2628 2044 2230 2044 2164 2044 2164 2164 2164 2102 2299 2230 2453 2299 2725 2164 2164 2230 2453 2230 1839 1839 1711 1936 2164 2374 1989 1672 1936 1936 1887 1936 1887 1795 1795 1752 1795 1711 1672 1599 1501 1443 1471 1443 1338 1314 1314 1291 1291 1291 1268 1247 1247 1247 1247 1226 1226 1206 1206 1168 1168 1187 1168 1168 1132 1168 1168 1149 1168 1115 1098 1132 1149 1168 1149 1168 1168 1187 1187 1226 1226 1206 1206 1206 1168 1168 1168 1187 1168 0 0 1187 1206 1187 1168 1168 1098 1168 1168 1168 1149 1206 1226 1247 1247 1314 1314 1338 1388 1635 1635 1533 1599 1795 1711 1443 1338 1415 1443 1388 1443 1471 1443 1443 1533 1565 1533 1501 1533 1501 1501 1501 1599 1443 0 0 0 0 0 0 0 0 0 0 0 0 0 0 0 0 0
    0 0 0 0 0 0 0 0 0 0 0 0 0 0 0 0 0 0 0 0 0 0 0 0 0 0 0 0 0 0 0 0 0 0 0 0 0 0 0 0 0 0 0 0 0 0 0 0 0 0 0 0 0 0 0 0 0 0 0 0 0 0 0 0 0 0 0 0 0 2725 2628 2943 0 0 0 0 0 0 0 0 2537 2628 2537 2374 2537 2374 2230 2374 2230 2453 2453 2453 2453 2537 2725 2943 2830 0 0 0 0 2943 2830 2453 2453 2725 2725 2830 2725 2164 0 2230 2044 2044 1989 1936 2044 2044 1989 2102 2164 2102 2102 2164 2299 2164 2164 2299 2299 2044 2374 2374 2299 2230 2299 2453 2374 2374 2628 2374 2230 2230 2374 2299 2164 2044 2044 2102 1989 2102 2102 2044 2102 2102 2102 2164 2164 2230 2164 2299 2230 2164 2374 2628 2537 2537 2537 2830 2537 2537 2044 2164 1989 2102 1989 2164 2164 2164 2102 2299 2230 2453 2374 2725 2230 2164 2164 2299 2044 1795 1795 1711 1795 1989 2299 1936 1672 1936 1936 1887 1936 1887 1839 0 1752 1839 1711 1672 1599 1471 1443 1471 1415 1338 1314 1314 1291 1291 1291 1268 1268 1268 1268 1268 1226 1226 1206 1206 1168 1168 1187 1168 1168 1149 1168 1187 1168 1187 1132 1115 1132 1149 1168 1149 1168 1187 1187 1206 1226 1226 1226 1226 1206 1187 1187 1168 1187 1168 1168 0 1168 1206 1187 1168 1168 1098 1168 1168 1168 1149 1206 1226 1247 1226 1291 1314 1314 1388 1672 1752 1599 1795 1989 1795 1471 0 1471 1471 1388 1415 1533 1471 1471 1565 1599 1533 1501 1533 1501 1501 1501 1599 0 0 0 0 0 0 0 0 0 0 0 0 0 0 0 0 0 0
    0 0 0 0 0 0 0 0 0 0 0 0 0 0 0 0 0 0 0 0 0 0 0 0 0 0 0 0 0 0 0 0 0 0 0 0 0 0 0 0 0 0 0 0 0 0 0 0 0 0 0 0 0 0 0 0 0 0 0 0 0 0 0 0 0 0 0 0 0 2628 2537 2830 2830 0 0 0 2830 0 0 0 2537 2628 2453 2374 2537 2299 2164 2374 2230 2374 2374 2453 2374 2537 2830 2943 2830 0 0 0 0 0 2725 2374 2374 2628 2725 2830 2725 2230 2102 2299 2044 2102 2044 1936 2102 2164 2044 2164 2230 2102 2102 2230 2299 2164 2164 2299 2299 2102 2453 2453 2374 2299 2374 2453 2453 2453 2628 2299 2230 2230 2374 2299 2102 2044 1989 2044 1989 2102 2044 2044 2044 2044 2044 2164 2102 2230 2102 2299 2230 2230 2453 2628 2453 2537 2453 2725 2537 2453 1989 2102 1936 2102 1989 2164 2164 2164 2102 2299 2230 2453 2299 2628 2230 2164 2102 2164 1989 1795 1839 1711 1795 1989 2374 1936 1752 1936 1936 1887 1989 1887 1839 0 1795 1839 1711 1672 1599 1471 1471 1471 1388 1314 1314 1314 1291 1291 1314 1268 1268 1268 1291 1268 1247 1226 1206 1206 1168 1168 1187 1187 1168 1149 1187 1187 1168 1187 1149 1115 1149 1168 1187 1168 1187 1187 1206 1206 1226 1226 1226 1226 1226 1187 1206 1168 1187 1168 1168 0 1149 1187 1168 1149 1149 1082 1168 1168 1168 1168 1206 1226 1226 1226 1291 1291 1291 1362 1711 1839 1599 1599 0 1565 1362 1314 1362 1388 1338 1362 1471 1443 1501 1565 1599 1565 1565 1565 1533 1501 1501 1533 0 0 0 0 0 0 0 0 0 0 0 0 0 0 0 0 0 0
    0 0 0 0 0 0 0 0 0 0 0 0 0 0 0 0 0 0 0 0 0 0 0 0 0 0 0 0 0 0 0 0 0 0 0 0 0 0 0 0 0 0 0 0 0 0 0 0 0 0 0 0 0 0 0 0 0 0 0 0 0 0 0 0 0 0 0 0 0 2537 2453 2725 2725 0 2943 2725 2725 2725 2830 2830 2537 2628 2453 2299 2453 2299 2164 2374 2230 2374 2374 2374 2374 2628 2830 2943 2943 0 0 0 3066 0 2830 2453 2374 2725 2943 2943 2830 2299 2102 2299 2044 2102 1989 1936 2164 2164 2044 2164 2230 2102 2102 2230 2299 2164 2164 2299 2299 2164 2628 2453 2374 2374 2453 2537 2453 2537 2628 2230 2299 2230 2374 2374 2164 1989 1936 1989 1936 2044 1936 1989 2044 2044 2102 2230 2164 2299 2164 2374 2230 2299 2537 2725 2537 2725 2628 2830 2628 2453 1989 2102 1936 2044 1989 2164 2102 2102 2102 2299 2230 2453 2374 2628 2230 2164 2102 2102 1989 1839 1936 1795 1887 2102 2537 1936 1839 1936 1936 1887 1936 1887 1839 1795 1795 1839 1711 1672 1599 1443 1471 1443 1362 1291 1314 1291 1291 1291 1291 1268 1268 1268 1291 1247 1226 1206 1187 1206 1168 1168 1187 1187 1168 1149 1187 0 1187 0 1149 1132 1168 1187 1206 1187 1206 1206 1206 1226 1247 1226 1226 1247 1226 1187 1187 1168 1187 1168 1168 1149 1149 1187 1168 1149 1149 1082 1168 1149 1149 1168 1187 1206 1226 1226 1291 1291 1291 1338 1635 1752 1471 1338 1471 1362 1314 1291 1314 0 0 1314 1388 1415 1501 1599 1635 1599 1635 1599 1565 1533 0 0 0 0 0 0 0 0 0 0 0 0 0 0 0 0 0 0 0 0
    0 0 0 0 0 0 0 0 0 0 0 0 0 0 0 0 0 0 0 0 0 0 0 0 0 0 0 0 0 0 0 0 0 0 0 0 0 0 0 0 0 0 0 0 0 0 0 0 0 0 0 0 0 0 0 0 0 0 0 0 0 0 0 0 0 0 0 0 0 2453 2374 2628 2537 2725 2830 2537 2628 2725 2725 2725 2537 2537 2453 2299 2453 2230 2230 2374 2230 2299 2374 2374 2374 2628 2830 2943 2830 0 0 0 3066 3345 2830 2537 2537 2830 3345 3066 2943 2374 2164 2453 2102 2230 2044 1936 2299 2230 2102 2164 2164 2102 2164 2299 2299 2164 2164 2299 2299 2299 2725 2453 2453 2453 2453 2537 2537 2628 2537 2230 2453 2374 2537 2537 2299 2102 1989 1989 1936 2044 1887 1936 1989 1989 2102 2299 2230 2453 2230 2374 2230 2299 2628 2628 2830 2830 2628 2943 2725 2374 1989 2044 1887 2044 1936 2102 2102 2102 2164 2299 2299 2537 2453 2725 2374 2299 2164 2044 2044 1936 2044 1887 2044 2102 2537 1936 1887 1936 1936 1887 1936 1839 1839 1795 1795 1795 1711 1672 1565 1415 1443 1388 1338 1268 1314 1291 1291 1291 1291 1268 1268 1268 1291 1247 1226 1206 1187 1206 1168 1168 1187 1187 1187 1149 1187 1187 1168 0 1149 1132 1168 1187 1206 1187 1206 1206 1206 1226 1247 1226 1226 1247 1226 1187 1168 1149 1187 1168 1168 1149 1149 1187 1168 1149 1149 1082 1168 1149 1149 1168 1187 1206 1206 1206 1291 1268 1268 1338 1533 1672 1501 1362 1415 1338 1338 1314 1291 0 0 0 1314 1338 0 0 1635 1565 1599 1565 1533 1501 0 0 0 0 0 0 0 0 0 0 0 0 0 0 0 0 0 0 0 0
    0 0 0 0 0 0 0 0 0 0 0 0 0 0 0 0 0 0 0 0 0 0 0 0 0 0 0 0 0 0 0 0 0 0 0 0 0 0 0 0 0 0 0 0 0 0 0 0 0 0 0 0 0 0 0 0 0 0 0 0 0 0 0 0 0 0 0 0 0 2453 2299 2453 2453 2628 2628 2453 2537 2628 2628 2628 2453 2537 2374 2230 2453 2230 2230 2374 2299 2299 2374 2374 2374 2537 2830 2943 2830 2830 0 0 0 3345 2830 2537 2537 2830 3345 3066 3066 2537 2453 2725 2299 2299 2102 2044 2374 2374 2164 2230 2164 2102 2164 2299 2299 2164 2102 2299 2299 2453 2725 2453 2537 2537 2537 2628 2628 2628 2537 2230 2628 2374 2628 2537 2374 2164 1936 1936 1887 1936 1839 1839 1887 1887 2044 2299 2230 2374 2164 2299 2230 2230 2628 2102 1887 2628 2537 2725 2628 2164 1989 1936 1839 1989 1936 2102 2102 2102 2164 2299 2299 2537 2453 2725 2374 2230 2044 1936 1989 1887 1936 1887 1936 1989 2299 1936 1936 1936 1936 1887 1936 1839 1839 1795 1795 1795 1711 1672 1533 1415 1415 1362 1314 1226 1291 1268 1268 1268 1291 1247 1247 1247 1291 1226 1226 1206 1168 1206 1168 1168 1187 1187 1187 1149 1168 1187 1168 1187 1149 1115 1168 1187 1206 1206 1206 1226 1226 1226 1247 1247 1226 1247 1226 1187 1149 1132 1168 1168 1149 1132 1132 1187 1168 1132 1132 1082 1168 1149 1149 1168 1187 1187 1206 1206 1268 1268 1268 1362 1565 1635 1565 1443 1443 1388 1388 1388 1338 1388 0 0 0 1338 0 0 1599 1533 1565 1533 1565 0 0 0 0 0 0 0 0 0 0 0 0 0 0 0 0 0 0 0 0 0
    0 0 0 0 0 0 0 0 0 0 0 0 0 0 0 0 0 0 0 0 0 0 0 0 0 0 0 0 0 0 0 0 0 0 0 0 0 0 0 0 0 0 0 0 0 0 0 0 0 0 0 0 0 0 0 0 0 0 0 0 0 0 0 0 0 0 0 0 0 2374 2230 2453 2374 2537 2537 2453 2453 2537 2537 2628 2453 2537 2374 2299 2453 2164 2299 2374 2374 2299 2374 2374 2299 2537 2830 2830 2725 2725 2943 0 0 3345 2725 2453 2453 2725 3873 3345 3504 2725 2537 2943 2453 2374 2164 2044 2374 2374 2230 2299 2102 2102 2230 2299 2299 2102 2102 2230 2230 2537 2830 2453 2537 2628 2628 2725 2725 2725 2537 2230 2725 2374 2537 2537 2453 2230 1936 0 1752 1711 1672 1711 1672 1672 1839 2102 2044 2102 2044 2164 2164 2102 2628 1887 0 2453 2374 2374 2374 2044 1936 1936 1839 2044 1936 2102 2102 2164 2230 2374 2299 2628 2453 2725 2230 2102 1936 1887 1936 1887 1989 1936 2044 2102 2374 1936 1989 1936 1936 1887 1936 1887 1887 1839 1887 1795 1711 1711 1565 1415 1415 1338 1291 1206 1268 1247 1247 1247 1268 1247 1247 1226 1291 1226 1226 1206 1168 1206 1168 1168 1187 1187 1187 0 0 1187 1168 0 1149 1115 1168 1187 1206 1206 1226 1226 1226 1247 1268 1268 1247 1268 1226 1206 1168 1149 1187 1168 1168 1149 1132 1187 1187 1132 1149 1066 1149 1149 1149 1168 1187 1187 1206 1206 1268 1268 1247 1338 1501 1599 1565 1443 1443 1388 1388 1415 1362 0 0 1268 1291 1314 0 0 0 1443 1415 1415 1415 1388 0 0 0 0 0 0 0 0 0 0 0 0 0 0 0 0 0 0 0 0
    0 0 0 0 0 0 0 0 0 0 0 0 0 0 0 0 0 0 0 0 0 0 0 0 0 0 0 0 0 0 0 0 0 0 0 0 0 0 0 0 0 0 0 0 0 0 0 0 0 0 0 0 0 0 0 0 0 0 0 0 0 0 0 0 0 0 0 0 0 2374 2230 2374 2299 2453 2537 2374 2453 2537 2537 2537 2374 2453 2374 2299 2374 2164 2299 2374 2374 2299 2374 2453 2299 2537 2830 2725 2725 2725 2943 2830 2943 3345 2725 2453 2628 2830 3873 3504 3679 2943 2725 3199 2725 2453 2299 2044 2374 2299 2299 2374 1989 2102 2230 2299 2230 2102 2102 2230 2230 2628 2830 2453 2628 2628 2628 2725 2725 0 2453 2164 2725 2374 0 0 0 0 0 0 0 1443 1471 0 0 1443 1443 1471 1599 0 1839 1887 0 0 0 1839 1839 2453 2230 2164 2374 1989 1936 1936 1839 2044 1989 2164 2164 2164 2299 2374 2299 2628 2374 2628 2102 2044 1839 1839 1887 1989 2044 2044 2230 2299 2537 1936 2102 2044 1989 1936 1989 1887 1887 1887 2044 1795 1752 1711 1565 1415 1415 1338 1291 1187 1247 1226 1247 1247 1268 1226 1226 1226 1291 1226 1226 1187 1149 1187 1149 1149 1168 1168 1187 1149 1187 1187 1187 1187 1149 1132 1187 1206 1206 1226 1226 1247 1247 1247 1291 1268 1268 1268 1247 1226 1187 1187 1187 1187 1168 1149 1149 1206 1187 1132 1149 1082 1168 1149 1149 1168 1187 1187 1206 1206 1268 1268 1247 1338 1443 1533 1501 1443 1415 1388 1388 1415 1362 1388 0 1291 1291 1314 1291 0 0 1338 1338 1338 1362 1338 0 0 0 0 0 0 0 0 0 0 0 0 0 0 0 0 0 0 0 0
    0 0 0 0 0 0 0 0 0 0 0 0 0 0 0 0 0 0 0 0 0 0 0 0 0 0 0 0 0 0 0 0 0 0 0 0 0 0 0 0 0 0 0 0 0 0 0 0 0 0 0 0 0 0 0 0 0 0 0 0 0 0 0 0 0 0 0 0 0 2299 2230 2374 2299 2453 2453 2374 2453 2537 2537 2537 2374 2453 2299 2299 2374 2164 2230 2374 2374 2299 2453 2453 2299 2537 2725 2725 2628 2628 2830 2725 2830 3199 2725 2537 2725 2943 4088 3873 4088 3066 2830 3345 2943 2537 2453 2164 2374 2299 2299 2299 1989 2102 2299 2230 2230 2102 2102 2230 2230 2628 2830 2453 2628 2628 2628 2725 2628 0 2453 2164 2725 2374 2537 2725 0 0 1711 1471 1471 1415 1443 1443 1415 1388 1388 1338 0 0 0 0 0 0 0 0 2044 2299 2102 2102 2374 1936 1887 1936 1887 2102 2044 2164 2164 2230 2374 2374 2299 2725 2453 2628 2164 2044 1839 1839 1936 2102 2164 2102 2299 2299 2374 1989 2164 2102 2044 1989 2044 1936 1989 1936 2230 1795 1752 1711 1565 1415 1415 1338 1291 1187 1247 1226 1226 1226 1247 1226 1226 1226 1291 1206 1226 1168 1132 1168 1149 1149 1168 1149 1168 1132 1168 1187 1187 1187 1149 1115 1187 1206 1226 1226 1247 1247 1247 1268 1291 1268 1247 1268 1226 1226 1187 1168 1187 1168 1149 1132 1115 1168 1168 1115 1149 1066 1149 1149 1149 1168 1187 1206 1206 1206 1291 1268 1268 1338 1415 1471 1443 1388 1388 1362 1388 1415 1362 1362 0 1291 1268 1291 1247 0 0 1291 1291 1291 1338 1314 1388 0 0 0 0 0 0 0 0 0 0 0 0 0 0 0 0 0 0 0
    0 0 0 0 0 0 0 0 0 0 0 0 0 0 0 0 0 0 0 0 0 0 0 0 0 0 0 0 0 0 0 0 0 0 0 0 0 0 0 0 0 0 0 0 0 0 0 0 0 0 0 0 0 0 0 0 0 0 0 0 0 0 0 0 0 0 0 0 0 2299 2164 2299 2230 2453 2453 2374 2453 2537 2537 2537 2374 2453 2374 2299 2374 2164 2299 2374 2374 2299 2453 2453 2230 2537 2725 2628 2537 2537 2725 2628 2725 3199 2725 2628 2830 3199 4599 4599 4599 3199 2830 3199 2943 2628 2453 2230 2374 2299 2299 2164 1989 2102 2230 2230 2230 2164 2102 2230 2230 2628 2830 2374 2537 2537 2537 2628 2628 0 2453 2164 2725 2299 2453 2725 2164 0 1672 1443 1443 1415 1415 1415 1388 1338 1338 0 0 0 1989 0 0 0 0 0 0 0 1989 2044 2299 1936 1887 1887 1839 2102 2044 2164 2164 2230 2374 2374 2299 2725 2537 2725 2230 2164 1839 1795 1936 2230 2299 2164 2299 2299 2230 1936 2230 2164 2102 2044 2102 1989 2044 2044 2374 1795 1752 1752 0 0 1388 1338 1291 1168 1226 1206 1226 1206 1247 1206 1206 1206 1268 1206 1206 1168 1132 1168 1149 1149 1168 1168 1149 1098 1132 1149 1149 1168 1132 1115 1168 1226 1226 1247 1247 1247 1247 1268 1291 1268 1226 1247 1206 0 0 0 0 0 0 0 1149 1187 1168 1115 1132 1066 1149 1149 1149 1168 1206 1206 1226 1226 1291 1268 1291 1362 1415 1443 1415 1362 1362 1362 1388 1388 1362 1362 1314 1314 1291 1314 1268 0 1168 1247 1247 1247 1268 1247 0 0 0 0 0 0 0 0 0 0 0 0 0 0 0 0 0 0 0 0
    0 0 0 0 0 0 0 0 0 0 0 0 0 0 0 0 0 0 0 0 0 0 0 0 0 0 0 0 0 0 0 0 0 0 0 0 0 0 0 0 0 0 0 0 0 0 0 0 0 0 0 0 0 0 0 0 0 0 0 0 0 0 0 0 0 0 0 0 0 2230 2164 2230 2164 2374 2374 2299 2374 2537 2537 2537 2374 2453 2374 2374 2453 2230 2299 2374 2374 2374 2453 2453 2230 2453 2628 2537 2453 2453 2725 2537 2628 3066 2725 2537 2830 3066 4599 3873 4088 2943 2537 2943 2830 2453 2374 2299 2374 2230 2230 2044 1989 2102 2230 2230 2164 2164 2102 2230 2230 2537 2725 2299 2537 2453 2453 2628 2537 2628 2453 2164 2725 2299 2628 0 0 0 1711 1471 1443 1415 1415 1415 1388 1338 1362 0 0 0 0 0 0 0 0 0 0 0 0 2044 2230 1936 1887 1887 1839 2102 2044 2164 2164 2230 2374 2374 2299 2725 2537 2628 2230 2164 1936 0 2044 2453 2537 2374 2537 2453 2230 1936 2230 2164 2102 2044 2102 2044 2044 2102 2374 1795 1795 1752 0 0 1362 1314 1291 1149 1226 1206 1206 1206 1226 1206 1206 1187 1247 1206 1226 1168 1149 1168 1168 1168 1187 1187 1115 1098 1115 1149 1132 1149 1115 1098 1168 1247 1247 1268 1268 1268 1247 1247 1291 1247 1206 1226 1149 0 0 0 0 0 0 0 0 0 0 1226 1226 1082 1187 1168 1168 1187 1206 1206 1226 1226 1314 1291 1291 1388 1415 1415 1388 1362 1362 1362 1388 1388 1362 1388 1338 1338 1314 1338 1314 1247 1206 1268 1247 1268 1314 1314 0 0 0 0 0 0 0 477 0 0 0 0 0 0 0 0 0 0 0 0
    0 0 0 0 0 0 0 0 0 0 0 0 0 0 0 0 0 0 0 0 0 0 0 0 0 0 0 0 0 0 0 0 0 0 0 0 0 0 0 0 0 0 0 0 0 0 0 0 0 0 0 0 0 0 0 0 0 0 0 0 0 0 0 0 0 0 0 0 0 2230 2164 2230 2164 2374 2299 2299 2374 2453 2537 2537 2299 2537 2453 2453 2453 2299 2299 2374 2374 2374 2453 2453 2230 2453 2628 2537 2453 2453 2725 2628 2628 3066 2725 2537 2943 3199 5256 4329 4599 3066 2628 3066 3066 2537 2453 2374 2374 2299 2164 1989 1989 2164 2230 2230 2164 2164 2102 2230 2299 2453 2537 2299 2453 2453 2453 2537 2453 2537 2453 2164 2725 2230 2628 2943 2299 0 1752 1565 1501 1471 1443 1415 1415 1338 1362 0 0 0 0 0 0 0 0 0 0 0 0 2164 2453 1936 1936 1936 1839 2102 2102 2164 2164 2230 2453 2374 2299 2830 2537 2537 2102 2102 1989 1839 2044 2453 2537 2453 2537 2537 2102 1936 2230 2164 2102 1989 2102 2044 2044 2102 2453 1839 1795 1752 0 0 1338 1314 1291 1132 1226 1206 1206 1206 1226 1187 1187 1187 1247 1206 1226 1168 1168 1168 1168 1187 1168 1132 1066 1051 1066 1082 1082 1082 1066 1082 1149 1247 1247 1268 1268 1268 1247 1247 1268 1247 1187 1187 1098 1082 1036 1066 1115 1115 1082 1206 0 0 1443 0 1247 1115 1226 1226 1206 1226 1247 1247 1247 1268 1362 1314 1291 1388 1415 1415 1388 1362 1362 1362 1388 1415 1362 1388 1362 1338 1338 1338 1314 1247 1206 1268 1247 1247 1314 1314 0 0 0 0 0 0 0 0 0 0 0 0 0 0 0 0 0 0 0 0
    0 0 0 0 0 0 0 0 0 0 0 0 0 0 0 0 0 0 0 0 0 0 0 0 0 0 0 0 0 0 0 0 0 0 0 0 0 0 0 0 0 0 0 0 0 0 0 0 0 0 0 0 0 0 0 0 0 0 0 0 0 0 0 0 0 0 0 0 0 2299 2164 2230 2164 2299 2230 2299 2299 2537 2537 2537 2299 2537 2453 2537 2537 2374 2374 2374 2453 2374 2453 2453 2230 2453 2537 2453 2374 2453 2725 2537 2537 3066 2725 2537 2943 3066 3504 0 0 2725 2537 3066 2943 2537 2453 2537 2537 2374 2230 1989 2044 2230 2230 2230 2164 2164 2102 2230 2299 2374 2453 2230 2374 2374 2374 2537 2374 2453 2374 2164 2725 2102 2628 2725 2164 1936 1752 1672 1533 1501 1471 1415 1415 1338 0 0 0 0 0 0 0 0 0 0 0 0 0 2230 2537 1989 1989 1936 1839 2164 2164 2164 2230 2230 2453 2299 2299 2943 2453 2299 2044 1989 1989 1887 2044 2374 2537 2453 2537 2537 2044 1936 2164 2164 2044 1936 2044 2044 1989 2102 2453 1887 1795 1752 0 0 1314 1291 1268 1132 1206 1187 1206 1187 1226 1187 1187 1168 1226 1168 1206 1149 1132 1132 1115 1098 1098 1066 1036 1022 1022 1036 1036 1051 1051 1066 1115 1206 1226 1268 1268 1247 1226 1247 1291 1247 1187 1149 1051 0 1008 1051 1098 1098 1098 1247 0 1795 1599 0 1291 1168 1247 1247 1226 1247 1268 1268 1291 1291 1388 1362 1338 1443 1443 1443 1388 1362 1362 1362 1388 1415 1388 1415 1362 1362 1338 1338 1314 1268 1226 1268 1226 1247 1314 1338 1314 0 0 0 0 0 0 0 0 0 0 0 0 0 0 0 0 0 0 0
    0 0 0 0 0 0 0 0 0 0 0 0 0 0 0 0 0 0 0 0 0 0 0 0 0 0 0 0 0 0 0 0 0 0 0 0 0 0 0 0 0 0 0 0 0 0 0 0 0 0 0 0 0 0 0 0 0 0 0 0 0 0 0 0 0 0 0 0 0 2299 2230 2164 2102 2230 2102 2230 2230 2537 2628 2628 2230 2628 2537 2628 2537 2453 2374 2374 2374 2453 2453 2453 2164 2453 2537 2374 2374 2374 2628 2537 2537 2943 2725 2537 2943 2830 0 2628 0 2537 2164 2628 2453 2374 2453 2453 2453 2374 2102 2044 2102 2230 2230 2230 2230 2164 2102 2299 2299 2299 2374 2164 2299 2299 2299 2453 2299 2374 2374 2164 2725 2102 2628 2628 2164 1989 1887 1839 1711 1599 1599 1471 1533 1362 0 0 0 0 0 0 0 0 0 0 0 0 0 2230 2628 1989 1989 1989 1887 2164 2164 2164 2164 2164 2299 2230 2164 2830 1887 1936 1936 1936 2044 1989 2102 2537 2628 2453 2537 2537 1989 1887 2102 2102 1989 1936 2044 1989 1989 2102 2374 1887 1795 1752 0 0 1314 1314 1291 1149 1226 1206 1206 1206 1226 1168 1149 1149 1206 1132 1168 1098 1066 1066 1066 1051 1051 1036 955 865 876 0 0 0 0 1036 1082 1168 1206 1291 1291 0 1247 1268 1338 1314 1187 1115 1008 981 994 1051 1082 1082 1082 1314 0 1887 1752 1839 1314 1226 1268 1268 1247 1247 1268 1291 1291 1314 1388 1362 1362 1415 1415 1415 1362 1362 1362 1362 1388 1415 1388 1388 1362 1362 1362 1338 1314 1268 1226 1247 1206 1206 1226 1268 1082 0 0 0 0 0 0 0 0 0 0 0 0 0 0 0 0 0 0 0
    0 0 0 0 0 0 0 0 0 0 0 0 0 0 0 0 0 0 0 0 0 0 0 0 0 0 0 0 0 0 0 0 0 0 0 0 0 0 0 0 0 0 0 0 0 0 0 0 0 0 0 0 0 0 0 0 0 0 0 0 0 0 0 0 0 0 0 0 0 2299 2230 2164 2044 2102 1989 2102 2102 2725 2830 2943 2102 2628 2628 2628 2628 2537 2374 2374 2374 2537 2374 2374 2164 2374 2453 2374 2299 2374 2628 2537 2537 3066 2830 2628 3066 2830 2725 2537 2299 2164 1887 1936 1989 2102 2299 2299 2299 2299 2044 2102 2164 2299 2230 2230 2230 2164 2102 2299 2299 2230 2299 2102 2299 2230 2230 2374 2164 2299 2374 2164 2628 2044 2537 2628 2102 0 1887 1887 0 1672 1672 1533 1635 1415 0 0 0 0 0 0 0 0 0 0 0 0 0 2230 2537 0 0 1936 1839 2102 2102 2102 2102 2102 2230 2230 2164 2725 1839 1839 1887 1936 2044 2044 2230 2628 2725 2628 2628 2537 1989 1887 2044 2044 1936 1887 1989 1936 1936 2044 2230 1839 1752 1711 0 0 1314 1314 1291 1187 1226 1206 1206 1206 1206 1149 1115 1115 1149 1066 1098 1051 1036 1036 1036 1022 1022 968 855 836 836 817 0 817 0 0 1051 1149 0 0 0 0 0 0 0 0 1051 0 968 955 994 1051 1082 1082 0 1565 0 1936 1795 1839 1415 1268 1291 1291 1291 1291 1314 1338 1338 1338 1415 1362 1338 1362 1362 1338 1314 1314 1338 1314 1338 1388 1362 1362 1338 1338 1338 1291 1291 1268 1226 1247 1206 1206 1206 1226 1051 0 0 0 0 0 0 0 0 0 0 0 0 0 0 0 0 0 0 0
    0 0 0 0 0 0 0 0 0 0 0 0 0 0 0 0 0 0 0 0 0 0 0 0 0 0 0 0 0 0 0 0 0 0 0 0 0 0 0 0 0 0 0 0 0 0 0 0 0 0 0 0 0 0 0 0 0 0 0 0 0 0 0 0 0 0 0 0 0 2299 2230 2102 1936 1936 1936 1936 1936 0 3066 3066 1989 2628 2628 2628 2628 2628 2374 2299 2299 2537 2299 2374 2102 2374 2453 2374 2374 2453 2725 2628 2628 2943 2830 2628 2943 2628 2453 2164 1989 1936 1887 1795 1936 2044 2164 2164 2299 2299 2044 2102 2230 2299 2230 2230 2230 2230 2102 2374 2299 2102 2230 2102 2230 2164 2164 2299 2102 2230 2299 2164 2628 2044 2453 2453 1989 1936 1839 1887 1839 1711 1752 1565 1711 1443 0 0 0 0 0 0 0 0 0 0 0 0 0 2230 2453 0 0 1839 1839 2102 2102 2044 2102 2102 2230 2164 2164 2628 1887 1936 2044 1989 2102 2102 2299 2725 2830 2725 2628 2628 1936 1887 1989 1989 1936 1839 1936 1936 1887 1989 2044 1795 1672 1635 0 0 1268 1268 1268 1187 1206 1187 1187 1187 1206 1098 1066 1066 1082 1036 1051 1022 1008 1008 1008 1008 994 943 855 836 836 826 826 826 0 0 0 1098 0 0 0 0 0 0 0 0 981 955 943 943 994 1022 1051 1066 1066 1314 0 1887 1752 1839 1635 1443 1599 1501 1388 1362 1388 1388 1362 1362 1415 1362 1338 1338 1338 1291 1268 1268 1314 1291 1314 1338 1314 1338 1338 1338 1338 1291 1291 1268 1247 1268 1226 1226 1226 1268 1036 994 0 0 0 0 0 0 0 0 0 0 0 0 0 0 0 0 0 0
    0 0 0 0 0 0 0 0 0 0 0 0 0 0 0 0 0 0 0 0 0 0 0 0 0 0 0 0 0 0 0 0 0 0 0 0 0 0 0 0 0 0 0 0 0 0 0 0 0 0 0 0 0 0 0 0 0 0 0 0 0 0 0 0 0 0 0 0 0 2299 2164 2044 1887 1839 1839 1795 1795 1752 3066 3066 1936 2725 2725 2725 2628 2628 2374 2230 2230 2453 2164 2230 2044 2230 2374 2374 2453 2537 2725 2725 2628 2830 2830 2628 2830 2537 2299 2102 1989 1936 1839 1839 1936 1989 2044 2102 2230 2299 1989 2102 2230 2230 2164 2164 2164 2164 2044 2374 2230 2044 2164 2044 2164 2102 2164 2230 2044 2164 2299 2164 2628 1989 2453 2374 1989 1936 1839 1887 1839 1711 1752 1471 0 0 0 0 0 0 0 0 0 0 0 0 293 0 0 2102 2164 0 0 1795 1795 2044 2044 2044 2102 2044 2164 2230 2164 2628 1989 1989 2164 2044 2299 2230 2374 2830 2830 2725 2628 2537 1936 1887 1936 1936 1936 1839 1936 1887 1887 1936 1989 1795 1565 1443 1362 1268 1247 1247 1206 1115 1149 1132 1149 1149 1149 1051 1022 1022 1036 1008 1036 1008 994 981 1008 994 968 931 845 826 836 826 826 826 826 0 0 1066 0 0 0 0 0 855 897 931 943 943 943 943 994 1022 1066 1082 1115 1291 1291 1711 1672 1711 1752 1752 1752 1752 1635 1471 1443 1415 1388 1362 1362 1314 1291 1314 1291 1268 1247 1226 1268 1247 1291 1291 1291 1291 1291 1291 1314 1291 1268 1268 1247 1247 1226 1247 1247 1291 1066 994 0 0 0 0 0 0 0 0 0 0 0 0 0 0 0 0 0 0
    0 0 0 0 0 0 0 0 0 0 0 0 0 0 0 0 0 0 0 0 0 0 0 0 0 0 0 0 0 0 0 0 0 0 0 0 0 0 0 0 0 0 0 0 0 0 0 0 0 0 0 0 0 0 0 0 0 0 0 0 0 0 0 0 0 0 0 0 0 2374 2164 2044 1887 1839 1795 1795 1752 1711 3066 3066 1887 2725 2725 2725 2725 2628 2374 2164 2164 2537 2044 2102 2044 2164 2374 2374 2453 2537 2725 2725 2628 2830 2830 2628 2725 2537 2374 2230 1989 1936 1839 1839 1936 1989 2044 2044 2164 2164 1989 2102 2299 2164 2102 2164 2164 2164 2102 2374 2230 2044 2164 2044 2164 2102 2102 2230 2044 2102 2299 2102 2537 1936 2537 2374 2044 1936 0 1936 0 1599 0 0 0 0 0 0 0 0 0 0 0 0 0 0 0 0 0 2044 0 0 0 1752 1752 2044 2044 1989 2044 2044 2164 2230 2164 2537 1936 1989 2102 1936 2102 2102 2299 0 2943 2725 2628 2537 1936 1887 1989 1989 1936 1887 1936 1936 1887 1989 1936 1711 1388 1314 1291 1206 1206 1168 1132 1082 1115 1098 1098 1082 1066 1022 994 994 1008 994 994 981 981 968 994 981 955 908 845 826 845 826 826 826 826 865 1036 1066 981 0 663 0 0 0 897 908 931 931 931 931 994 1022 1066 1082 1115 1268 1291 1533 1599 1635 1711 1752 1752 1752 1711 1533 1443 1415 1362 1338 1338 1226 1132 1187 1168 1149 1168 1149 1206 1187 1226 1247 1247 1247 1268 1247 1268 1247 1268 1268 1247 1247 1226 1268 1247 1314 1206 0 0 0 0 0 0 0 0 0 0 0 0 0 0 0 0 0 0 0
    0 0 0 0 0 0 0 0 0 0 0 0 0 0 0 0 0 0 0 0 0 0 0 0 0 0 0 0 0 0 0 0 0 0 0 0 0 0 0 0 0 0 0 0 0 0 0 0 0 0 0 0 0 0 0 0 0 0 0 0 0 0 0 0 0 0 0 0 0 2453 2299 2044 1887 1839 1795 1752 1752 1672 2628 2628 1839 2725 2725 2725 2628 2628 2374 2164 2102 2537 1887 1936 1936 1989 2299 2374 2453 2628 2725 2725 2725 2725 2830 2537 2725 2537 2453 2299 2044 1989 1839 1839 1936 1989 1989 2044 2102 2102 2044 2164 2299 2164 2102 2164 2164 2102 2102 2374 2230 2044 2102 2044 2102 2102 2102 2230 1989 2044 2230 2102 2537 1989 2725 2725 2102 0 0 0 0 0 0 0 0 0 0 0 0 0 391 0 0 0 0 0 0 0 0 2102 0 0 0 1711 1711 2044 2044 1989 2044 2044 2164 2164 2164 2453 1936 1989 2102 1887 1989 2044 2299 0 3199 2725 2725 2537 1936 1936 1989 1936 1887 1795 1887 1839 1795 1795 1752 1388 1268 1247 1226 1168 1149 1115 1082 1066 1082 1051 1051 1022 1022 994 968 968 968 955 968 943 955 943 955 943 897 886 845 845 855 836 826 826 0 919 1051 1098 981 0 0 0 0 876 886 886 908 919 931 919 981 1008 1051 1066 1098 1206 1247 1362 1565 1635 1672 1752 1711 1752 1711 1565 1415 1362 1314 1291 1291 1115 1008 1022 1051 1051 1082 1082 1132 1132 1187 1226 1206 1226 1247 1247 1247 1226 1247 1247 1247 1268 1247 1268 1268 1338 1268 0 0 0 0 0 0 0 0 0 0 0 0 0 0 0 0 0 0 0
    0 0 0 0 0 0 0 0 0 0 0 0 0 0 0 0 0 0 0 0 0 0 0 0 0 0 0 0 0 0 0 0 0 0 0 0 0 0 0 0 0 0 0 0 0 0 0 0 0 0 0 0 0 0 0 0 0 0 0 0 0 0 0 0 0 0 0 0 0 2537 2453 2164 1936 1936 1795 1752 1752 1672 1936 1936 1839 2725 2725 2628 2628 2628 2374 2102 2102 2537 1795 1795 1795 1839 2044 2230 2453 2628 2725 2830 2725 2725 2830 2628 2725 2628 2453 2374 2230 2102 1936 1887 1989 2044 2044 2044 2102 2044 2044 2230 2299 2164 2102 2102 2164 2102 2102 2374 2164 2044 2102 2044 2102 2102 2102 2164 1989 2044 2299 2164 2453 2044 2374 1989 1936 0 0 0 0 0 0 0 0 0 0 0 0 0 0 0 0 0 0 0 0 0 0 1989 0 0 0 1672 1672 1989 2044 1989 2044 2044 2102 2164 2102 2453 1887 1989 2044 1887 1989 2102 2537 3066 3066 2725 2628 2299 1887 1839 1936 1795 1752 1672 1795 1711 1635 1711 1672 1291 1206 1206 1187 1115 1115 1115 1082 1051 1051 1036 1022 994 994 968 943 955 968 943 955 931 955 931 955 931 876 865 836 845 836 817 799 782 774 791 0 1051 0 608 579 0 0 876 897 897 908 943 955 955 994 1022 1066 1082 1132 1187 1226 1291 1362 1415 1443 1599 1565 1599 1533 1443 1388 1338 1247 1187 1206 1066 1008 1008 1036 1036 1051 1051 1098 1098 1132 1206 1187 1187 1206 1206 1226 1206 1206 1206 1206 1226 1247 1291 1268 1314 1291 1362 0 2299 2164 0 0 1936 0 1936 0 0 0 0 0 0 0 0 0 0
    0 0 0 0 0 0 0 0 0 0 0 0 0 0 0 0 0 0 0 0 0 0 0 0 0 0 0 0 0 0 0 0 0 0 0 0 0 0 0 0 0 0 0 0 0 0 0 0 0 0 0 0 0 0 0 0 0 0 0 0 0 0 0 0 0 0 0 0 0 2537 2537 2230 1989 1989 1839 1795 1752 1711 2044 1989 1887 2628 2628 2628 2628 2628 2374 2164 2102 2537 1795 1795 1795 1839 1936 2044 2230 2537 2628 2725 2628 2628 2830 2628 2725 2628 2537 2453 2299 2230 1989 1936 1989 2044 2044 2044 2102 1989 2044 2230 2230 2102 2102 2102 2102 2102 2102 2374 2164 1989 2102 1989 2102 2044 2102 2230 1936 2044 2299 2230 2453 2164 2374 2044 2044 0 0 0 0 0 0 0 0 0 0 0 0 0 0 0 0 0 0 0 0 0 0 0 1711 1711 0 1672 1672 1989 1989 1989 2044 1989 2102 2230 2164 2453 1989 2044 2299 1989 2374 2453 2830 3066 3066 2725 2628 2164 1839 0 1839 1672 1599 1415 1672 1533 1388 1443 1471 1268 1206 1187 1187 1115 1115 1098 1066 1036 1036 1022 994 968 968 943 919 931 943 931 931 919 943 919 931 919 865 855 845 865 876 855 817 791 0 1066 1082 1098 0 0 0 0 0 919 943 0 943 955 968 968 1022 1036 1115 1132 1187 1226 1268 1314 1362 1388 1388 1443 1362 1362 1291 1291 1314 1268 1132 1051 1066 1051 994 1008 1022 1036 1036 1036 1066 1066 1082 1149 1149 1149 1149 1149 1168 1149 1149 1149 1132 1168 1206 1268 1247 1291 1291 1635 2453 2453 2299 2374 2453 1989 1936 1887 1711 0 0 0 0 0 0 0 0 0
    0 0 0 0 0 0 0 0 0 0 0 0 0 0 0 0 0 0 0 0 0 0 0 0 0 0 0 0 0 0 0 0 0 0 0 0 0 0 0 0 0 0 0 0 0 0 0 0 0 0 0 0 0 0 0 0 0 0 0 0 0 0 0 0 0 0 0 0 0 2537 2453 2164 1989 2044 1887 1795 1795 1752 2102 1989 1936 2628 2537 2628 2537 2628 2299 2164 2164 2537 1795 1752 1752 1795 1887 2044 2230 2453 2628 2628 2628 2628 2830 2628 2725 2628 2537 2453 2453 2374 2044 1989 2102 2102 2102 2102 2044 2044 2044 2299 2230 2164 2102 2102 2102 2102 2102 2374 2102 1989 2044 1989 2044 2044 2102 2230 1936 1989 2374 2299 2537 2453 2453 2164 2102 0 0 0 0 0 0 0 0 0 0 0 0 0 0 0 0 0 0 0 0 0 0 0 1752 1672 0 1672 1672 1989 1989 1936 2044 2044 2102 2230 2164 2453 2044 2102 2453 2044 2374 2537 2830 3066 2943 2725 2537 2102 1839 1672 1839 1635 1443 1314 1471 1362 1291 1291 1314 1247 1168 1168 1132 1082 1082 1066 1051 1022 1022 994 968 943 955 931 908 931 943 931 931 931 943 931 943 955 876 855 865 908 943 994 0 0 0 0 0 1206 0 0 0 0 955 931 943 0 931 955 968 968 1022 1036 1115 1132 1168 1226 1268 1291 1314 1362 1362 1388 1314 1314 1268 1247 1226 1149 1051 1008 1008 1022 968 981 1008 1008 1022 1022 1036 1036 1051 1082 1098 1098 1082 1098 1115 1098 1115 1098 1098 1115 1168 1247 1247 1268 1291 1672 2044 1936 1887 0 0 1471 1362 1388 1314 1247 1187 0 0 0 0 0 0 0
    0 0 0 0 0 0 0 0 0 0 0 0 0 0 0 0 0 0 0 0 0 0 0 0 0 0 0 0 0 0 0 0 0 0 0 0 0 0 0 0 0 0 0 0 0 0 0 0 0 0 0 0 0 0 0 0 0 0 0 0 0 0 0 0 0 0 0 0 0 2537 2453 2164 1989 1989 1887 1795 1795 1795 2044 1989 1936 2628 2537 2537 2537 2537 2299 2164 2164 2453 1795 1795 1795 1795 1887 2044 2230 2374 2537 2628 2537 2628 2830 2628 2725 2537 2537 2537 2453 2374 2102 2102 2164 2164 2230 2164 2044 2044 2102 2299 2164 2102 2102 2102 2102 2102 2044 2299 2102 1989 2044 2044 2102 2102 2164 0 1936 1989 2453 2374 2537 2537 2230 1936 1936 0 0 0 0 0 0 0 0 0 0 0 0 0 0 0 0 0 0 0 0 0 0 0 1752 1635 0 1711 1672 1989 1989 1936 2044 2044 2102 2230 2164 2453 2044 2102 2374 1989 2164 2453 2830 3066 2943 2725 2537 2044 1795 1471 1839 1565 1338 1268 1338 1291 1268 1268 1291 1226 1168 1149 1098 1066 1066 1051 1036 1008 1008 981 955 943 955 943 919 943 968 943 955 943 968 943 955 981 919 855 886 943 1291 1291 0 1247 0 1247 1226 1268 1168 1051 0 919 943 931 943 943 943 943 968 981 1036 1036 1132 1149 1168 1206 1268 1291 1291 1388 1338 1362 1338 1314 1247 1187 1187 1098 1036 994 994 994 943 968 994 1008 1008 1008 1022 1022 1036 1066 1082 1066 1066 1066 1082 1066 1082 1066 1066 1082 1115 1226 1226 1268 1291 1752 1936 1839 1533 0 1149 1132 1187 1247 1187 1149 1098 1187 0 0 0 0 0 0
    0 0 0 0 0 0 0 0 0 0 0 0 0 0 0 0 0 0 0 0 0 0 0 0 0 0 0 0 0 0 0 0 0 0 0 0 0 0 0 0 0 0 0 0 0 0 0 0 0 0 0 0 0 0 0 0 0 0 0 0 0 0 0 0 0 0 0 0 0 2628 2628 2230 2044 1989 1887 1795 1795 1795 2044 1989 1936 2628 2628 2628 2628 2628 2299 2164 2230 2537 1839 1839 1839 1839 1936 2102 2374 2453 2537 2537 2537 2628 2725 2628 2725 2537 2537 2537 2628 2537 2230 2299 2374 2299 2374 2299 2102 2044 2164 2299 2102 2044 2044 2044 2044 2164 2044 2299 2102 2044 2044 2044 2102 2164 2164 2374 1887 1989 2628 2537 2628 2537 2164 1887 1839 1599 0 0 0 0 0 0 0 0 0 0 0 0 0 0 0 0 0 0 0 0 0 0 0 1501 0 1711 1672 1989 2044 1989 2044 2044 2164 2230 2164 2453 2044 2102 2374 1989 2230 0 2943 3066 3066 2725 2537 2044 1711 0 0 1471 1291 1247 1291 1268 1226 1247 1247 1206 1149 1132 1082 1051 1051 1036 1022 994 981 968 931 931 943 943 931 955 981 981 994 981 994 981 981 1008 981 968 968 0 1565 1672 1795 1839 0 0 0 0 0 1051 1022 0 0 943 955 955 943 955 968 0 1051 0 0 1149 0 0 1314 1338 0 0 1415 1635 1443 0 0 0 139 138 0 0 994 994 919 955 968 994 994 994 1008 1022 1022 1051 1066 1066 1066 1066 1066 1051 1051 1051 1051 1066 1066 1132 1115 1187 1247 1388 1887 1533 1206 1022 1036 1036 1082 1066 1051 1051 1051 1066 0 0 0 0 0 0
    0 0 0 0 0 0 0 0 0 0 0 0 0 0 0 0 0 0 0 0 0 0 0 0 0 0 0 0 0 0 0 0 0 0 0 0 0 0 0 0 0 0 0 0 0 0 0 0 0 0 0 0 0 0 0 0 0 0 0 0 0 0 0 0 0 0 0 0 0 2628 2725 2374 2044 2044 1887 1795 1839 1887 2044 1989 1989 2537 2537 2628 2628 2537 2374 2164 2230 2628 1887 1989 1936 1887 1936 2164 2374 2453 2453 2537 2453 2537 2628 2628 2628 2537 2537 2537 2628 2628 2299 2453 2537 2453 2453 2374 2164 2102 2164 2299 2044 2044 2044 2044 2044 2164 2044 2299 2164 2044 2102 2102 2102 2164 2230 2374 1936 2044 2725 2628 2725 0 0 1989 1936 0 0 1989 0 2044 2537 2537 2628 0 0 0 0 0 0 0 0 207 205 0 0 0 1362 1501 1565 1599 0 1711 1711 1989 2044 1989 2044 2044 2164 2230 2164 2537 2044 2102 2453 1989 2374 0 0 3199 3199 2830 2830 2044 1672 0 0 1415 1247 1206 1247 1226 1187 1206 1226 1206 1149 1132 1082 1051 1051 1022 1008 981 968 955 919 919 931 931 955 981 994 1008 1008 1008 1022 1008 1008 1132 0 0 0 1599 1711 1795 1839 1936 0 0 0 0 0 0 0 0 0 943 943 931 919 931 955 968 1036 0 0 1098 0 0 0 0 0 0 0 0 0 0 0 0 140 138 138 137 0 981 908 931 968 981 981 981 1008 1008 1008 1051 1051 1051 1051 1066 1066 1036 1036 1022 1036 1051 1036 1051 1036 1022 1115 1149 1226 1247 1051 994 1008 1022 1051 1036 1022 1022 1022 1008 0 0 0 0 0 0
    0 0 0 0 0 0 0 0 0 0 0 0 0 0 0 0 0 0 0 0 0 0 0 0 0 0 0 0 0 0 0 0 0 0 0 0 0 0 0 0 0 0 0 0 0 0 0 0 0 0 0 0 0 0 0 0 0 0 0 0 0 0 0 0 0 0 0 0 0 2628 2725 2453 2164 2044 1887 1887 1936 2044 2164 2044 1989 2453 2537 2537 2537 2453 2374 2164 2299 2628 1936 2102 2044 1936 1989 2164 2299 2374 2299 2453 2453 2453 2453 2453 2453 2374 2374 2453 2537 2453 2230 2453 2453 2453 2453 2299 2164 2164 2164 2299 2044 2102 2044 2102 2102 2230 2102 2299 2164 2102 2102 2102 2164 2230 2230 2453 1936 2102 2725 2628 2725 2537 2164 1989 1936 0 2374 2044 2230 2230 2374 2453 2453 2453 2230 0 0 0 0 0 0 206 204 0 0 1599 1599 1839 1839 1795 1711 1795 1752 1989 2044 1989 2044 2044 2164 2230 2164 2537 2044 2102 2453 1989 0 0 0 3345 3199 2830 2830 2044 1599 0 0 1338 1187 1149 1206 1168 1132 1168 1206 1187 1149 1132 1098 1066 1051 1036 1022 994 981 955 919 919 943 955 955 981 994 1008 1008 1008 1022 1008 1008 1206 1036 1098 0 1711 1795 1839 1795 1839 0 0 0 1187 1022 994 1022 955 943 943 931 931 908 908 931 943 994 968 1036 1051 0 0 0 0 0 2102 0 0 1471 0 0 0 0 0 0 0 0 955 908 931 955 981 981 981 994 994 1008 1036 1036 1051 1036 1051 1036 1022 1036 1022 1022 1036 1022 1022 1022 994 1036 1051 1051 1066 1036 994 1008 1022 1051 1036 1022 1008 1008 994 0 0 0 0 0 0
    0 0 0 0 0 0 0 0 0 0 0 0 0 0 0 0 0 0 0 0 0 0 0 0 0 0 0 0 0 0 0 0 0 0 0 0 0 0 0 0 0 0 0 0 0 0 0 0 0 0 0 0 0 0 0 0 0 0 0 0 0 0 0 0 0 0 0 0 0 2453 2537 2453 2230 2102 1989 2044 2102 2164 2230 2102 2044 2374 2453 2453 2453 2453 2374 2164 2299 2537 1989 2164 2164 1989 1989 2102 2299 2374 2299 2453 2374 2453 2374 2299 2374 2299 2299 2299 2453 2374 2164 2374 2453 2453 2374 2299 2164 2164 2164 2299 2102 2102 2102 2102 2102 2230 2102 2374 2230 2164 2164 2164 2164 2230 2299 2453 1989 2102 2725 0 0 2537 2164 2044 1989 2537 2628 2044 2299 2299 2374 2453 2453 2453 2230 2102 0 0 0 210 207 206 204 0 0 0 1752 2102 1989 1839 1887 1887 1839 2044 2102 2044 2102 2102 2230 2299 2230 2628 2102 2102 2537 2299 0 845 817 0 3199 2830 0 0 1533 1247 1247 1268 1115 1098 1149 1115 1098 1132 1168 1168 1149 1149 1098 1066 1051 1051 1022 994 981 943 897 919 943 955 943 981 994 1008 1008 1008 1008 994 994 1168 0 0 0 1752 1795 1839 1795 1795 0 0 1206 1098 1008 968 968 955 931 955 943 955 943 931 955 968 994 981 1008 1036 0 0 0 3679 0 0 0 0 0 0 0 0 0 0 0 0 931 943 919 931 955 968 968 968 981 981 994 1008 1008 1022 1022 1022 1022 1008 1008 1008 1008 1022 1008 1008 1008 1008 1051 1051 1051 1051 1036 1008 1022 1022 1036 1022 1008 1008 1008 994 0 0 0 0 0 0
    0 0 0 0 0 0 0 0 0 0 0 0 0 0 0 0 0 0 0 0 0 0 0 0 0 0 0 0 0 0 0 0 0 0 0 0 0 0 0 0 0 0 0 0 0 0 0 0 0 0 0 0 0 0 0 0 0 0 0 0 0 0 0 0 0 0 0 0 0 2374 2453 2374 2230 2102 2044 2102 2164 2164 2230 2102 2044 2299 2374 2453 2374 2374 2374 2230 2374 2628 2102 2374 2299 2102 2044 2164 2453 2374 2299 2374 2374 2374 2230 2299 2299 2164 2164 2299 2453 2374 2164 2374 2374 2374 2299 2299 2164 2164 2164 2299 2102 2164 2164 2164 2164 2230 2102 2299 2230 2164 2164 2164 2164 2299 2299 2537 1989 2164 2830 0 0 2453 2164 2044 2044 2628 2628 2044 2299 2299 2299 2374 2374 2374 2164 2102 2453 0 0 207 207 205 204 0 0 0 1887 2102 2044 1887 1936 1936 1887 2044 2102 2102 2102 2102 2299 2299 2299 2628 2102 2102 0 0 897 836 826 808 0 0 0 0 1388 1206 1168 1206 1115 1082 1132 1098 1066 1132 1168 1187 1132 1115 1082 1051 1066 1051 1022 981 968 955 897 931 955 955 943 994 1008 1008 1008 1008 1008 994 994 1098 1008 994 0 1752 1795 1887 1839 1887 1936 0 1206 1066 994 968 943 955 931 955 955 955 955 955 968 981 994 994 1008 1036 0 0 0 3679 0 0 0 0 0 0 0 0 0 0 0 0 908 919 919 908 955 968 968 968 968 981 981 994 994 981 931 994 994 968 994 981 981 994 994 1008 994 994 1022 1036 1036 1036 1036 1022 1022 1022 1036 1022 1008 994 994 994 0 0 0 0 0 0</data></depth>
</opencv_storage>
