<?xml version="1.0"?>
<opencv_storage>
<gps_time_stamp>318491</gps_time_stamp>
<gps_x>-1.2409416198730469e+001</gps_x>
<gps_y>1.0948676109313965e+001</gps_y>
<gps_z>-1.9975935220718384e+000</gps_z>
<image_time_stamp>309360</image_time_stamp>
<depth type_id="opencv-matrix">
  <rows>83</rows>
  <cols>320</cols>
  <dt>s</dt>
  <data>
    0 0 0 0 0 0 0 0 0 0 0 0 0 0 0 0 0 0 0 0 0 0 0 0 0 0 0 0 0 0 0 0 0 0 0 0 0 0 0 0 0 0 0 0 0 0 0 0 0 0 0 0 0 0 0 0 0 0 0 0 0 0 0 0 0 0 0 0 0 1711 1599 1672 1711 1672 1711 1672 1635 1672 1711 1711 1711 1752 1752 1752 1795 1795 1752 1887 1936 1989 1887 0 0 0 0 0 0 0 0 0 0 0 0 0 0 0 8177 7359 8177 0 0 0 0 0 0 0 0 0 0 0 0 0 0 0 8177 6133 5661 6133 6690 7359 6690 7359 7359 8177 0 0 0 0 5661 5661 6133 6690 6690 6690 6690 7359 0 0 0 7359 7359 7359 7359 6690 7359 6690 6133 6133 6690 5661 6133 6133 5661 5661 5661 5661 5256 5256 5661 5256 4906 5661 4906 5256 4599 4906 4599 5256 4906 5661 5661 6133 5256 5661 6133 4088 3199 3066 2830 2374 2299 2299 2164 1936 1752 1752 1672 1599 1672 1635 1443 1362 1338 1291 1206 1036 1036 1051 1051 1051 1022 1098 1098 1051 1066 1051 1022 994 0 0 943 886 919 919 886 908 955 943 955 981 1008 981 955 968 0 897 886 908 876 865 886 931 876 943 0 0 0 663 634 639 0 0 0 0 618 603 593 588 584 584 574 570 566 561 574 561 533 529 518 500 511 507 493 481 481 481 481 477 0 477 80 80 474 0 443 0 0 0 0 0 0 0 0 0 0 0 413 0 402 404 406 406 404 0 402 404 402 404 395 387 385 379 375 0 758 0 0 0 0 0
    0 0 0 0 0 0 0 0 0 0 0 0 0 0 0 0 0 0 0 0 0 0 0 0 0 0 0 0 0 0 0 0 0 0 0 0 0 0 0 0 0 0 0 0 0 0 0 0 0 0 0 0 0 0 0 0 0 0 0 0 0 0 0 0 0 0 0 0 0 1711 1599 1711 1672 1635 1711 1672 1635 1672 1711 1711 1711 1752 1795 1795 1795 1795 1795 1887 1936 1989 1887 0 6690 0 0 0 0 0 0 0 0 0 0 0 0 0 7359 6690 7359 8177 0 8177 0 0 0 0 0 0 0 0 0 0 0 7359 7359 5661 5256 6133 6690 7359 7359 7359 8177 8177 0 0 0 3504 5661 5661 6690 6690 7359 6690 6690 6690 8177 8177 8177 6690 6690 6690 6690 6133 6690 6690 6133 6133 6690 5661 6133 5661 5661 5256 5661 5661 5256 4906 5661 5256 4906 5661 4906 4906 4599 4906 4599 5256 4906 5661 5661 6133 5661 6133 6133 4329 3199 3066 2830 2374 2299 2299 2164 1936 1795 1795 1672 1599 1672 1635 1415 1362 1338 1291 1206 1036 1036 1066 1066 1066 1036 1098 1098 1051 1051 1036 0 0 0 0 931 886 908 919 886 897 955 943 0 981 1008 968 943 0 0 886 0 886 865 0 0 0 855 919 0 0 0 0 634 634 0 0 0 0 0 603 593 588 584 588 579 570 566 561 570 566 533 529 525 504 511 511 497 484 481 481 481 477 0 477 80 80 471 0 443 0 0 0 0 233 0 0 0 0 0 0 0 0 402 404 404 406 404 0 399 402 399 399 395 387 385 379 375 0 750 0 0 0 0 0
    0 0 0 0 0 0 0 0 0 0 0 0 0 0 0 0 0 0 0 0 0 0 0 0 0 0 0 0 0 0 0 0 0 0 0 0 0 0 0 0 0 0 0 0 0 0 0 0 0 0 0 0 0 0 0 0 0 0 0 0 0 0 0 0 0 0 0 0 0 1752 1565 1711 1672 1635 1672 1672 1635 1635 1711 1711 1672 1711 1795 1795 1795 1795 1752 1839 1936 2044 1887 2830 3066 0 0 0 0 0 0 0 0 0 0 0 0 0 6690 6690 6690 6690 8177 7359 8177 0 0 0 0 0 0 0 0 0 0 8177 8177 6133 6133 7359 7359 8177 8177 8177 8177 8177 0 0 7359 3873 5256 5256 6690 6690 6690 6690 6690 6690 8177 7359 8177 6690 6690 6690 6690 6133 6690 6133 6133 6133 6690 5661 5661 5661 5661 5256 5661 5661 5256 4906 5661 5256 4906 5661 5256 4906 4599 4906 4599 5256 5256 5661 5661 6133 5661 6133 6133 4329 3199 3066 2830 2374 2299 2230 2102 1989 1839 1795 1672 1599 1635 1599 1443 1362 1338 1314 1247 1051 1022 1066 1066 1066 1036 1082 1098 1051 0 1036 0 0 981 0 919 886 908 931 897 897 968 955 0 981 1008 968 0 0 0 865 0 0 0 0 0 0 0 908 876 0 0 0 629 634 0 0 0 0 0 598 593 588 584 588 579 570 570 566 574 570 537 533 529 504 511 507 497 484 477 481 477 477 0 474 80 80 468 448 446 443 0 0 0 234 0 0 0 0 0 0 0 0 404 404 404 404 402 0 397 397 397 397 393 385 381 377 373 0 735 0 0 0 0 0
    0 0 0 0 0 0 0 0 0 0 0 0 0 0 0 0 0 0 0 0 0 0 0 0 0 0 0 0 0 0 0 0 0 0 0 0 0 0 0 0 0 0 0 0 0 0 0 0 0 0 0 0 0 0 0 0 0 0 0 0 0 0 0 0 0 0 0 0 0 1711 1471 1711 1711 1635 1672 1672 1635 1635 1711 1711 1672 1711 1752 1795 1795 1795 1795 1839 1936 2044 1936 2725 2943 3504 0 0 0 0 0 0 0 0 0 0 0 8177 6690 6690 6690 6690 7359 6690 8177 0 0 0 0 0 0 0 0 0 0 0 0 7359 7359 8177 8177 0 0 0 0 0 0 0 8177 4599 5661 5256 6690 7359 6690 6690 6690 6690 8177 7359 8177 6690 6133 6690 6690 6133 6690 6133 6133 6133 6690 5256 5661 5661 5256 5256 5256 5256 5256 4906 5661 4906 4906 5661 5256 4906 4906 4906 4599 5661 5661 6133 6133 6133 6133 6690 6133 4599 3199 3066 2830 2374 2299 2230 2102 1989 1839 1839 1672 1599 1635 1599 1443 1388 1362 1338 1268 1082 1036 1082 1082 1066 1036 1082 1098 1051 0 1022 0 0 968 955 908 886 897 931 897 897 968 955 955 0 0 0 0 0 0 0 0 0 0 0 0 0 0 897 897 0 0 0 629 629 0 0 96 0 0 598 593 588 584 584 579 570 570 566 574 574 537 537 533 504 507 504 497 484 477 477 477 477 0 471 0 80 465 451 448 443 0 0 0 0 0 0 0 0 0 0 0 0 404 0 404 404 399 0 395 395 395 395 393 385 377 373 373 0 728 0 0 0 0 0
    0 0 0 0 0 0 0 0 0 0 0 0 0 0 0 0 0 0 0 0 0 0 0 0 0 0 0 0 0 0 0 0 0 0 0 0 0 0 0 0 0 0 0 0 0 0 0 0 0 0 0 0 0 0 0 0 0 0 0 0 0 0 0 0 0 0 0 0 0 1565 1415 1599 1635 1599 1672 1672 1635 1635 1711 1711 1711 1711 1752 1795 1795 1795 1795 1839 1936 1989 1989 2628 2830 2943 0 0 0 0 0 0 0 0 0 8177 8177 7359 6690 6133 6133 5661 6690 6133 7359 8177 0 0 0 0 0 0 0 0 0 0 0 8177 8177 0 8177 0 0 0 8177 0 0 0 8177 5256 6133 5661 7359 7359 7359 7359 7359 6690 8177 7359 8177 6690 6690 6690 6690 6133 7359 6133 6133 6133 6690 5256 5661 5661 5256 5256 5661 5256 5256 4599 5256 4906 4906 5661 5661 4599 4906 5256 4906 5661 5661 6133 5661 6133 6133 6690 6133 4599 3199 3066 2830 2453 2299 2230 2102 1989 1887 1839 1672 1599 1635 1599 1443 1388 1362 1362 1291 1149 1051 1115 1115 1082 1036 1082 1082 1051 0 1008 994 943 968 955 908 886 897 931 908 908 968 968 955 0 0 0 0 0 0 0 0 0 0 0 0 0 0 876 908 0 0 0 623 629 0 0 96 0 0 593 593 584 584 584 579 574 570 566 574 574 541 537 533 500 500 500 493 484 471 477 474 474 468 471 0 80 0 454 446 443 0 0 0 0 235 0 0 75 0 0 0 0 0 0 404 404 399 0 395 395 393 393 393 385 377 373 373 0 721 0 0 0 0 0
    0 0 0 0 0 0 0 0 0 0 0 0 0 0 0 0 0 0 0 0 0 0 0 0 0 0 0 0 0 0 0 0 0 0 0 0 0 0 0 0 0 0 0 0 0 0 0 0 0 0 0 0 0 0 0 0 0 0 0 0 0 0 0 0 0 0 0 0 0 1599 1388 1565 1599 1599 1635 1711 1635 1635 1672 1711 1711 1711 1752 1752 1752 1795 1795 1839 1887 1936 1989 2537 2725 2830 3504 0 0 0 0 0 0 0 0 7359 7359 6690 6133 6133 6690 6133 6133 6133 6690 7359 7359 8177 0 0 0 0 0 0 0 0 0 8177 8177 8177 8177 0 8177 0 8177 8177 0 0 8177 5661 6133 5661 7359 7359 6690 6690 6690 6690 8177 7359 8177 6690 6690 6690 6690 6133 7359 6133 6133 6133 6133 5256 5661 5661 5256 5256 5661 5256 5256 4906 5256 4906 4906 5661 5661 4906 5256 5661 4906 6133 6133 6133 6133 6133 6133 6133 6133 4599 3199 2943 2830 2374 2230 2164 2102 1989 1887 1795 1672 1599 1635 1565 1471 1415 1388 1388 1388 1206 1098 1187 1187 1098 1036 1066 1051 1036 0 994 981 931 955 943 908 897 897 943 919 908 968 968 943 0 0 0 0 0 0 0 0 0 0 799 799 808 799 817 876 0 0 0 629 629 0 0 96 0 0 584 588 579 579 584 574 574 570 566 579 574 545 537 537 504 497 497 497 484 468 474 474 474 465 468 468 80 0 454 446 443 0 0 0 0 235 75 0 75 0 0 0 0 406 0 404 404 399 0 395 395 393 393 395 389 377 375 375 373 0 0 0 0 0 0
    0 0 0 0 0 0 0 0 0 0 0 0 0 0 0 0 0 0 0 0 0 0 0 0 0 0 0 0 0 0 0 0 0 0 0 0 0 0 0 0 0 0 0 0 0 0 0 0 0 0 0 0 0 0 0 0 0 0 0 0 0 0 0 0 0 0 0 0 0 1752 1362 1565 1599 1635 1672 1711 1635 1635 1672 1711 1752 1711 1752 1752 1752 1795 1795 1839 1887 1887 1936 2453 2725 2725 0 8177 0 8177 0 0 0 0 8177 6133 5661 5661 5661 5661 6133 5661 5661 5661 6133 6690 6690 6690 8177 8177 8177 8177 8177 8177 7359 8177 8177 8177 7359 8177 7359 8177 8177 0 8177 8177 8177 8177 8177 6133 6133 5661 7359 7359 6690 6690 6690 6133 7359 7359 7359 6690 6690 6690 6690 6133 7359 6133 6133 6133 6133 5256 5661 5661 5256 5256 5661 5256 5256 4906 5256 5256 5256 6133 6133 5256 5256 5661 5256 6133 6133 6133 6133 6133 6133 6133 6133 4599 3066 2943 2725 2374 2230 2102 2044 1989 1887 1795 1672 1599 1599 1565 1471 1443 1415 1388 1443 1247 1206 1247 1247 1132 1036 1036 1036 1022 0 981 981 919 955 943 919 908 897 943 919 908 968 968 943 0 0 0 897 0 0 0 0 0 808 791 782 791 782 782 836 0 681 639 634 634 0 0 96 0 0 579 588 574 579 584 579 574 570 566 579 574 553 541 537 507 497 500 497 484 462 471 471 471 459 468 465 80 0 457 446 443 0 0 0 0 234 75 0 0 0 0 0 0 408 402 404 404 402 0 395 395 395 393 395 389 377 375 375 373 0 0 0 0 0 0
    0 0 0 0 0 0 0 0 0 0 0 0 0 0 0 0 0 0 0 0 0 0 0 0 0 0 0 0 0 0 0 0 0 0 0 0 0 0 0 0 0 0 0 0 0 0 0 0 0 0 0 0 0 0 0 0 0 0 0 0 0 0 0 0 0 0 0 0 0 0 1388 1599 1599 1635 1672 1752 1672 1635 1672 1752 1752 1672 1711 1711 1752 1752 1752 1795 1839 1839 1936 2374 2725 2725 0 0 0 8177 8177 0 0 8177 8177 5661 4599 4906 5256 5256 5661 4906 5661 5661 6133 6133 6690 6690 7359 7359 8177 8177 7359 7359 6690 7359 8177 7359 7359 7359 7359 8177 8177 8177 7359 8177 8177 8177 7359 6690 6690 6133 7359 7359 6690 6690 6690 6133 7359 6690 7359 6690 6690 6690 7359 6690 7359 6133 6133 6133 5661 5256 5661 5661 5256 5256 5661 5256 5661 5256 5256 5256 5256 6133 6133 5256 5661 5661 4906 6133 6133 6133 5661 6133 6133 6133 6133 4599 3066 2943 2725 2374 2164 2102 2044 1989 1887 1795 1672 1565 1565 1565 1471 1443 1415 1415 1533 1268 1314 1314 1314 1187 1036 1022 1008 1008 968 981 981 0 955 955 919 919 908 955 931 919 968 968 943 0 0 0 897 0 201 0 0 0 799 774 774 774 774 774 817 0 687 639 645 645 0 0 0 0 0 588 593 574 579 579 579 574 570 570 584 579 566 549 541 511 493 493 490 484 457 468 465 465 457 465 462 80 0 457 443 443 0 0 0 0 232 75 0 0 0 0 0 0 413 404 406 406 402 0 0 395 397 395 0 393 379 375 375 373 0 0 0 0 0 0
    0 0 0 0 0 0 0 0 0 0 0 0 0 0 0 0 0 0 0 0 0 0 0 0 0 0 0 0 0 0 0 0 0 0 0 0 0 0 0 0 0 0 0 0 0 0 0 0 0 0 0 0 0 0 0 0 0 0 0 0 0 0 0 0 0 0 0 0 0 1795 1415 1635 1565 1599 1672 1752 1672 1635 1672 1752 1752 1635 1711 1711 1711 1752 1752 1795 1795 1795 1887 2299 2537 2628 2830 6133 8177 6133 6690 7359 7359 6690 6690 5256 4329 4906 5256 5256 5661 4906 5661 5661 6133 6133 6133 6133 6690 6690 7359 6690 6690 6690 6133 6690 7359 7359 6690 7359 6690 7359 7359 8177 7359 7359 7359 7359 7359 7359 6690 6133 7359 7359 6690 6690 6690 6133 6690 6690 7359 6690 6690 7359 7359 6690 8177 6690 6133 6133 6133 5661 5661 6133 5256 5256 5661 5661 5661 5256 5256 5256 5256 6133 6133 5256 5661 5661 4906 6133 6133 6133 6133 6133 6690 6690 6133 4906 3066 2830 2725 2299 2102 2044 2044 1989 1887 1795 1672 1599 1599 1599 1533 1501 1471 1443 1599 1291 1338 1338 1338 1247 1051 1008 1008 1008 968 981 981 0 955 955 931 931 908 955 931 919 968 968 943 0 0 0 897 0 201 199 0 0 791 766 758 766 774 758 808 808 694 0 651 651 0 0 0 0 618 598 598 579 579 579 579 574 570 570 579 570 561 541 537 507 493 493 490 484 457 468 465 465 454 462 462 80 0 459 440 440 440 0 0 0 231 75 0 0 0 0 0 0 415 404 408 408 406 0 0 397 399 399 406 395 379 373 373 373 0 0 0 0 0 0
    0 0 0 0 0 0 0 0 0 0 0 0 0 0 0 0 0 0 0 0 0 0 0 0 0 0 0 0 0 0 0 0 0 0 0 0 0 0 0 0 0 0 0 0 0 0 0 0 0 0 0 0 0 0 0 0 0 0 0 0 0 0 0 0 0 0 0 0 0 1711 1388 1565 1471 1533 1672 1752 1672 1635 1672 1752 1752 1635 1672 1672 1711 1752 1752 1752 1752 1752 1887 2102 2299 2453 2628 3345 4906 4599 4599 5256 5661 6133 6133 4906 4329 4906 5256 5256 5256 4599 5661 5256 5661 5661 6133 5661 6133 6690 6690 6690 6690 6690 6133 6133 7359 7359 6690 7359 6690 7359 7359 8177 7359 7359 7359 7359 7359 7359 6690 6690 7359 6690 6133 6133 6690 6133 6690 6690 7359 7359 7359 7359 7359 7359 8177 7359 6690 6690 6133 5661 6133 6133 5661 5661 5661 5661 5661 5661 5256 5256 5256 6133 5661 5256 5661 5661 5256 6133 6690 6690 6690 6690 7359 7359 6690 5256 3066 2830 2725 2299 2044 1989 1989 1989 1936 1752 1711 1635 1599 1635 1565 1565 1533 1501 1635 1314 1338 1338 1362 1247 1051 1008 0 1008 0 0 0 0 968 968 943 943 919 955 931 919 0 0 943 0 968 981 908 0 0 199 0 0 791 766 758 766 766 750 791 774 0 0 0 0 0 0 0 639 623 598 603 579 579 579 579 574 570 570 579 566 557 537 533 507 497 493 493 487 462 468 468 465 457 465 465 80 0 459 438 438 438 0 0 0 230 0 0 0 0 0 0 0 418 406 408 411 408 404 404 402 404 404 418 397 385 375 373 371 0 0 0 0 0 0
    0 0 0 0 0 0 0 0 0 0 0 0 0 0 0 0 0 0 0 0 0 0 0 0 0 0 0 0 0 0 0 0 0 0 0 0 0 0 0 0 0 0 0 0 0 0 0 0 0 0 0 0 0 0 0 0 0 0 0 0 0 0 0 0 0 0 0 0 0 0 1388 1565 1501 1533 1672 1752 1635 1599 1672 1752 1752 1599 1672 1672 1672 1711 1752 1752 1752 1752 1887 1989 2102 2230 2299 2628 3066 3504 3504 4088 4088 4599 4906 4329 4329 4906 4906 4906 4906 4599 5661 5256 5661 5661 5661 5661 5661 6133 6133 5661 6133 5661 5256 5661 6690 6690 6690 7359 6690 7359 7359 8177 7359 6690 6690 6690 6690 6690 6690 6133 6690 6690 6133 6133 6690 5661 6690 6690 7359 7359 7359 8177 8177 7359 8177 6690 6690 6690 6133 6133 6133 6133 5661 5661 5661 5661 5661 5661 5661 5256 5256 6133 5661 5256 5661 5661 5256 6133 6690 6133 6133 6690 7359 7359 7359 5661 3066 2628 2628 2230 2044 1936 1989 1989 1887 1752 1711 1635 1599 1635 1599 1565 1533 1501 1635 1291 1338 1338 1338 1268 1066 1022 0 0 0 0 0 0 968 968 943 931 908 943 931 908 0 0 943 968 968 981 919 0 0 199 0 0 791 766 758 758 774 750 791 758 0 0 0 0 0 0 0 645 623 598 603 579 579 579 579 579 574 574 579 566 566 537 529 507 497 493 493 487 462 468 468 465 457 465 468 80 0 465 0 438 0 0 0 0 0 0 0 0 0 0 0 0 420 408 411 413 411 406 406 404 408 408 425 404 395 387 377 373 0 0 0 0 0 0
    0 0 0 0 0 0 0 0 0 0 0 0 0 0 0 0 0 0 0 0 0 0 0 0 0 0 0 0 0 0 0 0 0 0 0 0 0 0 0 0 0 0 0 0 0 0 0 0 0 0 0 0 0 0 0 0 0 0 0 0 0 0 0 0 0 0 0 0 0 0 0 1599 1501 1501 1635 1711 1635 1599 1635 1752 1752 1599 1672 1672 1672 1711 1752 1752 1711 1711 1839 1936 1989 2044 2044 2164 2537 2943 2943 3504 3345 4088 4329 3873 4329 4906 4906 4906 4599 4599 5256 4906 5661 5256 5256 5661 5661 5661 5661 5256 5661 5256 4599 4599 5661 5661 5256 5661 5661 6133 6690 7359 6690 6690 6690 6690 7359 6690 6690 6133 6690 6690 6133 6133 6690 5661 6690 6690 6690 7359 7359 8177 8177 6690 8177 6690 6690 6690 6133 6133 6690 6690 6133 6133 6133 6133 5661 5661 5661 5256 5256 6133 5661 5661 6133 6133 5661 6133 6690 6690 6133 6690 8177 8177 8177 6133 3199 2628 2628 2299 1989 1936 1936 1936 1887 1752 1711 1635 1599 1635 1599 1599 1533 1533 1672 1314 1338 1338 0 1268 1082 1036 1051 0 0 0 0 0 981 981 943 931 897 931 919 897 0 0 943 968 955 994 919 0 0 199 0 0 791 774 758 758 774 750 782 735 0 0 0 0 0 0 0 645 623 593 603 579 579 579 579 579 574 574 584 566 574 533 529 511 497 493 493 487 465 471 471 468 459 471 471 80 0 468 0 435 0 0 0 0 230 0 0 0 0 0 0 0 420 408 413 415 415 411 411 408 413 413 427 418 402 399 385 377 0 0 0 0 0 0
    0 0 0 0 0 0 0 0 0 0 0 0 0 0 0 0 0 0 0 0 0 0 0 0 0 0 0 0 0 0 0 0 0 0 0 0 0 0 0 0 0 0 0 0 0 0 0 0 0 0 0 0 0 0 0 0 0 0 0 0 0 0 0 0 0 0 0 0 0 0 0 0 1415 1471 1635 1711 1635 1565 1635 1752 1752 1599 1672 1672 1672 1711 1752 1752 1711 1711 1839 1887 1887 1936 1887 1936 2102 2374 2453 0 0 3679 4088 3873 4329 4599 4599 4599 4329 4599 5256 4906 5256 5256 5256 5661 5256 5661 5661 5256 5661 4906 4329 4088 4599 4906 4599 4599 4906 5256 5256 6133 6133 5661 6133 5661 6690 6133 6133 6133 6690 6133 6133 5661 6133 5661 6133 6133 6690 6690 6690 6690 7359 6133 8177 6133 6133 6133 6133 6133 6690 6690 6690 6690 6690 6133 6133 6133 5661 5256 5661 6133 6133 6133 6133 6133 6133 6690 6690 6690 6690 6690 8177 8177 0 6690 3345 2628 2725 2299 1989 1989 1936 1936 1887 1752 1711 1635 1599 1635 1635 1599 1565 1533 1672 1314 1338 1338 1362 1291 1115 1022 1066 0 1036 0 1022 0 968 981 943 931 897 931 919 897 0 0 943 968 955 994 931 0 202 199 201 0 791 774 758 758 774 743 774 728 694 0 0 0 0 0 0 657 623 593 608 584 584 584 584 579 579 579 584 566 570 533 525 507 493 493 493 487 468 474 474 471 465 474 477 80 0 471 0 0 0 0 0 0 230 0 413 0 0 0 0 425 420 411 413 415 418 413 415 413 418 415 427 427 411 415 393 383 0 0 0 0 0 0
    0 0 0 0 0 0 0 0 0 0 0 0 0 0 0 0 0 0 0 0 0 0 0 0 0 0 0 0 0 0 0 0 0 0 0 0 0 0 0 0 0 0 0 0 0 0 0 0 0 0 0 0 0 0 0 0 0 0 0 0 0 0 0 0 0 0 0 0 0 0 0 0 1362 1471 1635 1711 1635 1565 1635 1752 1752 1599 1672 1672 1635 1711 1752 1752 1672 1672 1795 1839 1839 1887 1839 1839 1887 1989 2102 0 0 3504 3873 3873 4329 4906 4599 4599 4329 4599 4906 4599 4906 4906 5256 5256 5256 5661 5256 4906 5256 4599 4088 3679 3873 4088 4088 4088 4329 4599 4906 5661 6133 5661 6133 5661 6690 6133 6133 6133 6133 6133 5661 5256 6133 5256 6133 5661 6133 5661 6133 6133 7359 6133 7359 5661 6133 6133 6133 6690 6690 6690 6690 6690 6690 6133 6133 6133 5661 5661 5661 5661 6133 6133 6133 6133 6133 6133 6690 6690 7359 7359 8177 8177 0 7359 3504 2725 2725 2374 2044 1989 1989 1936 1887 1752 1752 1672 1599 1672 1635 1635 1565 1565 1672 1314 1338 1338 1362 1291 1132 1022 1066 1051 1036 0 1022 0 968 981 955 931 886 919 919 886 931 0 931 968 955 994 919 0 202 200 0 0 791 782 758 758 774 743 774 721 694 0 0 681 0 0 675 663 629 603 613 588 584 584 584 584 579 579 584 566 570 533 521 511 497 493 493 487 471 477 477 474 468 477 477 80 0 474 0 0 0 0 0 0 231 0 413 0 0 0 430 425 418 411 413 418 420 415 418 415 420 418 427 430 418 422 397 387 383 0 0 0 0 0
    0 0 0 0 0 0 0 0 0 0 0 0 0 0 0 0 0 0 0 0 0 0 0 0 0 0 0 0 0 0 0 0 0 0 0 0 0 0 0 0 0 0 0 0 0 0 0 0 0 0 0 0 0 0 0 0 0 0 0 0 0 0 0 0 0 0 0 0 0 0 0 0 1388 1471 1599 1672 1635 1565 1635 1752 1752 1599 1672 1672 1635 1711 1752 1752 1672 1672 1795 1795 1795 1795 1795 1795 1839 1839 1989 0 0 3345 3679 3679 4329 4599 4329 4329 3873 4088 4906 4329 4906 4906 4906 4906 4906 5256 4906 4329 4599 4088 3873 3679 3679 3873 3873 3873 4329 4329 4599 5661 6133 6133 6690 6133 6690 6133 6133 6133 6133 5661 5661 5256 5661 5256 5661 5661 5661 5661 5661 6133 7359 6133 7359 6133 6133 6133 6133 6690 6690 6133 6690 6133 6133 6133 6133 6133 5661 5661 5661 5661 5661 6133 5661 6133 6133 6133 6133 6690 6690 6690 7359 8177 8177 7359 3873 2830 2830 2453 2102 2102 2044 1989 1936 1795 1752 1672 1635 1672 1635 1635 1565 1565 1635 1314 1291 1314 1314 0 1168 1036 1082 1082 1066 0 1022 994 968 981 955 931 886 919 919 886 919 955 931 955 943 994 919 0 201 200 0 0 791 782 766 766 782 750 782 735 700 0 0 681 0 0 681 669 639 618 618 593 588 584 584 584 579 579 579 570 566 533 521 514 497 493 493 487 474 477 477 477 471 474 477 80 0 0 0 0 0 0 0 0 232 0 415 0 0 0 430 425 415 411 413 418 420 418 420 418 420 420 427 430 420 425 404 391 385 0 0 0 0 0
    0 0 0 0 0 0 0 0 0 0 0 0 0 0 0 0 0 0 0 0 0 0 0 0 0 0 0 0 0 0 0 0 0 0 0 0 0 0 0 0 0 0 0 0 0 0 0 0 0 0 0 0 0 0 0 0 0 0 0 0 0 0 0 0 0 0 0 0 0 0 0 0 1415 1443 1599 1672 1672 1599 1635 1752 1795 1599 1672 1672 1635 1711 1752 1752 1711 1672 1795 1795 1795 1795 1795 1795 1795 0 1936 0 0 3345 3679 3873 4329 4906 4329 4329 3873 4088 4599 4329 4599 4599 4906 4906 4599 4599 4599 3873 4329 3873 3679 3504 3679 3873 4088 3873 4329 4329 4599 5661 6690 6690 7359 6690 7359 6133 6133 6133 6133 5661 5661 4906 5256 5256 5661 5661 5661 5256 5661 5661 6690 6690 7359 6133 6133 6133 6133 6133 6133 6133 6133 6133 6133 6133 5661 6133 5661 5661 5661 5256 5661 6133 5661 6133 6133 6133 6133 6133 6690 6690 7359 7359 7359 7359 4329 3066 2943 2628 2164 2164 2102 2044 1936 1839 1795 1672 1635 1711 1635 1599 1533 1533 1599 1314 1291 1291 1291 0 1187 1051 1098 1098 1066 0 1022 994 968 981 943 931 876 908 919 886 897 943 931 955 943 994 908 0 201 199 0 0 791 791 774 766 799 766 799 808 694 0 0 675 0 0 681 669 639 623 618 598 588 584 584 584 574 579 574 570 566 533 525 514 500 497 493 487 477 477 0 477 471 474 477 80 474 471 0 0 438 0 0 0 232 0 0 0 0 0 0 425 415 413 413 418 422 420 420 418 422 420 427 430 420 427 413 393 387 0 0 0 0 0
    0 0 0 0 0 0 0 0 0 0 0 0 0 0 0 0 0 0 0 0 0 0 0 0 0 0 0 0 0 0 0 0 0 0 0 0 0 0 0 0 0 0 0 0 0 0 0 0 0 0 0 0 0 0 0 0 0 0 0 0 0 0 0 0 0 0 0 0 0 0 0 0 1388 1443 1599 1711 1711 1599 1672 1795 1795 1599 1711 1711 1672 1752 1752 1795 1711 1672 1795 1795 1795 1795 1795 1752 1795 0 1887 0 0 3345 3873 4088 4906 5256 4599 4599 4088 4329 4599 4088 4599 4329 4329 4329 4088 4088 4088 3504 3873 3504 3504 3345 3504 3679 4088 3873 4599 4599 4906 5661 7359 7359 7359 6690 7359 6133 6133 6133 6133 5256 5256 4906 4906 5256 5661 5256 5661 5256 5661 5661 6133 6133 6690 5256 5661 5661 5661 5661 6133 5661 6133 5661 6133 6133 5661 6133 5661 5661 5661 5661 6133 6133 5661 6133 6133 6133 6133 6133 6690 6133 6690 6690 7359 7359 4599 3199 3066 2725 2374 2299 2164 2044 1936 1839 1795 1672 1635 1711 1599 1599 1533 1533 1533 1314 1268 1268 1268 0 1187 1066 1098 1098 1066 0 1008 981 955 968 931 919 876 897 908 876 886 943 919 943 931 981 897 0 200 199 0 0 791 799 782 774 791 766 799 826 687 0 0 669 669 0 675 663 639 623 618 598 588 584 584 584 574 579 574 574 566 533 521 518 500 497 493 490 477 477 0 477 474 474 477 0 474 471 0 446 440 0 0 0 0 0 0 0 0 0 0 425 413 413 413 418 422 420 422 420 422 420 425 430 420 425 418 395 391 0 0 0 0 0
    0 0 0 0 0 0 0 0 0 0 0 0 0 0 0 0 0 0 0 0 0 0 0 0 0 0 0 0 0 0 0 0 0 0 0 0 0 0 0 0 0 0 0 0 0 0 0 0 0 0 0 0 0 0 0 0 0 0 0 0 0 0 0 0 0 0 0 0 0 0 0 0 1415 1471 1599 1752 1711 1599 1635 1752 1795 1635 1711 1752 1672 1752 1795 1795 1752 1711 1839 1795 1795 1752 1752 1752 1752 1795 1839 0 1936 3504 4088 4599 5256 6133 4906 4906 4599 4599 4599 4088 4329 4329 4329 4088 4088 3873 3873 3504 3679 3504 3345 3345 3504 3679 4088 4088 4906 4906 5256 6133 7359 8177 7359 6690 7359 6133 6133 5661 5661 5256 5256 4599 4906 5256 5661 5256 5661 5256 5256 5256 6133 5661 6133 4906 5661 5256 5256 5661 5661 5661 6133 5661 6133 6133 5661 6133 5661 5661 5661 5661 6133 6133 5661 6133 6133 6133 6133 6133 6690 6690 7359 6690 7359 7359 4906 3345 3199 2830 2453 2299 2164 2102 1936 1839 1795 1672 1635 1711 1599 1565 1501 1501 1471 1314 1268 1268 1268 0 1187 1066 1098 1082 1066 0 994 981 931 955 931 908 865 897 908 876 886 943 919 931 931 968 886 0 0 0 799 0 791 799 782 774 791 774 791 836 687 0 0 663 663 0 669 657 0 623 618 603 588 579 579 579 574 574 574 579 579 533 525 521 497 490 490 487 477 474 477 474 474 471 477 474 474 468 121 448 443 0 0 0 0 0 0 0 0 0 0 0 0 415 413 420 422 420 422 420 422 420 425 430 418 422 420 402 395 0 0 0 0 0
    0 0 0 0 0 0 0 0 0 0 0 0 0 0 0 0 0 0 0 0 0 0 0 0 0 0 0 0 0 0 0 0 0 0 0 0 0 0 0 0 0 0 0 0 0 0 0 0 0 0 0 0 0 0 0 0 0 0 0 0 0 0 0 0 0 0 0 0 0 0 1268 1415 1443 1501 1599 1752 1711 1599 1635 1752 1752 1635 1752 1752 1711 1752 1795 1795 1752 1752 1839 1752 1795 1752 1752 1711 1752 1752 1795 0 0 3679 4599 5661 5661 6133 5256 5256 4599 4906 4906 4329 4329 4088 4329 4088 4088 3679 3873 3504 3873 3679 3504 3504 3679 3873 4329 4329 4906 4906 5661 6690 7359 8177 8177 7359 7359 6133 6133 6133 6133 5661 5661 4599 4906 5256 5256 5256 5661 5256 5256 5256 5661 4906 5256 4599 5256 4906 5256 5661 5661 5256 6133 5661 6133 6133 6133 6133 5661 6133 6133 5661 6690 6133 5661 6133 6133 6133 6133 6133 6133 6690 7359 6690 7359 7359 4906 3504 3199 2943 2453 2374 2230 2102 1989 1887 1795 1711 1635 1711 1565 1565 1471 1471 1443 1338 1247 1268 1268 0 1187 1066 1082 1066 1051 0 968 968 908 943 919 908 865 886 908 886 876 931 908 919 919 955 886 0 0 0 799 791 791 799 782 766 791 782 791 0 0 0 651 669 669 675 669 663 651 629 618 603 588 579 579 579 574 574 574 584 588 537 533 525 493 0 484 481 474 468 474 474 471 468 474 471 0 468 0 451 446 0 0 0 0 0 0 0 0 0 0 0 0 415 413 420 422 420 420 420 420 420 422 425 411 411 411 397 395 0 0 0 0 0
    0 0 0 0 0 0 0 0 0 0 0 0 0 0 0 0 0 0 0 0 0 0 0 0 0 0 0 0 0 0 0 0 0 0 0 0 0 0 0 0 0 0 0 0 0 0 0 0 0 0 0 0 0 0 0 0 0 0 0 0 0 0 0 0 0 0 0 0 0 0 0 1672 1565 1565 1599 1752 1752 1635 1635 1752 1752 1672 1752 1795 1711 1795 1795 1839 1795 1752 1839 1752 1752 1711 1711 1672 1711 1711 1752 1711 0 0 4906 5661 5661 6690 5661 5256 4906 4906 4906 4329 4329 4088 4329 4088 4329 3679 3873 3679 3873 3679 3679 3504 3679 3873 4599 4329 5256 5256 5661 6690 7359 8177 8177 8177 7359 6690 6690 6133 6133 5661 5661 5256 5256 5661 5256 5256 5661 5256 4906 5256 5661 4599 4599 4329 4329 4329 4599 4906 5256 4906 6133 5256 6133 6133 6133 6133 5661 6133 6133 5661 6690 6133 5661 6133 6690 6133 6133 6690 6690 6690 7359 6690 7359 7359 5256 3504 3199 2943 2628 2453 2299 2164 1989 1887 1795 1711 1635 1672 1565 1565 1471 1443 1415 1338 1247 1268 1247 0 1187 1082 1066 1051 1036 943 955 955 908 943 919 908 876 897 919 897 876 931 908 908 908 943 876 0 0 0 791 782 782 799 774 766 782 782 774 0 687 0 657 669 669 675 675 675 663 639 618 603 588 579 579 579 574 574 574 584 588 545 533 525 493 0 481 477 474 462 474 471 471 465 474 471 0 465 0 454 448 0 0 0 0 0 0 0 0 0 0 0 0 418 413 420 422 418 418 418 415 415 415 420 402 0 0 393 387 0 0 0 0 0
    0 0 0 0 0 0 0 0 0 0 0 0 0 0 0 0 0 0 0 0 0 0 0 0 0 0 0 0 0 0 0 0 0 0 0 0 0 0 0 0 0 0 0 0 0 0 0 0 0 0 0 0 0 0 0 0 0 0 0 0 0 0 0 0 0 0 0 0 0 0 0 1936 0 1635 1672 1795 1795 1672 1672 1752 1752 1672 0 1795 1752 1795 1839 1839 1795 1752 0 1711 1711 1672 1711 1672 1672 1711 1752 1711 0 3873 5256 6133 6133 6690 5661 5256 4906 4906 4906 4329 4329 4088 4329 4088 4088 3504 3679 3504 3873 3679 3679 3679 3873 4088 4906 4906 5661 5661 6133 6690 7359 8177 7359 8177 7359 6690 6690 6690 6690 6133 5661 5256 5661 5661 5256 5256 5661 5256 5256 5256 5256 4599 4088 4329 4088 3873 4088 4329 4599 4599 5256 5256 5661 5661 5661 5661 5661 6133 6133 6133 6690 6133 5661 6133 6133 6133 6133 6133 6690 6133 6690 6690 7359 7359 5256 3873 3504 3066 2725 2628 2374 2230 2044 1936 0 1711 1672 1672 1565 1565 1471 1443 1388 1362 1268 1247 1247 0 1187 1066 1036 1022 1008 931 955 968 908 943 931 919 886 908 931 908 886 931 897 908 908 931 865 0 0 0 782 774 782 791 766 758 766 774 0 0 675 0 657 669 669 675 669 675 669 651 623 603 584 579 579 574 570 570 570 584 588 553 533 525 493 477 481 477 474 459 471 471 468 459 471 468 0 462 457 454 448 0 0 0 0 0 0 0 0 0 0 0 0 418 413 420 422 418 415 413 411 411 408 411 397 0 0 389 383 0 0 0 0 0
    0 0 0 0 0 0 0 0 0 0 0 0 0 0 0 0 0 0 0 0 0 0 0 0 0 0 0 0 0 0 0 0 0 0 0 0 0 0 0 0 0 0 0 0 0 0 0 0 0 0 0 0 0 0 0 0 0 0 0 0 0 0 0 0 0 0 0 0 0 0 0 2044 0 1752 1711 1839 1795 1711 1672 1752 1752 1672 0 1795 1752 1795 1839 1839 1839 1752 0 1711 1711 1672 1711 1672 1672 1711 1752 1711 0 4088 5661 6690 6690 7359 6133 5661 5256 5256 4906 4599 4329 4088 4088 3873 3873 3199 3504 3504 3679 3679 3679 3679 4088 4329 5256 5661 6133 6690 6690 7359 8177 0 8177 8177 7359 7359 7359 6690 6690 6133 5661 5661 5256 5661 5256 5256 5661 5256 5256 4906 4906 4329 3873 4088 3873 3679 3873 4088 4329 4088 4906 4906 5256 5661 5661 5661 5661 6133 6133 6133 6690 6690 5661 6133 6133 6133 6133 6133 6133 6133 6690 6690 6690 7359 5256 3873 3504 3199 0 2628 2453 2299 2102 1936 0 1711 1672 1672 1565 1565 1471 1443 1388 1362 1268 1247 1226 0 1168 1066 0 994 994 931 955 968 908 943 931 931 886 919 943 908 886 931 897 897 908 919 855 0 0 0 782 774 774 782 758 743 743 750 0 0 663 669 651 663 657 663 657 663 657 645 613 598 584 574 579 574 570 570 570 584 584 557 537 525 493 477 477 477 471 451 465 465 465 457 465 462 462 459 457 454 448 0 0 0 0 0 0 0 0 0 0 0 0 420 415 420 422 415 413 413 408 408 406 406 0 0 0 389 383 0 0 0 0 0
    0 0 0 0 0 0 0 0 0 0 0 0 0 0 0 0 0 0 0 0 0 0 0 0 0 0 0 0 0 0 0 0 0 0 0 0 0 0 0 0 0 0 0 0 0 0 0 0 0 0 0 0 0 0 0 0 0 0 0 0 0 0 0 0 0 0 0 0 0 0 0 2044 0 1795 1752 1839 1839 1711 1672 1711 1752 1711 0 1795 1752 1795 1839 1839 1839 1795 0 1711 1711 1672 1711 1711 1711 1711 1795 1752 0 4599 6133 7359 7359 8177 6690 5661 5256 5256 4906 4599 4329 4329 4088 3873 3873 3199 3679 3504 3679 3679 3873 3873 4329 4329 5661 6133 6690 7359 7359 8177 8177 0 0 8177 7359 7359 7359 6690 6690 6690 5661 5661 5661 6133 5256 5256 5661 5256 4906 4906 4599 3873 3679 3679 3504 3504 3504 3873 4088 4088 4599 4599 4906 5256 5256 5661 5256 5661 6133 6690 6690 7359 6133 6133 6690 6690 6690 6133 6133 6133 6690 6690 6690 6690 5661 3873 3504 3199 2830 2628 2374 2230 2044 1936 0 1711 1635 1635 1533 1565 1443 1415 1388 1388 1268 1226 1206 1206 1132 1051 981 981 981 919 943 968 908 931 931 931 897 919 943 908 886 931 897 897 908 908 855 0 0 0 774 766 0 0 0 735 0 0 0 0 657 663 645 657 645 651 645 651 639 634 608 598 584 574 579 574 570 570 570 584 579 561 541 529 493 474 477 474 471 448 462 462 462 454 465 462 459 459 459 454 451 0 0 0 0 0 750 0 0 0 0 0 0 422 415 420 422 415 413 411 406 408 406 406 0 0 0 391 387 0 0 0 0 0
    0 0 0 0 0 0 0 0 0 0 0 0 0 0 0 0 0 0 0 0 0 0 0 0 0 0 0 0 0 0 0 0 0 0 0 0 0 0 0 0 0 0 0 0 0 0 0 0 0 0 0 0 0 0 0 0 0 0 0 0 0 0 0 0 0 0 0 0 0 1839 1887 1936 0 1752 1752 1839 1839 1711 1711 1752 1752 1752 0 1839 1795 1795 1839 1839 1839 1795 0 1711 1711 1672 1752 1711 1752 1752 1795 1752 0 4906 6133 7359 7359 8177 7359 6133 5661 5256 5256 4906 4329 4088 4088 3679 3679 3199 3679 3504 3504 3679 3873 4088 4599 4906 6133 6690 6690 8177 7359 8177 8177 0 0 8177 7359 7359 7359 6690 6690 6690 5661 5661 6133 6133 5661 5256 5661 5256 4906 4599 4329 3679 3504 3679 3504 3345 3504 3679 3873 3873 4088 4599 4599 5256 5256 5256 5256 5661 6133 6690 6690 7359 6690 6133 6690 6690 6690 6690 6133 6690 6690 6690 6690 7359 5661 4088 3504 3345 2943 2628 2374 2230 2044 1936 1795 1711 1635 1599 1533 1565 1443 1415 1388 1388 1268 1226 1187 1168 1115 1036 955 968 968 919 943 968 919 931 931 943 908 931 955 919 886 931 908 886 908 908 855 826 799 0 782 766 0 0 0 721 0 0 0 0 651 657 645 651 639 639 634 639 629 629 603 593 584 574 579 574 570 570 566 584 579 574 541 533 493 471 474 474 471 448 462 462 462 454 465 462 462 462 462 457 454 0 0 0 0 0 750 0 0 0 0 0 0 0 413 418 422 413 411 411 404 406 404 0 0 0 0 391 389 0 0 0 0 0
    0 0 0 0 0 0 0 0 0 0 0 0 0 0 0 0 0 0 0 0 0 0 0 0 0 0 0 0 0 0 0 0 0 0 0 0 0 0 0 0 0 0 0 0 0 0 0 0 0 0 0 0 0 0 0 0 0 0 0 0 0 0 0 0 0 0 0 0 0 1887 1936 1936 1839 1795 1752 1839 1839 1711 1711 1711 1752 1752 0 1795 1795 1795 1839 1839 1839 1795 0 1711 1752 1711 1752 1752 1752 1795 1839 1795 0 4599 6133 7359 8177 0 8177 6690 6133 5661 5661 5256 4599 4329 4088 3679 3504 3199 3679 3679 3504 3873 4088 4329 5256 5661 6690 7359 7359 8177 8177 8177 8177 0 8177 8177 7359 7359 7359 6690 7359 7359 6133 6133 6690 6690 5661 5256 5661 5256 4599 4329 4329 3504 3504 3504 3504 3345 3504 3679 3873 3679 4088 4329 4599 4906 5256 5256 5256 5661 6133 6690 7359 7359 6690 6690 6690 6690 6690 6690 6690 6690 6690 6690 6690 7359 6133 4329 3504 3345 2943 2537 2299 2230 2044 1936 1795 1752 1635 1599 1533 1565 1471 1415 1388 1388 1291 1268 1206 1187 1115 1036 955 968 955 919 955 981 931 943 943 955 931 943 968 931 886 931 908 886 886 876 836 817 791 808 774 758 0 758 728 714 0 0 0 675 645 657 645 645 634 634 629 634 623 623 598 588 584 574 584 574 574 570 566 584 579 588 537 533 490 462 471 474 468 446 459 462 459 454 465 465 462 462 462 457 454 0 0 0 0 0 750 0 0 0 0 0 0 0 415 418 420 413 0 0 404 0 0 0 0 0 0 0 0 0 0 0 0 0
    0 0 0 0 0 0 0 0 0 0 0 0 0 0 0 0 0 0 0 0 0 0 0 0 0 0 0 0 0 0 0 0 0 0 0 0 0 0 0 0 0 0 0 0 0 0 0 0 0 0 0 0 0 0 0 0 0 0 0 0 0 0 0 0 0 0 0 0 0 1887 1936 1936 1839 1839 1752 1839 1795 1711 1672 1711 1752 1752 0 1795 1752 1752 1795 1839 1839 1795 0 1752 1752 1711 1752 1752 1795 1795 1839 0 0 0 6690 8177 8177 0 0 0 6133 5661 5256 4906 4329 4088 4088 3679 3504 3345 3873 3873 3504 4088 4599 4599 5661 5661 6690 7359 7359 0 8177 8177 8177 8177 8177 8177 7359 7359 7359 7359 7359 8177 6690 6690 6690 6690 6133 5661 6133 5256 4329 4088 3873 3504 3504 3504 3345 3345 3345 3504 3873 3679 4088 4329 4329 4906 4906 5256 5256 5661 6690 6690 6690 7359 6690 6690 6690 6690 7359 6690 6690 6690 7359 6690 7359 7359 6133 4329 3504 3345 2943 2537 2299 2230 2044 1936 1839 1795 1635 1599 1533 1599 1471 1415 1388 1388 1314 1291 1226 1187 1115 1036 955 968 968 931 968 994 0 955 955 968 943 955 968 931 886 908 886 865 865 836 817 808 782 799 774 758 750 743 714 707 0 0 0 663 645 651 645 645 634 634 623 629 618 623 593 588 579 579 584 574 574 570 570 588 579 593 537 521 490 465 468 471 468 448 462 462 462 457 465 468 465 465 465 454 451 0 0 0 0 0 758 735 0 721 0 0 0 743 0 418 0 411 0 0 0 0 0 0 0 0 0 0 0 0 0 0 0 0
    0 0 0 0 0 0 0 0 0 0 0 0 0 0 0 0 0 0 0 0 0 0 0 0 0 0 0 0 0 0 0 0 0 0 0 0 0 0 0 0 0 0 0 0 0 0 0 0 0 0 0 0 0 0 0 0 0 0 0 0 0 0 0 0 0 0 0 0 0 1887 1887 1887 1839 1795 1752 1795 1795 1672 1672 1672 1711 1711 1711 1752 1711 1711 1795 1795 1795 1752 0 1752 1752 1711 1795 1752 1795 1839 1887 0 0 0 6133 7359 7359 0 0 6690 5661 4906 4329 4329 3679 3873 4088 3679 3504 3345 3873 4088 3679 4088 4599 4599 5661 6133 7359 8177 8177 0 8177 8177 8177 8177 0 8177 7359 7359 7359 7359 8177 8177 6690 6690 7359 7359 6133 5661 6133 5256 4329 4088 3873 3504 3504 3504 3345 3345 3345 3504 3873 3679 4088 4329 4329 4599 4906 5256 5661 5661 6690 6690 6690 7359 7359 6690 6690 6690 6690 6690 6690 6690 7359 6690 6690 7359 6690 4329 3345 3199 2943 2537 2299 2164 2044 1936 1839 1795 1635 1565 1501 1565 1471 1415 1388 1388 1314 1314 1268 1247 1149 1036 955 981 968 943 994 1008 0 968 968 981 955 955 968 919 876 886 865 855 855 817 808 799 782 791 774 758 735 728 694 694 675 0 663 663 645 657 645 651 634 634 623 623 618 618 593 584 579 579 584 579 579 570 570 588 579 593 537 529 490 474 471 474 471 451 465 468 468 462 468 474 468 468 468 451 448 0 0 0 0 0 758 728 735 721 0 0 0 750 413 418 0 411 0 0 0 0 0 0 0 0 0 0 0 0 0 0 0 0
    0 0 0 0 0 0 0 0 0 0 0 0 0 0 0 0 0 0 0 0 0 0 0 0 0 0 0 0 0 0 0 0 0 0 0 0 0 0 0 0 0 0 0 0 0 0 0 0 0 0 0 0 0 0 0 0 0 0 0 0 0 0 0 0 0 0 0 0 0 1839 1839 1839 1839 1839 1711 1752 1752 1635 1635 1672 1672 1672 1635 1711 1672 1672 1752 1795 1795 1752 0 1752 1752 1752 1795 1795 1839 1887 1989 0 0 0 5661 7359 6690 7359 0 5256 4329 4088 3679 3679 3345 3504 4088 3504 3199 3345 3873 3873 3679 4088 4599 4329 5661 6133 7359 8177 8177 0 8177 9199 0 0 0 8177 7359 7359 7359 7359 7359 8177 6690 6690 7359 7359 6690 6133 6133 4906 4599 4088 3873 3504 3504 3504 3345 3345 3345 3504 3873 3679 3873 4329 4329 4599 4906 5256 5661 5661 6690 6690 6690 6690 7359 6690 6690 6690 6690 6133 7359 6690 6690 6690 6690 6690 6690 4329 3199 3199 2943 2537 2299 2164 2044 1936 1887 1795 1599 1533 1501 1533 1471 1415 1362 1362 1314 1338 1268 1247 1168 1051 968 981 981 955 0 1022 0 968 968 981 968 968 981 931 876 876 865 845 836 808 799 791 774 774 766 743 714 707 681 687 669 675 663 657 645 657 645 651 634 634 618 623 613 613 588 584 579 579 588 579 579 574 574 593 579 598 537 521 490 481 468 474 471 451 468 471 468 465 471 477 471 471 471 454 448 440 0 0 0 0 750 728 0 721 735 743 0 750 0 418 0 0 0 0 0 0 0 0 0 0 0 0 0 0 0 0 0 0
    0 0 0 0 0 0 0 0 0 0 0 0 0 0 0 0 0 0 0 0 0 0 0 0 0 0 0 0 0 0 0 0 0 0 0 0 0 0 0 0 0 0 0 0 0 0 0 0 0 0 0 0 0 0 0 0 0 0 0 0 0 0 0 0 0 0 0 0 0 1795 1839 1795 1795 1752 1635 1672 1711 1565 1599 1599 1635 1635 1599 1672 1635 1635 1752 1752 1795 1711 1795 1752 1752 1752 1887 1839 1887 1936 2102 0 0 0 5661 7359 6690 6133 0 4329 3345 0 0 0 0 1711 3504 3199 2943 3345 3504 3873 3679 3873 4329 4088 5661 5661 7359 8177 0 0 0 0 0 0 0 8177 7359 7359 7359 7359 7359 8177 7359 7359 7359 7359 7359 6690 6133 4906 4599 3873 3873 3679 3504 3504 3504 3504 3504 3504 3873 3679 3873 4088 4329 4599 4906 5256 5661 5661 6690 6690 6690 6690 7359 7359 6690 6690 6690 6133 7359 6690 6690 6690 6690 6690 6690 4329 3199 3199 3066 2725 2453 2230 2044 1989 1887 1795 1599 1501 1471 1501 1443 1415 1362 1362 1314 1338 1247 1206 1149 1051 968 968 981 968 0 1022 0 981 981 981 981 981 981 931 876 876 865 836 826 799 799 782 766 758 758 735 707 700 669 681 663 669 663 657 645 657 645 651 629 629 618 618 613 613 588 579 579 579 588 579 579 574 574 588 579 593 537 533 493 484 468 474 474 457 468 471 471 468 471 477 474 474 471 457 443 440 0 432 430 0 758 728 0 0 0 0 0 0 415 418 0 0 0 0 0 0 0 0 0 0 0 0 0 0 0 0 0 0
    0 0 0 0 0 0 0 0 0 0 0 0 0 0 0 0 0 0 0 0 0 0 0 0 0 0 0 0 0 0 0 0 0 0 0 0 0 0 0 0 0 0 0 0 0 0 0 0 0 0 0 0 0 0 0 0 0 0 0 0 0 0 0 0 0 0 0 0 0 1752 1795 1752 1672 1635 1533 1599 1635 1471 1533 1565 1599 1599 1533 1635 1599 1599 1752 1752 1752 1711 1752 1752 1795 1795 1887 1839 1936 1989 2230 0 0 0 6133 7359 6133 4088 0 0 0 0 0 1635 1672 1635 1635 0 2044 3199 3504 3679 3679 4088 4329 4088 5661 5661 7359 8177 0 0 0 0 0 0 0 8177 7359 6690 6690 7359 7359 8177 7359 7359 8177 8177 8177 7359 6690 5256 4599 3873 4088 3679 3679 3679 3679 3679 3679 3679 4088 3873 4088 4088 4599 4599 4906 5256 5661 5661 6690 6690 7359 6690 7359 7359 6690 6690 6690 6133 7359 6690 6690 6690 6133 6690 6690 4088 3066 3066 2943 2628 2374 2164 2044 1936 1887 1795 1599 1471 1443 1443 1415 1415 1362 1338 1314 1362 1247 1206 1149 1051 981 968 981 968 0 1022 994 968 968 981 981 981 981 931 876 876 855 826 817 808 799 791 782 758 766 735 700 700 669 675 657 663 657 657 645 657 639 645 629 623 613 613 608 608 588 579 584 579 588 584 579 574 574 588 579 588 537 541 507 487 468 474 474 459 468 471 471 468 471 481 474 474 471 459 438 438 432 432 427 430 0 0 0 418 0 0 0 420 413 415 418 0 0 0 0 0 0 0 0 0 0 0 0 0 0 0 0 0
    0 0 0 0 0 0 0 0 0 0 0 0 0 0 0 0 0 0 0 0 0 0 0 0 0 0 0 0 0 0 0 0 0 0 0 0 0 0 0 0 0 0 0 0 0 0 0 0 0 0 0 0 0 0 0 0 0 0 0 0 0 0 0 0 0 0 0 0 0 1672 1711 1672 1533 1471 1415 1501 1501 1415 1471 1501 1533 1565 1501 1599 1599 1599 1711 1711 1752 1711 1752 1795 1795 1839 1887 1839 1936 1989 2164 2374 2628 0 6133 6690 4906 0 0 0 0 0 1635 1599 1635 1565 1533 1672 0 0 3199 3679 3679 4329 4329 4088 5661 6133 7359 8177 0 0 0 0 0 0 0 7359 7359 6690 6690 7359 7359 7359 7359 7359 8177 8177 8177 7359 7359 5256 4906 4088 4088 3679 3873 3679 3679 3679 3873 3679 4088 3873 4088 4088 4599 4329 4906 5256 6133 6133 6690 6133 6690 6690 7359 7359 6690 6690 6690 6690 7359 6690 7359 6690 5661 6133 6690 4088 2943 3199 3066 2628 2453 2164 2044 1989 1887 1795 1565 1471 1443 1443 1415 1388 1362 1314 1314 1388 1268 1247 1206 1066 1008 968 981 981 1008 1008 981 968 968 968 981 968 968 931 876 876 855 826 826 817 808 799 799 766 782 743 700 700 669 675 663 663 663 657 645 663 639 645 629 623 608 608 608 603 584 579 579 579 588 579 579 574 579 588 579 584 541 545 533 493 468 477 474 462 468 471 471 468 468 477 474 474 471 462 438 438 432 432 430 430 427 425 427 422 422 425 413 415 408 411 415 0 0 0 0 0 0 0 0 0 0 0 0 0 0 0 0 0
    0 0 0 0 0 0 0 0 0 0 0 0 0 0 0 0 0 0 0 0 0 0 0 0 0 0 0 0 0 0 0 0 0 0 0 0 0 0 0 0 0 0 0 0 0 0 0 0 0 0 0 0 0 0 0 0 0 0 0 0 0 0 0 0 0 0 0 0 0 1672 1711 1565 1415 1362 1338 1388 1415 1362 1415 1443 1471 1501 1471 1565 1565 1565 1711 1711 1711 1672 1711 1752 1752 1795 1887 1795 1839 1887 1936 1795 1989 1533 0 0 1168 1226 1206 1415 0 0 1565 1501 1565 1533 1471 1599 1362 0 0 0 3504 4906 4599 4088 5661 6133 7359 8177 0 0 0 0 0 0 0 7359 7359 6690 6690 7359 6690 7359 7359 7359 8177 7359 8177 7359 7359 5661 5256 4906 4599 3873 4088 3873 4088 3873 4088 3873 4088 3873 4329 4088 4906 4329 5256 5661 6133 6133 6690 6133 6690 6133 7359 7359 6690 6690 6690 6133 7359 6690 7359 6133 5256 5661 6690 3873 2830 3066 2943 2628 2537 2230 2102 2044 1936 1795 1599 1501 1443 1415 1415 1388 1362 1314 1314 1415 1291 1268 1226 1098 1022 981 981 981 994 994 981 955 955 955 968 955 955 931 886 886 865 836 836 826 817 808 808 774 782 758 714 707 675 681 669 675 675 669 651 663 639 651 629 618 608 608 603 598 584 579 579 574 579 574 566 566 574 584 566 574 541 545 541 504 477 481 477 468 468 471 471 471 468 477 471 471 468 465 440 443 435 435 430 430 427 425 430 427 425 425 415 413 406 408 411 406 0 0 0 0 0 0 0 0 0 0 0 0 0 0 0 0
    0 0 0 0 0 0 0 0 0 0 0 0 0 0 0 0 0 0 0 0 0 0 0 0 0 0 0 0 0 0 0 0 0 0 0 0 0 0 0 0 0 0 0 0 0 0 0 0 0 0 0 0 0 0 0 0 0 0 0 0 0 0 0 0 0 0 0 0 0 1635 1599 1388 1314 1291 1291 1314 1338 1338 1388 1388 1415 1443 1443 1533 1501 1533 1672 1672 1672 1635 1672 1711 1672 1752 1752 1672 1672 1672 1672 1533 1471 1314 1268 1268 1206 1247 1226 1415 1415 1388 1443 1443 1501 1501 1443 1501 1338 1314 0 0 0 4599 4599 4088 5661 5661 6133 8177 0 0 0 0 0 0 0 7359 7359 6690 6133 6690 6690 7359 7359 7359 7359 7359 8177 7359 7359 6133 5661 5256 5256 4329 4599 4088 4329 4088 4599 4088 4329 4088 4599 4329 4906 4906 5256 5661 6690 6133 6690 6133 6690 6133 7359 6690 6690 6133 6690 6133 7359 6133 6690 5661 4329 3679 4329 3345 2830 2943 2943 2725 2725 2453 2299 2164 1936 1795 1599 1501 1443 1415 1415 1415 1362 1338 1314 1443 1338 1291 1247 1132 1036 968 981 981 981 994 968 955 955 943 968 943 943 943 886 897 855 845 836 826 817 817 808 774 782 758 714 707 681 687 675 675 675 669 657 669 639 663 629 629 608 608 603 588 584 579 570 574 574 570 561 566 574 579 561 570 545 549 541 514 484 481 477 471 468 474 468 471 465 474 468 468 465 465 443 446 438 435 432 430 430 427 430 430 425 425 420 415 408 408 408 406 402 0 0 0 0 0 0 0 0 0 371 0 0 0 0 0
    0 0 0 0 0 0 0 0 0 0 0 0 0 0 0 0 0 0 0 0 0 0 0 0 0 0 0 0 0 0 0 0 0 0 0 0 0 0 0 0 0 0 0 0 0 0 0 0 0 0 0 0 0 0 0 0 0 0 0 0 0 0 0 0 0 0 0 0 0 1501 1415 1314 1268 1226 1247 1268 1291 1291 1338 1362 1388 1388 1415 1471 1471 1501 1635 1599 1565 1599 1635 1672 1565 1635 1533 1443 1388 1388 1362 1338 1314 1268 1268 1268 1226 1268 1247 1415 1415 1388 1415 1388 1415 1415 1388 1388 1291 1268 0 0 0 4599 4329 4088 5256 5256 6133 7359 8177 0 8177 8177 8177 8177 0 7359 7359 6690 5661 6690 6133 6133 6690 6690 6690 6690 7359 7359 7359 6133 6133 6133 5661 4599 4906 4329 4599 4329 4599 4329 4329 4329 4906 4329 5661 5256 6133 6133 6690 6690 7359 6133 6690 6133 6690 6690 6690 6690 6690 6133 8177 6690 6133 4906 3873 3066 3873 3199 2830 3066 2943 2830 2830 2537 2453 2164 1887 1752 1599 1471 1415 1388 1415 1415 1388 1338 1291 1443 1338 1226 1187 1082 1022 955 981 981 968 981 955 955 943 931 955 931 931 943 897 919 865 865 865 855 826 826 817 782 782 758 714 707 681 687 675 675 675 669 663 675 651 669 639 645 608 608 608 584 579 574 566 570 570 570 557 561 570 570 561 566 549 549 541 521 490 481 481 477 465 474 468 471 465 471 468 465 465 465 443 448 440 438 432 432 427 427 427 430 425 422 418 415 406 408 404 404 399 399 0 0 0 0 0 381 373 371 369 0 0 0 0 0
    0 0 0 0 0 0 0 0 0 0 0 0 0 0 0 0 0 0 0 0 0 0 0 0 0 0 0 0 0 0 0 0 0 0 0 0 0 0 0 0 0 0 0 0 0 0 0 0 0 0 0 0 0 0 0 0 0 0 0 0 0 0 0 0 0 0 0 0 0 1362 1338 1268 1226 1226 1226 1226 1247 1247 1314 1338 1338 1362 1388 1443 1443 1471 1599 1533 1501 1565 1565 1565 1501 1565 1443 1415 1362 1388 1388 1362 1362 1314 1314 1291 1291 1338 1314 1471 1443 1415 1415 1388 1388 1388 1362 1388 1314 1291 1314 0 0 0 4329 4329 5256 5256 6133 7359 8177 8177 8177 8177 8177 8177 8177 7359 7359 6690 5661 6690 6133 6133 6133 6690 6690 6690 6690 7359 6690 6133 6133 6133 5661 4906 5256 4599 4599 4599 4906 4329 4329 4329 4906 4599 6133 5661 6133 6690 6690 6690 6690 6133 6690 6133 6690 6690 6690 6690 6690 6133 8177 6690 5661 4088 3504 2943 3679 3199 2943 3066 2943 2943 2943 2628 2628 2164 1887 1752 1599 1471 1443 1388 1415 1415 1388 1362 1314 1415 1338 1187 1115 1051 1022 919 968 968 943 955 931 943 931 931 955 931 931 955 908 955 908 908 931 931 897 855 826 799 799 743 707 707 687 694 681 681 681 669 663 675 651 675 645 657 608 613 613 584 584 579 566 570 570 566 553 561 566 561 557 557 549 549 545 529 500 481 481 477 462 471 465 468 465 471 468 465 465 465 446 451 443 438 432 432 427 427 425 430 422 418 418 413 406 406 399 399 397 397 397 393 391 387 385 383 375 373 369 0 0 0 0 0
    0 0 0 0 0 0 0 0 0 0 0 0 0 0 0 0 0 0 0 0 0 0 0 0 0 0 0 0 0 0 0 0 0 0 0 0 0 0 0 0 0 0 0 0 0 0 0 0 0 0 0 0 0 0 0 0 0 0 0 0 0 0 0 0 0 0 0 0 0 1338 1314 1268 1226 1226 1226 1226 1247 1226 1291 1291 1314 1338 1362 1388 1415 1415 1533 1415 1415 1501 1471 1471 1443 1501 1443 1388 1388 1388 1388 1362 1362 1338 1314 1314 1314 1338 1314 1443 1415 1388 1415 1388 1388 1388 1362 1388 1314 1291 1314 0 0 0 4329 4329 5256 5256 5661 7359 7359 8177 7359 8177 8177 8177 8177 7359 7359 6133 5661 6133 5661 6133 6133 6690 6690 6690 6690 7359 6133 6133 6133 6133 5661 4906 5256 4329 4906 4599 4599 4329 4329 4329 4906 4329 6133 5256 6133 6133 6133 6133 6690 6133 6690 6133 6133 6690 6690 6690 6690 6133 8177 5661 4329 3504 3345 2830 3679 3345 2943 3066 2943 2943 2943 2725 2725 2230 1839 1752 1635 1471 1443 1415 1415 1415 1415 1388 1338 1388 1338 1132 1066 1036 1008 908 955 955 931 955 919 943 931 931 955 931 943 968 931 994 968 968 968 994 981 931 836 758 782 728 707 707 694 700 687 687 687 675 663 675 651 663 634 629 608 608 613 584 588 574 561 566 566 561 553 561 566 557 557 557 549 549 545 533 504 484 484 477 457 468 462 468 465 468 468 465 465 468 448 457 446 440 435 432 427 427 425 430 422 415 415 411 406 406 397 397 393 393 393 389 385 381 379 381 373 371 367 0 0 0 0 0
    0 0 0 0 0 0 0 0 0 0 0 0 0 0 0 0 0 0 0 0 0 0 0 0 0 0 0 0 0 0 0 0 0 0 0 0 0 0 0 0 0 0 0 0 0 0 0 0 0 0 0 0 0 0 0 0 0 0 0 0 0 0 0 0 0 0 0 0 0 1291 1268 1247 1226 1226 1226 1226 1226 1206 1247 1268 1291 1314 1338 1388 1388 1415 1533 1443 1415 1501 1443 1415 1415 1443 1388 1362 1362 1388 1388 1362 1362 1338 1314 1291 1314 1314 1314 1415 1388 1388 1388 1362 1388 1362 1362 1362 1314 1291 1314 1291 0 0 3873 4329 4906 4906 5256 6690 6690 7359 7359 7359 7359 7359 7359 6690 6690 6133 5661 6133 5661 6133 6133 6690 6690 6690 6690 6690 6133 6133 6133 5661 5661 4599 5256 4329 4906 4599 4329 4329 4329 4329 4599 4088 6133 4906 5661 6133 6133 6133 6133 6133 6133 6133 6133 6133 6133 6690 6133 6133 6690 5661 3873 3345 3345 2830 3873 3345 3066 3066 3066 2943 2943 2830 2830 2299 1839 1752 1635 1471 1471 1415 1415 1443 1443 1443 1388 1415 1362 1132 1051 1036 1008 908 955 955 908 943 908 943 919 919 955 931 931 968 931 1008 968 968 968 994 994 968 865 817 808 758 735 728 728 728 714 707 707 694 669 669 618 618 613 608 603 603 608 584 593 584 561 566 566 561 553 561 566 557 557 561 549 549 549 541 518 487 484 477 457 468 459 465 462 468 465 465 465 468 448 459 448 440 435 432 427 427 425 430 422 418 418 411 406 406 0 397 393 391 391 389 383 379 377 381 373 369 366 0 0 0 0 0
    0 0 0 0 0 0 0 0 0 0 0 0 0 0 0 0 0 0 0 0 0 0 0 0 0 0 0 0 0 0 0 0 0 0 0 0 0 0 0 0 0 0 0 0 0 0 0 0 0 0 0 0 0 0 0 0 0 0 0 0 0 0 0 0 0 0 0 0 0 1268 1247 1226 1226 1226 1226 1226 1226 1206 1226 1268 1291 1338 1362 1388 1415 1443 1501 1415 1388 1471 1415 1415 1415 1443 1388 1362 1362 1388 1388 1362 1362 1338 1338 1291 1314 1314 1291 1388 1362 1338 1338 1338 1338 1338 1338 1338 1291 1291 1291 1314 1388 0 0 4329 4906 4906 5661 6690 6690 6690 7359 7359 7359 6690 6690 6133 6690 6133 5661 6133 5661 6133 6133 6133 6133 6133 6133 6133 5661 6133 5661 5661 5256 4329 5256 4088 4599 4329 4088 4088 4088 4088 4329 3873 5256 4088 5256 5661 6133 6133 6133 5661 5661 5661 5661 5661 6133 5661 5256 5661 6133 6133 3504 3345 3504 3066 3873 3504 3199 3199 3066 3066 2943 2830 2943 2299 1887 1795 1672 1501 1501 1443 1443 1443 1471 1471 1443 1443 1388 1168 1051 1022 1008 908 955 943 908 931 908 931 919 919 955 919 931 968 931 1008 955 955 943 968 968 943 876 0 0 799 791 791 799 799 774 782 826 766 681 0 598 598 603 603 598 603 603 584 593 588 566 570 570 566 553 566 570 561 561 566 553 553 549 549 525 493 487 477 454 465 459 465 462 468 465 465 465 468 451 459 448 443 435 432 427 427 425 430 422 415 415 411 406 406 397 397 393 391 393 389 385 381 379 381 373 369 366 0 0 0 0 0
    0 0 0 0 0 0 0 0 0 0 0 0 0 0 0 0 0 0 0 0 0 0 0 0 0 0 0 0 0 0 0 0 0 0 0 0 0 0 0 0 0 0 0 0 0 0 0 0 0 0 0 0 0 0 0 0 0 0 0 0 0 0 0 0 0 0 0 0 0 1268 1226 1226 1206 1226 1226 1226 1226 1206 1226 1247 1291 1338 1362 1388 1415 1443 1471 1415 1388 1471 1415 1415 1415 1443 1415 1388 1388 1388 1362 1362 1362 1338 1314 1291 1291 1268 1268 1362 1338 1314 1314 1291 1314 1291 1314 1314 1291 1268 1314 1314 1415 1635 0 4599 4906 4906 4906 6133 6133 6133 6133 6133 6133 6133 5661 5661 6133 6133 5661 6133 5661 6133 6133 6133 6133 6133 5661 5661 5256 5661 5256 4906 4599 4088 4906 3873 4329 4088 3873 3873 3873 3873 4088 3679 4906 3873 4906 5256 5661 5661 5256 5256 4906 5256 4906 4906 5256 5256 5256 6133 6690 7359 3873 4088 4088 3199 4088 3679 3199 3345 3199 3199 3066 2943 3066 2453 1887 1795 1672 1501 1501 1471 1471 1501 1471 1533 1471 1443 1415 1187 1051 1022 1008 908 955 943 897 931 908 943 931 931 955 931 931 981 955 1008 968 931 931 955 955 908 865 0 0 0 0 0 817 808 799 808 836 808 0 608 598 598 598 603 598 603 603 593 598 588 561 574 570 570 553 566 570 566 561 574 557 557 557 561 533 0 490 477 454 465 457 465 465 468 468 465 465 468 454 462 451 443 435 432 427 427 425 427 420 415 415 411 406 406 0 0 395 393 393 389 385 381 379 381 371 369 366 0 0 0 0 0
    0 0 0 0 0 0 0 0 0 0 0 0 0 0 0 0 0 0 0 0 0 0 0 0 0 0 0 0 0 0 0 0 0 0 0 0 0 0 0 0 0 0 0 0 0 0 0 0 0 0 0 0 0 0 0 0 0 0 0 0 0 0 0 0 0 0 0 0 0 1247 1226 1226 1206 1226 1206 1206 1226 1187 1206 1247 1291 1338 1362 1388 1443 1415 1471 1388 1362 1443 1388 1388 1443 1443 1415 1388 1362 1362 1338 1338 1314 1314 1291 1268 1268 1247 1247 1338 1338 1291 1291 1268 1268 1268 1291 1291 1268 1291 1314 1338 1415 1635 1672 4329 4088 4329 4329 5256 5661 5661 6133 5661 5661 5661 5256 5661 6133 5661 5256 5256 5661 5661 6133 6133 5661 5661 5661 5661 4906 5256 5256 4329 4329 3873 4599 3873 4088 3873 3873 3873 3873 3873 4088 3504 4599 3873 4599 4906 5661 5661 4906 4906 4329 4906 4088 4329 4906 4599 4599 5661 5661 6690 4088 4329 4599 3504 4088 3679 3345 3504 3345 3345 3199 3066 3066 2453 1887 1795 1672 1501 1501 1471 1501 1501 1501 1533 1471 1443 1415 1168 1036 1022 1008 908 955 943 897 943 919 955 943 943 968 955 955 994 968 1036 981 943 968 981 955 897 865 0 0 0 774 0 799 799 791 791 0 0 0 593 588 584 584 593 593 598 598 598 603 593 561 579 574 574 553 566 570 566 566 574 557 557 553 0 0 0 0 481 462 468 459 468 468 471 471 468 468 468 457 465 454 446 435 432 427 427 425 427 420 415 415 413 408 408 0 0 395 395 393 389 385 381 379 383 373 371 367 0 0 0 0 0
    0 0 0 0 0 0 0 0 0 0 0 0 0 0 0 0 0 0 0 0 0 0 0 0 0 0 0 0 0 0 0 0 0 0 0 0 0 0 0 0 0 0 0 0 0 0 0 0 0 0 0 0 0 0 0 0 0 0 0 0 0 0 0 0 0 0 0 0 0 1247 1226 1206 1206 1206 1206 1226 1247 1187 1206 1247 1291 1338 1362 1362 1415 1415 1443 1388 1362 1443 1388 1388 1443 1443 1415 1388 1362 1362 1338 1314 1314 1291 1291 1247 1268 1268 1247 1338 1314 1268 1268 1247 1247 1247 1268 1268 1268 1291 1338 1338 1415 1635 1635 3873 3679 3873 4088 4906 5256 5661 5661 5256 5661 5661 5661 5661 6133 5661 5256 5256 5661 5256 5256 5256 5256 5256 4906 4906 4599 4599 4329 3873 3873 3679 4329 3679 3873 3873 3679 3679 3679 3679 3873 3504 4329 3873 4329 4906 5661 5256 4088 4329 3679 4329 3873 4088 4329 4329 4088 5256 5256 6133 4329 4599 4599 3504 4088 3873 3345 3504 3345 3345 3199 3066 3066 2374 1839 1752 1672 1501 1501 1501 1501 1501 1501 1533 1501 1443 1443 1187 1051 1036 1008 897 943 943 897 943 919 955 955 943 981 955 968 994 968 1008 968 908 943 955 955 886 865 826 799 782 758 766 782 791 782 774 0 919 0 0 0 579 570 584 584 593 598 603 608 598 561 588 584 584 557 574 570 570 570 579 557 557 553 0 0 0 0 477 468 471 462 468 471 474 474 471 471 468 462 468 459 446 435 432 427 427 422 425 418 415 415 413 408 408 0 0 395 395 395 391 385 381 381 385 377 373 369 0 0 0 0 0
    0 0 0 0 0 0 0 0 0 0 0 0 0 0 0 0 0 0 0 0 0 0 0 0 0 0 0 0 0 0 0 0 0 0 0 0 0 0 0 0 0 0 0 0 0 0 0 0 0 0 0 0 0 0 0 0 0 0 0 0 0 0 0 0 0 0 0 0 0 1247 1226 1226 1226 1226 1226 1226 1247 1187 1187 1226 1247 1338 1338 1338 1362 1388 1388 1362 1338 1415 1362 1388 1471 1443 1388 1362 1338 1338 1291 1291 1291 1268 1247 1226 1247 1247 1247 1314 1291 1247 1247 1247 1247 1247 1247 1247 1247 1291 1314 1338 1415 1599 1635 0 3345 3679 4088 4906 5256 5256 5256 5256 5661 5661 5256 5256 5661 5661 4906 4906 5256 4599 4906 4599 4599 4599 4599 4329 3873 3873 3679 3679 3679 3679 4088 3679 3873 3873 3679 3873 3873 3873 3873 3504 4329 3679 4329 4906 5256 4906 3504 3504 3199 3873 3504 3873 3873 3873 3873 4906 4906 6133 4599 5256 4906 3504 4088 3873 3504 3504 3345 3345 3199 3066 3066 2299 1795 1711 1672 1501 1533 1501 1501 1533 1533 1533 1565 1443 1443 1206 1051 1051 1022 908 955 943 908 955 931 968 955 955 981 968 968 994 968 994 943 886 919 919 943 876 865 826 791 782 766 774 774 791 766 750 0 919 0 0 0 584 570 584 584 593 598 603 608 598 561 588 588 588 557 574 574 570 570 579 557 561 557 0 0 0 0 0 474 471 468 471 477 477 477 474 477 474 468 471 465 448 438 435 427 430 425 427 418 415 415 415 411 408 0 0 0 0 0 391 385 381 381 387 379 373 371 0 0 0 0 0
    0 0 0 0 0 0 0 0 0 0 0 0 0 0 0 0 0 0 0 0 0 0 0 0 0 0 0 0 0 0 0 0 0 0 0 0 0 0 0 0 0 0 0 0 0 0 0 0 0 0 0 0 0 0 0 0 0 0 0 0 0 0 0 0 0 0 0 0 0 1226 1226 1226 1226 1226 1247 1226 1247 1187 1168 1187 1206 1314 1314 1291 1291 1314 1291 1338 1338 1388 1314 1338 1415 1388 1362 1314 1291 1291 1247 1247 1247 1226 1206 1187 1206 1206 1226 1291 1268 1247 1247 1247 1247 1247 1268 1268 1247 1291 1338 1362 1415 1565 1599 1672 0 3345 3679 4329 4906 4906 5256 5256 5661 5661 5256 4906 5256 5256 4599 4906 4906 4329 4599 4329 4329 4599 4329 4088 3679 3679 3504 3345 3504 3504 3873 3504 3679 3679 3679 3873 3873 3873 3873 3504 3873 3504 3679 4599 4599 4088 3345 3199 3066 3679 3345 3679 3873 3873 3873 4599 4906 6133 4599 5661 4906 3504 4088 4088 3504 3679 3504 3504 3199 3066 3066 2299 1795 1672 1635 1501 1533 1533 1533 1533 1565 1533 1565 1471 1471 1226 1082 1082 1022 931 968 968 931 968 955 981 968 968 994 968 968 994 955 968 931 876 908 886 931 876 845 817 782 766 758 766 782 774 743 728 0 0 0 0 0 593 584 588 593 598 603 0 603 598 561 588 588 588 557 579 574 574 574 584 561 561 561 0 0 504 0 0 484 477 477 474 484 484 484 484 487 481 481 477 477 459 440 438 432 432 430 430 420 418 415 413 411 408 0 0 0 0 0 391 385 381 381 387 381 373 371 0 0 0 0 0
    0 0 0 0 0 0 0 0 0 0 0 0 0 0 0 0 0 0 0 0 0 0 0 0 0 0 0 0 0 0 0 0 0 0 0 0 0 0 0 0 0 0 0 0 0 0 0 0 0 0 0 0 0 0 0 0 0 0 0 0 0 0 0 0 0 0 0 0 0 1226 1226 1226 1226 1247 1247 1247 1268 1206 1132 1149 1168 1291 1268 1247 1226 1291 1268 1338 1388 1388 1338 0 1362 1338 1338 1247 1226 1247 1168 1168 1168 1115 1132 1115 1132 1168 1187 1247 1226 1206 1226 1226 1226 1226 1247 1247 1226 1268 1314 1362 1415 1533 1565 1672 1752 0 3504 4088 4906 4599 4906 5256 5661 5661 5256 4599 4906 4906 4599 4906 4599 4088 4329 4088 4088 4329 4088 3679 3504 3504 3345 3345 3345 3345 3679 3504 3679 3679 3679 3679 3679 3679 3679 3345 3504 3199 3199 3679 3873 3504 3066 2943 2830 3504 3345 3679 3679 3679 3679 4599 4599 5661 4329 5661 4906 3679 4088 4088 3679 3679 3679 3504 3345 3199 3066 2299 1795 1635 1635 1501 1533 1533 1533 1565 1565 1533 1565 1471 1443 1268 0 1132 1051 955 981 981 955 981 981 994 981 981 1008 981 968 994 955 955 943 886 931 908 943 908 865 836 791 782 774 774 782 774 774 774 826 0 663 613 0 0 0 0 0 623 0 629 608 603 561 588 588 588 561 579 579 579 574 588 561 561 561 0 533 500 490 487 490 484 484 474 487 487 487 487 487 484 484 484 487 474 454 448 443 438 0 432 422 422 418 415 413 408 404 399 402 0 0 389 385 377 377 381 377 371 367 0 0 0 0 0
    0 0 0 0 0 0 0 0 0 0 0 0 0 0 0 0 0 0 0 0 0 0 0 0 0 0 0 0 0 0 0 0 0 0 0 0 0 0 0 0 0 0 0 0 0 0 0 0 0 0 0 0 0 0 0 0 0 0 0 0 0 0 0 0 0 0 0 0 0 1226 1226 1226 1226 1226 1247 1247 1268 1187 1098 1098 1082 1168 1226 1187 1149 1098 1115 0 1443 1388 1314 1187 1268 1149 1206 1168 1149 1168 1098 1115 1098 1066 1132 1115 1132 1168 1168 1247 1206 1168 1206 1187 1187 1206 1206 1206 1206 1247 1314 1362 1415 1501 1501 1599 1711 1795 3345 3679 4599 4329 4906 4906 5256 5661 4906 4599 4906 4599 4599 4599 4599 4088 4088 3873 4088 4088 4088 3679 3504 3345 3199 3199 3345 3345 3504 3345 3504 3504 3504 3679 3504 3504 3504 3199 3345 3199 3066 3504 3504 3199 2725 2628 2628 3345 3199 3504 3679 3679 3679 4329 4599 6133 4599 6133 4906 3679 4088 4088 3679 3873 3679 3679 3345 3199 2943 2164 1752 1599 1635 1533 1565 1533 1533 1565 1565 1533 1565 1471 1443 0 0 1168 1066 968 1008 994 968 994 994 994 994 981 1008 981 981 981 955 943 943 886 931 908 943 886 845 845 817 808 817 799 799 799 808 799 836 845 714 0 0 0 0 0 663 669 645 663 623 608 561 593 588 588 561 579 579 579 574 588 561 561 561 0 533 504 493 490 490 487 484 471 487 487 487 487 490 487 487 487 497 474 454 448 446 0 0 435 430 427 425 422 418 413 418 0 0 0 0 0 0 373 0 0 367 367 366 0 0 0 0 0
    0 0 0 0 0 0 0 0 0 0 0 0 0 0 0 0 0 0 0 0 0 0 0 0 0 0 0 0 0 0 0 0 0 0 0 0 0 0 0 0 0 0 0 0 0 0 0 0 0 0 0 0 0 0 0 0 0 0 0 0 0 0 0 0 0 0 0 0 0 1206 1226 1247 1226 1226 1247 1247 1268 1168 1082 1066 1036 1066 1149 1115 1098 0 1051 1314 0 0 1268 1022 1132 1098 1115 1115 1115 1149 1082 1082 1082 1051 1082 1082 1066 1115 1115 1206 1168 1149 1187 1168 1187 1187 1187 1206 1206 1268 1314 1362 1415 1471 1471 1565 1672 1711 0 3679 4088 4088 4599 4599 5256 5256 4906 4088 4088 4088 4088 4088 3873 3504 3504 3504 3504 3873 3873 3504 3504 3345 3066 3066 3199 3345 3504 3345 3345 3345 3504 3679 3504 3504 3504 3199 3345 3504 3504 3873 3679 3345 2725 2453 2537 3199 3066 3504 3504 3679 3679 4329 4599 5661 4599 5661 4599 3504 3873 4088 3679 3873 3873 3873 3504 3345 3066 1989 1752 1599 1635 1533 1533 1533 1533 1565 1565 1533 1565 1471 1443 0 0 0 1066 981 1008 994 994 1008 1008 1008 1008 981 1008 981 968 981 955 931 943 886 931 908 931 876 855 845 826 808 808 799 791 782 791 782 799 808 766 0 0 0 0 714 694 681 663 663 618 608 561 588 588 584 557 579 574 579 574 584 557 557 557 0 529 497 493 493 497 493 493 484 493 490 493 493 493 490 490 490 504 474 451 448 443 0 0 435 427 422 418 420 411 0 0 0 0 0 0 0 443 0 0 0 0 0 0 0 0 0 0 0
    0 0 0 0 0 0 0 0 0 0 0 0 0 0 0 0 0 0 0 0 0 0 0 0 0 0 0 0 0 0 0 0 0 0 0 0 0 0 0 0 0 0 0 0 0 0 0 0 0 0 0 0 0 0 0 0 0 0 0 0 0 0 0 0 0 0 0 0 0 1206 1247 1268 1247 1247 1247 1247 1247 1168 1082 1051 1036 1051 1115 1115 1082 1022 1008 1008 994 1066 1082 1022 1082 1082 1082 1115 1098 1115 1082 1082 1098 1036 1066 1066 1066 1098 1132 1206 1149 1149 1187 1168 1168 1187 1187 1187 1206 1268 1314 1388 1415 1471 1501 1565 1672 1752 0 3679 3873 3873 4329 4599 4906 4906 4329 3679 3679 3679 3679 3504 3504 3199 3345 3199 3345 3504 3504 3504 3345 3199 2943 2943 3066 3066 3199 3199 3066 3345 3345 3679 3504 3504 3504 3345 3345 3873 4088 4329 3873 3345 2830 2374 2537 3066 3066 3345 3504 3679 3679 4329 4599 5661 4906 5661 4599 3345 3504 4088 3504 3679 3504 3679 3345 3199 2725 1752 1711 1565 1635 1565 1565 1533 1533 1565 1565 1501 1533 1443 1415 0 0 0 1082 994 1022 1008 1008 1008 1008 1008 1008 981 994 981 968 968 955 919 931 886 919 908 931 876 845 826 808 791 782 782 782 766 774 758 782 791 766 750 774 782 750 728 714 694 657 634 603 593 557 588 584 579 557 574 574 574 570 584 553 553 549 0 521 493 493 493 500 500 500 490 500 497 497 497 500 493 497 493 514 481 459 457 448 0 0 435 432 427 422 0 406 0 0 0 0 0 0 0 0 0 0 0 362 364 364 0 0 0 0 0
    0 0 0 0 0 0 0 0 0 0 0 0 0 0 0 0 0 0 0 0 0 0 0 0 0 0 0 0 0 0 0 0 0 0 0 0 0 0 0 0 0 0 0 0 0 0 0 0 0 0 0 0 0 0 0 0 0 0 0 0 0 0 0 0 0 0 0 0 0 1168 1226 1247 1247 1226 1226 1226 1206 1149 1066 1036 1036 1066 1082 1098 1066 1036 1022 1022 994 1022 1022 1008 1066 1066 1066 1082 1082 1098 1066 1066 1082 1022 1036 1051 1051 1066 1115 1187 1132 1168 1187 1168 1187 1206 1206 1206 1206 1291 1314 1388 1443 1471 1501 1599 1672 1752 3504 3679 3873 3873 4088 4329 4599 4599 3679 3345 3345 3504 3504 3199 3199 3066 3066 3066 3066 3199 3199 3199 3345 3199 2943 2943 2943 3066 3066 3066 2943 3199 3345 4329 3679 3873 3873 3504 3873 4599 5256 5661 4599 3504 2725 2230 2374 2943 2943 3345 3504 3504 3504 4088 4329 5256 4906 5256 3679 3066 3345 3679 3199 3066 3066 2830 2725 2725 1887 1711 1711 1565 1635 1565 1565 1533 1533 1533 1533 1443 1471 1415 1388 0 0 1247 1115 1022 1022 1008 1008 1008 1008 994 994 968 981 968 955 955 943 908 931 886 919 897 919 876 845 826 791 774 766 766 774 758 774 758 774 774 750 758 774 743 750 721 707 687 663 639 613 603 557 588 584 579 561 574 574 570 570 579 553 549 545 0 521 493 493 490 497 497 497 490 497 497 500 497 504 493 497 493 511 481 468 462 459 446 454 446 0 430 0 0 0 0 0 0 0 0 0 0 0 0 0 0 364 364 364 0 0 0 0 0
    0 0 0 0 0 0 0 0 0 0 0 0 0 0 0 0 0 0 0 0 0 0 0 0 0 0 0 0 0 0 0 0 0 0 0 0 0 0 0 0 0 0 0 0 0 0 0 0 0 0 0 0 0 0 0 0 0 0 0 0 0 0 0 0 0 0 0 0 0 1168 1206 1247 1226 1187 1206 1206 1168 1132 1082 1051 1036 1066 1066 1066 1066 1066 1051 1051 1051 1082 1066 1022 1066 1066 1051 1051 1051 1051 1036 1022 1036 994 994 1008 1008 1051 1098 1187 1115 1168 1187 1168 1187 1206 1206 1226 1226 1291 1314 1415 1471 1501 1501 1599 1672 1711 0 3504 3679 3679 3873 4088 4088 4088 3345 3066 3199 3199 3199 2830 2943 2830 2830 2830 2830 2943 2943 2943 3199 3199 2830 3066 3066 3066 3066 2943 3066 3199 3345 6133 0 6690 6690 4906 5661 6133 7359 8177 6690 3679 2374 2164 2299 2830 2830 3345 3345 3345 3345 3873 4329 5661 4906 5661 3199 2628 2830 3066 2830 2628 2453 2299 2230 2374 1936 1752 1752 1635 1635 1599 1599 1533 1501 1501 1471 1415 1415 1388 1362 0 0 1268 1168 1051 1036 1022 1022 994 1008 981 981 955 968 955 931 931 931 897 919 886 908 886 908 865 836 826 791 774 766 766 774 758 774 758 766 758 735 721 700 687 694 687 675 663 645 629 618 608 566 588 588 584 566 574 574 574 570 579 557 553 549 0 521 497 497 493 500 497 497 490 497 493 497 497 504 493 497 493 507 481 474 465 468 465 474 474 0 0 0 0 0 0 391 387 385 383 381 375 377 0 367 0 366 364 0 0 0 0 0 0
    0 0 0 0 0 0 0 0 0 0 0 0 0 0 0 0 0 0 0 0 0 0 0 0 0 0 0 0 0 0 0 0 0 0 0 0 0 0 0 0 0 0 0 0 0 0 0 0 0 0 0 0 0 0 0 0 0 0 0 0 0 0 0 0 0 0 0 0 0 1149 1187 1268 1206 1187 1187 1206 1132 1098 1082 1066 1051 1066 1066 1051 1036 1036 1036 1008 1008 1022 1022 1022 1051 1051 1036 1051 1051 1051 1036 1036 1036 994 981 994 994 1051 1082 1149 1098 1149 1187 1168 1187 1206 1226 1226 1226 1291 1314 1415 1471 1471 1533 1599 1672 1672 0 3199 3345 3345 3504 3873 3504 3504 2943 2628 2725 2628 2537 2164 2453 2230 2374 2374 2374 2374 2537 2628 3199 3199 2830 3066 2943 2943 3066 3066 3504 3504 3504 0 0 0 0 8177 6690 6133 0 0 0 3199 0 2102 2164 2537 2628 3066 3345 3345 3199 3679 4088 5661 5256 4906 157 2453 2453 2725 2725 2453 2374 2164 2164 2102 1795 1711 1752 1635 1635 1599 1599 1501 1471 1471 1443 1388 1362 1362 1338 1291 0 1247 1187 1082 1051 1036 1022 994 994 981 968 955 955 943 919 931 931 897 931 886 919 886 897 865 836 826 808 791 782 774 782 766 766 766 766 750 728 714 694 681 681 675 651 639 629 623 613 603 570 588 588 584 566 579 574 574 570 579 557 553 553 0 525 500 500 493 500 497 497 490 497 497 500 497 504 497 497 493 511 481 474 465 459 454 468 471 440 0 0 0 0 0 0 0 0 0 389 379 383 0 371 0 0 366 0 0 0 0 0 0
    0 0 0 0 0 0 0 0 0 0 0 0 0 0 0 0 0 0 0 0 0 0 0 0 0 0 0 0 0 0 0 0 0 0 0 0 0 0 0 0 0 0 0 0 0 0 0 0 0 0 0 0 0 0 0 0 0 0 0 0 0 0 0 0 0 0 0 0 0 1149 1187 1268 1206 1187 1187 1206 1115 1082 1098 1082 1066 1098 1082 1051 1051 1051 1051 1008 1008 1022 1022 1022 1051 1051 1051 1051 1051 1051 1036 1036 1036 994 994 994 994 1051 1082 1149 1098 1149 1187 1168 1187 1226 1226 1247 1226 1291 1314 1388 1471 1471 1533 1599 1672 1672 1711 2943 3066 3066 3199 3199 2943 2943 2725 2374 2537 2230 1989 1936 2102 1989 2044 2044 1989 1989 2164 2453 0 0 2830 3066 2943 3066 3199 3199 3679 3345 0 8177 0 0 0 0 0 0 0 0 0 0 0 0 0 0 0 0 0 0 0 0 0 0 0 0 0 0 2044 1936 2299 1989 2044 1989 1989 1887 1711 1672 1711 1635 1635 1599 1565 1533 1471 1471 1443 1362 1362 1338 1338 1291 0 0 1206 1082 1051 1036 1022 981 981 968 968 943 943 943 919 919 931 897 931 897 919 886 897 865 836 826 808 791 782 774 782 766 766 766 750 743 721 714 694 681 681 675 645 634 629 618 613 608 584 593 593 588 574 579 579 574 570 579 557 549 549 566 525 500 507 500 507 500 504 493 500 500 504 500 504 497 497 493 511 487 474 465 459 457 465 471 0 411 0 0 0 0 0 0 0 0 0 0 385 0 375 0 373 367 0 0 0 0 0 0
    0 0 0 0 0 0 0 0 0 0 0 0 0 0 0 0 0 0 0 0 0 0 0 0 0 0 0 0 0 0 0 0 0 0 0 0 0 0 0 0 0 0 0 0 0 0 0 0 0 0 0 0 0 0 0 0 0 0 0 0 0 0 0 0 0 0 0 0 0 1149 1187 1268 1206 1206 1206 1226 1132 1098 1132 1115 1098 1132 1098 1066 1051 1066 1066 1008 1008 1022 1022 1022 1051 1051 1036 1051 1051 1036 1036 1036 1022 994 994 994 981 1051 1082 1132 1098 1149 1187 1168 1187 1226 1226 1247 1247 1291 1314 1388 1443 1471 1501 1565 1599 1635 1711 2537 2628 2830 2943 2725 2537 2453 2299 2044 2164 1936 1795 1839 1936 1887 1887 1887 1887 1887 2044 0 0 0 0 0 0 0 0 0 0 0 0 0 0 0 0 0 0 0 0 0 0 0 0 0 0 0 0 0 0 0 0 0 0 0 0 0 0 0 0 1795 1936 1839 1887 1887 1887 1839 1711 1672 1672 1635 1635 1635 1599 1533 1443 1443 1415 1338 1338 1314 1314 1268 0 1247 1206 1098 1051 1022 1008 968 968 955 955 931 943 943 919 919 943 908 931 897 919 886 886 865 826 817 808 799 782 774 782 766 766 758 743 735 714 700 687 675 669 663 639 629 623 618 613 608 588 593 593 588 579 579 579 579 570 579 557 549 549 557 525 504 514 507 511 507 511 497 500 500 504 497 497 493 493 493 504 490 477 468 0 0 0 0 0 0 0 0 0 0 0 395 0 0 395 389 389 387 381 0 0 0 0 0 0 0 0 0
    0 0 0 0 0 0 0 0 0 0 0 0 0 0 0 0 0 0 0 0 0 0 0 0 0 0 0 0 0 0 0 0 0 0 0 0 0 0 0 0 0 0 0 0 0 0 0 0 0 0 0 0 0 0 0 0 0 0 0 0 0 0 0 0 0 0 0 0 0 1149 1187 1268 1226 1206 1226 1226 1149 1115 1168 1132 1115 1149 1098 1066 1051 1066 1066 1008 1008 1022 1022 1022 1051 1036 1036 1036 1051 1036 1036 1036 1036 1008 1008 1008 1008 1066 1098 1132 1098 1149 1187 1187 1206 1247 1247 1268 1247 1338 1338 1388 1471 1443 1471 1533 1565 1635 1672 2164 2299 2453 2725 2453 2230 2044 2102 1936 1936 1795 1711 1795 1887 1839 1839 1839 1839 1887 2044 0 0 0 0 0 0 0 0 0 0 0 0 0 0 0 0 0 0 0 0 0 0 0 0 0 0 0 0 0 0 0 0 0 0 0 0 0 0 0 0 0 1839 1752 1795 1839 1839 1795 1672 1672 1672 1672 1672 1635 1599 1533 1443 1443 1388 1314 1314 1314 1291 1268 1206 1226 1187 1098 1036 1022 1008 943 968 943 943 931 931 943 908 919 943 908 931 897 908 886 886 865 826 817 808 799 774 774 774 758 758 750 735 728 714 694 681 669 657 651 634 629 623 618 613 608 588 593 593 588 579 579 579 579 570 584 561 549 553 570 525 507 518 504 511 507 511 497 497 500 500 493 497 493 493 493 500 493 474 462 0 0 0 0 0 0 0 0 0 0 0 397 395 395 397 393 393 393 385 389 0 0 0 0 0 0 0 0
    0 0 0 0 0 0 0 0 0 0 0 0 0 0 0 0 0 0 0 0 0 0 0 0 0 0 0 0 0 0 0 0 0 0 0 0 0 0 0 0 0 0 0 0 0 0 0 0 0 0 0 0 0 0 0 0 0 0 0 0 0 0 0 0 0 0 0 0 0 1149 1187 1268 1226 1206 1206 1206 1132 1098 1149 1132 1115 1149 1098 1066 1051 1082 1066 1008 1008 1022 1022 1022 1051 1036 1036 1036 1051 1036 1036 1051 1051 1008 1008 994 994 1066 1098 1115 1082 1132 1168 1168 1187 1247 1247 1268 1268 1338 1338 1388 1471 1443 1471 1471 1533 1599 1635 2102 2164 2230 2537 2374 2164 1989 2044 1887 1887 1752 1711 1752 1839 1795 1795 1795 1839 1887 1989 0 0 0 0 0 0 0 0 0 0 0 0 0 0 0 0 0 0 0 0 0 0 0 0 0 0 0 0 0 0 0 0 0 0 0 0 0 0 0 0 0 0 1711 1752 1795 1795 1752 1672 1672 1672 1672 1711 1672 1635 1501 1415 1415 1338 1291 1268 1268 1247 1226 1168 1187 1168 1082 1008 1008 994 931 955 943 931 919 919 943 897 908 943 908 919 897 897 886 886 865 826 817 799 791 774 766 774 750 750 735 721 707 700 694 681 669 663 657 639 629 623 618 613 608 593 598 598 588 584 584 584 584 570 584 561 553 549 561 525 511 521 507 507 504 504 497 497 500 500 490 490 493 493 490 497 0 477 0 0 0 0 0 0 0 402 406 406 0 0 397 395 399 397 395 395 395 389 391 0 0 0 0 0 0 0 0
    0 0 0 0 0 0 0 0 0 0 0 0 0 0 0 0 0 0 0 0 0 0 0 0 0 0 0 0 0 0 0 0 0 0 0 0 0 0 0 0 0 0 0 0 0 0 0 0 0 0 0 0 0 0 0 0 0 0 0 0 0 0 0 0 0 0 0 0 0 1132 1168 1247 1206 1187 1187 1206 1115 1098 1149 1149 1115 1168 1132 1082 1066 1098 1082 1022 1022 1022 1022 1022 1036 1036 1036 1036 1036 1036 1036 1036 1036 1008 1008 994 994 1082 1132 1132 1082 1132 1168 1168 1187 1268 1268 1268 1268 1314 1338 1362 1471 1443 1443 1471 1533 1599 1635 1887 1989 2044 2102 2102 1989 1936 1936 1839 1795 1711 1635 1635 1752 1711 1711 1711 1752 1795 1887 0 0 0 0 0 0 0 0 0 0 0 0 0 0 0 0 0 0 0 0 0 0 0 0 0 0 0 0 0 0 0 0 0 0 0 0 0 0 0 0 0 0 0 1635 1711 1752 1711 1672 1672 1672 1672 1672 1672 1635 1533 1415 1415 1338 1291 1268 1247 1226 1206 1149 1168 1132 1082 1008 1008 981 931 955 943 943 919 919 943 897 908 943 908 908 897 897 876 886 865 826 817 808 799 782 774 774 750 743 714 707 694 687 687 675 669 663 657 639 634 629 623 618 613 603 598 598 593 588 584 584 584 570 584 561 549 549 545 521 511 518 504 497 497 497 493 490 497 497 490 490 493 493 490 497 0 0 0 0 0 0 0 395 397 399 404 404 0 0 0 397 402 397 397 397 397 391 0 0 0 0 0 0 0 0 0
    0 0 0 0 0 0 0 0 0 0 0 0 0 0 0 0 0 0 0 0 0 0 0 0 0 0 0 0 0 0 0 0 0 0 0 0 0 0 0 0 0 0 0 0 0 0 0 0 0 0 0 0 0 0 0 0 0 0 0 0 0 0 0 0 0 0 0 0 0 1115 1132 1206 1149 1132 1168 1187 1098 1082 1168 1149 1132 1168 1149 1098 1082 1149 1115 1036 1022 1036 1022 1022 1036 1036 1022 1022 1036 1022 1022 1036 1036 1008 1022 994 994 1098 1149 1149 1098 1132 1187 1187 1206 1268 1268 1268 1268 1314 1314 1362 1443 1388 1443 1471 1501 1565 1599 1795 1839 1887 1936 1936 1887 1795 1795 1752 1672 1565 1471 1501 1565 1565 1565 1635 1672 1711 0 0 0 0 0 0 0 0 0 0 0 0 0 0 0 0 0 0 0 0 0 0 0 0 0 0 0 0 0 0 0 0 0 0 0 0 0 0 0 0 0 0 0 0 0 0 0 1672 1635 1635 1635 1635 1635 1635 1599 1501 1415 1415 1338 1314 1247 1226 1226 1206 1149 1149 1132 1082 1008 1008 981 931 955 943 943 931 931 955 908 931 955 919 919 897 908 886 886 876 826 826 817 808 791 782 774 750 735 707 700 681 681 681 669 663 663 657 645 634 634 629 623 613 603 598 598 593 588 584 584 584 570 584 570 549 549 545 525 525 525 514 497 493 493 490 487 493 493 487 487 493 493 490 497 0 477 0 0 0 0 0 397 399 404 406 406 411 0 404 404 408 406 404 402 0 0 0 0 0 0 0 0 0 0 0
    0 0 0 0 0 0 0 0 0 0 0 0 0 0 0 0 0 0 0 0 0 0 0 0 0 0 0 0 0 0 0 0 0 0 0 0 0 0 0 0 0 0 0 0 0 0 0 0 0 0 0 0 0 0 0 0 0 0 0 0 0 0 0 0 0 0 0 0 0 1082 1098 1168 1098 1082 1098 1132 1066 1051 1115 1115 1115 1168 1149 1082 1066 1149 1115 1036 1036 1036 1022 1022 1022 1022 1022 1022 1022 1008 1022 1022 1022 1022 1022 1008 1008 1115 1149 1149 1115 1149 1187 1187 1206 1268 1247 1247 1268 1291 1314 1338 1415 1388 1415 1443 1471 1501 1565 1711 1752 1795 1839 1839 1795 1711 1752 1672 1635 1471 1415 1415 1471 1471 1533 1565 1599 1635 0 0 0 0 0 0 0 0 0 0 0 0 0 0 0 0 0 0 0 0 0 0 0 0 0 0 0 0 0 0 0 0 0 0 0 0 0 0 0 0 0 0 0 0 0 0 0 0 1501 1533 1533 1565 1533 1533 1533 1471 1415 1415 1338 1314 1247 1226 1226 1206 1149 1132 1132 1082 1022 1008 981 943 968 968 968 943 943 968 931 943 968 931 919 897 908 886 886 876 826 826 817 817 799 791 782 758 735 700 694 675 675 675 663 657 663 651 639 634 629 629 618 613 603 598 598 593 593 584 584 584 574 579 574 545 537 537 525 529 529 521 500 497 490 490 487 493 493 487 484 497 500 493 504 0 0 0 0 0 0 0 0 0 408 408 411 415 406 408 411 418 415 415 408 0 0 0 0 0 0 0 0 0 0 0
    0 0 0 0 0 0 0 0 0 0 0 0 0 0 0 0 0 0 0 0 0 0 0 0 0 0 0 0 0 0 0 0 0 0 0 0 0 0 0 0 0 0 0 0 0 0 0 0 0 0 0 0 0 0 0 0 0 0 0 0 0 0 0 0 0 0 0 0 0 1066 1082 1132 1082 1066 1082 1098 1051 1051 1098 1098 1098 1132 1115 1082 1051 1082 1066 1008 1008 994 994 994 1008 1008 994 1008 1022 1022 1022 1036 1036 1036 1036 1036 1022 1132 1149 1149 1115 1149 1187 1187 1206 1268 1247 1247 1268 1291 1291 1314 1388 1362 1388 1443 1443 1471 1599 1672 1795 1795 1839 1839 1752 1672 1711 1635 1565 1443 1388 1415 1443 1471 1501 1533 1565 0 0 0 0 0 0 0 0 0 0 0 0 0 0 0 0 0 0 0 0 0 0 0 0 0 0 0 0 0 0 0 0 0 0 0 0 0 0 0 0 0 0 0 0 0 0 0 0 0 0 0 1443 1471 1471 1443 1443 1415 1388 1388 1362 1314 1268 1226 1226 1206 1149 1115 1132 1066 1022 1008 994 955 981 981 981 955 955 981 943 955 981 931 908 897 897 886 886 876 826 826 817 817 808 799 782 766 743 700 687 681 675 681 669 663 663 651 645 639 634 629 618 608 608 593 598 588 588 584 579 588 574 574 570 541 537 541 533 533 529 521 504 497 490 490 487 493 490 487 487 497 500 500 511 549 0 634 0 0 0 0 0 0 413 418 418 422 411 413 413 420 415 0 408 0 0 0 0 0 0 0 0 0 0 0
    0 0 0 0 0 0 0 0 0 0 0 0 0 0 0 0 0 0 0 0 0 0 0 0 0 0 0 0 0 0 0 0 0 0 0 0 0 0 0 0 0 0 0 0 0 0 0 0 0 0 0 0 0 0 0 0 0 0 0 0 0 0 0 0 0 0 0 0 0 1066 1082 1115 1082 1066 1066 1082 1066 1066 1098 1098 1098 1115 1115 1082 1051 1098 1082 1036 1022 1022 1008 994 1008 1008 994 1008 1008 1022 1022 1036 1051 1036 1051 1036 1036 1115 1132 1132 1132 1132 1187 1187 1206 1268 1247 1268 1268 1268 1291 1291 1362 1338 1362 1388 1415 1443 1635 1501 1795 1795 1795 1711 1635 1565 1635 1533 1471 1415 1388 1388 1415 1443 1471 1501 0 0 0 0 0 0 0 0 0 0 0 0 0 0 0 0 0 0 0 0 0 0 0 0 0 0 0 0 0 0 0 0 0 0 0 0 0 0 0 0 0 0 0 0 0 0 0 0 0 0 0 0 0 1415 1415 1415 1388 1362 1338 1338 1314 1291 1268 1206 1206 1187 1149 1098 1115 1066 1022 1008 994 968 994 994 994 968 968 994 955 968 981 931 886 886 886 876 876 876 826 826 817 826 808 799 774 750 735 694 687 681 681 681 675 663 669 657 651 645 639 634 618 613 613 598 603 593 593 584 579 588 584 579 557 537 533 533 529 533 525 518 504 493 490 493 484 490 490 484 487 497 500 500 511 537 541 0 0 0 0 0 0 0 0 0 0 0 0 0 0 0 0 0 0 0 0 0 0 0 0 0 0 0 0 0
    0 0 0 0 0 0 0 0 0 0 0 0 0 0 0 0 0 0 0 0 0 0 0 0 0 0 0 0 0 0 0 0 0 0 0 0 0 0 0 0 0 0 0 0 0 0 0 0 0 0 0 0 0 0 0 0 0 0 0 0 0 0 0 0 0 0 0 0 0 1066 1082 1098 1082 1066 1066 1082 1066 1066 1098 1098 1098 1115 1115 1098 1051 1098 1051 1022 1008 1008 1008 994 1008 1008 994 1008 1008 1022 1022 1022 1036 1036 1036 1036 1036 1115 1098 1098 1115 1115 1168 1168 1206 1247 1226 1247 1247 1247 1268 1291 1338 1338 1362 1388 1415 1471 1443 1415 1672 1711 1635 1501 1443 1443 1443 1415 1415 1362 1362 1362 1415 1443 1471 0 0 0 0 0 0 0 0 0 0 0 0 0 0 0 0 0 0 0 0 0 0 0 0 0 0 0 0 0 0 0 0 0 0 0 0 0 0 0 0 0 0 0 0 0 0 0 0 0 0 0 0 0 0 0 1268 1268 1314 1268 1268 1268 1247 1247 1226 1187 1187 1168 1132 1082 1098 1066 1022 1008 994 968 994 994 1008 981 981 1008 955 968 981 943 886 886 876 876 886 886 826 826 826 826 808 799 774 743 728 687 681 675 675 681 669 663 663 657 651 651 645 639 623 618 613 603 603 593 593 584 579 588 584 579 557 541 533 533 529 529 521 511 497 490 490 493 484 487 487 484 487 497 500 500 507 533 525 525 0 579 0 0 0 0 0 0 0 0 0 0 0 0 0 943 0 0 0 0 0 0 0 0 0 0 0 0
    0 0 0 0 0 0 0 0 0 0 0 0 0 0 0 0 0 0 0 0 0 0 0 0 0 0 0 0 0 0 0 0 0 0 0 0 0 0 0 0 0 0 0 0 0 0 0 0 0 0 0 0 0 0 0 0 0 0 0 0 0 0 0 0 0 0 0 0 0 1066 1082 1098 1066 1051 1051 1066 1051 1051 1066 1082 1066 1098 1098 1082 1036 1051 1022 1022 1008 0 0 0 5 1022 1022 1022 1022 1036 1036 1051 1036 1036 1036 1022 1036 1098 1082 1098 1115 1115 1132 1149 1187 1206 1187 1226 1226 1226 1268 1291 1338 1338 1388 1415 1533 1565 1362 1388 1565 1533 1415 1362 1338 1338 1338 1362 1362 1338 1314 1362 1388 1443 1471 0 0 0 0 0 0 0 0 0 0 0 0 0 0 0 0 0 0 0 0 0 0 0 0 0 0 0 0 0 0 0 0 0 0 0 0 0 0 0 0 0 0 0 0 0 0 0 0 0 0 0 0 0 0 0 1168 1168 1226 1187 1187 1206 1206 1206 1206 1168 1149 1149 1115 1082 1098 1051 1022 1008 994 968 994 994 1008 981 981 1008 955 968 981 931 876 886 886 876 886 897 836 836 826 836 817 808 782 743 735 694 687 681 675 681 669 663 669 663 657 657 645 645 629 623 618 603 603 598 598 588 579 588 588 584 566 541 529 529 529 529 521 504 493 487 487 490 484 484 487 484 490 500 504 504 511 529 525 525 533 553 0 0 0 0 0 0 545 0 0 0 0 0 0 0 0 0 0 0 0 0 0 0 0 0 0 0
    0 0 0 0 0 0 0 0 0 0 0 0 0 0 0 0 0 0 0 0 0 0 0 0 0 0 0 0 0 0 0 0 0 0 0 0 0 0 0 0 0 0 0 0 0 0 0 0 0 0 0 0 0 0 0 0 0 0 0 0 0 0 0 0 0 0 0 0 0 1066 1082 1098 1066 1051 1051 1051 1036 1051 1066 1066 1066 1082 1082 1082 1036 1051 1022 1022 1022 1008 994 1008 1022 1022 1022 1036 1036 1036 1036 1051 1036 1036 1022 1022 1022 1082 1082 1098 1115 1098 1115 1132 1168 1187 1168 1206 1206 1206 1247 1247 1291 1268 1314 1362 1471 1362 1338 1362 1443 1388 1314 1291 1291 1291 1291 1291 1314 1291 1291 1338 1388 1443 0 0 0 0 0 0 0 0 0 0 0 0 0 0 0 0 0 0 0 0 0 0 0 0 0 0 0 0 0 0 0 0 0 0 0 0 0 0 0 0 0 0 0 0 0 0 0 0 0 0 0 0 0 0 0 0 1149 1149 1187 1149 1132 1168 1187 1187 1187 1149 1132 1132 1115 1082 1082 1051 1022 1008 994 968 994 994 1008 981 981 1008 943 968 981 931 876 886 886 876 886 897 836 836 826 845 826 808 791 758 743 707 694 681 675 681 669 663 669 663 663 663 657 651 634 629 623 608 608 603 598 588 579 579 579 570 561 541 533 529 529 529 521 514 500 493 493 497 490 490 490 487 493 504 507 504 511 525 525 525 533 0 0 0 0 0 0 0 537 0 0 0 0 0 0 0 0 0 0 0 0 0 0 0 0 0 0 0
    0 0 0 0 0 0 0 0 0 0 0 0 0 0 0 0 0 0 0 0 0 0 0 0 0 0 0 0 0 0 0 0 0 0 0 0 0 0 0 0 0 0 0 0 0 0 0 0 0 0 0 0 0 0 0 0 0 0 0 0 0 0 0 0 0 0 0 0 0 1066 1066 1098 1051 1051 1051 1051 1036 1036 1051 1066 1051 1066 1082 1066 1036 1051 1022 1036 1022 1022 1008 1022 1022 1022 1022 1036 1036 1036 1036 1036 1036 1022 1022 1008 1022 1066 1066 1082 1098 1098 1115 1132 1168 1187 1168 1206 1206 1187 1226 1226 1247 1226 1247 1268 1247 1206 1291 1338 1388 0 1247 1226 1247 1247 1268 1268 1268 1268 1291 1314 1362 0 0 0 0 0 0 0 0 0 0 0 0 0 0 0 0 0 0 0 0 0 0 0 0 0 0 0 0 0 0 0 0 0 0 0 0 0 0 0 0 0 0 0 0 0 0 0 0 0 0 0 0 0 0 0 0 0 1132 1149 1187 1149 1098 1168 1168 1168 1168 1132 1132 1115 1115 1082 1082 1051 1022 1022 1008 981 1008 1008 1008 981 994 1008 955 968 981 943 886 886 886 886 886 897 845 836 826 836 826 808 782 766 750 714 700 687 687 687 675 663 669 663 663 663 657 651 634 629 623 608 608 603 598 588 574 579 574 570 557 537 525 525 525 525 518 511 504 497 497 500 493 493 493 490 493 500 500 504 507 525 521 521 525 0 0 0 0 454 448 462 477 465 0 0 430 0 0 0 0 0 0 481 481 477 462 0 0 0 0 0
    0 0 0 0 0 0 0 0 0 0 0 0 0 0 0 0 0 0 0 0 0 0 0 0 0 0 0 0 0 0 0 0 0 0 0 0 0 0 0 0 0 0 0 0 0 0 0 0 0 0 0 0 0 0 0 0 0 0 0 0 0 0 0 0 0 0 0 0 0 1066 1082 1115 1066 1051 1051 1051 1036 1036 1051 1051 1051 1051 1051 1051 1022 1022 1008 1022 1022 1008 994 1008 1022 1022 1022 1036 1036 1036 1036 1051 1036 1022 1008 1008 1022 1051 1051 1066 1098 1098 1115 1132 1168 1168 1168 1206 1187 1187 1187 1226 1206 1168 1206 1187 1098 1115 1226 1314 1268 1187 1168 1168 1187 1206 1226 1247 1226 1247 1268 1291 0 0 0 0 0 0 0 0 0 0 0 0 0 0 0 0 0 0 0 0 0 0 0 0 0 0 0 0 0 0 0 0 0 0 0 0 0 0 0 0 0 0 0 0 0 0 0 0 0 0 0 0 0 0 0 0 0 0 1115 1149 1168 1132 1098 1149 1168 1149 1168 1132 1115 1115 1115 1082 1098 1066 1036 1022 1022 994 1022 1008 1008 981 994 1008 955 968 981 943 886 897 886 886 876 897 836 826 826 826 826 808 791 774 766 728 707 700 694 694 681 669 669 669 663 663 651 645 629 623 623 608 608 603 598 588 584 579 574 570 561 545 541 533 533 529 521 514 504 497 493 497 490 490 490 487 493 490 493 493 490 497 490 490 490 477 477 468 465 457 446 451 462 454 435 435 432 427 0 0 0 0 0 0 0 471 454 0 0 0 0 0
    0 0 0 0 0 0 0 0 0 0 0 0 0 0 0 0 0 0 0 0 0 0 0 0 0 0 0 0 0 0 0 0 0 0 0 0 0 0 0 0 0 0 0 0 0 0 0 0 0 0 0 0 0 0 0 0 0 0 0 0 0 0 0 0 0 0 0 0 0 1066 1082 1132 1066 1066 1066 1066 1051 1051 1066 1066 1051 1051 1051 1036 994 1008 994 1008 1008 1008 994 1008 1008 1022 1022 1036 1036 1036 1036 1051 1022 1022 1008 1008 994 1036 1036 1051 1082 1098 1098 1132 1149 1168 1168 1206 1187 1168 1187 1226 1168 1098 1051 1066 1082 1051 1098 1066 1082 1066 1082 1098 1115 1149 1187 1187 1206 1247 1247 1291 0 0 0 0 0 0 0 0 0 0 0 0 0 0 0 0 0 0 0 0 0 0 0 0 0 0 0 0 0 0 0 0 0 0 0 0 0 0 0 0 0 0 0 0 0 0 0 0 0 0 0 0 0 0 0 0 0 0 0 1132 1149 1098 1082 1115 1132 1115 1149 1115 1098 1082 1098 1082 1082 1051 1022 1022 1022 994 1022 1008 1008 981 981 994 955 955 981 931 886 886 886 876 865 886 836 826 826 826 826 808 799 782 782 750 728 714 707 700 687 675 669 675 663 669 645 639 629 623 618 608 608 603 593 588 584 579 574 570 557 545 545 537 537 533 525 521 514 504 500 500 493 490 490 487 490 484 484 484 477 477 477 474 474 471 471 462 462 459 451 454 459 451 435 432 427 422 418 0 0 418 0 0 0 440 435 0 0 0 0 0
    0 0 0 0 0 0 0 0 0 0 0 0 0 0 0 0 0 0 0 0 0 0 0 0 0 0 0 0 0 0 0 0 0 0 0 0 0 0 0 0 0 0 0 0 0 0 0 0 0 0 0 0 0 0 0 0 0 0 0 0 0 0 0 0 0 0 0 0 0 1082 1115 1168 1098 1098 1082 1098 1082 1082 1082 1082 1082 1066 1066 1051 1022 1008 981 994 994 994 981 1022 1022 1022 1022 1036 1036 1036 1036 1051 1022 1022 994 994 968 994 1022 1036 1066 1082 1082 1115 1149 1168 1168 1226 1206 1187 1187 1247 1168 1082 1066 1082 1082 1051 1066 994 1022 1022 1036 1051 1082 1115 1132 1149 1187 1226 1247 0 0 0 0 0 0 0 0 0 0 0 0 0 0 0 0 0 0 0 0 0 0 0 0 0 0 0 0 0 0 0 0 0 0 0 0 0 0 0 0 0 0 0 0 0 0 0 0 0 0 0 0 0 0 0 0 0 0 0 0 1115 1132 1098 1066 1132 1132 1115 1149 1115 1098 1082 1082 1082 1066 1051 1022 1008 1008 994 1008 994 994 968 968 981 943 943 968 931 886 876 876 876 865 876 836 826 826 826 817 817 799 782 782 750 721 721 707 700 694 681 681 687 675 675 651 645 634 629 623 613 608 603 598 593 588 579 570 570 553 549 545 537 537 533 529 525 518 511 507 500 493 493 493 490 490 481 481 481 474 474 471 468 468 465 468 454 457 457 448 446 446 446 435 430 420 415 406 0 0 406 397 0 0 418 422 0 0 0 0 0
    0 0 0 0 0 0 0 0 0 0 0 0 0 0 0 0 0 0 0 0 0 0 0 0 0 0 0 0 0 0 0 0 0 0 0 0 0 0 0 0 0 0 0 0 0 0 0 0 0 0 0 0 0 0 0 0 0 0 0 0 0 0 0 0 0 0 0 0 0 1115 1132 1206 1132 1149 1132 1132 1149 1098 1115 1115 1115 1098 1082 1082 1066 1036 1008 1022 1008 994 981 1036 1036 1036 1051 1066 1066 1051 1051 1082 1008 1008 981 968 943 955 994 1022 1051 1066 1082 1115 1132 1132 1168 1206 1187 1168 1187 1226 1098 1098 1082 1115 1098 1051 1036 994 994 994 1022 1036 1066 1082 1082 1098 1149 1206 0 0 0 0 0 0 0 0 0 0 0 0 0 0 0 0 0 0 0 0 0 0 0 0 0 0 0 0 0 0 0 0 0 0 0 0 0 0 0 0 0 0 0 0 0 0 0 0 0 0 0 0 0 0 0 0 0 0 0 0 0 1098 1115 1082 1051 1115 1098 1098 1132 1115 1082 1082 1082 1082 1066 1051 1022 994 994 981 981 981 981 943 955 968 943 943 968 931 897 886 897 886 876 886 845 826 826 817 817 808 791 766 766 750 728 728 721 700 694 694 687 694 675 675 645 639 639 634 629 618 613 613 603 598 593 579 570 566 553 545 541 537 533 533 533 529 521 518 514 507 497 497 497 490 490 481 481 477 471 471 468 465 465 462 468 451 451 451 443 440 438 438 430 422 413 408 0 0 0 397 395 395 393 0 411 0 0 0 0 0
    0 0 0 0 0 0 0 0 0 0 0 0 0 0 0 0 0 0 0 0 0 0 0 0 0 0 0 0 0 0 0 0 0 0 0 0 0 0 0 0 0 0 0 0 0 0 0 0 0 0 0 0 0 0 0 0 0 0 0 0 0 0 0 0 0 0 0 0 0 1115 1132 1226 1168 1168 1168 1206 1226 0 1149 1187 1168 1132 0 1206 1149 0 0 1036 1022 994 968 1066 1051 1051 1066 1066 1066 1051 1051 1082 1008 994 968 943 908 919 981 1036 1051 1066 1098 1115 1115 1132 1149 1187 1149 1132 1168 1149 1082 1082 1066 1082 1036 1008 994 968 968 968 994 1022 1036 1051 1066 1082 1115 1187 0 0 0 0 0 0 0 0 0 0 0 0 0 0 0 0 0 0 0 0 0 0 0 0 0 0 0 0 0 0 0 0 0 0 0 0 0 0 0 0 0 0 0 0 0 0 0 0 0 0 0 0 0 0 0 0 0 0 0 0 0 1082 1098 1082 1036 1098 1098 1082 1115 1098 1082 1082 1066 1066 1036 1022 1008 994 981 968 968 968 968 919 943 931 931 931 955 919 908 897 908 886 876 876 836 817 808 799 799 791 774 758 758 743 728 728 728 714 714 707 700 700 681 675 645 639 634 629 629 618 613 613 603 603 598 574 566 561 553 545 541 537 537 537 537 533 525 521 514 511 504 500 504 497 493 484 481 477 471 468 465 462 459 459 465 454 451 451 446 440 438 438 427 420 411 406 397 0 395 397 395 395 393 0 413 0 0 0 0 0
    0 0 0 0 0 0 0 0 0 0 0 0 0 0 0 0 0 0 0 0 0 0 0 0 0 0 0 0 0 0 0 0 0 0 0 0 0 0 0 0 0 0 0 0 0 0 0 0 0 0 0 0 0 0 0 0 0 0 0 0 0 0 0 0 0 0 0 0 0 1132 1115 1226 1187 1149 1168 0 0 0 0 0 0 0 0 0 0 0 0 0 1036 1008 981 1051 1036 1051 1051 1066 1051 1051 1036 1051 994 968 931 919 886 897 981 1036 1051 1066 1098 1098 1098 1115 1149 1149 1115 1098 1187 1082 1098 1098 1066 1022 1008 994 981 955 955 968 981 1008 1022 1036 1051 1066 1098 0 0 0 0 0 0 0 0 0 0 0 0 0 0 0 0 0 0 0 0 0 0 0 0 0 0 0 0 0 0 0 0 0 0 0 0 0 0 0 0 0 0 0 0 0 0 0 0 0 0 0 0 0 0 0 0 0 0 0 0 0 0 0 1082 1066 1036 1098 1098 1082 1098 1098 1082 1066 1066 1051 1022 1022 1008 981 981 955 968 955 943 908 908 908 919 908 931 897 897 876 897 886 865 876 836 808 799 791 791 782 774 758 758 750 735 735 735 728 721 714 714 707 694 687 651 639 634 629 629 618 613 613 603 598 593 566 561 557 553 549 541 537 541 541 541 537 529 525 521 518 514 511 511 504 497 481 481 474 471 465 462 457 454 454 457 448 448 448 443 438 435 435 427 418 408 404 399 397 395 397 397 397 395 397 406 0 0 0 0 0
    0 0 0 0 0 0 0 0 0 0 0 0 0 0 0 0 0 0 0 0 0 0 0 0 0 0 0 0 0 0 0 0 0 0 0 0 0 0 0 0 0 0 0 0 0 0 0 0 0 0 0 0 0 0 0 0 0 0 0 0 0 0 0 0 0 0 0 0 0 1115 1098 1187 1149 1098 1098 0 0 0 0 0 0 0 0 0 0 0 0 1149 1066 1022 981 1036 1022 1022 1022 1022 1008 994 994 994 919 886 855 855 855 865 981 1022 1036 1036 1066 1066 1082 1115 1187 1115 1132 1082 1149 1115 1132 1082 1022 994 994 981 968 955 943 955 981 994 1008 1022 1036 1051 0 0 0 0 0 0 0 0 0 0 0 0 0 0 0 0 0 0 0 0 0 0 0 0 0 0 0 0 0 0 0 0 0 0 0 0 0 0 0 0 0 0 0 0 0 0 0 0 0 0 0 0 0 0 0 0 0 0 0 0 0 0 0 0 1082 1082 1051 1132 1132 1082 1115 1115 1098 1082 1066 1051 1008 1008 1008 968 955 931 955 943 931 897 897 897 908 886 919 886 886 876 897 886 876 876 845 817 799 791 799 782 774 766 758 743 735 735 728 728 728 714 707 707 694 687 651 634 634 629 629 618 618 613 603 598 593 570 561 561 553 549 541 537 537 541 537 533 529 525 521 521 518 514 507 500 493 481 474 471 468 462 462 457 451 451 454 448 448 448 443 438 435 435 427 420 411 404 397 397 393 395 395 395 395 397 402 0 0 0 0 0
    0 0 0 0 0 0 0 0 0 0 0 0 0 0 0 0 0 0 0 0 0 0 0 0 0 0 0 0 0 0 0 0 0 0 0 0 0 0 0 0 0 0 0 0 0 0 0 0 0 0 0 0 0 0 0 0 0 0 0 0 0 0 0 0 0 0 0 0 0 1098 1066 1098 1132 1082 1082 1115 0 0 1115 0 0 0 0 0 0 1314 1247 0 1098 0 1022 1036 1022 994 1008 1008 994 968 955 919 855 865 845 876 865 876 919 955 981 994 1008 1022 1022 1098 1149 1082 1115 1051 1149 1149 1115 1051 994 981 968 968 955 943 943 943 968 981 994 994 1008 1022 0 0 0 0 0 0 0 0 0 0 0 0 0 0 0 0 0 0 0 0 0 0 0 0 0 0 0 0 0 0 0 0 0 0 0 0 0 0 0 0 0 0 0 0 0 0 0 0 0 0 0 0 0 0 0 0 0 0 0 0 0 0 0 0 0 1082 1066 1132 1149 1082 1098 1132 1098 1066 1066 1036 1008 994 994 955 955 943 955 943 931 897 897 897 919 886 908 886 886 876 897 865 865 865 855 817 808 799 799 799 791 774 766 750 743 743 735 735 735 728 714 714 0 0 651 634 634 629 629 618 618 613 608 598 598 570 566 561 553 545 541 541 541 541 541 537 533 529 529 529 521 514 507 497 490 474 471 468 465 462 462 457 454 454 459 454 451 451 446 440 435 435 430 425 418 408 402 399 393 395 395 395 395 397 399 0 0 0 0 0
    0 0 0 0 0 0 0 0 0 0 0 0 0 0 0 0 0 0 0 0 0 0 0 0 0 0 0 0 0 0 0 0 0 0 0 0 0 0 0 0 0 0 0 0 0 0 0 0 0 0 0 0 0 0 0 0 0 0 0 0 0 0 0 0 0 0 0 0 0 1036 0 0 0 0 0 0 1115 0 1226 1226 1226 0 0 0 0 1362 0 0 0 0 1066 1051 1036 1022 0 994 994 943 908 865 845 865 845 865 865 865 897 908 943 968 955 994 1008 1098 1115 1098 1132 1082 1226 1149 1066 1022 981 955 955 943 943 931 931 955 968 981 981 994 1008 0 0 0 0 0 0 0 0 0 0 0 0 0 0 0 0 0 0 0 0 0 0 0 0 0 0 0 0 0 0 0 0 0 0 0 0 0 0 0 0 0 0 0 0 0 0 0 0 0 0 0 0 0 0 0 0 0 0 0 0 0 0 0 0 0 0 0 1082 1132 1187 1066 1115 1149 1115 1082 1051 1022 1008 994 994 955 943 943 943 943 931 897 886 886 897 865 886 876 865 855 865 855 845 855 836 817 808 799 808 799 799 782 774 774 735 743 743 743 750 735 728 721 0 0 0 0 639 629 629 623 618 618 613 603 603 570 566 561 549 549 541 545 545 545 545 537 537 533 529 529 525 514 511 500 490 477 474 471 468 462 465 459 454 454 459 454 451 454 451 443 438 435 432 427 420 411 402 399 395 395 395 395 395 397 399 0 0 0 0 0
    0 0 0 0 0 0 0 0 0 0 0 0 0 0 0 0 0 0 0 0 0 0 0 0 0 0 0 0 0 0 0 0 0 0 0 0 0 0 0 0 0 0 0 0 0 0 0 0 0 0 0 0 0 0 0 0 0 0 0 0 0 0 0 0 0 0 0 0 0 1008 981 994 1008 1008 1008 1008 1022 1022 1082 1149 1206 1187 0 0 0 0 0 0 0 1115 1115 1082 1082 1066 1051 1022 1008 968 931 876 855 876 855 876 876 865 876 886 908 943 908 955 955 1066 1082 1082 1115 1082 1132 1066 1022 994 955 931 931 931 919 919 931 943 955 955 968 968 0 0 0 0 0 0 0 0 0 0 0 0 0 0 0 0 0 0 0 0 0 0 0 0 0 0 0 0 0 0 0 0 0 0 0 0 0 0 0 0 0 0 0 0 0 0 0 0 0 0 0 0 0 0 0 0 0 0 0 0 0 0 0 0 0 0 0 0 0 1226 1268 1168 1115 1187 1149 1132 1051 1008 981 981 981 943 943 931 931 931 919 886 876 865 865 845 865 855 845 836 826 826 836 836 826 808 799 808 808 799 799 791 774 782 735 743 743 750 758 750 743 735 0 0 0 0 639 634 629 623 623 618 618 608 603 579 570 561 549 545 541 537 541 541 541 537 533 533 529 525 525 511 504 497 490 477 474 471 468 465 468 465 459 457 462 459 451 457 457 446 438 438 435 430 427 420 404 402 395 397 397 395 395 397 397 0 0 0 0 0
    0 0 0 0 0 0 0 0 0 0 0 0 0 0 0 0 0 0 0 0 0 0 0 0 0 0 0 0 0 0 0 0 0 0 0 0 0 0 0 0 0 0 0 0 0 0 0 0 0 0 0 0 0 0 0 0 0 0 0 0 0 0 0 0 0 0 0 0 0 994 981 981 981 981 981 981 981 994 1008 1022 1098 1115 0 0 0 0 0 0 0 1149 1168 1115 1132 1098 1066 1036 1022 981 955 897 865 886 855 886 886 865 876 876 897 955 897 955 876 0 1082 1082 1082 1036 1036 1036 1008 981 955 919 919 908 919 919 931 931 943 943 943 0 0 0 0 0 0 0 0 0 0 0 0 0 0 0 0 0 0 0 0 0 0 0 0 0 0 0 0 0 0 0 0 0 0 0 0 0 0 0 0 0 0 0 0 0 0 0 0 0 0 0 0 0 0 0 0 0 0 0 0 0 0 0 0 0 0 0 0 0 0 0 0 0 1314 1314 1314 1314 1098 1022 994 981 981 943 943 919 919 931 908 876 855 845 845 836 845 845 826 817 817 817 826 826 826 799 791 808 799 799 799 782 774 774 735 743 743 743 750 743 735 728 0 0 0 0 0 634 629 623 623 623 618 608 603 584 579 566 557 549 545 537 541 541 537 533 529 521 521 518 521 504 500 493 490 481 474 471 471 468 471 468 462 459 465 462 457 457 457 448 440 438 438 432 430 422 404 402 395 395 397 393 395 397 395 0 0 0 0 0
    0 0 0 0 0 0 0 0 0 0 0 0 0 0 0 0 0 0 0 0 0 0 0 0 0 0 0 0 0 0 0 0 0 0 0 0 0 0 0 0 0 0 0 0 0 0 0 0 0 0 0 0 0 0 0 0 0 0 0 0 0 0 0 0 0 0 0 0 0 981 981 981 981 981 981 968 968 994 994 994 1036 0 0 0 0 0 0 0 0 1187 1206 1132 1132 1098 1066 1036 1022 981 955 897 865 886 855 897 908 886 886 886 919 968 865 919 845 943 1036 1036 1022 994 981 994 981 955 931 897 897 897 908 931 931 931 931 943 0 0 0 0 0 0 0 0 0 0 0 0 0 0 0 0 0 0 0 0 0 0 0 0 0 0 0 0 0 0 0 0 0 0 0 0 0 0 0 0 0 0 0 0 0 0 0 0 0 0 0 0 0 0 0 0 0 0 0 0 0 0 0 0 0 0 0 0 0 0 0 0 0 0 0 0 1226 1247 1098 1008 968 968 981 943 931 908 919 919 897 876 855 836 836 826 836 826 808 808 808 808 817 817 808 791 782 799 799 791 791 782 774 782 750 758 758 758 743 735 728 714 707 0 0 0 0 0 629 623 629 623 618 608 603 588 584 574 570 553 549 541 545 541 533 529 525 518 514 518 518 504 497 493 493 484 477 474 474 471 474 471 468 465 465 468 462 459 462 451 443 440 440 432 432 427 415 408 399 397 399 395 397 399 397 0 0 0 0 0
    0 0 0 0 0 0 0 0 0 0 0 0 0 0 0 0 0 0 0 0 0 0 0 0 0 0 0 0 0 0 0 0 0 0 0 0 0 0 0 0 0 0 0 0 0 0 0 0 0 0 0 0 0 0 0 0 0 0 0 0 0 0 0 0 0 0 0 0 0 968 968 968 981 981 968 968 968 994 981 981 1008 994 0 0 0 0 0 0 0 1149 1149 1098 1082 1082 1051 1036 1008 981 955 908 865 886 855 897 919 886 897 886 897 943 865 919 865 955 1008 994 981 955 943 943 919 919 886 876 876 897 919 919 931 931 931 0 0 0 0 0 0 0 0 0 0 0 0 0 0 0 0 0 0 0 0 0 0 0 0 0 0 0 0 0 0 0 0 0 0 0 0 0 0 0 0 0 0 0 0 0 0 0 0 0 0 0 0 0 0 0 0 0 0 0 0 0 0 0 0 0 0 0 0 0 0 0 0 0 0 0 0 0 0 1098 1098 1022 968 968 981 955 955 919 931 931 886 876 845 817 808 799 817 808 791 799 799 799 799 808 808 791 774 799 791 791 791 791 774 774 750 743 735 743 728 721 707 700 700 681 657 639 645 0 634 623 623 623 618 608 603 588 584 574 574 553 545 537 541 537 529 525 518 514 514 514 518 507 500 497 493 490 481 477 477 474 477 474 471 468 468 468 462 465 465 457 448 443 443 438 443 0 432 420 411 404 406 397 399 399 397 0 0 0 0 0
    0 0 0 0 0 0 0 0 0 0 0 0 0 0 0 0 0 0 0 0 0 0 0 0 0 0 0 0 0 0 0 0 0 0 0 0 0 0 0 0 0 0 0 0 0 0 0 0 0 0 0 0 0 0 0 0 0 0 0 0 0 0 0 0 0 0 0 0 0 968 968 968 981 981 968 968 968 994 981 981 994 994 0 0 0 0 0 0 0 1098 1098 1066 1066 1066 1051 1036 1008 981 968 919 876 876 845 886 897 876 876 865 876 919 876 919 855 931 955 919 897 876 865 876 865 886 865 855 876 897 919 919 931 943 0 0 0 0 0 0 0 0 0 0 0 0 0 0 0 0 0 0 0 0 0 0 0 0 0 0 0 0 0 0 0 0 0 0 0 0 0 0 0 0 0 0 0 0 0 0 0 0 0 0 0 0 0 0 0 0 0 0 0 0 0 0 0 0 0 0 0 0 0 0 0 0 0 0 0 0 0 0 0 0 1187 1082 994 968 994 968 968 943 943 943 886 886 845 808 799 782 799 799 774 782 782 782 791 791 799 774 758 782 774 782 774 782 758 758 750 735 735 735 714 707 700 694 687 669 651 645 645 645 634 629 629 623 618 608 603 588 579 570 570 549 541 533 533 529 521 521 514 511 511 514 514 500 493 490 490 484 477 477 477 474 477 474 474 471 471 471 465 465 465 459 448 446 446 443 448 443 438 427 415 404 406 397 399 399 397 0 0 0 0 0
    0 0 0 0 0 0 0 0 0 0 0 0 0 0 0 0 0 0 0 0 0 0 0 0 0 0 0 0 0 0 0 0 0 0 0 0 0 0 0 0 0 0 0 0 0 0 0 0 0 0 0 0 0 0 0 0 0 0 0 0 0 0 0 0 0 0 0 0 0 968 968 968 981 981 968 981 981 994 981 981 994 981 836 0 0 0 0 0 1115 1098 1098 1066 1066 1082 1051 1036 1008 994 981 943 931 908 876 0 908 908 886 876 897 919 876 908 845 876 865 845 826 826 826 826 836 855 855 855 865 886 908 931 943 0 0 0 0 0 0 0 0 0 0 0 0 0 0 0 0 0 0 0 0 0 0 0 0 0 0 0 0 0 0 0 0 0 0 0 0 0 0 0 0 0 0 0 0 0 0 0 0 0 0 0 0 0 0 0 0 0 0 0 0 0 0 0 0 0 0 0 0 0 0 0 0 0 0 0 0 0 0 0 0 0 0 1149 1036 981 1008 981 981 968 968 968 919 886 845 799 799 774 791 791 758 766 766 766 774 766 782 758 758 774 766 774 774 782 766 766 774 750 766 750 735 714 707 700 681 663 651 645 651 645 639 634 629 629 623 608 608 593 574 566 561 545 537 533 529 529 518 518 511 511 511 511 507 497 490 487 487 484 477 474 477 474 477 477 477 474 477 474 471 468 471 462 454 446 446 440 448 0 438 430 422 408 404 0 399 399 397 0 0 0 0 0
    0 0 0 0 0 0 0 0 0 0 0 0 0 0 0 0 0 0 0 0 0 0 0 0 0 0 0 0 0 0 0 0 0 0 0 0 0 0 0 0 0 0 0 0 0 0 0 0 0 0 0 0 0 0 0 0 0 0 0 0 0 0 0 0 0 0 0 0 0 955 968 968 981 981 981 981 981 994 981 981 981 955 817 0 0 0 0 0 0 0 0 1051 1051 1066 1051 1036 994 994 968 955 943 919 886 0 897 897 855 845 836 855 826 865 826 836 826 826 817 808 817 817 826 836 845 845 855 886 908 931 0 0 0 0 0 0 0 0 0 0 0 0 0 0 0 0 0 0 0 0 0 0 0 0 0 0 0 0 0 0 0 0 0 0 0 0 0 0 0 0 0 0 0 0 0 0 0 0 0 0 0 0 0 0 0 0 0 0 0 0 0 0 0 0 0 0 0 0 0 0 0 0 0 0 0 0 0 0 0 0 0 0 0 0 0 994 1022 1008 1022 1008 994 994 981 865 826 782 782 743 758 758 735 743 743 758 750 750 766 750 750 766 750 766 750 774 758 758 743 735 735 743 735 721 714 714 694 687 675 663 657 657 645 639 629 629 618 608 603 593 579 570 566 557 545 541 537 533 521 521 518 511 511 511 511 497 490 490 490 487 481 481 481 477 481 481 481 477 477 477 474 468 471 462 454 446 440 435 440 432 432 427 420 408 0 0 399 399 397 0 0 0 0 0
    0 0 0 0 0 0 0 0 0 0 0 0 0 0 0 0 0 0 0 0 0 0 0 0 0 0 0 0 0 0 0 0 0 0 0 0 0 0 0 0 0 0 0 0 0 0 0 0 0 0 0 0 0 0 0 0 0 0 0 0 0 0 0 0 0 0 0 0 0 943 955 955 968 968 968 968 968 981 968 943 943 886 817 774 766 758 743 0 0 0 0 1036 1036 1051 1022 1022 981 994 981 955 955 931 897 908 876 0 826 817 808 817 808 836 808 817 817 808 808 799 808 808 817 826 826 826 845 876 908 0 0 0 0 0 0 0 0 0 0 0 0 0 0 0 0 0 0 0 0 0 0 0 0 0 0 0 0 0 0 0 0 0 0 0 0 0 0 0 0 0 0 0 0 0 0 0 0 0 0 0 0 0 0 0 0 0 0 0 0 0 0 0 0 0 0 0 0 0 0 0 0 0 0 0 0 0 0 0 0 0 0 0 0 0 0 0 0 1051 1036 1022 1008 1008 981 0 782 758 766 743 750 750 735 743 735 758 743 735 743 735 735 743 728 735 721 735 728 728 721 728 721 735 728 728 714 714 700 694 675 669 657 657 639 634 623 623 618 608 603 598 584 579 579 574 561 545 549 541 529 525 518 514 511 507 511 497 493 493 493 490 484 484 484 481 481 481 481 477 477 474 471 465 465 459 454 446 440 432 435 430 432 427 420 406 0 0 397 0 0 0 0 0 0 0
    0 0 0 0 0 0 0 0 0 0 0 0 0 0 0 0 0 0 0 0 0 0 0 0 0 0 0 0 0 0 0 0 0 0 0 0 0 0 0 0 0 0 0 0 0 0 0 0 0 0 0 0 0 0 0 0 0 0 0 0 0 0 0 0 0 0 0 0 0 955 955 955 955 955 955 943 943 968 931 897 0 0 817 782 782 782 774 791 782 0 0 981 981 0 0 994 968 981 981 955 968 931 919 0 876 0 808 799 791 808 808 817 808 808 808 799 791 791 791 799 808 817 817 817 826 855 0 0 0 0 0 0 0 0 0 0 0 0 0 0 0 0 0 0 0 0 0 0 0 0 0 0 0 0 0 0 0 0 0 0 0 0 0 0 0 0 0 0 0 0 0 0 0 0 0 0 0 0 0 0 0 0 0 0 0 0 0 0 0 0 0 0 0 0 0 0 0 0 0 0 0 0 0 0 0 0 0 0 0 0 0 0 0 0 0 0 1066 1051 1022 1036 0 0 766 743 758 743 743 735 721 735 728 743 735 728 728 721 728 735 721 728 714 721 714 714 721 714 707 721 721 721 714 714 700 687 675 669 657 657 639 629 618 623 618 608 603 593 584 579 584 584 566 549 553 541 533 529 518 511 507 511 511 497 493 493 493 490 484 484 481 477 477 477 481 477 477 474 468 459 457 457 451 446 438 432 435 432 432 430 422 408 402 0 399 0 0 0 0 0 0 0
    0 0 0 0 0 0 0 0 0 0 0 0 0 0 0 0 0 0 0 0 0 0 0 0 0 0 0 0 0 0 0 0 0 0 0 0 0 0 0 0 0 0 0 0 0 0 0 0 0 0 0 0 0 0 0 0 0 0 0 0 0 0 0 0 0 0 0 0 0 931 931 931 931 943 931 919 919 943 886 876 865 865 826 799 799 799 791 799 808 0 865 943 943 0 0 0 955 968 955 931 931 908 0 0 865 0 817 808 799 808 799 817 808 808 799 791 791 782 791 799 799 799 799 799 808 0 0 0 0 0 0 0 0 0 0 0 0 0 0 0 0 0 0 0 0 0 0 0 0 0 0 0 0 0 0 0 0 0 0 0 0 0 0 0 0 0 0 0 0 0 0 0 0 0 0 0 0 0 0 0 0 0 0 0 0 0 0 0 0 0 0 0 0 0 0 0 0 0 0 0 0 0 0 0 0 0 0 0 0 0 0 0 0 0 0 0 0 1066 1051 1051 1036 0 0 728 750 743 743 728 721 735 728 735 728 721 721 714 721 728 714 721 700 707 707 714 714 707 700 714 707 721 714 714 700 694 675 669 657 657 639 634 623 623 613 608 598 588 579 574 584 579 566 553 557 549 545 537 529 521 518 521 518 507 497 497 493 490 487 481 477 474 474 474 477 474 471 468 465 457 454 457 454 446 438 430 432 427 430 425 411 0 0 0 0 0 0 0 0 0 0 0
    0 0 0 0 0 0 0 0 0 0 0 0 0 0 0 0 0 0 0 0 0 0 0 0 0 0 0 0 0 0 0 0 0 0 0 0 0 0 0 0 0 0 0 0 0 0 0 0 0 0 0 0 0 0 0 0 0 0 0 0 0 0 0 0 0 0 0 0 0 0 855 876 0 897 897 886 886 886 855 855 845 865 826 808 808 799 799 799 817 0 876 931 919 0 0 0 0 968 943 897 0 0 0 0 0 0 808 799 791 791 791 799 799 799 791 782 774 774 791 791 791 791 791 791 0 0 0 0 0 0 0 0 0 0 0 0 0 0 0 0 0 0 0 0 0 0 0 0 0 0 0 0 0 0 0 0 0 0 0 0 0 0 0 0 0 0 0 0 0 0 0 0 0 0 0 0 0 0 0 0 0 0 0 0 0 0 0 0 0 0 0 0 0 0 0 0 0 0 0 0 0 0 0 0 0 0 0 0 0 0 0 0 0 0 0 0 0 1051 1051 1036 1066 0 0 735 766 758 758 735 728 735 728 735 735 721 714 707 714 721 707 714 700 707 707 707 714 707 700 707 707 714 707 714 700 694 675 669 663 657 645 639 623 629 618 608 598 579 566 566 579 570 557 553 557 557 557 553 541 537 529 529 525 518 507 504 500 497 490 484 481 477 474 474 474 471 468 462 459 454 451 457 454 446 438 430 430 427 427 425 411 0 0 399 399 0 0 0 0 0 0 0</data></depth>
</opencv_storage>
