<?xml version="1.0"?>
<opencv_storage>
<gps_time_stamp>287973</gps_time_stamp>
<gps_x>-1.2398424148559570e+001</gps_x>
<gps_y>1.1135272026062012e+001</gps_y>
<gps_z>-2.2225735187530518e+000</gps_z>
<image_time_stamp>278858</image_time_stamp>
<depth type_id="opencv-matrix">
  <rows>81</rows>
  <cols>320</cols>
  <dt>s</dt>
  <data>
    0 0 0 0 0 0 0 0 0 0 0 0 0 0 0 0 0 0 0 0 0 0 0 0 0 0 0 0 0 0 0 0 0 0 0 0 0 0 0 0 0 0 0 0 0 0 0 0 0 0 0 0 0 0 0 0 0 0 0 0 0 0 0 0 0 0 0 0 0 0 0 0 0 1795 1795 1752 1711 0 0 0 0 0 0 0 0 0 0 1533 1599 1565 1565 1471 1471 1443 1415 1443 1415 1415 1415 1415 1443 1388 1415 1471 1388 0 1362 1362 1415 1672 1752 1565 1635 1635 1599 1635 1635 76 0 0 0 1672 1635 1936 1989 2102 1989 2102 2453 1936 1839 1711 1711 1672 1501 1599 1533 1501 1471 1501 1533 1501 1443 1533 1362 1388 1471 0 1936 2230 3066 2537 0 0 1936 0 1711 1635 1599 1565 1501 1565 1635 1672 1795 1711 1752 1839 1887 1887 1936 1672 1599 1599 1388 1268 1291 1291 1226 1338 1314 1314 1338 1338 1388 1362 1388 1635 1362 1338 1388 0 0 0 0 799 0 0 0 0 0 0 0 0 0 0 0 1362 1388 1388 0 1388 1362 1388 0 1443 0 0 0 1415 1415 1443 1388 1362 1338 1226 1291 1314 1206 1268 1268 1268 1314 0 1338 1314 1338 1533 1415 1443 1711 1443 1443 1471 0 845 791 735 0 735 735 735 728 721 721 721 721 714 700 694 694 687 681 663 657 651 639 639 645 639 634 629 623 623 618 613 603 598 593 593 584 584 579 574 570 566 561 557 545 545 541 537 533 529 525 521 518 518 518 504 511 511 511 507 514 511 514 511 518 514 500 500 504 511 518 0 0 0 0 0
    0 0 0 0 0 0 0 0 0 0 0 0 0 0 0 0 0 0 0 0 0 0 0 0 0 0 0 0 0 0 0 0 0 0 0 0 0 0 0 0 0 0 0 0 0 0 0 0 0 0 0 0 0 0 0 0 0 0 0 0 0 0 0 0 0 0 0 0 0 0 0 0 1839 1887 0 0 0 0 0 0 0 0 0 0 0 0 0 0 0 0 0 0 0 1471 1443 1443 1415 1443 1388 1362 1415 1338 1362 1362 1314 0 1314 1362 1415 1711 1752 1565 1672 1672 1599 1635 1635 76 1533 0 0 1443 1388 0 0 1887 1839 1887 1887 1795 1752 1635 1672 1635 1471 1565 1501 1471 1443 1471 1533 1501 1443 1471 1362 1362 1443 1752 1795 1989 0 2453 2044 2102 1887 1711 1711 1672 1599 1565 1501 1565 1565 1599 1711 1599 1635 1711 1635 1672 1672 1501 1415 1388 1338 1247 1291 1291 1226 1338 1314 1314 1338 1338 1388 1362 1388 1672 1388 1362 1443 0 0 0 0 0 0 0 0 0 0 0 0 0 1388 1388 1415 1388 1415 1443 0 1388 1362 1362 0 0 0 0 0 1388 1388 1388 1362 1338 1338 1247 1314 1314 1226 1291 1291 1291 1338 1338 1362 1362 1388 1565 1443 1443 1711 1362 1362 1388 981 855 808 799 0 750 750 743 735 728 728 721 721 721 707 700 694 687 687 675 663 657 645 639 639 634 634 629 629 623 618 613 608 598 593 593 588 588 584 579 574 566 561 557 545 541 541 533 533 529 525 521 518 518 518 504 511 511 511 507 514 511 514 511 518 514 500 500 507 511 518 0 0 0 0 0
    0 0 0 0 0 0 0 0 0 0 0 0 0 0 0 0 0 0 0 0 0 0 0 0 0 0 0 0 0 0 0 0 0 0 0 0 0 0 0 0 0 0 0 0 0 0 0 0 0 0 0 0 0 0 0 0 0 0 0 0 0 0 0 0 0 0 0 0 0 0 0 0 0 0 0 0 0 0 0 0 0 0 0 0 0 0 0 0 0 0 0 0 0 0 1471 1471 1443 1471 1415 1362 1388 1314 1338 1291 1291 0 1291 1362 1443 1752 1795 1599 1672 1672 1635 1635 1672 76 1533 0 0 1338 1314 1338 1415 1599 1599 1672 1672 1672 1599 1533 1599 1599 1471 1533 1471 1471 1443 1471 1501 1471 1415 1443 1362 1338 1362 1415 1471 1635 2374 2164 1887 1936 1839 1672 1711 1635 1565 1533 1501 1533 1501 1533 1599 1471 1471 1501 1388 1415 1362 1388 1362 1338 1314 1226 1291 1291 1226 1338 1338 1338 1338 1338 1388 1362 1388 1672 1338 1314 1362 0 0 0 0 0 0 1098 0 1168 1132 1149 1268 1314 1338 1362 1415 1388 1415 1443 1415 1388 1338 1362 0 0 0 1415 0 1338 1338 1338 1314 1314 1314 1247 1314 1338 1268 1338 1338 1314 1362 1388 1415 1388 1415 1599 1443 1443 1711 1338 0 0 897 845 808 799 750 758 758 743 743 728 728 721 721 721 707 700 700 694 681 669 663 657 645 645 639 634 634 629 629 623 618 613 608 603 598 593 588 588 584 579 574 570 561 557 549 545 541 537 533 529 525 521 518 514 518 504 511 511 511 507 511 511 514 514 518 518 504 504 511 514 521 0 0 0 0 0
    0 0 0 0 0 0 0 0 0 0 0 0 0 0 0 0 0 0 0 0 0 0 0 0 0 0 0 0 0 0 0 0 0 0 0 0 0 0 0 0 0 0 0 0 0 0 0 0 0 0 0 0 0 0 0 0 0 0 0 0 0 0 0 0 0 0 0 0 0 0 0 0 0 0 0 0 0 0 0 0 0 0 0 0 0 0 0 0 0 0 0 0 0 0 1471 1501 1443 1471 1415 1362 1388 1314 1338 1314 0 0 1291 1338 1443 1795 1795 1599 1672 1672 1635 0 1672 76 1533 1443 1635 1338 1338 1314 1338 1362 1388 1471 1471 1501 1471 1443 1501 1501 1443 1471 1443 1443 1443 1471 1471 1471 1415 1388 1362 1338 1338 1314 1291 1314 1415 1887 1711 1795 1752 1635 1635 1599 1565 1533 1501 1533 1501 1471 1501 1388 1388 1362 1291 1314 1291 1314 1338 1338 1291 1226 1291 1314 1247 1362 1362 1362 1362 1362 1388 1388 1388 1672 1291 1206 1187 0 0 0 886 0 0 0 0 1206 1187 1206 1314 1338 1362 1362 1415 1388 1415 1415 1415 1388 1338 1362 0 1388 0 1388 1338 1338 1338 1338 1314 1291 1314 1268 1338 1338 1291 1362 1362 1338 1388 1415 1443 1415 1443 1599 1471 1443 1711 1291 0 0 836 817 799 782 758 766 758 743 743 728 728 721 721 721 707 707 700 694 681 669 657 657 651 645 639 634 634 629 629 629 623 618 608 608 603 598 593 588 584 579 574 570 561 557 549 545 541 537 533 529 529 525 521 518 518 507 511 511 511 507 511 511 514 511 518 518 504 504 511 514 521 0 0 0 0 0
    0 0 0 0 0 0 0 0 0 0 0 0 0 0 0 0 0 0 0 0 0 0 0 0 0 0 0 0 0 0 0 0 0 0 0 0 0 0 0 0 0 0 0 0 0 0 0 0 0 0 0 0 0 0 0 0 0 0 0 0 0 0 0 0 0 0 0 0 0 0 0 0 0 0 0 0 0 0 0 0 0 0 0 0 0 0 0 0 0 0 1635 1501 1565 1565 1501 1533 1471 1533 1443 1388 1388 1314 0 0 1291 0 1268 1314 1443 0 1839 0 0 0 0 0 0 76 1533 1415 1565 1314 1291 1291 1314 1314 1338 1415 1388 1415 1415 1415 1443 1443 1415 1415 1415 1415 1443 1443 1415 1443 1388 1362 1338 1314 1314 1291 1268 1268 1268 1388 1415 1443 1565 1501 1565 1501 1501 1471 1471 1501 1471 1415 1388 1338 1338 1291 1268 1247 1247 1291 1291 1314 1247 1187 1226 1268 1247 1362 1362 1362 1338 1362 1388 1388 1415 1711 1268 1132 1098 0 0 845 817 791 0 0 0 0 0 1268 1338 1362 1362 1362 1388 1388 1388 1362 1388 0 1314 1338 0 1362 1501 1388 1338 1338 1338 1338 1314 1291 1314 1268 1338 1362 1314 1388 1388 1362 1443 1443 1501 1443 1471 1635 1443 1415 1711 1268 994 845 826 817 799 791 774 774 766 750 743 728 728 721 721 721 707 707 700 694 681 669 657 657 645 645 639 634 639 629 634 629 623 618 613 613 603 598 598 588 584 579 570 566 561 557 549 545 545 541 537 533 529 525 521 518 521 507 511 511 514 507 511 511 514 511 518 518 504 500 504 511 518 0 0 0 0 0
    0 0 0 0 0 0 0 0 0 0 0 0 0 0 0 0 0 0 0 0 0 0 0 0 0 0 0 0 0 0 0 0 0 0 0 0 0 0 0 0 0 0 0 0 0 0 0 0 0 0 0 0 0 0 0 0 0 0 0 0 0 0 0 0 0 0 0 0 0 0 1795 1752 1752 0 0 0 0 0 0 0 0 0 0 0 0 0 0 0 0 0 1635 1533 1599 1635 1565 1599 1565 1599 1501 1443 1415 1338 1314 0 0 0 0 0 1471 1887 1839 0 0 0 0 0 0 76 1565 1443 1599 1314 1314 1314 1314 1338 1338 1415 1415 1415 1443 1443 1471 1471 1415 1443 1388 1388 1415 1388 1362 1388 1338 1291 1291 1268 1268 1268 1247 1268 1247 1291 1314 1314 1415 1443 1501 1501 1471 1471 1443 1471 1443 1362 1338 1314 1314 1268 1226 1206 1206 1268 1268 1314 1247 1187 1187 1247 1247 1362 1362 1362 1338 1362 1415 1443 1443 1711 1291 1206 1187 0 0 0 0 0 0 0 0 0 0 0 1388 1388 1415 1388 1388 1362 1362 1338 1338 0 1268 0 0 0 1388 1362 1314 1338 1314 1338 1314 1291 1314 1268 1362 1362 1314 1415 1415 1388 1443 1471 1501 1471 1471 1635 1415 1415 1672 1226 968 845 836 817 808 808 791 782 766 750 743 728 728 721 721 721 714 707 707 694 681 669 657 657 651 645 639 634 639 634 634 629 623 623 613 613 608 603 598 593 588 584 574 566 561 557 549 545 545 541 537 533 533 529 521 521 521 511 511 511 514 511 514 511 514 511 518 518 500 500 500 507 511 0 0 0 0 0
    0 0 0 0 0 0 0 0 0 0 0 0 0 0 0 0 0 0 0 0 0 0 0 0 0 0 0 0 0 0 0 0 0 0 0 0 0 0 0 0 0 0 0 0 0 0 0 0 0 0 0 0 0 0 0 0 0 0 0 0 0 0 0 0 0 0 0 0 0 1752 1711 1672 1672 1711 0 0 0 0 0 0 0 0 0 0 0 0 0 0 0 0 1599 0 1635 1672 1635 1672 1635 1672 1565 1501 1443 1338 1314 0 1291 0 0 1362 1501 1936 1887 0 0 0 0 0 0 76 1599 1471 1635 1338 1362 1362 1362 1362 1388 1443 1443 1443 1471 1471 1501 1471 1415 1415 1388 1362 1388 1362 1314 1338 1291 1268 1268 1247 1226 1226 1206 1247 1247 1268 1291 1291 1388 1415 1443 1471 1415 1443 1443 1443 1388 1338 1291 1314 1314 1291 1247 1226 1226 0 0 0 0 1187 1149 1226 1226 1362 1338 1338 1338 1362 1388 1443 1443 1711 1291 1247 1247 0 0 0 0 0 1443 0 0 0 1415 0 1443 1443 1443 1388 1388 1362 1362 1338 1338 0 1268 0 0 0 0 1338 1291 1338 1314 1314 1291 1291 1314 1291 1362 1388 1338 1443 1443 1415 1471 1471 1533 1471 1471 1635 1415 1388 0 1187 955 845 836 826 817 817 791 791 774 750 750 728 728 721 721 721 714 714 707 700 687 675 669 663 651 651 639 634 634 629 634 629 629 623 613 618 613 603 598 593 584 584 574 566 561 557 549 545 545 541 537 533 533 529 521 521 521 511 511 511 514 511 514 511 514 511 514 518 500 500 500 507 511 0 0 0 0 0
    0 0 0 0 0 0 0 0 0 0 0 0 0 0 0 0 0 0 0 0 0 0 0 0 0 0 0 0 0 0 0 0 0 0 0 0 0 0 0 0 0 0 0 0 0 0 0 0 0 0 0 0 0 0 0 0 0 0 0 0 0 0 0 0 0 0 0 0 0 1711 1711 1711 1672 1711 0 0 0 0 0 0 0 0 0 0 0 0 0 0 0 0 1599 0 0 0 1635 1672 1672 1711 1599 1533 1443 1338 1314 0 1268 0 1291 1338 1533 1936 1887 0 0 0 0 0 76 76 1599 1501 1672 1362 1388 1388 1388 1388 1388 1443 1471 1471 1501 1471 1501 1501 1415 1388 1362 1338 1362 1338 1314 1314 1268 1247 1268 1226 1206 1206 1187 1226 1247 1268 1291 1314 1415 1415 1415 1415 1388 1388 1388 1388 1338 1314 1291 1314 1314 1291 1268 1247 1247 1314 0 1338 1247 1206 1149 1226 1226 1338 1338 1338 1314 1362 1362 1443 1415 1635 1291 1314 1314 1388 1291 0 1338 1415 1388 1338 1314 0 1415 1443 1533 1533 1501 1415 1388 1362 1362 1314 1314 0 1268 0 0 0 1471 1388 1338 1362 1338 1314 1314 1314 1314 1314 1388 1415 1338 1471 1471 1415 1471 1471 1533 1471 1471 1599 1388 1362 0 1168 931 845 836 826 817 817 799 799 782 766 758 743 735 728 728 728 714 714 714 700 687 681 675 663 645 651 634 629 634 629 634 629 623 623 613 618 613 603 598 593 584 584 574 570 561 557 553 545 545 545 541 537 533 533 525 521 521 511 511 511 514 507 511 511 514 511 514 518 500 504 500 511 511 0 0 0 0 0
    0 0 0 0 0 0 0 0 0 0 0 0 0 0 0 0 0 0 0 0 0 0 0 0 0 0 0 0 0 0 0 0 0 0 0 0 0 0 0 0 0 0 0 0 0 0 0 0 0 0 0 0 0 0 0 0 0 0 0 0 0 0 0 0 0 0 0 0 0 1672 1672 1711 1635 0 0 0 0 0 0 0 0 0 0 0 0 0 0 0 0 0 0 0 0 0 1635 1711 1672 1711 1635 1501 1388 0 1247 0 0 0 1247 1291 1533 1989 1887 0 0 0 0 0 76 76 1599 0 0 1362 1388 1388 1388 1388 1362 1415 1443 1443 1471 1443 1471 1443 1388 1362 1362 1314 1338 1314 1291 1291 1247 1247 0 1206 1187 1206 1187 1226 1226 1268 1247 1268 1338 1338 1362 1362 1338 1338 1338 1338 1314 1314 1268 1247 1291 1268 1247 1247 1268 1314 1291 1338 1268 1268 1168 1247 1247 1338 1338 1338 1314 1362 1362 1415 1388 1599 1291 1268 1291 1314 1268 1268 1291 1362 1338 1338 1291 1291 1338 1362 1443 1443 1415 1415 1388 1362 1362 1314 0 0 0 0 0 1362 1443 1415 1362 1362 1338 1338 1338 1338 1314 1314 1388 1415 1338 1471 1471 1415 1501 1471 1533 1471 1471 1599 1362 1338 0 1115 908 836 826 817 817 808 799 799 791 774 766 750 743 728 728 728 721 714 714 700 687 687 675 663 645 651 634 634 634 629 634 629 623 623 613 618 613 603 603 593 588 588 579 574 566 561 553 545 549 545 541 537 537 533 525 525 525 514 511 511 514 507 511 511 514 511 514 518 500 504 500 507 511 0 0 0 0 0
    0 0 0 0 0 0 0 0 0 0 0 0 0 0 0 0 0 0 0 0 0 0 0 0 0 0 0 0 0 0 0 0 0 0 0 0 0 0 0 0 0 0 0 0 0 0 0 0 0 0 0 0 0 0 0 0 0 0 0 0 0 0 0 0 0 0 0 0 0 1635 1635 1672 1635 0 0 0 0 0 0 0 0 0 0 0 0 0 0 0 0 0 0 0 0 0 1533 1599 1533 1635 1711 1415 0 0 1206 0 0 0 1268 1314 1471 1936 1887 1672 1752 0 0 0 76 76 1599 0 0 1362 1362 1388 1362 1362 1362 1415 1415 1415 1471 1415 1443 1415 1362 1362 1362 1338 1362 1338 1314 1291 1268 0 0 0 1226 1247 1206 1247 1247 1268 1226 1247 1291 1291 1291 1314 1291 1291 1291 1314 1291 1291 1268 1247 1268 1268 1226 1247 1247 1314 1268 1362 1291 1314 1168 1247 1247 1362 1338 1338 1338 1362 1338 1415 1388 1533 1268 1268 1268 1291 1268 1291 1314 1388 1362 1362 1291 1268 1291 1291 1362 1338 1314 1338 1291 1314 1291 1291 0 0 0 0 0 1388 1415 1388 1338 1338 1338 1338 1338 1338 1314 1291 1388 1388 1338 1471 1471 1415 1471 1471 1501 1471 1443 1599 1338 0 0 0 897 836 826 817 817 817 808 799 791 774 766 750 735 728 728 728 721 714 714 700 687 687 675 669 651 651 634 634 634 634 634 629 623 623 613 618 613 603 603 593 588 593 579 574 566 561 553 545 549 545 545 537 537 533 525 525 525 514 511 511 514 507 511 511 514 511 514 518 500 500 500 507 507 0 0 0 0 0
    0 0 0 0 0 0 0 0 0 0 0 0 0 0 0 0 0 0 0 0 0 0 0 0 0 0 0 0 0 0 0 0 0 0 0 0 0 0 0 0 0 0 0 0 0 0 0 0 0 0 0 0 0 0 0 0 0 0 0 0 0 0 0 0 0 0 0 0 0 1565 1635 1672 1635 0 0 0 73 0 0 0 0 0 0 0 0 0 0 0 0 0 0 0 1362 1415 1388 1388 1338 1443 1471 1362 1338 0 1247 1291 1247 1268 1268 1268 1362 1839 1839 1565 1711 1711 0 0 76 76 1599 1471 1672 1362 1362 1388 1388 1362 1338 1415 1388 1415 1443 1388 1443 1388 1362 1362 1338 1314 1314 1291 1291 1247 1247 1291 1291 1247 1247 1247 1226 1268 1247 1268 1226 1247 1268 1247 1268 1291 1268 1291 1291 1314 1314 1314 1314 1291 1291 1268 1247 1247 1268 1314 1291 1362 1291 1314 1187 1268 1247 1362 1338 1338 1338 1362 1338 1415 1388 1533 1268 1291 1291 1291 1291 1338 1362 1362 1362 1388 1291 1291 1291 1291 1338 1314 1291 1314 1268 1291 1268 1291 1291 0 0 0 0 1635 1501 1471 1415 1415 1388 1388 1338 1338 1314 1291 1362 1388 1338 1443 1443 1415 1471 1471 1501 1471 1443 1599 1338 0 0 0 876 836 826 826 817 808 799 799 791 774 766 750 735 728 728 721 721 714 714 707 694 687 681 669 651 657 639 634 639 634 634 629 629 623 613 618 613 608 603 598 588 593 579 574 566 561 553 545 549 545 545 541 537 537 529 525 525 514 511 514 514 507 511 514 514 511 511 518 497 500 497 504 504 0 0 0 0 0
    0 0 0 0 0 0 0 0 0 0 0 0 0 0 0 0 0 0 0 0 0 0 0 0 0 0 0 0 0 0 0 0 0 0 0 0 0 0 0 0 0 0 0 0 0 0 0 0 0 0 0 0 0 0 0 0 0 0 0 0 0 0 0 0 0 0 0 0 0 1565 1635 1635 1599 1599 0 0 0 0 0 0 0 0 0 0 0 0 0 0 1388 1314 0 1291 1314 1362 1338 1338 1338 1388 1415 1388 1388 1291 1338 1338 1314 1338 1314 1338 1362 1635 1752 1533 1672 1672 1635 1635 0 76 1565 1471 1672 1388 1388 1443 1415 1388 1362 1415 1388 1388 1415 1362 1388 0 0 0 1291 1291 1291 1268 1247 1226 1226 1268 1291 1247 1247 1268 1247 1268 1268 1268 1226 1247 1247 1226 1226 1247 1226 1247 1247 1291 1247 1247 1268 1247 1247 1268 1247 1247 1268 1314 1314 1362 1291 1314 1187 1247 1247 1338 1338 1338 1338 1362 1338 1415 1388 1501 1291 1291 1314 1291 1291 1314 1338 1362 1362 1388 1314 1314 1314 1338 1362 1362 1314 1314 1268 1268 1247 1268 1247 0 0 0 0 1752 1635 1599 1635 1565 1533 1443 1362 1362 1338 1314 1362 1362 1338 1443 1443 1415 1471 1443 1471 1443 1443 1565 1291 0 0 0 865 836 826 826 817 808 808 799 791 774 766 758 735 735 728 721 714 714 714 700 694 694 681 675 657 663 639 639 639 634 634 629 629 623 618 623 613 608 603 598 593 593 579 579 570 561 557 549 549 549 545 541 537 537 529 529 525 518 511 514 514 507 511 514 514 514 511 521 500 500 497 500 504 0 0 0 0 0
    0 0 0 0 0 0 0 0 0 0 0 0 0 0 0 0 0 0 0 0 0 0 0 0 0 0 0 0 0 0 0 0 0 0 0 0 0 0 0 0 0 0 0 0 0 0 0 0 0 0 0 0 0 0 0 0 0 0 0 0 0 0 0 0 0 0 0 0 0 1533 1635 1635 1599 1635 1635 0 0 0 0 0 0 0 0 0 0 0 0 1443 1443 1338 0 1291 1291 1338 1338 1338 1338 1362 1362 1338 1338 1291 1362 1338 1338 1338 1338 1338 1362 1533 1711 1471 1635 1672 1635 1599 0 76 1565 1501 1672 1415 1415 1501 1533 1443 1362 1443 1388 1362 1388 1362 0 0 1291 1291 1291 1268 1291 1291 1268 1247 1247 1291 1291 1247 1268 1291 1268 1291 1268 1268 1226 1247 1247 1226 1206 1226 1206 1247 1247 1268 1247 1247 1247 1268 1268 1291 1268 1268 1291 1338 1314 1362 1314 1314 1187 1247 1247 1338 1338 1338 1338 1362 1362 1415 1388 1471 1291 1314 1314 1291 1268 1291 1291 1314 1338 1362 1314 1314 1314 1314 1338 1338 1291 1291 1247 1226 1226 1247 1226 0 0 0 0 1672 1533 1565 1565 1565 1533 1443 1362 1388 1338 1314 1362 1362 1338 1443 1443 1415 1471 1443 1471 1443 1415 1533 1268 0 0 955 865 836 826 826 817 808 808 808 791 774 766 766 735 735 735 728 721 714 714 700 694 694 687 675 657 663 645 639 639 634 634 629 629 623 618 623 613 608 603 598 593 593 579 574 566 561 553 545 549 549 545 541 537 537 529 529 525 518 511 514 514 507 511 514 514 514 511 521 504 504 500 504 504 0 0 0 0 0
    0 0 0 0 0 0 0 0 0 0 0 0 0 0 0 0 0 0 0 0 0 0 0 0 0 0 0 0 0 0 0 0 0 0 0 0 0 0 0 0 0 0 0 0 0 0 0 0 0 0 0 0 0 0 0 0 0 0 0 0 0 0 0 0 0 0 0 0 0 1501 1565 1599 1565 1599 1599 0 0 0 0 0 0 0 0 0 0 0 0 0 1471 1338 0 1268 1268 0 1314 1314 1338 1338 1314 1338 1362 1314 1338 1338 1314 1338 1338 1362 1338 1443 1635 1443 1565 1635 1599 1565 0 76 1565 1501 1672 1415 1415 1533 1635 1415 1388 1443 1338 1338 1338 1338 1314 0 1268 1247 1268 1268 1268 1268 1268 1247 1268 1291 1291 0 1291 1314 1314 1314 1314 1291 1247 1268 1268 1226 1206 1226 1206 1268 1268 1291 1268 1268 1291 1291 1291 1314 1291 1314 1338 1338 1338 1362 1314 1314 1206 1268 1247 1362 1362 1362 1362 1388 1388 1415 1388 1443 1291 1291 1291 1291 1268 1268 1268 1291 1338 1338 1291 1314 1291 1291 1338 1314 1268 1291 1247 1206 1206 1206 1206 1149 0 0 1168 1362 1388 1415 1443 1443 1471 1415 1362 1388 1362 1338 1362 1362 1338 1415 1415 1415 1443 1415 1415 1388 1362 1443 1226 1008 955 943 876 845 826 826 817 808 808 808 791 774 766 774 735 743 735 728 721 721 714 707 700 694 687 675 663 669 645 645 639 634 639 629 629 629 618 623 613 608 598 593 588 593 579 574 566 557 553 545 545 545 545 541 537 537 529 529 525 518 511 514 514 507 511 514 511 514 511 521 507 507 504 504 504 0 0 0 0 0
    0 0 0 0 0 0 0 0 0 0 0 0 0 0 0 0 0 0 0 0 0 0 0 0 0 0 0 0 0 0 0 0 0 0 0 0 0 0 0 0 0 0 0 0 0 0 0 0 0 0 0 0 0 0 0 0 0 0 0 0 0 0 0 0 0 0 0 0 0 1565 1635 1672 1565 1599 1533 0 0 0 0 0 0 0 0 0 0 0 0 1533 1501 1338 0 1268 1247 0 0 1291 1314 1314 1291 1314 1314 1291 1338 1338 1338 1338 1338 1362 1362 1415 1565 1415 1533 1565 1533 1533 0 76 1533 1471 1672 1415 1388 1501 1565 1362 1338 1362 1314 1291 1314 1314 1314 1291 1247 1247 1268 1291 1291 1291 1291 1268 1268 1338 1291 0 1314 1362 1338 1362 1338 1314 1268 1268 1268 1226 1206 1226 1187 1247 1247 1268 1247 1247 1268 1268 1268 1314 1291 1314 1338 1338 1314 1314 1291 1314 1226 1268 1268 1362 1388 1388 1388 1388 1388 1415 1388 1388 1268 1268 1268 1247 1247 1247 1247 1268 1291 1291 1268 1314 1268 1268 1291 1268 1206 1247 1206 1187 1168 1187 1168 1115 0 0 1132 1268 1338 1338 1362 1362 1415 1362 1362 1388 1362 1338 1362 1362 1338 1415 1415 1388 1415 1388 1388 1362 1338 0 1132 994 931 919 876 836 826 826 817 808 799 799 791 782 774 774 735 743 735 728 721 721 714 714 700 700 687 675 663 669 651 645 639 634 639 629 629 629 618 623 608 603 598 593 588 588 574 574 566 557 553 541 545 545 545 537 537 537 529 529 525 521 511 511 514 507 507 514 511 511 507 521 507 511 504 507 507 0 0 0 0 0
    0 0 0 0 0 0 0 0 0 0 0 0 0 0 0 0 0 0 0 0 0 0 0 0 0 0 0 0 0 0 0 0 0 0 0 0 0 0 0 0 0 0 0 0 0 0 0 0 0 0 0 0 0 0 0 0 0 0 0 0 0 0 0 0 0 0 0 0 0 0 0 1711 0 1599 1471 0 0 0 0 0 0 0 0 0 0 0 0 1443 1471 1338 0 1291 1247 1268 1268 1268 1291 1291 1268 1247 1268 1268 1291 1338 1314 1338 1338 1338 1362 1415 1501 1415 1471 1533 1501 1501 1565 76 1501 1443 1635 1415 1388 1501 1501 1415 1388 1388 1314 1291 1291 1291 1314 1268 1226 1226 1268 1268 1268 1291 1291 1268 1268 1362 1291 1338 1314 1388 1362 1362 1338 1314 1268 1291 1268 1206 1206 1206 1168 1226 1226 1247 1226 1247 1268 1268 1268 1291 1268 1291 1314 1291 1268 1268 1268 1291 1268 1291 1291 1388 1415 1388 1388 1415 1415 1415 1362 1362 1268 1268 1268 1268 1247 1268 1268 1291 1314 1314 1291 1314 1268 1247 1291 1268 1187 1247 1206 1187 1149 1168 1132 1082 0 0 1066 1226 1291 1338 1362 1362 1443 1362 1362 1362 1362 1338 1338 1362 1314 1388 1415 1388 1388 1362 1338 1338 0 0 1036 968 908 886 865 836 826 826 817 808 808 799 799 782 774 782 735 743 743 728 728 721 714 714 707 700 687 681 669 669 651 651 645 639 639 634 629 629 618 618 608 603 598 593 588 588 574 570 561 553 549 541 545 541 541 537 537 541 529 529 525 521 511 511 514 504 507 514 507 511 504 521 507 511 507 507 507 0 0 0 0 0
    0 0 0 0 0 0 0 0 0 0 0 0 0 0 0 0 0 0 0 0 0 0 0 0 0 0 0 0 0 0 0 0 0 0 0 0 0 0 0 0 0 0 0 0 0 0 0 0 0 0 0 0 0 0 0 0 0 0 0 0 0 0 0 0 0 0 0 0 0 0 0 0 0 1533 1415 0 0 0 0 0 0 0 0 0 0 0 0 0 1471 1338 0 1291 1268 1291 0 1268 1291 1291 1268 1268 1291 1291 1314 1362 1338 1338 1362 1362 1388 1415 1471 1388 1443 1501 1471 1471 1565 0 1471 1443 1635 1443 1415 1533 1471 1415 0 1362 1314 1268 1291 1268 1314 1268 1247 1247 1268 1291 1291 1291 1291 1268 1291 1362 1314 1362 1338 1388 1388 1388 1362 1314 1291 1291 1268 1206 1206 1206 1187 1226 1226 1247 1226 1226 1268 1268 1247 1291 1268 1268 1291 1268 1268 1268 1268 1314 1314 1314 1314 1415 1443 1415 1415 1415 1415 1388 1362 1338 1268 1247 1247 1247 1247 1247 1247 1268 1291 1291 1314 1338 1291 1268 1338 1291 1226 1291 1226 1226 1168 1187 1149 1066 0 0 1051 1168 1247 1291 1291 1314 1388 1338 1338 1338 1338 1338 1338 1338 1314 1362 1388 1362 1362 1338 1314 1291 1115 1008 1008 955 886 876 865 845 836 836 826 817 808 808 799 791 774 782 735 750 743 735 728 721 714 721 707 700 687 681 669 669 657 657 645 639 645 634 634 629 623 623 608 603 598 593 588 588 574 570 561 553 553 541 545 541 541 537 537 541 533 529 529 521 511 511 514 504 507 514 507 511 504 521 507 514 507 507 507 0 0 0 0 0
    0 0 0 0 0 0 0 0 0 0 0 0 0 0 0 0 0 0 0 0 0 0 0 0 0 0 0 0 0 0 0 0 0 0 0 0 0 0 0 0 0 0 0 0 0 0 0 0 0 0 0 0 0 0 0 0 0 0 0 0 0 0 0 0 0 0 0 0 0 0 0 0 0 1599 1443 0 0 0 0 0 0 0 0 0 0 0 0 0 0 1338 0 1314 1314 1314 0 1291 1314 1314 1291 1268 1291 1268 1314 1338 1338 1338 1362 1362 1362 1415 1443 1388 1415 1471 1443 1443 1501 1533 1471 1443 1635 1471 1415 1533 1471 1443 1443 1362 1291 1268 1291 1268 1268 1268 1226 1226 1247 1291 1291 1291 1291 1268 1291 1362 1314 1362 1338 1415 1415 1415 1362 1338 1291 1314 1268 1187 1206 1206 1187 1206 1226 1226 1226 1226 1268 1268 1247 1291 1268 1291 1291 1291 1268 1247 1247 1247 1314 1314 1314 1443 1443 1415 1415 1443 1443 1415 1388 1362 1268 1247 1247 1268 1247 1247 1268 1268 1314 1314 1314 1362 1314 1268 1362 1314 1291 1291 1247 1247 1206 1206 1149 1066 0 1051 1036 1132 1206 1247 1268 1268 1338 1291 1338 1314 1338 1314 1314 1314 1268 1338 1338 1314 1314 1291 1206 1149 1008 981 968 931 876 865 865 845 836 836 826 826 817 808 799 791 782 782 743 750 743 735 728 721 714 721 714 700 687 681 675 675 657 657 645 639 645 634 634 634 623 623 608 603 598 593 584 584 570 570 561 553 553 541 545 545 545 537 537 541 533 529 529 521 511 514 514 507 507 514 507 511 500 518 504 511 504 504 507 0 0 0 0 0
    0 0 0 0 0 0 0 0 0 0 0 0 0 0 0 0 0 0 0 0 0 0 0 0 0 0 0 0 0 0 0 0 0 0 0 0 0 0 0 0 0 0 0 0 0 0 0 0 0 0 0 0 0 0 0 0 0 0 0 0 0 0 0 0 0 0 0 0 0 0 0 0 1635 1565 1415 0 0 0 0 0 0 0 0 0 0 0 0 0 0 0 0 0 0 0 0 0 1338 1338 1314 1291 1314 1291 1314 1362 1338 1338 1362 1362 1388 1415 1443 1388 1388 1443 1415 1415 1471 1471 1443 1443 1635 1501 1443 1565 1565 1501 1501 1362 1268 1247 1268 1247 1247 1268 1226 1247 1247 1268 1268 1268 1291 1291 1268 1314 1291 1362 1362 1415 1415 1415 1362 1338 1314 1362 1291 0 1206 1206 1187 1206 1226 1226 1206 1206 1268 1268 1247 1291 1291 1291 1291 1291 1291 1268 1247 1226 1314 1314 1314 1415 1443 1415 1388 1443 1471 1415 1388 1388 1291 1291 1291 1291 1268 1268 1268 1268 1314 1314 1314 1362 1362 1268 1388 1314 1291 1291 1247 1247 1206 1206 1168 1082 1098 1066 1051 1187 1247 1268 1291 1291 1388 1314 1338 1314 1314 1291 1268 1268 1226 1291 1291 1247 1168 1066 1022 1008 981 955 943 908 865 855 855 845 836 836 836 826 817 817 808 799 782 791 750 750 750 743 735 728 721 721 714 707 694 681 675 675 663 657 645 634 645 634 634 634 623 623 613 608 598 593 584 584 570 566 557 553 553 541 545 541 541 537 537 541 533 529 529 521 511 511 511 507 507 511 507 507 500 518 504 511 504 504 504 0 0 0 0 0
    0 0 0 0 0 0 0 0 0 0 0 0 0 0 0 0 0 0 0 0 0 0 0 0 0 0 0 0 0 0 0 0 0 0 0 0 0 0 0 0 0 0 0 0 0 0 0 0 0 0 0 0 0 0 0 0 0 0 0 0 0 0 0 0 0 0 0 0 0 0 0 0 0 1565 1415 0 0 0 0 0 0 0 0 0 0 0 0 0 0 0 0 0 0 0 0 0 1388 1362 1338 1314 1314 1314 1338 1388 1362 1362 1388 1388 1388 1415 1443 1388 1388 1415 1415 1415 1471 1443 1415 1415 1599 1471 1443 1533 1533 1471 1443 1362 1247 1226 1247 1226 1226 1247 1226 1247 1226 1268 1268 1268 1291 1291 1291 1314 1291 1388 1362 1415 1415 1415 1362 1362 1338 1388 1314 0 1226 1206 1187 1206 1226 1206 1206 1206 1247 1247 1247 1291 1268 1291 1314 1291 1268 1268 1247 1226 1291 1291 1291 1415 1415 1415 1388 1443 1471 1415 1388 1388 1291 1268 1268 1268 1247 1247 1247 1247 1291 1291 1314 1338 0 0 1415 1314 0 0 0 1268 0 1226 1206 1115 1132 1115 1082 1226 1268 1291 1291 1362 1415 1314 1338 1314 1268 1226 1226 1226 1168 1168 1187 1115 1036 1008 994 981 968 931 919 897 876 865 855 845 836 836 836 826 817 817 808 799 791 791 750 758 750 750 735 728 721 721 714 707 694 681 681 675 663 663 645 634 645 634 634 629 623 623 608 608 598 588 579 584 566 566 557 553 553 541 545 541 541 537 537 541 533 533 529 521 511 514 511 507 507 511 507 511 500 514 500 511 504 504 504 0 0 0 0 0
    0 0 0 0 0 0 0 0 0 0 0 0 0 0 0 0 0 0 0 0 0 0 0 0 0 0 0 0 0 0 0 0 0 0 0 0 0 0 0 0 0 0 0 0 0 0 0 0 0 0 0 0 0 0 0 0 0 0 0 0 0 0 0 0 0 0 0 0 0 0 0 0 0 0 0 0 0 0 0 0 0 0 0 0 0 0 0 0 0 0 0 0 0 0 0 0 0 1338 1314 1291 1291 1314 1314 1362 1362 1362 1388 1362 1388 1415 1415 1388 1388 1388 1388 1388 1443 1415 1388 1388 1565 1443 1415 1443 1471 1415 1388 1338 1226 1247 1268 1247 1268 1268 1268 1291 1268 1314 1314 1314 1338 1338 1338 1362 1314 1415 1362 1415 1415 1415 1388 1362 1362 1415 1314 1226 1247 1226 1206 1226 1247 1226 1226 1226 1268 1268 1268 1291 1268 1291 1291 1291 1268 1247 1247 1206 1247 1268 1291 1388 1415 1415 1362 1415 1443 1388 1388 1388 1291 1291 1268 1291 1247 1247 1268 1268 1291 1291 1291 1338 0 0 1415 1291 1268 0 0 0 0 1291 1226 1132 1168 1168 1149 1247 1268 1291 1291 1338 1388 1291 1291 1268 1226 1187 1168 1149 1098 1066 1066 1036 994 981 968 955 931 908 908 897 876 876 865 855 845 845 845 836 826 826 817 808 791 799 758 758 758 750 735 728 721 728 721 707 694 681 681 675 663 663 645 634 645 634 634 629 623 623 608 603 593 588 579 584 570 566 557 553 553 541 545 541 541 537 537 541 533 533 529 521 511 514 514 507 507 511 507 511 500 514 500 507 500 504 504 0 0 0 0 0
    0 0 0 0 0 0 0 0 0 0 0 0 0 0 0 0 0 0 0 0 0 0 0 0 0 0 0 0 0 0 0 0 0 0 0 0 0 0 0 0 0 0 0 0 0 0 0 0 0 0 0 0 0 0 0 0 0 0 0 0 0 0 0 0 0 0 0 0 0 0 0 0 0 0 0 0 0 0 0 0 0 0 0 0 0 272 271 272 269 270 271 0 0 0 0 0 0 0 1314 1291 1291 1314 1314 1362 1362 1362 1388 1362 1388 1415 1415 1388 1388 1388 1388 1362 1415 1415 1388 1388 1533 1443 1415 1443 1471 1388 1388 1314 1226 1247 1268 1268 1291 1314 1291 1314 1291 1338 1314 1338 1338 1338 1338 1362 1314 1415 1362 1415 1415 1388 1362 1362 1362 1415 1338 0 0 0 0 1247 1247 1226 1226 1226 1291 1247 1247 1268 1268 1291 1291 1268 1247 1247 1226 1187 1187 1247 1268 1362 1388 1388 1362 1415 1415 1388 1388 1388 1291 1291 1291 1291 1268 1268 1291 1291 1291 1314 1314 0 0 0 1471 1268 0 1362 0 0 0 1314 1226 1168 1187 1187 1226 1291 1291 1314 1314 1338 1338 1268 1247 1226 1187 1149 1132 1098 1051 1036 1022 1008 981 955 943 931 919 897 897 886 876 876 876 855 855 855 865 845 836 836 817 808 799 799 758 766 758 758 735 728 721 728 721 707 694 681 681 675 663 663 645 634 645 634 634 629 623 623 603 603 588 584 579 584 570 566 561 553 553 541 545 541 541 537 537 537 533 533 529 521 514 518 514 511 511 511 507 511 500 511 497 507 500 504 504 0 0 0 0 0
    0 0 0 0 0 0 0 0 0 0 0 0 0 0 0 0 0 0 0 0 0 0 0 0 0 0 0 0 0 0 0 0 0 0 0 0 0 0 0 0 0 0 0 0 0 0 0 0 0 0 0 0 0 0 0 0 0 0 0 0 0 0 0 0 0 0 0 0 0 0 0 0 0 0 0 0 0 0 0 0 0 0 0 0 0 0 273 273 269 0 0 0 0 0 0 0 0 0 1338 1291 1291 1314 1338 1362 1362 1388 1415 1388 1415 1443 1471 1415 1388 1415 1388 1362 1415 1415 1362 1362 1501 1415 1415 1415 1501 1415 1415 1338 1291 1291 1314 1314 1338 1338 1338 1338 1314 1338 1338 1338 1362 1338 1314 1338 1314 1415 1362 1388 1388 1388 1362 1362 1362 1415 1338 1247 1268 1268 1247 1247 1247 1226 1226 1226 1268 1247 1247 1268 1268 1268 1291 1291 1268 1247 1226 1187 1149 1226 1247 1338 1338 1338 1338 1388 1388 1388 1388 1388 1314 1314 1314 1314 1291 1268 1291 1291 1314 1314 1338 0 0 0 1443 1291 1338 1388 0 0 0 1338 1268 1206 1226 1206 1268 1338 1314 1362 1388 1362 1314 1247 1226 1206 1168 1115 1115 1082 1051 1051 1036 1008 994 968 955 943 919 897 897 886 865 876 876 865 855 865 865 845 836 836 817 817 799 808 766 766 758 766 735 728 721 721 714 707 694 681 681 675 657 663 645 634 639 634 634 634 629 629 608 603 588 584 579 584 570 566 561 557 557 545 549 545 541 541 541 541 533 533 529 521 511 518 514 511 511 511 507 511 504 511 500 507 500 500 504 0 0 0 0 0
    0 0 0 0 0 0 0 0 0 0 0 0 0 0 0 0 0 0 0 0 0 0 0 0 0 0 0 0 0 0 0 0 0 0 0 0 0 0 0 0 0 0 0 0 0 0 0 0 0 0 0 0 0 0 0 0 0 0 0 0 0 0 0 0 0 0 0 0 0 0 0 0 0 0 0 0 0 0 0 0 0 0 0 0 0 0 0 273 269 0 0 0 0 0 0 0 0 0 1388 1314 1314 1314 1338 1362 1388 1388 1415 1388 1415 1471 1471 1415 1415 1415 1388 1362 1415 1415 1362 1362 1501 1415 1415 1415 1533 1443 1471 1362 1314 1338 1362 1338 1338 1338 1338 1338 1314 1362 1338 1338 1338 1362 1338 1338 1314 1415 1362 1388 1388 1388 1362 1362 1362 1415 1338 1247 1291 1291 1268 1247 1247 1247 1226 1226 1291 1247 1247 1268 1268 1268 1314 1291 1291 1268 1247 1187 1132 1226 1226 1314 1314 1314 1314 1362 1388 1388 1362 1388 1314 1314 1314 1338 1291 1291 1314 1314 1338 1338 1362 0 0 0 1443 1314 1415 1415 0 1443 1388 1388 1314 1291 1314 1268 1314 1362 1362 1388 1415 1362 1291 1247 1226 1187 1149 1115 1115 1098 1066 1066 1036 1022 1008 981 968 955 931 897 897 897 865 886 886 865 855 865 876 845 836 836 826 817 799 808 766 766 758 766 735 728 721 721 714 700 694 681 681 669 657 663 645 634 639 634 634 634 629 629 608 603 593 584 579 579 570 566 561 557 553 545 549 545 541 541 541 541 533 533 529 521 511 518 511 511 511 507 507 511 507 511 504 507 500 500 504 0 0 0 0 0
    0 0 0 0 0 0 0 0 0 0 0 0 0 0 0 0 0 0 0 0 0 0 0 0 0 0 0 0 0 0 0 0 0 0 0 0 0 0 0 0 0 0 0 0 0 0 0 0 0 0 0 0 0 0 0 0 0 0 0 0 0 0 0 0 0 0 0 0 0 0 0 0 0 0 0 0 0 0 0 0 0 0 1338 1314 1291 0 0 0 0 0 0 0 0 0 0 0 0 0 1471 1388 1362 1362 1388 1388 1415 1415 1471 1415 1415 1471 1501 1415 1415 1415 1388 1362 1388 1415 1388 1362 1471 1388 1388 1388 1501 1415 1415 1338 1291 1338 1362 1362 1338 1362 1362 1362 1338 1388 1362 1362 1362 1388 1362 1362 1314 1443 1388 1415 1415 1388 1388 1388 1362 1471 1338 1268 1314 1314 1291 1268 1268 1247 1247 1247 1291 1247 1247 1247 1268 1268 1314 1314 1291 1268 1268 1226 1132 1226 1226 1268 1291 1291 1291 1338 1362 1362 1362 1388 1338 1338 1314 1338 1291 1291 1314 1314 1314 1314 1314 0 0 0 1415 1291 1415 1388 1443 1443 1388 1362 1338 1314 1314 1291 1338 1362 1362 1388 1415 1362 1291 1268 1226 1206 1168 1132 1132 1115 1082 1082 1036 1022 1008 981 968 955 943 897 919 897 876 897 886 876 865 876 886 855 845 845 826 808 808 808 766 766 758 766 735 728 0 714 707 694 687 681 675 669 657 663 645 634 645 634 634 634 629 629 608 608 593 588 579 584 570 566 561 557 557 545 549 545 541 541 541 541 533 537 529 521 514 518 514 511 511 511 507 514 507 514 507 504 500 497 500 0 0 0 0 0
    0 0 0 0 0 0 0 0 0 0 0 0 0 0 0 0 0 0 0 0 0 0 0 0 0 0 0 0 0 0 0 0 0 0 0 0 0 0 0 0 0 0 0 0 0 0 0 0 0 0 0 0 0 0 0 0 0 0 0 0 0 0 0 0 0 0 0 0 0 0 0 0 6690 5256 0 0 0 0 0 1066 1115 1226 1291 1268 1268 1291 0 0 0 0 1936 0 1936 1989 1936 0 0 0 1471 1415 1338 1362 1388 1388 1388 1415 1443 1415 1415 1501 1501 1388 1415 1415 1388 1362 0 0 0 0 0 1388 1388 1415 1635 1443 1415 1362 1314 1362 1388 1388 1362 1362 1362 1362 1338 1362 1362 1362 1362 1362 1362 1338 1314 1443 1388 1415 1415 1388 1415 1388 1388 1501 1338 1291 1338 1338 1314 1291 1291 1268 1268 1268 1291 1268 1268 1268 1291 0 1388 1362 1362 1314 1291 1268 1132 1206 1206 1226 1268 1268 1268 1314 1338 1362 1388 1415 1362 1362 1338 1362 1314 1291 1338 1314 1314 1314 1291 0 0 0 1388 1291 1388 1388 1533 1471 1443 1362 1338 1314 1314 1268 1338 1362 1362 1388 1388 1338 1291 1268 1226 1206 1168 1149 1132 1115 1082 1098 1051 1036 1008 994 968 968 943 908 919 908 876 897 897 876 865 876 897 855 845 845 826 808 808 808 766 766 758 766 728 728 0 714 707 694 687 0 681 669 657 663 645 639 645 639 634 634 634 634 613 613 598 588 584 584 574 570 561 561 557 549 553 545 541 541 541 541 533 537 533 521 514 518 514 511 514 511 511 514 514 514 511 504 500 493 497 0 0 0 0 0
    0 0 0 0 0 0 0 0 0 0 0 0 0 0 0 0 0 0 0 0 0 0 0 0 0 0 0 0 0 0 0 0 0 0 0 0 0 0 0 0 0 0 0 0 0 0 0 0 0 0 0 0 0 0 0 0 0 0 0 0 0 0 0 0 0 0 0 0 0 0 0 0 7359 5661 0 0 0 0 0 0 0 1168 1291 1291 1314 1338 0 0 0 0 0 0 0 0 0 0 0 0 1443 1415 1362 1362 1415 1415 1415 1443 1471 1443 1415 1501 1533 1415 1415 1415 1388 1362 1388 0 0 0 0 1415 1415 1443 1672 1501 1443 1388 1362 1415 1443 1443 1415 1388 1415 1415 1388 1415 1388 1388 1362 1362 1388 1362 1314 1415 1388 1388 1415 1415 1415 1415 1388 1533 1338 1314 1362 1362 1338 1314 1314 1291 1291 1291 1338 1291 1291 0 0 0 1415 1388 1415 1338 1314 1291 1115 1206 1206 1206 1247 1247 1247 1268 1291 1338 1362 1388 1362 1362 1338 1362 1338 1314 1338 1314 1314 1314 1291 0 1415 1338 1362 1314 1388 1388 1565 1471 1443 1362 1338 1338 1314 0 1338 1362 1362 1388 1388 1314 1247 1247 1226 1187 1168 1149 1132 1115 1098 1098 1051 1036 1022 994 968 968 955 919 931 919 876 908 908 886 865 886 897 855 845 845 826 808 799 799 766 766 758 766 728 728 0 707 707 694 687 0 681 669 657 669 645 639 645 639 634 634 634 639 613 613 598 588 579 579 566 561 557 557 557 545 549 545 541 541 541 537 533 533 533 521 514 518 514 511 514 511 511 518 518 518 514 507 504 497 500 0 0 0 0 0
    0 0 0 0 0 0 0 0 0 0 0 0 0 0 0 0 0 0 0 0 0 0 0 0 0 0 0 0 0 0 0 0 0 0 0 0 0 0 0 0 0 0 0 0 0 0 0 0 0 0 0 0 0 0 0 0 0 0 0 0 0 0 0 0 0 0 0 0 0 0 0 0 5256 0 0 570 0 0 0 0 1533 1362 1362 1338 1388 1415 0 0 0 0 0 0 0 0 0 0 0 0 1415 1388 1338 1362 1388 1388 1415 1415 1443 1443 1443 1533 1533 1415 1415 1415 1415 1388 1388 0 1388 0 0 1415 1415 1415 1635 1471 1388 1362 1362 1388 1415 1415 1415 1362 1415 1415 1388 1415 1415 1388 1362 1362 1415 1362 1314 1415 1388 1388 1415 1415 1443 1415 1388 1565 1338 1338 1388 1362 1338 1338 1338 1314 1314 1338 1362 1291 1291 1362 0 1362 1443 1388 1415 1362 1314 1291 1115 1206 1206 1187 1226 1226 1226 1247 1268 1314 1314 1314 1338 1338 1314 1338 1314 1291 1314 1291 1291 1291 0 0 1362 1314 1338 1338 1388 1388 1471 1443 1415 1362 1362 1362 0 0 1314 1338 1338 1362 1362 1291 1206 1247 1226 1168 1168 1168 1149 1132 1098 1098 1051 1051 1022 994 968 968 955 931 931 931 886 908 908 886 865 886 897 855 845 845 817 808 799 799 766 758 758 766 728 721 0 700 700 694 687 0 681 669 657 669 651 639 645 639 634 634 634 639 613 613 593 584 574 579 566 561 557 557 553 545 549 545 541 541 541 537 533 533 533 518 514 518 514 514 514 511 514 521 521 525 521 518 507 500 507 0 0 0 0 0
    0 0 0 0 0 0 0 0 0 0 0 0 0 0 0 0 0 0 0 0 0 0 0 0 0 0 0 0 0 0 0 0 0 0 0 0 0 0 0 0 0 0 0 0 0 0 0 0 0 0 0 0 0 0 0 0 0 0 0 0 0 0 0 0 0 0 0 0 0 0 0 0 3345 0 561 561 0 0 0 0 1672 1471 1443 1443 1443 1471 1471 0 0 0 0 0 0 0 0 0 0 1362 1415 1388 1338 1362 1415 1388 1415 1415 1471 1471 1443 1533 1533 1415 1443 1443 1443 1388 1388 0 1388 0 0 0 1443 1443 1711 1471 1388 1362 1362 1388 1415 1415 1415 1362 1415 1443 1415 1443 1443 1415 1388 1388 1471 1362 1314 1415 1388 1388 1415 1443 1471 1443 1415 1565 1338 1362 1388 1388 1362 1338 1338 1314 1338 1362 1362 1314 1314 1362 1338 1362 1443 1415 1471 1362 1338 1314 1115 1226 1226 1187 1226 1226 1226 1226 1268 1314 1291 1291 1362 1338 1338 1362 1362 1314 1338 1291 1314 1291 0 0 1338 1314 1338 1338 1415 1388 1443 1443 1415 1338 1388 1362 0 0 1314 1314 1314 1314 1314 1268 1206 1247 1226 1168 1168 1168 1149 1132 1115 1115 1066 1051 1036 994 968 968 955 931 931 931 876 908 908 886 865 886 897 855 845 845 817 808 799 799 766 758 758 766 728 721 0 700 700 687 681 0 681 663 657 0 651 639 645 639 634 634 634 634 613 613 593 584 579 579 566 561 557 557 553 545 549 545 541 541 541 537 533 533 529 518 514 518 514 514 514 514 514 521 525 525 525 521 511 504 511 0 0 0 0 0
    0 0 0 0 0 0 0 0 0 0 0 0 0 0 0 0 0 0 0 0 0 0 0 0 0 0 0 0 0 0 0 0 0 0 0 0 0 0 0 0 0 0 0 0 0 0 0 0 0 0 0 0 0 0 0 0 0 0 0 0 0 0 0 0 0 0 0 0 0 0 0 0 3345 0 561 561 0 0 0 0 0 1471 1443 1443 1471 1471 1471 1471 0 1501 1533 1565 0 0 0 0 1415 1388 1471 1415 1362 1362 1415 1415 1388 1415 1471 1471 1443 1533 1565 1415 1443 1443 1471 1415 1415 0 1388 0 0 0 1443 1471 1711 1471 1362 1362 1362 1415 1415 1415 1388 1362 1415 1443 1415 1415 1415 1388 1388 1362 1415 1314 1268 1388 1388 1415 1415 1443 1471 1443 1443 1565 1362 1362 1388 1362 1338 1338 1338 1314 1314 1362 1338 1291 1291 1338 1338 1362 1415 1388 1415 1338 1338 1314 1132 1247 1247 1187 1226 1226 1226 1226 1268 1314 1291 1291 1362 1338 1338 1338 1362 1291 1268 1226 1247 1268 0 0 1362 1291 1338 1362 1415 1388 1388 1415 1362 1268 1388 1362 1268 1206 1314 1314 1314 1314 1314 1247 1206 1247 1247 1187 1187 1187 1168 1149 1115 1115 1066 1051 1036 994 968 968 955 943 943 931 886 919 908 886 876 886 897 855 836 845 817 799 0 799 766 758 758 766 728 721 0 694 700 687 681 0 681 663 651 0 645 639 645 639 634 634 634 634 618 613 598 584 579 574 570 561 557 557 553 541 549 545 541 541 541 537 533 533 529 514 514 518 514 514 514 511 511 521 525 525 525 518 511 504 507 0 0 0 0 0
    0 0 0 0 0 0 0 0 0 0 0 0 0 0 0 0 0 0 0 0 0 0 0 0 0 0 0 0 0 0 0 0 0 0 0 0 0 0 0 0 0 0 0 0 0 0 0 0 0 0 0 0 0 0 0 0 0 0 0 0 0 0 0 0 0 0 0 0 0 0 0 0 0 0 0 557 0 1711 0 0 0 1415 1388 1415 1443 1471 1501 1471 0 1565 1565 1599 1565 1635 1635 1533 1415 1415 1471 1415 1362 1362 1415 1415 1415 1415 1471 1471 1471 1533 1565 1415 1415 1443 1471 1388 1388 0 1388 1388 1501 1471 1415 1443 1672 1415 1314 1338 1362 1415 1443 1415 1362 1362 1415 1471 1415 1415 1388 1388 1362 1362 1415 1314 1247 1362 1362 1388 1415 1443 1443 1443 1443 1565 1338 1388 1388 1362 1338 0 1338 1314 1338 1362 1338 1314 1314 1314 1338 1338 1388 1338 1388 1314 1314 0 1149 1268 1268 1187 1226 1226 1226 1226 1268 1291 1268 1268 1362 1338 1314 1338 1338 1247 1206 1187 1187 1226 0 0 1314 1226 1338 1338 1388 1362 1338 0 1362 0 1388 1362 1247 1206 1314 1314 1291 1314 1314 1247 1206 1247 1247 1187 1187 1206 1187 1168 1132 1115 1066 1051 1036 994 981 981 968 943 943 931 886 919 908 897 876 886 897 855 836 845 817 799 0 799 766 758 750 766 721 721 0 694 700 687 681 0 681 663 651 663 645 639 645 639 634 634 634 634 618 613 598 584 579 574 570 561 561 557 557 545 549 545 541 541 537 533 529 529 529 514 511 514 511 514 514 511 511 521 521 521 525 518 511 504 511 0 0 0 0 0
    0 0 0 0 0 0 0 0 0 0 0 0 0 0 0 0 0 0 0 0 0 0 0 0 0 0 0 0 0 0 0 0 0 0 0 0 0 0 0 0 0 0 0 0 0 0 0 0 0 0 0 0 0 0 0 0 0 0 0 0 0 0 0 0 0 0 0 0 0 0 0 0 1936 0 0 0 0 1599 0 0 0 0 0 1443 1471 1533 1565 1565 0 1635 1599 1635 1635 1711 1752 1501 1388 1415 1443 1415 1362 1362 1415 1415 1388 1443 1471 1501 1501 1565 1565 1415 1415 1443 1443 1388 1388 0 1388 1362 1471 1471 1415 1415 1635 1338 1247 1291 1314 1362 1388 1388 1338 1338 1415 1501 1443 1443 1415 1415 1388 1388 1471 1314 1268 1362 1362 1388 1415 1443 1443 1443 1443 1533 1362 1388 0 0 0 0 0 0 1338 1362 1338 1314 1314 1314 1362 1362 1362 1291 1338 1291 1314 0 1168 1291 1291 1206 1247 1247 1226 1247 1268 1291 1268 1268 1362 0 0 1338 1314 1247 1206 1168 1187 1226 0 0 0 0 0 1362 1471 1415 0 0 0 0 0 0 0 1268 1314 1314 1291 1314 1314 1247 1226 1268 1247 1187 1206 1206 1187 1168 1132 1115 1066 1051 1036 994 981 981 968 943 943 931 886 919 919 897 876 886 897 855 836 845 817 799 799 799 766 758 750 766 728 721 0 694 700 681 681 0 681 663 651 663 645 639 645 639 634 629 634 634 623 613 598 584 579 579 570 566 566 561 561 549 553 549 541 541 537 533 529 529 525 514 514 514 514 514 514 514 511 521 521 521 525 518 511 507 511 0 0 0 0 0
    0 0 0 0 0 0 0 0 0 0 0 0 0 0 0 0 0 0 0 0 0 0 0 0 0 0 0 0 0 0 0 0 0 0 0 0 0 0 0 0 0 0 0 0 0 0 0 0 0 0 0 0 0 0 0 0 0 0 0 0 0 0 0 0 0 0 0 0 0 0 0 1795 0 0 0 0 1599 1565 0 0 0 0 0 0 1471 1565 1599 0 0 0 1565 1599 1599 1711 0 1415 1362 1443 1443 1415 1362 1362 1415 1415 1388 1415 1443 1471 1501 1533 1565 1388 1388 1443 1443 1362 1362 0 1388 1362 1471 1471 1415 1415 1599 1314 1226 1268 1291 1338 1338 1314 1314 1338 1415 1471 1443 1415 0 1388 1388 1415 1443 1314 1291 1362 1362 1388 1415 1443 1443 1415 1443 1471 1338 1388 0 0 0 0 0 0 1362 1362 1338 1338 1338 1338 1388 1388 1388 1291 1362 1314 1338 1362 1206 1338 1314 1206 1247 1247 1247 1247 1268 1291 1268 1247 1362 0 0 1362 1314 1226 1206 1168 1187 1226 0 0 0 0 0 1338 1388 1362 0 0 0 0 0 0 0 1338 1338 1314 1314 1314 1314 1226 1226 1268 1247 1168 1187 1206 1187 1168 1132 1115 1051 1051 1036 994 981 981 968 943 943 943 886 919 919 897 876 886 897 865 836 845 817 791 799 791 766 758 750 766 728 721 0 700 700 681 681 675 675 657 651 657 645 639 645 634 634 629 634 629 623 613 598 584 579 584 579 574 574 570 570 553 561 549 541 545 537 533 529 529 525 514 514 518 514 514 514 514 511 521 521 521 525 518 518 511 518 0 0 0 0 0
    0 0 0 0 0 0 0 0 0 0 0 0 0 0 0 0 0 0 0 0 0 0 0 0 0 0 0 0 0 0 0 0 0 0 0 0 0 0 0 0 0 0 0 0 0 0 0 0 0 0 0 0 0 0 0 0 0 0 0 0 0 0 0 0 0 0 0 0 0 1565 0 1711 1672 0 0 1533 1362 1443 0 0 0 0 0 1471 1533 1599 1635 1565 0 1565 1501 1501 1501 1471 1599 1314 1314 1388 1388 1362 1338 1338 1388 1362 1362 1415 1443 1471 1471 1501 1533 1388 1388 1443 1415 1362 0 0 1362 1362 1443 1471 1415 1415 1565 1314 1226 1291 1291 1291 1314 1291 1247 1338 1415 1471 1415 1388 0 1362 1362 1388 1415 1291 1314 1362 1362 1388 1388 1415 1443 1415 1443 1415 1338 0 0 0 0 0 0 0 1388 1388 1338 1338 1362 1338 1388 1388 1362 1268 1338 1291 1338 1338 1226 1362 1338 1226 1268 1268 1247 1247 1268 1291 1247 1226 1314 0 0 1362 1314 1226 1206 1187 1206 1226 0 0 0 0 0 0 1338 1314 1314 0 0 0 0 0 1082 1291 1314 1291 1268 1291 1291 1206 1206 1247 1247 1168 1187 1187 1168 1168 1115 1115 1066 1051 1036 994 981 981 968 943 931 931 886 919 908 897 876 886 897 865 836 845 817 791 799 791 766 758 750 766 728 721 714 700 694 681 681 669 675 651 645 651 639 639 639 634 0 629 629 623 623 613 593 584 579 584 579 574 574 570 570 553 561 549 541 541 537 533 529 529 529 518 514 518 514 514 514 511 511 521 521 521 529 521 518 511 518 0 0 0 0 0
    0 0 0 0 0 0 0 0 0 0 0 0 0 0 0 0 0 0 0 0 0 0 0 0 0 0 0 0 0 0 0 0 0 0 0 0 0 0 0 0 0 0 0 0 0 0 0 0 0 0 0 0 0 0 0 0 0 0 0 0 0 0 0 0 0 0 0 0 0 1471 1362 1471 1533 1501 1533 1501 1388 1415 1471 0 0 0 0 1471 1533 1599 1635 1565 1533 1533 1471 1471 1501 1471 1533 1268 1291 1362 1338 1338 1338 1338 1388 1338 1338 1388 1415 1443 1443 1471 1471 1388 1362 1443 1388 1338 0 0 1362 1362 1388 1415 1362 1388 1471 1291 1226 1291 1291 1291 1291 1268 1226 1314 1388 1443 1415 1388 1388 1362 1362 1415 1388 1314 1314 1362 1362 1388 1388 1415 1415 1415 1443 1388 1338 0 0 0 0 0 0 0 1362 1362 1314 1314 1314 1314 1314 1314 1291 1226 1247 1226 1268 1314 1206 1388 1338 1247 1268 1268 1247 1268 1268 1291 1226 1206 1291 1268 1291 1362 1291 1247 1226 1206 1206 1247 0 0 0 0 0 0 1338 1338 1338 1314 1247 1187 0 1338 1226 1268 1291 1268 1268 1291 1268 1206 1206 1247 1226 1149 1187 1187 1168 1168 1115 1098 1066 1051 1051 1008 981 981 968 943 943 931 876 919 908 897 876 886 897 865 845 845 817 799 799 791 766 758 750 766 728 728 714 700 694 681 675 669 675 651 645 645 634 639 639 634 629 623 629 623 623 613 593 579 579 579 574 570 574 570 570 553 557 549 541 541 537 533 529 529 529 518 514 518 514 514 511 511 511 518 521 518 525 518 518 511 518 0 0 0 0 0
    0 0 0 0 0 0 0 0 0 0 0 0 0 0 0 0 0 0 0 0 0 0 0 0 0 0 0 0 0 0 0 0 0 0 0 0 0 0 0 0 0 0 0 0 0 0 0 0 0 0 0 0 0 0 0 0 0 0 0 0 0 0 0 0 0 0 0 0 0 1501 1388 1388 1443 1443 1443 1471 1362 1362 0 0 0 0 0 1415 1443 1533 1565 1533 1501 1501 1443 1471 1471 1443 1443 0 1291 1338 1314 1338 1338 1362 1388 1338 1338 1388 1415 1415 1415 1443 1443 1362 1362 1415 1362 0 76 0 1338 1338 1362 1388 1362 1362 1415 1291 1247 1291 1291 1291 1291 1268 1268 1338 1388 1443 1388 0 1362 1362 1362 1415 1362 1291 1314 1338 1362 1388 1388 1415 1388 1415 1443 1388 1362 0 0 0 0 190 0 0 1314 1291 1247 1247 1268 1247 1268 1268 1226 1187 1187 1206 1206 1247 1206 1415 1362 0 1291 1268 1247 1268 1268 1291 1226 1206 1291 1268 1268 1362 1291 1226 1226 1206 1206 1247 0 0 0 0 0 0 0 1338 1314 1291 1226 1226 1268 1314 1268 1314 1314 1291 1291 1314 1291 1247 1226 1247 1247 1168 1187 1206 1168 1168 1115 1098 1066 1051 1051 1008 994 994 981 955 943 943 876 919 908 897 876 897 908 865 845 845 817 799 799 791 766 758 758 766 735 728 714 700 694 675 675 663 669 645 645 639 634 634 634 634 629 623 629 623 629 613 593 579 579 579 574 570 574 570 570 553 561 553 541 545 537 533 529 529 529 518 514 514 514 514 511 511 507 518 518 514 525 514 518 507 514 0 0 0 0 0
    0 0 0 0 0 0 0 0 0 0 0 0 0 0 0 0 0 0 0 0 0 0 0 0 0 0 0 0 0 0 0 0 0 0 0 0 0 0 0 0 0 0 0 0 0 0 0 0 0 0 0 0 0 0 0 0 0 0 0 0 0 0 0 0 0 0 0 0 0 1471 1388 1362 1388 1362 1362 1388 1338 1314 0 0 0 0 0 0 1443 0 1635 1565 0 1565 1443 1501 1443 1388 1362 1314 1338 1362 1338 1362 1388 1415 1415 1362 1338 1388 1415 1415 1415 1415 1443 1362 1362 1415 1338 0 76 0 1338 1314 1338 1388 1362 1362 1415 1314 1268 1314 1314 1338 1338 1291 1314 1362 1415 1443 1415 1388 1388 1388 1388 1443 1362 1291 1314 1338 1362 1362 1362 1388 1388 1388 1415 1388 1362 0 0 0 0 0 0 0 1314 1268 1226 1226 1247 1226 1226 1226 1206 1168 1168 1168 1187 1247 1226 1415 1362 0 1291 1291 1268 1291 1291 1291 1247 1206 1291 1268 1268 1362 1268 1206 1206 1206 1206 0 0 0 0 0 0 0 1362 1362 1362 1338 1247 1268 1247 1314 1314 1338 1338 1314 1291 1314 1291 1268 1226 1268 1247 1168 1206 1206 1187 1168 1115 1098 1051 1051 1051 1008 994 994 981 955 943 943 876 919 908 897 886 897 908 865 845 855 817 799 799 791 766 758 758 766 735 728 721 707 700 681 675 663 669 645 645 634 634 634 634 634 629 623 629 623 629 613 593 579 579 579 579 574 579 570 570 557 561 549 541 541 537 533 533 529 529 518 514 514 514 514 511 511 507 514 518 511 521 511 514 504 511 0 0 0 0 0
    0 0 0 0 0 0 0 0 0 0 0 0 0 0 0 0 0 0 0 0 0 0 0 0 0 0 0 0 0 0 0 0 0 0 0 0 0 0 0 0 0 0 0 0 0 0 0 0 0 0 0 0 0 0 0 0 0 0 0 0 0 0 0 0 0 0 0 0 0 1443 1338 0 1338 1268 0 1314 1314 1268 1247 0 0 0 0 0 0 0 0 0 0 1599 0 1599 1501 1471 1388 1362 1362 1338 1338 1362 1388 1415 1388 1338 1338 1388 1415 1415 1415 1415 1415 1362 1362 1388 1338 0 76 0 1338 1338 1362 1388 1362 1362 1388 1314 1291 1338 1338 1338 1362 1291 1314 1362 1415 1443 1388 1388 1388 1388 1415 1443 1362 1314 1338 1338 1362 1362 1362 1388 1362 1362 1388 1362 1388 0 0 0 0 0 0 0 1314 1268 1226 1226 1247 1226 1226 1226 1206 1168 1187 1187 1187 1268 1247 1443 1362 0 0 1291 1268 1291 1291 1291 1247 1206 1291 1268 1291 1362 1268 1226 1226 1247 1247 0 0 0 0 1415 1471 1415 1415 1415 1533 0 0 0 0 1338 1338 1362 1388 1362 1338 1338 1291 1268 1226 1247 1247 1168 1206 1206 1168 1168 1098 1098 1051 1051 1051 1008 994 981 981 955 943 943 876 919 908 897 886 897 908 865 845 845 817 799 799 791 774 758 758 774 735 735 728 714 707 681 675 663 669 639 645 629 629 634 634 629 629 623 629 623 634 618 598 579 579 579 579 574 579 570 570 557 561 553 545 545 537 533 533 533 529 518 518 514 514 514 507 507 504 514 514 507 521 507 511 500 511 0 0 0 0 0
    0 0 0 0 0 0 0 0 0 0 0 0 0 0 0 0 0 0 0 0 0 0 0 0 0 0 0 0 0 0 0 0 0 0 0 0 0 0 0 0 0 0 0 0 0 0 0 0 0 0 0 0 0 0 0 0 0 0 0 0 0 0 0 0 0 0 0 0 0 1443 1338 0 1338 1291 1314 1291 1314 1291 1268 0 1247 0 0 0 0 0 0 0 0 1599 0 1533 1471 1388 1338 1338 1314 1314 1314 1338 1388 1388 1388 1338 1338 1388 1415 1388 1388 1388 1388 1362 1362 1415 1338 0 0 0 1338 1338 1362 1388 1362 1362 1388 1338 1291 1338 1338 1338 1338 1291 1314 1362 1388 1415 1388 1362 1388 1362 1415 1443 1362 1314 1338 1338 1362 1388 1388 1388 1362 1388 1362 1362 1388 0 0 190 190 0 0 0 1314 1247 1187 1206 1247 1226 1247 1247 1226 1187 1206 1226 1226 1268 1247 1443 1388 0 1291 1291 1291 1291 1291 1291 1247 1206 1291 1291 1291 1338 1268 1247 1247 1247 1247 1291 1291 0 0 1362 1415 1388 1443 1443 0 0 0 1443 1443 1338 1362 1362 1388 1362 1362 1338 1314 1268 1226 1247 1226 1168 1206 1206 1168 1168 1098 1098 1051 1051 0 994 994 981 981 955 943 931 865 908 897 897 886 886 908 865 845 845 817 799 799 791 774 766 758 774 743 735 728 721 707 687 681 663 669 634 639 629 629 634 629 629 629 623 634 623 639 623 598 579 579 579 579 574 574 570 570 557 561 549 541 541 537 537 533 533 533 521 518 514 514 514 507 507 504 511 514 507 521 511 511 500 507 0 0 0 0 0
    0 0 0 0 0 0 0 0 0 0 0 0 0 0 0 0 0 0 0 0 0 0 0 0 0 0 0 0 0 0 0 0 0 0 0 0 0 0 0 0 0 0 0 0 0 0 0 0 0 0 0 0 0 0 0 0 0 0 0 0 0 0 0 0 0 0 0 0 0 1415 1338 0 1338 1314 1314 1314 1338 1314 1291 0 0 0 0 0 0 0 0 0 0 1501 1362 1415 1362 1314 1314 1314 1314 1314 1338 1362 1388 1415 1388 1338 1362 1388 1388 1388 1362 1362 1388 1362 1362 1415 1362 75 0 1388 1362 1338 1388 1415 1362 1388 1388 1338 1314 1338 1338 1338 1338 1268 1314 1362 1388 1415 0 1362 1362 1362 1443 1443 1338 1338 1362 1362 1388 1388 1415 1415 1388 1388 1388 1362 1388 0 189 190 191 0 0 0 1291 1206 1168 1206 1247 1226 1247 1247 1247 1226 1247 1268 1247 1291 1291 1415 1362 0 1291 1291 1291 1291 1291 1291 1247 1206 0 0 0 1314 1268 1247 1247 1247 1268 1314 1291 1291 0 0 1388 1388 1443 1443 1533 1415 1415 1501 1471 1362 1362 1362 1362 1338 1338 1314 1291 1268 1226 1247 1226 1149 1187 1187 1168 1168 1098 1098 1036 1036 0 994 981 981 981 955 943 931 865 897 897 886 886 876 897 855 836 845 817 799 799 782 774 766 758 774 743 735 735 721 714 687 675 657 663 629 634 618 623 629 629 629 629 629 634 629 639 623 603 579 579 579 579 574 574 566 570 557 561 549 541 545 537 537 533 533 533 521 518 514 511 514 507 507 504 511 514 507 521 511 511 504 507 0 0 0 0 0
    0 0 0 0 0 0 0 0 0 0 0 0 0 0 0 0 0 0 0 0 0 0 0 0 0 0 0 0 0 0 0 0 0 0 0 0 0 0 0 0 0 0 0 0 0 0 0 0 0 0 0 0 0 0 0 0 0 0 0 0 0 0 0 0 0 0 0 0 0 1268 1226 1098 1132 1168 1226 1268 1338 1314 1268 0 0 0 0 0 0 0 0 0 0 1501 0 1388 1362 1314 1338 1338 1338 1338 1362 1388 1415 1415 1388 1362 1362 1388 1388 1362 1362 1362 1388 1362 1388 1388 1362 75 0 1388 1362 1338 1388 1415 1388 1388 1415 1338 1314 1338 1338 1314 1314 1268 1314 1362 1388 0 1362 1362 1362 1362 1443 1415 1338 1338 1388 1388 1388 1415 1415 1415 1388 1415 1388 1362 1388 189 189 0 0 0 0 0 1268 1206 1168 1206 1247 1226 1247 1247 1247 1247 1268 1291 1268 1291 1314 1388 1362 1268 1291 1291 1291 1291 1291 1291 1247 1226 0 0 0 1291 1226 1206 1187 1206 1226 1268 1226 1206 1206 0 1362 1362 1388 1415 1443 1388 1388 1443 1415 1338 1338 1314 1338 1338 1314 1314 1268 1247 1206 1226 1226 1149 1187 1187 1168 1168 1098 1098 1036 1036 0 994 981 968 981 955 943 943 865 897 886 886 876 876 886 855 836 836 808 808 799 782 774 766 766 782 750 735 735 728 714 687 675 651 651 623 629 613 623 623 623 629 629 629 634 629 645 0 603 584 579 584 579 570 574 566 566 557 557 549 541 545 537 537 537 533 533 521 518 514 511 514 507 507 504 511 514 511 521 511 511 504 507 0 0 0 0 0
    0 0 0 0 0 0 0 0 0 0 0 0 0 0 0 0 0 0 0 0 0 0 0 0 0 0 0 0 0 0 0 0 0 0 0 0 0 0 0 0 0 0 0 0 0 0 0 0 0 0 0 0 0 0 0 0 0 0 0 0 0 0 0 0 0 0 0 0 0 1247 1149 1051 1132 1247 1314 1338 1388 1338 1314 1338 0 0 0 0 0 0 0 0 0 1565 0 1443 1388 1338 1338 1362 1362 1338 1362 1415 1415 1415 1415 1362 1388 1388 1415 1388 1362 1362 1415 1388 1388 1388 1388 75 75 0 1388 1338 1415 1443 1415 1388 1415 1338 1314 1314 1314 1314 1314 1314 1338 1362 1388 0 1362 1362 1362 1362 1415 1388 1338 1338 1362 1362 1388 1388 1415 1388 1388 1415 1388 1388 1388 189 189 0 0 0 0 0 1268 1226 1187 1226 1247 1226 1247 1247 1247 1247 1268 1291 1268 1291 1314 1362 1338 1247 1291 1291 1291 1291 1291 1291 1268 1247 0 0 0 1268 1206 1187 1168 1168 1206 1226 1168 1115 1066 0 0 0 1388 1415 1471 1388 1362 1388 1338 1314 1314 1291 1314 1291 1291 1291 1291 1247 1206 1226 1226 1168 1187 1187 1168 1168 1115 1115 1051 1051 0 994 981 981 981 968 955 943 865 897 886 876 876 876 876 855 836 836 808 808 799 791 782 774 766 782 750 743 743 735 728 700 681 663 663 618 629 613 618 623 623 623 623 623 629 0 0 0 0 584 579 579 574 570 570 566 566 553 557 549 541 541 537 537 537 533 533 521 521 514 514 514 507 507 507 511 514 511 521 511 511 504 507 0 0 0 0 0
    0 0 0 0 0 0 0 0 0 0 0 0 0 0 0 0 0 0 0 0 0 0 0 0 0 0 0 0 0 0 0 0 0 0 0 0 0 0 0 0 0 0 0 0 0 0 0 0 0 0 0 0 0 0 0 0 0 0 0 0 0 0 0 0 0 0 0 0 0 0 1206 1098 0 1362 1415 1501 1471 1388 1362 1388 0 0 1168 0 0 0 0 0 0 1635 0 1501 1388 1362 1362 1388 1388 1362 1388 1415 1443 1443 1415 1388 1415 1415 1415 1388 1388 1388 1443 1415 1415 1388 0 75 75 0 1388 1362 1443 1501 1443 1415 1443 1338 1338 1338 1338 1314 1314 1338 1388 1388 1415 0 1362 1362 1362 1388 1415 1362 1314 1338 1338 1362 1388 1388 1415 1388 1388 1415 1388 1415 0 189 189 0 0 0 0 1362 1291 1268 1226 1268 1268 1247 1247 1247 1268 1247 1268 1291 1268 1314 1314 1338 1314 1247 1291 1291 1314 1314 1314 1314 1291 1291 0 0 0 1268 1206 1187 1168 1168 1206 1226 1115 0 0 0 0 0 1415 1443 1471 1388 0 1415 1362 1314 1338 1314 1314 1314 1291 1291 1314 1247 1206 1226 1226 1168 1206 1206 1187 1168 1115 1115 1036 1051 1066 994 981 968 981 968 955 943 865 886 876 876 876 865 876 855 836 836 817 817 799 791 782 782 774 791 758 750 743 743 750 707 694 681 675 618 634 613 623 623 623 629 623 629 629 0 0 0 0 579 579 574 574 566 566 561 561 553 553 549 541 541 537 537 537 533 533 521 521 514 514 514 507 507 507 514 514 511 521 511 511 504 507 0 0 0 0 0
    0 0 0 0 0 0 0 0 0 0 0 0 0 0 0 0 0 0 0 0 0 0 0 0 0 0 0 0 0 0 0 0 0 0 0 0 0 0 0 0 0 0 0 0 0 0 0 0 0 0 0 0 0 0 0 0 0 0 0 0 0 0 0 0 0 0 0 0 0 0 0 0 0 1362 1415 1565 1501 1443 1362 1362 0 0 0 0 0 0 0 0 0 0 0 1471 1362 1362 1362 1415 1415 1388 1388 1415 1443 1443 1415 1415 1415 1415 1443 1415 1388 1415 1501 1443 1415 1415 0 75 75 0 1415 1362 1471 1533 1471 1415 1471 1388 1362 1362 1362 1338 1338 1362 1415 1415 1415 0 1362 1362 1388 1388 1415 1338 1314 1338 1338 1362 1388 1388 1415 1388 1388 1388 1388 1415 0 190 189 0 0 190 0 1362 1314 1291 1268 1291 1268 1247 1268 1268 1268 1268 1291 1338 1268 1362 1314 1314 1314 1226 1291 1291 1338 1338 1314 1338 1338 1338 1415 1362 1443 1268 1206 1206 1168 1187 1206 1206 1066 0 994 0 0 0 1415 1415 1415 1388 0 1443 1415 1362 1415 1362 1362 1415 1338 1338 1314 1268 1206 1226 1226 1168 1206 1206 1187 1168 1115 1115 1036 1036 1051 981 968 968 968 968 955 943 865 886 876 876 876 865 865 855 836 836 817 817 808 791 791 782 774 791 766 750 750 743 750 707 694 681 681 623 639 613 623 623 629 629 629 629 634 0 0 0 0 574 579 574 574 566 566 561 561 553 553 545 541 541 537 537 537 533 533 521 521 514 514 514 507 507 507 514 514 511 521 514 514 504 507 0 0 0 0 0
    0 0 0 0 0 0 0 0 0 0 0 0 0 0 0 0 0 0 0 0 0 0 0 0 0 0 0 0 0 0 0 0 0 0 0 0 0 0 0 0 0 0 0 0 0 0 0 0 0 0 0 0 0 0 0 0 0 0 0 0 0 0 0 0 0 0 0 0 0 0 0 0 0 0 0 0 1565 1471 1388 1338 0 0 0 0 0 0 0 0 0 0 0 1415 1338 1338 1338 1388 1388 1388 1388 1415 1415 1415 1415 1415 1415 1443 1443 1415 1415 1415 1565 1471 1415 1415 0 75 75 75 1415 1362 1443 1501 1443 1415 1471 1388 1362 1338 1338 1338 1338 1362 1443 1443 1443 1388 0 1388 1388 1388 1415 1338 1314 1362 1362 1388 1388 1415 1415 1388 1415 1388 1388 1388 0 0 0 0 190 190 0 1388 1338 1338 1314 1338 1291 1268 1291 1314 1314 1291 1338 1362 1291 1388 1338 1247 1291 1226 1291 1291 1338 1338 1338 1362 1362 1362 1471 1388 1501 1291 1226 1226 1206 1206 1226 1149 1036 1008 994 981 0 1388 1415 1415 1415 1415 1388 1533 1501 1471 1501 1415 1415 1443 1338 1338 1314 1247 1187 1226 1226 1168 1187 1206 1187 1168 1115 1115 1022 1022 1022 981 955 955 968 968 955 943 865 876 865 865 865 855 855 845 826 836 817 817 808 791 791 782 766 782 750 735 743 735 735 707 700 687 694 629 645 618 629 623 629 629 629 629 634 629 0 0 0 579 579 579 579 566 570 561 561 553 553 545 541 541 537 537 537 533 533 521 521 514 511 514 507 507 507 514 514 511 521 514 514 507 507 0 0 0 0 0
    0 0 0 0 0 0 0 0 0 0 0 0 0 0 0 0 0 0 0 0 0 0 0 0 0 0 0 0 0 0 0 0 0 0 0 0 0 0 0 0 0 0 0 0 0 0 0 0 0 0 0 0 0 0 0 0 0 0 0 0 0 0 0 0 0 0 0 0 0 0 0 0 0 0 1388 1471 1533 1471 1362 1338 0 0 0 0 0 0 0 0 0 0 0 1362 1338 1338 1362 1362 1388 1388 1415 1415 1415 1415 1415 1415 1415 1443 1443 1388 1388 1415 1599 1501 1388 1388 75 75 75 75 1415 1338 1388 1471 1415 1388 1443 1362 1338 1314 1314 1314 1338 1388 1443 1415 1415 1388 0 1362 0 1388 1388 1338 1338 1362 1388 1415 1415 1443 1443 1415 1415 1415 1388 1388 0 0 0 0 189 189 1388 1362 1338 1338 1314 1362 1291 1291 1314 1314 1314 1314 1362 1362 1314 1388 1338 1226 1268 1226 1291 1291 1338 1338 1338 1362 1388 1388 1501 1415 1533 1291 1268 1247 1226 1247 1247 1115 1036 1008 994 968 0 0 1388 1388 1443 1443 0 1533 1471 1471 1471 1415 1388 1388 1314 1314 1314 1247 1187 1226 1226 1168 1206 1206 1187 1168 1115 1115 1022 1022 1008 968 955 943 955 968 943 931 855 865 855 855 855 845 845 845 826 826 817 817 808 791 791 791 766 782 750 735 735 728 728 700 700 687 694 639 651 623 629 629 629 629 629 629 634 629 0 0 0 584 584 579 579 570 570 561 561 553 549 545 541 541 537 537 537 533 529 521 521 514 511 514 507 507 507 511 514 511 518 514 511 507 507 0 0 0 0 0
    0 0 0 0 0 0 0 0 0 0 0 0 0 0 0 0 0 0 0 0 0 0 0 0 0 0 0 0 0 0 0 0 0 0 0 0 0 0 0 0 0 0 0 0 0 0 0 0 0 0 0 0 0 0 0 0 0 0 0 0 0 0 0 0 0 0 0 0 0 0 0 0 0 1338 1362 1415 1471 1415 1338 0 0 0 0 0 0 0 0 0 0 0 0 1291 1314 1314 1338 1362 1388 1388 1415 1415 1443 1415 1415 1443 1443 1443 1443 1388 1388 1415 1635 1501 1362 1388 75 75 75 75 0 1338 1362 1471 1388 1388 1443 1388 1388 1362 1362 1314 1362 1415 1443 1443 1415 0 0 1362 0 1388 1388 1314 1338 1362 1388 1415 1415 1443 1443 1415 1415 1415 1388 1415 0 189 189 0 189 190 1415 1362 1338 1338 1314 1362 1291 1291 1314 1314 1314 1291 1362 1362 1291 1362 1314 1187 1268 1226 1291 1291 1338 1338 1338 1362 1388 1388 1471 1388 1471 1291 1247 1247 1226 1268 1268 1036 1022 981 981 955 0 0 1362 1388 1443 1443 1362 1415 1388 1362 1338 1291 1291 1291 1268 1291 1314 1226 1187 1226 1226 1168 1206 1206 1187 1168 1115 1098 1022 1022 1008 981 968 955 955 968 943 943 855 865 855 855 855 845 845 845 826 826 826 817 808 799 791 791 774 774 750 728 728 721 728 700 700 687 694 645 651 623 634 629 634 634 634 634 639 629 657 0 0 584 579 579 579 570 570 561 566 553 549 545 541 541 537 537 537 529 529 521 518 511 511 514 507 507 507 511 511 507 518 511 511 507 507 0 0 0 0 0
    0 0 0 0 0 0 0 0 0 0 0 0 0 0 0 0 0 0 0 0 0 0 0 0 0 0 0 0 0 0 0 0 0 0 0 0 0 0 0 0 0 0 0 0 0 0 0 0 0 0 0 0 0 0 0 0 0 0 0 0 0 0 0 0 0 0 0 0 0 0 0 0 1226 1314 1314 1388 1415 1388 0 0 0 0 0 0 0 0 0 0 0 1291 1338 1314 1314 1314 1338 1388 1388 1388 1415 1443 1443 1415 1443 1443 1443 1443 1443 1388 1388 1443 1672 1533 1362 1388 0 75 75 75 0 0 0 1471 1388 1362 1471 1443 1443 1443 1388 1338 1362 1443 1471 1415 1388 147 146 0 1415 1388 1362 1314 1338 1362 1362 1415 1415 1415 1415 1388 1415 1388 1415 1443 0 189 189 0 0 0 1471 1388 1388 1362 1338 1415 1314 1314 1314 1314 1314 1291 1362 1338 1291 1338 1314 0 1247 1226 1291 1291 1338 1338 1338 1338 1362 1362 1415 1338 1388 0 1247 1247 1226 1268 0 994 994 0 968 955 0 0 1362 1388 1471 1443 1362 1362 1362 1338 1314 1291 1268 1268 1247 1291 1314 1247 1168 1226 1226 1168 1187 1206 1187 1168 1115 1098 1022 1022 1022 994 994 981 968 994 968 968 865 865 855 855 855 845 836 845 826 836 826 826 817 808 799 799 774 758 750 728 728 728 728 707 707 694 700 657 657 629 639 634 634 634 634 634 639 634 663 0 0 584 579 579 579 570 570 566 566 553 553 549 541 541 541 537 537 529 529 521 518 511 511 514 507 507 507 511 511 507 518 514 511 507 511 0 0 0 0 0
    0 0 0 0 0 0 0 0 0 0 0 0 0 0 0 0 0 0 0 0 0 0 0 0 0 0 0 0 0 0 0 0 0 0 0 0 0 0 0 0 0 0 0 0 0 0 0 0 0 0 0 0 0 0 0 0 0 0 0 0 0 0 0 0 0 0 0 0 0 0 0 0 0 1291 1226 0 1338 1291 0 1247 0 0 0 0 0 0 0 0 0 0 1338 1291 1291 1291 1314 1388 1388 1388 1415 1443 1443 1415 1443 1471 1443 1471 1471 1415 1388 1471 1711 1533 1362 1388 75 75 75 75 0 0 0 1501 1362 1338 1443 1415 1415 1443 1362 1314 1362 1443 1443 1415 0 147 146 0 1388 1362 1338 1314 1338 1338 1362 1415 1415 1415 1415 1388 1415 1388 1443 0 189 189 189 0 0 0 1443 1362 1362 1362 1338 1415 1314 1291 1291 1291 1291 1268 1338 1291 1268 1291 1314 0 1247 1226 1314 1291 1338 1338 1338 1338 1388 1362 1415 1338 1362 0 1268 1291 1247 1338 1362 0 968 0 968 955 0 0 1362 1388 1501 1415 1338 1362 1338 1338 1338 1314 1268 1291 1268 1291 1314 1247 1149 1226 1226 1168 1187 1206 1187 1149 1115 1098 1022 1022 1036 1008 1008 994 994 0 0 981 897 886 865 855 855 855 836 845 836 836 826 826 817 808 799 799 774 750 743 728 728 728 728 714 714 700 707 669 669 629 639 634 634 634 634 634 639 629 657 618 0 588 584 584 584 570 574 566 566 553 549 549 541 541 537 533 537 529 525 521 518 511 511 511 507 507 507 511 511 507 518 514 511 507 511 0 0 0 0 0
    0 0 0 0 0 0 0 0 0 0 0 0 0 0 0 0 0 0 0 0 0 0 0 0 0 0 0 0 0 0 0 0 0 0 0 0 0 0 0 0 0 0 0 0 0 0 0 0 0 0 0 0 0 0 0 0 0 0 0 0 0 0 0 0 0 0 0 0 0 0 0 0 0 1338 1247 0 1314 1268 0 1206 1051 0 0 0 0 0 0 0 0 1247 1314 1247 1291 1291 1314 1388 1388 1415 1415 1443 1443 1415 1443 1471 1443 1471 1443 1415 1388 1471 1711 1533 1338 1388 0 75 75 75 0 0 0 1533 1338 1338 1443 1388 1415 1443 1388 1338 1388 1443 1471 1415 0 1362 0 1362 1388 1362 1314 1291 1338 1338 1362 1415 1415 1415 1415 1388 1415 1388 0 0 189 188 188 0 0 0 1362 1338 1338 1314 1291 1362 1291 1291 1291 1291 1291 1268 1338 1291 1268 1291 1291 1132 1247 1226 1314 1314 1338 1338 1338 1338 1388 1362 1443 1338 1388 1362 1314 1338 1314 1443 1443 0 0 0 0 0 0 0 0 1362 1415 1388 1314 1338 1338 1338 1362 1338 1291 1314 1268 1314 1314 1247 1149 1226 1226 1168 1187 1206 1187 1149 1115 1098 1036 1036 1051 1036 1022 1008 0 0 0 994 919 886 865 855 845 845 826 836 826 836 826 826 817 808 799 799 774 735 743 721 728 728 728 714 714 707 714 675 675 634 639 634 639 639 634 634 634 629 651 618 0 0 588 584 584 574 574 566 566 0 0 545 541 541 537 533 533 525 525 521 518 511 511 511 507 507 511 511 511 511 518 514 511 511 511 0 0 0 0 0
    0 0 0 0 0 0 0 0 0 0 0 0 0 0 0 0 0 0 0 0 0 0 0 0 0 0 0 0 0 0 0 0 0 0 0 0 0 0 0 0 0 0 0 0 0 0 0 0 0 0 0 0 0 0 0 0 0 0 0 0 0 0 0 0 0 0 0 0 0 0 0 0 1206 1268 1187 1206 1247 1247 1247 1206 0 0 0 0 0 0 0 0 1206 1247 1268 1226 1291 1291 1314 1388 1388 1415 1443 1443 1443 1415 1443 1471 1415 1471 1415 1388 1388 1501 1711 1471 1314 1388 0 75 75 75 0 0 0 1471 1338 1338 1443 1388 1388 1443 1388 1338 1388 1443 1471 1415 0 1362 1338 1362 1388 1338 1314 1268 1362 1362 1362 1415 1415 1443 1443 1388 1415 1388 0 0 188 188 188 0 0 0 0 1291 1291 1268 1268 1338 1314 1314 1314 1338 1314 1338 1388 1314 1291 1314 1291 1149 1247 1226 1314 1314 1314 1338 1338 1338 1388 1388 1443 1362 1388 1415 1338 1362 1362 1501 1471 1443 1388 1443 1362 0 0 1338 1338 1362 0 1362 1291 1362 1362 1388 1415 1362 1291 1338 1291 1338 1314 1226 1132 1206 1206 1168 1187 1206 1187 1149 1115 1098 1036 1036 1051 1036 1036 1022 0 1022 0 994 919 886 855 845 845 845 817 836 826 826 836 826 817 817 799 808 766 728 735 721 721 721 721 0 714 0 714 675 675 634 645 634 639 639 634 634 639 629 651 618 0 593 593 588 593 584 579 566 566 0 0 0 541 537 533 533 533 525 521 521 514 511 511 511 507 507 511 511 511 511 518 514 511 511 511 0 0 0 0 0
    0 0 0 0 0 0 0 0 0 0 0 0 0 0 0 0 0 0 0 0 0 0 0 0 0 0 0 0 0 0 0 0 0 0 0 0 0 0 0 0 0 0 0 0 0 0 0 0 0 0 0 0 0 0 0 0 0 0 0 0 0 0 0 0 0 0 0 0 0 0 0 0 1168 1206 1149 1149 1268 0 0 1247 0 0 0 0 0 0 0 0 0 1268 1268 1226 1314 1314 1314 1388 1388 1415 1415 1443 1415 1388 1443 1471 1415 1443 1415 1362 1388 1533 1711 1471 1314 1388 0 75 75 75 0 1291 1314 1415 1338 1338 1443 1362 1362 1415 1388 1314 1388 1443 1443 1388 1362 1362 1338 1338 1362 1314 1314 1268 1362 1388 1388 1443 1443 1471 1471 1415 1443 1388 0 0 0 188 0 0 0 0 0 1291 1291 1268 1268 1314 1338 1338 1338 1362 1338 1362 1388 1338 1291 1314 1291 1168 1247 1247 1314 1314 1314 1362 1338 1338 1388 1388 1443 1338 1362 1471 1338 1362 1388 1565 1533 1471 1443 1443 1362 1314 1291 1338 1314 1362 0 1314 1268 1362 1471 1565 0 1501 1291 1338 1291 1338 1314 1226 1132 1206 1206 1168 1168 1206 1168 1132 1115 1082 1022 1036 1051 1036 1022 1022 0 1036 0 1008 955 897 855 845 845 845 808 826 826 826 0 826 817 808 799 808 766 0 728 721 721 721 714 0 714 0 714 681 675 634 645 634 639 639 639 634 639 634 651 618 0 598 593 588 598 584 584 0 0 0 0 0 541 537 533 529 529 521 521 521 514 507 511 511 507 511 511 511 511 511 518 518 511 511 511 0 0 0 0 0
    0 0 0 0 0 0 0 0 0 0 0 0 0 0 0 0 0 0 0 0 0 0 0 0 0 0 0 0 0 0 0 0 0 0 0 0 0 0 0 0 0 0 0 0 0 0 0 0 0 0 0 0 0 0 0 0 0 0 0 0 0 0 0 0 0 0 0 0 0 0 0 0 0 1291 1168 1149 0 0 0 0 350 0 0 0 0 1415 1388 0 0 0 1291 1247 1338 1314 1314 1415 1388 1415 1443 1443 1415 1388 1443 1471 1415 1443 1388 1362 1388 1565 1672 1443 1338 1388 1415 75 75 0 1338 1314 1314 1415 1338 1338 1471 1338 1362 1388 1362 1291 1362 1388 1388 1338 1338 1338 1314 1338 1338 1268 1291 1247 1362 1388 1388 1443 1443 1501 1471 1415 1443 1415 0 0 0 0 0 0 0 0 0 1268 1268 1268 1268 1338 1415 1362 1388 1338 1338 1338 1388 1338 1291 1314 1291 1187 1268 1247 1338 1314 1314 1362 1362 1362 1388 1362 1443 1338 1362 1533 1338 1362 1415 1599 1565 1443 1415 1415 1362 1314 1268 1314 1268 1291 1226 1268 1226 1247 0 0 0 1268 1268 1268 1247 1291 1291 1206 1115 1206 1206 1168 1168 1206 1168 1132 1115 1082 1036 1036 1051 1051 1036 1036 0 1036 0 1022 0 0 845 836 836 836 808 826 817 826 0 0 0 808 799 808 766 0 728 714 721 721 721 0 721 0 721 681 681 639 645 634 639 639 639 634 639 634 651 623 0 598 593 588 598 588 584 574 566 0 0 0 541 537 533 529 529 521 521 521 511 507 507 511 507 511 511 511 511 511 518 518 511 514 511 0 0 0 0 0
    0 0 0 0 0 0 0 0 0 0 0 0 0 0 0 0 0 0 0 0 0 0 0 0 0 0 0 0 0 0 0 0 0 0 0 0 0 0 0 0 0 0 0 0 0 0 0 0 0 0 0 0 0 0 0 0 0 0 0 0 0 0 0 0 0 0 0 0 0 0 0 0 0 1338 1226 1206 0 0 0 0 350 0 0 0 1533 1443 1443 1415 0 0 0 0 1388 1362 1338 1443 1415 1415 1443 1443 1443 1415 1443 1501 1415 1415 1388 1362 1388 1599 1672 1443 1362 1415 1415 75 0 1415 1338 1314 1338 1443 1362 1362 1533 1338 1388 1415 1362 1291 1362 1362 1362 1314 1314 1314 1268 1291 1291 1206 1247 1206 1338 1362 1362 1415 1415 1501 1471 1388 1443 1415 1443 0 0 0 0 0 189 190 0 0 1247 1226 1247 1338 1533 1388 1388 1338 1314 1362 1415 1314 1291 1291 1291 1168 1268 1247 1338 1338 1314 1362 1362 1362 1388 1362 1443 1338 1362 1599 1314 1338 1443 1672 1635 1471 1443 1415 1362 1338 1268 1314 0 0 1132 1226 1168 1206 1226 1247 1247 1268 1247 1268 1247 1291 1268 1187 1115 1206 1206 1187 1168 1206 1187 1132 1115 1082 1036 1036 1051 1051 1036 1036 0 1036 0 1036 0 0 836 836 836 836 799 826 817 826 0 0 0 808 799 808 766 0 735 721 721 721 721 0 721 0 721 675 675 634 645 634 645 639 639 639 639 634 651 623 0 598 598 588 598 588 584 574 570 557 0 0 541 537 533 529 529 521 518 521 511 507 507 514 507 511 511 511 511 511 518 518 514 514 507 0 0 0 0 0
    0 0 0 0 0 0 0 0 0 0 0 0 0 0 0 0 0 0 0 0 0 0 0 0 0 0 0 0 0 0 0 0 0 0 0 0 0 0 0 0 0 0 0 0 0 0 0 0 0 0 0 0 0 0 0 0 0 0 0 0 0 0 0 0 0 0 0 0 0 0 0 0 0 1388 1291 1291 0 0 0 0 0 0 0 0 1533 1471 1471 0 0 0 0 0 1415 1415 1362 1471 1415 1443 1471 1471 1443 1415 1443 1501 1415 1415 1388 1362 1388 1599 1635 1443 1362 1443 1443 75 1443 1443 1362 1338 1388 1471 1388 1388 1635 1362 1415 1443 1338 1247 1314 1338 1338 1291 1268 1247 1226 1247 1226 1082 1098 1168 1314 1362 1362 1388 1415 1533 1501 1388 1415 1443 1443 0 0 0 0 0 0 0 189 0 0 0 0 0 1672 1501 1533 1533 1338 1443 1415 1314 1268 1291 1268 1115 1247 1247 1338 1338 1314 1362 1362 1362 1388 1388 1471 1362 1362 1635 1314 1314 1533 1839 1672 1501 1471 1415 1388 1338 1314 1388 1338 0 1187 1226 1187 1226 1247 1268 1247 1247 1226 1268 1247 1291 1268 1187 1115 1206 1206 1187 1168 1187 1168 1132 1115 1082 1036 1036 1051 1051 1036 1036 0 1036 0 0 0 943 836 826 826 826 799 826 817 826 0 0 0 808 799 799 766 0 735 721 728 728 0 0 721 0 721 675 675 634 651 634 645 639 639 639 645 634 651 623 0 603 598 593 598 588 584 579 570 557 0 0 541 537 533 529 529 521 518 521 511 507 507 514 511 511 514 511 514 514 518 518 511 511 507 0 0 0 0 0
    0 0 0 0 0 0 0 0 0 0 0 0 0 0 0 0 0 0 0 0 0 0 0 0 0 0 0 0 0 0 0 0 0 0 0 0 0 0 0 0 0 0 0 0 0 0 0 0 0 0 0 0 0 0 0 0 0 0 0 0 0 0 0 0 0 0 0 0 0 0 0 0 0 1471 1314 1338 1388 0 0 0 0 0 0 1533 1501 1443 1471 0 0 0 0 0 1443 1443 1388 1471 1443 1471 1471 1471 1443 1443 1443 1501 1415 1388 1362 1362 1388 1599 1635 1443 1362 1443 1443 75 1443 1443 1362 1338 1388 1443 1388 1415 1672 1291 1314 1314 1268 1168 1247 1291 1291 1268 1226 1206 1206 1226 1168 1036 0 1187 1291 1471 1388 1388 1501 1672 1599 1362 1415 1443 1388 1415 1362 1338 1314 1268 0 0 0 0 0 0 0 0 1711 1533 1635 1752 1388 1501 1388 1291 1268 1291 1268 1098 1226 1226 1338 1338 1314 1388 1362 1388 1415 1415 1533 1388 1415 1672 1314 1338 1599 1887 1711 1501 1471 1415 1388 1314 1314 1338 1338 1314 1247 1247 1206 1268 0 0 0 1291 1268 1291 1268 1314 1268 1187 1115 1206 1206 1187 1168 1187 1168 1132 1115 1082 1022 1036 1051 1051 1022 1022 0 1036 0 0 0 931 836 826 817 826 799 817 817 817 0 0 0 808 791 791 766 0 735 721 728 728 0 0 721 0 721 675 675 634 651 634 645 645 645 639 645 634 651 623 0 603 598 593 598 588 584 574 570 557 0 0 541 537 533 529 529 521 518 521 511 507 507 514 511 514 514 514 514 514 518 521 511 511 504 0 0 0 0 0
    0 0 0 0 0 0 0 0 0 0 0 0 0 0 0 0 0 0 0 0 0 0 0 0 0 0 0 0 0 0 0 0 0 0 0 0 0 0 0 0 0 0 0 0 0 0 0 0 0 0 0 0 0 0 0 0 0 0 0 0 0 0 0 0 0 0 0 0 0 1672 1711 0 1672 1565 1362 1362 1471 1338 1388 0 1388 1415 1443 1533 1501 1443 1443 1471 0 0 0 0 1443 1443 1415 1471 1471 1501 1501 1471 1471 1443 1471 1471 1415 1388 1362 1338 1388 1599 1599 1415 1362 1415 0 75 1443 1443 1362 1338 1362 1443 1415 1415 1672 1291 1268 1268 1206 1098 1132 1187 1115 1082 1168 1115 1187 1226 1149 1066 0 0 0 1839 1672 0 0 1839 1635 0 0 0 0 1362 1362 1314 1314 1247 0 0 0 0 0 0 0 0 1711 1565 1672 1839 1501 1565 1388 1314 1291 1314 1314 1082 1226 1226 1338 1338 1338 1388 1388 1388 1443 1443 1565 1415 1443 1672 1314 1415 1635 0 1711 1599 1533 1471 1415 1362 1338 1362 1338 1338 1247 1226 1206 1291 0 0 0 1291 1268 1314 1291 1314 1268 1168 1115 1206 1206 1187 1168 1187 1168 1132 1115 1082 1022 1036 1051 1051 1022 1022 1008 1022 0 0 994 931 836 836 836 836 808 826 817 826 0 0 0 808 791 791 758 728 735 721 728 728 721 0 721 0 714 675 675 634 651 634 645 639 639 639 645 634 651 623 0 603 598 593 598 588 584 574 570 557 0 545 541 537 533 533 529 521 521 521 511 507 507 514 511 514 514 514 514 514 518 521 511 511 504 0 0 0 0 0
    0 0 0 0 0 0 0 0 0 0 0 0 0 0 0 0 0 0 0 0 0 0 0 0 0 0 0 0 0 0 0 0 0 0 0 0 0 0 0 0 0 0 0 0 0 0 0 0 0 0 0 0 0 0 0 0 0 0 0 0 0 0 0 0 0 0 0 0 0 1565 1635 1752 1565 1501 1415 1362 1501 1388 1443 1443 1443 1443 1443 1565 1565 1471 1533 1565 0 0 0 0 1471 1471 1443 1501 1501 1533 1501 1471 1471 1443 1471 1471 1415 1362 1338 1338 1388 1635 1635 1415 1362 1388 0 75 1443 1443 1362 1338 1362 1443 1415 1443 1711 1314 1314 1291 1247 1115 1098 1082 0 0 0 0 0 1226 0 0 0 0 0 1989 0 0 0 0 0 0 0 0 0 0 1362 0 0 0 0 0 0 0 0 0 1443 1672 1635 1599 1635 1795 1533 1565 1415 1314 1291 1314 1314 1082 1226 1226 1338 1362 1338 1415 1388 1415 1443 1471 1565 1443 1443 1672 1338 1471 1635 0 1635 1565 1533 1471 1415 1415 1362 1362 1362 1338 1268 1247 1206 1291 0 0 0 1314 1291 1314 1314 1362 1291 1206 1115 1206 1206 1206 1168 1187 1168 1132 1098 1082 1022 1022 1036 1036 1008 1022 994 1022 0 0 981 919 836 836 836 836 817 836 826 826 0 0 0 808 791 791 758 728 735 721 728 721 721 0 714 0 0 669 669 634 651 634 645 639 645 639 645 639 651 629 639 0 0 593 598 588 584 574 566 561 0 549 545 537 533 533 529 521 521 521 511 507 507 514 511 514 514 514 514 514 518 521 511 511 504 0 0 0 0 0
    0 0 0 0 0 0 0 0 0 0 0 0 0 0 0 0 0 0 0 0 0 0 0 0 0 0 0 0 0 0 0 0 0 0 0 0 0 0 0 0 0 0 0 0 0 0 0 0 0 0 0 0 0 0 0 0 0 0 0 0 0 0 0 0 0 0 0 0 0 1443 1501 1565 1443 1388 1362 0 0 1388 1443 1443 1471 1471 1471 1599 1565 1501 1565 1599 1501 1501 1388 1388 1471 1443 1471 1471 1501 1533 1501 1443 1471 1443 1471 1443 1415 1338 1338 1338 1415 1635 1672 1443 1388 1443 0 75 0 1471 1388 1338 1362 1443 1443 1443 1711 1314 1338 1268 1226 1132 1098 1098 994 955 0 1008 0 1206 0 0 0 0 0 1989 0 0 0 0 1501 0 0 0 0 0 1362 0 1338 0 0 0 0 0 0 0 1752 1795 1711 1752 1672 1839 1565 0 1338 1226 0 0 1314 0 1226 1226 1362 1362 1338 1388 1388 1388 1443 1443 1599 1443 1443 1672 1338 1501 1599 0 1533 1443 1443 1415 1388 1388 1362 1362 1388 1338 1291 1268 1247 1314 0 0 0 1291 1291 1338 1338 1388 1291 1206 1115 1206 1206 1206 1168 1187 1168 1132 1098 1082 1008 1022 1022 1036 1008 1008 981 1008 981 1008 968 919 845 845 836 845 836 836 836 836 0 0 0 808 782 782 750 728 735 721 728 728 721 0 714 700 700 657 663 629 651 634 645 645 645 639 645 639 657 629 645 0 0 593 598 588 579 574 566 561 0 549 545 537 533 533 533 521 521 525 511 507 507 514 511 511 514 514 514 514 518 521 511 511 507 0 0 0 0 0
    0 0 0 0 0 0 0 0 0 0 0 0 0 0 0 0 0 0 0 0 0 0 0 0 0 0 0 0 0 0 0 0 0 0 0 0 0 0 0 0 0 0 0 0 0 0 0 0 0 0 0 0 0 0 0 0 0 0 0 0 0 0 0 0 0 0 0 0 0 1443 1471 1471 1388 1362 1338 0 1388 1338 1388 1388 1443 1443 1471 1565 1565 1501 1565 1599 1501 1443 1362 1388 1443 1415 1443 1443 1501 1501 1471 1443 1443 1443 1471 1443 1388 1338 1338 1362 1415 1635 1672 1501 1415 1501 0 75 1533 1533 1415 1362 1415 1471 1443 1471 1752 1291 1314 1247 1226 1149 1098 1168 1008 968 1082 1008 0 0 0 0 0 0 2044 1839 0 0 0 0 0 0 0 0 0 0 0 1314 0 0 0 2628 0 0 0 0 0 0 1795 1839 1672 0 0 0 0 0 0 0 0 0 1226 1226 1362 1362 1338 1388 1388 1388 1443 1443 1599 1415 1443 1711 1415 0 0 0 1533 1388 1388 1338 1338 1362 1338 1362 1388 1362 1338 1338 1291 1362 1338 1388 1338 1314 1291 1314 1314 1362 1291 1226 1115 1206 1206 1206 1149 1168 1168 1132 1098 1098 1008 1022 1022 1022 994 1008 981 1008 981 994 955 919 845 845 836 845 836 0 826 836 0 0 0 808 774 766 743 728 728 721 728 728 728 0 721 707 0 657 663 629 651 639 651 645 645 645 651 645 663 634 651 613 608 593 593 588 579 574 566 561 549 549 545 541 537 537 533 525 525 525 514 511 507 514 511 511 514 514 514 514 514 521 507 511 504 0 0 0 0 0
    0 0 0 0 0 0 0 0 0 0 0 0 0 0 0 0 0 0 0 0 0 0 0 0 0 0 0 0 0 0 0 0 0 0 0 0 0 0 0 0 0 0 0 0 0 0 0 0 0 0 0 0 0 0 0 0 0 0 0 0 0 0 0 0 0 0 0 0 0 1443 1471 1471 1388 1362 1314 1268 1314 1291 1338 1338 1388 1415 1415 1501 1501 1471 1565 1635 1501 1388 1338 1362 1415 1388 1415 1443 1471 1471 1443 1443 1443 1443 1471 1443 1388 1338 1338 1362 1415 1635 1672 1533 1443 1533 75 75 1565 1565 1443 1388 1415 1501 1443 1443 1711 1291 1314 0 0 1226 0 1247 0 0 1115 1022 0 0 0 0 0 0 1989 1795 1672 0 0 0 0 0 0 0 0 0 0 0 1388 0 0 2230 0 0 0 0 0 0 1711 1795 1635 0 0 0 0 0 0 0 0 0 1226 1226 1362 1362 1338 1388 1388 1388 1443 1443 1599 1415 1443 1711 0 0 0 0 1501 1338 1338 1268 1314 1314 1338 1338 1388 1362 1362 1338 1314 1362 1362 1362 1338 1314 1314 1314 1314 1362 1291 1247 1115 1226 1226 1206 1149 1168 1149 1132 1098 1115 1008 1022 1022 1022 1008 1008 994 1008 981 994 943 919 855 855 836 845 0 0 0 826 826 0 0 799 766 758 743 728 735 728 728 728 728 728 721 700 700 657 663 634 651 639 651 645 651 645 651 645 663 634 657 613 608 593 593 588 579 574 561 561 549 553 545 541 537 537 537 525 525 529 514 511 511 518 511 514 518 514 514 514 514 521 507 511 504 0 0 0 0 0
    0 0 0 0 0 0 0 0 0 0 0 0 0 0 0 0 0 0 0 0 0 0 0 0 0 0 0 0 0 0 0 0 0 0 0 0 0 0 0 0 0 0 0 0 0 0 0 0 0 0 0 0 0 0 0 0 0 0 0 0 0 0 0 0 0 0 0 0 0 1443 1471 1443 1388 1338 1314 0 0 1291 1338 1314 1362 1388 1415 1471 1501 1471 1565 1672 1533 1338 0 1338 1388 1388 1415 1443 1471 1471 1443 1443 1471 1471 1471 1443 1388 1338 1338 1362 1443 1599 1711 1565 1443 1565 75 75 1565 1565 1471 1388 1443 1533 1443 1443 1711 1291 1291 0 0 0 0 1338 0 0 0 0 0 0 0 0 0 0 1989 1839 1672 0 0 0 0 0 0 0 0 0 0 0 1415 0 0 0 0 0 0 1672 1711 1672 1635 1672 1599 1672 0 0 0 0 0 0 0 0 1226 1226 1362 1362 1338 1362 1362 1362 1443 1443 1599 1415 1415 0 0 0 0 0 1471 1362 1388 1291 1338 1338 1362 1388 1415 1388 1415 1388 1338 1415 1388 1415 1388 1338 1314 1314 1314 1362 1291 1247 1115 1206 1226 1206 1149 1168 1149 1132 1098 1115 1008 1008 1008 1008 994 994 981 994 968 981 943 919 865 865 836 845 836 0 0 836 0 0 0 808 766 750 743 728 735 728 728 728 721 0 714 694 687 651 645 629 651 634 651 645 645 645 645 645 663 634 657 613 608 598 593 588 574 574 561 561 549 553 549 541 537 537 537 529 529 529 518 514 511 518 514 514 518 511 514 514 514 518 507 511 507 0 0 0 0 0
    0 0 0 0 0 0 0 0 0 0 0 0 0 0 0 0 0 0 0 0 0 0 0 0 0 0 0 0 0 0 0 0 0 0 0 0 0 0 0 0 0 0 0 0 0 0 0 0 0 0 0 0 0 0 0 0 0 0 0 0 0 0 0 0 0 0 0 0 0 1415 1443 1415 1362 1314 1291 0 0 1314 1338 1338 1415 1415 1501 1599 1635 1599 1711 1752 0 0 0 1338 1362 1362 1388 1415 1471 1471 1443 1443 1471 1471 1471 1443 1388 1338 1338 1388 1443 1599 1711 1599 1471 1599 75 75 1599 1599 1471 1415 1443 1533 1443 1443 1711 1291 1247 1187 0 0 0 0 0 0 0 0 0 0 0 0 0 0 2164 1839 0 0 0 0 0 0 0 0 0 0 1338 1338 1388 1415 1388 1501 0 1471 1533 1501 0 1501 1501 1501 0 0 0 0 0 0 0 0 0 0 1226 1247 1338 1338 1338 1338 1338 1338 1415 1415 1599 1388 1415 0 0 0 0 1471 1415 1362 1388 1314 1338 1338 1362 1388 1415 1415 1443 1415 1388 1443 1443 1471 1415 1338 1291 1291 1291 1314 1291 1226 1098 1206 1206 1206 1149 1149 1149 1132 1082 1132 1008 1008 1008 1008 994 994 981 994 968 968 931 908 876 865 845 855 836 0 0 836 836 0 0 808 774 758 750 728 735 728 728 728 728 0 0 700 0 645 639 629 645 634 645 645 645 645 645 645 663 639 657 618 613 598 593 584 574 570 557 561 545 553 545 541 537 537 537 529 529 529 518 514 511 518 511 511 514 511 511 511 511 518 504 511 507 0 0 0 0 0
    0 0 0 0 0 0 0 0 0 0 0 0 0 0 0 0 0 0 0 0 0 0 0 0 0 0 0 0 0 0 0 0 0 0 0 0 0 0 0 0 0 0 0 0 0 0 0 0 0 0 0 0 0 0 0 0 0 0 0 0 0 0 0 0 0 0 0 0 0 1388 1415 1388 1338 1291 1268 1187 0 1291 1338 1338 1415 1443 1533 1599 1711 1711 1752 1795 0 0 1291 1338 1338 1362 1388 1415 1443 1443 1415 1415 1443 1471 1443 1415 1362 1338 1338 1388 1415 1565 1711 1635 1471 1635 75 75 1599 1599 1501 1415 1443 1565 1443 1443 1752 1291 1226 1168 0 0 0 0 0 0 0 0 0 0 0 0 0 0 2164 1795 0 0 0 0 0 0 0 0 0 0 0 0 1415 1415 1362 1443 1415 1388 1415 1443 0 0 0 0 0 1501 1565 0 0 0 0 0 0 0 1247 1247 1314 1314 1314 1314 1314 1314 1388 1388 1565 1362 1388 0 0 0 0 1443 1415 1415 1415 1388 1362 1362 1362 1388 1415 1443 1501 1471 1415 1471 1501 1533 1471 1338 1291 1268 1268 1291 1268 1206 1082 1187 1206 1206 1132 1149 1132 1132 1082 1132 1008 1008 1008 1008 994 994 981 994 981 968 931 919 876 876 845 865 836 836 836 836 836 0 808 808 774 758 750 735 735 728 728 728 728 0 0 0 0 651 639 623 645 634 645 639 645 639 645 645 663 639 663 618 613 593 593 579 570 566 557 561 545 553 545 545 541 541 537 529 529 533 518 514 511 514 511 511 514 511 511 511 511 518 504 511 507 0 0 0 0 0
    0 0 0 0 0 0 0 0 0 0 0 0 0 0 0 0 0 0 0 0 0 0 0 0 0 0 0 0 0 0 0 0 0 0 0 0 0 0 0 0 0 0 0 0 0 0 0 0 0 0 0 0 0 0 0 0 0 0 0 0 0 0 0 0 0 0 0 0 0 1388 1388 1362 1314 1291 1268 1206 0 1291 0 1291 1388 1443 1599 1711 1795 1795 0 1839 0 0 1268 1338 1314 1338 1362 1388 1415 1388 1388 1415 1415 1443 1415 1415 1362 1338 1338 1415 1443 1599 1711 1672 1501 1635 0 75 1599 1599 1533 1443 1443 1565 1471 1471 1752 1291 1247 1187 0 0 0 0 0 0 0 0 0 0 0 0 0 0 0 1599 0 0 0 0 0 0 0 0 0 0 0 0 1443 0 0 0 0 1362 0 0 0 0 0 0 1471 1471 0 0 0 0 0 0 1362 0 1268 1268 1314 1314 1314 1291 1291 1291 1362 1362 1501 1362 1388 0 1752 0 0 1443 1415 1415 1415 1415 1388 1388 1362 1415 1443 1501 1599 1533 1501 1565 1565 1599 1501 1362 1314 1268 1268 1291 1291 1226 1098 1206 1206 1206 1132 1149 1132 1132 1098 1149 1008 1022 1008 1008 994 994 981 981 968 968 919 908 876 865 845 855 836 836 836 836 0 0 0 808 774 750 750 735 735 728 728 735 0 0 0 0 0 657 639 629 639 629 645 639 645 639 639 645 657 639 657 618 613 593 593 579 570 570 557 561 545 553 549 545 541 541 537 533 529 533 518 514 511 518 511 511 514 511 511 511 511 518 504 514 511 0 0 0 0 0
    0 0 0 0 0 0 0 0 0 0 0 0 0 0 0 0 0 0 0 0 0 0 0 0 0 0 0 0 0 0 0 0 0 0 0 0 0 0 0 0 0 0 0 0 0 0 0 0 0 0 0 0 0 0 0 0 0 0 0 0 0 0 0 0 0 0 0 0 0 1338 1362 1338 1291 1268 1268 1247 0 1291 0 0 0 0 0 0 1839 1887 1936 1887 0 0 1291 1338 1314 1338 1362 1362 1388 1388 1362 1388 1388 1415 1388 1388 1362 1338 1338 1415 1443 1599 1711 1711 1533 1672 0 0 1635 1635 1565 1471 1471 1599 1471 1471 1711 1291 1268 1187 0 0 0 0 0 0 0 0 0 0 0 0 0 0 1672 1501 0 0 0 0 0 0 0 0 0 0 336 324 0 0 0 0 0 0 0 0 561 0 0 0 1415 1388 0 0 1226 0 0 0 1362 0 1268 1268 1291 1291 1291 1268 1268 1268 1338 1338 1443 1388 1415 1711 1672 1533 0 1388 1362 1362 1362 1338 1338 1338 1338 1388 1362 1415 1599 1565 1565 1599 1599 1599 1501 1362 1338 1268 1268 1291 1291 1247 1115 1206 1226 1206 1132 1149 1149 1149 1098 1132 1008 1008 1008 1008 981 981 968 981 955 943 897 876 865 855 836 845 826 826 826 826 0 0 0 808 774 750 750 735 735 728 735 735 0 0 0 0 0 657 0 623 639 629 645 639 645 639 639 645 657 639 657 613 0 593 588 579 570 570 557 561 545 557 549 545 541 545 541 533 533 533 521 514 511 518 511 511 514 511 511 511 507 518 504 514 507 0 0 0 0 0
    0 0 0 0 0 0 0 0 0 0 0 0 0 0 0 0 0 0 0 0 0 0 0 0 0 0 0 0 0 0 0 0 0 0 0 0 0 0 0 0 0 0 0 0 0 0 0 0 0 0 0 0 0 0 0 0 0 0 0 0 0 0 0 0 0 0 0 0 0 1314 1362 1338 1291 1268 1291 0 0 1314 0 0 0 0 0 0 0 0 0 0 0 0 1314 1338 1314 1338 1362 1362 1388 1362 1362 1388 1388 1415 1388 1388 1338 1338 1362 1415 1415 1533 1711 1752 1565 1672 1672 0 1635 1635 1565 1471 1471 1599 1471 1471 1711 1291 1291 0 0 0 0 0 0 0 0 0 0 0 0 0 0 0 1599 1471 0 0 0 0 0 0 0 0 345 0 337 328 0 0 0 0 0 0 566 0 561 0 0 0 0 1362 0 0 0 0 0 0 1362 0 1268 1268 1268 1268 1268 1247 1247 1247 1291 1314 1291 1362 1388 1533 1599 1443 1362 1362 1338 1338 1338 1314 1314 1314 1338 1388 1338 1388 1565 1599 1565 1599 1599 1565 1471 1388 1338 1268 1268 1268 1268 1226 1115 1206 1226 1206 1132 1149 1149 1132 1098 1115 1008 1008 1008 994 981 981 955 968 943 919 886 865 855 855 836 845 826 826 826 826 817 0 808 808 774 743 743 728 728 728 728 735 0 0 0 0 0 663 0 623 634 629 639 639 645 639 639 645 657 645 663 618 0 593 588 579 570 570 561 561 549 557 549 545 541 545 541 533 533 533 521 514 511 518 511 511 514 511 511 511 507 518 507 511 504 0 0 0 0 0
    0 0 0 0 0 0 0 0 0 0 0 0 0 0 0 0 0 0 0 0 0 0 0 0 0 0 0 0 0 0 0 0 0 0 0 0 0 0 0 0 0 0 0 0 0 0 0 0 0 0 0 0 0 0 0 0 0 0 0 0 0 0 0 0 0 0 0 0 0 1314 1443 1388 1362 1338 1388 1443 1388 0 0 0 0 0 0 0 0 0 0 0 0 0 1362 1338 1338 1362 1362 1388 1388 1362 1362 1388 1415 1415 1388 1388 1362 1362 1388 1415 1388 1501 1711 1752 1565 1672 1672 0 1635 1635 1565 1471 1471 1599 1471 1443 1711 1291 1291 0 78 0 0 0 0 0 0 0 0 0 0 0 0 0 1533 1443 0 0 0 0 0 0 0 0 345 0 337 0 0 0 0 0 0 579 574 570 566 557 0 0 0 0 0 0 0 0 0 0 1362 0 1268 1268 1226 1247 1247 1226 1226 1226 1268 1268 1268 1362 1388 1415 1533 1415 1388 1362 1338 1338 1338 1338 1338 1314 1362 1388 1338 1415 1599 1599 1599 1599 1599 1599 1471 1388 1362 1268 1268 1247 1268 1226 1115 1206 1226 1206 1132 1149 1149 1132 1082 1098 1008 1008 1008 1008 981 981 955 968 943 908 886 876 865 855 836 845 826 826 817 826 817 0 808 808 782 743 750 728 735 728 735 735 735 0 0 0 0 675 0 629 634 629 639 639 645 639 639 645 657 645 669 618 0 593 588 579 570 570 561 561 549 557 549 545 541 545 541 537 533 533 521 514 511 514 511 511 514 511 511 511 507 518 504 511 504 0 0 0 0 0
    0 0 0 0 0 0 0 0 0 0 0 0 0 0 0 0 0 0 0 0 0 0 0 0 0 0 0 0 0 0 0 0 0 0 0 0 0 0 0 0 0 0 0 0 0 0 0 0 0 0 0 0 0 0 0 0 0 0 0 0 0 0 0 0 0 0 0 0 0 1247 1711 0 0 0 0 0 0 0 0 0 0 0 446 440 0 0 0 0 0 1388 1415 1338 1362 1388 1388 1388 1388 1388 1388 1415 1415 1415 1388 1388 1362 1362 1415 1415 1388 1471 1672 1752 1533 1635 1635 1533 1635 1635 1565 1471 1501 1599 1471 1471 1711 1314 1291 0 78 77 0 0 0 0 0 0 0 0 0 0 0 0 0 0 0 0 0 0 0 0 0 0 0 0 0 0 0 0 0 0 0 584 584 579 570 0 0 171 0 0 0 0 0 0 0 0 0 0 1247 1247 1187 1226 1226 1206 1206 1206 1247 1226 1226 1338 1362 1362 1443 1388 1362 1362 1362 1362 1362 1362 1388 1338 1388 1388 1291 1388 1565 1565 1565 1533 1599 1599 1471 1415 1362 1268 1247 1247 1247 1226 1115 1206 1206 1206 1132 1168 1149 1132 1082 1098 1008 1022 1022 1008 981 981 968 968 931 908 897 886 865 865 845 855 826 836 826 826 817 817 808 817 791 750 758 735 735 735 735 735 735 0 0 0 0 675 629 629 634 629 639 634 639 639 639 645 651 645 663 618 0 593 588 584 570 574 561 561 549 553 549 545 541 545 541 537 533 533 521 514 511 514 511 511 514 511 511 511 507 518 504 514 504 0 0 0 0 0
    0 0 0 0 0 0 0 0 0 0 0 0 0 0 0 0 0 0 0 0 0 0 0 0 0 0 0 0 0 0 0 0 0 0 0 0 0 0 0 0 0 0 0 0 0 0 0 0 0 0 0 0 0 0 0 0 0 0 0 0 0 0 0 0 0 0 0 0 0 1168 0 0 0 0 0 1599 1471 0 0 0 0 0 0 0 0 0 0 0 0 1362 1415 1338 1362 1388 1388 1388 1388 1388 1388 1415 1415 1415 1388 1388 1362 1362 1415 1388 1362 1443 1672 1711 1501 1635 1635 1533 1635 1599 1565 1501 1501 1599 1471 1471 1672 1362 1338 0 0 0 0 0 0 0 0 0 0 0 0 0 0 0 0 0 0 0 0 0 0 0 0 0 0 0 0 0 0 0 0 0 0 579 584 579 574 0 0 171 0 171 0 0 0 175 0 0 0 0 1247 1247 1149 1226 1206 1206 1206 1187 1247 1206 1206 1338 1338 1338 1388 1388 1362 1362 1362 1362 1362 1388 1388 1362 1388 1415 1314 1388 1565 1565 1565 1565 1635 1635 1471 1388 1362 1268 1247 1247 1247 1226 1115 1206 1206 1206 1115 1168 1149 1132 1082 1098 1022 1022 1036 1036 994 981 968 968 931 897 897 876 865 865 845 855 826 836 826 826 826 817 817 817 799 750 766 735 0 0 0 743 743 0 0 0 0 675 0 623 629 623 639 634 639 639 634 639 645 639 657 618 0 593 588 584 570 579 561 561 549 553 549 545 545 545 541 537 533 533 521 514 511 514 511 511 514 511 511 514 511 518 507 514 507 0 0 0 0 0
    0 0 0 0 0 0 0 0 0 0 0 0 0 0 0 0 0 0 0 0 0 0 0 0 0 0 0 0 0 0 0 0 0 0 0 0 0 0 0 0 0 0 0 0 0 0 0 0 0 0 0 0 0 0 0 0 0 0 0 0 0 0 0 0 0 0 0 0 0 1168 0 1168 0 0 1599 1415 1362 0 0 0 0 0 0 0 0 0 0 0 0 1338 1388 1338 1362 1362 1362 1388 1388 1362 1388 1388 1415 1388 1362 1362 1338 1362 1388 1362 1362 1415 1711 1711 1501 1635 1635 1501 1599 1599 1565 1501 1501 1599 1471 1471 1672 1338 1338 0 0 0 0 0 0 0 0 0 0 0 0 0 0 0 0 0 0 0 0 0 0 0 0 0 0 0 0 0 0 0 0 0 0 579 584 0 579 0 0 171 171 171 172 0 0 0 0 0 0 0 1247 1268 1149 1206 1206 1206 1206 1187 1247 1206 1187 1338 1338 1338 1362 1362 1338 1338 1338 1362 1362 1362 1362 1338 1338 1362 1314 1388 1565 1599 1599 1565 1635 1635 1471 1415 1415 1291 1268 1268 1268 1247 1115 1226 1206 1206 1115 1168 1149 1132 1082 1098 1036 1036 1051 1051 1008 994 0 0 931 886 897 876 865 865 845 845 826 826 817 817 817 817 817 817 799 750 766 735 0 0 0 743 743 0 0 0 0 681 623 629 0 623 634 634 639 634 634 639 639 639 651 613 0 593 588 579 570 579 561 561 549 553 549 545 545 545 541 537 533 533 521 514 511 514 511 511 514 514 514 514 511 518 507 514 504 0 0 0 0 0
    0 0 0 0 0 0 0 0 0 0 0 0 0 0 0 0 0 0 0 0 0 0 0 0 0 0 0 0 0 0 0 0 0 0 0 0 0 0 0 0 0 0 0 0 0 0 0 0 0 0 0 0 0 0 0 0 0 0 0 0 0 0 0 0 0 0 0 0 0 1206 0 1226 0 1291 1415 1388 0 1268 0 0 0 0 0 0 0 0 0 0 0 1338 1362 1338 1362 1362 1362 1388 1388 1362 1388 1388 1388 1362 1362 1338 1338 1362 1388 1338 1338 1388 1711 1711 1501 1599 1635 1501 1599 1599 1565 1501 1501 1599 1471 1443 1672 1314 1338 1268 0 0 0 0 0 0 0 0 0 0 0 0 0 0 0 0 0 0 0 0 0 0 0 0 0 0 0 0 0 0 245 0 0 579 584 0 0 0 0 171 171 171 0 0 0 0 0 0 0 0 1268 1268 1149 1206 1206 1206 1206 1206 1247 1206 1187 1338 1338 1338 1362 1362 1338 1362 1362 1362 1362 1338 1338 1291 1291 1268 1247 1291 1415 1471 1501 1501 1599 1599 1443 1388 1415 1291 1291 1268 1268 1247 1132 1226 1206 1187 1115 1168 1149 1115 1082 1098 1051 1051 1051 1066 1022 1022 0 0 0 886 897 876 865 865 845 845 826 826 817 817 817 808 817 808 799 743 766 735 0 0 0 743 735 0 0 0 714 681 623 629 0 623 634 634 634 634 634 639 639 639 651 618 0 593 584 579 570 579 561 566 549 553 549 545 545 545 537 537 533 533 525 518 511 514 514 514 514 514 514 514 511 518 507 511 500 0 0 0 0 0
    0 0 0 0 0 0 0 0 0 0 0 0 0 0 0 0 0 0 0 0 0 0 0 0 0 0 0 0 0 0 0 0 0 0 0 0 0 0 0 0 0 0 0 0 0 0 0 0 0 0 0 0 0 0 0 0 0 0 0 0 0 0 0 0 0 0 0 0 0 1206 1226 1206 0 1268 1599 1415 0 0 0 0 0 309 0 0 0 0 0 0 0 1338 1338 1338 1362 1388 1388 1388 1388 1388 1388 1415 1415 1362 1362 1338 1338 1362 1362 1291 1314 1338 1711 1711 1471 1599 1635 1501 1599 1599 1565 1501 1501 1599 1471 1443 1672 1338 1338 1268 0 0 0 0 0 0 0 0 0 0 0 0 0 0 0 0 0 0 0 0 0 0 0 0 0 0 0 0 0 0 0 0 0 588 593 0 0 0 0 171 0 0 0 0 0 0 0 0 0 0 0 1291 1149 1226 1206 1206 1206 1206 1247 1206 1187 1338 1314 1314 1338 1362 1338 1362 1338 1362 1338 1314 1291 1268 1268 1226 1206 1206 1291 1338 1362 1388 1501 1471 1388 1388 1388 1314 1314 1291 1291 1268 1132 1226 1206 1187 1115 1168 1149 1115 1082 1098 1051 1066 1066 1082 1036 1022 0 0 0 886 886 876 865 855 845 845 826 826 817 817 808 808 808 808 808 743 758 728 0 0 735 735 735 735 758 714 694 675 623 629 0 618 629 629 634 634 634 634 634 639 651 618 0 593 588 584 574 584 566 566 549 549 545 541 541 541 537 533 529 529 525 518 511 514 514 514 514 514 514 514 507 518 504 507 497 0 0 0 0 0
    0 0 0 0 0 0 0 0 0 0 0 0 0 0 0 0 0 0 0 0 0 0 0 0 0 0 0 0 0 0 0 0 0 0 0 0 0 0 0 0 0 0 0 0 0 0 0 0 0 0 0 0 0 0 0 0 0 0 0 0 0 0 0 0 0 0 0 0 0 1226 0 1206 0 1268 0 1362 1247 0 0 0 314 309 301 0 0 0 0 0 1362 1362 1362 1362 1388 1415 1415 1415 1415 1388 1415 1443 1415 1388 1362 1338 1338 1362 1362 1291 1291 1314 1672 1672 1443 1599 1599 1501 1599 1599 1565 1501 1501 1599 1471 1471 1635 1338 1362 1291 1247 1098 1051 0 0 0 0 0 0 0 0 0 0 0 0 0 0 0 0 0 0 0 0 0 0 0 0 0 0 0 0 0 0 593 598 0 0 0 0 0 0 0 0 0 0 0 0 0 0 0 1247 1268 1149 1226 1206 1206 1206 1206 1247 1206 1187 1291 1291 1268 1291 1338 1314 1314 1291 1314 1314 1268 1268 1226 1226 1168 1168 1168 1226 1247 1268 1314 1388 1362 1338 1338 1362 1291 1291 1291 1291 1247 1098 1226 1206 1187 1115 1168 1132 1115 1082 1115 1066 1066 1082 1098 1051 1051 0 0 0 886 886 876 865 865 845 845 826 826 817 0 0 808 817 808 808 743 758 728 735 735 743 735 735 735 766 721 707 675 618 623 0 618 629 629 634 634 629 634 634 639 651 618 0 598 588 584 574 584 566 561 549 549 545 541 541 537 533 533 529 529 525 518 507 514 511 514 514 514 511 511 507 514 504 504 497 0 0 0 0 0
    0 0 0 0 0 0 0 0 0 0 0 0 0 0 0 0 0 0 0 0 0 0 0 0 0 0 0 0 0 0 0 0 0 0 0 0 0 0 0 0 0 0 0 0 0 0 0 0 0 0 0 0 0 0 0 0 0 0 0 0 0 0 0 0 0 0 0 0 0 1247 1247 1206 1247 1247 1247 1291 1226 1168 0 0 0 0 0 0 0 0 0 0 1362 1362 1362 1388 1388 1415 1415 1415 1415 1415 1415 1443 1443 1388 1388 1338 1338 1388 1338 1291 1291 1314 1635 1635 1443 1565 1599 1471 1599 1599 1565 1501 1501 1635 1471 1471 1672 1362 1362 1338 1247 1132 1066 0 0 0 0 0 0 0 0 0 0 0 0 0 0 0 0 0 0 0 0 0 0 0 0 0 0 0 0 0 0 0 0 0 0 0 0 0 0 0 0 0 0 143 0 0 0 0 1247 1268 1149 1226 1206 1206 1206 1206 1247 1206 1187 1291 1268 1247 1268 1314 1291 1314 1291 1314 1314 1268 1268 1226 1226 1149 1149 1168 1168 1187 1206 1226 1291 1268 1291 1314 1314 1268 1268 1247 1247 1206 1098 1226 1206 1206 1115 1168 1149 1115 1098 1115 1082 1082 1098 1115 1082 1066 0 0 0 897 897 886 876 865 855 855 836 0 817 0 0 0 0 808 817 743 766 735 735 743 743 743 743 735 766 721 707 681 618 629 0 618 629 629 629 629 629 634 629 639 657 623 0 598 588 588 579 584 561 561 549 545 0 541 541 537 533 533 529 525 525 518 507 514 511 511 514 514 511 511 504 514 500 504 497 0 0 0 0 0
    0 0 0 0 0 0 0 0 0 0 0 0 0 0 0 0 0 0 0 0 0 0 0 0 0 0 0 0 0 0 0 0 0 0 0 0 0 0 0 0 0 0 0 0 0 0 0 0 0 0 0 0 0 0 0 0 0 0 0 0 0 0 0 0 0 0 0 0 0 1362 1314 1247 1268 1268 1247 1268 1226 1187 1291 0 0 0 0 0 0 0 1338 1314 1362 1362 1362 1388 1388 1415 1415 1415 1415 1415 1415 1443 1415 1388 1362 1338 1338 1388 1338 1291 1291 1291 1599 1599 1415 1565 1565 1471 1599 1599 1565 1501 1501 1635 1471 1471 1672 1362 1362 0 0 1115 1066 0 0 0 0 0 0 0 0 0 0 0 0 0 0 0 0 0 0 0 1008 0 0 0 0 0 0 0 0 0 0 0 0 0 0 0 0 0 0 0 0 0 0 142 0 0 0 0 1247 1268 1149 1226 1206 1226 1206 1206 1247 1187 1168 1268 1226 1226 1226 1268 1247 1291 1247 1291 1291 1247 1247 1206 1206 1168 1149 1168 1149 1168 1168 1168 1206 1206 1206 1268 1291 1268 1247 1226 1226 1206 1098 1226 1226 1206 1115 1187 1149 1132 1098 1132 1082 1098 1098 1132 1098 1082 1066 0 0 897 908 886 876 876 855 0 836 0 0 0 0 0 0 808 817 743 774 743 743 750 750 743 743 743 782 714 694 675 618 629 0 618 623 623 629 629 629 634 629 645 657 623 0 598 588 588 579 584 561 557 549 545 0 541 541 537 537 533 529 529 525 518 507 514 511 511 514 514 511 507 504 511 497 500 493 0 0 0 0 0
    0 0 0 0 0 0 0 0 0 0 0 0 0 0 0 0 0 0 0 0 0 0 0 0 0 0 0 0 0 0 0 0 0 0 0 0 0 0 0 0 0 0 0 0 0 0 0 0 0 0 0 0 0 0 0 0 0 0 0 0 0 0 0 0 0 0 0 0 0 1443 1338 1268 1268 1247 1206 1226 1206 1168 1268 1268 0 0 0 0 0 0 1338 1338 1362 1362 1362 1388 1388 1415 1415 1415 1388 1415 1415 1443 1388 1388 1338 1338 1338 1362 1291 1268 1291 1268 1599 1599 1415 1565 1565 1471 1565 1565 1565 1501 1501 1635 1471 1471 0 1362 1362 0 0 1168 1098 0 0 0 0 0 0 0 0 0 0 0 0 0 0 0 0 0 0 0 1022 0 0 0 0 0 0 0 0 0 0 0 0 0 0 0 0 0 0 0 0 0 0 0 0 0 0 0 1247 1268 1149 1226 1206 1226 1206 1206 1247 1206 1168 1268 1226 1206 1206 1247 1206 1226 1206 1268 1247 1206 1206 1187 1187 1168 1132 1168 1132 1132 1149 1149 1149 1168 1168 1247 1268 1247 1226 1226 1206 1187 1098 1226 1226 1206 1132 1187 1168 1149 1115 1132 1098 1098 1098 1149 1098 1082 1066 0 0 897 908 886 876 876 855 0 845 0 0 0 0 0 0 808 817 743 782 743 750 750 750 750 750 743 791 714 687 663 613 629 0 613 623 623 629 629 629 634 629 645 663 623 0 598 593 588 579 584 561 561 549 545 545 545 545 541 537 537 529 529 529 518 507 514 511 511 514 514 511 507 504 514 497 500 493 0 0 0 0 0
    0 0 0 0 0 0 0 0 0 0 0 0 0 0 0 0 0 0 0 0 0 0 0 0 0 0 0 0 0 0 0 0 0 0 0 0 0 0 0 0 0 0 0 0 0 0 0 0 0 0 0 0 0 0 0 0 0 0 0 0 0 0 0 0 0 0 0 0 0 1533 1338 1314 1291 1247 1168 1168 1168 1132 1247 1268 0 0 0 0 0 1443 1338 1338 1388 1362 1362 1388 1388 1415 1415 1388 1388 1388 1415 1415 1388 1362 1338 1338 1338 1338 1268 1247 1268 1226 1635 1635 1415 1565 1565 1471 1565 1565 1565 1501 1501 1599 1471 1471 0 0 1362 0 0 1226 1132 0 0 0 0 0 0 0 0 0 0 0 0 0 0 0 0 0 0 0 0 0 0 0 0 0 0 0 0 0 0 0 0 0 0 0 0 0 0 0 0 0 0 0 0 0 0 1066 1247 1268 1149 1226 1226 1226 1206 1226 1247 1206 1168 1268 1226 1206 1206 1247 1206 1206 1187 1226 1187 1149 1168 1168 1168 1149 1115 1149 1115 1115 1115 1115 1098 1132 1168 1247 1247 1247 1247 1226 1226 1206 1098 1226 1247 1226 1168 1206 1187 1168 1132 1132 1098 1098 1098 1132 1082 1066 1051 0 0 897 897 886 876 876 855 0 836 0 0 0 0 0 817 808 817 743 782 750 750 758 758 750 750 743 799 714 687 657 613 623 0 613 623 623 629 629 629 634 629 645 663 629 0 598 593 588 579 584 561 561 553 549 549 545 545 541 537 537 529 529 525 518 507 514 511 511 511 514 507 507 504 514 500 500 497 0 0 0 0 0
    0 0 0 0 0 0 0 0 0 0 0 0 0 0 0 0 0 0 0 0 0 0 0 0 0 0 0 0 0 0 0 0 0 0 0 0 0 0 0 0 0 0 0 0 0 0 0 0 0 0 0 0 0 0 0 0 0 0 0 0 0 0 0 0 0 0 0 0 0 1752 0 1415 1314 1247 1168 1132 1132 1115 1247 1291 0 0 1533 1388 1415 1533 1362 1362 1415 1362 1362 1388 1415 1415 1415 1415 1388 1388 1415 1415 1362 1362 1338 1338 1362 1338 1268 1226 1291 1206 1635 1635 1415 1565 1599 1471 1565 1565 1565 1501 1501 1599 1471 1471 0 0 1362 1362 1291 1226 1168 0 0 1168 0 0 0 0 0 0 0 0 0 0 0 0 0 0 0 0 0 0 0 0 0 0 0 0 0 0 0 0 634 0 0 0 0 0 0 0 0 0 0 0 0 0 0 1066 1247 1268 1149 1226 1226 1226 1226 1226 1247 1206 1187 1291 1226 1206 1206 1226 1187 0 1132 1187 1115 1098 1115 1115 1132 1115 1098 1132 1098 1098 1098 1098 1082 1115 1187 1247 1247 1268 1247 1226 1206 1206 1115 1226 1247 1247 1187 1226 1206 1187 1149 1149 1115 1115 1115 1132 1082 1066 1036 0 0 908 908 897 876 876 865 865 845 0 0 0 817 817 817 808 817 735 782 750 758 758 758 750 758 743 791 714 681 657 613 623 0 613 0 623 629 629 629 634 629 645 663 629 0 598 588 588 579 584 566 561 553 545 549 545 541 541 537 537 529 525 525 518 504 514 511 511 511 514 507 507 507 514 500 500 493 0 0 0 0 0
    0 0 0 0 0 0 0 0 0 0 0 0 0 0 0 0 0 0 0 0 0 0 0 0 0 0 0 0 0 0 0 0 0 0 0 0 0 0 0 0 0 0 0 0 0 0 0 0 0 0 0 0 0 0 0 0 0 0 0 0 0 0 0 0 0 0 0 0 0 1989 0 1887 1501 1268 1168 1132 1132 1115 1314 1362 0 1471 1635 1501 1533 1599 1362 1362 1443 1388 1388 1415 1415 1443 1415 1415 1415 1415 1415 1415 1388 1362 1338 1338 1362 1338 1268 1247 1291 1206 1599 1635 1415 1565 1565 1471 1565 1565 1565 1501 1501 1635 1471 1471 0 1415 1443 0 0 1268 1187 0 0 0 0 0 0 0 0 0 0 0 0 0 0 0 0 0 0 0 0 0 0 0 0 0 287 287 0 0 0 0 0 0 0 0 0 0 0 0 0 0 0 0 0 0 0 1066 1247 1268 1168 1226 1226 1247 1226 1226 1268 1226 1187 1291 1247 1226 1206 1247 1206 0 1098 1149 1082 1066 1098 1115 1115 1115 1098 1132 1098 1098 1098 1098 1082 1115 1206 1268 1247 1247 1226 1187 1168 1187 1132 1226 1247 1247 1206 1247 1247 1226 1187 1168 1132 1132 1132 1149 1098 1066 1036 968 931 908 908 897 886 886 865 865 845 845 0 0 817 817 817 808 817 735 774 750 758 758 750 750 758 743 791 707 681 657 618 629 0 613 0 623 629 629 0 629 623 645 663 634 0 0 593 593 584 588 570 566 553 549 549 545 541 541 537 537 529 525 525 514 504 511 511 511 511 514 507 511 507 514 500 500 493 0 0 0 0 0
    0 0 0 0 0 0 0 0 0 0 0 0 0 0 0 0 0 0 0 0 0 0 0 0 0 0 0 0 0 0 0 0 0 0 0 0 0 0 0 0 0 0 0 0 0 0 0 0 0 0 0 0 0 0 0 0 0 0 0 0 0 0 0 0 0 0 0 0 0 1989 2164 1989 1711 1443 1268 1226 1206 1168 1415 1388 1443 1443 1599 1501 1501 1501 1362 1362 1415 1362 1388 1388 1415 1415 1415 1388 1388 1388 1415 1388 1388 1362 1338 1338 1388 1338 1268 1247 1291 1226 1565 1599 1415 1565 1565 1471 1565 1565 1599 1501 1501 1635 1471 1471 0 1443 1501 0 0 0 0 0 0 0 0 0 0 0 0 0 0 0 0 0 0 0 0 0 0 0 0 0 0 0 0 0 287 287 0 0 0 0 0 0 0 0 0 0 0 0 0 0 0 0 0 0 0 1066 1247 1268 1168 1247 1247 1247 1247 1226 1268 1226 1206 1314 1247 1226 1206 1247 1206 0 1115 1168 1082 1082 1115 1132 1132 1132 1115 1149 1115 1115 1115 1098 1098 1149 1226 1268 1268 1247 1187 1187 1168 1168 1149 1206 1226 1247 1226 1247 1247 1247 1226 1206 1187 1168 1168 1187 1132 1082 1036 968 919 919 919 908 886 886 865 865 855 845 0 0 817 817 817 799 817 735 774 750 750 750 750 750 758 750 791 714 681 663 618 629 0 613 0 623 623 0 0 629 623 639 657 634 0 0 598 598 588 593 574 570 557 549 549 549 545 541 537 537 529 525 525 514 504 514 511 511 511 514 507 507 504 514 497 497 493 0 0 0 0 0</data></depth>
</opencv_storage>
