<?xml version="1.0"?>
<opencv_storage>
<gps_time_stamp>307090</gps_time_stamp>
<gps_x>-1.2395231246948242e+001</gps_x>
<gps_y>1.0967985153198242e+001</gps_y>
<gps_z>-1.9972939491271973e+000</gps_z>
<image_time_stamp>297960</image_time_stamp>
<depth type_id="opencv-matrix">
  <rows>91</rows>
  <cols>320</cols>
  <dt>s</dt>
  <data>
    0 0 0 0 0 0 0 0 0 0 0 0 0 0 0 0 0 0 0 0 0 0 0 0 0 0 0 0 0 0 0 0 0 0 0 0 0 0 0 0 0 0 0 0 0 0 0 0 0 0 0 0 0 0 0 0 0 0 0 0 0 0 0 0 0 0 0 0 0 1672 1672 1635 1672 1635 1635 1565 1672 1672 1672 1711 1711 1711 1795 1795 1752 1711 1752 1672 1711 1752 1752 1795 1795 1936 2102 2044 2537 2374 2725 2830 2830 2725 2725 2943 2943 2943 3066 3066 3066 3199 3199 3345 3066 3066 3199 3066 3066 3504 3345 3199 3504 3873 4088 4329 4599 5661 5661 4906 7359 7359 8177 7359 0 0 0 0 0 0 0 8177 0 8177 7359 6690 6690 6690 7359 7359 7359 7359 7359 8177 8177 8177 0 8177 0 8177 8177 0 8177 0 7359 7359 7359 7359 6133 4329 3873 3199 3066 2725 2628 2453 2374 2453 2299 2299 2374 2230 2102 2044 2102 2044 1839 1839 1711 1672 1672 1711 1565 1388 1362 1415 1206 1066 1132 1132 1132 1051 1168 1206 1187 1187 1115 1115 1132 1149 1187 1082 1115 0 0 0 0 1082 1082 1082 1082 1036 1036 968 943 931 908 897 886 845 836 826 0 817 799 791 791 791 817 817 774 735 714 663 687 681 634 651 651 634 0 623 618 613 0 106 106 0 0 0 0 402 0 0 0 0 0 584 579 0 566 0 545 549 0 0 0 955 0 0 0 0 0 0 0 0 287 286 283 0 0 0 0 0 0 919 908 931 897 919 897 886 876 0 0 0 0 0 0 0 0 0 411 406 0 0 0 0 0 0 0 0
    0 0 0 0 0 0 0 0 0 0 0 0 0 0 0 0 0 0 0 0 0 0 0 0 0 0 0 0 0 0 0 0 0 0 0 0 0 0 0 0 0 0 0 0 0 0 0 0 0 0 0 0 0 0 0 0 0 0 0 0 0 0 0 0 0 0 0 0 0 1672 1672 1672 1672 1672 1635 1599 1672 1711 1672 1711 1711 1752 1795 1795 1752 1752 1752 1711 1752 1752 1795 1795 1839 1989 2164 2164 2628 2374 2725 2830 2830 2830 2725 2943 2943 2943 3066 3066 3066 3199 3199 3345 3066 3066 3199 3199 3199 3873 3679 3504 3873 4599 4906 4906 5256 6133 6133 5661 8177 0 0 0 0 0 0 0 0 0 8177 8177 8177 8177 7359 6690 6133 6133 6690 6690 7359 7359 7359 8177 7359 8177 8177 8177 8177 8177 8177 8177 8177 0 7359 7359 7359 6690 6133 4329 3873 3345 3199 0 2725 2537 2453 2537 2374 2374 2453 2299 2164 2102 2164 2044 1839 1839 1711 1672 1672 1711 1599 1415 1362 1415 1206 1036 1082 1098 1098 1036 1149 1187 1187 1187 1132 1132 1132 1149 1187 1066 0 0 0 0 0 1082 1082 1082 1082 1036 1022 968 931 919 897 897 876 845 836 826 0 817 808 791 799 799 817 826 782 735 714 663 687 681 634 645 645 634 0 623 618 613 613 106 105 0 0 0 0 399 0 0 0 0 593 588 584 0 570 0 545 549 0 0 0 0 0 511 477 0 0 0 2299 0 0 287 283 0 0 0 0 0 0 931 919 0 0 0 0 0 0 0 0 0 422 422 418 415 415 415 408 404 0 0 0 0 0 0 0 0
    0 0 0 0 0 0 0 0 0 0 0 0 0 0 0 0 0 0 0 0 0 0 0 0 0 0 0 0 0 0 0 0 0 0 0 0 0 0 0 0 0 0 0 0 0 0 0 0 0 0 0 0 0 0 0 0 0 0 0 0 0 0 0 0 0 0 0 0 0 1672 1672 1672 1672 1672 1672 1635 1711 1711 1711 1752 1752 1795 1839 1839 1795 1795 1795 1711 1752 1795 1795 1839 1839 2044 2230 2230 2628 2374 2725 2830 2830 2830 2725 2943 2943 2943 3066 2943 3066 3066 3199 3345 3066 3066 3199 3345 0 0 4599 3873 4599 5256 5661 5256 6133 6690 6690 6133 0 0 0 0 0 0 0 0 0 0 0 8177 0 8177 7359 6690 6133 6133 6690 6690 7359 7359 7359 7359 7359 8177 8177 8177 8177 8177 8177 8177 8177 0 7359 7359 7359 6690 6133 4599 3873 3345 3199 0 2830 2628 2453 2537 2453 2453 2537 2299 2230 2164 2164 2102 1839 1839 1752 1672 1672 1711 1635 1415 1362 1443 1187 1008 1066 1066 1066 1036 1149 1206 1206 1206 1149 0 0 1168 1206 0 0 0 0 0 0 1082 1082 1082 1082 1036 1022 955 919 919 886 886 876 845 0 826 0 817 808 791 799 799 817 826 782 728 707 669 687 681 634 639 639 629 0 623 618 608 608 0 105 0 0 0 0 0 0 0 0 0 593 588 584 0 574 0 0 549 0 0 0 0 0 497 474 0 0 0 2374 2374 0 0 283 0 3504 0 197 0 0 0 0 0 0 0 0 0 0 0 0 427 420 420 413 413 413 413 406 402 399 395 391 0 0 0 0 0
    0 0 0 0 0 0 0 0 0 0 0 0 0 0 0 0 0 0 0 0 0 0 0 0 0 0 0 0 0 0 0 0 0 0 0 0 0 0 0 0 0 0 0 0 0 0 0 0 0 0 0 0 0 0 0 0 0 0 0 0 0 0 0 0 0 0 0 0 0 1672 1672 1711 1672 1711 1672 1672 1711 1752 1711 1795 1752 1795 1887 1887 1839 1839 1795 1752 1795 1795 1839 1839 1887 2044 2230 2230 2628 2374 2725 2830 2830 2830 2725 2830 2943 2943 3066 2943 3066 3066 3199 3345 3199 3066 3199 0 0 0 6133 4599 5661 6133 6690 6133 6133 6690 7359 6690 8177 0 0 0 0 0 0 0 0 0 0 0 0 8177 7359 6690 6133 6690 6690 6690 7359 7359 7359 8177 7359 8177 8177 0 8177 0 0 0 0 0 8177 8177 7359 7359 6690 4599 3873 3345 3345 0 2830 2628 2453 2537 2453 2453 2537 2299 2299 2164 2164 2102 1839 1839 1752 1711 1672 1711 1635 1415 1362 1471 1187 1008 1022 1036 1036 1022 1149 1226 1226 1226 0 0 0 0 0 0 0 0 0 0 0 1082 1082 1082 1082 1036 1022 955 908 908 886 886 865 845 836 826 0 817 817 799 799 799 817 836 799 735 707 675 681 681 634 634 634 623 0 623 618 608 608 0 105 0 0 0 0 0 0 0 0 0 593 593 588 579 579 549 0 549 0 0 0 0 0 493 474 0 0 0 2374 2374 0 0 0 0 3504 0 0 0 0 0 0 0 0 0 0 0 0 0 0 0 0 0 0 411 411 411 406 402 397 393 389 0 0 0 0 0
    0 0 0 0 0 0 0 0 0 0 0 0 0 0 0 0 0 0 0 0 0 0 0 0 0 0 0 0 0 0 0 0 0 0 0 0 0 0 0 0 0 0 0 0 0 0 0 0 0 0 0 0 0 0 0 0 0 0 0 0 0 0 0 0 0 0 0 0 0 1672 1672 1711 1672 1711 1672 1711 1711 1752 1752 1839 1795 1839 1887 1887 1839 1839 1795 1752 1795 1839 1839 1887 1936 2102 2299 2299 2628 2299 2628 2725 2830 2725 2725 2830 2830 2830 3066 3066 3066 3066 3199 3199 3066 3066 3199 0 0 0 0 5661 0 7359 7359 6690 7359 6690 7359 6690 8177 8177 0 8177 0 0 0 0 0 0 0 0 0 8177 7359 6690 6690 6690 7359 7359 7359 7359 6690 8177 7359 8177 8177 0 8177 0 0 0 0 0 0 8177 7359 7359 6690 4599 3873 3199 3345 2830 0 2725 2453 2537 2453 2453 2537 2374 2299 2164 2164 2164 1839 1839 1752 1711 1672 1711 1672 1443 1362 1501 1168 994 1008 1022 1022 1022 1149 1247 1268 139 138 0 0 0 0 0 0 0 0 0 0 1082 1066 1082 1082 1036 1022 955 908 908 876 876 865 845 836 826 0 826 817 799 0 808 817 845 799 728 707 675 675 681 634 629 629 623 613 623 618 608 603 603 0 0 0 0 0 0 0 0 0 557 588 593 588 579 584 553 0 553 0 0 0 0 0 0 0 0 0 0 2453 2374 0 0 0 0 0 0 0 0 0 0 0 0 0 0 0 0 0 0 430 427 418 418 413 411 411 411 406 402 397 395 389 0 0 0 0 0
    0 0 0 0 0 0 0 0 0 0 0 0 0 0 0 0 0 0 0 0 0 0 0 0 0 0 0 0 0 0 0 0 0 0 0 0 0 0 0 0 0 0 0 0 0 0 0 0 0 0 0 0 0 0 0 0 0 0 0 0 0 0 0 0 0 0 0 0 0 1635 1635 1711 1635 1711 1672 1711 1711 1752 1752 1839 1752 1839 1887 1887 1839 1839 1839 1752 1839 1887 1887 1887 1989 2102 2299 2299 2725 2299 2628 2725 2725 2725 2725 2830 2830 2830 3066 3066 3066 3066 3066 3199 3066 3066 3199 0 3504 4906 8177 6133 8177 8177 8177 7359 7359 7359 7359 6690 8177 7359 0 8177 0 0 0 0 0 0 0 8177 0 8177 7359 6690 6690 6690 7359 8177 8177 7359 7359 8177 7359 8177 8177 0 8177 0 0 0 0 0 0 8177 7359 7359 7359 4599 4088 3345 3345 2830 0 2725 2453 2537 2453 2453 2537 2374 2299 2164 2164 2164 1839 1887 1795 1711 1711 1711 1672 1443 1362 0 1149 994 981 1008 1008 1008 1149 1291 0 139 138 138 0 0 0 0 0 0 0 0 0 1098 1066 1066 1082 0 1022 955 908 908 886 876 865 845 836 826 836 826 817 808 0 0 817 845 799 721 707 675 675 681 639 623 629 623 618 629 623 608 603 603 105 0 0 0 0 0 0 0 0 557 588 598 593 579 0 553 0 553 0 0 0 0 0 0 0 0 0 0 2453 0 504 0 0 0 0 0 0 0 0 0 0 0 0 0 0 0 0 0 427 427 418 415 413 413 411 411 406 402 397 395 391 0 0 0 0 0
    0 0 0 0 0 0 0 0 0 0 0 0 0 0 0 0 0 0 0 0 0 0 0 0 0 0 0 0 0 0 0 0 0 0 0 0 0 0 0 0 0 0 0 0 0 0 0 0 0 0 0 0 0 0 0 0 0 0 0 0 0 0 0 0 0 0 0 0 0 1635 1635 1711 1635 1711 1672 1711 1711 1752 1752 0 1752 1839 1887 1936 1887 1887 1839 1795 1887 1887 1887 1936 1989 2102 2299 2299 2725 2299 2628 2725 2725 2725 2725 2830 2830 2830 3066 3066 3066 2943 3066 3066 3066 3066 3199 3504 3504 4906 7359 6133 7359 7359 8177 7359 7359 6690 7359 6133 7359 6690 8177 8177 0 0 0 0 0 0 0 8177 8177 8177 7359 6690 6690 7359 7359 7359 8177 7359 7359 8177 8177 8177 8177 0 0 0 0 0 0 0 0 0 8177 8177 8177 4906 4088 3199 3345 2830 0 2725 2374 2537 2453 2453 2537 2374 2299 2164 2164 2164 1839 1887 1795 1711 1711 1711 1672 1443 1362 0 1132 981 955 981 994 994 1168 1338 0 139 138 138 0 0 0 0 0 0 0 0 0 1098 1066 1066 1082 0 1008 955 908 908 886 876 865 855 845 836 836 826 817 799 0 0 808 826 799 721 707 687 681 687 639 623 634 629 618 634 629 608 608 608 105 0 0 0 0 0 0 0 0 557 584 0 593 579 0 557 553 553 0 0 521 0 0 0 0 0 0 0 0 0 504 504 0 0 0 0 0 0 0 0 0 0 0 0 0 0 0 0 427 425 418 415 413 413 408 408 406 402 397 395 391 0 0 0 0 0
    0 0 0 0 0 0 0 0 0 0 0 0 0 0 0 0 0 0 0 0 0 0 0 0 0 0 0 0 0 0 0 0 0 0 0 0 0 0 0 0 0 0 0 0 0 0 0 0 0 0 0 0 0 0 0 0 0 0 0 0 0 0 0 0 0 0 0 0 0 1635 1599 1711 1599 1711 1672 1711 1711 1752 1752 0 1795 0 1887 1936 1887 1887 1839 1795 1887 1936 1936 1936 2044 2164 2374 2374 2725 2299 2628 2725 2725 2725 2830 2830 2725 2725 2943 2943 2943 2830 2943 3066 3066 3066 3066 3504 3504 4599 6690 6133 7359 7359 7359 6690 6690 6133 6690 5661 6133 6133 6690 7359 0 0 0 0 0 0 0 9199 0 8177 7359 7359 6690 7359 7359 8177 8177 8177 7359 8177 8177 0 0 0 0 0 0 0 0 0 0 8177 8177 8177 7359 4906 3873 3066 3199 2830 0 2725 2374 2537 2453 2453 2537 2374 2299 2164 2164 2164 1887 1887 1839 1752 1711 1711 1711 1443 1362 0 1132 981 943 968 981 981 0 1415 0 139 139 138 0 0 0 0 0 1098 0 0 0 1098 1082 1066 1098 0 1008 955 897 908 886 876 865 855 845 836 836 826 817 0 0 0 799 826 799 735 714 700 687 687 651 618 634 629 618 634 629 613 608 0 105 0 0 0 0 0 0 0 0 557 579 0 588 579 588 557 553 553 0 0 529 0 0 0 0 0 0 0 0 0 504 500 490 0 0 75 0 0 0 0 0 0 0 0 0 0 0 0 425 422 415 413 411 413 408 408 406 399 397 395 391 0 0 0 0 0
    0 0 0 0 0 0 0 0 0 0 0 0 0 0 0 0 0 0 0 0 0 0 0 0 0 0 0 0 0 0 0 0 0 0 0 0 0 0 0 0 0 0 0 0 0 0 0 0 0 0 0 0 0 0 0 0 0 0 0 0 0 0 0 0 0 0 0 0 0 1635 1599 1711 1599 1711 1672 1672 1672 1752 1711 0 1752 0 1887 1936 1887 1887 1839 1795 1936 1936 1936 1936 2044 2164 2374 2374 2725 2299 2628 2628 2725 2830 2830 2830 2725 2725 2943 2943 2943 2830 2943 2943 2943 3066 3066 3504 3345 4088 6133 6133 6690 7359 7359 7359 6690 6690 6133 5661 6133 5661 6690 7359 8177 0 0 0 0 0 0 8177 8177 8177 7359 6690 6690 7359 7359 8177 8177 8177 8177 8177 0 0 0 0 0 0 0 0 0 0 0 8177 7359 7359 7359 4906 3679 3066 3199 2830 0 2725 2374 2537 2453 2537 2537 2374 2299 2164 2164 2230 1887 1936 1887 0 1752 1752 1711 1501 1388 0 1168 981 943 968 981 981 0 1501 0 139 139 138 0 0 0 0 0 1115 0 0 0 1115 1082 1082 1115 0 0 955 897 0 886 876 865 855 845 836 836 826 817 799 0 0 791 826 799 743 728 707 687 694 657 618 634 634 623 639 629 618 613 0 106 0 0 0 0 0 0 0 0 561 579 0 593 579 0 561 557 557 0 549 537 0 0 0 0 0 0 0 0 0 504 500 493 0 0 75 0 0 0 0 0 0 0 0 0 0 0 0 422 422 413 413 413 413 408 408 406 402 397 395 391 0 0 0 0 0
    0 0 0 0 0 0 0 0 0 0 0 0 0 0 0 0 0 0 0 0 0 0 0 0 0 0 0 0 0 0 0 0 0 0 0 0 0 0 0 0 0 0 0 0 0 0 0 0 0 0 0 0 0 0 0 0 0 0 0 0 0 0 0 0 0 0 0 0 0 1635 1599 1711 1599 1711 1672 1672 1672 1711 1711 1752 1711 0 0 1936 1887 1887 1839 1839 1936 1989 1989 1989 2102 2164 2374 2374 2628 2230 2628 2628 2725 2830 2943 2943 2725 2725 2830 2943 2943 2725 2943 2943 2943 3066 3199 3504 3345 3873 5661 5256 6133 6133 6690 6690 6133 6133 6133 5661 5661 5661 6690 6690 7359 0 0 0 8177 0 0 8177 8177 8177 7359 6690 6690 7359 7359 8177 7359 8177 8177 0 0 0 0 0 0 0 0 0 0 0 8177 7359 7359 6690 6690 4599 3345 2943 3066 2725 0 2628 2374 2453 2453 2537 2537 2374 2299 2164 2164 2230 1887 1936 1936 0 1795 1752 1752 1533 1388 0 1206 994 943 981 994 994 0 1533 0 139 139 138 0 0 0 1149 0 1115 0 0 0 1132 1098 1082 1115 0 0 968 897 0 876 865 855 855 836 836 836 826 808 791 782 0 782 817 799 750 728 714 694 694 669 623 645 639 623 639 634 618 613 0 106 0 0 0 0 0 0 0 0 0 584 0 593 584 0 566 557 557 593 549 545 0 0 0 0 0 0 0 0 0 504 500 493 0 0 0 0 0 0 0 0 0 0 0 0 0 0 422 420 420 413 413 413 413 411 411 408 404 399 0 395 0 0 0 0 0
    0 0 0 0 0 0 0 0 0 0 0 0 0 0 0 0 0 0 0 0 0 0 0 0 0 0 0 0 0 0 0 0 0 0 0 0 0 0 0 0 0 0 0 0 0 0 0 0 0 0 0 0 0 0 0 0 0 0 0 0 0 0 0 0 0 0 0 0 0 1672 1599 1711 1599 1711 1672 1672 1672 1711 1711 1752 1711 0 0 1936 1839 1887 1887 1839 1989 1989 2044 2044 2164 2164 2374 2374 2628 2230 2628 2628 2725 2830 2943 2943 2725 2725 2830 2943 2943 2725 2830 2943 2943 3199 3199 3679 3345 3873 5256 4906 6133 5661 6133 6133 6133 5661 5661 4906 5256 5661 6133 6133 7359 8177 0 0 8177 0 0 8177 0 0 7359 6690 6690 8177 7359 8177 7359 8177 8177 0 0 0 0 0 0 0 0 0 0 8177 8177 6690 6690 6690 6690 4329 3199 2830 2830 2537 2628 2537 2299 2453 2453 2453 2537 2453 2299 2164 2164 2230 1887 1936 1989 0 1795 1752 1752 1533 1415 0 1268 1008 955 0 0 994 0 1599 0 0 0 0 0 0 1247 1149 1149 1132 1132 1132 1132 1149 1098 1098 1132 0 0 968 897 0 876 0 855 855 836 836 826 826 808 791 774 782 782 817 799 758 735 721 694 694 675 623 651 645 629 645 634 623 618 0 0 0 0 0 0 0 0 0 0 0 588 0 598 588 0 570 561 557 588 549 545 0 0 0 0 0 0 0 0 0 504 500 497 487 0 0 0 0 0 0 0 0 0 0 0 0 0 418 420 418 413 411 413 413 411 411 408 404 399 399 395 0 0 0 0 0
    0 0 0 0 0 0 0 0 0 0 0 0 0 0 0 0 0 0 0 0 0 0 0 0 0 0 0 0 0 0 0 0 0 0 0 0 0 0 0 0 0 0 0 0 0 0 0 0 0 0 0 0 0 0 0 0 0 0 0 0 0 0 0 0 0 0 0 0 0 1672 1599 1711 1635 1711 1672 1672 1672 1711 1672 1752 1672 0 1752 0 1795 1839 1887 1839 2044 2044 2044 2102 2230 2164 2374 2374 2628 2299 2628 2628 2725 2830 2943 2943 2725 2725 2725 2943 0 2725 2830 2830 0 3199 3345 3679 3504 3679 4906 4599 5661 4906 5256 5661 5661 4906 5256 4599 4906 5256 5661 5661 6690 7359 0 8177 7359 7359 8177 8177 8177 8177 8177 6690 6690 7359 7359 7359 6690 7359 8177 8177 0 0 0 0 0 0 0 0 0 8177 8177 7359 7359 6690 6690 4599 3199 2830 2830 2537 2628 2537 2299 2453 2453 2453 2453 2453 2299 2164 2102 2164 1887 1936 1989 0 1795 1795 1752 1533 1443 0 0 1022 968 0 0 0 0 1599 1533 1533 0 0 0 1247 1247 1149 1149 1132 1115 1132 1132 1149 1098 1098 1132 0 0 981 897 0 0 0 855 855 836 826 826 0 808 782 774 782 782 817 799 766 743 721 694 694 681 629 657 651 634 645 639 629 623 0 0 0 0 0 0 0 0 0 0 574 588 0 598 593 0 570 557 557 0 545 541 0 0 0 0 0 0 0 0 0 504 500 497 490 0 0 0 0 0 0 0 0 0 0 0 0 0 418 418 418 413 411 413 413 411 408 408 404 399 397 395 0 0 0 0 0
    0 0 0 0 0 0 0 0 0 0 0 0 0 0 0 0 0 0 0 0 0 0 0 0 0 0 0 0 0 0 0 0 0 0 0 0 0 0 0 0 0 0 0 0 0 0 0 0 0 0 0 0 0 0 0 0 0 0 0 0 0 0 0 0 0 0 0 0 0 1672 1635 1752 1635 1711 1711 1711 1672 1711 1672 1752 1672 1795 1752 0 0 1887 1936 1887 2102 2102 2164 2164 2299 2230 2453 2453 2628 2299 2628 2628 2725 2830 2943 2943 2628 2725 2725 0 0 2725 2725 2830 0 3345 3345 3679 3345 3679 4599 4329 5256 4329 4906 5256 5661 4906 5256 4906 5256 5661 6133 6690 6690 7359 0 8177 7359 7359 8177 8177 8177 8177 8177 6690 6690 7359 7359 6690 6690 7359 7359 7359 8177 0 0 0 0 0 0 0 0 8177 8177 6690 7359 6690 6133 4329 3199 2830 2725 2537 2628 2628 2299 2453 2453 2453 2453 2453 2299 2164 2102 2230 1936 1936 1989 1795 1795 1795 1711 1533 1443 0 1533 1247 0 1443 1443 1338 0 1565 1501 1501 1388 0 0 1226 1226 1149 1149 1115 1115 1132 1132 1149 1098 1098 1132 0 0 994 908 886 886 0 855 855 836 826 826 0 808 791 774 782 782 817 799 766 743 721 694 694 687 629 663 657 634 645 639 629 629 0 0 0 0 0 0 0 0 0 0 579 593 0 603 593 0 570 557 553 0 0 537 0 0 0 0 0 0 0 0 0 507 500 500 490 0 0 474 0 0 0 0 0 0 0 0 0 420 418 418 418 413 411 411 413 411 408 408 404 399 397 395 0 0 0 0 0
    0 0 0 0 0 0 0 0 0 0 0 0 0 0 0 0 0 0 0 0 0 0 0 0 0 0 0 0 0 0 0 0 0 0 0 0 0 0 0 0 0 0 0 0 0 0 0 0 0 0 0 0 0 0 0 0 0 0 0 0 0 0 0 0 0 0 0 0 0 1711 1635 1752 1672 1711 1711 1711 1672 1711 1672 1752 1711 0 1752 0 0 1936 1936 1936 2164 2102 2230 2230 2374 2299 2453 2453 2628 2374 2628 2628 2830 2943 2943 2943 2628 2725 2725 0 0 2628 2725 2725 0 3504 3504 3873 3504 3873 4329 4088 4906 4088 4599 5256 5256 5256 5256 5661 5661 6133 6133 6690 7359 8177 0 0 7359 7359 8177 8177 8177 8177 8177 6690 6690 7359 6690 6690 6133 6690 6690 6690 8177 8177 8177 0 0 0 0 0 0 8177 7359 6690 6690 6690 6133 4329 3199 2943 2830 2628 2725 2628 2374 2537 2537 2453 2537 2537 2299 2164 2102 2230 1936 1936 1989 1795 1795 1795 1711 1533 1471 0 1635 1338 1471 1471 1471 1362 0 1501 1471 1443 1362 0 1168 1206 1206 1149 1132 1115 1098 1115 1132 1149 1098 1082 1132 0 0 0 908 886 886 855 845 845 826 826 826 826 817 791 774 774 782 808 799 766 743 721 687 694 687 629 663 657 634 645 634 629 629 0 0 0 0 0 0 0 0 0 0 584 593 0 0 598 0 574 553 553 0 0 533 537 533 0 0 0 0 0 0 0 511 504 504 493 497 0 0 0 0 0 0 0 0 0 0 0 420 418 415 418 413 411 411 411 408 406 406 402 397 397 395 0 0 0 0 0
    0 0 0 0 0 0 0 0 0 0 0 0 0 0 0 0 0 0 0 0 0 0 0 0 0 0 0 0 0 0 0 0 0 0 0 0 0 0 0 0 0 0 0 0 0 0 0 0 0 0 0 0 0 0 0 0 0 0 0 0 0 0 0 0 0 0 0 0 0 1711 1635 1752 1672 1752 1711 1711 1711 1752 1711 1752 1711 0 1795 0 1936 1989 2044 1989 2230 2164 2299 2299 2374 2299 2537 2537 2628 2453 2725 2725 2830 2943 3066 3066 2628 2725 2628 490 0 2628 2628 2628 0 3504 0 3873 3345 3679 4088 3873 4599 4088 4329 5256 5256 5661 5256 5661 6133 6133 6133 6690 7359 8177 0 0 8177 8177 8177 8177 8177 8177 8177 7359 6690 7359 6690 6133 6133 6133 6133 6133 7359 7359 8177 8177 0 0 0 0 0 8177 7359 6690 6690 6690 6133 4329 3199 3066 2830 2725 2830 2725 2453 2537 2537 2537 2537 2537 2374 2230 2102 2299 1936 1936 1989 1795 1795 1795 1711 1565 1501 1635 1672 1362 1471 1471 1471 1388 1388 1443 1388 1388 1338 0 1149 1187 1187 1132 1115 1115 1098 1115 1132 1132 1082 1082 1115 0 0 0 919 876 876 855 845 845 826 826 826 826 817 791 774 782 782 808 808 782 743 714 694 694 687 634 663 657 639 639 634 623 629 0 0 0 0 0 0 0 0 0 0 0 593 0 0 598 0 574 553 553 0 0 533 533 0 0 0 0 0 0 0 0 514 507 507 500 504 507 0 0 0 0 0 0 0 0 0 418 420 415 415 415 413 411 408 408 406 404 406 402 397 0 0 0 0 0 0 0
    0 0 0 0 0 0 0 0 0 0 0 0 0 0 0 0 0 0 0 0 0 0 0 0 0 0 0 0 0 0 0 0 0 0 0 0 0 0 0 0 0 0 0 0 0 0 0 0 0 0 0 0 0 0 0 0 0 0 0 0 0 0 0 0 0 0 0 0 0 1752 1635 1795 1672 1752 1752 1711 1711 1752 1711 1752 1711 1839 1795 1936 1989 1989 2044 2044 2299 2230 2299 2299 2453 2374 2537 2537 2628 2453 2725 2725 2830 2943 3066 3066 2628 2725 2628 490 0 2537 2453 2537 0 3504 0 3679 3345 3504 3873 3679 4329 3873 4088 4906 4906 5256 5256 5661 6133 6133 6133 6690 7359 8177 0 0 8177 8177 8177 8177 0 0 8177 7359 6690 7359 6690 6133 6133 5661 5661 5661 6690 6690 7359 8177 8177 0 0 0 0 8177 8177 6690 6690 6690 6133 4599 3345 3199 2943 2725 2830 2830 2537 2628 2628 2537 2537 2628 2374 2230 2164 2299 1989 1936 2044 1795 1795 1795 1711 1565 1533 1599 1672 1362 1443 1443 1443 1388 1338 1362 1362 1314 0 0 1132 1168 1168 1132 1098 1098 1082 1098 1115 1115 1082 1082 1115 0 0 0 919 865 876 0 845 845 817 817 826 826 817 799 782 782 791 817 817 799 750 714 694 694 687 634 663 663 639 634 634 623 623 0 0 0 0 0 0 0 0 0 0 0 0 0 603 598 0 579 553 553 0 0 529 0 0 0 0 0 0 0 0 0 518 0 0 0 0 0 0 0 0 0 0 0 0 0 0 418 420 415 413 413 411 408 406 406 406 404 404 402 397 0 0 0 0 0 0 0
    0 0 0 0 0 0 0 0 0 0 0 0 0 0 0 0 0 0 0 0 0 0 0 0 0 0 0 0 0 0 0 0 0 0 0 0 0 0 0 0 0 0 0 0 0 0 0 0 0 0 0 0 0 0 0 0 0 0 0 0 0 0 0 0 0 0 0 0 0 1795 1672 1795 1711 1752 1752 1752 1711 1752 1711 1752 1711 1795 1752 1887 1936 1936 2044 2044 2299 2299 2299 2299 2453 2374 2537 2537 2628 2453 2725 2725 2830 2943 2943 2943 2537 2628 2628 490 0 2537 2453 2453 0 3504 0 3679 3345 3504 3679 3504 4329 3873 4088 4599 4599 5256 4906 5256 6133 5661 5661 6133 6690 7359 0 8177 8177 7359 8177 8177 8177 8177 8177 7359 6690 7359 6133 6133 5661 5661 5661 5661 6133 6690 7359 8177 8177 0 0 0 0 8177 8177 6690 7359 6690 6133 4906 3504 3345 2943 2725 2943 2830 2537 2628 2628 2537 2537 2628 2374 2299 2164 2374 1989 1936 2044 1839 1839 1839 1711 1565 1565 1599 1672 1388 1415 1415 1415 1388 1314 1338 1314 1291 1291 0 1115 1149 1149 1132 1098 1098 1082 1098 1115 1115 1082 1082 1115 0 0 0 943 0 886 0 0 836 808 817 826 826 817 799 782 791 791 817 817 808 758 721 694 694 687 634 663 657 639 0 634 623 623 0 0 0 0 0 0 0 0 0 0 0 0 0 603 598 0 579 553 553 0 0 0 0 0 0 0 0 0 0 0 0 521 0 0 0 0 0 0 0 0 0 0 0 0 0 0 418 420 415 411 411 411 406 406 406 404 404 404 402 397 0 0 0 0 0 0 0
    0 0 0 0 0 0 0 0 0 0 0 0 0 0 0 0 0 0 0 0 0 0 0 0 0 0 0 0 0 0 0 0 0 0 0 0 0 0 0 0 0 0 0 0 0 0 0 0 0 0 0 0 0 0 0 0 0 0 0 0 0 0 0 0 0 0 0 0 0 1795 1672 1795 1711 1795 1752 1752 1752 1752 1711 1795 1752 1839 1752 0 0 1936 2044 2044 2230 2230 2299 2299 2453 2374 2537 2537 2628 2453 2628 2725 2725 2830 2943 2830 2453 2628 2537 0 0 2537 2374 2453 2725 3679 0 3873 3345 3504 3873 3504 4329 3873 4088 4599 4599 4906 4906 5256 6133 5661 5256 5661 6690 6690 8177 7359 7359 7359 7359 8177 8177 8177 8177 7359 6690 7359 6133 5661 5661 5256 5661 5256 6133 6690 6690 7359 8177 8177 0 0 0 0 8177 7359 7359 7359 6690 5256 3679 3504 2943 2830 2943 2830 2537 2725 2725 2537 2537 2628 2374 2299 2164 2374 1989 1989 2044 1839 1839 1839 1711 1599 1599 1635 1711 1415 1443 1471 1471 1415 1314 1314 1314 1291 1268 0 1132 1132 1132 1132 1082 1098 1066 1098 0 1098 1082 1082 1098 0 0 0 0 0 0 0 0 0 799 817 826 826 826 799 782 791 799 826 826 817 774 721 694 694 687 634 657 657 634 0 629 623 618 0 0 0 0 0 0 0 0 0 0 110 598 0 603 598 0 579 553 0 0 0 0 0 0 0 0 0 0 0 0 0 521 0 0 0 0 0 0 0 0 0 0 0 0 0 0 418 420 415 411 411 408 406 404 404 404 402 404 402 399 397 0 0 0 0 0 0
    0 0 0 0 0 0 0 0 0 0 0 0 0 0 0 0 0 0 0 0 0 0 0 0 0 0 0 0 0 0 0 0 0 0 0 0 0 0 0 0 0 0 0 0 0 0 0 0 0 0 0 0 0 0 0 0 0 0 0 0 0 0 0 0 0 0 0 0 0 1839 1672 1795 1711 1795 1752 1752 1752 1752 1711 1795 1752 1887 1795 0 1887 1989 2044 2044 2230 2230 2230 2299 2453 2374 2537 2537 2628 2374 2628 2725 2628 2830 2830 2830 2453 2537 2537 0 2537 2537 2374 2453 2628 3504 0 3873 3345 3679 3873 3504 4329 4088 4329 4906 4906 4906 4906 4906 5661 5661 5256 5256 6133 6133 7359 7359 7359 7359 7359 8177 8177 8177 8177 6690 6690 6690 6133 5661 5661 5256 5256 5256 6133 6133 6690 7359 8177 8177 0 0 0 0 0 8177 8177 8177 7359 6133 3873 3873 3199 2943 3066 2943 2628 2725 2725 2628 2628 2725 2453 2374 2230 2453 2044 1989 2102 1887 1936 1936 1752 1711 1711 1711 1752 1471 1443 1501 1471 1415 1291 1291 1291 1268 0 258 1132 1132 1132 1132 1082 1098 1066 1098 1098 1098 1066 1082 1098 0 0 0 0 0 0 0 0 0 799 817 826 826 826 808 791 791 799 826 826 817 758 714 687 687 687 634 651 645 634 0 623 618 618 613 0 0 598 0 0 0 0 0 0 0 593 0 603 598 588 579 0 0 0 0 0 0 931 0 0 0 0 0 73 0 0 0 0 0 0 0 0 0 0 0 0 0 0 0 0 420 420 415 411 411 408 406 404 402 402 0 402 402 0 395 0 0 0 0 0 0
    0 0 0 0 0 0 0 0 0 0 0 0 0 0 0 0 0 0 0 0 0 0 0 0 0 0 0 0 0 0 0 0 0 0 0 0 0 0 0 0 0 0 0 0 0 0 0 0 0 0 0 0 0 0 0 0 0 0 0 0 0 0 0 0 0 0 0 0 0 1839 1635 1795 1672 1795 1752 1752 1752 1752 1711 1795 1752 1887 1795 0 1887 1936 2044 2044 2164 2230 2230 2299 2374 2374 2537 2537 2628 2374 2628 2725 2628 2725 2830 2725 2374 2537 2537 0 2537 2537 2453 2453 2628 3345 3199 3679 3345 3504 3679 3504 4329 4088 4329 4906 4599 4906 4599 4599 5661 5256 4599 4906 5661 5661 6690 6690 6690 6690 6690 7359 8177 8177 8177 6690 6690 6690 5661 5661 5661 5256 5256 5256 6133 6690 7359 8177 8177 0 0 0 0 0 0 8177 8177 8177 7359 6690 4329 4088 3345 3066 3066 3066 2725 2830 2830 2628 2628 2725 2453 2453 2299 2453 2102 2044 2102 1989 1936 1989 1795 1752 1752 1752 1795 1565 1471 1501 1471 1388 1268 1291 1268 0 0 257 0 0 1132 1132 1082 1082 1066 1082 1082 1082 1066 1066 0 0 0 0 0 553 0 0 0 845 808 817 836 836 826 808 791 791 799 826 826 808 735 714 681 687 687 634 645 639 629 0 623 618 613 608 608 0 598 0 0 0 0 0 0 0 588 603 598 598 584 0 0 2725 0 0 0 0 0 0 0 0 0 0 73 0 0 0 0 0 0 0 0 0 0 471 0 451 0 435 430 422 422 418 411 411 408 406 402 402 402 0 402 402 0 395 0 0 0 0 0 0
    0 0 0 0 0 0 0 0 0 0 0 0 0 0 0 0 0 0 0 0 0 0 0 0 0 0 0 0 0 0 0 0 0 0 0 0 0 0 0 0 0 0 0 0 0 0 0 0 0 0 0 0 0 0 0 0 0 0 0 0 0 0 0 0 0 0 0 0 0 1795 1565 1752 1672 1752 1752 1752 1752 1752 1711 1795 1752 1839 1752 0 1887 1887 1989 1989 2102 2164 2164 2230 2374 2374 2537 2537 2628 2374 2628 2725 2537 2725 2725 2725 2374 2537 2628 2453 2537 2628 2453 2453 2628 3199 3066 3345 3199 3199 3504 3345 4088 3873 4088 4906 4599 4906 4599 4329 5256 4906 4599 4599 5256 5256 6133 6133 6690 6690 6690 7359 8177 8177 8177 6690 6690 7359 5661 5661 6133 5256 5661 5256 6133 6690 7359 8177 8177 0 0 0 0 0 0 8177 8177 8177 7359 6690 4906 4329 3679 3199 3199 3066 2725 2830 2830 2628 2628 2725 2453 2453 2299 2453 2102 2102 2102 2044 1936 0 1795 1795 1795 1795 1752 1599 1471 1501 1443 1388 1247 1268 1268 0 258 256 0 0 1115 1132 1066 1082 1066 1082 1082 1066 1051 1051 0 0 0 0 0 553 0 0 0 855 808 817 836 836 836 808 791 791 791 826 826 808 735 714 694 687 687 634 634 634 629 0 618 618 608 608 608 0 593 0 0 0 0 0 0 0 584 598 598 593 584 0 0 2725 0 0 0 0 0 0 0 0 0 0 0 0 0 0 0 0 0 0 0 0 0 468 462 454 446 440 435 430 425 420 413 411 411 406 404 404 402 0 402 402 399 397 0 0 0 0 0 0
    0 0 0 0 0 0 0 0 0 0 0 0 0 0 0 0 0 0 0 0 0 0 0 0 0 0 0 0 0 0 0 0 0 0 0 0 0 0 0 0 0 0 0 0 0 0 0 0 0 0 0 0 0 0 0 0 0 0 0 0 0 0 0 0 0 0 0 0 0 1795 1533 1711 1635 1752 1752 1711 1752 1752 1711 1795 1752 1839 1752 1795 1839 1839 1887 1887 1989 2044 2044 2102 2299 2374 2537 2537 2725 2374 2628 2725 2628 2725 2725 2725 2453 2537 2628 2537 2628 2628 2537 2453 2628 3066 3066 3345 3066 3199 3345 3199 3873 3873 4088 4329 4088 4599 4088 3873 4329 4088 4088 4088 4599 4599 5256 5661 6133 6690 6690 7359 8177 7359 8177 7359 7359 7359 6133 6133 6133 5256 5661 5256 6133 6133 6690 8177 8177 0 0 0 0 0 0 8177 8177 8177 7359 6690 5256 4599 3873 3199 3066 3066 2725 2830 2830 2628 2537 2628 2453 2453 2299 2453 2164 2102 2102 2044 1936 1936 1795 1752 1752 1752 1711 1599 1471 1533 1415 1388 1226 1247 1226 1226 0 256 1149 1115 1115 1149 1066 1082 1066 1082 1066 1066 1051 1051 1066 1051 1022 0 0 0 955 0 931 876 826 826 845 845 836 817 799 791 791 817 826 808 728 707 694 681 687 634 629 629 623 613 623 618 608 603 603 603 598 0 0 0 0 603 0 0 570 588 588 584 574 0 2830 2725 2725 0 0 0 0 0 0 0 0 0 0 0 2725 0 0 0 0 0 0 0 0 468 462 454 451 443 440 435 430 425 418 413 413 408 406 406 404 404 404 404 402 397 397 0 0 0 0 0
    0 0 0 0 0 0 0 0 0 0 0 0 0 0 0 0 0 0 0 0 0 0 0 0 0 0 0 0 0 0 0 0 0 0 0 0 0 0 0 0 0 0 0 0 0 0 0 0 0 0 0 0 0 0 0 0 0 0 0 0 0 0 0 0 0 0 0 0 0 1795 1501 1711 1635 1752 1752 1711 1711 1752 1711 1795 1752 1839 1752 1752 1795 1795 1795 1839 1887 1936 1936 1989 2102 2230 2537 2537 2628 2299 2628 2725 2628 2725 2725 2725 2453 2628 2725 2628 2628 2725 2628 2537 2628 3066 2943 3199 2943 3066 3199 3066 3679 3679 3873 4088 3873 4088 3679 3504 3873 3679 3679 3873 4329 4329 4599 5256 6133 6690 6690 7359 8177 7359 7359 6690 6690 7359 6133 6133 6133 5256 5661 5661 6133 6133 6690 8177 8177 0 0 0 0 0 0 8177 8177 8177 7359 7359 5661 4906 4088 3199 2943 2943 2628 2725 2725 2537 2453 2537 2453 2453 2299 2374 2164 2102 2102 2044 1936 1936 1795 1752 1752 1752 1752 1599 1501 1533 1443 1388 1247 1247 1226 1206 0 257 0 1115 1115 1149 1082 1098 1066 1082 1066 1066 1051 1051 1051 1036 1008 0 0 0 955 968 943 886 836 826 845 845 845 826 799 791 799 817 817 808 714 707 687 681 687 639 629 629 629 618 629 623 608 603 603 608 598 0 82 584 566 598 574 0 557 579 579 574 566 0 2830 2725 2725 0 0 0 0 0 0 0 0 0 0 0 2725 0 0 0 0 0 0 0 0 465 465 454 454 448 443 440 432 430 425 418 418 413 406 406 404 404 404 404 402 397 397 0 0 0 0 0
    0 0 0 0 0 0 0 0 0 0 0 0 0 0 0 0 0 0 0 0 0 0 0 0 0 0 0 0 0 0 0 0 0 0 0 0 0 0 0 0 0 0 0 0 0 0 0 0 0 0 0 0 0 0 0 0 0 0 0 0 0 0 0 0 0 0 0 0 0 1752 1501 1711 1635 1752 1752 1711 1711 1752 1711 1795 1752 1839 1752 1711 1752 1711 1711 1752 1795 1887 1887 1936 2044 2164 2453 2537 2628 2299 2628 2725 2628 2725 2725 2725 2537 2628 2725 2725 2725 2725 2725 2628 2628 2943 2943 3199 2943 2943 3199 2943 3504 3504 3679 3679 3345 3504 3504 3345 3679 3679 3679 3873 4088 4329 4329 5256 6133 6133 6133 6690 7359 7359 7359 7359 6690 7359 6133 6133 6133 5661 6133 6133 6133 6690 6690 8177 8177 0 0 0 0 0 0 0 8177 8177 8177 7359 6133 5256 4329 3066 2943 2830 2628 2725 2628 2537 2453 2628 2453 2453 2299 2374 2102 2102 2044 2044 1887 1936 1795 1752 1752 1752 1752 1635 1533 1565 1471 1415 1268 1268 1247 1226 1206 1187 1168 1115 1115 1149 1082 1098 1082 1098 1066 1066 1051 1066 1066 1051 1022 1036 994 0 955 955 931 886 845 826 845 845 836 826 808 791 799 808 817 808 714 707 694 681 687 639 623 629 629 618 629 623 608 603 603 608 598 593 0 579 561 593 557 0 545 561 566 566 557 0 2725 2628 0 0 0 0 0 0 0 0 0 0 0 0 2830 0 0 0 0 0 0 0 0 465 465 457 454 451 446 443 0 0 430 422 0 0 411 408 406 406 406 406 404 399 399 0 0 0 0 0
    0 0 0 0 0 0 0 0 0 0 0 0 0 0 0 0 0 0 0 0 0 0 0 0 0 0 0 0 0 0 0 0 0 0 0 0 0 0 0 0 0 0 0 0 0 0 0 0 0 0 0 0 0 0 0 0 0 0 0 0 0 0 0 0 0 0 0 0 0 1752 1471 1711 1599 1752 1752 1752 1711 1752 1752 1795 1752 1839 1752 1711 1711 1711 1672 1711 1711 1795 1839 1887 1989 2102 2453 2537 2628 2230 2628 2725 2628 2725 2725 2725 2537 2628 2830 2725 2725 2725 2725 2628 2725 2830 2830 3066 2943 2943 3066 2830 3345 3345 3873 3504 3066 3199 3199 3199 3504 3504 3504 3679 3873 3873 4088 4599 5661 5661 5661 6133 6690 6690 6690 6690 7359 7359 6133 6133 6133 6133 6133 6133 6690 6690 7359 8177 0 0 0 0 0 0 0 0 0 8177 7359 6690 5661 4906 3873 2943 2943 2830 2725 2830 2725 2725 2537 2628 2537 2453 2299 2374 2102 2102 1989 1989 1887 1887 1795 1795 1752 1752 1752 1672 1599 1635 1533 1443 1314 1291 1268 1226 1226 1206 1168 1115 1115 1149 1082 1098 1082 1098 1066 1066 1066 1066 1066 1051 1022 1036 994 994 955 943 908 876 836 826 836 836 836 826 808 791 791 808 817 808 714 707 694 681 687 645 618 629 629 618 634 629 613 608 608 613 608 603 0 588 566 593 557 0 541 557 557 0 0 0 0 2453 0 0 0 0 0 0 0 0 0 0 2725 2830 2943 0 0 0 0 0 0 0 0 462 465 457 457 454 446 448 0 0 0 427 0 0 0 0 408 408 408 406 406 399 0 0 0 0 0 0
    0 0 0 0 0 0 0 0 0 0 0 0 0 0 0 0 0 0 0 0 0 0 0 0 0 0 0 0 0 0 0 0 0 0 0 0 0 0 0 0 0 0 0 0 0 0 0 0 0 0 0 0 0 0 0 0 0 0 0 0 0 0 0 0 0 0 0 0 0 1711 1471 1711 1599 1752 1752 1752 1752 1752 1752 1795 1752 1795 1711 1711 1711 1711 1672 1672 1672 1752 1752 1795 1887 2044 2374 2537 2628 2230 2628 2725 2628 2725 2725 2725 2628 2725 2830 2830 2725 2830 2830 2725 2725 2830 2830 2943 2943 2943 3066 2943 3199 3345 3679 3345 3345 3066 3199 3199 3345 3345 3504 3504 3679 3679 3873 4088 5256 5661 5661 6133 7359 6690 6690 6690 7359 7359 6133 6133 6133 6133 6133 6690 6690 7359 7359 8177 0 0 0 0 0 0 0 0 0 7359 6690 6690 5256 4599 3873 3066 2943 2943 2830 2830 2830 2830 2628 2628 2628 2453 2299 2374 2102 2044 1936 1936 1839 1887 1795 1795 1752 1752 1752 1711 1635 1672 1533 1471 1338 1291 1268 1247 1226 1226 1187 1149 1149 1168 1115 1132 1115 1115 1066 1082 1066 1051 1051 1036 1022 1008 994 994 955 955 931 897 855 836 845 836 826 826 799 791 782 799 808 799 714 707 700 681 694 651 618 629 629 623 634 629 618 613 613 623 608 608 0 593 574 0 0 0 0 0 0 0 0 0 0 2453 2628 0 0 0 0 0 0 0 0 2725 2830 2943 3066 0 0 0 0 0 0 0 0 459 462 454 454 454 448 448 0 0 0 0 897 897 876 0 411 408 411 0 0 402 0 0 0 0 0 0
    0 0 0 0 0 0 0 0 0 0 0 0 0 0 0 0 0 0 0 0 0 0 0 0 0 0 0 0 0 0 0 0 0 0 0 0 0 0 0 0 0 0 0 0 0 0 0 0 0 0 0 0 0 0 0 0 0 0 0 0 0 0 0 0 0 0 0 0 0 1711 1471 1711 1599 1752 1795 1752 1752 1752 1752 1795 1752 1795 1711 1672 1711 1711 1672 1672 1672 1711 1711 1711 1795 1936 2230 2453 2453 2164 2628 2725 2628 2725 2725 2725 2725 2725 2943 2943 2830 2830 2830 2725 2725 2725 2725 2830 2830 2830 2943 2830 2943 3345 3345 3199 3345 3066 3199 3066 3199 3345 3345 3345 3504 3504 3679 4088 4906 5661 5256 6133 7359 6690 6690 7359 7359 7359 6690 5661 6133 6133 6690 6690 6690 7359 7359 0 0 0 0 0 0 0 0 0 8177 6690 6690 6133 4599 3873 3679 3066 3066 2943 2943 2943 2830 2830 2628 2628 2628 2537 2299 2374 2102 2044 1936 1936 1839 1839 1752 1752 1752 1752 1752 1711 1672 1672 1471 1443 1314 1291 1268 1247 1226 1226 1206 1168 1168 1187 1149 1168 1168 1132 1066 1082 1098 1066 1051 1022 1008 994 994 1008 955 955 931 897 855 836 836 836 826 826 808 782 782 791 799 791 721 714 707 687 694 669 623 639 639 629 639 634 623 613 618 629 613 608 0 593 0 0 0 0 0 0 0 2628 0 0 0 2537 0 0 0 0 0 0 0 0 0 2725 0 2943 0 0 0 0 0 0 0 0 462 457 459 451 454 454 448 448 0 855 876 876 908 897 886 0 0 0 0 0 0 402 0 0 0 0 0 0
    0 0 0 0 0 0 0 0 0 0 0 0 0 0 0 0 0 0 0 0 0 0 0 0 0 0 0 0 0 0 0 0 0 0 0 0 0 0 0 0 0 0 0 0 0 0 0 0 0 0 0 0 0 0 0 0 0 0 0 0 0 0 0 0 0 0 0 0 0 1672 1471 1711 1635 1752 1795 1752 1752 1752 1752 1795 1752 1795 1711 1672 1711 1672 1672 1672 1672 1672 1672 1672 1711 1839 2102 2230 2299 2102 2537 2725 2725 2725 2725 2725 2725 2725 2943 2943 2943 2943 2943 2830 2830 2830 2830 2830 2830 2830 2943 2830 2943 3066 3066 3066 3199 3066 3199 3066 3199 3199 3345 3199 3345 3345 3504 3873 4906 5256 5256 5661 7359 6133 6690 7359 7359 6690 6690 5661 6133 6133 6690 6690 6690 6690 7359 8177 0 0 0 0 0 0 0 8177 7359 5256 5661 5256 4088 3504 3345 2943 3066 3066 2943 2830 2725 2830 2628 2628 2628 2453 2230 2230 2102 1989 1887 1887 1795 1795 1752 1752 1711 1711 1711 1672 1711 1711 1471 1415 1314 1291 1247 1247 1226 1226 1206 1187 1187 1187 1168 1187 1187 1132 1066 1115 1187 1115 1082 1036 1008 1008 1022 1022 955 943 931 908 855 836 836 836 826 826 808 791 782 791 799 791 728 721 714 694 694 675 623 645 645 634 645 639 629 618 623 634 613 608 623 593 0 0 0 0 0 0 0 0 0 0 0 2628 0 2943 0 0 0 2628 2628 2628 0 2830 0 3066 0 0 0 0 0 0 0 0 459 454 459 451 454 454 446 451 440 865 886 886 908 908 886 0 411 408 0 0 0 402 399 0 0 0 0 0
    0 0 0 0 0 0 0 0 0 0 0 0 0 0 0 0 0 0 0 0 0 0 0 0 0 0 0 0 0 0 0 0 0 0 0 0 0 0 0 0 0 0 0 0 0 0 0 0 0 0 0 0 0 0 0 0 0 0 0 0 0 0 0 0 0 0 0 0 0 1672 1471 1711 1635 1795 1795 1752 1752 1752 1752 1795 1752 1795 1711 1672 1711 1672 1672 1672 1672 1672 1672 1672 1711 1752 1989 2102 2164 2044 2537 2628 2725 2725 2725 2725 2830 2830 3066 3066 3066 3066 3066 2943 2830 2830 2830 2943 2830 2830 2943 2943 2943 3066 3199 3066 3199 3199 3199 3066 3345 3345 3345 3199 3504 3345 3504 3679 5256 4906 5256 5256 7359 6133 6133 7359 7359 6133 6133 5256 6133 6133 6690 6133 6133 6690 6690 7359 8177 8177 8177 8177 0 0 0 8177 8177 4329 5256 4906 3873 3504 3345 2943 3066 3066 2943 2830 2725 2830 2628 2628 2725 2453 2230 2299 2044 1989 1887 1839 1752 1752 1711 1711 1711 1672 1711 1635 1795 1752 1533 1443 1314 1291 1247 1247 1247 1247 1206 1206 1226 1206 1187 1206 1206 1168 1115 1187 1268 1226 1168 1132 1082 1082 1098 1051 981 955 931 908 865 836 836 836 836 836 817 799 799 799 808 808 758 735 714 694 694 681 634 651 651 645 645 645 634 623 629 639 613 608 623 593 584 774 0 0 0 0 0 0 0 0 0 0 0 0 0 0 0 0 0 0 0 0 0 3199 0 0 0 0 0 468 0 0 459 454 459 454 454 454 446 451 440 0 0 0 0 425 0 415 411 408 411 408 406 404 397 0 0 0 0 0
    0 0 0 0 0 0 0 0 0 0 0 0 0 0 0 0 0 0 0 0 0 0 0 0 0 0 0 0 0 0 0 0 0 0 0 0 0 0 0 0 0 0 0 0 0 0 0 0 0 0 0 0 0 0 0 0 0 0 0 0 0 0 0 0 0 0 0 0 0 1672 1501 1752 1672 1795 1795 1795 1752 1752 1752 1795 1711 1752 1711 1672 1672 1672 1672 1635 1672 1672 1635 1672 1672 1752 1936 2044 2102 2044 2628 2725 2830 2830 2725 2830 2830 2830 3066 3199 3066 2943 2943 3066 2830 2725 2830 2830 2725 2830 2830 2943 2943 3066 3199 3066 3199 3345 3345 3199 3504 3345 3345 3199 3504 3345 3504 3679 4906 4088 4599 5256 6690 5661 5661 6133 5661 4329 4906 4329 5256 5661 6133 5661 6133 6133 6690 6690 7359 7359 8177 8177 8177 0 0 0 0 0 4906 4906 3679 3504 3345 2830 2943 2943 2830 2725 2725 2725 2628 2628 2725 2453 2230 2374 2044 1989 1887 1752 1711 1711 1711 1711 1672 1672 1711 1635 1887 1795 1565 1471 1362 1291 1247 1268 1247 1247 1226 1206 1226 1226 1206 1226 1206 1168 1132 1187 1268 1247 1187 1132 1082 1082 1082 1036 968 931 908 886 865 845 845 836 836 845 826 808 808 799 808 808 766 750 714 694 694 687 645 657 663 651 651 645 639 629 629 645 618 608 623 593 593 791 817 0 0 0 0 0 0 0 0 0 0 0 0 0 0 0 0 0 0 2943 3345 3199 0 3504 4599 0 0 468 0 0 459 454 0 0 0 451 446 451 440 0 0 430 427 425 420 415 411 406 411 406 406 404 397 0 0 0 0 0
    0 0 0 0 0 0 0 0 0 0 0 0 0 0 0 0 0 0 0 0 0 0 0 0 0 0 0 0 0 0 0 0 0 0 0 0 0 0 0 0 0 0 0 0 0 0 0 0 0 0 0 0 0 0 0 0 0 0 0 0 0 0 0 0 0 0 0 0 0 1672 1501 1752 1711 1795 1795 1795 1752 1752 1752 1752 1711 1752 1672 1635 1635 1635 1672 1635 1635 1635 1635 1635 1672 1711 1839 1936 2044 1989 2537 2725 2830 2830 2725 2725 2830 2830 2943 3066 2943 2830 2943 2943 2725 2725 2725 2830 2725 2725 2830 2830 2830 3066 2943 2943 3199 3345 3345 3199 3504 3504 3504 3345 3504 3504 3679 3679 4906 3873 4329 4906 6133 4599 4906 4906 4088 3679 4088 3873 4906 5256 6133 5661 6133 6133 6690 6133 7359 6690 7359 7359 8177 0 0 0 0 0 4329 4329 3504 3345 3345 2943 3066 3066 2943 2830 2830 2830 2725 2725 2830 2537 2374 2453 2044 1936 1887 1752 1711 1711 1711 1711 1711 1672 1711 1599 1936 1752 1565 1443 1362 1291 1247 1291 1268 1268 1226 1206 1226 1226 1226 1226 1206 1168 1132 1187 1268 1247 1206 1149 1098 1098 1066 1036 968 908 876 865 865 845 845 836 845 836 826 808 808 799 799 791 758 743 721 687 687 687 645 663 663 657 651 651 645 634 634 651 629 618 629 608 0 782 799 799 808 0 817 0 0 0 0 0 0 0 0 0 3199 0 0 2943 0 0 3504 0 0 3504 0 0 0 468 0 459 459 454 0 0 0 451 446 448 440 435 432 430 427 425 418 413 408 406 408 406 404 404 397 0 0 0 0 0
    0 0 0 0 0 0 0 0 0 0 0 0 0 0 0 0 0 0 0 0 0 0 0 0 0 0 0 0 0 0 0 0 0 0 0 0 0 0 0 0 0 0 0 0 0 0 0 0 0 0 0 0 0 0 0 0 0 0 0 0 0 0 0 0 0 0 0 0 0 1672 1501 1752 1711 1795 1795 1752 1752 1711 1711 1752 1672 1711 1635 1635 1635 1635 1672 1599 1635 1635 1635 1635 1672 1711 1839 1887 1989 1989 2453 2725 2830 2830 2725 2725 2725 2725 2943 2943 2943 2830 2830 2943 2628 2725 2725 2830 2725 2725 2830 2830 2830 2943 2943 2943 3066 3199 3345 3199 3504 3345 3345 3199 3504 3345 3504 3504 4329 3504 3873 4088 5661 3873 3873 3679 3345 3345 3679 3504 4599 5256 6133 5256 6133 6133 6133 6133 7359 6690 6690 7359 8177 0 0 0 0 0 4088 4329 3504 3345 3345 3066 3066 3066 3066 2830 2830 2830 2725 2725 2830 2628 2453 2537 2102 1936 1887 1711 1711 1711 1672 1711 1672 1672 1672 1565 1795 1711 1501 1388 1338 1291 1247 1291 1268 1268 1226 1206 1226 1226 1226 1247 1206 1132 1115 1168 1268 1226 1187 1132 1082 1082 1051 1022 994 919 876 855 845 845 836 836 836 826 817 808 808 799 799 791 758 750 721 681 687 681 645 657 657 651 639 645 645 634 634 645 629 623 634 681 721 750 774 774 782 0 791 750 0 0 0 0 0 0 0 0 3199 3066 0 2943 0 0 0 0 0 0 0 0 0 468 0 459 459 454 0 0 451 451 446 448 440 435 432 430 427 425 418 413 408 406 408 406 404 404 395 0 0 0 0 0
    0 0 0 0 0 0 0 0 0 0 0 0 0 0 0 0 0 0 0 0 0 0 0 0 0 0 0 0 0 0 0 0 0 0 0 0 0 0 0 0 0 0 0 0 0 0 0 0 0 0 0 0 0 0 0 0 0 0 0 0 0 0 0 0 0 0 0 0 0 1672 1501 1752 1711 1752 1752 1711 1711 1711 1711 1752 1635 1672 1635 1635 1635 1635 1635 1599 1635 1599 1635 1635 1672 1711 1795 1839 1936 1989 2453 2725 2830 2830 2725 2725 2725 2725 0 2943 2830 2830 2830 3066 2725 2725 2830 2830 2725 2725 2830 2830 2830 2943 2943 2943 3199 3345 3345 3199 3345 3345 3345 3199 3345 3345 3345 3345 4329 3345 3679 3679 4906 3504 3504 3199 3066 3066 3345 3345 4329 4906 6133 5256 6133 5661 6133 5661 6690 5661 6133 6133 7359 0 0 0 0 0 4088 4329 3504 3345 3345 3066 3066 3066 2943 2830 2830 2830 2725 2725 2725 2628 2537 2537 2164 1989 1887 1752 1711 1711 1672 1711 1672 1672 1672 1565 1752 1672 1443 1362 1291 1268 1226 1247 1268 1247 1247 1226 1247 1247 1247 1268 1226 1132 1168 1206 1268 1247 1149 1082 1051 1066 1066 1022 1022 943 865 845 836 845 836 826 836 808 817 808 799 799 791 782 758 743 728 681 681 675 645 651 651 645 639 639 645 634 634 645 639 634 657 714 735 758 774 782 782 0 791 743 0 0 0 588 0 0 0 0 0 0 0 0 0 0 0 0 0 0 474 471 468 468 0 459 457 454 454 454 451 451 446 451 440 435 435 432 427 425 418 413 408 406 408 406 404 404 395 0 0 0 0 0
    0 0 0 0 0 0 0 0 0 0 0 0 0 0 0 0 0 0 0 0 0 0 0 0 0 0 0 0 0 0 0 0 0 0 0 0 0 0 0 0 0 0 0 0 0 0 0 0 0 0 0 0 0 0 0 0 0 0 0 0 0 0 0 0 0 0 0 0 0 1672 1501 1711 1711 1711 1752 1711 1711 1672 1672 1711 1635 1635 1635 1635 1599 1635 1635 1599 1635 1599 1635 1635 1635 1711 1752 1839 1887 1936 2374 2628 2830 2830 2628 2725 2725 2725 0 2943 2830 2725 2830 3066 2628 2725 2830 2830 2628 2725 2725 2725 2830 2943 2830 2943 3199 3504 3504 3199 3504 3345 3345 3199 3345 3345 3345 3345 4088 3199 3345 3504 4329 3199 3199 2943 2830 2830 3199 3199 4329 4906 6133 4906 6133 5661 6133 5661 6133 5256 5661 5661 7359 0 0 0 0 0 4906 5256 3873 3504 3504 3066 3066 3066 2943 2725 2725 2725 2628 2628 2725 2628 2537 2537 2230 1989 1936 1795 1752 1711 1672 1711 1672 1672 1672 1565 1711 1672 1415 1338 1268 1226 1206 1247 1268 1247 1247 1226 1268 1268 1291 1314 1247 1168 1206 1226 1362 0 1132 1008 1008 1022 1036 1008 1008 968 897 855 836 845 845 826 836 808 808 808 808 799 791 774 750 743 728 681 675 669 645 645 651 645 639 639 645 634 634 645 645 639 675 728 735 766 799 799 799 808 808 758 0 0 0 584 0 0 0 529 529 525 518 514 500 487 0 0 0 0 471 468 468 465 0 457 454 451 451 454 451 451 446 451 440 435 432 430 425 422 418 411 408 406 408 404 402 404 393 0 0 0 0 0
    0 0 0 0 0 0 0 0 0 0 0 0 0 0 0 0 0 0 0 0 0 0 0 0 0 0 0 0 0 0 0 0 0 0 0 0 0 0 0 0 0 0 0 0 0 0 0 0 0 0 0 0 0 0 0 0 0 0 0 0 0 0 0 0 0 0 0 0 0 1672 1501 1711 1711 1711 1711 1711 1672 1672 1672 1711 1635 1635 1635 1635 1599 1599 1635 1565 1599 1599 1599 1599 1635 1672 1752 1795 1887 1887 2374 2628 2830 2830 2628 2725 2725 2628 2830 2943 2830 2725 2830 3066 2725 2830 2830 2830 2628 2628 2725 2725 2725 2830 2725 2725 2943 3345 3199 3066 3504 3345 3345 3199 3504 3345 3345 3504 4088 3066 3199 3199 3504 2830 2830 2628 2628 2628 2943 3066 3504 4329 5661 4088 5256 5256 5661 5256 5661 4906 5256 5661 8177 0 0 0 0 0 4906 5256 3873 3345 3345 3066 2943 2943 2830 2628 2628 2628 2628 2628 2628 2628 2537 2537 2230 2044 1936 1839 1752 1752 1672 1711 1672 1672 1635 1565 1672 1635 1415 1338 1268 1226 1206 1247 1247 1247 1247 1226 1268 1268 1291 1314 1247 1187 1226 1247 0 1226 1082 994 981 981 994 968 981 931 865 836 826 836 836 826 836 799 808 799 799 799 791 766 743 735 721 675 669 669 651 645 651 645 639 639 651 639 639 651 651 651 681 743 743 774 817 817 817 826 817 743 0 584 549 566 553 541 537 533 537 533 525 525 511 497 511 487 481 477 468 468 465 462 451 457 457 454 454 459 454 448 446 448 438 432 432 430 422 420 415 408 406 404 406 402 399 402 393 0 0 0 0 0
    0 0 0 0 0 0 0 0 0 0 0 0 0 0 0 0 0 0 0 0 0 0 0 0 0 0 0 0 0 0 0 0 0 0 0 0 0 0 0 0 0 0 0 0 0 0 0 0 0 0 0 0 0 0 0 0 0 0 0 0 0 0 0 0 0 0 0 0 0 1672 1501 1711 1711 1672 1711 1672 1672 1672 1672 1711 1599 1565 1635 1599 1599 1599 1599 1533 1599 1599 1599 1599 1599 1672 1752 1795 1839 1887 2299 2628 2830 2830 2628 2628 2628 2628 2725 2830 2725 2628 2725 2943 2725 2725 2725 2725 2628 2628 2725 2725 2725 2725 2725 2725 2830 3679 3345 3066 3504 3345 3345 3345 3504 3504 3345 3345 3679 2943 2943 2943 2943 2537 2453 2374 2537 2537 2725 2943 3066 3345 4088 3504 4329 4329 4599 4329 4329 4088 4329 4906 8177 0 0 0 0 0 4906 5256 4088 3345 3345 2943 2830 2725 2725 2537 2628 2628 2537 2628 2628 2628 2537 2537 2164 1989 1887 1795 1672 1672 1635 1672 1635 1635 1635 1533 1599 1599 1443 1362 1291 1247 1226 1247 1247 1226 1226 1206 1226 1247 1247 1247 1206 1149 1168 1206 1226 1066 1022 981 968 955 968 955 968 919 876 855 836 836 836 826 836 791 799 799 799 799 791 766 743 735 721 675 663 663 651 645 645 645 634 639 651 639 639 645 657 651 675 766 750 836 865 865 865 845 836 0 0 574 545 561 557 545 541 533 537 529 521 521 514 500 511 490 487 477 468 468 465 462 454 457 457 457 454 462 451 446 446 448 438 430 432 430 422 420 415 408 404 402 404 399 397 399 391 0 0 0 0 0
    0 0 0 0 0 0 0 0 0 0 0 0 0 0 0 0 0 0 0 0 0 0 0 0 0 0 0 0 0 0 0 0 0 0 0 0 0 0 0 0 0 0 0 0 0 0 0 0 0 0 0 0 0 0 0 0 0 0 0 0 0 0 0 0 0 0 0 0 0 1672 1501 1672 1711 1672 1672 1672 1672 1672 1672 1711 1599 1599 1635 1599 1565 1599 1565 1533 1565 1599 1599 1599 1635 1672 1752 1795 1839 1887 2299 2725 2830 2830 2628 2725 2628 2628 2725 2725 2537 2453 2628 2830 2628 2628 2628 2725 2628 2628 2725 2628 2628 2725 2725 2725 2830 3345 3345 3066 3345 3199 3345 3345 3345 3345 3066 3066 3199 2725 2628 2628 2299 2102 2044 2102 2230 2374 2453 2628 2537 2537 3345 3066 3679 3679 3679 3679 3504 3504 4088 6133 8177 0 0 0 0 0 0 5256 4599 3504 3679 2943 2830 2725 2725 2537 2628 2628 2537 2628 2628 2628 2537 2453 2102 1887 1887 1752 1672 1672 1599 1635 1635 1599 1599 1501 1533 1565 1415 1388 1314 1268 1247 1268 1247 1247 1226 1187 1206 1206 1206 1206 1168 1149 1149 1168 1098 1008 981 943 931 919 943 931 955 919 876 865 845 826 826 826 826 791 799 799 799 791 791 766 758 743 728 681 669 663 657 645 651 645 634 645 651 639 639 645 657 657 675 743 0 0 865 865 876 855 836 799 0 598 553 574 557 549 541 529 533 525 518 511 507 504 504 493 484 477 465 468 465 459 451 454 454 454 451 454 446 443 443 443 435 432 432 430 422 422 418 406 402 399 399 397 395 397 391 0 0 0 0 0
    0 0 0 0 0 0 0 0 0 0 0 0 0 0 0 0 0 0 0 0 0 0 0 0 0 0 0 0 0 0 0 0 0 0 0 0 0 0 0 0 0 0 0 0 0 0 0 0 0 0 0 0 0 0 0 0 0 0 0 0 0 0 0 0 0 0 0 0 0 1635 1471 1635 1672 1635 1635 1672 1672 1672 1672 1711 1635 1599 1635 1599 1565 1565 1565 1501 1533 1599 1565 1565 1635 1672 1711 1752 1839 1936 2299 2725 2830 2830 2628 2628 2628 2628 2628 2628 2453 2299 2537 2725 2537 2537 2537 2628 2537 2537 2537 2537 2537 2628 2537 2725 2725 2943 3199 2943 3199 3066 3199 3199 3199 3066 2943 2830 2943 2453 2230 2230 1936 1989 2044 2102 2230 2374 2453 2537 0 0 0 0 0 0 3199 4088 3066 0 0 0 0 0 0 0 0 0 0 0 5256 3679 3504 2943 2830 2537 2830 2628 2628 2628 2537 2628 2628 2628 2537 2374 2102 1887 1839 1752 1635 1672 1635 1599 1635 1565 1599 1501 1501 1533 1415 1388 1338 1291 1268 1291 1247 1226 1206 1187 1187 1206 1187 1187 1149 1168 1149 1187 1098 994 968 943 931 931 931 897 931 897 876 865 836 817 826 817 817 774 791 791 791 791 791 766 758 743 743 687 675 669 663 651 651 645 634 639 645 639 639 639 651 657 675 721 694 0 865 865 876 855 836 799 0 0 0 0 608 613 598 549 541 529 511 497 493 497 490 487 481 474 465 465 465 459 451 448 448 448 446 446 440 438 438 435 432 432 432 430 422 418 413 404 399 397 397 395 395 395 391 0 0 0 0 0
    0 0 0 0 0 0 0 0 0 0 0 0 0 0 0 0 0 0 0 0 0 0 0 0 0 0 0 0 0 0 0 0 0 0 0 0 0 0 0 0 0 0 0 0 0 0 0 0 0 0 0 0 0 0 0 0 0 0 0 0 0 0 0 0 0 0 0 0 0 1635 1471 1599 1635 1599 1635 1635 1635 1672 1672 1711 1599 1565 1635 1599 1565 1565 1565 1501 1533 1565 1565 1533 1599 1635 1711 1752 1795 1887 2164 2628 2725 2725 2537 2537 2537 2537 2537 2537 2164 2164 2374 2725 2537 2537 2537 2628 2537 2537 2537 2537 2537 2537 2537 2628 2725 2830 2943 2725 2830 2725 3066 3066 2943 2830 2725 2537 2628 2102 2044 1936 1936 2044 2102 2164 2299 2453 2628 0 0 0 0 0 0 0 0 0 0 0 0 0 0 0 0 0 0 0 0 0 0 0 0 3679 3199 2537 3066 2725 2725 2725 2537 2537 2537 2537 2374 2164 2044 1795 1795 1711 1635 1635 1599 1599 1599 1533 1599 1501 1501 1501 1388 1388 1338 1291 1291 1291 1226 1226 1206 1168 1187 1187 1187 1168 1132 1168 1168 1187 1132 968 908 897 886 886 897 886 897 886 876 865 836 808 817 817 817 774 791 791 791 791 791 766 758 750 750 694 675 669 663 657 651 639 634 639 651 645 639 639 645 651 669 700 681 675 0 855 876 865 0 0 0 0 0 0 0 629 613 549 0 0 507 493 493 493 490 484 477 471 462 465 465 457 451 446 446 448 443 440 438 435 432 432 430 430 427 427 420 413 411 404 397 395 395 395 393 393 389 0 0 0 0 0
    0 0 0 0 0 0 0 0 0 0 0 0 0 0 0 0 0 0 0 0 0 0 0 0 0 0 0 0 0 0 0 0 0 0 0 0 0 0 0 0 0 0 0 0 0 0 0 0 0 0 0 0 0 0 0 0 0 0 0 0 0 0 0 0 0 0 0 0 0 1635 1443 1599 1599 1565 1635 1635 1672 1672 1672 1711 1635 1599 1635 1599 1599 1565 1565 1501 1501 1565 1565 1533 1599 1635 1672 1711 1795 1887 2044 2537 2628 2628 2453 2453 2453 2374 2374 2374 1989 2044 2164 2628 2453 2453 2453 2537 2453 2537 2537 2537 2453 2453 2453 2628 2725 2830 2943 2830 2830 2628 2725 2537 2299 2102 1989 1887 1839 1795 1795 1795 1936 2044 2230 2299 2453 2628 0 0 0 0 0 0 0 0 0 0 0 0 0 0 0 0 0 0 0 0 0 0 0 0 0 0 3066 2299 2830 2374 2453 2453 2299 2299 2299 2299 2164 2044 1989 1795 1752 1711 1635 1635 1599 1599 1599 1533 1565 1471 1471 1471 1362 1388 1314 1291 1314 1291 1247 1226 1206 1187 1187 1187 1187 1149 1132 1149 1149 1115 1051 943 886 876 865 865 886 865 886 886 886 876 836 808 817 817 808 774 791 791 791 791 791 774 766 758 758 700 681 675 669 663 651 639 634 639 645 645 634 634 634 634 651 687 639 623 0 0 0 0 0 603 603 593 579 0 593 603 598 541 0 0 511 497 493 497 490 484 477 471 465 465 462 457 448 443 446 446 440 440 435 435 430 430 427 425 422 422 415 408 408 402 395 395 393 393 393 391 389 0 0 0 0 0
    0 0 0 0 0 0 0 0 0 0 0 0 0 0 0 0 0 0 0 0 0 0 0 0 0 0 0 0 0 0 0 0 0 0 0 0 0 0 0 0 0 0 0 0 0 0 0 0 0 0 0 0 0 0 0 0 0 0 0 0 0 0 0 0 0 0 0 0 0 1599 1443 1565 1599 1565 1635 1635 1672 1672 1672 1711 1635 1635 1635 1599 1599 1565 1565 1533 1533 1599 1565 1533 1565 1635 1672 1711 1752 1795 1936 2299 2453 2453 2230 2230 2230 2230 2164 2164 1936 1936 1989 2374 2230 2299 2230 2374 2230 2453 2453 2453 2299 2299 2453 2628 2830 2943 3066 3066 2943 2725 2628 2374 1936 1795 1711 1672 1635 1635 1711 1795 1887 1936 2044 2164 2299 0 0 0 0 0 0 0 0 0 0 0 0 0 0 0 0 0 0 0 0 0 0 0 0 0 0 0 0 0 2725 2164 2164 2299 2164 2102 2102 2044 1989 1936 1887 1752 1752 1711 1635 1635 1565 1599 1599 1501 1533 1471 1443 1443 1362 1362 1314 1291 1314 1291 1247 1226 1206 1187 1187 1187 1168 1149 1132 1149 1168 1132 1082 955 886 876 855 865 897 865 886 886 897 897 855 836 826 826 817 782 791 782 791 782 791 774 758 750 750 0 687 681 675 669 657 645 639 651 657 657 645 639 639 629 634 645 613 608 603 608 613 603 613 603 598 593 584 584 579 588 570 537 0 0 511 497 497 497 493 487 477 471 468 468 465 459 451 446 448 446 443 440 435 432 427 427 427 422 420 420 413 406 406 399 395 395 393 393 393 389 389 0 0 0 0 0
    0 0 0 0 0 0 0 0 0 0 0 0 0 0 0 0 0 0 0 0 0 0 0 0 0 0 0 0 0 0 0 0 0 0 0 0 0 0 0 0 0 0 0 0 0 0 0 0 0 0 0 0 0 0 0 0 0 0 0 0 0 0 0 0 0 0 0 0 0 1599 1443 1533 1599 1599 1635 1635 1672 1672 1672 1711 1672 1635 1635 1635 1599 1599 1599 1565 1565 1599 1599 1565 1599 1672 1672 1672 1711 1752 1887 2044 2164 2102 2044 2044 1989 1989 1989 1936 1839 1839 1887 2102 2044 2102 2044 2230 2044 2230 2299 2299 2164 2374 2453 2725 2830 2943 3066 3066 2943 2628 2453 2102 1839 1752 1672 1635 1599 1635 1711 1795 1795 1839 1936 1989 0 0 0 0 0 0 0 0 0 0 0 0 0 0 0 0 0 0 0 0 0 0 0 0 0 0 0 0 0 0 0 0 0 2102 2044 1936 1936 1936 1887 1839 1839 1711 1711 1672 1599 1635 1533 1599 1565 1471 1471 1415 1388 1415 1362 1362 1314 1291 1338 1314 1247 1226 1206 1168 1168 1168 1149 1149 1132 1149 1168 1149 1098 981 919 886 855 865 897 876 876 876 886 886 855 836 836 826 817 791 791 791 791 782 791 774 758 750 750 0 694 687 675 681 669 657 639 657 669 663 651 645 629 623 623 623 608 603 603 608 613 603 608 603 598 593 584 584 574 579 561 533 0 0 511 497 497 497 493 487 477 471 468 468 468 462 457 448 451 448 443 440 435 430 425 425 425 420 418 415 411 404 404 399 393 393 391 391 391 387 387 0 0 0 0 0
    0 0 0 0 0 0 0 0 0 0 0 0 0 0 0 0 0 0 0 0 0 0 0 0 0 0 0 0 0 0 0 0 0 0 0 0 0 0 0 0 0 0 0 0 0 0 0 0 0 0 0 0 0 0 0 0 0 0 0 0 0 0 0 0 0 0 0 0 0 1599 1471 1533 1599 1599 1635 1635 1672 1672 1672 1711 1672 1635 1635 1635 1635 1599 1635 1599 1565 1635 1599 1599 1635 1672 1672 1635 1635 1752 1839 1936 2044 1989 1936 1887 1887 1936 1887 1887 1839 1839 1887 2044 1989 2044 1989 2102 1989 2102 2164 2102 1936 2299 2453 2725 2943 3066 3066 2943 2830 2628 2374 2164 1887 1795 1711 1672 1635 1635 1711 1752 1752 1795 1839 0 0 0 0 0 0 0 0 0 0 0 0 0 0 0 0 0 0 0 0 0 0 0 0 0 0 0 0 0 0 0 0 0 0 1887 1936 1887 1887 1887 1839 1795 1752 1711 1672 1635 1565 1599 1501 1565 1533 1443 1443 1388 1388 1415 1362 1388 1314 1314 1338 1314 1247 1226 1187 1168 1168 1168 1149 1149 1132 1149 1168 1149 1115 994 955 886 855 886 897 876 876 876 876 876 855 845 836 826 817 791 791 782 782 782 791 774 766 758 750 0 694 687 681 681 675 669 651 669 681 675 663 645 629 623 618 618 608 603 603 608 613 603 603 598 593 584 574 566 557 561 570 0 0 0 0 500 500 500 497 487 481 474 468 471 468 465 457 448 451 451 443 440 435 432 427 425 425 420 415 415 411 404 404 399 393 391 391 391 393 387 387 0 0 0 0 0
    0 0 0 0 0 0 0 0 0 0 0 0 0 0 0 0 0 0 0 0 0 0 0 0 0 0 0 0 0 0 0 0 0 0 0 0 0 0 0 0 0 0 0 0 0 0 0 0 0 0 0 0 0 0 0 0 0 0 0 0 0 0 0 0 0 0 0 0 0 1599 1471 1501 1565 1599 1635 1599 1635 1635 1635 1672 1635 1635 1599 1599 1599 1599 1635 1599 1599 1635 1635 1635 1635 1711 1711 1672 1672 1752 1839 1839 1989 1887 1839 1839 1839 1839 1839 1839 1839 1839 1839 1936 1887 1936 1887 1936 1887 1887 1936 1887 1752 1989 2299 2830 2943 3066 3066 2943 2830 2628 2374 2102 1887 1795 1711 1672 1635 1672 1672 1672 1711 1711 0 0 0 0 0 0 0 0 0 0 0 0 0 0 0 0 0 0 0 0 0 0 0 0 0 0 0 0 0 0 0 0 0 0 0 0 1887 1839 1839 1839 1795 1711 1711 1672 1635 1565 1501 1533 1443 1533 1471 1415 1388 1388 1388 1415 1362 1388 1314 1314 1338 1314 1247 1226 1187 1168 1168 1187 1149 1149 1132 1132 1168 1132 1115 1008 968 897 865 919 931 897 897 886 886 876 865 845 826 817 808 799 791 782 782 782 791 782 766 758 750 721 0 694 687 687 681 675 663 675 681 675 639 623 618 613 608 608 608 603 608 613 613 598 603 598 588 570 561 549 541 0 549 525 529 518 500 497 493 497 497 490 484 477 471 471 471 465 457 448 451 448 443 440 435 432 427 425 427 422 420 420 413 406 406 399 395 393 393 393 393 387 387 0 0 0 0 0
    0 0 0 0 0 0 0 0 0 0 0 0 0 0 0 0 0 0 0 0 0 0 0 0 0 0 0 0 0 0 0 0 0 0 0 0 0 0 0 0 0 0 0 0 0 0 0 0 0 0 0 0 0 0 0 0 0 0 0 0 0 0 0 0 0 0 0 0 0 1565 1443 1501 1565 1599 1599 1599 1635 1635 1635 1672 1635 1635 1599 1599 1635 1599 1635 1635 1635 1672 1635 1672 1672 1711 1711 1672 1672 1752 1795 1839 1887 1839 1795 1839 1839 1839 1839 1752 1752 1711 1752 1839 1795 1795 1795 1795 1795 1795 1795 1752 1635 0 0 3066 0 3199 3066 2943 2830 2537 2230 1989 1839 1752 1672 1635 1635 1635 1672 1672 0 0 0 0 0 0 0 0 0 0 0 0 0 0 0 0 0 0 0 0 0 0 0 0 0 0 0 0 0 0 0 0 0 0 0 0 0 0 1839 1839 1795 1839 1711 1672 1672 1635 1599 1533 1501 1533 1443 1501 1443 1388 1388 1362 1362 1388 1362 1362 1291 1314 1314 1291 1247 1206 1187 1168 1168 1187 1149 1149 1115 1115 1115 1066 1051 994 994 943 931 968 955 908 908 886 886 865 855 836 817 808 799 791 791 782 782 782 782 782 766 758 758 728 0 700 694 694 687 675 669 675 681 675 629 618 613 608 603 603 603 603 603 613 608 598 603 603 593 579 561 549 537 537 541 529 0 0 0 497 497 497 497 490 484 481 477 474 474 468 462 448 451 451 446 440 435 432 425 425 427 422 418 418 413 406 406 402 395 395 393 395 393 387 387 0 0 0 0 0
    0 0 0 0 0 0 0 0 0 0 0 0 0 0 0 0 0 0 0 0 0 0 0 0 0 0 0 0 0 0 0 0 0 0 0 0 0 0 0 0 0 0 0 0 0 0 0 0 0 0 0 0 0 0 0 0 0 0 0 0 0 0 0 0 0 0 0 0 0 1599 1471 1501 1565 1635 1599 1565 1635 1599 1599 1635 1599 1599 1565 1599 1635 1599 1672 1635 1635 0 0 0 2 1711 1711 1635 1635 1711 1752 1795 1839 1839 1839 1839 1839 1839 1752 1635 1565 1565 1599 1599 1599 1635 1599 1599 1672 1711 1711 1672 1565 1501 0 0 3504 3504 3199 3066 2830 2453 2044 1887 1795 1711 1672 1672 1672 1672 1672 0 0 0 0 0 0 0 0 0 0 0 0 0 0 0 0 0 0 0 0 0 0 0 0 0 0 0 0 0 0 0 0 0 0 0 0 0 0 0 1839 1795 1752 1795 1672 1672 1599 1635 1565 1471 1471 1501 1415 1471 1415 1362 1362 1338 1362 1362 1362 1362 1291 1291 1291 1268 1226 1206 1187 1168 1168 1187 1149 1132 1098 1082 1066 1022 1022 981 981 943 955 968 943 908 897 886 886 855 845 836 808 799 791 791 782 774 774 782 774 774 766 758 750 728 0 0 694 694 687 675 669 675 681 675 623 613 613 603 598 603 603 598 598 608 603 588 593 588 574 557 545 537 533 533 533 529 0 0 0 0 511 507 507 493 487 487 487 481 481 477 471 457 459 454 446 440 435 432 425 425 427 422 418 420 415 408 408 404 397 395 395 397 395 387 387 0 0 0 0 0
    0 0 0 0 0 0 0 0 0 0 0 0 0 0 0 0 0 0 0 0 0 0 0 0 0 0 0 0 0 0 0 0 0 0 0 0 0 0 0 0 0 0 0 0 0 0 0 0 0 0 0 0 0 0 0 0 0 0 0 0 0 0 0 0 0 0 0 0 0 1599 1501 1533 1565 1635 1599 1533 1599 1565 1565 1599 1599 1565 1533 1599 1635 1599 1672 1672 1672 1672 1672 1711 1672 1711 1711 1635 1635 1711 1795 1839 1839 1839 1839 1887 1839 1839 1672 1599 1565 1533 1565 1565 1533 1533 1501 1565 1599 1635 1672 1635 1565 1599 0 4599 4329 4088 3345 3066 2830 2299 1936 1839 1795 1711 1672 1635 1635 1672 0 0 0 0 0 0 0 0 0 0 0 0 0 0 0 0 0 0 0 0 0 0 0 0 0 0 0 0 0 0 0 0 0 0 0 0 0 0 0 0 0 1672 1672 1711 1565 1599 1501 1565 1471 1415 1443 1415 1362 1415 1388 1362 1338 1338 1362 1362 1362 1362 1268 1291 1291 1247 1226 1206 1187 1149 1149 1187 1132 1115 1098 1066 1066 1022 1022 994 981 943 943 943 931 897 897 876 876 855 845 845 817 808 791 791 782 774 766 774 766 766 750 743 735 714 0 0 687 687 675 669 657 669 681 669 623 613 608 603 598 603 598 593 598 603 598 584 584 574 557 549 541 537 529 525 529 518 0 0 0 0 0 0 521 507 507 497 497 493 493 493 487 474 474 468 454 448 440 438 432 427 430 422 420 420 415 408 408 404 399 397 397 397 395 389 387 0 0 0 0 0
    0 0 0 0 0 0 0 0 0 0 0 0 0 0 0 0 0 0 0 0 0 0 0 0 0 0 0 0 0 0 0 0 0 0 0 0 0 0 0 0 0 0 0 0 0 0 0 0 0 0 0 0 0 0 0 0 0 0 0 0 0 0 0 0 0 0 0 0 0 1599 1501 1501 1565 1635 1599 1533 1565 1565 1565 1599 1599 1565 1501 1599 1635 1599 1672 1672 1672 1711 1711 1711 1672 1711 1711 1635 1599 1635 1711 1752 1752 1752 1795 1839 1752 1711 1443 1443 1388 1388 1415 1415 1415 1415 1415 1471 1533 1565 1599 1533 1471 1501 0 6133 7359 4599 3345 3066 2725 2230 1887 1839 1839 1752 1672 1672 1672 0 0 0 0 0 0 0 0 0 0 0 0 0 0 0 0 0 0 0 0 0 0 0 0 0 0 0 0 0 0 0 0 0 0 0 0 0 0 0 0 0 0 0 1672 1711 1565 1565 1471 1533 1471 1388 1388 1388 1338 1388 1362 1338 1314 1291 1314 1338 1338 1338 1247 1268 1268 1226 1226 1187 1168 1149 1149 1168 1115 1115 1098 1066 1082 1051 1036 1022 1008 981 981 955 943 908 897 886 886 865 855 845 817 808 791 791 782 766 758 766 750 750 735 728 721 707 0 0 681 681 669 663 657 657 675 669 623 618 613 608 608 608 603 593 593 603 598 579 579 574 557 549 545 537 529 525 525 511 514 511 0 0 518 518 518 514 514 504 500 497 493 493 487 477 477 471 462 459 446 443 438 432 432 427 422 425 415 408 408 404 402 399 399 399 395 387 387 0 0 0 0 0
    0 0 0 0 0 0 0 0 0 0 0 0 0 0 0 0 0 0 0 0 0 0 0 0 0 0 0 0 0 0 0 0 0 0 0 0 0 0 0 0 0 0 0 0 0 0 0 0 0 0 0 0 0 0 0 0 0 0 0 0 0 0 0 0 0 0 0 0 0 1565 1471 1443 1471 1635 1533 1501 1501 1533 1501 1533 1533 1533 1471 1635 1635 1599 1672 1711 1711 1711 1711 1752 1711 1711 1711 1599 1501 1599 1635 1672 1635 1338 1314 0 1314 1291 1291 1314 1314 1314 1338 1362 1388 1415 1415 1443 1471 1501 1501 1443 1388 1443 0 6133 0 4906 3199 2943 2537 2102 1887 1887 1887 1795 1711 0 0 0 0 0 0 0 0 0 0 0 0 0 0 0 0 0 0 0 0 0 0 0 0 0 0 0 0 0 0 0 0 0 0 0 0 0 0 0 0 0 0 0 0 0 0 0 1443 1501 1443 1471 1443 1388 1362 1362 1338 1362 1338 1314 1268 1247 1291 1314 1314 1314 1226 1247 1247 1206 1226 1187 1168 1149 1149 1187 1132 1115 1115 1082 1098 1066 1066 1036 1022 994 994 968 943 931 919 897 897 876 855 845 826 808 791 791 782 766 766 766 743 750 735 728 714 700 694 687 681 681 669 663 663 663 675 675 629 629 618 613 613 613 613 598 603 608 598 579 570 566 553 541 541 537 529 525 529 514 521 518 518 518 514 511 514 507 507 497 497 493 493 493 493 487 484 481 477 474 465 459 457 446 446 443 435 432 425 418 418 408 404 402 402 402 397 387 389 0 0 0 0 0
    0 0 0 0 0 0 0 0 0 0 0 0 0 0 0 0 0 0 0 0 0 0 0 0 0 0 0 0 0 0 0 0 0 0 0 0 0 0 0 0 0 0 0 0 0 0 0 0 0 0 0 0 0 0 0 0 0 0 0 0 0 0 0 0 0 0 0 0 0 1501 1415 1415 1443 1599 1471 1471 1443 1471 1415 1443 1443 1443 1415 1599 1599 1565 1635 1711 1711 1711 1711 1711 1635 1635 1635 1415 1362 1415 1388 1362 1314 1206 1168 1168 1226 1226 1226 1247 1247 1268 1314 1338 1388 1415 1415 1443 1471 1501 1533 1443 1388 0 0 5256 7359 4599 3066 2943 2537 2374 2164 2230 2102 0 0 0 0 0 0 0 0 0 0 0 0 0 0 0 0 0 0 0 0 0 0 0 0 0 0 0 0 0 0 0 0 0 0 0 0 0 0 0 0 0 0 0 0 0 0 0 0 0 0 0 1415 1443 1415 1362 1338 1338 1314 1338 1314 1291 1268 1226 1247 1247 1247 1268 1206 1226 1226 1187 1206 1187 1168 1168 1168 1226 1149 1132 1132 1098 1098 1082 1066 1036 1022 1008 1008 968 943 943 919 908 908 876 855 845 0 808 791 791 791 774 766 766 750 750 743 728 721 700 694 681 675 675 669 663 669 663 681 681 639 651 629 623 623 623 623 603 603 608 588 570 561 557 549 545 541 541 537 533 537 521 529 525 521 521 514 507 507 500 500 493 490 487 487 487 484 481 477 474 474 471 465 459 459 454 454 451 443 440 430 430 430 422 408 406 404 402 397 389 391 0 0 0 0 0
    0 0 0 0 0 0 0 0 0 0 0 0 0 0 0 0 0 0 0 0 0 0 0 0 0 0 0 0 0 0 0 0 0 0 0 0 0 0 0 0 0 0 0 0 0 0 0 0 0 0 0 0 0 0 0 0 0 0 0 0 0 0 0 0 0 0 0 0 0 1471 1388 1388 1415 1565 1415 1443 1415 1415 1388 1415 1388 1415 1362 1533 1533 1471 1599 1635 1635 1635 1599 1599 1501 1471 1471 1291 1291 1314 1291 1268 1149 1082 1098 1115 1168 1168 1187 1226 1226 1268 1314 1362 1415 1471 1471 1533 1565 1599 0 0 0 0 0 0 0 0 0 0 0 0 0 0 0 0 0 0 0 0 0 0 0 0 0 0 0 0 0 0 0 0 0 0 0 0 0 0 0 0 0 0 0 0 0 0 0 0 0 0 0 0 0 0 0 0 0 0 0 0 0 0 0 0 0 0 0 1415 1388 1338 1338 1338 1314 1314 1314 1291 1268 1247 1247 1247 1206 1247 1187 1226 1206 1187 1206 1206 1187 1206 1187 1247 1187 1149 1149 1115 1098 1082 1066 1036 1022 1008 994 968 943 943 931 919 931 897 865 845 0 817 791 791 791 774 766 774 758 758 743 728 714 700 694 681 681 675 669 663 663 657 675 681 645 651 634 623 623 634 634 603 598 598 579 566 561 557 549 549 545 541 537 541 541 529 533 529 521 518 514 504 504 497 497 490 487 484 487 484 481 474 471 465 459 459 451 451 448 448 448 448 443 440 432 432 427 425 413 411 408 404 399 395 393 0 0 0 0 0
    0 0 0 0 0 0 0 0 0 0 0 0 0 0 0 0 0 0 0 0 0 0 0 0 0 0 0 0 0 0 0 0 0 0 0 0 0 0 0 0 0 0 0 0 0 0 0 0 0 0 0 0 0 0 0 0 0 0 0 0 0 0 0 0 0 0 0 0 0 1415 1362 1338 1362 1443 1388 1388 1388 1388 1388 1415 1415 1388 1362 1501 1533 1443 1533 1565 1533 1533 1415 1415 1388 1338 1314 1247 1226 1268 1168 1149 1051 1036 1051 1066 1115 1098 1115 1187 1206 1247 1314 1338 1388 1443 1501 1599 1635 0 0 0 0 0 0 0 0 0 0 0 0 0 0 0 0 0 0 0 0 0 0 0 0 0 0 0 0 0 0 0 0 0 0 0 0 0 0 0 0 0 0 0 0 0 0 0 0 0 0 0 0 0 0 0 0 0 0 0 0 0 0 0 0 0 0 0 0 1388 1388 1362 1362 1362 1314 1314 1291 1268 1247 1226 1206 1206 1168 1206 1149 1206 1187 1187 1187 1206 1187 1206 1206 1247 1187 1149 1149 1132 1098 1066 1051 1036 1008 1008 994 968 943 943 931 931 943 919 886 855 0 817 799 799 799 774 774 774 750 750 735 721 714 700 0 687 681 681 675 657 663 645 657 663 634 634 629 623 623 634 639 608 598 598 584 574 570 561 553 553 545 545 537 541 537 529 529 529 521 518 507 497 497 490 490 487 484 484 484 481 477 471 468 457 451 448 440 443 440 440 440 440 438 435 427 430 427 422 420 418 411 406 402 399 397 0 0 0 0 0
    0 0 0 0 0 0 0 0 0 0 0 0 0 0 0 0 0 0 0 0 0 0 0 0 0 0 0 0 0 0 0 0 0 0 0 0 0 0 0 0 0 0 0 0 0 0 0 0 0 0 0 0 0 0 0 0 0 0 0 0 0 0 0 0 0 0 0 0 0 1362 1338 1338 1338 1362 1362 1338 1338 1338 1338 1338 1415 1362 1362 1443 1533 1443 1599 1501 1362 1291 1247 1268 1268 1247 1226 1206 1149 1132 1082 1066 1036 1036 1051 1051 1066 1066 1098 1149 1187 1247 1291 1314 1362 1388 1443 0 0 0 0 0 0 0 0 0 0 0 0 0 0 0 0 0 0 0 0 0 0 0 0 0 0 0 0 0 0 0 0 0 0 0 0 0 0 0 0 0 0 0 0 0 0 0 0 0 0 0 0 0 0 0 0 0 0 0 0 0 0 0 0 0 0 0 0 0 0 0 1443 1415 1415 1388 1362 1338 1314 1268 1247 1187 1168 1168 1132 1187 1149 1187 1168 1149 1149 1132 1115 1168 1149 1206 1132 1098 1115 1132 1115 1082 1051 1036 1008 1008 1008 968 943 943 943 943 943 943 897 865 845 826 808 808 799 782 774 774 750 750 735 721 707 694 687 681 681 675 669 645 651 634 645 657 634 634 629 623 629 634 639 613 0 598 593 579 570 561 553 553 545 545 541 541 541 533 533 533 529 525 518 500 500 490 490 487 484 481 481 477 477 471 468 459 454 448 440 440 440 440 440 438 432 432 427 430 427 422 415 420 413 406 402 399 397 0 0 0 0 0
    0 0 0 0 0 0 0 0 0 0 0 0 0 0 0 0 0 0 0 0 0 0 0 0 0 0 0 0 0 0 0 0 0 0 0 0 0 0 0 0 0 0 0 0 0 0 0 0 0 0 0 0 0 0 0 0 0 0 0 0 0 0 0 0 0 0 0 0 0 1362 1314 1314 1314 1291 1314 1268 1268 1247 1268 1247 1338 1314 1291 1338 1415 1388 1443 1388 0 1247 1187 1206 1226 1187 1149 1115 1082 1066 1051 1051 1022 1022 1036 1036 1051 1066 1082 1132 1168 1226 1247 1268 1291 1314 0 0 0 0 0 0 0 0 0 0 0 0 0 0 0 0 0 0 0 0 0 0 0 0 0 0 0 0 0 0 0 0 0 0 0 0 0 0 0 0 0 0 0 0 0 0 0 0 0 0 0 0 0 0 0 0 0 0 0 0 0 0 0 0 0 0 0 0 0 0 0 0 0 0 0 0 0 0 0 1226 1206 1149 1149 1168 1115 1168 1132 1168 1149 1115 1115 1082 1066 1115 1098 1132 1098 1082 1115 1132 1132 1115 1066 1051 1022 1008 1008 955 931 931 931 943 943 943 919 886 886 865 826 826 817 791 782 774 758 743 728 721 707 694 675 675 675 669 663 639 645 629 639 645 629 629 629 623 629 623 634 608 0 588 593 579 570 557 553 553 549 545 545 545 541 537 537 537 533 533 525 511 511 497 493 487 484 477 474 474 474 465 462 454 451 448 443 443 440 440 440 438 432 432 430 432 425 420 413 418 413 406 404 402 399 0 0 0 0 0
    0 0 0 0 0 0 0 0 0 0 0 0 0 0 0 0 0 0 0 0 0 0 0 0 0 0 0 0 0 0 0 0 0 0 0 0 0 0 0 0 0 0 0 0 0 0 0 0 0 0 0 0 0 0 0 0 0 0 0 0 0 0 0 0 0 0 0 0 0 1314 1247 1247 1247 1226 1247 1206 1206 1168 1187 1187 1226 1206 1226 1247 1338 1291 1314 1314 1226 1206 1149 1168 1187 1132 1082 1066 1051 1036 1036 1036 1008 1008 1022 1036 1051 1066 1098 1149 1168 1226 1226 1247 0 0 0 0 0 0 0 0 0 0 0 0 0 0 0 0 0 0 0 0 0 0 0 0 0 0 0 0 0 0 0 0 0 0 0 0 0 0 0 0 0 0 0 0 0 0 0 0 0 0 0 0 0 0 0 0 0 0 0 0 0 0 0 0 0 0 0 0 0 0 0 0 0 0 0 0 0 0 0 0 0 1115 1132 1115 1115 1132 1098 1132 1115 1149 1132 1098 1098 1066 1066 1115 1098 1115 1115 1115 1149 1168 1168 1168 1115 1098 1051 1022 1008 955 931 943 943 955 955 955 931 919 931 897 845 836 817 799 791 782 766 750 735 728 707 694 681 675 675 675 669 651 657 634 639 645 634 629 629 618 618 613 0 598 0 579 584 574 570 557 553 557 553 549 549 549 545 545 545 545 541 537 533 521 518 497 490 484 477 471 468 468 468 462 457 454 451 448 446 443 443 443 443 440 435 438 432 435 427 425 418 418 413 406 406 404 402 0 0 0 0 0
    0 0 0 0 0 0 0 0 0 0 0 0 0 0 0 0 0 0 0 0 0 0 0 0 0 0 0 0 0 0 0 0 0 0 0 0 0 0 0 0 0 0 0 0 0 0 0 0 0 0 0 0 0 0 0 0 0 0 0 0 0 0 0 0 0 0 0 0 0 1226 1187 1187 1206 1168 1168 1149 1149 1115 1149 1132 1149 1168 1247 1247 1314 1291 1268 1291 1187 1168 1115 1115 1115 1066 1036 1036 1022 1008 1008 1008 994 994 1022 1022 1051 1051 1082 1098 1115 1149 1149 0 0 0 0 0 0 0 0 0 0 0 0 0 0 0 0 0 0 0 0 0 0 0 0 0 0 0 0 0 0 0 0 0 0 0 0 0 0 0 0 0 0 0 0 0 0 0 0 0 0 0 0 0 0 0 0 0 0 0 0 0 0 0 0 0 0 0 0 0 0 0 0 0 0 0 0 0 0 0 0 0 0 0 1115 1115 1098 1115 1082 1115 1115 1132 1132 1082 1082 1066 1066 1098 1082 1115 1115 1115 1168 1168 1187 1187 1149 1115 1066 1022 1008 955 943 955 943 955 955 955 943 919 943 897 845 836 817 799 799 791 782 774 750 743 721 714 700 694 687 687 681 669 669 639 639 639 623 618 623 618 613 0 0 603 598 593 593 584 579 566 561 557 553 545 545 545 541 541 545 549 541 541 537 533 525 0 490 481 474 468 465 465 468 462 459 457 457 451 451 448 446 446 443 443 438 438 435 438 430 427 422 420 415 0 0 0 0 0 0 0 0 0
    0 0 0 0 0 0 0 0 0 0 0 0 0 0 0 0 0 0 0 0 0 0 0 0 0 0 0 0 0 0 0 0 0 0 0 0 0 0 0 0 0 0 0 0 0 0 0 0 0 0 0 0 0 0 0 0 0 0 0 0 0 0 0 0 0 0 0 0 0 1187 1187 1187 1206 1168 1187 1168 1149 1132 1187 1149 1168 1187 1206 1036 1066 1149 1149 1132 1082 1082 1051 1051 1051 1036 1008 1022 1008 994 994 994 994 994 1022 1022 1051 1051 1066 1082 1082 0 0 0 0 0 0 0 0 0 0 0 0 0 0 0 0 0 0 0 0 0 0 0 0 0 0 0 0 0 0 0 0 0 0 0 0 0 0 0 0 0 0 0 0 0 0 0 0 0 0 0 0 0 0 0 0 0 0 0 0 0 0 0 0 0 0 0 0 0 0 0 0 0 0 0 0 0 0 0 0 0 0 0 0 0 1115 1132 1082 1098 1082 1098 1098 1115 1098 1066 1066 1036 1036 1066 1051 1066 1082 1082 1115 1149 1168 1187 1115 1098 1036 1008 994 955 943 943 943 943 955 955 943 931 955 919 855 845 826 808 808 799 791 782 766 758 728 721 700 694 694 687 681 669 675 645 634 634 618 613 623 618 618 0 0 0 608 603 608 593 584 570 566 557 549 541 541 537 537 537 541 545 541 537 541 537 0 0 0 0 477 468 468 468 474 465 465 462 465 459 465 457 448 443 443 440 438 438 435 435 432 430 425 422 420 0 0 0 0 0 0 0 0 0
    0 0 0 0 0 0 0 0 0 0 0 0 0 0 0 0 0 0 0 0 0 0 0 0 0 0 0 0 0 0 0 0 0 0 0 0 0 0 0 0 0 0 0 0 0 0 0 0 0 0 0 0 0 0 0 0 0 0 0 0 0 0 0 0 0 0 0 0 0 1187 1187 1206 1206 1187 1187 1187 1187 1168 1206 1187 1226 1268 1226 1098 1098 1168 1149 1149 1115 1082 1036 1036 1036 1022 994 994 994 981 981 994 981 994 1022 1036 1036 1051 1066 1066 0 0 0 0 0 0 0 0 0 0 0 0 0 0 0 0 0 0 0 0 0 0 0 0 0 0 0 0 0 0 0 0 0 0 0 0 0 0 0 0 0 0 0 0 0 0 0 0 0 0 0 0 0 0 0 0 0 0 0 0 0 0 0 0 0 0 0 0 0 0 0 0 0 0 0 0 0 0 0 0 0 0 0 0 0 0 0 1082 1051 1082 1066 1115 1115 1115 1098 1066 1066 1036 1036 1051 1036 1051 1066 1066 1098 1115 1149 1168 1132 1132 1066 1022 1008 955 943 943 943 943 955 955 943 919 955 931 865 855 826 817 808 799 799 791 782 774 728 728 700 694 694 687 681 669 669 645 634 634 623 623 623 618 623 623 629 623 618 608 613 598 588 579 570 561 553 541 541 541 537 537 545 545 541 0 537 541 533 0 0 0 0 468 468 468 474 465 462 462 468 462 468 457 448 443 440 438 435 435 432 432 430 427 427 422 422 0 0 0 0 0 0 0 0 0
    0 0 0 0 0 0 0 0 0 0 0 0 0 0 0 0 0 0 0 0 0 0 0 0 0 0 0 0 0 0 0 0 0 0 0 0 0 0 0 0 0 0 0 0 0 0 0 0 0 0 0 0 0 0 0 0 0 0 0 0 0 0 0 0 0 0 0 0 0 1187 1187 1187 1206 1187 1187 1206 1187 1187 1226 1206 1226 1268 1247 1082 1082 1132 1132 1066 1051 1036 1008 994 994 981 968 968 968 968 981 981 981 994 1008 1022 1008 1022 0 0 0 0 0 0 0 0 0 0 0 0 0 0 0 0 0 0 0 0 0 0 0 0 0 0 0 0 0 0 0 0 0 0 0 0 0 0 0 0 0 0 0 0 0 0 0 0 0 0 0 0 0 0 0 0 0 0 0 0 0 0 0 0 0 0 0 0 0 0 0 0 0 0 0 0 0 0 0 0 0 0 0 0 0 0 0 0 0 0 0 1115 1082 1168 1187 1115 1082 1036 1051 1022 1022 1036 1036 1036 1051 1066 1098 1098 1132 1149 1132 1132 1098 1036 1008 955 931 931 919 919 931 931 919 897 931 897 865 855 826 817 808 808 799 799 782 766 728 728 700 700 700 0 681 669 663 639 634 634 623 623 629 629 634 629 634 623 623 613 613 598 584 579 570 561 557 549 549 545 541 541 545 545 545 537 537 537 533 533 0 0 0 468 468 468 474 468 465 465 471 462 468 454 448 443 438 435 435 432 432 432 432 430 427 425 427 0 413 406 402 0 0 0 0 0
    0 0 0 0 0 0 0 0 0 0 0 0 0 0 0 0 0 0 0 0 0 0 0 0 0 0 0 0 0 0 0 0 0 0 0 0 0 0 0 0 0 0 0 0 0 0 0 0 0 0 0 0 0 0 0 0 0 0 0 0 0 0 0 0 0 0 0 0 0 1149 1168 1168 1187 1187 1206 1226 1206 1206 1226 1206 1247 1268 1247 1051 1036 1066 1066 994 981 981 968 955 955 931 931 931 943 955 968 981 968 981 994 994 994 0 0 0 0 0 0 0 0 0 0 0 0 0 0 0 0 0 0 0 0 0 0 0 0 0 0 0 0 0 0 0 0 0 0 0 0 0 0 0 0 0 0 0 0 0 0 0 0 0 0 0 0 0 0 0 0 0 0 0 0 0 0 0 0 0 0 0 0 0 0 0 0 0 0 0 0 0 0 0 0 0 0 0 0 0 0 0 0 0 0 0 0 0 0 0 1206 1066 1051 0 1022 981 1008 1022 1008 1008 1036 1036 1066 1082 1132 1149 1149 1187 1168 1051 994 955 931 931 908 919 919 908 897 886 897 876 855 845 817 808 799 799 791 791 782 766 735 728 707 707 707 0 681 669 663 639 634 634 629 629 634 629 634 629 634 623 618 608 603 593 579 574 570 561 561 553 553 549 541 545 545 545 541 537 533 533 537 537 529 507 487 474 474 474 477 471 471 471 477 468 471 459 454 448 440 438 435 435 435 432 432 430 427 425 427 418 411 404 399 0 0 0 0 0
    0 0 0 0 0 0 0 0 0 0 0 0 0 0 0 0 0 0 0 0 0 0 0 0 0 0 0 0 0 0 0 0 0 0 0 0 0 0 0 0 0 0 0 0 0 0 0 0 0 0 0 0 0 0 0 0 0 0 0 0 0 0 0 0 0 0 0 0 0 1149 1168 1149 1168 1187 1206 1226 1206 1187 1226 1187 1226 1206 1206 1036 1008 994 1008 955 943 955 955 931 919 908 919 931 931 943 955 968 968 968 994 0 0 0 0 0 0 0 0 0 0 0 0 0 0 0 0 0 0 0 0 0 0 0 0 0 0 0 0 0 0 0 0 0 0 0 0 0 0 0 0 0 0 0 0 0 0 0 0 0 0 0 0 0 0 0 0 0 0 0 0 0 0 0 0 0 0 0 0 0 0 0 0 0 0 0 0 0 0 0 0 0 0 0 0 0 0 0 0 0 0 0 0 0 0 0 0 0 0 1051 1036 1008 1022 968 0 1008 994 994 1022 1036 1036 1051 1082 1098 1098 1115 1082 1008 955 919 919 919 908 919 931 908 886 886 908 876 845 836 817 808 799 799 782 791 782 766 743 728 707 707 707 694 681 669 669 645 634 639 629 629 634 629 629 629 629 618 613 608 603 588 579 574 570 561 566 557 557 549 541 545 545 545 537 533 533 533 533 537 533 521 500 484 477 477 484 477 477 477 484 477 481 471 465 457 443 440 438 438 435 435 432 430 427 422 427 418 411 404 397 0 0 0 0 0
    0 0 0 0 0 0 0 0 0 0 0 0 0 0 0 0 0 0 0 0 0 0 0 0 0 0 0 0 0 0 0 0 0 0 0 0 0 0 0 0 0 0 0 0 0 0 0 0 0 0 0 0 0 0 0 0 0 0 0 0 0 0 0 0 0 0 0 0 0 1115 1115 1115 1115 1132 1168 1187 1168 1132 1168 1115 1098 1115 1098 1022 968 968 968 943 943 955 943 931 919 919 919 919 919 943 943 968 955 955 0 0 0 0 0 0 0 0 0 0 0 0 0 0 0 0 0 0 0 0 0 0 0 0 0 0 0 0 0 0 0 0 0 0 0 0 0 0 0 0 0 0 0 0 0 0 0 0 0 0 0 0 0 0 0 0 0 0 0 0 0 0 0 0 0 0 0 0 0 0 0 0 0 0 0 0 0 0 0 0 0 0 0 0 0 0 0 0 0 0 0 0 0 0 0 0 0 0 0 0 1036 1022 1036 981 0 1008 968 981 1008 1022 1022 1022 1036 1036 1036 1051 1022 994 955 919 908 919 897 908 919 897 876 886 886 855 836 826 808 799 791 799 782 791 791 774 743 728 707 707 700 694 681 675 669 657 639 645 629 629 629 623 623 618 623 613 608 603 598 588 574 574 574 566 570 557 557 549 541 545 545 545 537 533 529 529 533 537 533 521 500 490 481 487 497 481 490 493 493 481 0 474 471 459 448 446 440 438 435 432 432 430 425 420 427 418 0 406 0 0 0 0 0 0
    0 0 0 0 0 0 0 0 0 0 0 0 0 0 0 0 0 0 0 0 0 0 0 0 0 0 0 0 0 0 0 0 0 0 0 0 0 0 0 0 0 0 0 0 0 0 0 0 0 0 0 0 0 0 0 0 0 0 0 0 0 0 0 0 0 0 0 0 0 1082 1082 1082 1082 1098 1098 1132 1098 1082 1098 1051 1008 1036 994 943 886 897 908 897 908 908 908 919 931 919 919 919 931 931 943 968 0 0 0 0 0 0 0 0 0 0 0 0 0 0 0 0 0 0 0 0 0 0 0 0 0 0 0 0 0 0 0 0 0 0 0 0 0 0 0 0 0 0 0 0 0 0 0 0 0 0 0 0 0 0 0 0 0 0 0 0 0 0 0 0 0 0 0 0 0 0 0 0 0 0 0 0 0 0 0 0 0 0 0 0 0 0 0 0 0 0 0 0 0 0 0 0 0 0 0 0 0 0 0 1036 0 0 0 981 955 981 994 1008 1008 1008 1008 1022 1022 1008 994 981 943 931 919 919 897 908 931 897 886 876 865 836 817 817 799 782 782 782 774 782 782 766 735 721 700 700 700 694 687 681 675 663 645 651 629 629 629 623 623 618 618 608 608 598 593 584 570 570 570 566 566 557 561 553 545 545 545 545 537 529 529 525 525 533 529 521 497 490 484 504 511 500 514 518 507 493 511 481 474 465 454 451 443 0 0 0 0 432 427 422 427 420 0 404 0 0 0 0 0 0
    0 0 0 0 0 0 0 0 0 0 0 0 0 0 0 0 0 0 0 0 0 0 0 0 0 0 0 0 0 0 0 0 0 0 0 0 0 0 0 0 0 0 0 0 0 0 0 0 0 0 0 0 0 0 0 0 0 0 0 0 0 0 0 0 0 0 0 0 0 1082 1082 1082 1066 1082 1082 1115 1066 1066 1066 1022 1008 994 968 897 876 876 886 876 886 886 897 908 919 908 908 908 919 919 931 0 0 0 0 0 0 0 0 0 0 0 0 0 0 0 0 0 0 0 0 0 0 0 0 0 0 0 0 0 0 0 0 0 0 0 0 0 0 0 0 0 0 0 0 0 0 0 0 0 0 0 0 0 0 0 0 0 0 0 0 0 0 0 0 0 0 0 0 0 0 0 0 0 0 0 0 0 0 0 0 0 0 0 0 0 0 0 0 0 0 0 0 0 0 0 0 0 0 0 0 0 0 0 0 0 0 0 968 968 943 968 968 981 968 981 994 981 994 981 968 955 919 919 908 908 886 897 919 897 876 876 855 826 799 808 791 782 774 774 766 774 774 766 721 714 700 700 700 694 687 681 675 669 651 657 629 634 629 623 623 618 618 613 608 603 598 588 574 570 570 561 566 561 561 553 545 545 541 541 537 533 529 525 525 533 533 529 514 504 507 518 518 514 521 521 504 490 504 481 477 468 462 457 446 443 0 0 0 435 432 0 432 0 0 0 0 0 0 0 0 0
    0 0 0 0 0 0 0 0 0 0 0 0 0 0 0 0 0 0 0 0 0 0 0 0 0 0 0 0 0 0 0 0 0 0 0 0 0 0 0 0 0 0 0 0 0 0 0 0 0 0 0 0 0 0 0 0 0 0 0 0 0 0 0 0 0 0 0 0 0 1082 1098 1082 1066 1082 1082 1149 1082 1066 1066 1008 981 968 955 886 876 876 865 865 876 886 886 897 897 908 897 908 919 0 0 0 0 0 0 0 0 0 0 0 0 0 0 0 0 0 0 0 0 0 0 0 0 0 0 0 0 0 0 0 0 0 0 0 0 0 0 0 0 0 0 0 0 0 0 0 0 0 0 0 0 0 0 0 0 0 0 0 0 0 0 0 0 0 0 0 0 0 0 0 0 0 0 0 0 0 0 0 0 0 0 0 0 0 0 0 0 0 0 0 0 0 0 0 0 0 0 0 0 0 0 0 0 0 0 0 0 0 968 968 943 968 955 968 955 968 968 955 955 943 931 931 876 897 886 886 876 876 886 876 865 865 836 826 799 808 799 791 774 766 766 774 766 758 721 714 700 700 700 694 687 681 675 669 657 657 634 634 629 623 623 618 623 613 608 603 598 593 579 574 574 566 566 561 561 553 545 545 541 541 537 533 529 525 525 533 533 533 525 514 518 518 525 521 521 521 500 484 0 0 477 471 468 468 457 451 457 0 451 443 0 0 0 0 0 0 0 0 0 0 0 0
    0 0 0 0 0 0 0 0 0 0 0 0 0 0 0 0 0 0 0 0 0 0 0 0 0 0 0 0 0 0 0 0 0 0 0 0 0 0 0 0 0 0 0 0 0 0 0 0 0 0 0 0 0 0 0 0 0 0 0 0 0 0 0 0 0 0 0 0 0 1098 1082 1066 1051 1051 1036 1115 1051 1036 1008 994 955 908 919 855 855 855 845 845 865 876 876 886 897 886 886 897 0 0 0 0 0 0 0 0 0 0 0 0 0 0 0 0 0 0 0 0 0 0 0 0 0 0 0 0 0 0 0 0 0 0 0 0 0 0 0 0 0 0 0 0 0 0 0 0 0 0 0 0 0 0 0 0 0 0 0 0 0 0 0 0 0 0 0 0 0 0 0 0 0 0 0 0 0 0 0 0 0 0 0 0 0 0 0 0 0 0 0 0 0 0 0 0 0 0 0 0 0 0 0 0 0 0 0 0 0 0 968 955 931 955 943 955 943 943 931 919 908 886 876 876 836 855 855 855 845 845 855 845 845 836 817 808 791 791 791 782 766 758 758 750 758 750 721 714 700 707 700 694 687 681 675 669 657 663 639 639 629 629 629 623 629 613 608 603 598 593 584 574 574 566 566 561 566 557 549 545 541 541 537 533 529 525 521 533 533 529 518 507 497 497 500 504 500 497 490 484 0 481 477 474 474 474 0 468 0 465 468 451 435 0 0 0 0 0 0 0 0 0 0 0
    0 0 0 0 0 0 0 0 0 0 0 0 0 0 0 0 0 0 0 0 0 0 0 0 0 0 0 0 0 0 0 0 0 0 0 0 0 0 0 0 0 0 0 0 0 0 0 0 0 0 0 0 0 0 0 0 0 0 0 0 0 0 0 0 0 0 0 0 0 0 1036 1036 994 0 994 1082 1022 994 981 955 919 876 886 836 845 836 836 836 855 855 865 865 876 886 876 0 0 0 0 0 0 0 0 0 0 0 0 0 0 0 0 0 0 0 0 0 0 0 0 0 0 0 0 0 0 0 0 0 0 0 0 0 0 0 0 0 0 0 0 0 0 0 0 0 0 0 0 0 0 0 0 0 0 0 0 0 0 0 0 0 0 0 0 0 0 0 0 0 0 0 0 0 0 0 0 0 0 0 0 0 0 0 0 0 0 0 0 0 0 0 0 0 0 0 0 0 0 0 0 0 0 0 0 0 0 0 943 931 908 943 919 943 919 931 908 886 886 865 855 845 826 836 836 836 836 826 836 836 836 826 817 799 782 791 791 774 766 750 758 743 750 743 714 714 700 707 700 694 687 681 675 669 657 669 645 645 634 629 634 629 634 618 608 603 598 593 584 574 574 566 570 566 570 561 549 549 545 541 537 533 529 525 521 529 529 529 514 500 490 493 497 507 504 500 487 487 0 477 474 474 471 471 0 0 0 465 462 451 0 0 432 430 0 0 0 0 0 0 0 0
    0 0 0 0 0 0 0 0 0 0 0 0 0 0 0 0 0 0 0 0 0 0 0 0 0 0 0 0 0 0 0 0 0 0 0 0 0 0 0 0 0 0 0 0 0 0 0 0 0 0 0 0 0 0 0 0 0 0 0 0 0 0 0 0 0 0 0 0 0 865 908 943 955 931 981 1036 994 968 955 931 897 855 876 826 836 845 845 836 855 865 865 865 886 0 0 0 0 0 0 0 0 0 0 0 0 0 0 0 0 0 0 0 0 0 0 0 0 0 0 0 0 0 0 0 0 0 0 0 0 0 0 0 0 0 0 0 0 0 0 0 0 0 0 0 0 0 0 0 0 0 0 0 0 0 0 0 0 0 0 0 0 0 0 0 0 0 0 0 0 0 0 0 0 0 0 0 0 0 0 0 0 0 0 0 0 0 0 0 0 0 0 0 0 0 0 0 0 0 0 0 0 0 0 0 0 0 908 897 886 908 886 908 886 897 886 865 865 845 836 836 817 826 817 826 826 817 826 826 836 826 817 799 791 791 799 782 774 758 758 750 750 743 721 714 707 707 0 694 694 687 675 675 663 675 651 651 634 634 634 629 629 618 608 598 598 598 588 579 579 574 570 570 570 561 549 545 545 541 537 533 529 525 521 525 525 521 507 497 487 490 493 500 504 511 490 493 0 0 477 474 468 465 459 465 465 462 459 454 0 0 435 432 432 422 0 0 0 0 0 0
    0 0 0 0 0 0 0 0 0 0 0 0 0 0 0 0 0 0 0 0 0 0 0 0 0 0 0 0 0 0 0 0 0 0 0 0 0 0 0 0 0 0 0 0 0 0 0 0 0 0 0 0 0 0 0 0 0 0 0 0 0 0 0 0 0 0 0 0 0 855 876 886 919 865 919 968 931 897 908 886 865 836 855 826 836 845 845 845 855 865 865 865 0 0 0 0 0 0 0 0 0 0 0 0 0 0 0 0 0 0 0 0 0 0 0 0 0 0 0 0 0 0 0 0 0 0 0 0 0 0 0 0 0 0 0 0 0 0 0 0 0 0 0 0 0 0 0 0 0 0 0 0 0 0 0 0 0 0 0 0 0 0 0 0 0 0 0 0 0 0 0 0 0 0 0 0 0 0 0 0 0 0 0 0 0 0 0 0 0 0 0 0 0 0 0 0 0 0 0 0 0 0 0 0 0 0 0 886 876 908 876 897 886 897 876 865 865 845 836 836 808 817 808 808 817 799 808 808 817 817 808 799 791 791 799 791 774 758 766 750 750 735 721 714 707 707 700 694 694 687 675 675 669 675 657 657 634 634 634 629 629 618 608 598 593 588 584 574 574 570 566 566 566 557 549 545 541 541 537 533 529 521 518 521 518 514 500 490 487 487 487 493 490 493 481 484 0 477 477 0 468 0 462 0 465 462 462 457 448 446 438 435 435 430 422 0 0 0 0 0
    0 0 0 0 0 0 0 0 0 0 0 0 0 0 0 0 0 0 0 0 0 0 0 0 0 0 0 0 0 0 0 0 0 0 0 0 0 0 0 0 0 0 0 0 0 0 0 0 0 0 0 0 0 0 0 0 0 0 0 0 0 0 0 0 0 0 0 0 0 845 865 865 876 836 865 865 855 855 865 845 836 826 836 817 826 836 836 845 855 865 0 0 0 0 0 0 0 0 0 0 0 0 0 0 0 0 0 0 0 0 0 0 0 0 0 0 0 0 0 0 0 0 0 0 0 0 0 0 0 0 0 0 0 0 0 0 0 0 0 0 0 0 0 0 0 0 0 0 0 0 0 0 0 0 0 0 0 0 0 0 0 0 0 0 0 0 0 0 0 0 0 0 0 0 0 0 0 0 0 0 0 0 0 0 0 0 0 0 0 0 0 0 0 0 0 0 0 0 0 0 0 0 0 0 0 0 0 0 886 919 865 897 876 886 876 855 855 845 836 826 808 817 799 799 799 782 791 791 799 799 791 791 782 782 791 791 782 758 766 758 743 728 714 714 707 707 700 700 694 694 687 681 675 681 675 669 651 645 639 634 634 623 608 598 593 588 588 579 579 570 566 570 566 561 553 545 541 541 537 533 529 518 507 511 511 507 493 487 484 484 484 487 487 484 481 481 477 474 0 0 0 0 457 0 0 459 459 457 448 446 438 438 435 432 427 0 0 0 0 0
    0 0 0 0 0 0 0 0 0 0 0 0 0 0 0 0 0 0 0 0 0 0 0 0 0 0 0 0 0 0 0 0 0 0 0 0 0 0 0 0 0 0 0 0 0 0 0 0 0 0 0 0 0 0 0 0 0 0 0 0 0 0 0 0 0 0 0 0 0 836 855 836 845 817 836 826 826 817 826 817 817 817 826 817 817 826 826 826 845 0 0 0 0 0 0 0 0 0 0 0 0 0 0 0 0 0 0 0 0 0 0 0 0 0 0 0 0 0 0 0 0 0 0 0 0 0 0 0 0 0 0 0 0 0 0 0 0 0 0 0 0 0 0 0 0 0 0 0 0 0 0 0 0 0 0 0 0 0 0 0 0 0 0 0 0 0 0 0 0 0 0 0 0 0 0 0 0 0 0 0 0 0 0 0 0 0 0 0 0 0 0 0 0 0 0 0 0 0 0 0 0 0 0 0 0 0 0 0 908 919 855 897 865 876 865 845 845 836 826 817 791 799 791 791 791 766 782 782 791 799 782 791 782 782 791 791 782 758 758 750 735 721 714 714 700 700 700 700 694 700 694 687 687 687 687 675 669 651 651 645 645 629 613 603 603 598 598 588 588 574 566 570 570 561 553 545 541 541 537 533 525 514 504 504 504 500 493 487 487 484 487 490 487 487 484 484 481 474 474 0 465 0 459 0 468 462 468 465 459 457 0 443 0 0 430 0 0 0 0 0
    0 0 0 0 0 0 0 0 0 0 0 0 0 0 0 0 0 0 0 0 0 0 0 0 0 0 0 0 0 0 0 0 0 0 0 0 0 0 0 0 0 0 0 0 0 0 0 0 0 0 0 0 0 0 0 0 0 0 0 0 0 0 0 0 0 0 0 0 0 817 817 808 808 782 791 782 774 774 791 799 799 808 817 817 817 826 826 836 0 0 0 0 0 0 0 0 0 0 0 0 0 0 0 0 0 0 0 0 0 0 0 0 0 0 0 0 0 0 0 0 0 0 0 0 0 0 0 0 0 0 0 0 0 0 0 0 0 0 0 0 0 0 0 0 0 0 0 0 0 0 0 0 0 0 0 0 0 0 0 0 0 0 0 0 0 0 0 0 0 0 0 0 0 0 0 0 0 0 0 0 0 0 0 0 0 0 0 0 0 0 0 0 0 0 0 0 0 0 0 0 0 0 0 0 0 0 0 0 0 886 836 876 865 865 855 836 836 826 817 817 782 799 791 791 791 766 774 782 791 791 782 782 782 774 782 782 774 743 743 728 721 714 707 707 700 700 700 700 700 700 694 687 687 681 687 675 669 651 645 645 639 629 618 608 608 603 603 593 593 579 566 566 561 553 545 537 537 533 533 529 525 514 507 504 504 500 493 487 487 484 484 487 484 484 481 481 474 471 462 465 459 459 454 451 465 462 471 474 0 468 0 0 0 0 0 0 0 0 0 0
    0 0 0 0 0 0 0 0 0 0 0 0 0 0 0 0 0 0 0 0 0 0 0 0 0 0 0 0 0 0 0 0 0 0 0 0 0 0 0 0 0 0 0 0 0 0 0 0 0 0 0 0 0 0 0 0 0 0 0 0 0 0 0 0 0 0 0 0 0 808 799 791 782 750 758 750 735 750 766 782 782 799 808 808 817 826 0 0 0 0 0 0 0 0 0 0 0 0 0 0 0 0 0 0 0 0 0 0 0 0 0 0 0 0 0 0 0 0 0 0 0 0 0 0 0 0 0 0 0 0 0 0 0 0 0 0 0 0 0 0 0 0 0 0 0 0 0 0 0 0 0 0 0 0 0 0 0 0 0 0 0 0 0 0 0 0 0 0 0 0 0 0 0 0 0 0 0 0 0 0 0 0 0 0 0 0 0 0 0 0 0 0 0 0 0 0 0 0 0 0 0 0 0 0 0 0 0 0 0 0 826 865 855 845 845 817 836 817 808 808 782 791 782 774 782 758 766 774 774 774 774 774 774 766 782 774 758 743 735 728 721 707 707 707 700 700 700 700 700 700 707 700 687 681 687 669 669 657 645 645 645 629 623 613 613 603 603 598 593 579 566 561 553 549 541 533 529 529 525 525 518 507 504 500 500 493 490 487 484 484 484 487 481 481 481 481 474 471 459 462 457 457 454 451 457 0 465 474 0 474 468 462 459 459 0 0 0 0 0 0
    0 0 0 0 0 0 0 0 0 0 0 0 0 0 0 0 0 0 0 0 0 0 0 0 0 0 0 0 0 0 0 0 0 0 0 0 0 0 0 0 0 0 0 0 0 0 0 0 0 0 0 0 0 0 0 0 0 0 0 0 0 0 0 0 0 0 0 0 0 799 791 782 774 743 743 743 743 758 766 774 791 791 799 799 808 0 0 0 0 0 0 0 0 0 0 0 0 0 0 0 0 0 0 0 0 0 0 0 0 0 0 0 0 0 0 0 0 0 0 0 0 0 0 0 0 0 0 0 0 0 0 0 0 0 0 0 0 0 0 0 0 0 0 0 0 0 0 0 0 0 0 0 0 0 0 0 0 0 0 0 0 0 0 0 0 0 0 0 0 0 0 0 0 0 0 0 0 0 0 0 0 0 0 0 0 0 0 0 0 0 0 0 0 0 0 0 0 0 0 0 0 0 0 0 0 0 0 0 0 0 0 845 836 836 826 808 826 817 808 799 774 782 774 766 774 750 758 758 758 758 758 750 750 743 758 750 743 728 721 714 707 700 700 700 694 694 694 700 694 707 707 700 694 681 687 669 675 663 651 651 645 634 629 618 618 608 603 603 598 584 566 566 557 553 545 533 533 529 529 525 518 511 504 500 497 493 490 487 484 0 484 487 481 481 481 481 474 471 459 462 457 451 451 448 454 457 459 474 477 474 471 468 468 0 0 0 0 0 0 0
    0 0 0 0 0 0 0 0 0 0 0 0 0 0 0 0 0 0 0 0 0 0 0 0 0 0 0 0 0 0 0 0 0 0 0 0 0 0 0 0 0 0 0 0 0 0 0 0 0 0 0 0 0 0 0 0 0 0 0 0 0 0 0 0 0 0 0 0 0 782 766 758 750 735 743 743 735 750 750 782 791 791 799 0 0 0 0 0 0 0 0 0 0 0 0 0 0 0 0 0 0 0 0 0 0 0 0 0 0 0 0 0 0 0 0 0 0 0 0 0 0 0 0 0 0 0 0 0 0 0 0 0 0 0 0 0 0 0 0 0 0 0 0 0 0 0 0 0 0 0 0 0 0 0 0 0 0 0 0 0 0 0 0 0 0 0 0 0 0 0 0 0 0 0 0 0 0 0 0 0 0 0 0 0 0 0 0 0 0 0 0 0 0 0 0 0 0 0 0 0 0 0 0 0 0 0 0 0 0 0 0 0 0 855 826 808 836 826 799 799 774 782 774 766 766 750 743 750 750 743 743 743 743 735 743 743 735 721 714 707 700 694 700 700 694 694 694 700 700 714 714 707 700 687 694 675 675 663 651 645 645 634 629 618 613 603 603 598 593 579 566 566 561 557 549 537 533 529 529 525 514 504 500 493 493 487 487 0 0 0 484 484 481 481 481 481 474 468 457 459 454 446 446 0 0 0 0 465 471 471 468 465 465 0 0 0 0 0 0 0
    0 0 0 0 0 0 0 0 0 0 0 0 0 0 0 0 0 0 0 0 0 0 0 0 0 0 0 0 0 0 0 0 0 0 0 0 0 0 0 0 0 0 0 0 0 0 0 0 0 0 0 0 0 0 0 0 0 0 0 0 0 0 0 0 0 0 0 0 0 735 728 735 735 728 743 743 735 750 758 774 782 782 0 0 0 0 0 0 0 0 0 0 0 0 0 0 0 0 0 0 0 0 0 0 0 0 0 0 0 0 0 0 0 0 0 0 0 0 0 0 0 0 0 0 0 0 0 0 0 0 0 0 0 0 0 0 0 0 0 0 0 0 0 0 0 0 0 0 0 0 0 0 0 0 0 0 0 0 0 0 0 0 0 0 0 0 0 0 0 0 0 0 0 0 0 0 0 0 0 0 0 0 0 0 0 0 0 0 0 0 0 0 0 0 0 0 0 0 0 0 0 0 0 0 0 0 0 0 0 0 0 0 0 0 855 836 845 836 808 808 766 791 774 766 766 743 735 743 735 735 735 728 721 714 721 728 714 707 0 700 694 694 694 694 687 694 694 700 694 707 707 700 707 687 694 675 675 663 645 639 634 629 623 618 613 603 603 598 598 584 570 566 557 553 545 533 525 525 521 521 511 504 497 493 493 487 490 0 0 0 0 0 484 481 481 481 477 474 465 462 459 448 448 0 0 0 0 454 454 459 459 459 462 462 457 0 0 0 0 0
    0 0 0 0 0 0 0 0 0 0 0 0 0 0 0 0 0 0 0 0 0 0 0 0 0 0 0 0 0 0 0 0 0 0 0 0 0 0 0 0 0 0 0 0 0 0 0 0 0 0 0 0 0 0 0 0 0 0 0 0 0 0 0 0 0 0 0 0 0 707 700 707 714 714 728 728 735 743 750 766 0 0 0 0 0 0 0 0 0 0 0 0 0 0 0 0 0 0 0 0 0 0 0 0 0 0 0 0 0 0 0 0 0 0 0 0 0 0 0 0 0 0 0 0 0 0 0 0 0 0 0 0 0 0 0 0 0 0 0 0 0 0 0 0 0 0 0 0 0 0 0 0 0 0 0 0 0 0 0 0 0 0 0 0 0 0 0 0 0 0 0 0 0 0 0 0 0 0 0 0 0 0 0 0 0 0 0 0 0 0 0 0 0 0 0 0 0 0 0 0 0 0 0 0 0 0 0 0 0 0 0 0 0 0 0 855 855 855 826 817 774 799 782 774 766 743 728 735 728 721 721 714 707 700 700 707 700 694 694 694 687 687 694 687 681 687 687 694 687 694 694 694 700 681 681 675 675 669 645 634 629 629 623 618 613 603 603 598 598 584 566 561 553 549 541 529 521 518 518 518 507 504 500 497 500 493 500 493 493 0 0 487 484 481 481 481 477 474 468 465 465 459 454 443 0 448 440 446 0 0 446 440 0 448 440 0 0 0 0 0
    0 0 0 0 0 0 0 0 0 0 0 0 0 0 0 0 0 0 0 0 0 0 0 0 0 0 0 0 0 0 0 0 0 0 0 0 0 0 0 0 0 0 0 0 0 0 0 0 0 0 0 0 0 0 0 0 0 0 0 0 0 0 0 0 0 0 0 0 0 687 687 694 700 707 721 721 735 735 743 0 0 0 0 0 0 0 0 0 0 0 0 0 0 0 0 0 0 0 0 0 0 0 0 0 0 0 0 0 0 0 0 0 0 0 0 0 0 0 0 0 0 0 0 0 0 0 0 0 0 0 0 0 0 0 0 0 0 0 0 0 0 0 0 0 0 0 0 0 0 0 0 0 0 0 0 0 0 0 0 0 0 0 0 0 0 0 0 0 0 0 0 0 0 0 0 0 0 0 0 0 0 0 0 0 0 0 0 0 0 0 0 0 0 0 0 0 0 0 0 0 0 0 0 0 0 0 0 0 0 0 0 0 0 0 0 0 0 836 836 817 758 791 791 758 758 735 721 721 728 721 714 707 700 694 700 707 694 694 687 687 681 687 687 675 675 687 675 681 681 687 687 687 700 681 681 675 675 675 639 634 629 629 629 623 623 613 608 608 603 588 566 561 549 545 537 529 521 521 518 521 514 511 507 504 504 497 507 0 0 0 0 490 487 484 484 481 481 477 468 468 468 459 454 0 0 446 0 0 0 0 0 0 0 0 0 0 0 0 0 0
    0 0 0 0 0 0 0 0 0 0 0 0 0 0 0 0 0 0 0 0 0 0 0 0 0 0 0 0 0 0 0 0 0 0 0 0 0 0 0 0 0 0 0 0 0 0 0 0 0 0 0 0 0 0 0 0 0 0 0 0 0 0 0 0 0 0 0 0 0 687 687 694 700 707 714 714 721 0 0 0 0 0 0 0 0 0 0 0 0 0 0 0 0 0 0 0 0 0 0 0 0 0 0 0 0 0 0 0 0 0 0 0 0 0 0 0 0 0 0 0 0 0 0 0 0 0 0 0 0 0 0 0 0 0 0 0 0 0 0 0 0 0 0 0 0 0 0 0 0 0 0 0 0 0 0 0 0 0 0 0 0 0 0 0 0 0 0 0 0 0 0 0 0 0 0 0 0 0 0 0 0 0 0 0 0 0 0 0 0 0 0 0 0 0 0 0 0 0 0 0 0 0 0 0 0 0 0 0 0 0 0 0 0 0 0 0 0 0 817 817 774 799 799 766 774 743 728 728 728 721 714 707 700 694 694 700 687 687 681 681 675 675 681 663 669 681 663 675 669 681 681 681 694 669 663 663 663 669 639 634 634 634 634 629 634 623 613 613 603 593 570 561 553 549 541 533 529 525 521 525 521 518 518 514 514 511 514 504 504 504 0 493 487 484 484 481 481 477 468 468 465 459 454 443 443 446 0 0 0 0 0 0 0 0 0 0 0 0 0 0
    0 0 0 0 0 0 0 0 0 0 0 0 0 0 0 0 0 0 0 0 0 0 0 0 0 0 0 0 0 0 0 0 0 0 0 0 0 0 0 0 0 0 0 0 0 0 0 0 0 0 0 0 0 0 0 0 0 0 0 0 0 0 0 0 0 0 0 0 0 687 687 694 700 700 707 707 0 0 0 0 0 0 0 0 0 0 0 0 0 0 0 0 0 0 0 0 0 0 0 0 0 0 0 0 0 0 0 0 0 0 0 0 0 0 0 0 0 0 0 0 0 0 0 0 0 0 0 0 0 0 0 0 0 0 0 0 0 0 0 0 0 0 0 0 0 0 0 0 0 0 0 0 0 0 0 0 0 0 0 0 0 0 0 0 0 0 0 0 0 0 0 0 0 0 0 0 0 0 0 0 0 0 0 0 0 0 0 0 0 0 0 0 0 0 0 0 0 0 0 0 0 0 0 0 0 0 0 0 0 0 0 0 0 0 0 0 0 0 0 791 750 766 799 766 774 743 728 728 728 714 721 707 700 694 694 694 681 681 675 675 669 669 669 645 657 675 657 663 651 669 669 663 669 645 634 639 639 663 629 634 639 639 639 634 639 629 618 613 608 598 579 561 553 549 545 533 529 525 525 529 525 521 521 518 518 511 514 504 500 500 493 487 484 481 481 477 477 474 468 468 465 457 448 440 440 443 0 0 0 0 0 0 0 446 440 0 0 0 0 0
    0 0 0 0 0 0 0 0 0 0 0 0 0 0 0 0 0 0 0 0 0 0 0 0 0 0 0 0 0 0 0 0 0 0 0 0 0 0 0 0 0 0 0 0 0 0 0 0 0 0 0 0 0 0 0 0 0 0 0 0 0 0 0 0 0 0 0 0 0 687 694 694 694 700 0 0 0 0 0 0 0 0 0 0 0 0 0 0 0 0 0 0 0 0 0 0 0 0 0 0 0 0 0 0 0 0 0 0 0 0 0 0 0 0 0 0 0 0 0 0 0 0 0 0 0 0 0 0 0 0 0 0 0 0 0 0 0 0 0 0 0 0 0 0 0 0 0 0 0 0 0 0 0 0 0 0 0 0 0 0 0 0 0 0 0 0 0 0 0 0 0 0 0 0 0 0 0 0 0 0 0 0 0 0 0 0 0 0 0 0 0 0 0 0 0 0 0 0 0 0 0 0 0 0 0 0 0 0 0 0 0 0 0 0 0 0 0 0 0 0 766 735 782 758 774 735 721 721 721 714 721 700 700 687 694 694 675 681 669 669 663 663 663 639 651 675 651 663 651 669 663 657 669 639 639 645 645 669 639 639 657 657 657 645 645 634 618 618 613 603 593 579 557 553 549 537 533 533 529 529 529 525 525 521 521 514 514 504 500 497 487 481 481 477 477 477 477 477 471 474 471 462 457 446 443 443 0 0 0 0 0 0 443 440 435 0 0 0 0 0
    0 0 0 0 0 0 0 0 0 0 0 0 0 0 0 0 0 0 0 0 0 0 0 0 0 0 0 0 0 0 0 0 0 0 0 0 0 0 0 0 0 0 0 0 0 0 0 0 0 0 0 0 0 0 0 0 0 0 0 0 0 0 0 0 0 0 0 0 0 687 687 694 694 0 0 0 0 0 0 0 0 0 0 0 0 0 0 0 0 0 0 0 0 0 0 0 0 0 0 0 0 0 0 0 0 0 0 0 0 0 0 0 0 0 0 0 0 0 0 0 0 0 0 0 0 0 0 0 0 0 0 0 0 0 0 0 0 0 0 0 0 0 0 0 0 0 0 0 0 0 0 0 0 0 0 0 0 0 0 0 0 0 0 0 0 0 0 0 0 0 0 0 0 0 0 0 0 0 0 0 0 0 0 0 0 0 0 0 0 0 0 0 0 0 0 0 0 0 0 0 0 0 0 0 0 0 0 0 0 0 0 0 0 0 0 0 0 0 0 0 0 782 791 782 799 743 714 714 714 714 714 700 694 681 687 687 675 675 669 663 651 657 663 639 651 675 645 651 645 669 663 645 663 639 634 645 645 663 634 639 663 663 663 657 645 629 618 613 608 603 598 588 566 561 557 545 537 537 533 533 529 525 525 525 521 514 514 500 493 490 481 477 477 477 477 474 477 477 474 481 477 471 465 0 462 0 0 0 0 0 0 432 435 432 430 0 0 0 0 0
    0 0 0 0 0 0 0 0 0 0 0 0 0 0 0 0 0 0 0 0 0 0 0 0 0 0 0 0 0 0 0 0 0 0 0 0 0 0 0 0 0 0 0 0 0 0 0 0 0 0 0 0 0 0 0 0 0 0 0 0 0 0 0 0 0 0 0 0 0 681 687 0 0 0 0 0 0 0 0 0 0 0 0 0 0 0 0 0 0 0 0 0 0 0 0 0 0 0 0 0 0 0 0 0 0 0 0 0 0 0 0 0 0 0 0 0 0 0 0 0 0 0 0 0 0 0 0 0 0 0 0 0 0 0 0 0 0 0 0 0 0 0 0 0 0 0 0 0 0 0 0 0 0 0 0 0 0 0 0 0 0 0 0 0 0 0 0 0 0 0 0 0 0 0 0 0 0 0 0 0 0 0 0 0 0 0 0 0 0 0 0 0 0 0 0 0 0 0 0 0 0 0 0 0 0 0 0 0 0 0 0 0 0 0 0 0 0 0 0 0 0 0 0 799 808 766 721 721 721 721 714 700 694 681 681 681 669 675 663 663 645 645 651 629 634 651 629 634 634 657 645 634 645 629 629 634 629 639 613 618 645 639 651 639 629 618 608 608 608 603 593 584 566 557 557 545 541 537 533 533 529 525 529 529 525 518 514 504 497 490 481 477 477 477 481 477 477 477 477 481 477 474 468 459 459 0 0 0 0 0 427 425 430 427 425 0 0 0 0 0
    0 0 0 0 0 0 0 0 0 0 0 0 0 0 0 0 0 0 0 0 0 0 0 0 0 0 0 0 0 0 0 0 0 0 0 0 0 0 0 0 0 0 0 0 0 0 0 0 0 0 0 0 0 0 0 0 0 0 0 0 0 0 0 0 0 0 0 0 0 675 0 0 0 0 0 0 0 0 0 0 0 0 0 0 0 0 0 0 0 0 0 0 0 0 0 0 0 0 0 0 0 0 0 0 0 0 0 0 0 0 0 0 0 0 0 0 0 0 0 0 0 0 0 0 0 0 0 0 0 0 0 0 0 0 0 0 0 0 0 0 0 0 0 0 0 0 0 0 0 0 0 0 0 0 0 0 0 0 0 0 0 0 0 0 0 0 0 0 0 0 0 0 0 0 0 0 0 0 0 0 0 0 0 0 0 0 0 0 0 0 0 0 0 0 0 0 0 0 0 0 0 0 0 0 0 0 0 0 0 0 0 0 0 0 0 0 0 0 0 0 0 0 0 0 799 774 735 728 735 721 714 694 700 681 687 681 663 669 657 651 634 634 634 623 623 634 613 623 629 645 645 629 639 629 629 634 629 629 613 608 623 608 629 618 608 608 608 613 613 608 598 588 566 557 553 549 541 541 533 533 529 529 533 533 529 533 521 521 511 497 484 484 481 481 481 481 481 481 481 481 481 477 474 477 477 0 0 0 0 418 422 422 425 422 418 0 0 0 0 0
    0 0 0 0 0 0 0 0 0 0 0 0 0 0 0 0 0 0 0 0 0 0 0 0 0 0 0 0 0 0 0 0 0 0 0 0 0 0 0 0 0 0 0 0 0 0 0 0 0 0 0 0 0 0 0 0 0 0 0 0 0 0 0 0 0 0 0 0 0 0 0 0 0 0 0 0 0 0 0 0 0 0 0 0 0 0 0 0 0 0 0 0 0 0 0 0 0 0 0 0 0 0 0 0 0 0 0 0 0 0 0 0 0 0 0 0 0 0 0 0 0 0 0 0 0 0 0 0 0 0 0 0 0 0 0 0 0 0 0 0 0 0 0 0 0 0 0 0 0 0 0 0 0 0 0 0 0 0 0 0 0 0 0 0 0 0 0 0 0 0 0 0 0 0 0 0 0 0 0 0 0 0 0 0 0 0 0 0 0 0 0 0 0 0 0 0 0 0 0 0 0 0 0 0 0 0 0 0 0 0 0 0 0 0 0 0 0 0 0 0 0 0 0 0 0 791 758 728 735 728 714 700 694 687 687 681 657 663 651 639 629 623 623 618 618 629 608 0 0 645 639 629 634 629 634 634 629 623 613 613 618 608 618 608 603 613 608 618 608 603 598 588 570 566 561 553 549 545 537 533 529 529 529 525 521 518 511 511 500 493 487 484 481 487 484 481 481 481 481 484 481 484 474 477 477 468 0 0 0 425 425 425 427 422 420 0 0 0 0 0
    0 0 0 0 0 0 0 0 0 0 0 0 0 0 0 0 0 0 0 0 0 0 0 0 0 0 0 0 0 0 0 0 0 0 0 0 0 0 0 0 0 0 0 0 0 0 0 0 0 0 0 0 0 0 0 0 0 0 0 0 0 0 0 0 0 0 0 0 0 0 0 0 0 0 0 0 0 0 0 0 0 0 0 0 0 0 0 0 0 0 0 0 0 0 0 0 0 0 0 0 0 0 0 0 0 0 0 0 0 0 0 0 0 0 0 0 0 0 0 0 0 0 0 0 0 0 0 0 0 0 0 0 0 0 0 0 0 0 0 0 0 0 0 0 0 0 0 0 0 0 0 0 0 0 0 0 0 0 0 0 0 0 0 0 0 0 0 0 0 0 0 0 0 0 0 0 0 0 0 0 0 0 0 0 0 0 0 0 0 0 0 0 0 0 0 0 0 0 0 0 0 0 0 0 0 0 0 0 0 0 0 0 0 0 0 0 0 0 0 0 0 0 0 0 0 0 766 728 735 728 721 707 707 694 694 681 663 663 651 634 623 623 623 618 613 618 608 0 0 645 639 623 629 623 629 629 623 618 608 603 613 603 603 598 584 598 598 603 603 593 588 588 584 588 574 566 557 553 549 541 537 533 529 521 514 507 500 504 497 490 484 481 477 484 484 481 477 477 481 484 481 481 477 477 477 468 462 446 0 430 430 430 430 427 425 0 0 0 0 0
    0 0 0 0 0 0 0 0 0 0 0 0 0 0 0 0 0 0 0 0 0 0 0 0 0 0 0 0 0 0 0 0 0 0 0 0 0 0 0 0 0 0 0 0 0 0 0 0 0 0 0 0 0 0 0 0 0 0 0 0 0 0 0 0 0 0 0 0 0 0 0 0 0 0 0 0 0 0 0 0 0 0 0 0 0 0 0 0 0 0 0 0 0 0 0 0 0 0 0 0 0 0 0 0 0 0 0 0 0 0 0 0 0 0 0 0 0 0 0 0 0 0 0 0 0 0 0 0 0 0 0 0 0 0 0 0 0 0 0 0 0 0 0 0 0 0 0 0 0 0 0 0 0 0 0 0 0 0 0 0 0 0 0 0 0 0 0 0 0 0 0 0 0 0 0 0 0 0 0 0 0 0 0 0 0 0 0 0 0 0 0 0 0 0 0 0 0 0 0 0 0 0 0 0 0 0 0 0 0 0 0 0 0 0 0 0 0 0 0 0 0 0 0 0 0 0 0 728 714 721 714 700 700 681 687 675 657 657 639 629 623 618 613 613 608 608 603 603 0 0 634 623 0 618 623 623 618 613 603 598 603 603 598 588 574 593 588 593 593 588 588 593 584 593 584 579 570 561 553 549 545 537 533 525 521 514 507 511 500 490 484 481 481 484 481 481 477 477 477 487 484 481 477 481 477 471 465 451 438 432 432 432 435 430 430 0 0 0 0 0
    0 0 0 0 0 0 0 0 0 0 0 0 0 0 0 0 0 0 0 0 0 0 0 0 0 0 0 0 0 0 0 0 0 0 0 0 0 0 0 0 0 0 0 0 0 0 0 0 0 0 0 0 0 0 0 0 0 0 0 0 0 0 0 0 0 0 0 0 0 0 0 0 0 0 0 0 0 0 0 0 0 0 0 0 0 0 0 0 0 0 0 0 0 0 0 0 0 0 0 0 0 0 0 0 0 0 0 0 0 0 0 0 0 0 0 0 0 0 0 0 0 0 0 0 0 0 0 0 0 0 0 0 0 0 0 0 0 0 0 0 0 0 0 0 0 0 0 0 0 0 0 0 0 0 0 0 0 0 0 0 0 0 0 0 0 0 0 0 0 0 0 0 0 0 0 0 0 0 0 0 0 0 0 0 0 0 0 0 0 0 0 0 0 0 0 0 0 0 0 0 0 0 0 0 0 0 0 0 0 0 0 0 0 0 0 0 0 0 0 0 0 0 0 0 0 0 0 0 0 728 721 700 700 687 694 675 663 651 634 629 618 613 603 608 598 598 593 593 598 0 0 618 0 618 618 618 613 608 603 598 603 593 593 584 570 584 584 588 593 584 588 593 584 598 598 584 574 566 557 549 545 545 533 525 525 518 504 507 500 490 484 481 481 484 481 481 477 481 481 497 493 490 493 493 484 481 474 462 0 0 432 435 435 430 432 0 0 0 0 0
    0 0 0 0 0 0 0 0 0 0 0 0 0 0 0 0 0 0 0 0 0 0 0 0 0 0 0 0 0 0 0 0 0 0 0 0 0 0 0 0 0 0 0 0 0 0 0 0 0 0 0 0 0 0 0 0 0 0 0 0 0 0 0 0 0 0 0 0 0 0 0 0 0 0 0 0 0 0 0 0 0 0 0 0 0 0 0 0 0 0 0 0 0 0 0 0 0 0 0 0 0 0 0 0 0 0 0 0 0 0 0 0 0 0 0 0 0 0 0 0 0 0 0 0 0 0 0 0 0 0 0 0 0 0 0 0 0 0 0 0 0 0 0 0 0 0 0 0 0 0 0 0 0 0 0 0 0 0 0 0 0 0 0 0 0 0 0 0 0 0 0 0 0 0 0 0 0 0 0 0 0 0 0 0 0 0 0 0 0 0 0 0 0 0 0 0 0 0 0 0 0 0 0 0 0 0 0 0 0 0 0 0 0 0 0 0 0 0 0 0 0 0 0 0 0 0 0 0 0 0 721 681 687 687 687 669 657 639 629 618 613 608 603 603 598 593 593 588 598 0 0 613 613 613 613 613 613 603 598 593 598 588 584 579 561 570 566 570 574 566 570 579 570 593 593 588 593 574 566 553 549 545 533 529 525 514 504 504 500 487 481 481 484 487 484 484 481 484 484 493 493 497 504 490 481 484 474 468 454 446 438 432 432 427 430 0 0 0 0 0
    0 0 0 0 0 0 0 0 0 0 0 0 0 0 0 0 0 0 0 0 0 0 0 0 0 0 0 0 0 0 0 0 0 0 0 0 0 0 0 0 0 0 0 0 0 0 0 0 0 0 0 0 0 0 0 0 0 0 0 0 0 0 0 0 0 0 0 0 0 0 0 0 0 0 0 0 0 0 0 0 0 0 0 0 0 0 0 0 0 0 0 0 0 0 0 0 0 0 0 0 0 0 0 0 0 0 0 0 0 0 0 0 0 0 0 0 0 0 0 0 0 0 0 0 0 0 0 0 0 0 0 0 0 0 0 0 0 0 0 0 0 0 0 0 0 0 0 0 0 0 0 0 0 0 0 0 0 0 0 0 0 0 0 0 0 0 0 0 0 0 0 0 0 0 0 0 0 0 0 0 0 0 0 0 0 0 0 0 0 0 0 0 0 0 0 0 0 0 0 0 0 0 0 0 0 0 0 0 0 0 0 0 0 0 0 0 0 0 0 0 0 0 0 0 0 0 0 0 0 0 0 694 687 687 694 663 651 645 629 618 613 608 598 598 588 584 579 574 584 593 598 603 603 603 608 608 608 598 593 593 593 584 584 574 561 566 557 557 557 549 549 553 549 570 566 561 570 561 557 553 549 545 0 529 533 521 514 511 504 490 484 481 484 487 481 481 477 481 481 487 487 487 490 487 477 477 468 462 454 443 435 435 432 427 427 0 0 0 0 0
    0 0 0 0 0 0 0 0 0 0 0 0 0 0 0 0 0 0 0 0 0 0 0 0 0 0 0 0 0 0 0 0 0 0 0 0 0 0 0 0 0 0 0 0 0 0 0 0 0 0 0 0 0 0 0 0 0 0 0 0 0 0 0 0 0 0 0 0 0 0 0 0 0 0 0 0 0 0 0 0 0 0 0 0 0 0 0 0 0 0 0 0 0 0 0 0 0 0 0 0 0 0 0 0 0 0 0 0 0 0 0 0 0 0 0 0 0 0 0 0 0 0 0 0 0 0 0 0 0 0 0 0 0 0 0 0 0 0 0 0 0 0 0 0 0 0 0 0 0 0 0 0 0 0 0 0 0 0 0 0 0 0 0 0 0 0 0 0 0 0 0 0 0 0 0 0 0 0 0 0 0 0 0 0 0 0 0 0 0 0 0 0 0 0 0 0 0 0 0 0 0 0 0 0 0 0 0 0 0 0 0 0 0 0 0 0 0 0 0 0 0 0 0 0 0 0 0 0 0 0 0 0 0 721 707 669 657 639 623 618 613 603 593 593 584 574 570 566 570 574 579 588 588 588 598 598 603 598 593 593 593 588 584 574 557 561 557 553 549 541 541 541 545 553 545 545 545 549 541 537 537 533 0 533 537 525 518 511 504 490 481 477 481 481 477 477 471 477 474 0 484 487 500 487 477 477 468 459 451 440 435 435 435 427 430 0 0 0 0 0</data></depth>
</opencv_storage>
