<?xml version="1.0"?>
<opencv_storage>
<gps_time_stamp>292636</gps_time_stamp>
<gps_x>-1.2349946975708008e+001</gps_x>
<gps_y>1.1124953269958496e+001</gps_y>
<gps_z>-2.2555251121520996e+000</gps_z>
<image_time_stamp>283457</image_time_stamp>
<depth type_id="opencv-matrix">
  <rows>95</rows>
  <cols>320</cols>
  <dt>s</dt>
  <data>
    0 0 0 0 0 0 0 0 0 0 0 0 0 0 0 0 0 0 0 0 0 0 0 0 0 0 0 0 0 0 0 0 0 0 0 0 0 0 0 0 0 0 0 0 0 0 0 0 0 0 0 0 0 0 0 0 0 0 0 0 0 0 0 0 0 0 0 0 0 943 931 908 886 876 886 876 855 855 826 855 845 845 836 865 855 845 845 855 845 845 836 855 826 817 826 836 836 836 836 845 836 836 845 845 836 845 826 845 855 865 855 836 836 855 845 855 845 826 817 817 855 855 826 836 836 799 817 817 808 826 817 826 817 836 855 855 865 886 876 876 826 826 808 791 808 808 791 791 808 826 826 845 845 836 845 845 845 855 0 0 0 0 0 808 808 808 799 799 791 782 791 799 782 774 791 774 758 766 774 766 766 774 774 758 0 108 0 0 0 0 0 758 774 791 808 808 791 791 774 774 750 750 750 743 735 735 743 735 743 758 750 750 758 766 758 750 743 750 735 728 728 714 735 735 728 735 743 728 743 750 743 735 743 750 735 750 758 750 743 758 750 735 728 758 721 728 721 728 728 728 735 774 743 758 750 728 721 707 707 707 694 700 700 707 707 0 0 721 721 714 700 0 687 0 687 669 663 639 0 0 0 0 0 0 0 0 0 0 0 0 0 0 0 714 714 721 714 707 694 687 707 707 707 707 707 707 714 721 758 0 0 0 0 0 0 0 0 0 0 0
    0 0 0 0 0 0 0 0 0 0 0 0 0 0 0 0 0 0 0 0 0 0 0 0 0 0 0 0 0 0 0 0 0 0 0 0 0 0 0 0 0 0 0 0 0 0 0 0 0 0 0 0 0 0 0 0 0 0 0 0 0 0 0 0 0 0 0 0 0 968 943 0 0 876 876 865 845 845 826 845 845 855 836 865 865 855 855 865 855 845 845 865 826 826 836 836 836 836 845 845 836 836 845 836 836 836 817 845 865 876 865 845 845 855 855 865 855 826 817 817 845 845 826 826 826 791 799 799 799 817 808 817 808 826 845 836 855 876 865 865 817 817 799 791 808 808 791 791 799 826 826 836 836 826 836 826 836 0 0 0 0 0 0 808 808 808 799 799 791 782 799 799 782 774 791 782 758 774 774 766 766 774 782 0 0 109 0 0 108 0 735 750 766 782 817 817 808 808 782 774 750 750 750 743 728 728 735 735 743 758 750 750 758 766 766 758 743 758 728 728 728 714 735 735 728 735 743 735 750 758 743 735 750 758 735 750 750 750 743 750 750 735 728 750 721 728 721 728 721 728 743 782 750 774 758 728 728 714 714 707 700 707 707 721 721 721 735 728 735 728 714 0 694 707 700 681 687 663 0 681 0 694 694 0 0 0 0 0 0 0 0 342 0 721 728 721 714 714 700 687 700 700 700 707 707 714 714 728 766 0 0 0 0 0 0 0 0 0 0 0
    0 0 0 0 0 0 0 0 0 0 0 0 0 0 0 0 0 0 0 0 0 0 0 0 0 0 0 0 0 0 0 0 0 0 0 0 0 0 0 0 0 0 0 0 0 0 0 0 0 0 0 0 0 0 0 0 0 0 0 0 0 0 0 0 0 0 0 0 0 0 0 0 0 886 886 876 845 845 817 845 855 855 845 865 865 855 855 865 855 845 845 855 826 826 836 836 836 836 836 836 836 836 826 826 826 826 817 845 876 886 876 855 855 865 865 865 865 826 817 817 845 845 826 826 826 791 808 791 799 808 808 817 799 817 836 817 836 845 855 845 791 799 791 782 808 799 791 791 799 826 817 826 826 817 826 817 817 0 0 0 0 0 0 808 808 808 808 799 791 791 799 799 782 774 782 774 750 774 774 774 774 782 782 766 0 0 0 0 0 0 728 735 750 791 845 836 0 817 782 774 758 750 750 735 728 728 735 735 743 766 758 758 774 774 791 766 750 758 735 735 728 714 735 735 728 735 743 743 750 758 743 735 743 750 735 750 750 743 735 750 750 735 728 750 728 728 728 728 721 735 750 782 758 791 774 743 735 714 721 714 0 714 707 721 721 721 735 728 743 735 721 0 700 707 707 687 700 675 0 0 735 0 0 0 0 0 0 0 0 0 0 0 707 714 714 714 714 707 694 681 700 707 707 707 714 714 714 735 0 0 0 0 0 0 0 0 0 0 0 0
    0 0 0 0 0 0 0 0 0 0 0 0 0 0 0 0 0 0 0 0 0 0 0 0 0 0 0 0 0 0 0 0 0 0 0 0 0 0 0 0 0 0 0 0 0 0 0 0 0 0 0 0 0 0 0 0 0 0 0 0 0 0 0 0 0 0 0 0 0 0 0 0 0 886 886 886 865 855 0 855 865 865 845 865 855 845 845 855 845 836 836 845 826 826 836 836 836 836 836 836 836 836 826 826 826 826 826 855 886 897 886 865 865 876 876 876 876 826 826 826 855 845 826 836 836 808 817 808 808 817 808 808 791 791 817 791 0 791 799 799 766 791 782 774 799 799 791 782 782 808 791 808 808 799 817 808 817 826 808 0 0 0 0 808 808 808 808 799 791 782 799 791 774 774 774 766 743 758 766 766 782 782 774 758 750 0 0 0 0 0 707 0 735 808 855 855 836 817 782 766 743 735 735 728 721 721 735 743 750 758 766 774 0 782 791 774 766 774 743 758 728 721 743 743 728 743 743 743 750 758 750 735 743 750 735 750 743 743 743 750 750 735 735 750 728 735 735 735 728 743 750 791 758 791 766 743 735 721 721 714 707 721 714 721 728 721 735 721 735 728 714 714 700 707 714 694 707 694 735 743 758 735 728 0 0 0 0 0 0 700 707 0 700 700 700 707 700 694 681 681 700 707 707 707 714 714 714 735 0 0 0 0 0 0 0 0 0 0 0 0
    0 0 0 0 0 0 0 0 0 0 0 0 0 0 0 0 0 0 0 0 0 0 0 0 0 0 0 0 0 0 0 0 0 0 0 0 0 0 0 0 0 0 0 0 0 0 0 0 0 0 0 0 0 0 0 0 0 0 0 0 0 0 0 0 0 0 0 0 0 0 0 0 0 0 886 886 0 865 0 855 865 876 855 855 855 845 845 855 845 836 836 845 836 836 836 845 836 836 845 836 836 836 826 836 826 836 836 855 897 897 886 865 876 876 876 886 886 826 826 826 855 836 826 826 836 817 836 817 826 826 817 808 782 758 799 0 0 0 0 758 750 791 791 782 808 817 799 791 799 808 791 799 782 782 808 808 817 826 0 836 845 0 0 808 817 817 808 808 791 782 799 774 766 766 774 766 743 750 758 758 774 782 766 750 735 735 721 0 0 694 0 707 721 782 845 845 836 817 791 766 0 0 735 728 728 735 750 758 766 774 791 791 808 799 799 799 799 799 782 791 743 728 750 758 735 743 743 750 750 758 750 735 743 750 735 743 735 735 735 743 743 735 735 750 728 735 735 735 728 758 750 782 743 774 743 728 721 714 721 714 707 721 721 728 721 721 735 714 721 721 700 707 700 707 707 694 714 714 758 766 766 758 750 750 750 728 728 714 714 707 714 700 707 700 700 707 700 700 687 681 700 700 700 707 707 714 714 735 0 0 0 0 0 0 0 0 0 0 0 0
    0 0 0 0 0 0 0 0 0 0 0 0 0 0 0 0 0 0 0 0 0 0 0 0 0 0 0 0 0 0 0 0 0 0 0 0 0 0 0 0 0 0 0 0 0 0 0 0 0 0 0 0 0 0 0 0 0 0 0 0 0 0 0 0 0 0 0 0 0 0 0 0 0 0 0 0 0 876 0 865 886 897 855 855 855 845 845 855 845 836 836 836 836 836 845 845 845 845 845 836 836 826 826 836 826 836 836 845 897 897 886 865 876 876 876 897 897 817 826 817 855 826 817 826 826 826 865 826 855 845 836 0 758 714 0 0 0 0 0 743 743 799 791 799 817 826 808 799 808 817 791 791 774 782 808 817 826 0 0 0 0 0 817 808 808 799 808 799 782 774 799 758 758 758 758 758 743 758 758 766 774 782 766 750 728 721 707 700 0 687 0 0 0 799 845 845 826 817 791 0 0 0 735 735 743 766 766 774 782 791 808 808 826 817 817 826 826 826 817 808 750 750 766 766 735 743 735 750 750 758 750 735 743 750 743 750 735 735 743 743 743 735 728 743 735 735 743 735 735 774 766 0 743 0 735 721 714 707 714 714 707 721 721 728 728 721 735 721 728 728 707 714 700 714 714 700 714 714 750 774 774 774 766 766 782 766 743 728 721 714 714 707 714 707 707 707 707 700 694 681 694 694 694 700 700 707 707 735 0 0 0 0 0 0 0 0 0 0 0 0
    0 0 0 0 0 0 0 0 0 0 0 0 0 0 0 0 0 0 0 0 0 0 0 0 0 0 0 0 0 0 0 0 0 0 0 0 0 0 0 0 0 0 0 0 0 0 0 0 0 0 0 0 0 0 0 0 0 0 0 0 0 0 0 0 0 0 0 0 0 0 0 0 0 0 0 0 0 886 855 865 886 897 855 865 855 845 845 855 845 836 836 845 836 845 845 855 845 845 845 845 836 826 826 836 836 836 836 845 897 897 886 865 876 876 876 897 897 817 826 817 855 817 817 817 826 826 931 886 919 865 0 0 0 681 0 0 0 0 0 721 735 774 791 799 817 836 808 799 808 808 791 782 774 766 799 0 0 0 553 0 0 0 0 0 0 791 808 799 791 782 0 0 0 0 750 743 743 750 750 774 774 782 774 758 728 714 714 0 0 0 0 0 0 0 0 0 0 0 0 0 0 0 750 750 750 774 774 782 774 782 799 799 817 826 817 836 836 836 836 817 758 750 758 758 735 743 728 750 750 758 750 743 743 750 743 758 743 735 743 743 743 743 735 743 735 735 743 735 743 782 766 0 0 0 735 728 714 707 721 714 714 721 721 728 721 721 743 721 728 728 700 707 700 707 707 700 714 714 758 799 808 799 808 799 808 791 766 750 735 721 721 707 714 707 707 707 707 700 687 681 687 687 687 694 694 700 700 728 0 0 0 743 721 0 0 0 0 0 0 0
    0 0 0 0 0 0 0 0 0 0 0 0 0 0 0 0 0 0 0 0 0 0 0 0 0 0 0 0 0 0 0 0 0 0 0 0 0 0 0 0 0 0 0 0 0 0 0 0 0 0 0 0 0 0 0 0 0 0 0 0 0 0 0 0 0 0 0 0 0 0 0 0 0 0 0 0 0 0 876 865 897 897 865 865 855 845 845 845 845 836 836 836 836 845 845 855 855 845 845 845 845 826 826 826 836 836 826 845 886 897 886 865 876 876 876 897 886 817 817 826 855 817 817 826 826 826 981 968 981 955 0 0 0 663 651 669 663 639 645 0 0 735 782 817 826 865 836 808 817 836 791 774 774 808 808 0 0 588 561 545 0 0 0 0 0 0 0 0 0 0 0 276 274 273 0 728 728 0 0 0 774 791 774 774 735 721 728 714 0 721 681 0 0 0 0 232 0 0 0 0 0 0 750 758 750 774 774 774 774 782 808 808 826 836 826 845 845 855 845 817 758 758 750 758 735 743 728 750 750 758 750 743 743 750 743 758 735 735 743 743 743 750 735 743 743 743 750 735 750 782 0 0 0 0 735 728 714 714 721 721 721 728 728 735 728 728 750 721 728 728 707 707 700 707 714 700 714 714 750 799 799 799 808 799 817 808 791 782 750 721 721 707 707 700 700 700 694 687 675 675 681 681 681 687 694 694 700 743 0 766 743 743 721 0 0 0 0 0 0 0
    0 0 0 0 0 0 0 0 0 0 0 0 0 0 0 0 0 0 0 0 0 0 0 0 0 0 0 0 0 0 0 0 0 0 0 0 0 0 0 0 0 0 0 0 0 0 0 0 0 0 0 0 0 0 0 0 0 0 0 0 0 0 0 0 0 0 0 0 0 0 0 0 0 0 0 0 0 0 0 865 908 908 865 855 855 845 845 845 845 826 826 826 836 845 845 845 845 845 845 845 845 826 826 826 836 836 836 845 886 897 886 865 886 876 886 897 897 817 826 826 855 817 817 826 826 826 994 1008 1008 1022 1098 0 0 651 645 663 657 639 0 0 0 0 0 0 0 0 908 855 845 865 0 0 0 0 0 0 0 0 0 0 0 0 0 0 0 0 272 274 0 0 0 276 274 274 0 0 0 0 0 0 0 0 0 0 0 0 0 0 371 373 0 0 0 0 0 0 237 238 235 0 0 0 0 758 758 782 774 774 766 774 808 808 826 836 0 855 855 865 855 836 766 766 750 758 743 750 721 750 758 766 758 750 743 758 750 766 743 735 750 743 750 758 743 743 750 743 743 728 743 0 0 0 721 0 721 0 714 714 728 721 728 735 735 743 735 735 758 728 735 728 707 721 707 714 721 707 721 721 743 791 791 782 791 774 808 791 774 766 743 735 735 728 728 721 721 714 707 700 687 681 681 681 681 681 687 687 700 0 0 0 743 0 728 0 707 0 0 0 0 0
    0 0 0 0 0 0 0 0 0 0 0 0 0 0 0 0 0 0 0 0 0 0 0 0 0 0 0 0 0 0 0 0 0 0 0 0 0 0 0 0 0 0 0 0 0 0 0 0 0 0 0 0 0 0 0 0 0 0 0 0 0 0 0 0 0 0 0 0 0 855 855 0 0 0 0 0 0 0 0 0 897 897 855 855 845 836 836 836 845 826 826 826 836 845 845 845 855 845 845 845 845 826 826 836 836 836 836 845 886 897 886 855 886 876 886 897 886 817 826 826 855 817 808 817 826 817 994 994 1008 1022 1082 1226 0 0 669 681 687 669 0 0 0 0 0 0 0 0 931 865 845 0 0 0 0 0 0 0 0 0 0 0 0 0 0 0 0 0 272 274 0 0 0 276 274 274 0 0 0 0 0 0 0 0 0 0 0 0 0 0 0 377 0 0 0 0 0 234 236 236 235 0 0 0 0 766 774 791 782 791 774 774 808 808 0 826 826 855 865 876 845 826 766 758 743 750 735 743 721 758 766 766 758 750 743 758 750 774 735 743 750 743 750 766 743 743 750 743 735 728 735 0 0 0 0 0 0 0 707 707 721 721 735 743 743 743 743 743 758 728 735 728 714 721 707 714 721 714 728 728 735 766 758 743 728 728 743 735 735 735 721 721 728 735 728 721 721 714 707 700 694 687 681 681 681 681 687 687 694 0 0 0 0 0 707 0 0 0 0 0 0 0
    0 0 0 0 0 0 0 0 0 0 0 0 0 0 0 0 0 0 0 0 0 0 0 0 0 0 0 0 0 0 0 0 0 0 0 0 0 0 0 0 0 0 0 0 0 0 0 0 0 0 0 0 0 0 0 0 0 0 0 0 0 0 0 0 0 0 0 0 0 855 865 865 855 855 855 0 0 0 0 0 897 886 855 845 836 826 826 826 826 817 808 817 836 845 845 855 855 845 845 845 845 826 826 836 836 836 836 836 886 897 886 855 876 876 876 886 886 817 826 826 855 817 808 817 826 817 994 994 1008 1008 1051 1168 0 0 0 0 0 0 0 0 0 0 0 0 0 0 0 0 0 0 0 0 0 0 0 0 0 377 0 0 0 0 371 0 0 0 0 0 0 0 0 0 274 275 0 0 0 0 0 0 0 0 0 0 0 0 0 0 0 0 0 0 0 0 0 232 234 235 233 0 0 0 0 766 774 791 782 791 774 774 799 808 0 0 0 865 876 886 855 836 758 750 743 743 728 735 721 758 758 766 766 758 743 758 758 774 743 743 750 743 750 774 743 743 750 743 735 728 743 0 0 0 0 0 714 721 714 707 714 721 735 743 735 743 735 735 750 728 728 721 714 721 707 721 728 714 721 728 735 774 0 0 0 0 0 735 728 735 721 714 721 721 721 714 714 707 700 694 694 687 687 681 681 681 687 681 694 0 0 0 687 0 694 0 0 0 0 0 0 0
    0 0 0 0 0 0 0 0 0 0 0 0 0 0 0 0 0 0 0 0 0 0 0 0 0 0 0 0 0 0 0 0 0 0 0 0 0 0 0 0 0 0 0 0 0 0 0 0 0 0 0 0 0 0 0 0 0 0 0 0 0 0 0 0 0 0 0 0 0 855 865 855 845 836 845 0 0 0 0 0 886 876 855 836 836 826 826 817 826 808 808 817 836 836 845 845 855 845 845 845 845 826 836 836 836 836 836 845 886 897 876 855 876 876 876 886 886 808 817 826 845 817 808 817 817 817 1008 1022 1022 1022 1051 1149 1051 0 0 0 0 0 0 0 2374 0 0 0 0 0 0 0 0 0 0 0 0 0 0 0 0 377 0 0 0 0 375 0 0 0 0 0 0 0 0 0 0 0 0 0 0 0 1839 1989 0 0 0 0 0 0 0 0 0 0 0 0 0 0 0 0 0 233 231 0 0 0 0 774 782 791 782 782 766 766 791 791 0 0 0 855 865 876 855 836 766 758 743 743 728 743 721 758 766 766 766 758 735 766 758 782 743 743 750 743 743 766 735 735 743 743 728 728 743 0 0 0 0 0 721 735 714 714 714 721 735 743 735 735 721 728 735 728 728 721 714 721 714 735 728 721 714 721 728 758 0 0 0 0 0 766 750 750 728 721 728 728 721 721 714 707 700 694 694 687 681 681 681 681 681 681 694 0 0 0 681 0 681 675 0 0 0 0 0 0
    0 0 0 0 0 0 0 0 0 0 0 0 0 0 0 0 0 0 0 0 0 0 0 0 0 0 0 0 0 0 0 0 0 0 0 0 0 0 0 0 0 0 0 0 0 0 0 0 0 0 0 0 0 0 0 0 0 0 0 0 0 0 0 0 0 0 0 0 0 845 865 855 845 845 845 836 0 865 876 855 886 876 855 845 845 836 836 826 826 817 808 817 836 836 845 845 855 845 836 836 836 826 826 826 817 817 817 836 886 886 876 855 876 876 876 886 886 808 817 817 836 808 799 808 808 808 1036 1036 0 0 0 1098 1022 0 0 0 0 0 0 0 0 0 0 0 0 0 0 0 0 0 0 0 0 0 0 0 0 387 0 0 0 0 377 0 389 0 0 0 0 0 0 0 0 0 0 0 0 0 0 2044 0 0 0 0 0 0 0 0 0 0 0 0 0 0 0 0 0 0 0 0 0 0 0 799 791 799 782 774 750 743 766 0 0 0 0 886 908 919 865 845 774 758 735 735 721 735 714 750 766 766 766 766 735 766 758 774 743 743 743 735 743 766 735 728 735 735 721 721 735 735 0 0 721 721 728 743 721 721 728 735 743 743 735 735 721 728 735 728 721 721 714 728 728 758 743 735 721 728 743 0 0 0 0 0 0 0 728 728 0 0 721 728 721 721 714 707 707 700 694 681 675 675 669 669 675 681 687 0 0 663 669 0 675 663 663 0 0 0 0 0
    0 0 0 0 0 0 0 0 0 0 0 0 0 0 0 0 0 0 0 0 0 0 0 0 0 0 0 0 0 0 0 0 0 0 0 0 0 0 0 0 0 0 0 0 0 0 0 0 0 0 0 0 0 0 0 0 0 0 0 0 0 0 0 0 0 0 0 0 0 845 855 845 836 826 836 826 836 845 855 855 886 865 855 855 845 845 845 836 836 817 817 826 836 836 845 845 855 845 836 836 836 817 817 817 799 808 817 836 886 886 876 855 876 876 876 886 876 808 808 817 826 808 799 799 808 799 1008 994 0 0 0 0 981 0 876 0 0 0 0 0 0 0 0 0 0 0 0 0 0 0 0 0 0 0 0 0 0 0 0 0 0 379 379 379 387 0 0 0 0 0 0 0 0 0 0 0 0 0 0 0 0 0 0 865 876 897 0 0 0 0 0 0 0 0 0 0 0 0 0 0 0 0 0 799 799 799 0 0 0 694 0 681 0 0 0 955 943 955 908 876 808 766 728 721 714 728 714 750 766 766 766 774 743 774 766 774 750 750 750 743 743 766 728 728 735 735 714 721 735 728 0 0 721 728 735 750 728 728 743 743 758 743 735 735 721 735 735 728 728 721 721 728 735 750 743 735 707 0 0 0 0 0 0 0 0 0 0 0 0 0 714 721 714 714 707 707 700 700 694 681 675 669 669 663 669 675 681 0 0 651 657 663 669 663 669 0 0 0 0 0
    0 0 0 0 0 0 0 0 0 0 0 0 0 0 0 0 0 0 0 0 0 0 0 0 0 0 0 0 0 0 0 0 0 0 0 0 0 0 0 0 0 0 0 0 0 0 0 0 0 0 0 0 0 0 0 0 0 0 0 0 0 0 0 0 0 0 0 0 0 845 855 845 845 836 845 836 845 845 0 855 876 865 855 855 845 845 845 836 836 817 817 826 836 836 845 845 855 845 826 836 826 817 817 808 808 817 817 845 886 886 876 855 876 876 876 886 876 808 808 817 826 817 799 799 808 808 981 886 0 943 931 981 955 943 897 0 0 0 0 0 0 0 0 0 0 0 0 0 0 0 0 0 0 0 0 0 0 0 0 0 0 0 0 0 0 0 0 0 0 0 0 0 0 0 0 0 0 0 0 0 0 0 0 0 886 0 0 968 0 0 0 0 0 0 0 305 305 0 0 227 0 0 0 0 0 0 0 0 0 663 0 0 0 0 0 0 955 968 908 897 845 0 0 0 0 735 721 750 774 774 774 782 743 774 774 774 750 750 743 743 743 766 735 728 735 735 714 728 735 721 721 0 721 0 0 0 0 0 0 0 0 0 0 0 714 714 728 721 721 714 714 728 728 735 743 728 694 0 0 0 0 0 0 0 0 0 0 0 0 0 714 721 714 714 707 700 700 707 700 687 681 675 669 669 675 675 675 0 0 634 645 651 657 663 663 0 0 0 0 0
    0 0 0 0 0 0 0 0 0 0 0 0 0 0 0 0 0 0 0 0 0 0 0 0 0 0 0 0 0 0 0 0 0 0 0 0 0 0 0 0 0 0 0 0 0 0 0 0 0 0 0 0 0 0 0 0 0 0 0 0 0 0 0 0 0 0 0 0 0 845 865 855 855 845 855 836 845 836 0 855 865 855 845 845 845 845 845 836 826 817 826 836 845 836 845 855 855 845 836 836 836 826 817 808 808 817 817 845 886 886 876 855 865 876 876 876 876 799 808 817 826 817 808 808 808 808 981 865 0 968 955 981 968 968 919 0 0 0 0 0 0 0 0 0 0 0 0 0 0 0 0 0 0 0 324 0 0 0 0 0 0 0 0 0 0 0 0 0 0 0 0 0 0 0 0 0 0 0 0 0 0 0 0 0 0 0 0 0 0 0 0 0 0 0 0 0 0 0 0 227 0 0 0 0 0 0 0 0 0 0 0 0 0 0 0 0 0 0 0 0 0 0 0 0 0 766 728 758 782 782 782 782 743 774 774 774 750 750 743 743 743 766 735 728 743 735 714 728 728 721 0 0 0 0 0 0 0 0 0 0 766 0 735 714 700 700 707 707 707 700 707 721 728 735 743 728 700 694 0 0 681 675 657 663 0 0 0 0 0 0 714 721 714 714 707 700 700 707 700 694 687 687 681 681 687 687 0 0 0 634 645 645 651 657 657 0 0 0 0 0
    0 0 0 0 0 0 0 0 0 0 0 0 0 0 0 0 0 0 0 0 0 0 0 0 0 0 0 0 0 0 0 0 0 0 0 0 0 0 0 0 0 0 0 0 0 0 0 0 0 0 0 0 0 0 0 0 0 0 0 0 0 0 0 0 0 0 0 0 0 855 876 0 855 845 855 836 845 836 0 855 865 845 845 845 845 845 845 836 826 817 836 845 845 845 845 855 855 845 836 836 836 826 826 808 808 817 817 845 886 886 876 855 865 865 876 876 876 799 808 808 826 817 808 799 799 808 955 836 865 943 943 968 955 981 919 908 0 0 0 0 0 0 0 0 0 0 0 2299 2374 0 0 0 0 0 0 0 0 0 0 0 0 0 0 0 0 0 0 0 0 0 0 0 0 0 0 0 0 0 0 0 0 0 0 0 0 0 0 0 0 0 0 0 0 0 0 0 0 0 0 0 0 0 0 0 0 0 0 0 0 0 0 0 0 0 0 0 0 0 0 0 0 0 0 0 0 774 735 758 791 791 791 791 750 782 774 766 758 750 743 743 743 758 735 728 743 728 714 728 721 721 0 0 0 0 0 0 0 0 0 0 750 743 728 707 687 694 700 700 707 700 707 721 0 0 766 735 707 694 0 0 675 669 645 651 0 0 0 0 0 0 714 721 714 714 707 700 707 714 707 700 700 694 694 694 700 0 0 0 0 639 657 663 663 663 663 0 0 0 0 0
    0 0 0 0 0 0 0 0 0 0 0 0 0 0 0 0 0 0 0 0 0 0 0 0 0 0 0 0 0 0 0 0 0 0 0 0 0 0 0 0 0 0 0 0 0 0 0 0 0 0 0 0 0 0 0 0 0 0 0 0 0 0 0 0 0 0 0 0 0 876 908 886 876 855 845 836 845 836 0 855 855 845 845 845 845 845 845 836 826 826 845 845 845 845 845 845 845 845 836 826 826 826 817 799 799 808 808 836 886 886 876 855 865 865 876 876 876 799 808 808 826 817 808 799 799 799 919 836 845 908 886 943 931 968 919 908 0 0 0 886 0 0 0 0 0 0 0 2164 0 0 0 0 0 0 0 0 0 0 0 0 0 0 0 0 0 0 0 0 0 0 0 0 481 0 0 0 0 0 0 0 0 0 0 0 0 0 0 0 0 0 0 0 0 0 0 0 0 0 0 0 0 791 0 0 0 0 0 0 0 0 377 379 0 0 0 0 0 0 0 0 0 0 0 0 0 774 743 758 791 791 791 791 750 782 774 758 766 750 743 743 743 758 735 728 743 728 721 735 728 728 0 0 0 0 0 0 0 0 0 0 0 721 714 681 675 687 694 700 707 700 707 721 0 0 0 728 700 694 0 0 681 681 663 669 675 0 0 0 0 0 700 707 700 700 700 694 700 714 714 707 707 707 700 707 707 0 0 0 669 651 663 669 663 663 663 0 0 0 0 0
    0 0 0 0 0 0 0 0 0 0 0 0 0 0 0 0 0 0 0 0 0 0 0 0 0 0 0 0 0 0 0 0 0 0 0 0 0 0 0 0 0 0 0 0 0 0 0 0 0 0 0 0 0 0 0 0 0 0 0 0 0 0 0 0 0 0 0 0 0 876 908 897 876 855 855 836 855 845 0 865 855 845 845 845 855 845 855 836 826 826 845 845 845 845 845 845 836 836 826 817 817 817 808 791 791 808 0 845 886 886 876 855 855 865 865 876 876 799 808 808 826 817 808 799 799 799 908 845 855 897 876 931 919 968 919 0 0 0 0 0 0 0 0 0 931 0 0 0 0 0 0 0 0 0 474 0 514 511 504 0 0 0 897 897 0 0 0 0 0 0 514 0 493 0 0 0 0 0 0 227 0 0 0 0 0 876 0 0 0 0 0 0 0 0 0 0 0 0 0 0 0 791 0 0 0 618 623 0 623 0 0 377 375 0 0 0 0 0 375 0 0 0 0 0 0 782 743 750 791 791 791 791 750 782 774 758 766 743 743 743 743 758 735 735 750 728 721 735 721 721 0 0 0 0 0 0 0 0 0 0 0 0 0 663 663 675 694 700 700 694 0 0 0 0 0 0 687 687 0 0 694 687 669 675 0 0 0 0 0 0 694 700 694 694 694 687 700 714 714 707 707 707 707 707 714 0 687 0 675 657 657 669 657 657 651 0 0 0 0 0
    0 0 0 0 0 0 0 0 0 0 0 0 0 0 0 0 0 0 0 0 0 0 0 0 0 0 0 0 0 0 0 0 0 0 0 0 0 0 0 0 0 0 0 0 0 0 0 0 0 0 0 0 0 0 0 0 0 0 0 0 0 0 0 0 0 0 0 0 0 855 876 865 855 836 845 791 855 836 855 876 855 845 845 845 855 855 855 845 836 836 865 845 855 845 845 836 836 836 826 817 826 817 817 799 799 826 0 845 886 886 876 855 855 865 876 876 876 799 808 808 826 817 799 791 799 799 897 845 845 876 855 908 919 981 931 0 0 0 0 0 0 0 0 0 931 931 0 0 0 0 0 0 0 0 0 0 0 511 0 0 0 0 919 897 0 0 0 0 0 0 511 0 0 0 0 0 0 0 0 0 0 0 0 0 0 0 0 0 0 0 0 1036 0 0 0 886 0 0 0 0 0 799 0 0 651 623 629 634 0 0 0 0 383 0 0 0 387 385 385 383 0 0 0 0 0 782 758 743 791 791 791 782 758 782 782 758 774 743 743 743 750 758 735 735 758 728 728 735 714 714 0 0 0 0 0 0 0 0 0 0 0 0 0 681 675 687 700 707 714 700 707 714 735 0 774 735 700 694 0 0 700 700 687 694 700 0 0 0 0 0 700 700 694 694 694 687 700 721 714 707 707 707 707 714 721 0 0 0 0 0 0 657 651 645 645 0 0 0 0 0
    0 0 0 0 0 0 0 0 0 0 0 0 0 0 0 0 0 0 0 0 0 0 0 0 0 0 0 0 0 0 0 0 0 0 0 0 0 0 0 0 0 0 0 0 0 0 0 0 0 0 0 0 0 0 0 0 0 0 0 0 0 0 0 0 0 0 0 0 0 845 845 0 836 808 0 721 0 836 855 876 855 845 845 845 855 855 865 855 836 845 876 855 855 855 845 836 836 836 826 826 826 826 817 817 817 0 0 845 886 886 876 855 855 865 876 876 876 799 799 808 826 817 799 791 799 799 897 855 855 876 865 908 0 1008 968 0 0 0 0 981 931 931 0 931 943 943 0 943 0 0 0 0 0 0 0 0 0 0 0 876 897 908 908 897 955 0 0 0 0 0 0 0 0 0 0 714 0 0 0 0 0 0 0 0 799 0 0 0 0 1082 0 1051 0 0 0 943 943 955 0 0 876 0 0 0 0 0 0 0 0 0 0 0 0 0 0 0 0 0 0 0 0 0 0 0 0 766 758 735 791 791 791 782 758 782 782 750 782 750 743 750 758 766 743 743 766 735 735 743 721 721 0 0 0 0 0 0 0 0 0 0 0 0 0 687 681 687 707 707 707 700 707 714 735 0 0 0 0 700 0 0 707 694 681 694 0 0 0 0 0 0 700 700 694 694 694 687 694 714 714 707 707 707 707 714 721 0 0 0 0 0 0 645 639 639 639 0 0 0 0 0
    0 0 0 0 0 0 0 0 0 0 0 0 0 0 0 0 0 0 0 0 0 0 0 0 0 0 0 0 0 0 0 0 0 0 0 0 0 0 0 0 0 0 0 0 0 0 0 0 0 0 0 0 0 0 0 0 0 0 0 0 0 0 0 0 0 0 0 0 0 855 865 865 845 0 826 0 0 836 855 865 845 836 845 845 855 855 865 855 845 855 876 855 855 855 836 836 826 826 826 817 826 826 817 817 817 0 0 845 886 886 876 855 855 876 876 876 876 799 799 808 826 817 799 791 791 799 876 855 865 876 886 908 943 1008 994 0 0 0 0 981 931 931 886 919 931 908 0 908 0 0 0 0 0 0 0 0 0 0 908 876 0 908 908 876 0 0 0 0 0 0 0 0 0 0 728 707 721 728 743 0 750 735 735 721 750 0 0 0 0 1082 1051 1066 1036 0 0 0 0 0 0 0 0 0 0 0 0 0 0 0 0 0 0 0 0 0 0 0 0 0 0 0 0 0 0 0 0 0 750 728 791 791 791 782 758 791 782 750 782 750 750 750 758 766 750 743 774 743 750 758 721 0 0 0 74 74 0 0 0 0 0 0 0 0 0 675 669 681 700 707 707 707 707 714 728 0 0 735 707 707 714 714 700 687 675 700 0 0 0 0 0 0 700 700 694 694 694 694 694 714 714 714 714 714 721 721 743 0 0 0 0 0 0 0 0 629 639 0 0 0 0 0
    0 0 0 0 0 0 0 0 0 0 0 0 0 0 0 0 0 0 0 0 0 0 0 0 0 0 0 0 0 0 0 0 0 0 0 0 0 0 0 0 0 0 0 0 0 0 0 0 0 0 0 0 0 0 0 0 0 0 0 0 0 0 0 0 0 0 0 0 0 865 876 908 876 855 845 0 865 855 876 865 855 845 845 845 855 855 865 855 845 855 876 855 855 855 836 836 826 826 826 817 826 817 817 817 817 0 0 845 886 897 876 865 855 876 876 876 876 799 799 799 817 817 799 782 791 791 876 855 865 876 897 931 955 1022 994 0 0 0 0 981 931 919 876 886 886 865 897 855 0 0 0 0 0 0 0 0 0 0 919 897 908 908 908 876 0 0 0 0 0 0 0 0 0 0 721 700 721 721 735 0 0 728 728 714 750 0 0 0 0 1115 1082 0 0 0 0 931 0 0 0 0 0 0 0 0 0 0 0 0 0 0 0 0 0 0 0 0 0 0 0 0 618 0 0 0 0 0 750 728 791 791 791 774 766 782 782 750 791 750 750 758 766 774 750 743 782 735 758 758 0 0 0 0 74 74 74 0 0 0 0 0 0 743 0 681 669 687 707 714 714 714 714 721 735 0 0 0 0 0 0 721 721 0 0 714 0 743 0 0 0 0 714 714 700 700 694 694 700 714 714 714 714 721 721 728 758 0 0 0 0 0 0 0 0 0 639 0 0 0 0 0
    0 0 0 0 0 0 0 0 0 0 0 0 0 0 0 0 0 0 0 0 0 0 0 0 0 0 0 0 0 0 0 0 0 0 0 0 0 0 0 0 0 0 0 0 0 0 0 0 0 0 0 0 0 0 0 0 0 0 0 0 0 0 0 0 0 0 0 0 0 0 865 876 855 0 826 791 855 855 886 865 855 855 855 855 855 865 865 855 855 865 876 855 855 855 836 826 817 817 817 808 826 817 808 817 0 0 0 845 886 897 876 855 855 876 876 876 876 799 799 799 817 817 791 782 791 782 865 845 855 845 886 0 0 0 0 0 0 0 0 0 0 919 876 876 876 865 897 865 919 0 0 0 0 0 0 0 0 919 943 919 931 931 931 886 0 0 0 0 0 0 0 0 0 0 0 0 714 714 0 0 0 735 735 728 0 0 0 0 0 1132 0 0 0 0 0 919 919 908 919 897 886 0 0 0 0 0 0 0 0 0 0 0 0 0 0 0 0 0 0 0 0 598 0 0 389 728 750 721 791 791 791 774 766 782 782 750 791 750 750 758 766 774 750 743 782 735 758 0 0 0 0 0 74 0 0 0 0 0 687 707 721 728 0 687 675 694 707 721 721 714 714 721 735 774 782 782 0 0 743 743 750 750 0 714 714 721 0 0 0 700 700 700 700 700 694 694 694 707 707 707 714 714 721 728 774 0 0 0 0 0 0 0 0 0 0 0 0 0 0 0
    0 0 0 0 0 0 0 0 0 0 0 0 0 0 0 0 0 0 0 0 0 0 0 0 0 0 0 0 0 0 0 0 0 0 0 0 0 0 0 0 0 0 0 0 0 0 0 0 0 0 0 0 0 0 0 0 0 0 0 0 0 0 0 0 0 0 0 0 0 0 876 0 855 0 826 782 845 855 876 855 845 855 855 855 855 865 865 855 855 865 865 855 845 845 826 817 808 817 808 791 808 808 808 817 0 0 855 845 886 897 886 865 855 876 876 876 876 799 799 799 817 817 791 782 791 782 865 845 845 817 0 0 0 0 0 0 0 0 0 0 0 0 865 0 855 855 886 865 919 0 0 0 955 0 1008 943 968 931 943 919 931 931 931 886 0 0 0 0 0 0 0 0 0 0 0 0 0 0 0 0 0 766 766 791 855 0 0 0 0 0 0 0 0 0 0 0 919 886 897 876 865 0 0 0 0 0 0 0 0 0 0 0 0 669 0 0 0 0 0 0 0 593 0 0 0 0 750 721 782 782 782 766 766 782 782 750 791 758 758 758 774 774 750 743 782 735 758 743 0 0 0 0 0 0 0 0 0 714 0 714 721 721 0 694 681 700 707 721 721 721 721 728 735 774 782 0 0 0 0 735 728 0 0 707 700 714 0 0 694 700 700 694 694 694 687 687 694 700 700 700 707 707 714 721 782 0 0 981 0 0 0 0 0 0 0 0 0 0 0 0
    0 0 0 0 0 0 0 0 0 0 0 0 0 0 0 0 0 0 0 0 0 0 0 0 0 0 0 0 0 0 0 0 0 0 0 0 0 0 0 0 0 0 0 0 0 0 0 0 0 0 0 0 0 0 0 0 0 0 0 0 0 0 0 0 0 0 0 0 0 0 0 0 855 0 0 0 855 855 876 855 845 855 855 855 865 865 865 855 865 876 865 855 845 845 826 817 808 808 799 782 799 791 791 808 0 0 855 845 897 908 886 865 865 876 886 876 876 799 799 799 817 817 791 782 791 782 865 855 845 817 0 0 0 0 0 0 0 0 0 0 0 0 845 0 845 855 897 865 931 0 0 0 943 0 994 931 981 919 955 908 943 931 919 876 0 0 0 0 0 0 0 0 0 0 0 0 0 0 0 0 0 774 782 808 897 886 855 0 0 0 0 0 0 0 0 0 0 876 0 865 0 0 0 0 0 0 0 0 0 0 657 669 669 663 657 0 0 0 0 0 0 593 0 0 0 0 750 714 782 782 782 766 766 782 782 758 791 758 758 766 774 774 758 750 782 743 766 743 0 0 0 0 0 0 0 0 0 721 0 0 0 0 0 694 681 700 707 721 721 721 721 721 728 758 766 0 0 0 721 728 728 714 728 721 721 728 0 0 700 700 700 694 687 694 681 681 687 694 694 694 700 694 707 721 791 0 0 0 0 0 0 0 0 908 0 0 0 0 0 0
    0 0 0 0 0 0 0 0 0 0 0 0 0 0 0 0 0 0 0 0 0 0 0 0 0 0 0 0 0 0 0 0 0 0 0 0 0 0 0 0 0 0 0 0 0 0 0 0 0 0 0 0 0 0 0 0 0 0 0 0 0 0 0 0 0 0 0 0 0 855 0 0 0 0 0 0 855 865 876 855 845 865 855 865 865 876 865 855 865 876 865 855 855 845 826 826 817 817 808 791 799 782 791 808 0 0 845 845 897 908 886 865 865 876 876 876 876 799 799 799 817 817 799 782 791 791 876 855 845 826 845 0 0 0 0 0 0 0 0 0 0 0 836 0 0 0 0 865 943 0 0 0 968 0 994 943 981 908 955 897 908 908 897 0 0 0 0 0 0 0 0 0 0 0 0 232 0 0 0 0 750 0 0 0 968 931 919 0 0 0 0 0 0 0 0 0 0 0 0 0 0 0 0 0 0 0 0 0 0 694 681 687 687 681 669 0 0 0 0 0 0 0 0 0 0 0 750 714 782 782 782 766 774 782 782 758 799 758 758 766 774 774 750 750 782 743 766 743 0 0 0 0 0 0 0 0 721 735 0 750 735 735 0 707 687 707 707 721 721 721 721 721 728 758 758 766 750 750 750 766 791 808 808 766 774 743 0 0 707 700 707 694 694 694 681 687 687 694 694 694 694 694 700 721 808 0 0 0 0 0 0 943 897 919 886 0 0 0 0 0
    0 0 0 0 0 0 0 0 0 0 0 0 0 0 0 0 0 0 0 0 0 0 0 0 0 0 0 0 0 0 0 0 0 0 0 0 0 0 0 0 0 0 0 0 0 0 0 0 0 0 0 0 0 0 0 0 0 0 0 0 0 0 0 0 0 0 0 0 0 845 0 0 0 0 0 0 855 865 865 855 845 855 855 855 865 876 865 865 876 876 865 865 855 845 836 826 826 826 817 799 808 799 799 817 0 0 836 845 897 897 886 865 855 876 876 876 876 799 799 808 826 817 799 782 791 791 886 855 845 826 836 826 0 0 0 0 0 0 0 0 0 0 0 0 0 0 0 886 0 0 0 0 981 0 0 943 0 897 0 0 0 0 0 0 0 0 0 0 0 0 0 0 0 0 0 0 0 0 0 0 0 0 0 0 931 908 0 0 0 0 0 0 0 0 0 0 0 0 203 0 0 0 0 0 0 0 0 0 0 0 0 694 0 0 0 0 0 0 0 0 0 0 0 0 0 0 758 714 774 782 782 766 766 774 774 758 799 758 758 758 774 766 750 750 774 743 766 743 0 0 0 0 0 0 0 714 721 735 735 750 735 735 728 721 700 707 707 714 714 721 721 721 728 750 750 766 766 758 758 750 774 774 799 766 774 735 0 0 714 714 714 700 700 694 681 694 687 694 694 694 694 694 700 728 808 0 0 0 0 0 0 897 865 897 865 0 0 0 0 0
    0 0 0 0 0 0 0 0 0 0 0 0 0 0 0 0 0 0 0 0 0 0 0 0 0 0 0 0 0 0 0 0 0 0 0 0 0 0 0 0 0 0 0 0 0 0 0 0 0 0 0 0 0 0 0 0 0 0 0 0 0 0 0 0 0 0 0 0 0 845 0 855 0 0 0 845 855 865 855 845 845 855 845 855 865 865 855 865 876 876 865 865 855 845 836 826 836 826 817 799 808 799 799 817 0 0 836 845 897 897 886 865 855 876 876 876 876 799 799 799 817 817 799 782 791 791 876 855 836 826 836 836 836 782 0 0 0 0 0 0 0 0 0 0 0 0 0 0 0 0 0 0 968 0 0 0 0 0 0 0 0 0 0 355 352 0 0 0 0 0 0 0 0 0 0 0 0 0 0 0 0 0 855 886 886 886 0 0 395 404 402 0 0 0 0 0 0 0 203 0 0 0 0 0 0 0 0 0 0 0 0 694 0 0 0 0 0 0 0 0 0 0 0 0 0 0 774 714 774 774 782 766 766 774 766 750 791 750 758 750 766 766 750 750 774 750 766 743 0 0 721 0 721 714 728 721 735 735 743 750 735 728 721 714 700 700 700 707 707 714 714 721 728 743 743 758 766 758 758 743 758 735 799 766 791 0 0 0 707 707 707 694 694 700 687 700 694 694 694 694 700 694 700 743 808 0 0 0 0 0 0 0 845 886 845 0 0 0 0 0
    0 0 0 0 0 0 0 0 0 0 0 0 0 0 0 0 0 0 0 0 0 0 0 0 0 0 0 0 0 0 0 0 0 0 0 0 0 0 0 0 0 0 0 0 0 0 0 0 0 0 0 0 0 0 0 0 0 0 0 0 0 0 0 0 0 0 0 0 0 845 855 855 0 0 845 855 865 865 845 836 845 855 845 855 865 865 855 865 865 865 865 865 855 845 836 836 836 826 817 799 799 782 791 799 0 826 826 845 897 897 876 865 855 876 876 876 876 799 799 799 817 817 799 782 791 791 876 845 836 826 836 845 845 808 0 0 0 0 0 0 0 0 0 0 0 0 0 0 0 0 0 0 955 0 0 0 0 0 0 0 0 0 0 353 350 0 0 0 0 0 0 0 0 0 0 0 0 0 0 0 897 908 908 0 908 886 0 0 402 404 402 0 393 0 0 0 0 0 0 0 0 0 0 0 0 0 0 0 0 0 0 681 0 0 0 0 0 0 0 0 0 0 0 0 0 0 791 714 774 774 782 766 766 766 758 750 791 743 750 743 758 758 743 743 766 743 750 735 735 721 728 721 721 714 721 714 728 728 728 735 728 721 721 707 700 700 700 707 714 714 721 721 735 750 743 758 750 750 743 735 743 728 758 728 721 707 681 707 700 700 700 687 694 700 687 700 700 700 700 700 700 700 707 774 0 0 0 514 507 0 0 0 826 876 836 0 0 0 0 0
    0 0 0 0 0 0 0 0 0 0 0 0 0 0 0 0 0 0 0 0 0 0 0 0 0 0 0 0 0 0 0 0 0 0 0 0 0 0 0 0 0 0 0 0 0 0 0 0 0 0 0 0 0 0 0 0 0 0 0 0 0 0 0 0 0 0 0 0 0 845 845 836 0 0 0 845 855 855 845 836 836 845 845 855 855 855 845 865 865 865 865 865 855 845 845 836 836 836 826 817 817 808 808 826 0 845 836 845 897 897 876 865 855 865 865 876 865 799 799 799 817 817 799 782 782 791 865 836 817 817 826 836 0 799 0 0 0 0 0 0 0 0 0 0 0 0 0 0 0 451 0 0 0 0 0 0 0 0 0 0 0 0 0 0 0 0 0 0 0 0 0 0 0 0 0 0 0 0 0 0 908 0 908 919 897 886 0 0 399 0 0 0 389 0 0 0 0 0 0 0 0 0 0 0 0 0 0 0 0 0 0 669 0 0 0 0 0 0 0 0 0 0 0 0 0 0 808 707 774 774 774 766 758 758 750 743 782 735 743 735 743 750 743 743 750 743 743 728 735 735 743 735 735 728 728 728 735 743 735 735 728 728 728 721 714 714 707 714 728 735 735 735 743 758 743 758 750 743 728 728 728 721 735 721 714 707 681 707 700 700 694 687 694 700 687 700 700 700 700 700 700 700 700 774 0 0 0 0 504 497 0 0 817 865 0 0 0 0 0 0
    0 0 0 0 0 0 0 0 0 0 0 0 0 0 0 0 0 0 0 0 0 0 0 0 0 0 0 0 0 0 0 0 0 0 0 0 0 0 0 0 0 0 0 0 0 0 0 0 0 0 0 0 0 0 0 0 0 0 0 0 0 0 0 0 0 0 0 0 0 836 826 817 0 0 0 845 855 845 836 836 836 845 836 855 855 855 855 865 865 865 865 876 865 845 845 845 845 845 845 836 836 836 836 836 855 845 836 845 897 897 876 865 855 865 865 876 865 791 799 799 817 817 799 782 782 782 0 817 782 799 799 808 0 791 758 0 0 0 0 0 0 0 0 0 0 0 0 0 0 451 459 0 0 0 0 0 0 0 0 0 0 0 0 0 0 0 0 0 0 0 0 0 0 0 0 0 0 0 0 0 0 943 886 919 897 876 0 0 399 0 0 0 0 0 0 0 0 0 0 0 0 0 0 0 0 0 0 0 0 0 0 0 0 0 0 0 0 0 0 782 0 0 0 0 0 0 791 707 766 766 774 766 750 750 750 743 782 735 735 735 743 750 750 743 758 758 750 735 750 743 758 743 750 735 743 735 743 743 743 735 728 728 728 721 721 714 707 707 721 735 735 735 743 750 743 750 750 743 735 735 728 721 735 721 728 714 681 700 700 694 694 681 687 687 681 700 700 707 707 707 700 700 700 766 0 0 0 0 0 0 0 0 0 0 0 0 0 0 0 0
    0 0 0 0 0 0 0 0 0 0 0 0 0 0 0 0 0 0 0 0 0 0 0 0 0 0 0 0 0 0 0 0 0 0 0 0 0 0 0 0 0 0 0 0 0 0 0 0 0 0 0 0 0 0 0 0 0 0 0 0 0 0 0 0 0 0 0 0 0 0 836 0 0 0 0 855 865 845 836 836 836 845 836 855 855 855 855 865 865 865 865 886 865 845 845 845 845 845 845 836 836 836 836 845 845 845 836 845 897 897 876 865 855 865 865 876 865 791 799 799 817 817 799 782 782 791 855 826 782 799 799 808 826 799 791 782 0 0 0 0 0 0 0 0 0 0 0 0 451 451 459 0 0 0 446 0 0 0 0 0 0 0 0 0 0 0 0 0 0 0 0 0 0 0 0 0 0 0 0 0 0 0 886 908 0 0 0 0 0 0 0 0 387 0 0 0 0 0 0 0 0 0 0 0 0 0 0 0 0 0 0 0 0 124 0 0 0 0 0 0 0 0 0 0 0 0 743 707 766 766 766 758 750 750 743 743 782 728 735 728 743 750 750 743 750 758 743 743 758 743 758 750 758 750 750 750 758 758 750 735 728 728 728 728 728 707 707 700 714 743 735 743 743 750 743 750 750 743 735 735 721 721 735 728 743 714 681 707 700 700 694 681 687 687 687 707 707 707 707 714 707 707 714 774 766 0 0 0 0 0 0 0 0 0 0 0 0 0 0 0
    0 0 0 0 0 0 0 0 0 0 0 0 0 0 0 0 0 0 0 0 0 0 0 0 0 0 0 0 0 0 0 0 0 0 0 0 0 0 0 0 0 0 0 0 0 0 0 0 0 0 0 0 0 0 0 0 0 0 0 0 0 0 0 0 0 0 0 0 0 0 826 0 0 0 0 845 865 845 836 836 836 845 836 855 855 845 855 865 865 865 865 886 865 845 845 855 845 855 855 836 836 836 836 845 0 845 836 845 897 897 876 865 855 865 865 876 865 791 799 799 817 817 808 791 782 791 865 826 808 817 817 826 845 826 0 0 0 0 0 0 0 0 0 0 0 0 0 0 451 454 465 0 0 0 0 0 0 0 345 0 0 0 0 0 0 0 0 0 0 0 0 0 0 0 0 0 0 0 0 0 0 0 0 0 0 0 0 0 0 0 404 0 0 0 0 0 0 0 0 0 0 0 0 0 0 0 215 0 0 0 0 0 124 124 124 0 0 0 0 0 0 0 0 0 0 0 0 707 766 766 766 758 750 743 743 743 774 728 728 721 735 743 750 743 743 758 743 743 766 743 766 766 766 750 750 750 758 758 758 743 735 735 735 728 735 0 707 700 0 743 735 743 743 743 743 750 750 743 728 735 728 721 735 714 714 707 687 707 700 700 694 687 694 694 700 721 714 714 714 721 714 714 728 782 0 0 0 0 0 0 395 0 0 0 0 0 0 0 0 0
    0 0 0 0 0 0 0 0 0 0 0 0 0 0 0 0 0 0 0 0 0 0 0 0 0 0 0 0 0 0 0 0 0 0 0 0 0 0 0 0 0 0 0 0 0 0 0 0 0 0 0 0 0 0 0 0 0 0 0 0 0 0 0 0 0 0 0 0 0 0 808 808 0 0 817 845 855 836 836 836 836 845 836 845 845 845 845 855 855 855 855 886 865 845 845 855 855 865 865 845 845 845 845 845 0 845 826 845 886 897 876 865 855 865 865 876 865 791 799 799 817 817 808 791 782 791 876 836 826 836 836 845 876 0 0 0 0 0 0 0 0 0 0 0 0 0 0 0 454 457 465 0 457 0 0 0 0 345 343 345 0 0 0 0 0 0 0 0 0 0 0 0 0 0 0 0 0 0 0 0 0 0 0 0 0 0 0 0 0 0 0 0 0 0 0 0 0 0 0 0 0 0 0 0 0 0 0 0 0 0 0 0 123 123 124 124 124 124 0 0 0 0 0 0 0 0 0 707 766 766 766 758 743 743 743 743 774 721 721 721 728 743 750 735 743 750 743 743 758 735 758 750 750 735 743 743 750 750 750 743 735 735 735 0 0 0 714 0 0 758 743 750 750 743 758 758 750 750 735 735 735 721 728 707 707 700 694 707 707 700 700 694 694 700 707 728 721 721 721 721 721 721 735 0 0 0 0 0 0 0 391 0 0 0 0 0 0 0 0 0
    0 0 0 0 0 0 0 0 0 0 0 0 0 0 0 0 0 0 0 0 0 0 0 0 0 0 0 0 0 0 0 0 0 0 0 0 0 0 0 0 0 0 0 0 0 0 0 0 0 0 0 0 0 0 0 0 0 0 0 0 0 0 0 0 0 0 0 0 0 0 808 808 817 0 826 836 845 836 836 836 836 845 836 845 845 836 845 845 845 845 845 876 855 845 845 855 845 876 865 855 845 855 845 845 845 845 836 845 886 897 876 865 865 865 865 876 865 791 799 799 817 817 817 791 791 791 876 826 808 817 817 817 845 0 0 0 0 0 0 0 2537 1989 1839 0 0 0 0 0 0 462 468 471 465 0 0 0 0 0 342 0 0 0 0 0 0 0 0 0 0 0 0 0 0 0 0 0 0 0 0 0 0 0 0 0 0 404 408 0 0 0 0 0 0 0 0 0 0 0 0 0 0 0 0 0 0 0 0 0 0 0 0 0 123 123 123 123 124 124 0 0 0 0 0 0 0 0 0 707 758 766 766 758 743 743 750 743 774 721 728 721 735 750 758 735 743 750 743 743 758 735 750 743 750 735 735 735 743 735 735 735 735 728 728 728 735 707 714 0 0 774 766 766 758 750 758 758 743 743 728 728 721 714 714 694 694 694 687 700 694 694 694 687 687 694 707 721 721 721 721 721 714 714 728 0 0 0 0 0 0 0 0 0 0 0 0 0 0 0 0 0
    0 0 0 0 0 0 0 0 0 0 0 0 0 0 0 0 0 0 0 0 0 0 0 0 0 0 0 0 0 0 0 0 0 0 0 0 0 0 0 0 0 0 0 0 0 0 0 0 0 0 0 0 0 0 0 0 0 0 0 0 0 0 0 0 0 0 0 0 0 0 0 0 0 0 817 845 845 836 836 836 836 845 836 845 836 836 845 845 845 845 836 865 845 845 845 845 836 865 855 845 845 855 855 855 0 855 836 855 897 897 886 865 865 865 876 876 865 799 799 799 817 817 817 799 791 799 876 826 808 808 808 817 836 0 0 0 0 0 0 0 0 0 0 0 0 0 0 0 0 471 471 474 471 0 0 0 0 0 0 0 0 0 0 0 0 0 0 0 0 0 0 0 0 0 0 0 0 0 0 0 0 0 0 0 0 406 411 0 0 0 0 0 0 0 639 0 0 0 0 0 0 0 0 0 0 0 0 0 0 0 0 0 123 123 123 123 124 124 0 0 0 0 0 0 0 0 0 707 758 766 758 750 735 743 750 743 774 728 728 721 735 758 766 728 735 743 735 735 750 728 743 728 750 728 728 728 735 735 735 728 728 728 721 721 728 714 721 735 743 782 766 774 766 743 750 750 735 735 728 735 728 721 728 707 700 700 694 700 694 694 694 687 687 687 700 714 714 714 714 714 714 714 728 0 0 0 0 0 0 0 389 0 0 0 0 0 0 0 0 0
    0 0 0 0 0 0 0 0 0 0 0 0 0 0 0 0 0 0 0 0 0 0 0 0 0 0 0 0 0 0 0 0 0 0 0 0 0 0 0 0 0 0 0 0 0 0 0 0 0 0 0 0 0 0 0 0 0 0 0 0 0 0 0 0 0 0 0 0 0 0 0 0 0 0 826 845 845 826 836 836 836 845 836 845 836 836 845 845 845 845 836 855 836 836 845 845 826 865 845 845 845 855 845 855 855 855 826 845 897 897 886 865 865 855 865 876 865 799 799 808 826 826 826 808 799 799 897 826 817 817 808 817 0 0 0 0 0 0 0 0 0 0 0 0 0 0 0 0 0 474 471 471 468 0 0 0 0 0 0 0 0 0 0 0 0 0 0 0 0 0 0 0 0 0 0 0 0 0 0 0 0 0 0 0 0 406 413 0 0 0 0 0 0 0 0 0 735 0 0 0 0 0 0 0 0 0 0 0 0 0 0 0 123 123 123 124 124 0 0 0 0 0 0 0 0 0 0 714 758 766 758 750 735 743 750 750 782 735 735 728 735 766 774 728 735 743 735 735 743 728 735 728 735 721 721 721 735 728 728 721 721 721 721 721 0 0 0 0 735 774 766 766 743 735 743 743 728 735 728 743 743 735 750 714 707 707 700 707 700 694 694 694 687 687 700 714 707 714 707 707 707 714 721 0 0 0 0 0 0 0 393 0 0 0 0 0 0 0 0 0
    0 0 0 0 0 0 0 0 0 0 0 0 0 0 0 0 0 0 0 0 0 0 0 0 0 0 0 0 0 0 0 0 0 0 0 0 0 0 0 0 0 0 0 0 0 0 0 0 0 0 0 0 0 0 0 0 0 0 0 0 0 0 0 0 0 0 0 0 0 0 0 0 0 0 826 845 836 826 836 836 845 845 845 845 845 845 855 855 845 845 836 845 836 836 845 845 826 865 855 845 855 865 855 855 855 855 826 845 886 886 876 865 855 855 865 876 865 799 808 808 826 826 836 817 808 808 931 836 826 826 808 0 0 0 0 0 0 0 0 0 0 0 0 0 0 0 0 0 0 0 474 0 468 0 0 0 0 0 0 0 0 0 0 0 0 249 0 0 0 0 0 0 0 0 0 0 0 0 0 0 0 0 0 0 0 0 415 0 0 0 408 0 0 0 0 0 0 0 0 0 0 0 0 0 0 0 0 0 0 225 0 0 123 123 123 0 0 0 0 0 0 0 0 0 0 133 0 714 758 766 766 750 735 743 758 750 782 743 743 735 743 774 782 728 735 743 743 735 750 735 735 728 750 728 728 735 743 735 728 728 721 721 714 0 0 0 0 721 714 735 728 735 721 721 735 735 728 735 728 743 743 743 758 721 714 714 714 714 707 700 700 700 694 694 694 707 707 707 707 707 707 714 728 0 0 0 0 0 0 0 0 0 0 0 0 0 0 0 0 0
    0 0 0 0 0 0 0 0 0 0 0 0 0 0 0 0 0 0 0 0 0 0 0 0 0 0 0 0 0 0 0 0 0 0 0 0 0 0 0 0 0 0 0 0 0 0 0 0 0 0 0 0 0 0 0 0 0 0 0 0 0 0 0 0 0 0 0 0 0 0 0 0 0 0 826 836 826 826 836 836 845 845 845 845 845 845 855 845 845 845 836 845 836 845 845 845 836 876 855 845 855 0 0 836 836 836 817 836 886 886 876 855 855 855 865 876 876 808 817 817 836 836 845 817 808 817 955 865 845 836 0 0 0 0 0 0 0 0 1226 1149 0 0 0 0 0 0 468 471 0 0 0 0 0 0 0 0 0 0 0 0 0 0 0 0 0 249 0 0 0 0 0 0 0 0 0 0 0 0 0 0 0 0 0 0 0 0 0 0 0 0 0 0 0 0 0 0 0 0 0 0 0 0 0 0 0 0 0 0 0 225 0 0 0 0 0 0 0 0 521 0 0 0 507 0 0 133 817 721 758 766 766 758 743 750 758 758 791 758 750 743 750 782 791 735 735 735 750 735 750 721 721 707 735 721 728 728 743 728 728 721 721 714 707 0 0 0 0 0 0 0 694 700 700 707 728 735 721 735 735 750 758 758 774 728 721 721 721 721 714 707 700 700 694 694 694 707 700 707 707 707 700 721 735 0 0 0 0 0 623 0 0 0 0 0 0 0 0 0 0 0
    0 0 0 0 0 0 0 0 0 0 0 0 0 0 0 0 0 0 0 0 0 0 0 0 0 0 0 0 0 0 0 0 0 0 0 0 0 0 0 0 0 0 0 0 0 0 0 0 0 0 0 0 0 0 0 0 0 0 0 0 0 0 0 0 0 0 0 0 0 0 0 0 0 836 836 836 817 817 836 836 845 845 845 845 845 855 855 845 836 0 0 0 0 836 836 845 836 865 845 836 855 0 0 0 826 836 808 836 886 876 865 855 855 855 876 886 876 808 817 817 845 845 855 826 817 826 968 897 865 855 0 0 0 0 0 0 0 1226 1226 1187 0 0 0 1149 0 0 468 465 0 0 0 0 0 0 0 0 0 0 0 0 0 0 0 0 0 0 0 0 0 0 0 0 0 0 0 0 0 0 0 0 0 0 0 0 0 0 0 0 0 0 0 0 0 0 0 0 0 0 0 0 0 0 0 0 0 0 0 0 0 0 0 0 0 0 0 0 0 0 529 0 0 0 0 0 0 0 817 728 758 774 774 766 743 750 766 758 791 758 750 743 750 774 782 728 728 721 735 714 728 707 0 694 694 707 714 714 728 714 714 714 714 714 707 707 0 0 0 0 0 0 700 707 707 707 721 721 714 721 721 735 743 743 758 728 721 728 728 728 721 714 707 707 700 694 700 700 700 707 707 707 707 728 750 0 0 0 0 0 0 0 0 451 0 0 0 0 0 0 0 0
    0 0 0 0 0 0 0 0 0 0 0 0 0 0 0 0 0 0 0 0 0 0 0 0 0 0 0 0 0 0 0 0 0 0 0 0 0 0 0 0 0 0 0 0 0 0 0 0 0 0 0 0 0 0 0 0 0 0 0 0 0 0 0 0 0 0 0 0 0 0 0 0 0 836 836 836 817 817 826 836 836 845 845 836 836 845 845 845 836 836 836 836 836 845 836 845 845 876 855 845 865 0 836 826 826 826 799 826 876 876 865 845 855 845 865 886 886 808 826 826 845 855 865 826 826 845 981 897 876 865 0 0 0 0 0 1314 1291 1247 1247 1226 0 0 0 0 0 0 468 465 0 0 0 0 0 0 0 0 0 0 0 0 0 0 0 0 0 0 0 0 0 0 0 0 0 0 0 0 0 0 0 0 0 0 0 0 0 0 0 0 0 0 0 0 0 0 0 0 0 0 0 0 0 0 0 0 0 172 0 0 0 0 0 0 0 0 0 0 0 0 0 0 0 0 0 0 0 0 817 728 758 774 774 766 743 750 766 758 782 758 750 743 750 766 766 721 721 721 0 700 0 700 0 675 0 0 694 700 714 707 707 707 714 707 707 707 0 0 0 0 0 0 0 0 721 714 0 714 707 714 714 735 750 743 758 728 728 735 735 735 728 721 714 714 707 700 700 700 700 707 707 707 707 728 0 0 0 0 0 0 0 0 0 454 0 0 0 0 0 0 0 0
    0 0 0 0 0 0 0 0 0 0 0 0 0 0 0 0 0 0 0 0 0 0 0 0 0 0 0 0 0 0 0 0 0 0 0 0 0 0 0 0 0 0 0 0 0 0 0 0 0 0 0 0 0 0 0 0 0 0 0 0 0 0 0 0 0 0 0 0 0 0 0 0 0 836 845 836 817 826 826 836 836 845 845 836 845 855 845 845 845 845 836 836 836 845 836 845 855 876 855 855 865 865 845 826 817 817 782 817 865 865 855 836 845 845 865 876 886 808 826 826 855 855 876 836 836 855 981 886 865 865 0 817 0 0 0 0 1291 1247 1247 1226 1226 0 0 0 0 0 468 459 0 0 0 0 0 0 0 0 0 0 0 0 0 0 0 0 0 253 0 0 0 0 0 0 0 0 0 0 0 0 0 0 0 0 0 0 0 0 0 0 0 0 0 0 0 0 0 0 0 0 0 0 0 0 0 0 0 171 0 0 171 0 0 0 0 0 0 0 0 0 0 0 0 0 0 0 0 0 817 728 750 774 774 766 743 750 766 758 782 766 750 743 743 766 766 728 728 728 0 0 0 707 0 694 0 707 707 707 721 721 714 721 721 714 714 721 0 0 0 0 0 0 735 0 728 721 721 714 714 714 714 728 743 743 758 728 728 735 735 735 728 728 721 714 714 700 700 700 700 700 700 707 707 728 0 0 0 0 0 0 0 0 0 0 0 735 0 0 0 0 0 0
    0 0 0 0 0 0 0 0 0 0 0 0 0 0 0 0 0 0 0 0 0 0 0 0 0 0 0 0 0 0 0 0 0 0 0 0 0 0 0 0 0 0 0 0 0 0 0 0 0 0 0 0 0 0 0 0 0 0 0 0 0 0 0 0 0 0 0 0 0 931 0 876 0 845 855 836 826 826 826 836 836 845 845 845 845 855 855 855 845 845 836 836 836 855 845 855 855 876 865 855 865 865 836 826 817 808 774 808 865 865 855 836 845 836 865 876 886 817 836 836 865 865 886 845 845 855 968 865 836 836 799 782 0 1415 0 0 0 1226 1226 1206 1206 0 0 0 0 0 0 0 0 0 1415 0 0 669 0 0 0 0 0 0 0 0 0 0 0 260 0 0 0 0 142 0 0 0 0 0 0 0 0 0 0 0 0 0 0 0 0 0 0 0 0 0 0 0 232 0 0 0 0 0 0 0 0 0 0 171 0 0 0 0 0 0 0 0 0 0 0 0 0 0 0 0 0 0 0 817 817 728 743 774 774 766 750 758 766 758 782 766 750 743 743 766 766 728 728 728 0 0 0 0 0 707 735 721 728 728 735 728 735 728 728 721 721 728 0 0 0 0 0 0 0 0 0 714 700 714 707 700 707 721 735 743 743 721 721 735 735 735 721 721 714 714 714 707 700 700 700 700 707 707 714 0 0 0 6133 0 0 0 0 0 0 0 735 728 0 0 0 0 0 0
    0 0 0 0 0 0 0 0 0 0 0 0 0 0 0 0 0 0 0 0 0 0 0 0 0 0 0 0 0 0 0 0 0 0 0 0 0 0 0 0 0 0 0 0 0 0 0 0 0 0 0 0 0 0 0 0 0 0 0 0 0 0 0 0 0 0 0 0 0 955 0 0 0 855 855 836 826 826 826 826 836 845 845 836 845 855 845 855 855 845 836 836 836 855 855 865 865 886 876 876 876 865 845 826 817 808 774 799 855 855 845 836 836 836 855 876 886 817 836 836 865 865 886 855 845 865 981 865 0 0 0 0 0 1388 0 0 0 1226 1206 1187 1187 0 0 0 1168 0 0 0 0 0 0 0 0 0 0 0 0 0 0 0 0 0 0 0 0 0 0 0 0 0 142 0 0 0 0 0 0 0 0 0 0 0 0 0 0 0 0 0 0 0 0 0 0 0 231 0 0 0 0 0 0 0 0 0 0 0 0 0 0 0 0 0 0 0 0 0 101 0 0 0 0 271 0 0 0 808 808 735 743 774 774 774 750 758 758 750 774 766 743 735 743 766 750 728 728 728 743 0 0 0 0 0 0 728 728 728 735 728 735 728 721 721 721 728 0 0 0 0 0 0 0 0 0 707 694 700 700 700 700 721 735 750 758 728 728 743 743 743 735 721 714 714 721 714 700 700 700 700 707 707 721 0 0 0 0 0 0 0 0 0 0 0 721 714 0 0 0 0 0 0
    0 0 0 0 0 0 0 0 0 0 0 0 0 0 0 0 0 0 0 0 0 0 0 0 0 0 0 0 0 0 0 0 0 0 0 0 0 0 0 0 0 0 0 0 0 0 0 0 0 0 0 0 0 0 0 0 0 0 0 0 0 0 0 0 0 0 0 0 0 955 0 0 0 865 865 836 826 826 826 836 836 836 845 836 845 855 855 855 855 855 845 836 845 865 855 876 886 886 886 876 876 865 845 826 817 808 774 799 855 855 845 836 836 836 855 876 886 817 845 845 865 865 886 855 855 876 994 0 0 0 0 0 0 1388 1247 0 0 0 1187 1149 1149 0 0 0 0 0 0 714 0 0 0 0 0 0 0 0 0 0 0 0 0 186 0 0 0 0 0 0 0 0 0 0 0 0 0 0 0 0 0 0 0 0 0 0 0 0 0 0 0 0 0 511 0 0 229 0 0 0 0 0 0 0 0 0 0 0 0 0 0 0 0 0 0 0 0 0 0 0 0 0 0 273 274 274 0 0 808 743 743 774 782 774 758 758 758 750 766 766 735 735 735 758 743 735 728 728 743 0 0 0 0 0 0 750 743 728 743 735 743 728 728 721 0 0 0 0 0 0 0 743 0 0 0 714 707 714 721 714 721 728 750 774 766 721 728 743 750 750 743 728 714 714 721 714 707 707 700 707 707 707 743 0 0 0 0 0 0 0 0 0 0 0 0 707 694 0 0 0 0 0
    0 0 0 0 0 0 0 0 0 0 0 0 0 0 0 0 0 0 0 0 0 0 0 0 0 0 0 0 0 0 0 0 0 0 0 0 0 0 0 0 0 0 0 0 0 0 0 0 0 0 0 0 0 0 0 0 0 0 0 0 0 0 0 0 0 0 0 0 0 943 931 876 865 876 865 836 836 836 826 836 836 845 845 845 855 855 845 855 855 845 845 845 845 865 865 886 897 886 886 876 865 855 836 826 817 808 774 799 855 855 855 836 836 836 855 865 886 817 845 845 876 876 897 865 865 876 0 0 0 0 0 0 0 1362 0 0 0 0 1168 1132 1149 0 0 0 0 0 0 0 0 0 0 0 0 0 0 0 0 0 0 0 0 0 0 0 0 0 0 0 0 0 0 0 0 0 0 0 0 0 0 0 0 0 0 0 0 0 0 529 529 518 0 514 0 0 0 0 0 0 0 0 0 0 0 0 0 0 0 0 0 0 0 0 0 0 0 0 0 0 0 0 0 272 0 0 0 0 808 743 735 774 782 782 758 758 758 750 766 766 735 728 735 750 728 728 721 721 728 0 0 0 0 0 0 0 0 0 766 743 0 735 0 0 0 0 0 0 0 0 0 743 728 0 0 728 728 728 743 721 721 728 743 750 735 0 721 735 743 743 743 735 714 714 728 721 714 714 714 714 714 721 782 0 0 0 0 0 0 0 0 454 448 451 0 0 687 0 0 0 0 0
    0 0 0 0 0 0 0 0 0 0 0 0 0 0 0 0 0 0 0 0 0 0 0 0 0 0 0 0 0 0 0 0 0 0 0 0 0 0 0 0 0 0 0 0 0 0 0 0 0 0 0 0 0 0 0 0 0 0 0 0 0 0 0 0 0 0 0 0 0 943 908 865 865 865 855 826 826 836 826 836 836 845 836 836 855 845 845 845 855 845 836 845 855 865 865 886 897 886 876 865 855 855 836 826 808 799 774 799 855 855 855 836 845 845 855 865 886 817 845 855 876 876 897 865 865 876 0 0 0 0 0 774 750 0 0 0 0 0 1206 0 0 0 0 0 0 0 0 0 0 0 0 0 0 0 0 171 0 0 0 0 0 0 0 0 0 0 0 0 0 0 0 0 0 0 0 0 0 0 0 0 0 0 0 0 0 0 533 529 529 518 0 0 0 0 0 0 0 0 0 0 0 0 0 0 0 451 440 0 0 0 0 0 0 0 0 0 0 0 0 0 0 0 0 0 0 0 791 743 728 774 782 782 758 766 758 750 758 774 728 728 728 743 707 721 714 714 0 0 0 0 0 0 0 0 0 0 0 758 0 0 0 0 0 0 0 0 0 0 0 750 743 0 0 735 728 743 766 728 728 728 743 743 0 0 721 728 735 735 728 728 714 714 735 721 721 721 721 721 721 728 808 0 0 0 0 0 0 0 0 0 446 0 0 0 0 0 0 0 0 0
    0 0 0 0 0 0 0 0 0 0 0 0 0 0 0 0 0 0 0 0 0 0 0 0 0 0 0 0 0 0 0 0 0 0 0 0 0 0 0 0 0 0 0 0 0 0 0 0 0 0 0 0 0 0 0 0 0 0 0 0 0 0 0 0 0 0 0 0 0 955 919 0 876 876 855 826 836 826 826 826 836 836 826 836 845 845 845 845 855 845 836 845 855 865 865 886 886 886 876 876 855 845 836 826 817 799 0 808 855 865 855 845 845 845 855 865 886 817 845 855 876 876 897 876 876 876 0 0 0 0 0 782 758 0 0 0 0 0 1226 0 0 0 0 0 0 0 0 0 0 0 0 0 681 0 0 171 171 0 0 0 0 0 0 0 0 0 0 0 0 0 0 0 0 0 0 0 0 0 0 0 0 0 0 0 0 0 541 0 533 0 0 0 0 0 228 0 0 0 0 0 0 0 0 0 0 0 0 0 0 0 0 0 0 0 0 0 0 0 0 0 0 0 0 0 0 750 774 743 728 774 782 782 758 766 758 750 758 782 728 721 728 735 707 721 714 707 714 0 0 0 0 0 0 0 0 0 0 0 0 0 0 0 0 0 782 766 774 750 766 758 750 750 758 743 735 743 750 721 714 714 728 714 0 0 707 714 714 721 714 714 707 707 735 728 721 721 721 721 728 743 826 0 0 0 0 808 808 782 766 0 0 0 0 0 0 0 0 0 0 0
    0 0 0 0 0 0 0 0 0 0 0 0 0 0 0 0 0 0 0 0 0 0 0 0 0 0 0 0 0 0 0 0 0 0 0 0 0 0 0 0 0 0 0 0 0 0 0 0 0 0 0 0 0 0 0 0 0 0 0 0 0 0 0 0 0 0 0 0 0 943 897 0 876 865 845 826 836 826 826 826 836 836 826 836 845 836 845 855 855 845 845 855 865 876 897 897 897 897 897 876 855 845 836 836 817 808 0 808 855 865 855 845 845 845 855 865 886 817 845 855 876 876 897 876 876 876 0 0 0 0 808 774 750 0 0 0 0 0 0 0 0 0 0 0 0 0 0 0 0 0 0 0 0 0 0 171 169 0 0 0 0 0 0 0 0 0 0 0 0 0 0 0 0 0 0 0 0 0 0 0 0 0 0 0 0 0 0 0 0 296 290 0 0 225 225 0 0 0 0 0 0 0 0 0 0 0 0 0 0 0 0 0 0 0 0 0 0 0 0 0 0 0 0 0 0 0 766 750 728 774 782 782 758 766 758 758 758 782 728 728 735 750 721 728 714 714 721 0 0 0 0 0 0 0 0 0 0 0 0 0 0 0 0 0 782 766 774 750 766 758 758 758 758 750 750 750 766 735 728 728 728 0 0 0 707 707 714 714 714 714 714 707 735 728 721 728 721 721 728 766 865 865 865 0 0 817 808 0 0 0 0 0 0 0 0 0 0 0 0 0
    0 0 0 0 0 0 0 0 0 0 0 0 0 0 0 0 0 0 0 0 0 0 0 0 0 0 0 0 0 0 0 0 0 0 0 0 0 0 0 0 0 0 0 0 0 0 0 0 0 0 0 0 0 0 0 0 0 0 0 0 0 0 0 0 0 0 0 0 0 943 886 0 876 865 845 826 836 826 826 826 836 826 826 845 855 836 845 855 855 845 845 865 865 876 908 908 897 897 908 886 865 855 836 836 0 817 0 817 865 865 865 845 845 845 855 865 886 817 855 855 876 876 897 886 876 876 0 826 0 808 808 766 743 0 0 0 0 0 0 0 0 0 0 0 0 0 0 0 0 0 0 0 0 0 171 171 169 0 0 0 0 0 0 0 200 200 198 0 0 0 0 0 0 0 0 0 0 0 0 0 0 0 0 0 0 0 0 0 0 0 290 0 0 0 0 0 0 0 0 0 0 0 0 0 0 0 0 0 0 0 0 0 0 0 0 0 0 0 0 0 0 0 0 0 0 0 766 758 728 782 782 782 766 766 766 758 766 791 735 735 743 766 743 750 721 721 728 0 0 0 0 0 0 0 0 0 0 774 782 0 743 0 0 0 750 743 735 728 735 735 735 735 728 735 735 750 774 750 0 728 0 0 0 0 694 700 700 700 700 707 707 700 721 721 721 721 721 721 728 766 876 865 0 0 0 0 0 0 0 0 0 0 0 0 0 0 0 0 0 0
    0 0 0 0 0 0 0 0 0 0 0 0 0 0 0 0 0 0 0 0 0 0 0 0 0 0 0 0 0 0 0 0 0 0 0 0 0 0 0 0 0 0 0 0 0 0 0 0 0 0 0 0 0 0 0 0 0 0 0 0 0 0 0 0 0 0 0 0 0 931 865 0 876 865 836 817 826 826 826 836 836 826 826 845 855 836 845 845 845 836 845 855 855 876 919 908 897 897 908 886 865 855 836 845 836 826 0 826 865 876 865 855 845 845 855 865 886 817 855 865 886 876 897 886 886 886 0 826 817 808 808 782 774 0 0 931 908 0 0 0 0 0 0 0 0 0 0 0 0 0 0 0 0 0 172 171 169 0 0 0 0 0 0 0 0 0 0 0 147 0 0 0 0 0 0 0 0 0 0 0 0 0 603 593 0 0 598 0 0 0 0 0 0 0 0 0 0 0 0 0 0 0 876 0 0 0 0 0 0 0 0 0 0 0 0 0 0 0 0 0 0 0 0 0 0 735 766 774 728 782 782 782 766 774 766 766 766 799 750 743 750 782 758 766 721 707 714 0 0 0 0 0 0 0 0 0 0 0 0 0 0 0 0 0 0 0 0 721 735 728 735 0 0 743 750 774 808 0 0 0 0 0 0 687 687 700 700 700 700 707 707 707 721 721 721 721 721 721 721 750 855 0 0 0 0 0 0 0 0 0 0 0 1887 2044 0 0 0 0 0 0
    0 0 0 0 0 0 0 0 0 0 0 0 0 0 0 0 0 0 0 0 0 0 0 0 0 0 0 0 0 0 0 0 0 0 0 0 0 0 0 0 0 0 0 0 0 0 0 0 0 0 0 0 0 0 0 0 0 0 0 0 0 0 0 0 0 0 0 0 0 897 855 0 876 855 826 817 826 826 826 836 826 826 826 845 845 836 836 845 836 836 845 855 855 865 919 908 908 908 919 886 865 855 836 845 0 826 0 826 876 876 865 855 855 845 855 865 886 817 855 865 886 886 897 897 886 886 968 826 836 826 817 791 799 799 0 865 876 0 0 0 0 0 0 0 0 0 0 0 0 0 0 0 0 0 0 0 0 0 0 0 0 0 0 0 0 0 0 0 147 0 0 0 0 0 0 0 0 0 0 0 0 0 0 588 0 0 0 0 0 0 0 0 0 0 0 0 0 221 0 0 0 0 845 0 0 0 0 0 0 0 0 0 0 0 0 0 0 0 0 0 0 0 0 0 0 735 774 782 728 782 782 782 766 774 774 774 774 808 758 750 750 782 758 750 707 700 707 0 0 0 0 0 0 0 0 0 0 0 0 0 728 721 0 0 743 735 735 728 735 728 743 743 743 750 750 774 782 0 0 0 0 0 0 687 687 700 700 700 707 707 714 714 721 714 714 721 714 714 714 735 0 0 0 0 0 0 0 0 0 0 0 0 0 2164 2164 0 0 0 0 0
    0 0 0 0 0 0 0 0 0 0 0 0 0 0 0 0 0 0 0 0 0 0 0 0 0 0 0 0 0 0 0 0 0 0 0 0 0 0 0 0 0 0 0 0 0 0 0 0 0 0 0 0 0 0 0 0 0 0 0 0 0 0 0 0 0 0 0 0 0 865 855 855 865 845 826 817 817 826 817 826 826 826 826 845 845 836 836 845 836 836 845 855 855 865 908 897 897 908 897 876 855 845 0 845 0 826 0 836 876 876 865 855 855 845 855 865 886 817 855 865 886 886 897 897 886 886 968 836 845 836 826 799 808 799 0 836 876 845 886 0 0 0 0 0 0 0 0 0 0 0 0 0 0 0 0 0 0 0 0 0 0 0 0 0 0 0 0 0 0 0 0 0 0 0 0 0 0 0 0 0 0 0 0 0 0 0 0 0 0 0 0 0 0 0 225 222 222 221 220 0 0 0 0 0 0 0 0 782 0 0 0 0 0 808 0 0 0 0 0 0 0 0 0 0 0 735 774 791 728 782 782 782 766 774 774 774 774 808 774 758 758 791 758 743 707 700 700 0 0 0 0 0 0 0 0 0 0 0 0 728 735 728 735 735 743 735 735 728 735 728 743 743 750 766 774 791 799 0 0 0 0 0 0 0 0 0 694 694 707 707 714 721 728 721 721 728 721 721 721 735 0 0 0 0 0 0 0 0 0 0 0 0 0 2164 2537 0 0 0 0 0
    0 0 0 0 0 0 0 0 0 0 0 0 0 0 0 0 0 0 0 0 0 0 0 0 0 0 0 0 0 0 0 0 0 0 0 0 0 0 0 0 0 0 0 0 0 0 0 0 0 0 0 0 0 0 0 0 0 0 0 0 0 0 0 0 0 0 0 0 0 845 855 855 855 836 817 817 817 826 817 817 826 817 826 836 845 836 836 836 826 836 845 855 855 865 908 897 897 908 897 876 0 0 0 0 0 0 0 836 876 876 876 855 855 855 855 865 897 826 865 876 886 886 897 908 886 886 955 826 836 826 817 791 791 791 799 836 886 855 865 0 0 0 0 0 0 0 0 0 0 0 0 0 0 0 0 0 0 0 0 0 0 149 0 0 148 148 148 0 0 0 0 0 0 0 0 0 0 0 0 0 0 0 0 608 623 0 0 184 0 0 0 0 0 0 225 0 223 0 0 0 0 0 0 0 0 0 0 0 0 0 0 0 0 808 0 0 0 0 0 0 0 0 0 0 0 743 791 799 721 782 782 782 766 774 774 774 774 808 782 766 766 791 774 758 721 714 714 0 0 0 0 0 0 0 0 0 0 0 735 721 728 728 735 735 735 735 735 735 743 743 758 758 758 774 774 782 774 0 0 0 0 0 0 0 0 0 687 687 694 687 714 721 721 721 721 728 721 721 728 735 0 0 0 0 0 0 0 0 0 0 0 0 0 0 0 0 0 0 0 0
    0 0 0 0 0 0 0 0 0 0 0 0 0 0 0 0 0 0 0 0 0 0 0 0 0 0 0 0 0 0 0 0 0 0 0 0 0 0 0 0 0 0 0 0 0 0 0 0 0 0 0 0 0 0 0 0 0 0 0 0 0 0 0 0 0 0 0 0 0 0 855 865 855 836 817 817 808 817 817 817 817 817 826 836 836 826 826 836 826 836 845 845 855 865 897 886 897 919 908 876 865 0 0 0 0 826 0 836 876 876 865 855 855 855 855 865 897 826 865 876 886 886 897 908 886 886 955 826 826 826 808 791 791 791 799 0 0 0 0 0 0 0 0 0 0 735 0 0 0 0 0 0 0 0 0 0 0 0 0 0 147 149 148 149 148 148 148 0 0 0 0 0 0 0 0 0 0 0 0 0 0 0 0 0 623 0 0 184 0 0 0 0 0 0 225 0 0 0 0 0 0 0 0 0 0 0 0 0 0 0 0 0 0 799 0 0 0 0 0 0 0 0 0 0 0 743 782 791 721 774 774 774 766 774 774 774 774 817 791 774 774 791 782 774 721 721 721 721 735 0 0 0 0 0 0 0 0 0 0 714 728 728 750 743 743 743 743 743 758 758 774 758 758 758 743 758 735 743 0 0 0 0 0 0 0 0 675 669 669 657 707 714 714 714 714 714 714 714 721 721 0 0 0 0 0 0 0 0 0 0 0 0 0 0 2164 0 0 0 0 0
    0 0 0 0 0 0 0 0 0 0 0 0 0 0 0 0 0 0 0 0 0 0 0 0 0 0 0 0 0 0 0 0 0 0 0 0 0 0 0 0 0 0 0 0 0 0 0 0 0 0 0 0 0 0 0 0 0 0 0 0 0 0 0 0 0 0 0 0 0 0 855 865 855 836 817 817 817 817 817 817 817 817 826 836 836 826 826 836 826 836 845 845 855 876 897 886 897 919 908 886 0 0 0 0 845 836 0 836 876 876 865 855 845 845 845 865 897 826 865 876 886 886 897 908 886 886 955 826 817 817 808 791 808 0 799 0 0 855 886 0 0 0 0 0 0 758 0 0 0 0 0 0 0 0 0 0 0 0 0 0 148 149 149 0 148 0 148 0 0 0 0 0 0 0 0 0 0 0 0 0 0 0 0 0 618 0 0 0 0 0 0 0 0 0 0 0 0 0 0 0 0 0 0 0 0 0 0 0 0 0 0 0 0 791 0 0 0 0 0 0 0 0 0 0 0 0 758 774 721 774 774 774 766 766 774 782 782 817 791 782 782 791 782 774 721 721 721 721 721 707 0 0 721 694 694 714 721 0 0 707 721 728 750 743 743 743 743 750 766 758 766 743 0 735 0 0 700 0 0 0 694 0 0 0 0 0 675 669 669 645 694 707 700 707 700 707 707 707 721 707 0 0 0 0 0 0 0 0 0 0 0 0 0 1989 2164 0 0 0 0 0
    0 0 0 0 0 0 0 0 0 0 0 0 0 0 0 0 0 0 0 0 0 0 0 0 0 0 0 0 0 0 0 0 0 0 0 0 0 0 0 0 0 0 0 0 0 0 0 0 0 0 0 0 0 0 0 0 0 0 0 0 0 0 0 0 0 0 0 0 0 817 855 876 855 836 826 826 826 826 826 826 817 817 826 836 836 826 836 836 836 836 845 845 855 876 897 886 908 908 897 886 0 0 0 0 836 826 0 826 876 876 865 855 845 845 845 876 908 826 865 876 897 897 897 908 886 886 955 826 817 817 799 791 808 799 791 0 855 0 855 845 0 0 0 0 0 0 855 0 0 0 0 0 0 0 0 0 0 0 0 0 147 0 0 0 0 0 148 0 0 0 0 0 0 0 0 0 0 0 0 0 0 0 0 0 0 0 0 0 0 0 0 0 0 0 0 0 0 0 0 0 0 0 0 0 0 0 0 0 0 0 0 0 0 774 0 0 0 0 0 0 0 0 0 0 0 0 743 774 714 774 774 774 766 766 774 782 782 817 791 782 782 791 791 782 714 714 707 707 700 0 0 0 694 681 681 714 714 714 721 721 735 743 766 758 758 766 758 766 774 774 774 0 0 0 0 0 681 687 675 0 0 0 0 0 0 0 681 669 663 634 687 700 694 700 694 700 700 700 714 700 0 0 0 0 0 0 0 0 0 0 0 0 0 0 0 0 0 0 0 0
    0 0 0 0 0 0 0 0 0 0 0 0 0 0 0 0 0 0 0 0 0 0 0 0 0 0 0 0 0 0 0 0 0 0 0 0 0 0 0 0 0 0 0 0 0 0 0 0 0 0 0 0 0 0 0 0 0 0 0 0 0 0 0 0 0 0 0 0 0 826 865 876 845 836 826 826 826 826 826 817 817 826 836 836 836 836 836 836 826 836 836 836 845 865 865 865 886 897 876 865 0 0 0 0 0 817 0 826 876 876 865 855 845 845 855 876 908 826 865 876 897 897 897 908 886 886 955 826 826 817 808 799 0 0 808 0 855 0 836 826 0 0 0 855 855 0 865 0 0 0 0 0 0 0 0 0 0 0 0 0 147 0 148 0 0 0 148 0 0 0 0 0 0 0 0 0 0 0 0 0 0 0 0 0 0 0 0 0 0 0 0 0 0 0 0 0 0 0 0 0 0 0 0 0 0 0 0 0 0 0 0 0 0 0 0 0 0 0 0 0 0 0 0 0 0 0 750 791 714 774 774 774 766 766 774 782 782 817 791 782 782 791 782 774 707 707 700 700 687 687 681 687 687 681 681 728 721 728 743 735 750 750 766 750 750 758 750 766 774 766 774 0 0 0 0 0 694 0 681 0 700 669 663 0 681 0 669 651 645 629 681 700 694 700 694 700 700 700 714 0 0 0 0 0 0 0 0 0 0 0 0 0 0 0 0 0 0 0 0 0
    0 0 0 0 0 0 0 0 0 0 0 0 0 0 0 0 0 0 0 0 0 0 0 0 0 0 0 0 0 0 0 0 0 0 0 0 0 0 0 0 0 0 0 0 0 0 0 0 0 0 0 0 0 0 0 0 0 0 0 0 0 0 0 0 0 0 0 0 0 826 876 876 845 836 826 826 826 826 826 817 817 826 836 826 826 826 826 826 826 836 826 826 845 855 855 855 886 897 855 855 855 855 0 817 826 817 0 826 876 876 865 845 845 855 855 876 919 826 876 876 897 897 897 919 886 886 955 826 836 826 808 0 0 0 0 0 0 826 845 0 0 0 817 0 826 817 0 0 0 0 0 0 0 0 0 0 0 0 0 0 146 147 147 0 148 148 148 0 0 0 766 0 0 0 0 0 0 0 0 0 0 0 0 0 0 0 0 0 0 0 0 0 0 0 0 0 0 0 0 0 0 0 0 0 0 0 0 0 0 0 0 0 0 0 0 0 0 774 0 0 0 0 0 0 0 0 758 799 714 774 774 774 766 758 766 782 774 808 791 782 774 782 791 774 700 700 694 694 687 0 0 687 681 681 0 728 721 728 750 750 766 766 782 758 766 774 766 782 791 782 782 774 0 735 0 714 687 0 663 675 687 645 651 675 675 681 657 634 639 629 687 707 700 700 700 700 700 700 721 0 0 0 0 0 0 0 0 0 0 0 981 0 0 1711 0 0 0 0 0 0
    0 0 0 0 0 0 0 0 0 0 0 0 0 0 0 0 0 0 0 0 0 0 0 0 0 0 0 0 0 0 0 0 0 0 0 0 0 0 0 0 0 0 0 0 0 0 0 0 0 0 0 0 0 0 0 0 0 0 0 0 0 0 0 0 0 0 0 0 0 836 897 876 855 845 836 836 836 836 826 817 808 826 836 826 826 826 826 826 826 836 826 826 845 855 845 845 865 865 836 845 836 845 0 0 817 808 0 826 886 886 865 845 855 855 855 876 919 836 876 876 897 897 897 919 886 886 955 826 855 826 0 0 0 0 0 0 0 0 0 0 0 0 817 0 817 808 817 0 0 0 0 0 0 0 0 0 0 0 0 0 146 0 147 148 148 148 148 0 0 0 799 782 791 791 782 782 0 0 0 0 750 0 0 0 0 0 0 0 0 0 0 0 0 0 0 0 0 0 0 0 0 0 0 0 0 0 0 0 0 0 0 0 0 0 0 0 0 0 0 0 0 0 0 0 0 0 817 836 714 774 774 774 766 758 766 774 774 808 782 782 766 774 791 774 707 707 700 707 700 707 694 694 687 687 0 728 721 721 728 728 743 743 758 735 743 743 750 774 782 782 774 750 0 721 0 694 687 687 669 0 0 0 0 0 0 0 651 623 639 629 694 700 694 700 700 700 700 700 721 0 0 0 0 0 0 0 0 0 0 0 0 0 0 1752 0 0 0 0 0 0
    0 0 0 0 0 0 0 0 0 0 0 0 0 0 0 0 0 0 0 0 0 0 0 0 0 0 0 0 0 0 0 0 0 0 0 0 0 0 0 0 0 0 0 0 0 0 0 0 0 0 0 0 0 0 0 0 0 0 0 0 0 0 0 0 0 0 0 0 0 855 897 876 855 845 845 845 845 836 836 826 817 826 836 826 826 836 836 826 826 836 826 817 836 836 836 826 0 826 808 808 817 836 0 0 0 0 0 0 886 886 865 855 855 855 855 876 919 836 876 876 908 908 897 919 886 886 955 836 876 826 0 0 0 0 0 0 0 826 0 808 826 836 817 0 0 808 817 0 0 0 0 0 0 0 0 0 0 0 0 0 0 0 0 0 0 0 0 0 0 0 826 817 817 817 808 808 791 0 0 791 774 743 0 0 0 0 0 0 0 0 0 336 0 0 0 0 0 0 0 0 181 0 0 0 0 0 0 0 0 0 0 0 0 0 0 0 0 0 0 1115 1168 0 0 0 0 0 0 836 714 766 774 774 766 750 766 774 774 808 774 774 766 766 791 782 707 714 707 714 707 707 0 0 0 694 735 743 721 721 743 728 0 728 0 728 735 735 735 750 774 774 774 0 0 721 0 700 0 707 687 0 0 0 0 0 0 687 669 639 657 639 694 700 694 700 700 700 700 700 728 0 0 0 0 799 799 0 0 0 0 897 0 0 0 1795 0 0 0 0 0 0
    0 0 0 0 0 0 0 0 0 0 0 0 0 0 0 0 0 0 0 0 0 0 0 0 0 0 0 0 0 0 0 0 0 0 0 0 0 0 0 0 0 0 0 0 0 0 0 0 0 0 0 0 0 0 0 0 0 0 0 0 0 0 0 0 0 0 0 0 0 865 908 876 855 845 845 845 845 836 836 826 817 826 836 826 836 836 836 826 836 836 826 817 826 826 817 817 817 808 799 808 817 0 0 0 0 0 0 836 886 886 876 855 855 855 855 876 919 836 876 876 908 908 897 919 886 886 968 845 919 826 0 0 0 0 0 0 0 0 0 0 845 855 0 0 0 0 826 0 0 0 791 0 0 0 0 0 0 0 0 0 0 0 0 0 0 0 0 0 0 0 836 826 826 826 826 826 808 808 0 0 0 743 0 0 0 0 0 0 0 345 0 0 0 0 0 0 0 0 0 0 181 0 0 0 0 0 0 0 0 0 0 0 0 0 0 0 0 0 0 0 0 0 0 350 0 0 0 836 714 766 774 774 766 750 758 774 766 799 774 766 766 766 791 782 721 728 728 735 714 700 0 0 0 694 721 721 714 714 728 721 0 0 0 0 721 728 0 750 774 774 774 743 743 721 714 707 707 707 694 0 707 0 694 0 0 694 681 669 669 663 694 700 694 700 700 700 700 700 721 0 0 0 782 817 817 0 876 0 876 876 855 0 0 0 0 0 0 0 0 0
    0 0 0 0 0 0 0 0 0 0 0 0 0 0 0 0 0 0 0 0 0 0 0 0 0 0 0 0 0 0 0 0 0 0 0 0 0 0 0 0 0 0 0 0 0 0 0 0 0 0 0 0 0 0 0 0 0 0 0 0 0 0 0 0 0 0 0 0 0 876 886 865 845 845 845 845 845 836 836 826 817 836 836 826 836 836 836 826 836 836 817 817 826 817 808 817 817 799 808 826 836 826 817 0 0 0 0 0 876 876 865 845 855 845 845 876 919 836 876 876 908 908 897 919 886 897 968 865 968 876 968 981 0 0 0 0 0 0 0 0 0 0 0 0 0 0 0 0 0 0 782 0 0 0 0 0 0 369 0 0 0 0 0 0 0 0 0 0 0 0 845 836 826 836 0 826 817 0 0 799 0 0 0 0 0 0 0 0 362 350 345 0 0 334 0 0 187 0 0 0 0 179 0 0 0 0 0 0 0 0 0 0 0 0 0 1168 0 0 0 0 0 0 0 359 0 0 0 826 714 766 774 774 774 750 758 774 766 799 774 766 766 758 791 782 721 721 721 728 714 707 0 0 0 700 714 714 707 0 721 0 0 0 0 0 0 0 0 0 0 758 0 0 728 714 700 694 694 694 681 694 694 669 687 0 0 694 687 675 669 675 700 700 700 700 700 700 700 707 721 0 721 0 799 817 817 0 865 855 0 0 0 0 0 0 0 0 0 0 0 0
    0 0 0 0 0 0 0 0 0 0 0 0 0 0 0 0 0 0 0 0 0 0 0 0 0 0 0 0 0 0 0 0 0 0 0 0 0 0 0 0 0 0 0 0 0 0 0 0 0 0 0 0 0 0 0 0 0 0 0 0 0 0 0 0 0 0 0 0 0 886 886 865 855 855 855 845 845 845 836 826 826 836 836 836 836 836 836 826 836 826 808 808 817 808 799 808 808 799 817 836 826 826 817 808 808 817 0 0 865 876 865 845 845 845 845 876 919 836 865 865 908 897 897 919 886 897 968 876 994 955 0 1022 1036 1022 0 0 0 0 0 0 865 865 0 0 0 0 0 0 845 0 0 0 0 0 0 0 0 371 0 0 0 0 0 0 0 0 0 0 943 886 865 855 845 845 0 845 0 0 0 0 0 0 0 0 0 0 0 362 0 0 347 0 0 0 0 189 187 186 0 0 0 179 178 0 0 79 0 0 0 1168 0 0 0 1226 1206 1187 0 0 0 0 0 0 0 0 0 0 0 836 714 766 774 774 774 750 758 774 766 799 774 766 766 758 782 774 728 728 728 743 728 714 0 0 0 707 0 0 0 0 0 0 0 0 0 0 0 0 0 0 0 743 0 721 728 0 0 707 687 694 675 0 687 0 681 694 694 694 681 675 669 681 700 707 700 707 707 707 707 721 735 728 735 791 817 817 799 0 865 0 0 855 0 0 0 0 0 0 0 0 0 0
    0 0 0 0 0 0 0 0 0 0 0 0 0 0 0 0 0 0 0 0 0 0 0 0 0 0 0 0 0 0 0 0 0 0 0 0 0 0 0 0 0 0 0 0 0 0 0 0 0 0 0 0 0 0 0 0 0 0 0 0 0 0 0 0 0 0 0 0 0 897 886 865 855 855 855 855 855 855 836 836 836 845 836 836 836 836 836 826 836 826 799 799 808 791 791 799 799 799 826 855 845 845 836 817 826 817 0 817 865 865 855 845 855 855 845 876 919 836 865 865 897 897 897 919 886 886 968 876 1008 1008 1051 1051 1036 1022 994 0 981 955 919 0 865 855 855 855 0 0 0 0 865 0 0 0 0 0 0 0 0 369 0 0 0 0 205 207 0 0 0 0 931 897 876 865 855 845 0 0 845 0 0 0 0 0 0 0 0 0 360 357 355 348 347 0 0 0 0 189 188 187 0 0 0 0 0 0 0 0 0 0 1206 1168 0 0 0 0 1226 0 0 0 0 0 0 0 0 0 0 0 876 836 721 766 774 774 774 750 758 774 766 791 774 766 758 750 782 774 728 728 728 735 728 721 0 0 0 721 0 0 0 0 0 0 0 0 93 0 0 0 0 0 0 735 728 728 735 743 743 750 714 728 707 714 687 639 681 687 694 687 675 669 657 694 707 707 707 707 714 714 714 728 750 743 743 774 799 791 758 0 0 0 0 0 0 0 0 0 0 0 0 0 0 0
    0 0 0 0 0 0 0 0 0 0 0 0 0 0 0 0 0 0 0 0 0 0 0 0 0 0 0 0 0 0 0 0 0 0 0 0 0 0 0 0 0 0 0 0 0 0 0 0 0 0 0 0 0 0 0 0 0 0 0 0 0 0 0 0 0 0 0 0 0 908 886 876 865 865 865 855 865 865 845 845 836 845 845 836 836 836 836 826 826 817 799 799 799 782 782 791 782 791 836 865 845 845 836 817 826 826 0 817 865 865 855 845 855 855 855 876 908 826 865 865 897 897 886 908 886 886 968 876 1022 1022 1082 1066 1036 1008 981 955 955 886 876 836 855 855 855 845 845 836 0 0 855 0 0 0 0 0 0 0 369 371 369 0 0 0 207 209 210 0 0 0 0 0 855 855 845 836 845 826 836 0 0 0 0 0 0 774 0 0 357 355 352 345 0 0 0 336 0 189 189 0 0 0 0 0 0 0 0 0 0 0 0 1168 0 0 0 0 1226 0 0 0 0 0 0 0 0 994 897 836 876 836 721 766 774 774 774 750 758 774 766 791 774 758 750 750 766 766 721 721 728 735 728 728 735 0 0 743 0 0 0 0 0 0 0 0 0 0 0 0 0 0 707 721 714 721 721 743 750 766 735 743 721 721 687 629 675 687 687 681 669 663 645 707 721 714 714 714 721 721 728 750 774 0 750 791 808 782 714 0 0 0 0 0 0 0 0 0 0 0 0 0 0 0
    0 0 0 0 0 0 0 0 0 0 0 0 0 0 0 0 0 0 0 0 0 0 0 0 0 0 0 0 0 0 0 0 0 0 0 0 0 0 0 0 0 0 0 0 0 0 0 0 0 0 0 0 0 0 0 0 0 0 0 0 0 0 0 0 0 0 0 0 0 897 876 865 865 855 865 865 876 865 855 855 845 845 845 845 836 826 826 826 826 817 799 799 799 791 791 791 791 799 845 876 845 845 836 817 826 826 799 817 855 865 855 845 855 855 845 876 908 826 865 865 897 897 886 908 886 886 968 876 1022 0 1066 1051 1036 994 968 931 919 886 865 845 865 0 865 845 836 817 0 0 0 0 0 0 0 0 0 377 375 373 369 367 0 0 209 210 211 0 0 0 0 876 855 855 836 836 845 826 836 0 0 0 0 0 0 0 0 0 359 357 355 347 0 0 0 333 0 0 0 0 0 0 0 0 180 0 0 0 0 0 0 0 0 0 0 0 0 0 0 0 0 96 96 0 0 908 855 836 865 836 728 758 774 774 774 750 758 766 766 791 766 758 750 750 766 766 728 728 728 735 735 735 750 750 766 774 0 0 791 0 0 0 0 0 0 0 694 0 0 707 707 714 707 714 714 721 721 743 728 735 721 0 0 663 681 694 687 675 669 669 657 707 721 721 721 721 721 721 728 758 0 0 0 0 0 714 681 663 681 0 0 0 0 0 0 0 0 0 0 0 0 0
    0 0 0 0 0 0 0 0 0 0 0 0 0 0 0 0 0 0 0 0 0 0 0 0 0 0 0 0 0 0 0 0 0 0 0 0 0 0 0 0 0 0 0 0 0 0 0 0 0 0 0 0 0 0 0 0 0 0 0 0 0 0 0 0 0 0 0 0 0 886 865 865 865 855 855 855 865 865 855 855 855 855 845 845 845 836 836 836 836 817 808 799 799 799 799 799 799 817 845 865 845 845 826 826 826 826 799 817 855 855 855 845 855 855 845 876 908 826 865 865 897 886 886 908 886 886 968 855 994 981 1022 994 968 931 908 897 897 876 865 845 876 876 897 876 855 0 0 0 0 0 0 0 383 0 0 381 377 375 369 367 364 0 0 210 211 0 0 0 0 865 855 855 845 836 845 826 865 855 865 0 0 0 0 0 0 0 0 0 0 0 0 0 0 333 0 0 0 0 0 0 0 0 0 0 0 0 0 0 0 0 0 0 0 0 0 0 0 0 0 0 96 0 0 0 845 836 865 836 735 750 774 774 774 750 758 766 758 782 774 758 750 750 766 758 728 728 728 735 735 735 743 750 758 750 0 0 782 0 0 0 0 0 0 0 700 0 707 714 714 714 707 707 707 721 714 0 714 728 728 721 700 694 687 707 694 687 681 681 675 714 728 728 721 721 721 721 728 750 0 0 0 0 0 700 681 663 675 694 0 0 0 0 0 0 0 0 0 0 0 0
    0 0 0 0 0 0 0 0 0 0 0 0 0 0 0 0 0 0 0 0 0 0 0 0 0 0 0 0 0 0 0 0 0 0 0 0 0 0 0 0 0 0 0 0 0 0 0 0 0 0 0 0 0 0 0 0 0 0 0 0 0 0 0 0 0 0 0 0 0 876 855 855 855 855 855 855 865 855 845 855 855 855 845 845 845 836 836 836 845 826 817 817 817 808 817 808 817 836 865 886 855 845 836 826 836 826 808 817 855 855 855 845 845 845 845 876 897 826 855 855 886 886 876 897 876 876 943 836 955 855 855 808 0 845 865 876 876 865 855 845 876 876 886 876 865 865 876 0 943 897 0 0 0 0 0 0 0 377 371 0 0 0 0 210 0 0 0 0 0 0 845 845 836 836 836 836 886 876 897 876 0 0 0 0 0 0 0 103 0 0 0 0 0 0 0 0 0 0 0 0 0 0 0 0 0 0 0 0 0 0 0 0 0 0 0 0 0 0 0 750 774 0 0 0 0 826 836 826 735 750 774 774 774 750 750 766 758 782 774 758 750 750 766 758 728 728 728 728 728 721 728 735 735 728 0 0 0 0 0 0 0 0 0 707 707 707 721 728 721 721 714 714 714 721 721 728 721 735 743 735 0 700 694 707 700 694 681 681 681 714 735 728 728 728 728 728 735 743 0 0 0 0 0 694 675 657 687 687 0 0 0 0 2628 0 0 0 0 0 0 0
    0 0 0 0 0 0 0 0 0 0 0 0 0 0 0 0 0 0 0 0 0 0 0 0 0 0 0 0 0 0 0 0 0 0 0 0 0 0 0 0 0 0 0 0 0 0 0 0 0 0 0 0 0 0 0 0 0 0 0 0 0 0 0 0 0 0 0 0 0 865 855 855 855 855 845 855 865 855 855 855 855 855 845 855 845 836 836 845 845 826 817 826 826 826 826 817 826 845 876 886 855 845 836 826 826 826 799 817 845 855 855 845 845 845 845 865 897 817 855 845 876 876 876 886 865 876 931 826 931 855 826 808 817 826 845 855 865 855 845 836 855 865 865 865 865 855 886 931 0 0 0 0 0 0 0 0 0 379 0 0 799 0 0 0 0 0 0 0 0 808 799 817 826 817 817 836 886 886 897 897 908 0 0 0 0 0 0 0 0 0 0 0 0 0 0 0 0 0 0 0 0 0 0 0 0 0 0 0 0 0 0 0 0 0 0 0 0 0 782 743 758 0 0 782 0 799 799 817 743 743 774 766 774 750 750 766 758 774 774 758 750 750 766 758 721 728 721 728 721 721 721 721 721 721 0 0 0 0 0 0 0 0 707 707 707 700 721 728 721 721 714 714 0 0 728 0 721 758 750 743 707 700 694 707 694 687 669 675 687 714 735 735 728 728 728 728 743 743 0 0 694 675 0 657 657 645 675 669 0 0 0 0 2628 2453 0 0 0 0 0 0
    0 0 0 0 0 0 0 0 0 0 0 0 0 0 0 0 0 0 0 0 0 0 0 0 0 0 0 0 0 0 0 0 0 0 0 0 0 0 0 0 0 0 0 0 0 0 0 0 0 0 0 0 0 0 0 0 0 0 0 0 0 0 0 0 0 0 0 0 0 876 855 855 865 855 855 865 876 865 865 865 855 855 855 855 845 836 845 845 845 836 826 836 836 845 845 0 836 855 897 897 855 855 836 826 826 826 799 808 845 845 845 836 845 845 845 865 886 817 845 845 876 876 876 886 865 865 919 826 886 845 826 817 826 826 845 845 855 855 845 836 845 845 855 845 855 845 855 886 0 0 0 0 0 0 0 0 0 0 758 774 799 808 808 826 845 836 836 817 817 799 791 808 817 808 817 836 876 876 886 886 865 845 845 836 791 766 743 0 0 0 758 750 758 808 0 0 0 0 0 0 0 0 0 0 0 0 743 750 750 0 791 782 791 782 791 0 791 0 782 750 743 0 0 735 0 774 782 817 743 735 774 766 774 750 750 766 766 774 782 758 750 750 766 766 721 721 721 721 714 714 714 714 721 714 0 0 0 0 0 0 0 0 0 700 694 694 707 728 714 0 0 0 0 0 0 0 728 782 743 728 700 700 687 700 687 675 645 663 694 714 728 728 728 728 728 728 750 743 743 0 700 694 0 669 0 669 687 675 0 0 0 0 2628 2628 0 0 0 0 0 0
    0 0 0 0 0 0 0 0 0 0 0 0 0 0 0 0 0 0 0 0 0 0 0 0 0 0 0 0 0 0 0 0 0 0 0 0 0 0 0 0 0 0 0 0 0 0 0 0 0 0 0 0 0 0 0 0 0 0 0 0 0 0 0 0 0 0 0 0 0 876 865 865 876 865 865 876 886 865 876 876 855 855 855 855 845 836 845 845 855 845 845 845 845 855 865 836 855 865 897 886 855 855 0 826 826 826 808 817 845 855 845 836 845 845 845 865 886 817 845 845 865 865 865 876 865 865 908 836 876 855 836 826 836 836 845 845 855 845 845 836 836 836 836 836 845 836 0 855 0 0 0 0 0 0 0 0 0 799 782 782 808 817 817 836 845 836 836 826 826 808 808 817 817 808 817 836 855 855 865 855 836 817 817 799 774 758 743 766 791 791 774 782 782 808 0 0 0 0 0 78 78 0 0 0 0 0 735 743 743 758 774 782 782 774 791 799 791 799 782 774 750 750 0 0 0 791 791 817 750 728 774 766 774 750 750 766 766 774 782 758 750 750 766 766 721 721 721 714 714 714 714 714 714 714 714 0 0 0 0 0 0 0 714 714 707 700 721 735 728 0 714 0 0 0 0 0 714 799 743 721 700 707 694 707 694 669 634 669 707 721 728 728 728 728 728 735 758 743 743 714 714 714 0 0 0 0 0 0 0 0 0 0 2725 2830 0 0 0 0 0 0
    0 0 0 0 0 0 0 0 0 0 0 0 0 0 0 0 0 0 0 0 0 0 0 0 0 0 0 0 0 0 0 0 0 0 0 0 0 0 0 0 0 0 0 0 0 0 0 0 0 0 0 0 0 0 0 0 0 0 0 0 0 0 0 0 0 0 0 0 0 886 865 865 876 876 855 865 876 865 876 876 865 855 855 865 845 836 845 845 845 845 845 845 855 865 876 845 876 897 897 897 855 855 836 826 836 826 808 817 845 855 855 845 845 845 845 865 886 817 836 836 865 865 865 876 865 865 908 836 876 865 836 836 845 845 855 845 855 845 836 826 826 826 826 826 836 817 836 845 0 0 500 0 0 0 0 791 826 808 799 799 817 826 826 855 855 836 836 826 826 817 808 817 817 799 817 826 836 845 845 836 817 799 808 791 766 766 750 750 791 791 782 791 791 799 799 0 0 0 0 0 0 0 0 0 0 735 735 743 743 758 766 782 782 774 782 791 782 791 782 782 750 0 0 0 0 799 799 808 766 728 774 774 774 750 750 766 766 774 782 766 750 750 766 774 721 721 714 714 707 714 707 707 707 707 707 0 0 0 0 0 0 0 721 721 714 714 721 735 728 728 721 721 707 0 714 714 700 743 721 0 694 700 687 694 681 663 634 675 721 728 735 735 735 735 735 743 766 728 0 0 0 0 0 0 0 0 0 0 0 0 0 4088 2628 2830 0 0 0 0 0 0
    0 0 0 0 0 0 0 0 0 0 0 0 0 0 0 0 0 0 0 0 0 0 0 0 0 0 0 0 0 0 0 0 0 0 0 0 0 0 0 0 0 0 0 0 0 0 0 0 0 0 0 0 0 0 0 0 0 0 0 0 0 0 0 0 0 0 0 0 0 865 845 855 865 855 855 855 865 855 865 876 855 855 865 865 845 836 845 845 836 845 845 845 845 865 886 876 886 931 908 897 855 845 836 826 826 826 808 817 845 855 855 845 845 845 845 855 876 808 836 826 855 865 865 865 865 855 897 845 876 865 826 836 836 836 845 845 855 836 826 826 826 817 817 817 826 808 808 0 0 0 0 0 0 855 0 817 845 826 817 817 826 826 826 855 855 836 826 817 826 808 799 808 808 791 808 817 826 826 826 826 808 799 808 791 774 774 750 750 791 799 799 799 799 808 808 0 0 0 0 0 0 0 721 758 743 750 743 758 743 766 766 782 774 782 782 791 782 791 782 791 750 0 0 0 0 782 782 799 766 728 774 766 774 750 750 766 766 774 791 766 750 750 766 782 721 721 714 714 707 707 707 700 707 707 700 0 0 0 0 721 0 700 707 707 707 714 721 728 721 721 721 707 700 700 700 694 687 700 700 0 681 687 681 687 675 663 639 694 728 735 743 743 743 735 735 758 774 0 0 0 0 0 0 0 0 0 0 0 3873 5661 0 6133 0 3066 0 0 0 0 0 0
    0 0 0 0 0 0 0 0 0 0 0 0 0 0 0 0 0 0 0 0 0 0 0 0 0 0 0 0 0 0 0 0 0 0 0 0 0 0 0 0 0 0 0 0 0 0 0 0 0 0 0 0 0 0 0 0 0 0 0 0 0 0 0 0 0 0 0 0 0 855 836 836 845 845 845 855 845 845 855 865 855 845 855 855 836 826 836 836 826 845 845 845 845 876 897 886 897 943 908 908 865 855 836 826 826 836 808 817 855 855 855 845 845 845 845 855 876 808 817 817 855 865 865 865 865 855 897 845 886 876 836 845 845 845 845 845 855 836 826 817 817 808 799 808 826 799 782 0 0 0 0 0 931 855 845 836 845 836 836 836 836 836 0 855 0 0 817 817 817 808 799 817 808 791 808 817 817 826 826 826 799 791 808 791 774 774 758 758 791 808 808 817 817 826 836 836 855 836 836 0 0 0 0 808 774 774 766 774 758 774 766 782 774 782 782 782 782 799 791 791 766 0 0 0 0 774 774 791 774 728 774 766 774 750 750 766 766 774 791 766 766 758 782 799 735 728 728 721 714 707 707 700 700 700 700 700 700 700 700 707 700 700 700 714 714 721 728 743 728 735 735 721 700 700 700 694 681 694 700 675 681 687 669 675 663 663 645 707 735 735 735 735 735 735 735 758 766 700 0 0 0 0 0 0 0 0 0 3345 5256 6133 0 6690 0 0 0 0 0 0 0 0
    0 0 0 0 0 0 0 0 0 0 0 0 0 0 0 0 0 0 0 0 0 0 0 0 0 0 0 0 0 0 0 0 0 0 0 0 0 0 0 0 0 0 0 0 0 0 0 0 0 0 0 0 0 0 0 0 0 0 0 0 0 0 0 0 0 0 0 0 0 855 845 836 845 855 845 855 845 845 845 855 845 845 845 845 817 817 826 826 826 836 836 845 845 886 897 897 908 943 919 919 886 865 845 836 836 836 808 817 855 855 855 836 845 845 845 855 876 808 808 808 845 865 865 865 865 855 886 855 886 876 845 845 845 845 845 836 845 836 826 817 808 791 782 791 826 799 791 0 1036 1008 0 943 931 855 845 845 855 845 845 845 845 836 0 0 0 0 808 808 817 799 799 817 0 0 817 817 817 826 826 826 799 791 808 808 799 791 782 782 799 817 817 826 826 836 845 836 865 845 845 855 845 845 836 0 799 791 782 791 766 782 774 782 774 782 782 782 782 799 791 799 774 0 0 0 0 774 758 774 774 721 774 774 774 758 750 774 766 774 791 766 766 766 782 817 750 735 735 721 721 714 714 700 700 700 700 694 694 694 700 700 700 700 700 714 721 728 743 758 750 799 774 766 714 721 714 700 687 694 700 675 675 681 669 663 651 663 651 707 735 728 728 728 735 735 735 766 774 0 766 0 826 808 799 817 808 0 0 3199 6133 6690 0 7359 0 0 0 0 0 0 0 0
    0 0 0 0 0 0 0 0 0 0 0 0 0 0 0 0 0 0 0 0 0 0 0 0 0 0 0 0 0 0 0 0 0 0 0 0 0 0 0 0 0 0 0 0 0 0 0 0 0 0 0 0 0 0 0 0 0 0 0 0 0 0 0 0 0 0 0 0 0 865 855 845 855 855 855 865 845 845 845 845 845 836 826 826 799 808 817 817 817 836 836 836 855 886 897 908 919 943 919 931 897 876 855 845 836 836 799 817 855 865 855 836 845 845 845 855 876 799 791 799 845 865 865 865 865 865 897 865 886 876 845 845 845 855 845 836 836 826 817 808 791 766 758 774 826 808 799 855 0 1036 1036 968 943 855 855 845 855 855 855 845 855 845 0 0 0 0 808 808 817 799 0 817 0 0 817 817 817 826 826 826 808 791 808 799 799 799 791 791 808 817 817 836 836 845 845 836 865 855 855 865 855 855 845 845 808 799 791 799 766 782 774 782 774 782 782 782 782 799 799 799 791 0 0 0 0 750 743 758 766 721 766 774 774 758 750 774 774 774 799 774 766 766 782 817 750 728 735 721 721 721 721 707 707 714 707 700 0 700 707 714 707 700 700 721 721 728 766 782 766 817 791 799 735 0 728 700 687 694 694 675 675 681 681 675 669 681 663 714 735 728 728 728 735 735 743 782 0 0 808 817 836 817 808 0 0 0 0 3066 6690 6690 0 7359 0 0 0 0 0 0 0 0
    0 0 0 0 0 0 0 0 0 0 0 0 0 0 0 0 0 0 0 0 0 0 0 0 0 0 0 0 0 0 0 0 0 0 0 0 0 0 0 0 0 0 0 0 0 0 0 0 0 0 0 0 0 0 0 0 0 0 0 0 0 0 0 0 0 0 0 0 0 845 845 845 845 855 855 855 845 845 855 845 836 826 817 808 791 799 799 808 808 826 836 836 855 886 886 897 908 919 886 908 876 865 845 836 826 826 791 808 855 865 855 836 845 845 845 855 886 808 791 791 836 865 865 876 865 876 897 886 897 886 845 855 855 855 845 836 836 826 817 808 782 750 750 766 0 817 799 836 865 981 0 943 931 855 855 855 865 865 865 855 865 855 0 0 0 0 0 0 0 799 808 817 0 0 817 817 817 817 826 826 808 791 799 799 791 799 791 791 799 808 817 826 826 836 836 826 855 855 855 865 855 855 855 0 0 799 791 799 774 782 766 782 766 782 782 782 782 799 799 799 799 994 955 0 855 758 743 750 758 721 766 774 774 758 750 774 774 774 808 782 774 766 791 817 766 728 735 728 728 728 728 714 721 728 728 721 728 714 728 728 721 714 714 735 728 743 774 791 782 826 799 808 766 0 750 714 694 694 687 675 675 681 669 663 663 681 669 721 743 735 735 735 735 743 750 0 0 0 0 0 855 817 817 0 0 0 0 0 7359 8177 0 0 0 0 0 0 0 0 0 0
    0 0 0 0 0 0 0 0 0 0 0 0 0 0 0 0 0 0 0 0 0 0 0 0 0 0 0 0 0 0 0 0 0 0 0 0 0 0 0 0 0 0 0 0 0 0 0 0 0 0 0 0 0 0 0 0 0 0 0 0 0 0 0 0 0 0 0 0 0 845 836 836 836 845 845 845 845 836 845 845 836 817 808 791 758 774 782 782 791 817 826 826 845 876 876 886 908 919 886 908 886 865 855 836 836 836 791 808 865 865 855 836 845 845 845 855 886 808 782 782 836 876 876 886 876 886 908 886 897 886 845 855 855 855 845 836 826 817 817 799 766 743 750 758 0 0 808 836 845 855 876 897 897 855 855 865 876 876 865 865 865 855 0 0 0 0 0 0 0 0 0 826 0 799 817 808 808 808 817 817 799 791 799 791 791 791 791 791 799 808 817 836 826 836 826 826 855 855 865 876 865 865 855 0 0 808 799 799 774 774 766 782 766 774 774 774 774 791 799 808 799 943 919 0 876 799 758 766 774 721 766 774 774 766 750 782 782 782 808 791 782 782 791 826 782 735 743 743 735 728 728 714 721 728 728 721 714 714 728 728 721 714 714 750 743 758 782 791 791 817 808 817 791 791 782 0 0 0 694 681 681 681 669 663 663 681 681 735 750 750 743 743 743 750 758 0 0 0 0 0 0 826 0 0 0 0 0 0 0 0 0 0 0 0 0 0 0 0 0 0
    0 0 0 0 0 0 0 0 0 0 0 0 0 0 0 0 0 0 0 0 0 0 0 0 0 0 0 0 0 0 0 0 0 0 0 0 0 0 0 0 0 0 0 0 0 0 0 0 0 0 0 0 0 0 0 0 0 0 0 0 0 0 0 0 0 0 0 0 0 836 826 826 826 836 836 836 826 817 836 836 817 808 791 750 735 743 774 774 774 799 808 808 836 855 865 876 886 897 876 886 876 865 855 836 836 826 791 808 865 865 855 836 845 845 845 855 886 799 774 766 826 886 886 897 897 908 908 897 897 886 855 855 855 845 836 836 826 808 808 791 750 743 743 750 0 151 0 855 855 0 0 886 908 855 855 865 876 876 876 876 865 855 0 0 0 0 0 0 0 0 0 817 808 799 808 799 799 799 808 808 791 782 791 791 791 799 799 791 799 808 817 836 826 826 826 817 845 845 845 865 865 876 855 855 826 817 799 799 774 774 758 774 750 766 766 766 774 791 799 808 808 897 876 0 0 808 766 774 782 721 774 774 774 766 750 782 782 782 808 799 791 782 791 826 782 735 743 743 735 735 728 721 735 735 728 721 721 721 735 743 728 714 714 743 758 766 782 791 782 808 799 808 808 799 791 0 0 0 0 0 694 694 681 669 669 694 687 750 774 774 766 766 774 774 782 0 0 0 0 0 0 0 0 0 0 0 0 0 0 0 0 0 0 0 0 0 0 0 0 0
    0 0 0 0 0 0 0 0 0 0 0 0 0 0 0 0 0 0 0 0 0 0 0 0 0 0 0 0 0 0 0 0 0 0 0 0 0 0 0 0 0 0 0 0 0 0 0 0 0 0 0 0 0 0 0 0 0 0 0 0 0 0 0 0 0 0 0 0 0 836 817 817 817 826 826 817 808 799 808 817 799 766 750 721 721 728 758 758 758 782 799 799 826 845 855 855 865 876 855 865 865 855 845 826 826 817 774 799 865 865 855 836 845 845 845 855 886 799 766 766 826 876 876 886 886 897 886 886 886 876 845 845 845 836 836 826 817 808 799 774 743 743 750 743 0 0 0 855 0 0 0 897 931 865 865 876 876 876 876 886 876 845 0 0 817 0 0 0 0 799 808 808 799 799 808 799 791 791 799 791 799 782 791 799 799 799 808 808 808 808 826 845 826 826 808 808 845 836 836 855 865 886 855 855 826 817 808 808 782 782 766 774 743 766 758 758 766 791 791 799 799 855 845 808 808 791 766 766 774 721 766 774 774 774 750 782 782 782 817 799 799 791 799 826 782 735 750 743 743 735 735 735 750 758 743 728 728 728 735 743 728 714 721 735 758 758 766 774 774 782 791 799 808 799 808 0 0 0 0 0 0 0 0 707 700 707 694 758 774 782 782 782 782 791 799 0 0 0 0 0 0 0 0 0 0 0 0 0 0 0 0 0 0 0 0 0 0 0 0 0
    0 0 0 0 0 0 0 0 0 0 0 0 0 0 0 0 0 0 0 0 0 0 0 0 0 0 0 0 0 0 0 0 0 0 0 0 0 0 0 0 0 0 0 0 0 0 0 0 0 0 0 0 0 0 0 0 0 0 0 0 0 0 0 0 0 0 0 0 0 817 799 799 799 799 808 799 791 774 782 799 743 735 728 714 714 728 750 758 766 799 808 808 826 845 855 855 855 865 855 865 865 855 845 826 826 817 766 791 865 865 855 836 845 845 845 855 886 799 758 766 817 855 865 865 876 865 865 876 876 865 845 836 836 836 826 826 817 808 799 766 735 743 750 750 0 0 0 0 817 0 0 886 931 865 876 876 886 886 886 897 876 845 836 817 808 791 799 799 791 782 799 808 799 799 799 791 791 791 799 791 799 782 782 791 799 799 808 808 817 808 826 836 808 799 791 791 0 0 0 845 886 908 876 876 845 826 817 817 791 782 774 766 743 758 750 758 766 791 799 799 799 855 836 799 791 774 766 766 774 721 774 774 782 774 750 782 791 791 817 808 808 799 799 855 791 743 758 758 758 750 743 735 758 758 750 728 728 721 735 735 728 721 728 735 735 743 750 758 758 766 782 791 808 808 808 0 0 0 0 0 0 0 845 817 836 766 721 782 774 782 774 774 774 774 791 0 808 0 0 0 0 0 0 782 0 0 0 0 0 799 766 0 0 0 0 0 0 0 0 0
    0 0 0 0 0 0 0 0 0 0 0 0 0 0 0 0 0 0 0 0 0 0 0 0 0 0 0 0 0 0 0 0 0 0 0 0 0 0 0 0 0 0 0 0 0 0 0 0 0 0 0 0 0 0 0 0 0 0 0 0 0 0 0 0 0 0 0 0 0 817 808 799 782 774 782 782 774 750 750 758 714 721 721 707 714 721 750 758 774 808 817 817 836 855 855 855 855 865 855 855 855 855 845 826 836 826 782 791 865 865 855 836 836 836 836 845 876 808 750 766 817 845 845 845 855 845 845 865 865 855 836 836 836 826 817 826 826 808 799 766 750 750 766 766 0 0 0 0 799 766 782 865 919 865 876 886 886 886 897 897 876 836 826 799 791 782 791 791 782 782 799 799 799 808 799 799 791 799 799 791 808 791 782 791 791 799 808 808 808 799 817 836 782 758 750 743 0 0 0 0 886 931 908 897 876 845 0 0 0 791 782 766 735 758 750 758 774 791 799 799 808 845 836 799 791 782 758 766 782 721 774 774 782 774 750 782 791 791 826 817 817 817 808 897 799 758 766 766 758 750 743 735 743 750 743 728 721 721 735 750 750 728 735 728 728 735 743 743 743 750 766 774 808 817 817 808 0 0 0 0 0 0 886 876 865 826 782 808 791 782 782 774 774 782 791 808 799 0 0 0 0 0 0 750 0 0 0 750 826 782 750 743 721 735 721 0 0 0 0 0
    0 0 0 0 0 0 0 0 0 0 0 0 0 0 0 0 0 0 0 0 0 0 0 0 0 0 0 0 0 0 0 0 0 0 0 0 0 0 0 0 0 0 0 0 0 0 0 0 0 0 0 0 0 0 0 0 0 0 0 0 0 0 0 0 0 0 0 0 0 817 808 791 758 743 758 750 758 735 728 728 700 714 714 707 714 721 750 758 774 808 817 826 836 855 845 845 845 845 845 836 836 836 826 826 845 826 791 799 865 865 855 836 836 826 836 836 855 808 750 766 817 845 845 845 855 836 836 855 865 845 826 826 826 817 817 826 817 799 799 758 750 750 766 774 721 735 0 0 808 782 799 855 897 865 876 886 886 897 908 908 876 836 817 799 791 791 791 791 782 782 799 799 799 808 799 799 791 799 808 799 808 799 791 799 799 808 817 817 808 799 817 826 750 735 735 735 0 0 0 799 0 931 908 919 886 845 0 0 0 791 782 750 735 750 743 758 782 799 799 799 808 845 845 817 808 799 766 758 782 721 774 774 782 774 750 791 799 799 826 826 826 817 817 908 799 750 750 758 743 735 735 728 735 743 735 728 721 721 735 750 758 735 735 728 721 721 728 728 728 728 743 750 808 808 808 817 0 0 0 0 0 0 908 876 865 836 817 817 808 799 791 782 782 782 791 799 791 774 758 0 0 758 758 735 721 735 728 743 817 791 782 758 750 766 735 0 0 0 0 0
    0 0 0 0 0 0 0 0 0 0 0 0 0 0 0 0 0 0 0 0 0 0 0 0 0 0 0 0 0 0 0 0 0 0 0 0 0 0 0 0 0 0 0 0 0 0 0 0 0 0 0 0 0 0 0 0 0 0 0 0 0 0 0 0 0 0 0 0 0 808 791 774 750 728 728 721 728 721 721 721 700 714 714 714 721 728 750 758 766 808 817 817 836 836 836 826 836 826 836 826 826 826 817 817 836 826 799 799 855 845 845 826 826 826 826 826 836 808 758 766 826 845 845 845 855 836 836 855 865 845 826 826 826 817 808 817 817 799 782 750 758 750 766 774 728 743 0 0 774 743 791 845 886 876 876 919 931 931 943 943 876 836 808 799 791 0 0 0 782 791 808 799 799 808 799 791 791 799 808 799 817 799 791 799 808 817 817 817 817 808 817 817 735 728 728 728 721 750 758 782 0 876 855 897 876 836 0 0 0 782 791 735 735 743 743 758 782 799 799 799 817 836 0 817 808 799 774 766 782 721 774 774 782 774 750 791 799 799 826 826 826 817 817 886 799 750 743 750 743 735 735 728 735 743 735 735 728 728 743 750 766 735 735 721 714 714 714 714 721 721 735 735 808 808 808 817 817 817 0 0 0 0 876 865 845 836 826 826 817 817 808 799 799 782 791 791 774 750 735 728 0 721 721 714 700 714 714 714 766 750 758 743 750 758 735 0 0 0 0 0
    0 0 0 0 0 0 0 0 0 0 0 0 0 0 0 0 0 0 0 0 0 0 0 0 0 0 0 0 0 0 0 0 0 0 0 0 0 0 0 0 0 0 0 0 0 0 0 0 0 0 0 0 0 0 0 0 0 0 0 0 0 0 0 0 0 0 0 0 0 808 782 766 743 721 714 714 721 714 714 714 700 714 721 728 735 735 758 766 774 808 808 808 826 826 826 808 817 817 826 808 808 817 817 808 826 817 817 808 845 836 836 817 817 817 817 817 826 808 758 766 826 845 845 845 855 836 826 845 855 836 826 826 826 808 808 817 808 782 766 743 766 758 782 791 750 758 728 707 750 714 758 817 865 908 897 968 955 968 968 955 865 808 808 808 799 0 0 0 0 799 817 808 799 808 799 791 791 799 799 791 808 799 791 808 808 817 817 808 817 808 817 791 728 721 721 721 721 735 743 766 0 0 0 886 876 826 826 0 808 799 817 750 750 750 750 766 782 791 799 799 808 817 0 817 808 791 782 766 782 721 774 782 782 782 758 791 799 799 826 826 826 817 817 886 799 758 743 758 743 735 728 721 721 728 721 728 721 728 743 743 758 735 735 721 714 714 714 707 714 714 728 728 799 799 799 817 808 817 826 855 836 826 845 855 845 836 845 855 836 836 826 799 799 774 791 791 774 743 735 728 728 721 721 721 707 714 714 714 735 735 735 728 728 750 728 0 0 0 0 0
    0 0 0 0 0 0 0 0 0 0 0 0 0 0 0 0 0 0 0 0 0 0 0 0 0 0 0 0 0 0 0 0 0 0 0 0 0 0 0 0 0 0 0 0 0 0 0 0 0 0 0 0 0 0 0 0 0 0 0 0 0 0 0 0 0 0 0 0 0 817 791 774 750 728 714 714 728 721 714 714 707 721 735 735 743 750 774 774 782 808 808 808 817 817 817 808 817 817 817 808 808 817 826 817 836 836 836 826 836 836 826 808 817 808 808 808 817 808 758 766 826 836 836 836 845 826 817 836 845 826 817 817 808 799 799 817 808 782 758 743 774 774 782 799 758 750 721 0 758 714 766 808 0 931 943 994 981 994 1008 981 855 750 791 808 799 808 808 799 782 799 817 808 799 808 799 799 799 808 799 791 808 799 799 808 808 817 817 817 817 808 826 774 721 721 714 714 714 728 735 758 782 0 808 0 845 817 817 817 808 799 817 743 758 758 758 766 782 791 791 799 808 0 0 817 799 808 799 782 791 714 782 782 791 791 758 791 799 799 826 826 826 817 817 897 808 766 750 758 743 735 735 714 721 721 714 721 721 728 743 750 758 743 743 714 721 714 714 700 707 714 721 721 782 782 782 817 799 799 808 817 817 808 817 817 808 791 817 791 707 687 687 694 700 714 743 766 750 735 735 728 721 721 721 721 707 721 721 714 735 743 750 735 735 758 735 0 0 0 0 0
    0 0 0 0 0 0 0 0 0 0 0 0 0 0 0 0 0 0 0 0 0 0 0 0 0 0 0 0 0 0 0 0 0 0 0 0 0 0 0 0 0 0 0 0 0 0 0 0 0 0 0 0 0 0 0 0 0 0 0 0 0 0 0 0 0 0 0 0 0 808 799 782 750 728 721 721 721 721 714 714 714 735 750 750 766 774 782 791 791 817 808 808 817 817 817 808 817 817 817 808 808 817 826 817 836 836 836 826 817 826 826 799 808 808 799 799 808 808 766 766 817 826 826 826 826 808 799 826 826 817 808 799 799 791 799 808 808 774 750 743 782 774 791 799 766 750 721 0 0 714 774 808 0 968 0 1036 1022 1051 1115 1022 845 743 791 808 799 799 799 791 774 799 817 808 799 808 799 799 799 826 808 799 817 808 808 808 808 817 817 808 817 808 817 750 721 721 714 714 714 721 728 743 766 766 774 791 799 791 782 791 766 766 782 735 0 758 766 782 774 791 791 791 808 808 0 799 799 817 808 799 799 721 791 791 791 791 758 799 808 808 826 826 826 817 817 897 808 758 743 750 743 728 735 714 714 714 707 714 721 728 743 750 766 758 766 714 721 714 714 707 707 707 714 714 758 743 743 799 782 782 774 799 799 791 791 791 774 735 721 721 694 675 675 681 687 694 700 728 721 728 735 728 721 714 714 707 700 707 714 707 714 721 735 728 735 750 735 0 0 0 0 0
    0 0 0 0 0 0 0 0 0 0 0 0 0 0 0 0 0 0 0 0 0 0 0 0 0 0 0 0 0 0 0 0 0 0 0 0 0 0 0 0 0 0 0 0 0 0 0 0 0 0 0 0 0 0 0 0 0 0 0 0 0 0 0 0 0 0 0 0 0 799 799 782 750 735 714 714 721 721 721 721 721 750 774 774 791 799 799 799 808 826 817 817 826 826 817 817 817 817 817 808 808 817 826 826 836 836 845 836 817 817 817 799 799 799 799 799 799 817 766 774 817 826 826 817 817 799 791 817 817 808 799 791 799 791 791 808 799 766 750 750 782 774 791 808 774 766 728 0 750 721 782 799 0 919 955 0 994 0 1036 968 836 750 791 799 799 799 791 791 766 799 817 808 799 799 799 799 808 836 817 808 817 808 808 808 808 808 808 799 799 799 791 743 728 728 721 721 721 721 728 750 758 750 750 758 766 758 750 766 743 743 750 728 758 766 774 791 774 791 791 799 808 799 799 799 791 0 799 774 774 721 782 791 791 791 758 799 808 808 826 826 826 817 817 886 808 758 743 743 743 728 735 714 707 714 707 721 728 728 743 743 766 774 782 714 721 714 714 707 707 700 707 700 714 714 714 750 758 743 743 758 766 766 758 750 735 721 700 700 694 675 669 675 681 687 694 714 707 714 728 721 714 707 714 707 694 700 707 700 694 700 721 700 721 735 728 0 0 0 0 0
    0 0 0 0 0 0 0 0 0 0 0 0 0 0 0 0 0 0 0 0 0 0 0 0 0 0 0 0 0 0 0 0 0 0 0 0 0 0 0 0 0 0 0 0 0 0 0 0 0 0 0 0 0 0 0 0 0 0 0 0 0 0 0 0 0 0 0 0 0 799 791 782 758 735 721 721 721 735 735 728 728 774 799 799 799 817 817 817 826 845 836 836 836 836 826 817 826 817 817 808 808 817 826 836 845 845 855 845 808 817 817 799 799 799 799 791 799 817 774 782 817 826 826 817 808 791 791 808 817 808 791 791 791 791 782 791 791 750 743 750 782 774 799 826 817 791 735 0 0 0 799 0 0 0 0 943 919 0 817 782 766 743 782 791 799 791 782 782 766 799 817 808 808 799 799 808 817 845 826 808 817 808 808 808 808 808 799 799 799 799 791 750 743 750 743 735 735 735 735 766 766 750 743 750 750 750 743 766 735 743 758 735 766 766 782 799 782 791 791 791 808 799 799 799 791 808 808 774 782 728 791 799 799 799 766 799 808 808 826 817 817 808 817 876 808 758 735 743 750 721 728 714 707 714 707 721 721 728 735 735 758 782 791 714 721 714 714 700 707 700 700 700 700 700 707 707 728 721 721 735 743 743 735 728 728 714 707 700 700 687 669 669 675 681 687 714 707 714 721 721 721 714 714 707 700 707 707 694 687 694 700 694 700 721 714 0 0 0 0 0
    0 0 0 0 0 0 0 0 0 0 0 0 0 0 0 0 0 0 0 0 0 0 0 0 0 0 0 0 0 0 0 0 0 0 0 0 0 0 0 0 0 0 0 0 0 0 0 0 0 0 0 0 0 0 0 0 0 0 0 0 0 0 0 0 0 0 0 0 0 799 791 791 766 750 735 743 743 750 750 750 750 791 799 799 799 808 817 817 826 845 836 836 836 845 836 826 836 817 817 817 817 826 836 845 855 855 865 845 791 808 808 791 791 799 799 791 791 817 791 791 826 836 826 808 799 782 791 808 808 799 791 782 791 791 774 774 766 735 743 766 791 774 808 865 855 826 791 0 0 0 0 0 0 0 0 845 865 817 808 735 750 743 774 791 799 782 782 774 774 799 817 817 808 808 808 817 826 855 836 817 808 808 808 808 808 808 799 799 808 808 791 750 766 758 743 750 750 735 743 774 774 766 758 766 766 758 743 774 750 750 766 735 766 766 782 799 782 782 791 791 808 799 799 799 791 808 826 791 774 728 799 808 799 808 774 799 808 808 826 808 808 799 808 836 799 750 735 735 743 721 728 714 714 714 707 721 728 728 735 743 758 782 782 714 728 721 714 707 714 707 707 700 707 700 694 694 707 700 707 707 721 721 721 721 721 714 700 700 700 694 687 675 669 675 681 707 700 707 728 728 721 714 721 714 700 707 707 694 681 681 694 687 694 707 707 0 0 0 0 0
    0 0 0 0 0 0 0 0 0 0 0 0 0 0 0 0 0 0 0 0 0 0 0 0 0 0 0 0 0 0 0 0 0 0 0 0 0 0 0 0 0 0 0 0 0 0 0 0 0 0 0 0 0 0 0 0 0 0 0 0 0 0 0 0 0 0 0 0 0 799 791 791 782 774 758 758 758 774 758 774 766 791 799 799 799 808 808 817 826 845 826 836 845 845 845 845 836 826 826 826 826 836 855 855 855 855 876 855 782 808 808 791 799 799 799 799 799 826 808 799 836 845 836 791 782 774 782 799 799 791 782 782 791 782 766 766 750 735 766 799 808 799 826 865 855 845 826 799 0 0 0 0 0 0 0 0 817 799 782 728 743 743 774 791 799 774 782 782 782 799 808 808 799 799 808 808 826 855 836 817 799 799 817 817 817 808 799 799 817 817 799 774 791 774 758 774 774 743 743 774 782 774 766 766 758 750 743 766 750 743 743 728 758 758 774 791 774 782 791 791 799 791 799 799 799 817 0 0 817 758 817 817 817 817 782 799 808 808 826 808 808 791 791 817 799 750 735 735 743 728 735 714 714 721 714 728 728 735 735 743 750 766 766 714 735 728 721 714 714 714 714 707 714 694 681 681 694 694 694 694 700 707 700 707 714 707 700 700 700 694 694 687 681 669 675 700 694 700 721 721 721 714 721 714 0 0 707 687 675 669 694 687 694 707 700 0 0 0 0 0
    0 0 0 0 0 0 0 0 0 0 0 0 0 0 0 0 0 0 0 0 0 0 0 0 0 0 0 0 0 0 0 0 0 0 0 0 0 0 0 0 0 0 0 0 0 0 0 0 0 0 0 0 0 0 0 0 0 0 0 0 0 0 0 0 0 0 0 0 0 799 799 799 791 791 774 774 766 782 766 774 774 791 799 799 799 808 808 817 826 836 826 836 845 845 845 845 845 826 826 845 836 855 865 865 865 855 876 855 782 808 808 799 808 808 817 808 808 855 826 817 897 876 836 782 766 766 774 791 791 782 774 774 791 782 758 750 743 743 791 817 826 826 845 865 865 845 836 817 0 0 0 0 0 0 0 0 817 791 766 735 750 750 782 799 799 766 774 782 774 791 808 799 791 791 808 808 817 845 826 791 782 782 799 799 799 799 791 791 808 817 808 791 808 799 791 808 808 766 743 774 782 766 758 750 735 735 728 743 735 735 728 721 743 750 774 782 774 774 782 782 791 791 799 791 791 808 845 826 808 774 817 817 817 817 791 791 808 808 817 799 799 782 782 808 799 750 735 735 750 728 735 721 721 714 707 728 735 735 735 743 750 766 758 714 735 735 728 721 721 721 721 714 721 694 675 675 687 681 681 681 687 694 694 700 707 707 700 700 700 700 694 694 687 681 675 694 687 687 707 714 714 700 707 707 694 0 0 675 651 645 651 675 687 687 681 0 0 0 0 0
    0 0 0 0 0 0 0 0 0 0 0 0 0 0 0 0 0 0 0 0 0 0 0 0 0 0 0 0 0 0 0 0 0 0 0 0 0 0 0 0 0 0 0 0 0 0 0 0 0 0 0 0 0 0 0 0 0 0 0 0 0 0 0 0 0 0 0 0 0 799 799 808 791 791 791 799 774 791 758 774 774 791 791 791 799 808 799 817 826 836 826 836 855 845 855 865 865 836 826 855 855 865 876 886 876 865 886 855 791 817 817 808 817 817 817 817 817 855 836 826 855 845 817 782 758 766 766 782 782 774 766 774 782 766 750 743 743 758 799 826 836 836 845 865 855 845 836 808 0 0 0 0 0 0 0 808 817 799 774 758 766 758 782 791 791 766 774 774 774 782 799 791 782 782 799 791 799 826 799 758 750 758 766 774 782 791 766 766 799 799 791 791 817 808 799 826 817 782 758 782 774 750 743 743 721 721 721 728 721 728 721 721 735 743 766 782 774 774 782 782 791 791 799 774 774 799 817 817 799 782 826 808 826 817 799 791 799 799 808 791 799 774 782 799 799 758 743 743 766 728 743 721 721 714 700 721 728 728 728 743 750 766 766 714 743 743 735 728 728 728 721 714 728 694 669 669 675 675 675 675 681 687 687 694 700 700 694 694 694 694 694 687 687 681 681 694 687 687 707 707 714 700 707 700 687 694 687 663 0 0 634 663 681 681 675 0 0 0 0 0</data></depth>
</opencv_storage>
