<?xml version="1.0"?>
<opencv_storage>
<gps_time_stamp>291595</gps_time_stamp>
<gps_x>-1.2366745948791504e+001</gps_x>
<gps_y>1.1139088630676270e+001</gps_y>
<gps_z>-2.2198483943939209e+000</gps_z>
<image_time_stamp>282457</image_time_stamp>
<depth type_id="opencv-matrix">
  <rows>88</rows>
  <cols>320</cols>
  <dt>s</dt>
  <data>
    0 0 0 0 0 0 0 0 0 0 0 0 0 0 0 0 0 0 0 0 0 0 0 0 0 0 0 0 0 0 0 0 0 0 0 0 0 0 0 0 0 0 0 0 0 0 0 0 0 0 0 0 0 0 0 0 0 0 0 0 0 0 0 0 0 0 0 0 0 0 0 0 0 919 897 0 0 0 0 0 0 791 782 0 0 0 0 0 0 0 0 0 0 0 0 0 0 886 943 943 955 897 943 943 943 919 955 931 943 955 1008 1008 1022 1008 1082 1168 1132 1206 1022 0 0 0 0 0 931 0 943 0 0 0 0 1036 931 994 943 886 931 919 931 931 931 931 919 931 955 931 955 955 908 931 943 981 994 994 1008 1008 1008 994 1008 994 994 994 994 897 919 931 876 931 919 919 931 931 943 931 931 968 919 931 994 836 0 0 0 0 0 0 0 0 0 0 919 886 876 908 897 886 886 865 919 931 931 876 876 876 886 865 897 855 855 865 931 908 897 886 0 0 0 836 799 799 799 0 0 0 0 0 0 876 876 0 943 876 0 0 0 0 0 0 1082 0 1082 1082 0 1036 994 968 968 931 919 897 897 876 886 865 855 836 826 808 791 791 791 774 0 0 0 836 817 826 808 0 782 808 808 808 808 808 826 826 799 808 808 750 791 791 799 782 791 799 791 791 826 799 791 791 0 0 0 0 0 0 0 0 0 0 0 0 0 0 0 0 0 0 0 0 0 0 0 0 0 0
    0 0 0 0 0 0 0 0 0 0 0 0 0 0 0 0 0 0 0 0 0 0 0 0 0 0 0 0 0 0 0 0 0 0 0 0 0 0 0 0 0 0 0 0 0 0 0 0 0 0 0 0 0 0 0 0 0 0 0 0 0 0 0 0 0 0 0 0 0 0 0 0 0 943 919 0 0 0 0 0 0 799 782 0 0 0 0 0 0 0 0 0 0 876 876 0 943 886 943 943 943 897 931 943 943 931 955 943 955 955 1036 1036 1036 1036 1066 1168 1115 1149 1022 981 955 931 955 943 897 0 943 0 0 0 0 0 908 981 931 897 931 919 931 931 931 931 919 931 955 943 968 955 931 943 955 0 1008 994 1022 994 1008 994 994 981 981 968 955 865 908 919 876 931 919 919 931 931 943 931 931 968 908 931 981 865 826 0 0 0 0 0 0 0 0 0 886 897 908 955 919 897 908 886 931 931 931 876 865 876 876 865 876 845 855 855 897 908 886 886 968 0 826 817 774 774 774 0 0 126 0 0 0 0 0 0 0 0 0 0 0 0 0 0 0 0 0 0 0 0 981 943 955 908 919 897 886 865 886 876 876 845 826 817 799 0 0 0 0 0 876 855 826 836 0 743 782 799 799 799 799 791 817 826 799 808 799 758 791 799 799 782 791 808 791 791 826 808 799 791 0 0 0 0 0 0 0 0 0 0 0 0 0 0 0 0 0 0 0 0 0 0 0 0 0 0
    0 0 0 0 0 0 0 0 0 0 0 0 0 0 0 0 0 0 0 0 0 0 0 0 0 0 0 0 0 0 0 0 0 0 0 0 0 0 0 0 0 0 0 0 0 0 0 0 0 0 0 0 0 0 0 0 0 0 0 0 0 0 0 0 0 0 0 0 0 0 968 968 981 955 955 0 0 0 0 955 0 0 0 0 0 0 0 0 0 0 0 0 0 0 0 0 955 897 943 943 943 897 931 931 931 931 955 943 955 955 1051 1051 1051 1051 1066 1187 1132 0 1008 955 919 908 968 943 886 981 0 0 1247 1247 0 0 897 981 908 897 931 919 931 931 931 943 919 943 955 955 968 968 955 968 0 0 0 0 0 0 1008 981 981 968 955 931 886 855 897 908 876 931 919 919 931 931 943 931 931 968 897 919 0 855 817 0 0 0 0 0 0 0 0 0 0 886 943 981 931 908 919 897 943 943 943 876 865 865 865 855 876 845 845 845 865 897 865 865 908 817 791 799 766 766 766 0 0 0 0 0 112 0 0 0 0 0 0 0 0 0 0 0 0 0 0 0 0 968 968 931 955 931 931 919 908 897 919 897 908 865 865 855 0 0 0 0 897 876 931 886 855 855 0 766 799 799 799 791 791 782 808 817 782 799 799 758 799 799 808 791 791 808 799 799 836 808 799 799 1149 0 0 0 0 0 0 0 0 0 0 0 0 0 0 0 0 0 0 0 0 0 0 0 0 0
    0 0 0 0 0 0 0 0 0 0 0 0 0 0 0 0 0 0 0 0 0 0 0 0 0 0 0 0 0 0 0 0 0 0 0 0 0 0 0 0 0 0 0 0 0 0 0 0 0 0 0 0 0 0 0 0 0 0 0 0 0 0 0 0 0 0 0 0 0 0 0 0 0 968 968 0 0 0 0 981 0 876 0 0 0 0 0 0 0 0 0 0 0 0 0 943 955 897 943 943 943 897 931 931 931 931 955 943 955 955 1051 1051 1051 1051 1066 1187 1115 1132 1008 955 931 955 994 968 931 994 981 1051 1115 1115 1051 0 908 981 908 908 931 919 931 931 931 943 931 943 955 955 968 0 0 0 0 0 0 0 0 0 0 0 0 0 943 886 845 845 886 897 876 931 919 919 931 931 943 931 919 955 897 919 0 0 808 0 0 0 855 0 0 0 0 0 0 0 968 0 931 908 931 908 943 943 955 886 855 865 865 855 865 836 836 836 845 908 845 845 0 799 750 774 750 766 774 0 0 0 0 0 112 0 0 0 0 0 0 0 0 0 0 0 0 0 0 0 0 886 919 876 908 886 897 886 886 886 919 897 919 876 865 0 0 0 0 0 876 865 908 886 855 855 0 782 808 808 799 799 782 791 808 817 782 799 799 758 799 808 808 799 799 817 808 808 855 817 808 799 1206 0 0 0 0 0 0 0 0 0 0 0 0 0 0 799 774 0 0 0 0 0 0 0 0 0
    0 0 0 0 0 0 0 0 0 0 0 0 0 0 0 0 0 0 0 0 0 0 0 0 0 0 0 0 0 0 0 0 0 0 0 0 0 0 0 0 0 0 0 0 0 0 0 0 0 0 0 0 0 0 0 0 0 0 0 0 0 0 0 0 0 0 0 0 0 0 0 0 0 955 955 0 981 981 994 0 0 0 0 0 0 0 0 0 0 0 0 0 955 931 955 955 955 897 943 943 943 897 931 931 931 931 955 931 955 955 1051 1051 1036 1036 1051 1149 1082 1066 981 943 931 955 994 981 968 1008 981 1022 1066 1066 1051 0 908 968 897 908 919 919 919 931 931 931 919 943 943 943 955 0 0 0 0 0 0 0 0 0 0 0 0 0 0 865 826 836 876 897 876 931 931 919 931 931 943 931 931 955 886 919 0 0 817 0 0 0 876 855 876 0 0 0 919 876 943 0 908 897 919 908 943 943 955 876 845 855 855 845 845 826 826 826 826 919 845 845 865 791 735 766 743 758 766 799 0 855 855 855 0 0 0 0 0 0 0 0 0 0 0 0 0 0 0 0 0 845 876 855 886 865 876 876 876 886 919 908 931 897 943 0 0 0 968 0 943 919 955 897 865 855 0 799 808 808 799 799 782 799 808 826 782 799 799 766 808 817 817 799 808 826 817 826 876 817 808 808 1168 0 0 0 0 0 0 0 0 0 0 0 0 0 0 808 782 0 0 0 0 0 0 0 0 0
    0 0 0 0 0 0 0 0 0 0 0 0 0 0 0 0 0 0 0 0 0 0 0 0 0 0 0 0 0 0 0 0 0 0 0 0 0 0 0 0 0 0 0 0 0 0 0 0 0 0 0 0 0 0 0 0 0 0 0 0 0 0 0 0 0 0 0 0 0 0 0 0 968 943 931 943 943 955 955 0 0 0 0 0 0 0 0 0 0 0 0 0 955 943 955 943 955 886 943 943 943 897 931 931 931 931 955 931 943 955 1036 1036 1036 1036 1036 1132 1066 1051 994 981 955 968 981 981 981 1008 981 1008 1082 1082 1051 0 897 955 886 908 919 908 919 919 931 931 919 943 943 943 955 0 0 0 0 0 0 0 0 0 0 0 0 0 0 855 826 826 876 897 876 931 931 931 931 931 943 931 919 955 886 897 897 845 836 855 855 865 876 865 876 865 876 943 908 876 931 943 908 897 919 919 943 931 955 876 836 855 855 836 845 826 826 826 826 897 845 836 0 782 735 758 743 750 750 791 0 845 855 876 0 0 0 0 908 855 0 0 0 0 0 750 0 0 0 0 836 836 865 855 876 865 876 865 876 897 919 919 931 908 955 968 0 0 994 981 968 955 968 919 865 865 836 817 817 817 808 799 791 808 817 826 774 808 808 782 817 826 826 808 817 836 826 826 886 826 817 808 1149 0 0 0 0 0 0 0 0 0 4906 0 0 0 0 0 0 0 0 0 0 0 0 0 0 0
    0 0 0 0 0 0 0 0 0 0 0 0 0 0 0 0 0 0 0 0 0 0 0 0 0 0 0 0 0 0 0 0 0 0 0 0 0 0 0 0 0 0 0 0 0 0 0 0 0 0 0 0 0 0 0 0 0 0 0 0 0 0 0 0 0 0 0 0 0 0 0 0 981 955 931 943 919 931 919 0 0 0 0 93 0 0 0 0 0 0 0 0 981 955 968 955 955 886 943 943 943 886 931 931 931 931 955 919 943 955 1036 1036 1036 1036 1036 1098 1051 1022 994 981 943 955 955 931 931 955 919 876 0 0 0 0 0 943 876 908 919 908 919 931 931 943 931 943 943 943 955 0 0 0 0 0 0 0 0 0 0 897 908 908 897 865 845 836 865 897 876 931 931 919 931 931 931 919 919 943 886 886 886 855 855 876 876 876 886 876 876 886 886 943 908 886 943 943 931 919 931 943 943 943 955 876 845 855 855 845 845 826 826 826 826 897 845 836 836 782 743 758 735 743 743 0 0 865 0 886 0 0 0 0 855 0 0 0 0 714 0 743 750 774 0 791 817 826 845 845 865 855 855 855 855 876 897 897 897 886 886 0 0 0 968 0 943 908 931 886 855 845 836 817 817 817 808 799 791 808 817 826 774 808 808 791 826 826 826 817 826 836 836 836 886 826 817 808 1132 0 0 0 0 0 0 0 0 0 0 0 0 0 0 0 0 0 0 0 0 0 0 0 0 0
    0 0 0 0 0 0 0 0 0 0 0 0 0 0 0 0 0 0 0 0 0 0 0 0 0 0 0 0 0 0 0 0 0 0 0 0 0 0 0 0 0 0 0 0 0 0 0 0 0 0 0 0 0 0 0 0 0 0 0 0 0 0 0 0 0 0 0 0 0 0 0 968 981 955 919 955 908 931 897 886 865 0 0 93 0 0 0 0 0 0 0 0 0 0 0 0 968 886 943 943 943 897 931 931 931 931 955 931 955 955 1036 1036 1036 1036 1036 1066 1036 994 955 943 908 0 886 0 865 865 855 817 0 0 0 0 0 919 876 919 919 908 919 931 931 943 931 955 943 955 968 943 0 0 0 0 0 0 931 0 943 886 886 876 897 876 855 845 865 897 886 931 931 919 931 919 931 919 919 943 886 886 876 865 865 876 876 876 886 886 886 886 886 931 908 897 943 943 931 919 931 943 943 943 955 886 845 865 865 855 855 845 836 836 836 919 855 836 845 791 758 774 735 743 735 782 0 0 0 0 0 0 0 0 0 0 799 782 0 735 735 758 758 774 782 774 774 791 0 808 817 808 0 817 0 0 0 876 886 876 0 0 0 0 968 0 943 943 955 919 865 845 836 826 826 817 817 799 799 817 817 826 774 808 817 799 836 836 836 826 826 845 836 845 886 826 817 817 0 0 0 0 0 0 0 0 0 0 0 2374 0 0 0 0 808 0 0 0 0 0 0 0 0 0
    0 0 0 0 0 0 0 0 0 0 0 0 0 0 0 0 0 0 0 0 0 0 0 0 0 0 0 0 0 0 0 0 0 0 0 0 0 0 0 0 0 0 0 0 0 0 0 0 0 0 0 0 0 0 0 0 0 0 0 0 0 0 0 0 0 0 0 0 0 0 994 994 981 968 908 931 897 919 886 0 0 0 0 0 0 0 0 0 0 0 0 0 0 0 0 0 968 886 943 943 943 897 931 931 931 931 955 931 943 955 1036 1036 1022 1022 1036 1051 1036 981 943 943 908 876 865 865 865 865 855 836 845 0 836 817 0 908 876 908 919 908 919 931 931 943 931 955 943 955 968 955 931 919 0 0 855 886 908 919 919 897 876 876 886 886 865 855 865 886 886 919 931 931 919 919 931 919 919 943 897 876 876 876 865 876 876 876 886 886 886 886 876 919 897 886 943 931 919 908 931 943 931 931 955 886 855 886 886 865 876 865 855 845 855 943 855 845 865 799 774 782 743 750 743 766 0 0 0 0 0 0 845 826 817 0 808 782 0 750 758 766 766 766 774 758 750 774 0 0 791 782 808 799 808 0 0 0 876 897 0 0 0 0 968 0 943 955 0 897 855 845 836 836 836 826 826 799 799 817 817 826 766 808 817 808 836 836 836 826 826 845 836 836 876 826 826 826 981 0 0 0 0 0 0 0 0 0 3345 2628 0 0 0 0 0 0 0 0 0 0 0 0 0 0
    0 0 0 0 0 0 0 0 0 0 0 0 0 0 0 0 0 0 0 0 0 0 0 0 0 0 0 0 0 0 0 0 0 0 0 0 0 0 0 0 0 0 0 0 0 0 0 0 0 0 0 0 0 0 0 0 0 0 0 0 0 0 0 0 0 0 0 0 0 0 0 994 981 955 897 0 0 876 865 0 0 0 0 0 0 0 0 0 0 0 0 0 0 0 0 0 981 886 943 943 943 897 931 931 931 931 955 931 943 955 1008 1008 1008 1008 1008 1022 1022 994 968 955 943 919 886 897 886 886 876 865 876 876 876 886 865 908 876 908 919 919 919 919 931 943 931 955 943 955 955 943 908 919 876 865 865 886 886 897 897 886 865 876 876 886 855 855 865 886 886 908 919 919 919 919 931 919 908 931 897 876 865 876 865 876 876 865 886 876 886 886 876 897 897 876 931 908 897 897 919 931 919 919 955 886 855 897 897 876 886 876 865 865 876 955 865 845 865 808 782 799 774 799 0 0 0 0 0 876 855 836 836 826 817 799 808 791 782 758 766 758 750 743 758 743 728 750 0 0 0 0 817 808 808 0 845 0 855 876 0 0 0 0 943 0 919 0 0 0 0 836 826 836 836 826 826 799 799 826 817 826 766 808 817 808 836 836 836 826 826 845 836 836 855 826 826 826 0 0 0 0 0 1226 0 0 0 0 0 0 0 0 0 0 0 0 0 0 0 0 0 0 0 0
    0 0 0 0 0 0 0 0 0 0 0 0 0 0 0 0 0 0 0 0 0 0 0 0 0 0 0 0 0 0 0 0 0 0 0 0 0 0 0 0 0 0 0 0 0 0 0 0 0 0 0 0 0 0 0 0 0 0 0 0 0 0 0 0 0 0 0 0 0 968 968 968 943 919 886 0 865 876 855 0 0 0 0 0 0 0 0 0 0 0 0 0 0 0 0 0 981 886 943 943 943 897 931 931 931 931 955 919 943 943 1008 994 994 981 981 994 994 968 955 955 955 943 919 919 908 897 886 886 886 886 897 897 886 908 886 919 919 919 919 919 931 943 931 955 943 943 943 897 876 886 865 855 855 876 876 876 886 876 855 876 876 897 865 865 876 897 886 908 919 919 908 908 919 908 908 919 897 876 865 876 865 876 876 865 886 886 886 886 876 908 897 876 919 908 897 897 908 919 908 919 943 886 865 908 908 886 886 886 876 876 886 968 865 845 865 817 799 0 817 0 0 0 897 876 886 886 855 845 826 826 808 791 808 799 782 766 774 758 766 750 758 735 728 750 0 0 0 0 799 808 808 817 836 0 845 876 897 0 0 0 0 0 0 0 0 0 0 826 826 836 836 836 836 808 817 826 826 826 774 817 817 817 836 826 826 826 826 845 836 826 836 826 817 817 826 0 774 0 0 1247 0 0 0 0 0 0 0 0 0 0 0 0 0 0 0 0 0 0 0 0
    0 0 0 0 0 0 0 0 0 0 0 0 0 0 0 0 0 0 0 0 0 0 0 0 0 0 0 0 0 0 0 0 0 0 0 0 0 0 0 0 0 0 0 0 0 0 0 0 0 0 0 0 0 0 0 0 0 0 0 0 0 0 0 0 0 0 0 0 0 955 955 943 931 908 886 886 865 876 865 0 0 0 0 0 0 0 0 0 0 0 0 0 0 0 0 1022 981 886 943 943 943 897 931 931 931 931 968 931 943 955 994 981 981 968 968 968 968 943 931 943 955 943 931 919 908 908 897 908 897 897 919 919 908 919 897 919 919 919 919 908 919 931 931 955 931 931 931 886 876 876 855 855 855 876 865 876 876 876 865 876 886 908 876 876 886 897 886 908 919 919 908 908 919 908 908 919 897 876 865 886 876 876 876 876 886 886 886 886 886 908 908 886 919 897 886 886 897 908 886 908 931 886 865 908 897 886 886 897 876 876 886 968 865 855 897 826 0 0 0 865 0 0 931 908 919 919 876 855 836 826 817 799 817 799 791 774 782 766 782 791 766 750 735 750 0 758 766 766 766 791 791 808 817 817 826 845 855 0 0 0 0 0 0 0 0 0 0 0 826 836 836 836 836 826 826 836 836 826 791 826 826 826 826 826 826 826 826 836 826 826 826 826 808 808 808 817 774 774 758 0 0 0 0 0 0 0 0 0 0 0 0 0 0 0 0 0 0 0 0 0
    0 0 0 0 0 0 0 0 0 0 0 0 0 0 0 0 0 0 0 0 0 0 0 0 0 0 0 0 0 0 0 0 0 0 0 0 0 0 0 0 0 0 0 0 0 0 0 0 0 0 0 0 0 0 0 0 0 0 0 0 0 0 0 0 0 0 0 0 0 955 955 931 931 908 886 886 865 876 865 0 0 0 0 0 0 0 0 0 0 0 0 0 0 0 0 1008 955 886 943 943 931 908 931 931 931 931 968 931 943 955 994 968 968 955 955 955 943 931 931 943 943 943 931 919 919 919 897 908 897 897 919 931 919 931 908 931 919 919 919 908 919 931 931 955 931 931 931 897 876 886 865 865 855 876 876 876 876 886 865 886 886 919 886 886 886 908 897 908 919 908 897 897 908 908 897 919 908 886 876 886 876 876 886 876 886 886 886 886 876 908 897 876 908 886 886 886 897 908 876 897 919 886 855 897 897 886 886 897 876 876 897 968 876 865 897 855 0 0 0 0 0 0 908 0 908 908 865 845 836 826 808 799 817 799 782 774 782 766 774 791 774 758 735 758 0 0 766 774 758 782 791 808 808 808 808 845 845 886 0 968 0 0 0 0 0 0 0 0 836 845 845 845 845 836 836 845 845 836 799 836 836 836 826 826 826 817 817 826 817 808 808 817 799 799 808 826 774 774 750 0 0 0 0 0 0 0 0 0 0 0 0 0 0 0 0 0 0 0 0 0
    0 0 0 0 0 0 0 0 0 0 0 0 0 0 0 0 0 0 0 0 0 0 0 0 0 0 0 0 0 0 0 0 0 0 0 0 0 0 0 0 0 0 0 0 0 0 0 0 0 0 0 0 0 0 0 0 0 0 0 0 0 0 0 0 0 0 0 0 0 955 943 931 931 919 897 876 865 865 865 855 855 0 0 0 0 0 0 0 0 0 0 0 0 0 968 981 943 876 943 943 931 908 931 931 931 931 968 931 943 955 994 955 955 943 943 955 943 931 931 943 955 943 931 919 919 919 908 908 897 897 919 931 919 931 908 931 919 919 919 908 919 931 943 955 931 919 931 908 886 886 876 876 865 886 886 886 886 897 865 886 897 919 886 876 886 897 897 897 908 897 886 897 908 908 897 908 908 886 876 897 886 876 886 876 886 886 886 886 886 908 897 876 908 886 886 886 897 897 865 897 919 886 865 908 908 897 897 919 886 886 897 968 845 855 865 855 0 908 876 886 0 908 908 0 908 908 865 855 845 845 817 799 826 808 808 799 799 791 799 799 808 791 758 766 750 0 758 766 758 774 774 799 799 799 808 836 836 865 876 908 0 0 0 0 0 0 0 0 836 845 845 845 845 836 845 855 845 836 808 836 836 836 817 817 817 817 808 817 808 799 799 817 799 799 799 826 774 766 750 0 0 0 0 0 0 0 0 0 0 0 0 0 0 0 0 0 0 0 0 0
    0 0 0 0 0 0 0 0 0 0 0 0 0 0 0 0 0 0 0 0 0 0 0 0 0 0 0 0 0 0 0 0 0 0 0 0 0 0 0 0 0 0 0 0 0 0 0 0 0 0 0 0 0 0 0 0 0 0 0 0 0 0 0 0 0 0 0 0 0 968 955 955 943 955 931 886 876 876 865 865 876 0 0 886 0 0 0 0 0 0 0 0 0 0 0 0 955 876 943 943 919 919 931 931 931 931 968 931 943 968 994 955 955 943 943 955 931 931 931 943 943 943 931 919 908 919 908 908 897 897 919 919 919 931 919 931 931 931 931 919 931 943 943 955 931 931 931 908 886 886 876 876 865 876 876 876 886 886 865 876 886 919 876 876 876 886 886 886 897 886 876 886 897 897 897 897 919 886 876 908 897 886 897 876 897 897 897 897 876 897 897 876 908 886 876 886 886 897 865 897 908 897 865 908 908 897 897 919 886 886 897 981 845 845 865 865 876 919 897 897 886 908 908 0 897 897 865 855 855 845 826 817 855 826 855 836 836 808 826 826 826 799 774 774 0 0 766 782 758 774 774 799 791 799 808 826 826 855 855 876 0 0 0 0 0 0 313 0 836 845 845 855 845 836 845 855 845 836 817 836 836 836 808 808 808 808 799 808 799 791 791 817 791 791 791 826 782 774 758 0 0 1206 0 553 0 0 0 0 0 0 0 0 0 0 0 0 0 0 0 0
    0 0 0 0 0 0 0 0 0 0 0 0 0 0 0 0 0 0 0 0 0 0 0 0 0 0 0 0 0 0 0 0 0 0 0 0 0 0 0 0 0 0 0 0 0 0 0 0 0 0 0 0 0 0 0 0 0 0 0 0 0 0 0 0 0 0 0 0 0 968 968 981 968 994 968 931 897 886 886 876 886 897 876 876 0 0 0 0 0 0 0 0 0 0 0 0 955 876 943 943 919 919 931 931 931 931 968 931 931 968 981 943 943 943 931 943 919 931 919 931 943 943 931 919 919 919 908 919 908 897 919 931 931 931 919 931 919 931 931 908 931 943 955 955 931 931 931 908 886 886 865 876 865 876 876 876 876 886 855 876 886 908 865 876 876 876 886 876 886 886 876 886 897 897 897 897 919 886 876 931 897 876 886 876 897 897 897 886 865 876 876 865 886 855 855 865 876 865 845 886 897 897 855 919 919 908 908 931 897 897 897 981 845 855 865 865 876 908 876 886 876 897 886 886 886 876 855 845 855 845 836 817 855 836 865 845 836 817 826 826 836 808 791 774 0 0 774 799 774 791 782 799 799 808 817 836 845 876 876 886 886 886 865 0 0 0 314 0 845 855 855 865 845 845 845 855 855 836 826 836 836 836 791 808 799 799 791 799 799 782 782 817 791 791 782 826 782 0 750 0 0 0 0 557 0 389 0 0 0 0 0 0 0 504 504 0 0 0 0 0
    0 0 0 0 0 0 0 0 0 0 0 0 0 0 0 0 0 0 0 0 0 0 0 0 0 0 0 0 0 0 0 0 0 0 0 0 0 0 0 0 0 0 0 0 0 0 0 0 0 0 0 0 0 0 0 0 0 0 0 0 0 0 0 0 0 0 0 0 0 981 981 1008 994 1008 1008 968 919 908 908 886 919 908 897 886 897 0 0 0 0 0 0 0 0 0 981 994 943 886 943 943 908 919 931 931 919 931 955 919 931 968 955 931 919 943 919 943 919 931 931 943 955 943 931 931 919 931 919 931 919 908 931 943 943 931 931 919 919 931 919 897 919 931 955 955 931 908 908 886 876 886 865 865 865 876 876 876 876 897 865 876 876 897 865 865 886 876 876 865 876 876 876 886 897 886 886 886 908 897 876 943 897 876 897 886 908 897 897 876 865 855 876 845 865 845 845 855 865 855 845 886 897 908 865 919 919 908 908 931 908 908 908 981 845 855 865 876 865 876 865 865 855 876 876 865 876 865 845 845 855 836 836 817 836 817 836 817 817 782 808 817 0 817 826 791 0 0 0 0 799 817 808 817 817 826 836 845 865 886 897 886 908 908 876 0 0 0 314 0 845 855 855 855 836 845 855 855 855 836 826 836 836 836 782 799 799 791 782 799 791 774 774 817 782 782 782 826 774 0 0 0 0 0 0 0 0 389 0 0 0 0 0 0 0 497 497 0 0 0 0 0
    0 0 0 0 0 0 0 0 0 0 0 0 0 0 0 0 0 0 0 0 0 0 0 0 0 0 0 0 0 0 0 0 0 0 0 0 0 0 0 0 0 0 0 0 0 0 0 0 0 0 0 0 0 0 0 0 0 0 0 0 0 0 0 0 0 0 0 0 0 943 943 981 981 994 1008 968 919 908 908 886 919 908 897 897 897 943 0 0 0 0 0 0 0 981 968 981 955 886 943 943 908 919 931 931 919 931 955 919 919 968 931 897 908 931 897 919 908 943 931 943 955 943 943 931 931 943 931 943 931 931 943 943 955 943 931 931 931 931 919 897 919 908 943 943 897 886 897 876 886 886 865 865 865 886 876 865 876 886 855 876 876 876 865 865 886 876 876 865 876 876 876 886 886 886 886 876 886 886 876 897 876 876 897 908 943 931 919 897 876 876 897 845 845 836 836 836 836 836 836 876 886 897 855 908 919 908 908 931 908 908 908 994 836 845 855 0 0 0 0 845 836 845 845 836 855 845 826 826 826 826 817 808 799 774 758 758 743 735 735 791 766 799 808 782 826 826 817 0 791 808 799 817 817 817 836 845 855 876 886 886 897 897 865 855 0 0 0 845 845 845 845 845 836 845 855 855 855 845 836 836 836 836 774 791 791 791 774 791 791 774 774 808 774 774 774 817 774 0 735 0 0 0 0 541 0 0 0 0 0 0 0 0 0 493 497 0 0 0 0 0
    0 0 0 0 0 0 0 0 0 0 0 0 0 0 0 0 0 0 0 0 0 0 0 0 0 0 0 0 0 0 0 0 0 0 0 0 0 0 0 0 0 0 0 0 0 0 0 0 0 0 0 0 0 0 0 0 0 0 0 0 0 0 0 0 0 0 0 0 0 919 908 955 968 994 1022 981 943 919 931 897 943 931 931 931 943 968 981 0 0 0 0 0 0 994 981 981 955 886 943 943 897 931 931 931 919 931 955 919 919 981 919 897 897 943 897 908 897 931 919 931 943 931 931 931 919 943 931 955 943 931 955 943 955 955 931 931 931 931 919 886 908 908 919 931 876 886 897 886 897 886 876 865 876 908 876 876 886 886 865 865 886 865 865 865 865 855 845 855 855 876 865 876 886 886 886 865 865 865 0 0 865 855 876 886 919 908 908 886 865 897 897 836 826 799 808 782 758 774 817 865 876 876 855 908 908 897 897 919 897 897 897 981 826 826 836 0 0 0 0 0 782 799 799 791 826 817 817 817 826 817 808 791 758 743 721 728 721 714 707 735 721 782 774 766 0 836 817 836 799 826 817 836 836 836 845 865 865 876 886 886 897 886 855 855 0 0 0 845 836 836 836 836 836 845 855 865 855 836 836 826 836 836 766 791 791 782 774 782 791 774 774 808 774 774 774 826 782 0 0 0 0 0 533 537 533 0 533 529 0 0 529 0 507 493 493 0 0 0 0 0
    0 0 0 0 0 0 0 0 0 0 0 0 0 0 0 0 0 0 0 0 0 0 0 0 0 0 0 0 0 0 0 0 0 0 0 0 0 0 0 0 0 0 0 0 0 0 0 0 0 0 0 0 0 0 0 0 0 0 0 0 0 0 0 0 0 0 0 0 0 0 0 0 968 994 1036 994 955 931 919 908 955 943 955 943 955 994 0 0 0 0 0 0 0 0 0 1008 981 876 943 943 897 931 931 931 919 931 955 919 919 981 897 897 897 968 886 876 876 897 886 908 908 908 897 886 897 919 931 943 943 943 955 955 968 968 931 919 908 908 886 865 886 886 897 919 876 908 908 919 931 919 908 886 897 931 908 908 908 897 876 886 897 865 855 845 817 808 791 799 782 774 774 758 750 817 817 836 0 0 0 0 855 855 876 876 876 865 876 845 836 826 826 808 799 774 743 735 714 700 728 855 855 865 845 897 908 897 897 919 897 897 897 968 826 817 826 791 0 0 0 728 0 735 743 743 782 782 799 808 817 799 791 750 728 721 707 721 714 714 707 728 721 782 774 0 855 845 836 845 836 836 826 836 836 845 845 865 865 865 876 876 876 876 855 855 0 0 836 845 845 836 845 836 836 845 855 855 845 836 836 817 826 836 758 791 782 782 774 782 791 774 766 808 782 774 774 0 791 0 0 0 0 0 533 533 533 533 533 529 533 529 529 507 511 493 493 0 0 0 0 0
    0 0 0 0 0 0 0 0 0 0 0 0 0 0 0 0 0 0 0 0 0 0 0 0 0 0 0 0 0 0 0 0 0 0 0 0 0 0 0 0 0 0 0 0 0 0 0 0 0 0 0 0 0 0 0 0 0 0 0 0 0 0 0 0 0 0 0 0 0 0 0 0 0 0 0 0 0 897 897 897 943 943 943 943 943 981 0 0 0 0 0 0 0 0 0 0 981 886 943 943 897 931 931 931 919 931 955 908 908 981 897 897 908 994 919 876 876 908 886 876 886 876 865 865 876 876 886 908 908 886 865 855 865 855 836 845 826 826 808 826 845 855 886 886 865 897 919 931 943 919 908 876 897 919 897 908 919 876 886 876 908 845 826 826 774 782 758 774 758 758 758 743 743 782 774 808 791 817 817 0 855 855 865 855 855 836 845 817 808 808 799 791 791 766 728 735 707 694 721 0 855 855 845 897 897 897 897 919 908 897 897 968 826 817 817 782 735 721 714 728 728 728 735 728 758 774 774 799 799 782 743 735 721 721 714 728 721 721 714 728 721 766 766 0 0 855 836 845 845 845 836 845 845 845 855 886 876 865 876 876 876 876 855 845 836 845 845 855 845 845 845 836 836 845 855 845 836 826 826 808 826 826 750 782 782 782 766 782 791 774 766 817 782 774 774 0 808 0 0 0 0 0 533 533 533 533 533 529 533 529 529 507 511 493 493 0 0 0 0 0
    0 0 0 0 0 0 0 0 0 0 0 0 0 0 0 0 0 0 0 0 0 0 0 0 0 0 0 0 0 0 0 0 0 0 0 0 0 0 0 0 0 0 0 0 0 0 0 0 0 0 0 0 0 0 0 0 0 0 0 0 0 0 0 0 0 0 0 0 0 0 0 0 0 0 0 0 0 0 897 908 943 943 943 943 931 943 981 0 0 0 0 0 0 0 0 0 968 876 943 943 897 931 931 931 919 919 943 908 897 981 886 886 886 0 0 886 897 931 865 855 865 855 845 836 836 836 0 0 0 0 799 799 808 808 808 826 817 808 799 817 845 845 876 876 855 886 897 908 908 886 865 836 855 876 845 865 855 855 855 855 876 826 799 799 766 774 750 766 750 758 758 743 743 766 758 791 774 808 791 817 845 836 845 845 845 826 826 808 799 799 799 799 791 766 735 735 714 694 766 0 855 855 845 897 897 897 897 919 908 897 897 968 836 808 817 774 735 721 714 728 728 728 735 721 743 766 766 799 782 758 728 728 721 714 714 728 721 721 714 728 721 758 774 0 865 855 836 845 845 855 845 845 855 855 876 897 886 876 876 876 876 876 855 845 836 845 845 845 845 836 836 836 826 836 845 836 826 817 817 791 817 826 743 782 782 782 766 782 791 774 774 817 782 774 774 0 0 645 570 537 533 529 533 533 533 533 533 529 533 525 525 504 511 493 490 0 0 0 0 0
    0 0 0 0 0 0 0 0 0 0 0 0 0 0 0 0 0 0 0 0 0 0 0 0 0 0 0 0 0 0 0 0 0 0 0 0 0 0 0 0 0 0 0 0 0 0 0 0 0 0 0 0 0 0 0 0 0 0 0 0 0 0 0 0 0 0 0 0 0 0 0 0 0 0 0 0 0 0 908 919 955 931 943 943 919 919 955 0 0 0 0 0 0 0 0 0 897 876 931 931 886 931 931 943 919 931 955 897 897 968 876 855 865 0 0 876 897 919 865 855 855 845 826 826 817 817 799 817 808 791 766 782 782 791 791 808 808 808 799 817 836 855 876 876 845 886 865 886 0 0 0 808 817 826 808 836 826 845 845 845 845 817 774 791 758 766 750 766 758 758 750 750 743 758 766 782 758 791 774 808 826 817 826 826 826 817 808 791 799 799 799 799 791 766 735 735 714 700 826 0 865 865 845 897 897 897 897 919 919 897 897 968 845 808 817 774 735 728 714 728 728 728 728 721 735 766 758 799 774 750 728 728 721 714 714 721 721 714 714 721 721 743 782 0 876 855 845 855 865 876 865 865 876 876 897 931 908 897 897 886 876 876 855 836 817 826 836 836 836 826 826 817 817 836 836 836 826 808 808 758 808 808 743 782 782 782 766 782 791 774 774 817 782 774 766 0 0 639 579 537 533 533 537 537 537 533 537 529 533 525 525 504 511 493 493 0 0 0 0 0
    0 0 0 0 0 0 0 0 0 0 0 0 0 0 0 0 0 0 0 0 0 0 0 0 0 0 0 0 0 0 0 0 0 0 0 0 0 0 0 0 0 0 0 0 0 0 0 0 0 0 0 0 0 0 0 0 0 0 0 0 0 0 0 0 0 0 0 0 0 0 0 0 0 0 0 0 0 0 876 886 919 886 886 897 876 876 897 886 0 865 886 897 886 0 0 0 855 865 919 919 886 919 931 943 919 931 955 897 897 968 876 845 845 0 0 865 876 908 855 855 855 845 799 791 774 791 774 791 782 758 750 774 766 782 774 791 791 791 799 808 817 845 865 876 855 886 855 876 0 0 799 799 817 826 808 836 836 855 855 845 845 817 766 791 758 758 743 758 758 758 750 758 750 758 766 782 766 791 766 799 808 799 808 808 808 808 791 782 791 799 799 799 791 774 735 728 707 687 0 0 865 876 855 908 908 897 908 919 919 897 886 968 845 799 808 782 750 735 721 728 735 728 735 721 728 750 743 774 758 735 728 721 721 714 714 721 721 721 721 728 721 735 782 0 876 865 855 865 865 886 886 886 886 886 908 931 919 897 897 886 876 876 855 836 799 808 826 826 826 817 817 808 817 826 836 826 826 808 799 750 808 808 743 782 782 782 774 782 799 782 782 817 782 774 766 0 0 645 584 537 533 529 533 533 537 533 537 525 533 521 525 500 507 493 493 0 0 0 0 0
    0 0 0 0 0 0 0 0 0 0 0 0 0 0 0 0 0 0 0 0 0 0 0 0 0 0 0 0 0 0 0 0 0 0 0 0 0 0 0 0 0 0 0 0 0 0 0 0 0 0 0 0 0 0 0 0 0 0 0 0 0 0 0 0 0 0 0 0 0 0 0 0 0 0 0 0 897 865 836 845 845 836 836 836 836 826 845 845 836 845 855 865 876 876 855 855 855 865 919 919 886 919 931 943 931 931 955 908 897 968 886 836 845 876 826 855 865 886 845 0 836 826 791 766 750 774 758 774 766 750 750 766 758 774 766 774 782 782 791 791 808 836 855 876 855 876 845 865 0 0 799 808 817 836 817 845 836 855 855 845 836 808 758 774 758 750 743 758 758 766 750 766 750 758 766 782 766 791 766 791 799 791 799 791 799 799 782 782 791 799 799 799 799 782 750 735 714 694 0 0 865 876 845 908 908 908 908 908 919 897 886 955 836 791 799 774 750 735 721 728 728 721 728 714 721 735 728 750 735 728 728 721 721 721 721 728 728 721 721 728 728 743 782 826 865 876 865 876 886 897 908 908 908 908 919 931 919 908 897 886 865 865 855 817 782 808 826 826 826 817 817 799 817 826 826 826 826 808 799 743 808 799 743 782 791 791 774 791 799 782 782 817 791 766 758 0 0 639 588 541 533 529 533 533 533 525 529 518 525 511 518 493 493 487 487 0 0 0 0 0
    0 0 0 0 0 0 0 0 0 0 0 0 0 0 0 0 0 0 0 0 0 0 0 0 0 0 0 0 0 0 0 0 0 0 0 0 0 0 0 0 0 0 0 0 0 0 0 0 0 0 0 0 0 0 0 0 0 0 0 0 0 0 0 0 0 0 0 0 0 808 817 817 826 0 845 876 886 855 817 826 826 817 817 808 817 817 826 826 826 826 845 855 876 865 855 855 855 865 919 919 886 919 943 943 931 931 955 908 908 955 897 845 845 855 826 836 836 845 817 799 808 799 782 766 750 766 758 766 758 750 758 758 750 774 750 766 774 782 791 791 799 826 836 865 855 865 845 855 0 0 799 808 826 836 826 845 836 855 855 845 826 808 750 774 750 750 743 758 750 766 750 766 758 766 774 791 774 791 774 791 782 774 782 774 782 782 774 774 791 799 791 799 799 791 774 750 728 707 0 0 865 865 845 897 908 908 908 908 919 886 876 943 836 791 799 774 750 743 728 735 728 728 728 714 714 728 728 743 735 728 728 728 728 728 735 735 735 728 735 743 743 758 774 808 855 876 855 876 886 908 919 931 943 931 931 943 919 908 886 876 865 855 845 808 782 817 836 826 836 826 826 808 826 826 826 817 817 808 799 743 808 799 743 791 791 791 782 791 808 791 791 826 791 766 758 0 0 629 584 549 537 529 533 529 533 525 525 521 521 511 521 493 497 487 490 0 0 0 0 0
    0 0 0 0 0 0 0 0 0 0 0 0 0 0 0 0 0 0 0 0 0 0 0 0 0 0 0 0 0 0 0 0 0 0 0 0 0 0 0 0 0 0 0 0 0 0 0 0 0 0 0 0 0 0 0 0 0 0 0 0 0 0 0 0 0 0 0 0 0 808 826 826 826 836 855 876 886 855 808 817 808 791 799 791 799 799 808 817 817 826 845 855 876 865 855 855 865 865 919 919 897 908 943 943 931 931 955 919 908 955 919 845 845 836 826 817 808 808 791 774 782 774 774 750 743 766 750 758 750 743 750 750 750 766 743 766 766 782 782 782 799 817 826 865 845 865 836 855 836 808 808 817 826 836 826 845 845 855 855 855 836 808 750 774 750 750 735 750 750 758 750 766 758 766 766 782 766 774 766 774 774 758 766 758 766 774 766 766 782 791 782 791 791 791 782 766 743 714 0 0 865 876 855 897 897 897 908 908 919 876 876 943 836 799 808 791 766 758 735 743 735 728 728 714 714 728 728 743 735 728 735 735 728 728 743 750 743 743 750 750 774 782 791 817 855 865 855 865 876 908 931 931 943 943 943 943 931 919 886 876 865 855 836 808 791 836 836 845 845 836 836 826 836 836 826 817 817 817 799 743 808 808 743 791 799 799 782 799 808 791 791 0 791 758 750 0 0 623 584 553 541 537 537 533 533 529 529 521 521 511 518 497 497 490 493 0 0 0 0 0
    0 0 0 0 0 0 0 0 0 0 0 0 0 0 0 0 0 0 0 0 0 0 0 0 0 0 0 0 0 0 0 0 0 0 0 0 0 0 0 0 0 0 0 0 0 0 0 0 0 0 0 0 0 0 0 0 0 0 0 0 0 0 0 0 0 0 0 0 0 808 826 836 826 836 855 865 876 855 808 817 808 782 799 791 799 799 808 817 817 826 845 855 865 865 865 865 865 876 919 919 897 908 943 955 943 931 955 919 919 943 931 845 845 836 826 817 799 791 782 758 766 750 766 743 735 750 743 750 743 743 750 750 743 766 743 766 766 782 791 791 799 817 817 865 845 855 817 0 750 766 782 799 826 836 836 855 845 865 865 865 845 808 750 766 743 750 735 750 750 758 758 766 758 774 774 791 766 782 774 782 782 766 774 766 774 774 766 766 774 782 774 782 791 782 782 774 743 735 791 817 865 876 855 897 897 897 908 897 919 876 876 931 836 799 808 799 774 774 750 743 735 728 735 721 714 728 721 735 728 728 735 735 735 735 750 758 758 766 791 799 817 808 826 836 865 876 865 865 876 919 943 955 968 943 943 943 931 931 876 876 865 865 845 817 799 845 845 855 855 855 836 836 836 845 826 826 826 826 808 743 808 808 743 799 799 799 782 799 808 791 782 0 782 743 743 0 0 0 588 557 545 541 537 537 537 525 521 514 507 500 504 493 493 490 493 0 0 0 0 0
    0 0 0 0 0 0 0 0 0 0 0 0 0 0 0 0 0 0 0 0 0 0 0 0 0 0 0 0 0 0 0 0 0 0 0 0 0 0 0 0 0 0 0 0 0 0 0 0 0 0 0 0 0 0 0 0 0 0 0 0 0 0 0 0 0 0 0 0 0 817 836 836 826 836 855 855 855 845 808 817 799 782 791 791 791 799 799 817 817 826 845 855 865 865 865 876 865 865 908 908 908 908 943 955 943 943 955 931 919 943 943 845 845 836 836 817 799 791 782 758 766 743 750 728 728 743 743 743 735 743 750 750 743 766 743 766 774 791 791 799 808 826 826 865 845 845 808 791 728 743 758 782 836 836 845 855 855 876 876 865 855 817 758 774 743 750 735 750 750 758 758 766 766 774 774 791 774 782 774 782 791 774 774 774 774 782 766 774 782 791 782 791 791 782 791 791 758 766 791 817 876 886 855 897 897 897 908 897 908 876 865 919 845 808 817 808 791 791 766 758 750 743 750 728 721 735 721 735 735 728 743 743 743 743 758 766 774 782 808 817 826 826 836 836 865 886 876 876 876 919 955 968 981 955 955 943 931 943 897 897 876 876 0 0 817 855 855 865 855 855 836 836 845 855 836 836 845 845 826 0 817 817 750 799 799 799 782 799 808 791 782 219 0 728 728 0 0 0 584 557 545 541 537 537 537 521 514 511 504 497 497 493 493 497 497 0 0 0 0 0
    0 0 0 0 0 0 0 0 0 0 0 0 0 0 0 0 0 0 0 0 0 0 0 0 0 0 0 0 0 0 0 0 0 0 0 0 0 0 0 0 0 0 0 0 0 0 0 0 0 0 0 0 0 0 0 0 0 0 0 0 0 0 0 0 0 0 0 0 0 817 845 845 836 845 865 855 855 845 817 808 791 774 782 782 791 799 799 808 817 826 845 855 876 865 865 876 865 876 908 908 908 897 943 955 943 943 968 931 931 931 955 845 845 836 845 817 799 791 791 774 774 743 750 728 728 735 743 743 735 743 743 743 743 758 750 766 782 791 808 808 817 836 836 876 855 845 826 808 750 766 782 817 845 855 855 865 865 886 886 886 865 826 766 774 743 750 743 750 750 758 758 766 766 774 782 791 774 791 782 791 782 774 774 774 782 791 782 782 791 799 791 799 791 791 799 799 774 782 799 826 886 897 865 886 897 897 897 886 908 865 865 897 845 817 826 817 799 799 774 766 750 743 750 728 728 743 721 735 743 735 750 750 750 750 766 774 774 782 817 826 836 826 836 836 865 897 897 897 886 931 955 968 981 955 943 931 919 931 0 886 0 876 0 0 836 855 855 865 865 855 836 836 836 845 845 845 845 845 836 0 817 817 750 799 799 799 782 791 808 782 774 0 0 0 721 0 0 608 588 566 549 545 537 541 537 521 518 511 500 500 504 500 500 497 500 0 0 0 0 0
    0 0 0 0 0 0 0 0 0 0 0 0 0 0 0 0 0 0 0 0 0 0 0 0 0 0 0 0 0 0 0 0 0 0 0 0 0 0 0 0 0 0 0 0 0 0 0 0 0 0 0 0 0 0 0 0 0 0 0 0 0 0 0 0 0 0 0 0 0 808 836 836 836 845 855 845 845 845 817 808 791 782 791 791 791 799 799 817 826 836 855 865 876 865 865 886 876 886 919 908 919 897 943 955 943 943 968 943 931 931 968 865 865 845 855 817 799 791 791 774 774 743 750 728 728 735 743 743 743 743 750 743 743 758 750 766 782 791 808 808 826 845 845 886 865 855 845 836 799 791 808 836 855 855 865 876 876 897 886 897 886 836 782 782 750 750 743 750 750 758 758 766 766 782 791 791 782 791 791 791 782 782 774 782 782 791 791 791 799 808 799 808 799 799 799 808 791 791 799 826 886 897 865 886 886 886 886 876 897 855 845 876 836 808 817 817 791 799 782 758 750 743 743 735 728 743 721 735 750 743 758 758 750 758 774 782 774 799 817 836 845 836 836 836 865 897 897 897 897 919 955 968 981 943 931 908 908 0 0 0 0 876 931 855 865 876 886 876 886 865 845 845 836 845 836 836 845 836 826 774 817 817 758 799 808 799 791 791 808 782 774 217 0 0 714 0 681 608 588 574 553 545 533 541 533 525 521 511 500 500 500 500 493 493 497 0 0 0 0 0
    0 0 0 0 0 0 0 0 0 0 0 0 0 0 0 0 0 0 0 0 0 0 0 0 0 0 0 0 0 0 0 0 0 0 0 0 0 0 0 0 0 0 0 0 0 0 0 0 0 0 0 0 0 0 0 0 0 0 0 0 0 0 0 0 0 0 0 0 0 808 836 836 836 845 855 845 845 845 817 808 799 782 791 791 799 808 808 817 826 845 865 876 886 886 876 897 886 886 919 919 919 897 943 943 943 943 955 943 931 931 968 886 886 865 865 817 799 791 791 782 791 758 766 735 735 743 750 743 743 735 750 743 750 766 750 774 782 799 817 817 826 845 845 886 886 865 865 876 836 817 836 845 865 876 876 886 886 897 897 908 908 855 808 791 758 758 743 750 750 750 750 766 766 782 791 791 782 791 791 791 791 782 774 782 791 799 799 799 799 808 799 808 808 808 808 808 799 799 808 826 886 886 865 876 876 886 876 876 876 845 845 855 826 808 808 808 791 799 782 758 750 743 743 735 728 735 728 735 750 750 766 766 758 766 791 791 782 808 826 845 845 836 836 836 855 897 886 876 876 897 931 943 955 919 897 886 886 0 0 0 0 865 0 0 865 886 897 897 897 865 845 845 845 845 836 836 836 836 826 791 826 826 758 808 808 799 791 791 808 782 766 0 0 0 0 0 657 603 579 561 545 537 525 529 529 521 521 514 504 504 500 500 497 493 497 0 0 0 0 0
    0 0 0 0 0 0 0 0 0 0 0 0 0 0 0 0 0 0 0 0 0 0 0 0 0 0 0 0 0 0 0 0 0 0 0 0 0 0 0 0 0 0 0 0 0 0 0 0 0 0 0 0 0 0 0 0 0 0 0 0 0 0 0 0 0 0 0 0 0 817 836 836 845 855 865 845 836 836 817 808 799 782 791 791 799 808 808 817 826 845 876 886 908 908 897 908 908 897 931 931 931 897 931 943 943 931 955 943 931 931 981 908 897 865 0 817 799 791 791 791 799 766 791 758 743 743 750 743 743 743 750 743 750 766 758 774 791 799 817 817 836 845 845 876 876 865 876 919 876 855 855 865 876 886 886 897 886 897 908 919 919 865 817 799 758 758 743 750 743 750 750 758 758 782 782 791 782 791 791 791 791 791 782 791 799 799 799 799 799 808 799 808 808 808 808 817 808 808 817 836 886 886 865 865 876 876 876 865 876 845 836 845 826 808 817 808 791 791 774 758 750 743 743 735 735 743 728 735 750 758 774 774 766 774 791 799 791 808 836 845 0 0 0 817 0 886 876 0 836 865 908 943 943 897 0 865 0 0 0 0 0 0 0 0 876 908 931 908 897 855 845 855 845 845 836 836 836 836 836 0 836 836 766 808 808 799 782 791 799 766 750 0 0 0 0 0 618 593 570 553 545 537 525 529 529 525 525 518 514 511 504 504 500 497 497 0 0 0 0 0
    0 0 0 0 0 0 0 0 0 0 0 0 0 0 0 0 0 0 0 0 0 0 0 0 0 0 0 0 0 0 0 0 0 0 0 0 0 0 0 0 0 0 0 0 0 0 0 0 0 0 0 0 0 0 0 0 0 0 0 0 0 0 0 0 0 0 0 0 0 836 855 855 855 855 865 836 817 836 817 808 799 782 791 791 799 808 808 817 826 845 886 886 919 919 919 931 919 908 943 931 943 897 931 931 931 931 955 931 931 931 981 908 897 876 0 817 799 791 799 799 808 782 799 766 758 750 758 750 743 743 750 750 750 766 766 774 791 808 817 826 836 845 845 876 876 865 886 943 897 876 865 865 886 897 908 908 897 908 908 931 931 876 836 799 758 758 750 743 743 743 743 750 758 782 782 791 782 791 791 799 791 791 774 791 799 808 799 808 799 808 799 808 808 808 817 817 817 817 826 836 886 886 865 865 865 865 865 865 876 836 836 836 826 817 817 808 791 791 774 766 750 750 750 743 743 758 743 750 766 774 782 782 774 774 791 799 774 782 836 0 0 0 0 0 0 876 0 766 808 808 836 876 0 0 0 855 0 0 0 0 0 0 0 0 855 886 908 886 865 836 845 855 845 845 826 826 836 836 836 0 845 836 766 808 808 799 774 782 791 750 728 0 0 0 0 0 603 579 561 549 545 541 533 537 537 537 537 525 521 521 514 514 504 500 500 0 0 0 0 0
    0 0 0 0 0 0 0 0 0 0 0 0 0 0 0 0 0 0 0 0 0 0 0 0 0 0 0 0 0 0 0 0 0 0 0 0 0 0 0 0 0 0 0 0 0 0 0 0 0 0 0 0 0 0 0 0 0 0 0 0 0 0 0 0 0 0 0 0 0 865 886 886 865 865 855 836 808 826 817 808 799 782 791 799 799 808 808 817 826 836 876 886 897 919 919 919 919 897 943 931 943 897 931 931 931 919 955 931 931 931 981 908 897 876 0 826 808 808 808 808 817 799 808 774 766 750 758 750 743 743 750 750 750 766 774 782 799 808 817 826 836 855 855 876 886 865 919 943 919 886 876 876 897 919 919 919 919 919 931 943 943 908 845 808 758 750 743 735 735 735 735 735 758 774 782 782 782 791 791 799 799 799 782 791 799 808 808 817 808 817 808 817 817 808 817 826 817 826 826 836 886 897 865 855 865 865 855 855 865 836 826 826 826 817 817 808 782 791 774 766 750 750 743 735 743 766 743 758 782 782 799 808 791 782 791 799 758 791 0 0 0 0 0 0 0 876 865 808 817 808 826 845 0 0 0 0 0 0 0 0 0 0 0 0 855 855 845 855 836 826 836 845 836 836 826 826 836 836 845 0 855 836 766 799 799 782 758 766 766 735 714 0 657 608 603 603 593 570 561 549 549 541 541 541 541 541 541 533 529 529 521 518 507 504 500 0 0 0 0 0
    0 0 0 0 0 0 0 0 0 0 0 0 0 0 0 0 0 0 0 0 0 0 0 0 0 0 0 0 0 0 0 0 0 0 0 0 0 0 0 0 0 0 0 0 0 0 0 0 0 0 0 0 0 0 0 0 0 0 0 0 0 0 0 0 0 0 0 0 0 908 931 897 865 876 865 836 808 817 817 808 799 791 791 799 799 808 808 817 826 836 865 886 897 908 908 919 919 897 943 931 943 897 931 931 931 931 955 931 931 931 981 919 908 897 0 845 0 0 817 0 836 817 826 791 782 750 758 750 743 743 750 750 758 766 782 782 799 808 826 836 845 855 865 876 886 865 919 931 931 897 876 886 908 931 943 931 931 931 943 955 955 919 855 808 758 743 743 728 728 735 735 735 758 774 791 791 791 799 791 799 799 799 782 791 808 817 817 817 817 826 817 826 826 817 817 826 817 836 836 845 897 897 876 855 865 865 855 855 865 826 817 817 826 817 817 808 782 774 766 758 750 743 735 735 750 774 758 774 791 791 817 817 791 782 782 791 750 782 0 0 0 0 0 0 0 886 876 0 0 0 0 0 0 0 0 0 0 0 0 0 766 735 0 0 855 836 836 845 836 826 836 845 826 826 826 826 826 826 855 0 855 836 766 799 791 774 750 743 743 721 694 681 629 603 593 593 579 557 557 545 549 541 541 545 545 541 541 537 533 533 525 521 511 507 504 0 0 0 0 0
    0 0 0 0 0 0 0 0 0 0 0 0 0 0 0 0 0 0 0 0 0 0 0 0 0 0 0 0 0 0 0 0 0 0 0 0 0 0 0 0 0 0 0 0 0 0 0 0 0 0 0 0 0 0 0 0 0 0 0 0 0 0 0 0 0 0 0 0 0 931 943 919 886 876 865 836 799 817 817 808 799 791 791 791 799 808 808 817 826 836 855 886 886 897 908 919 919 897 943 943 943 908 943 931 931 931 955 931 931 931 981 919 919 919 955 865 0 0 0 0 876 845 855 817 799 758 774 758 750 743 750 758 758 766 782 774 799 808 826 826 836 855 865 865 886 865 919 931 931 919 886 897 908 931 943 943 931 943 943 968 955 919 855 817 774 743 743 728 728 743 735 735 758 782 799 791 799 799 791 808 799 799 774 791 808 826 826 826 826 845 836 845 845 826 826 836 826 845 855 845 897 908 876 855 865 865 855 855 865 826 817 826 826 817 817 799 774 774 758 758 743 743 735 743 758 774 782 791 799 817 826 826 799 799 791 808 735 750 0 0 0 0 0 0 0 0 0 0 0 0 0 0 0 0 0 0 0 0 0 0 0 0 0 826 865 845 845 845 836 826 836 836 826 817 817 817 817 817 826 817 836 826 766 791 782 750 735 721 714 700 657 629 618 598 588 588 579 561 561 553 557 545 549 549 545 545 545 541 541 541 533 529 518 514 507 0 0 0 0 0
    0 0 0 0 0 0 0 0 0 0 0 0 0 0 0 0 0 0 0 0 0 0 0 0 0 0 0 0 0 0 0 0 0 0 0 0 0 0 0 0 0 0 0 0 0 0 0 0 0 0 0 0 0 0 0 0 0 0 0 0 0 0 0 0 0 0 0 0 0 955 968 943 908 886 876 845 817 826 817 808 808 808 799 799 799 817 817 826 826 836 855 886 886 897 897 908 908 897 943 943 943 908 943 943 931 931 955 931 931 931 981 919 908 908 955 886 0 0 0 0 886 0 0 0 817 782 782 766 766 743 758 758 766 774 782 774 799 799 817 826 826 845 855 855 876 855 908 919 931 919 886 897 919 931 943 931 931 931 943 968 943 897 865 826 799 758 758 735 743 750 750 750 774 791 799 799 808 808 799 808 808 808 782 791 808 826 826 836 845 855 855 865 865 855 845 845 845 855 865 855 908 908 876 855 876 876 855 855 865 836 826 826 826 817 808 799 774 766 758 750 743 750 743 750 774 791 799 817 817 826 836 845 808 808 817 836 0 799 0 0 0 0 0 0 0 0 0 0 0 0 0 0 0 0 0 0 0 0 0 0 0 758 0 817 855 836 836 845 836 817 836 826 817 817 808 799 808 808 817 808 808 791 758 758 750 728 714 687 657 639 618 608 603 588 588 584 579 570 570 561 561 549 553 549 549 549 549 545 541 541 537 533 521 521 511 0 0 0 0 0
    0 0 0 0 0 0 0 0 0 0 0 0 0 0 0 0 0 0 0 0 0 0 0 0 0 0 0 0 0 0 0 0 0 0 0 0 0 0 0 0 0 0 0 0 0 0 0 0 0 0 0 0 0 0 0 0 0 0 0 0 0 0 0 0 0 0 0 0 0 0 0 968 931 897 886 855 826 826 826 826 817 808 808 808 808 817 817 826 826 826 855 876 876 897 897 908 908 897 943 931 943 908 943 943 943 931 968 931 919 931 968 908 897 897 919 876 0 0 0 0 0 0 0 0 826 799 799 799 782 750 766 774 774 782 791 774 799 799 817 817 826 836 845 855 876 855 908 908 919 908 876 897 908 919 931 919 919 919 931 955 931 886 865 826 817 782 750 735 750 758 750 758 782 799 808 808 826 808 808 817 817 808 782 791 817 826 836 845 855 865 876 886 886 876 876 865 855 865 876 855 919 919 876 865 876 876 865 865 876 836 836 836 836 817 808 799 774 766 758 750 743 750 743 758 782 791 808 817 826 836 845 855 808 799 817 826 735 826 0 0 908 0 0 0 0 0 0 0 0 0 0 0 0 0 0 0 0 0 0 0 0 782 728 817 836 826 836 836 826 817 826 826 817 808 808 799 799 799 808 799 791 758 758 0 735 714 687 634 618 613 608 593 593 588 588 584 579 574 574 566 570 553 553 553 549 549 549 549 545 545 541 533 525 525 514 0 0 0 0 0
    0 0 0 0 0 0 0 0 0 0 0 0 0 0 0 0 0 0 0 0 0 0 0 0 0 0 0 0 0 0 0 0 0 0 0 0 0 0 0 0 0 0 0 0 0 0 0 0 0 0 0 0 0 0 0 0 0 0 0 0 0 0 0 0 0 0 0 0 0 981 994 981 943 919 908 865 845 836 826 826 826 817 808 808 808 817 817 826 826 826 855 876 876 886 897 908 908 897 943 943 943 919 943 943 943 931 968 931 919 931 968 919 908 897 931 876 0 0 0 0 0 0 0 0 836 817 817 817 799 766 782 791 782 791 791 782 799 799 817 817 817 836 845 855 876 855 919 919 931 919 886 897 919 919 943 931 919 919 931 955 919 876 855 826 817 782 750 735 758 774 766 766 799 808 817 826 836 817 817 826 845 826 799 808 826 845 855 865 897 897 908 897 908 897 897 886 865 886 886 865 919 919 886 865 886 886 876 876 886 845 845 845 855 826 817 808 782 774 766 766 750 766 758 782 799 808 817 826 836 845 865 865 817 817 836 836 0 0 0 886 908 0 0 0 0 0 0 0 0 0 0 0 0 0 0 0 0 0 0 799 0 791 750 808 826 826 826 836 826 817 817 817 808 799 799 791 791 799 799 766 758 743 735 714 721 694 657 629 623 618 613 608 608 598 598 593 588 584 579 570 570 553 557 553 553 553 549 549 549 545 545 541 533 533 521 0 0 0 0 0
    0 0 0 0 0 0 0 0 0 0 0 0 0 0 0 0 0 0 0 0 0 0 0 0 0 0 0 0 0 0 0 0 0 0 0 0 0 0 0 0 0 0 0 0 0 0 0 0 0 0 0 0 0 0 0 0 0 0 0 0 0 0 0 0 0 0 0 0 0 1051 1036 994 0 931 897 876 836 836 826 826 826 817 808 808 808 817 817 826 826 826 845 865 876 886 897 908 919 897 943 943 943 919 943 943 943 931 955 931 919 919 968 919 908 897 919 865 0 0 0 0 0 0 0 0 855 836 817 826 808 791 791 799 791 791 799 791 799 799 808 817 817 836 845 845 865 855 919 919 931 919 886 908 931 919 943 931 931 931 931 955 931 865 855 826 817 791 758 750 782 791 791 782 808 817 826 836 845 826 836 845 886 886 836 886 931 943 981 981 968 955 968 931 943 931 931 919 897 908 919 865 931 931 897 876 897 897 886 886 908 855 855 865 876 845 836 826 799 791 782 782 774 774 774 799 808 817 836 845 845 855 897 886 836 845 855 855 845 865 876 876 886 886 0 0 0 0 0 0 0 0 0 0 0 0 0 0 0 817 817 799 808 799 766 817 826 826 826 836 817 817 817 817 799 791 782 774 774 791 791 721 700 721 714 694 707 687 657 629 623 618 613 608 603 598 598 593 588 584 579 570 574 557 557 553 553 553 553 553 549 549 549 541 533 533 525 0 0 0 0 0
    0 0 0 0 0 0 0 0 0 0 0 0 0 0 0 0 0 0 0 0 0 0 0 0 0 0 0 0 0 0 0 0 0 0 0 0 0 0 0 0 0 0 0 0 0 0 0 0 0 0 0 0 0 0 0 0 0 0 0 0 0 0 0 0 0 0 0 0 0 0 1066 0 0 0 919 897 845 836 826 817 817 826 808 808 817 826 826 836 836 836 845 865 876 886 886 897 919 897 943 955 955 919 955 943 943 931 955 931 919 919 968 908 897 897 919 865 855 0 0 943 876 0 0 0 876 845 0 836 826 808 808 808 799 799 808 799 808 799 808 817 817 836 836 845 855 855 919 897 919 908 886 897 931 908 931 931 931 931 931 955 931 865 865 836 826 808 774 766 799 799 808 799 817 826 836 845 865 845 845 855 919 943 908 931 943 955 981 981 968 955 955 919 943 943 931 919 897 897 919 876 931 931 897 886 908 908 897 897 919 855 865 876 886 845 836 836 808 799 799 791 774 774 782 808 817 817 836 845 845 865 908 897 845 836 845 845 836 855 865 876 876 0 0 0 0 0 0 0 0 0 0 0 0 0 0 0 0 0 826 808 817 808 782 817 836 836 836 836 826 817 817 808 799 782 782 774 774 782 774 707 694 700 694 681 681 657 639 629 623 623 618 608 608 598 598 593 588 584 584 574 574 557 557 553 553 553 553 553 553 549 549 541 533 533 521 0 0 0 0 0
    0 0 0 0 0 0 0 0 0 0 0 0 0 0 0 0 0 0 0 0 0 0 0 0 0 0 0 0 0 0 0 0 0 0 0 0 0 0 0 0 0 0 0 0 0 0 0 0 0 0 0 0 0 0 0 0 0 0 0 0 0 0 0 0 0 0 0 0 0 0 0 1066 0 0 955 943 886 855 836 826 826 836 817 817 817 826 836 845 845 845 845 876 876 886 886 886 908 897 931 943 943 908 943 943 955 931 955 931 919 919 968 908 897 908 931 886 0 0 0 0 897 0 0 955 897 855 0 845 836 826 817 817 808 808 817 808 817 799 817 826 826 836 845 855 865 865 931 897 908 908 886 897 919 897 931 919 919 931 931 943 943 876 886 855 845 836 791 791 817 817 826 808 817 826 836 855 865 845 845 855 943 955 931 931 943 955 968 968 968 955 955 919 931 931 919 919 897 897 908 876 931 931 897 886 908 919 908 908 919 855 876 886 886 845 836 826 817 808 808 799 791 791 799 817 826 836 845 855 855 886 943 919 865 865 855 855 845 855 855 855 876 0 0 0 0 0 0 0 0 0 0 0 0 0 0 0 0 817 817 799 826 826 808 836 845 845 855 845 836 836 817 817 808 791 791 782 782 791 774 707 694 700 687 675 669 657 645 634 629 629 623 618 613 603 598 598 593 588 588 579 574 557 557 553 553 553 553 553 549 549 549 541 533 533 525 0 0 0 0 0
    0 0 0 0 0 0 0 0 0 0 0 0 0 0 0 0 0 0 0 0 0 0 0 0 0 0 0 0 0 0 0 0 0 0 0 0 0 0 0 0 0 0 0 0 0 0 0 0 0 0 0 0 0 0 0 0 0 0 0 0 0 0 0 0 0 0 0 0 0 0 0 1115 1082 0 994 981 943 886 845 836 836 836 836 826 826 836 845 855 865 855 865 876 886 886 897 886 908 897 931 943 943 908 943 943 955 931 955 931 919 931 968 919 908 919 955 886 876 0 0 0 0 0 0 955 908 0 0 855 845 836 826 826 817 817 826 826 826 808 826 836 836 845 845 855 865 865 931 908 897 908 886 886 919 897 919 908 919 919 919 931 931 876 886 865 865 845 817 817 836 836 845 817 836 836 845 855 876 845 855 855 943 931 931 943 943 968 981 968 968 955 955 919 931 931 919 908 897 886 908 876 931 931 897 886 919 919 919 908 919 865 876 897 897 845 845 836 817 817 817 799 799 799 808 826 836 845 855 865 865 886 931 908 876 865 855 845 836 845 845 845 855 0 0 0 0 0 0 0 0 0 0 836 845 836 817 799 808 817 808 791 808 817 808 826 845 845 855 855 836 845 826 817 817 808 799 791 791 799 758 700 687 687 681 669 669 657 651 639 639 634 623 618 613 603 598 598 593 588 584 579 570 557 557 553 553 553 553 553 549 549 545 541 529 529 525 0 0 0 0 0
    0 0 0 0 0 0 0 0 0 0 0 0 0 0 0 0 0 0 0 0 0 0 0 0 0 0 0 0 0 0 0 0 0 0 0 0 0 0 0 0 0 0 0 0 0 0 0 0 0 0 0 0 0 0 0 0 0 0 0 0 0 0 0 0 0 0 0 0 0 0 1168 1132 1082 1036 1008 994 968 955 886 855 845 845 845 855 845 865 865 876 886 876 886 897 897 908 897 897 919 908 943 943 943 908 943 943 955 919 955 931 919 931 968 931 919 919 968 908 876 0 0 0 0 0 0 955 943 897 0 876 865 865 845 836 836 836 845 845 836 826 845 845 855 855 855 855 865 876 931 897 897 908 886 886 919 897 908 908 908 919 919 931 943 886 908 886 876 865 845 836 855 845 855 836 845 845 855 865 886 855 865 876 955 919 919 943 943 968 981 981 981 955 955 931 931 943 931 931 919 886 919 876 931 931 897 886 919 919 919 919 931 886 897 908 908 855 845 836 826 826 826 808 808 808 826 836 845 855 865 865 876 897 931 908 886 865 855 845 836 845 836 826 845 0 0 0 0 0 0 0 0 0 0 845 855 845 826 808 808 817 817 799 817 826 826 826 845 855 845 845 836 845 826 817 817 808 808 791 799 799 743 687 681 681 669 663 657 651 645 639 639 634 623 618 613 603 598 598 593 588 588 579 570 557 557 557 553 553 553 553 549 549 545 541 529 529 521 0 0 0 0 0
    0 0 0 0 0 0 0 0 0 0 0 0 0 0 0 0 0 0 0 0 0 0 0 0 0 0 0 0 0 0 0 0 0 0 0 0 0 0 0 0 0 0 0 0 0 0 0 0 0 0 0 0 0 0 0 0 0 0 0 0 0 0 0 0 0 0 0 0 0 0 0 1149 1115 1051 1036 1022 994 994 955 865 855 855 855 876 855 886 886 886 897 897 908 919 908 919 908 897 931 919 943 955 943 897 943 943 955 908 943 931 919 931 981 931 943 931 981 943 0 0 0 0 0 0 0 931 931 908 908 897 886 886 865 855 845 845 865 855 855 845 855 865 865 876 876 865 865 876 931 897 886 897 886 876 908 897 908 908 908 919 919 919 943 886 919 886 897 876 855 855 865 855 865 836 855 845 845 865 876 855 855 865 955 919 919 943 943 968 981 994 981 968 981 943 955 955 943 943 943 897 931 876 931 919 908 886 919 919 931 919 931 886 897 908 908 855 845 845 836 845 836 826 826 826 836 855 855 865 876 886 886 897 931 897 876 865 845 845 845 855 845 826 845 0 0 0 0 0 0 0 0 0 865 845 845 836 808 799 808 808 808 791 817 817 826 826 845 855 855 845 836 845 826 817 817 808 808 799 799 799 728 681 675 669 663 657 657 651 645 639 639 629 629 618 613 598 598 593 588 588 584 579 570 557 557 557 553 553 553 549 549 549 545 541 529 529 525 0 0 0 0 0
    0 0 0 0 0 0 0 0 0 0 0 0 0 0 0 0 0 0 0 0 0 0 0 0 0 0 0 0 0 0 0 0 0 0 0 0 0 0 0 0 0 0 0 0 0 0 0 0 0 0 0 0 0 0 0 0 0 0 0 0 0 0 0 0 0 0 0 0 0 0 0 1168 1132 1082 1066 1036 1022 1022 981 897 845 836 855 876 865 886 897 897 897 908 908 919 919 931 919 897 931 931 943 955 955 886 931 931 955 897 931 931 919 919 981 943 943 943 994 0 0 0 0 0 845 845 876 0 919 919 931 908 908 908 886 876 855 855 865 865 865 855 865 876 886 886 897 886 876 886 931 908 886 897 886 865 908 897 908 908 908 919 908 919 943 886 919 886 897 886 865 855 865 865 865 836 845 845 845 865 865 845 855 865 943 908 908 931 931 955 981 994 994 981 994 955 968 968 955 955 943 897 931 876 919 919 897 886 908 908 919 908 931 886 897 897 908 855 845 845 845 845 836 826 826 836 845 855 865 876 876 886 886 908 931 908 886 865 845 845 855 865 836 817 836 0 0 0 0 0 0 0 897 886 886 855 865 845 826 826 826 817 817 791 817 826 836 836 845 865 855 845 836 845 826 817 817 808 808 799 799 799 721 663 669 657 651 651 651 651 645 639 645 634 634 629 618 603 598 593 588 588 584 579 570 557 557 557 553 553 553 549 549 549 545 541 529 529 525 0 0 0 0 0
    0 0 0 0 0 0 0 0 0 0 0 0 0 0 0 0 0 0 0 0 0 0 0 0 0 0 0 0 0 0 0 0 0 0 0 0 0 0 0 0 0 0 0 0 0 0 0 0 0 0 0 0 0 0 0 0 0 0 0 0 0 0 0 0 0 0 0 0 0 0 0 1149 1132 1098 1082 1051 1036 1036 1008 994 836 836 855 886 865 897 908 908 919 919 919 931 931 943 931 897 943 943 943 955 968 886 931 931 955 897 919 919 919 919 994 955 955 955 0 0 0 0 0 865 845 836 865 876 908 931 955 919 931 919 908 886 876 865 876 886 886 865 876 886 886 897 897 897 886 886 919 919 886 897 897 865 919 897 908 908 919 919 919 908 943 886 919 886 897 886 865 865 876 876 865 845 855 845 845 865 865 845 855 855 919 897 897 919 919 943 968 968 981 968 981 955 955 968 955 943 943 886 931 876 908 908 897 876 908 908 919 897 931 886 897 897 908 855 845 845 845 855 855 845 845 845 865 876 876 886 886 897 886 919 943 908 897 876 845 845 855 855 826 808 817 0 0 0 0 0 886 0 897 886 886 0 0 836 817 817 817 817 808 791 817 826 845 836 845 865 855 845 836 836 826 817 817 808 799 791 808 799 714 645 663 645 645 651 651 645 645 645 645 639 639 634 623 608 603 598 593 588 584 579 566 557 557 557 553 553 549 549 549 545 541 537 525 525 521 0 0 0 0 0
    0 0 0 0 0 0 0 0 0 0 0 0 0 0 0 0 0 0 0 0 0 0 0 0 0 0 0 0 0 0 0 0 0 0 0 0 0 0 0 0 0 0 0 0 0 0 0 0 0 0 0 0 0 0 0 0 0 0 0 0 0 0 0 0 0 0 0 0 0 0 0 1132 1115 1082 1082 1066 1022 0 0 0 897 836 876 886 865 897 919 919 919 931 943 931 931 955 943 908 943 943 943 955 968 897 931 931 955 908 919 931 931 931 994 943 955 955 0 0 0 0 0 855 865 855 876 886 908 919 943 908 931 919 919 886 876 876 876 886 886 865 876 886 897 897 897 897 886 886 919 908 886 897 897 876 919 897 908 908 908 908 908 908 943 886 919 897 897 886 876 865 876 886 876 845 855 855 855 865 865 845 845 855 919 897 886 908 897 931 955 943 955 955 968 955 955 968 943 931 943 886 919 876 897 897 886 876 897 897 919 897 919 886 897 886 919 855 855 855 855 865 855 855 845 855 865 876 876 886 886 886 876 919 943 919 908 876 855 836 855 0 817 782 791 0 0 0 0 0 876 0 908 886 876 855 865 845 826 826 826 817 799 799 817 826 836 836 836 855 845 836 836 836 817 817 817 808 808 799 817 799 707 634 663 645 645 651 651 645 645 645 651 639 639 634 623 603 598 593 588 584 584 579 566 557 557 557 553 549 549 549 545 545 541 533 525 521 518 0 0 0 0 0
    0 0 0 0 0 0 0 0 0 0 0 0 0 0 0 0 0 0 0 0 0 0 0 0 0 0 0 0 0 0 0 0 0 0 0 0 0 0 0 0 0 0 0 0 0 0 0 0 0 0 0 0 0 0 0 0 0 0 0 0 0 0 0 0 0 0 0 0 0 0 0 1132 1098 1082 1066 1066 1036 0 0 0 0 836 876 908 865 897 919 919 931 943 955 943 943 968 955 919 943 943 943 955 955 897 931 931 955 908 919 931 931 931 994 943 955 955 0 0 0 0 0 865 876 865 876 876 897 919 943 897 919 919 919 897 886 886 886 897 897 876 886 897 897 897 897 897 886 897 919 908 886 886 897 865 919 897 897 897 908 908 908 908 943 886 919 897 897 897 876 876 886 886 886 855 865 855 865 876 876 845 845 855 908 886 886 897 897 931 931 931 943 943 968 943 943 955 919 919 931 876 919 876 886 886 886 865 897 897 908 886 908 897 897 886 919 855 855 845 855 865 855 855 845 845 855 865 876 886 876 865 876 931 931 919 919 876 0 826 845 0 0 782 0 0 0 0 0 0 865 886 897 876 865 845 865 845 826 826 817 808 791 791 817 826 836 836 845 855 845 836 836 826 817 817 817 808 808 808 826 817 707 623 657 645 645 651 651 645 645 645 651 639 639 634 623 608 598 593 588 584 584 579 566 557 553 557 549 549 549 545 545 545 537 533 521 521 514 0 0 0 0 0
    0 0 0 0 0 0 0 0 0 0 0 0 0 0 0 0 0 0 0 0 0 0 0 0 0 0 0 0 0 0 0 0 0 0 0 0 0 0 0 0 0 0 0 0 0 0 0 0 0 0 0 0 0 0 0 0 0 0 0 0 0 0 0 0 0 0 0 0 0 0 0 1082 1066 1066 1051 1051 0 0 0 0 0 865 897 919 876 908 931 931 931 943 968 955 943 968 968 931 943 955 955 955 955 886 931 931 955 919 919 931 931 931 994 955 955 968 0 0 0 0 0 876 886 876 876 876 908 919 943 897 919 919 919 908 908 897 886 897 908 886 897 908 897 908 908 908 897 897 919 908 886 886 886 865 908 886 897 897 897 897 908 908 943 897 931 908 908 908 886 886 897 897 886 865 865 865 865 876 876 855 855 865 897 897 886 908 908 943 943 943 955 943 955 931 919 943 897 886 908 865 908 876 876 886 876 865 886 886 908 886 897 908 886 876 919 855 855 855 855 865 865 865 855 855 865 865 876 886 876 855 876 931 919 919 919 886 865 845 855 0 0 0 0 0 0 855 886 0 0 865 876 865 845 836 855 836 808 817 808 808 791 782 808 826 836 845 845 855 836 836 836 826 817 817 817 808 808 817 855 817 707 618 657 645 645 651 651 651 645 645 651 639 639 639 623 608 598 593 588 588 584 579 566 557 553 557 549 549 549 549 545 545 541 533 521 521 514 0 0 0 0 0
    0 0 0 0 0 0 0 0 0 0 0 0 0 0 0 0 0 0 0 0 0 0 0 0 0 0 0 0 0 0 0 0 0 0 0 0 0 0 0 0 0 0 0 0 0 0 0 0 0 0 0 0 0 0 0 0 0 0 0 0 0 0 0 0 0 0 0 0 0 0 0 1036 1036 1036 1036 1036 1022 0 1022 0 0 876 919 931 886 919 943 943 943 955 968 955 955 981 968 943 955 955 955 955 955 886 931 931 943 919 919 931 931 931 994 943 955 968 0 0 0 0 0 876 886 876 876 876 908 919 931 897 919 919 931 919 931 897 897 908 919 908 897 908 908 897 908 908 897 897 908 908 886 876 886 855 897 886 886 886 897 886 897 908 943 897 931 908 908 908 886 886 897 908 897 865 876 876 876 886 886 855 855 865 897 897 886 908 908 943 943 943 943 943 943 943 931 955 897 886 897 865 919 876 876 876 876 855 886 886 897 876 897 919 897 886 931 865 865 855 855 876 865 865 855 855 855 855 865 886 855 855 865 919 908 919 908 876 0 0 0 0 0 0 0 0 0 855 876 876 855 855 876 876 855 845 865 845 808 808 808 808 791 791 817 826 836 845 855 865 836 836 826 817 808 817 808 808 799 817 0 799 694 613 651 634 639 645 651 645 645 645 657 639 645 645 623 608 598 593 584 584 584 579 566 557 553 557 549 553 549 549 545 545 541 0 525 521 514 0 0 0 0 0
    0 0 0 0 0 0 0 0 0 0 0 0 0 0 0 0 0 0 0 0 0 0 0 0 0 0 0 0 0 0 0 0 0 0 0 0 0 0 0 0 0 0 0 0 0 0 0 0 0 0 0 0 0 0 0 0 0 0 0 0 0 0 0 0 0 0 0 0 0 0 1008 1008 1008 1022 1036 1036 1008 994 1008 0 0 897 931 943 897 931 943 943 943 955 968 955 955 968 968 943 955 955 955 955 955 886 943 931 943 919 908 919 931 931 981 943 955 955 0 0 0 0 0 886 908 876 886 886 919 931 931 908 931 919 943 931 943 919 897 908 931 908 897 908 908 897 908 919 908 897 897 908 897 886 876 865 897 886 876 886 886 886 897 908 943 886 931 908 919 908 886 886 897 908 897 876 886 876 876 897 897 865 865 876 908 908 886 908 908 931 931 931 931 931 919 919 908 931 886 886 897 865 919 886 865 886 886 865 897 897 908 886 897 931 886 876 943 876 865 855 855 876 865 865 865 865 865 865 876 886 855 855 876 919 886 908 897 876 0 0 0 0 0 0 0 0 0 865 886 886 876 876 886 886 865 855 876 836 817 808 817 0 808 808 836 845 855 865 865 876 836 836 826 808 799 808 808 799 791 808 0 750 651 598 651 634 639 645 651 645 645 645 657 639 645 639 623 608 598 593 588 584 584 579 566 557 553 557 549 553 549 545 545 545 541 0 525 525 514 0 0 0 0 0
    0 0 0 0 0 0 0 0 0 0 0 0 0 0 0 0 0 0 0 0 0 0 0 0 0 0 0 0 0 0 0 0 0 0 0 0 0 0 0 0 0 0 0 0 0 0 0 0 0 0 0 0 0 0 0 0 0 0 0 0 0 0 0 0 0 0 0 0 0 1022 1008 1022 1008 1022 1022 1022 994 981 981 0 0 897 943 943 897 931 943 943 955 955 968 955 955 968 968 943 943 943 955 955 955 886 943 931 943 919 908 919 931 931 994 931 943 955 955 0 0 0 886 897 919 886 897 897 919 931 931 908 943 931 943 943 955 943 886 908 931 919 897 908 908 897 897 919 908 886 886 908 897 876 865 855 886 865 865 876 876 865 876 897 919 876 919 908 908 897 876 886 897 908 897 876 886 886 886 908 897 876 865 876 908 919 897 919 919 931 919 919 919 908 897 886 886 886 876 876 897 876 919 897 876 897 886 865 897 897 908 886 897 943 886 876 943 865 865 855 855 876 876 876 865 865 865 865 876 886 855 855 886 931 897 908 908 886 0 0 0 0 0 0 0 0 0 855 876 876 855 855 876 876 845 817 845 808 799 799 808 808 799 817 845 845 855 865 876 876 845 836 826 808 799 808 799 799 791 0 0 0 618 603 651 634 639 645 651 651 651 651 663 645 651 657 629 613 603 598 584 584 584 579 566 557 553 557 549 549 549 545 545 545 541 0 525 525 514 0 0 0 0 0
    0 0 0 0 0 0 0 0 0 0 0 0 0 0 0 0 0 0 0 0 0 0 0 0 0 0 0 0 0 0 0 0 0 0 0 0 0 0 0 0 0 0 0 0 0 0 0 0 0 0 0 0 0 0 0 0 0 0 0 0 0 0 0 0 0 0 0 0 0 1022 1022 1022 1008 1022 1008 1008 968 955 955 0 0 897 931 931 897 931 931 931 943 955 955 943 943 943 955 943 943 931 943 943 943 886 943 919 931 931 908 919 919 931 981 919 931 931 943 0 0 0 908 908 931 908 908 908 931 943 943 908 943 943 955 955 955 943 897 919 943 919 908 908 908 897 908 931 919 886 886 897 897 876 865 855 886 865 865 876 876 865 876 897 919 876 919 919 897 886 865 886 897 908 908 886 886 897 897 919 908 886 876 886 908 931 897 919 919 931 908 908 908 886 876 855 865 855 865 876 897 876 919 897 876 897 897 876 897 897 908 886 897 943 876 876 943 865 865 855 865 876 876 876 865 855 855 865 876 876 845 855 886 919 908 919 931 908 886 0 0 0 0 0 0 0 0 865 876 865 855 845 865 865 836 817 886 826 799 799 808 791 791 817 836 836 845 855 865 876 845 845 826 808 799 808 799 799 791 0 0 700 618 0 651 639 639 651 657 657 657 657 663 651 663 663 639 618 603 598 584 584 579 574 561 557 553 557 549 549 549 545 545 545 537 0 525 521 514 0 0 0 0 0
    0 0 0 0 0 0 0 0 0 0 0 0 0 0 0 0 0 0 0 0 0 0 0 0 0 0 0 0 0 0 0 0 0 0 0 0 0 0 0 0 0 0 0 0 0 0 0 0 0 0 0 0 0 0 0 0 0 0 0 0 0 0 0 0 0 0 0 0 0 1008 1008 1022 994 1022 1008 1008 968 955 931 0 0 908 931 919 897 931 931 931 943 955 955 943 943 943 955 943 943 931 943 931 943 886 943 919 931 931 908 919 919 919 981 908 919 931 931 955 0 919 931 931 955 919 919 919 931 943 931 908 943 943 955 955 955 943 897 908 943 919 897 908 908 897 908 931 919 886 886 897 897 876 865 865 876 865 865 865 876 865 876 897 919 876 919 931 919 876 855 886 908 919 919 897 897 919 908 931 919 897 886 897 919 931 897 919 931 931 908 908 897 876 865 855 855 845 855 865 897 865 919 908 876 908 897 876 897 897 908 886 897 943 865 876 943 876 865 855 865 876 876 876 865 855 855 855 865 865 845 845 876 908 908 931 943 931 908 0 0 0 0 0 0 0 0 865 876 876 865 855 865 876 826 808 919 845 808 799 808 791 799 826 836 836 836 845 855 865 845 845 826 808 808 817 808 808 799 0 0 694 613 613 657 639 639 651 657 657 657 657 669 651 657 663 634 613 598 598 584 584 579 574 561 557 549 557 549 549 545 545 545 545 537 0 525 521 514 0 0 0 0 0
    0 0 0 0 0 0 0 0 0 0 0 0 0 0 0 0 0 0 0 0 0 0 0 0 0 0 0 0 0 0 0 0 0 0 0 0 0 0 0 0 0 0 0 0 0 0 0 0 0 0 0 0 0 0 0 0 0 0 0 0 0 0 0 0 0 0 0 0 0 981 994 1008 994 994 994 994 968 943 931 0 886 931 943 919 908 943 931 931 955 955 955 943 943 943 943 955 931 919 931 931 931 886 943 919 919 931 908 908 919 919 981 908 919 931 931 955 931 931 943 955 968 931 931 919 931 931 919 897 931 931 943 943 943 919 886 908 931 919 897 897 897 897 908 931 919 876 886 886 886 876 855 865 876 865 865 865 876 865 876 908 919 897 931 955 943 876 855 886 908 908 908 897 897 908 897 919 908 886 886 897 919 919 897 919 931 931 919 919 908 897 876 865 865 855 865 876 908 876 931 931 876 908 908 876 897 897 908 886 886 931 865 876 931 876 865 0 865 876 876 876 865 855 855 855 865 865 845 855 886 897 897 919 955 943 931 0 0 0 0 0 0 0 0 0 876 886 865 855 855 865 826 808 897 855 808 808 808 791 808 836 845 845 845 855 865 865 855 855 826 817 808 817 817 808 808 0 0 700 639 618 663 645 639 657 663 663 657 663 669 651 657 663 629 613 598 593 579 579 579 574 557 557 549 557 549 549 545 545 545 545 537 0 525 521 511 0 0 0 0 0
    0 0 0 0 0 0 0 0 0 0 0 0 0 0 0 0 0 0 0 0 0 0 0 0 0 0 0 0 0 0 0 0 0 0 0 0 0 0 0 0 0 0 0 0 0 0 0 0 0 0 0 0 0 0 0 0 0 0 0 0 0 0 0 0 0 0 0 0 0 981 981 994 981 994 981 981 955 931 897 0 897 943 943 919 919 943 931 943 955 955 943 943 943 931 943 943 919 908 919 919 919 886 931 919 919 931 908 908 908 919 968 908 919 931 931 968 955 955 968 968 981 943 943 919 943 943 931 908 931 931 943 943 955 919 886 908 931 908 897 897 897 897 908 943 919 876 886 897 897 886 855 865 865 855 865 865 876 876 886 931 931 919 955 968 955 876 865 897 908 908 897 897 897 908 908 931 897 886 886 897 919 919 897 919 931 931 919 908 897 886 865 855 855 836 876 876 908 876 931 931 876 919 919 886 897 897 908 886 886 931 855 865 0 865 0 0 865 865 865 876 865 855 855 865 865 865 855 876 897 897 908 931 0 955 931 0 0 943 943 0 0 0 0 886 876 886 876 855 855 865 845 817 897 855 817 808 808 791 817 845 855 845 845 865 865 865 855 855 826 817 808 817 817 817 817 0 799 714 663 618 663 651 639 657 663 663 663 663 669 657 657 669 623 608 593 593 579 574 574 570 557 557 549 557 549 549 549 545 545 545 541 0 525 521 514 0 0 0 0 0
    0 0 0 0 0 0 0 0 0 0 0 0 0 0 0 0 0 0 0 0 0 0 0 0 0 0 0 0 0 0 0 0 0 0 0 0 0 0 0 0 0 0 0 0 0 0 0 0 0 0 0 0 0 0 0 0 0 0 0 0 0 0 0 0 0 0 0 0 0 955 943 968 943 955 955 955 931 919 897 0 919 955 955 931 931 955 931 943 955 955 931 943 931 919 931 943 908 897 919 919 919 886 931 919 919 931 908 908 908 908 968 897 919 919 931 968 943 955 968 968 981 943 943 919 943 943 931 908 931 931 943 943 955 908 886 908 931 908 886 897 897 908 919 943 919 876 886 908 886 886 855 865 865 865 865 865 876 876 886 943 931 931 968 968 943 886 876 908 908 908 897 897 908 919 908 931 897 886 897 908 919 908 897 908 919 919 908 897 886 886 865 855 865 855 876 886 908 886 931 943 876 919 919 886 897 897 908 886 886 919 855 876 919 865 0 0 865 876 865 876 865 855 865 865 876 876 865 886 919 897 931 943 0 968 0 981 968 968 955 0 0 0 0 886 886 886 876 0 855 876 865 817 943 845 799 799 817 799 836 845 855 845 845 865 865 855 855 855 826 817 808 817 817 817 826 0 782 714 669 623 669 651 639 657 663 663 663 663 675 657 663 675 634 613 593 593 579 579 579 574 557 557 549 557 549 553 549 549 545 545 541 0 525 525 514 0 0 0 0 0
    0 0 0 0 0 0 0 0 0 0 0 0 0 0 0 0 0 0 0 0 0 0 0 0 0 0 0 0 0 0 0 0 0 0 0 0 0 0 0 0 0 0 0 0 0 0 0 0 0 0 0 0 0 0 0 0 0 0 0 0 0 0 0 0 0 0 0 0 0 955 955 968 943 943 943 943 919 908 908 876 931 968 943 931 943 955 943 943 955 943 919 943 931 908 931 943 897 897 919 919 919 897 931 919 919 931 908 908 908 908 968 897 908 919 919 968 931 955 943 955 968 931 931 919 943 943 943 919 943 943 955 955 955 908 897 919 943 908 886 897 897 908 931 943 919 876 897 908 897 886 855 876 876 865 876 876 886 886 897 955 931 931 968 968 931 876 886 919 919 908 908 908 919 931 931 931 897 886 908 908 919 908 897 897 919 919 908 886 876 876 865 855 886 876 908 908 931 897 943 955 876 931 931 886 908 908 908 897 886 919 865 876 919 865 0 865 876 876 876 876 865 865 876 876 876 876 876 908 931 919 943 968 0 0 0 994 981 0 968 0 0 0 0 0 0 886 0 0 0 876 855 808 0 836 799 799 817 791 836 855 865 855 855 865 855 855 855 855 826 817 808 817 808 808 0 0 735 707 675 623 669 657 639 663 663 669 663 669 675 657 663 675 639 618 598 593 579 584 584 579 561 557 549 557 549 553 549 545 545 545 541 0 525 525 518 0 0 0 0 0
    0 0 0 0 0 0 0 0 0 0 0 0 0 0 0 0 0 0 0 0 0 0 0 0 0 0 0 0 0 0 0 0 0 0 0 0 0 0 0 0 0 0 0 0 0 0 0 0 0 0 0 0 0 0 0 0 0 0 0 0 0 0 0 0 0 0 0 0 0 968 968 994 981 981 981 968 943 943 943 908 955 968 943 931 943 955 931 943 955 943 919 943 919 908 931 943 897 897 919 931 919 897 931 919 919 943 919 908 908 908 968 897 908 919 919 968 931 955 943 955 968 931 919 919 931 943 931 919 943 943 955 955 955 897 908 919 943 908 897 908 908 919 943 955 919 886 908 919 908 886 865 886 876 876 886 876 886 886 908 955 931 943 968 955 908 876 886 919 908 908 908 908 919 931 943 931 897 897 908 919 919 908 897 897 908 908 897 886 876 865 855 845 886 876 897 897 931 897 955 955 876 931 931 886 908 908 908 897 886 919 865 876 919 865 865 865 886 876 876 886 865 865 876 876 876 865 876 908 919 0 0 0 0 0 0 0 994 994 981 943 0 0 0 0 0 0 897 0 0 876 865 817 0 845 836 826 826 799 836 855 865 855 855 865 855 845 855 855 826 817 808 817 808 808 0 0 721 714 694 634 675 669 639 663 669 669 669 669 675 657 657 675 634 618 598 598 584 584 584 579 561 561 553 561 553 553 549 549 545 545 541 0 525 525 518 0 0 0 0 0
    0 0 0 0 0 0 0 0 0 0 0 0 0 0 0 0 0 0 0 0 0 0 0 0 0 0 0 0 0 0 0 0 0 0 0 0 0 0 0 0 0 0 0 0 0 0 0 0 0 0 0 0 0 0 0 0 0 0 0 0 0 0 0 0 0 0 0 0 0 0 0 0 0 968 968 955 943 943 919 919 968 968 943 931 943 943 919 943 943 919 908 943 908 908 919 943 886 886 919 919 919 897 931 919 919 943 931 908 908 919 981 919 931 931 931 981 955 968 955 943 955 908 886 908 908 919 919 908 931 931 955 943 943 886 908 931 943 919 897 908 919 919 955 955 919 886 908 919 897 876 865 876 876 876 886 886 897 897 919 943 931 955 955 931 886 876 897 919 908 908 897 908 919 931 943 919 886 897 897 908 908 908 897 886 908 908 897 886 876 865 865 845 886 886 886 886 897 876 931 943 865 931 931 886 908 908 908 897 886 908 865 876 919 865 865 865 886 876 876 876 865 865 865 876 865 865 865 908 897 0 0 0 0 994 968 981 994 994 981 955 955 955 0 919 897 897 886 0 855 865 855 799 0 855 845 826 826 791 845 855 865 855 845 855 855 845 855 855 826 817 817 817 817 817 0 791 714 714 687 639 681 675 639 669 669 669 669 669 675 657 657 675 639 618 598 598 584 584 584 579 566 561 553 561 553 557 549 549 549 549 541 0 529 525 518 0 0 0 0 0
    0 0 0 0 0 0 0 0 0 0 0 0 0 0 0 0 0 0 0 0 0 0 0 0 0 0 0 0 0 0 0 0 0 0 0 0 0 0 0 0 0 0 0 0 0 0 0 0 0 0 0 0 0 0 0 0 0 0 0 0 0 0 0 0 0 0 0 0 0 0 0 0 0 0 0 955 955 943 919 931 968 968 931 931 943 943 919 943 943 919 908 943 908 908 931 931 876 886 919 919 919 897 919 919 919 943 931 908 908 919 981 919 931 943 943 981 968 981 968 955 0 897 0 897 897 908 908 897 931 931 955 931 931 886 919 931 931 919 897 908 919 931 955 943 908 886 919 931 897 886 876 897 886 897 908 908 908 908 943 955 943 955 943 908 876 876 908 919 908 908 897 919 931 943 943 908 886 897 897 908 897 886 886 876 908 897 886 886 865 865 865 0 876 865 865 855 836 845 897 931 855 919 919 876 908 908 908 897 886 908 865 876 919 865 0 865 876 865 865 865 855 865 865 865 865 855 865 908 886 0 0 0 0 0 955 968 981 981 981 955 968 955 943 931 908 908 897 876 855 865 865 817 855 865 855 836 836 817 855 865 876 855 855 865 855 845 855 845 826 826 826 826 817 817 0 766 714 707 675 634 681 675 639 663 669 663 663 669 669 651 651 669 629 618 603 598 588 588 588 584 566 566 553 566 553 557 553 549 549 545 541 0 529 525 518 0 0 0 0 0
    0 0 0 0 0 0 0 0 0 0 0 0 0 0 0 0 0 0 0 0 0 0 0 0 0 0 0 0 0 0 0 0 0 0 0 0 0 0 0 0 0 0 0 0 0 0 0 0 0 0 0 0 0 0 0 0 0 0 0 0 0 0 0 0 0 0 0 0 0 0 0 0 0 0 0 955 955 955 908 943 968 955 931 931 943 943 931 955 955 919 919 943 919 919 931 943 876 886 919 919 919 897 919 919 919 943 931 908 908 919 981 931 943 943 943 994 968 981 968 955 0 919 0 0 0 931 943 931 955 943 968 931 919 886 919 931 931 919 897 919 919 931 955 943 908 897 931 943 919 886 886 908 897 908 919 908 919 908 943 968 943 955 931 897 865 876 908 919 908 897 897 919 931 943 943 897 886 886 897 908 897 886 897 886 908 908 908 908 876 855 876 845 876 855 845 836 791 817 865 908 845 908 919 876 908 908 908 897 886 908 876 876 919 855 0 865 876 855 855 865 855 865 865 865 865 865 876 919 876 0 0 0 0 0 943 0 0 0 981 968 981 955 955 943 919 919 908 886 865 865 865 826 865 876 855 845 845 845 865 876 876 865 865 876 855 845 845 836 826 826 817 826 817 826 0 758 721 714 651 629 675 675 634 663 663 663 663 663 669 645 645 0 623 613 608 603 598 593 593 588 574 570 553 566 553 557 549 549 549 545 541 0 529 525 514 0 0 0 0 0
    0 0 0 0 0 0 0 0 0 0 0 0 0 0 0 0 0 0 0 0 0 0 0 0 0 0 0 0 0 0 0 0 0 0 0 0 0 0 0 0 0 0 0 0 0 0 0 0 0 0 0 0 0 0 0 0 0 0 0 0 0 0 0 0 0 0 0 0 0 0 0 0 0 981 968 955 955 943 908 955 968 943 931 931 943 943 931 955 943 919 931 943 931 931 943 943 876 886 919 919 919 897 919 919 919 943 943 919 919 919 981 931 943 955 955 994 968 981 968 955 0 943 0 0 0 955 968 955 968 955 968 931 919 897 931 931 931 919 908 919 931 931 955 931 908 897 931 943 919 886 897 919 897 908 919 919 919 919 955 968 943 968 931 897 865 876 919 919 897 897 897 919 919 931 943 897 897 897 897 897 886 886 886 876 897 897 908 897 876 855 865 0 865 855 845 836 791 817 865 897 845 919 919 876 908 919 919 897 897 919 876 886 919 855 865 865 876 865 855 865 865 865 876 876 876 865 886 919 886 0 0 0 0 0 0 0 0 0 981 968 981 955 943 919 897 908 897 876 855 855 855 826 0 876 845 845 855 855 876 886 886 876 876 876 845 845 836 826 817 808 808 817 808 0 0 743 728 714 0 629 675 675 634 663 663 663 663 663 663 645 645 0 623 618 608 603 598 593 598 593 574 570 553 566 553 557 553 549 549 545 545 0 529 525 514 0 0 0 0 0
    0 0 0 0 0 0 0 0 0 0 0 0 0 0 0 0 0 0 0 0 0 0 0 0 0 0 0 0 0 0 0 0 0 0 0 0 0 0 0 0 0 0 0 0 0 0 0 0 0 0 0 0 0 0 0 0 0 0 0 0 0 0 0 0 0 0 0 0 0 0 994 994 1008 981 968 955 943 931 897 955 968 931 919 931 931 931 931 955 931 908 931 943 931 943 943 943 876 886 919 919 919 897 919 919 919 943 943 919 919 931 981 943 955 955 968 994 981 981 981 0 0 994 0 0 1036 1008 1008 994 994 981 994 943 919 897 943 931 931 919 908 908 931 931 955 908 886 886 931 943 919 886 908 919 908 919 931 919 919 919 955 955 943 968 919 886 865 886 919 908 897 886 897 919 919 931 931 886 886 897 908 897 886 897 886 876 897 886 886 886 865 836 845 0 845 845 845 836 808 826 855 908 845 919 919 876 919 919 919 897 897 919 886 886 931 865 865 876 886 865 855 865 865 876 876 876 865 865 886 919 876 0 0 0 0 0 0 0 0 0 968 968 0 943 919 886 865 876 876 865 855 855 0 0 0 908 865 865 865 855 876 876 876 865 865 865 845 836 826 817 808 808 799 808 808 0 0 721 728 714 663 629 675 669 634 663 663 663 663 663 663 645 645 0 623 618 613 603 603 593 598 593 574 574 553 566 553 557 553 549 549 549 545 0 533 525 514 0 0 0 0 0
    0 0 0 0 0 0 0 0 0 0 0 0 0 0 0 0 0 0 0 0 0 0 0 0 0 0 0 0 0 0 0 0 0 0 0 0 0 0 0 0 0 0 0 0 0 0 0 0 0 0 0 0 0 0 0 0 0 0 0 0 0 0 0 0 0 0 0 0 0 0 1008 1008 1022 994 994 968 955 919 897 955 955 919 919 931 931 931 943 955 931 919 943 955 931 943 943 931 876 886 919 919 919 897 919 919 919 943 943 919 919 931 981 955 955 955 968 994 981 981 968 968 994 968 0 994 1022 1008 1022 994 1008 994 1008 943 919 908 943 931 931 919 908 908 919 919 943 876 865 865 908 943 908 886 908 919 908 919 931 919 919 931 955 955 943 968 897 876 865 886 919 908 897 886 886 908 919 931 919 876 886 897 908 886 886 897 886 876 897 897 886 886 876 855 855 855 865 855 855 845 817 826 845 897 845 908 919 876 919 919 919 897 897 931 897 897 931 865 865 876 897 865 865 865 865 876 876 865 855 865 886 897 876 876 0 908 919 0 955 0 0 0 968 968 0 931 897 876 845 0 855 845 855 836 0 0 0 919 865 876 876 855 876 865 865 865 865 865 836 836 826 817 808 808 799 808 808 0 0 700 714 714 657 629 675 669 634 663 663 657 657 657 663 645 645 0 629 623 613 608 608 598 598 598 579 579 553 570 553 557 553 549 549 545 545 0 533 521 514 0 0 0 0 0
    0 0 0 0 0 0 0 0 0 0 0 0 0 0 0 0 0 0 0 0 0 0 0 0 0 0 0 0 0 0 0 0 0 0 0 0 0 0 0 0 0 0 0 0 0 0 0 0 0 0 0 0 0 0 0 0 0 0 0 0 0 0 0 0 0 0 0 0 0 1051 1022 1036 1051 1022 1022 1008 981 931 919 968 955 919 919 931 931 931 943 955 931 931 955 943 943 955 943 919 876 886 919 919 919 886 919 919 919 943 943 919 919 931 981 955 955 968 968 994 981 981 968 981 994 968 0 994 994 994 1022 1008 1022 994 1008 943 931 931 943 931 931 919 908 908 931 908 908 855 855 855 897 931 897 886 919 919 908 931 931 931 919 931 968 943 955 968 897 876 865 886 919 908 886 886 897 919 919 931 919 886 886 908 908 886 886 886 886 886 897 897 886 908 886 865 876 876 876 865 865 845 817 836 855 908 845 908 908 876 919 919 919 897 897 931 897 897 931 865 865 876 897 865 855 865 865 865 876 865 855 855 876 886 855 865 0 865 0 908 919 955 943 0 931 943 955 919 876 865 0 0 0 0 0 0 0 0 0 931 865 855 855 855 865 855 855 855 855 855 836 836 836 826 817 817 808 817 817 0 0 700 721 714 651 623 669 669 634 663 657 657 657 657 663 645 639 0 629 623 613 608 603 593 593 593 574 574 553 566 553 557 553 549 549 545 545 0 533 521 514 0 0 0 0 0
    0 0 0 0 0 0 0 0 0 0 0 0 0 0 0 0 0 0 0 0 0 0 0 0 0 0 0 0 0 0 0 0 0 0 0 0 0 0 0 0 0 0 0 0 0 0 0 0 0 0 0 0 0 0 0 0 0 0 0 0 0 0 0 0 0 0 0 0 0 1115 1036 1036 1082 1051 1051 1022 1008 943 931 968 943 908 919 931 919 931 955 955 919 931 955 943 943 955 943 919 876 886 919 919 919 886 919 919 919 943 943 919 931 943 994 968 968 968 981 994 981 981 981 981 994 981 968 994 981 994 1008 1008 1022 994 1008 931 919 931 943 931 931 919 908 908 919 897 876 855 855 855 897 931 886 897 931 919 908 931 931 931 919 943 968 943 968 955 897 876 865 897 919 908 886 886 897 919 919 931 908 886 886 908 897 876 886 886 886 886 908 908 897 919 897 876 886 0 876 876 865 855 836 845 855 908 845 897 908 865 919 919 919 897 897 931 897 897 931 865 865 876 897 855 855 855 865 865 865 865 855 865 876 886 876 876 876 876 0 897 897 919 897 0 908 897 931 897 855 0 0 0 0 0 0 0 0 0 0 931 865 855 855 855 865 855 865 855 855 855 845 845 845 826 817 817 817 817 826 0 0 700 0 721 0 618 669 669 634 663 657 657 657 663 669 651 645 0 629 623 613 603 598 588 584 588 570 574 553 566 553 557 553 553 549 545 545 0 533 525 518 0 0 0 0 0
    0 0 0 0 0 0 0 0 0 0 0 0 0 0 0 0 0 0 0 0 0 0 0 0 0 0 0 0 0 0 0 0 0 0 0 0 0 0 0 0 0 0 0 0 0 0 0 0 0 0 0 0 0 0 0 0 0 0 0 0 0 0 0 0 0 0 0 0 0 0 1008 994 1022 1022 1022 1008 994 908 919 968 931 908 931 931 919 931 955 955 919 943 955 943 943 955 931 908 876 886 919 919 919 886 908 908 919 943 943 919 931 943 994 968 968 981 981 1008 981 981 981 981 1008 994 994 1008 994 1008 1036 1008 1036 1008 994 919 919 931 943 919 919 908 897 908 919 876 855 855 845 845 886 931 865 897 919 919 908 931 931 931 931 955 968 955 968 955 908 886 876 908 919 908 886 897 908 919 919 931 897 886 886 908 886 886 886 897 886 897 919 931 919 943 908 886 886 0 876 876 865 865 845 876 876 908 845 897 897 865 908 919 919 886 897 931 897 897 931 876 876 876 897 865 855 865 865 876 876 876 865 886 886 897 886 886 886 876 855 876 876 876 855 0 876 0 886 876 0 0 0 0 0 0 0 0 0 0 0 919 865 865 855 855 865 855 855 845 855 845 836 845 845 826 826 826 817 826 826 0 0 707 0 721 645 618 663 663 634 657 657 657 657 657 669 651 645 0 629 618 613 603 598 588 584 584 570 574 553 566 553 557 553 553 549 549 545 0 533 521 518 0 0 0 0 0
    0 0 0 0 0 0 0 0 0 0 0 0 0 0 0 0 0 0 0 0 0 0 0 0 0 0 0 0 0 0 0 0 0 0 0 0 0 0 0 0 0 0 0 0 0 0 0 0 0 0 0 0 0 0 0 0 0 0 0 0 0 0 0 0 0 0 0 0 0 0 968 968 981 994 994 994 981 931 955 981 931 919 931 931 931 943 955 955 919 955 955 943 955 955 943 908 886 897 919 919 919 876 908 908 919 931 943 919 931 943 994 968 968 968 981 1008 981 981 981 994 1008 1008 994 994 994 1008 1022 1008 1022 994 981 919 931 943 943 919 919 908 897 897 908 865 836 855 845 836 876 897 855 897 919 908 908 919 931 931 931 955 968 955 981 943 908 897 886 908 919 908 897 897 908 919 919 919 897 886 886 897 886 876 876 897 876 886 919 919 908 0 0 0 0 0 0 0 876 865 855 876 876 908 845 886 886 865 908 908 908 886 897 931 897 897 931 876 876 886 908 876 865 876 876 886 886 886 886 897 897 908 897 897 876 865 836 865 865 0 0 0 855 845 865 865 0 0 808 0 0 0 0 0 0 0 955 919 876 865 855 855 855 845 855 845 845 845 836 845 845 826 826 826 817 817 826 0 766 721 743 728 669 618 663 663 634 657 657 657 657 657 669 645 645 0 623 618 613 608 608 598 588 593 579 584 553 570 553 557 553 553 549 549 545 0 533 521 518 0 0 0 0 0
    0 0 0 0 0 0 0 0 0 0 0 0 0 0 0 0 0 0 0 0 0 0 0 0 0 0 0 0 0 0 0 0 0 0 0 0 0 0 0 0 0 0 0 0 0 0 0 0 0 0 0 0 0 0 0 0 0 0 0 0 0 0 0 0 0 0 0 0 0 0 955 955 968 981 981 981 955 931 968 981 931 931 943 943 943 955 968 955 931 968 968 955 955 968 943 919 897 897 919 919 919 876 908 919 919 931 943 919 919 931 994 955 968 968 981 1008 981 981 981 994 1008 994 0 968 955 981 994 981 994 981 955 919 943 943 943 919 919 908 908 908 908 865 836 855 855 836 876 876 855 897 908 908 897 908 931 919 931 968 955 955 981 943 919 897 897 919 919 908 897 897 908 908 908 897 876 876 876 886 876 865 876 886 876 886 908 908 897 0 0 0 0 0 876 865 876 876 876 886 886 908 855 876 876 855 897 897 897 876 886 931 908 897 931 886 886 886 919 886 876 886 886 908 897 886 886 908 897 897 897 897 876 865 845 876 876 0 0 0 0 826 0 865 0 0 0 0 0 0 0 0 0 0 0 931 897 876 855 845 845 845 855 845 845 836 836 836 836 826 826 817 817 817 0 0 743 714 743 728 687 618 669 669 634 663 657 657 657 657 669 645 645 0 629 623 618 618 618 608 598 603 584 588 553 570 557 557 553 553 549 549 545 0 533 521 518 0 0 0 0 0
    0 0 0 0 0 0 0 0 0 0 0 0 0 0 0 0 0 0 0 0 0 0 0 0 0 0 0 0 0 0 0 0 0 0 0 0 0 0 0 0 0 0 0 0 0 0 0 0 0 0 0 0 0 0 0 0 0 0 0 0 0 0 0 0 0 0 0 0 0 0 968 955 968 981 994 981 968 943 981 981 919 931 943 943 943 955 968 943 931 968 955 955 955 955 943 919 897 897 919 919 919 876 908 908 919 931 931 908 919 931 994 955 955 968 981 1022 1008 981 981 994 0 0 0 931 919 955 968 968 968 955 943 919 943 955 943 919 931 919 908 908 908 855 836 865 855 836 876 865 865 908 908 897 897 908 919 919 943 968 943 955 968 931 919 897 908 919 919 908 897 897 908 897 897 886 865 865 865 876 865 865 865 876 865 876 886 886 865 897 0 0 0 0 876 886 886 897 886 886 897 919 855 865 865 855 886 886 886 876 886 919 908 897 931 886 897 886 919 886 876 886 897 908 897 886 886 908 886 886 897 886 876 876 845 886 886 0 0 0 0 826 0 865 0 0 0 0 0 0 0 0 0 0 0 931 919 886 865 855 845 855 865 845 845 836 836 836 836 826 826 826 817 817 0 0 0 687 0 728 687 618 669 669 634 663 663 657 657 657 669 645 645 0 629 623 618 618 618 608 598 603 584 584 553 566 557 557 557 553 549 549 545 549 537 525 521 0 0 0 0 0
    0 0 0 0 0 0 0 0 0 0 0 0 0 0 0 0 0 0 0 0 0 0 0 0 0 0 0 0 0 0 0 0 0 0 0 0 0 0 0 0 0 0 0 0 0 0 0 0 0 0 0 0 0 0 0 0 0 0 0 0 0 0 0 0 0 0 0 0 0 0 968 968 968 981 994 994 981 968 994 981 931 943 955 943 943 955 968 931 931 968 955 955 955 955 931 919 897 897 919 919 919 876 908 908 919 931 931 908 908 919 981 955 955 968 981 1022 1022 994 0 1008 994 968 943 908 908 943 955 955 955 955 931 919 955 955 943 931 931 919 919 919 919 855 826 865 865 845 876 855 865 908 908 908 897 908 919 919 943 968 943 968 968 919 931 908 919 931 931 908 897 897 919 897 897 876 855 855 865 876 865 865 865 876 865 886 886 886 855 876 0 0 0 0 876 886 886 897 897 897 897 931 855 855 855 845 876 876 876 865 876 908 897 897 931 886 897 886 931 886 876 886 897 908 886 886 886 908 876 876 886 886 865 865 845 865 845 0 0 817 826 817 826 0 0 0 0 0 0 0 0 0 0 0 0 897 908 886 876 865 845 855 865 845 845 826 836 845 836 836 836 826 826 826 0 0 0 603 0 0 0 613 663 669 634 663 663 657 657 657 669 645 645 0 629 629 623 623 623 618 603 608 588 588 553 566 557 557 557 553 549 549 545 549 537 525 521 0 0 0 0 0
    0 0 0 0 0 0 0 0 0 0 0 0 0 0 0 0 0 0 0 0 0 0 0 0 0 0 0 0 0 0 0 0 0 0 0 0 0 0 0 0 0 0 0 0 0 0 0 0 0 0 0 0 0 0 0 0 0 0 0 0 0 0 0 0 0 0 0 0 0 0 968 968 968 981 1008 994 994 981 1008 981 943 955 955 943 955 968 955 931 943 968 955 955 955 955 931 931 908 897 919 931 919 876 919 919 919 931 931 908 908 919 981 943 955 968 981 1036 1036 1008 0 994 943 931 919 897 897 931 943 955 943 943 931 931 955 955 943 931 931 919 919 919 919 855 836 865 865 855 876 855 876 908 897 908 897 908 931 919 955 968 943 968 955 919 931 919 931 943 943 919 908 919 931 908 897 865 855 855 855 865 855 855 865 865 865 886 897 886 865 876 0 0 0 0 897 886 897 908 908 886 886 919 855 845 845 836 865 865 865 855 865 886 897 886 919 886 897 886 931 876 876 876 886 897 886 886 897 897 865 876 897 908 897 908 876 876 876 855 0 826 826 808 817 0 0 0 0 0 0 0 0 0 0 0 0 865 886 865 865 855 845 855 865 845 845 826 836 836 836 826 826 826 826 826 0 0 0 598 0 0 0 603 663 669 634 663 663 657 657 657 669 651 645 0 629 629 623 629 623 618 603 608 593 588 553 566 553 557 553 553 549 545 545 545 537 525 521 0 0 0 0 0
    0 0 0 0 0 0 0 0 0 0 0 0 0 0 0 0 0 0 0 0 0 0 0 0 0 0 0 0 0 0 0 0 0 0 0 0 0 0 0 0 0 0 0 0 0 0 0 0 0 0 0 0 0 0 0 0 0 0 0 0 0 0 0 0 0 0 0 0 0 968 943 943 955 968 994 968 981 981 994 968 943 955 955 955 955 968 955 931 943 968 955 955 955 955 931 931 908 897 931 931 919 876 919 919 919 931 931 908 908 908 981 931 943 955 981 1051 1051 1022 981 981 931 943 919 897 897 931 943 955 955 943 919 931 955 955 943 931 931 919 919 919 908 855 836 876 865 865 886 845 876 897 897 908 897 908 919 919 955 968 955 968 955 919 931 931 943 943 943 919 919 931 943 931 897 865 855 855 855 865 845 845 855 865 865 886 897 886 865 876 0 0 0 0 0 0 886 897 886 865 876 897 855 836 826 836 845 845 845 845 865 876 886 886 919 897 897 886 931 876 876 876 886 897 876 886 897 897 865 876 897 897 886 897 876 876 865 845 855 826 826 817 817 0 0 0 0 0 0 0 0 0 0 782 0 836 845 836 826 836 826 836 845 836 826 808 826 826 826 817 817 817 817 826 0 0 0 593 0 0 0 613 669 669 639 669 663 663 657 657 675 651 645 0 629 629 618 623 618 613 603 603 593 588 553 561 553 557 553 553 549 545 545 545 537 525 521 0 0 0 0 0
    0 0 0 0 0 0 0 0 0 0 0 0 0 0 0 0 0 0 0 0 0 0 0 0 0 0 0 0 0 0 0 0 0 0 0 0 0 0 0 0 0 0 0 0 0 0 0 0 0 0 0 0 0 0 0 0 0 0 0 0 0 0 0 0 0 0 0 0 0 955 943 943 943 968 968 955 968 981 994 968 943 955 955 955 968 968 955 943 955 968 955 955 955 943 931 931 908 897 919 919 919 876 908 908 908 919 931 897 897 897 968 886 886 908 955 1008 1022 1008 994 968 943 955 943 897 897 931 943 955 943 943 908 919 955 955 943 919 919 919 919 919 908 855 836 876 876 876 886 855 876 897 897 908 897 908 919 919 955 955 943 955 931 908 931 931 943 943 943 931 931 943 955 931 897 865 855 865 865 865 845 855 865 876 876 897 908 897 876 897 908 908 897 0 931 886 865 897 876 865 865 886 845 808 817 817 836 836 836 836 855 865 876 876 908 897 897 886 943 886 876 886 886 897 876 886 897 886 865 876 886 897 876 886 865 865 865 845 845 826 826 808 808 817 0 0 0 0 0 0 0 0 826 782 0 808 817 817 817 826 826 826 845 826 826 808 826 826 817 817 817 817 826 0 0 0 0 584 0 0 0 0 669 669 639 669 663 663 657 657 675 651 645 0 629 623 613 618 618 613 603 603 593 588 557 566 557 557 553 553 549 545 545 545 537 525 525 0 0 0 0 0
    0 0 0 0 0 0 0 0 0 0 0 0 0 0 0 0 0 0 0 0 0 0 0 0 0 0 0 0 0 0 0 0 0 0 0 0 0 0 0 0 0 0 0 0 0 0 0 0 0 0 0 0 0 0 0 0 0 0 0 0 0 0 0 0 0 0 0 0 0 0 981 968 981 981 981 968 968 994 994 955 943 955 955 955 968 981 955 943 968 968 955 968 955 943 931 943 908 897 908 908 897 865 908 908 908 919 919 897 897 897 968 886 876 897 943 981 981 968 931 943 919 943 931 865 876 897 908 931 908 919 897 919 955 955 943 919 919 919 919 908 886 855 845 865 865 876 865 855 886 886 886 908 897 897 908 919 955 931 943 943 897 897 931 943 955 943 943 931 943 955 955 943 886 865 855 865 865 865 845 855 865 886 897 919 919 908 886 897 919 897 886 865 876 865 845 886 865 865 865 886 845 791 817 817 817 826 826 826 845 855 876 876 908 908 897 886 943 886 876 886 886 897 876 886 897 886 855 865 876 876 865 876 865 865 865 855 855 845 836 817 817 817 0 0 0 0 0 0 0 0 836 817 845 817 826 826 826 826 826 826 836 826 817 817 826 817 817 817 826 826 826 0 0 0 0 574 561 0 0 0 663 669 639 669 669 663 657 657 669 645 645 0 623 618 613 618 613 608 603 603 593 593 561 566 557 553 553 553 549 545 545 545 537 525 525 0 0 0 0 0
    0 0 0 0 0 0 0 0 0 0 0 0 0 0 0 0 0 0 0 0 0 0 0 0 0 0 0 0 0 0 0 0 0 0 0 0 0 0 0 0 0 0 0 0 0 0 0 0 0 0 0 0 0 0 0 0 0 0 0 0 0 0 0 0 0 0 0 0 0 0 0 994 994 1008 1008 968 981 994 981 955 943 955 955 955 981 968 955 943 968 968 968 968 955 943 943 955 908 897 897 897 897 865 897 897 897 908 908 897 897 897 955 876 876 886 931 943 955 943 886 943 931 931 908 865 886 908 908 931 897 908 908 931 955 955 943 931 919 919 919 908 876 855 845 865 865 876 865 855 897 886 897 908 897 897 908 931 955 931 943 931 886 897 919 943 955 943 943 931 943 968 955 943 886 865 855 865 865 865 845 855 865 876 886 908 897 897 876 876 886 876 876 865 865 865 855 876 865 865 865 886 855 774 808 808 808 817 817 817 836 845 876 876 897 908 886 886 943 876 876 886 886 886 865 876 876 855 826 845 855 865 855 876 876 865 865 865 865 845 836 817 817 817 0 0 0 0 0 0 0 0 0 799 826 808 826 826 826 826 826 826 836 826 817 817 826 817 808 808 817 817 817 0 0 0 0 566 0 0 0 0 663 669 639 669 669 663 657 657 669 645 645 0 629 623 613 613 608 603 598 598 593 588 561 561 557 553 553 553 549 545 545 0 541 525 525 0 0 0 0 0
    0 0 0 0 0 0 0 0 0 0 0 0 0 0 0 0 0 0 0 0 0 0 0 0 0 0 0 0 0 0 0 0 0 0 0 0 0 0 0 0 0 0 0 0 0 0 0 0 0 0 0 0 0 0 0 0 0 0 0 0 0 0 0 0 0 0 0 0 0 1036 1051 1051 1082 1066 1022 981 981 994 968 943 943 943 943 955 968 968 943 955 968 968 968 968 955 943 943 955 908 886 897 886 886 865 897 897 897 908 908 897 897 897 955 876 876 886 919 931 955 931 886 931 931 931 908 886 897 919 919 931 897 908 919 943 955 955 943 919 919 919 919 897 865 855 836 855 876 897 865 876 908 897 897 919 908 908 908 943 968 931 955 919 886 897 919 943 955 943 943 931 955 955 968 943 876 855 855 865 865 855 845 865 876 886 908 919 908 908 897 897 897 886 886 876 876 876 865 876 865 865 865 897 855 758 799 799 791 817 808 808 836 836 865 876 897 908 886 886 943 876 876 876 876 876 855 876 865 836 817 836 845 855 855 876 865 855 855 855 865 836 826 817 808 817 0 0 0 808 0 0 0 0 0 791 808 808 817 817 826 826 826 836 836 826 817 817 817 808 808 808 817 817 817 0 0 0 0 553 0 0 574 0 663 669 639 669 669 663 663 657 675 651 645 663 629 623 613 608 603 598 593 593 588 584 561 557 553 549 553 549 549 545 545 0 0 525 529 0 0 0 0 0
    0 0 0 0 0 0 0 0 0 0 0 0 0 0 0 0 0 0 0 0 0 0 0 0 0 0 0 0 0 0 0 0 0 0 0 0 0 0 0 0 0 0 0 0 0 0 0 0 0 0 0 0 0 0 0 0 0 0 0 0 0 0 0 0 0 0 0 0 0 994 0 1036 1082 1066 1022 981 981 994 968 943 943 943 943 955 968 955 943 955 968 968 968 968 955 931 943 955 897 886 886 886 886 865 886 886 886 908 897 897 897 897 968 886 886 897 931 931 955 943 897 931 943 931 919 908 919 931 931 943 908 908 919 931 943 943 931 919 908 0 908 886 855 845 826 855 876 908 865 876 908 897 908 919 908 908 908 943 955 943 955 908 886 897 919 943 955 0 931 931 955 968 968 955 886 876 865 876 865 865 845 886 897 897 919 931 919 908 908 908 908 897 897 886 886 886 876 876 865 876 865 897 855 750 799 808 791 817 817 808 836 836 876 876 886 919 886 886 943 876 876 876 865 865 855 876 855 826 808 836 845 855 855 886 876 855 855 855 855 836 836 817 808 817 0 0 0 808 817 0 0 0 817 791 808 808 817 817 826 826 826 836 836 826 817 817 817 808 808 808 817 817 826 0 0 0 0 0 0 0 561 0 663 669 639 669 669 669 663 663 675 651 645 663 623 618 608 598 593 588 584 584 584 584 557 557 553 549 553 549 549 545 545 0 541 525 529 0 0 0 0 0
    0 0 0 0 0 0 0 0 0 0 0 0 0 0 0 0 0 0 0 0 0 0 0 0 0 0 0 0 0 0 0 0 0 0 0 0 0 0 0 0 0 0 0 0 0 0 0 0 0 0 0 0 0 0 0 0 0 0 0 0 0 0 0 0 0 0 0 0 0 994 1022 1036 1051 1051 1008 968 981 981 955 943 955 955 955 968 981 955 943 955 968 968 968 968 943 931 943 955 886 886 876 876 876 865 886 886 886 897 897 897 897 897 968 897 897 908 931 931 955 955 908 931 931 919 919 919 919 931 931 943 908 897 919 931 931 931 919 908 908 908 908 876 855 855 836 865 886 897 865 886 897 897 897 908 908 908 908 943 943 943 943 897 897 897 931 943 955 0 931 943 955 968 981 955 897 886 886 886 876 886 845 886 886 908 919 919 919 908 908 908 908 908 897 886 886 886 886 886 876 876 876 886 855 766 808 817 791 826 817 817 845 845 876 876 886 919 886 886 943 876 876 876 865 855 855 886 855 836 826 845 845 865 876 897 886 865 865 865 855 836 826 808 808 808 0 808 817 799 808 791 0 0 808 791 799 799 808 817 826 826 826 836 836 826 817 826 817 808 808 808 817 817 826 955 994 1066 0 0 0 0 0 618 663 669 645 669 675 669 669 669 681 651 651 0 623 613 603 593 588 584 584 584 584 584 561 557 553 549 553 549 549 545 545 0 541 529 529 0 0 0 0 0
    0 0 0 0 0 0 0 0 0 0 0 0 0 0 0 0 0 0 0 0 0 0 0 0 0 0 0 0 0 0 0 0 0 0 0 0 0 0 0 0 0 0 0 0 0 0 0 0 0 0 0 0 0 0 0 0 0 0 0 0 0 0 0 0 0 0 0 0 0 1036 1051 1051 1066 1051 981 955 968 968 943 943 955 955 955 981 981 955 955 968 981 968 968 968 943 931 955 968 886 886 865 876 876 855 886 886 886 897 886 897 897 897 968 897 897 897 943 931 943 955 908 931 931 919 919 919 919 931 931 943 908 908 919 931 931 931 919 908 908 897 897 865 845 855 845 865 886 897 865 897 897 897 897 908 897 897 908 943 931 931 919 886 886 886 919 931 943 0 931 931 955 968 981 955 908 897 908 897 886 897 855 886 886 908 919 919 919 908 908 908 908 919 908 897 886 886 886 886 876 886 876 886 855 791 817 826 808 836 826 826 855 855 886 876 897 931 886 886 943 876 876 876 855 855 845 886 0 845 845 855 865 876 886 897 886 876 876 865 855 836 826 808 808 808 826 817 826 817 826 0 0 0 0 799 799 799 808 817 826 826 826 836 836 826 826 826 817 808 808 808 826 817 826 994 1022 1098 1115 1066 0 0 0 0 669 669 645 669 675 675 669 669 681 651 651 0 623 608 603 593 588 584 579 584 579 579 561 553 557 549 553 549 549 545 545 541 541 529 533 0 0 0 0 0
    0 0 0 0 0 0 0 0 0 0 0 0 0 0 0 0 0 0 0 0 0 0 0 0 0 0 0 0 0 0 0 0 0 0 0 0 0 0 0 0 0 0 0 0 0 0 0 0 0 0 0 0 0 0 0 0 0 0 0 0 0 0 0 0 0 0 0 0 0 1008 0 1008 1036 1022 968 955 968 955 931 931 943 943 955 981 981 955 955 968 981 968 981 968 943 943 955 968 886 886 865 865 865 855 876 876 876 886 886 897 897 897 955 886 897 886 931 919 931 919 897 908 919 908 919 908 919 931 931 931 908 897 919 931 919 919 919 897 897 897 897 865 845 855 845 865 886 876 865 897 897 897 897 908 897 897 908 943 919 931 908 876 886 886 908 931 931 908 919 931 955 968 968 943 908 908 931 919 908 919 865 908 897 919 931 931 931 908 919 919 919 931 919 908 886 886 886 876 876 876 876 876 855 799 826 836 817 845 845 836 865 865 897 886 897 931 886 897 943 876 876 876 855 855 845 876 826 836 836 855 855 865 876 886 886 876 876 865 845 826 836 817 817 817 0 836 855 0 855 0 876 0 0 799 799 791 799 808 817 817 826 826 836 826 826 826 826 817 817 826 836 826 865 994 1022 1098 1132 1066 0 0 0 618 669 669 645 669 675 669 669 663 675 651 645 0 0 608 603 598 593 584 584 584 584 584 561 553 557 549 553 549 549 545 545 541 541 533 533 0 0 0 0 0
    0 0 0 0 0 0 0 0 0 0 0 0 0 0 0 0 0 0 0 0 0 0 0 0 0 0 0 0 0 0 0 0 0 0 0 0 0 0 0 0 0 0 0 0 0 0 0 0 0 0 0 0 0 0 0 0 0 0 0 0 0 0 0 0 0 0 0 0 0 0 0 1022 1036 1036 981 943 955 943 919 943 943 943 943 968 981 955 955 968 968 968 981 968 943 943 968 968 886 886 865 865 865 855 876 876 876 886 886 897 897 886 955 886 886 876 908 897 897 886 876 886 897 886 908 897 908 919 919 919 897 897 919 919 919 919 908 897 908 897 897 855 845 845 845 865 886 865 876 897 897 908 908 908 908 897 919 943 908 931 886 865 876 876 897 919 919 897 897 919 943 955 943 919 886 886 919 908 897 908 865 908 897 931 943 931 931 908 919 919 919 931 919 897 886 886 886 876 876 886 876 876 855 808 836 836 826 855 845 836 865 865 897 886 897 931 886 897 943 876 886 886 855 855 845 876 817 817 817 855 855 855 865 876 886 865 876 865 845 826 855 826 836 0 0 0 0 0 897 0 0 0 0 808 799 799 817 817 836 826 836 855 855 845 845 845 826 826 826 836 836 845 908 981 994 1051 0 0 0 0 0 618 663 669 645 669 669 669 663 663 675 645 645 657 0 613 608 598 593 588 588 584 588 579 561 553 557 549 549 549 545 545 541 541 541 529 533 0 0 0 0 0
    0 0 0 0 0 0 0 0 0 0 0 0 0 0 0 0 0 0 0 0 0 0 0 0 0 0 0 0 0 0 0 0 0 0 0 0 0 0 0 0 0 0 0 0 0 0 0 0 0 0 0 0 0 0 0 0 0 0 0 0 0 0 0 0 0 0 0 0 0 1008 1022 1008 1022 1022 981 943 955 943 919 943 943 931 943 955 968 943 955 968 968 968 981 968 943 955 981 981 886 886 865 876 876 855 876 876 876 886 886 897 886 886 955 886 886 876 897 897 897 876 876 876 897 886 908 897 908 931 919 919 908 897 919 919 919 908 908 908 919 908 897 855 836 845 845 865 886 855 876 897 897 919 908 919 908 908 931 943 908 931 876 865 876 865 897 908 908 0 886 908 931 931 919 886 865 865 897 886 886 897 865 908 886 919 943 931 931 897 919 908 908 919 908 886 886 886 886 876 865 876 876 876 855 817 836 845 826 855 845 845 865 876 897 886 897 931 886 897 943 876 886 886 855 855 855 876 826 836 0 855 855 855 865 876 886 865 865 855 826 817 855 0 0 0 0 0 0 0 0 0 0 845 0 799 799 808 836 836 845 845 855 897 876 855 855 845 826 826 836 836 845 855 955 994 1008 0 0 0 0 0 593 613 663 669 645 663 669 669 663 663 675 651 651 663 634 618 613 603 598 588 588 584 584 574 561 549 553 549 549 545 545 541 541 537 541 533 533 0 0 0 0 0
    0 0 0 0 0 0 0 0 0 0 0 0 0 0 0 0 0 0 0 0 0 0 0 0 0 0 0 0 0 0 0 0 0 0 0 0 0 0 0 0 0 0 0 0 0 0 0 0 0 0 0 0 0 0 0 0 0 0 0 0 0 0 0 0 0 0 0 0 0 981 968 981 994 1008 968 919 955 943 919 943 943 919 943 955 968 931 955 968 968 981 981 968 955 968 981 968 897 876 876 876 876 865 886 886 886 897 886 886 886 886 943 876 886 876 897 897 908 886 876 886 908 897 919 919 931 943 931 931 919 908 919 919 919 908 908 908 919 897 897 855 836 845 845 876 897 855 876 897 897 919 908 919 919 908 943 955 931 943 886 876 886 876 908 908 908 876 886 897 908 908 897 865 855 865 886 876 876 886 865 908 886 919 931 908 919 897 919 908 908 931 919 897 886 886 886 865 865 876 865 865 855 826 836 845 836 855 855 845 876 876 897 886 897 919 886 886 943 876 886 876 855 855 855 876 826 836 836 865 865 865 865 855 865 855 845 826 808 799 845 0 0 0 0 886 886 0 876 0 865 836 0 782 782 791 826 836 845 845 865 897 876 855 865 845 826 836 836 836 845 876 994 1008 1022 1051 0 0 0 588 0 618 663 669 651 663 669 669 669 663 681 657 651 663 0 618 618 608 598 593 588 588 588 579 561 553 557 549 549 545 541 541 541 537 537 529 529 0 0 0 0 0
    0 0 0 0 0 0 0 0 0 0 0 0 0 0 0 0 0 0 0 0 0 0 0 0 0 0 0 0 0 0 0 0 0 0 0 0 0 0 0 0 0 0 0 0 0 0 0 0 0 0 0 0 0 0 0 0 0 0 0 0 0 0 0 0 0 0 0 0 0 968 955 955 981 981 955 897 943 931 908 931 943 919 931 955 955 931 955 968 968 968 981 968 943 968 981 968 886 876 876 886 886 865 886 886 886 897 897 886 886 876 943 876 886 876 897 908 908 897 886 886 897 897 931 919 931 943 931 931 919 908 919 919 908 897 897 897 908 897 897 855 845 855 855 876 908 855 886 897 897 931 908 919 908 908 943 943 919 931 876 876 886 876 908 897 897 876 876 897 886 886 886 865 855 865 886 886 886 908 876 908 897 919 931 908 931 897 919 919 931 955 931 908 897 897 897 865 855 865 855 855 845 817 845 845 836 865 855 845 876 876 897 897 897 919 886 886 931 876 886 876 855 865 876 897 836 855 855 876 876 876 876 855 855 855 0 826 799 799 855 826 943 886 955 908 897 919 897 855 865 836 0 782 774 791 826 826 836 836 855 886 865 855 865 836 826 836 845 845 855 908 1008 1022 1051 1036 0 0 0 584 598 618 663 669 651 663 669 669 669 669 681 657 651 663 0 0 618 608 603 598 593 593 588 579 566 553 557 549 549 545 541 541 537 537 537 529 529 0 0 0 0 0</data></depth>
</opencv_storage>
