<?xml version="1.0"?>
<opencv_storage>
<gps_time_stamp>322973</gps_time_stamp>
<gps_x>-1.2426646232604980e+001</gps_x>
<gps_y>1.0715308189392090e+001</gps_y>
<gps_z>-1.9947932958602905e+000</gps_z>
<image_time_stamp>313862</image_time_stamp>
<depth type_id="opencv-matrix">
  <rows>86</rows>
  <cols>320</cols>
  <dt>s</dt>
  <data>
    0 0 0 0 0 0 0 0 0 0 0 0 0 0 0 0 0 0 0 0 0 0 0 0 0 0 0 0 0 0 0 0 0 0 0 0 0 0 0 0 0 0 0 0 0 0 0 0 0 0 0 0 0 0 0 0 0 0 0 0 0 0 0 0 0 0 0 0 0 955 968 981 994 1008 1022 1066 1051 1098 1066 0 0 0 0 0 0 0 0 0 0 0 0 0 0 0 0 0 0 0 0 0 0 0 0 0 0 0 0 0 0 0 0 0 0 0 0 0 0 0 0 0 0 0 0 0 0 0 0 0 782 799 0 0 0 0 0 0 0 0 6690 0 0 0 0 0 0 0 0 0 0 6690 6133 6133 6133 5256 5256 5256 4906 4906 5661 5661 4599 4906 6133 5661 4906 6690 0 0 5256 0 0 0 0 919 3066 3679 4088 4088 4088 3504 3504 3679 3873 3873 3504 3504 3504 3345 2830 0 0 1132 1168 1206 1187 1149 1132 1132 1115 1187 1082 1066 1066 1051 1036 1022 1008 955 855 886 876 855 0 0 817 817 782 808 791 774 774 791 782 766 758 799 721 714 700 694 687 675 669 657 651 645 639 629 623 618 608 603 593 593 584 584 579 561 557 0 0 735 0 0 0 0 500 0 497 490 497 497 500 504 497 493 497 490 500 493 490 468 462 448 440 432 432 432 430 432 435 422 411 408 397 393 379 377 379 377 373 375 373 371 369 375 375 375 375 375 375 373 373 379 373 371 366 364 362 362 362 360 360 355 350 0 0 0 0 0
    0 0 0 0 0 0 0 0 0 0 0 0 0 0 0 0 0 0 0 0 0 0 0 0 0 0 0 0 0 0 0 0 0 0 0 0 0 0 0 0 0 0 0 0 0 0 0 0 0 0 0 0 0 0 0 0 0 0 0 0 0 0 0 0 0 0 0 0 0 968 968 981 994 1008 1022 1036 1051 1066 1051 1008 0 0 0 0 0 0 0 0 0 0 0 0 0 0 0 0 0 0 0 0 0 0 0 0 0 0 0 0 0 0 0 0 0 0 0 0 0 0 0 0 943 0 0 0 0 511 0 0 0 0 0 0 0 0 0 0 6690 6690 6690 0 0 0 0 0 0 0 0 0 0 5661 6133 6133 6133 5256 5256 5256 4599 4906 5661 5661 4329 4599 6133 5256 4906 7359 8177 8177 6133 6133 4599 2943 0 0 3504 4088 4329 4329 3873 3679 3504 3873 3873 3873 3504 3504 3504 3345 2725 0 0 0 1168 1206 1187 1168 1149 1132 1132 1187 1098 1066 1066 1066 1036 1008 1008 968 855 897 897 865 0 0 826 826 791 817 791 782 774 791 791 774 758 799 721 707 700 694 687 675 663 657 651 645 639 634 623 618 608 608 598 593 588 588 584 561 557 0 743 743 750 0 0 0 500 0 500 490 497 497 500 504 497 493 493 493 504 497 493 468 462 448 440 435 435 432 432 435 435 425 411 408 397 391 379 377 379 377 373 375 375 371 369 373 375 375 377 375 375 373 373 377 375 373 366 364 364 362 362 362 359 355 350 0 0 0 0 0
    0 0 0 0 0 0 0 0 0 0 0 0 0 0 0 0 0 0 0 0 0 0 0 0 0 0 0 0 0 0 0 0 0 0 0 0 0 0 0 0 0 0 0 0 0 0 0 0 0 0 0 0 0 0 0 0 0 0 0 0 0 0 0 0 0 0 0 0 0 981 968 981 994 994 1008 1022 1022 1051 0 1008 0 0 0 0 0 0 0 0 0 0 0 0 0 0 0 0 0 0 0 0 0 0 0 0 0 0 0 0 0 0 0 0 0 0 0 0 0 0 0 0 943 0 0 0 0 0 0 0 0 0 0 0 0 5661 6133 0 5661 6690 6690 9199 0 0 0 0 0 0 0 0 0 6133 6690 6690 6133 5661 5661 5661 5256 5256 6133 5661 4906 5256 6133 6133 6133 7359 7359 7359 7359 8177 0 0 0 4088 3873 4329 4329 4329 3679 3679 3679 4329 4088 4088 3679 3679 3504 3345 2725 0 0 0 1132 1187 1168 1168 1132 1132 1149 1187 1098 1082 1082 1082 1036 1008 1008 968 865 908 908 876 0 0 836 836 808 817 799 782 782 791 791 774 766 799 728 707 700 694 694 681 669 663 651 645 639 629 623 613 613 608 598 593 588 588 584 561 0 0 750 743 750 0 0 0 504 0 500 490 497 497 500 504 497 493 493 490 500 497 497 471 465 448 443 435 435 435 435 435 435 425 413 411 397 393 379 379 381 377 373 375 375 371 369 373 375 375 377 377 375 375 375 379 377 373 0 364 364 362 362 360 357 352 348 0 0 0 0 0
    0 0 0 0 0 0 0 0 0 0 0 0 0 0 0 0 0 0 0 0 0 0 0 0 0 0 0 0 0 0 0 0 0 0 0 0 0 0 0 0 0 0 0 0 0 0 0 0 0 0 0 0 0 0 0 0 0 0 0 0 0 0 0 0 0 0 0 0 0 981 968 968 981 981 994 1008 1008 1036 0 0 0 0 0 0 0 525 0 0 0 0 0 0 0 345 0 0 0 0 0 0 0 0 0 0 0 0 0 0 0 0 0 0 0 0 0 0 0 0 0 0 0 0 5661 4906 3679 0 0 4906 0 0 0 4906 4906 5661 6133 0 4906 5661 6133 8177 0 0 0 0 0 0 0 0 0 6690 7359 7359 6690 6133 6133 5661 5256 5661 6133 5256 4599 5256 6133 5661 6133 6690 6690 6690 6690 0 0 0 0 4329 4329 4599 4599 4329 3504 3873 3679 4329 4088 4088 3679 3679 3679 3345 2628 0 0 0 1132 1149 1168 1149 1132 1132 1149 1168 1098 1098 1082 1066 1022 1008 994 981 865 919 919 886 855 855 845 836 817 826 799 782 782 791 791 774 766 791 728 707 700 694 694 681 669 663 657 651 639 629 623 618 613 613 603 598 588 588 0 0 0 0 750 743 758 0 0 0 504 0 504 493 500 497 500 500 497 490 490 490 497 497 493 468 459 448 440 435 435 435 435 435 435 427 413 411 397 391 379 381 381 375 373 373 375 373 369 371 373 375 377 377 375 375 375 377 379 371 0 362 362 360 359 355 352 347 343 0 0 0 0 0
    0 0 0 0 0 0 0 0 0 0 0 0 0 0 0 0 0 0 0 0 0 0 0 0 0 0 0 0 0 0 0 0 0 0 0 0 0 0 0 0 0 0 0 0 0 0 0 0 0 0 0 0 0 0 0 0 0 0 0 0 0 0 0 0 0 0 0 0 0 981 968 968 981 994 1008 1008 1022 1051 1051 0 1168 0 0 0 0 0 0 0 0 0 0 352 357 350 0 0 0 0 210 0 0 0 0 0 0 0 0 0 0 0 0 0 0 0 0 0 0 0 0 0 6690 5661 5661 5256 3873 3199 3504 4906 4906 0 0 4906 4599 5256 5661 5256 4599 5256 5256 7359 0 0 0 0 0 0 0 0 0 8177 0 0 7359 6690 6690 6133 5661 5661 6133 4906 4599 5661 6133 5661 6133 6690 6133 6133 6690 0 0 0 0 4329 4599 4599 4599 4088 3504 3873 3873 4329 4088 3873 3679 3679 3504 3199 2453 0 0 1115 1132 1149 1149 1149 1149 1149 1168 1168 1098 1115 1098 1082 1036 1022 994 981 865 919 919 886 865 855 845 845 826 826 799 791 782 791 791 774 758 774 728 707 700 694 687 675 663 663 657 651 639 634 634 629 623 623 608 598 593 593 0 0 0 0 758 750 758 0 0 0 507 0 507 493 500 497 500 0 0 490 490 0 493 493 493 465 454 446 438 432 435 432 432 432 432 427 413 408 399 391 381 383 381 377 373 375 375 373 371 371 373 375 379 377 375 375 373 375 377 369 366 360 359 359 357 353 352 348 345 0 0 0 0 0
    0 0 0 0 0 0 0 0 0 0 0 0 0 0 0 0 0 0 0 0 0 0 0 0 0 0 0 0 0 0 0 0 0 0 0 0 0 0 0 0 0 0 0 0 0 0 0 0 0 0 0 0 0 0 0 0 0 0 0 0 0 0 0 0 0 0 0 0 0 994 981 981 1008 1008 1008 1022 1022 1036 1036 1066 1132 0 0 0 0 0 0 0 0 0 359 348 353 350 0 0 0 0 211 0 0 0 0 0 0 0 0 0 0 0 0 0 0 0 0 0 0 0 0 8177 7359 6133 5661 5256 4088 3345 3873 5256 5256 0 0 5256 4906 5661 5661 5256 4599 5256 5256 6133 8177 0 8177 0 0 0 0 0 0 0 8177 8177 7359 6690 6690 6133 5661 5661 6133 5256 4906 5661 5661 5661 6133 6133 6133 5661 6690 0 0 0 0 4088 4599 4599 4599 3873 3679 3873 4088 4599 4088 3873 3679 3504 3504 3066 2453 0 0 1132 1132 1149 1149 1168 1149 1149 1168 1168 1115 1132 1115 1082 1036 1022 1008 994 865 919 908 886 865 855 845 845 826 0 808 791 782 782 791 758 750 750 728 700 700 687 687 675 663 663 657 651 645 634 639 634 629 623 0 0 593 0 0 0 0 0 758 750 0 0 507 507 511 507 507 497 500 500 500 0 497 0 487 0 0 493 0 462 448 443 435 432 432 432 432 430 430 427 413 406 399 393 385 385 385 377 375 377 377 373 371 371 373 375 379 377 375 375 375 375 379 371 366 360 357 357 353 352 350 348 345 0 0 0 0 0
    0 0 0 0 0 0 0 0 0 0 0 0 0 0 0 0 0 0 0 0 0 0 0 0 0 0 0 0 0 0 0 0 0 0 0 0 0 0 0 0 0 0 0 0 0 0 0 0 0 0 0 0 0 0 0 0 0 0 0 0 0 0 0 0 0 0 0 0 0 1008 994 994 1008 1022 1022 1036 1022 1022 1022 1051 1115 1115 0 0 0 0 0 0 0 0 357 343 347 347 0 0 0 0 0 0 212 0 0 0 0 0 0 0 0 0 0 0 0 0 0 0 0 0 0 9199 7359 6133 5661 5256 4329 3679 4329 5256 5661 4906 6133 5661 5256 5661 5661 5256 4329 4906 4906 5256 6133 7359 4599 0 0 0 0 0 0 0 0 8177 7359 7359 6690 6133 5661 6133 6133 5256 4906 5661 5661 5661 6133 5661 5256 4906 6133 0 0 0 0 4088 4599 4599 4599 3679 3679 3873 4329 4599 4088 3679 3679 3504 3504 2943 2374 0 1187 1149 1132 1149 1149 1168 1168 1149 1187 1149 1115 1149 1115 1098 1051 1022 1008 994 865 908 897 876 855 845 845 845 826 0 808 791 782 782 791 750 743 743 728 707 694 694 687 675 669 669 657 651 645 639 639 634 629 623 0 598 593 0 0 0 0 0 766 758 0 514 511 514 514 511 511 500 500 500 504 0 500 0 0 0 0 490 0 462 446 443 435 432 432 430 430 430 430 427 413 406 399 393 387 387 387 379 377 379 379 375 373 371 375 375 377 377 375 375 373 375 381 369 364 359 355 353 352 348 347 347 343 0 0 0 0 0
    0 0 0 0 0 0 0 0 0 0 0 0 0 0 0 0 0 0 0 0 0 0 0 0 0 0 0 0 0 0 0 0 0 0 0 0 0 0 0 0 0 0 0 0 0 0 0 0 0 0 0 0 0 0 0 0 0 0 0 0 0 0 0 0 0 0 0 0 0 1008 994 994 1022 1022 1022 1036 1022 1022 1022 1051 1082 1051 1008 0 0 0 0 584 0 0 0 0 0 345 0 0 0 0 0 0 0 0 0 0 0 0 0 0 0 0 0 0 0 0 0 0 0 0 0 7359 6690 5661 5661 5256 4906 4088 4599 4906 5661 4906 6133 5661 5661 5661 5256 4599 0 0 0 0 0 0 0 0 0 0 0 0 0 0 0 0 7359 7359 7359 6133 6133 6133 6133 5256 5256 5661 5661 5661 6133 5661 5256 4906 0 0 0 0 0 4088 4599 4599 4599 3679 3873 4088 4329 4906 4088 3679 3679 3504 3504 2943 2374 0 0 1206 1149 1168 1168 1206 1187 1149 1187 1149 1115 1168 1132 1098 1051 1036 1022 1008 865 886 876 865 855 845 836 836 826 0 808 791 782 782 782 750 743 743 743 707 700 694 687 681 669 669 657 657 645 639 639 634 629 623 603 593 588 584 0 0 0 0 0 0 0 518 518 518 518 518 514 500 504 504 504 0 500 490 487 0 0 490 0 462 446 446 438 435 432 430 430 430 430 430 413 406 399 393 387 387 387 379 377 379 381 375 375 371 375 375 377 377 375 375 373 375 383 367 366 359 355 353 348 348 348 347 343 0 0 0 0 0
    0 0 0 0 0 0 0 0 0 0 0 0 0 0 0 0 0 0 0 0 0 0 0 0 0 0 0 0 0 0 0 0 0 0 0 0 0 0 0 0 0 0 0 0 0 0 0 0 0 0 0 0 0 0 0 0 0 0 0 0 0 0 0 0 0 0 0 0 0 1008 994 994 1022 1022 1022 1051 1022 1022 1022 1051 1082 1036 1008 0 0 0 0 0 584 0 0 0 0 0 0 311 0 0 240 0 0 0 0 0 0 0 0 0 0 0 0 0 0 0 0 0 0 0 0 6690 6690 6133 6133 5661 5256 4088 4906 4599 4906 4329 5661 0 0 0 0 0 0 0 0 0 0 0 0 0 0 0 0 0 0 0 0 0 7359 7359 7359 6133 6133 6133 6133 5661 5256 5661 5661 5661 6133 5661 5256 4906 0 0 0 0 0 4329 4599 4599 4599 3679 3873 4329 4599 5256 4088 3679 3873 3504 3504 2943 2374 0 0 0 1132 1168 1187 1226 1206 1168 1187 1168 1132 1187 1132 1098 0 0 1008 994 865 876 865 855 845 836 836 826 826 0 808 791 774 774 782 750 743 743 743 714 707 700 694 681 675 669 663 663 657 645 645 634 629 623 608 593 588 0 0 557 0 0 0 0 0 521 521 521 521 521 518 507 0 507 507 0 500 493 487 0 0 490 487 465 446 446 438 435 432 430 430 430 430 430 413 406 402 393 389 387 387 379 377 379 379 375 375 371 375 375 377 377 377 375 375 375 385 369 367 360 355 350 347 347 347 347 345 0 0 0 0 0
    0 0 0 0 0 0 0 0 0 0 0 0 0 0 0 0 0 0 0 0 0 0 0 0 0 0 0 0 0 0 0 0 0 0 0 0 0 0 0 0 0 0 0 0 0 0 0 0 0 0 0 0 0 0 0 0 0 0 0 0 0 0 0 0 0 0 0 0 0 994 994 994 1022 1022 1036 1066 1051 1036 1051 1082 1098 1098 1051 0 0 0 0 0 588 570 0 0 0 0 0 0 0 0 0 0 0 0 0 0 1752 1415 0 0 0 0 0 0 0 0 0 0 0 0 0 7359 7359 6690 6690 0 0 0 0 0 0 0 0 0 0 0 0 0 0 0 0 0 0 0 0 0 0 0 0 0 0 0 0 0 7359 7359 7359 6690 6690 6690 6133 5661 5661 6133 6133 5661 6690 5661 4906 4906 0 0 0 0 0 4329 4329 4329 4329 3504 3873 4329 4599 5256 4329 3679 3873 3504 3504 3066 2537 0 0 0 0 1168 1168 1226 1206 1168 1187 1149 1132 1168 1149 1082 0 0 994 981 865 855 845 845 836 826 826 826 817 0 808 791 774 774 782 750 743 735 743 707 707 700 694 681 675 675 669 669 663 651 651 639 634 634 613 0 0 579 0 561 0 0 0 0 0 529 525 525 525 525 521 511 0 511 507 0 0 493 487 490 0 493 487 471 446 446 438 435 432 430 430 430 430 430 413 406 404 393 389 389 389 381 379 379 379 375 375 371 377 375 379 379 377 377 375 375 385 367 366 360 353 348 345 345 345 345 343 0 0 0 0 0
    0 0 0 0 0 0 0 0 0 0 0 0 0 0 0 0 0 0 0 0 0 0 0 0 0 0 0 0 0 0 0 0 0 0 0 0 0 0 0 0 0 0 0 0 0 0 0 0 0 0 0 0 0 0 0 0 0 0 0 0 0 0 0 0 0 0 0 0 0 981 981 981 1008 1008 1022 1051 1051 1051 1066 1098 1115 1132 1082 1082 0 0 1132 0 584 570 557 0 0 0 0 0 0 0 301 0 0 0 0 2299 1887 1565 0 0 0 0 0 0 0 0 0 0 0 0 0 0 0 0 0 0 0 0 0 0 0 0 0 0 0 0 0 0 0 0 0 0 0 0 0 0 0 0 0 0 0 0 0 8177 7359 7359 7359 6690 6690 6690 6133 5661 5661 6133 5661 6133 6690 5256 4906 4906 0 0 0 0 0 4088 4329 4599 4599 3679 3873 4088 4599 5256 4599 3679 3873 3504 3504 3066 2725 0 0 0 0 1132 1168 1226 1206 1149 1187 1168 1132 1168 1149 1082 0 0 994 968 865 845 845 836 836 817 826 817 817 791 808 791 774 774 782 750 743 735 743 707 700 700 694 687 675 675 675 675 663 651 651 639 634 623 0 593 588 574 570 561 553 549 549 0 0 533 529 525 525 529 521 514 0 514 511 0 0 0 490 487 487 490 487 0 448 446 438 435 435 430 430 427 427 430 413 406 404 393 389 389 389 381 379 379 379 377 377 371 377 375 379 379 377 377 375 375 385 369 367 360 353 348 347 345 345 345 342 0 0 0 0 0
    0 0 0 0 0 0 0 0 0 0 0 0 0 0 0 0 0 0 0 0 0 0 0 0 0 0 0 0 0 0 0 0 0 0 0 0 0 0 0 0 0 0 0 0 0 0 0 0 0 0 0 0 0 0 0 0 0 0 0 0 0 0 0 0 0 0 0 0 0 968 968 981 994 1008 1008 1036 1022 1036 1066 1082 1082 1098 1066 1082 0 0 1115 0 0 570 0 0 0 0 0 0 0 0 302 0 0 0 8177 0 0 0 0 0 0 0 0 0 0 0 0 0 0 0 0 0 0 0 0 0 0 0 0 0 0 0 0 0 0 0 0 0 0 0 0 0 0 0 0 0 0 0 8177 8177 8177 0 8177 8177 7359 7359 7359 6690 6690 6690 6133 5661 5256 5661 5256 5256 6133 4906 4906 4599 6133 0 0 0 0 4088 4599 4906 4906 3679 4088 4088 4599 5256 4599 3679 3873 3504 3679 3199 3066 2725 0 0 0 1149 1168 1226 1206 1168 1187 1168 1115 1168 1132 1066 1022 0 981 955 865 845 845 845 836 817 826 817 817 791 808 791 774 774 782 750 735 728 735 707 700 700 694 681 681 681 681 675 669 651 657 651 634 613 0 593 584 570 574 561 553 549 553 0 0 0 533 529 525 529 525 518 0 514 511 0 0 0 490 487 0 490 484 0 448 446 440 435 435 430 430 427 427 430 413 406 404 395 389 389 387 381 381 381 381 379 377 371 377 375 379 377 375 375 373 373 383 369 367 362 359 353 350 348 348 347 343 0 0 0 0 0
    0 0 0 0 0 0 0 0 0 0 0 0 0 0 0 0 0 0 0 0 0 0 0 0 0 0 0 0 0 0 0 0 0 0 0 0 0 0 0 0 0 0 0 0 0 0 0 0 0 0 0 0 0 0 0 0 0 0 0 0 0 0 0 0 0 0 0 0 0 955 955 968 994 994 994 1022 1008 1036 1066 1082 1082 1082 1066 1066 0 0 1082 0 0 0 0 0 0 0 0 0 0 0 0 8177 0 7359 9199 5256 7359 0 0 0 8177 6690 0 6690 0 6690 6690 5661 0 0 0 0 0 0 0 0 0 0 0 0 0 0 0 0 0 0 0 0 0 0 0 0 0 0 0 0 0 0 7359 7359 7359 0 8177 8177 7359 7359 7359 7359 7359 7359 6690 5661 5661 6133 5661 5661 5661 4906 4906 4599 6133 5661 0 0 0 4329 4599 5256 5256 3679 4599 4088 4906 5256 4906 3679 3873 3504 3679 3345 3199 0 0 0 0 0 1168 1247 1226 1187 1187 1187 1132 1168 1098 1066 1022 0 968 943 876 845 855 845 836 826 836 826 826 791 808 791 774 774 782 743 728 728 735 707 700 700 694 687 681 687 687 681 675 651 663 651 634 613 0 588 588 574 574 561 549 549 553 0 0 0 0 0 525 529 525 518 2628 514 511 0 0 0 490 487 484 490 484 0 451 448 443 438 435 432 430 430 430 432 413 406 404 393 389 389 387 381 383 383 383 379 379 371 377 375 377 375 375 373 373 373 381 369 367 364 359 353 350 348 348 347 343 0 0 0 0 0
    0 0 0 0 0 0 0 0 0 0 0 0 0 0 0 0 0 0 0 0 0 0 0 0 0 0 0 0 0 0 0 0 0 0 0 0 0 0 0 0 0 0 0 0 0 0 0 0 0 0 0 0 0 0 0 0 0 0 0 0 0 0 0 0 0 0 0 0 0 955 955 968 994 994 1008 1036 1008 1036 1066 1082 1082 1066 1066 1066 1098 1168 1132 0 0 0 0 0 0 0 0 0 0 0 0 8177 0 8177 0 6690 6133 0 0 0 6133 5256 7359 4329 5256 4906 0 0 0 0 0 0 0 0 0 0 0 0 0 0 0 0 0 0 0 0 0 0 0 0 0 0 0 0 0 0 0 0 7359 7359 7359 0 8177 7359 8177 8177 8177 7359 8177 7359 6690 6133 6133 6133 6133 6133 5661 4599 5256 4599 6133 5256 4088 0 0 0 4599 5661 5661 3873 4906 3873 4906 4906 4906 3679 4088 3504 3873 3504 3345 0 0 0 0 0 1168 1247 1226 1206 1187 1187 1132 1132 1098 1051 1022 0 968 943 886 845 855 855 845 826 845 826 826 791 0 791 774 774 782 750 735 728 743 714 707 707 700 694 694 694 687 687 681 657 663 645 639 608 0 0 584 570 570 557 549 549 553 0 0 0 0 0 525 533 525 518 2628 514 514 0 0 0 490 487 484 487 484 474 454 451 446 440 440 432 432 432 432 435 415 406 402 393 389 389 387 381 383 383 383 379 379 373 375 375 377 375 373 373 373 373 379 371 369 366 360 353 350 347 347 345 342 0 0 0 0 0
    0 0 0 0 0 0 0 0 0 0 0 0 0 0 0 0 0 0 0 0 0 0 0 0 0 0 0 0 0 0 0 0 0 0 0 0 0 0 0 0 0 0 0 0 0 0 0 0 0 0 0 0 0 0 0 0 0 0 0 0 0 0 0 0 0 0 0 0 0 955 955 968 994 994 1008 1036 1022 1051 1066 1082 1082 1066 1066 1066 1098 1132 1115 1098 0 0 0 0 0 0 0 0 0 0 0 7359 7359 6133 7359 4906 3066 2453 0 0 6690 6690 0 0 0 0 0 0 0 0 0 0 0 0 0 0 0 0 0 0 0 0 0 0 0 0 0 0 0 0 0 0 0 0 0 0 0 0 6690 7359 7359 0 0 8177 7359 7359 8177 7359 8177 7359 6690 5661 6133 6133 6690 6133 5661 4599 5256 4599 5661 4906 4088 0 0 0 4329 5661 5661 4329 4906 3873 4906 4906 4599 3873 4088 3679 3873 3679 3679 0 0 0 0 0 1168 1247 1226 1206 1187 1206 1149 1132 1098 1051 1022 968 955 943 897 855 865 855 855 836 845 826 826 799 0 799 782 782 782 758 743 735 750 714 714 714 707 700 700 700 700 694 687 675 669 657 651 0 603 0 588 0 566 557 0 0 0 0 0 0 0 2537 529 533 525 521 0 514 514 0 511 0 490 484 484 487 481 474 457 454 448 443 443 435 435 435 435 438 418 406 402 393 389 389 387 379 383 381 383 379 379 373 375 375 377 373 373 373 373 371 379 371 371 367 364 357 355 348 347 0 0 0 0 0 0 0
    0 0 0 0 0 0 0 0 0 0 0 0 0 0 0 0 0 0 0 0 0 0 0 0 0 0 0 0 0 0 0 0 0 0 0 0 0 0 0 0 0 0 0 0 0 0 0 0 0 0 0 0 0 0 0 0 0 0 0 0 0 0 0 0 0 0 0 0 0 943 955 968 994 1008 1008 1036 1036 1051 1082 1098 1098 1098 1051 1051 1082 1098 1066 1082 0 0 0 0 0 0 0 0 0 0 0 0 0 6133 0 3873 2830 2453 0 0 0 0 0 0 0 0 0 0 0 0 0 0 0 0 0 0 0 0 0 0 0 0 0 0 0 0 0 0 0 0 0 0 0 0 0 0 0 0 6690 6690 6133 0 0 8177 8177 7359 7359 7359 8177 7359 6690 5661 6133 6133 6133 6133 5661 4906 5256 4599 5661 5256 4088 0 0 0 4088 6133 6133 5256 5256 3679 4906 4599 4599 3873 4088 3679 4088 3873 4088 3345 0 0 0 0 1149 1226 1226 1226 1187 1206 1168 1132 1098 1066 1022 955 955 943 897 855 876 865 855 836 855 836 826 808 0 799 782 782 782 758 743 743 743 721 714 721 714 714 707 707 707 700 694 675 669 657 651 0 603 0 0 0 0 557 0 0 0 0 0 0 0 0 529 0 0 521 0 514 514 507 511 0 490 484 484 484 481 477 459 454 448 443 446 438 438 438 438 440 418 406 402 393 391 389 387 379 383 381 383 379 377 373 373 373 377 373 373 373 371 371 377 373 371 369 364 357 353 347 0 0 342 0 0 0 0 0
    0 0 0 0 0 0 0 0 0 0 0 0 0 0 0 0 0 0 0 0 0 0 0 0 0 0 0 0 0 0 0 0 0 0 0 0 0 0 0 0 0 0 0 0 0 0 0 0 0 0 0 0 0 0 0 0 0 0 0 0 0 0 0 0 0 0 0 0 0 943 955 981 994 1008 1008 1022 1036 1051 1066 1082 1098 1098 1051 1036 1082 1115 1082 1082 0 0 0 0 0 0 0 0 0 0 0 0 0 0 0 0 3199 0 0 0 0 0 0 0 0 0 0 0 0 0 0 0 0 0 0 0 0 0 0 0 0 0 0 0 0 0 0 0 0 0 0 0 0 0 0 0 0 0 7359 7359 6133 0 0 7359 7359 7359 7359 7359 7359 7359 6690 5661 6133 6690 6690 6133 5256 4599 4906 4906 5661 5256 4088 0 0 0 3873 6133 6133 6133 5661 3679 4599 4329 4599 3873 4088 3679 4088 3873 4329 3504 0 0 0 1115 1132 1168 1206 1206 1168 1206 1168 1098 1082 1051 1022 943 943 943 908 855 886 876 865 845 865 836 836 808 0 799 782 774 782 758 735 735 735 721 714 721 721 721 714 714 714 714 700 0 663 634 639 0 0 0 0 0 0 561 0 0 0 0 0 0 0 0 529 0 0 518 0 511 511 500 507 0 490 481 481 481 477 474 462 457 448 443 448 440 440 440 438 440 420 408 404 397 393 393 389 379 383 383 383 379 377 371 371 373 377 373 373 371 371 371 375 375 371 369 364 355 352 345 343 342 342 0 0 0 0 0
    0 0 0 0 0 0 0 0 0 0 0 0 0 0 0 0 0 0 0 0 0 0 0 0 0 0 0 0 0 0 0 0 0 0 0 0 0 0 0 0 0 0 0 0 0 0 0 0 0 0 0 0 0 0 0 0 0 0 0 0 0 0 0 0 0 0 0 0 0 955 968 994 1008 1008 1022 1022 1036 1036 1066 1082 1098 1098 1082 1098 1132 1206 1187 1168 1206 0 0 0 0 0 0 0 0 0 0 0 0 0 0 0 0 0 0 0 0 0 0 0 0 0 0 0 0 0 0 0 0 0 0 0 0 0 0 0 0 0 0 0 0 0 0 0 0 0 0 0 0 0 0 0 0 7359 8177 8177 5661 0 0 8177 8177 7359 7359 8177 8177 8177 7359 6133 6133 6690 6690 6133 5256 4599 5256 4906 5661 5256 4088 0 0 0 0 6133 6133 6133 5661 3504 4088 4088 4329 3873 4088 3679 4088 4088 4906 3679 0 0 0 1115 1115 1149 1187 1206 1168 1187 1168 1082 1082 1051 1022 943 955 943 919 865 897 897 886 855 865 845 836 817 0 799 791 782 782 766 743 743 743 721 721 721 721 721 714 714 714 714 707 0 639 623 629 0 598 0 0 0 0 566 0 0 0 0 0 0 0 0 525 529 521 518 507 507 507 497 504 0 487 477 477 477 474 471 462 457 451 446 451 443 443 440 440 440 422 408 406 397 395 395 391 379 385 383 383 381 379 373 371 373 377 373 371 371 371 371 373 375 369 369 364 359 357 348 347 343 342 0 0 0 0 0
    0 0 0 0 0 0 0 0 0 0 0 0 0 0 0 0 0 0 0 0 0 0 0 0 0 0 0 0 0 0 0 0 0 0 0 0 0 0 0 0 0 0 0 0 0 0 0 0 0 0 0 0 0 0 0 0 0 0 0 0 0 0 0 0 0 0 0 0 0 955 955 994 1008 1008 1008 1022 1036 1036 1066 1082 1115 1115 1082 1082 1206 1291 1314 1268 1268 0 0 0 0 0 0 0 0 0 0 0 0 0 0 0 0 0 0 0 0 0 0 0 0 0 0 0 0 0 0 0 0 0 0 0 0 0 0 0 0 0 0 0 0 0 0 0 0 0 0 0 0 0 0 0 0 0 0 0 5661 0 8177 8177 7359 6690 6690 7359 7359 7359 6690 6133 6133 6690 6690 6133 5256 4599 5256 4906 5661 5256 4088 0 0 0 0 6133 6133 6133 6133 3504 4088 3873 4329 3873 4088 3679 4088 4088 5256 3873 0 0 0 1132 1098 1132 1187 1226 1168 1168 1187 1082 1066 1066 1036 955 955 943 931 865 908 897 897 865 876 855 836 826 0 799 791 782 782 766 743 743 735 721 728 728 728 721 714 714 714 714 707 0 0 613 618 0 593 0 0 0 0 566 0 553 0 0 0 0 0 0 525 521 518 514 504 504 504 493 500 487 0 474 474 474 471 468 462 457 451 446 451 446 443 443 443 440 422 408 406 399 395 395 393 379 385 383 385 381 377 373 371 375 377 371 371 371 371 371 373 377 369 369 364 360 359 352 348 345 343 0 0 0 0 0
    0 0 0 0 0 0 0 0 0 0 0 0 0 0 0 0 0 0 0 0 0 0 0 0 0 0 0 0 0 0 0 0 0 0 0 0 0 0 0 0 0 0 0 0 0 0 0 0 0 0 0 0 0 0 0 0 0 0 0 0 0 0 0 0 0 0 0 0 0 955 955 981 994 1008 1022 1022 1022 1036 1051 1066 1098 1082 1066 1082 1149 1314 1338 1338 1338 1362 1388 0 0 0 0 0 0 0 0 0 0 0 0 0 0 0 0 0 0 0 0 0 0 0 0 0 0 0 0 0 0 0 0 0 0 0 0 0 0 0 0 0 0 0 0 0 0 0 0 0 0 0 0 0 0 0 0 0 6133 0 0 8177 7359 6690 6690 7359 7359 7359 6133 6133 6690 6690 6690 6133 5256 4599 5256 4906 5661 5256 4088 0 0 0 0 5256 5256 5256 5256 3345 3873 3679 4088 3873 4088 3679 4329 4088 5256 0 0 0 0 1132 1115 1132 1187 1226 1168 1168 1206 1098 1082 1066 1036 955 955 943 931 865 908 908 897 865 876 855 836 0 0 799 782 782 774 766 743 750 735 728 728 728 728 728 714 714 707 714 700 0 0 608 608 588 588 584 0 0 0 570 0 557 566 0 0 0 0 0 521 518 514 511 500 500 500 490 497 487 0 474 474 471 471 465 462 457 451 448 451 446 446 443 443 443 422 408 406 402 397 395 393 379 385 385 385 381 379 375 371 375 377 373 371 371 371 371 371 379 369 369 364 360 357 352 348 345 343 0 0 0 0 0
    0 0 0 0 0 0 0 0 0 0 0 0 0 0 0 0 0 0 0 0 0 0 0 0 0 0 0 0 0 0 0 0 0 0 0 0 0 0 0 0 0 0 0 0 0 0 0 0 0 0 0 0 0 0 0 0 0 0 0 0 0 0 0 0 0 0 0 0 0 955 955 994 994 1008 1022 1022 1036 1036 1051 1066 1082 1082 1066 1098 1168 1291 1314 1338 1338 1338 1415 1533 0 0 0 0 0 0 0 0 0 0 0 0 0 0 0 0 0 0 0 0 0 0 0 0 0 0 0 0 0 0 0 0 0 0 0 0 0 0 0 0 0 0 0 0 0 0 0 0 0 0 0 0 0 0 0 0 7359 0 0 7359 7359 6690 6690 6690 6690 7359 6133 6133 6690 6690 6690 6133 5256 4599 5661 4906 5661 4599 4088 0 0 0 0 4329 4599 4599 4599 3345 3873 3679 3873 3873 4088 3679 4329 4329 5661 0 0 0 0 1132 1115 1115 1168 1226 1168 1149 1226 1115 1082 1082 1051 968 955 943 931 865 908 908 897 865 876 855 836 0 0 799 782 774 774 774 743 758 735 728 735 735 735 735 714 714 707 714 0 0 0 603 603 584 588 584 0 0 0 574 0 557 570 0 0 0 0 0 521 514 514 507 500 500 500 490 497 487 484 474 474 471 471 465 459 454 451 446 448 446 446 443 443 440 422 406 406 402 397 395 393 379 385 383 385 379 379 375 371 375 377 373 373 373 371 371 373 379 367 369 362 355 353 348 345 343 342 0 0 0 0 0
    0 0 0 0 0 0 0 0 0 0 0 0 0 0 0 0 0 0 0 0 0 0 0 0 0 0 0 0 0 0 0 0 0 0 0 0 0 0 0 0 0 0 0 0 0 0 0 0 0 0 0 0 0 0 0 0 0 0 0 0 0 0 0 0 0 0 0 0 0 968 968 1008 1008 1022 1036 1036 1036 1036 1051 1066 1082 1082 1066 1098 1149 1247 1314 1362 1388 1388 1443 1599 1635 0 0 0 0 0 0 0 0 0 0 0 0 0 0 0 0 0 0 0 0 0 0 0 0 0 0 0 0 0 0 0 0 0 0 0 0 0 0 0 0 0 0 0 0 0 0 0 0 0 0 0 0 0 0 0 5661 8177 7359 6690 6690 6133 6133 6133 6133 6690 5661 6133 6690 6690 6690 5661 5256 4599 6133 5256 4906 4906 0 0 0 0 0 3873 4329 4329 4329 3345 3679 3504 3873 3873 4088 3679 4329 4329 5661 0 0 0 1149 1132 1098 1115 1149 1206 1149 1149 1226 1115 1098 1082 1051 968 943 943 931 865 908 908 897 865 865 855 0 0 0 799 782 774 774 774 750 766 735 728 735 735 735 728 707 700 700 0 0 0 0 598 598 579 584 579 0 0 0 0 0 557 0 0 0 0 322 518 521 511 511 507 500 500 500 490 493 484 484 474 474 471 471 465 459 454 446 446 446 446 446 443 440 440 425 408 406 404 397 397 395 381 385 383 385 381 379 377 371 377 379 377 375 373 373 373 373 383 369 371 364 357 355 350 347 345 343 0 0 0 0 0
    0 0 0 0 0 0 0 0 0 0 0 0 0 0 0 0 0 0 0 0 0 0 0 0 0 0 0 0 0 0 0 0 0 0 0 0 0 0 0 0 0 0 0 0 0 0 0 0 0 0 0 0 0 0 0 0 0 0 0 0 0 0 0 0 0 0 0 0 0 968 968 994 1008 1022 1022 1022 1022 1036 1036 1051 1066 1082 1082 1098 1149 1226 1314 1362 1388 1415 1471 1599 1672 0 0 0 0 0 0 0 0 0 0 0 0 0 0 0 0 0 0 0 0 0 0 0 0 0 0 0 0 0 0 0 0 0 0 0 0 0 0 0 0 0 0 0 0 0 0 0 0 0 0 0 6690 6690 7359 7359 5256 7359 6690 6133 6690 6133 6133 6133 6133 6690 5661 5661 6133 6133 6133 5256 5256 5256 5661 6133 0 0 0 0 0 0 0 0 4088 4088 4088 3345 3679 3504 3873 3873 4329 3679 4329 4329 5661 0 0 0 1132 1115 1098 1098 1149 1206 1132 1132 1226 1115 1098 1082 1051 968 955 943 931 865 908 908 897 865 865 855 826 0 158 799 0 774 774 782 750 774 728 728 728 728 728 721 700 687 687 687 0 623 0 598 593 579 584 579 574 0 570 579 0 0 0 0 0 0 0 518 521 511 511 507 500 500 497 490 493 487 481 474 474 471 471 462 457 448 443 440 440 446 443 443 440 440 427 411 406 406 397 397 397 383 387 385 385 383 379 377 371 379 381 379 377 375 375 375 375 385 369 371 364 359 355 353 347 347 343 0 0 0 0 0
    0 0 0 0 0 0 0 0 0 0 0 0 0 0 0 0 0 0 0 0 0 0 0 0 0 0 0 0 0 0 0 0 0 0 0 0 0 0 0 0 0 0 0 0 0 0 0 0 0 0 0 0 0 0 0 0 0 0 0 0 0 0 0 0 0 0 0 0 0 968 968 994 994 1008 1022 1022 1022 1022 1036 1051 1051 1066 1066 1098 1132 1206 1291 1362 1415 1443 1501 1599 1635 1752 0 0 0 0 0 0 0 0 0 0 0 0 0 0 0 0 0 0 0 0 0 0 0 0 0 0 0 0 0 0 0 0 0 0 0 0 0 0 0 0 0 0 0 0 0 0 0 7359 6133 5661 0 7359 7359 7359 5661 7359 6690 6133 6690 6133 6133 6133 6133 6690 5661 5661 6133 6133 5661 5256 5256 5256 0 0 0 0 0 0 0 0 0 0 4088 4088 4088 3345 3504 3504 3679 3873 4329 3679 4088 4088 5661 0 0 0 1132 1115 1098 1098 1149 1206 1132 1132 1226 1115 1082 1066 1036 968 955 955 943 876 908 908 908 876 865 855 826 826 0 799 774 766 766 782 743 766 721 721 721 714 714 714 694 681 681 675 623 618 598 593 593 579 584 579 574 574 570 0 0 0 0 0 0 0 0 0 521 511 511 504 500 497 497 490 493 487 484 477 474 471 474 465 454 446 440 438 438 443 443 440 438 438 430 411 406 406 397 397 397 383 387 385 385 383 379 379 373 379 383 379 377 377 375 375 375 385 369 369 362 355 352 350 343 342 340 0 0 0 0 0
    0 0 0 0 0 0 0 0 0 0 0 0 0 0 0 0 0 0 0 0 0 0 0 0 0 0 0 0 0 0 0 0 0 0 0 0 0 0 0 0 0 0 0 0 0 0 0 0 0 0 0 0 0 0 0 0 0 0 0 0 0 0 0 0 0 0 0 0 0 981 968 981 994 1008 1022 1008 1022 1022 1036 1051 1051 1066 1082 1115 1149 1206 1291 1338 1362 1443 1501 1565 1599 1672 1672 0 0 0 0 0 0 0 0 0 0 0 0 0 0 0 0 0 0 0 0 0 0 0 0 0 0 0 0 0 0 0 0 0 0 0 0 0 0 0 0 5256 5256 5256 5256 5256 5256 6133 5661 5661 7359 6133 6690 6690 5661 6690 6133 6133 6133 6133 6133 6133 6133 6690 5661 6133 6133 6133 5661 4906 5256 5256 0 0 0 0 0 0 0 0 0 0 4088 4088 4088 3504 3504 3504 3679 3873 4329 3504 4088 4088 5256 0 0 0 1115 1115 1115 1115 1149 1206 1149 1132 1226 1098 1066 1051 1022 968 968 955 943 876 908 908 908 876 865 855 817 826 0 799 774 766 766 782 750 774 728 728 728 714 707 714 687 675 675 657 613 613 593 593 593 579 579 579 574 574 574 0 0 0 0 0 0 0 0 0 518 511 511 504 500 497 497 493 493 490 484 481 0 0 474 465 451 440 438 435 435 443 440 440 438 438 432 413 406 404 399 397 397 383 385 385 385 383 379 379 373 379 383 381 379 377 377 375 375 385 367 367 360 353 350 350 343 343 340 0 0 0 0 0
    0 0 0 0 0 0 0 0 0 0 0 0 0 0 0 0 0 0 0 0 0 0 0 0 0 0 0 0 0 0 0 0 0 0 0 0 0 0 0 0 0 0 0 0 0 0 0 0 0 0 0 0 0 0 0 0 0 0 0 0 0 0 0 0 0 0 0 0 0 968 968 968 981 994 1008 1008 1022 1036 1036 1051 1066 1082 1098 1115 1168 1206 1247 1314 1338 1388 1471 1501 1533 1565 1565 1635 0 0 0 0 0 0 0 0 0 0 0 0 0 0 0 0 0 0 0 0 0 0 0 0 0 0 0 0 0 0 0 0 0 0 0 0 0 6133 4088 5661 4599 5256 5256 5256 5256 5256 5256 5661 6133 6133 6690 6133 5661 6133 6133 6133 6133 6133 6133 5661 6133 6690 5661 6133 6133 6133 6133 5661 5661 5256 0 0 0 0 0 0 0 0 0 0 4088 4088 4088 3504 3679 3504 3679 3873 4329 3504 4088 4088 4906 0 0 0 0 1132 1132 1132 1168 1226 1168 1132 1226 1098 1051 1036 1022 968 955 955 943 876 908 908 897 876 855 845 817 817 817 799 774 774 766 782 750 766 721 721 721 707 700 700 681 663 663 645 618 618 598 598 598 584 584 584 579 0 574 0 566 0 0 557 0 0 0 0 521 514 511 504 500 497 497 493 493 493 487 484 0 0 0 468 448 435 435 432 432 443 440 440 438 438 435 415 404 404 397 395 395 383 383 383 385 385 379 379 373 381 383 383 379 377 377 375 375 385 366 366 360 355 352 352 345 343 340 0 0 0 0 0
    0 0 0 0 0 0 0 0 0 0 0 0 0 0 0 0 0 0 0 0 0 0 0 0 0 0 0 0 0 0 0 0 0 0 0 0 0 0 0 0 0 0 0 0 0 0 0 0 0 0 0 0 0 0 0 0 0 0 0 0 0 0 0 0 0 0 0 0 0 955 955 955 968 994 1008 1008 1022 1036 1051 1066 1066 1082 1098 1115 1149 1168 1226 1268 1291 1338 1362 1415 1471 1471 1471 1501 0 0 0 0 0 0 0 0 0 0 0 0 0 0 0 0 0 0 0 0 0 0 0 0 0 0 0 0 0 0 0 0 0 0 0 0 0 6133 4599 5661 4906 5256 5661 5661 5256 5661 5256 5661 5661 6133 6133 6133 5661 6690 6133 6133 6133 5661 5661 5256 5661 5661 4906 5256 5256 5256 5661 4906 5256 4329 0 0 0 0 0 0 0 0 0 0 4599 4329 4329 3679 4088 3679 3679 3873 4329 3504 3873 3873 4599 3679 0 0 0 1149 1168 1149 1206 1247 1187 1149 1226 1098 1051 1036 1008 968 943 943 943 876 897 897 897 876 855 845 817 817 826 799 782 774 766 791 750 766 721 714 707 694 687 694 675 663 663 645 623 618 598 598 598 584 584 584 579 0 579 0 566 0 566 557 0 0 0 0 521 514 511 504 500 497 500 493 497 497 490 493 0 0 497 484 440 427 432 427 430 440 440 440 438 438 438 415 406 402 399 395 395 383 383 385 385 385 379 379 373 381 381 383 379 377 377 377 375 385 366 366 360 353 350 350 343 342 340 0 0 0 0 0
    0 0 0 0 0 0 0 0 0 0 0 0 0 0 0 0 0 0 0 0 0 0 0 0 0 0 0 0 0 0 0 0 0 0 0 0 0 0 0 0 0 0 0 0 0 0 0 0 0 0 0 0 0 0 0 0 0 0 0 0 0 0 0 0 0 0 0 0 0 968 968 968 981 1008 1022 1022 1036 1051 1066 1066 1082 1082 1098 1115 1132 1149 1206 1247 1268 1314 1314 1362 1415 1443 1415 1443 1362 0 0 0 0 0 0 0 0 0 0 0 0 0 0 0 0 0 0 0 0 0 0 0 0 0 0 0 0 0 0 0 0 0 0 0 0 5256 4599 5661 4906 4599 5256 5256 5256 5256 5256 5661 5661 5661 6133 5661 5661 6690 6133 6133 6133 5661 6133 5256 5661 5661 4906 4906 5256 4599 5256 4599 5256 4329 4329 5256 4599 4599 4906 5661 0 0 0 0 5256 4906 4906 3873 4329 4088 3679 3873 4329 3504 3679 3873 4329 3504 0 0 0 1168 1226 1187 1226 1268 1206 1168 1247 1098 1036 1022 1008 955 943 931 943 886 908 908 908 876 855 855 826 826 826 808 782 774 774 791 758 766 728 714 707 694 687 687 675 657 657 639 618 618 598 603 603 588 588 0 584 0 0 0 570 0 561 557 0 0 0 0 525 521 514 504 504 500 500 497 497 500 493 500 0 0 0 0 430 418 427 425 430 440 440 440 438 438 438 420 408 404 402 395 395 383 383 385 385 385 379 379 373 379 381 383 379 377 377 375 375 383 366 366 360 353 350 348 343 342 340 0 0 0 0 0
    0 0 0 0 0 0 0 0 0 0 0 0 0 0 0 0 0 0 0 0 0 0 0 0 0 0 0 0 0 0 0 0 0 0 0 0 0 0 0 0 0 0 0 0 0 0 0 0 0 0 0 0 0 0 0 0 0 0 0 0 0 0 0 0 0 0 0 0 0 981 968 981 994 1022 1036 1036 1051 1051 1066 1066 1082 1082 1098 1115 1132 1149 1187 1226 1247 1291 1291 1338 1388 1415 1415 1443 1388 1362 0 0 0 0 0 0 0 0 0 0 0 0 0 0 0 0 0 0 0 0 0 0 0 0 0 0 0 0 0 0 0 0 0 0 0 5256 4329 5661 4906 4906 5256 5256 5256 5256 5256 5661 5661 5661 6133 5661 5661 6133 6133 6133 6133 5256 5661 4906 6133 5661 4906 4906 4906 4599 5256 4599 4906 4329 4599 4906 4329 4599 4906 6133 6133 6690 0 0 5661 5661 5256 4599 4329 4329 3679 3873 4088 3504 3504 3679 3873 3504 0 0 0 0 0 1206 1247 1268 1226 1187 1226 1098 1022 1008 994 955 955 931 943 897 908 919 908 886 865 855 836 826 826 808 782 774 774 791 758 758 735 721 714 707 694 694 681 663 663 645 618 618 598 603 603 593 588 0 0 0 0 0 574 0 566 561 0 0 0 0 0 525 518 507 507 500 504 500 500 507 497 511 514 504 0 0 420 411 427 425 427 440 440 440 438 438 440 420 408 406 402 395 395 385 383 385 385 385 379 379 373 379 381 383 377 377 377 375 375 383 366 366 360 355 352 350 345 343 342 0 0 0 0 0
    0 0 0 0 0 0 0 0 0 0 0 0 0 0 0 0 0 0 0 0 0 0 0 0 0 0 0 0 0 0 0 0 0 0 0 0 0 0 0 0 0 0 0 0 0 0 0 0 0 0 0 0 0 0 0 0 0 0 0 0 0 0 0 0 0 0 0 0 0 994 981 994 1008 1022 1051 1036 1051 1051 1066 1066 1066 1082 1098 1115 1132 1149 1168 1206 1226 1268 1268 1314 1362 1388 1388 1415 1388 1388 1415 0 0 0 0 0 0 0 0 0 0 0 0 0 0 0 0 0 0 0 0 0 0 0 0 0 0 0 0 0 0 0 0 0 0 5256 4329 5256 4906 4906 4906 5661 5661 5661 5661 6133 6133 5661 6133 5661 5661 6133 6133 6133 6133 5256 6133 5256 6133 5661 4906 4599 4906 4329 4906 4329 4906 4329 4599 4906 4329 4599 5661 6133 6133 6690 6690 3679 5661 5661 5256 4906 4599 4599 3873 3873 4088 3345 3504 3504 3679 3345 0 0 0 0 0 0 1268 1268 1226 1187 1226 1098 1022 1008 994 955 955 931 955 908 897 919 908 886 865 855 836 826 826 817 782 774 774 791 758 758 743 721 721 714 700 694 687 669 669 651 618 623 0 608 608 603 593 0 0 0 0 588 574 557 561 561 0 0 0 0 0 525 0 507 511 500 504 500 500 511 500 514 514 504 0 0 0 408 430 427 430 443 440 440 440 440 443 422 413 406 404 397 395 385 383 385 385 387 377 377 371 379 379 381 377 375 375 375 375 381 366 366 360 355 353 352 347 345 343 0 0 0 0 0
    0 0 0 0 0 0 0 0 0 0 0 0 0 0 0 0 0 0 0 0 0 0 0 0 0 0 0 0 0 0 0 0 0 0 0 0 0 0 0 0 0 0 0 0 0 0 0 0 0 0 0 0 0 0 0 0 0 0 0 0 0 0 0 0 0 0 0 0 0 994 994 1008 1022 1036 1051 1051 1066 1066 1066 1066 1066 1082 1098 1098 1115 1132 1149 1187 1226 1268 1268 1314 1338 1362 1388 1415 1415 1415 1443 1471 0 0 0 0 0 0 0 0 0 0 0 0 0 0 0 0 0 0 0 0 0 0 0 0 0 0 0 0 0 0 0 0 0 5256 4329 5256 4906 4906 5256 5256 5661 5661 5661 6133 6133 5661 6133 5661 6133 6690 6690 6690 6690 5661 6690 5661 6690 5661 4599 4329 4906 4599 4906 4329 4599 4088 4329 4599 4599 4599 5256 6133 5661 6690 7359 3873 5661 5661 5256 5256 4599 4599 3679 3873 3873 3345 3345 3504 3504 3345 0 0 0 0 0 0 1268 1268 1226 1187 1187 1115 1036 1008 994 968 955 931 943 908 897 908 908 886 865 855 845 826 826 817 791 774 774 799 766 758 750 728 721 721 700 700 687 675 675 651 618 623 0 618 618 613 603 0 0 0 0 584 574 557 561 561 0 0 0 0 0 0 0 507 514 504 507 504 500 511 504 518 0 507 0 0 0 404 432 427 432 443 443 443 443 443 443 425 415 408 406 397 395 387 383 385 385 385 377 377 371 377 379 381 375 375 375 373 373 379 366 366 360 357 353 352 347 345 342 0 0 0 0 0
    0 0 0 0 0 0 0 0 0 0 0 0 0 0 0 0 0 0 0 0 0 0 0 0 0 0 0 0 0 0 0 0 0 0 0 0 0 0 0 0 0 0 0 0 0 0 0 0 0 0 0 0 0 0 0 0 0 0 0 0 0 0 0 0 0 0 0 0 0 1008 1008 1022 1036 1051 1051 1066 1082 1082 1082 1082 1066 1082 1082 1098 1115 1132 1149 1187 1206 1247 1247 1291 1314 1338 1362 1388 1415 1415 1443 1471 1533 0 0 0 0 0 0 0 0 0 0 0 0 0 0 0 0 0 0 0 0 0 0 0 0 0 0 0 0 0 0 0 0 5256 4329 5256 4906 4906 5256 5256 5256 5661 5256 6133 6133 6133 6133 5661 6690 7359 7359 7359 6690 5661 6133 5256 6690 5256 4329 4329 4906 4599 5256 4599 4906 4329 4599 5256 5256 4906 5256 5661 5661 6133 6690 4088 5661 5661 5256 5256 4906 4906 3873 3873 3873 3345 3199 3345 3345 3345 2830 0 0 0 1443 0 1291 1268 1226 1168 1187 1115 1022 1008 994 968 955 931 943 908 886 908 908 886 865 865 845 826 826 826 791 782 782 0 774 758 758 728 728 735 707 714 700 681 687 657 0 0 0 623 623 623 0 0 0 0 593 584 574 557 561 561 0 0 0 0 0 0 0 511 514 504 507 504 504 514 0 0 0 0 0 0 0 402 438 430 435 446 446 446 446 443 446 427 415 408 406 397 395 387 381 385 385 385 375 375 371 375 377 379 375 373 373 373 371 377 366 364 362 357 353 350 347 343 342 0 0 0 0 0
    0 0 0 0 0 0 0 0 0 0 0 0 0 0 0 0 0 0 0 0 0 0 0 0 0 0 0 0 0 0 0 0 0 0 0 0 0 0 0 0 0 0 0 0 0 0 0 0 0 0 0 0 0 0 0 0 0 0 0 0 0 0 0 0 0 0 0 0 0 1008 1022 1036 1051 1051 1066 1066 1082 1098 1098 1098 1082 1082 1098 1115 1132 1149 1149 1187 1206 1247 1247 1268 1291 1314 1338 1388 1388 1415 1415 1443 1471 0 0 0 0 0 0 0 0 0 0 0 0 0 0 0 0 0 0 0 0 0 0 0 0 0 0 0 0 0 0 0 0 5661 4329 4599 4599 4906 5256 5256 4906 5256 4906 5661 5661 5661 5661 5256 6133 7359 6690 6690 6133 5256 6133 5256 6133 4906 4088 4329 4906 4599 5256 4599 4906 4329 4599 5256 4599 4906 5256 5256 5256 5256 6133 4088 5256 5661 4906 5256 4906 4599 3873 3679 3679 3199 3199 3345 3345 3345 2830 0 0 0 1443 0 1291 1247 1226 1168 1149 1098 1008 994 981 955 943 919 943 908 886 908 908 886 855 865 855 826 826 826 799 782 782 0 782 758 774 735 735 750 728 728 707 694 694 663 0 0 0 629 629 629 0 0 0 0 0 584 574 553 561 557 0 0 0 0 0 0 0 511 514 504 511 504 504 518 0 0 0 0 0 0 0 399 440 432 438 446 446 446 446 446 446 427 415 408 404 395 395 385 379 385 383 385 375 375 371 375 375 379 373 373 373 371 371 375 366 364 362 357 353 352 350 347 345 0 0 0 0 0
    0 0 0 0 0 0 0 0 0 0 0 0 0 0 0 0 0 0 0 0 0 0 0 0 0 0 0 0 0 0 0 0 0 0 0 0 0 0 0 0 0 0 0 0 0 0 0 0 0 0 0 0 0 0 0 0 0 0 0 0 0 0 0 0 0 0 0 0 0 1022 1022 1051 1051 1082 1082 1098 1098 1098 1115 1115 1098 1098 1098 1115 1132 1149 1168 1187 1206 1226 1247 1268 1291 1291 1314 1338 1362 1362 1362 1388 1415 1388 0 0 0 0 0 0 0 0 0 0 0 0 0 0 0 0 0 0 0 0 0 0 0 0 0 0 0 0 0 0 0 0 5661 4906 4599 4906 5256 5661 5256 5256 5256 5661 5661 6133 6133 5256 6133 7359 7359 6690 6133 5256 5661 5256 6133 5256 4088 4329 5256 4906 5256 4599 5256 4329 4599 5256 4599 4599 4906 5256 4599 4906 5256 4088 4906 5661 5256 5256 4906 4906 4088 3679 3504 3345 3066 3345 3345 3345 2725 0 0 0 1415 1226 1268 1226 1206 1132 1115 1082 1008 981 968 955 943 919 931 908 876 897 897 886 855 876 865 836 836 836 799 791 791 0 791 758 774 735 743 758 728 735 714 694 0 669 608 629 608 629 629 629 0 0 0 0 0 588 574 553 561 557 553 0 0 0 0 0 0 511 514 507 511 507 504 518 0 0 0 0 0 0 0 397 448 435 440 446 446 446 446 446 448 427 413 406 404 395 395 387 379 385 383 385 375 375 371 373 375 377 373 371 371 371 371 373 366 366 362 359 355 352 350 347 345 0 0 0 0 0
    0 0 0 0 0 0 0 0 0 0 0 0 0 0 0 0 0 0 0 0 0 0 0 0 0 0 0 0 0 0 0 0 0 0 0 0 0 0 0 0 0 0 0 0 0 0 0 0 0 0 0 0 0 0 0 0 0 0 0 0 0 0 0 0 0 0 0 0 0 1036 1051 1082 1082 1098 1115 1115 1115 1115 1115 1115 1098 1098 1115 1115 1132 1149 1168 1187 1206 1226 1247 1268 1291 1291 1314 1314 1338 1362 1362 1362 1362 1338 1314 0 0 0 0 0 0 0 0 0 0 0 0 0 0 0 0 0 0 0 0 0 0 0 0 0 0 0 0 0 0 0 0 4088 4906 4599 5661 6133 5661 5661 5256 5661 5661 5661 6133 5256 5661 6690 6690 6133 6133 5661 5661 4906 5661 4906 4088 4088 5256 4599 4906 4599 5256 4599 4906 5256 4906 4906 5256 4906 4906 5256 5256 4329 4599 5256 4906 5256 4906 4906 4088 3679 3504 3345 3066 3345 3345 3345 2830 0 0 0 0 1168 1247 1206 1187 1115 1098 1098 1008 994 981 968 943 919 931 908 876 908 897 886 865 886 876 836 836 845 808 791 0 0 791 758 782 743 750 782 758 758 728 707 743 0 0 634 608 634 634 634 0 0 0 0 0 0 574 553 557 0 0 0 0 0 0 0 0 514 518 507 511 507 504 518 0 0 0 0 0 0 0 397 459 440 443 446 446 446 446 446 446 427 411 408 404 395 395 387 379 385 383 387 375 375 371 373 373 377 371 371 371 369 369 371 367 366 364 359 353 352 348 345 343 0 0 0 0 0
    0 0 0 0 0 0 0 0 0 0 0 0 0 0 0 0 0 0 0 0 0 0 0 0 0 0 0 0 0 0 0 0 0 0 0 0 0 0 0 0 0 0 0 0 0 0 0 0 0 0 0 0 0 0 0 0 0 0 0 0 0 0 0 0 0 0 0 0 0 1066 1082 1098 1098 1115 1115 1115 1132 1115 1115 1115 1115 1115 1115 1132 1149 1149 1168 1187 1206 1226 1247 1268 1291 1291 1314 1314 1338 1362 1338 1338 1338 1314 1291 0 0 0 0 0 0 0 0 0 0 0 0 0 0 0 0 0 0 0 0 0 0 0 0 0 0 0 0 0 0 0 0 0 4088 4329 4906 5661 5661 5661 5256 5661 5256 5661 5661 5256 5661 6133 6690 6133 6133 6133 6133 5256 6133 5661 4329 4329 5661 4906 4906 4599 5256 5256 5256 5661 4906 4906 4906 4906 4599 4906 5256 4088 4329 4906 4599 4906 4599 4329 3873 3504 3345 3345 3066 3345 3345 3504 2830 0 0 0 0 1098 1187 1168 1168 1098 1098 1098 1022 1008 994 981 955 931 931 908 876 908 897 897 865 886 876 845 845 0 808 0 0 808 791 758 782 758 758 791 0 782 750 721 808 0 0 629 603 629 629 634 0 0 0 0 0 0 574 0 557 0 0 0 0 0 0 2299 2299 511 518 511 514 511 507 518 511 0 0 0 0 0 0 397 471 446 446 446 446 446 446 446 448 427 408 406 404 395 395 387 379 385 383 387 375 375 371 371 373 375 369 369 369 369 369 369 367 366 364 360 355 353 350 347 345 0 0 0 0 0
    0 0 0 0 0 0 0 0 0 0 0 0 0 0 0 0 0 0 0 0 0 0 0 0 0 0 0 0 0 0 0 0 0 0 0 0 0 0 0 0 0 0 0 0 0 0 0 0 0 0 0 0 0 0 0 0 0 0 0 0 0 0 0 0 0 0 0 0 0 1098 1115 1132 1115 1132 1115 1132 1132 1132 1115 1115 1098 1115 1132 1132 1149 1149 1168 1187 1206 1226 1247 1268 1291 1291 1291 1291 1314 1314 1314 1314 1314 1291 1268 0 0 0 0 0 0 0 0 0 0 0 0 0 0 0 0 0 0 0 0 0 0 0 0 0 0 0 0 0 0 0 0 3504 4329 4906 4906 6690 6690 6133 5256 5661 5256 5661 5661 5256 5256 6133 6133 6133 5661 6690 6133 5661 5661 5661 4329 4329 5661 5256 4906 4906 4906 5661 5256 5661 4599 4599 4906 4599 4329 4906 5256 4088 4329 4906 4599 4599 4599 4329 3873 3345 3199 3345 3066 3345 3345 3679 2943 0 0 1036 1066 1066 1132 1132 1149 1098 1098 1115 1036 1022 1008 994 955 931 931 908 865 897 897 897 865 897 876 845 845 0 799 0 0 808 791 758 782 758 758 791 0 782 758 728 808 0 0 634 608 629 629 634 0 0 0 0 0 0 574 0 557 1887 0 0 0 0 0 2299 2299 511 514 511 514 511 507 518 511 0 0 514 0 0 507 395 477 451 446 446 446 446 446 446 446 425 406 404 404 395 395 389 379 385 385 387 377 377 371 371 373 375 369 369 369 369 369 369 369 366 366 360 357 357 353 350 347 0 0 0 0 0
    0 0 0 0 0 0 0 0 0 0 0 0 0 0 0 0 0 0 0 0 0 0 0 0 0 0 0 0 0 0 0 0 0 0 0 0 0 0 0 0 0 0 0 0 0 0 0 0 0 0 0 0 0 0 0 0 0 0 0 0 0 0 0 0 0 0 0 0 0 1149 1149 1168 1149 1149 1132 1132 1149 1132 1115 1115 1115 1115 1132 1132 1149 1149 1168 1187 1206 1226 1247 1268 1268 1268 1291 1291 1314 1314 1291 1291 1291 1291 1268 0 0 0 0 0 0 0 0 0 0 0 0 0 0 0 0 0 0 0 0 0 0 0 0 0 0 0 0 0 0 0 3504 3504 3873 4599 5661 8177 7359 6690 5661 6133 5661 6133 6133 5661 5256 6133 6133 6133 5661 6690 6133 5661 5256 5661 4329 4329 5661 5256 5256 5256 5256 5661 4906 4906 4329 4599 4599 4329 4088 4599 4906 3873 4329 4906 4329 4599 4329 4329 3873 3345 3199 3504 3199 3504 3504 3873 3066 0 0 1036 1051 1066 1098 1132 1149 1098 1098 1132 1051 1036 1022 994 955 943 919 897 865 897 897 897 865 886 876 845 845 0 799 0 0 0 799 766 791 766 766 0 0 774 750 721 0 687 623 634 608 629 629 629 0 0 0 0 0 0 0 0 557 0 0 0 0 0 0 0 0 511 514 511 514 511 507 518 511 0 0 514 511 514 504 0 481 454 448 443 446 446 443 443 443 425 406 406 406 397 395 391 379 387 385 389 377 377 373 371 373 375 369 369 369 369 369 369 371 366 366 360 357 355 352 350 347 0 0 0 0 0
    0 0 0 0 0 0 0 0 0 0 0 0 0 0 0 0 0 0 0 0 0 0 0 0 0 0 0 0 0 0 0 0 0 0 0 0 0 0 0 0 0 0 0 0 0 0 0 0 0 0 0 0 0 0 0 0 0 0 0 0 0 0 0 0 0 0 0 0 0 1206 1187 1187 1187 1187 1168 1168 1168 1149 1132 1132 1132 1115 1132 1149 1168 1168 1187 1187 1206 1226 1268 1268 1268 1268 1291 1268 1314 1291 1291 1291 1268 1268 1268 1247 0 0 0 0 0 0 0 0 0 0 0 0 0 0 0 0 0 0 0 0 0 0 0 0 0 0 0 0 0 4088 3873 3679 3873 4088 5256 6690 6690 6690 5661 6133 5661 6133 6133 5661 5256 5661 6133 5661 5661 6133 5661 5256 5256 5661 4599 4599 5661 5661 5661 5256 5256 5661 4906 4906 4599 4599 4329 4088 4088 4329 4906 3873 3873 4329 4088 4329 4088 4088 3679 3345 3199 3679 3345 3679 3679 4329 3345 0 0 1036 1051 1066 1098 1132 1149 1098 1098 1132 1051 1036 1022 1008 955 943 919 897 855 897 897 897 865 886 865 836 836 0 799 0 0 0 808 774 799 774 774 0 0 0 0 707 0 681 639 639 618 634 634 634 618 0 0 0 0 0 0 0 557 0 0 114 0 525 518 0 0 507 511 507 511 511 507 514 511 0 0 514 507 514 504 0 484 457 448 440 443 443 443 443 443 425 406 406 406 397 395 391 379 387 385 389 379 377 373 371 373 377 371 371 371 371 369 371 375 367 366 360 357 355 353 352 347 0 0 0 0 0
    0 0 0 0 0 0 0 0 0 0 0 0 0 0 0 0 0 0 0 0 0 0 0 0 0 0 0 0 0 0 0 0 0 0 0 0 0 0 0 0 0 0 0 0 0 0 0 0 0 0 0 0 0 0 0 0 0 0 0 0 0 0 0 0 0 0 0 0 0 1226 1206 1187 1187 1187 1168 1168 1168 1149 1132 1149 1149 1132 1149 1149 1168 1187 1206 1187 1206 1226 1247 1247 1268 1268 1268 1247 1291 1291 1291 1268 1268 1268 1268 1268 0 0 0 0 0 0 0 0 0 0 0 0 0 0 0 0 0 0 0 0 0 0 0 0 0 0 4906 4906 4906 5256 4599 4088 4329 3873 5256 7359 6133 6133 5661 6133 5256 6133 6133 5661 5256 5661 5661 5256 5256 5661 5256 5256 5256 5661 4599 4599 5661 5256 5661 5256 5256 5661 4906 5256 4329 4329 4329 4088 4088 4329 4599 3873 3873 4329 4088 4088 4088 3873 3679 3345 3199 3873 3345 3873 3873 4599 3504 0 0 1036 1051 1066 1098 1132 1168 1098 1098 1149 1051 1036 1022 1008 968 955 931 919 865 897 897 908 865 876 855 836 836 0 799 791 799 808 799 774 799 774 774 808 0 750 0 700 687 681 639 639 623 634 634 634 618 0 0 0 0 0 0 0 557 0 0 114 0 521 518 518 511 507 507 507 511 507 507 0 511 0 0 511 504 511 500 0 484 462 451 443 443 443 443 443 443 427 406 404 404 395 395 391 377 387 387 389 381 379 375 371 375 379 371 373 371 371 371 373 377 367 366 362 357 355 353 352 348 0 0 0 0 0
    0 0 0 0 0 0 0 0 0 0 0 0 0 0 0 0 0 0 0 0 0 0 0 0 0 0 0 0 0 0 0 0 0 0 0 0 0 0 0 0 0 0 0 0 0 0 0 0 0 0 0 0 0 0 0 0 0 0 0 0 0 0 0 0 0 0 0 0 0 1247 1247 1206 1187 1187 1187 1187 1187 1149 1149 1149 1168 1149 1168 1168 1187 1187 1206 1206 1206 1226 1247 1247 1268 1268 1268 1247 1291 1291 1291 1291 1268 1247 1247 1247 0 0 0 0 0 0 0 0 0 0 0 0 0 0 0 0 0 0 0 0 0 4329 4599 4329 4329 4599 4906 4906 4906 5661 4599 4329 4599 3873 5256 6690 6133 6133 6133 6133 5256 5661 6133 5661 4906 5661 5661 5256 5256 5661 5256 4906 4906 5661 4906 4906 5661 4906 5256 4599 4599 4906 4599 4329 3873 4088 4088 4088 4088 4088 4329 3679 3679 4088 3873 3873 3873 3679 3679 3345 3199 3873 3345 3873 3873 4599 3504 0 0 0 1051 1066 1082 1132 1168 1098 1098 1149 1051 1051 1036 1008 981 955 943 931 865 886 886 897 855 855 845 817 826 0 791 782 791 799 799 774 791 774 766 799 0 735 700 694 675 675 645 639 629 634 634 634 618 0 0 0 0 0 1599 0 0 0 0 114 0 521 518 518 511 504 507 507 511 507 0 0 0 0 514 511 504 511 500 487 484 465 454 443 443 443 443 440 443 430 408 406 406 397 395 393 379 387 387 389 383 381 375 371 375 381 373 373 373 373 371 373 379 369 367 362 359 357 353 353 350 0 0 0 0 0
    0 0 0 0 0 0 0 0 0 0 0 0 0 0 0 0 0 0 0 0 0 0 0 0 0 0 0 0 0 0 0 0 0 0 0 0 0 0 0 0 0 0 0 0 0 0 0 0 0 0 0 0 0 0 0 0 0 0 0 0 0 0 0 0 0 0 0 0 0 1247 1247 1226 1206 1187 1187 1206 1206 1168 1149 1168 1187 1168 1187 1187 1187 1206 1206 1206 1206 1226 1247 1247 1268 1268 1268 1247 1291 1291 1291 1291 1291 1268 1268 1268 0 0 0 0 0 0 0 0 0 0 0 0 0 0 0 0 0 0 0 0 3199 3873 4329 4329 4329 4329 5256 4906 4599 5256 5256 4599 4599 3873 5256 5661 5661 5661 5661 5661 5256 5661 6133 5661 4906 5256 5256 5256 5256 5661 5256 4906 4906 6133 4906 4906 5661 5256 5661 4906 4906 5256 4906 4329 4088 4329 4088 3873 3873 4088 4088 3504 3504 3873 3873 3873 3679 3679 3679 3504 3345 4088 3504 3873 3873 4906 3679 0 0 0 1051 1051 1082 1132 1187 1115 1115 1187 1066 1051 1036 1022 994 968 955 943 865 886 886 886 855 836 836 799 808 0 782 774 782 791 799 766 791 766 758 0 0 0 700 687 675 675 651 651 634 639 639 639 634 0 0 0 0 0 1599 0 0 0 0 114 0 521 518 518 511 504 507 507 511 507 0 0 511 0 514 511 504 507 500 487 487 468 454 443 440 440 440 440 440 432 413 411 413 404 397 397 381 389 389 389 385 381 377 371 377 383 373 373 373 373 373 373 381 369 367 362 359 357 355 353 350 0 0 0 0 0
    0 0 0 0 0 0 0 0 0 0 0 0 0 0 0 0 0 0 0 0 0 0 0 0 0 0 0 0 0 0 0 0 0 0 0 0 0 0 0 0 0 0 0 0 0 0 0 0 0 0 0 0 0 0 0 0 0 0 0 0 0 0 0 0 0 0 0 0 0 1247 1247 1206 1206 1187 1187 1187 1187 1168 1132 1168 1187 1187 1206 1226 1206 1226 1226 1226 1226 1247 1247 1268 1268 1268 1291 1268 1338 1338 1338 1338 1314 1314 1314 1314 0 0 0 0 0 0 0 0 0 0 0 0 0 0 0 0 0 0 0 3066 3066 3679 3873 4088 4088 4088 4906 4906 4906 5256 5256 5256 5256 4088 5661 5256 5661 5661 5661 5661 5256 5661 6133 5661 5256 5256 5256 5256 5256 5661 5256 4906 4906 5661 4906 4906 4906 4906 5661 4906 4599 4906 4599 4088 4088 4329 4088 3873 3873 3873 3873 3504 3504 3679 3679 3873 3679 3504 3679 3679 3345 4088 3679 4088 4088 5256 4088 0 0 0 1051 1066 1098 1132 1187 1115 1115 1206 1082 1066 1051 1036 1008 994 981 968 876 886 886 876 845 826 826 791 799 808 782 774 774 791 799 766 791 758 750 0 0 728 694 687 681 675 657 663 645 645 651 651 645 0 0 0 0 0 0 0 0 0 0 0 0 521 518 518 511 504 504 507 511 507 507 0 0 0 514 511 504 507 500 487 487 468 454 443 440 440 440 438 440 435 418 415 415 408 399 399 383 391 389 389 387 383 379 373 379 385 375 375 375 375 373 375 383 369 367 364 359 359 357 355 352 0 0 0 0 0
    0 0 0 0 0 0 0 0 0 0 0 0 0 0 0 0 0 0 0 0 0 0 0 0 0 0 0 0 0 0 0 0 0 0 0 0 0 0 0 0 0 0 0 0 0 0 0 0 0 0 0 0 0 0 0 0 0 0 0 0 0 0 0 0 0 0 0 0 0 1247 1247 1206 1206 1187 1187 1187 1187 1168 1149 1187 1206 1187 1226 1247 1247 1247 1247 1247 1226 1268 1268 1268 1268 1291 1291 1268 1362 1362 1362 1362 1362 1362 1362 1388 0 0 0 0 0 0 0 0 0 0 0 0 0 0 0 0 0 0 3504 3345 3345 3873 3873 4599 4599 4088 5256 4906 4906 5256 5256 5256 4906 4088 5661 5256 5661 5661 5661 5661 5256 5661 6133 5661 5256 5661 5661 6133 5661 5661 5661 5256 4906 5661 4906 4599 4599 4599 5256 4599 4599 4599 4329 4088 4088 4088 3873 3679 3873 3504 3679 3504 3679 3679 3873 4088 3873 3679 4088 3873 3679 4329 3873 4329 4088 5661 4329 0 0 1051 1082 1082 1115 1149 1187 1132 1115 1226 1082 1066 1066 1036 1022 1008 994 994 897 886 886 876 845 817 817 782 799 799 782 774 774 782 799 766 791 758 750 0 735 728 694 687 681 681 663 669 657 651 657 663 0 0 0 0 0 0 0 0 0 0 0 0 0 521 518 514 511 504 504 507 507 507 507 0 511 0 514 511 500 507 497 487 484 471 457 446 438 438 438 438 438 435 420 418 418 413 402 399 383 391 391 389 387 383 381 373 379 385 377 377 377 377 375 375 383 369 367 364 360 359 357 355 353 0 0 0 0 0
    0 0 0 0 0 0 0 0 0 0 0 0 0 0 0 0 0 0 0 0 0 0 0 0 0 0 0 0 0 0 0 0 0 0 0 0 0 0 0 0 0 0 0 0 0 0 0 0 0 0 0 0 0 0 0 0 0 0 0 0 0 0 0 0 0 0 0 0 0 1268 1247 1206 1206 1187 1187 1187 1187 1149 1149 1187 1206 1187 1226 1268 1247 1247 1247 1247 1247 1268 1268 1268 1268 1291 1291 1291 1362 1388 1415 1388 1388 1388 1388 1415 0 0 0 0 0 0 0 0 0 0 0 0 0 0 0 0 0 3066 3504 3345 3345 3873 3873 4329 4599 4088 4906 4906 4906 5256 5256 5256 5256 4329 5661 5256 5256 5661 5661 5661 5256 5661 6690 6133 5661 6133 6133 6133 6133 5661 5661 5256 4906 5661 4599 4329 4329 4599 5256 4329 4599 4599 4329 4329 4088 4329 3873 3679 3873 3504 3873 3504 3679 3873 4088 4329 4329 3873 4329 4088 3873 4599 3873 4329 4088 5661 4329 0 0 0 1115 1098 1132 1168 1206 1149 1132 1226 1082 1082 1051 1036 1036 1022 1008 1008 919 897 897 876 845 808 817 782 799 799 782 774 774 782 799 774 791 766 750 766 735 721 694 687 681 675 663 675 669 657 669 0 0 0 0 0 0 0 0 0 0 0 0 0 0 521 521 514 511 504 504 507 507 507 507 0 511 500 511 507 500 504 497 487 484 471 457 446 438 438 438 438 438 438 425 420 420 418 404 399 385 391 391 389 387 383 381 373 381 385 379 379 379 379 377 377 387 369 369 364 359 359 357 355 353 0 0 0 0 0
    0 0 0 0 0 0 0 0 0 0 0 0 0 0 0 0 0 0 0 0 0 0 0 0 0 0 0 0 0 0 0 0 0 0 0 0 0 0 0 0 0 0 0 0 0 0 0 0 0 0 0 0 0 0 0 0 0 0 0 0 0 0 0 0 0 0 0 0 0 1268 1268 1206 1206 1187 1187 1187 1149 1098 1082 1149 1187 1206 1247 1291 1291 1268 1268 1268 1247 1268 1268 1268 1268 1268 1291 1268 1388 1415 1471 1443 1443 1415 1415 1471 0 0 0 0 0 0 0 0 0 0 0 0 0 0 0 0 3679 3066 3504 3345 3199 3873 4088 4088 4599 4088 4599 4906 4906 5256 4906 5256 5256 4088 5661 4906 4906 5256 5256 4906 4906 5256 6133 5661 5661 6133 6133 6133 6133 5661 5661 5256 5256 5256 4906 4329 4329 4906 5256 4329 4599 4329 4599 4329 4329 4329 3679 3873 3873 3504 3873 3679 3679 3873 4088 4599 4329 3873 4329 4329 4088 4599 3873 4329 4088 5661 0 0 0 0 1149 1149 1187 1206 1247 1168 1149 1247 1082 1066 1051 1051 1036 1022 1008 1022 931 886 897 886 845 799 808 791 799 799 782 774 774 774 791 774 782 766 750 766 735 721 694 687 675 675 669 681 681 669 681 0 0 0 0 0 0 0 0 0 0 0 0 0 0 521 521 511 514 504 504 511 504 507 511 0 511 497 507 507 497 500 493 487 481 471 459 448 440 440 440 440 438 440 425 420 420 420 404 399 385 391 391 389 387 381 381 373 381 387 379 379 379 379 379 379 389 371 371 364 359 357 355 352 350 0 0 0 0 0
    0 0 0 0 0 0 0 0 0 0 0 0 0 0 0 0 0 0 0 0 0 0 0 0 0 0 0 0 0 0 0 0 0 0 0 0 0 0 0 0 0 0 0 0 0 0 0 0 0 0 0 0 0 0 0 0 0 0 0 0 0 0 0 0 0 0 0 0 0 1291 1268 1187 1206 1149 1187 1206 1132 1098 1051 1098 1187 1247 1268 1314 1314 1291 1291 1268 1268 1268 1268 1268 1268 1268 1291 1291 1388 1443 1501 1501 1471 1471 1471 1471 0 0 0 0 0 0 0 0 0 0 0 0 0 0 0 4329 3873 3199 3504 3504 3345 4088 4599 4329 4906 4329 4906 4906 4906 5256 5256 5256 5661 4329 5661 4906 4599 4906 4906 4599 4599 4906 5661 5256 5661 5661 5661 5661 5661 5661 5661 5256 4906 4906 4906 4329 4329 4599 4906 4329 4599 4329 4599 4329 4599 4599 4088 4088 4329 3679 4088 3873 3679 3873 4329 4599 4599 3873 4329 4329 4088 4599 3873 4088 3873 4906 0 0 0 0 1206 1206 1226 1226 1268 1206 1187 1247 1066 1051 1036 1036 1036 1008 994 1008 943 876 897 876 845 799 808 791 791 799 791 774 766 766 791 766 774 758 743 750 735 714 694 687 681 681 681 687 694 681 687 0 0 0 0 0 0 0 0 0 0 0 0 0 521 518 521 511 514 504 504 511 504 507 511 500 0 497 504 504 497 500 493 487 481 474 462 454 440 440 440 440 440 443 425 415 415 418 399 397 383 391 389 389 387 381 381 373 381 385 379 379 379 379 379 377 389 373 373 366 360 357 355 353 350 0 0 0 0 0
    0 0 0 0 0 0 0 0 0 0 0 0 0 0 0 0 0 0 0 0 0 0 0 0 0 0 0 0 0 0 0 0 0 0 0 0 0 0 0 0 0 0 0 0 0 0 0 0 0 0 0 0 0 0 0 0 0 0 0 0 0 0 0 0 0 0 0 0 0 1291 1268 1168 1149 1066 1187 1247 1115 1066 1008 1051 1168 1291 1314 1338 1314 1314 1291 1268 1268 1268 1268 1268 1268 1268 1291 1291 1415 1443 1501 1533 1501 1471 1471 1501 0 0 0 0 0 0 0 0 0 0 0 0 0 0 0 5661 4906 3504 4088 4088 3504 4599 4906 4329 4906 4329 4906 4906 4906 5256 5256 5256 5661 4906 6133 5256 4906 5256 4906 4906 4906 4906 5256 4906 5256 5256 5661 5661 5256 5661 5661 5256 4906 4906 4906 4599 4599 5256 5256 4599 4906 5256 5256 5256 4906 4906 4599 4599 4906 3679 3873 3873 3873 4088 4599 4906 4599 4088 4599 4599 4088 4599 3679 3873 3504 0 0 0 0 1247 1247 1247 1268 1247 1268 1226 1187 1226 1066 1051 1036 1036 1036 1022 994 1008 943 876 908 876 855 808 817 799 791 799 799 774 766 766 782 758 766 758 743 750 735 721 707 694 694 694 700 700 707 0 0 0 0 0 0 0 0 0 0 0 0 0 0 0 521 518 521 511 518 507 504 511 507 511 514 500 0 497 0 504 497 500 493 487 481 474 465 457 440 440 440 440 440 443 425 413 413 415 399 397 385 391 391 389 389 383 383 375 381 385 377 379 379 379 379 377 389 373 373 367 362 357 353 350 348 0 0 0 0 0
    0 0 0 0 0 0 0 0 0 0 0 0 0 0 0 0 0 0 0 0 0 0 0 0 0 0 0 0 0 0 0 0 0 0 0 0 0 0 0 0 0 0 0 0 0 0 0 0 0 0 0 0 0 0 0 0 0 0 0 0 0 0 0 0 0 0 0 0 0 1314 1314 1268 1247 1098 0 1362 1247 0 981 0 1247 1338 1338 1388 1362 1338 1314 1291 1291 1268 1268 1268 1268 1268 1291 1314 1471 1501 1565 1599 1565 1533 1533 1533 0 0 0 0 0 0 0 0 0 0 0 0 0 0 0 4906 4599 3679 4088 4088 3504 4329 4599 4329 4906 4329 4906 4906 4906 5256 5256 5256 5661 4906 6133 5256 5256 5256 4906 4906 4906 4906 5256 4906 5256 5256 5661 6133 5661 5661 5661 5256 4906 5256 4906 4599 4599 5256 4906 4906 4906 5256 5256 5256 4906 4906 4599 4906 4906 3873 4088 4088 3873 4329 4599 4906 4906 4329 4906 4599 4329 4599 3679 3873 3345 0 0 0 0 0 1291 1291 1291 1268 1268 1226 1206 1226 1066 1051 1051 1036 1051 1022 994 1008 955 876 908 876 855 826 826 808 799 808 808 782 766 766 782 758 766 758 743 750 743 728 721 707 707 700 714 0 714 0 0 0 0 0 0 0 0 0 0 0 0 0 0 0 518 518 521 511 518 507 507 511 507 511 511 500 0 493 0 504 497 500 493 490 481 477 465 457 438 440 440 440 440 440 425 415 415 420 399 397 389 391 391 389 389 383 383 375 383 385 379 379 379 379 377 377 387 371 373 366 362 357 352 348 347 0 0 0 0 0
    0 0 0 0 0 0 0 0 0 0 0 0 0 0 0 0 0 0 0 0 0 0 0 0 0 0 0 0 0 0 0 0 0 0 0 0 0 0 0 0 0 0 0 0 0 0 0 0 0 0 0 0 0 0 0 0 0 0 0 0 0 0 0 0 0 0 0 0 0 0 0 0 0 0 0 0 0 663 0 0 474 0 0 1415 1388 1362 1338 1314 1314 1291 1291 1291 1291 1268 1291 1314 1471 1533 1599 1599 1565 1565 1565 1533 0 0 0 0 0 0 0 0 0 0 0 0 0 0 0 4599 4599 3873 3873 3873 3504 3873 4599 4329 4599 4088 4906 4599 4906 5256 5256 5256 5661 5256 6133 5661 5661 5256 4906 4906 4599 4906 4906 5256 4906 5256 5661 6133 5661 5661 5661 5661 4906 5661 5256 4906 4906 5661 5256 5256 5256 5661 5661 5661 5256 5256 4906 4906 4599 3873 4088 4088 3873 4329 4906 5256 4906 4599 4906 4906 4599 4906 3679 3679 3199 0 0 0 0 0 1314 1314 1314 1268 1268 1226 1206 1206 1066 1051 1036 1036 1036 1008 994 994 955 876 919 886 865 836 845 826 808 817 817 782 774 766 791 766 766 766 743 750 750 735 735 714 728 714 743 0 728 0 0 0 0 0 0 0 0 0 0 0 0 0 0 0 518 518 521 511 518 511 507 514 507 514 514 500 0 493 0 504 497 497 493 490 477 477 468 459 435 440 440 440 438 440 425 413 413 418 399 397 389 391 391 389 389 385 383 375 383 383 381 379 379 379 377 377 387 371 371 366 362 357 353 350 347 0 0 0 0 0
    0 0 0 0 0 0 0 0 0 0 0 0 0 0 0 0 0 0 0 0 0 0 0 0 0 0 0 0 0 0 0 0 0 0 0 0 0 0 0 0 0 0 0 0 0 0 0 0 0 0 0 0 0 0 0 0 0 0 0 0 0 0 0 0 0 0 0 0 0 0 0 0 0 0 0 0 0 0 0 0 0 0 0 1415 1388 1338 1338 1314 1314 1291 1291 1291 1291 1268 1291 1314 1471 1533 1599 1599 1565 1565 1565 0 0 0 0 0 0 0 0 0 0 0 0 0 0 0 0 4599 4906 4329 4329 4329 3679 4088 4599 4329 4599 4088 4599 4599 5256 5256 5256 5256 5661 5661 6690 6133 6133 5256 4906 4906 4906 5256 4906 5256 4906 4906 5256 5661 5256 6133 5661 5661 4906 5661 5256 5256 5256 5661 5256 5661 5661 6133 6133 6133 6133 6133 5661 6133 6133 4599 4599 4906 3873 4599 4906 5256 4906 4599 4906 4599 4329 4906 3504 3504 2725 0 0 1338 1338 1338 1338 1314 1314 1268 1268 1247 1206 1206 1066 1051 1036 1036 1036 1008 994 994 955 876 919 897 876 855 865 836 826 826 826 791 782 766 791 766 766 766 743 750 766 743 750 721 750 728 758 0 0 0 0 0 0 0 0 0 0 0 0 0 0 0 0 0 514 518 521 511 518 511 507 514 507 514 514 504 0 493 0 500 493 497 490 490 477 477 465 462 435 440 438 438 438 0 425 411 413 415 399 397 391 389 391 389 389 385 383 375 383 383 381 379 379 379 377 377 387 371 369 366 362 357 353 352 345 0 0 0 0 0
    0 0 0 0 0 0 0 0 0 0 0 0 0 0 0 0 0 0 0 0 0 0 0 0 0 0 0 0 0 0 0 0 0 0 0 0 0 0 0 0 0 0 0 0 0 0 0 0 0 0 0 0 0 0 0 0 0 0 0 0 0 0 0 0 0 0 0 0 0 808 817 0 0 0 0 0 0 0 0 0 0 0 0 1388 1362 1291 1291 1268 1247 1247 1247 1268 1247 1247 1291 1314 1443 1533 1599 1599 1599 1565 1565 0 0 0 0 0 0 0 0 0 0 0 0 0 0 0 0 4906 5661 5256 5256 5256 3873 4599 5256 4599 4599 4329 4906 4599 5256 5661 5661 5256 5661 6133 6690 6133 6690 5661 5256 4906 5256 5256 4906 5256 4906 4906 5256 5661 5256 6133 5661 6133 5256 5661 5661 5256 5661 6133 5256 5661 6133 6690 6690 6690 6690 6690 6133 7359 6690 5256 5256 4906 3873 4906 4906 5256 4906 4329 4906 4329 4088 4599 3345 3199 2230 0 0 1388 1388 1362 1362 1338 1314 1268 1247 1247 1226 1206 1066 1051 1051 1036 1036 1008 994 994 968 876 931 919 897 865 876 855 836 836 836 791 791 774 791 766 758 774 750 750 774 743 774 728 766 750 766 0 0 0 0 0 0 0 0 0 0 0 0 0 0 2044 2044 0 514 514 521 0 0 511 511 514 511 518 518 504 0 0 0 500 493 493 490 487 474 477 465 462 438 443 440 440 440 0 425 413 413 413 399 397 391 389 391 389 389 385 383 375 383 383 383 379 379 379 377 377 387 371 369 366 360 357 353 352 347 0 0 0 0 0
    0 0 0 0 0 0 0 0 0 0 0 0 0 0 0 0 0 0 0 0 0 0 0 0 0 0 0 0 0 0 0 0 0 0 0 0 0 0 0 0 0 0 0 0 0 0 0 0 0 0 0 0 0 0 0 0 0 0 0 0 0 0 0 0 0 0 0 0 0 808 808 808 0 0 743 774 0 634 0 0 0 0 0 0 0 0 1268 1226 1226 1206 1187 1226 1226 1206 1247 1291 1471 1501 1599 1635 1599 1599 1565 0 0 0 0 0 0 0 0 0 0 0 0 0 0 0 0 3504 4088 4088 4088 4599 3873 4329 5256 4329 4599 4329 4599 4329 4906 5256 5661 4906 5256 5661 6133 5661 6133 5661 4906 4906 5256 5256 4906 4906 4906 5256 5661 5661 5661 6690 6133 6690 5661 5661 5661 5661 6133 6133 5256 5661 6133 6133 6690 6690 6133 6133 5661 6690 6133 5256 5661 4906 3679 4906 4906 5256 4599 4088 4329 4088 3873 4329 3199 3199 2230 0 0 1388 0 1362 1362 1338 1338 1268 1247 1247 1226 1206 1082 1051 1051 1036 1022 994 981 981 968 876 931 919 908 865 886 855 836 836 836 791 782 774 791 766 758 782 750 750 791 735 766 728 766 750 0 0 0 89 0 0 0 0 0 0 0 0 0 0 0 1989 1989 0 511 514 521 0 0 514 511 514 511 521 518 507 0 0 0 497 0 490 487 487 468 474 465 459 438 446 443 443 443 443 427 413 413 413 399 395 393 389 391 389 391 387 385 375 383 381 383 379 379 377 377 375 387 371 371 366 362 357 353 352 347 0 0 0 0 0
    0 0 0 0 0 0 0 0 0 0 0 0 0 0 0 0 0 0 0 0 0 0 0 0 0 0 0 0 0 0 0 0 0 0 0 0 0 0 0 0 0 0 0 0 0 0 0 0 0 0 0 0 0 0 0 0 0 0 0 0 0 0 0 0 0 0 0 0 0 817 0 0 0 0 782 799 721 0 0 0 0 0 0 0 0 0 0 1187 0 0 0 0 1115 1098 1082 0 1599 1599 1635 1672 1635 1599 0 0 0 0 0 0 0 0 0 0 0 0 0 0 0 0 3873 4088 4329 4599 4599 4599 3873 5256 6133 5256 4906 4599 4906 4599 5256 5661 5661 4906 5661 5661 6133 6133 6690 5661 5256 4906 5661 5256 4906 4906 4906 4906 5661 6133 6133 6690 5661 6690 6133 5661 6133 5661 5661 6133 4906 5661 6133 6133 6133 6133 5661 5661 5256 6133 5661 5256 5661 5256 4088 5256 5256 5661 4906 4088 4599 4329 3873 4329 3345 3199 2453 0 0 0 0 0 1338 1314 1314 1247 1226 1247 1226 1206 1066 1051 1051 1036 1022 994 981 981 968 876 931 919 908 876 886 855 836 836 836 791 782 774 782 766 750 774 743 750 791 728 750 728 758 750 0 0 0 89 0 0 0 0 0 0 0 0 0 0 0 1989 1989 0 511 514 0 0 0 518 514 518 514 521 521 511 0 493 0 497 0 490 487 487 465 471 462 457 440 448 446 446 443 443 427 411 413 406 399 393 391 387 391 389 391 387 385 375 381 381 383 377 379 377 377 375 387 371 371 367 364 359 355 353 347 0 0 0 0 0
    0 0 0 0 0 0 0 0 0 0 0 0 0 0 0 0 0 0 0 0 0 0 0 0 0 0 0 0 0 0 0 0 0 0 0 0 0 0 0 0 0 0 0 0 0 0 0 0 0 0 0 0 0 0 0 0 0 0 0 0 0 0 0 0 0 0 0 0 0 0 0 0 0 0 0 0 0 0 0 0 0 0 0 477 0 0 0 0 0 0 0 0 0 0 0 561 1752 1711 1711 1839 1711 0 0 0 0 0 0 0 0 0 0 0 0 0 0 0 3504 4599 5256 6133 6133 7359 7359 7359 6690 8177 0 7359 6133 5256 5661 4906 5661 6133 6133 5256 5661 6133 6690 6133 6690 6133 5256 5256 5661 5661 5256 4906 4906 5256 6133 6133 6133 6690 6133 6690 6690 6690 6133 5661 5661 6133 5256 6133 6133 6133 6133 6133 6133 6133 6133 6690 6133 5661 6133 5256 4329 5256 5256 5256 5256 4088 4599 4088 3873 4088 3199 3066 2374 0 0 0 0 0 1291 1291 1291 1226 1206 1226 1187 1187 1066 1051 1051 1036 1036 1008 994 994 981 876 943 919 919 876 886 865 836 836 836 791 782 774 782 766 750 774 743 750 791 0 750 0 750 743 0 0 0 0 0 0 0 0 0 0 0 0 0 0 799 0 1989 0 511 511 0 0 0 521 514 518 514 525 521 514 0 497 493 497 0 487 487 484 462 468 459 451 440 448 446 446 446 443 430 413 411 404 0 393 391 385 389 389 391 387 385 377 381 381 383 377 379 377 375 375 385 375 373 371 366 360 359 357 350 0 0 0 0 0
    0 0 0 0 0 0 0 0 0 0 0 0 0 0 0 0 0 0 0 0 0 0 0 0 0 0 0 0 0 0 0 0 0 0 0 0 0 0 0 0 0 0 0 0 0 0 0 0 0 0 0 0 0 0 0 0 0 0 0 0 0 0 0 0 0 0 0 0 0 0 0 0 0 0 0 0 0 0 0 0 0 0 0 0 0 0 0 0 0 0 0 0 0 0 0 0 0 0 0 0 0 0 0 0 0 0 0 0 0 0 0 0 0 0 0 0 0 6690 8177 8177 8177 0 8177 8177 7359 7359 8177 7359 5661 4906 5661 4906 5661 6133 6133 5256 5661 6133 6690 6133 6690 5661 5256 5256 6133 6133 5256 5256 5256 5661 6133 6133 6690 6690 5661 6690 6690 6690 6690 5661 5661 6133 5256 6133 6133 6133 6133 6133 6133 6133 5661 6133 6133 5661 6133 4906 4088 4906 5256 5256 4906 4088 4329 4088 3873 4088 3345 2943 2374 0 0 0 0 0 1268 1268 1247 1206 1187 1226 1168 1206 1082 1066 1066 1051 1051 1022 1008 1008 994 876 931 908 908 865 876 855 836 836 836 791 791 774 782 774 750 782 750 750 799 0 750 0 743 735 0 0 0 0 0 0 0 0 0 0 0 0 0 0 799 0 1989 0 0 0 0 379 379 521 518 521 518 525 521 518 0 500 490 493 0 487 484 484 462 462 459 451 443 451 446 446 446 446 0 415 415 406 402 395 393 385 391 389 391 387 385 377 379 381 385 377 379 377 377 375 385 377 371 369 366 360 359 357 350 0 0 0 0 0
    0 0 0 0 0 0 0 0 0 0 0 0 0 0 0 0 0 0 0 0 0 0 0 0 0 0 0 0 0 0 0 0 0 0 0 0 0 0 0 0 0 0 0 0 0 0 0 0 0 0 0 0 0 0 0 0 0 0 0 0 0 0 0 0 0 0 0 0 0 0 0 0 0 598 584 0 0 0 0 511 521 0 0 0 0 0 0 0 6133 0 0 0 0 0 0 0 0 0 0 0 0 0 0 0 0 0 0 0 0 0 0 0 0 0 0 0 7359 5661 6690 6690 6690 8177 6133 6133 6690 6690 7359 6690 5256 4906 5256 5256 5661 6690 6690 5661 6133 6133 6690 6133 6690 5661 5256 4906 5661 6133 5256 5256 5661 5661 6133 6133 6690 6690 6133 7359 7359 6690 6690 5661 5661 5661 5256 6133 5661 5661 5661 5661 6133 6133 5256 6133 6133 6133 6690 5661 4599 5256 6133 6133 5661 4599 4599 4088 3873 4088 3345 3066 2453 1752 0 0 0 0 1247 1247 1226 1206 1168 1206 1168 1206 1098 1082 1082 1066 1066 1036 1022 1008 994 876 919 886 886 855 865 845 817 826 826 782 791 774 774 774 750 782 743 750 799 721 0 0 721 721 721 0 0 0 0 0 0 0 0 0 0 0 0 0 799 0 1989 0 0 0 0 0 0 525 518 525 521 529 525 525 0 507 490 493 0 484 481 481 462 457 457 448 443 451 446 446 446 443 0 420 420 0 406 397 395 383 389 389 391 387 385 377 377 381 385 377 379 377 377 377 383 381 373 373 367 362 360 357 353 0 0 0 0 0
    0 0 0 0 0 0 0 0 0 0 0 0 0 0 0 0 0 0 0 0 0 0 0 0 0 0 0 0 0 0 0 0 0 0 0 0 0 0 0 0 0 0 0 0 0 0 0 0 0 0 0 0 0 0 0 0 0 0 0 0 0 0 0 0 0 0 0 0 0 0 0 0 0 0 0 0 0 0 0 0 0 0 0 0 0 0 0 0 7359 8177 0 0 0 0 0 0 0 0 0 0 0 0 0 0 0 0 0 0 0 0 0 0 0 0 0 8177 7359 5661 6690 6690 6690 7359 5661 6133 6133 6133 6690 6133 5256 4906 5256 5256 5661 6690 6690 6133 6133 6690 7359 6690 6690 6133 5661 5256 5661 6133 5256 5256 5661 5661 6133 6133 6690 6690 6133 7359 6690 6690 6690 5661 5661 5661 5661 6133 5661 5661 6133 5661 6133 6133 5256 5661 5661 5661 6133 5256 4906 5256 6133 6133 6133 4599 4906 4329 3873 4088 3345 3066 2628 0 0 0 0 0 1247 1247 1226 1206 1168 1206 1149 1206 1098 1082 1082 1066 1066 1036 1008 1008 981 876 897 876 865 845 845 836 808 817 817 782 782 774 774 774 750 774 743 743 791 707 0 0 707 700 700 0 0 0 0 0 0 0 0 0 0 0 0 0 0 0 1989 0 0 0 383 377 379 0 521 529 525 533 533 533 0 521 493 493 477 481 477 477 462 454 457 448 443 448 443 443 443 443 0 422 420 0 408 397 395 383 391 389 391 387 383 377 377 381 387 377 379 379 379 377 383 385 375 375 369 362 364 360 359 0 0 0 0 0
    0 0 0 0 0 0 0 0 0 0 0 0 0 0 0 0 0 0 0 0 0 0 0 0 0 0 0 0 0 0 0 0 0 0 0 0 0 0 0 0 0 0 0 0 0 0 0 0 0 0 0 0 0 0 0 0 0 0 0 0 0 0 0 0 0 0 0 0 0 0 0 0 0 0 0 0 0 0 0 0 0 0 0 0 0 0 0 7359 6690 5256 0 0 0 0 0 0 0 0 0 0 0 0 0 0 0 0 0 0 0 0 0 147 147 0 0 8177 7359 5661 6133 6690 6690 7359 5661 6133 5661 6133 6690 6133 5661 5661 5661 6133 5661 7359 7359 6133 6690 6690 7359 6133 6690 6690 6133 5256 6133 6690 5661 5661 6133 6133 6133 6133 6690 6690 6133 6690 6690 6133 6690 5256 5256 5661 5256 5661 5256 5256 5661 5256 5661 5661 5256 5661 5661 5661 6133 5661 5256 5661 6133 6133 6133 4906 5256 4599 3873 4088 3504 3199 2725 1989 0 0 0 0 1247 1226 1226 1187 1168 1206 1149 1226 1115 1098 1098 1082 1082 1036 994 994 981 876 886 876 865 845 826 836 799 808 808 782 782 766 766 766 743 774 735 0 0 0 598 603 700 687 687 0 0 0 0 0 0 0 0 202 0 0 0 0 0 0 1989 0 826 0 383 377 379 0 525 529 529 537 537 537 529 529 500 490 471 477 474 474 462 451 457 446 446 448 443 443 443 440 0 422 420 413 411 397 395 385 391 389 391 385 383 377 375 381 387 379 379 379 379 377 383 389 377 379 371 364 364 362 359 0 0 0 0 0
    0 0 0 0 0 0 0 0 0 0 0 0 0 0 0 0 0 0 0 0 0 0 0 0 0 0 0 0 0 0 0 0 0 0 0 0 0 0 0 0 0 0 0 0 0 0 0 0 0 0 0 0 0 0 0 0 0 0 0 0 0 0 0 0 0 0 0 0 0 0 0 0 0 0 0 0 0 0 0 0 0 0 0 0 0 0 0 7359 6690 4906 0 0 0 0 0 0 0 0 0 0 0 0 0 0 0 0 0 0 0 0 0 0 0 0 8177 6690 6690 5661 6133 6690 6690 7359 5256 5661 5661 6133 6133 5661 5661 5661 5661 6690 5661 8177 7359 6133 6690 6133 6690 6133 6133 6133 5661 4906 6133 6133 5661 5256 6133 6133 6133 6133 6690 6690 6133 6690 6690 6133 6690 5256 4906 5256 5256 5256 4906 4906 5256 4906 5256 5661 4906 5256 5661 5661 6133 5256 5661 6133 6133 6690 6690 5661 5661 4906 4088 4088 3679 3199 2830 2374 0 1362 0 0 1247 1226 1226 1206 1168 1187 1149 1226 1132 1098 1098 1082 1082 1036 994 994 968 876 876 876 865 845 817 826 791 808 808 782 782 766 758 0 743 766 728 0 0 0 598 598 694 675 681 0 0 0 0 200 200 199 0 0 0 0 0 0 0 0 1989 0 836 0 383 377 379 0 529 533 533 537 541 541 537 537 511 490 471 474 474 471 465 451 457 446 446 448 443 443 443 440 0 422 420 413 411 397 395 385 391 389 391 385 383 379 375 381 385 379 379 379 379 379 381 391 379 383 373 364 366 364 360 0 0 0 0 0
    0 0 0 0 0 0 0 0 0 0 0 0 0 0 0 0 0 0 0 0 0 0 0 0 0 0 0 0 0 0 0 0 0 0 0 0 0 0 0 0 0 0 0 0 0 0 0 0 0 0 0 0 0 0 0 0 0 0 0 0 0 0 0 0 0 0 0 0 0 0 0 0 0 0 0 0 0 0 0 0 0 0 0 0 0 0 0 0 8177 5661 0 0 0 0 0 0 0 0 0 0 0 0 0 0 0 0 0 0 0 0 0 0 0 0 8177 6133 6690 6133 6133 6690 6690 7359 4906 5661 5256 5661 6133 5661 5256 5661 5661 6690 5661 7359 7359 6133 6690 6133 6133 5661 6133 6133 5256 5256 5661 6133 5661 5256 6133 5661 6133 6133 6133 6133 5661 6133 6690 6133 6133 4906 4906 5256 4906 5256 4906 4906 5256 4906 5256 5256 4906 5256 5256 5256 5661 5256 5661 6133 6690 6690 6690 5661 6133 5256 4329 4329 3873 3345 2943 2725 0 0 0 0 1226 1226 1206 1187 1168 1187 1132 1226 1132 1115 1098 1082 1082 1036 981 981 955 876 876 876 865 855 817 826 791 799 808 782 782 766 766 774 750 766 728 0 0 0 598 603 687 663 675 0 0 0 0 200 200 199 0 0 0 0 0 0 1711 0 2102 0 845 826 383 377 379 377 533 541 537 541 545 545 541 545 521 487 471 471 471 471 465 448 457 446 446 448 443 443 443 440 0 425 420 411 411 397 395 385 389 389 391 385 383 379 373 381 385 379 379 379 379 379 381 389 377 381 375 366 367 362 359 0 0 0 0 0
    0 0 0 0 0 0 0 0 0 0 0 0 0 0 0 0 0 0 0 0 0 0 0 0 0 0 0 0 0 0 0 0 0 0 0 0 0 0 0 0 0 0 0 0 0 0 0 0 0 0 0 0 0 0 0 0 0 0 0 0 0 0 0 0 0 0 0 0 0 0 0 0 0 0 0 0 0 0 0 0 0 0 0 0 0 0 0 0 0 6690 0 0 0 0 0 0 0 0 0 0 0 0 0 0 0 0 0 0 0 0 0 8177 0 0 0 7359 6690 6690 6690 7359 6690 7359 4906 5661 5256 5661 6133 5661 5661 6133 5661 7359 6133 8177 7359 7359 7359 6690 6690 6133 6133 6690 5661 5661 6133 6133 5661 5256 5661 5256 5661 5661 5661 5661 5661 6133 6133 5661 6133 4906 4906 4906 4906 5256 4906 4906 5256 4906 5661 5661 5256 5256 5661 5661 5661 5256 5661 6133 6133 6133 5661 5256 5661 5256 4599 4599 3873 3504 3066 2943 0 0 0 0 1226 1206 1187 1187 1168 1187 1132 1206 1132 1115 1115 1098 1066 1036 968 968 955 886 865 876 865 855 817 826 791 799 799 791 791 766 766 774 750 758 0 0 0 0 0 608 687 657 669 0 669 0 0 0 0 0 0 0 0 0 0 0 1672 1635 2299 0 855 836 381 375 377 377 537 545 541 545 549 549 545 561 525 484 471 471 471 471 465 448 457 448 448 448 443 443 443 440 0 422 415 411 411 397 397 385 389 389 391 385 381 379 373 381 385 379 381 379 379 379 381 391 377 381 377 366 367 364 359 0 0 0 0 0
    0 0 0 0 0 0 0 0 0 0 0 0 0 0 0 0 0 0 0 0 0 0 0 0 0 0 0 0 0 0 0 0 0 0 0 0 0 0 0 0 0 0 0 0 0 0 0 0 0 0 0 0 0 0 0 0 0 0 0 0 0 0 0 0 0 0 0 0 0 0 0 0 0 0 0 0 0 0 0 0 0 0 0 0 0 0 0 0 0 8177 0 0 0 0 0 0 0 0 0 0 0 0 0 0 0 0 0 0 0 0 0 8177 8177 0 0 8177 7359 6690 7359 7359 8177 8177 4906 5661 5256 5661 6133 5661 5661 6133 5661 7359 6133 7359 7359 6690 6690 6690 6133 6133 6133 6690 5661 5661 5661 6133 5661 5256 5661 5256 5256 5661 5661 5661 5256 5661 5661 5661 6133 5256 5256 5256 5256 5256 5256 5256 5661 5256 5661 5661 5661 5661 5661 5661 5661 5256 5256 5661 6133 5661 5256 5256 5256 5661 4599 4599 4088 3679 3199 3066 0 0 0 0 1206 1187 1187 1187 1168 1168 1149 1206 1132 1115 1132 1098 1066 1036 968 968 943 886 865 876 865 855 817 826 791 799 799 791 791 774 766 0 0 750 0 0 0 0 0 0 687 657 669 0 669 0 0 0 0 0 0 0 634 0 0 1711 1672 1599 2299 0 855 845 379 373 375 0 541 545 545 549 549 553 553 579 533 481 471 468 468 471 468 448 459 451 451 448 443 443 443 440 435 425 415 411 413 399 399 385 389 391 391 385 381 381 373 381 385 379 381 381 381 381 381 391 377 381 379 366 367 362 355 0 0 0 0 0
    0 0 0 0 0 0 0 0 0 0 0 0 0 0 0 0 0 0 0 0 0 0 0 0 0 0 0 0 0 0 0 0 0 0 0 0 0 0 0 0 0 0 0 0 0 0 0 0 0 0 0 0 0 0 0 0 0 0 0 0 0 0 0 0 0 0 0 0 0 0 0 0 0 0 0 0 0 0 0 0 0 0 0 0 0 0 0 0 0 0 0 0 0 0 0 0 0 0 0 0 0 0 0 0 0 0 0 0 0 0 0 8177 8177 0 0 7359 7359 6690 7359 7359 8177 7359 4329 5256 4906 5256 6133 5661 5661 6133 5661 7359 6133 7359 7359 6690 6690 6690 6133 6133 6133 7359 5661 6133 6133 6133 5661 5661 5661 5256 5256 5661 5661 5661 5661 5661 5661 5661 5661 5661 5256 5256 5256 5256 5256 4906 5661 5256 5256 5256 5256 5256 5256 5256 5256 5256 5256 5661 6133 5661 4906 5256 5256 5661 4906 4599 4329 3679 3199 3066 0 0 0 0 1206 1168 1168 1187 1168 1168 1149 1187 1132 1115 1132 1098 1051 1036 968 955 943 897 865 876 865 865 817 826 799 791 799 799 791 774 766 0 0 0 0 0 0 0 0 0 687 657 669 687 669 669 657 657 663 645 0 0 634 639 0 1711 1672 1599 0 0 855 855 0 371 371 0 545 549 549 549 557 561 561 593 541 0 471 465 468 468 468 446 459 451 451 448 443 443 443 440 435 425 415 413 415 404 402 389 391 391 391 387 381 381 373 381 387 381 381 381 381 381 379 391 375 379 375 366 366 360 353 0 0 0 0 0
    0 0 0 0 0 0 0 0 0 0 0 0 0 0 0 0 0 0 0 0 0 0 0 0 0 0 0 0 0 0 0 0 0 0 0 0 0 0 0 0 0 0 0 0 0 0 0 0 0 0 0 0 0 0 0 0 0 0 0 0 0 0 0 0 0 0 0 0 0 0 0 0 0 0 0 0 0 0 0 0 0 0 0 0 0 0 0 0 0 0 0 0 0 0 0 0 0 0 0 0 0 0 0 0 0 0 0 0 0 0 0 8177 0 0 8177 6690 6133 5661 5661 6133 6690 6133 3873 4906 4599 5256 6133 6133 5661 6690 6133 7359 6690 7359 7359 6690 6690 6690 6133 6690 6690 7359 6133 6133 6133 5661 5661 5256 5661 5256 5256 5661 5256 5661 5661 5661 6133 5661 5661 5661 5256 5256 5256 5256 5256 4906 5661 5256 5256 5256 5256 5256 5256 5256 5256 5256 5256 6133 6133 5661 4906 5256 5256 5661 4906 4599 4329 3873 3345 3199 2537 0 0 0 1226 1168 1168 1187 1168 1168 1132 1187 1132 1098 1132 1098 1051 1022 968 955 955 908 865 886 876 865 826 836 808 799 808 799 791 774 758 0 0 0 0 0 0 0 0 0 687 663 675 687 669 669 651 657 657 645 0 0 634 639 645 1795 1711 1599 0 0 855 855 0 369 371 0 549 553 549 553 561 570 566 603 0 0 468 462 465 465 468 446 459 454 454 448 443 440 440 440 435 422 415 413 415 404 402 391 391 393 391 387 381 381 373 381 385 381 381 381 381 381 379 391 377 379 375 366 366 362 355 0 0 0 0 0
    0 0 0 0 0 0 0 0 0 0 0 0 0 0 0 0 0 0 0 0 0 0 0 0 0 0 0 0 0 0 0 0 0 0 0 0 0 0 0 0 0 0 0 0 0 0 0 0 0 0 0 0 0 0 0 0 0 0 0 0 0 0 0 0 0 0 0 0 0 0 0 0 0 0 0 0 0 0 0 0 0 0 0 0 0 0 0 0 0 0 0 0 0 0 0 0 0 0 0 0 0 0 0 0 0 0 0 0 0 0 0 0 0 0 8177 6690 6133 6133 6690 7359 8177 6690 3873 5256 4599 5256 6133 6690 6133 6690 6133 7359 6690 7359 7359 6690 6133 6133 6133 6133 6133 6690 6133 6133 6133 5661 5661 5256 5661 5256 5256 5661 5661 5661 6133 6133 6133 5661 5661 5661 5661 5256 5256 5256 5256 4906 5661 5256 4906 4906 5256 5256 4906 5256 5256 4906 4906 5661 5661 4906 4329 4906 4906 5256 4329 4088 4088 3873 3345 3345 2628 0 0 0 1247 1168 1168 1206 1187 1168 1149 1168 1132 1098 1115 1098 0 0 968 955 955 919 876 897 886 886 845 855 826 808 817 808 791 782 766 0 0 0 0 0 0 0 0 0 687 663 675 694 0 0 651 657 657 645 645 629 639 645 645 0 1711 0 0 743 845 845 808 367 0 0 549 553 549 557 561 574 570 608 0 0 462 459 465 462 465 446 462 457 457 448 443 440 440 438 435 422 413 413 415 404 402 391 391 393 391 387 381 381 373 381 385 381 379 381 381 381 379 389 377 377 373 366 367 364 357 0 0 0 0 0
    0 0 0 0 0 0 0 0 0 0 0 0 0 0 0 0 0 0 0 0 0 0 0 0 0 0 0 0 0 0 0 0 0 0 0 0 0 0 0 0 0 0 0 0 0 0 0 0 0 0 0 0 0 0 0 0 0 0 0 0 0 0 0 0 0 0 0 0 0 0 0 0 0 0 0 0 0 0 0 0 0 0 0 0 0 0 0 0 0 0 0 0 8177 9199 0 0 8177 0 0 0 0 0 0 0 0 0 0 0 0 0 0 0 7359 0 7359 6133 5256 5256 6690 7359 8177 6690 3873 5256 4906 5256 6690 6690 6133 6690 6133 7359 6690 6690 6690 6133 5661 6133 5661 6133 5661 6133 6133 6133 5661 5661 5661 5256 5661 5256 5256 5661 5661 5661 6133 6133 6133 5661 5661 5661 5661 5661 5661 5256 5256 5256 5661 5661 5256 5256 5256 5256 5256 5256 5256 5256 4906 5661 5661 4906 4088 4599 4599 4906 4329 4088 4329 3873 3504 3345 2628 0 0 0 0 0 1168 1206 1187 1168 1149 1168 1132 1098 1115 1098 0 0 968 968 968 931 886 908 897 897 855 876 836 0 0 817 799 791 766 393 393 393 0 0 0 0 0 0 687 669 681 700 0 0 645 657 657 645 645 629 634 645 645 0 0 0 0 743 0 845 799 362 283 561 553 553 549 557 0 579 574 0 0 0 457 454 462 459 465 446 462 459 459 448 443 440 440 438 435 420 411 411 413 404 402 391 391 393 391 387 381 381 375 381 385 383 379 379 381 379 379 389 377 375 371 366 366 360 357 0 0 0 0 0
    0 0 0 0 0 0 0 0 0 0 0 0 0 0 0 0 0 0 0 0 0 0 0 0 0 0 0 0 0 0 0 0 0 0 0 0 0 0 0 0 0 0 0 0 0 0 0 0 0 0 0 0 0 0 0 0 0 0 0 0 0 0 0 0 0 0 0 0 0 0 0 0 0 0 0 0 0 0 0 0 0 0 0 0 0 0 0 0 0 0 0 8177 8177 8177 0 0 8177 0 0 0 0 0 0 0 0 0 0 0 0 9199 0 7359 6690 7359 6133 5661 4599 4906 6690 7359 8177 7359 4599 5661 5256 5661 7359 7359 6690 7359 6690 7359 6690 6690 7359 6133 5661 6133 5661 6133 5661 6133 6133 5661 5661 5661 5661 5256 5256 4906 5256 5256 5661 5661 6133 6133 6133 6133 6133 5661 5661 5661 5661 5661 5256 5256 5661 6133 5256 5256 5256 5256 5256 5661 5256 5256 4906 5661 6133 4906 4329 4599 4599 4906 4329 4329 4599 3873 3504 3504 2725 0 0 0 0 1168 1187 1206 1206 1187 1168 1168 1132 1098 1132 1115 0 1036 0 968 968 943 886 908 908 908 865 897 845 836 0 826 799 799 774 393 395 393 0 0 0 0 0 675 687 675 681 0 0 0 645 657 663 651 645 634 634 645 651 0 0 0 0 743 0 845 0 357 284 561 553 553 553 561 0 584 0 0 0 0 0 451 459 454 465 448 465 462 462 451 446 440 440 440 435 418 408 408 411 402 399 391 389 391 391 389 383 383 375 379 383 381 379 379 379 379 377 387 377 375 371 366 366 360 357 0 0 0 0 0
    0 0 0 0 0 0 0 0 0 0 0 0 0 0 0 0 0 0 0 0 0 0 0 0 0 0 0 0 0 0 0 0 0 0 0 0 0 0 0 0 0 0 0 0 0 0 0 0 0 0 0 0 0 0 0 0 0 0 0 0 0 0 0 0 0 0 0 0 0 0 0 0 0 0 0 0 0 0 0 0 0 0 0 0 0 0 0 0 0 0 0 8177 7359 8177 0 0 8177 0 0 0 0 0 0 0 0 0 0 0 0 8177 0 7359 6690 7359 6133 6133 4906 4906 7359 6690 0 7359 5661 6133 6133 5661 8177 8177 7359 7359 6690 7359 6690 6690 7359 6690 5661 6133 5661 6133 6133 6690 6690 5661 5661 5661 5256 5661 5661 5256 5256 5661 5661 5661 6133 6133 6133 6133 6133 5661 5661 5661 6133 5661 5661 5661 5661 6133 5661 5256 5256 5256 5256 5661 5661 5661 5256 5661 6133 5256 4088 4599 4599 4906 4088 4329 4329 3873 3679 3679 2943 0 0 0 0 1168 1168 1206 1226 1187 1168 1149 1132 1098 1132 1115 0 1036 0 981 981 955 897 908 908 908 876 908 855 836 836 836 799 799 774 0 0 0 0 0 0 0 0 681 687 675 687 0 0 0 651 657 663 657 657 639 639 651 657 694 0 0 0 750 0 0 0 353 0 561 557 557 553 566 0 0 0 0 0 0 0 451 459 454 468 448 471 468 468 454 448 440 440 440 438 415 406 406 408 399 399 389 389 391 389 389 383 383 375 379 383 381 377 379 379 379 377 385 379 375 371 364 362 359 355 0 0 0 0 0
    0 0 0 0 0 0 0 0 0 0 0 0 0 0 0 0 0 0 0 0 0 0 0 0 0 0 0 0 0 0 0 0 0 0 0 0 0 0 0 0 0 0 0 0 0 0 0 0 0 0 0 0 0 0 0 0 0 0 0 0 0 0 0 0 0 0 0 0 0 0 0 0 0 0 0 0 0 0 0 0 0 0 0 0 0 0 0 0 0 0 8177 8177 7359 8177 0 0 8177 0 0 0 0 0 0 0 0 0 0 0 0 8177 0 7359 6133 7359 6690 6133 5256 4599 7359 5661 6690 6690 5661 5661 5661 5256 8177 8177 7359 8177 7359 8177 7359 7359 7359 6690 6133 6690 5661 6133 6133 6690 6690 5661 5661 5661 5256 5661 5661 5256 5661 5661 6133 6133 6133 6690 6133 6133 6133 5661 5661 5661 6133 5661 5661 5661 5661 6133 5661 5256 5256 5256 5256 5661 5661 5661 5256 5661 6133 5256 4088 4599 4599 4599 4088 4329 4088 4088 3504 3679 3066 2453 0 0 0 1168 1168 1206 1226 1187 1168 1149 1132 1098 1132 1115 1051 1036 0 981 994 955 897 919 908 908 876 919 865 836 836 836 799 799 774 0 750 0 0 0 0 0 0 0 687 681 687 0 0 675 651 657 663 663 657 639 639 657 663 694 0 0 0 0 0 0 0 350 0 566 557 557 557 570 0 0 0 0 0 0 0 451 462 454 471 454 474 471 471 457 448 440 440 440 438 418 406 406 408 397 397 389 387 389 389 389 383 383 375 377 383 381 377 379 379 377 377 385 383 375 375 366 362 359 357 0 0 0 0 0
    0 0 0 0 0 0 0 0 0 0 0 0 0 0 0 0 0 0 0 0 0 0 0 0 0 0 0 0 0 0 0 0 0 0 0 0 0 0 0 0 0 0 0 0 0 0 0 0 0 0 0 0 0 0 0 0 0 0 0 0 0 0 0 0 0 0 0 0 0 0 0 0 0 0 0 0 0 0 0 0 0 0 0 0 0 0 0 0 0 0 8177 8177 8177 0 0 0 8177 0 0 0 0 0 0 0 0 0 0 0 0 6690 7359 6690 4906 5661 5661 5256 4906 4906 7359 5661 6690 6690 5661 5661 6690 4906 7359 7359 6690 8177 7359 7359 7359 6690 8177 6690 6133 6690 5661 6690 6133 6133 6133 5256 5661 5661 5256 5661 5661 5256 5661 5661 6133 5661 6690 6690 6133 6133 6133 5661 5661 5661 6133 5661 5661 5661 5661 6133 5661 5256 5256 5256 5256 5661 5661 6133 5661 5661 6690 6690 4329 4906 4906 4906 4088 4329 4088 3873 3504 3679 3066 2830 0 0 0 1149 1168 1206 1226 1187 1168 1149 1132 1098 1132 1115 1066 1051 0 994 994 955 908 919 908 908 886 919 865 836 836 836 791 791 766 0 758 728 0 0 0 0 0 0 687 681 687 0 0 675 651 657 657 663 663 639 639 657 663 694 0 0 0 0 0 0 0 352 0 0 561 561 557 570 0 0 0 0 0 0 0 0 0 462 477 459 477 474 474 459 454 443 443 443 438 420 408 408 408 397 397 389 387 391 389 389 383 383 377 377 383 381 377 379 379 377 377 385 387 377 375 366 362 359 357 0 0 0 0 0
    0 0 0 0 0 0 0 0 0 0 0 0 0 0 0 0 0 0 0 0 0 0 0 0 0 0 0 0 0 0 0 0 0 0 0 0 0 0 0 0 0 0 0 0 0 0 0 0 0 0 0 0 0 0 0 0 0 0 0 0 0 0 0 0 0 0 0 0 0 0 0 0 0 0 0 0 0 0 0 0 0 0 0 0 0 0 0 0 0 0 8177 8177 8177 0 0 0 8177 8177 0 0 0 0 0 0 0 0 0 0 0 7359 7359 7359 4906 4906 5256 4599 4599 5256 6690 5661 6133 6133 5661 5661 6690 4599 6133 6690 6133 7359 6690 7359 7359 6690 8177 6690 6133 6690 6133 6690 6133 6133 6133 4906 5661 5661 5256 5661 5661 5256 5661 5661 6133 5661 6133 6133 6133 5661 6133 5661 5661 6133 6133 5661 5661 5661 5661 6133 5661 5661 5256 5256 5256 6133 6133 6133 5661 5661 6690 6690 4599 4906 4906 4599 3873 4329 4088 3873 3679 3873 3199 3066 0 0 0 1132 1168 1206 1226 1187 1187 1149 1149 1098 1132 1115 1066 1051 0 994 994 955 897 908 908 908 876 908 855 836 836 836 791 791 766 774 758 735 3679 3504 0 0 0 0 0 687 694 206 206 675 651 651 657 0 663 645 639 657 669 687 0 0 0 735 750 782 0 353 0 0 566 561 557 566 0 0 0 0 0 454 0 0 0 468 481 468 484 477 474 462 457 448 448 446 440 420 411 408 408 399 397 391 387 389 389 391 383 383 377 375 383 383 377 379 379 379 377 383 389 379 377 366 362 359 353 0 0 0 0 0
    0 0 0 0 0 0 0 0 0 0 0 0 0 0 0 0 0 0 0 0 0 0 0 0 0 0 0 0 0 0 0 0 0 0 0 0 0 0 0 0 0 0 0 0 0 0 0 0 0 0 0 0 0 0 0 0 0 0 0 0 0 0 0 0 0 0 0 0 0 0 0 0 0 0 0 0 0 0 0 0 0 0 0 0 0 0 0 0 8177 8177 7359 7359 7359 8177 0 8177 8177 8177 0 0 0 0 0 0 0 0 0 0 0 8177 8177 8177 5661 4906 5256 4906 4906 5256 6690 5661 5661 6133 5661 5256 6690 4088 5661 6133 5661 6690 6690 6690 6690 6133 7359 6690 5661 6690 5661 6133 5661 5661 6133 4906 5661 5256 5256 5256 5661 5256 5256 5661 6133 5661 6133 6133 6133 5661 6133 5661 5256 5661 5661 5661 5256 5661 5661 5661 5661 5661 5256 5661 5661 6133 6133 6690 6133 6133 6690 6690 4906 5256 5256 4599 4088 4329 3873 3873 3679 4088 3345 3199 0 0 0 1149 1168 1206 1247 1187 1187 1149 1168 1098 1132 1115 1066 1051 0 994 994 955 897 897 897 897 876 908 855 826 826 826 791 791 766 774 766 735 3873 3679 0 0 0 0 0 0 694 0 0 669 651 645 657 663 663 645 639 657 669 687 0 0 694 0 743 766 0 355 0 0 566 561 557 566 0 0 566 0 0 459 0 0 471 471 481 474 484 481 474 462 459 451 451 448 443 425 411 408 408 399 397 391 385 389 389 391 383 383 377 375 381 383 379 379 379 379 379 383 391 379 379 366 364 360 355 0 0 0 0 0
    0 0 0 0 0 0 0 0 0 0 0 0 0 0 0 0 0 0 0 0 0 0 0 0 0 0 0 0 0 0 0 0 0 0 0 0 0 0 0 0 0 0 0 0 0 0 0 0 0 0 0 0 0 0 0 0 0 0 0 0 0 0 0 0 0 0 0 0 0 0 0 0 0 0 0 0 0 0 0 0 0 0 0 0 8177 7359 7359 8177 7359 7359 6690 6690 6690 8177 0 8177 7359 7359 8177 0 0 0 0 0 0 0 0 0 0 8177 7359 8177 5661 4599 5256 4906 5256 5661 6690 5661 5256 6133 5661 5256 6690 3873 5256 5661 5661 6690 6133 6133 6133 5661 7359 6133 5661 6133 5256 5661 5256 5661 5661 4599 5256 4906 4906 5256 5661 5256 5256 5661 6133 5661 6133 6133 6133 5661 6133 5661 5256 5661 5661 5661 5256 5661 5661 5661 5661 5661 5661 5661 5661 6133 6133 6690 6133 6133 6133 6690 5256 5256 5256 4599 4329 4599 4088 3873 3679 4088 3679 3504 0 0 0 0 0 1226 1247 1187 1206 1149 1168 1115 1132 1132 1082 1066 0 1008 1008 968 886 886 886 886 865 886 845 817 826 826 791 791 766 782 774 743 4329 3873 0 0 0 0 0 0 0 0 0 669 651 645 651 663 663 645 639 657 669 681 0 694 687 0 728 743 0 357 0 0 570 561 557 561 570 574 557 0 0 462 0 462 471 471 477 474 481 477 471 462 459 451 451 451 443 427 413 408 406 402 395 391 385 389 389 391 383 383 379 375 381 385 379 379 381 379 377 381 391 377 379 366 364 359 353 0 0 0 0 0
    0 0 0 0 0 0 0 0 0 0 0 0 0 0 0 0 0 0 0 0 0 0 0 0 0 0 0 0 0 0 0 0 0 0 0 0 0 0 0 0 0 0 0 0 0 0 0 0 0 0 0 0 0 0 0 0 0 0 0 0 0 0 0 0 0 0 0 0 0 8177 0 0 0 0 0 0 0 0 0 0 0 0 0 0 0 7359 7359 8177 6690 6690 6133 6690 6690 7359 7359 7359 7359 6690 7359 0 0 0 0 0 0 0 0 0 0 7359 6690 6690 5256 4599 5256 5256 5661 5661 6690 5661 6133 6133 6133 5256 6690 3679 5256 5256 5661 6690 6133 6133 6133 6133 7359 6690 6133 6133 5256 5661 5661 5661 5661 4906 5256 4906 4906 4906 5256 5256 5256 5661 5661 5661 6133 6133 6133 5661 6133 6133 5256 5661 5661 5661 5256 5661 5661 5661 5661 5661 5661 5661 5661 6133 5661 6133 5661 6133 6133 6133 5661 5256 5256 5256 4906 4906 4088 3873 3679 4088 3679 3679 0 0 0 0 0 1226 1247 1187 1206 1149 1187 1132 1149 1132 1098 1066 0 0 1008 968 886 876 865 876 855 876 836 808 817 817 791 791 766 782 774 743 0 0 743 750 728 0 0 0 0 0 0 669 651 639 651 663 663 651 645 657 669 675 694 681 675 0 0 0 0 0 0 561 570 561 561 561 566 570 0 0 0 465 0 462 471 471 474 474 477 477 471 462 459 451 451 451 446 432 415 408 404 402 395 391 383 389 389 391 383 383 379 375 383 385 379 379 379 379 377 379 391 373 377 364 360 357 350 0 0 0 0 0
    0 0 0 0 0 0 0 0 0 0 0 0 0 0 0 0 0 0 0 0 0 0 0 0 0 0 0 0 0 0 0 0 0 0 0 0 0 0 0 0 0 0 0 0 0 0 0 0 0 0 0 0 0 0 0 0 0 0 0 0 0 0 0 0 0 0 0 0 0 7359 7359 8177 8177 0 7359 8177 0 0 0 0 0 0 0 0 0 7359 7359 7359 6690 6133 6133 6133 6133 6690 6690 6690 6690 6133 6690 7359 8177 0 0 0 0 0 0 0 0 7359 6690 6133 4906 4599 5661 6133 6690 6690 7359 6690 7359 7359 7359 6133 6690 4088 4906 5256 5661 6690 6133 6133 6133 6133 6690 6133 6133 6133 5256 5661 5661 5661 5256 5256 5256 4906 4906 4906 5256 5256 4906 5661 5661 5661 6133 6133 6133 5661 6133 6133 5661 5661 6133 5661 5256 5661 5256 5256 5661 5256 5256 5256 5256 5661 5661 6133 5661 6133 6133 6133 5661 5256 5661 5661 4906 4906 3873 3873 3679 4088 3679 3873 0 0 0 1187 0 0 1247 1168 1206 1149 1187 1132 1149 1132 1115 1082 0 0 0 968 876 865 855 855 855 855 826 799 808 808 791 791 774 782 782 758 0 0 743 758 735 735 0 0 700 714 0 663 651 639 651 663 663 651 645 657 669 663 694 675 663 0 0 0 0 0 553 557 574 561 566 566 570 570 0 0 0 465 0 462 471 471 474 474 474 474 468 462 459 454 454 454 446 438 418 411 404 402 395 391 383 389 389 391 385 385 381 375 383 385 379 381 381 379 379 379 393 375 379 364 360 357 350 0 0 0 0 0
    0 0 0 0 0 0 0 0 0 0 0 0 0 0 0 0 0 0 0 0 0 0 0 0 0 0 0 0 0 0 0 0 0 0 0 0 0 0 0 0 0 0 0 0 0 0 0 0 0 0 0 0 0 0 0 0 0 0 0 0 0 0 0 0 0 0 0 0 0 7359 6690 7359 8177 8177 8177 8177 0 0 0 0 0 0 0 0 8177 6690 6690 6690 6133 5661 5661 6133 6133 6690 6133 6690 6690 6133 6133 7359 7359 8177 8177 0 0 0 0 0 0 7359 6690 5661 4906 4906 5661 6690 6690 6133 7359 6690 7359 6690 6690 6133 6690 4329 4906 4906 5256 6133 6133 5661 6133 5661 6690 6133 6133 6133 5256 5661 6133 5661 5256 5256 5256 4906 5256 4906 5661 5256 4906 5661 5661 5256 6133 6133 6133 5661 6133 6133 5661 6133 6690 6133 6133 6133 5661 5256 5661 5256 5256 5256 5256 5256 5256 5661 5661 5661 6133 6133 5256 5256 5256 5256 4599 4599 3873 3873 3504 4088 3504 4088 0 0 0 1206 0 0 0 1168 1206 1149 1206 1132 1149 1132 1115 1082 0 0 0 968 876 855 855 855 845 845 826 791 808 808 791 791 774 782 791 766 0 743 758 774 743 743 714 0 700 714 0 657 651 639 645 663 657 651 645 657 669 657 0 675 663 0 0 533 533 0 553 557 570 561 566 566 570 570 0 0 0 465 0 462 471 471 474 477 468 474 468 462 457 451 451 451 446 438 422 413 404 406 395 393 383 389 389 391 385 385 383 375 383 387 381 381 381 381 379 381 393 375 379 366 360 357 348 0 0 0 0 0
    0 0 0 0 0 0 0 0 0 0 0 0 0 0 0 0 0 0 0 0 0 0 0 0 0 0 0 0 0 0 0 0 0 0 0 0 0 0 0 0 0 0 0 0 0 0 0 0 0 0 0 0 0 0 0 0 0 0 0 0 0 0 0 0 0 0 0 0 0 6690 6133 6690 7359 8177 7359 8177 0 0 0 0 0 0 0 0 7359 6133 6133 5661 5661 5256 4906 5661 5661 6690 6133 6133 6690 6133 6133 6690 6690 8177 7359 0 0 0 7359 0 8177 6690 6690 6133 5256 5256 5256 6690 6690 6133 7359 6133 6690 6690 6133 6133 6133 4599 4906 4599 5256 5661 5661 5256 5661 5661 6690 6133 6133 5661 5256 5661 6133 5661 5661 5661 5661 4906 5256 4906 5256 5256 4906 5661 5661 5256 5661 5661 6133 5661 6133 6133 5661 6690 6690 6690 6133 6133 6133 5661 6133 5661 5661 5256 5256 5256 5256 5661 5256 5661 6133 5661 4906 4906 5256 5256 4906 4599 3873 3873 3504 4088 3504 4329 0 0 0 1226 0 0 0 1168 1206 1149 1206 1132 1132 1132 1115 1082 0 1008 1008 955 865 855 845 845 845 826 817 791 808 808 799 799 782 791 799 782 0 758 766 782 758 750 721 707 707 714 0 651 651 639 645 657 657 657 645 657 669 663 0 0 669 0 0 537 537 0 553 553 566 557 561 561 566 566 0 0 0 0 0 459 471 474 477 477 462 471 465 459 457 451 451 451 446 440 425 418 408 408 397 395 383 389 391 393 385 383 383 375 383 387 383 383 383 383 381 381 393 377 383 366 360 359 352 0 0 0 0 0
    0 0 0 0 0 0 0 0 0 0 0 0 0 0 0 0 0 0 0 0 0 0 0 0 0 0 0 0 0 0 0 0 0 0 0 0 0 0 0 0 0 0 0 0 0 0 0 0 0 0 0 0 0 0 0 0 0 0 0 0 0 0 0 0 0 0 0 0 0 4906 4906 4599 5661 6690 5661 6690 0 0 0 0 0 0 0 0 7359 5661 5661 5256 5661 4906 4906 5256 5256 6133 5661 6133 6133 5661 5661 6690 6133 6690 6133 8177 8177 8177 6133 0 0 5661 6133 6133 5661 5256 4906 6690 6690 6133 7359 6690 7359 6690 6690 6690 6690 4906 4906 4599 4906 5661 5661 4906 5661 5661 6133 5661 6133 5661 5256 5661 6133 5661 5256 5661 5256 4906 5256 4906 5256 5256 4906 5661 5256 5256 5661 6133 6133 5661 6133 6690 6133 6690 7359 6690 6133 6133 6133 5661 6133 5661 5661 5256 5256 5256 5256 5661 5256 5256 5661 5256 4599 4599 4906 5256 4599 4599 4088 3873 3504 3873 3199 4906 0 0 0 0 0 0 0 1168 1206 1149 1187 1132 1132 1132 1115 1082 0 1008 994 955 865 836 845 845 845 817 817 791 799 808 799 808 791 791 0 0 0 0 774 0 766 758 728 714 714 714 0 0 651 639 645 657 657 651 645 657 675 663 0 0 675 0 0 537 537 541 553 549 561 557 557 557 561 561 0 0 0 0 0 462 471 0 477 477 459 468 462 457 454 448 448 448 446 440 425 420 408 413 397 397 385 391 391 393 385 383 383 375 383 387 383 383 383 381 381 381 393 375 377 366 360 359 353 0 0 0 0 0
    0 0 0 0 0 0 0 0 0 0 0 0 0 0 0 0 0 0 0 0 0 0 0 0 0 0 0 0 0 0 0 0 0 0 0 0 0 0 0 0 0 0 0 0 0 0 0 0 0 0 0 0 0 0 0 0 0 0 0 0 0 0 0 0 0 0 0 0 0 3679 3679 3504 3873 5256 4088 4329 7359 8177 0 0 0 8177 7359 6690 6133 4906 4599 4329 4906 4329 4329 4906 4906 5661 5256 5661 6133 5661 5661 5661 5256 6133 5256 6690 6133 6133 4906 0 0 4599 5661 5256 4906 4906 4599 6690 6133 6133 6690 6690 7359 6690 6133 6690 6690 5256 5256 4599 4906 5256 5661 4906 5661 5661 6133 5661 6133 5661 5661 5661 6133 5661 5661 5661 5661 4906 5256 4906 5256 5256 4906 5661 5661 5256 6133 6133 6690 6133 6690 6690 6133 6690 7359 6690 6690 6133 6133 5661 5661 5256 5661 5256 5256 5256 5256 5661 5256 5661 5661 5661 4599 4906 4906 4906 4599 4329 4088 3679 3345 3679 2830 0 0 0 0 0 0 0 0 1187 1206 1149 1187 1132 1115 1132 1115 1082 1082 1008 994 968 865 836 836 845 836 817 817 791 799 808 808 808 791 791 0 0 0 0 0 0 766 758 735 714 707 714 0 0 651 639 645 657 657 657 651 657 675 663 0 0 0 0 0 537 541 541 553 549 557 553 553 553 557 557 0 0 0 0 0 0 471 0 477 481 457 468 459 457 451 448 448 448 446 440 425 420 411 415 402 399 387 391 391 393 385 383 383 375 383 387 383 383 381 381 381 379 393 373 377 366 360 359 355 0 0 0 0 0
    0 0 0 0 0 0 0 0 0 0 0 0 0 0 0 0 0 0 0 0 0 0 0 0 0 0 0 0 0 0 0 0 0 0 0 0 0 0 0 0 0 0 0 0 0 0 0 0 0 0 0 0 0 0 0 0 0 0 0 0 0 0 0 0 0 0 0 0 0 3504 3679 3679 3873 4906 4088 3873 6690 6690 7359 6690 6690 6690 6133 5661 5256 4088 3873 3679 4088 3873 3873 4599 4329 5256 4906 5661 5661 5256 5256 5256 4906 5661 4906 6133 5661 5661 4599 3679 4906 3873 4906 4329 4088 4329 3873 6133 6133 6133 6690 6133 6690 6690 6690 6690 6690 5661 5661 4906 4906 5256 6133 5256 6133 6133 6133 6133 6133 5661 5661 5661 6133 5661 5661 5661 5661 5256 5256 5256 4906 5256 4906 5661 5256 5256 6133 6133 6690 6690 6690 7359 6690 7359 7359 6690 6690 6133 5661 5661 5661 5256 5661 5256 5256 5256 5256 5661 5256 5661 6133 6133 5256 5256 5256 5256 4599 4329 4088 3679 3345 3504 2628 0 0 0 0 0 0 0 0 1187 1206 1168 1187 1132 1115 1132 1115 1082 1082 1008 994 968 876 836 845 845 845 817 817 799 799 808 808 808 799 791 0 0 0 0 0 0 0 0 0 0 0 0 0 0 657 645 651 657 663 663 651 657 675 663 0 0 0 0 0 541 545 545 557 549 557 553 553 553 557 557 0 0 0 0 0 0 0 0 0 481 457 471 462 457 451 446 446 446 443 438 425 420 413 418 402 399 389 391 393 393 387 383 383 375 383 387 383 381 381 381 379 379 391 373 375 366 362 362 359 0 0 0 0 0
    0 0 0 0 0 0 0 0 0 0 0 0 0 0 0 0 0 0 0 0 0 0 0 0 0 0 0 0 0 0 0 0 0 0 0 0 0 0 0 0 0 0 0 0 0 0 0 0 0 0 0 0 0 0 0 0 0 0 0 0 0 0 0 0 0 0 0 0 0 3504 3679 3504 3873 3873 3679 3504 5661 5661 6133 6133 6133 6133 5661 5661 4906 3873 3679 3679 3873 3679 3679 4088 3873 4906 4329 5256 5256 4599 4906 4906 4599 4906 4599 5661 4906 4906 4088 3504 4599 3679 4599 4088 3873 4088 3873 6133 5661 5661 6690 6133 6690 6690 6133 6690 6133 6133 5661 4599 5256 5256 6133 5256 6133 6133 6133 6133 6133 5661 5661 5661 6133 5256 5256 5661 5256 4906 5256 5256 4906 4906 4906 5661 5256 5256 6133 6133 6690 6690 7359 7359 6690 7359 7359 6690 6690 6133 6133 5661 6133 5661 5661 5256 5256 5256 5661 6133 5661 6133 6690 6133 5256 5661 5661 5661 4906 4599 4329 3679 3345 3345 2453 0 0 0 0 0 0 0 0 1206 1187 1168 1168 1132 1115 1132 1132 1082 1082 1022 994 981 897 845 865 865 855 826 826 808 808 808 817 808 799 791 0 0 0 0 0 0 0 0 0 0 0 0 0 0 0 645 657 657 663 663 657 657 675 663 0 0 0 0 0 541 545 545 557 545 553 553 553 553 553 557 0 0 0 0 0 0 0 0 0 484 457 471 462 457 451 446 446 446 443 438 422 415 411 415 402 399 387 391 391 393 387 383 383 375 383 387 383 381 381 381 379 379 391 375 379 367 362 362 360 0 0 0 0 0
    0 0 0 0 0 0 0 0 0 0 0 0 0 0 0 0 0 0 0 0 0 0 0 0 0 0 0 0 0 0 0 0 0 0 0 0 0 0 0 0 0 0 0 0 0 0 0 0 0 0 0 0 0 0 0 0 0 0 0 0 0 0 0 0 0 0 0 0 0 3679 3873 3679 4329 3873 3679 3504 5256 5256 6133 6133 5661 5661 5661 5661 4906 4088 3873 3679 3679 3679 3679 3873 3873 4906 4088 4906 4906 4329 4599 4599 4329 4599 4088 4599 4088 4088 3679 3199 0 3199 4329 3679 3504 3873 3679 6133 5661 5661 6690 6133 7359 6690 6133 6690 6133 6133 5256 4599 5256 5256 6133 5256 6690 6690 6133 6133 6133 5661 5661 5661 6133 5256 5256 5661 5256 4906 4906 5256 4906 5256 4906 5661 5661 5661 6133 6690 6690 7359 7359 7359 6690 7359 8177 7359 7359 6690 6133 6133 6133 5661 6133 5661 5661 5661 5661 6690 5661 6133 6690 6690 5661 5661 6133 6133 4906 4599 4329 3873 3345 3199 2453 0 0 0 0 0 0 0 0 1206 1187 1168 1168 1132 1115 1132 1132 1082 1098 1022 994 994 919 855 876 876 855 836 836 817 808 817 817 808 799 791 808 799 791 791 766 0 0 0 0 0 0 0 0 0 0 651 657 663 669 663 651 657 669 663 0 0 0 0 0 0 0 0 561 545 553 549 549 549 553 557 0 0 0 0 0 0 0 0 545 487 457 471 465 459 451 448 446 446 443 440 422 413 408 413 399 399 387 391 391 391 387 383 383 373 381 387 383 381 381 381 379 379 391 377 383 371 364 364 360 0 0 0 0 0
    0 0 0 0 0 0 0 0 0 0 0 0 0 0 0 0 0 0 0 0 0 0 0 0 0 0 0 0 0 0 0 0 0 0 0 0 0 0 0 0 0 0 0 0 0 0 0 0 0 0 0 0 0 0 0 0 0 0 0 0 0 0 0 0 0 0 0 0 0 0 3504 0 3873 3504 3679 3345 4906 4906 5256 5661 4906 4906 4599 4906 4329 3873 3679 3504 3504 3504 3504 3679 3679 4599 3873 4599 4906 4329 4329 4329 4088 4329 4088 4329 3679 3679 3345 2943 3066 3066 3873 3345 3504 3873 3679 5661 5661 5661 6690 6133 6690 6690 6133 6690 6133 6133 5256 4329 4906 4906 5661 5256 6690 6133 6133 6133 6690 5661 6133 5661 6133 5256 5256 5661 5256 4906 5256 5256 4906 5256 5256 5661 5661 5661 6133 6690 6133 7359 7359 7359 7359 7359 8177 7359 7359 6690 6690 6690 6690 6133 6133 6133 6133 6133 6690 8177 6690 7359 8177 8177 6133 6133 6133 6133 4906 4599 4599 3873 3345 3199 2453 0 0 0 0 0 0 0 0 0 1187 1168 1168 1132 1115 1149 1149 1082 1098 1036 994 1008 943 865 897 886 865 845 845 826 817 826 826 808 799 791 808 791 782 782 758 0 0 0 0 0 0 0 0 0 0 657 663 663 669 663 651 657 663 663 0 0 0 0 0 0 0 0 561 545 549 549 549 549 549 557 0 0 0 0 0 0 0 603 541 490 465 474 468 462 454 448 448 448 446 440 422 411 406 408 399 399 385 389 391 391 387 381 381 373 381 385 383 381 381 381 381 381 393 381 389 381 366 366 362 0 0 0 0 0
    0 0 0 0 0 0 0 0 0 0 0 0 0 0 0 0 0 0 0 0 0 0 0 0 0 0 0 0 0 0 0 0 0 0 0 0 0 0 0 0 0 0 0 0 0 0 0 0 0 0 0 0 0 0 0 0 0 0 0 0 0 0 0 0 0 0 0 0 0 0 2830 2830 3199 3066 3345 3066 3679 4329 4088 4906 3679 4088 3873 4088 3873 3679 3504 3345 3345 3345 3345 3504 3504 4088 3679 4599 4906 4329 4329 4329 4088 4088 4088 4088 3504 3504 3345 3066 2943 3066 3504 3199 3345 3873 3504 4906 5256 5256 6133 5661 6133 6133 5661 6690 5661 6133 5256 4088 4599 4906 5661 5256 6690 6133 6133 6133 6690 6133 6133 5661 6133 5256 5256 5256 5256 4599 5256 5256 4906 5256 5256 5661 5661 5661 6690 6690 6690 7359 7359 7359 7359 7359 8177 7359 8177 7359 7359 6690 6690 6690 6690 6133 6133 6133 7359 0 7359 8177 8177 9199 6690 6690 6133 6133 4906 4599 4599 4088 3345 3199 2453 0 0 0 0 0 0 0 0 0 1187 1187 1168 1132 1115 1149 1149 1098 1098 1051 1008 1008 968 865 908 897 876 855 865 845 826 826 826 808 799 791 808 791 774 782 743 0 0 0 0 0 0 0 0 0 0 663 663 663 675 663 651 657 657 669 0 1989 0 0 0 366 0 0 557 541 549 545 545 545 549 549 0 0 0 0 0 0 0 561 541 493 471 477 471 465 457 451 448 448 446 443 422 411 404 406 397 397 385 389 389 389 387 381 381 373 379 385 383 383 381 381 381 381 393 385 389 385 366 366 362 0 0 0 0 0
    0 0 0 0 0 0 0 0 0 0 0 0 0 0 0 0 0 0 0 0 0 0 0 0 0 0 0 0 0 0 0 0 0 0 0 0 0 0 0 0 0 0 0 0 0 0 0 0 0 0 0 0 0 0 0 0 0 0 0 0 0 0 0 0 0 0 0 0 0 2628 2830 2830 3199 3066 3199 3199 3199 3504 3345 3679 3199 3345 3345 3504 3504 3504 3345 3199 3199 3199 3199 3345 3504 3873 3679 4599 4599 4088 4088 4088 4088 3873 3873 3679 3345 3345 3345 3199 3066 3066 3345 3199 3345 3679 3504 4599 4906 5256 6133 5661 6133 6133 5661 6690 6133 6690 5661 4599 4906 4906 5661 5256 6133 6133 6133 6690 6690 6133 6133 5661 6690 5256 5256 5256 4906 4329 4906 5256 4599 5256 5661 6133 6133 6133 7359 6690 6690 7359 7359 7359 7359 7359 8177 7359 7359 6690 7359 6133 6690 6133 6690 6133 6133 6133 7359 0 8177 8177 0 9199 7359 6690 6690 6133 4906 4906 4599 4088 3504 3066 2453 0 0 0 0 0 0 0 0 0 1187 1187 1168 1149 1115 1168 1168 1115 1115 1066 1008 1051 981 876 908 908 886 855 876 845 836 836 836 799 799 782 799 774 758 766 728 0 0 0 0 0 0 0 0 0 0 663 0 663 675 663 651 657 651 675 0 2044 0 0 0 369 0 0 561 541 549 545 541 545 545 545 0 0 0 0 0 0 0 0 537 493 474 477 471 468 462 454 454 454 448 443 425 411 404 404 397 397 387 387 389 389 387 381 381 373 379 385 383 383 381 381 381 381 393 389 393 0 0 0 362 0 0 0 0 0</data></depth>
</opencv_storage>
