<?xml version="1.0"?>
<opencv_storage>
<gps_time_stamp>316210</gps_time_stamp>
<gps_x>-1.2407506942749023e+001</gps_x>
<gps_y>1.0947814941406250e+001</gps_y>
<gps_z>-1.9931821823120117e+000</gps_z>
<image_time_stamp>307057</image_time_stamp>
<depth type_id="opencv-matrix">
  <rows>80</rows>
  <cols>320</cols>
  <dt>s</dt>
  <data>
    0 0 0 0 0 0 0 0 0 0 0 0 0 0 0 0 0 0 0 0 0 0 0 0 0 0 0 0 0 0 0 0 0 0 0 0 0 0 0 0 0 0 0 0 0 0 0 0 0 0 0 0 0 0 0 0 0 0 0 0 0 0 0 0 0 0 0 0 0 1672 1635 1635 1672 1635 1672 1672 1565 1599 1565 1565 1599 1635 1711 1672 1672 1672 1635 1599 1635 1599 1443 1362 1362 1338 1362 1314 1314 1362 1362 1388 1415 1388 1388 1443 1471 1533 1471 1565 1635 1711 1795 1887 1887 1887 1936 1989 2044 2102 2374 2537 2453 2725 2943 2943 3066 3199 3199 3873 5256 5661 6690 7359 8177 0 0 0 0 0 0 8177 7359 7359 6690 5256 6133 6133 6133 5661 5661 6133 6690 6690 7359 7359 7359 7359 8177 0 0 0 8177 8177 8177 6690 6133 5256 5256 5256 4906 4906 4906 5256 4906 4906 5256 4088 3504 3199 2725 2453 2453 2102 1839 1795 0 1795 1711 1672 1599 1533 1471 1533 1501 1471 1471 1501 1471 1501 1415 1415 1388 1247 1149 1168 1098 1051 1036 1036 994 994 981 968 897 919 919 886 855 855 817 0 117 117 808 782 799 0 791 799 774 766 799 766 774 743 766 0 799 808 817 750 0 0 0 0 651 645 629 0 0 0 0 0 0 0 525 518 514 518 511 514 511 511 514 500 507 504 507 504 487 477 474 471 474 471 465 454 0 0 0 0 0 415 418 415 415 0 217 0 0 404 402 402 402 402 402 402 406 402 402 395 391 385 377 381 371 367 367 364 366 360 360 357 343 342 343 0 0 0 0 0
    0 0 0 0 0 0 0 0 0 0 0 0 0 0 0 0 0 0 0 0 0 0 0 0 0 0 0 0 0 0 0 0 0 0 0 0 0 0 0 0 0 0 0 0 0 0 0 0 0 0 0 0 0 0 0 0 0 0 0 0 0 0 0 0 0 0 0 0 0 1672 1635 1635 1672 1672 1711 1752 1635 1672 1672 1752 1795 1795 1795 1752 1711 1711 1711 1672 1635 1599 1443 1362 1362 1362 1362 1314 1338 1388 1388 1415 1443 1415 1415 1471 1471 1501 1471 1565 1672 1752 1795 1887 1887 1887 1936 2044 2044 2044 2230 2453 2537 2725 2943 3066 3066 3199 3345 3873 5256 5661 6690 8177 0 0 0 0 0 0 0 0 0 0 7359 5661 6133 7359 6690 6133 5661 6133 6133 6690 7359 7359 6690 7359 8177 8177 0 0 0 0 8177 7359 6690 6133 5256 5256 4906 4906 4906 5256 5256 5256 5256 4906 3679 3345 2830 2453 2453 2102 1887 1839 0 1795 1752 1711 1635 1565 1501 1533 1501 1471 1471 1501 1501 1533 1443 1415 1443 1291 1226 1206 1149 1066 1051 1051 1008 1008 981 981 897 908 919 886 855 865 826 0 117 117 817 808 808 0 808 817 782 774 808 774 774 0 0 0 0 817 826 799 0 0 0 0 0 657 639 0 0 0 0 0 0 0 525 514 514 514 511 514 514 511 514 500 507 500 504 500 487 474 471 471 471 468 462 454 443 446 0 0 0 420 420 418 418 0 0 0 0 404 402 402 402 402 402 402 408 402 402 397 393 385 377 379 371 366 367 364 364 359 359 355 345 342 342 0 0 0 0 0
    0 0 0 0 0 0 0 0 0 0 0 0 0 0 0 0 0 0 0 0 0 0 0 0 0 0 0 0 0 0 0 0 0 0 0 0 0 0 0 0 0 0 0 0 0 0 0 0 0 0 0 0 0 0 0 0 0 0 0 0 0 0 0 0 0 0 0 0 0 1672 1635 1635 1672 1672 1711 1795 1711 1711 1752 1887 1936 1989 1936 1887 1887 1887 1839 1795 1752 1672 1443 1362 1338 1314 1338 1291 1338 1415 1415 0 1471 1471 1443 1471 1501 1533 1471 1599 1711 1795 1839 1887 1936 1936 1989 2044 2102 2044 2164 2374 2453 2628 2830 2943 3066 3066 3345 3873 4599 4906 5661 6690 7359 7359 8177 0 0 0 0 0 8177 7359 6133 5256 6133 6690 6133 6133 6133 5661 6133 6690 7359 7359 6690 7359 7359 7359 8177 8177 8177 8177 7359 6690 6690 6133 5256 5661 5256 4906 4906 5661 5661 5256 5661 5256 3679 3345 2943 2453 2537 2102 1936 1887 1839 1839 1795 1752 1672 1599 1533 1533 1501 1471 1471 1471 1471 1501 1415 1415 1443 1268 1226 1206 1168 1066 1066 1051 1008 1008 981 968 897 897 908 886 865 876 836 855 0 117 0 0 0 0 817 0 799 774 817 774 782 0 0 0 0 826 836 826 0 0 331 0 0 0 645 618 608 0 0 0 0 0 529 514 514 518 514 514 514 511 514 497 504 497 497 493 487 471 471 471 471 465 462 454 446 448 451 0 0 0 425 422 422 0 0 0 404 406 404 402 404 404 404 404 413 404 404 402 395 387 377 377 371 367 367 364 364 360 360 360 350 345 342 0 0 0 0 0
    0 0 0 0 0 0 0 0 0 0 0 0 0 0 0 0 0 0 0 0 0 0 0 0 0 0 0 0 0 0 0 0 0 0 0 0 0 0 0 0 0 0 0 0 0 0 0 0 0 0 0 0 0 0 0 0 0 0 0 0 0 0 0 0 0 0 0 0 0 1672 1635 1672 1672 1711 1752 1795 1752 1752 1795 2044 2044 2044 1989 1989 2044 2044 1989 1936 1887 1752 1471 1388 1338 1314 1338 1314 1338 1443 1415 0 1471 1471 1443 1501 1501 1533 1533 1599 1752 1839 1839 1936 1989 1989 1989 2102 2164 2102 2102 2299 2299 2453 2537 2830 2943 3066 3199 3873 4599 4906 5661 6133 6690 7359 7359 0 0 0 0 0 0 0 7359 6133 6133 6690 6133 6133 6133 5661 6133 7359 7359 7359 6690 7359 7359 7359 7359 7359 7359 7359 6690 6133 6690 5661 4906 5661 5256 5256 4906 5661 5661 5256 5661 5256 3873 3345 2943 2453 2537 2164 1989 1936 1887 1936 1887 1752 1711 1635 1565 1501 1501 1443 1443 1443 1471 1471 1388 1362 1415 1268 1206 1206 1187 1066 1051 1051 1008 994 968 955 897 886 908 886 865 876 845 855 0 118 845 0 0 0 0 0 0 782 0 782 791 0 0 0 0 836 845 836 0 0 334 0 0 0 645 623 613 0 0 0 549 0 533 518 518 518 514 518 518 514 518 497 504 497 493 490 484 468 471 471 471 465 459 457 446 451 454 443 0 0 0 427 425 0 0 0 406 408 404 404 404 404 404 406 418 404 402 402 395 385 375 373 369 366 367 364 364 360 362 360 353 348 345 0 0 0 0 0
    0 0 0 0 0 0 0 0 0 0 0 0 0 0 0 0 0 0 0 0 0 0 0 0 0 0 0 0 0 0 0 0 0 0 0 0 0 0 0 0 0 0 0 0 0 0 0 0 0 0 0 0 0 0 0 0 0 0 0 0 0 0 0 0 0 0 0 0 0 1672 1635 1635 1672 1711 1752 1795 1752 1752 1795 2044 2102 2044 1989 1936 1989 2044 1989 1936 1887 1795 1565 1415 1362 1338 1362 1338 1388 1501 1501 0 1565 1599 1501 1599 1599 1599 1635 1711 1795 1887 1887 1989 1989 2044 2044 2102 2164 2164 2164 2299 2299 2453 2453 2725 2830 2943 3199 3873 4329 4599 5661 5661 6133 6690 7359 0 8177 0 0 0 0 0 7359 6133 6133 6690 5661 5661 5661 4906 5661 6133 7359 7359 6690 7359 7359 7359 8177 7359 8177 8177 6133 6133 6133 5256 4599 5256 4906 4906 4599 5256 5661 5256 5256 5256 3679 3199 3066 2537 2537 2164 2102 2044 1989 1989 1936 1795 1752 1672 1599 1501 1471 1415 1415 1415 1415 1415 1362 1338 0 1247 1206 1226 1206 1066 1051 1051 1022 994 968 955 897 876 908 897 865 886 855 865 865 0 855 0 0 0 0 0 0 791 0 791 791 0 0 0 0 836 845 836 0 0 0 0 0 663 639 623 618 0 0 566 553 0 537 525 521 521 518 518 521 518 521 497 504 497 490 0 484 468 471 471 471 465 462 459 448 454 459 448 0 0 0 430 430 0 0 0 406 411 406 404 406 406 406 408 418 402 402 402 395 383 373 373 369 366 367 364 362 359 360 360 350 347 342 0 0 0 0 0
    0 0 0 0 0 0 0 0 0 0 0 0 0 0 0 0 0 0 0 0 0 0 0 0 0 0 0 0 0 0 0 0 0 0 0 0 0 0 0 0 0 0 0 0 0 0 0 0 0 0 0 0 0 0 0 0 0 0 0 0 0 0 0 0 0 0 0 0 0 1635 1635 1635 1672 1672 1752 1795 1752 1752 1795 2044 2164 2102 1989 1936 1989 2044 2102 2102 1989 1887 1672 1533 1415 1415 1415 1388 1415 1565 1599 1672 1672 1752 1635 1711 1672 1711 1752 1795 1887 1936 1936 2044 2044 2102 2102 2164 2164 2164 2164 2299 2299 2374 2374 2725 2830 2830 3066 3873 4329 4599 5256 5661 6133 6690 7359 0 0 0 0 0 0 0 7359 6690 6690 6133 5661 5256 5256 4599 5256 6133 6690 7359 6690 7359 7359 7359 7359 7359 7359 7359 6133 5661 6133 5661 4329 5256 4906 4906 4599 5256 5661 5256 5256 5256 3873 3345 3066 2628 2628 2230 2102 2044 1989 2044 1989 1839 1752 1711 1635 1533 1443 1415 1388 1388 1388 1362 1314 1291 0 1247 1187 1226 1226 1051 1036 1036 1022 981 955 943 908 865 908 897 865 897 876 876 865 0 865 855 855 0 0 0 0 0 0 799 799 0 0 817 826 826 845 836 0 0 0 0 0 657 639 629 618 0 0 574 557 0 541 533 525 525 521 521 525 521 525 497 504 500 487 0 484 468 471 474 471 468 465 462 451 457 462 454 0 0 0 432 432 0 420 0 408 413 408 406 406 406 406 408 418 402 399 399 393 379 373 371 367 366 366 362 362 359 360 359 352 350 345 0 0 0 0 0
    0 0 0 0 0 0 0 0 0 0 0 0 0 0 0 0 0 0 0 0 0 0 0 0 0 0 0 0 0 0 0 0 0 0 0 0 0 0 0 0 0 0 0 0 0 0 0 0 0 0 0 0 0 0 0 0 0 0 0 0 0 0 0 0 0 0 0 0 0 1635 1635 1635 1672 1672 1711 1752 1752 1752 1795 2102 2230 2044 1989 1989 1936 2044 2164 2164 2102 1936 1795 1711 1599 1672 1501 1443 1565 1672 1711 1795 1795 1839 1752 1839 1752 1795 1887 1936 1989 2044 2044 2102 2102 2164 2230 2164 2230 2164 2102 2299 2299 2299 2299 2628 2725 2830 3066 4088 4599 4599 5661 6133 6690 7359 7359 0 0 0 0 8177 0 8177 7359 6133 6133 5661 5661 5256 5661 4906 5256 5661 6133 6133 6133 6133 6690 6690 6690 6690 6690 6690 6133 6133 6690 6133 4599 5661 5256 5256 4599 5256 5256 5256 4906 5256 3873 3199 3066 2628 2537 2230 2102 2044 2044 2044 1989 1839 1752 1711 1672 1533 1443 1388 1362 0 1338 0 1268 1247 1247 1247 1187 1226 1247 1082 1066 1051 1036 981 968 943 908 855 897 897 876 908 876 876 876 865 876 855 865 0 0 105 104 0 0 808 799 0 0 817 817 826 836 836 0 0 0 675 0 651 639 629 623 0 0 579 561 553 541 537 525 529 525 525 529 525 521 500 500 500 484 0 484 471 474 474 474 471 468 465 451 457 462 451 0 0 432 430 430 0 420 404 411 413 411 408 408 408 408 408 420 402 399 399 391 375 371 369 367 364 364 362 360 355 357 359 353 353 347 0 0 0 0 0
    0 0 0 0 0 0 0 0 0 0 0 0 0 0 0 0 0 0 0 0 0 0 0 0 0 0 0 0 0 0 0 0 0 0 0 0 0 0 0 0 0 0 0 0 0 0 0 0 0 0 0 0 0 0 0 0 0 0 0 0 0 0 0 0 0 0 0 0 0 1672 1635 1672 1711 1711 1711 1752 1752 1752 1795 1989 2102 1989 1989 1989 1936 2044 2164 2164 2102 1989 1887 1795 1795 1887 1672 1635 1752 1752 1795 1887 1839 1887 1795 1936 1795 1839 1936 1989 2044 2044 2102 2102 2102 2164 2299 2164 2164 2164 2102 2299 2299 2374 2374 2628 2830 2830 3066 4329 4599 4906 5661 6133 6690 6690 7359 8177 8177 8177 8177 7359 8177 8177 7359 6133 6133 5256 5661 5256 5661 5256 5256 5661 6133 6133 6690 6133 6690 6133 6133 6133 6133 6133 6133 6133 7359 7359 5661 6690 5661 5661 5256 5661 5256 5256 4906 5256 3679 3199 2943 2537 2537 2230 2102 2102 2044 2044 2044 1839 1795 1752 1711 1565 1415 1362 1338 0 1291 1268 1247 1226 1226 1226 1168 1226 1247 1115 1098 1082 1051 981 968 955 919 855 908 908 876 908 886 876 876 865 886 855 855 0 0 0 0 0 0 808 799 0 0 808 817 0 826 817 0 0 0 669 657 645 634 629 629 0 0 584 561 561 549 541 525 529 529 525 533 525 521 500 497 497 484 0 481 471 474 477 474 471 468 465 451 457 459 451 0 0 0 430 430 0 422 404 411 415 413 408 408 408 408 408 420 402 399 397 391 375 371 369 367 366 364 362 359 353 355 357 352 355 347 0 0 0 0 0
    0 0 0 0 0 0 0 0 0 0 0 0 0 0 0 0 0 0 0 0 0 0 0 0 0 0 0 0 0 0 0 0 0 0 0 0 0 0 0 0 0 0 0 0 0 0 0 0 0 0 0 0 0 0 0 0 0 0 0 0 0 0 0 0 0 0 0 0 0 1672 1635 1672 1711 1711 1711 1752 1752 1752 1795 1839 1936 1887 1936 1989 1887 1989 2102 2102 2102 1989 1936 1887 1887 1989 1752 1711 1839 1795 1795 1839 1839 1839 1795 1936 1839 1839 1989 2102 2164 2230 2299 2299 2299 2374 2537 2374 2453 2374 2230 2374 2453 2453 2374 2537 2725 2725 2943 4329 4599 4906 5661 6133 6690 6133 6690 7359 7359 7359 7359 6690 7359 7359 6690 5661 6133 5256 5661 5256 6133 5661 5256 5661 6690 6133 6690 6133 6690 6133 6133 6133 6690 6133 6133 6690 8177 8177 6690 7359 6690 6690 5661 6133 5661 5256 4599 4906 3504 2943 2830 2453 2453 2230 2102 2102 2102 2102 2044 1887 1839 1795 1752 1565 1415 1362 1314 0 1268 1247 1226 1206 1206 1206 1168 1206 1247 1132 1098 1082 1066 981 981 955 919 865 919 919 876 908 886 865 865 855 876 845 845 0 0 0 0 0 0 808 808 0 0 0 808 0 0 791 0 0 0 669 651 645 634 629 629 0 0 588 561 570 553 541 525 0 529 0 533 529 521 500 493 497 484 0 481 474 474 477 474 474 468 465 448 454 459 451 0 0 0 430 430 430 425 404 411 415 413 408 408 408 408 408 418 402 399 397 393 383 379 375 369 367 366 362 357 350 353 355 350 352 348 0 0 0 0 0
    0 0 0 0 0 0 0 0 0 0 0 0 0 0 0 0 0 0 0 0 0 0 0 0 0 0 0 0 0 0 0 0 0 0 0 0 0 0 0 0 0 0 0 0 0 0 0 0 0 0 0 0 0 0 0 0 0 0 0 0 0 0 0 0 0 0 0 0 0 1672 1635 1672 1672 1672 1672 1711 1711 1752 1752 1795 1839 1839 1887 1989 1887 1989 2102 2102 2102 2044 2044 1936 1989 2102 1839 1839 1887 1887 1887 1887 1839 1839 1839 0 0 0 2230 0 0 2537 2537 2628 2537 2628 2830 2628 2725 2725 2453 2537 2537 2537 2299 2537 2628 2537 2830 4329 4599 4599 5661 6133 6133 6133 6690 7359 6690 6690 7359 6133 7359 7359 7359 6133 6690 5661 6133 5256 6690 6133 5661 6133 6690 6133 7359 6690 6690 6690 6133 6690 6690 6133 6690 6690 8177 8177 6690 7359 7359 7359 6133 6133 5661 5256 4599 4329 3345 2725 2725 2299 2374 2164 2102 2164 2164 2102 2044 1887 1936 1795 1795 1599 1415 1338 1291 1247 1247 1226 1206 1187 1187 1206 1168 1206 1247 1149 1115 1082 1051 968 981 955 919 865 919 919 886 908 886 855 855 855 865 836 836 0 0 0 0 808 0 808 808 799 0 0 799 808 808 758 0 0 0 669 645 639 634 629 629 0 0 588 566 579 561 545 0 0 0 0 0 529 521 500 0 497 484 0 0 474 477 481 474 474 468 462 448 451 454 448 0 427 430 430 427 427 425 406 411 415 415 408 408 408 408 408 415 404 399 399 397 391 387 381 373 371 367 364 357 350 352 352 348 347 340 0 0 0 0 0
    0 0 0 0 0 0 0 0 0 0 0 0 0 0 0 0 0 0 0 0 0 0 0 0 0 0 0 0 0 0 0 0 0 0 0 0 0 0 0 0 0 0 0 0 0 0 0 0 0 0 0 0 0 0 0 0 0 0 0 0 0 0 0 0 0 0 0 0 0 1672 1635 1672 1672 1672 1672 1711 1711 1711 1711 1752 1752 1795 1887 1989 1887 1989 2102 2102 2102 2044 2102 1989 1989 2164 1936 1936 1989 1989 1989 1887 1936 1887 1936 2537 2102 1989 2537 0 0 2725 2830 2943 2830 0 3345 2943 3199 2830 2628 2725 2628 2628 2374 2453 2628 2537 2830 4329 4329 4329 4906 5256 5661 5256 6133 6690 6133 6133 7359 6133 8177 8177 8177 7359 7359 6690 6690 6133 7359 6690 6133 6133 6690 6133 7359 6133 6690 6133 6133 6133 6690 6133 6690 6690 8177 8177 6690 7359 7359 7359 6690 6690 5661 5256 4329 4088 3199 2725 2725 2299 2374 2164 2102 2164 2164 2102 2044 1887 1936 1839 1839 1635 1388 1314 1268 1226 1247 1206 1187 1187 1187 1206 1168 1206 1247 1187 1132 1098 1066 955 981 955 919 865 919 919 886 897 886 845 845 845 855 817 826 0 817 0 0 808 817 817 817 799 0 0 799 799 799 743 0 0 0 663 645 639 634 629 634 613 0 593 0 0 566 549 0 0 0 0 0 0 525 504 0 500 487 0 0 477 477 481 477 477 468 462 446 0 0 443 0 422 427 427 425 425 425 406 411 415 415 406 406 406 406 406 411 404 399 399 397 393 391 383 375 375 369 364 359 352 352 0 345 0 334 0 0 0 0 0
    0 0 0 0 0 0 0 0 0 0 0 0 0 0 0 0 0 0 0 0 0 0 0 0 0 0 0 0 0 0 0 0 0 0 0 0 0 0 0 0 0 0 0 0 0 0 0 0 0 0 0 0 0 0 0 0 0 0 0 0 0 0 0 0 0 0 0 0 0 1672 1635 1672 1672 1672 1635 1711 1672 1711 1711 1752 1752 1795 1887 1989 1887 1936 2044 2102 2102 2044 2102 2044 2044 2164 1936 1989 2044 1989 2044 1936 1936 1936 2044 3199 2725 2164 2943 2725 0 3066 0 3504 0 0 6133 6133 5661 3345 2830 2830 2725 2830 2537 2628 2725 2628 2830 4599 4599 4329 5256 5661 5661 5256 6133 6690 6133 6690 7359 6690 8177 8177 0 7359 7359 6690 6690 6133 7359 6133 6133 6133 6690 6133 7359 6690 6690 6690 6133 6690 6690 6133 6690 7359 8177 7359 7359 8177 7359 8177 6690 6690 6133 5661 4599 4088 3199 2943 2830 2299 2374 2164 2102 2164 2164 2164 2044 1936 1936 1839 1839 1672 1388 1314 1268 1226 1226 1206 1187 1168 1187 1206 1168 1206 1268 1206 1168 1132 1082 968 981 968 931 865 919 919 886 886 876 0 0 0 0 808 808 0 808 799 0 799 817 817 817 799 799 791 791 791 791 735 0 0 0 663 639 639 634 629 634 613 0 0 0 0 0 0 0 0 0 0 0 0 525 504 0 500 0 0 0 477 477 481 477 481 468 459 446 0 0 0 432 420 425 425 422 422 425 408 408 413 415 406 406 406 406 406 408 406 399 399 397 393 391 385 375 377 369 364 355 343 0 0 334 333 325 0 0 0 0 0
    0 0 0 0 0 0 0 0 0 0 0 0 0 0 0 0 0 0 0 0 0 0 0 0 0 0 0 0 0 0 0 0 0 0 0 0 0 0 0 0 0 0 0 0 0 0 0 0 0 0 0 0 0 0 0 0 0 0 0 0 0 0 0 0 0 0 0 0 0 1672 1635 1672 1672 1672 1635 1711 1711 1711 1711 1752 1752 1795 1887 2044 1887 1936 2044 2102 2102 2102 2164 2102 2044 2230 1989 2102 2102 2102 2164 1989 2044 2044 2374 6133 4088 0 3873 3345 3679 3873 4329 4329 0 0 8177 0 8177 6690 5256 3679 0 3345 2830 2943 2943 2830 3066 4906 4906 4329 4906 6133 6133 4329 6133 6133 6133 6690 7359 6690 7359 7359 8177 7359 8177 6690 6690 6133 7359 6133 6133 6133 6690 6690 7359 6690 7359 6690 6690 6690 6690 6133 6690 7359 7359 7359 7359 7359 8177 8177 7359 6690 6133 5661 4906 3873 3199 2830 2830 2299 2374 2230 2044 2164 2164 2164 2044 1936 1936 1839 1839 1711 1415 1314 1268 0 1226 1206 1187 1187 1187 1226 1168 1206 1268 1226 1206 1168 1098 981 994 981 943 865 919 919 886 886 876 140 0 0 0 808 799 799 799 791 817 799 808 817 817 799 799 791 791 791 791 735 0 0 0 663 639 634 629 629 634 618 0 0 0 0 0 0 0 0 0 0 0 0 0 507 0 500 0 0 0 477 477 481 474 481 465 457 443 0 0 0 430 418 422 425 422 422 427 408 408 413 418 404 404 404 406 404 406 406 399 399 399 395 393 389 385 383 369 0 348 0 0 328 0 331 324 0 0 0 0 0
    0 0 0 0 0 0 0 0 0 0 0 0 0 0 0 0 0 0 0 0 0 0 0 0 0 0 0 0 0 0 0 0 0 0 0 0 0 0 0 0 0 0 0 0 0 0 0 0 0 0 0 0 0 0 0 0 0 0 0 0 0 0 0 0 0 0 0 0 0 1672 1635 1635 1672 1672 1635 1711 1672 1711 1711 1752 1752 1795 1887 2044 1887 1936 2044 2102 2102 2102 2164 2102 2102 2230 2102 2299 2299 2230 2537 2164 0 0 0 0 7359 6133 6133 5661 4906 5256 5256 5661 0 0 0 0 0 0 0 0 0 4599 3066 3345 3345 3199 3504 5661 5256 4599 4906 6690 7359 4088 6133 6133 6133 6133 7359 6690 7359 7359 8177 7359 8177 6690 6690 6133 7359 6690 6133 6133 6690 6690 6690 6690 6690 6133 6133 6690 6690 6133 6690 7359 7359 7359 7359 8177 8177 8177 8177 7359 6690 6133 4906 3873 3199 2830 2830 2230 2374 2299 2044 2164 2164 2164 2044 1936 1936 1839 1839 1752 1443 1338 1291 0 1247 1226 1206 1187 1206 1226 1168 1206 1268 1226 1206 1168 1098 994 994 981 943 865 919 919 886 876 865 140 0 0 0 799 791 799 799 791 817 791 799 817 808 799 799 799 791 791 791 0 0 0 0 663 639 634 629 629 634 0 0 0 0 0 0 0 0 0 0 0 0 0 0 507 0 497 487 0 0 481 474 481 474 481 459 451 443 0 0 0 432 418 425 425 422 422 427 411 408 413 418 404 404 404 406 404 406 408 402 402 399 397 395 393 391 387 369 0 350 343 342 333 337 336 328 0 0 0 0 0
    0 0 0 0 0 0 0 0 0 0 0 0 0 0 0 0 0 0 0 0 0 0 0 0 0 0 0 0 0 0 0 0 0 0 0 0 0 0 0 0 0 0 0 0 0 0 0 0 0 0 0 0 0 0 0 0 0 0 0 0 0 0 0 0 0 0 0 0 0 1672 1635 1635 1672 1672 1635 1711 1672 1711 1672 1752 1752 1752 1839 1989 1887 1936 2044 2102 2102 2102 2164 2102 2102 2299 2230 2537 2537 2453 2725 0 0 0 0 0 0 8177 7359 6690 5661 5661 5661 6133 0 0 0 0 0 0 0 0 0 7359 4329 5256 4599 4329 4906 5661 5256 4906 5256 7359 6690 3679 5661 5256 5661 5661 6690 6133 6133 6690 8177 6690 7359 6690 6690 6690 7359 6690 6133 6133 6690 6690 6690 6690 6690 6133 6133 6690 6690 6133 6690 7359 7359 7359 7359 8177 7359 8177 8177 7359 7359 6133 4906 3679 3066 2725 2725 2164 2374 2374 2102 2299 2299 2230 2102 1989 2044 1887 1887 1795 1471 1362 1338 0 1268 1247 1226 1206 1226 1247 1168 1206 1247 1206 1187 1149 1082 994 994 994 943 865 908 919 886 865 865 140 0 0 0 799 782 791 0 791 808 782 791 817 808 799 799 799 791 791 791 0 0 0 0 663 634 634 629 623 634 0 0 0 0 0 0 0 0 0 0 0 0 0 0 507 490 497 490 0 0 481 474 481 474 477 454 448 443 0 435 435 432 420 425 427 422 422 427 413 406 411 420 404 404 404 406 404 406 411 402 402 404 399 399 395 395 391 375 0 359 353 348 343 343 340 337 0 0 0 0 0
    0 0 0 0 0 0 0 0 0 0 0 0 0 0 0 0 0 0 0 0 0 0 0 0 0 0 0 0 0 0 0 0 0 0 0 0 0 0 0 0 0 0 0 0 0 0 0 0 0 0 0 0 0 0 0 0 0 0 0 0 0 0 0 0 0 0 0 0 0 1672 1635 1672 1672 1672 1672 1711 1672 1711 1672 1752 1752 1752 1887 2044 1936 1936 2044 2102 2102 2102 2164 2102 2102 2299 2453 2725 2725 2725 0 0 0 0 0 0 0 0 8177 7359 5661 6133 6133 6133 8177 0 0 0 0 0 0 0 0 0 6690 6690 6690 5661 5661 5661 5256 4906 5256 6690 6690 3679 5661 5256 5256 5661 6690 6133 6133 6690 8177 6690 8177 7359 7359 6690 7359 6690 6690 6690 6690 6690 6690 6690 6690 6133 6133 6133 6690 6133 6133 7359 6690 6690 7359 7359 7359 7359 7359 7359 6690 5661 4599 3504 3066 2725 2725 2164 2453 2374 2164 2299 2374 2299 2164 2044 2102 1887 1887 1839 1501 1388 1362 0 1291 1268 1247 1247 1247 1247 1187 1206 1247 1187 1149 1098 1066 981 994 994 943 865 897 897 876 855 855 140 0 0 0 799 774 791 0 791 799 774 782 808 799 791 799 799 799 0 799 0 0 0 0 0 639 634 629 623 634 0 0 0 0 0 0 0 0 0 0 0 0 0 0 507 490 497 490 0 0 481 471 477 474 474 448 448 443 0 438 438 435 422 427 427 425 422 430 415 406 411 420 404 404 406 406 406 406 413 404 402 404 402 402 397 397 395 385 369 357 352 347 340 340 339 336 0 0 0 0 0
    0 0 0 0 0 0 0 0 0 0 0 0 0 0 0 0 0 0 0 0 0 0 0 0 0 0 0 0 0 0 0 0 0 0 0 0 0 0 0 0 0 0 0 0 0 0 0 0 0 0 0 0 0 0 0 0 0 0 0 0 0 0 0 0 0 0 0 0 0 1672 1635 1635 1672 1672 1672 1711 1672 1752 1672 1752 1752 1795 1887 2102 1989 1936 2102 2102 2102 2102 2164 2102 2044 2230 2453 2725 2725 2943 4088 0 0 0 0 0 0 0 8177 7359 6133 6690 6690 6690 0 0 0 0 0 0 0 0 0 0 8177 8177 8177 6690 6690 6133 5661 4906 5661 7359 6690 3679 5256 4906 5661 5661 6133 6133 6133 6133 7359 6690 8177 7359 7359 7359 7359 6690 6690 6690 6690 6690 6133 6690 6690 6133 6133 6133 6690 6133 6133 6690 6690 6690 7359 7359 7359 7359 7359 7359 6690 5661 4329 3679 3199 2725 2725 2164 2374 2374 2164 2299 2374 2299 2230 2044 2102 1936 1887 1839 1533 1415 1388 0 1338 1291 1268 1268 1268 1291 1187 1206 1226 1149 1082 1066 1036 981 981 994 955 865 886 886 865 845 845 139 0 0 0 799 782 791 0 791 799 774 766 808 791 791 799 799 799 0 0 0 0 0 0 0 645 634 634 629 634 618 0 0 0 0 0 0 0 0 0 0 0 0 0 514 490 497 493 0 0 477 468 474 471 474 448 451 446 0 440 443 0 425 427 430 425 425 430 418 404 411 422 406 406 406 406 406 408 418 404 404 406 406 406 402 402 402 395 383 0 353 347 343 342 340 337 0 0 0 0 0
    0 0 0 0 0 0 0 0 0 0 0 0 0 0 0 0 0 0 0 0 0 0 0 0 0 0 0 0 0 0 0 0 0 0 0 0 0 0 0 0 0 0 0 0 0 0 0 0 0 0 0 0 0 0 0 0 0 0 0 0 0 0 0 0 0 0 0 0 0 1672 1635 1672 1672 1672 1672 1711 1711 1752 1711 1752 1795 1839 1936 2102 1989 1936 2102 2102 2102 2102 2164 2102 2044 2230 2453 2725 2725 2943 3679 0 0 0 0 0 0 0 0 8177 7359 7359 7359 7359 0 0 0 0 0 0 0 0 0 8177 6690 7359 7359 6690 7359 6133 5661 5256 6133 8177 6133 4088 5661 4906 5661 5661 6133 6133 6133 6133 7359 6690 8177 7359 7359 7359 7359 6690 6690 6690 6690 6690 6133 6133 6133 6133 6133 6133 6133 6133 5661 6690 6133 6690 6690 7359 6690 7359 6690 7359 7359 6133 4906 4088 3345 2830 2725 2164 2453 2374 2102 2299 2299 2299 2230 2044 2102 1887 1887 1839 1533 1443 1415 0 1388 1338 1314 1314 1338 1338 1206 1226 1226 1132 1066 1051 1036 981 981 994 955 865 886 886 865 845 845 139 0 0 0 808 791 799 0 799 799 774 766 799 791 791 791 799 791 0 0 0 0 0 0 0 651 639 639 634 634 623 0 0 0 0 0 0 0 0 0 0 0 0 0 518 0 493 493 0 0 477 465 471 471 474 454 457 448 0 446 448 0 0 430 0 427 427 432 420 404 413 422 408 408 408 408 408 408 420 404 404 406 408 411 404 406 402 393 383 0 360 0 353 350 345 343 0 0 0 0 0
    0 0 0 0 0 0 0 0 0 0 0 0 0 0 0 0 0 0 0 0 0 0 0 0 0 0 0 0 0 0 0 0 0 0 0 0 0 0 0 0 0 0 0 0 0 0 0 0 0 0 0 0 0 0 0 0 0 0 0 0 0 0 0 0 0 0 0 0 0 1672 1635 1635 1672 1672 1672 1711 1711 1752 1711 1752 1795 1839 1936 2102 2044 1936 2044 2102 2044 2102 2164 2102 2044 2230 2374 2628 2628 2830 0 0 0 0 0 0 0 0 0 8177 7359 7359 7359 7359 0 0 0 0 0 0 0 0 0 7359 6690 7359 7359 6690 7359 6690 6133 6133 6690 8177 6690 4599 5661 4906 5661 6133 6133 6133 6133 6133 7359 6690 7359 6690 6690 6690 6690 6690 6690 6133 6690 6690 5661 6133 6133 6133 6133 6133 6133 6133 5661 6690 6133 6133 6690 6690 6690 6690 6133 7359 7359 6133 5256 4906 3504 2943 2830 2230 2453 2374 2102 2230 2230 2230 2164 1989 2044 1839 1839 1839 1533 1471 1443 0 1415 1362 1338 1338 1338 1338 1206 1226 1206 1132 1051 1051 1036 981 981 994 955 876 876 886 865 845 855 0 0 0 0 826 799 808 0 799 808 782 766 799 782 791 799 808 791 0 0 86 86 0 0 0 663 645 645 634 639 629 0 0 0 0 0 0 0 0 0 0 0 0 0 0 0 0 497 0 0 474 462 471 471 471 457 459 454 443 451 454 446 0 0 0 430 430 432 422 404 413 422 408 408 408 408 408 408 420 404 402 406 406 406 399 399 397 387 375 364 362 0 359 355 352 352 0 0 0 0 0
    0 0 0 0 0 0 0 0 0 0 0 0 0 0 0 0 0 0 0 0 0 0 0 0 0 0 0 0 0 0 0 0 0 0 0 0 0 0 0 0 0 0 0 0 0 0 0 0 0 0 0 0 0 0 0 0 0 0 0 0 0 0 0 0 0 0 0 0 0 1635 1599 1599 1672 1672 1672 1711 1711 1752 1711 1752 1839 1887 1989 2102 2044 1936 2044 2102 2044 2102 2164 2102 1989 2164 2374 2537 2537 2830 0 0 0 0 0 0 0 0 0 8177 6133 6690 6690 6690 0 0 0 0 0 0 0 0 0 6690 6133 6690 7359 6690 7359 6133 6690 6133 6690 7359 6690 4906 5661 4906 5661 5661 6133 6133 6133 5661 6690 6133 6690 6133 6133 6133 6133 6133 6690 6133 6133 6690 5661 6133 6133 6133 6133 6133 6133 6133 5661 6690 6133 6133 7359 6690 6690 6690 6133 7359 6690 6133 5256 4906 3679 0 2830 2299 2453 2299 2102 2230 2164 2164 2164 1936 0 1795 1795 1795 1565 1501 1471 0 0 1388 1362 1362 1362 0 1206 1206 1187 1132 1051 1051 1036 994 981 994 955 876 865 876 865 845 855 0 855 845 0 836 808 817 0 808 808 791 766 799 791 799 799 808 799 86 86 86 86 0 0 0 0 651 0 639 639 629 0 0 0 0 295 294 0 0 0 0 0 0 0 0 0 0 0 0 0 474 459 468 471 471 459 462 457 446 454 457 448 0 0 0 432 432 435 422 404 413 422 411 408 408 411 408 408 420 402 402 406 404 406 399 399 393 381 369 360 360 359 357 355 352 352 0 0 0 0 0
    0 0 0 0 0 0 0 0 0 0 0 0 0 0 0 0 0 0 0 0 0 0 0 0 0 0 0 0 0 0 0 0 0 0 0 0 0 0 0 0 0 0 0 0 0 0 0 0 0 0 0 0 0 0 0 0 0 0 0 0 0 0 0 0 0 0 0 0 0 1599 1533 1565 1635 1635 1672 1672 1711 1711 1672 1752 1795 1887 1936 2102 2044 1936 2044 2102 2044 2102 2164 2102 1989 2164 2453 2537 2537 0 0 0 0 0 0 0 0 0 8177 7359 4906 5661 5661 5661 8177 0 0 8177 0 0 0 8177 8177 6690 5661 6133 6690 6133 6690 6133 6690 6133 6690 6690 6690 5256 6133 4906 6133 6133 6133 6133 6133 5661 6690 6133 6690 6133 6133 6133 6133 6133 6690 6133 6690 7359 5661 6133 6690 6133 6133 6133 6133 6133 5256 6690 6133 6133 7359 6133 6133 6690 5661 6690 6690 5661 4906 4599 3679 2725 2725 2230 2299 2230 2044 2102 2102 2102 2102 0 0 1752 1752 1752 1565 1501 1443 1415 0 1362 1338 1338 0 0 1206 0 1168 1149 1051 1051 1036 994 981 1008 968 886 865 886 865 845 865 845 855 855 0 845 826 826 0 0 817 799 774 808 791 799 799 808 799 86 86 86 86 0 0 0 0 0 663 651 645 634 0 0 0 0 294 294 0 0 0 0 529 0 0 0 0 0 0 0 0 477 459 468 474 471 462 465 462 448 457 459 448 0 0 0 432 432 432 425 404 413 422 411 411 411 411 411 411 422 404 404 408 406 404 404 404 399 389 375 362 360 359 357 353 352 352 0 0 0 0 0
    0 0 0 0 0 0 0 0 0 0 0 0 0 0 0 0 0 0 0 0 0 0 0 0 0 0 0 0 0 0 0 0 0 0 0 0 0 0 0 0 0 0 0 0 0 0 0 0 0 0 0 0 0 0 0 0 0 0 0 0 0 0 0 0 0 0 0 0 0 1565 1501 1533 1599 1599 1635 1672 1672 1672 1635 1752 1795 1839 1989 2164 2102 1989 2102 2164 2044 2164 2164 2164 1989 2230 2453 2628 2537 0 89 88 0 0 0 0 0 0 6690 6133 0 5256 5256 5256 7359 8177 0 7359 0 8177 8177 7359 7359 6133 5661 5661 6133 5661 6133 5661 6133 6133 6133 6690 6690 5256 6690 5256 6133 6133 5661 6133 6133 5661 6690 6133 6690 6133 6133 6133 6133 6133 6690 6133 6133 6690 5256 6133 6690 6133 6133 6133 6133 6133 5661 6690 6133 6690 7359 6690 6690 6690 5661 6690 6690 5661 4599 4329 3679 2628 2725 2230 2230 2164 2044 2044 2044 2044 2044 0 0 1752 1711 1711 1565 1471 1415 1415 0 1338 1314 1314 0 0 1206 0 1168 1168 1051 1051 1036 1008 994 1008 968 897 855 886 865 845 876 855 865 855 0 855 836 836 0 817 817 808 782 808 791 791 791 799 791 86 86 86 86 0 0 0 0 669 675 669 651 634 0 0 0 0 0 0 0 0 0 0 525 0 0 0 0 0 0 0 0 477 462 471 477 468 465 465 462 0 0 0 448 0 0 0 432 432 432 425 406 415 422 413 411 411 411 411 411 422 404 404 411 411 406 406 404 399 389 0 360 0 359 355 352 352 352 0 0 0 0 0
    0 0 0 0 0 0 0 0 0 0 0 0 0 0 0 0 0 0 0 0 0 0 0 0 0 0 0 0 0 0 0 0 0 0 0 0 0 0 0 0 0 0 0 0 0 0 0 0 0 0 0 0 0 0 0 0 0 0 0 0 0 0 0 0 0 0 0 0 0 1533 1471 1533 1599 1565 1599 1635 1672 1672 1635 1752 1752 1839 2044 2230 2102 1989 2102 2164 2044 2164 2102 2102 1989 2230 2374 2537 2453 2725 0 0 0 0 0 0 8177 0 5256 4599 0 0 4906 4906 6690 7359 8177 6690 8177 6690 7359 6690 6690 5661 5256 5256 6133 5661 6133 5661 5661 5661 6133 6133 6133 5661 6690 5256 6133 6133 6133 6133 6690 6133 6690 6133 6690 6133 6133 6133 6133 6690 6690 6133 6133 6690 5661 6690 6690 6133 6133 6133 6133 6690 6133 6690 6133 6690 7359 6690 6690 6690 5661 6690 6690 5661 4906 4599 3679 2628 2725 2230 2230 2102 1989 1989 1936 1936 1989 0 1752 1711 1672 1672 1533 1443 1388 1388 0 1314 1291 0 0 0 1206 0 1168 0 0 1066 1051 1022 994 1008 981 919 855 886 865 845 886 865 865 865 855 865 836 836 0 817 817 808 782 808 799 791 791 791 782 86 86 86 0 0 0 0 0 675 681 675 651 639 0 0 0 570 0 0 0 0 0 533 521 0 0 0 0 0 504 490 0 481 462 471 477 471 468 465 0 0 0 0 448 0 0 0 432 430 430 425 406 413 422 413 411 413 413 411 411 425 406 408 418 422 415 406 402 0 383 375 0 362 360 357 353 353 355 0 0 0 0 0
    0 0 0 0 0 0 0 0 0 0 0 0 0 0 0 0 0 0 0 0 0 0 0 0 0 0 0 0 0 0 0 0 0 0 0 0 0 0 0 0 0 0 0 0 0 0 0 0 0 0 0 0 0 0 0 0 0 0 0 0 0 0 0 0 0 0 0 0 0 1501 1443 1501 1599 1565 1599 1635 1635 1635 1599 1752 1752 1839 2102 2299 2164 1989 2044 2164 2044 2102 2102 2102 1989 2164 2299 2374 2299 2537 0 0 0 4906 5661 4906 6133 0 4329 0 0 0 4599 4599 6690 6690 8177 6133 6690 6133 6133 6133 6133 5661 5256 5256 5661 5256 5661 5661 5661 5661 6133 6133 6133 5661 6690 5661 6690 6690 6133 6690 6690 6133 7359 6133 6690 6690 6133 6133 6133 6690 6690 6133 6133 6690 5661 6690 6690 6133 6133 6133 6690 6690 6133 6690 6690 6690 7359 6690 7359 7359 5661 6690 6690 6133 5256 4906 3873 2628 2725 2230 2164 2044 1989 1887 1936 1936 1936 0 1672 1711 1635 1635 1533 1415 1388 1362 0 1291 1268 1268 0 1247 1206 0 0 0 0 0 1051 1036 994 1008 981 943 855 897 876 855 886 876 865 865 855 865 836 0 0 817 808 808 782 808 799 782 791 791 782 86 86 86 0 0 0 0 681 675 681 681 657 634 0 0 579 570 570 570 0 0 0 537 521 0 0 518 0 0 504 490 0 0 468 474 481 474 474 468 0 0 0 0 446 0 432 430 430 427 427 425 406 413 420 413 411 411 411 411 411 425 408 408 420 418 0 0 0 393 379 377 0 0 360 357 352 350 353 0 0 0 0 0
    0 0 0 0 0 0 0 0 0 0 0 0 0 0 0 0 0 0 0 0 0 0 0 0 0 0 0 0 0 0 0 0 0 0 0 0 0 0 0 0 0 0 0 0 0 0 0 0 0 0 0 0 0 0 0 0 0 0 0 0 0 0 0 0 0 0 0 0 0 1501 1415 1471 1565 1533 1565 1635 1635 1599 1599 1752 1752 1795 2102 2299 2164 1989 2044 2164 2044 2044 2044 2102 1989 2102 2230 2299 2164 2453 2453 2628 2628 3066 3066 3345 4329 3679 3873 0 0 0 5256 5256 6690 6690 7359 5256 6133 5661 5661 5661 5661 5256 4906 4906 5661 5256 5661 5661 5661 5661 6133 6133 6133 5661 6690 6133 6690 6690 6690 6690 7359 6690 7359 6690 6690 6690 6690 6133 6133 6133 6690 5661 6133 6690 5661 6690 6690 6133 6690 6690 6690 7359 6133 6690 6690 7359 8177 6690 7359 7359 6133 7359 7359 6133 5661 5256 3873 2628 2725 2299 2102 1989 1936 1839 1887 1887 1887 0 1672 1711 1635 1635 1565 1415 1362 0 260 1268 1247 1226 1226 1226 1206 0 0 0 0 0 1066 1051 1008 1022 994 968 865 919 897 865 886 876 855 855 845 855 826 826 0 817 808 808 782 808 799 782 791 791 782 86 86 86 0 0 0 0 687 681 687 681 657 634 0 0 579 570 570 566 557 0 545 537 525 0 521 518 504 0 0 493 0 0 471 477 481 474 477 471 0 0 0 0 446 0 427 427 427 425 425 425 406 413 418 413 411 411 411 411 408 422 408 406 420 0 0 0 0 391 379 381 0 0 0 359 0 0 0 0 0 0 0 0
    0 0 0 0 0 0 0 0 0 0 0 0 0 0 0 0 0 0 0 0 0 0 0 0 0 0 0 0 0 0 0 0 0 0 0 0 0 0 0 0 0 0 0 0 0 0 0 0 0 0 0 0 0 0 0 0 0 0 0 0 0 0 0 0 0 0 0 0 0 1471 1388 1471 1565 1501 1533 1599 1599 1599 1565 1752 1711 1752 2044 2230 2164 1989 2044 2164 2044 2044 2044 2044 1989 2102 2164 2164 2102 2230 2299 2453 2453 2725 2628 2830 3504 3345 3679 3873 4329 5256 5661 5661 6690 6690 6133 4906 5256 4906 4906 4906 4906 4599 4329 4329 4906 4906 5256 5256 5256 5256 5661 5661 6133 5661 6690 6133 6690 7359 6690 7359 8177 7359 8177 7359 7359 7359 6690 6690 6690 6133 6690 5661 6133 6690 6133 6690 7359 6690 6690 6690 7359 7359 6690 6690 6690 7359 8177 6690 7359 7359 6133 7359 7359 6690 6133 5661 4329 2725 2830 2374 2102 1989 1936 1839 1839 1839 1887 0 1635 1711 1635 1635 1599 1388 1338 0 259 1247 1226 1206 1206 1206 1187 0 0 0 0 0 1082 1066 1022 1036 1008 994 876 943 919 876 886 876 855 855 0 855 826 817 0 808 799 808 782 799 799 774 791 791 782 86 86 0 0 0 0 0 694 681 687 681 651 629 0 603 584 570 570 566 557 545 541 537 521 521 518 514 504 0 0 493 0 0 474 477 484 474 477 471 0 0 0 0 443 432 425 427 427 425 422 425 406 411 418 413 408 408 408 406 406 418 406 404 415 397 0 0 0 383 375 377 369 0 360 355 350 0 0 0 0 0 0 0
    0 0 0 0 0 0 0 0 0 0 0 0 0 0 0 0 0 0 0 0 0 0 0 0 0 0 0 0 0 0 0 0 0 0 0 0 0 0 0 0 0 0 0 0 0 0 0 0 0 0 0 0 0 0 0 0 0 0 0 0 0 0 0 0 0 0 0 0 0 1443 1388 1471 1533 1471 1533 1599 1599 1565 1565 1711 1635 1711 1989 2230 2164 1989 2044 2164 2044 2044 2044 2044 1989 2102 2102 2164 2044 2102 2230 2374 2453 2628 2453 2628 3066 3066 3504 3679 4599 5256 5256 5256 6133 6133 5256 4599 4599 4329 4329 4599 4329 4329 4088 4088 4599 4329 4906 5256 4906 5256 5661 5661 6133 5661 6690 6133 6690 7359 6690 7359 8177 7359 8177 8177 7359 7359 6690 6690 6133 6133 6133 5661 6133 6690 6133 7359 7359 6690 6690 7359 7359 7359 6690 6690 6690 7359 8177 6690 7359 7359 6133 6690 6690 6690 5661 5661 4329 2943 2830 2374 2044 1989 1936 1839 1839 1839 1839 0 1635 1711 1672 1672 1599 1388 1314 0 0 1226 1206 1187 1187 1187 1187 0 0 0 0 0 1082 1066 1022 1051 1022 1022 886 943 931 886 886 876 0 0 0 0 817 799 0 799 791 808 774 791 799 774 791 782 782 86 86 0 0 0 0 0 0 687 687 0 0 0 0 598 579 570 570 566 557 545 541 533 521 518 514 514 504 0 0 497 0 0 477 477 481 474 474 471 0 0 0 0 0 430 422 425 425 422 422 427 406 411 415 413 406 406 406 406 406 413 406 404 408 397 395 391 387 373 367 367 364 359 353 350 347 345 345 0 0 0 0 0
    0 0 0 0 0 0 0 0 0 0 0 0 0 0 0 0 0 0 0 0 0 0 0 0 0 0 0 0 0 0 0 0 0 0 0 0 0 0 0 0 0 0 0 0 0 0 0 0 0 0 0 0 0 0 0 0 0 0 0 0 0 0 0 0 0 0 0 0 0 1443 1388 1443 1533 1443 1501 1565 1565 1533 1533 1711 1599 1635 1936 2230 2164 1989 2044 2164 2102 2044 2044 2044 1989 2044 2102 2102 2044 2102 2230 2374 2453 2537 2453 2628 2830 2943 3345 3679 4329 4906 4599 4906 5661 5661 4906 4599 4599 4329 4329 4599 4329 4088 3873 4088 4088 4088 4329 4599 4599 4906 5256 5256 6133 5661 6690 6133 6690 7359 7359 7359 8177 8177 8177 8177 7359 7359 6690 6690 5661 6133 5661 5661 6133 6690 6690 7359 7359 7359 7359 7359 7359 7359 7359 7359 6690 7359 8177 7359 7359 7359 6690 6690 6690 6690 5661 5256 4088 3066 2830 2453 2044 1989 1936 1839 1887 1887 1887 0 1672 1752 1711 1711 1599 1362 1314 1226 1187 1206 1187 1187 1168 1168 1168 1132 0 0 0 0 1082 1066 1022 1051 1036 1022 908 955 943 886 886 865 0 0 0 0 808 791 0 0 0 799 766 782 799 766 791 774 774 86 86 0 0 0 0 0 0 0 0 0 0 0 0 598 584 570 570 566 561 0 0 529 518 514 514 514 507 0 504 500 0 0 481 477 481 474 474 471 0 0 0 0 0 430 420 422 422 420 420 427 408 408 413 415 406 406 406 406 406 411 408 404 406 397 395 389 0 369 362 364 360 353 348 345 343 342 340 0 0 0 0 0
    0 0 0 0 0 0 0 0 0 0 0 0 0 0 0 0 0 0 0 0 0 0 0 0 0 0 0 0 0 0 0 0 0 0 0 0 0 0 0 0 0 0 0 0 0 0 0 0 0 0 0 0 0 0 0 0 0 0 0 0 0 0 0 0 0 0 0 0 0 1443 1388 1471 1533 1443 1471 1565 1565 1533 1533 1711 1533 1599 1936 2230 2230 1989 2044 2230 2102 2044 2044 1989 1989 2044 2102 2164 2044 2102 2230 2299 2453 2453 2374 2537 2628 2830 3199 3504 4329 4599 4329 4599 5256 5256 4906 4329 4329 4329 4088 4599 4088 4088 3873 3873 4088 3873 4088 4599 4329 4599 5256 5661 5661 5661 6690 6133 6690 7359 7359 7359 8177 7359 8177 7359 7359 6690 6133 6690 5256 6133 5256 5661 6133 6690 6690 7359 7359 8177 7359 8177 8177 8177 7359 7359 7359 7359 8177 7359 7359 7359 6690 6690 6690 6690 5661 5256 3873 3066 2725 2453 2044 2044 1989 1887 1936 1887 1887 1795 1711 1752 1752 1711 1635 1362 1291 1206 1187 1206 1187 1168 1149 1149 1168 1132 0 0 0 0 1082 1066 1022 1051 1036 1036 908 955 943 886 876 865 0 0 0 0 799 774 0 422 0 799 758 774 799 758 791 766 758 0 86 0 0 0 0 110 109 0 0 0 0 0 0 598 584 574 574 570 561 0 0 529 514 514 511 511 507 0 504 500 493 0 481 0 481 474 477 0 0 0 0 0 0 427 415 420 420 418 418 427 411 408 413 418 406 408 406 406 406 411 413 404 406 397 393 387 0 371 366 366 362 357 348 347 343 343 0 0 0 0 0 0
    0 0 0 0 0 0 0 0 0 0 0 0 0 0 0 0 0 0 0 0 0 0 0 0 0 0 0 0 0 0 0 0 0 0 0 0 0 0 0 0 0 0 0 0 0 0 0 0 0 0 0 0 0 0 0 0 0 0 0 0 0 0 0 0 0 0 0 0 0 1443 1388 1471 1533 1443 1471 1565 1565 1533 1533 1711 1533 1599 1887 2230 2299 1989 2044 2230 2044 2044 1989 1989 1989 2044 2044 2102 2044 2102 2164 2299 2374 2299 2299 2453 2537 2725 3066 3345 4599 4906 4329 4599 4906 4599 4599 4088 4329 4088 3873 4599 4088 3873 3873 3873 4088 4088 4329 4906 4599 4906 5661 6133 5661 5661 6133 6133 6133 6690 6690 6690 6690 7359 7359 7359 7359 6690 6133 6690 5256 6133 5256 6133 6133 6690 6690 7359 6690 8177 7359 8177 8177 8177 7359 7359 7359 7359 7359 7359 7359 7359 6690 6690 7359 7359 6133 5256 3873 3066 2725 2453 2102 2102 2044 1887 1989 1936 1936 1839 1752 1795 1752 1752 1635 1362 1291 1206 1187 1206 1187 1168 1149 1149 1168 1132 0 0 0 1082 1066 1066 1022 1036 1051 1036 919 955 943 897 876 865 0 826 0 0 799 766 782 420 0 791 750 766 791 758 782 766 758 758 86 0 0 0 0 110 109 0 0 0 0 0 0 603 588 579 579 570 570 0 0 525 511 514 511 514 507 500 504 504 493 0 481 0 481 474 477 0 0 0 0 0 0 430 415 420 420 418 418 427 411 406 413 418 406 408 408 406 406 411 418 404 404 0 0 385 377 371 367 366 362 359 352 350 348 350 348 0 0 0 0 0
    0 0 0 0 0 0 0 0 0 0 0 0 0 0 0 0 0 0 0 0 0 0 0 0 0 0 0 0 0 0 0 0 0 0 0 0 0 0 0 0 0 0 0 0 0 0 0 0 0 0 0 0 0 0 0 0 0 0 0 0 0 0 0 0 0 0 0 0 0 1443 1388 1471 1565 1443 1471 1565 1565 1533 1533 1711 1533 1599 1839 2164 2230 1989 1989 2164 2044 1989 1989 1989 1989 2044 2044 2102 1989 2102 2164 2230 2374 2230 2230 2374 2453 2628 2943 0 4906 4906 4599 4599 5256 4599 4329 4088 4329 3873 3873 4329 3873 3679 3679 3873 4088 3873 4599 4906 4906 5256 6133 6690 6133 6133 6133 5661 5661 6133 6133 6133 6133 6690 6690 6690 6690 6690 6133 6690 5661 6133 5256 6133 6133 6690 6690 6690 6690 7359 7359 7359 7359 7359 7359 7359 7359 6690 7359 7359 7359 7359 6690 6690 6690 7359 6133 4906 3873 3199 2725 2537 2102 2164 2102 1936 2044 1989 1989 1936 1795 1887 1795 1795 1672 1388 1291 1226 1206 1206 1187 1168 1149 1149 1168 1115 0 0 0 0 1051 1051 0 1036 1051 1036 919 955 943 897 876 865 139 826 0 0 791 766 782 420 0 791 750 758 791 758 782 758 750 750 86 0 0 0 0 110 109 0 0 0 634 629 613 608 593 579 584 574 579 0 0 0 0 0 514 514 507 504 504 511 497 0 484 0 481 477 477 0 471 0 0 0 0 432 418 422 422 420 420 427 413 406 411 418 406 408 408 406 406 408 420 404 402 397 393 385 379 373 369 366 364 360 353 353 355 355 353 0 0 0 0 0
    0 0 0 0 0 0 0 0 0 0 0 0 0 0 0 0 0 0 0 0 0 0 0 0 0 0 0 0 0 0 0 0 0 0 0 0 0 0 0 0 0 0 0 0 0 0 0 0 0 0 0 0 0 0 0 0 0 0 0 0 0 0 0 0 0 0 0 0 0 1443 1388 1471 1565 1443 1471 1565 1565 1533 1533 1711 1533 1565 1795 2102 2164 1936 1989 2164 1989 1989 1989 1936 1989 1989 1989 2102 1989 2044 2164 2164 2299 2164 2230 2374 2374 2628 2943 0 5256 5256 4906 4906 5256 4329 4088 3679 4088 3679 3679 3873 3679 3679 3679 3873 4088 3873 4906 5256 5661 6133 6690 6690 6133 6133 5661 5661 5661 5661 6133 5661 6133 6690 6690 6690 6133 6133 6133 6133 5661 5661 4906 5661 5661 6133 6133 6133 6133 7359 7359 7359 7359 7359 7359 7359 6690 6690 6690 6690 6690 7359 6690 6133 6690 6690 5661 4599 3873 3199 2628 2537 2102 2230 2102 1989 2102 2102 2044 2044 0 1936 1839 1839 1711 1443 1314 1247 1226 1226 1206 1187 1168 1168 1187 1115 0 0 0 0 0 1051 0 0 1051 1036 908 955 931 886 0 855 0 826 0 0 799 766 782 422 782 791 758 758 791 758 782 758 758 758 86 86 0 0 0 110 109 0 0 657 639 634 618 608 593 584 584 579 0 0 0 0 0 0 514 0 507 504 504 514 500 511 487 0 481 477 0 0 471 0 0 0 0 0 422 425 422 422 420 0 413 404 411 418 408 408 408 408 406 408 422 402 402 397 393 383 377 373 371 366 364 360 353 353 353 357 352 0 0 0 0 0
    0 0 0 0 0 0 0 0 0 0 0 0 0 0 0 0 0 0 0 0 0 0 0 0 0 0 0 0 0 0 0 0 0 0 0 0 0 0 0 0 0 0 0 0 0 0 0 0 0 0 0 0 0 0 0 0 0 0 0 0 0 0 0 0 0 0 0 0 0 1443 1388 1471 1565 1443 1471 1565 1565 1533 1533 1711 1501 1533 1795 2102 2164 1989 1989 2102 1989 1989 1989 1936 1989 1989 1989 2102 1989 2044 2164 2164 2299 2164 2230 2374 2374 0 0 0 5661 5661 5256 5256 5256 4088 3873 3679 3873 3504 3679 3679 3679 3504 3679 3873 4088 4088 5256 5661 6690 6690 7359 7359 6133 6133 6133 5661 5661 5661 6133 5661 6133 6690 6133 6133 6133 5661 5661 5661 5256 5256 4599 5661 5256 6133 6133 6133 6133 7359 6690 7359 7359 7359 7359 7359 7359 6690 7359 7359 6690 6690 6690 6133 6690 6133 5661 4599 4088 3345 2628 2537 2164 2299 2230 1989 2164 2102 2102 2102 1936 1989 1887 1887 1752 1443 1338 1291 0 1247 1226 1206 1187 1187 1206 1115 0 0 0 0 0 1051 0 0 1051 1036 0 943 919 876 0 855 0 836 836 0 799 774 791 425 791 799 758 750 791 750 782 0 0 750 86 86 0 0 0 110 109 0 669 657 645 645 623 618 598 584 588 574 0 0 0 0 0 0 518 0 511 511 507 521 511 521 490 0 484 481 0 0 471 0 0 0 0 0 425 0 0 425 422 220 415 404 411 418 408 411 408 408 408 408 422 402 402 397 393 385 377 373 369 366 362 357 350 350 352 355 350 0 0 0 0 0
    0 0 0 0 0 0 0 0 0 0 0 0 0 0 0 0 0 0 0 0 0 0 0 0 0 0 0 0 0 0 0 0 0 0 0 0 0 0 0 0 0 0 0 0 0 0 0 0 0 0 0 0 0 0 0 0 0 0 0 0 0 0 0 0 0 0 0 0 0 1443 1388 1471 1533 1443 1471 1565 1565 1533 1501 1711 1501 1501 1795 2164 2164 1989 1936 2102 1989 1989 1989 1936 2044 1989 1989 2102 1989 2044 2164 2164 2299 2164 2164 2374 2374 0 0 0 5661 5661 5256 4906 4329 3679 3679 3504 3679 3345 3504 3504 3504 3679 3679 3873 4329 4329 5661 6690 7359 7359 7359 8177 6690 6690 6690 6133 6133 5661 6133 5661 6133 6133 5661 6133 5661 5661 5256 5661 5256 5256 4329 5661 5256 6133 6133 6133 6133 7359 6690 8177 7359 7359 7359 7359 7359 6690 7359 6690 6690 6690 6690 6133 6133 6133 5661 4599 4599 3504 2725 2628 2230 2374 2299 2044 2230 2164 2164 2230 1989 2044 1887 1887 1752 1471 1362 1314 0 1268 1247 1226 1206 1206 0 0 0 0 0 0 593 1051 0 0 1051 0 0 0 897 865 0 855 0 836 836 0 808 782 799 427 791 799 766 743 782 743 766 0 0 0 0 0 0 0 0 110 109 675 663 657 645 645 629 623 603 588 588 579 0 0 0 0 0 0 0 0 514 514 507 525 514 525 493 0 487 484 0 74 474 0 0 0 0 0 0 0 85 85 85 220 418 404 411 420 411 411 411 411 411 411 425 404 402 402 395 387 377 373 369 364 360 355 348 352 352 355 352 0 0 0 0 0
    0 0 0 0 0 0 0 0 0 0 0 0 0 0 0 0 0 0 0 0 0 0 0 0 0 0 0 0 0 0 0 0 0 0 0 0 0 0 0 0 0 0 0 0 0 0 0 0 0 0 0 0 0 0 0 0 0 0 0 0 0 0 0 0 0 0 0 0 0 1443 1388 1471 1533 1471 1471 1565 1565 1501 1501 1711 1471 1471 1795 2164 2230 1989 1936 2102 1989 1989 1989 1936 1989 1989 1989 2102 1989 2044 2164 2164 2299 2164 2164 2374 2374 0 0 0 5256 5661 5256 4599 4088 3679 3504 3504 3504 3345 3345 3345 3504 3679 3679 3873 4599 4599 6133 7359 8177 8177 8177 8177 7359 6690 6690 6133 6133 5661 5661 5661 6133 6133 5661 5661 5661 5256 5256 5661 4906 4599 4329 5256 4906 5256 5661 5661 5661 6690 6690 7359 7359 7359 7359 7359 7359 7359 7359 7359 6690 6690 6690 6133 6133 6133 5661 4906 4906 3679 2830 2725 2374 2453 2374 2102 2230 2164 2164 2230 1989 2044 1887 1839 1752 1471 1388 1362 0 0 1291 1247 1247 1226 0 0 0 0 0 0 0 1051 0 0 0 0 0 0 876 855 186 855 0 845 836 0 817 799 808 0 799 799 766 743 782 743 750 0 0 0 0 0 0 0 0 110 109 675 663 657 651 651 629 629 0 593 593 584 0 574 0 0 82 81 0 0 0 518 507 521 514 521 497 0 490 490 0 74 474 0 0 0 0 0 0 0 85 85 85 221 420 404 411 420 413 413 413 413 413 413 425 404 404 406 399 391 383 375 373 369 366 364 360 360 357 359 359 0 0 0 0 0
    0 0 0 0 0 0 0 0 0 0 0 0 0 0 0 0 0 0 0 0 0 0 0 0 0 0 0 0 0 0 0 0 0 0 0 0 0 0 0 0 0 0 0 0 0 0 0 0 0 0 0 0 0 0 0 0 0 0 0 0 0 0 0 0 0 0 0 0 0 1443 1388 1471 1533 1471 1471 1565 1565 1501 1501 1711 1471 1471 1752 2102 2164 1989 1936 2044 1989 1936 1989 1936 1989 1989 1989 2102 1989 2044 2164 2164 2299 2164 2230 2374 2374 0 0 0 5256 6133 6133 5256 4329 3873 3873 3679 3679 3504 3504 3504 3679 3873 4088 4599 5256 5661 7359 8177 0 8177 8177 0 7359 6690 6690 6133 6133 5661 6133 5661 6133 6133 5256 5661 5661 5256 5256 5256 4599 4329 4088 4906 4329 4599 4906 4906 5256 6133 6133 7359 7359 6690 7359 7359 7359 7359 7359 7359 6690 6133 6133 6133 6690 6133 5661 4906 4906 3679 2830 2725 2374 2453 2374 2102 2299 2164 2164 2299 2044 2044 1839 1839 1752 1501 1415 1388 0 1362 1362 1291 1268 1268 0 0 0 0 0 0 0 0 561 574 0 0 0 0 865 0 186 855 836 845 845 0 826 0 817 0 808 808 774 743 774 735 743 0 0 0 0 0 0 0 0 0 0 669 663 657 657 657 639 639 0 0 598 588 0 0 0 0 0 0 0 0 0 518 507 521 511 514 497 487 490 490 0 74 474 0 0 0 0 0 0 0 85 85 85 221 420 404 413 420 415 415 415 415 415 413 425 406 406 408 402 393 389 379 383 379 377 373 367 367 364 362 362 0 0 0 0 0
    0 0 0 0 0 0 0 0 0 0 0 0 0 0 0 0 0 0 0 0 0 0 0 0 0 0 0 0 0 0 0 0 0 0 0 0 0 0 0 0 0 0 0 0 0 0 0 0 0 0 0 0 0 0 0 0 0 0 0 0 0 0 0 0 0 0 0 0 0 1443 1388 1471 1533 1471 1471 1565 1565 1501 1501 1711 1471 1471 1752 2044 2102 1936 1887 2044 1936 1936 1936 1887 1989 1989 1989 2102 1989 2044 2230 2164 2299 2164 2230 2374 2374 0 0 3504 5256 6133 6133 5661 4906 4088 4088 3873 3873 3504 3504 3679 3873 4088 4329 4906 5661 6133 7359 8177 8177 8177 8177 8177 7359 7359 7359 6690 6690 6133 6133 5661 6133 6133 5256 5661 5661 5256 4906 5256 4599 4088 4088 4329 3873 4088 4329 4329 4599 5256 5661 6690 6690 6690 6690 6690 7359 7359 7359 6690 6133 5661 6133 6133 6133 6133 5661 4906 5256 3873 0 2830 2453 2453 2374 2102 2230 2164 2164 2230 1989 1989 1795 1795 1752 1501 1443 1443 0 1415 1415 1338 1338 1338 0 0 0 0 0 0 0 0 557 566 0 0 0 0 0 0 186 855 845 845 845 0 836 0 0 0 808 808 782 743 0 0 735 0 0 0 0 0 0 0 0 0 0 669 663 651 657 657 639 634 629 0 598 584 0 579 0 0 0 0 0 0 0 518 504 518 511 511 500 490 493 493 0 74 477 0 0 0 0 454 0 0 85 0 0 221 422 404 413 420 418 415 415 415 415 415 427 408 408 408 402 393 389 383 387 385 381 375 371 369 364 362 362 0 0 0 0 0
    0 0 0 0 0 0 0 0 0 0 0 0 0 0 0 0 0 0 0 0 0 0 0 0 0 0 0 0 0 0 0 0 0 0 0 0 0 0 0 0 0 0 0 0 0 0 0 0 0 0 0 0 0 0 0 0 0 0 0 0 0 0 0 0 0 0 0 0 0 1443 1388 1471 1533 1471 1471 1565 1565 1501 1501 1711 1501 1501 1795 2044 2164 1989 1887 2044 1936 1887 1936 1887 2044 1989 1989 2102 1989 2044 2299 2230 2299 2230 2230 2374 2453 0 3199 3345 4599 6133 6133 5256 4906 4329 4329 3873 3873 3345 3504 3504 3679 4088 4329 4906 5661 6133 7359 8177 8177 8177 8177 8177 7359 7359 7359 7359 7359 6690 6133 6133 6133 6690 5661 5661 5661 5256 4906 4906 4329 3873 3873 4088 3873 3873 4088 4329 4088 5256 5256 6133 6133 6133 6133 6690 6690 6690 7359 6690 6133 5661 6133 6133 6133 6133 5661 4906 5256 3873 0 2943 2453 2453 2374 2102 2164 2102 2102 2164 1989 1936 1795 1752 1711 1533 1501 1471 1471 1443 1443 1388 1362 1362 0 0 0 1082 0 0 0 0 561 561 0 0 0 561 0 0 186 855 845 845 845 8177 836 0 0 0 0 0 791 0 0 0 0 0 0 0 0 0 0 0 0 0 0 663 663 651 657 657 639 634 623 588 588 579 0 0 0 0 0 0 0 525 500 511 500 514 504 500 497 487 493 493 484 0 477 0 0 0 0 454 0 0 84 0 0 221 422 404 411 418 418 415 415 415 415 415 427 411 408 411 404 395 391 385 389 385 383 377 373 371 367 364 364 0 0 0 0 0
    0 0 0 0 0 0 0 0 0 0 0 0 0 0 0 0 0 0 0 0 0 0 0 0 0 0 0 0 0 0 0 0 0 0 0 0 0 0 0 0 0 0 0 0 0 0 0 0 0 0 0 0 0 0 0 0 0 0 0 0 0 0 0 0 0 0 0 0 0 1443 1388 1471 1533 1471 1471 1565 1565 1501 1501 1711 1501 1533 1795 2044 2102 1989 1887 1989 1936 1887 1936 1887 2044 2044 2044 2102 2044 2102 2299 2299 2374 2299 2374 2537 2537 2725 3345 3504 4599 6133 6133 5256 4906 4599 4599 4088 3873 3504 3504 3679 3873 4329 4599 5256 5661 6133 7359 7359 7359 8177 8177 8177 7359 8177 8177 7359 7359 7359 6690 6690 6690 6690 5661 5661 5661 5256 4329 4599 4088 3873 3873 3873 3679 3679 3873 4329 4088 4906 5256 5661 5661 5661 6133 6133 6133 6690 6690 6690 6133 5661 6133 6133 6133 6133 5661 5256 5661 4329 3345 2943 2453 2453 2299 2044 2102 2102 2044 2164 1989 1887 1752 1752 1711 1565 1533 1501 1501 1443 1471 1443 1388 1362 0 0 0 1115 0 0 0 0 574 561 0 0 0 566 0 0 0 855 845 845 845 0 845 826 0 0 0 0 799 0 0 0 0 0 0 0 0 0 0 0 0 0 0 669 663 651 657 657 639 629 0 588 584 579 0 0 0 0 0 0 0 0 500 511 500 511 500 497 497 490 497 497 484 0 477 0 0 0 0 454 0 0 84 0 430 221 422 404 411 415 418 413 413 415 413 413 427 413 411 413 404 395 389 383 387 383 383 379 375 371 366 364 362 0 0 0 0 0
    0 0 0 0 0 0 0 0 0 0 0 0 0 0 0 0 0 0 0 0 0 0 0 0 0 0 0 0 0 0 0 0 0 0 0 0 0 0 0 0 0 0 0 0 0 0 0 0 0 0 0 0 0 0 0 0 0 0 0 0 0 0 0 0 0 0 0 0 0 1443 1388 1471 1533 1471 1471 1565 1565 1501 1501 1711 1533 1599 1795 2044 2164 1989 1936 1989 1989 1887 1989 1936 2044 2044 2044 2164 2044 2102 2374 2299 2453 2374 2453 2537 2628 2830 3504 3873 4906 6133 6133 5256 4906 4329 4088 4088 3679 3345 3679 3679 3873 4599 4906 5661 6133 6133 7359 7359 7359 8177 8177 8177 7359 8177 8177 8177 8177 8177 7359 6690 7359 6690 5661 5661 5661 4906 4088 4329 3873 3679 3679 3873 3504 3679 3873 4329 4088 4906 5256 5661 5661 5661 6133 6133 6133 6690 6690 6133 6133 5661 6133 6133 6133 6133 6133 5661 6133 4906 3679 3066 2537 2453 2299 2102 2102 2044 2044 2102 1989 1887 1752 1752 1711 1565 1565 1501 1471 1443 1471 1443 1388 1388 0 0 0 1187 0 0 0 0 588 561 0 0 0 0 0 0 0 845 845 845 845 0 845 826 826 0 0 0 799 0 0 0 0 0 0 0 0 0 0 0 0 0 0 663 657 651 657 657 634 623 0 0 584 584 0 0 0 0 0 0 0 0 500 511 500 511 500 497 497 490 497 497 484 484 481 0 0 0 0 451 0 0 0 427 427 0 425 404 408 413 418 411 413 413 413 411 425 413 411 413 406 395 389 379 385 383 383 379 377 373 369 366 366 0 0 0 0 0
    0 0 0 0 0 0 0 0 0 0 0 0 0 0 0 0 0 0 0 0 0 0 0 0 0 0 0 0 0 0 0 0 0 0 0 0 0 0 0 0 0 0 0 0 0 0 0 0 0 0 0 0 0 0 0 0 0 0 0 0 0 0 0 0 0 0 0 0 0 1443 1388 1471 1533 1471 1471 1565 1565 1533 1533 1711 1565 1635 1795 2044 2164 2044 1936 1989 1989 1887 1989 1936 2044 2044 2044 2164 2102 2102 2374 2299 2453 2374 2453 2537 2628 2830 3504 3873 4599 5661 5661 4599 4329 4088 3679 3873 3504 3504 3873 3873 4329 4906 5256 6133 6133 6690 7359 7359 7359 8177 8177 8177 8177 0 0 8177 8177 8177 7359 7359 7359 6690 5661 5661 6133 4906 4088 4329 3679 3679 3679 3679 3504 3679 3679 4329 4088 4906 5256 5661 5661 5661 6133 6133 6133 6690 6690 6133 6133 5661 6133 6133 6690 6690 6690 6133 6690 5661 3873 3066 2537 2453 2374 2102 2044 1989 2044 2044 1989 1839 1752 1711 1711 1565 1599 1501 1471 1415 1415 1415 1362 1362 0 1226 1149 1206 0 1187 1149 1098 598 570 0 0 897 0 0 0 836 845 845 836 836 0 845 817 826 0 817 808 799 0 0 743 728 700 700 694 0 0 700 700 694 0 681 663 651 639 0 645 629 618 0 593 0 0 0 0 0 0 0 0 0 0 500 511 500 511 500 497 497 490 497 497 484 487 484 0 0 0 0 0 0 0 427 425 425 425 425 404 408 413 418 408 411 411 411 411 420 413 408 413 408 0 391 381 387 383 383 381 379 375 371 366 367 0 0 0 0 0
    0 0 0 0 0 0 0 0 0 0 0 0 0 0 0 0 0 0 0 0 0 0 0 0 0 0 0 0 0 0 0 0 0 0 0 0 0 0 0 0 0 0 0 0 0 0 0 0 0 0 0 0 0 0 0 0 0 0 0 0 0 0 0 0 0 0 0 0 0 1443 1388 1471 1533 1471 1471 1565 1599 1533 1533 1711 1599 1635 1795 1989 2102 1989 1936 1989 1989 1887 1989 1936 2044 2044 2044 2230 2102 2164 2374 2374 2453 2374 2453 2537 2628 2830 3345 3679 4329 4906 4599 3873 3873 3679 3345 3504 3345 3345 3873 4088 4599 4906 5256 6690 6133 6690 7359 8177 8177 8177 8177 8177 8177 0 0 8177 8177 8177 7359 7359 7359 6690 5661 5661 5661 5256 4088 4329 3679 3679 3679 3679 3504 3504 3679 4088 3873 4599 4906 5256 5661 5661 5661 6133 6133 6133 6133 5661 6133 5661 6133 6133 6690 6690 6690 6690 7359 5661 3873 3066 2628 2453 2299 2102 2044 1989 1989 1989 1936 1795 1752 1711 1672 1533 1565 1471 1415 1388 1362 1362 1314 1291 0 1226 1149 1226 1206 1206 1168 1132 0 0 0 1008 908 836 865 0 845 845 845 826 826 817 836 808 817 817 817 808 808 0 782 750 721 700 700 687 687 681 694 687 694 0 675 657 645 639 0 639 629 613 0 593 593 0 0 0 0 0 0 0 0 514 500 511 500 507 497 493 497 490 497 497 484 487 487 0 0 0 0 0 0 420 425 422 422 422 425 406 408 413 418 406 408 408 408 408 418 415 408 411 411 0 0 0 389 385 383 381 379 377 373 366 367 0 0 0 0 0
    0 0 0 0 0 0 0 0 0 0 0 0 0 0 0 0 0 0 0 0 0 0 0 0 0 0 0 0 0 0 0 0 0 0 0 0 0 0 0 0 0 0 0 0 0 0 0 0 0 0 0 0 0 0 0 0 0 0 0 0 0 0 0 0 0 0 0 0 0 1443 1415 1471 1533 1471 1471 1565 1599 1533 1533 1711 1599 1635 1752 1936 2102 1989 1936 1989 1989 1887 1989 1936 2044 2044 2044 2164 2102 2164 2374 2299 2453 2374 2374 2537 2537 2830 3199 3504 4329 4599 3873 3504 3504 3199 3066 3199 3066 3199 3504 3873 4329 4599 5256 6690 6690 7359 8177 7359 8177 8177 8177 8177 8177 8177 8177 8177 8177 8177 7359 7359 7359 6690 6133 6133 6133 5256 4088 4329 3679 3679 3679 3679 3679 3504 3504 3873 3504 4088 4329 4329 4906 5256 5661 6133 6133 6133 6133 5661 6133 5661 6133 6133 6690 6690 6690 6133 6690 6133 3873 2943 2628 2453 2299 2164 2044 1936 1936 1936 1936 1795 1711 1672 1635 1533 1565 1443 1388 1338 1338 1314 1291 1268 1268 1226 1168 1247 1247 1226 1206 1168 1036 0 1008 1008 919 845 876 865 855 845 845 817 826 817 836 808 817 817 817 808 817 0 791 750 721 700 694 681 687 675 687 681 687 0 669 651 639 634 629 634 629 613 608 593 593 0 0 0 0 0 0 0 0 511 500 507 504 507 497 493 493 487 493 493 484 487 487 0 0 0 0 0 432 415 422 422 420 420 425 408 408 413 418 408 408 411 408 408 415 418 408 411 406 0 387 381 381 379 379 377 377 375 371 366 366 0 0 0 0 0
    0 0 0 0 0 0 0 0 0 0 0 0 0 0 0 0 0 0 0 0 0 0 0 0 0 0 0 0 0 0 0 0 0 0 0 0 0 0 0 0 0 0 0 0 0 0 0 0 0 0 0 0 0 0 0 0 0 0 0 0 0 0 0 0 0 0 0 0 0 1443 1415 1471 1533 1471 1471 1533 1599 1533 1533 1711 1599 1635 1752 1887 2044 1989 1936 1989 1936 1887 1989 1936 2044 2044 2044 2164 2102 2164 2374 2299 2453 2374 2374 2537 2537 2830 3066 3504 4088 4088 3345 3066 3199 3066 2453 3066 2830 3066 3345 3679 3873 4329 5661 6690 6690 7359 8177 7359 7359 8177 8177 7359 8177 8177 7359 7359 8177 0 8177 7359 7359 7359 6690 6133 6133 5256 3873 4088 3679 3504 3679 3504 3504 3504 3504 3873 3504 3873 4088 4088 4599 5256 5256 6133 6133 6133 6133 5661 6133 5661 6133 6133 6690 6690 6690 6133 6690 6133 3873 2830 2537 2374 2164 2102 1989 1936 1936 1936 1887 1795 1711 1672 1672 1533 1565 1415 1362 1314 1291 1291 1247 1247 1247 1226 1187 1247 1291 1291 1268 1247 1051 981 994 994 931 855 886 886 865 845 845 817 817 817 826 808 808 808 817 808 817 791 799 766 728 707 694 681 681 675 681 675 687 663 669 651 639 634 629 629 629 608 0 593 593 0 0 0 0 0 0 0 0 511 500 507 504 507 497 490 493 487 493 490 481 487 490 0 0 0 0 0 430 413 422 422 420 420 427 408 406 413 418 408 408 411 411 408 413 420 408 411 406 0 383 377 377 375 375 375 373 371 369 364 362 0 0 0 0 0
    0 0 0 0 0 0 0 0 0 0 0 0 0 0 0 0 0 0 0 0 0 0 0 0 0 0 0 0 0 0 0 0 0 0 0 0 0 0 0 0 0 0 0 0 0 0 0 0 0 0 0 0 0 0 0 0 0 0 0 0 0 0 0 0 0 0 0 0 0 1443 1415 1471 1533 1471 1471 1533 1599 1533 1533 1711 1565 1599 0 1887 1989 1936 1887 1936 1936 1887 1936 1936 2044 1989 2044 2102 2102 2164 2374 2299 2453 2299 2374 2537 2628 2830 2943 3199 3504 3504 3066 2374 2628 2453 1989 2453 2299 2374 0 3199 3504 3873 5256 6133 6690 7359 8177 7359 7359 7359 7359 7359 7359 7359 7359 7359 7359 0 8177 7359 7359 7359 6690 6690 6133 5256 3873 4329 3679 3679 3679 3504 3679 3504 3504 3873 3504 4088 4088 4088 4599 4906 5256 6133 5661 5661 6133 5661 6133 5661 5661 6133 6133 6133 6690 6133 6690 6133 3873 2725 2453 2299 2164 2102 1989 1936 1936 1936 1936 1795 1711 1711 1672 1501 1533 1388 1314 1291 1268 1268 1247 1226 1226 1226 1206 1268 1314 1314 1314 1291 1098 994 1008 981 943 865 897 897 865 855 845 817 817 808 826 799 808 808 817 808 826 817 799 774 735 714 700 681 681 675 681 669 687 663 669 651 634 629 623 629 623 608 603 593 593 0 0 0 0 0 0 0 514 511 504 507 504 511 497 490 493 487 490 490 484 487 487 0 0 0 0 0 430 413 420 420 420 420 219 411 406 411 420 408 411 411 411 408 413 422 408 411 0 0 379 0 0 371 373 373 369 369 369 362 360 0 0 0 0 0
    0 0 0 0 0 0 0 0 0 0 0 0 0 0 0 0 0 0 0 0 0 0 0 0 0 0 0 0 0 0 0 0 0 0 0 0 0 0 0 0 0 0 0 0 0 0 0 0 0 0 0 0 0 0 0 0 0 0 0 0 0 0 0 0 0 0 0 0 0 1443 1415 1471 1565 1471 1471 1565 1599 1533 1565 1672 1599 1599 0 0 1887 1887 1887 1887 1936 1839 1936 1936 1989 1989 1989 2102 2102 2164 2374 2299 2374 2299 2374 2453 2537 2628 2725 2830 3066 3066 2453 1936 1989 1936 1839 1887 1936 0 0 0 0 3504 5256 6133 6690 8177 8177 7359 7359 7359 7359 7359 7359 7359 6690 6690 7359 8177 0 8177 7359 7359 6690 6690 6133 5256 3873 4329 3679 3873 3679 3504 3679 3679 3504 4088 3679 4329 4088 4088 4599 4906 4906 6133 5661 5256 5661 5661 6133 6133 5661 6133 6133 6690 7359 6690 7359 6690 3679 2453 2299 2230 2164 2102 2044 1989 1989 1989 1989 1887 1752 1711 1672 1501 1501 1362 1291 1268 1268 1247 1226 1206 1206 1226 1187 1268 1314 1338 1314 1314 1132 1008 994 981 943 876 908 908 876 855 845 817 808 808 817 799 799 799 808 799 817 808 791 766 743 714 700 687 675 675 675 663 681 657 663 645 629 623 0 0 623 608 603 593 598 603 0 0 0 0 0 521 511 507 504 507 507 511 500 490 493 487 490 487 481 487 487 484 0 0 0 0 432 413 420 420 420 420 219 413 404 411 420 408 411 411 411 408 411 422 404 404 0 0 0 0 0 369 371 371 366 0 367 360 359 0 0 0 0 0
    0 0 0 0 0 0 0 0 0 0 0 0 0 0 0 0 0 0 0 0 0 0 0 0 0 0 0 0 0 0 0 0 0 0 0 0 0 0 0 0 0 0 0 0 0 0 0 0 0 0 0 0 0 0 0 0 0 0 0 0 0 0 0 0 0 0 0 0 0 1443 1415 1471 1533 1471 1471 1565 1599 1565 1565 1672 1599 1599 0 1752 1839 1795 1795 1839 1887 1839 1936 1936 1989 1989 1989 2102 2102 2164 2299 2164 2230 2164 2164 2164 2299 2299 2299 2453 2453 2164 1989 1839 1795 1795 1711 1752 0 0 0 0 0 0 4906 5661 6690 7359 8177 7359 6690 6690 7359 7359 7359 6690 6133 6133 6133 7359 8177 7359 6690 6690 6690 6690 6133 5256 4088 4329 3679 3873 3873 3504 3873 3873 3504 4088 3873 4329 4088 4088 4906 4906 4906 6133 6133 5256 5661 5661 6133 6133 6133 6133 6690 6690 7359 6690 8177 6133 3504 2230 2230 2230 2164 2102 2102 1989 1989 1989 2044 1887 1795 1752 1711 1501 1471 1362 1268 1247 1247 1247 1226 1206 1206 1226 1187 1268 1314 1338 1291 1314 1132 1008 994 981 943 876 919 908 876 855 845 808 808 808 808 791 791 799 808 791 817 808 782 766 758 714 694 687 669 669 663 639 669 639 639 634 618 0 0 0 0 608 598 598 598 608 603 0 0 0 0 0 514 514 507 511 511 514 504 493 493 487 487 484 481 484 484 484 0 0 0 0 0 413 422 422 422 422 219 415 404 411 420 408 411 411 411 408 408 420 402 399 0 0 0 0 0 369 371 371 364 362 364 357 355 0 0 0 0 0
    0 0 0 0 0 0 0 0 0 0 0 0 0 0 0 0 0 0 0 0 0 0 0 0 0 0 0 0 0 0 0 0 0 0 0 0 0 0 0 0 0 0 0 0 0 0 0 0 0 0 0 0 0 0 0 0 0 0 0 0 0 0 0 0 0 0 0 0 0 1443 1415 1471 1533 1501 1501 1565 1635 1565 1565 1672 1599 1599 1635 1672 1711 1752 1711 1795 1795 1839 1887 1887 1936 1936 1989 2044 2044 2044 2164 2044 1989 1936 1887 1795 1839 1795 1839 1795 1752 1711 1752 1711 1711 1752 1635 1711 1711 1711 1752 1795 0 0 0 5256 6690 7359 7359 7359 6690 6690 6690 6690 6690 6133 5256 5256 5661 6690 7359 6690 6133 6133 6133 6133 5661 5661 4599 4599 3679 3873 3873 3504 3873 3873 3504 3873 3873 4329 4088 4088 4906 4906 4906 6133 6133 5256 5661 5661 6133 6133 6133 6133 6690 6133 7359 6690 7359 4906 2943 2164 2164 2230 2164 2102 2102 1989 1989 1989 1989 1887 1795 1711 1711 1501 1443 1362 1268 1247 1247 1247 1226 1226 1206 1247 1206 1291 1338 1314 1268 1314 1149 1051 1008 994 943 886 919 908 876 845 836 808 799 808 808 782 782 791 808 791 799 791 758 750 750 714 694 681 669 669 657 634 657 634 634 629 613 0 0 618 618 603 598 598 598 603 593 0 0 529 525 525 518 514 514 514 514 518 507 497 493 484 474 477 477 477 477 481 0 0 0 0 0 418 425 425 425 425 218 420 404 413 422 411 411 413 411 408 408 420 399 397 0 0 0 0 0 371 371 371 364 362 362 357 355 0 0 0 0 0
    0 0 0 0 0 0 0 0 0 0 0 0 0 0 0 0 0 0 0 0 0 0 0 0 0 0 0 0 0 0 0 0 0 0 0 0 0 0 0 0 0 0 0 0 0 0 0 0 0 0 0 0 0 0 0 0 0 0 0 0 0 0 0 0 0 0 0 0 0 1443 1415 1471 1533 1501 1501 1599 1635 1599 1599 1672 1635 1599 1599 1635 1635 1635 1672 1711 1752 1752 1795 1795 1839 1839 1887 1936 1936 1936 1936 1936 1887 1887 1839 1795 1795 1752 1795 1752 1711 1672 1711 1672 1635 1711 1599 1672 1672 1672 1711 1752 1752 1795 0 3873 6133 7359 7359 6690 6690 5661 6133 6133 6133 5661 4599 4599 4599 5256 6133 5256 4906 5256 5661 6133 5256 5661 4906 4599 3873 4088 3873 3679 3873 3873 3504 3873 3873 4329 4088 4088 4906 4906 5256 6133 6690 5256 5661 5661 6133 6133 6133 6133 6690 6133 7359 6133 5661 3504 2537 2102 2164 2164 2102 2102 2044 1989 1936 1936 1936 1887 1795 1711 1672 1501 1443 1362 1291 1268 1268 1268 1247 1226 1226 1247 1226 1291 1338 1314 1268 1314 1187 1115 1036 1022 943 897 919 908 876 836 836 817 808 808 808 782 782 791 808 791 799 791 750 743 758 714 694 687 669 675 663 634 645 629 629 623 613 613 613 613 613 603 593 593 593 598 584 0 541 529 525 525 521 518 514 514 518 521 511 500 493 481 465 477 474 474 474 477 465 0 0 0 0 0 427 427 427 427 217 422 406 415 422 411 413 413 411 408 408 418 397 395 0 0 0 0 379 371 371 371 362 360 359 355 353 0 0 0 0 0
    0 0 0 0 0 0 0 0 0 0 0 0 0 0 0 0 0 0 0 0 0 0 0 0 0 0 0 0 0 0 0 0 0 0 0 0 0 0 0 0 0 0 0 0 0 0 0 0 0 0 0 0 0 0 0 0 0 0 0 0 0 0 0 0 0 0 0 0 0 1443 1443 1471 1533 1533 1533 1599 1635 1599 1599 1635 1635 1565 1599 1635 1599 1599 1635 1672 1672 1711 1752 1752 1752 1752 1795 1795 1839 1839 1839 1887 1887 1887 1839 1795 1839 1795 1839 1795 1752 1672 1752 1565 1599 1672 1533 1635 1635 1635 1672 1672 1711 1752 1711 2943 4329 6133 5661 5661 5256 4906 5256 5661 5661 4599 4088 4088 3873 4599 5256 4329 4088 4906 5661 6690 5256 5661 5256 4329 3873 4088 3873 3679 3873 3873 3504 3679 3679 4088 3873 3873 4329 4329 4599 6133 6133 5661 5661 5661 6690 6690 6133 6133 6690 6690 7359 4906 3679 2943 2453 2164 2164 2164 2102 2102 2044 1936 1936 1936 1936 1936 1795 1752 1711 1501 1415 1362 1291 1268 1268 1268 1247 1226 1226 1268 1226 1291 1338 1291 1268 1338 1247 1206 1115 1051 968 931 943 919 876 845 845 836 817 817 817 791 799 799 817 799 799 808 774 750 791 728 700 694 675 681 681 645 651 634 629 623 613 613 613 613 613 603 593 588 588 593 574 557 533 525 525 525 521 518 514 514 518 518 511 497 493 477 465 474 474 471 471 474 465 0 0 0 0 0 0 430 430 430 217 425 406 415 422 413 413 415 413 411 408 420 397 395 0 0 0 377 377 369 369 369 362 360 359 357 355 0 0 0 0 0
    0 0 0 0 0 0 0 0 0 0 0 0 0 0 0 0 0 0 0 0 0 0 0 0 0 0 0 0 0 0 0 0 0 0 0 0 0 0 0 0 0 0 0 0 0 0 0 0 0 0 0 0 0 0 0 0 0 0 0 0 0 0 0 0 0 0 0 0 0 1471 1471 1471 1565 1565 1533 1599 1635 1599 1599 1635 1635 1565 1565 1599 1565 1565 1565 1599 1599 1672 1711 1672 1711 1711 1711 1752 1795 1795 1839 1839 1839 1795 1839 1752 1711 1711 1711 1752 1711 1635 1672 1533 1565 1672 1533 1635 1599 1635 1672 1672 1711 1711 1672 2044 2943 4088 3679 3679 3679 3873 4088 4599 4599 3679 3679 3679 3679 4088 4599 3873 3679 4329 5661 6133 5256 5661 4906 3873 3679 4088 3873 3679 3873 3679 3504 3679 3873 4088 3873 3873 4599 4329 4906 5661 6133 5661 6133 6133 7359 6690 6690 6690 7359 6133 6690 4599 3345 2830 2374 2299 2102 2102 2102 2044 1989 1936 1936 1989 1989 1936 1839 1752 1752 1533 1443 1362 1291 1291 1291 1291 1268 1247 1247 1268 1268 1338 1388 1314 1291 1362 1247 1206 1115 1036 981 955 955 943 886 855 855 845 836 836 826 799 808 817 826 808 808 817 791 782 817 766 714 694 681 687 687 657 663 639 629 623 613 0 613 613 608 598 584 588 588 584 566 549 529 525 521 525 521 514 514 511 514 514 504 493 487 474 459 471 471 471 468 471 465 446 459 0 0 0 0 432 432 432 0 425 406 415 422 413 413 415 413 411 411 420 397 395 393 389 381 377 375 369 371 0 364 362 359 359 357 0 0 0 0 0
    0 0 0 0 0 0 0 0 0 0 0 0 0 0 0 0 0 0 0 0 0 0 0 0 0 0 0 0 0 0 0 0 0 0 0 0 0 0 0 0 0 0 0 0 0 0 0 0 0 0 0 0 0 0 0 0 0 0 0 0 0 0 0 0 0 0 0 0 0 1471 1501 1501 1565 1599 1565 1635 1635 1635 1635 1635 1635 1565 1565 1599 1533 1533 1533 1565 1565 1635 1672 1635 1672 1672 1711 1752 1795 1795 1795 1839 1839 1795 1795 1711 1672 1635 1672 1711 1672 1599 1599 1565 1533 1672 1501 1635 1565 1635 1635 1672 1672 1672 1672 1887 2374 3199 2943 2943 3066 3345 3679 3873 4088 3504 3679 3873 3679 4088 4906 3873 3873 4088 5661 6133 5256 5661 5256 3679 3679 4088 3873 3679 3873 3679 3679 3873 4088 4329 4088 4088 4906 4329 5256 5661 6133 6133 6133 6133 7359 7359 7359 7359 7359 6690 6690 4599 3504 2830 2299 2374 2102 2044 2102 1989 1989 1936 1936 1989 1989 1989 1887 1752 1752 1533 1443 1388 1314 1291 1291 1314 1291 1268 1268 1314 1314 1415 1471 1415 1338 1338 1247 1187 1115 1036 955 955 955 943 886 865 876 865 845 845 836 808 817 817 826 808 808 817 799 791 826 799 735 700 687 700 694 675 675 657 634 634 618 613 613 608 608 593 579 584 584 574 566 545 529 525 521 525 525 521 518 514 514 511 500 493 487 474 457 471 471 468 468 468 462 446 457 0 0 0 0 432 432 432 0 425 406 413 0 0 411 413 413 411 408 420 397 395 393 0 383 377 377 371 0 0 0 362 359 359 359 0 0 0 0 0
    0 0 0 0 0 0 0 0 0 0 0 0 0 0 0 0 0 0 0 0 0 0 0 0 0 0 0 0 0 0 0 0 0 0 0 0 0 0 0 0 0 0 0 0 0 0 0 0 0 0 0 0 0 0 0 0 0 0 0 0 0 0 0 0 0 0 0 0 0 1501 1533 1533 1599 1635 1599 1635 1672 1635 1635 1635 1635 1599 1565 1599 1533 1501 1501 1533 1533 1599 1711 1672 1711 1711 1752 1795 1839 1839 1795 1839 1795 1752 1752 1711 1635 1599 1672 1711 1599 1501 1533 1471 1471 1599 1471 1565 1501 1599 1635 1635 1672 1672 1672 1839 2230 2943 2537 2628 2725 3066 3345 3679 3679 3345 3504 3873 3679 4088 4599 3873 3679 3873 5661 5661 4906 5661 5256 3679 3873 4329 4088 3679 4088 3873 3873 4088 4329 4329 4088 4088 4906 4329 5256 5661 5256 5256 5661 5661 6690 6133 6690 6690 7359 6690 7359 5256 4088 3066 2628 2628 2230 2044 2044 1989 1989 1989 1936 1989 1989 1989 1887 1795 1795 1533 1415 1388 1314 1314 1314 1314 1314 1291 1291 1338 1362 1471 1443 1388 1291 1314 1226 1187 1132 1051 955 968 955 943 897 886 886 876 855 865 845 826 826 836 826 808 808 817 799 791 826 799 728 700 687 694 694 675 675 657 634 639 618 618 618 613 608 598 584 588 588 584 574 553 537 533 529 533 533 525 525 521 518 518 504 504 497 477 457 468 471 468 465 465 459 446 457 0 0 0 0 430 432 432 432 425 406 411 420 411 408 411 408 408 408 418 397 397 393 0 385 379 379 371 0 0 0 364 360 360 362 0 0 0 0 0
    0 0 0 0 0 0 0 0 0 0 0 0 0 0 0 0 0 0 0 0 0 0 0 0 0 0 0 0 0 0 0 0 0 0 0 0 0 0 0 0 0 0 0 0 0 0 0 0 0 0 0 0 0 0 0 0 0 0 0 0 0 0 0 0 0 0 0 0 0 1533 1565 1565 1599 1672 1599 1672 1672 1635 1635 1635 1635 1599 1565 1599 1501 1501 1501 1533 1533 1599 1711 1635 1672 1672 1752 1795 1887 1839 1752 1839 1795 1752 1711 1599 1501 1443 1635 1672 1501 1443 1443 1443 1443 1565 1443 1533 1471 1565 1599 1599 1635 1635 1635 1795 2164 2830 2299 2453 2628 3066 3345 3504 3504 3199 3504 3679 3679 3873 4088 3679 3345 3504 4906 4906 4329 5256 4599 3345 3679 3873 3873 3679 3873 3679 3873 3873 4329 4329 4088 4088 4599 4329 5256 4906 4906 4599 5256 4906 6133 5256 5661 5661 6133 6133 6690 5661 4906 3345 2943 2943 2537 2102 2044 1989 1936 1936 1936 1989 1936 1936 1887 1795 1795 1565 1443 1388 1314 1338 1338 1338 1338 1314 1314 1362 1388 1533 1388 1291 1247 1268 1206 1149 1098 1036 943 955 955 943 897 886 886 876 876 886 855 836 836 836 826 817 808 808 799 799 826 799 0 0 687 694 694 669 669 651 629 629 618 618 618 613 613 598 588 593 593 593 588 566 549 537 533 533 533 529 525 521 518 518 504 504 500 477 459 468 468 468 465 465 459 446 457 462 446 0 430 430 430 430 432 422 406 411 415 411 406 408 406 406 406 411 397 395 393 391 383 379 379 371 373 0 0 364 362 360 360 0 0 0 0 0
    0 0 0 0 0 0 0 0 0 0 0 0 0 0 0 0 0 0 0 0 0 0 0 0 0 0 0 0 0 0 0 0 0 0 0 0 0 0 0 0 0 0 0 0 0 0 0 0 0 0 0 0 0 0 0 0 0 0 0 0 0 0 0 0 0 0 0 0 0 1565 1599 1565 1565 1672 1599 1672 1672 1635 1635 1635 1599 1599 1565 1635 1533 1501 1501 1533 1533 1599 1711 1599 1599 1635 1752 1795 1839 1752 1599 1711 1711 1599 1501 1471 1443 1388 1501 1533 1471 1415 1415 1443 1415 1533 1443 1501 1471 1565 1599 1599 1599 1635 1599 1795 1936 2628 2044 2299 2537 2943 3199 3345 3345 3199 3345 3504 3504 3504 3679 3345 3199 3345 4329 4088 3873 4906 4088 3345 3679 3873 3679 3679 3679 3679 3679 3873 4088 4088 3873 3873 4329 4088 4906 4599 4329 4088 4906 4329 5256 4906 4906 4599 5661 5661 6133 5661 4906 3345 3066 3066 2830 2230 2044 1989 1936 1936 1936 1989 1936 1936 1887 1839 1795 1565 0 1415 1314 1362 1338 1362 1338 1314 1338 1388 1388 1533 1291 1268 1226 1247 1168 1098 1082 1036 968 955 968 955 897 886 897 886 886 897 876 845 845 855 845 826 826 817 817 817 845 826 826 0 0 766 721 687 657 639 618 623 618 613 618 613 608 598 588 593 588 593 588 574 557 545 537 537 537 529 529 525 521 518 504 504 500 477 459 468 468 465 462 465 457 446 457 459 446 435 427 430 430 427 430 422 406 408 413 408 404 406 406 404 404 408 399 395 393 391 385 379 377 373 373 373 367 366 362 362 360 0 0 0 0 0
    0 0 0 0 0 0 0 0 0 0 0 0 0 0 0 0 0 0 0 0 0 0 0 0 0 0 0 0 0 0 0 0 0 0 0 0 0 0 0 0 0 0 0 0 0 0 0 0 0 0 0 0 0 0 0 0 0 0 0 0 0 0 0 0 0 0 0 0 0 1599 1635 1635 1599 1672 1635 1672 1672 1672 1672 1635 1599 1599 1565 1635 1565 1533 1501 1501 1565 1635 1711 1599 1501 1565 1599 1672 1711 1471 1501 1443 1565 1471 1415 1415 1415 1388 1415 1443 1443 1388 1388 1415 1415 1501 1415 1501 1471 1533 1599 1599 1599 1635 1635 1795 1887 2374 2044 2299 2537 2725 3066 3199 3199 3066 3066 3199 3199 3199 3345 3199 3066 3199 3873 3679 3679 4329 3679 3345 3504 3679 3679 3679 3679 3679 3679 3873 4088 3873 3873 3873 4088 4088 4906 4088 4088 3873 4599 3873 4906 4329 4599 4329 5256 5256 6133 5256 4906 3504 3199 3199 3066 2453 2102 2044 1989 1989 1936 1989 1936 1936 1936 1887 1839 1565 1471 1415 1314 1338 1338 1338 1338 1314 1338 1388 1388 1471 1291 1247 1206 1206 1149 1082 1066 1036 994 968 968 968 897 897 897 897 897 908 897 855 855 876 855 826 817 817 817 808 826 826 808 782 782 750 728 714 707 681 663 681 657 639 634 618 613 593 588 593 593 593 593 588 584 557 549 541 537 533 533 529 525 525 518 518 518 481 462 468 468 465 459 462 457 446 454 459 446 435 425 427 427 427 427 420 406 406 413 411 404 404 404 404 404 406 402 395 393 393 387 379 377 373 373 373 369 366 364 364 362 0 0 0 0 0
    0 0 0 0 0 0 0 0 0 0 0 0 0 0 0 0 0 0 0 0 0 0 0 0 0 0 0 0 0 0 0 0 0 0 0 0 0 0 0 0 0 0 0 0 0 0 0 0 0 0 0 0 0 0 0 0 0 0 0 0 0 0 0 0 0 0 0 0 0 1635 1672 1635 1599 1672 1599 1672 1672 1672 1635 1599 1565 1533 1533 1599 1533 1501 1471 1471 1533 1599 1711 1599 1533 1501 1471 1599 1565 1415 1415 1338 1415 1388 1388 1388 1388 1362 1388 1388 1443 1362 1388 1362 1388 1471 1415 1501 1471 1501 1565 1599 1635 1635 1635 1795 1839 2044 1936 2164 2537 2537 2943 3199 3066 2943 2943 3199 3199 3199 3199 3199 2943 3199 3873 3679 3504 3873 3504 3199 3504 3679 3679 3504 3679 3504 3679 3873 4088 3873 3679 3679 3873 3873 4906 4088 3679 3873 4599 3873 4906 4599 4599 4599 5256 5661 6690 5661 5256 3679 3345 3199 3066 2628 2102 2044 1989 1989 1936 1989 1936 1936 1936 1936 1839 1599 1501 1415 1314 1338 1338 1338 1314 1291 1291 1362 1362 1388 1268 1226 1187 1187 1149 1066 1066 1036 994 968 955 955 886 886 897 897 897 919 908 865 855 876 865 826 817 817 817 808 817 817 791 766 735 735 721 714 714 700 700 707 694 700 675 639 623 608 603 603 608 608 603 608 613 598 608 593 579 570 545 533 533 533 525 525 525 487 468 471 471 468 459 462 457 446 454 457 446 438 422 427 425 422 425 420 406 406 411 413 404 404 404 404 404 406 404 397 395 395 391 381 377 373 375 373 369 366 364 364 360 0 0 0 0 0
    0 0 0 0 0 0 0 0 0 0 0 0 0 0 0 0 0 0 0 0 0 0 0 0 0 0 0 0 0 0 0 0 0 0 0 0 0 0 0 0 0 0 0 0 0 0 0 0 0 0 0 0 0 0 0 0 0 0 0 0 0 0 0 0 0 0 0 0 0 1672 1672 1635 1635 1672 1599 1635 1635 1635 1635 1565 1533 1533 1501 1565 1501 1501 1443 1415 1565 1635 1711 1635 1599 1501 1501 1533 1471 1362 1362 1338 1388 1362 1388 1388 1362 1338 1362 1388 1415 1362 1362 1338 1388 1471 1415 1501 1471 1501 1565 1599 1635 1635 1635 1795 1795 1839 1887 2102 2537 2537 2943 3199 3066 3066 3066 3199 3199 3199 3345 3345 2943 3345 3504 3199 3345 3504 3199 3199 3504 3504 3679 3504 3679 3504 3679 4088 4088 3873 3873 3679 4088 3873 4599 3873 3504 3679 4329 3679 4599 4329 4329 4329 5256 5256 6133 5256 4906 3679 3345 3199 3199 2725 2164 2102 1989 2044 1989 2044 1989 1936 1936 1989 1887 1635 1471 1388 1314 1314 1291 1291 1268 1268 1268 1338 1314 1291 1247 1206 1168 1187 1115 1051 1051 1022 981 955 955 955 886 886 897 897 897 919 908 865 865 886 865 836 826 817 817 808 0 817 799 758 0 721 721 714 714 700 700 700 694 707 687 663 629 613 608 603 608 608 608 608 608 603 613 598 598 588 566 541 541 533 525 525 525 500 477 477 477 474 462 465 459 448 454 457 446 438 420 425 422 420 420 418 406 404 411 413 404 404 406 404 404 406 408 399 399 397 393 385 381 379 377 377 371 367 364 362 362 0 0 0 0 0
    0 0 0 0 0 0 0 0 0 0 0 0 0 0 0 0 0 0 0 0 0 0 0 0 0 0 0 0 0 0 0 0 0 0 0 0 0 0 0 0 0 0 0 0 0 0 0 0 0 0 0 0 0 0 0 0 0 0 0 0 0 0 0 0 0 0 0 0 0 1672 1672 1635 1635 1672 1599 1635 1635 1635 1635 1533 1501 1501 1471 1533 1471 1471 1415 1415 1565 1711 1711 1672 1635 1565 1565 1599 1533 1388 1388 1362 1388 1362 1388 1362 1362 1338 1362 1362 1388 1338 1362 1338 1388 1471 1388 1501 1443 1501 1565 1565 1635 1635 1635 1795 1795 1839 1887 2164 2628 2537 3066 3199 3066 3066 3199 3199 3199 3199 3199 3199 2943 3199 3345 3066 3066 3199 3199 3199 3345 3504 3679 3504 3679 3679 3873 4088 4088 3873 3873 3873 4088 3873 4599 3504 3345 3345 4088 3504 4088 4088 4088 4088 4906 4906 6133 5256 4906 3504 3199 3199 3066 2725 2230 2102 1989 2044 1989 2044 1989 1989 1936 1989 1887 1635 1415 1362 1314 1291 1268 1268 1268 1247 1268 1314 1291 1268 1247 1187 1168 1168 1115 1036 1036 1022 981 955 943 955 897 897 908 908 908 919 919 876 865 886 855 826 826 817 817 808 817 817 817 774 0 700 714 694 694 687 687 694 687 700 687 669 639 618 608 603 608 608 608 608 608 603 618 603 603 588 570 541 541 533 525 525 518 500 477 477 477 474 457 462 459 451 454 454 446 438 418 425 420 415 418 415 408 404 411 415 404 404 406 404 404 406 411 402 402 402 397 391 389 387 381 381 373 367 364 362 362 0 0 0 0 0
    0 0 0 0 0 0 0 0 0 0 0 0 0 0 0 0 0 0 0 0 0 0 0 0 0 0 0 0 0 0 0 0 0 0 0 0 0 0 0 0 0 0 0 0 0 0 0 0 0 0 0 0 0 0 0 0 0 0 0 0 0 0 0 0 0 0 0 0 0 1672 1635 1599 1599 1635 1565 1635 1635 1635 1635 1533 1471 1501 1471 1501 1471 1471 1415 1415 1565 1711 1711 1672 1672 1599 1599 1599 1565 1415 1415 1362 1388 1338 1388 1362 1338 1338 1362 1338 1362 1338 1338 1338 1388 1471 1388 1501 1471 1501 1565 1565 1599 1672 1635 1795 1795 1839 1936 2164 2725 2628 3066 3199 3066 3066 3199 3199 3199 3066 3199 3199 2943 3199 3199 2943 2943 2943 3066 3066 3199 3345 3504 3345 3504 3504 3873 4329 4088 3873 3873 3679 3873 3679 4088 3345 3066 3199 3679 3345 3873 3873 3873 4088 4599 4906 5661 4906 4906 3504 3199 3199 2943 2725 2230 2164 2044 2102 2044 2044 1989 1989 1936 1936 1887 1599 1388 1362 1314 1291 1268 1268 1247 1247 1268 1291 1268 1247 1247 1168 1149 1168 1115 1036 1036 1008 981 955 943 955 897 908 919 908 908 931 931 886 865 876 836 817 817 817 808 791 799 808 826 766 0 700 714 700 700 694 694 694 694 700 694 675 645 623 0 608 608 0 603 603 603 598 613 598 598 579 566 537 537 529 521 525 518 504 484 484 481 477 454 462 457 451 451 454 446 438 413 425 420 413 413 413 408 404 411 418 404 404 406 404 404 406 411 402 402 402 399 395 393 389 383 383 371 366 364 360 360 0 0 0 0 0
    0 0 0 0 0 0 0 0 0 0 0 0 0 0 0 0 0 0 0 0 0 0 0 0 0 0 0 0 0 0 0 0 0 0 0 0 0 0 0 0 0 0 0 0 0 0 0 0 0 0 0 0 0 0 0 0 0 0 0 0 0 0 0 0 0 0 0 0 0 1672 1599 1533 1565 1599 1565 1599 1599 1635 1635 1533 1471 1501 1501 1533 1501 1501 1471 1443 1565 1711 1672 1672 1635 1565 1565 1565 1533 1415 1415 1362 1388 1338 1388 1362 1338 1338 1362 1338 1362 1338 1338 1338 1388 1471 1388 1501 1443 1501 1565 1565 1599 1635 1635 1752 1752 1795 1839 2102 2725 2537 2943 3199 3066 3066 3066 3066 2943 2943 3066 3066 2830 3066 2943 2830 2830 2943 2943 3066 3066 3199 3345 3345 3504 3504 3679 4329 3873 3679 3679 3504 3504 3504 3873 3199 2943 3066 3345 3066 3504 3504 3679 3679 4329 4906 5661 4906 4906 3679 3199 3199 2943 2830 2230 2164 2102 2164 2102 2102 2044 1989 1936 1936 1887 1635 1388 1415 1338 1291 1291 1268 1247 1247 1247 1291 1247 1226 1247 1149 1132 1168 1132 1051 1051 1022 994 981 968 968 919 919 919 919 919 931 919 876 865 855 836 817 808 808 791 791 799 808 791 735 0 700 714 700 700 700 694 694 700 700 700 681 663 634 623 608 613 613 608 603 603 598 613 593 574 557 545 533 529 525 521 521 518 514 493 490 487 477 451 462 459 457 457 457 451 440 415 427 420 413 413 413 411 404 411 420 406 406 406 406 406 406 413 402 402 404 402 397 393 391 385 383 369 364 362 360 360 0 0 0 0 0
    0 0 0 0 0 0 0 0 0 0 0 0 0 0 0 0 0 0 0 0 0 0 0 0 0 0 0 0 0 0 0 0 0 0 0 0 0 0 0 0 0 0 0 0 0 0 0 0 0 0 0 0 0 0 0 0 0 0 0 0 0 0 0 0 0 0 0 0 0 1672 1599 1501 1599 1599 1533 1565 1599 1599 1599 1501 1443 1471 1471 1533 1501 1501 1443 1443 1533 1672 1635 1635 1635 1565 1565 1599 1599 1471 1443 1362 1388 1338 1362 1362 1338 1338 1338 1338 1362 1338 1338 1362 1415 1471 1415 1501 1443 1471 1533 1565 1599 1635 1599 1752 1711 1795 1839 2044 2830 2374 2830 3066 2943 3066 2943 2830 2830 2725 2943 2943 2725 2943 2725 2628 2628 2725 2830 2943 2830 3066 3199 3199 3199 3345 3504 4088 3679 3679 3504 3345 3345 3504 3679 3199 2830 2943 3199 3066 3504 3504 3504 3504 4088 4599 5256 4599 4599 3504 3066 3066 3066 2830 2299 2164 2102 2230 2164 2164 2044 1989 1936 1936 1887 1672 1415 1471 1388 1314 1314 1291 1268 1247 1268 1291 1247 1226 1247 1168 1149 1168 1132 1051 1051 1022 1008 981 968 968 931 919 919 919 931 919 919 876 855 855 845 826 817 817 808 808 817 817 817 735 0 700 714 700 714 707 700 700 714 721 721 700 694 663 634 618 618 618 613 608 603 593 608 570 541 537 533 525 525 518 514 518 514 511 493 490 487 471 448 462 462 459 457 457 454 443 415 427 420 413 413 413 411 404 413 422 406 406 408 406 406 408 413 402 402 404 404 397 393 391 385 383 369 366 362 360 360 0 0 0 0 0
    0 0 0 0 0 0 0 0 0 0 0 0 0 0 0 0 0 0 0 0 0 0 0 0 0 0 0 0 0 0 0 0 0 0 0 0 0 0 0 0 0 0 0 0 0 0 0 0 0 0 0 0 0 0 0 0 0 0 0 0 0 0 0 0 0 0 0 0 0 1672 1599 1501 1599 1599 1471 1471 1533 1565 1599 1471 1415 1415 1443 1501 1501 1471 1443 1415 1501 1599 1565 1599 1565 1533 1565 1565 1565 1471 1471 1415 1415 1362 1388 1362 1362 1338 1338 1338 1362 1338 1338 1362 1415 1471 1415 1533 1471 1471 1501 1565 1599 1635 1599 1752 1711 1795 1839 2044 2943 2164 2725 3066 2830 2943 2830 2725 2628 2628 2830 2830 2628 2830 2537 2453 2628 2725 2725 3345 3199 3504 3504 3504 3345 3504 3504 4329 3345 3504 3199 3199 3199 3345 3504 3199 2830 2830 3066 2943 3345 3504 3345 3199 3679 4088 4906 4329 4088 3345 2830 2943 2943 2725 2374 2230 2102 2230 2164 2164 2044 2044 1936 1936 1887 1711 1443 1533 1415 1314 1338 1314 1291 1268 1268 1291 1247 1226 1268 1187 1149 1168 1132 1051 1051 1022 1008 981 968 955 931 919 931 919 931 919 919 876 855 845 836 826 826 817 808 817 817 826 817 743 694 700 721 700 714 707 700 707 714 728 743 707 707 694 681 657 634 629 618 608 593 579 603 549 0 533 529 521 521 518 511 514 511 511 493 493 487 0 448 462 459 459 457 457 457 443 415 427 420 413 413 413 413 406 415 425 408 408 411 408 408 408 418 404 404 406 408 399 395 393 389 385 371 0 362 362 360 0 0 0 0 0
    0 0 0 0 0 0 0 0 0 0 0 0 0 0 0 0 0 0 0 0 0 0 0 0 0 0 0 0 0 0 0 0 0 0 0 0 0 0 0 0 0 0 0 0 0 0 0 0 0 0 0 0 0 0 0 0 0 0 0 0 0 0 0 0 0 0 0 0 0 1672 1635 1501 1599 1565 1443 1471 1471 1533 1565 1471 1443 1415 1443 1501 1501 1471 1443 1415 1471 1565 1533 1565 1533 1501 1533 1565 1565 1501 1471 1415 1415 1338 1388 1362 1338 1338 1338 1338 1338 1314 1338 1362 1415 1471 1415 1533 1471 1471 1501 1565 1599 1635 1635 1752 1711 1795 1887 2044 2943 2044 2628 3066 2943 2943 2830 2725 2628 2537 2830 2725 2537 2628 2374 2374 2537 0 0 0 3066 3504 3504 3345 3199 3345 3199 4906 3504 4088 3679 3504 3679 3873 3873 3679 3199 3504 2943 0 0 0 0 0 0 0 0 0 0 0 2230 2453 2453 2537 2299 2164 2102 2230 2102 2164 2102 2044 1936 1887 1839 1752 1471 1565 1443 1338 1362 1362 1314 1291 1291 1314 1268 1226 1268 1206 1168 1187 1149 1066 1051 1022 1008 981 968 955 943 931 931 919 931 919 919 876 855 836 836 826 817 808 808 808 808 817 799 774 700 700 735 707 728 721 714 714 721 735 735 700 700 687 675 623 618 608 618 603 584 574 0 537 529 529 525 521 521 514 511 514 507 511 493 493 490 474 448 462 459 459 457 457 457 443 418 427 420 415 415 415 413 406 415 425 411 408 411 411 411 411 420 406 406 411 415 404 399 397 0 389 0 0 0 362 360 0 0 0 0 0
    0 0 0 0 0 0 0 0 0 0 0 0 0 0 0 0 0 0 0 0 0 0 0 0 0 0 0 0 0 0 0 0 0 0 0 0 0 0 0 0 0 0 0 0 0 0 0 0 0 0 0 0 0 0 0 0 0 0 0 0 0 0 0 0 0 0 0 0 0 1672 1635 1471 1599 1533 1443 1471 1471 1501 1533 1443 1471 1443 1443 1533 1501 1471 1471 1415 1501 1533 1501 1533 1533 1501 1533 1565 1565 1533 1443 1415 1362 1314 1388 1362 1338 1338 1338 1338 1338 1338 1338 1362 1443 1471 1415 1501 1443 1471 1501 1565 1599 1599 1599 1711 1711 1795 1839 1989 2725 1989 2628 3066 2943 0 0 2725 2628 2537 2725 2628 2374 2453 2230 2164 0 0 0 0 0 0 0 0 0 0 0 0 0 0 0 0 0 0 0 0 0 0 0 0 0 0 0 0 0 0 0 0 0 0 0 0 1989 2164 2164 2102 2164 2230 2164 2102 2102 2044 1936 1839 1795 1711 1443 1565 1471 1362 1388 1388 1338 1314 1314 1338 1268 1247 1291 1226 1187 1206 1168 1066 1066 1022 994 968 955 931 943 931 919 919 931 919 908 876 855 836 826 817 817 808 799 808 799 808 782 782 721 714 728 707 714 714 707 707 707 721 728 694 694 687 687 657 645 629 629 608 603 603 0 553 533 529 529 521 521 518 514 518 511 511 493 497 487 471 448 462 459 459 457 454 454 443 418 427 420 415 415 415 415 406 415 425 413 411 413 411 411 411 420 406 406 411 413 404 0 0 0 0 0 0 0 360 0 0 0 0 0 0
    0 0 0 0 0 0 0 0 0 0 0 0 0 0 0 0 0 0 0 0 0 0 0 0 0 0 0 0 0 0 0 0 0 0 0 0 0 0 0 0 0 0 0 0 0 0 0 0 0 0 0 0 0 0 0 0 0 0 0 0 0 0 0 0 0 0 0 0 0 1711 1635 1471 1599 1533 1443 1471 1471 1471 1533 1443 1471 1443 1471 1533 1501 1471 1501 1443 1533 1533 1501 1565 1533 1501 1565 1565 1565 1533 1443 1471 1388 1338 1415 1362 1338 1338 1338 1362 1338 1338 1362 1362 1443 1471 1415 1471 1443 1471 1501 1599 1599 1599 1599 1711 1711 1795 1839 1989 2830 2374 3066 3345 3199 3199 0 2830 2628 2299 2537 2102 2102 2102 2102 2044 0 0 0 0 0 0 0 0 0 0 0 0 0 0 0 0 0 0 0 0 0 0 0 0 0 0 0 0 0 0 0 0 0 0 0 0 0 2299 2164 2102 2164 2044 1989 1936 1989 1989 1839 1752 1752 1672 1443 1565 1471 1362 1388 1362 1338 1314 1314 1314 1268 1247 1291 1247 1206 1226 1206 1098 1098 1022 1008 981 968 931 955 943 931 919 931 919 908 876 865 836 826 817 808 808 799 808 799 808 782 791 743 735 743 714 714 714 700 700 694 707 707 694 687 687 687 675 669 657 645 623 0 618 707 0 0 533 533 525 525 525 518 521 518 518 497 500 487 471 448 459 459 457 454 454 454 443 420 427 420 413 413 413 413 406 413 422 413 411 413 413 413 411 422 408 408 413 415 404 408 402 0 0 0 0 0 0 0 0 0 0 0 0
    0 0 0 0 0 0 0 0 0 0 0 0 0 0 0 0 0 0 0 0 0 0 0 0 0 0 0 0 0 0 0 0 0 0 0 0 0 0 0 0 0 0 0 0 0 0 0 0 0 0 0 0 0 0 0 0 0 0 0 0 0 0 0 0 0 0 0 0 0 1711 1599 1443 1599 1565 1443 1471 1471 1471 1533 1443 1501 1471 1471 1533 1501 1471 1501 1443 1533 1501 1471 1533 1501 1533 1565 1565 1599 1565 1565 1533 1443 1338 1415 1362 1362 1362 1362 1362 1338 1338 1362 1362 1415 1415 1388 1443 1415 1471 1501 1599 1565 1599 1599 1711 1711 1839 1887 2044 2628 2044 2453 2453 1989 1936 1795 1711 1752 1795 1839 1752 1795 1839 1887 2044 0 0 0 0 0 0 0 0 0 0 0 0 0 0 0 0 0 0 0 0 0 0 0 0 0 0 0 0 0 0 0 0 0 0 0 0 0 0 0 1989 1989 1887 1795 1839 1839 1839 1752 1672 1672 1635 1443 1565 1471 1362 1388 1388 1338 1314 1291 1314 1268 1247 1291 1247 1226 1226 1226 1168 1168 1051 1022 994 981 943 955 943 919 919 931 908 897 876 855 826 817 808 808 808 799 808 791 808 782 799 766 766 743 707 700 700 687 687 681 681 694 687 675 687 681 681 675 675 657 629 608 0 639 0 579 545 545 537 537 533 529 529 521 521 500 500 490 471 451 462 462 459 457 457 454 443 422 425 418 413 413 413 413 406 413 422 413 408 411 411 411 411 422 411 411 415 420 408 413 404 0 0 0 0 0 0 0 0 0 0 0 0
    0 0 0 0 0 0 0 0 0 0 0 0 0 0 0 0 0 0 0 0 0 0 0 0 0 0 0 0 0 0 0 0 0 0 0 0 0 0 0 0 0 0 0 0 0 0 0 0 0 0 0 0 0 0 0 0 0 0 0 0 0 0 0 0 0 0 0 0 0 1672 1599 1443 1599 1565 1443 1471 1471 1471 1533 1443 1501 1471 1471 1533 1501 1471 1501 1415 1501 1471 1443 1501 1471 1471 1533 1533 1565 1565 1533 1533 1443 1338 1415 1362 1362 1362 1362 1362 1338 1338 1362 1362 1415 1388 1388 1415 1415 1443 1471 1565 1533 1565 1565 1635 1672 1752 1795 1936 2230 1989 1936 1839 1711 1711 1672 1635 1672 1711 1711 1711 1752 1795 1839 0 0 0 0 0 0 0 0 0 0 0 0 0 0 0 0 0 0 0 0 0 0 0 0 0 0 0 0 0 0 0 0 0 0 0 0 0 0 0 0 0 1936 1839 1672 1752 1752 1752 1672 1635 1635 1599 1443 1565 1443 1388 1415 1415 1362 1314 1314 1314 1268 1268 1291 1247 1226 1226 1226 1187 1206 1098 1051 1008 994 943 968 943 919 919 919 908 897 865 845 817 808 808 808 799 791 799 782 799 774 791 743 721 714 700 694 700 687 687 681 681 694 687 681 687 687 694 687 687 681 645 613 0 639 0 574 549 549 537 537 537 533 533 529 521 497 493 487 468 454 462 462 462 459 459 457 443 425 425 420 413 413 413 413 406 411 420 413 408 411 411 411 411 422 413 411 418 420 408 404 397 395 389 0 0 0 0 362 0 0 0 0 0
    0 0 0 0 0 0 0 0 0 0 0 0 0 0 0 0 0 0 0 0 0 0 0 0 0 0 0 0 0 0 0 0 0 0 0 0 0 0 0 0 0 0 0 0 0 0 0 0 0 0 0 0 0 0 0 0 0 0 0 0 0 0 0 0 0 0 0 0 0 1672 1635 1443 1599 1565 1443 1471 1471 1471 1533 1443 1533 1471 1471 1565 1501 1471 1501 1415 1501 1415 1415 1471 1443 1443 1501 1501 1533 1533 1533 1565 1471 1338 1443 1388 1388 1388 1388 1388 1362 1362 1362 1362 1388 1388 1362 1388 1388 1443 1443 1533 1501 1501 1533 1599 1599 1672 1672 1795 2044 1989 1839 1752 1635 1672 1635 1635 1635 1635 1635 1672 1711 1752 1752 0 0 0 0 0 0 0 0 0 0 0 0 0 0 0 0 0 0 0 0 0 0 0 0 0 0 0 0 0 0 0 0 0 0 0 0 0 0 0 0 0 1795 1711 1501 1711 1672 1672 1599 1599 1599 1565 1443 1565 1415 1388 1415 1415 1362 1314 1314 1338 1291 1291 1291 1247 1226 1226 1247 1206 1206 1132 1066 1022 994 955 968 943 908 908 919 897 886 865 845 817 808 808 799 791 791 799 782 799 782 791 735 707 700 694 687 694 681 681 675 669 687 675 663 669 669 675 669 675 675 639 608 0 651 593 593 557 553 545 545 545 541 541 537 533 500 490 481 457 451 462 462 459 459 459 459 446 432 425 420 413 413 413 413 406 411 420 413 408 411 411 411 411 422 418 411 418 418 406 397 395 395 391 389 391 379 375 364 0 0 0 0 0
    0 0 0 0 0 0 0 0 0 0 0 0 0 0 0 0 0 0 0 0 0 0 0 0 0 0 0 0 0 0 0 0 0 0 0 0 0 0 0 0 0 0 0 0 0 0 0 0 0 0 0 0 0 0 0 0 0 0 0 0 0 0 0 0 0 0 0 0 0 1711 1672 1443 1599 1565 1415 1471 1471 1471 1533 1471 1533 1501 1471 1565 1501 1471 1471 1415 1501 1415 1388 1443 1443 1443 1501 1501 1565 1501 1501 1565 1471 1338 1443 1388 1388 1388 1388 1388 1362 1338 1362 1338 1362 1362 1362 1362 1388 1415 1415 1533 1471 1501 1533 1565 1635 1672 1752 2164 1989 1839 1635 1599 1565 1565 1565 1565 1599 1599 1599 1635 1672 1711 0 0 0 0 0 0 0 0 0 0 0 0 0 0 0 0 0 0 0 0 0 0 0 0 0 0 0 0 0 0 0 0 0 0 0 0 0 0 0 0 0 0 1752 1672 1501 1672 1672 1635 1565 1533 1565 1533 1443 1565 1415 1388 1415 1415 1362 1338 1338 1338 1291 1291 1291 1247 1247 1226 1247 1206 1226 1132 1066 1022 1008 955 968 955 908 908 919 897 897 865 845 826 808 808 799 791 791 799 782 799 782 791 743 0 0 694 687 694 681 681 669 657 669 663 634 629 623 618 618 613 629 608 603 0 0 593 593 570 566 561 561 566 557 553 549 541 518 497 487 465 454 462 462 462 462 459 459 448 435 425 420 413 413 413 413 406 408 418 415 408 411 411 411 411 420 418 413 418 415 402 397 393 393 389 389 389 379 373 366 0 0 0 0 0
    0 0 0 0 0 0 0 0 0 0 0 0 0 0 0 0 0 0 0 0 0 0 0 0 0 0 0 0 0 0 0 0 0 0 0 0 0 0 0 0 0 0 0 0 0 0 0 0 0 0 0 0 0 0 0 0 0 0 0 0 0 0 0 0 0 0 0 0 0 1711 1672 1443 1599 1533 1415 1471 1471 1471 1533 1471 1533 1501 1501 1565 1501 1501 1501 1415 1533 0 0 0 206 1415 1471 1471 1471 1443 1443 1501 1443 1338 1443 1388 1388 1388 1388 1362 1338 1338 1362 1314 1338 1338 1338 1338 1388 1388 1415 1533 1443 1501 1501 1501 1635 1599 1672 1795 1635 1443 1415 1443 1471 1501 1501 1533 1533 1533 1599 1635 1635 0 0 0 0 0 0 0 0 0 0 0 0 0 0 0 0 0 0 0 0 0 0 0 0 0 0 0 0 0 0 0 0 0 0 0 0 0 0 0 0 0 0 0 1711 1672 1501 1635 1635 1635 1565 1501 1565 1501 1415 1501 1388 1362 1388 1415 1362 1314 1314 1314 1291 1291 1291 1247 1226 1226 1226 1206 1206 1149 1066 1036 1008 955 968 955 908 908 919 897 897 876 845 817 808 808 799 791 791 791 774 791 782 791 735 0 0 694 687 687 675 669 657 645 657 645 623 613 608 608 608 603 608 598 593 574 598 588 579 561 566 561 570 574 570 561 557 549 529 511 493 471 459 465 465 465 462 459 459 448 438 425 420 415 415 415 415 408 408 415 418 408 411 411 411 411 418 418 415 418 415 402 395 393 391 389 387 391 383 377 369 0 0 0 0 0
    0 0 0 0 0 0 0 0 0 0 0 0 0 0 0 0 0 0 0 0 0 0 0 0 0 0 0 0 0 0 0 0 0 0 0 0 0 0 0 0 0 0 0 0 0 0 0 0 0 0 0 0 0 0 0 0 0 0 0 0 0 0 0 0 0 0 0 0 0 1711 1672 1443 1599 1565 1443 1533 1501 1471 1565 1471 1565 1533 1533 1565 1533 1533 1565 1471 1599 1443 1443 1471 1471 1443 1471 1471 1471 1443 1415 1471 1415 1338 1443 1388 1388 1388 1388 1388 1362 1362 1362 1338 1338 1314 1314 1314 1362 1388 1415 1471 1415 1471 1471 1471 1672 1599 1795 1362 1338 1314 1338 1388 1388 1415 1443 1471 1501 1501 1565 1635 0 0 0 0 0 0 0 0 0 0 0 0 0 0 0 0 0 0 0 0 0 0 0 0 0 0 0 0 0 0 0 0 0 0 0 0 0 0 0 0 0 0 0 0 1711 1672 1471 1599 1635 1635 1565 1501 1533 1471 1415 1471 1388 1362 1362 1362 1338 1291 1291 1291 1268 1268 1268 1226 1226 1206 1226 1187 1206 1168 1082 1066 1008 968 981 968 908 908 908 897 897 876 855 817 808 808 791 782 782 782 774 782 774 782 728 0 700 694 681 681 669 663 651 639 645 629 613 608 608 608 608 608 603 593 593 579 584 579 574 566 566 561 574 570 570 566 561 553 533 518 493 471 459 465 465 465 462 462 459 451 440 427 422 418 418 418 418 411 408 413 415 406 406 408 408 408 413 415 413 413 413 402 395 393 389 389 387 391 385 379 369 0 0 0 0 0
    0 0 0 0 0 0 0 0 0 0 0 0 0 0 0 0 0 0 0 0 0 0 0 0 0 0 0 0 0 0 0 0 0 0 0 0 0 0 0 0 0 0 0 0 0 0 0 0 0 0 0 0 0 0 0 0 0 0 0 0 0 0 0 0 0 0 0 0 0 1711 1635 1471 1565 1599 1471 1533 1533 1471 1565 1471 1565 1565 1533 1565 1533 1533 1599 1501 1672 1533 1501 1533 1565 1501 1501 1443 1443 1415 1415 1471 1415 1338 1443 1388 1415 1415 1415 1388 1362 1362 1388 1338 1338 1291 1291 1291 1338 1388 1388 1415 1415 1443 1471 1471 1752 1565 1291 1268 1206 1206 1268 1338 1362 1388 1415 1443 1471 1501 1565 1635 0 0 0 0 0 0 0 0 0 0 0 0 0 0 0 0 0 0 0 0 0 0 0 0 0 0 0 0 0 0 0 0 0 0 0 0 0 0 0 0 0 0 0 0 1711 1672 1471 1599 1599 1599 1533 1471 1501 1443 1388 1415 1338 1338 1314 1314 1314 1268 1268 1268 1268 1268 1247 1226 1226 1206 1226 1187 1206 1168 1098 1066 1022 994 994 981 931 919 919 897 897 865 845 817 808 808 791 782 782 782 766 782 774 782 728 694 694 687 669 669 663 651 645 639 639 618 613 608 608 608 608 603 603 593 598 579 579 574 570 566 561 553 561 561 566 561 557 553 533 518 493 468 459 468 465 465 465 462 462 454 443 427 422 418 418 418 418 413 408 413 418 406 406 406 408 406 411 415 413 411 411 402 397 393 389 387 385 389 383 379 371 0 0 0 0 0
    0 0 0 0 0 0 0 0 0 0 0 0 0 0 0 0 0 0 0 0 0 0 0 0 0 0 0 0 0 0 0 0 0 0 0 0 0 0 0 0 0 0 0 0 0 0 0 0 0 0 0 0 0 0 0 0 0 0 0 0 0 0 0 0 0 0 0 0 0 1752 1672 1501 1565 1635 1501 1533 1565 1501 1565 1501 1565 1565 1533 1565 1533 1501 1533 1471 1599 1533 1471 1501 1565 1533 1565 1501 1471 1443 1443 1533 1443 1362 1443 1415 1415 1443 1443 1388 1362 1362 1388 1314 1314 1268 1247 1247 1291 1314 1314 1338 1338 1362 1443 1415 1565 1247 1168 1206 1168 1187 1226 1314 1338 1362 1388 1415 1471 1501 1565 0 0 0 0 0 0 0 0 0 0 0 0 0 0 0 0 0 0 0 0 0 0 0 0 0 0 0 0 0 0 0 0 0 0 0 0 0 0 0 0 0 0 0 0 0 1711 1672 1471 1599 1565 1565 1533 1471 1471 1415 1388 1415 1338 1338 1314 1291 1291 1247 1268 1268 1247 1247 1247 1226 1226 1206 1226 1187 1187 1149 1082 1066 1036 1008 1008 994 955 931 931 897 897 865 845 808 799 799 791 782 774 782 766 782 782 774 714 687 687 681 663 663 651 639 639 634 634 613 608 608 608 608 603 603 603 588 588 566 570 566 566 566 557 549 561 561 574 561 557 557 533 518 497 474 462 471 468 468 465 465 465 457 446 430 422 418 418 418 418 413 406 411 418 406 406 406 408 408 411 418 413 411 411 404 397 395 389 385 383 387 379 373 369 0 0 0 0 0
    0 0 0 0 0 0 0 0 0 0 0 0 0 0 0 0 0 0 0 0 0 0 0 0 0 0 0 0 0 0 0 0 0 0 0 0 0 0 0 0 0 0 0 0 0 0 0 0 0 0 0 0 0 0 0 0 0 0 0 0 0 0 0 0 0 0 0 0 0 1752 1672 1599 1565 1672 1599 1565 1599 1565 1599 1533 1565 1635 1599 1533 1533 1415 1443 1415 1443 1443 1415 1415 1471 1443 1533 1471 1471 1533 1565 1635 1533 1388 1471 1443 1415 1443 1415 1362 1338 1338 1362 1291 1291 1268 1268 1226 1247 1268 1268 1268 1268 1268 1338 1268 1226 1187 1168 1187 1168 1168 1206 1268 1314 1338 1388 1415 1443 1471 0 0 0 0 0 0 0 0 0 0 0 0 0 0 0 0 0 0 0 0 0 0 0 0 0 0 0 0 0 0 0 0 0 0 0 0 0 0 0 0 0 0 0 0 0 0 0 1752 1501 1599 1565 1533 1471 1443 1471 1415 1388 1415 1338 1362 1338 1314 1314 1247 1268 1247 1247 1247 1226 1206 1226 1206 1226 1187 1168 1149 1082 1066 1036 1022 1022 1008 981 955 943 908 897 865 836 799 799 799 791 774 774 774 766 774 774 750 707 675 681 669 651 639 634 629 629 629 623 608 608 608 608 613 608 603 608 593 593 566 570 570 566 570 561 553 561 561 579 570 545 533 525 518 500 481 465 471 471 468 468 465 462 457 446 430 425 418 418 418 418 415 406 411 420 408 406 408 408 408 408 420 411 408 408 402 397 393 385 381 377 379 375 371 369 0 0 0 0 0
    0 0 0 0 0 0 0 0 0 0 0 0 0 0 0 0 0 0 0 0 0 0 0 0 0 0 0 0 0 0 0 0 0 0 0 0 0 0 0 0 0 0 0 0 0 0 0 0 0 0 0 0 0 0 0 0 0 0 0 0 0 0 0 0 0 0 0 0 0 1672 1533 1635 1471 1635 1672 1565 1565 1599 1599 1672 1635 1752 1711 1599 1565 1362 1388 1388 1388 1388 1362 1362 1415 1388 1471 1415 1388 1533 1471 1565 1471 1415 1443 1501 1471 1533 1471 1471 1388 1443 1443 1362 1338 1338 1338 1291 1247 1268 1247 1268 1268 1268 1247 1132 1132 1168 1168 1187 1149 1168 1206 1268 1291 1314 1362 1388 1415 1471 0 0 0 0 0 0 0 0 0 0 0 0 0 0 0 0 0 0 0 0 0 0 0 0 0 0 0 0 0 0 0 0 0 0 0 0 0 0 0 0 0 0 0 0 0 0 0 1839 1565 1635 1599 1565 1501 1415 1443 1415 1362 1388 1338 1362 1338 1314 1314 1247 1268 1247 1247 1247 1206 1206 1206 1187 1206 1187 1168 1149 1082 1082 1036 1022 1022 1022 994 968 955 931 908 865 836 799 791 791 782 766 758 766 766 766 782 743 707 675 669 663 645 634 629 623 623 623 623 608 608 608 608 613 608 603 608 593 588 561 561 566 566 566 561 553 557 557 570 561 537 521 521 511 500 484 471 474 471 468 465 462 459 454 443 427 422 420 420 420 418 415 406 413 422 408 408 408 408 408 408 420 411 408 408 404 399 395 387 381 379 379 375 369 367 0 0 0 0 0
    0 0 0 0 0 0 0 0 0 0 0 0 0 0 0 0 0 0 0 0 0 0 0 0 0 0 0 0 0 0 0 0 0 0 0 0 0 0 0 0 0 0 0 0 0 0 0 0 0 0 0 0 0 0 0 0 0 0 0 0 0 0 0 0 0 0 0 0 0 1388 1362 1388 1362 1443 1501 1471 1533 1565 1599 1672 1672 1887 1795 1672 1599 1338 1338 1338 1338 1362 1362 1362 1388 1388 1443 1388 1362 1443 1362 1362 1338 0 0 0 0 0 0 0 0 0 0 1533 1471 1388 1362 1291 1168 1206 1206 1247 1268 1149 1115 1132 1132 1149 1149 1168 1149 1149 1206 1247 1268 1291 1314 1362 1388 0 0 0 0 0 0 0 0 0 0 0 0 0 0 0 0 0 0 0 0 0 0 0 0 0 0 0 0 0 0 0 0 0 0 0 0 0 0 0 0 0 0 0 0 0 0 0 0 0 1711 1672 1672 1635 1565 1415 1471 1415 1362 1362 1338 1338 1314 1268 1268 1206 1206 1206 1187 1187 1168 1187 1206 1168 1187 1168 1168 1149 1082 1082 1036 1022 1036 1022 1008 968 968 955 919 886 845 799 791 791 774 758 750 758 766 758 782 758 707 681 675 663 639 629 623 623 618 618 613 603 608 603 608 608 603 598 603 588 584 561 561 561 561 561 557 549 553 549 549 537 529 518 518 507 500 487 477 477 474 468 465 459 457 451 443 425 425 420 420 422 418 418 408 413 422 411 408 411 411 411 411 422 413 408 411 406 404 399 395 387 381 381 375 371 367 0 0 0 0 0
    0 0 0 0 0 0 0 0 0 0 0 0 0 0 0 0 0 0 0 0 0 0 0 0 0 0 0 0 0 0 0 0 0 0 0 0 0 0 0 0 0 0 0 0 0 0 0 0 0 0 0 0 0 0 0 0 0 0 0 0 0 0 0 0 0 0 0 0 0 1314 1291 1314 1338 1388 1443 1415 1443 1533 1565 1635 1565 1795 1672 1362 1388 1291 1314 1314 1314 1338 1338 1338 1362 1362 1415 1362 1338 1338 1291 1247 1268 0 0 0 669 0 0 0 0 0 0 0 1599 1415 0 1187 1036 1098 1098 1168 1115 1066 1082 1115 1115 1132 1132 1149 1132 1168 1206 1247 1247 1268 1314 1338 0 0 0 0 0 0 0 0 0 0 0 0 0 0 0 0 0 0 0 0 0 0 0 0 0 0 0 0 0 0 0 0 0 0 0 0 0 0 0 0 0 0 0 0 0 0 0 0 0 0 0 1752 1839 1795 1711 1415 1471 1443 1362 1362 1362 1338 1291 1226 1247 1168 1168 1149 1132 1132 1132 1168 1187 1149 1168 1149 1149 1149 1082 1082 1036 1022 1022 1022 1008 968 968 943 919 886 845 799 791 791 774 758 750 758 766 758 774 766 714 681 681 663 645 629 623 618 618 618 613 598 603 603 603 603 598 593 598 584 584 561 557 557 561 557 553 549 549 541 537 533 525 514 511 504 500 490 484 481 481 471 468 462 462 454 443 425 425 420 420 422 418 418 408 413 422 411 408 411 411 411 411 422 413 408 411 408 404 399 395 387 385 385 379 377 373 0 0 0 0 0
    0 0 0 0 0 0 0 0 0 0 0 0 0 0 0 0 0 0 0 0 0 0 0 0 0 0 0 0 0 0 0 0 0 0 0 0 0 0 0 0 0 0 0 0 0 0 0 0 0 0 0 0 0 0 0 0 0 0 0 0 0 0 0 0 0 0 0 0 0 1226 1268 1291 1291 1362 1415 1388 1362 1415 1443 1415 1362 1565 1388 1247 1268 1247 1291 1291 1291 1338 1338 1338 1338 1338 1388 1338 1291 1291 1268 1226 1226 1247 0 0 0 0 0 0 0 0 0 0 0 0 1291 1132 1051 1082 1066 1066 1082 1066 1066 1098 1098 1115 1115 1132 1132 1168 1187 1206 1226 1247 1268 0 0 0 0 0 0 0 0 0 0 0 0 0 0 0 0 0 0 0 0 0 0 0 0 0 0 0 0 0 0 0 0 0 0 0 0 0 0 0 0 0 0 0 0 0 0 0 0 0 0 0 0 0 0 1989 1839 1388 1533 1471 1362 1338 1338 1338 1268 1226 1226 1132 1115 1098 1098 1115 1115 1149 1149 1132 1168 1149 1168 1168 1098 1098 1051 1036 1022 1022 1008 968 968 943 908 876 836 799 782 774 766 758 750 750 766 750 0 735 700 681 675 663 651 634 629 623 623 623 618 603 603 603 603 603 598 593 598 584 584 566 557 561 561 561 557 549 545 541 537 529 514 507 507 497 497 493 487 487 484 477 471 465 468 454 440 422 425 420 418 422 418 418 406 413 425 411 408 408 411 411 411 422 411 408 411 408 404 402 397 391 391 391 385 385 375 0 0 0 0 0
    0 0 0 0 0 0 0 0 0 0 0 0 0 0 0 0 0 0 0 0 0 0 0 0 0 0 0 0 0 0 0 0 0 0 0 0 0 0 0 0 0 0 0 0 0 0 0 0 0 0 0 0 0 0 0 0 0 0 0 0 0 0 0 0 0 0 0 0 0 1206 1268 1291 1291 1362 1388 1388 1362 1338 1362 1268 1168 1268 1291 1168 1226 1206 1247 1268 1268 1291 1314 1314 1314 1314 1338 1314 1268 1268 1247 1187 1206 1226 0 0 0 0 0 0 0 0 0 0 0 0 0 1082 1066 1066 1051 1051 1082 1051 1066 1082 1082 1098 1098 1132 1132 1168 1168 1187 1206 1206 0 0 0 0 0 0 0 0 0 0 0 0 0 0 0 0 0 0 0 0 0 0 0 0 0 0 0 0 0 0 0 0 0 0 0 0 0 0 0 0 0 0 0 0 0 0 0 0 0 0 0 0 0 0 0 0 0 1362 1415 1388 1338 1338 1338 1314 1226 1168 1168 1098 1098 1082 1082 1098 1098 1132 1132 1132 1168 1149 1168 1187 1115 1098 1051 1036 1022 1022 1022 981 968 943 908 876 836 799 791 774 774 758 750 750 766 750 0 728 0 687 681 675 657 645 639 639 634 634 629 608 603 608 603 598 593 593 598 584 588 570 561 561 566 566 561 553 549 541 537 533 514 504 504 497 497 493 490 487 487 477 474 468 471 462 443 422 425 420 418 420 415 413 406 413 422 411 408 408 408 411 411 425 408 408 413 413 408 406 399 393 395 393 387 387 373 0 0 0 0 0</data></depth>
</opencv_storage>
