<?xml version="1.0"?>
<opencv_storage>
<gps_time_stamp>305273</gps_time_stamp>
<gps_x>-1.2420557975769043e+001</gps_x>
<gps_y>1.0970587730407715e+001</gps_y>
<gps_z>-2.0360760688781738e+000</gps_z>
<image_time_stamp>296158</image_time_stamp>
<depth type_id="opencv-matrix">
  <rows>80</rows>
  <cols>320</cols>
  <dt>s</dt>
  <data>
    0 0 0 0 0 0 0 0 0 0 0 0 0 0 0 0 0 0 0 0 0 0 0 0 0 0 0 0 0 0 0 0 0 0 0 0 0 0 0 0 0 0 0 0 0 0 0 0 0 0 0 0 0 0 0 0 0 0 0 0 0 0 0 0 0 0 0 0 0 0 1291 1338 1314 1291 1314 1314 1362 1362 1388 1388 1338 1388 1471 1471 1533 1533 1565 1599 1599 1672 1672 1711 1711 1752 1752 1752 1752 1795 1839 1887 1839 1989 1936 2044 2044 1989 1989 1989 1989 2230 1989 2537 1989 2374 2830 2725 2628 2537 2374 2537 2537 2725 2537 2725 2725 2725 2830 2943 2943 3199 3066 4329 4088 4088 3873 4329 4329 4906 4906 6133 4088 4088 4088 0 0 0 0 0 0 0 0 0 0 0 0 0 0 0 0 0 0 0 0 0 0 0 0 0 0 0 0 0 0 0 0 0 0 0 0 0 0 0 0 0 0 0 0 0 0 0 0 0 2102 2164 2102 2044 1989 1989 1989 1936 1887 1839 1752 1711 1672 1672 1599 1533 1599 1471 1533 1471 1501 1443 1471 1501 1501 1415 1443 1338 1338 1268 1247 1187 1115 1132 1168 1149 1082 1008 994 981 968 931 919 908 897 919 968 897 855 886 897 886 0 0 0 865 855 919 808 782 774 766 758 743 728 735 721 714 707 687 675 663 645 645 639 634 629 623 618 613 608 598 598 593 579 579 574 570 570 561 557 553 549 537 533 529 529 507 514 507 504 493 500 497 497 493 500 487 487 481 487 474 465 462 465 462 451 443 440 435 435 420 425 0 0 0 0 0
    0 0 0 0 0 0 0 0 0 0 0 0 0 0 0 0 0 0 0 0 0 0 0 0 0 0 0 0 0 0 0 0 0 0 0 0 0 0 0 0 0 0 0 0 0 0 0 0 0 0 0 0 0 0 0 0 0 0 0 0 0 0 0 0 0 0 0 0 0 1362 1314 1338 1314 1291 1291 1291 1314 1338 1362 1388 1338 1388 1471 1471 1533 1533 1565 1599 1635 1672 1711 1711 1711 1752 1752 1752 1752 1795 1839 1887 1839 2044 1936 2044 2044 1989 2044 1989 2044 2230 1989 2453 1989 2374 2830 2725 2628 2537 2453 2537 2537 2628 2537 2628 2725 2725 2830 2830 2943 3199 3066 4329 4088 4088 3679 4088 4329 4906 4906 6133 4088 4088 4088 0 0 0 0 0 0 0 0 0 0 0 0 0 0 0 0 0 0 0 0 0 0 0 0 0 0 0 0 0 0 0 0 0 0 0 0 0 0 0 0 0 0 0 0 0 0 0 0 2044 2164 2164 2044 1989 1989 1989 1989 1936 1887 1839 1795 1752 1711 1711 1599 1565 1599 1471 1533 1471 1533 1471 1471 1501 1501 1443 1443 1338 1338 1268 1247 1187 1132 1132 1168 1149 1082 994 994 981 955 931 919 919 908 919 968 908 865 908 919 908 897 0 0 876 865 943 817 774 766 766 758 743 735 735 721 714 700 681 669 663 645 639 634 634 629 623 618 613 608 598 598 593 579 584 579 574 570 561 557 553 549 541 533 529 529 507 514 507 504 493 500 497 497 497 504 490 490 481 490 474 462 462 465 462 451 446 443 438 435 422 425 0 0 0 0 0
    0 0 0 0 0 0 0 0 0 0 0 0 0 0 0 0 0 0 0 0 0 0 0 0 0 0 0 0 0 0 0 0 0 0 0 0 0 0 0 0 0 0 0 0 0 0 0 0 0 0 0 0 0 0 0 0 0 0 0 0 0 0 0 0 0 0 0 0 0 1362 1338 1338 1314 1291 1268 1247 1291 1314 1362 1388 1362 1388 1501 1501 1533 1533 1599 1635 1635 1672 1711 1711 1711 1752 1752 1795 1795 1839 1887 1936 1887 2044 1936 2102 2044 1989 2044 2044 2044 2230 1989 2537 1989 2453 2943 2830 2830 2537 2453 2453 2537 2628 2537 2725 2725 2725 2830 2830 2943 3199 3066 4329 4088 4088 3679 4088 4329 4599 4599 6133 3873 3873 3873 0 0 0 0 0 0 0 0 0 0 0 0 0 0 0 0 0 0 0 0 0 0 0 0 0 0 0 0 0 0 0 0 0 0 0 0 0 0 0 0 0 0 0 0 0 0 0 0 2102 2230 2230 2102 2044 2044 1989 1936 1887 1839 1839 1752 1711 1711 1672 1599 1599 1635 1471 1565 1471 1533 1471 1501 1501 1471 1443 1443 1338 1338 1247 1247 1187 1132 1132 1149 1168 1082 994 994 981 968 931 919 931 908 931 981 931 865 919 931 919 908 908 886 876 876 943 817 774 766 758 758 743 728 728 714 707 687 675 663 657 645 634 634 634 629 623 618 613 608 603 598 593 579 584 579 574 570 566 561 557 553 541 529 529 525 507 514 507 504 493 500 500 500 497 507 493 493 487 497 474 465 465 465 462 454 446 443 440 438 425 427 0 0 0 0 0
    0 0 0 0 0 0 0 0 0 0 0 0 0 0 0 0 0 0 0 0 0 0 0 0 0 0 0 0 0 0 0 0 0 0 0 0 0 0 0 0 0 0 0 0 0 0 0 0 0 0 0 0 0 0 0 0 0 0 0 0 0 0 0 0 0 0 0 0 0 1338 1338 1314 1291 1268 1247 1226 1291 1314 1362 1362 1338 1362 1501 1533 1533 1501 1599 1599 1635 1672 1711 1711 1711 1752 1752 1795 1795 1839 1887 1936 1887 2044 1936 2102 2044 2044 2044 2044 2044 2299 2044 2628 2044 2537 3066 2943 2943 2628 2453 2537 2453 2537 2537 2725 2725 2725 2830 2830 2830 3199 3199 4329 4088 4088 3679 4088 4329 4599 4599 6133 3873 3873 3873 0 0 0 0 0 0 0 0 0 0 0 0 0 0 0 0 0 0 0 0 0 0 0 0 0 0 0 0 0 0 0 0 0 0 0 0 0 0 0 0 0 0 0 0 0 0 0 0 2164 2230 2164 2044 1989 2044 1989 1936 1887 1839 1795 1752 1711 1711 1672 1599 1635 1635 1471 1565 1471 1533 1471 1501 1501 1471 1415 1443 1362 1362 1268 1247 1206 1149 1132 1149 1168 1082 994 994 981 968 931 943 943 919 931 981 943 876 919 943 931 908 919 886 886 876 943 817 774 766 758 758 743 728 721 707 700 687 675 669 657 639 634 634 634 629 623 618 613 613 603 598 598 584 584 579 579 570 566 561 557 549 545 529 529 525 507 514 507 507 493 504 504 500 500 507 497 493 490 500 477 465 465 465 465 457 446 446 440 438 425 427 0 0 0 0 0
    0 0 0 0 0 0 0 0 0 0 0 0 0 0 0 0 0 0 0 0 0 0 0 0 0 0 0 0 0 0 0 0 0 0 0 0 0 0 0 0 0 0 0 0 0 0 0 0 0 0 0 0 0 0 0 0 0 0 0 0 0 0 0 0 0 0 0 0 0 0 1314 1291 1268 1247 1226 1187 1247 1268 1314 1338 1314 1362 1471 1501 1533 1471 1565 1565 1635 1635 1711 1711 1711 1752 1752 1795 1839 1839 1887 1936 1887 2044 1936 2102 2044 2044 2044 2044 2044 2299 2044 2628 2102 2628 3199 2943 2943 2725 2537 2537 2453 2537 2537 2725 2725 2725 2830 2830 2830 3199 3199 4329 4088 4088 3873 4088 4088 4599 4329 6133 3873 3873 3873 0 0 0 0 0 0 0 0 0 0 0 0 0 0 0 0 0 0 0 0 0 0 0 0 0 0 0 0 0 0 0 0 0 0 0 0 0 0 0 0 0 0 0 0 0 0 0 0 2164 2230 2164 2044 1989 2044 1989 1887 1839 1795 1795 1752 1711 1711 1672 1635 1672 1672 1501 1599 1501 1533 1471 1501 1501 1471 1415 1471 1362 1362 1268 1247 1206 1149 1132 1149 1149 1066 1008 1008 994 981 955 955 955 919 943 994 955 876 931 943 931 908 919 886 886 876 943 817 766 758 758 758 735 728 721 714 700 694 681 675 657 645 634 639 634 634 629 618 618 613 608 603 598 579 584 579 579 570 566 561 557 549 545 533 529 529 511 514 507 507 493 504 504 500 500 504 497 497 493 507 477 468 468 468 465 457 446 443 440 438 425 427 0 0 0 0 0
    0 0 0 0 0 0 0 0 0 0 0 0 0 0 0 0 0 0 0 0 0 0 0 0 0 0 0 0 0 0 0 0 0 0 0 0 0 0 0 0 0 0 0 0 0 0 0 0 0 0 0 0 0 0 0 0 0 0 0 0 0 0 0 0 0 0 0 0 0 1314 1314 1268 1268 1247 1226 1168 1247 1247 1314 1338 1338 1338 1443 1471 1501 1471 1533 1533 1599 1635 1672 1672 1711 1752 1752 1795 1839 1887 1887 1936 1887 2044 1936 2102 2044 1989 2044 2044 2044 2299 2044 2628 2164 2725 3199 3066 2943 2830 2537 2537 2537 2537 2537 2725 2725 2725 2830 2943 2943 3199 3199 4329 4088 4088 3679 4088 4088 4599 4329 6133 3873 3873 3873 0 0 0 0 0 0 0 0 0 0 0 0 0 0 0 0 0 0 0 0 0 0 0 0 0 0 0 0 0 0 0 0 0 0 0 0 0 0 0 0 0 0 0 0 0 0 0 2102 2230 2230 2164 2044 1989 2044 1989 1839 1795 1752 1795 1752 1752 1711 1672 1635 1711 1711 1533 1635 1533 1533 1501 1501 1471 1443 1415 1443 1338 1338 1247 1247 1187 1149 1132 1149 1132 1066 1008 1008 994 994 968 968 968 931 955 994 968 876 931 943 931 919 919 886 886 876 931 817 766 758 758 750 743 728 721 714 707 694 681 675 663 657 639 645 639 634 629 623 623 618 608 603 598 584 588 579 579 570 561 561 557 553 549 537 533 529 514 518 507 507 493 504 507 504 500 504 500 500 497 514 481 471 471 471 471 462 448 446 440 438 425 425 0 0 0 0 0
    0 0 0 0 0 0 0 0 0 0 0 0 0 0 0 0 0 0 0 0 0 0 0 0 0 0 0 0 0 0 0 0 0 0 0 0 0 0 0 0 0 0 0 0 0 0 0 0 0 0 0 0 0 0 0 0 0 0 0 0 0 0 0 0 0 0 0 0 0 1291 1291 1268 1268 1247 1226 1168 1268 1268 1338 1338 1338 1338 1471 1471 1533 1471 1565 1565 1599 1635 1672 1672 1711 1752 1795 1839 1887 1887 1936 1989 1936 2044 1936 2102 2044 1989 2044 2044 2044 2299 2044 2628 2164 2943 3345 3066 2943 2830 2537 2537 2628 2537 2537 2725 2830 2830 2830 2943 2943 3066 3199 4329 3873 4088 3679 4088 4088 4329 4329 6133 3873 3873 3873 0 0 0 0 0 0 0 0 0 0 0 0 0 0 0 0 0 0 0 0 0 0 0 0 0 0 0 0 0 0 0 0 0 0 0 0 0 0 0 0 0 0 0 0 0 0 0 2164 2230 2230 2164 2044 1989 2044 1989 1795 1795 1752 1795 1752 1752 1711 1711 1672 1795 1752 1565 1635 1565 1565 1533 1533 1471 1443 1415 1443 1338 1314 1247 1247 1206 1168 1132 1132 1132 1066 1008 1022 1008 1008 981 994 981 943 955 994 968 876 931 943 931 908 919 886 876 876 931 817 766 766 758 750 735 721 721 707 700 687 681 669 663 657 645 645 639 639 634 629 629 623 613 608 603 584 588 584 579 570 561 561 557 553 553 537 537 533 521 521 507 511 497 507 511 504 504 507 504 504 500 521 481 474 474 474 471 465 451 446 438 435 422 425 0 0 0 0 0
    0 0 0 0 0 0 0 0 0 0 0 0 0 0 0 0 0 0 0 0 0 0 0 0 0 0 0 0 0 0 0 0 0 0 0 0 0 0 0 0 0 0 0 0 0 0 0 0 0 0 0 0 0 0 0 0 0 0 0 0 0 0 0 0 0 0 0 0 0 1291 1314 1291 1268 1268 1268 1226 0 0 1501 1443 1388 1362 1501 1501 1533 1501 1599 1565 1599 1635 1672 1672 1711 1752 1795 1839 1887 1887 1936 1936 1887 2044 1936 2102 2044 1989 2044 2044 2044 2299 2044 2628 2164 2943 3345 3066 2943 2830 2725 2628 2725 2628 2628 2830 2830 2830 2830 2830 2943 2943 3066 4088 3873 3873 3679 4088 4088 4329 4329 6133 3679 3679 3679 0 0 0 0 0 0 0 0 0 0 0 0 0 0 0 0 0 0 0 0 0 0 0 0 0 0 0 0 0 0 0 0 0 0 0 0 0 0 0 0 0 0 0 0 0 0 0 2230 2299 2299 2164 2044 2044 2044 1989 1795 1752 1752 1752 1752 1752 1711 1711 1711 1839 1839 1599 1672 1565 1565 1533 1533 1471 1415 1415 1443 1314 1291 1247 1247 1206 1187 1132 1132 1115 1066 1022 1022 1022 1022 1008 1008 994 955 968 1008 968 876 931 931 919 908 908 876 876 865 908 808 774 758 758 750 735 728 721 714 700 694 681 669 663 663 645 651 645 645 639 634 634 629 623 613 603 584 588 584 579 570 561 561 561 553 557 541 537 533 525 521 511 514 497 511 511 507 504 507 507 507 500 521 481 474 477 474 474 471 457 451 440 438 425 425 0 0 0 0 0
    0 0 0 0 0 0 0 0 0 0 0 0 0 0 0 0 0 0 0 0 0 0 0 0 0 0 0 0 0 0 0 0 0 0 0 0 0 0 0 0 0 0 0 0 0 0 0 0 0 0 0 0 0 0 0 0 0 0 0 0 0 0 0 0 0 0 0 0 0 1314 1314 1291 1291 1291 1291 1291 1388 1388 1565 1471 1415 1388 1501 1533 1565 1533 1599 1599 1635 1635 1711 1672 1711 1752 1795 1839 1887 1887 1887 1936 1887 2044 1936 2102 2044 1989 2044 2102 2102 2299 2102 2628 2164 2830 3345 2830 2725 2628 2725 2537 2725 2537 2628 2725 2725 2725 2725 2725 2830 2830 3066 4088 3873 3873 3679 3873 4088 4088 4329 6133 3679 3679 3679 0 0 0 0 0 0 0 0 0 0 0 0 0 0 0 0 0 0 0 0 0 0 0 0 0 0 0 0 0 0 0 0 0 0 0 0 0 0 0 0 0 0 0 0 0 0 2102 2299 2299 2299 2164 2044 2044 2102 1989 1752 1752 1795 1752 1752 1752 1711 1752 1752 1887 1887 1635 1711 1599 1599 1599 1533 1415 1388 1388 1415 1291 1268 1226 1226 1206 1187 1132 1115 1115 1066 1022 1036 1036 1036 1022 1022 1008 981 981 1022 981 876 919 931 919 897 897 865 855 855 886 808 758 758 758 758 743 728 721 714 700 687 675 669 663 663 651 651 645 645 645 634 634 629 623 608 603 579 584 579 574 570 561 561 561 553 557 541 537 533 525 521 511 518 497 511 511 507 507 507 507 507 504 525 481 477 477 474 474 471 459 454 448 443 430 425 0 0 0 0 0
    0 0 0 0 0 0 0 0 0 0 0 0 0 0 0 0 0 0 0 0 0 0 0 0 0 0 0 0 0 0 0 0 0 0 0 0 0 0 0 0 0 0 0 0 0 0 0 0 0 0 0 0 0 0 0 0 0 0 0 0 0 0 0 0 0 0 0 0 0 1291 1314 1314 1314 1291 1314 1314 1415 1415 1533 1443 1415 1388 1533 1533 1599 1533 1635 1599 1635 1635 1711 1672 1711 1752 1795 1795 1887 1887 1887 1936 1887 2044 1936 2102 2044 1989 2044 2044 2102 2299 2102 2628 2164 2725 3066 2725 2628 2537 2628 2537 2537 2453 2537 2537 2628 2628 2725 2628 2725 2725 3066 3873 3873 3873 3679 3873 3873 4088 4088 6133 3679 3679 3679 0 0 0 0 0 0 0 0 0 0 0 0 0 0 0 0 0 0 0 0 0 0 0 0 0 0 0 0 0 0 0 0 0 0 0 0 0 0 0 0 0 0 0 0 0 0 2164 2299 2299 2374 2164 2044 2044 2164 1989 1711 1752 1795 1752 1795 1752 1711 1752 1795 1936 1887 1672 1752 1672 1635 1635 1533 1388 1388 1362 1388 1268 1247 1206 1206 1187 1206 1132 1115 1098 1066 1008 1051 1051 1036 1022 0 1022 994 994 1022 981 876 908 919 908 886 886 855 0 845 845 799 750 750 750 750 735 728 721 714 707 694 687 681 675 669 657 657 651 651 651 639 639 634 623 608 598 574 579 574 574 570 566 561 561 553 557 541 537 533 525 521 511 514 500 511 514 507 507 507 511 507 507 525 484 481 481 477 474 471 462 454 457 448 438 427 0 0 0 0 0
    0 0 0 0 0 0 0 0 0 0 0 0 0 0 0 0 0 0 0 0 0 0 0 0 0 0 0 0 0 0 0 0 0 0 0 0 0 0 0 0 0 0 0 0 0 0 0 0 0 0 0 0 0 0 0 0 0 0 0 0 0 0 0 0 0 0 0 0 0 1314 1314 1314 1338 1338 1362 1338 1415 1415 1533 1471 1443 1415 1565 1533 1599 1533 1635 1599 1635 1635 1672 1635 1672 1711 1752 1795 1839 1887 1936 1936 1887 1989 1936 2044 2044 1989 2044 2044 2044 2299 2102 2628 2164 2725 3066 2537 2537 2374 2537 2537 2453 2537 2537 2537 2725 2725 2725 2725 2725 2830 3066 4088 4088 4088 3679 3873 3873 4088 4088 6133 3504 3504 3504 0 0 0 0 0 0 0 0 0 0 0 0 0 0 0 0 0 0 0 0 0 0 0 0 0 0 0 0 0 0 0 0 0 0 0 0 0 0 0 0 0 0 0 0 0 0 2299 2374 2299 2374 2164 2044 2102 2164 1936 1711 1752 1839 1752 1795 1795 1752 1795 1795 1936 1936 1711 1752 1672 1672 1672 1565 1388 1388 1362 1388 1291 1268 1226 1206 1187 1226 1132 1098 1082 1051 1008 1051 1051 1051 1036 0 1036 1008 1008 0 968 876 897 908 897 876 876 0 0 836 826 799 750 750 750 750 728 721 714 707 700 694 687 681 675 675 663 663 657 657 651 645 645 639 629 608 598 570 579 574 570 570 566 561 561 553 557 541 541 533 529 521 514 514 497 511 511 507 504 507 511 511 507 529 490 487 487 484 481 477 465 459 462 451 440 427 0 0 0 0 0
    0 0 0 0 0 0 0 0 0 0 0 0 0 0 0 0 0 0 0 0 0 0 0 0 0 0 0 0 0 0 0 0 0 0 0 0 0 0 0 0 0 0 0 0 0 0 0 0 0 0 0 0 0 0 0 0 0 0 0 0 0 0 0 0 0 0 0 0 0 1314 1338 1338 1362 1388 1415 1415 1443 1443 1533 1471 1471 0 1533 1533 1565 1501 1599 1565 1599 1599 1635 1599 1599 1672 1711 1752 1839 1887 1936 1936 1839 1989 1887 2044 1989 1989 2044 2044 2044 2299 2102 2537 2102 2537 2830 2299 2453 2230 2537 2537 2453 2537 2537 2628 2725 2725 2830 2725 2830 3066 3066 4088 4088 4088 3679 3873 3873 4088 4088 5661 3504 3504 3504 0 0 0 0 0 0 0 0 0 0 0 0 0 0 0 0 0 0 0 0 0 0 0 0 0 0 0 0 0 0 0 0 0 0 0 0 0 0 0 0 0 0 0 0 0 2102 2374 2374 2299 2299 2164 2044 2102 2164 1936 1752 1752 1839 1795 1839 1795 1752 1839 1839 1989 1989 1752 1795 1711 1672 1711 1565 1388 1388 1388 1415 1291 1291 1247 1226 1206 1226 1132 1082 1066 1051 1008 1066 1066 1051 1036 0 1036 1022 1022 0 981 876 897 897 897 876 865 845 836 826 826 799 758 758 758 750 728 721 714 707 707 694 687 681 675 675 675 669 663 663 663 657 651 651 629 603 598 570 579 574 570 570 566 561 561 553 557 541 541 537 529 521 514 514 497 511 511 504 504 507 511 511 511 529 487 487 487 484 484 481 468 465 465 457 440 427 0 0 0 0 0
    0 0 0 0 0 0 0 0 0 0 0 0 0 0 0 0 0 0 0 0 0 0 0 0 0 0 0 0 0 0 0 0 0 0 0 0 0 0 0 0 0 0 0 0 0 0 0 0 0 0 0 0 0 0 0 0 0 0 0 0 0 0 0 0 0 0 0 0 0 1338 1362 1362 1415 1471 1501 1501 1533 1471 1501 1443 1471 1443 1501 1501 1533 1471 1565 1533 1565 1533 1599 1565 1533 1599 1672 1711 1795 1839 1887 1887 1795 1989 1887 2044 1989 1989 2044 2044 2044 2299 2102 2537 2044 2453 2628 2102 2453 2164 2537 2453 2453 2537 2628 2628 2725 2725 2830 2725 2830 3066 3066 4088 4088 3873 3679 3873 3873 3873 4088 5661 3504 3504 3504 0 0 0 0 0 0 0 0 0 0 0 0 0 0 0 0 0 0 0 0 0 0 0 0 0 0 0 0 0 0 0 0 0 0 0 0 0 0 0 0 0 0 0 0 0 2164 2374 2374 2230 2230 2102 2044 2164 2164 1936 1711 1752 1839 1839 1839 1839 1795 1887 1887 2044 1989 1752 1795 1711 1672 1711 1533 1362 1362 1362 1388 1291 1268 1226 1206 1206 1226 1132 1066 1051 1036 1008 1066 1066 1066 1051 1051 1051 1022 1022 0 981 876 897 897 897 876 865 845 836 826 817 799 758 758 758 743 728 721 721 707 707 694 687 681 675 681 675 669 663 663 663 651 651 639 618 598 593 566 579 574 570 570 566 561 561 557 561 545 541 537 529 518 514 514 497 511 511 507 504 507 514 511 511 529 490 487 484 481 481 481 471 465 465 457 440 430 0 0 0 0 0
    0 0 0 0 0 0 0 0 0 0 0 0 0 0 0 0 0 0 0 0 0 0 0 0 0 0 0 0 0 0 0 0 0 0 0 0 0 0 0 0 0 0 0 0 0 0 0 0 0 0 0 0 0 0 0 0 0 0 0 0 0 0 0 0 0 0 0 0 0 1362 1388 1415 1443 1501 1533 1533 1533 1501 1501 1443 1471 1443 1471 1471 1501 1443 1533 1501 1533 1533 1565 1533 1471 1533 1599 1672 1752 1795 1839 1839 1752 1936 1887 2044 1989 1989 2044 2044 2044 2299 2102 2537 2044 2453 2537 1989 2537 2164 2537 2374 2453 2537 2628 2537 2725 2628 2725 2725 2830 2943 3066 3873 4088 3873 3504 3679 3679 3873 4088 5661 3345 3345 3345 0 0 0 0 0 0 0 0 0 0 0 0 0 0 0 0 0 0 0 0 0 0 0 0 0 0 0 0 0 0 0 0 0 0 0 0 0 0 0 0 0 0 0 0 0 2299 2453 2453 2299 2230 2102 2044 2164 2164 1936 1752 1795 1887 1839 1887 1887 1839 1887 1936 2044 2044 1752 0 1672 1599 1635 1471 0 1362 1338 1362 1291 1268 1226 1226 1187 1226 1115 1051 1051 1036 1008 1066 1066 1066 1051 1066 1051 1036 1036 0 981 876 897 897 897 876 0 836 836 817 817 799 750 750 750 743 728 721 721 707 707 694 687 681 681 675 675 675 663 663 669 657 651 634 608 593 593 566 579 574 570 570 566 561 561 557 561 541 541 537 529 518 514 514 497 511 511 507 507 507 514 511 511 533 487 484 481 477 481 477 471 462 462 457 443 430 0 0 0 0 0
    0 0 0 0 0 0 0 0 0 0 0 0 0 0 0 0 0 0 0 0 0 0 0 0 0 0 0 0 0 0 0 0 0 0 0 0 0 0 0 0 0 0 0 0 0 0 0 0 0 0 0 0 0 0 0 0 0 0 0 0 0 0 0 0 0 0 0 0 0 1388 1415 1415 1443 1471 1501 1533 1501 1471 1471 1415 1443 1443 1501 1501 1501 1471 1533 1533 1533 1533 1565 1533 1471 1533 0 0 1752 0 1795 1839 1711 1936 1887 2044 1989 2044 2044 2044 2102 2299 2102 2537 2044 2453 2453 1989 2537 2164 2537 2374 2453 2537 2537 2537 2628 2628 2725 2628 2830 2830 2943 3679 4088 3873 3504 3679 3679 3873 4088 5661 3345 3345 3345 0 0 0 0 0 0 0 0 0 0 0 0 0 0 0 0 0 0 0 0 0 0 0 0 0 0 0 0 0 0 0 0 0 0 0 0 0 0 0 0 0 0 0 0 0 2453 2453 2453 2374 2164 2164 2102 2164 2164 1989 1839 1839 1936 1887 1887 1887 1839 1887 1887 1989 1989 1711 0 1599 1533 1565 1415 328 1338 1338 1338 1291 1291 1226 1226 1206 1247 1115 1051 1051 1036 1008 1066 1066 1066 1051 1051 1051 1022 1022 0 981 876 897 897 897 876 0 845 836 826 817 791 750 750 750 743 728 721 721 714 707 694 687 681 681 675 675 675 663 663 669 645 639 618 603 588 588 566 579 574 570 570 566 566 561 557 561 541 541 533 529 518 514 514 500 511 514 504 504 507 511 507 507 529 484 477 477 474 477 474 468 459 462 454 440 425 0 0 0 0 0
    0 0 0 0 0 0 0 0 0 0 0 0 0 0 0 0 0 0 0 0 0 0 0 0 0 0 0 0 0 0 0 0 0 0 0 0 0 0 0 0 0 0 0 0 0 0 0 0 0 0 0 0 0 0 0 0 0 0 0 0 0 0 0 0 0 0 0 0 0 1388 1443 1415 1443 1443 1471 1501 1471 1415 1415 1362 1388 1415 1471 1501 1471 1443 1533 1533 1533 1533 1565 1565 1471 1565 1565 1635 1711 1752 1795 1795 1711 1936 1887 2044 1989 2044 2044 2044 2102 2299 2102 2537 2044 2453 2374 1936 2628 2102 2628 2299 2453 2537 2537 2537 2628 2628 2725 2628 2830 2943 2943 3679 4088 3873 3504 3679 3679 3873 4088 5661 3345 3345 3345 0 0 0 0 0 0 0 0 0 0 0 0 0 0 0 0 0 0 0 0 0 0 0 0 0 0 0 0 0 0 0 0 0 0 0 0 0 0 0 0 0 0 0 0 2230 2453 2453 2453 2299 2102 2164 2164 2164 2102 1989 1887 1887 1989 1936 1936 1887 1839 1936 1887 1936 1936 1711 0 0 1501 0 0 328 0 1338 1338 1291 1291 1226 1247 1206 1247 1115 1051 1036 1022 994 1051 1051 1051 1036 1036 1036 1022 1022 1022 968 865 897 897 897 876 0 845 836 826 817 791 750 750 750 750 735 728 728 714 714 700 694 687 681 681 681 675 669 669 675 645 634 608 598 588 588 566 579 574 574 574 570 566 561 557 561 537 537 533 529 518 514 514 500 511 514 504 504 504 511 504 507 525 484 477 477 474 474 474 468 459 462 457 443 425 0 0 0 0 0
    0 0 0 0 0 0 0 0 0 0 0 0 0 0 0 0 0 0 0 0 0 0 0 0 0 0 0 0 0 0 0 0 0 0 0 0 0 0 0 0 0 0 0 0 0 0 0 0 0 0 0 0 0 0 0 0 0 0 0 0 0 0 0 0 0 0 0 0 0 1388 1443 1415 1443 1415 1443 1471 1443 1415 1388 1362 1388 1415 1471 1501 1471 1443 1565 1533 1565 1565 1599 1599 1501 1565 1599 1635 1711 1711 1752 1795 1672 1936 1887 2102 1989 2044 2044 2044 2102 2299 2102 2537 2044 2453 2374 1936 2537 2102 2537 2299 2453 2537 2537 2537 2725 2628 2725 2725 2943 3066 3066 3873 4329 3873 3504 3873 3679 3873 4088 5661 3345 3345 3345 0 0 0 0 0 0 0 0 0 0 0 0 0 0 0 0 0 0 0 0 0 0 0 0 0 0 0 9199 0 0 0 0 0 0 0 0 0 0 0 0 0 0 0 0 2374 2453 2453 2453 2299 2044 2164 2164 2164 2102 2044 1936 1936 2044 1989 1936 1936 0 1936 1887 1936 1887 1711 0 1565 1471 0 0 330 327 0 1338 1314 1291 1226 1247 1206 1247 1098 0 1022 994 981 1036 1036 1036 1022 1022 1022 994 1008 1008 968 865 897 897 897 876 0 845 836 826 817 791 750 750 750 743 735 728 728 714 714 694 694 687 687 687 681 675 675 663 675 639 629 608 598 588 588 566 579 574 574 574 570 566 561 557 557 537 537 533 529 518 518 514 500 507 511 504 504 504 507 500 500 521 481 474 474 471 471 471 465 459 457 454 443 427 0 0 0 0 0
    0 0 0 0 0 0 0 0 0 0 0 0 0 0 0 0 0 0 0 0 0 0 0 0 0 0 0 0 0 0 0 0 0 0 0 0 0 0 0 0 0 0 0 0 0 0 0 0 0 0 0 0 0 0 0 0 0 0 0 0 0 0 0 0 0 0 0 0 0 1388 1415 1415 1415 1415 1443 1471 1443 1388 1388 1388 1388 1415 1471 1501 1471 1443 1565 1565 1565 1565 1599 1599 1501 1565 1599 1635 1672 1672 1752 1752 1672 1936 1887 2102 1989 2044 2044 2044 2102 2299 2102 2537 2044 2453 2374 1936 2537 2044 2537 2230 2374 2537 2537 2537 2725 2725 2830 2830 3066 3345 3199 3873 4329 3873 3504 3873 3679 3873 4088 5661 3504 3504 3504 0 0 0 0 0 0 0 0 0 0 0 0 0 0 0 0 0 0 0 0 0 0 0 0 0 0 0 7359 0 0 0 0 0 0 0 0 0 0 0 8177 0 0 0 0 2628 2537 2537 2537 2453 2044 2230 2164 2164 2102 2044 1989 1989 2044 2044 1989 1989 0 1936 1887 1887 1839 1672 1599 1533 1471 0 0 330 328 0 1362 1338 1314 1247 1268 1226 1247 1098 0 1008 994 981 1008 1008 1008 1008 994 1008 981 994 994 968 865 897 897 908 886 0 855 845 836 826 791 758 750 750 743 735 728 728 721 714 700 694 694 687 687 687 681 675 669 681 645 629 603 598 588 588 570 579 574 574 574 570 566 561 557 557 537 537 529 529 521 518 514 500 507 511 500 500 500 507 497 497 514 481 471 468 468 468 468 465 459 459 454 443 427 0 0 0 0 0
    0 0 0 0 0 0 0 0 0 0 0 0 0 0 0 0 0 0 0 0 0 0 0 0 0 0 0 0 0 0 0 0 0 0 0 0 0 0 0 0 0 0 0 0 0 0 0 0 0 0 0 0 0 0 0 0 0 0 0 0 0 0 0 0 0 0 0 0 0 1388 1443 1415 1415 1415 1443 1471 1471 1415 1415 1388 1388 1388 1471 1471 1443 1443 1533 1533 1533 1533 1565 1599 1501 1565 1565 1599 1672 1635 1711 1752 1672 1936 1887 2044 1989 2044 2044 2044 2102 2299 2102 2537 1989 2374 2299 1936 2537 2044 2537 2230 2453 2453 2537 2537 2725 2725 2830 2830 3199 3345 3199 3873 4329 3873 3504 3873 3873 4088 4329 5661 3679 3679 3679 0 0 0 0 0 0 0 0 0 0 0 0 0 0 0 0 0 0 0 0 0 0 0 0 0 0 0 7359 0 0 0 0 0 0 0 0 0 0 0 0 0 0 0 260 2628 2537 2537 2537 2453 2044 2230 2164 2164 2044 2102 2044 2044 2102 2044 1989 1989 0 1989 1887 1839 1795 1672 1565 1501 1443 0 0 330 328 0 1362 1388 1362 1268 1291 1268 1247 1098 0 1008 994 981 981 994 994 994 981 994 981 981 981 968 865 897 897 908 876 0 855 845 836 826 791 758 750 750 743 735 735 735 721 714 694 694 687 687 687 687 681 669 663 675 639 629 608 598 593 588 574 584 579 579 574 570 566 561 557 557 537 533 529 529 521 521 518 500 507 511 500 500 500 511 497 497 504 481 471 468 468 468 468 465 462 459 457 443 427 0 0 0 0 0
    0 0 0 0 0 0 0 0 0 0 0 0 0 0 0 0 0 0 0 0 0 0 0 0 0 0 0 0 0 0 0 0 0 0 0 0 0 0 0 0 0 0 0 0 0 0 0 0 0 0 0 0 0 0 0 0 0 0 0 0 0 0 0 0 0 0 0 0 0 1415 1443 1443 1443 1415 1443 1471 1501 1415 1415 1388 1388 1415 1471 1471 1443 1443 1565 1533 1533 1533 1565 1635 1501 1599 1565 1635 1672 1599 1711 1711 1672 1887 1887 2044 1989 2044 2102 2044 2102 2299 2102 2537 1989 2374 2374 1989 2537 2102 2537 2230 2453 2537 2537 2537 2725 2725 2830 2943 3345 3345 3199 3679 4329 3873 3504 3873 3873 4088 4329 5661 3873 3873 3873 0 0 0 0 0 0 0 0 0 0 0 0 0 0 0 0 0 0 0 0 0 0 0 0 0 0 0 8177 0 0 0 0 0 0 0 0 0 0 0 0 0 0 0 261 2628 2537 2537 2537 2537 2044 2299 2164 2164 2044 2164 2044 2044 2102 2044 1989 1989 0 0 1839 1795 1752 1672 1501 1501 1443 0 0 331 328 327 0 1388 1362 1268 1314 1268 1226 1082 0 1008 994 981 955 981 981 981 968 994 968 968 968 968 855 897 897 897 0 0 855 845 836 836 791 758 750 758 750 743 743 743 735 728 707 700 694 694 687 681 675 669 663 675 634 629 608 598 593 588 574 584 579 579 574 570 566 561 557 557 537 533 529 529 521 521 518 504 507 514 504 504 500 511 497 497 500 477 471 468 468 468 468 465 462 457 454 443 425 0 0 0 0 0
    0 0 0 0 0 0 0 0 0 0 0 0 0 0 0 0 0 0 0 0 0 0 0 0 0 0 0 0 0 0 0 0 0 0 0 0 0 0 0 0 0 0 0 0 0 0 0 0 0 0 0 0 0 0 0 0 0 0 0 0 0 0 0 0 0 0 0 0 0 1415 1443 1443 1443 1415 1443 1471 1501 1443 1443 1415 1415 1443 1501 1533 1501 1471 1565 1565 1533 1599 1599 1672 1533 1635 1599 1635 1672 1599 1672 1711 1672 1887 1887 2044 1989 2044 2102 2044 2102 2299 2102 2537 1989 2374 2453 1989 2537 2102 2537 2230 2453 2537 2537 2537 2725 2725 2943 2943 3345 3345 3199 3679 4599 3873 3504 4088 3873 4088 4599 6133 4088 4088 4088 0 0 0 0 0 0 0 0 0 0 0 0 0 0 0 0 0 0 0 0 0 0 0 0 0 0 0 0 0 0 0 0 0 0 0 0 0 0 0 0 0 0 0 263 2725 2725 2725 2628 2628 2044 2374 2230 2164 2044 2164 2044 2044 2102 2044 1936 1936 0 0 1839 1795 1711 1635 1471 1501 1443 0 0 331 328 325 0 1388 1362 1268 1338 1268 1187 1066 0 994 981 981 919 981 981 968 955 968 943 943 943 955 845 886 886 886 0 0 855 845 845 845 791 758 758 758 750 750 750 750 743 735 707 700 694 687 687 681 675 669 663 669 634 629 608 598 598 588 574 579 579 579 579 570 566 557 557 557 537 533 529 525 521 521 521 504 511 514 504 504 500 511 493 497 500 481 471 468 468 468 468 465 462 457 454 440 422 0 0 0 0 0
    0 0 0 0 0 0 0 0 0 0 0 0 0 0 0 0 0 0 0 0 0 0 0 0 0 0 0 0 0 0 0 0 0 0 0 0 0 0 0 0 0 0 0 0 0 0 0 0 0 0 0 0 0 0 0 0 0 0 0 0 0 0 0 0 0 0 0 0 0 1388 1443 1443 1443 1415 1443 1471 1501 1443 1471 1415 1415 1443 1565 1599 1533 1533 1635 1635 1599 1635 1635 1672 1533 1635 1599 1672 1672 1635 1672 1711 1672 1887 1839 2044 1989 2044 2102 2044 2102 2299 2102 2537 1989 2374 2537 1989 2537 2102 2453 2230 2453 2537 2537 2537 2725 2725 2943 3066 3504 3345 3345 3679 4599 3873 3679 4088 4088 4329 4599 6133 4329 4329 4329 0 0 0 0 0 0 0 0 0 0 0 0 0 0 0 0 0 0 0 0 0 0 0 0 0 0 0 8177 0 0 0 0 0 0 0 0 0 0 0 8177 0 0 267 0 2830 2725 2725 2725 2725 2102 2374 2299 2230 2102 2230 2102 2102 2102 2102 1989 1989 1936 0 1839 1752 1672 1672 1471 1501 1443 1388 1415 0 330 327 0 1415 1388 1291 1443 1291 1168 1051 0 981 981 981 897 968 968 955 943 955 931 919 919 943 855 886 886 886 876 855 865 855 855 845 791 758 766 766 766 766 758 758 750 743 714 700 694 687 687 681 675 669 663 669 634 629 608 598 598 588 574 579 579 579 574 566 566 557 557 557 537 533 529 529 521 521 521 504 511 514 504 504 500 507 493 497 497 477 471 468 468 465 465 462 459 454 448 440 415 0 0 0 0 0
    0 0 0 0 0 0 0 0 0 0 0 0 0 0 0 0 0 0 0 0 0 0 0 0 0 0 0 0 0 0 0 0 0 0 0 0 0 0 0 0 0 0 0 0 0 0 0 0 0 0 0 0 0 0 0 0 0 0 0 0 0 0 0 0 0 0 0 0 0 1388 1443 1443 1443 1415 1443 1471 1501 1471 1471 1415 1415 1443 1565 1599 1599 1565 1635 1635 1635 1635 1635 1672 1565 1672 1599 1672 1672 1635 1711 1711 1672 1887 1839 2044 1989 2044 2102 2102 2102 2299 2102 2537 1989 2374 2537 1989 2453 2102 2453 2230 2453 2537 2537 2537 2830 2830 2943 3199 3504 3504 3345 3679 4906 3873 3679 4329 4088 4329 4906 5661 4329 4329 4329 0 0 0 0 0 0 0 0 0 0 0 0 0 0 0 0 0 0 0 0 0 0 0 0 0 0 0 6690 0 0 0 0 0 0 0 8177 0 0 0 8177 0 0 0 0 2830 2725 2537 2628 2628 2102 2453 2299 2230 2102 2230 2102 2164 2102 2102 1936 1936 1936 1936 1795 1711 1635 1635 1471 1501 1443 1415 1415 1415 0 0 1388 1443 1388 1314 1565 1314 1226 1036 0 981 981 981 876 943 955 943 931 943 919 908 908 931 855 886 886 886 876 855 865 855 865 845 799 782 782 782 782 774 774 774 758 743 707 700 687 687 681 675 675 669 663 669 634 629 608 598 598 584 574 574 574 574 574 566 566 557 557 553 0 0 529 529 525 525 525 507 511 514 504 504 500 507 493 493 493 477 471 468 468 465 462 459 454 448 446 438 415 0 0 0 0 0
    0 0 0 0 0 0 0 0 0 0 0 0 0 0 0 0 0 0 0 0 0 0 0 0 0 0 0 0 0 0 0 0 0 0 0 0 0 0 0 0 0 0 0 0 0 0 0 0 0 0 0 0 0 0 0 0 0 0 0 0 0 0 0 0 0 0 0 0 0 1388 1443 1443 1443 1415 1443 1471 1501 1471 1501 1415 1415 1415 1565 1599 1599 1599 1672 1635 1635 1635 1635 1672 1565 1672 1635 1672 1672 1672 1711 1752 1711 1936 1839 2044 1989 2044 2102 2102 2102 2299 2102 2537 1989 2453 2628 1936 2374 2102 2453 2230 2453 2537 2537 2537 2830 2830 3066 3345 3679 3679 3504 3873 4906 3873 3679 4329 4329 4329 4906 5661 4599 4599 4599 0 0 0 0 0 0 0 0 0 0 0 0 0 0 0 0 0 0 0 0 0 0 0 0 0 0 0 6133 0 0 0 8177 0 0 7359 7359 0 0 0 7359 7359 5256 0 3504 2830 2725 2628 2628 2537 2164 2453 2299 2299 2102 2299 2164 2164 2102 2102 1989 1989 1936 1936 1795 1711 1635 1672 1471 1501 1443 1415 1443 1443 1415 1415 1415 1443 1388 1338 1635 1291 1149 1022 968 981 981 968 876 943 943 943 919 943 919 908 908 919 865 876 876 886 865 855 865 855 865 845 808 799 799 799 791 791 782 782 758 743 707 700 687 681 681 675 669 669 663 669 634 634 608 598 598 584 574 574 574 574 574 566 561 557 557 553 0 0 529 529 525 529 525 507 514 518 504 504 500 507 493 493 490 481 471 468 468 465 462 457 454 448 443 438 420 0 0 0 0 0
    0 0 0 0 0 0 0 0 0 0 0 0 0 0 0 0 0 0 0 0 0 0 0 0 0 0 0 0 0 0 0 0 0 0 0 0 0 0 0 0 0 0 0 0 0 0 0 0 0 0 0 0 0 0 0 0 0 0 0 0 0 0 0 0 0 0 0 0 0 1388 1443 1443 1443 1415 1443 1443 1501 1471 1501 1415 1388 1415 1565 1599 1565 1599 1635 1635 1599 1599 1635 1672 1565 1672 1599 1672 1711 1672 1711 1752 1711 1936 1839 2044 1989 2044 2102 2044 2102 2299 2102 2537 1989 2453 2628 1936 2374 2044 2453 2230 2453 2537 2537 2537 2830 2830 3066 3199 3679 3679 3679 3873 4906 3873 3679 4329 4329 4599 4906 5661 4599 4599 4599 0 0 0 0 0 0 0 0 0 0 0 0 0 0 0 0 0 0 0 0 0 0 0 0 0 0 0 5256 8177 8177 0 7359 8177 8177 7359 7359 0 0 0 7359 8177 6133 0 4088 3066 2943 2725 2725 2628 2299 2453 2374 2374 2102 2374 2164 2164 2102 2102 1989 1989 1936 1936 1795 1752 1672 1672 1501 1501 1443 1415 1443 1443 1443 1415 1415 1443 1388 1362 1635 1291 1051 1008 968 981 981 981 876 931 943 931 919 943 908 897 897 919 855 876 876 876 865 845 865 855 865 845 817 817 817 817 808 799 791 782 750 735 707 700 687 681 675 669 669 669 657 663 639 629 608 598 593 579 574 574 574 574 570 561 561 557 557 553 0 0 529 529 525 529 525 511 514 518 504 504 500 507 493 493 490 481 471 468 468 465 462 457 457 448 446 440 420 0 0 0 0 0
    0 0 0 0 0 0 0 0 0 0 0 0 0 0 0 0 0 0 0 0 0 0 0 0 0 0 0 0 0 0 0 0 0 0 0 0 0 0 0 0 0 0 0 0 0 0 0 0 0 0 0 0 0 0 0 0 0 0 0 0 0 0 0 0 0 0 0 0 0 1388 1443 1443 1443 1443 1443 1443 1471 1471 1533 1415 1388 1388 1533 1565 1533 1565 1565 1565 1565 1565 1599 1635 1533 1635 1599 1672 1672 1672 1752 1752 1711 1936 1839 2044 1989 2044 2102 2044 2102 2299 2044 2453 1989 2374 2628 1936 2299 2102 2453 2164 2453 2453 2537 2537 2830 2830 3066 3199 3679 3679 3679 3679 4599 3873 3679 4599 4599 4599 4906 5256 4599 4599 4599 0 0 0 0 0 0 0 0 0 0 0 0 0 0 0 0 0 0 0 0 0 0 0 0 0 0 0 5256 8177 7359 8177 6690 7359 7359 6690 6690 0 8177 0 6690 7359 5661 4906 3873 3066 2830 2830 2628 2628 2299 2374 2374 2374 2102 2374 2164 2164 2164 2102 2044 1989 1936 1989 1839 1795 1672 1672 1501 1501 1443 1388 1443 1443 1443 1415 1415 1443 1388 1388 1635 1268 1036 1008 968 994 981 981 876 931 931 931 919 943 908 897 897 908 855 865 865 865 855 845 865 855 876 855 836 836 0 826 826 808 808 782 743 735 707 694 681 681 675 669 663 669 657 657 639 629 608 598 593 579 574 570 570 574 570 561 561 557 557 553 0 0 529 529 521 529 525 511 514 518 504 504 504 511 497 493 493 481 474 468 468 465 462 459 457 448 446 440 422 0 0 0 0 0
    0 0 0 0 0 0 0 0 0 0 0 0 0 0 0 0 0 0 0 0 0 0 0 0 0 0 0 0 0 0 0 0 0 0 0 0 0 0 0 0 0 0 0 0 0 0 0 0 0 0 0 0 0 0 0 0 0 0 0 0 0 0 0 0 0 0 0 0 0 1388 1443 1443 1443 1443 1443 1443 1471 1443 1533 1388 1388 1388 1533 1533 1533 1533 1565 1533 1533 1533 1565 1599 1501 1635 1565 1672 1672 1672 1752 1752 1711 1936 1839 2044 1989 2044 2102 2044 2044 2299 2044 2453 1989 2374 2628 1989 2299 2164 2453 2164 2453 2453 2537 2537 2725 2830 2943 3066 3679 3679 3679 3679 4599 3873 3873 4599 4599 4906 4599 4906 4599 4599 4599 0 0 0 0 0 0 0 0 0 0 0 0 0 0 0 0 0 0 0 0 0 0 0 0 0 0 0 5661 7359 7359 7359 6690 7359 7359 6133 6690 8177 8177 7359 6690 6690 5256 3873 3679 3066 2830 2725 2628 2725 2537 2374 2453 2453 2164 2453 2164 2230 2164 2102 2044 1936 1936 1936 1795 1795 1672 1672 1501 1501 1443 1388 1443 1415 1415 1388 1388 1443 1362 1415 1635 1268 1051 1008 981 994 981 981 876 931 931 931 919 931 908 897 897 897 855 855 855 855 845 826 855 845 876 855 845 0 0 0 826 808 799 774 743 735 700 694 681 681 675 669 663 669 657 657 639 629 608 598 588 574 570 570 570 574 570 561 557 557 557 553 0 0 529 529 521 529 525 511 514 518 504 504 504 511 497 497 500 487 477 471 468 465 462 457 451 446 443 438 422 0 0 0 0 0
    0 0 0 0 0 0 0 0 0 0 0 0 0 0 0 0 0 0 0 0 0 0 0 0 0 0 0 0 0 0 0 0 0 0 0 0 0 0 0 0 0 0 0 0 0 0 0 0 0 0 0 0 0 0 0 0 0 0 0 0 0 0 0 0 0 0 0 0 0 1362 1443 1443 1443 1443 1443 1443 1443 1443 1533 1388 1388 1388 1533 1565 1533 1565 1565 1533 1533 1533 1565 1565 1501 1599 1565 1672 1672 1672 1752 1752 1752 1936 1887 2044 1989 1989 2102 2044 2044 2299 2044 2453 1989 2299 2725 2044 2299 2230 2453 2164 2453 2453 2537 2537 2725 2830 2943 3066 3504 3679 3679 3679 4599 3873 3873 4599 4599 4906 4599 4906 4599 4599 4599 0 0 0 0 0 0 0 0 0 0 0 0 0 0 0 0 0 0 0 0 0 0 0 0 0 0 0 5661 7359 7359 7359 6690 6690 7359 6133 6690 8177 8177 8177 6690 6690 5256 3679 3679 3066 2830 2830 2725 2830 2725 2537 2628 2537 2230 2453 2230 2230 2164 2102 2044 1936 1936 1936 1795 1752 1672 1672 1533 1501 1443 1362 1415 1415 1415 1388 1388 1415 1338 1415 1635 1268 1066 1022 994 994 981 981 876 943 943 931 919 931 908 897 897 897 855 855 855 855 845 826 855 845 876 865 865 0 0 0 0 808 791 774 735 728 700 694 681 681 675 669 663 669 657 657 639 0 603 593 584 570 570 566 570 570 570 561 557 553 557 0 0 0 0 533 525 529 529 514 514 518 507 504 504 507 497 497 500 493 477 471 465 462 459 454 448 443 443 438 425 0 0 0 0 0
    0 0 0 0 0 0 0 0 0 0 0 0 0 0 0 0 0 0 0 0 0 0 0 0 0 0 0 0 0 0 0 0 0 0 0 0 0 0 0 0 0 0 0 0 0 0 0 0 0 0 0 0 0 0 0 0 0 0 0 0 0 0 0 0 0 0 0 0 0 1362 1443 1443 1443 1415 1443 1443 1443 1443 1533 1415 1388 1388 1501 1565 1533 1533 1533 1501 1501 1501 1533 1533 1471 1599 1565 1635 1672 1672 1752 1795 1752 1936 1887 2102 1989 1989 2102 2044 2044 2299 2044 2453 1989 2374 2725 2102 2299 2299 2537 2230 2453 2453 2537 2537 2725 2830 2943 3066 3504 3679 3679 3679 4329 3679 3873 4599 4599 4906 4599 4599 4599 4599 4599 0 0 0 0 0 0 0 0 0 0 0 0 0 0 0 0 0 0 0 0 0 0 0 0 0 0 0 5661 6133 6133 6690 6133 6133 6690 6133 6690 8177 8177 7359 6690 6690 5256 3504 3504 3066 2830 2830 2725 2943 2830 2537 2725 2628 2299 2537 2230 2299 2164 2102 2102 1936 1936 1936 1795 1795 1672 1711 1565 1501 1443 1362 1415 1415 1388 1362 1388 1415 1314 1415 1599 1247 1051 1022 994 994 981 981 886 955 955 955 931 943 919 897 908 897 855 855 855 855 845 836 865 845 876 865 855 855 0 0 826 808 791 774 735 728 700 687 681 681 675 675 669 669 663 657 645 0 0 593 579 566 570 566 566 570 566 561 557 553 557 549 0 0 533 533 525 529 525 514 511 518 504 504 504 504 497 493 497 497 481 471 468 462 459 451 448 443 440 438 425 0 0 0 0 0
    0 0 0 0 0 0 0 0 0 0 0 0 0 0 0 0 0 0 0 0 0 0 0 0 0 0 0 0 0 0 0 0 0 0 0 0 0 0 0 0 0 0 0 0 0 0 0 0 0 0 0 0 0 0 0 0 0 0 0 0 0 0 0 0 0 0 0 0 0 1362 1415 1443 1443 1415 1443 1443 1443 1443 1533 1415 1388 1388 1471 1533 1471 1471 1471 1471 1443 1471 1501 1501 1471 1565 1533 1635 1672 1635 1752 1795 1752 1936 1887 2102 2044 2044 2102 2044 2044 2299 2044 2453 2044 2453 2725 2230 2374 2374 2537 2230 2453 2453 2537 2537 2725 2830 3066 3066 3504 3679 3679 3679 4088 3679 3873 4329 4599 5256 4599 4599 4599 4599 4599 0 0 0 0 0 0 0 0 0 0 0 0 0 0 0 0 0 0 0 0 0 0 0 0 0 0 8177 5661 6133 6133 6133 6133 6133 6690 6133 6690 7359 8177 7359 6133 6690 4599 3345 3345 3066 2943 2830 2725 2943 2943 2628 2830 2725 2374 2628 2299 2374 2230 2102 2102 1936 1936 1936 1795 1795 1672 1711 1599 1501 1415 1362 1415 1388 1388 1362 1362 1388 1314 1415 1565 1247 1066 1036 1008 1008 981 981 897 955 955 955 943 943 931 908 919 908 855 855 845 845 836 826 855 836 845 855 836 836 0 836 826 799 791 774 735 728 700 687 681 681 675 675 669 675 669 657 657 0 0 593 579 566 570 566 566 570 566 557 553 553 557 0 0 0 533 533 525 529 525 514 511 518 504 504 504 504 500 497 497 504 481 474 468 462 462 454 448 446 443 438 427 0 0 0 0 0
    0 0 0 0 0 0 0 0 0 0 0 0 0 0 0 0 0 0 0 0 0 0 0 0 0 0 0 0 0 0 0 0 0 0 0 0 0 0 0 0 0 0 0 0 0 0 0 0 0 0 0 0 0 0 0 0 0 0 0 0 0 0 0 0 0 0 0 0 0 1362 1415 1415 1443 1415 1415 1415 1415 1415 1533 1415 1388 1388 1471 1471 1443 1443 1443 1443 1443 1443 1471 1501 1471 1533 1533 1599 1635 1635 1752 1795 1752 1936 1887 2102 2044 1989 2102 2044 2044 2230 2044 2453 2044 2453 2725 2299 2374 2453 2537 2299 2453 2453 2537 2628 2725 2830 3066 3066 3345 3504 3679 3504 4088 3679 3679 4088 4599 5256 4599 4599 4599 4599 4599 0 0 0 0 0 0 0 0 0 0 0 0 0 0 0 0 0 0 0 0 0 0 0 0 0 0 0 6690 6690 6690 6690 6690 6690 6690 6133 7359 8177 0 7359 6690 7359 4599 3199 3345 3066 2943 2943 2830 3199 3066 2830 2943 2830 2453 2628 2299 2299 2230 2044 2102 1887 1887 1887 1795 1752 1672 1711 1599 1501 1415 1362 1388 1388 1388 1362 1362 1388 1291 1415 1533 1247 1082 1051 1022 1008 981 994 919 955 955 955 943 955 931 908 919 908 845 845 845 836 826 826 845 826 826 845 826 826 0 826 826 799 791 782 735 735 700 687 681 681 681 675 669 675 669 663 663 0 0 593 574 566 570 566 566 570 566 557 553 553 557 0 0 0 533 533 525 529 525 518 507 518 507 504 504 504 504 497 497 511 481 474 468 468 465 457 454 448 446 440 432 0 0 0 0 0
    0 0 0 0 0 0 0 0 0 0 0 0 0 0 0 0 0 0 0 0 0 0 0 0 0 0 0 0 0 0 0 0 0 0 0 0 0 0 0 0 0 0 0 0 0 0 0 0 0 0 0 0 0 0 0 0 0 0 0 0 0 0 0 0 0 0 0 0 0 1338 1388 1415 1415 1415 1415 1415 1415 1415 1501 1443 1388 1388 1471 1471 1443 1415 1443 1415 1415 1415 1443 1471 1443 1533 1533 1599 1635 1635 1752 1795 1795 1989 1936 2102 2044 1989 2044 2044 2044 2230 2044 2374 2044 2374 2628 2374 2453 2537 2537 2299 2453 2453 2537 2628 2830 2830 3066 3066 3345 3504 3679 3504 3873 3679 3679 4088 4599 5661 4906 4599 4599 4599 4599 0 0 0 0 0 0 0 0 0 0 0 0 0 0 0 0 0 0 0 0 0 0 0 0 0 0 7359 6133 6133 6133 6690 6133 6690 6690 6690 7359 8177 0 8177 6690 7359 4599 3199 3345 3066 2943 2943 2943 3199 3066 2830 2943 2830 2453 2628 2230 2299 2102 1936 2044 1887 1887 1887 1795 1752 1711 1752 1599 1533 1415 1362 1388 1388 1388 1362 1362 1362 1291 1388 1501 1247 1082 1051 1022 1008 981 994 919 955 955 955 955 955 931 919 919 908 836 836 836 826 826 817 836 817 817 836 826 826 0 826 826 799 782 774 743 735 700 687 687 687 681 681 675 681 675 663 675 0 0 593 574 566 570 566 566 566 561 557 553 553 553 0 0 0 533 533 529 529 521 518 511 521 507 504 504 504 504 497 497 511 481 474 471 471 468 462 457 454 451 443 435 0 0 0 0 0
    0 0 0 0 0 0 0 0 0 0 0 0 0 0 0 0 0 0 0 0 0 0 0 0 0 0 0 0 0 0 0 0 0 0 0 0 0 0 0 0 0 0 0 0 0 0 0 0 0 0 0 0 0 0 0 0 0 0 0 0 0 0 0 0 0 0 0 0 0 1338 1362 1415 1415 1388 1415 1415 1415 1415 1471 1471 1388 1388 1443 1443 1415 1388 1388 1388 1388 1415 1415 1471 1443 1501 1533 1599 1635 1635 1752 1795 1795 1989 1936 2102 2044 1989 2044 1989 1989 2164 2044 2299 2044 2299 2537 2453 2453 2537 2537 2299 2374 2453 2537 2725 2830 2943 3066 3066 3199 3504 3679 3504 3873 3679 3679 4088 4599 5661 4906 4906 4599 4599 4599 0 0 0 0 0 0 0 0 0 0 0 0 0 0 0 0 0 0 0 0 0 0 0 0 0 0 6690 7359 6690 6690 7359 6690 6690 7359 7359 8177 0 0 8177 0 8177 4329 3066 3199 3066 2943 2943 2943 3199 3066 2725 2830 2725 2453 2537 2164 2164 0 1887 1936 1795 1839 1839 1795 1752 1711 1752 1635 1533 1415 1362 1388 1388 1388 1362 1362 1362 1291 1388 1443 1226 1098 1066 1051 1022 1008 1008 955 981 981 981 968 981 955 931 931 908 826 826 826 817 817 817 826 817 808 836 826 826 0 817 817 799 782 782 750 743 707 694 687 687 687 681 675 681 681 663 681 0 0 593 574 566 570 566 566 566 561 553 553 553 553 0 0 0 0 537 529 529 521 518 511 521 511 507 504 504 507 500 500 514 481 474 471 468 468 465 459 454 454 443 435 0 0 0 0 0
    0 0 0 0 0 0 0 0 0 0 0 0 0 0 0 0 0 0 0 0 0 0 0 0 0 0 0 0 0 0 0 0 0 0 0 0 0 0 0 0 0 0 0 0 0 0 0 0 0 0 0 0 0 0 0 0 0 0 0 0 0 0 0 0 0 0 0 0 0 1338 1362 1388 1388 1388 1388 1415 1415 1388 1443 1471 1415 1415 1471 1471 1415 1388 1388 1388 1388 1443 1443 1501 1443 1565 1565 1635 1672 1635 1795 1795 1839 1989 1936 2044 2044 1989 2044 1989 1989 2164 1989 2230 1989 2230 2453 2374 2374 2537 2537 2374 2374 2453 2537 2725 2830 2943 3066 3066 3199 3504 3679 3504 3873 3873 3679 4088 4599 6133 5256 4906 4599 4599 4599 0 0 0 0 0 0 0 0 0 0 0 0 0 0 0 0 0 0 0 0 0 0 0 6690 0 0 7359 0 7359 7359 8177 7359 7359 8177 8177 9199 8177 0 7359 0 6133 3504 2830 2943 2943 2830 2943 2830 3066 3066 2725 2830 2725 2453 2537 2102 2164 0 0 1887 1795 1795 1795 1752 1711 1711 1752 1635 1533 1415 1362 1415 1415 1388 1362 1362 1362 1291 1388 1388 1226 1115 1082 1082 1036 1008 1008 968 994 994 981 981 981 968 955 955 919 826 0 826 817 817 808 817 808 799 826 0 817 0 817 817 799 782 791 774 766 721 700 694 694 687 687 681 681 681 669 687 0 0 593 570 566 570 566 566 566 557 553 549 553 553 0 0 0 0 537 533 529 521 518 511 521 511 507 507 504 511 504 504 521 481 477 474 471 468 465 457 454 451 443 435 0 0 0 0 0
    0 0 0 0 0 0 0 0 0 0 0 0 0 0 0 0 0 0 0 0 0 0 0 0 0 0 0 0 0 0 0 0 0 0 0 0 0 0 0 0 0 0 0 0 0 0 0 0 0 0 0 0 0 0 0 0 0 0 0 0 0 0 0 0 0 0 0 0 0 1338 1362 1388 1388 1388 1388 1415 1415 1415 1443 1501 1415 1443 1501 1501 1471 1443 1443 1443 1443 1501 1471 1565 1501 1565 1599 1672 1672 1672 1795 1795 1839 1989 1936 2044 1989 1936 2044 1989 1989 2102 1936 2164 1989 2164 2453 2453 2453 2537 2537 2453 2453 2453 2537 2830 2830 2943 3066 3066 3199 3345 3679 3679 3873 3873 3679 4088 4599 6133 5256 4906 4599 4599 4599 0 0 0 0 0 0 0 0 0 0 0 0 0 0 0 0 0 0 0 3199 4088 4088 6133 8177 0 0 8177 0 8177 8177 8177 8177 8177 0 0 0 8177 0 0 0 5256 3504 2943 3066 2943 2830 2943 2943 3066 3066 2830 2943 2725 2453 0 2164 0 0 0 0 1752 1752 1752 1711 1672 1711 1752 1635 1533 1415 1362 1415 1415 1415 1362 1362 1388 1314 1362 1362 1226 1132 1115 1098 1036 1022 1022 994 1008 1008 994 994 994 994 968 968 931 836 0 817 817 817 808 817 0 0 826 0 817 817 817 808 799 791 799 782 782 735 707 700 694 687 687 681 681 681 663 687 0 0 593 570 566 570 566 561 561 553 553 549 553 553 541 0 0 537 545 537 529 521 521 511 521 511 507 507 504 514 507 504 521 484 481 477 474 474 468 457 457 451 440 432 0 0 0 0 0
    0 0 0 0 0 0 0 0 0 0 0 0 0 0 0 0 0 0 0 0 0 0 0 0 0 0 0 0 0 0 0 0 0 0 0 0 0 0 0 0 0 0 0 0 0 0 0 0 0 0 0 0 0 0 0 0 0 0 0 0 0 0 0 0 0 0 0 0 0 1338 1314 1388 1388 1362 1388 1415 1415 1388 1443 1533 1415 1443 1501 1501 1471 1443 1443 1471 1443 1533 1501 1565 1533 1599 1599 1672 1711 1672 1795 1795 1839 1989 1936 2044 1989 1936 1989 1936 1936 2102 1936 2102 1989 2164 2453 2453 2453 2537 2537 2537 2453 2537 2537 2830 2830 2943 2943 3066 3066 3345 3504 3679 3873 4088 3679 4329 4599 6133 5256 5256 4329 4329 4329 0 0 0 0 0 0 0 0 0 0 0 0 0 0 0 0 0 0 2943 3345 4599 4599 7359 8177 0 0 0 0 0 0 0 0 0 0 0 0 0 0 6133 0 4599 3504 2943 2943 2943 2830 2943 2943 2943 2943 2725 2830 2725 2453 0 2102 0 0 1795 0 1752 1752 1752 1711 1672 1711 1752 1635 1565 1415 1388 1443 1443 1415 1388 1388 1388 1314 1362 1338 1226 1149 1132 1098 1051 1036 1022 1008 1022 1022 1022 1008 1022 1008 981 994 943 0 0 817 826 817 817 0 808 799 826 817 817 817 817 808 799 791 808 799 799 750 714 700 694 687 681 675 681 681 657 681 0 0 593 570 566 570 566 561 561 553 553 549 553 549 541 541 541 541 553 537 529 521 521 514 521 514 511 507 507 518 507 504 521 484 481 477 477 477 471 462 465 451 440 430 0 0 0 0 0
    0 0 0 0 0 0 0 0 0 0 0 0 0 0 0 0 0 0 0 0 0 0 0 0 0 0 0 0 0 0 0 0 0 0 0 0 0 0 0 0 0 0 0 0 0 0 0 0 0 0 0 0 0 0 0 0 0 0 0 0 0 0 0 0 0 0 0 0 0 1314 1314 1388 1362 1362 1388 1388 1388 1388 1415 1533 1415 1443 1501 1501 1471 1471 1471 1471 1443 1501 1533 1599 1501 1599 1599 1711 1711 1672 1795 1795 1795 1936 1887 2044 1989 1936 1989 1936 1936 2044 1936 2102 1989 2230 2453 2453 2537 2537 2537 2537 2453 2537 2537 2830 2830 2830 2943 2943 3066 3199 3345 3679 3873 4088 3873 4329 4906 6133 5256 5256 4088 4088 4088 0 0 0 0 0 0 0 0 0 0 0 0 0 0 0 0 0 0 3199 3873 6133 6133 0 0 0 0 0 0 0 0 0 0 0 0 0 0 8177 0 5256 3873 3873 3345 2943 2943 2830 2725 2830 2830 2830 2830 2628 2830 2628 2374 2374 2102 1989 0 1795 0 1752 1752 1752 1711 1672 1711 1795 1635 1565 1415 1388 1443 1443 1415 1388 1388 1388 1314 1362 1314 1206 1149 1149 1098 1051 1036 1036 1008 1036 1036 1036 1036 1036 1022 994 1008 955 0 0 0 0 0 0 0 808 799 817 817 817 817 817 817 808 799 808 808 808 774 728 700 694 687 675 675 675 675 651 663 613 0 593 570 566 570 566 561 561 553 553 549 553 549 541 541 545 545 561 545 533 521 521 514 521 514 507 507 507 518 511 504 525 484 484 484 481 484 477 468 471 454 438 427 0 0 0 0 0
    0 0 0 0 0 0 0 0 0 0 0 0 0 0 0 0 0 0 0 0 0 0 0 0 0 0 0 0 0 0 0 0 0 0 0 0 0 0 0 0 0 0 0 0 0 0 0 0 0 0 0 0 0 0 0 0 0 0 0 0 0 0 0 0 0 0 0 0 0 1314 1314 1388 1362 1362 1388 1388 1388 1388 1415 1533 1415 1415 1471 1471 1443 1443 1471 1471 1443 1501 1565 1565 1443 1599 1599 1672 1672 1635 1795 1795 1795 1936 1887 1989 1936 1936 1989 1936 1936 2044 1936 2102 1989 2164 2374 2453 2537 2537 2537 2537 2453 2628 2453 2830 2725 2830 2830 2943 3066 3199 3345 3679 3873 4088 3873 4088 4599 5256 4329 4906 3679 3679 3679 0 0 0 0 0 0 0 0 0 0 0 0 0 0 0 0 0 0 3345 4329 5256 5661 7359 8177 0 8177 0 0 0 0 0 0 0 0 0 0 8177 8177 5256 3679 3873 3345 3066 2943 2943 2830 2830 2830 2830 2830 2628 2725 2537 2374 2299 2102 1989 0 1795 0 1752 1752 1711 1711 1635 1752 1795 1599 1565 1415 1415 1471 1443 1443 0 0 1388 1338 1362 1291 1226 1149 1149 1098 1051 1036 1036 1008 1036 1036 1036 1036 1036 1022 1008 1008 955 0 0 0 0 0 0 0 808 799 817 0 817 808 817 817 808 808 808 817 817 791 758 707 694 687 675 669 669 663 639 639 613 603 593 574 566 570 570 561 561 549 553 549 549 549 541 545 549 549 561 545 533 525 521 511 521 514 507 507 507 518 511 507 525 484 484 484 481 484 481 471 474 454 440 427 0 0 0 0 0
    0 0 0 0 0 0 0 0 0 0 0 0 0 0 0 0 0 0 0 0 0 0 0 0 0 0 0 0 0 0 0 0 0 0 0 0 0 0 0 0 0 0 0 0 0 0 0 0 0 0 0 0 0 0 0 0 0 0 0 0 0 0 0 0 0 0 0 0 0 1314 1314 1362 1362 1362 1362 1388 1362 1388 1388 1501 1415 1415 1471 1471 1443 1471 1471 1501 1471 1533 1599 1599 1501 1711 1599 1711 1711 1672 1839 1839 1839 1936 1887 1989 1936 1936 1989 1936 1936 2044 1936 2102 1936 2102 2230 2453 2537 2453 2453 2537 2453 2628 2453 2725 2725 2725 2830 2830 2830 3066 3066 3504 3679 3873 3679 3679 4088 4906 3873 4329 3679 3504 3504 0 0 0 0 0 0 0 0 0 0 0 0 0 0 0 0 0 0 2830 3873 5256 6690 0 0 0 0 0 0 0 0 0 0 0 0 0 0 8177 8177 5256 3504 3873 3504 3066 2943 3066 2830 2830 2830 2830 2830 2537 2628 2537 2374 2299 2102 1936 0 1795 0 1752 1711 1711 1672 1635 1711 1752 1565 1599 1415 1415 1471 1471 1443 0 0 1415 1338 1362 1291 1226 1168 1149 1098 1051 1051 1036 1022 1051 1051 1036 1036 1051 1036 1008 1008 968 0 0 0 0 0 0 0 808 799 817 0 0 808 817 808 808 808 808 817 817 799 774 707 694 681 669 663 657 645 634 629 613 608 598 584 570 574 570 561 561 549 553 549 549 549 541 545 549 549 561 545 533 525 525 511 518 514 507 507 507 518 511 507 525 484 481 481 477 481 481 465 465 446 435 422 0 0 0 0 0
    0 0 0 0 0 0 0 0 0 0 0 0 0 0 0 0 0 0 0 0 0 0 0 0 0 0 0 0 0 0 0 0 0 0 0 0 0 0 0 0 0 0 0 0 0 0 0 0 0 0 0 0 0 0 0 0 0 0 0 0 0 0 0 0 0 0 0 0 0 1338 1314 1388 1362 1338 1362 1362 1362 1362 1388 1501 1388 1415 1471 1471 1443 1471 1501 1533 1501 1565 1635 1635 1533 1752 1635 1795 1752 1711 1839 1839 1839 1936 1887 1989 1936 1936 2044 1989 1989 2044 1989 2102 1936 2102 2230 2374 2453 2374 2453 2453 2374 2537 2374 2725 2628 2628 2725 2830 2830 2943 2943 3345 3504 3679 3679 3679 3873 4599 3873 4329 3873 3345 3345 0 0 0 0 0 0 0 0 0 0 0 0 0 0 0 0 0 2628 3199 3679 5661 6133 8177 8177 0 8177 0 0 0 0 0 0 0 0 0 8177 8177 8177 5256 3679 4088 3504 3066 2943 2943 2830 2725 2830 2628 2628 2453 2537 2453 2299 2299 2164 1989 0 1839 0 1752 1752 1711 1672 1599 1711 1752 1565 1599 1415 1443 1471 1471 1471 0 0 1415 1338 1362 1268 1226 1168 1168 1098 1051 1051 1051 1022 1066 1066 1066 1051 1066 1051 1036 1022 968 855 0 0 0 0 0 0 808 808 817 0 0 799 817 808 808 808 808 817 808 799 782 714 694 681 663 657 645 634 629 623 613 608 598 588 574 574 570 566 561 553 553 549 553 549 545 549 545 549 557 545 533 525 521 507 518 514 507 507 507 518 511 507 529 481 477 477 474 474 477 462 457 443 432 422 0 0 0 0 0
    0 0 0 0 0 0 0 0 0 0 0 0 0 0 0 0 0 0 0 0 0 0 0 0 0 0 0 0 0 0 0 0 0 0 0 0 0 0 0 0 0 0 0 0 0 0 0 0 0 0 0 0 0 0 0 0 0 0 0 0 0 0 0 0 0 0 0 0 0 1338 1338 1388 1362 1338 1362 1362 1362 1362 1362 1471 1388 1388 1443 1471 1443 1471 1533 1533 1533 1565 1635 1635 1533 1795 1635 1795 1752 1711 1839 1887 1839 1936 1887 2044 1936 1936 2044 1989 1989 2102 2044 2164 1989 2230 2299 2374 2374 2299 2374 2453 2374 2537 2299 2628 2628 2537 2725 2725 2725 2943 2943 3199 3504 3679 3504 3679 3873 4599 3873 4088 4088 3345 3345 0 0 0 0 0 0 0 0 0 0 0 0 0 0 0 0 0 3066 3345 3199 6133 5661 8177 7359 8177 8177 0 0 0 0 0 0 0 0 0 8177 7359 7359 5256 3873 4088 3679 3199 3199 3066 2943 2725 2830 2628 2628 2453 2537 2453 2299 2299 2164 1989 0 1887 0 1752 1752 1711 1672 1599 1711 1711 1533 1599 1443 1443 1471 1471 1471 0 0 1443 1362 1362 1268 1226 1168 1187 1115 1066 1066 1066 1036 1098 1098 1082 1066 1082 1066 1036 1036 981 0 0 0 0 0 0 0 0 808 817 0 0 799 817 799 799 799 799 817 808 799 782 707 687 675 651 645 639 629 629 623 618 608 598 588 579 579 574 566 566 553 557 549 553 549 545 545 545 545 553 541 529 521 521 504 514 514 507 507 507 518 507 507 529 481 474 474 465 465 474 454 451 438 425 418 0 0 0 0 0
    0 0 0 0 0 0 0 0 0 0 0 0 0 0 0 0 0 0 0 0 0 0 0 0 0 0 0 0 0 0 0 0 0 0 0 0 0 0 0 0 0 0 0 0 0 0 0 0 0 0 0 0 0 0 0 0 0 0 0 0 0 0 0 0 0 0 0 0 0 1314 1338 1388 1362 1338 1362 1362 1362 1388 1388 1443 1388 1415 1471 1501 1443 1501 1533 1565 1565 1565 1635 1599 1501 1711 1599 1752 1752 1711 1839 1887 1887 1936 1936 2044 1989 1989 2102 2044 1989 2102 2102 2230 2044 2374 2299 2374 2374 2299 2374 2453 2299 2537 2299 2628 2537 2537 2628 2725 2628 2830 2830 3199 3345 3679 3504 3504 3873 4329 3873 4088 4329 3199 3199 0 0 0 0 0 0 0 0 0 0 0 0 0 0 0 0 3199 3345 3345 3345 5661 5661 7359 7359 8177 7359 8177 0 8177 0 0 0 0 0 0 8177 7359 7359 5661 4088 4329 3679 3345 3345 3199 3066 2943 2943 0 2725 2453 2628 2453 2299 2299 2230 2044 0 1887 0 1752 1752 1711 1672 1565 1711 1711 1501 1599 1443 1471 1501 1501 1501 1443 1415 1471 1362 1362 1247 1226 1187 1187 1098 1082 1066 1066 1036 1115 1098 1082 1066 1082 1066 1051 1036 981 0 0 0 0 0 0 0 0 808 817 0 0 799 817 799 799 799 799 817 808 799 774 694 681 663 639 639 634 623 623 618 613 608 603 588 579 579 579 570 566 553 557 549 553 549 545 545 541 541 545 537 529 521 518 504 514 514 507 507 507 518 507 511 533 481 474 474 465 462 471 454 448 438 425 422 0 0 0 0 0
    0 0 0 0 0 0 0 0 0 0 0 0 0 0 0 0 0 0 0 0 0 0 0 0 0 0 0 0 0 0 0 0 0 0 0 0 0 0 0 0 0 0 0 0 0 0 0 0 0 0 0 0 0 0 0 0 0 0 0 0 0 0 0 0 0 0 0 0 0 1314 1338 1362 1362 1338 1362 1388 1362 1388 1388 1443 1415 1415 1471 1501 1443 1501 1533 1565 1565 1565 1599 1565 1501 1672 1599 1672 1711 1711 1887 1936 1887 1936 1936 2044 1989 2044 2102 2102 2044 2102 2230 2299 2044 2453 2374 2453 2453 2299 2453 2453 2299 2537 2299 2628 2537 2537 2628 2725 2628 2830 2830 3066 3504 3679 3504 3504 3679 4088 3873 3873 4329 2943 2943 0 0 0 0 0 0 0 0 0 0 0 0 0 0 8177 7359 6690 7359 4906 5661 7359 7359 8177 7359 8177 7359 8177 0 8177 0 0 0 0 0 0 7359 7359 7359 5256 4088 4329 3873 3504 3345 3199 3199 2943 3066 2725 2725 2453 2537 2453 2299 2299 2230 2044 1989 1887 0 1752 0 1711 1635 1565 1672 1672 1501 1599 1471 1471 1501 1501 1501 1443 1443 1501 1362 1362 1247 1226 1187 1206 1098 1098 1082 1082 1051 1115 1098 1098 1082 1098 1066 1051 1036 0 0 0 0 0 0 0 0 0 826 826 0 0 799 817 791 791 791 791 817 799 791 750 687 669 657 639 639 634 623 623 618 613 613 603 593 584 579 579 570 570 557 557 549 553 549 549 549 541 541 545 537 529 521 518 504 514 514 507 507 507 518 507 511 533 481 477 474 468 468 471 459 451 438 427 422 0 0 0 0 0
    0 0 0 0 0 0 0 0 0 0 0 0 0 0 0 0 0 0 0 0 0 0 0 0 0 0 0 0 0 0 0 0 0 0 0 0 0 0 0 0 0 0 0 0 0 0 0 0 0 0 0 0 0 0 0 0 0 0 0 0 0 0 0 0 0 0 0 0 0 1338 1362 1388 1388 1362 1362 1388 1388 1388 1415 1443 1415 1415 1471 1501 1443 1501 1565 1565 1565 1565 1599 1533 1501 1672 1635 1635 1711 1711 1839 1936 1936 1936 1936 2102 1989 2044 2102 2102 2044 2164 2299 2374 2102 2537 2453 2537 2537 2299 2453 2537 2299 2537 2374 2628 2537 2537 2725 2725 2628 2830 2943 3066 3504 3679 3679 3504 3679 3873 3873 3679 4329 2830 2725 0 0 0 0 0 0 0 0 0 0 0 0 0 7359 7359 7359 8177 8177 5661 5256 6690 7359 8177 7359 7359 7359 8177 0 0 0 0 0 0 0 0 8177 7359 7359 5661 4088 4329 3679 3504 3345 3345 3199 2943 3066 0 2725 2537 2628 2453 2299 2299 2230 2044 1989 1887 0 1752 1752 1711 1635 1565 1672 1672 1501 1635 1471 1501 1501 1501 1533 1443 1443 1501 1362 1362 1226 1226 1206 1226 1115 1115 1098 1115 1051 1132 1115 1098 1082 1098 1066 1036 1036 0 865 0 0 855 836 0 0 0 836 836 0 0 799 817 791 782 782 782 808 791 774 714 675 645 645 634 639 634 623 623 618 618 618 608 598 584 584 579 574 574 557 561 549 557 553 549 549 541 545 545 541 529 525 521 504 514 514 507 507 507 518 504 511 533 484 481 477 471 468 471 462 451 435 427 425 0 0 0 0 0
    0 0 0 0 0 0 0 0 0 0 0 0 0 0 0 0 0 0 0 0 0 0 0 0 0 0 0 0 0 0 0 0 0 0 0 0 0 0 0 0 0 0 0 0 0 0 0 0 0 0 0 0 0 0 0 0 0 0 0 0 0 0 0 0 0 0 0 0 0 1362 1388 1415 1415 1415 1388 1415 1415 1415 1415 1443 1415 1415 1471 1533 1443 1501 1565 1599 1599 1599 1599 1565 1533 1672 1635 1672 1711 1711 1839 1936 1936 1936 1936 2102 2044 2044 2102 2164 2102 2230 2299 2453 2102 2537 2537 2628 2628 2299 2453 2537 2299 2453 2374 2628 2537 2628 2725 2725 2628 2830 2943 3066 3504 3873 3679 3504 3504 3873 3873 3679 4329 2830 2628 2628 0 0 0 0 0 0 0 0 5661 0 0 6133 6690 7359 7359 0 0 6133 6690 7359 8177 8177 7359 7359 7359 8177 0 0 0 0 0 0 0 0 8177 7359 7359 6133 4329 4329 3873 3679 3504 3504 3345 3066 3199 0 2830 2628 2628 2537 2374 2374 2299 2102 1989 1936 1839 1752 1752 1711 1635 1565 1672 1672 1501 1635 1501 1501 1501 1501 1533 1443 1415 1533 1338 1314 1187 1226 1187 1206 1132 1132 1115 1115 1051 1132 1098 1098 1066 1082 1066 1036 1036 0 876 0 0 865 845 845 0 0 845 845 0 0 808 817 791 782 774 782 808 799 791 714 675 651 651 639 645 645 634 629 623 623 623 608 603 593 588 579 579 579 561 561 553 557 553 549 549 545 545 549 541 529 525 521 504 514 514 507 507 507 518 504 514 529 487 487 481 477 474 477 465 451 438 427 422 0 0 0 0 0
    0 0 0 0 0 0 0 0 0 0 0 0 0 0 0 0 0 0 0 0 0 0 0 0 0 0 0 0 0 0 0 0 0 0 0 0 0 0 0 0 0 0 0 0 0 0 0 0 0 0 0 0 0 0 0 0 0 0 0 0 0 0 0 0 0 0 0 0 0 1362 1388 1415 1415 1415 1388 1443 1443 1443 1415 1443 1415 1443 1501 1565 1443 1501 1599 1599 1599 1635 1599 1565 1565 1672 1672 1672 1711 1752 1839 1887 1936 1936 1989 2102 2044 2102 2102 2164 2102 2230 2299 2453 2102 2537 2537 2628 2628 2299 2453 2537 2299 2453 2374 2628 2537 2628 2725 2725 2628 2830 2943 3066 3504 3873 3504 3345 3504 3679 3873 3504 4906 2830 2537 2537 0 0 0 0 0 0 0 5256 5661 0 0 7359 7359 8177 8177 0 0 7359 7359 7359 8177 7359 6133 6690 6133 7359 0 8177 8177 0 0 0 0 0 8177 7359 7359 6133 4599 4599 3873 3873 3504 3504 3504 3345 3199 3066 2943 2725 2725 2628 2453 2453 2299 2102 1989 1936 0 1795 1752 1752 1672 1599 1711 1711 1533 1635 1533 1533 1533 1533 1565 1471 1471 1635 1362 1291 1187 1226 1187 1206 1149 1115 1098 1115 1051 1115 1082 1082 1066 1066 1051 1036 1022 0 876 845 845 865 845 855 855 855 855 865 836 0 808 817 791 782 782 782 808 817 817 728 687 669 657 651 651 651 645 639 629 629 629 618 608 598 593 584 584 584 561 566 553 557 553 549 549 545 545 545 541 533 529 521 507 514 514 507 507 507 518 504 514 533 490 490 481 477 474 481 468 448 440 427 427 0 0 0 0 0
    0 0 0 0 0 0 0 0 0 0 0 0 0 0 0 0 0 0 0 0 0 0 0 0 0 0 0 0 0 0 0 0 0 0 0 0 0 0 0 0 0 0 0 0 0 0 0 0 0 0 0 0 0 0 0 0 0 0 0 0 0 0 0 0 0 0 0 0 0 1388 1388 1415 1415 1415 1388 1415 1443 1415 1415 1443 1415 1443 1501 1599 1443 1533 1599 1635 1635 1635 1599 1565 1565 1635 1672 1672 1711 1752 1839 1887 1936 1936 1989 2102 2102 2102 2102 2164 2164 2230 2299 2537 2102 2453 2537 2537 2628 2374 2453 2537 2299 2453 2374 2628 2537 2628 2725 2725 2628 2830 2943 3066 3504 3873 3504 3345 3504 3679 3873 3504 5256 2830 2537 2537 0 0 0 0 0 0 4088 5256 5256 7359 0 6690 7359 0 0 0 0 7359 8177 8177 0 8177 6690 6690 6690 7359 0 8177 7359 0 8177 0 0 0 8177 6690 6690 6133 4906 4906 4088 3679 3504 3504 3504 3345 3199 3066 2943 2725 2725 2725 2453 2453 2299 2102 1989 1936 0 1795 1752 1752 1672 1599 1711 1711 1533 1635 1565 1565 1533 1533 1565 1501 1443 1635 1362 1268 1168 1226 1206 1226 1168 1132 1115 0 1051 1098 1066 1051 1036 1051 1036 1022 1022 994 886 865 845 876 855 865 865 865 865 876 845 250 817 826 799 791 782 791 817 836 836 782 687 675 663 657 657 657 651 651 639 634 639 623 618 603 598 584 588 588 570 570 553 557 553 0 549 545 545 549 541 533 529 525 507 514 514 507 507 504 514 504 511 529 493 490 484 481 477 481 474 457 446 432 430 0 0 0 0 0
    0 0 0 0 0 0 0 0 0 0 0 0 0 0 0 0 0 0 0 0 0 0 0 0 0 0 0 0 0 0 0 0 0 0 0 0 0 0 0 0 0 0 0 0 0 0 0 0 0 0 0 0 0 0 0 0 0 0 0 0 0 0 0 0 0 0 0 0 0 1388 1388 1415 1415 1415 1388 1415 1415 1415 1415 1443 1415 1471 1565 1672 1471 1533 1599 1635 1635 1635 1599 1565 1565 1635 1672 1672 1711 1752 1839 1887 1887 1936 1989 2102 2102 2102 2102 2164 2164 2230 2230 2537 2044 2374 2537 2628 2628 2453 2453 2537 2299 2453 2374 2628 2537 2628 2725 2725 2628 2830 2943 3066 3504 4088 3679 3504 3504 3679 4088 3504 5256 2830 2537 2537 0 0 0 0 0 0 4088 4906 5256 6690 0 6690 7359 0 0 0 0 7359 8177 8177 8177 7359 6133 6133 6133 6690 8177 8177 6690 8177 8177 0 8177 8177 7359 6690 6690 6133 5256 4906 4329 3873 3679 3504 3345 3199 3199 2943 2830 2628 2725 2628 2374 2453 2299 2102 1989 1936 0 1795 1752 1752 1672 1599 1672 1672 1565 1635 1565 1565 1565 1533 1533 1533 1443 1599 1338 1226 1149 1226 1226 1247 1206 1168 0 0 1051 1098 1051 1036 0 0 1036 0 1008 981 886 876 855 886 865 876 876 886 886 886 855 0 826 826 808 799 799 799 826 855 845 0 0 687 669 663 663 663 663 657 651 645 651 634 0 608 603 588 593 593 574 574 557 561 0 0 553 549 549 553 545 533 529 525 511 514 514 504 504 504 511 500 507 525 490 487 484 477 474 481 477 459 448 435 435 0 0 0 0 0
    0 0 0 0 0 0 0 0 0 0 0 0 0 0 0 0 0 0 0 0 0 0 0 0 0 0 0 0 0 0 0 0 0 0 0 0 0 0 0 0 0 0 0 0 0 0 0 0 0 0 0 0 0 0 0 0 0 0 0 0 0 0 0 0 0 0 0 0 0 1388 1362 1388 1415 1415 1388 1415 1415 1415 1415 1471 1415 1501 1565 1672 1501 1565 1599 1599 1635 1599 1565 1565 1565 1635 1672 1672 1711 1752 1839 1887 1887 1936 1989 2102 2102 2102 2102 2164 2164 2230 2230 2537 1989 2230 2537 2628 2628 2453 2453 2537 2299 2537 2374 2628 2537 2725 2830 2830 2725 2943 3066 3066 3679 4329 3679 3345 3504 3679 3873 3504 5256 2943 2725 2725 0 0 0 0 0 5256 4599 6133 6133 7359 0 6690 8177 0 0 0 0 7359 7359 7359 7359 7359 6133 6690 6133 6690 8177 8177 6690 8177 8177 8177 8177 8177 6690 6133 6133 6690 5256 4906 4329 4088 3679 3504 3504 3199 3199 2943 2943 2628 2725 2628 2374 2374 2299 2044 1989 1936 0 1752 1752 1752 1672 1635 1672 1672 1565 1635 1565 1599 1565 1533 1533 1565 1443 1599 1338 1206 1115 1206 1226 1268 1206 0 0 0 1051 0 1036 0 0 0 1022 0 994 981 897 886 865 897 876 886 886 897 897 908 855 0 836 845 817 808 808 817 836 865 855 855 0 0 0 0 669 669 675 669 663 657 663 639 0 613 608 588 598 598 579 579 557 561 0 557 557 553 549 557 549 537 533 525 511 514 514 504 504 504 511 504 504 521 493 490 484 481 477 481 481 465 448 435 435 0 0 0 0 0
    0 0 0 0 0 0 0 0 0 0 0 0 0 0 0 0 0 0 0 0 0 0 0 0 0 0 0 0 0 0 0 0 0 0 0 0 0 0 0 0 0 0 0 0 0 0 0 0 0 0 0 0 0 0 0 0 0 0 0 0 0 0 0 0 0 0 0 0 0 1362 1362 1388 1388 1415 1388 1388 1415 1388 1388 1471 1415 1501 1565 1672 1565 1533 1599 1599 1599 1599 1565 1599 1599 1635 1672 1672 1711 1752 1839 1887 1887 1989 1936 2102 2102 2044 2102 2102 2102 2230 2164 2537 1936 2102 2537 2628 2628 2537 2537 2628 2374 2537 2453 2628 2537 2725 2830 2830 2725 2943 0 3199 3679 4329 3679 3345 3504 3504 3873 3504 4329 2830 2628 2725 3199 3199 3199 2943 3199 3679 3873 5661 5256 8177 0 7359 8177 0 8177 0 0 7359 7359 7359 8177 7359 6690 6690 6690 6690 8177 8177 6690 8177 8177 8177 8177 7359 6690 6133 6133 6690 5256 4906 4329 4088 3679 3504 3345 3066 3066 2943 2830 2628 2628 2628 2374 2374 2299 2044 1989 1936 0 1752 1752 1752 1672 1635 1672 1672 1565 1599 1565 1565 1565 1533 1501 1565 1415 1533 1388 1226 1132 1226 1226 1268 1226 0 0 0 0 0 1008 994 0 0 1008 0 968 968 897 897 865 897 876 897 897 908 897 919 865 886 845 855 826 826 826 826 836 876 855 855 0 0 0 0 675 681 681 675 669 669 669 645 629 618 608 593 598 598 584 584 557 561 557 557 557 557 553 561 553 541 533 529 518 518 514 507 507 504 514 504 504 514 493 487 484 481 477 477 477 468 451 438 438 0 0 0 0 0
    0 0 0 0 0 0 0 0 0 0 0 0 0 0 0 0 0 0 0 0 0 0 0 0 0 0 0 0 0 0 0 0 0 0 0 0 0 0 0 0 0 0 0 0 0 0 0 0 0 0 0 0 0 0 0 0 0 0 0 0 0 0 0 0 0 0 0 0 0 1362 1338 1388 1388 1388 1388 1388 1415 1415 1415 1501 1415 1501 1565 1672 1599 1533 1599 1599 1635 1635 1565 1599 1599 1635 1672 1672 1711 1752 1839 1887 1887 1989 1936 2102 2102 2044 2044 2102 2102 2230 2102 2537 1989 2044 2628 2537 2628 2537 2537 2628 2374 2537 2453 2628 2537 2725 2830 2830 2830 2943 0 3199 3679 4329 3679 3345 3345 3504 3679 3504 3873 2830 2537 2725 3066 3066 3199 3066 3345 3873 4329 7359 8177 0 0 0 0 0 0 0 0 8177 7359 7359 7359 7359 6690 6690 6690 6690 8177 8177 7359 8177 8177 8177 8177 7359 6690 6133 6133 6133 5661 4906 4329 4088 3504 3345 3199 2943 2943 2830 2725 2537 2628 2537 2374 2374 2299 2044 1989 1936 0 1795 1795 1795 1672 1635 1711 1672 1565 1565 1565 1565 1565 1501 1501 1533 1415 1471 1388 1247 1149 1226 1247 1268 1226 0 0 0 1051 0 994 981 968 955 994 955 955 955 908 897 876 897 876 897 897 897 897 919 865 876 845 845 836 826 826 826 836 876 855 855 876 782 0 0 0 687 681 681 669 669 669 645 629 623 613 593 598 598 584 584 561 561 557 557 557 557 553 561 553 545 537 529 518 518 514 507 507 507 511 504 500 507 497 487 484 481 477 481 481 471 459 443 440 0 0 0 0 0
    0 0 0 0 0 0 0 0 0 0 0 0 0 0 0 0 0 0 0 0 0 0 0 0 0 0 0 0 0 0 0 0 0 0 0 0 0 0 0 0 0 0 0 0 0 0 0 0 0 0 0 0 0 0 0 0 0 0 0 0 0 0 0 0 0 0 0 0 0 1362 1338 1362 1388 1388 1362 1388 1415 1415 1415 1501 1415 1501 1565 1635 1635 1565 1565 1599 1635 1635 1599 1599 1599 1635 1672 1711 1711 1752 1839 1839 1887 1989 1936 2102 2102 2044 2044 2102 2164 2230 2102 2537 1989 2102 2725 2628 2628 2537 2537 2628 2374 2537 2374 2628 2628 2725 2830 2943 2830 3066 3066 3199 3679 4329 3679 3345 3345 3504 3679 3504 3679 2830 2628 2830 3199 3199 3199 3199 3504 4088 5256 7359 0 0 0 0 0 0 0 0 0 8177 8177 8177 7359 7359 6690 6690 6690 6690 7359 8177 6690 7359 7359 7359 8177 7359 6690 6133 6133 6690 5661 5256 4329 4329 3679 3504 3345 2943 2943 2830 2830 2537 2628 2537 2374 2374 2299 2044 2044 1936 1887 1795 1795 1795 1711 1635 1711 1672 1599 1565 1565 1565 1565 1501 1501 1533 1388 1415 1388 1247 1187 1247 1247 1268 0 0 0 0 1051 0 981 968 955 943 981 943 931 931 908 908 876 897 876 886 897 897 897 908 855 0 0 836 836 836 836 836 836 876 855 0 876 791 700 0 0 681 681 681 669 669 669 645 629 623 613 593 598 598 588 584 561 561 553 557 557 557 553 561 557 549 537 533 521 514 514 507 507 507 507 507 500 507 504 487 484 481 481 484 481 471 462 440 438 0 0 0 0 0
    0 0 0 0 0 0 0 0 0 0 0 0 0 0 0 0 0 0 0 0 0 0 0 0 0 0 0 0 0 0 0 0 0 0 0 0 0 0 0 0 0 0 0 0 0 0 0 0 0 0 0 0 0 0 0 0 0 0 0 0 0 0 0 0 0 0 0 0 0 1338 1314 1362 1362 1362 1338 1362 1388 1415 1415 1501 1415 1501 1599 1635 1635 1599 1565 1599 1635 1635 1599 1599 1599 1635 1672 1711 1711 1752 1795 1839 1887 1989 1936 2044 2102 2044 2102 2102 2164 2230 2102 2537 2102 2164 2725 2628 2628 2628 2628 2725 2453 2628 2453 2628 2628 2830 2943 2943 2830 3066 3066 3199 3504 4088 3504 3345 3345 3504 3679 3504 3504 2943 2725 2943 3066 3066 3066 3199 3345 3873 5256 8177 0 0 0 0 0 0 0 0 0 0 0 0 8177 7359 6690 6133 6133 6133 6690 6690 6133 7359 7359 6690 7359 7359 6690 5661 6133 6690 6133 5256 4329 4599 3679 3345 3199 2943 2943 2725 2725 2537 2537 2453 2374 2374 2299 2044 2044 1936 1936 1795 1795 1795 1711 1635 1711 1672 1599 1533 1565 1565 1565 1501 1533 1533 1388 1415 1415 1268 1206 1247 1268 1268 1247 0 0 0 1036 0 981 955 943 931 955 919 919 919 908 908 876 886 876 886 886 886 886 897 845 0 826 826 845 845 836 836 845 0 865 0 886 808 707 0 0 681 681 681 663 669 669 645 623 623 613 593 598 598 593 584 561 561 557 557 557 557 553 557 557 549 537 529 521 514 514 507 507 504 507 507 500 504 507 487 484 481 477 481 477 468 459 440 438 0 0 0 0 0
    0 0 0 0 0 0 0 0 0 0 0 0 0 0 0 0 0 0 0 0 0 0 0 0 0 0 0 0 0 0 0 0 0 0 0 0 0 0 0 0 0 0 0 0 0 0 0 0 0 0 0 0 0 0 0 0 0 0 0 0 0 0 0 0 0 0 0 0 0 1291 1268 1314 1314 1314 1314 1338 1362 1415 1415 1501 1415 1501 1599 1635 1599 1599 1565 1599 1635 1635 1599 1599 1635 1635 1672 1711 1752 1795 1839 1839 1887 1936 1936 2044 2044 2044 2044 2102 2102 2164 2044 2453 2044 2164 2537 2453 2453 2453 2537 2628 2537 2725 2453 2628 2628 2830 2943 2943 2830 3066 2943 3199 3504 3873 3504 3199 3345 3345 3504 3345 3504 2943 2725 2943 2943 2943 2943 3066 3199 3345 4088 6690 0 0 0 0 0 0 0 0 0 0 0 0 7359 6690 6690 6133 6133 6133 6690 6690 6133 6690 6690 6690 6690 7359 6690 5661 6133 6690 6133 5256 4599 4599 3679 3345 3199 2830 2830 2537 2628 2453 2453 2453 2299 2374 2299 2044 2044 1936 1936 1795 1795 1795 1711 1599 1711 1672 1599 1501 1565 1565 1533 1501 1533 1501 1388 1388 1415 1268 1226 1268 1268 1291 1247 0 0 0 1036 0 968 943 919 919 943 908 908 908 908 908 876 886 865 876 876 876 876 886 836 0 0 0 855 845 845 836 0 0 865 0 886 808 707 0 0 675 675 675 657 663 657 639 618 618 613 593 593 593 593 584 566 561 557 557 561 557 553 557 557 545 537 529 521 511 511 507 507 504 507 511 500 500 507 481 477 471 471 474 471 457 454 440 438 0 0 0 0 0
    0 0 0 0 0 0 0 0 0 0 0 0 0 0 0 0 0 0 0 0 0 0 0 0 0 0 0 0 0 0 0 0 0 0 0 0 0 0 0 0 0 0 0 0 0 0 0 0 0 0 0 0 0 0 0 0 0 0 0 0 0 0 0 0 0 0 0 0 0 1247 1247 1291 1291 1291 1291 1314 1338 1388 1362 1443 1388 1471 1565 1599 1565 1599 1565 1565 1635 1635 1599 1599 1635 1635 1672 1711 1752 1795 1887 1887 1887 1936 1887 1989 1989 1989 2044 2044 2102 2102 2044 2374 2102 2164 2374 2374 2299 2299 2453 2537 2453 2725 2453 2628 2628 2725 2830 2943 2943 3066 2943 3199 3345 3679 3345 3199 3199 3345 3345 3345 3345 2943 2830 2943 2943 2830 2943 2943 3066 3066 3345 4906 0 0 0 0 0 0 0 0 0 0 0 0 6690 6690 6690 6133 6133 6133 6690 6133 5661 6690 6690 6133 6690 6690 6690 5661 6133 6690 6133 5661 4906 4599 3873 3345 3345 2943 2830 2537 2628 2374 2453 2374 2299 2299 2299 1989 2044 1936 1936 1795 1795 1795 1711 1599 1672 1635 1599 1471 1533 1533 1501 1501 1533 1471 1388 1388 1415 1291 1247 1268 1268 1291 1268 1291 1247 1268 1051 0 968 943 919 919 943 908 908 908 908 908 876 876 865 865 865 0 855 865 826 0 0 0 855 855 845 836 0 0 0 855 886 808 700 0 687 669 669 669 651 657 651 634 613 613 608 588 593 593 588 584 566 561 557 557 561 561 553 561 557 549 537 529 521 507 511 507 507 507 507 511 504 500 511 481 474 468 468 468 465 451 446 435 435 0 0 0 0 0
    0 0 0 0 0 0 0 0 0 0 0 0 0 0 0 0 0 0 0 0 0 0 0 0 0 0 0 0 0 0 0 0 0 0 0 0 0 0 0 0 0 0 0 0 0 0 0 0 0 0 0 0 0 0 0 0 0 0 0 0 0 0 0 0 0 0 0 0 0 1226 1206 1247 1268 1268 1268 1291 1314 1362 1338 1362 1338 1415 1533 1565 1565 1599 1599 1565 1635 1635 1635 1635 1635 1672 1672 1711 1795 1839 1887 1887 1887 1936 1887 1989 1989 1989 1989 2044 2044 2102 2044 2230 2102 2102 2230 2299 2164 2102 2299 2453 2299 2628 2453 2628 2628 2725 2830 2830 2830 3066 2943 3066 3345 3504 3345 3199 3199 3345 3199 3199 3199 2943 2830 2943 2830 2830 2943 2943 2943 2943 3066 3504 0 0 0 0 0 0 0 0 0 0 0 0 6690 6690 6690 6133 6690 6133 6690 6133 5661 6690 6690 6133 6690 6690 6690 6690 6690 7359 6690 5661 5256 4906 4088 3504 3345 2943 2830 2537 2628 2374 2453 2374 2299 2230 2299 1989 2044 1936 1936 1839 1795 1839 1711 1599 1711 1635 1565 1443 1501 1533 1501 1471 1533 1471 1388 1388 1415 1291 1268 1268 1268 1268 1268 1268 1226 1247 1051 931 968 943 919 919 943 897 908 908 908 908 876 876 865 855 855 0 0 0 808 799 0 0 855 855 845 836 0 0 0 855 886 799 707 0 687 669 669 663 651 645 651 629 613 608 608 588 588 588 588 579 570 561 561 557 566 566 557 561 561 549 537 529 521 507 511 507 507 507 507 514 504 504 514 481 471 468 468 468 465 451 443 435 432 0 0 0 0 0
    0 0 0 0 0 0 0 0 0 0 0 0 0 0 0 0 0 0 0 0 0 0 0 0 0 0 0 0 0 0 0 0 0 0 0 0 0 0 0 0 0 0 0 0 0 0 0 0 0 0 0 0 0 0 0 0 0 0 0 0 0 0 0 0 0 0 0 0 0 1187 1187 1226 1226 1247 1247 1268 1291 1338 1314 1314 1314 1388 1501 1533 1533 1565 1599 1565 1635 1672 1672 1635 1672 1672 1711 1752 1795 1839 1887 1936 1887 1936 1887 1936 1936 1989 1936 1989 2044 2044 2044 2164 2102 2102 2164 2230 2102 2044 2299 2453 2299 2628 2453 2628 2628 2725 2830 2830 2830 2943 2943 3066 3199 3345 3199 3199 3199 3066 3066 3066 3199 2943 2830 2943 2830 2830 2943 2943 2943 2943 2943 3345 8177 0 0 0 0 0 0 0 0 0 0 8177 7359 6690 7359 6133 6133 6133 6133 6133 6133 6690 6690 6133 7359 7359 6690 6690 6690 7359 6690 5256 4906 4599 4088 3504 3345 2943 2830 2537 2628 2453 2453 2453 2299 2230 2299 2044 2102 1989 1989 1839 1839 1887 1752 1599 1711 1635 1565 1415 1501 1501 1501 1471 1565 1443 1388 1388 1415 1291 1268 1268 1268 1268 1247 1247 1226 1226 1051 943 968 955 931 931 943 908 908 908 908 908 876 865 855 845 0 0 0 0 799 782 0 791 845 855 845 0 0 0 0 0 876 799 714 700 694 675 669 669 651 645 651 629 613 608 608 588 588 588 588 579 570 566 561 557 566 566 561 566 561 549 537 529 521 507 511 511 511 511 511 514 507 504 518 481 468 468 468 468 465 454 446 440 438 0 0 0 0 0
    0 0 0 0 0 0 0 0 0 0 0 0 0 0 0 0 0 0 0 0 0 0 0 0 0 0 0 0 0 0 0 0 0 0 0 0 0 0 0 0 0 0 0 0 0 0 0 0 0 0 0 0 0 0 0 0 0 0 0 0 0 0 0 0 0 0 0 0 0 1168 1168 1187 1187 1206 1226 1247 1268 1291 1291 1291 1314 1388 1501 1533 1533 1565 1635 1565 1672 1711 1711 1672 1672 1711 1711 1752 1839 1839 1887 1936 1887 1936 1887 1887 1936 1989 1887 1989 1989 1989 1989 2102 2102 2044 2102 2299 2102 2044 2299 2453 2299 2628 2537 2628 2628 2628 2830 2830 2830 2943 2943 3066 3199 3199 3066 3199 3066 3066 3066 2943 2943 2830 2725 2830 2725 2830 2830 2830 2943 2943 3066 0 0 0 0 0 0 0 0 0 0 0 0 0 8177 7359 8177 6133 6690 6133 6133 6133 6133 6690 6690 6133 7359 7359 7359 7359 7359 8177 6690 5661 5256 4329 4088 3504 3345 2943 2830 2537 2628 2453 2453 2453 2299 2230 2230 1989 2102 1989 2044 1887 1839 1887 1795 1635 1752 1635 1565 1415 1501 1501 1471 1471 1565 1443 1388 1388 1415 1314 1291 1291 1291 1268 1268 1247 1226 1226 1051 943 968 955 931 0 0 908 919 919 919 919 886 865 855 845 0 94 94 94 799 766 799 782 845 845 845 0 0 0 0 0 876 791 714 700 694 675 669 669 651 645 651 629 613 608 608 593 588 588 588 584 574 566 561 557 570 570 561 566 561 549 537 529 521 507 511 507 507 507 507 514 507 507 521 477 465 465 465 465 462 451 446 443 438 0 0 0 0 0
    0 0 0 0 0 0 0 0 0 0 0 0 0 0 0 0 0 0 0 0 0 0 0 0 0 0 0 0 0 0 0 0 0 0 0 0 0 0 0 0 0 0 0 0 0 0 0 0 0 0 0 0 0 0 0 0 0 0 0 0 0 0 0 0 0 0 0 0 0 1149 1168 1149 1168 1187 1206 1226 1226 1268 1268 1268 1314 1388 1501 1533 1533 1565 1635 1599 1711 1711 1711 1672 1711 1711 1711 1752 1795 1839 1887 1887 1887 1887 1887 1887 1887 1989 1887 1989 1989 1989 1989 2102 2102 2044 2102 2299 2102 2044 2299 2453 2299 2537 2628 2628 2628 2628 2830 2830 2830 2943 2943 3066 3066 3066 3066 3199 3066 3066 2943 2830 2830 2725 2725 2830 2725 2830 2830 2830 2943 2943 3199 3504 0 0 0 0 0 0 0 0 0 0 0 0 0 7359 8177 6133 6690 6690 6133 6133 6133 6690 6690 6690 7359 7359 7359 7359 7359 8177 6690 5661 5661 4329 4329 3504 3504 3066 2943 2628 2725 2453 2537 2453 2299 2230 2299 2044 2164 0 0 1936 1887 1936 1839 1672 1795 1672 1599 1415 1501 1533 1501 1501 1565 1415 1362 1362 1388 1314 1291 1291 1291 1247 1247 1247 1226 1206 1066 955 981 955 943 0 0 919 919 919 919 919 886 865 865 845 94 94 94 94 0 0 799 774 836 845 845 0 0 0 0 0 0 782 714 700 700 681 675 675 657 639 651 629 613 608 608 593 593 593 588 584 579 570 566 561 574 579 566 570 566 549 533 525 521 507 511 507 507 507 507 514 504 507 525 477 465 465 465 462 459 448 443 443 438 0 0 0 0 0
    0 0 0 0 0 0 0 0 0 0 0 0 0 0 0 0 0 0 0 0 0 0 0 0 0 0 0 0 0 0 0 0 0 0 0 0 0 0 0 0 0 0 0 0 0 0 0 0 0 0 0 0 0 0 0 0 0 0 0 0 0 0 0 0 0 0 0 0 0 1132 1168 1149 1149 1168 1187 1206 1206 1247 1268 1268 1314 1388 1471 1501 1501 1565 1672 1565 1672 1672 1711 1672 1711 1711 1711 1752 1795 1795 1887 1887 1887 1887 1887 1887 1887 1989 1887 1989 1989 1989 1989 2102 2044 2044 2044 2299 2102 2044 2230 2453 2299 2537 2628 2628 2537 2537 2830 2830 2830 2943 2943 2943 3066 3066 3066 3066 3066 3066 2943 2830 2943 2830 2830 2830 2830 2830 2830 2830 2943 2943 3199 3199 6690 8177 9199 0 0 0 0 0 0 0 0 0 0 8177 7359 6690 6690 6690 6133 6133 6133 6690 6690 6690 7359 7359 7359 7359 7359 8177 6690 6690 6133 4329 4329 3504 3504 3066 2943 2628 2725 2453 2537 2453 2299 2230 2299 2044 2164 0 0 1989 1936 2044 1887 1711 1839 1711 1635 1415 1501 1501 1501 1471 1533 1388 1338 1362 1388 1314 1291 1268 1268 1247 1247 1226 1206 1187 1066 968 981 968 0 199 0 931 919 919 919 919 897 865 876 845 94 94 94 94 0 0 799 774 826 845 845 0 0 0 0 0 0 774 714 707 700 681 681 675 663 639 651 629 618 608 613 598 593 593 593 588 584 574 570 566 579 584 574 579 570 549 533 525 521 507 507 504 504 504 504 514 504 507 525 481 468 468 462 457 454 443 443 440 435 0 0 0 0 0
    0 0 0 0 0 0 0 0 0 0 0 0 0 0 0 0 0 0 0 0 0 0 0 0 0 0 0 0 0 0 0 0 0 0 0 0 0 0 0 0 0 0 0 0 0 0 0 0 0 0 0 0 0 0 0 0 0 0 0 0 0 0 0 0 0 0 0 0 0 1132 1149 1132 1149 1187 1206 1206 1206 1226 1247 1268 1314 1388 1443 1471 1471 1533 1672 1533 1672 1672 1711 1711 1711 1711 1711 1752 1795 1795 1839 1839 1839 1839 1887 1839 1839 1936 1887 1936 1989 1989 1936 2044 2044 2044 2044 2299 2102 2044 2230 2453 2299 2537 2628 2537 2453 2374 2725 2725 2725 2830 2943 2943 3066 3199 3066 3066 2943 2943 2830 2830 2830 2830 2830 2725 2725 2830 2830 2830 2943 2943 3199 3345 6690 7359 8177 0 0 0 0 0 0 0 0 0 0 8177 8177 6690 6690 6690 6690 6133 6133 6690 6690 6690 7359 7359 7359 7359 7359 8177 7359 6690 6133 4088 4088 3345 3504 3066 2943 2725 2725 2537 2537 2537 2374 2230 2299 2044 2230 2102 2230 2044 1989 2102 1936 1795 1887 1711 1635 1443 1471 1501 1471 1443 0 1362 1338 1338 1362 1291 1291 1247 1268 1226 1226 1206 1206 1168 1082 981 994 968 0 199 201 931 919 931 931 931 897 865 876 855 94 94 0 0 0 0 799 774 817 845 0 348 0 0 0 0 0 774 721 707 700 687 681 675 663 634 651 629 618 613 613 603 593 593 593 588 588 579 574 566 579 588 579 584 574 549 533 525 518 507 507 504 504 504 504 511 500 504 521 477 462 459 457 451 451 443 443 440 435 0 0 0 0 0
    0 0 0 0 0 0 0 0 0 0 0 0 0 0 0 0 0 0 0 0 0 0 0 0 0 0 0 0 0 0 0 0 0 0 0 0 0 0 0 0 0 0 0 0 0 0 0 0 0 0 0 0 0 0 0 0 0 0 0 0 0 0 0 0 0 0 0 0 0 1115 1149 1115 1149 1168 1206 1206 1206 1206 1247 1247 1314 1362 1415 1443 1443 1501 1672 1533 1672 1672 1752 1711 1752 1711 1752 1752 1795 1795 1839 1839 1839 1839 1887 1839 1839 1936 1887 1936 1989 1989 1936 2044 2044 1989 1989 2230 2044 1989 2164 2453 2230 2537 2628 2537 2374 2374 2725 2830 2725 2830 2943 2943 3066 3199 3199 3066 2943 2943 2830 2830 2943 2830 2830 2830 2830 2943 2943 2943 2943 2943 3199 3199 5256 6690 7359 0 0 0 0 0 0 0 0 0 0 8177 7359 6690 6690 7359 6690 6690 6133 6690 6690 7359 7359 7359 7359 7359 7359 8177 7359 6690 6690 4088 4329 3504 3504 3199 3066 2725 2725 2537 2628 2453 2374 2230 2299 2044 2230 2102 2299 2044 1989 2102 1989 1839 1936 1711 1672 1443 1471 1471 1443 1415 0 1338 1314 1314 1314 1291 1291 1247 1247 1226 1226 1187 1206 1168 1082 981 994 981 200 199 201 943 908 931 931 931 908 865 886 865 94 94 0 0 0 0 0 774 808 836 0 350 0 0 0 0 0 0 0 714 707 694 694 681 669 0 657 629 623 613 613 603 593 593 588 588 588 579 579 570 579 593 584 588 574 549 533 529 518 504 504 500 500 500 500 511 497 504 518 481 465 462 459 457 457 448 446 443 435 0 0 0 0 0
    0 0 0 0 0 0 0 0 0 0 0 0 0 0 0 0 0 0 0 0 0 0 0 0 0 0 0 0 0 0 0 0 0 0 0 0 0 0 0 0 0 0 0 0 0 0 0 0 0 0 0 0 0 0 0 0 0 0 0 0 0 0 0 0 0 0 0 0 0 1098 1132 1098 1132 1168 1187 1206 1206 1187 1226 1247 1291 1362 1388 1415 1415 1471 1672 1533 1635 1672 1752 1711 1752 1711 1752 1752 1795 1795 1839 1839 1839 1839 1887 0 1839 1989 1887 1989 1989 1989 1936 2044 2044 1989 1936 2230 1989 1936 2164 2374 2164 2453 2628 2537 2453 2453 2725 2830 2830 2830 2943 3066 3199 3199 3199 3199 3066 3066 2943 3066 3066 2943 2943 2943 2943 3066 3066 3066 3066 3066 3345 3199 6133 7359 8177 0 0 0 0 0 0 0 0 0 0 7359 7359 6690 7359 7359 7359 6690 6690 7359 6690 7359 8177 8177 8177 8177 7359 8177 7359 7359 6690 4088 4329 3504 3504 3199 3066 2725 2725 2537 2628 2453 2374 2230 2299 2044 2230 0 0 0 1989 2102 1989 1839 1936 1752 1672 1443 1443 1443 1415 0 0 1291 1291 1268 1291 1291 1291 1247 0 1226 1226 1187 1206 1168 1082 0 0 981 199 199 201 943 908 931 931 931 908 876 897 865 94 94 93 94 94 0 0 774 799 0 0 353 0 0 0 0 109 109 0 0 714 694 700 694 681 0 0 639 629 618 618 608 593 593 588 588 593 584 579 570 579 593 584 588 579 553 533 529 518 504 504 500 500 500 500 507 493 500 511 481 471 471 465 462 462 451 446 443 435 0 0 0 0 0
    0 0 0 0 0 0 0 0 0 0 0 0 0 0 0 0 0 0 0 0 0 0 0 0 0 0 0 0 0 0 0 0 0 0 0 0 0 0 0 0 0 0 0 0 0 0 0 0 0 0 0 0 0 0 0 0 0 0 0 0 0 0 0 0 0 0 0 0 0 1082 1115 1082 1115 1168 1187 1206 1206 1187 1247 1268 1291 1362 1388 1443 1443 1471 1635 1533 1672 1711 1752 1752 1752 1711 1752 1752 0 1795 0 0 0 0 1887 0 1887 1989 1887 1989 1989 1989 1936 2044 2044 1989 1936 2230 1989 1936 2164 2453 2230 2453 2628 2537 2537 2537 2830 2943 2830 2830 2943 3066 3199 3199 3199 3199 3199 3199 3199 3199 3199 3066 3066 3066 3199 3199 3345 3345 3345 3345 3679 3504 5661 6690 7359 8177 0 0 0 0 0 0 0 0 8177 7359 7359 6690 7359 7359 7359 6690 6690 7359 7359 7359 8177 8177 8177 9199 8177 8177 8177 8177 7359 4088 4329 3504 3504 3199 3066 2725 2830 2628 2628 2453 2374 2299 2299 2102 0 0 0 0 0 2164 1936 1839 1887 1752 1711 1443 1415 1415 1388 0 0 1268 1247 1226 1268 1291 1291 1226 0 0 1226 1168 1206 1168 1098 0 0 994 199 199 201 955 908 931 931 931 908 876 908 876 93 94 93 94 93 93 0 774 791 0 0 355 348 0 0 0 109 109 109 0 0 694 700 694 681 0 0 645 634 623 623 608 593 593 588 588 593 584 584 570 579 593 584 588 574 549 533 529 518 504 500 497 497 497 497 0 493 497 504 484 481 477 474 468 468 454 446 446 438 0 0 0 0 0
    0 0 0 0 0 0 0 0 0 0 0 0 0 0 0 0 0 0 0 0 0 0 0 0 0 0 0 0 0 0 0 0 0 0 0 0 0 0 0 0 0 0 0 0 0 0 0 0 0 0 0 0 0 0 0 0 0 0 0 0 0 0 0 0 0 0 0 0 0 1066 1098 1082 1115 1168 1206 1206 1206 1187 1247 1268 1314 1388 1362 1415 1415 1471 1635 1533 1672 1711 1752 1752 1795 1752 1752 1795 0 0 0 0 0 0 0 0 0 1989 1887 1989 1989 1989 1936 2044 2044 1989 1936 2230 2044 1936 2230 2537 2299 2537 2725 2628 2537 2537 2830 2943 2943 2943 2943 3066 3199 3345 3345 3345 3199 3199 3345 3345 3504 3199 3345 3199 3504 3504 3679 3679 3679 3679 4599 3873 6133 6133 6690 7359 0 0 0 0 0 8177 0 0 0 7359 7359 7359 7359 7359 7359 6690 6690 7359 6690 7359 7359 7359 8177 8177 7359 7359 7359 7359 6133 4088 4329 3504 3345 3199 3066 2725 2830 2537 2628 2537 2374 2299 2299 2102 2230 0 0 0 0 0 1887 1839 1839 1795 1752 1471 1388 1388 1388 0 0 1247 1226 1187 1268 1268 1268 1226 0 0 0 1168 1206 1168 1098 0 0 0 199 198 200 955 908 931 931 931 919 876 908 876 0 94 93 94 93 93 94 774 782 826 0 355 348 0 0 0 109 109 109 108 0 694 694 694 0 0 0 651 639 634 629 613 593 593 588 593 593 584 579 570 579 593 579 0 574 549 533 529 518 504 497 497 497 497 497 0 490 497 500 490 481 481 477 471 471 457 448 446 438 0 0 0 0 0
    0 0 0 0 0 0 0 0 0 0 0 0 0 0 0 0 0 0 0 0 0 0 0 0 0 0 0 0 0 0 0 0 0 0 0 0 0 0 0 0 0 0 0 0 0 0 0 0 0 0 0 0 0 0 0 0 0 0 0 0 0 0 0 0 0 0 0 0 0 1066 1098 1082 1115 1168 1206 1206 1206 1187 1247 1268 1314 1415 1362 1415 1415 1443 1599 1533 1672 1711 1711 1752 1795 1711 1752 1752 0 1752 0 0 0 0 0 0 1887 1989 1936 1989 2044 1989 1936 2044 2102 1989 1989 2299 2102 1989 2230 2537 2374 2628 2725 2628 2628 2628 2830 3066 3066 3066 3066 3199 3345 3504 3504 3504 3345 3345 3504 3504 3679 3345 3504 3504 3679 3873 3873 3873 3873 3679 4599 4088 6133 6133 6690 6690 0 0 0 0 0 0 0 0 0 7359 6690 6690 7359 6690 7359 6690 6133 7359 6690 7359 7359 7359 8177 8177 7359 7359 7359 7359 6133 4088 4329 3504 3345 3345 3066 2725 2830 2537 2628 2537 2374 2374 2299 2102 2230 0 0 0 0 0 1839 1795 1795 1795 1752 1471 1362 1362 1362 0 0 1226 1206 1168 1247 1268 1268 1206 0 0 0 1168 1206 1168 1115 0 1036 0 198 198 200 968 919 943 931 919 919 876 908 876 0 94 93 94 93 93 94 774 782 817 817 355 348 0 0 0 109 109 109 108 0 694 694 0 0 0 0 657 645 639 634 618 593 593 588 593 593 584 579 570 574 593 584 0 574 549 533 529 518 504 497 493 493 493 493 0 490 493 493 500 487 484 481 474 474 454 446 443 435 0 0 0 0 0
    0 0 0 0 0 0 0 0 0 0 0 0 0 0 0 0 0 0 0 0 0 0 0 0 0 0 0 0 0 0 0 0 0 0 0 0 0 0 0 0 0 0 0 0 0 0 0 0 0 0 0 0 0 0 0 0 0 0 0 0 0 0 0 0 0 0 0 0 0 1082 1115 1082 1132 1168 1206 1206 1206 1187 1247 1268 1314 1388 1362 1388 1415 1443 1565 1501 1635 1711 1711 1752 1752 1711 1752 1752 1795 1752 0 0 0 0 1887 0 1887 1989 1936 1989 2044 1989 1989 2102 2102 2044 1989 2299 2102 1989 2299 2628 2453 2628 2725 2725 2628 2628 2943 3066 3066 3066 3199 3199 3504 3504 3679 3679 3504 3504 3873 3679 4088 3679 3679 3873 4088 4329 4329 4329 4329 3873 4599 3873 5661 5661 6133 6133 7359 8177 8177 8177 0 8177 0 0 0 8177 7359 7359 7359 6690 6690 6133 6133 6690 6133 7359 7359 7359 8177 8177 7359 7359 7359 7359 6690 4329 4329 3504 3345 3345 3199 2725 2830 2537 2628 2537 2374 2374 2374 2102 2230 0 0 0 0 0 1795 1752 1752 1795 1752 1471 1338 1338 1338 1268 1247 1206 1187 1149 1226 1268 1268 1206 0 0 0 1168 1206 1168 1115 1036 1066 0 0 0 200 0 919 943 931 919 908 876 897 0 0 94 93 94 93 93 94 774 782 817 808 353 0 782 0 0 109 109 109 108 0 694 694 0 0 309 0 663 651 639 634 618 588 593 588 588 593 584 579 570 574 593 0 0 570 549 533 529 518 507 493 493 493 493 493 0 487 493 484 507 487 487 481 474 471 451 446 440 432 0 0 0 0 0
    0 0 0 0 0 0 0 0 0 0 0 0 0 0 0 0 0 0 0 0 0 0 0 0 0 0 0 0 0 0 0 0 0 0 0 0 0 0 0 0 0 0 0 0 0 0 0 0 0 0 0 0 0 0 0 0 0 0 0 0 0 0 0 0 0 0 0 0 0 1082 1115 1082 1132 1187 1206 1206 1206 1187 1247 1247 1291 1362 1338 1388 1388 1443 1533 1533 1635 1672 1672 1711 1752 1672 1711 1752 1795 1752 0 0 0 0 1887 0 1936 1989 1989 2044 2102 2044 1989 2102 2102 2044 2044 2230 2164 1989 2299 2628 2453 2628 2725 2725 2725 2725 3066 3199 3199 3066 3199 3199 3504 3504 3679 3679 3504 3679 3873 3873 4599 3873 4088 4088 4329 4906 4906 4599 4599 4088 4599 4088 5661 5661 6133 6690 7359 8177 8177 8177 0 8177 0 0 8177 8177 7359 7359 7359 6690 7359 6133 6133 6690 6133 6690 7359 7359 8177 8177 8177 7359 7359 7359 6690 4329 4329 3504 3345 3199 3066 2725 2725 2537 2628 2537 2374 2374 2374 2102 2164 2044 2164 1936 0 1989 1752 1711 1711 1795 1752 1471 1314 1314 1314 1268 1226 1206 1187 1149 1226 1268 1268 1187 0 0 0 1168 1206 1168 1115 1051 1066 0 0 0 201 0 931 955 943 908 897 865 886 0 0 94 93 94 93 93 0 774 782 808 808 0 791 782 0 0 109 109 109 109 0 700 694 0 0 309 0 669 657 645 634 618 584 593 584 588 588 579 574 566 570 588 0 0 566 549 533 533 518 507 493 493 493 493 493 0 487 490 481 504 487 484 477 474 471 457 448 440 435 0 0 0 0 0
    0 0 0 0 0 0 0 0 0 0 0 0 0 0 0 0 0 0 0 0 0 0 0 0 0 0 0 0 0 0 0 0 0 0 0 0 0 0 0 0 0 0 0 0 0 0 0 0 0 0 0 0 0 0 0 0 0 0 0 0 0 0 0 0 0 0 0 0 0 1066 1115 1082 1132 1187 1206 1206 1206 1187 1247 1247 1291 1362 1314 1362 1388 1443 1533 1565 1635 1672 1672 1711 1752 1672 1711 1752 1795 1752 0 0 0 1839 1887 0 1989 1989 2044 2044 2102 2044 1989 2102 2102 2044 2044 2230 2164 1989 2299 2628 2453 2628 2725 2830 2830 2830 3066 3199 3199 3199 3199 3199 3504 3504 3679 3679 3504 3679 4088 4088 4906 4088 4329 4329 4599 4906 4906 4906 4906 4088 5256 4599 6690 5661 6690 6690 7359 7359 7359 7359 8177 7359 0 0 8177 8177 8177 8177 8177 6690 7359 6690 6690 6690 6690 6690 6690 6690 8177 8177 8177 7359 8177 7359 7359 4599 4329 3504 3345 3199 3066 2628 2725 2537 2628 2537 2374 2374 2374 2164 2164 1989 2102 1887 1887 1887 1711 1672 1672 1752 1711 1443 1314 1314 1314 1268 1226 1206 1187 1149 1226 1268 1247 1187 0 0 0 0 1206 1168 1132 1051 1082 1051 0 0 201 0 943 955 943 908 886 865 876 0 0 0 0 0 0 0 0 774 782 808 799 0 791 774 0 0 109 109 109 108 0 700 700 0 307 307 0 675 663 657 639 0 0 588 579 584 584 574 566 561 566 584 570 0 566 549 537 533 518 507 493 493 493 493 493 0 487 490 481 497 481 481 474 474 471 462 457 446 440 0 0 0 0 0
    0 0 0 0 0 0 0 0 0 0 0 0 0 0 0 0 0 0 0 0 0 0 0 0 0 0 0 0 0 0 0 0 0 0 0 0 0 0 0 0 0 0 0 0 0 0 0 0 0 0 0 0 0 0 0 0 0 0 0 0 0 0 0 0 0 0 0 0 0 1066 1115 1082 1132 1187 1206 1226 1226 1187 1247 1247 1291 1338 1314 1362 1388 1443 1501 1565 1635 1672 1635 1711 1711 1672 1711 1752 1795 1752 0 0 0 1887 1936 1936 1989 1989 2044 2044 2102 2102 2044 2102 2164 2044 2044 2230 2164 2044 2374 2628 2453 2537 2725 2830 2830 2830 3066 3199 3199 3066 3199 3199 3504 3504 3504 3679 3504 3873 4329 4088 5256 4329 4599 4329 4599 5256 5256 4906 5256 4329 5661 4906 7359 6133 6690 7359 7359 7359 7359 7359 8177 7359 8177 8177 7359 8177 7359 8177 8177 6690 7359 6690 6690 6690 6690 6690 7359 6690 8177 8177 0 7359 8177 7359 7359 4599 4599 0 0 3199 2943 2628 2628 2453 2537 2453 2299 2374 2374 2102 2102 1936 2044 1839 1839 1839 1672 1599 1635 1752 1711 1443 1314 1338 1338 1268 1226 1226 1206 1149 1226 1268 1247 1168 0 0 0 0 1206 1168 1132 1051 1098 1066 0 0 201 0 0 0 0 897 876 855 876 0 0 0 0 0 94 93 0 774 782 799 791 0 782 766 169 0 109 108 109 108 0 700 0 0 305 306 0 681 669 663 639 0 0 584 574 579 579 570 561 561 561 579 566 566 561 553 537 533 518 507 497 497 493 493 493 497 487 490 481 500 484 481 477 477 474 471 465 454 443 0 0 0 0 0
    0 0 0 0 0 0 0 0 0 0 0 0 0 0 0 0 0 0 0 0 0 0 0 0 0 0 0 0 0 0 0 0 0 0 0 0 0 0 0 0 0 0 0 0 0 0 0 0 0 0 0 0 0 0 0 0 0 0 0 0 0 0 0 0 0 0 0 0 0 1066 1115 1098 1132 1187 1206 1226 1226 1187 1247 1247 1291 1338 1314 1362 1388 1443 1471 1565 1635 1635 1635 1711 1711 1672 1711 1752 1795 1752 0 0 1839 1887 1936 1936 1989 1989 2044 2044 2102 2102 2044 2102 2102 2044 2102 2230 2230 2044 2374 2628 2537 2537 2725 2830 2830 2830 3066 3199 3066 3066 3199 3199 3345 3504 3504 3679 3504 3873 4599 4088 5256 4599 4599 4329 4906 5256 5256 5256 5661 4906 6690 5661 8177 7359 7359 8177 7359 7359 7359 7359 8177 7359 8177 8177 8177 8177 8177 8177 8177 6690 7359 6690 6690 6690 6690 6690 6690 6690 8177 8177 0 7359 8177 7359 7359 4906 4329 0 0 0 0 2537 2628 2453 2537 2453 2299 2299 2374 2102 2044 1887 1936 1839 1839 1795 1672 1565 1599 1752 1672 1443 1314 1338 1362 1291 1247 1247 1226 1168 1247 1268 1226 1149 0 0 0 0 1187 1149 1132 1066 1115 1082 1082 0 202 0 0 0 0 897 865 845 865 0 0 0 0 0 0 0 0 774 782 791 791 766 782 758 0 758 109 109 109 108 0 707 0 0 304 305 0 687 669 669 639 0 0 584 574 579 579 566 561 561 561 579 561 561 557 549 537 533 518 511 497 497 497 497 493 500 490 493 484 504 484 481 477 474 474 468 462 0 446 0 0 0 0 0
    0 0 0 0 0 0 0 0 0 0 0 0 0 0 0 0 0 0 0 0 0 0 0 0 0 0 0 0 0 0 0 0 0 0 0 0 0 0 0 0 0 0 0 0 0 0 0 0 0 0 0 0 0 0 0 0 0 0 0 0 0 0 0 0 0 0 0 0 0 1082 1132 1098 1149 1187 1226 1226 1226 1206 1247 1247 1291 1338 1314 1388 1415 1471 1471 1599 1635 1635 1635 1711 1672 1635 1672 1752 1795 1752 0 1839 1839 1887 1936 1936 2044 1989 2102 2044 2102 2102 2044 2102 2102 2044 2102 2230 2299 2102 2374 2628 2537 2537 2830 2830 2830 2830 3066 3199 3066 3066 3199 3066 3345 3345 3504 3504 3345 3679 4329 3873 5256 4329 4599 4599 4906 5256 5661 5256 6133 4906 6690 6133 8177 7359 8177 8177 7359 8177 8177 7359 8177 8177 0 8177 8177 8177 8177 8177 8177 6690 7359 6133 6690 6690 6690 6690 6690 6690 8177 8177 0 7359 8177 8177 7359 4906 4088 0 0 0 0 2537 2628 2453 2453 2453 2299 2299 2299 2044 1989 1887 1887 1839 1839 1795 1635 1565 1565 1752 1635 1443 1314 1362 1362 1291 1268 1268 0 1206 1268 1291 1226 1149 0 0 0 0 1187 1149 1149 1066 1132 1098 1098 1066 0 0 0 0 0 0 855 845 865 0 0 0 0 0 0 0 0 782 791 791 791 0 782 758 0 758 109 109 109 108 0 707 0 0 304 305 0 681 669 669 639 0 0 584 579 579 579 566 561 561 561 579 561 557 557 549 537 537 518 514 497 500 497 497 497 504 493 497 487 507 481 477 477 474 471 468 465 457 448 0 0 0 0 0
    0 0 0 0 0 0 0 0 0 0 0 0 0 0 0 0 0 0 0 0 0 0 0 0 0 0 0 0 0 0 0 0 0 0 0 0 0 0 0 0 0 0 0 0 0 0 0 0 0 0 0 0 0 0 0 0 0 0 0 0 0 0 0 0 0 0 0 0 0 1082 1132 1098 1149 1206 1226 1247 1226 1206 1247 1247 1291 1338 1291 1388 1443 1501 1471 1599 1635 1635 1635 1672 1635 1599 1635 1711 1752 1752 1839 1839 1839 1887 1936 1989 2044 2044 2102 2044 2102 2102 2102 2102 2102 2102 2102 2230 2299 2102 2453 2628 2537 2537 2830 2943 2943 2943 3066 3199 3066 3066 3345 3066 3345 3345 3345 3504 3345 3679 4088 3873 5256 4329 4599 4599 4906 5256 5661 5256 6133 5256 6690 6690 0 8177 0 0 8177 0 0 8177 0 8177 0 0 8177 0 8177 8177 8177 6690 7359 6690 6690 6133 6690 6690 6690 6690 8177 8177 0 7359 8177 7359 7359 4599 4088 3066 3199 2830 2830 2453 2537 2374 2374 2453 2230 2230 2299 2044 1989 1839 1839 1839 1839 1752 1635 1533 1533 1711 1565 1443 1338 1388 1388 1314 1291 1291 0 1247 1291 0 1247 1132 1168 0 0 0 1187 1149 1149 1066 1132 1098 1115 1082 1132 0 0 0 0 0 845 836 855 0 0 0 0 0 0 0 0 782 799 791 799 0 782 766 799 758 0 109 109 109 0 707 0 0 302 305 0 681 663 663 634 0 0 584 579 579 574 566 557 561 557 574 557 557 553 549 537 537 518 518 500 504 500 500 500 507 493 497 487 507 477 471 471 468 465 465 462 459 448 0 0 0 0 0
    0 0 0 0 0 0 0 0 0 0 0 0 0 0 0 0 0 0 0 0 0 0 0 0 0 0 0 0 0 0 0 0 0 0 0 0 0 0 0 0 0 0 0 0 0 0 0 0 0 0 0 0 0 0 0 0 0 0 0 0 0 0 0 0 0 0 0 0 0 1082 1132 1115 1168 1206 1226 1247 1247 1206 1247 1247 1291 1338 1291 1388 1443 1533 1471 1635 1635 1635 1635 1672 1599 1599 1599 1711 1711 1711 0 1839 1839 1887 1936 1989 2044 2044 2102 2044 2102 2102 2102 2164 2164 2102 2164 2230 2374 2164 2453 2628 2537 2537 2830 2943 2943 2943 3199 3199 3066 3066 3345 3066 3345 3345 3345 3504 3345 3679 4329 3873 5256 4599 4599 4599 4906 5256 5661 5256 6133 5256 6690 7359 0 0 0 0 0 0 0 0 0 0 0 0 0 8177 8177 8177 8177 7359 7359 6690 6690 6133 6690 6690 6690 6690 8177 8177 0 7359 8177 8177 8177 4906 4088 2943 3066 2725 2725 2453 2453 2299 2299 2374 2164 2164 2299 2044 1936 1795 1795 1795 1795 1752 1635 1533 1533 1672 1533 1443 1338 1388 1415 1362 1314 1338 1338 1291 1314 0 1247 1132 1168 0 0 0 1168 1132 1132 1066 1132 1098 1115 1082 1149 0 0 0 0 0 836 826 855 0 0 0 0 0 0 0 0 791 808 799 799 0 782 766 799 758 0 109 109 108 0 714 0 0 301 305 0 681 657 663 629 0 0 584 579 579 574 566 557 561 557 574 557 553 553 549 537 0 518 518 500 504 500 500 500 507 493 497 487 507 477 468 468 462 462 462 459 0 0 0 0 0 0 0
    0 0 0 0 0 0 0 0 0 0 0 0 0 0 0 0 0 0 0 0 0 0 0 0 0 0 0 0 0 0 0 0 0 0 0 0 0 0 0 0 0 0 0 0 0 0 0 0 0 0 0 0 0 0 0 0 0 0 0 0 0 0 0 0 0 0 0 0 0 1082 1115 1098 1149 1206 1226 1247 1247 1206 1247 1247 1291 1314 1268 1388 1415 1501 1443 1599 1635 1635 1599 1672 1599 1599 1599 1752 1711 1752 1839 1839 1839 1887 1936 1989 2044 2044 2102 2044 2102 2164 2164 2164 2164 2102 2164 2230 2299 2164 2453 2628 2628 2537 2830 2943 2943 2943 3199 3199 3066 3066 3345 3066 3199 3345 3345 3345 3345 3679 4329 4088 5661 4599 4906 4906 5256 5256 5661 5661 6133 5661 6690 7359 0 0 0 0 0 0 0 0 0 0 0 8177 8177 8177 8177 8177 8177 7359 7359 6690 6690 6133 6690 6690 7359 7359 8177 0 0 8177 0 8177 8177 5256 4088 2830 2943 2628 2628 2374 2453 2299 2230 2299 2164 2164 2230 1989 1936 1795 1795 1795 1795 1752 1599 1533 1533 1672 1533 1443 1362 1443 1471 1388 1362 1362 1362 1314 1338 0 1247 0 1187 0 0 0 1168 1132 1149 1066 1132 1098 1115 1082 1149 0 0 0 0 0 826 826 855 0 0 0 0 0 0 0 0 799 808 808 808 0 791 766 799 758 0 109 109 108 0 707 0 714 301 304 0 687 657 663 629 0 553 584 584 579 579 566 557 561 557 574 557 553 553 549 537 0 518 518 500 504 500 500 500 507 493 497 490 507 477 468 468 465 465 465 465 459 448 0 0 0 0 0
    0 0 0 0 0 0 0 0 0 0 0 0 0 0 0 0 0 0 0 0 0 0 0 0 0 0 0 0 0 0 0 0 0 0 0 0 0 0 0 0 0 0 0 0 0 0 0 0 0 0 0 0 0 0 0 0 0 0 0 0 0 0 0 0 0 0 0 0 0 1066 1098 1082 1132 1206 1226 1247 1226 1206 1247 1247 1268 1291 1268 1388 1415 1471 1443 1599 1599 1635 1599 1672 1599 1635 1565 1752 1752 1795 1839 1887 1839 1887 1989 1989 2044 2044 2102 2044 2102 2164 2164 2164 2164 2102 2164 2230 2299 2230 2453 2628 2628 2453 2830 2943 2943 2943 3066 3066 3066 3066 3199 3066 3199 3199 3345 3345 3345 3504 3873 3873 5256 4599 4906 4906 5256 4906 5661 5661 6133 5661 6690 7359 0 0 0 0 0 0 0 0 0 0 0 8177 8177 8177 8177 8177 8177 7359 7359 6690 7359 6690 7359 7359 7359 7359 8177 0 0 7359 8177 8177 8177 5256 4329 2830 2943 2537 2628 2299 2374 2230 2164 2299 2164 2164 2230 1989 1887 1795 1795 1839 1795 1752 1599 1533 1533 1672 1533 1471 1362 1471 1501 1443 1388 1415 1388 1338 1362 0 1268 0 0 0 0 0 1168 1132 1149 1066 1132 1098 1115 1082 1132 0 0 0 0 0 826 826 855 0 0 0 0 0 845 0 0 799 817 808 808 0 799 774 0 758 0 108 108 108 0 707 0 707 0 302 0 0 657 657 629 603 549 579 584 579 579 566 557 561 557 574 557 553 553 549 537 0 521 518 500 507 504 504 504 511 497 497 490 507 481 471 474 471 471 474 471 471 457 0 0 0 0 0
    0 0 0 0 0 0 0 0 0 0 0 0 0 0 0 0 0 0 0 0 0 0 0 0 0 0 0 0 0 0 0 0 0 0 0 0 0 0 0 0 0 0 0 0 0 0 0 0 0 0 0 0 0 0 0 0 0 0 0 0 0 0 0 0 0 0 0 0 0 1051 1098 1082 1132 1206 1226 1226 1226 1206 1247 1247 1268 1291 1247 1362 1388 1443 1443 1599 1599 1599 1599 1672 1599 1635 1565 1752 1711 1795 1839 1887 1887 1887 1989 2044 2044 2044 2102 2044 2102 2164 2164 2164 2102 2102 2164 2299 2299 2230 2537 2628 2628 2453 2830 2830 2943 2943 3066 3066 3066 3066 3199 3066 3199 3199 3345 3199 3345 3504 3873 3873 4906 4329 4599 4599 5256 4906 5661 5661 5661 5661 6690 6690 8177 0 0 0 0 0 0 0 0 0 0 8177 8177 8177 7359 7359 7359 6690 6690 6690 6690 6690 7359 7359 7359 7359 8177 0 0 7359 8177 8177 8177 5256 4329 2830 2830 2537 2628 2299 2374 2230 2164 2299 2164 2102 2164 1989 1887 1795 1752 1839 1795 1711 1599 1533 1533 1672 1533 1501 1388 1471 1533 1501 1443 1443 1415 1362 1388 0 0 0 0 0 1149 1115 1168 1132 1149 1066 1132 1098 1098 1082 1132 0 0 0 0 0 826 826 855 0 0 0 0 0 855 0 0 0 0 817 817 0 0 782 0 758 109 108 0 108 714 700 0 707 0 302 0 0 657 657 618 588 549 574 584 579 579 566 557 561 557 570 553 549 549 549 537 0 521 518 500 507 504 504 504 511 497 500 493 514 481 474 477 474 474 477 474 471 451 0 0 0 0 0
    0 0 0 0 0 0 0 0 0 0 0 0 0 0 0 0 0 0 0 0 0 0 0 0 0 0 0 0 0 0 0 0 0 0 0 0 0 0 0 0 0 0 0 0 0 0 0 0 0 0 0 0 0 0 0 0 0 0 0 0 0 0 0 0 0 0 0 0 0 1066 1098 1082 1132 1206 1226 1226 1226 1206 1247 1247 1268 1291 1247 1362 1388 1443 1443 1599 1599 1599 1599 1672 1599 1635 1533 1752 1672 1752 1839 1839 1839 1887 1989 2044 2044 2044 2102 2044 2102 2164 2164 2102 2102 2102 2230 2299 2299 2374 2537 2725 2725 2453 2830 2830 2943 2943 3066 3066 3066 3066 3345 3066 3199 3199 3345 3345 3345 3504 3873 3679 4599 4329 4599 4599 5256 4906 5661 5661 5661 6133 6690 7359 8177 0 0 0 0 0 0 0 0 0 0 8177 8177 7359 7359 6690 7359 6690 6690 6690 6690 6690 7359 7359 7359 7359 0 0 0 7359 8177 8177 7359 4906 4088 2830 2830 2537 2628 2299 2374 2299 2164 2374 2164 2102 2164 1989 1887 1795 1752 1839 1795 1711 1599 1533 1533 1672 1533 1501 1388 1501 1565 1533 1471 1471 1443 1388 1415 0 0 0 0 0 1168 1115 1168 1132 1149 1066 1115 1082 1098 1082 1132 1036 0 0 0 0 826 826 855 0 0 0 0 0 855 0 252 0 0 0 0 0 0 791 0 766 108 108 0 0 707 700 694 700 0 0 0 0 651 645 608 570 549 570 579 579 584 570 557 566 557 570 553 549 549 545 533 0 521 518 500 507 504 504 504 511 500 504 497 521 481 474 477 474 474 477 465 459 435 0 0 0 0 0
    0 0 0 0 0 0 0 0 0 0 0 0 0 0 0 0 0 0 0 0 0 0 0 0 0 0 0 0 0 0 0 0 0 0 0 0 0 0 0 0 0 0 0 0 0 0 0 0 0 0 0 0 0 0 0 0 0 0 0 0 0 0 0 0 0 0 0 0 0 1066 1098 1082 1115 1187 1226 1226 1226 1206 1247 1247 1268 1291 1247 1362 1388 1415 1443 1599 1599 1599 1599 1672 1565 1599 1533 1711 1635 1752 1839 1839 1839 1887 1989 2044 2044 2044 2044 2044 2044 2102 2164 2102 2102 2102 2299 2374 2299 2453 2628 2725 2725 2453 2830 2830 2943 2943 3066 3066 3066 3066 3345 3066 3199 3199 3345 3345 3345 3504 3679 3679 4329 4329 4599 4329 5661 5256 6133 6133 6133 6690 6690 6690 7359 8177 0 0 0 0 0 0 0 0 0 8177 8177 7359 7359 6133 6690 6133 6133 6133 6690 6133 6690 7359 8177 7359 0 0 0 7359 8177 8177 7359 4906 3873 2725 2830 2537 2537 2299 2374 2299 2164 2374 2164 2102 2164 1989 1887 1795 1795 1839 1795 1711 1635 1533 1533 1711 1565 1565 1388 1533 1565 1533 1471 1501 1471 1415 1415 0 0 0 0 0 1168 1115 1168 1132 1132 1066 1098 1082 1082 1082 0 1036 0 0 0 0 826 826 855 0 0 0 0 0 855 0 252 251 252 0 0 0 0 799 0 0 108 108 0 0 700 694 694 700 694 0 687 0 645 645 613 566 545 566 584 584 584 574 561 570 561 574 557 549 549 545 533 537 521 518 500 507 504 504 504 511 500 504 500 521 481 471 474 468 465 468 448 446 432 0 0 0 0 0
    0 0 0 0 0 0 0 0 0 0 0 0 0 0 0 0 0 0 0 0 0 0 0 0 0 0 0 0 0 0 0 0 0 0 0 0 0 0 0 0 0 0 0 0 0 0 0 0 0 0 0 0 0 0 0 0 0 0 0 0 0 0 0 0 0 0 0 0 0 1066 1098 1082 1115 1187 1226 1226 1226 1206 1247 1247 1268 1291 1226 1362 1388 1415 1443 1599 1599 1599 1599 1672 1565 1599 1533 1711 1635 1711 1795 1839 1839 1887 1989 2044 2044 2044 2044 2044 2044 2102 2230 2102 2164 2102 2374 2453 2299 2537 2628 2725 2725 2374 2725 2830 2943 2943 3066 2943 3066 3066 3345 3199 3199 3199 3345 3345 3345 3345 3679 3679 4088 4329 4906 4599 6133 5256 6133 6133 6690 6690 6690 7359 8177 8177 0 0 0 0 0 8177 8177 0 8177 7359 7359 6690 6133 5661 6133 5661 5661 5661 6133 6133 6690 7359 8177 7359 0 0 0 7359 8177 8177 7359 4599 3873 2725 2725 2453 2537 2230 2299 2299 2164 2374 2164 2164 2230 1989 1936 1795 1795 1887 1795 1752 1635 1565 1565 1711 1599 1599 1415 1565 1599 1565 1501 1501 1501 1415 1443 0 0 0 0 0 0 0 1168 1132 1132 1066 1098 1066 1082 1066 0 0 0 0 0 0 0 0 855 0 0 0 0 0 855 0 252 251 252 249 249 348 0 0 0 0 108 108 0 0 694 687 687 694 694 0 681 681 645 645 623 588 549 570 584 584 588 579 566 574 561 579 561 553 553 545 533 537 521 518 500 507 504 504 504 511 500 500 500 521 481 471 474 471 468 471 462 462 435 0 0 0 0 0</data></depth>
</opencv_storage>
