<?xml version="1.0"?>
<opencv_storage>
<gps_time_stamp>314775</gps_time_stamp>
<gps_x>-1.2422999382019043e+001</gps_x>
<gps_y>1.0960784912109375e+001</gps_y>
<gps_z>-2.0195317268371582e+000</gps_z>
<image_time_stamp>305660</image_time_stamp>
<depth type_id="opencv-matrix">
  <rows>88</rows>
  <cols>320</cols>
  <dt>s</dt>
  <data>
    0 0 0 0 0 0 0 0 0 0 0 0 0 0 0 0 0 0 0 0 0 0 0 0 0 0 0 0 0 0 0 0 0 0 0 0 0 0 0 0 0 0 0 0 0 0 0 0 0 0 0 0 0 0 0 0 0 0 0 0 0 0 0 0 0 0 0 0 0 0 0 0 0 0 0 0 0 0 0 0 0 0 0 0 0 0 0 0 0 0 0 0 0 0 0 0 0 0 0 0 0 0 0 0 0 0 0 0 0 0 0 0 0 0 0 0 0 0 0 0 0 0 0 0 0 0 0 0 0 0 0 0 0 0 0 0 0 0 0 0 0 0 0 0 0 0 0 0 0 0 0 0 0 0 0 0 0 0 0 0 0 0 0 0 0 0 0 0 0 0 0 0 0 0 0 0 0 0 0 0 0 0 0 0 0 0 0 0 0 0 0 0 0 0 0 0 0 0 0 0 0 0 0 0 0 0 0 0 0 0 0 0 0 0 0 0 0 0 0 0 0 0 0 0 0 0 0 0 0 0 0 0 0 0 0 0 0 0 0 0 0 0 0 0 0 0 0 0 0 0 0 0 0 0 0 0 0 0 0 0 0 0 0 0 0 0 0 0 0 0 0 0 0 0 0 0 0 0 0 0 0 0 0 0 0 0 0 0 0 0 0 0 0 0 0 0 0 0 0 0 0 0 0 0 0 0 0 0 0 0 0 0 0 0 0 0 0 0 0 0
    0 0 0 0 0 0 0 0 0 0 0 0 0 0 0 0 0 0 0 0 0 0 0 0 0 0 0 0 0 0 0 0 0 0 0 0 0 0 0 0 0 0 0 0 0 0 0 0 0 0 0 0 0 0 0 0 0 0 0 0 0 0 0 0 0 0 0 0 0 1599 1599 1599 1635 1635 1635 1795 1752 1887 1936 1989 1989 2102 2044 0 0 0 0 2537 0 2453 2299 2230 2164 2164 2164 2164 2230 2299 2164 2453 2537 2537 2628 2725 2830 2943 3066 3679 3345 3345 3504 3504 3679 0 0 0 0 0 0 0 0 0 0 0 0 0 0 0 0 0 0 0 0 0 0 0 0 0 0 0 82 0 0 0 0 0 0 0 0 0 0 0 0 0 0 0 0 0 0 0 0 6133 0 0 0 0 0 0 0 0 0 0 865 0 0 0 0 420 0 0 0 0 0 0 0 0 0 0 0 1839 1839 1711 1672 1672 1672 1599 1533 1443 1338 1314 1291 1247 1226 1115 1149 1098 1082 1082 1066 1036 1036 1022 1036 1008 968 981 955 943 955 908 876 876 865 886 826 817 817 808 799 799 782 774 758 750 743 728 700 634 634 623 618 598 613 608 608 608 588 588 584 584 593 579 579 579 579 593 557 0 533 525 521 511 500 493 504 507 514 504 500 500 500 504 511 487 484 477 468 465 454 443 438 438 435 435 432 430 427 422 422 413 415 408 406 408 404 402 402 399 399 397 397 397 395 395 395 393 387 373 0 0 0 0 0 362 360 0 0 0 0 0
    0 0 0 0 0 0 0 0 0 0 0 0 0 0 0 0 0 0 0 0 0 0 0 0 0 0 0 0 0 0 0 0 0 0 0 0 0 0 0 0 0 0 0 0 0 0 0 0 0 0 0 0 0 0 0 0 0 0 0 0 0 0 0 0 0 0 0 0 0 1599 1599 1599 1635 1635 1635 1795 1752 1839 1887 1989 1936 2044 2044 0 0 0 0 2537 0 2453 2230 2230 2164 2164 2164 2164 2230 2299 2164 2453 2537 2537 2628 2725 2830 2943 3066 3679 3345 3199 3345 3345 3345 0 0 0 0 0 0 0 0 0 0 0 0 0 0 0 99 0 0 0 91 0 0 0 0 0 0 0 0 0 0 0 0 0 0 0 0 0 0 0 0 0 0 0 0 0 0 0 0 0 0 0 0 0 669 0 758 0 0 0 0 0 0 0 0 0 0 0 0 0 0 0 0 0 0 0 1887 1887 1887 1752 1711 1672 1672 1599 1533 1443 1338 1314 1291 1268 1226 1115 1132 1098 1082 1098 1066 1036 1036 1036 1036 1022 968 981 955 943 943 908 876 876 865 876 826 817 817 808 799 799 774 774 758 743 735 728 700 639 639 629 623 608 613 608 608 608 588 588 584 584 593 579 579 579 579 593 557 553 533 525 521 514 500 497 507 511 514 504 500 500 500 504 507 484 481 474 468 465 454 443 440 438 435 435 432 432 427 420 422 413 413 408 408 408 406 404 402 399 402 399 397 397 395 395 395 393 385 371 367 366 367 364 364 362 360 0 0 0 0 0
    0 0 0 0 0 0 0 0 0 0 0 0 0 0 0 0 0 0 0 0 0 0 0 0 0 0 0 0 0 0 0 0 0 0 0 0 0 0 0 0 0 0 0 0 0 0 0 0 0 0 0 0 0 0 0 0 0 0 0 0 0 0 0 0 0 0 0 0 0 1635 1599 1599 1672 1672 1635 1752 1752 1795 1887 1936 1936 1989 1989 0 0 0 0 0 0 0 2102 2164 2102 2164 2102 2164 2164 2230 2102 2374 2453 2537 2628 2725 2830 2943 3199 3873 3345 3199 3345 3345 3345 0 0 0 0 0 0 0 0 0 0 0 0 0 0 99 99 99 0 0 0 0 0 0 0 0 0 0 0 0 0 0 0 0 0 0 0 0 0 0 0 0 0 0 0 0 0 0 0 0 0 0 0 663 669 657 0 0 0 0 0 0 0 0 0 0 0 0 0 0 0 0 0 0 0 0 1795 1795 1752 1635 1635 1635 1635 1565 1501 1415 1338 1314 1268 1247 1226 1115 1115 1098 1082 1098 1066 1036 1036 1036 1036 1022 968 968 955 931 943 908 876 876 865 886 826 817 808 808 799 791 774 774 758 735 735 721 700 639 645 639 629 613 618 613 613 613 593 593 584 584 588 579 574 574 574 593 557 553 533 525 521 518 504 497 511 511 518 507 500 500 500 500 504 481 477 471 465 462 457 446 440 438 435 435 432 430 425 418 420 413 415 411 408 408 406 406 404 402 402 402 402 397 397 397 397 393 385 0 366 364 366 364 364 362 360 0 0 0 0 0
    0 0 0 0 0 0 0 0 0 0 0 0 0 0 0 0 0 0 0 0 0 0 0 0 0 0 0 0 0 0 0 0 0 0 0 0 0 0 0 0 0 0 0 0 0 0 0 0 0 0 0 0 0 0 0 0 0 0 0 0 0 0 0 0 0 0 0 0 0 1635 1599 1599 1672 1672 1635 1795 1752 1795 1839 1936 1936 1989 1936 0 0 0 0 0 0 0 0 2102 2102 2102 2102 2102 2102 2164 2102 2374 2453 2537 2628 2725 2943 3066 3199 3873 3345 3066 3066 3199 3345 0 0 0 0 0 0 0 0 0 0 0 0 0 0 99 99 99 99 0 0 0 0 0 593 593 0 0 0 0 0 0 0 0 0 0 0 0 0 0 0 0 194 0 0 0 0 0 0 0 0 0 0 0 669 0 0 0 0 0 0 0 0 0 0 0 0 0 0 0 0 0 0 0 0 1599 1795 1795 1752 1635 1565 1599 1599 1565 1501 1388 1338 1314 1247 1226 1187 1115 1098 1098 1082 1082 1066 1036 1036 1036 1036 1022 955 968 955 919 943 908 876 876 865 897 826 817 817 808 791 782 774 766 750 728 728 714 694 639 651 634 623 613 613 608 608 608 588 588 579 584 588 579 574 574 574 588 557 553 537 529 525 518 507 500 511 514 521 511 500 500 500 500 497 477 474 468 462 465 457 446 440 438 435 435 432 432 425 418 420 415 415 408 408 408 406 408 406 404 404 404 406 404 399 399 397 393 383 0 0 364 366 364 362 362 360 0 0 0 0 0
    0 0 0 0 0 0 0 0 0 0 0 0 0 0 0 0 0 0 0 0 0 0 0 0 0 0 0 0 0 0 0 0 0 0 0 0 0 0 0 0 0 0 0 0 0 0 0 0 0 0 0 0 0 0 0 0 0 0 0 0 0 0 0 0 0 0 0 0 0 1635 1599 1635 1672 1672 1635 1795 1752 1795 1839 1936 1936 1989 1936 1989 0 0 0 0 0 0 0 2102 2102 2164 2164 2102 2102 2164 2044 2374 2537 2537 2628 2725 2830 2943 3066 3679 3199 2943 2830 3066 0 0 0 0 0 0 0 0 0 0 0 0 0 0 0 100 99 99 99 0 0 0 0 0 0 593 0 0 82 82 0 0 0 0 0 0 0 0 0 0 0 0 194 0 0 0 0 0 0 0 0 0 0 0 0 0 0 0 0 0 0 0 0 0 0 0 0 0 0 0 0 0 0 0 0 1795 1887 1839 1752 1635 1599 1599 1599 1599 1501 1388 1338 1314 1247 1206 1168 1115 1098 1098 1082 1066 1066 1036 1022 1022 1022 1022 955 968 955 919 931 919 876 876 876 897 836 826 817 808 799 791 782 774 750 728 721 714 700 645 651 634 629 618 613 608 608 608 588 588 579 584 584 584 574 574 574 588 557 553 537 529 525 521 511 500 514 514 521 507 500 500 497 497 493 477 471 468 465 465 457 446 443 440 438 435 435 432 422 420 422 418 415 411 411 411 411 413 411 406 408 408 411 406 404 402 397 391 383 0 0 364 366 364 364 362 360 0 0 0 0 0
    0 0 0 0 0 0 0 0 0 0 0 0 0 0 0 0 0 0 0 0 0 0 0 0 0 0 0 0 0 0 0 0 0 0 0 0 0 0 0 0 0 0 0 0 0 0 0 0 0 0 0 0 0 0 0 0 0 0 0 0 0 0 0 0 0 0 0 0 0 1635 1635 1635 1672 1672 1635 1795 1752 1795 1839 1936 1936 1989 1989 1989 0 0 0 0 0 0 0 2102 2102 2164 2164 2102 2164 2164 2102 2453 2537 2537 2628 2725 2830 2943 3066 3504 3066 2943 2830 3066 3066 0 0 0 0 0 0 0 0 0 0 0 0 0 0 0 99 99 98 0 0 0 0 0 0 0 0 0 0 0 0 0 0 0 74 0 0 0 0 0 0 0 0 0 192 0 0 0 0 0 0 0 0 0 0 0 0 0 0 0 0 0 0 0 0 0 0 0 0 0 0 0 0 0 1149 0 2044 1887 1795 1672 1599 1599 1635 1599 1471 1362 1338 1314 1226 1187 1168 1132 1082 1115 1082 1066 1066 1036 1022 1022 1022 1022 955 968 955 919 931 919 886 876 876 897 845 836 826 817 799 791 782 774 750 721 721 714 707 657 657 639 629 618 613 608 603 603 588 593 584 584 584 584 579 579 579 593 561 553 537 529 525 521 514 500 514 514 521 507 500 500 497 493 490 477 471 468 465 465 457 448 446 440 438 438 432 432 425 420 422 418 418 413 411 413 413 418 415 411 413 413 415 408 406 402 395 389 383 371 366 364 366 364 364 362 362 0 0 0 0 0
    0 0 0 0 0 0 0 0 0 0 0 0 0 0 0 0 0 0 0 0 0 0 0 0 0 0 0 0 0 0 0 0 0 0 0 0 0 0 0 0 0 0 0 0 0 0 0 0 0 0 0 0 0 0 0 0 0 0 0 0 0 0 0 0 0 0 0 0 0 1672 1635 1635 1672 1672 1635 1795 1752 1752 1839 1936 1887 1936 1989 1989 1989 0 0 0 0 0 0 2044 2044 2164 2164 2102 2164 2164 2102 2453 2537 2628 2628 2725 2830 2943 3066 3679 3199 2943 2943 3066 3066 0 73 0 0 0 0 0 0 0 0 0 0 0 0 0 0 99 98 0 0 0 0 0 0 0 0 0 0 0 0 0 0 0 74 0 0 0 0 0 0 0 0 0 0 0 0 0 0 0 0 0 0 0 0 0 0 0 0 451 0 0 0 0 0 0 0 0 0 0 0 0 0 1168 1187 0 1936 1839 1752 1635 1599 1635 1635 1635 1471 1362 1338 1291 1226 1149 1149 1132 1082 1115 1082 1066 1066 1036 1022 1022 1022 1022 955 968 955 931 931 931 886 886 886 908 855 845 836 826 817 799 791 774 750 721 721 721 707 669 669 645 634 623 613 608 603 603 593 593 584 584 588 593 584 584 584 598 570 557 537 529 525 521 518 504 518 518 525 504 500 500 493 493 490 477 474 471 468 465 457 451 446 440 438 438 432 432 425 422 422 420 420 415 413 415 415 420 420 413 415 415 418 408 406 399 395 387 381 369 0 364 366 364 364 362 362 0 0 0 0 0
    0 0 0 0 0 0 0 0 0 0 0 0 0 0 0 0 0 0 0 0 0 0 0 0 0 0 0 0 0 0 0 0 0 0 0 0 0 0 0 0 0 0 0 0 0 0 0 0 0 0 0 0 0 0 0 0 0 0 0 0 0 0 0 0 0 0 0 0 0 1672 1635 1635 1672 1672 1635 1795 1752 1795 1839 1936 1887 1936 1936 1989 1936 0 0 0 0 0 1936 2044 1989 2102 2102 2044 2102 2102 2044 2374 2537 2537 2537 2725 2830 2830 3066 3504 3199 2943 2943 3066 3066 0 73 0 0 0 0 0 0 0 0 0 0 0 0 0 0 0 99 98 98 0 0 0 0 0 0 0 0 81 0 0 0 0 0 0 0 0 0 0 0 0 0 0 0 0 0 0 0 0 0 0 897 0 0 0 0 465 462 454 0 0 0 0 0 0 0 0 0 0 0 0 0 1168 1226 1752 1839 1795 1711 1672 1635 1635 1672 1635 1443 1362 1338 1268 1206 1149 1149 1149 1082 1132 1098 1082 1082 1051 1036 1022 1022 1022 955 955 955 931 931 943 886 886 886 897 855 855 845 826 808 799 791 774 750 721 728 728 714 681 675 651 639 629 613 608 603 603 593 593 584 588 588 598 593 593 588 603 574 557 541 529 525 518 514 504 518 518 525 504 500 500 493 490 487 477 474 471 468 465 457 454 448 443 438 438 432 432 427 420 422 420 420 418 415 418 418 420 422 415 418 418 418 406 404 397 391 381 377 0 0 364 366 364 364 362 362 0 0 0 0 0
    0 0 0 0 0 0 0 0 0 0 0 0 0 0 0 0 0 0 0 0 0 0 0 0 0 0 0 0 0 0 0 0 0 0 0 0 0 0 0 0 0 0 0 0 0 0 0 0 0 0 0 0 0 0 0 0 0 0 0 0 0 0 0 0 0 0 0 0 0 1672 1635 1635 1711 1672 1635 1795 1752 1795 1839 1887 1887 1887 1936 1989 1936 1936 1887 0 0 0 1936 1989 1989 2044 2102 2044 2102 2102 2044 2374 2537 2537 2628 2725 2830 2830 2943 3199 3066 2830 2725 2830 2830 0 0 0 0 0 0 0 0 0 0 0 0 0 0 0 0 0 0 0 0 0 0 0 0 0 0 0 0 81 0 0 0 0 0 0 0 0 0 0 0 0 0 0 0 0 0 0 0 0 0 0 0 0 0 0 0 457 0 446 0 0 0 0 0 0 0 0 0 0 0 0 0 0 1291 1752 1795 1752 1711 1672 1672 1672 1711 1635 1443 1362 1314 1268 1206 1132 1168 1168 1098 1149 1115 1082 1082 1051 1036 1022 1022 1022 955 955 955 931 931 943 897 886 886 897 865 865 845 836 817 808 791 782 758 728 735 728 721 687 687 663 651 634 613 608 603 603 593 593 588 588 588 598 593 593 593 603 579 553 545 533 525 514 511 507 518 518 525 504 504 500 497 490 487 477 474 468 468 465 457 451 446 440 438 438 435 432 427 422 425 422 422 422 418 420 418 425 427 420 422 418 415 402 397 391 383 375 371 0 362 362 364 364 362 362 362 0 0 0 0 0
    0 0 0 0 0 0 0 0 0 0 0 0 0 0 0 0 0 0 0 0 0 0 0 0 0 0 0 0 0 0 0 0 0 0 0 0 0 0 0 0 0 0 0 0 0 0 0 0 0 0 0 0 0 0 0 0 0 0 0 0 0 0 0 0 0 0 0 0 0 1672 1635 1635 1711 1672 1635 1795 1752 1795 1839 1887 1887 1887 1936 1989 1936 1936 1936 1887 0 1887 1936 1936 1936 1989 2044 1989 2102 2044 2044 2299 2537 2628 2628 2725 2830 2830 2943 3066 3066 2830 2628 2725 2725 0 0 0 0 0 0 0 0 0 0 0 0 0 0 0 0 0 0 0 0 0 0 0 0 0 0 0 0 0 0 0 0 0 0 0 0 0 0 0 0 0 0 0 0 0 0 0 0 0 0 0 0 817 0 0 0 0 0 0 0 0 0 0 0 0 0 0 0 0 0 0 0 0 1471 1839 1839 1752 1752 1711 1711 1711 1711 1599 1415 1338 1291 1247 1206 1132 1168 1168 1098 1149 1115 1082 1066 1051 1022 1008 1008 1008 943 943 955 919 931 943 897 886 886 897 865 865 855 836 826 808 791 782 758 728 735 735 721 694 687 663 651 634 613 0 603 598 593 593 588 588 588 603 598 593 593 603 579 549 545 533 525 511 511 511 518 518 525 504 504 500 497 490 487 474 471 468 468 462 454 451 446 440 438 435 432 432 427 425 425 425 425 425 420 422 420 425 430 422 418 413 408 397 393 383 375 371 0 366 360 362 362 364 362 362 362 0 0 0 0 0
    0 0 0 0 0 0 0 0 0 0 0 0 0 0 0 0 0 0 0 0 0 0 0 0 0 0 0 0 0 0 0 0 0 0 0 0 0 0 0 0 0 0 0 0 0 0 0 0 0 0 0 0 0 0 0 0 0 0 0 0 0 0 0 0 0 0 0 0 0 1672 1635 1635 1711 1672 1635 1795 1752 1795 1839 1887 1936 1936 1936 1989 1989 1936 1936 1887 1989 1887 1936 1887 1887 1989 2044 1989 2102 2044 2044 2299 2537 2628 2725 2725 2830 2830 2943 3066 3199 2830 2725 2725 2725 0 0 0 0 0 0 0 0 0 0 0 0 0 0 0 0 0 0 0 0 0 0 0 0 0 0 0 0 0 0 0 0 0 0 0 0 0 0 0 0 0 0 0 0 0 0 0 0 0 0 0 0 0 0 0 0 0 0 0 0 0 0 0 0 0 0 0 0 0 0 0 0 0 1565 1795 1752 1711 1752 1711 1711 1711 1672 1533 1388 1338 1268 1247 1206 1132 1149 1149 1098 1132 1098 1066 1051 1036 1008 994 994 994 943 931 955 931 931 955 897 886 886 908 865 876 855 845 826 808 799 782 758 728 743 735 721 700 694 663 651 629 0 0 598 598 588 593 588 588 588 603 598 598 598 603 584 553 549 533 521 504 511 511 518 518 525 504 504 500 500 490 484 474 471 468 468 459 454 451 446 440 438 438 435 435 430 427 427 427 427 427 422 425 422 425 427 418 408 404 402 393 389 379 375 371 369 366 360 362 362 364 362 362 364 0 0 0 0 0
    0 0 0 0 0 0 0 0 0 0 0 0 0 0 0 0 0 0 0 0 0 0 0 0 0 0 0 0 0 0 0 0 0 0 0 0 0 0 0 0 0 0 0 0 0 0 0 0 0 0 0 0 0 0 0 0 0 0 0 0 0 0 0 0 0 0 0 0 0 1672 1635 1635 1711 1672 1635 1795 1795 1795 1839 1887 1887 1887 1936 1936 1936 1936 1936 1887 1989 1936 1936 1887 1887 1989 2044 1989 2164 2102 2102 2299 2537 2628 2725 2725 2830 2725 2943 2943 3199 2943 2628 2725 2628 0 0 0 0 0 0 0 0 0 0 0 0 0 0 0 0 0 0 0 0 0 0 0 0 0 0 0 0 0 0 0 0 0 0 0 0 0 0 0 0 0 0 0 0 0 0 0 0 0 0 0 0 0 0 0 0 0 0 0 471 0 0 0 0 0 0 0 0 0 0 0 0 0 1711 1839 1795 1711 1752 1711 1711 1711 1635 1443 1362 1338 1291 1247 1226 1132 1149 1149 1098 1132 1098 1051 1036 1022 994 994 981 981 943 931 955 931 919 955 897 886 886 897 865 876 855 845 826 817 799 782 758 735 743 743 728 707 694 663 657 629 603 0 598 593 588 0 588 593 588 603 598 598 598 603 588 553 549 533 521 500 511 511 514 514 521 504 507 500 504 490 484 474 471 468 468 459 454 451 446 443 440 440 438 435 432 430 427 430 430 430 425 425 422 422 422 411 404 397 397 389 385 379 375 371 369 367 362 362 362 364 364 364 364 0 0 0 0 0
    0 0 0 0 0 0 0 0 0 0 0 0 0 0 0 0 0 0 0 0 0 0 0 0 0 0 0 0 0 0 0 0 0 0 0 0 0 0 0 0 0 0 0 0 0 0 0 0 0 0 0 0 0 0 0 0 0 0 0 0 0 0 0 0 0 0 0 0 0 1672 1635 1635 1711 1672 1635 1795 1795 1795 1887 1887 1887 1887 1936 1936 1936 1887 1936 1887 1989 1989 1989 1936 1936 1989 2102 2044 2299 2164 2164 2299 2537 2628 2725 2725 2725 2628 2830 2943 3066 2943 2725 2628 2628 0 0 0 0 0 0 0 0 0 0 0 0 0 0 0 0 0 0 0 0 0 0 0 0 0 0 0 0 0 0 0 0 0 0 0 0 0 0 0 0 0 0 0 0 0 0 0 0 0 331 0 0 0 0 0 0 0 0 0 0 0 0 0 0 0 0 0 0 0 0 0 0 0 1752 1887 1795 1711 1752 1672 1711 1711 1635 1415 1362 1314 1268 1247 1226 1149 1149 1149 1098 1115 1082 1036 1036 1022 981 981 968 968 955 931 955 931 919 955 897 886 886 886 865 865 845 836 826 808 791 774 766 735 750 743 728 714 700 675 675 634 608 608 598 593 593 0 593 588 588 603 603 603 598 603 588 549 549 533 521 497 511 511 514 514 521 504 507 504 507 487 481 474 471 468 468 457 454 454 451 443 440 440 438 438 435 430 430 430 430 432 425 427 422 420 413 404 397 393 393 385 381 377 375 371 369 367 362 364 364 366 364 364 366 0 0 0 0 0
    0 0 0 0 0 0 0 0 0 0 0 0 0 0 0 0 0 0 0 0 0 0 0 0 0 0 0 0 0 0 0 0 0 0 0 0 0 0 0 0 0 0 0 0 0 0 0 0 0 0 0 0 0 0 0 0 0 0 0 0 0 0 0 0 0 0 0 0 0 1672 1635 1635 1711 1672 1635 1795 1795 1795 1839 1887 1839 1839 1887 1936 1887 1887 1936 1887 1989 1989 2044 1989 1936 2044 2164 2044 2299 2230 2230 2299 2453 2628 2628 2628 2725 2628 2830 2943 3199 3066 2943 2830 0 0 0 0 0 0 0 0 0 0 0 0 0 0 0 0 0 0 0 0 0 0 0 0 0 0 0 0 0 0 0 0 0 0 0 0 0 0 0 0 0 0 0 0 0 0 0 0 0 0 0 0 0 0 0 0 0 0 0 0 0 0 0 0 0 0 0 0 0 0 0 0 0 0 1839 1936 1795 1752 1795 1711 1711 1711 1599 1415 1362 1314 1268 1247 1247 1149 1149 1168 1098 1098 1082 1036 1022 1008 981 981 968 968 955 931 968 931 919 955 886 886 876 886 865 855 845 826 817 799 782 774 766 743 750 743 735 714 700 681 681 634 603 608 598 593 593 0 593 588 588 603 598 598 598 598 593 549 549 533 518 493 507 511 511 511 521 504 511 504 511 487 481 474 471 468 465 457 454 454 451 446 443 440 438 440 435 432 430 432 432 432 427 427 420 411 404 397 393 389 387 381 377 375 375 371 369 367 364 364 364 366 364 364 366 0 0 0 0 0
    0 0 0 0 0 0 0 0 0 0 0 0 0 0 0 0 0 0 0 0 0 0 0 0 0 0 0 0 0 0 0 0 0 0 0 0 0 0 0 0 0 0 0 0 0 0 0 0 0 0 0 0 0 0 0 0 0 0 0 0 0 0 0 0 0 0 0 0 0 1635 1635 1635 1672 1635 1599 1795 1752 1752 1839 1839 1839 1839 1887 1887 1887 1887 1936 1887 1989 1989 2044 1936 1936 2044 2164 2044 2299 2230 2230 2230 2453 2537 2628 2628 2628 2537 2830 2943 3199 3199 3066 0 0 0 0 0 0 0 0 0 0 0 0 0 0 0 0 0 0 0 0 0 0 0 0 0 0 0 0 0 0 0 0 0 0 0 0 0 0 0 0 0 0 0 0 0 0 0 0 0 0 0 0 0 0 0 2230 0 0 0 0 0 0 0 0 0 0 0 0 0 0 0 0 0 0 1989 1887 1887 1795 1752 1795 1711 1752 1711 1565 1388 1338 1314 1291 1268 1247 1168 1168 1168 1115 1098 1066 1022 1022 1008 968 981 968 968 968 943 981 931 919 955 897 886 876 876 865 855 845 826 817 799 782 782 774 743 750 743 728 714 700 681 675 634 603 603 598 593 593 579 588 588 588 603 598 598 593 593 593 549 549 533 521 493 507 507 511 507 518 507 507 504 514 487 477 468 468 465 465 454 457 457 454 448 446 443 440 440 438 432 432 432 432 432 425 422 415 406 0 395 391 387 385 381 377 375 375 373 369 369 364 364 364 366 364 364 366 0 0 0 0 0
    0 0 0 0 0 0 0 0 0 0 0 0 0 0 0 0 0 0 0 0 0 0 0 0 0 0 0 0 0 0 0 0 0 0 0 0 0 0 0 0 0 0 0 0 0 0 0 0 0 0 0 0 0 0 0 0 0 0 0 0 0 0 0 0 0 0 0 0 0 1635 1635 1635 1672 1635 1599 1795 1752 1752 1887 1839 1887 1839 1887 1887 1887 1887 1989 1936 2044 2044 2230 1989 2044 2102 2299 2164 2374 2230 2299 2164 2299 2537 2537 2537 2628 2537 2830 2830 3345 3199 3199 0 0 0 0 0 0 0 0 0 0 0 0 0 0 0 0 0 0 0 0 0 0 0 0 0 0 0 0 0 0 0 0 0 0 0 0 0 0 0 0 0 0 0 0 0 0 0 0 0 0 0 0 0 1936 0 1989 0 0 0 0 0 0 0 0 0 0 0 0 0 0 0 0 0 0 2044 1936 1936 1795 1752 1795 1711 1752 1672 1501 1388 1338 1314 1268 1268 1268 1168 1168 1168 1115 1082 1051 1008 1008 1008 981 981 981 968 981 968 994 955 931 955 897 876 876 865 865 855 845 826 817 799 782 782 774 743 750 743 728 714 694 675 669 629 598 603 598 593 593 579 588 584 584 598 588 588 588 588 588 549 553 533 521 493 504 507 507 507 514 507 504 500 514 484 474 462 465 462 462 454 457 457 454 448 448 443 443 443 438 432 430 432 430 430 422 420 413 404 0 0 391 389 385 381 377 375 375 373 369 369 364 364 364 366 366 364 366 0 0 0 0 0
    0 0 0 0 0 0 0 0 0 0 0 0 0 0 0 0 0 0 0 0 0 0 0 0 0 0 0 0 0 0 0 0 0 0 0 0 0 0 0 0 0 0 0 0 0 0 0 0 0 0 0 0 0 0 0 0 0 0 0 0 0 0 0 0 0 0 0 0 0 1635 1635 1599 1672 1635 1599 1752 1711 1752 1839 1839 1887 1839 1887 1936 1936 1936 1989 1936 2044 2044 2230 2044 2102 2230 2453 2299 2374 2299 2374 2164 2299 2537 2537 2537 2537 2453 2830 2830 3199 3199 3199 3199 0 0 0 0 0 0 0 0 0 0 0 0 0 0 0 0 0 0 0 0 0 0 0 0 0 0 0 0 0 0 0 0 0 0 0 574 574 570 0 0 0 0 0 0 0 0 0 0 0 0 0 0 1795 1672 1839 0 0 0 0 0 0 0 0 0 0 0 0 0 0 0 0 2299 2044 2230 2102 1936 1795 1795 1795 1711 1752 1635 1471 1362 1338 1314 1291 1291 1268 1187 1187 1187 1115 1082 1051 1008 1008 1008 994 994 981 981 994 981 1008 968 943 955 897 886 876 865 865 855 845 836 817 808 799 791 782 750 743 735 721 707 681 669 657 629 603 608 598 593 593 579 588 584 584 598 588 588 588 584 588 549 553 533 518 490 504 504 504 504 514 504 504 500 518 484 477 468 471 468 465 457 459 457 457 451 448 446 443 443 440 432 430 430 427 427 418 415 411 0 0 0 0 389 387 381 377 375 377 373 369 369 364 364 364 366 364 364 0 0 0 0 0 0
    0 0 0 0 0 0 0 0 0 0 0 0 0 0 0 0 0 0 0 0 0 0 0 0 0 0 0 0 0 0 0 0 0 0 0 0 0 0 0 0 0 0 0 0 0 0 0 0 0 0 0 0 0 0 0 0 0 0 0 0 0 0 0 0 0 0 0 0 0 1599 1599 1599 1672 1599 1599 1752 1672 1711 1887 1839 1887 1839 1887 1887 1936 1936 1989 1887 1989 1989 2164 1989 2044 2164 2537 2299 2374 2230 2453 2230 2299 2537 2537 2537 2537 2453 2725 2725 2943 3199 3199 3199 3199 0 0 0 0 0 0 0 0 0 0 0 0 0 0 0 0 0 0 0 0 0 0 0 0 0 0 0 0 0 0 0 0 0 0 570 0 570 0 0 0 0 0 0 0 0 0 0 0 0 0 0 1795 1672 0 0 0 0 0 0 0 0 0 0 0 0 0 0 0 0 0 2628 2628 2453 2230 1936 1839 1795 1839 1711 1711 1565 1415 1362 1338 1314 1291 1291 1291 1206 1206 1187 1132 1066 1036 1008 1008 1008 1008 994 994 994 1008 994 1008 968 943 955 897 886 876 865 865 845 845 826 817 799 799 791 782 743 735 728 714 707 675 657 645 629 603 608 603 598 598 579 588 584 584 598 588 584 584 584 593 553 557 533 518 490 504 504 504 504 507 504 500 497 511 484 477 471 471 471 471 459 462 459 459 454 451 448 443 446 443 432 430 430 425 425 413 411 408 0 0 0 0 391 387 383 379 377 377 375 369 369 364 364 362 366 364 364 0 0 0 0 0 0
    0 0 0 0 0 0 0 0 0 0 0 0 0 0 0 0 0 0 0 0 0 0 0 0 0 0 0 0 0 0 0 0 0 0 0 0 0 0 0 0 0 0 0 0 0 0 0 0 0 0 0 0 0 0 0 0 0 0 0 0 0 0 0 0 0 0 0 0 0 1599 1599 1565 1635 1599 1599 1752 1635 1711 1887 1887 1839 1839 1887 1887 1887 1936 1936 1887 1936 1989 2102 2164 2044 2230 2628 2374 2453 2230 2374 2299 2230 2453 2453 2453 2453 2374 2725 2725 2943 3066 3199 3199 3199 3199 0 0 0 0 0 0 0 0 0 0 0 0 0 0 0 0 0 0 799 0 0 0 0 0 0 0 0 0 0 0 0 0 0 0 0 0 0 0 0 0 0 0 0 0 0 0 0 0 0 0 0 0 0 0 549 566 574 0 0 0 0 0 0 0 0 0 0 0 0 2537 2537 2374 2044 1839 1752 1795 1795 1711 1672 1533 1415 1338 1338 1314 1314 1314 1291 1226 1206 1206 1149 1051 1036 1008 1022 1022 1008 1008 994 994 1022 994 1008 968 955 955 908 886 876 876 865 845 836 817 808 799 791 791 782 743 728 721 707 700 663 651 639 629 603 613 603 603 603 584 588 584 584 593 584 584 584 584 588 557 557 537 521 493 504 504 504 500 504 504 497 497 507 484 481 474 474 474 474 465 465 462 465 459 457 451 446 446 443 432 430 425 420 420 411 408 406 0 0 0 0 391 389 385 381 379 379 377 371 369 364 362 362 364 364 362 0 0 0 0 0 0
    0 0 0 0 0 0 0 0 0 0 0 0 0 0 0 0 0 0 0 0 0 0 0 0 0 0 0 0 0 0 0 0 0 0 0 0 0 0 0 0 0 0 0 0 0 0 0 0 0 0 0 0 0 0 0 0 0 0 0 0 0 0 0 0 0 0 0 0 0 1599 1599 1565 1635 1599 1599 1752 1672 1711 1887 1839 1839 1839 1839 1887 1887 1887 1936 1887 1936 1989 2102 2299 2102 2374 2725 2537 2537 2230 2374 2299 2230 2453 2453 2374 2453 2299 2628 2628 2830 3066 3066 3066 3066 3199 0 0 0 0 0 0 0 0 0 0 0 0 0 0 0 0 0 0 799 799 0 0 0 0 0 0 0 0 0 0 0 574 570 0 0 0 0 0 0 0 0 0 0 0 0 0 0 5661 0 0 0 0 0 0 0 570 579 0 0 0 0 0 0 0 0 413 0 0 0 2299 2374 2230 1936 1795 1752 1795 1752 1711 1635 1533 1415 1362 1362 1338 1338 1338 1291 1247 1226 1226 1168 1051 1051 1022 1036 1036 1022 1008 1008 1008 1022 1008 1008 968 955 955 908 897 886 876 855 845 826 817 808 799 791 791 774 735 721 714 700 694 657 651 639 629 608 613 608 603 603 584 588 584 584 593 584 579 579 579 588 553 0 537 521 493 504 504 504 500 507 504 497 497 504 487 484 477 481 477 477 468 468 465 468 462 459 448 443 443 438 430 427 422 415 415 408 408 406 0 0 0 0 0 389 385 379 377 379 375 369 369 364 360 362 364 364 0 0 0 0 0 0 0
    0 0 0 0 0 0 0 0 0 0 0 0 0 0 0 0 0 0 0 0 0 0 0 0 0 0 0 0 0 0 0 0 0 0 0 0 0 0 0 0 0 0 0 0 0 0 0 0 0 0 0 0 0 0 0 0 0 0 0 0 0 0 0 0 0 0 0 0 0 1565 1565 1565 1635 1599 1599 1752 1672 1711 1887 1887 1839 1887 1839 1887 1936 1936 1989 1887 1989 2044 2102 2374 2230 2453 2725 2628 2628 2230 2374 2299 2230 2453 2374 2374 2374 2299 2628 2628 2725 2943 2943 2943 2943 0 0 0 0 0 0 0 0 0 0 0 0 0 0 0 0 0 0 0 0 0 0 0 766 0 0 0 0 0 0 0 0 0 570 0 0 0 0 0 0 0 0 0 0 0 0 0 0 0 0 0 0 0 0 0 0 0 0 0 0 0 0 4329 0 0 0 418 0 0 0 2299 2628 2453 2044 1839 1839 1839 1795 1711 1672 1533 1415 1388 1362 1338 1338 1338 1291 1247 1247 1247 1187 1082 1082 1036 1066 1051 1036 1022 1022 1022 1036 1008 1008 968 968 955 919 897 886 876 855 845 826 808 808 799 791 791 774 735 721 707 700 694 657 651 639 629 613 618 608 608 608 584 588 584 584 593 584 579 579 579 588 557 0 537 525 493 504 504 504 500 507 504 497 493 504 487 484 481 484 477 477 471 471 468 471 462 462 451 443 443 435 425 422 418 411 413 408 408 406 404 0 0 0 0 0 385 379 375 377 373 369 0 362 359 360 362 362 0 0 0 0 0 0 0
    0 0 0 0 0 0 0 0 0 0 0 0 0 0 0 0 0 0 0 0 0 0 0 0 0 0 0 0 0 0 0 0 0 0 0 0 0 0 0 0 0 0 0 0 0 0 0 0 0 0 0 0 0 0 0 0 0 0 0 0 0 0 0 0 0 0 0 0 0 1565 1565 1565 1635 1599 1599 1752 1672 1711 1887 1887 1839 1887 1887 1887 1936 1936 1989 1936 1989 2044 2102 2374 2230 2453 2725 2537 2537 2230 2374 2374 2299 2453 2374 2374 2453 2299 2537 2628 2725 2830 2830 2725 2830 0 0 0 0 0 0 0 0 0 0 0 0 0 0 0 0 0 0 0 0 0 0 0 0 0 0 425 0 0 0 0 0 0 0 0 0 0 0 0 0 0 0 0 0 0 0 0 0 0 0 8177 0 0 0 0 0 0 0 0 0 0 0 4599 0 0 0 0 0 0 0 2374 2725 2453 2102 1887 1887 1936 1839 1752 1672 1533 1388 1388 1362 1362 1338 1338 1314 1268 1268 1268 1226 1098 1115 1066 1098 1066 1051 1036 1036 1036 1051 1022 0 968 981 955 931 908 897 876 865 845 826 817 808 799 791 799 774 735 0 707 700 694 651 651 634 629 613 618 608 608 608 588 593 588 588 593 588 579 579 579 593 561 561 541 525 493 507 507 507 500 504 504 497 493 504 487 484 484 484 477 481 471 474 468 0 0 0 0 0 0 430 420 418 415 408 408 406 408 406 404 0 0 0 0 0 0 379 375 375 371 0 0 360 355 359 359 360 0 0 0 0 0 0 0
    0 0 0 0 0 0 0 0 0 0 0 0 0 0 0 0 0 0 0 0 0 0 0 0 0 0 0 0 0 0 0 0 0 0 0 0 0 0 0 0 0 0 0 0 0 0 0 0 0 0 0 0 0 0 0 0 0 0 0 0 0 0 0 0 0 0 0 0 0 1565 1599 1565 1635 1599 1599 1752 1672 1752 1936 1887 1839 1887 1887 1936 1936 1936 1989 1936 1989 2044 2044 2299 2164 2299 2537 2299 2453 2230 2299 2374 2374 2453 2374 2374 2453 2299 2628 2628 2725 2725 2725 2725 2725 2725 0 0 0 0 0 0 0 0 0 0 0 0 0 0 0 0 0 0 0 0 0 0 0 0 0 425 0 0 0 0 0 0 0 0 0 0 0 0 0 0 0 0 0 0 0 0 0 8177 0 0 0 0 0 0 0 0 0 0 0 0 0 0 0 0 0 0 0 0 0 2299 2537 2230 2102 1887 1936 1936 1839 1752 1672 1471 1415 1388 1388 1362 1362 1338 1338 1291 1291 1291 1247 1132 1168 1082 1115 1082 1066 1051 1051 1036 1051 1022 0 981 981 955 931 919 908 876 865 855 836 836 826 808 799 799 791 743 0 707 700 694 657 651 634 629 613 623 613 613 613 593 593 588 588 593 588 584 584 584 598 566 566 545 529 493 507 507 507 500 504 504 497 493 504 487 484 484 484 481 481 471 474 468 0 0 0 0 0 0 427 415 413 411 406 406 406 406 406 404 402 0 0 0 0 0 0 0 373 371 0 0 359 352 355 355 359 0 0 0 0 0 0 0
    0 0 0 0 0 0 0 0 0 0 0 0 0 0 0 0 0 0 0 0 0 0 0 0 0 0 0 0 0 0 0 0 0 0 0 0 0 0 0 0 0 0 0 0 0 0 0 0 0 0 0 0 0 0 0 0 0 0 0 0 0 0 0 0 0 0 0 0 0 1565 1599 1565 1635 1599 1635 1752 1672 1752 1936 1887 1839 1887 1887 1936 1936 1936 1989 1936 1989 2044 2044 2299 2102 2230 2453 2230 2374 2230 2299 2374 2374 2453 2453 2453 2537 2374 2537 2725 2725 2725 2725 2725 2725 2725 0 0 0 0 0 0 0 0 0 0 0 0 0 0 0 0 0 0 0 0 0 0 0 0 0 0 0 0 0 0 0 0 0 981 0 0 0 0 0 0 0 0 0 0 0 0 0 0 0 0 0 0 0 0 0 0 0 0 0 0 0 0 0 0 0 0 0 0 0 2299 2374 2102 2044 1887 1887 1887 1795 1711 1635 1471 1443 1388 1388 1388 1362 1338 1338 1291 1291 1291 1268 1149 1187 1115 1132 1082 1082 1066 1051 1051 1066 1022 0 981 994 955 943 943 919 886 876 855 845 836 826 808 799 799 791 743 0 707 700 694 657 651 639 634 618 623 613 613 613 593 593 593 593 598 593 588 588 584 598 574 570 549 529 493 511 507 507 500 504 507 497 497 507 487 487 487 490 481 484 474 0 0 0 0 0 0 0 0 425 413 411 408 404 406 404 406 406 404 402 399 0 0 0 0 0 0 371 0 0 0 357 350 353 353 357 0 0 0 0 0 0 0
    0 0 0 0 0 0 0 0 0 0 0 0 0 0 0 0 0 0 0 0 0 0 0 0 0 0 0 0 0 0 0 0 0 0 0 0 0 0 0 0 0 0 0 0 0 0 0 0 0 0 0 0 0 0 0 0 0 0 0 0 0 0 0 0 0 0 0 0 0 1565 1565 1565 1635 1599 1635 1752 1711 1795 1989 1887 1839 1887 1887 1936 1936 1936 1989 1936 1989 2044 2044 2299 2102 2230 2374 2230 2299 2230 2299 2453 2374 2453 2453 2453 2537 2374 2537 2725 2628 2628 2537 2537 2537 0 0 0 0 0 0 0 0 0 0 0 0 0 0 0 0 0 0 0 0 0 0 0 0 0 0 0 0 0 0 0 0 0 0 994 0 0 0 0 0 0 0 0 0 0 0 0 0 0 0 0 0 0 0 0 0 0 6690 0 0 0 0 0 0 0 0 0 0 0 0 2299 2164 1989 1989 1839 1795 1839 1752 1672 1599 1501 1443 1415 1443 1415 1388 1362 1362 1338 1338 1338 1314 1168 1206 1132 1149 1082 1082 1066 1051 1051 1066 1022 0 981 994 955 943 955 931 886 865 855 855 836 817 808 799 799 782 735 0 707 700 694 663 657 639 639 623 623 613 613 613 593 598 593 593 598 598 593 593 588 603 579 570 553 529 493 511 507 507 500 504 507 500 497 507 487 487 490 493 487 493 0 618 618 0 0 0 0 0 0 420 411 411 408 404 404 404 404 406 404 402 399 395 0 0 0 0 0 0 0 362 0 355 348 352 352 355 0 0 0 0 0 0 0
    0 0 0 0 0 0 0 0 0 0 0 0 0 0 0 0 0 0 0 0 0 0 0 0 0 0 0 0 0 0 0 0 0 0 0 0 0 0 0 0 0 0 0 0 0 0 0 0 0 0 0 0 0 0 0 0 0 0 0 0 0 0 0 0 0 0 0 0 0 1565 1565 1565 1635 1599 1672 1752 1711 1795 1989 1936 1839 1936 1839 1936 1936 1936 1989 1936 1989 2102 2044 2299 2102 2164 2299 2230 2299 2230 2230 2453 2453 2453 2453 2453 2537 2374 2537 2725 2628 2628 2374 2374 2374 0 0 0 0 0 0 0 0 0 0 0 0 0 6133 0 0 0 0 0 0 0 0 0 0 0 0 0 0 0 0 0 955 968 0 981 0 0 0 0 0 0 0 0 0 5661 7359 0 0 0 0 0 0 0 0 0 0 0 6690 0 0 0 0 0 0 0 0 0 0 0 2044 2299 2164 1989 1989 1839 1839 1839 1711 1635 1599 1533 1471 1443 1471 1415 1388 1388 1362 1338 1362 1362 1338 1187 1226 1149 1149 1098 1082 1066 1051 1051 1066 1022 1022 968 994 943 943 955 931 876 855 855 845 826 817 799 791 782 782 735 0 707 700 694 669 657 645 639 623 623 608 608 608 593 598 598 598 603 603 598 598 598 608 584 579 557 533 497 514 511 511 500 504 511 500 497 507 487 487 487 493 484 0 0 629 623 613 618 0 639 0 0 0 408 411 408 404 404 404 404 406 404 402 397 395 0 0 0 0 0 0 0 362 0 355 348 352 352 355 0 0 0 0 0 0 0
    0 0 0 0 0 0 0 0 0 0 0 0 0 0 0 0 0 0 0 0 0 0 0 0 0 0 0 0 0 0 0 0 0 0 0 0 0 0 0 0 0 0 0 0 0 0 0 0 0 0 0 0 0 0 0 0 0 0 0 0 0 0 0 0 0 0 0 0 0 1565 1565 1565 1635 1599 1672 1752 1711 1795 1989 1936 1839 1936 1839 1936 1936 1936 1989 1936 2044 2164 2044 2299 2164 2230 2299 2230 2299 2230 2230 2453 2453 2537 2453 2537 2537 2453 2628 2830 2830 2725 2374 2299 2230 0 0 0 0 0 0 0 0 0 0 0 0 0 5256 0 0 0 0 0 0 0 0 0 0 0 0 0 0 0 0 0 0 0 0 968 0 0 0 0 0 0 0 8177 6690 6690 9199 0 0 0 0 0 0 0 0 0 2830 6690 6690 0 0 0 0 0 0 0 0 0 0 0 2102 2164 2044 2044 1989 1887 1839 1839 1672 1635 1599 1533 1471 1443 1471 1415 1415 1388 1388 1362 1362 1388 1338 1206 1247 1168 1149 1098 1082 1066 1051 1051 1066 1022 1022 981 981 943 943 955 931 876 865 865 855 836 817 799 791 782 774 743 0 714 700 694 669 663 651 645 623 618 608 603 603 593 598 598 603 603 608 603 603 603 613 593 0 557 533 497 514 511 511 500 507 511 504 497 511 487 487 490 497 484 0 645 634 634 623 623 613 0 0 0 413 408 411 408 404 404 404 404 406 404 0 397 393 0 387 383 0 0 0 0 362 0 357 350 352 352 0 0 0 0 0 0 0 0
    0 0 0 0 0 0 0 0 0 0 0 0 0 0 0 0 0 0 0 0 0 0 0 0 0 0 0 0 0 0 0 0 0 0 0 0 0 0 0 0 0 0 0 0 0 0 0 0 0 0 0 0 0 0 0 0 0 0 0 0 0 0 0 0 0 0 0 0 0 1533 1565 1565 1635 1599 1672 1752 1752 1795 1989 1936 1839 1936 1887 1936 1936 1989 1989 1936 2044 2230 2102 2299 2230 2230 2230 2299 2299 2299 2230 2374 2453 2537 2537 2537 2628 2537 2628 2943 2943 2830 2374 2299 2299 0 0 0 0 1533 0 0 0 0 0 0 0 0 5256 0 0 0 0 8177 0 0 0 0 0 5661 0 0 0 0 0 0 0 0 0 0 0 0 0 0 0 0 0 0 0 0 0 0 0 0 0 0 0 0 0 0 0 0 0 0 0 0 0 0 0 0 0 0 0 0 2164 2230 2102 2102 2044 1936 1887 1795 1672 1599 1599 1565 1501 1471 1501 1415 1443 1415 1415 1388 1388 1415 1338 1206 1247 1149 1149 1082 1066 1066 1051 1051 1066 1022 1008 981 981 955 943 968 931 876 876 865 855 845 826 817 799 782 782 743 721 714 700 700 675 669 657 651 623 613 603 598 598 588 598 598 603 603 613 613 613 613 618 598 0 561 533 497 514 511 511 500 507 511 504 500 511 487 484 490 493 481 0 651 639 639 623 623 618 0 0 0 413 408 411 411 404 406 404 404 406 404 0 395 391 391 385 379 0 0 0 0 364 0 359 352 353 0 0 0 0 0 0 0 0 0
    0 0 0 0 0 0 0 0 0 0 0 0 0 0 0 0 0 0 0 0 0 0 0 0 0 0 0 0 0 0 0 0 0 0 0 0 0 0 0 0 0 0 0 0 0 0 0 0 0 0 0 0 0 0 0 0 0 0 0 0 0 0 0 0 0 0 0 0 0 1533 1565 1565 1672 1635 1672 1752 1752 0 1989 1936 1839 1936 1887 1936 1936 1989 1989 1989 2044 2230 2102 2299 2230 2230 2230 2299 2299 2299 2230 2374 2374 2537 2537 2537 2628 2537 2628 2830 2943 2830 2453 2453 2374 0 0 0 0 1711 0 0 0 0 0 0 0 4599 4329 5661 0 0 0 6690 0 6690 0 0 5256 4599 5661 0 0 0 0 0 0 0 0 0 0 0 0 0 0 0 0 0 0 0 0 0 0 0 0 0 0 0 0 0 0 0 0 0 0 0 0 0 0 0 0 0 0 2102 2230 2299 2102 2102 2102 1936 1887 1795 1672 1599 1635 1565 1533 1471 1501 1388 1443 1415 1415 1388 1415 1415 1362 1226 1268 1168 1149 1082 1066 1066 1036 1051 1051 1008 1008 981 981 968 943 968 931 876 886 865 865 845 826 808 799 782 782 750 721 714 700 700 681 675 663 657 623 608 598 598 593 588 598 603 608 608 618 618 618 618 629 598 0 566 533 497 514 511 511 500 504 511 504 497 511 484 481 487 490 481 0 0 645 639 623 623 0 0 0 415 415 411 411 411 406 404 404 404 404 0 0 395 391 389 385 379 0 0 369 0 0 0 359 353 353 0 0 0 0 0 0 0 0 0
    0 0 0 0 0 0 0 0 0 0 0 0 0 0 0 0 0 0 0 0 0 0 0 0 0 0 0 0 0 0 0 0 0 0 0 0 0 0 0 0 0 0 0 0 0 0 0 0 0 0 0 0 0 0 0 0 0 0 0 0 0 0 0 0 0 0 0 0 0 1533 1565 1565 1672 1635 1711 1795 1752 1839 1989 1936 1839 1936 1887 1936 1936 1989 1989 1989 2102 2299 2164 2299 2230 2299 2230 2299 2299 2299 2299 2374 2374 2537 2537 2628 2537 2537 2628 2830 2830 2943 2537 2628 2453 0 0 0 0 1752 0 0 0 3873 2628 2299 0 3679 4088 5256 0 0 0 7359 0 0 0 0 6133 0 0 0 0 0 0 0 0 0 0 0 0 0 0 0 0 0 0 0 0 0 0 0 0 0 0 0 0 0 0 0 0 0 0 0 0 0 0 0 0 0 0 0 0 1989 2102 2044 1989 1989 1989 1887 1839 1752 1635 1599 1599 1533 1533 1471 1501 1388 1443 1388 1415 1388 1415 1415 1362 1226 1268 1149 1132 1066 1051 1051 1036 1051 1051 1008 994 981 968 968 943 968 919 886 886 865 865 836 826 808 799 774 774 743 714 714 700 700 687 681 669 663 623 603 598 593 593 588 603 603 608 608 623 623 623 623 629 603 0 566 533 497 514 511 511 500 504 511 504 497 511 484 481 487 487 481 0 0 645 645 623 623 0 0 0 0 420 411 413 413 406 404 404 0 0 0 0 0 391 0 387 383 0 0 371 0 0 360 360 355 353 0 0 0 0 0 0 0 0 0
    0 0 0 0 0 0 0 0 0 0 0 0 0 0 0 0 0 0 0 0 0 0 0 0 0 0 0 0 0 0 0 0 0 0 0 0 0 0 0 0 0 0 0 0 0 0 0 0 0 0 0 0 0 0 0 0 0 0 0 0 0 0 0 0 0 0 0 0 0 1533 1565 1599 1672 1635 1711 1795 1752 1887 1989 1936 1839 1936 1936 1936 1989 1989 2044 2044 2102 2299 2164 2299 2230 2299 2230 2299 2299 2299 2299 2374 2374 2537 2537 2628 2537 2453 2628 2830 2943 3066 2628 3066 2628 0 0 0 0 1752 0 0 0 3873 2537 2102 0 3066 3504 3873 0 0 0 0 0 0 0 0 0 0 0 0 0 0 0 0 0 0 0 0 0 0 0 0 0 0 0 0 0 0 0 0 0 0 0 0 0 0 0 0 0 0 0 0 0 0 0 0 0 0 0 0 0 2044 2044 2044 1936 1989 1989 1839 1795 1672 1599 1565 1565 1533 1533 1471 1501 1388 1471 1415 1415 1415 1443 1415 1362 1226 1268 1149 1115 1066 1051 1051 1036 1036 1051 1008 994 981 968 968 943 955 919 886 886 865 865 836 826 808 799 774 766 735 707 707 700 700 694 687 675 669 629 598 598 593 588 584 603 603 608 608 629 623 623 623 629 603 0 566 537 500 514 511 507 500 504 511 504 497 507 487 481 487 487 484 0 0 645 645 623 623 0 0 0 0 422 413 413 413 406 404 0 0 0 0 0 0 0 0 0 0 743 728 0 0 0 362 362 0 355 355 0 0 0 0 0 0 0 0
    0 0 0 0 0 0 0 0 0 0 0 0 0 0 0 0 0 0 0 0 0 0 0 0 0 0 0 0 0 0 0 0 0 0 0 0 0 0 0 0 0 0 0 0 0 0 0 0 0 0 0 0 0 0 0 0 0 0 0 0 0 0 0 0 0 0 0 0 0 1533 1599 1599 1672 1635 1711 1795 1752 1887 1989 1936 1839 1936 1936 1936 1989 1989 2044 2044 2164 2374 2230 2299 2299 2299 2299 2374 2299 2299 2374 2374 2374 2537 2537 2628 2537 2453 2537 2725 2830 2943 2537 2725 2453 0 0 0 0 1752 0 0 0 3873 2725 2453 0 3066 3504 3679 0 0 0 0 0 0 0 0 0 0 0 0 0 0 0 0 0 0 0 0 0 0 0 0 0 0 0 0 0 0 0 0 0 0 0 0 0 0 0 0 0 0 0 0 0 0 0 0 0 0 0 0 0 2044 2102 2044 1936 1989 1936 1795 1795 1635 1599 1533 1565 1533 1533 1471 1501 1388 1471 1443 1443 1415 1471 1415 1362 1226 1268 1149 1098 1051 1051 1051 1036 1036 1051 1008 994 981 981 981 943 955 908 876 886 865 865 836 826 808 791 766 743 728 694 700 694 694 687 687 675 669 629 593 598 588 588 584 598 598 608 608 629 623 623 623 629 603 0 566 533 500 511 511 507 500 504 507 500 497 504 487 481 487 487 487 0 0 651 651 0 0 0 0 0 0 425 415 413 415 408 406 0 0 0 0 0 0 0 0 0 0 743 735 373 0 0 364 364 0 357 357 0 0 0 0 0 0 0 0
    0 0 0 0 0 0 0 0 0 0 0 0 0 0 0 0 0 0 0 0 0 0 0 0 0 0 0 0 0 0 0 0 0 0 0 0 0 0 0 0 0 0 0 0 0 0 0 0 0 0 0 0 0 0 0 0 0 0 0 0 0 0 0 0 0 0 0 0 0 1533 1599 1599 1672 1635 1711 1795 1752 1839 1936 1936 1839 1936 1936 1936 1989 2044 2102 2102 2230 2537 2299 2299 2374 2374 2299 2374 2374 2299 2374 2374 2374 2537 2537 2628 2537 2453 2537 2628 2725 2830 2374 2453 2299 0 0 0 0 1752 0 3873 0 3679 2725 0 0 0 0 0 0 0 0 0 0 0 0 0 0 0 0 0 0 0 0 0 0 0 0 0 0 0 0 0 0 0 0 0 0 0 0 0 0 0 0 0 0 0 0 0 0 0 0 0 0 0 0 0 0 0 0 0 0 2102 2102 2044 1936 1989 1936 1839 1839 1635 1565 1533 1565 1501 1501 1471 1501 1388 1471 1501 1501 1443 1501 1443 1362 1247 1291 1149 1066 1051 1036 1051 1036 1051 1051 1008 994 994 981 981 931 943 897 876 886 865 865 826 817 808 782 758 728 714 687 694 694 694 687 687 675 663 623 593 598 588 584 584 593 598 603 603 623 623 623 618 623 603 0 561 533 500 507 511 507 500 504 507 500 497 500 490 481 487 487 487 0 0 657 0 0 0 0 0 0 0 425 418 415 415 408 406 406 0 0 0 0 0 0 0 0 0 0 0 373 0 369 366 364 360 357 359 0 0 0 0 0 0 0 0
    0 0 0 0 0 0 0 0 0 0 0 0 0 0 0 0 0 0 0 0 0 0 0 0 0 0 0 0 0 0 0 0 0 0 0 0 0 0 0 0 0 0 0 0 0 0 0 0 0 0 0 0 0 0 0 0 0 0 0 0 0 0 0 0 0 0 0 0 0 1533 1599 1599 1672 1635 1711 1795 1752 1839 1887 1887 1795 1936 1989 1936 1989 2044 2164 2164 2299 2537 2374 2374 2374 2374 2374 2374 2374 2299 2374 2374 2374 2628 2537 2628 2628 2453 2537 2628 2628 2830 2374 2453 2230 2299 8177 0 0 1795 1795 0 0 0 0 0 0 0 0 0 0 0 0 0 0 0 0 0 0 0 0 0 0 0 0 0 0 0 0 0 0 0 0 0 0 0 0 0 0 0 0 0 0 0 0 0 0 0 0 0 0 0 0 0 0 0 0 0 0 0 0 0 0 2164 2164 2102 1989 2044 1989 1887 1839 1672 1565 1501 1565 1501 1501 1471 1501 1388 1501 1501 1533 1443 1533 1471 1388 1247 1291 1132 1051 1036 1036 1051 1036 1036 1051 994 994 994 994 994 943 931 897 876 886 865 855 826 817 799 774 743 721 707 681 694 694 694 687 687 675 663 623 593 598 588 584 584 593 593 603 603 623 618 618 618 618 603 0 561 533 504 504 511 507 500 504 507 500 493 497 490 481 484 484 484 0 0 663 0 0 0 0 0 0 0 0 418 415 418 411 404 406 0 0 0 735 0 0 387 0 383 0 0 373 373 371 366 366 360 359 359 0 0 0 0 0 0 0 0
    0 0 0 0 0 0 0 0 0 0 0 0 0 0 0 0 0 0 0 0 0 0 0 0 0 0 0 0 0 0 0 0 0 0 0 0 0 0 0 0 0 0 0 0 0 0 0 0 0 0 0 0 0 0 0 0 0 0 0 0 0 0 0 0 0 0 0 0 0 1533 1599 1599 1672 1635 1711 1795 1752 1839 1887 1839 1795 1936 1989 1936 2044 2102 2299 2299 2453 2628 2374 2374 2374 2374 2374 2453 2374 2374 2374 2374 2374 2537 2537 2628 2537 2374 2537 2628 2628 2830 2374 2453 2374 2374 0 0 2725 1936 0 0 0 0 0 0 0 0 0 0 0 0 0 0 0 0 0 0 0 0 0 0 0 0 0 0 0 0 0 0 0 0 0 0 0 0 0 0 0 0 0 0 0 0 0 0 0 0 0 0 0 0 0 0 0 0 0 0 0 0 0 0 0 2102 2102 2044 1936 2044 1989 1839 1839 1635 1565 1501 1565 1501 1501 1471 1501 1388 1501 1501 1533 1471 1565 1471 1388 1268 1291 1132 1036 1036 1022 1036 1036 1036 1036 994 981 1008 994 1008 955 931 908 886 886 855 855 817 808 799 766 743 721 707 687 687 694 687 694 687 675 663 623 0 598 593 588 588 588 593 598 598 618 613 613 613 613 603 0 561 533 504 500 511 507 500 500 504 497 493 493 490 477 481 484 484 0 0 0 0 0 0 0 0 0 0 0 420 415 415 408 404 404 0 0 0 0 0 391 387 0 383 379 0 373 373 371 367 0 362 359 0 0 0 0 0 0 0 0 0
    0 0 0 0 0 0 0 0 0 0 0 0 0 0 0 0 0 0 0 0 0 0 0 0 0 0 0 0 0 0 0 0 0 0 0 0 0 0 0 0 0 0 0 0 0 0 0 0 0 0 0 0 0 0 0 0 0 0 0 0 0 0 0 0 0 0 0 0 0 1533 1599 1599 1672 1635 1672 1752 1752 1795 1839 1839 1795 1887 1989 1989 2044 2164 2374 2453 2453 2628 2453 2453 2374 2374 2453 2453 2374 2374 2453 2374 2299 2537 2537 2537 2537 2299 2537 2537 2537 2725 2374 2453 2374 2374 7359 0 0 0 0 0 0 0 0 0 0 0 0 0 0 0 0 0 0 0 0 0 0 0 0 0 0 0 0 0 0 0 0 0 0 0 0 0 0 0 0 0 0 0 0 0 0 0 0 0 0 0 0 0 0 0 0 0 0 0 0 0 0 0 0 0 1989 2102 2102 1989 1936 1989 1989 1839 1839 1635 1565 1501 1565 1501 1501 1501 1501 1415 1533 1501 1533 1443 1533 1388 1362 1226 1268 1132 1036 1036 1008 1036 1036 1036 1036 994 981 1008 1008 1036 968 931 908 886 886 855 845 817 808 791 758 743 728 714 694 687 694 687 687 681 669 651 629 598 603 593 593 593 588 588 593 598 608 608 608 603 603 598 0 561 533 511 497 511 507 500 500 504 497 493 490 490 477 481 481 484 0 0 0 0 0 0 0 0 0 0 0 420 415 415 408 0 404 0 0 0 0 0 391 387 0 383 379 0 373 373 371 367 0 362 359 0 0 359 357 0 0 0 0 0
    0 0 0 0 0 0 0 0 0 0 0 0 0 0 0 0 0 0 0 0 0 0 0 0 0 0 0 0 0 0 0 0 0 0 0 0 0 0 0 0 0 0 0 0 0 0 0 0 0 0 0 0 0 0 0 0 0 0 0 0 0 0 0 0 0 0 0 0 0 1565 1599 1635 1672 1635 1672 1752 1752 1795 1795 1795 1795 1887 1989 1989 2102 2164 2453 2453 2537 2628 2453 2374 2299 2299 2453 2374 2374 2374 2374 2374 2299 2537 2537 2453 2453 2230 2453 2453 2537 2725 2374 2374 2374 2299 0 0 0 0 0 0 0 0 0 0 0 0 0 0 0 0 0 0 0 0 0 0 0 0 0 0 0 0 0 0 0 0 0 0 0 0 0 0 0 0 0 0 0 0 0 0 0 0 0 0 0 0 0 0 0 0 0 0 0 0 0 0 0 0 0 0 2044 2102 2102 1989 1989 1989 1936 1839 1795 1599 1565 1471 1565 1471 1501 1471 1501 1415 1501 1501 1501 1415 1501 1388 1338 1247 1268 1149 1036 1036 1022 1036 1051 1036 1036 994 981 1022 1022 1051 968 908 897 897 886 845 0 808 799 791 758 743 728 721 707 687 694 687 687 675 669 645 629 603 608 0 593 593 584 588 593 593 608 598 598 598 598 598 0 566 537 518 497 511 507 500 500 504 497 493 490 490 477 477 481 484 0 0 0 0 0 0 0 0 0 0 0 0 0 413 406 0 402 0 0 0 0 0 391 387 0 383 379 0 373 371 371 367 0 362 359 359 0 357 355 0 0 0 0 0
    0 0 0 0 0 0 0 0 0 0 0 0 0 0 0 0 0 0 0 0 0 0 0 0 0 0 0 0 0 0 0 0 0 0 0 0 0 0 0 0 0 0 0 0 0 0 0 0 0 0 0 0 0 0 0 0 0 0 0 0 0 0 0 0 0 0 0 0 0 1565 1599 1635 1672 1635 1672 1752 1711 1795 1795 1795 1795 1839 1989 2044 2164 2164 2453 2453 2537 2628 2299 2230 2164 2164 2374 2299 2374 2299 2374 2453 2299 2453 2537 2453 2537 2299 2453 2453 2453 2628 2374 2374 2374 2374 0 0 0 0 0 0 0 0 0 0 0 0 0 0 0 0 0 0 0 0 0 0 0 0 0 0 0 0 0 0 0 0 0 0 0 0 0 0 0 0 0 0 0 0 0 0 0 0 0 0 0 0 0 0 0 0 0 0 0 0 0 0 0 0 0 0 2102 2102 2102 2044 1989 1989 1936 1839 1795 1565 1565 1471 1565 1471 1471 1471 1501 1415 1533 1501 1501 1415 1471 1362 1338 1247 1268 1149 0 1036 1022 1051 1051 1036 1036 994 981 1036 1036 1082 968 897 897 897 876 845 826 808 799 791 758 750 735 728 707 687 687 687 687 669 663 645 629 608 613 0 598 598 584 588 588 588 603 593 593 593 593 598 561 561 537 521 497 511 507 504 500 504 497 493 490 490 477 477 481 0 0 0 0 0 0 0 0 0 0 0 0 0 0 411 406 0 0 0 0 0 0 0 391 385 0 0 379 0 373 0 373 369 0 364 359 359 0 357 355 0 0 0 0 0
    0 0 0 0 0 0 0 0 0 0 0 0 0 0 0 0 0 0 0 0 0 0 0 0 0 0 0 0 0 0 0 0 0 0 0 0 0 0 0 0 0 0 0 0 0 0 0 0 0 0 0 0 0 0 0 0 0 0 0 0 0 0 0 0 0 0 0 0 0 1565 1599 1635 1635 1599 1635 1752 1711 1752 1752 1795 1795 1839 1936 2044 2164 2164 2374 2453 2374 2453 2164 2102 2044 2044 2299 2230 2299 2299 2374 2453 2299 2453 2453 2453 2537 2299 2453 2453 2453 2628 2374 2374 2374 2374 0 0 0 0 0 0 0 0 0 0 0 0 0 0 0 0 0 0 0 0 0 0 0 0 0 0 0 0 0 0 0 0 0 0 0 0 0 0 0 0 0 0 0 0 0 0 0 0 0 0 0 0 0 0 0 0 0 0 0 0 0 0 0 0 0 0 2164 2164 2102 2044 2044 2044 1936 1887 1839 1635 1565 1471 1565 1471 1471 1501 1501 1415 1501 1501 1501 1415 1443 1362 1314 1226 1247 1132 0 1036 1022 1051 1051 1036 1051 1008 994 1051 1051 1082 968 897 897 897 876 845 826 808 799 791 766 750 735 728 714 687 687 681 681 663 657 639 629 613 618 0 603 603 584 588 588 588 603 588 588 588 588 593 557 561 537 525 493 514 511 504 500 504 497 493 490 490 477 474 477 0 0 0 0 0 0 0 0 0 0 0 0 0 0 0 0 6133 0 0 0 0 0 0 0 385 0 0 0 0 0 0 373 369 0 364 359 0 360 357 353 0 0 0 0 0
    0 0 0 0 0 0 0 0 0 0 0 0 0 0 0 0 0 0 0 0 0 0 0 0 0 0 0 0 0 0 0 0 0 0 0 0 0 0 0 0 0 0 0 0 0 0 0 0 0 0 0 0 0 0 0 0 0 0 0 0 0 0 0 0 0 0 0 0 0 1565 1599 1599 1635 1599 1635 1711 1672 1752 1711 1752 1752 1795 1887 1989 2102 2044 2102 2164 2164 2164 2044 2044 1989 1989 2230 2164 2230 2299 2374 2374 2299 2453 2453 2374 2537 2299 2453 2453 2453 2537 2374 2374 2374 2374 0 0 0 0 0 0 0 0 0 0 0 0 0 0 0 0 0 0 0 0 0 0 0 0 0 0 0 0 0 0 0 0 0 0 0 0 0 0 0 0 0 0 0 0 0 0 0 0 0 0 0 0 0 0 0 0 0 0 0 0 0 0 0 0 0 1989 2164 2164 2102 2102 2102 2044 1989 1936 1887 1672 1599 1533 1565 1501 1471 1501 1501 1443 1533 1501 1501 1443 1415 1362 1314 1247 1247 1132 0 1036 1022 1051 1051 1036 1036 1008 1008 1051 1051 1082 968 897 897 908 886 855 826 808 799 791 766 750 743 728 714 687 687 681 681 663 657 639 629 613 618 0 608 608 588 593 588 593 603 588 584 584 584 593 557 561 537 529 493 514 511 507 500 507 497 493 487 490 477 474 477 0 0 0 0 0 0 0 0 0 0 0 0 0 0 0 0 0 0 0 0 0 714 721 0 385 0 0 0 0 0 373 373 369 0 364 359 359 359 355 352 0 0 0 0 0
    0 0 0 0 0 0 0 0 0 0 0 0 0 0 0 0 0 0 0 0 0 0 0 0 0 0 0 0 0 0 0 0 0 0 0 0 0 0 0 0 0 0 0 0 0 0 0 0 0 0 0 0 0 0 0 0 0 0 0 0 0 0 0 0 0 0 0 0 0 1565 1565 1599 1635 1599 1635 1711 1672 1752 1711 1752 1752 1752 1887 1989 2044 2044 2044 2044 0 0 0 2044 1936 1989 2230 2102 2230 2299 2374 2374 2299 2453 2453 2374 2537 2299 2537 2453 2453 2537 2374 2374 2374 2299 0 0 0 0 0 0 0 0 0 0 0 0 0 0 0 0 0 0 0 0 0 0 0 0 0 0 0 0 0 0 0 0 0 0 0 0 0 0 0 0 0 0 0 0 0 0 0 0 0 0 0 0 0 0 0 0 0 0 0 0 0 0 0 0 0 2044 2164 2102 2164 2102 2102 1989 1989 1936 1887 1711 1599 1533 1565 1501 1471 1501 1501 1443 1501 1501 1471 1415 1388 1338 1314 1226 1247 1132 0 1036 1022 1051 1051 1036 1036 1008 1008 1051 1036 1082 968 919 908 919 897 855 826 808 799 791 774 758 743 735 714 694 694 687 681 663 657 639 629 613 623 613 613 613 593 593 593 593 603 593 588 584 584 593 561 566 541 533 493 514 514 507 500 507 497 493 487 490 477 474 477 0 0 0 0 0 0 0 566 0 0 0 0 0 0 0 0 0 0 0 0 0 714 721 0 0 758 0 0 0 0 373 373 369 0 364 357 357 357 355 352 0 0 0 0 0
    0 0 0 0 0 0 0 0 0 0 0 0 0 0 0 0 0 0 0 0 0 0 0 0 0 0 0 0 0 0 0 0 0 0 0 0 0 0 0 0 0 0 0 0 0 0 0 0 0 0 0 0 0 0 0 0 0 0 0 0 0 0 0 0 0 0 0 0 0 1565 1565 1599 1635 1599 1635 1711 1672 1752 1752 1752 1795 1795 1839 1936 1989 1989 1989 1989 0 0 0 0 0 1936 2164 2102 2230 2299 2374 2374 2299 2453 2453 2374 2628 2299 2537 2453 2374 2537 2374 2374 2374 2374 0 0 0 0 0 0 0 0 0 0 0 0 0 0 0 0 0 0 0 0 0 0 0 0 0 0 0 0 0 0 0 0 0 0 0 0 0 0 0 0 0 0 0 0 0 0 0 0 0 0 0 0 0 0 0 0 0 0 0 0 0 0 0 0 0 2102 2164 2102 2102 2102 2044 1989 1989 1936 1839 1711 1599 1565 1565 1533 1501 1501 1501 1443 1501 1501 1471 1415 1362 1338 1291 1206 1226 1115 1036 1051 1022 1051 1051 0 1036 1022 1008 1051 1036 1066 968 908 908 919 886 845 817 799 791 791 774 758 750 735 721 707 700 694 681 663 651 634 629 613 623 618 618 613 598 598 598 598 603 593 588 588 588 598 570 574 549 537 497 518 514 507 500 507 497 493 487 493 477 474 481 0 0 0 0 0 0 0 557 0 0 0 0 0 0 0 0 0 0 0 0 0 714 728 735 0 758 0 0 0 375 373 375 369 0 364 357 357 357 353 350 0 0 0 0 0
    0 0 0 0 0 0 0 0 0 0 0 0 0 0 0 0 0 0 0 0 0 0 0 0 0 0 0 0 0 0 0 0 0 0 0 0 0 0 0 0 0 0 0 0 0 0 0 0 0 0 0 0 0 0 0 0 0 0 0 0 0 0 0 0 0 0 0 0 0 1565 1565 1599 1635 1599 1635 1711 1672 1752 1752 1795 1795 1795 1839 1936 1989 1989 1936 0 0 0 0 0 0 0 2102 2044 2230 2299 2374 2374 2299 2453 2453 2374 2628 2230 2537 2453 2374 2453 2299 2299 2299 2299 0 0 0 0 0 0 0 0 0 0 0 0 0 0 0 0 0 0 0 0 0 0 0 0 0 0 0 0 0 0 0 0 0 0 0 0 0 0 0 0 0 0 0 0 0 0 0 0 4329 3873 4599 4599 4599 4599 5256 0 0 0 0 0 0 0 0 0 0 2164 2164 2044 2102 2102 2044 1989 1936 1936 1839 1752 1635 1599 1565 1533 1501 1533 1501 1471 1501 1501 1471 1415 1362 1338 1291 1206 1206 1115 1036 1051 1036 1051 0 0 1022 1022 1008 1051 1022 1022 968 897 897 908 886 836 817 799 799 791 782 766 750 735 728 707 700 694 681 657 651 634 623 613 629 618 618 618 598 603 603 603 608 593 588 588 588 598 574 574 553 537 497 518 514 507 500 507 497 497 490 493 477 474 0 0 0 0 0 0 0 0 553 0 0 0 0 0 0 0 0 0 0 0 0 0 721 728 0 0 758 0 0 379 375 375 375 369 0 364 357 357 355 353 348 0 0 0 0 0
    0 0 0 0 0 0 0 0 0 0 0 0 0 0 0 0 0 0 0 0 0 0 0 0 0 0 0 0 0 0 0 0 0 0 0 0 0 0 0 0 0 0 0 0 0 0 0 0 0 0 0 0 0 0 0 0 0 0 0 0 0 0 0 0 0 0 0 0 0 1565 1599 1599 1635 1599 1635 1711 1672 1795 1752 1795 1795 1795 1839 1936 1936 1936 1887 0 0 0 0 0 0 0 2102 2044 2230 2299 2299 2374 2299 2374 2453 2374 2628 2299 2537 2453 2299 2374 2299 2299 2299 2299 0 0 0 0 0 0 0 0 0 0 0 0 0 0 0 0 0 0 0 0 0 0 0 0 0 0 0 0 0 0 0 0 0 0 0 0 0 0 0 0 0 0 0 0 0 0 0 3345 4329 3873 4599 4599 4599 4906 4906 4599 0 0 0 0 0 0 0 0 0 2230 2230 2102 2164 2102 2044 1989 1936 1887 1795 1711 1635 1599 1533 1565 1471 1533 1501 1471 1501 1501 1443 1415 1338 1338 1268 1187 1168 1098 1036 1051 1036 0 0 0 0 1022 1008 1051 1008 1008 968 897 897 908 897 845 826 808 799 791 782 758 750 735 721 707 694 687 675 657 651 634 629 618 629 623 618 618 603 603 603 608 608 598 593 593 593 598 574 574 557 537 500 518 514 511 500 507 500 497 490 493 477 474 0 0 0 0 0 0 0 566 553 0 0 0 0 0 0 0 0 0 0 0 0 0 721 721 0 0 0 0 0 379 375 375 375 369 0 364 355 355 355 352 348 0 0 0 0 0
    0 0 0 0 0 0 0 0 0 0 0 0 0 0 0 0 0 0 0 0 0 0 0 0 0 0 0 0 0 0 0 0 0 0 0 0 0 0 0 0 0 0 0 0 0 0 0 0 0 0 0 0 0 0 0 0 0 0 0 0 0 0 0 0 0 0 0 0 0 1565 1599 1599 1635 1599 1635 1711 1672 1795 1752 1795 1795 1795 1839 1887 1936 1936 1887 1887 0 0 0 0 0 0 2044 1989 2230 2230 2299 2374 2374 2374 2453 2374 2725 2299 2537 2537 2374 2374 2299 2299 2299 2299 0 0 0 0 0 0 0 0 0 0 0 0 0 0 0 0 0 0 0 0 0 0 0 0 0 0 0 0 0 0 0 0 0 0 0 0 0 0 0 0 0 0 0 0 0 0 4329 3504 4906 4329 4906 4906 4906 5661 5661 5256 6690 0 0 0 0 0 0 0 0 2230 2164 2102 2164 2102 2102 1989 1936 1887 1795 1752 1635 1635 1565 1565 1471 1533 1501 1471 1501 1501 1443 1443 1338 1362 1268 1187 1149 1082 1036 1051 1036 0 0 0 0 1022 1008 1036 994 994 968 897 897 908 897 855 826 808 799 791 782 766 750 735 721 700 687 681 675 657 651 634 634 623 629 623 618 618 603 608 608 608 613 603 598 598 598 603 579 574 557 537 500 518 518 514 500 507 500 497 490 497 477 474 0 0 0 0 0 0 0 570 553 0 0 0 0 0 0 0 0 0 0 0 0 404 721 0 0 0 0 0 381 379 375 373 375 369 0 362 355 353 353 352 348 0 0 0 0 0
    0 0 0 0 0 0 0 0 0 0 0 0 0 0 0 0 0 0 0 0 0 0 0 0 0 0 0 0 0 0 0 0 0 0 0 0 0 0 0 0 0 0 0 0 0 0 0 0 0 0 0 0 0 0 0 0 0 0 0 0 0 0 0 0 0 0 0 0 0 1565 1565 1599 1635 1565 1635 1711 1672 1795 1752 1795 1795 1795 1839 1887 1887 1936 1887 1936 0 0 0 0 0 0 2102 1989 2230 2230 2299 2374 2374 2374 2453 2374 2725 2299 2628 2537 2453 2374 2374 2374 2374 2374 0 0 0 0 0 0 0 0 0 0 0 0 0 0 0 0 0 0 0 0 0 0 0 0 0 0 0 0 0 0 0 0 0 0 0 0 0 0 0 0 0 0 0 0 0 0 4329 3679 5661 4906 5661 5661 5661 6133 6133 6133 6690 0 0 0 0 0 0 0 2164 2230 2164 2102 2164 2044 2102 1989 1989 1887 1795 1795 1672 1672 1565 1599 1501 1565 1533 1501 1501 1533 1443 1443 1338 1362 1268 1168 1098 1066 1022 1051 1022 0 0 0 0 0 1008 1036 994 968 968 897 897 897 897 855 845 817 799 782 774 758 735 728 714 700 681 681 675 663 657 639 639 623 629 623 0 618 603 608 613 613 613 608 603 603 603 608 584 574 557 537 500 518 518 514 504 507 504 497 490 497 477 474 0 0 0 0 0 0 0 570 553 0 0 0 0 0 0 0 0 0 735 750 0 404 0 0 0 0 0 389 383 381 375 373 373 367 362 360 353 352 352 350 347 0 0 0 0 0
    0 0 0 0 0 0 0 0 0 0 0 0 0 0 0 0 0 0 0 0 0 0 0 0 0 0 0 0 0 0 0 0 0 0 0 0 0 0 0 0 0 0 0 0 0 0 0 0 0 0 0 0 0 0 0 0 0 0 0 0 0 0 0 0 0 0 0 0 0 1565 1565 1599 1599 1565 1599 1711 1635 1752 1752 1752 1795 1795 1795 1839 1839 1887 1887 1887 1887 1887 1936 0 1989 0 2164 2044 2230 2230 2299 2374 2374 2374 2453 2374 2725 2299 2628 2537 2537 2453 2374 2374 2374 2374 0 0 0 0 0 0 0 0 0 0 0 0 0 0 0 0 0 0 0 0 0 0 0 0 0 0 0 0 0 0 0 0 0 0 0 0 0 0 0 0 0 0 0 0 0 0 3873 3873 5661 4599 5256 5256 5256 5661 5661 6133 6690 4906 0 0 0 0 0 0 2299 2230 2164 2102 2164 1989 2044 1989 1989 1887 1795 1795 1635 1672 1565 1599 1501 1565 1533 1533 1501 1533 1443 1471 1362 1388 1268 1168 1066 1051 1022 1051 1022 0 0 0 0 0 1022 1022 981 955 968 897 897 897 908 865 855 826 799 782 766 743 721 714 707 700 681 681 675 663 657 645 639 623 623 623 0 613 603 613 613 613 618 613 0 0 608 0 588 579 561 537 500 518 518 514 500 504 504 497 490 497 481 474 0 133 0 0 0 0 0 570 0 0 0 0 0 0 0 0 0 0 735 750 0 404 0 0 0 393 0 389 385 381 375 371 371 366 360 359 350 350 350 350 347 0 0 0 0 0
    0 0 0 0 0 0 0 0 0 0 0 0 0 0 0 0 0 0 0 0 0 0 0 0 0 0 0 0 0 0 0 0 0 0 0 0 0 0 0 0 0 0 0 0 0 0 0 0 0 0 0 0 0 0 0 0 0 0 0 0 0 0 0 0 0 0 0 0 0 1565 1565 1565 1599 1565 1599 1711 1635 1752 1711 1752 1752 1752 1752 1752 1795 1839 1839 1887 1839 1887 1936 2102 2044 2102 2230 2044 2299 2230 2299 2299 2374 2374 2453 2374 2725 2299 2628 2628 2628 2453 2453 2453 2453 2453 0 0 0 0 0 0 0 0 0 0 0 0 0 0 0 0 0 0 0 0 0 0 0 0 0 0 0 0 0 0 0 0 0 0 0 0 0 0 0 0 0 0 0 0 0 4088 3679 4088 5256 4329 5256 4906 5256 5661 5661 6690 7359 0 0 0 0 0 0 0 2453 2299 2230 2102 2164 1989 1989 1936 1936 1839 1711 1752 1635 1672 1599 1599 1533 1565 1533 1565 1501 1533 1443 1471 1362 1388 1268 1149 1066 1051 1022 1066 1036 1022 0 0 0 0 0 1022 968 943 968 908 908 908 931 876 855 826 808 782 766 743 721 721 714 700 681 681 675 669 663 651 645 629 623 623 0 0 603 613 613 618 618 618 618 618 0 618 593 579 561 537 500 518 518 514 500 504 504 497 490 497 481 477 0 133 133 133 0 0 0 570 0 0 0 0 0 0 0 0 0 0 728 750 0 404 402 0 0 395 393 389 385 381 375 371 369 364 359 357 350 348 348 348 345 0 0 0 0 0
    0 0 0 0 0 0 0 0 0 0 0 0 0 0 0 0 0 0 0 0 0 0 0 0 0 0 0 0 0 0 0 0 0 0 0 0 0 0 0 0 0 0 0 0 0 0 0 0 0 0 0 0 0 0 0 0 0 0 0 0 0 0 0 0 0 0 0 0 0 1533 1565 1565 1599 1565 1599 1711 1635 1752 1711 1711 1752 1752 1711 1711 1752 1795 1795 1839 1839 1839 1887 2044 2044 2102 2299 2044 2299 2230 2299 2299 2374 2374 2453 2374 2725 2299 2628 2628 2628 2537 2537 2537 2537 2537 0 0 0 0 0 0 0 0 0 0 0 0 0 0 0 0 0 0 0 0 0 0 0 0 0 0 0 0 0 0 0 0 0 0 0 0 0 0 0 0 0 0 0 0 0 4088 3679 4088 5256 4329 4906 4906 5256 5661 5661 6690 6690 6133 0 0 0 0 0 0 2537 2374 2230 2164 2102 1936 1989 1936 1936 1839 1711 1752 1635 1672 1635 1635 1533 1565 1533 1599 1533 1565 1443 1471 1362 1388 1268 1149 1051 1066 1036 1066 1051 1022 1008 0 0 0 1008 1008 968 931 968 908 908 908 931 865 855 826 808 774 750 735 721 721 714 700 681 681 675 675 663 651 645 629 623 618 0 0 598 613 613 618 618 623 623 618 618 623 593 579 566 537 504 518 518 514 500 504 507 500 493 500 484 481 0 133 133 133 133 0 0 570 0 0 0 0 0 0 0 0 0 0 735 758 0 404 402 0 0 393 393 389 385 379 373 369 367 362 357 355 348 347 347 347 343 0 0 0 0 0
    0 0 0 0 0 0 0 0 0 0 0 0 0 0 0 0 0 0 0 0 0 0 0 0 0 0 0 0 0 0 0 0 0 0 0 0 0 0 0 0 0 0 0 0 0 0 0 0 0 0 0 0 0 0 0 0 0 0 0 0 0 0 0 0 0 0 0 0 0 1533 1565 1565 1599 1565 1599 1672 1635 1752 1672 1711 1752 1711 1711 1711 1711 1752 1711 1795 1795 1795 1839 1989 1989 2044 2230 2044 2299 2230 2299 2299 2374 2374 2453 2374 2725 2299 2628 2725 2725 2537 2537 2537 2537 2537 0 0 0 0 0 0 0 0 0 0 0 0 0 0 0 0 0 0 0 0 0 0 0 0 0 0 0 0 0 0 0 0 0 0 0 0 0 0 0 0 0 0 0 0 0 4088 3679 4329 5256 4329 4906 4599 5256 5256 5256 6690 6690 5661 0 0 0 0 0 0 2537 2374 2230 2164 2102 1936 1989 1936 1989 1839 1672 1752 1635 1672 1635 1635 1533 1565 1533 1599 1501 1565 1443 1471 1338 1415 1268 1132 1036 1066 1036 1082 1051 1022 1008 0 0 1022 1008 994 955 919 968 908 908 908 919 865 845 817 799 758 735 728 721 721 707 694 681 687 681 675 663 657 651 634 623 618 0 0 603 618 613 618 618 629 623 623 618 623 593 579 566 537 504 518 518 514 500 504 507 500 493 500 487 0 0 133 0 0 0 0 0 574 553 0 0 0 0 0 0 0 0 0 0 758 406 404 402 0 0 393 393 389 383 379 373 367 366 362 355 353 348 347 345 347 342 0 0 0 0 0
    0 0 0 0 0 0 0 0 0 0 0 0 0 0 0 0 0 0 0 0 0 0 0 0 0 0 0 0 0 0 0 0 0 0 0 0 0 0 0 0 0 0 0 0 0 0 0 0 0 0 0 0 0 0 0 0 0 0 0 0 0 0 0 0 0 0 0 0 0 1533 1599 1565 1599 1565 1599 1672 1599 1711 1672 1672 1711 1711 1672 1672 1672 1711 1711 1795 1752 1795 1839 1936 1989 2044 2230 2044 2299 2230 2299 2299 2374 2374 2453 2374 2725 2374 2628 2725 2725 2628 2628 2628 2628 2628 0 0 0 0 0 0 0 0 0 0 0 0 0 0 0 0 0 0 0 0 0 0 0 0 0 0 0 0 0 0 0 0 0 0 0 0 0 0 0 0 0 0 0 0 0 4329 3504 4599 5256 4329 4906 4599 5256 5256 5256 6690 6690 6133 0 0 0 0 0 0 2537 2374 2230 2230 2102 1936 1989 1936 1989 1839 1711 1752 1672 1711 1672 1635 1565 1599 1565 1599 1533 1565 1443 1471 1362 1443 1291 1187 1051 1098 1051 1098 1066 1022 1008 0 1008 1022 1008 994 955 919 968 908 908 897 908 865 845 817 791 758 735 728 721 714 700 694 681 681 681 675 663 663 663 639 623 618 0 608 603 623 613 618 618 629 629 629 623 629 598 574 561 537 507 514 518 518 504 504 507 500 493 504 490 0 0 0 0 0 0 0 0 574 0 0 0 0 0 0 0 0 0 0 0 0 406 404 402 0 395 391 391 387 379 377 371 366 362 360 353 352 348 347 345 345 0 0 0 0 0 0
    0 0 0 0 0 0 0 0 0 0 0 0 0 0 0 0 0 0 0 0 0 0 0 0 0 0 0 0 0 0 0 0 0 0 0 0 0 0 0 0 0 0 0 0 0 0 0 0 0 0 0 0 0 0 0 0 0 0 0 0 0 0 0 0 0 0 0 0 0 1533 1565 1565 1599 1565 1599 1672 1599 1711 1672 1672 1711 1711 1635 1672 1635 1711 1672 1752 1752 1752 1795 1887 1936 1989 2102 2044 2230 2230 2230 2299 2374 2374 2453 2374 2725 2374 2725 2725 2725 2628 2628 2628 2628 0 0 0 0 0 0 0 0 0 0 0 0 0 0 0 0 0 0 0 0 0 0 0 0 0 0 0 0 0 0 0 0 0 0 0 0 0 0 0 0 0 0 0 0 0 0 4599 3504 4599 5256 4599 4906 4906 5661 5661 5661 7359 6690 6133 0 0 0 0 0 0 2537 2374 2230 2230 2044 1887 1989 1936 1989 1839 1711 1752 1672 1752 1672 1672 1599 1599 1599 1599 1533 1565 1443 1443 1362 1388 1291 1187 1066 1115 1051 1098 1066 1022 1022 1022 1022 1022 994 994 955 908 968 919 919 897 908 855 845 808 782 750 735 728 721 714 707 694 687 687 681 675 669 669 663 645 623 0 608 608 608 623 618 618 623 634 634 629 629 634 598 574 561 537 511 514 518 518 504 500 507 500 493 500 490 0 0 0 487 0 0 0 0 579 0 0 0 0 0 0 0 0 0 0 0 0 406 404 399 0 393 389 389 385 377 375 369 364 360 359 352 350 348 347 345 345 0 0 0 0 0 0
    0 0 0 0 0 0 0 0 0 0 0 0 0 0 0 0 0 0 0 0 0 0 0 0 0 0 0 0 0 0 0 0 0 0 0 0 0 0 0 0 0 0 0 0 0 0 0 0 0 0 0 0 0 0 0 0 0 0 0 0 0 0 0 0 0 0 0 0 0 1533 1565 1565 1599 1565 1565 1672 1599 1711 1672 1672 1711 1672 1635 1672 1635 1711 1711 1752 1752 1752 1795 1887 1887 1989 2044 1989 2230 2164 2299 2299 2299 2374 2453 2374 2725 2374 2725 2725 2830 2725 2725 2725 2725 0 0 0 0 0 0 0 0 0 0 0 0 0 0 0 0 0 0 0 0 0 0 0 0 0 0 0 0 0 0 0 0 0 0 0 0 0 0 0 0 0 0 0 0 0 0 4599 3504 5256 5661 4906 5256 5256 6133 6133 6133 8177 6690 6133 0 0 0 0 0 0 2537 2374 2230 2102 2044 1887 1989 1936 2044 1887 1795 1795 1752 1795 1752 1711 1635 1635 1599 1635 1533 1565 1471 1471 1388 1415 1314 1247 1098 1149 1066 1115 1066 1022 1022 1022 1022 1036 1008 994 955 908 968 908 908 897 897 855 826 799 782 750 735 735 721 714 714 707 694 694 687 687 675 675 669 651 629 0 0 0 0 629 618 618 623 639 634 629 629 634 598 566 561 537 514 511 518 518 504 500 507 497 490 500 490 0 0 0 481 0 0 0 0 579 0 0 0 0 4088 0 0 0 0 0 0 0 406 0 0 0 393 389 387 385 377 375 369 364 360 357 352 350 350 347 345 345 0 0 0 0 0 0
    0 0 0 0 0 0 0 0 0 0 0 0 0 0 0 0 0 0 0 0 0 0 0 0 0 0 0 0 0 0 0 0 0 0 0 0 0 0 0 0 0 0 0 0 0 0 0 0 0 0 0 0 0 0 0 0 0 0 0 0 0 0 0 0 0 0 0 0 0 1533 1565 1565 1599 1565 1565 1711 1599 1711 1672 1672 1711 1635 1599 1635 1599 1711 1711 1711 1711 1752 1795 1887 1887 1989 2044 1989 2230 2164 2299 2299 2299 2374 2453 2374 2725 2374 2725 2725 2830 2725 2725 2725 2725 0 0 0 0 0 0 0 0 0 0 0 0 0 0 0 0 0 0 0 0 0 0 0 0 0 0 0 0 0 0 0 0 0 0 0 0 0 0 0 0 0 0 0 0 0 4088 4599 3504 4906 5661 4906 5256 4906 5661 5661 6133 8177 6690 6690 8177 0 0 0 0 0 0 2374 2164 2164 2102 1936 1989 1989 2102 1887 1887 1839 1795 1839 1795 1752 1672 1672 1635 1635 1533 1565 1471 1471 1388 1415 1338 1291 1115 1168 1066 1132 1082 1036 1036 1036 1036 0 994 994 955 908 968 908 897 886 886 845 817 799 782 758 743 728 721 721 714 707 694 694 694 687 675 675 663 645 623 0 0 0 0 0 613 618 618 629 629 623 623 623 593 557 561 533 518 511 518 514 504 500 507 497 490 497 490 0 0 0 481 0 0 0 0 579 541 0 0 0 3873 4329 0 0 0 0 418 411 406 402 0 0 391 387 387 383 377 375 369 364 360 359 353 350 350 347 345 345 0 0 0 0 0 0
    0 0 0 0 0 0 0 0 0 0 0 0 0 0 0 0 0 0 0 0 0 0 0 0 0 0 0 0 0 0 0 0 0 0 0 0 0 0 0 0 0 0 0 0 0 0 0 0 0 0 0 0 0 0 0 0 0 0 0 0 0 0 0 0 0 0 0 0 0 1533 1565 1565 1599 1565 1565 1711 1599 1711 1672 1672 1711 1635 1599 1672 1599 1711 1711 1711 1711 1711 1752 1839 1839 1936 1989 1936 2230 2164 2299 2299 2374 2374 2453 2374 2725 2453 2725 2725 2943 2830 2830 2830 2830 0 0 0 0 0 0 0 0 0 0 0 0 0 0 0 0 0 0 0 0 0 0 0 0 0 0 0 0 0 0 0 0 0 0 0 0 0 0 0 0 0 0 0 0 0 4329 4599 3504 4599 5256 4599 4906 4599 5661 5256 5661 7359 6690 6690 8177 0 0 0 0 0 0 2374 2102 2164 2102 1936 2044 1989 2102 1887 1887 1887 1839 1887 1839 1752 1711 1711 1672 1635 1565 1565 1501 1471 1415 1415 1362 1314 1132 1187 1082 1132 1082 1036 1036 1036 1036 0 994 994 955 908 968 897 897 886 876 836 808 791 782 758 743 735 728 728 721 714 707 700 700 700 681 675 663 645 623 0 0 0 0 0 613 0 0 623 618 618 613 613 588 557 561 533 521 507 518 514 504 500 507 497 490 493 490 477 0 0 481 0 0 0 0 574 525 477 462 0 0 0 0 0 0 0 415 411 406 402 0 393 391 387 385 383 377 375 0 0 362 359 355 350 352 348 347 345 0 0 0 0 0 0
    0 0 0 0 0 0 0 0 0 0 0 0 0 0 0 0 0 0 0 0 0 0 0 0 0 0 0 0 0 0 0 0 0 0 0 0 0 0 0 0 0 0 0 0 0 0 0 0 0 0 0 0 0 0 0 0 0 0 0 0 0 0 0 0 0 0 0 0 0 1533 1599 1565 1599 1599 1565 1711 1635 1711 1672 1711 1711 1635 1599 1672 1599 1711 1711 1672 1711 1711 1752 1795 1839 1887 1936 1887 2230 2164 2299 2299 2374 2374 2537 2374 2725 2453 2830 2830 2943 2830 2830 2830 2830 0 0 0 0 0 0 0 0 0 0 0 0 0 0 0 0 0 0 0 0 0 0 0 0 0 0 0 0 0 0 0 0 0 0 0 0 0 0 0 0 0 0 0 0 0 4599 4599 3504 4599 5256 4599 4906 4599 5661 5256 5256 7359 6133 5661 6690 7359 0 0 0 0 0 0 0 2164 2164 1989 2102 2102 2230 1936 1989 1989 1887 1936 1887 1752 1711 1711 1672 1635 1533 1533 1501 1471 1415 1415 1362 1338 1149 1187 1098 1132 1098 1051 1051 1051 1051 198 1008 994 955 919 968 897 886 865 855 826 808 791 774 758 743 743 735 728 728 721 714 714 714 707 687 681 663 645 0 0 0 0 0 0 608 0 73 613 608 608 608 608 588 553 561 533 525 504 518 518 504 497 507 497 490 493 490 477 0 0 481 481 0 0 477 0 500 477 457 0 4329 0 0 0 0 0 413 413 404 0 0 391 389 387 383 381 375 375 0 0 0 360 357 352 353 350 347 347 0 0 0 0 0 0
    0 0 0 0 0 0 0 0 0 0 0 0 0 0 0 0 0 0 0 0 0 0 0 0 0 0 0 0 0 0 0 0 0 0 0 0 0 0 0 0 0 0 0 0 0 0 0 0 0 0 0 0 0 0 0 0 0 0 0 0 0 0 0 0 0 0 0 0 0 1533 1599 1599 1599 1599 1565 1711 1635 1711 1711 1711 1711 1635 1599 1672 1599 1711 1711 1672 1711 1711 1752 1795 1795 1887 1887 1887 2230 2164 2299 2299 2374 2453 2537 2453 2725 2537 2830 2830 2943 2830 2830 2830 2830 0 0 0 0 0 0 0 0 0 0 0 0 0 0 0 0 0 0 0 0 0 0 0 0 0 0 0 0 0 0 0 0 0 0 0 0 0 0 0 0 0 0 0 0 0 4599 4599 3504 4599 5256 4906 4906 4599 5661 4906 4906 6133 5256 4329 4906 5256 6690 5256 0 0 2628 0 0 2230 2164 1989 2102 2102 2230 1936 2044 2102 1936 1936 1887 1752 1711 1711 1672 1599 1533 1533 1533 1471 1415 1415 1388 1362 1168 1206 1098 1132 1098 1051 1051 1051 1051 198 1008 994 955 919 968 897 865 855 845 817 799 782 774 750 743 750 743 735 728 728 721 721 721 714 687 675 663 645 0 0 0 0 0 0 603 0 0 608 603 603 603 603 588 553 561 537 529 504 518 518 507 497 507 497 490 490 490 474 0 474 477 477 477 474 477 0 487 474 448 0 4599 0 0 425 422 418 413 413 404 0 0 0 389 387 383 381 375 375 0 743 0 362 359 353 357 352 348 347 0 0 0 0 0 0
    0 0 0 0 0 0 0 0 0 0 0 0 0 0 0 0 0 0 0 0 0 0 0 0 0 0 0 0 0 0 0 0 0 0 0 0 0 0 0 0 0 0 0 0 0 0 0 0 0 0 0 0 0 0 0 0 0 0 0 0 0 0 0 0 0 0 0 0 0 1533 1599 1565 1599 1599 1565 1672 1635 1711 1711 1711 1752 1635 1599 1711 1635 1752 1752 1672 1711 1711 1752 1795 1795 0 1839 1887 2230 2164 2299 2299 2453 2453 2537 2453 2725 2537 2943 2830 2943 2943 2830 2830 2830 0 0 0 0 0 0 0 0 0 0 0 0 0 0 0 0 0 0 0 0 0 0 0 0 0 0 0 0 0 0 0 0 0 0 0 0 0 0 0 0 0 0 0 0 0 4599 4599 3504 4906 5256 5256 4906 4906 5661 4906 4906 6690 5256 4088 4599 5256 6133 4906 3504 2725 2628 0 0 2230 2164 2044 2102 2102 2230 1936 2044 2164 1936 1936 1839 1752 1711 1711 1635 1599 1501 1501 1533 1471 1415 1415 1388 1362 1168 1206 1098 1115 1082 1051 1051 1051 1051 0 1008 994 968 931 968 886 855 845 836 817 791 774 766 758 750 750 743 735 735 735 728 728 728 714 687 681 663 645 618 623 618 618 618 0 603 0 0 608 598 598 593 593 584 553 561 537 533 504 518 518 507 497 504 497 490 487 487 474 468 471 477 474 474 471 477 465 484 471 448 0 0 430 427 425 422 418 413 413 404 0 0 0 389 387 383 383 375 0 750 750 750 362 359 355 0 0 0 0 0 0 0 0 0 0
    0 0 0 0 0 0 0 0 0 0 0 0 0 0 0 0 0 0 0 0 0 0 0 0 0 0 0 0 0 0 0 0 0 0 0 0 0 0 0 0 0 0 0 0 0 0 0 0 0 0 0 0 0 0 0 0 0 0 0 0 0 0 0 0 0 0 0 0 0 1533 1565 1565 1599 1565 1533 1672 1635 1711 1711 1711 1752 1635 1599 1711 1672 1752 1752 1672 1711 1711 1752 1795 1795 0 1839 1839 2230 2164 2299 2374 2453 2453 2537 2453 2725 2628 2943 2943 3066 2943 2943 2943 2943 0 0 0 0 0 0 0 0 0 0 0 0 0 0 0 0 0 0 0 0 0 0 0 0 0 0 0 0 0 0 0 0 0 0 0 0 0 0 0 0 0 0 0 0 0 4599 4599 3679 5256 5661 5661 5661 5256 6690 5661 5661 7359 5661 4599 4599 5256 5661 4088 3345 2725 2725 2628 215 2230 2164 2044 2102 2102 2230 1989 2102 2164 1989 1936 0 1752 1711 1711 1635 1599 1533 1501 1533 1501 1443 1443 1388 1388 1187 1206 1098 1115 1082 1036 1051 1051 1051 0 1008 994 981 943 968 886 855 836 836 808 791 774 774 766 758 758 750 743 743 743 743 735 728 714 687 675 657 634 0 0 0 0 0 0 603 0 598 603 593 588 588 588 584 553 561 541 537 507 521 521 511 497 504 497 490 484 487 471 465 471 474 474 471 468 477 462 477 471 448 0 435 430 427 425 425 420 413 413 404 0 0 0 0 387 383 383 377 0 0 758 758 0 360 357 0 0 0 0 0 0 0 0 0 0
    0 0 0 0 0 0 0 0 0 0 0 0 0 0 0 0 0 0 0 0 0 0 0 0 0 0 0 0 0 0 0 0 0 0 0 0 0 0 0 0 0 0 0 0 0 0 0 0 0 0 0 0 0 0 0 0 0 0 0 0 0 0 0 0 0 0 0 0 0 1533 1565 1565 1565 1565 1533 1672 1599 1672 1672 1711 1711 1635 1599 1711 1672 1752 1795 1672 1672 1672 1711 1752 1795 0 1795 1839 2230 2164 2299 2374 2453 2453 2537 2537 2725 2725 2943 2943 3199 3066 3066 3066 3066 0 0 0 0 0 0 0 0 0 0 0 0 0 0 0 0 0 0 0 0 0 0 0 0 0 0 0 0 0 0 0 0 0 0 0 0 0 0 0 0 0 0 0 0 0 4906 4329 3873 5256 5256 5661 5256 5256 6133 5661 5661 6133 4906 4599 4329 5256 5256 3679 3199 2628 2725 2628 2164 2164 2164 2044 2044 2102 2230 1989 2102 2164 1989 1887 0 1752 1672 1672 1599 1599 1501 1501 1533 1501 1415 1443 1388 1362 1168 1206 1115 1098 1082 1036 1051 1051 1051 0 994 994 981 955 968 897 855 845 836 808 782 774 774 766 758 758 758 750 750 758 750 743 735 721 700 681 651 634 0 0 0 0 0 0 603 598 598 603 588 584 584 584 584 553 561 545 537 511 521 521 514 500 507 500 490 484 0 471 465 468 474 471 468 465 477 462 474 471 451 446 438 432 430 427 427 425 415 413 406 0 0 0 0 0 385 385 377 377 0 766 758 0 362 359 0 0 0 0 352 0 0 0 0 0
    0 0 0 0 0 0 0 0 0 0 0 0 0 0 0 0 0 0 0 0 0 0 0 0 0 0 0 0 0 0 0 0 0 0 0 0 0 0 0 0 0 0 0 0 0 0 0 0 0 0 0 0 0 0 0 0 0 0 0 0 0 0 0 0 0 0 0 0 0 1533 1565 1565 1565 1565 1533 1672 1599 1635 1672 1672 1711 1635 1599 1711 1672 1752 1795 1672 1672 1672 1711 1752 0 0 1795 1839 2230 2230 2299 2374 2453 2537 2537 2537 2725 2725 2943 2943 3199 2943 2943 3066 3066 0 0 0 0 0 0 0 0 0 0 0 0 0 0 0 0 0 0 0 0 0 0 0 0 0 0 0 0 0 0 0 0 0 0 0 0 0 0 0 0 0 0 0 0 0 4906 4088 3873 5256 5256 5256 5256 5256 6133 5256 5661 6133 4906 4599 4329 4906 4906 3504 3345 2628 2725 2628 2164 2164 2230 2102 2102 2164 2230 1989 2044 2164 1989 1887 0 0 1635 1635 1565 1599 1501 1501 1533 1501 1443 1471 1362 1362 1168 1187 1115 1098 1066 0 1051 1051 1051 0 0 981 981 955 968 908 865 855 845 817 791 782 782 774 766 766 766 750 758 766 750 750 743 728 700 681 0 0 0 0 0 0 0 0 598 598 593 598 588 579 574 574 584 553 561 549 541 518 525 525 518 500 507 0 490 0 0 471 465 468 474 468 465 462 474 457 468 471 454 446 440 435 432 430 427 425 415 415 406 0 758 0 0 0 0 0 379 377 373 766 766 0 0 360 0 0 0 0 355 0 0 0 0 0
    0 0 0 0 0 0 0 0 0 0 0 0 0 0 0 0 0 0 0 0 0 0 0 0 0 0 0 0 0 0 0 0 0 0 0 0 0 0 0 0 0 0 0 0 0 0 0 0 0 0 0 0 0 0 0 0 0 0 0 0 0 0 0 0 0 0 0 0 0 1533 1565 1565 1565 1565 1533 1635 1599 1635 1672 1672 1672 1599 1565 1672 1672 1752 1795 1635 1672 1672 1711 1752 0 0 1795 1795 2230 2230 2374 2374 2537 2537 2628 2537 2725 2628 2830 2830 2943 2830 2830 2830 2830 0 0 0 0 0 0 0 0 0 0 0 0 0 0 0 0 0 0 0 0 0 0 0 0 0 0 0 0 0 0 0 0 0 0 0 0 0 0 0 0 0 0 0 0 3679 4906 3873 3873 4599 4599 4906 4906 4906 5256 4906 5256 5661 4906 4906 4599 4906 4599 3679 3345 2628 2725 2628 2164 2164 2230 2102 2044 2164 2230 1989 2044 2044 1936 0 0 1672 1599 1599 1565 1565 1501 1471 1533 1501 1415 1443 1338 1314 1168 1187 1132 1098 1066 0 1066 1051 1051 0 0 981 994 968 981 919 865 855 855 826 808 791 782 774 766 774 774 758 758 766 758 758 750 735 700 675 0 0 0 0 0 0 0 0 598 598 593 598 584 574 574 574 584 553 561 553 541 521 525 525 518 504 0 0 493 0 0 474 465 0 474 471 465 462 474 457 459 474 457 448 446 440 438 432 430 427 418 415 408 0 758 0 0 758 750 0 381 379 375 774 0 0 0 0 0 0 0 355 357 0 0 0 0 0
    0 0 0 0 0 0 0 0 0 0 0 0 0 0 0 0 0 0 0 0 0 0 0 0 0 0 0 0 0 0 0 0 0 0 0 0 0 0 0 0 0 0 0 0 0 0 0 0 0 0 0 0 0 0 0 0 0 0 0 0 0 0 0 0 0 0 0 0 0 1533 1565 1533 1565 1565 1501 1635 1599 1635 1672 1672 1672 1599 1565 1672 1672 1752 1752 1635 1672 1672 1711 1752 0 0 1752 1795 2230 2230 2374 2374 2537 2537 2628 2628 2725 2628 2725 2725 2628 2537 2230 2230 2299 2299 0 0 0 0 0 0 0 0 0 0 0 0 0 0 0 0 0 0 0 0 0 0 0 0 0 0 0 0 0 0 0 0 0 0 0 0 0 0 0 0 0 0 0 3873 4906 3679 4088 4599 4329 4906 4906 4906 5256 4906 5256 5256 4906 4906 4329 4599 4599 3679 3345 2628 2725 2628 2230 2102 2230 2102 2044 2102 2164 1989 1989 1989 1936 1752 0 1672 1565 1565 1533 1565 1471 1443 1501 1471 1415 1415 1291 1291 1149 1206 1132 1082 1066 0 1066 1051 1051 0 994 981 994 981 981 931 876 865 865 836 808 799 791 782 774 782 782 758 758 774 766 766 766 735 700 681 0 0 0 623 0 0 618 603 598 598 593 598 588 579 574 574 588 557 561 557 545 521 529 525 521 504 0 0 493 487 0 477 468 0 0 474 468 462 477 457 454 474 457 451 448 443 440 435 430 430 418 0 408 0 758 0 0 758 750 766 383 381 377 774 0 0 0 0 0 0 0 357 359 0 0 0 0 0
    0 0 0 0 0 0 0 0 0 0 0 0 0 0 0 0 0 0 0 0 0 0 0 0 0 0 0 0 0 0 0 0 0 0 0 0 0 0 0 0 0 0 0 0 0 0 0 0 0 0 0 0 0 0 0 0 0 0 0 0 0 0 0 0 0 0 0 0 0 1533 1565 1533 1565 1565 1501 1635 1599 1635 1672 1672 1672 1599 1565 1672 1672 1711 1752 1635 1672 1672 1711 1752 0 0 1752 1752 2164 2164 2299 2453 2537 2537 2628 2628 2725 2537 2628 2537 2374 2164 1936 1936 1989 1989 2102 1711 0 0 0 0 0 0 0 0 0 0 0 0 0 0 0 0 0 0 0 0 0 0 0 0 0 0 0 0 0 0 0 0 0 0 0 0 0 0 0 0 0 4329 4906 3873 4599 4906 4906 5256 5256 5256 5256 4906 5661 5256 4906 4906 4329 4329 4906 3679 3345 2628 2628 2628 2230 2044 2230 2102 1989 2044 2102 1936 1936 1936 1887 1672 1599 1635 1533 1533 1501 1533 1443 1443 1471 1443 1388 1388 1291 1291 1149 1206 1132 1066 1051 192 1066 1051 1051 0 994 981 1008 1008 994 931 876 865 865 836 817 808 799 791 791 791 791 750 766 774 774 766 758 735 700 675 0 0 120 623 623 623 618 0 603 603 598 603 588 579 579 574 593 561 566 557 545 521 529 525 521 504 0 511 497 487 493 481 471 271 0 474 468 465 474 457 448 474 459 451 451 448 446 440 435 435 422 0 408 0 766 0 0 766 0 0 0 383 379 0 0 0 0 0 0 0 359 357 360 0 0 0 0 0
    0 0 0 0 0 0 0 0 0 0 0 0 0 0 0 0 0 0 0 0 0 0 0 0 0 0 0 0 0 0 0 0 0 0 0 0 0 0 0 0 0 0 0 0 0 0 0 0 0 0 0 0 0 0 0 0 0 0 0 0 0 0 0 0 0 0 0 0 0 1533 1565 1533 1565 1565 1501 1635 1599 1635 1635 1672 1672 1599 1565 1672 1672 1711 1752 1635 1672 1672 1711 1752 0 0 1752 1752 2164 2164 2374 2453 2453 2537 2537 2628 2628 2374 2453 2230 2102 1936 1795 1795 1795 1795 1839 1672 0 0 0 0 0 0 0 0 0 0 0 0 0 0 0 0 0 0 0 0 0 0 0 0 0 0 0 0 0 0 0 0 0 0 0 0 0 0 0 0 4088 4906 4906 4088 4599 4906 4906 5256 5661 5256 5256 5256 5661 5661 5256 5256 4599 4906 5256 4599 3345 2453 2453 2374 2102 1936 2164 2102 1989 1989 1989 1936 1887 1887 1839 1635 1565 1599 1501 1501 1471 1501 1443 1415 1471 1415 1388 1388 1291 1291 1149 1206 1132 1066 1051 193 1066 1051 1051 0 1008 0 1022 1008 994 931 876 876 876 845 836 817 817 808 808 808 799 758 766 766 766 750 750 721 687 669 0 0 120 629 629 629 0 0 0 608 603 603 593 584 584 579 593 566 566 561 545 521 529 525 521 504 514 514 500 490 497 481 474 0 0 474 468 462 471 457 0 0 462 457 457 457 457 448 443 443 427 427 413 0 0 0 0 0 0 0 0 0 381 0 0 0 0 0 0 0 359 359 362 0 0 0 0 0
    0 0 0 0 0 0 0 0 0 0 0 0 0 0 0 0 0 0 0 0 0 0 0 0 0 0 0 0 0 0 0 0 0 0 0 0 0 0 0 0 0 0 0 0 0 0 0 0 0 0 0 0 0 0 0 0 0 0 0 0 0 0 0 0 0 0 0 0 0 1533 1533 1533 1565 1565 1501 1635 1599 1635 1635 1672 1672 1599 1565 1672 1672 1711 1752 1635 1672 1672 0 1752 0 0 1711 1711 2102 2102 2299 2299 2374 2537 2537 2537 2537 2230 2299 2044 1989 1795 1752 1711 1711 1711 1752 1635 1672 0 0 0 0 0 0 0 0 0 0 0 0 0 0 0 0 0 0 0 0 0 0 0 0 0 0 0 0 0 0 0 0 0 0 0 0 0 0 3504 4088 4906 4906 4088 4599 5256 4906 5256 5661 5661 5256 5256 6133 6133 6133 6133 5661 6133 6133 6690 3504 2164 2230 2164 2102 1887 2164 2102 1989 1989 1989 1936 1887 1887 1887 1635 1565 1565 1501 1471 1471 1501 1443 1415 1443 1388 1362 1338 1268 1247 1132 1206 1132 1066 1066 193 1082 1066 1051 0 0 0 1022 1008 994 943 886 886 876 855 845 836 826 817 817 817 808 774 766 766 758 743 743 728 700 675 0 651 0 629 629 629 0 0 0 0 603 603 598 588 588 584 598 566 561 557 545 521 525 525 521 504 514 514 500 493 497 484 474 0 132 474 468 462 465 459 0 0 465 462 465 465 465 459 457 451 435 432 420 406 404 402 0 397 395 0 0 0 0 0 0 0 0 0 0 0 360 359 362 0 0 0 0 0
    0 0 0 0 0 0 0 0 0 0 0 0 0 0 0 0 0 0 0 0 0 0 0 0 0 0 0 0 0 0 0 0 0 0 0 0 0 0 0 0 0 0 0 0 0 0 0 0 0 0 0 0 0 0 0 0 0 0 0 0 0 0 0 0 0 0 0 0 0 1533 1565 1533 1565 1599 1533 1672 1635 1672 1672 1672 1672 1635 1565 1672 1672 1711 1752 1635 1672 1672 0 0 0 0 1711 1672 1989 1989 2164 2164 2164 2374 2374 2453 2299 2102 2102 1989 1936 1795 1711 1711 1711 1711 1752 1635 1672 1501 0 0 0 0 0 0 0 0 0 0 0 0 0 0 0 0 0 0 0 0 0 0 0 0 0 0 0 0 0 0 0 0 0 0 0 6690 7359 4599 4906 5661 5256 4088 4906 5256 4906 5256 5661 5661 5256 5256 6133 5661 5661 6133 5256 5661 5661 5661 0 0 2044 2044 2044 1887 2164 2164 1989 1989 2044 1989 1887 1887 1887 1672 1599 0 1501 1471 1471 1471 1443 1388 1415 1362 1362 1291 1268 1247 1115 1187 1132 1082 1082 0 1082 1066 1051 0 0 0 1036 1008 994 943 897 897 886 865 865 855 845 836 826 817 817 782 758 750 743 735 743 728 707 681 669 669 623 629 629 629 0 0 0 0 608 608 603 593 593 588 598 570 561 557 541 521 525 521 521 504 514 514 500 493 497 484 474 0 132 474 468 459 459 459 0 0 465 465 468 468 471 465 462 457 440 438 425 408 406 404 0 397 0 0 0 0 0 782 766 0 0 0 0 0 0 357 362 0 0 0 0 0
    0 0 0 0 0 0 0 0 0 0 0 0 0 0 0 0 0 0 0 0 0 0 0 0 0 0 0 0 0 0 0 0 0 0 0 0 0 0 0 0 0 0 0 0 0 0 0 0 0 0 0 0 0 0 0 0 0 0 0 0 0 0 0 0 0 0 0 0 0 1533 1533 1533 1565 1599 1533 1672 1635 1672 1672 1672 1711 1635 1565 1672 1672 1711 1752 1635 1672 1672 0 0 0 0 1711 1635 1887 1887 1936 1936 1989 2164 2164 2230 2164 1989 2044 1936 1887 1795 1711 1672 1672 1672 1711 1635 1672 1501 0 0 0 0 0 0 0 0 0 0 0 0 0 0 0 0 0 0 0 0 0 0 0 0 0 0 0 0 0 0 0 6133 0 0 6133 6690 7359 5661 5661 6133 5661 4329 4906 5256 4906 4906 5256 5256 4906 4906 5661 5256 5256 5256 5256 5256 5256 5661 0 0 0 1989 1989 1887 2164 2164 1989 1989 2044 1989 1887 1887 1887 1635 1599 0 1501 1443 1443 1471 1415 1388 1415 1338 1338 1247 1268 1226 1115 1187 1132 1066 1082 0 1098 1066 1066 0 0 0 1036 1008 994 955 897 897 886 876 886 876 865 845 845 836 826 791 750 743 728 728 735 721 700 681 669 675 629 629 629 629 623 0 73 0 608 608 603 598 598 598 603 574 561 557 541 521 521 521 518 500 511 514 500 493 493 484 474 0 132 471 465 459 457 462 0 0 465 0 0 468 471 468 465 457 443 443 427 411 406 404 399 399 0 0 0 0 0 782 766 0 0 0 0 0 0 355 362 0 0 0 0 0
    0 0 0 0 0 0 0 0 0 0 0 0 0 0 0 0 0 0 0 0 0 0 0 0 0 0 0 0 0 0 0 0 0 0 0 0 0 0 0 0 0 0 0 0 0 0 0 0 0 0 0 0 0 0 0 0 0 0 0 0 0 0 0 0 0 0 0 0 0 1533 1533 1533 1565 1599 1533 1672 1635 1672 1672 1672 1672 1599 1565 1672 1672 1672 1752 1635 1672 1672 0 0 0 0 1672 1635 1795 1752 1795 1795 1795 1989 1989 1989 1989 1887 1887 1795 1795 1752 1672 1635 1635 1672 1672 1635 1635 1501 1711 0 0 0 0 0 0 0 0 0 0 0 0 0 0 0 0 0 0 0 0 0 0 0 0 0 0 0 0 0 0 5661 5256 6690 5256 5661 6133 5661 5256 5661 5256 4906 4906 5256 5256 4906 5256 5661 5256 5256 6133 5661 6133 5661 6133 5661 5256 5661 0 0 0 2299 2230 1936 2230 2230 2044 1989 2044 1989 1887 1887 1887 1672 1599 0 1501 1443 1443 1443 1388 1362 1388 1314 1338 1247 1268 1226 1098 1168 1115 1066 1082 0 1082 1066 1051 0 1022 0 1036 994 994 943 897 897 886 876 897 886 865 855 855 845 845 799 735 728 721 721 728 714 694 681 663 675 634 629 629 629 623 618 73 0 608 608 608 603 603 603 603 579 561 561 541 521 521 518 518 500 511 514 500 493 493 484 474 0 0 471 468 462 459 465 0 0 468 0 0 465 471 468 462 459 446 443 430 413 408 406 399 402 0 0 0 0 0 791 766 0 253 0 0 0 0 355 360 0 0 0 0 0
    0 0 0 0 0 0 0 0 0 0 0 0 0 0 0 0 0 0 0 0 0 0 0 0 0 0 0 0 0 0 0 0 0 0 0 0 0 0 0 0 0 0 0 0 0 0 0 0 0 0 0 0 0 0 0 0 0 0 0 0 0 0 0 0 0 0 0 0 0 1533 1533 1533 1565 1599 1501 1635 1635 1635 1635 1635 1672 1599 1533 1635 1635 1635 1711 1599 1672 1635 0 0 0 0 1672 1599 1752 1672 1711 1711 1635 1839 1839 1839 1839 1752 1795 1711 1711 1672 1635 1635 1635 1635 1635 1635 1672 1533 1672 1599 0 0 0 0 0 0 0 0 0 0 0 0 0 0 0 0 0 0 0 0 0 0 0 0 0 0 0 0 4906 6133 5661 8177 6690 6690 6690 6690 6690 6690 5661 5661 5661 5661 5661 5661 5661 5661 5661 5661 6133 6133 6133 6133 6690 6690 6133 7359 6133 3199 0 2628 2537 1936 2164 2164 1989 1989 1936 1936 1887 1887 1887 1635 1599 1533 1501 1415 1443 1443 1388 1362 1388 1314 1338 1247 1268 1247 1115 1149 1098 1051 1066 1051 1066 1051 1051 1051 1036 1022 1051 994 1008 943 897 897 876 876 886 876 865 845 845 836 836 791 721 714 707 707 721 707 687 675 663 681 634 629 629 629 623 618 0 618 608 608 608 608 608 608 608 584 561 566 541 521 518 518 514 500 507 511 500 493 490 484 477 481 0 474 474 468 462 471 0 0 471 0 0 462 471 468 459 457 446 443 432 418 411 408 402 404 0 0 0 0 0 791 766 0 254 0 0 0 359 0 360 0 0 0 0 0
    0 0 0 0 0 0 0 0 0 0 0 0 0 0 0 0 0 0 0 0 0 0 0 0 0 0 0 0 0 0 0 0 0 0 0 0 0 0 0 0 0 0 0 0 0 0 0 0 0 0 0 0 0 0 0 0 0 0 0 0 0 0 0 0 0 0 0 0 0 1501 1533 1533 1533 1565 1501 1635 1599 1635 1599 1635 1635 1565 1501 1599 1599 1599 1672 1599 1635 1599 0 0 0 0 1635 1565 1711 1599 1635 1635 1565 1711 1752 1752 1711 1711 1711 1672 1672 1672 1635 1599 1599 1635 1635 1635 1672 1599 1711 1672 1672 0 0 0 0 0 0 0 0 0 0 0 0 0 0 0 0 0 0 0 0 0 0 0 0 0 0 0 4088 5661 5661 6133 6133 6133 6690 6690 6690 6690 6133 6690 6690 6690 6690 6133 6133 6690 6133 6690 6133 5661 5661 5661 6133 6690 6133 6690 6133 3679 0 2725 2628 1989 2164 2164 1989 1936 1936 1936 1887 1887 1887 1672 1635 1565 1533 1443 1443 1443 1388 1388 1415 1338 1362 1268 1291 1268 1115 1132 1098 1051 1066 1036 1066 1036 1036 1051 1036 1036 1036 994 994 943 886 886 865 865 876 876 855 836 826 826 817 774 0 714 700 700 714 707 694 675 663 681 639 629 629 629 623 618 629 618 608 608 613 608 608 608 608 584 561 566 541 525 514 518 514 500 507 511 500 493 490 487 481 484 487 481 477 474 468 474 0 0 471 465 0 462 468 0 0 454 446 0 0 420 415 411 404 408 406 0 0 0 0 0 0 0 255 254 0 0 359 353 360 0 0 0 0 0
    0 0 0 0 0 0 0 0 0 0 0 0 0 0 0 0 0 0 0 0 0 0 0 0 0 0 0 0 0 0 0 0 0 0 0 0 0 0 0 0 0 0 0 0 0 0 0 0 0 0 0 0 0 0 0 0 0 0 0 0 0 0 0 0 0 0 0 0 0 1501 1533 1533 1565 1565 1501 1599 1599 1599 1533 1599 1599 1565 1501 1565 1565 1533 1635 1565 1599 1599 1635 1672 1635 1635 1599 1565 1672 1565 1599 1565 1501 1672 1711 1711 1635 1635 1672 1635 1635 1635 1599 1565 1565 1599 1599 1599 1635 1635 1711 1711 1672 1711 0 0 0 0 0 0 0 0 0 0 0 0 0 0 0 0 0 0 0 0 0 0 0 0 0 0 4088 5256 5256 6133 6690 6690 6690 7359 6690 6690 6133 7359 7359 7359 6690 6690 6690 6690 6690 7359 6133 5661 5256 5661 6133 6690 6133 6690 6690 4599 0 0 2830 2102 2164 2164 1989 1936 1936 1989 1936 1887 1887 1672 1672 1599 1565 1443 1471 1443 1415 1388 1443 1362 1388 1268 1362 1291 1132 1115 1082 1036 1066 1036 1051 1036 1036 1036 1036 1036 1051 994 981 931 886 886 855 865 886 886 855 836 817 808 799 0 0 707 700 700 714 707 694 675 657 681 639 623 629 629 623 623 623 618 603 603 608 608 603 603 603 584 557 566 541 529 514 518 518 504 507 511 500 493 490 487 484 484 490 0 0 0 0 0 0 0 0 465 462 0 0 0 0 0 0 0 0 0 418 0 404 0 408 0 0 0 244 0 0 0 256 257 0 1443 360 353 360 0 0 0 0 0
    0 0 0 0 0 0 0 0 0 0 0 0 0 0 0 0 0 0 0 0 0 0 0 0 0 0 0 0 0 0 0 0 0 0 0 0 0 0 0 0 0 0 0 0 0 0 0 0 0 0 0 0 0 0 0 0 0 0 0 0 0 0 0 0 0 0 0 0 0 1501 1533 1533 1565 1565 1501 1599 1565 1599 1501 1565 1565 1533 1471 1533 1533 1501 1565 1533 1565 1565 1599 1635 1599 1599 1599 1533 1635 1533 1565 1533 1501 1635 1672 1672 1565 1599 1599 1599 1599 1599 1565 1533 1565 1599 1565 1599 1635 1672 1711 1711 1711 1711 1795 0 0 0 0 0 0 0 0 0 0 0 0 0 0 0 0 0 0 0 0 0 0 0 0 0 4088 4599 5256 5661 6133 6690 6690 7359 7359 7359 7359 0 8177 8177 7359 6690 6690 6690 6690 6690 5661 5256 5256 5661 6133 6133 5661 6133 7359 5256 0 0 2830 2230 2230 2230 1989 1989 1936 1989 1936 1887 1887 1711 1672 1599 1565 1471 1471 1471 1415 1415 1471 1388 1415 1291 1388 1291 1132 1098 1082 1036 1066 1036 1051 1022 0 0 1051 1036 1036 981 981 943 897 886 865 865 886 876 845 808 799 774 0 743 0 707 0 700 714 707 700 675 657 681 639 623 623 623 623 623 623 0 603 603 608 603 603 603 598 584 557 566 541 529 514 518 518 504 504 511 500 493 490 490 487 484 490 0 0 0 0 121 120 0 88 0 0 0 0 0 0 0 0 0 0 0 418 0 0 0 411 0 0 0 0 242 774 0 256 257 0 1443 360 355 360 0 0 0 0 0
    0 0 0 0 0 0 0 0 0 0 0 0 0 0 0 0 0 0 0 0 0 0 0 0 0 0 0 0 0 0 0 0 0 0 0 0 0 0 0 0 0 0 0 0 0 0 0 0 0 0 0 0 0 0 0 0 0 0 0 0 0 0 0 0 0 0 0 0 0 1501 1501 1533 1533 1565 1471 1565 1565 1565 1443 1533 1533 1501 1443 1501 1501 1471 1533 1501 1533 1533 1565 1635 1533 1565 1565 1533 1599 1533 1533 1501 1471 1599 1635 1599 1533 1565 1565 1599 1565 1565 1565 1533 1533 1599 1565 1599 1565 1672 1711 1711 1711 1711 1752 0 0 0 0 0 0 0 0 0 0 0 0 0 0 0 0 0 0 0 0 0 0 0 0 0 4088 4599 4599 5661 6133 6133 6690 7359 7359 7359 7359 0 8177 8177 8177 7359 7359 7359 7359 7359 6133 5661 5661 6133 6133 6133 6133 6133 7359 4906 0 0 2725 2374 2230 2230 2044 2044 1989 1989 1936 1936 1936 1752 1711 1635 1599 1471 1501 1471 1443 1415 1501 1388 1415 1291 1415 1291 1132 1066 1066 1022 1051 1036 1036 0 0 0 1036 1036 0 981 968 943 897 876 855 855 865 865 836 782 774 758 766 735 0 707 700 700 714 707 700 675 663 681 639 623 623 623 623 623 623 0 603 603 603 603 598 598 593 584 553 566 541 533 511 518 518 507 504 511 500 493 490 490 487 484 490 0 0 0 0 121 120 0 88 0 0 0 0 0 0 0 0 0 0 0 415 0 0 0 408 0 0 0 239 240 774 0 0 258 0 1443 362 357 362 0 0 0 0 0
    0 0 0 0 0 0 0 0 0 0 0 0 0 0 0 0 0 0 0 0 0 0 0 0 0 0 0 0 0 0 0 0 0 0 0 0 0 0 0 0 0 0 0 0 0 0 0 0 0 0 0 0 0 0 0 0 0 0 0 0 0 0 0 0 0 0 0 0 0 1501 1501 1501 1533 1533 1471 1533 1533 1533 1415 1471 1471 1471 1415 1471 1471 1443 1501 1471 1501 1501 1533 1599 1501 1533 1533 1501 1565 1501 1501 1501 1471 1565 1599 1565 1471 1533 1533 1599 1565 1565 1565 1565 1565 1635 1599 1599 1565 1672 1711 1711 1711 1711 1752 1839 0 0 0 0 0 0 0 0 0 0 0 0 0 0 0 0 0 0 0 0 0 0 0 0 3504 4088 4329 5661 6133 6133 6133 7359 7359 7359 7359 0 0 8177 8177 8177 7359 6690 6690 6690 6133 5256 5256 6133 6133 6133 6690 6133 7359 4599 0 2830 2628 2453 2230 2299 2044 2102 2044 2044 1989 1989 1936 1795 1711 1635 1599 1471 1533 1501 1443 1443 1501 1415 1443 1338 1443 1291 1132 1051 1051 1008 1036 1008 0 0 0 0 1036 1022 0 968 968 919 886 876 855 855 855 855 826 758 758 750 758 728 0 707 700 700 707 700 694 669 657 681 634 618 623 623 623 618 0 0 598 598 603 598 593 593 588 584 553 566 541 537 511 521 518 511 504 514 504 493 493 493 487 484 490 0 0 0 0 121 120 0 88 87 0 0 0 0 0 0 0 0 0 0 0 0 0 0 0 0 0 0 238 238 0 0 0 258 0 1443 0 0 362 0 0 0 0 0
    0 0 0 0 0 0 0 0 0 0 0 0 0 0 0 0 0 0 0 0 0 0 0 0 0 0 0 0 0 0 0 0 0 0 0 0 0 0 0 0 0 0 0 0 0 0 0 0 0 0 0 0 0 0 0 0 0 0 0 0 0 0 0 0 0 0 0 0 0 1501 1501 1501 1533 1501 1471 1501 1501 1471 1388 1443 1443 1443 1415 1443 1443 1388 1471 1471 1471 1501 1501 1565 1471 1501 1533 1501 1533 1501 1471 1471 1471 1533 1533 1501 1443 1501 1501 1565 1533 1501 1565 1565 1565 1599 1599 1599 1565 1672 1795 1795 1752 1795 1839 1936 0 0 0 0 0 0 0 0 0 0 0 0 0 0 0 0 0 0 0 0 0 0 0 0 3504 3679 4329 5256 6690 6133 6690 7359 8177 8177 8177 0 0 0 8177 8177 7359 6690 6690 6690 6133 5256 5256 6133 5661 6133 6690 6133 6133 4329 3066 2830 2628 2537 2230 2299 2044 2102 2044 2044 1989 1989 1936 0 1752 1672 1599 1501 1533 1533 1471 1443 1533 1415 1471 1362 1471 1314 1149 1036 1051 1008 1022 1008 994 0 0 0 1022 994 0 955 943 908 886 876 855 855 845 845 817 750 750 735 0 728 0 0 700 694 707 687 687 663 657 675 634 618 623 623 623 618 0 0 0 598 598 593 588 588 584 584 553 566 541 541 511 521 521 514 507 514 504 493 493 493 487 484 490 0 0 0 120 121 120 0 88 87 0 0 0 0 0 0 0 0 0 0 0 0 0 0 0 0 0 0 238 238 0 0 0 258 0 1471 0 0 0 0 0 0 0 0
    0 0 0 0 0 0 0 0 0 0 0 0 0 0 0 0 0 0 0 0 0 0 0 0 0 0 0 0 0 0 0 0 0 0 0 0 0 0 0 0 0 0 0 0 0 0 0 0 0 0 0 0 0 0 0 0 0 0 0 0 0 0 0 0 0 0 0 0 0 1501 1501 1501 1533 1501 1443 1501 1471 1443 1362 1415 1415 1415 1388 1443 1415 1388 1443 1443 1471 1471 1471 1501 1443 1471 1501 1471 1533 1471 1443 1443 1471 1533 1533 1501 1443 1471 1501 1533 1533 1501 1533 1533 1565 1599 1599 1599 1565 1672 1795 1752 1795 1795 1839 1887 0 0 0 0 0 0 0 0 0 0 0 0 0 0 0 0 0 0 0 0 0 0 0 0 3679 4088 4329 5256 6690 6133 6133 6690 7359 7359 7359 0 0 8177 0 7359 7359 6690 6690 6690 6133 5256 5256 6133 6133 5661 6690 6133 6133 4599 3504 2943 2725 2628 2230 2374 2102 2102 2044 2044 1989 1989 1936 0 1752 1635 1635 1501 1565 1533 1471 1471 1533 1443 1471 1362 1443 1291 1168 1066 1082 1036 1036 1022 0 0 0 0 1022 981 0 931 931 897 876 876 855 845 836 826 799 735 743 728 0 0 0 0 700 687 0 663 687 657 657 669 629 613 618 618 0 618 0 0 593 593 598 588 584 584 579 584 549 566 545 541 514 525 525 518 507 518 507 497 493 493 487 484 493 0 0 0 120 121 120 0 88 87 0 0 0 0 87 0 0 0 0 0 0 0 406 0 0 0 0 0 0 238 0 0 259 258 0 0 0 0 0 0 0 0 0 0
    0 0 0 0 0 0 0 0 0 0 0 0 0 0 0 0 0 0 0 0 0 0 0 0 0 0 0 0 0 0 0 0 0 0 0 0 0 0 0 0 0 0 0 0 0 0 0 0 0 0 0 0 0 0 0 0 0 0 0 0 0 0 0 0 0 0 0 0 0 1533 1533 1533 1533 1501 1471 1501 1501 1443 1388 1443 1415 1415 1415 1443 1415 1415 1443 1443 1443 1471 1471 1501 1443 1471 1501 1471 1533 1501 1443 1443 1471 1533 1501 1471 1443 1471 1501 1533 1533 1501 1565 1565 1565 1599 1599 1565 1565 1672 1752 1752 1795 1839 1839 1887 1936 0 0 0 0 0 0 0 0 0 0 0 0 0 0 0 0 0 0 0 0 0 0 3873 3679 4088 4329 4906 6690 6690 6690 7359 7359 8177 8177 0 0 0 0 8177 8177 6690 6690 6690 5661 4906 4906 6133 5661 5661 6133 6133 5661 4906 3504 2943 2725 2628 2230 2374 2102 2044 1989 1989 1936 1936 1887 1795 1711 1635 1635 1501 1565 1565 1501 1471 1533 1443 1501 1388 1415 1291 1206 1098 1115 1066 1051 1051 0 0 0 0 1036 968 0 931 919 897 886 876 855 836 817 817 791 735 743 0 0 0 0 0 0 0 0 0 687 651 651 663 629 608 618 618 0 613 598 598 588 588 593 584 579 579 574 584 549 566 545 541 514 525 525 521 507 518 511 497 497 497 487 484 490 0 0 0 120 0 0 87 88 87 0 0 0 0 0 0 0 430 427 422 0 413 406 415 406 404 0 440 0 0 0 0 259 257 260 0 0 0 0 0 0 0 0 0
    0 0 0 0 0 0 0 0 0 0 0 0 0 0 0 0 0 0 0 0 0 0 0 0 0 0 0 0 0 0 0 0 0 0 0 0 0 0 0 0 0 0 0 0 0 0 0 0 0 0 0 0 0 0 0 0 0 0 0 0 0 0 0 0 0 0 0 0 0 1565 1565 1599 1565 1533 1501 1533 1501 1471 1415 1471 1443 1443 1415 1443 1443 1415 1443 1443 1443 1471 1471 1501 1443 1471 1501 1471 1501 1471 1443 1415 1443 1533 1443 1471 1443 1471 1501 1533 1565 1501 1565 1565 1565 1635 1635 1599 1599 1672 1752 1752 1887 1936 1887 1936 2044 0 0 0 0 0 0 0 0 0 0 0 0 0 0 0 0 0 0 0 6133 6133 5661 5256 5256 4329 4088 4599 5661 5661 6133 6133 6690 7359 7359 8177 0 0 8177 7359 7359 6690 6133 6133 5661 4599 4906 5661 4906 4906 5661 4906 5256 4088 3345 2943 2628 2725 2230 2374 2102 2044 2044 2044 1936 1989 1887 1795 1711 1599 1635 1533 1565 1565 1501 1471 1533 1443 1471 1388 1388 1268 1206 1115 1132 1098 1082 1066 1066 0 0 0 1036 955 0 919 908 908 886 886 865 845 808 808 791 743 750 0 0 728 0 0 0 0 0 0 687 645 657 657 629 608 618 618 0 613 598 593 588 588 588 579 574 574 570 584 549 561 545 541 514 525 525 521 507 518 511 497 497 497 484 484 490 0 0 121 120 0 0 88 88 87 0 0 0 0 0 0 435 430 430 422 415 413 408 418 406 0 0 443 440 0 0 0 0 257 261 0 0 0 0 0 0 0 0 0
    0 0 0 0 0 0 0 0 0 0 0 0 0 0 0 0 0 0 0 0 0 0 0 0 0 0 0 0 0 0 0 0 0 0 0 0 0 0 0 0 0 0 0 0 0 0 0 0 0 0 0 0 0 0 0 0 0 0 0 0 0 0 0 0 0 0 0 0 0 1565 1565 1599 1565 1565 1533 1533 1501 1471 1443 1443 1443 1443 1415 1415 1415 1415 1443 1443 1443 1471 1471 1501 1443 1471 1471 1471 1501 1471 1443 1388 1443 1501 1443 1471 1443 1471 1501 1501 1565 1501 1565 1599 1565 1635 1635 1599 1599 1672 1752 1711 1936 1989 1936 1936 2102 2537 0 0 0 0 0 0 0 0 0 0 0 0 0 0 0 0 0 0 8177 7359 6690 6133 6690 5256 4599 5661 6690 6690 6690 7359 7359 7359 8177 8177 8177 8177 7359 7359 7359 6690 6133 6133 5661 4906 4906 5661 4906 4906 5661 4906 4906 3873 3199 2943 2725 2628 2299 2374 2164 2102 2044 2044 1936 1936 1887 1752 1711 1599 1635 1501 1565 1565 1471 1443 1501 1415 1443 1362 1338 1247 1187 1132 1149 1115 1098 1098 1082 1082 0 0 1051 955 897 919 919 908 886 886 865 845 808 808 791 750 758 0 0 0 0 0 0 0 0 0 694 645 657 657 629 603 618 618 618 613 593 593 584 584 588 574 570 570 570 584 549 557 545 541 511 525 521 521 507 518 511 500 493 493 481 481 484 0 0 0 0 0 0 88 88 87 0 0 0 0 0 438 438 432 430 425 415 413 408 418 406 0 0 446 443 446 0 0 0 0 0 0 362 0 0 0 0 0 0 0
    0 0 0 0 0 0 0 0 0 0 0 0 0 0 0 0 0 0 0 0 0 0 0 0 0 0 0 0 0 0 0 0 0 0 0 0 0 0 0 0 0 0 0 0 0 0 0 0 0 0 0 0 0 0 0 0 0 0 0 0 0 0 0 0 0 0 0 0 0 1565 1565 1599 1533 1533 1501 1533 1471 1471 1443 1443 1415 1415 1415 1415 1415 1415 1443 1443 1443 1471 1443 1471 1443 1471 1471 1471 1501 1471 1443 1388 1443 1501 1415 1471 1443 1471 1501 1501 1565 1501 1565 1599 1533 1635 1635 1599 1599 1672 1752 1711 1936 2044 2044 2044 2164 2628 2725 0 0 0 0 0 0 0 0 0 0 0 0 5256 8177 0 8177 6133 6690 6133 6133 4906 5661 5256 4906 5661 6690 6690 6690 6690 8177 8177 8177 8177 0 0 8177 7359 7359 6690 6133 6133 5661 4906 4906 5661 5256 5256 5661 4906 4599 3679 3345 3066 2725 2628 2374 2453 2164 2102 2044 2044 1936 1936 1887 1752 1672 1565 1635 1501 1565 1565 1501 1443 1471 1443 1443 1338 1314 1247 1187 1115 1149 1115 1098 1098 1098 1098 0 0 1098 968 886 919 919 908 897 886 865 845 808 808 799 766 774 758 0 0 0 0 0 0 0 0 694 645 657 657 629 603 618 618 618 613 593 593 579 584 588 574 570 570 570 584 549 561 549 541 511 521 521 521 504 518 511 500 493 493 477 477 481 0 474 474 471 477 0 87 88 87 0 0 0 0 0 440 438 432 432 425 418 415 411 418 404 0 0 446 443 443 446 443 0 0 0 369 362 360 0 0 0 0 0 0
    0 0 0 0 0 0 0 0 0 0 0 0 0 0 0 0 0 0 0 0 0 0 0 0 0 0 0 0 0 0 0 0 0 0 0 0 0 0 0 0 0 0 0 0 0 0 0 0 0 0 0 0 0 0 0 0 0 0 0 0 0 0 0 0 0 0 0 0 0 1599 1565 1599 1533 1533 1501 1533 1471 1471 1443 1471 1415 1443 1415 1415 1415 1415 1443 1415 1415 1443 1443 1471 1443 1471 1471 1471 1471 1471 1443 1388 1443 1501 1415 1471 1443 1471 1501 1501 1565 1501 1565 1599 1533 1599 1635 1599 1599 1635 1711 1672 1936 2044 2102 2164 2299 2628 2725 2943 0 0 0 0 0 0 0 0 0 0 0 7359 0 0 0 7359 7359 6690 6690 5661 6690 6690 5661 5661 6690 6133 6690 6690 7359 7359 7359 7359 7359 7359 8177 6690 7359 6690 6133 6133 5661 5256 4906 5661 5661 4906 5256 4599 4329 3873 3345 3066 2725 2628 2374 2453 2164 2102 2044 2044 1936 1936 1887 1795 1711 1565 1635 1501 1565 1565 1501 1443 1471 1443 1443 1338 1291 1226 1187 1115 1149 1132 1115 1115 1115 1132 0 0 1132 968 897 931 919 919 908 897 876 845 808 808 799 782 791 774 782 0 0 735 714 0 707 669 694 651 663 657 634 613 618 618 618 613 593 593 584 584 588 579 574 574 574 588 553 561 553 541 507 521 521 518 504 518 514 500 490 493 474 477 477 0 474 468 468 477 474 0 0 0 0 0 0 0 0 440 438 435 432 427 420 415 413 420 404 0 0 443 443 443 443 438 0 381 0 369 362 362 367 0 0 0 0 0
    0 0 0 0 0 0 0 0 0 0 0 0 0 0 0 0 0 0 0 0 0 0 0 0 0 0 0 0 0 0 0 0 0 0 0 0 0 0 0 0 0 0 0 0 0 0 0 0 0 0 0 0 0 0 0 0 0 0 0 0 0 0 0 0 0 0 0 0 0 1635 1599 1635 1565 1533 1501 1533 1501 1471 1471 1471 1415 1443 1415 1415 1415 1415 1415 1415 1415 1443 1443 1471 1415 1443 1471 1443 1471 1443 1443 1388 1443 1501 1415 1471 1443 1471 1501 1501 1565 1501 1565 1599 1533 1599 1635 1599 1599 1672 1711 1635 1936 2102 2230 2374 2453 2725 2725 2943 0 0 0 0 0 0 0 0 0 0 0 0 8177 0 0 6690 6690 6133 6133 5256 6133 6690 6133 6133 7359 6690 7359 7359 0 8177 8177 7359 8177 8177 7359 6690 6690 6133 5661 5661 5661 4906 4599 5256 5256 4906 4906 4599 4599 4088 3679 3345 3066 2830 2537 2628 2299 2102 2102 2044 1936 1936 1887 1752 1672 1565 1672 1501 1599 1599 1501 1443 1471 1443 1443 1338 1291 1226 1187 1115 1149 1149 1132 1132 1132 1149 1066 1066 1149 981 897 931 931 919 919 919 886 855 817 817 808 791 799 782 782 766 735 743 721 0 700 681 694 651 657 651 634 613 623 618 618 613 593 593 584 584 593 584 579 579 579 593 557 566 557 541 507 521 521 518 504 518 514 500 493 493 477 481 0 121 474 471 468 477 477 0 484 474 468 465 0 0 0 443 440 435 435 430 425 420 0 425 406 402 0 443 446 446 443 438 406 379 369 371 364 362 369 0 0 0 0 0
    0 0 0 0 0 0 0 0 0 0 0 0 0 0 0 0 0 0 0 0 0 0 0 0 0 0 0 0 0 0 0 0 0 0 0 0 0 0 0 0 0 0 0 0 0 0 0 0 0 0 0 0 0 0 0 0 0 0 0 0 0 0 0 0 0 0 0 0 0 1635 1599 1635 1599 1565 1533 1533 1501 1471 1471 1471 1415 1443 1415 1415 1415 1415 1415 1415 1415 1443 1443 1471 1443 1443 1443 1443 1443 1443 1443 1388 1443 1501 1415 1471 1443 1471 1501 1501 1565 1533 1565 1599 1565 1599 1599 1599 1599 1635 1672 1599 1839 2102 2299 2374 2453 2725 2830 2943 2943 0 0 0 0 0 0 0 0 0 0 0 7359 8177 8177 6133 6133 6133 6133 5661 6133 6690 6690 6133 7359 7359 7359 8177 0 0 0 8177 8177 0 7359 6690 6133 6133 5661 5661 5661 4906 4906 5661 5661 5256 4906 4906 4599 3873 3679 3504 3199 2830 2628 2628 2299 2102 2102 2044 1887 1936 1887 1752 1672 1565 1672 1533 1599 1599 1533 1471 1471 1471 1443 1338 1268 1226 1187 1115 1149 1149 1149 1149 1149 1168 1082 1066 1168 981 886 931 931 931 931 931 897 865 826 826 817 808 808 782 791 782 743 750 721 0 700 687 694 651 657 645 629 618 623 0 618 613 598 593 588 588 593 588 579 579 579 598 561 566 561 537 504 521 521 518 504 518 514 504 493 497 0 484 0 121 0 0 471 0 0 0 481 477 468 468 0 0 0 443 440 438 435 432 427 422 0 427 415 0 0 0 446 446 443 0 404 377 369 371 364 364 369 0 0 0 0 0
    0 0 0 0 0 0 0 0 0 0 0 0 0 0 0 0 0 0 0 0 0 0 0 0 0 0 0 0 0 0 0 0 0 0 0 0 0 0 0 0 0 0 0 0 0 0 0 0 0 0 0 0 0 0 0 0 0 0 0 0 0 0 0 0 0 0 0 0 0 1635 1599 1672 1599 1565 1565 1565 1501 1471 1501 1501 1443 1443 1415 1415 1415 1415 1415 1443 1415 1443 1443 1443 1443 1443 1443 1443 1443 1443 1443 1388 1443 1501 1415 1501 1471 1501 1533 1501 1565 1533 1599 1599 1565 1635 1635 1635 1635 1635 1635 1599 1795 1989 2230 2374 2374 2628 2830 2830 2830 2943 0 0 0 0 0 0 0 0 0 0 7359 8177 8177 6133 6133 6133 6133 5661 6133 6690 6133 6133 6690 6690 6690 7359 7359 7359 7359 6690 7359 7359 6133 6133 6133 5661 5661 5661 5661 4906 4906 5661 5661 4906 4906 4906 4599 4088 4088 3504 3345 3066 2725 2725 2374 2102 2102 1989 1887 1936 1887 1752 1635 1533 1672 1533 1599 1599 1533 1471 1471 1471 1443 1338 1268 1226 1168 1115 1149 1149 1149 1149 1168 1168 1082 1066 0 981 886 931 943 931 943 943 897 865 817 836 817 808 817 791 791 791 758 766 728 707 707 694 694 657 657 645 629 618 623 0 618 613 598 598 588 593 593 588 579 579 579 598 561 566 561 537 504 521 518 518 504 518 514 504 493 500 0 487 0 121 121 0 0 0 0 0 481 477 471 471 0 0 0 443 440 438 438 435 430 422 0 0 0 0 0 0 0 0 0 0 395 375 369 371 367 367 371 0 0 0 0 0
    0 0 0 0 0 0 0 0 0 0 0 0 0 0 0 0 0 0 0 0 0 0 0 0 0 0 0 0 0 0 0 0 0 0 0 0 0 0 0 0 0 0 0 0 0 0 0 0 0 0 0 0 0 0 0 0 0 0 0 0 0 0 0 0 0 0 0 0 0 1635 1599 1672 1599 1635 1635 1599 1565 1533 1565 1533 1443 1471 1415 1415 1415 1415 1415 1443 1415 1443 1443 1415 1443 1443 1443 1443 1443 1471 1471 1415 1471 1501 1443 1501 1471 1501 1533 1501 1565 1565 1599 1635 1565 1635 1635 1635 1635 1672 1635 1635 1795 2044 2164 2299 2299 2374 2628 2725 2830 2830 2725 0 0 0 0 0 0 0 0 0 7359 8177 8177 6133 6690 6133 6133 5661 6133 6133 6133 6133 6690 6690 6133 7359 7359 7359 8177 6690 7359 7359 6133 6133 5661 5661 5661 5256 5661 4906 4906 5661 5661 4906 4906 4906 4906 4088 3873 3504 3345 2943 2725 2725 2299 2102 2044 1989 1887 1887 1887 1795 1635 1565 1672 1533 1599 1599 1533 1471 1471 1501 1443 1338 1268 1226 1168 1115 1149 1149 1149 1149 1149 1168 1082 0 0 981 886 0 943 931 943 943 908 876 826 845 826 808 817 791 791 791 766 782 743 721 714 707 707 663 663 645 634 623 629 0 0 0 598 598 593 593 593 588 579 579 579 598 561 566 561 537 504 518 518 514 500 514 514 500 493 500 0 490 0 121 121 121 120 0 0 0 0 481 471 0 0 0 0 443 440 438 438 435 430 425 0 0 0 0 0 0 0 0 0 0 389 373 369 373 369 367 371 0 0 0 0 0
    0 0 0 0 0 0 0 0 0 0 0 0 0 0 0 0 0 0 0 0 0 0 0 0 0 0 0 0 0 0 0 0 0 0 0 0 0 0 0 0 0 0 0 0 0 0 0 0 0 0 0 0 0 0 0 0 0 0 0 0 0 0 0 0 0 0 0 0 0 1599 1565 1672 1599 1635 1635 1599 1599 1565 1599 1599 1471 1501 1443 1415 1415 1415 1415 1443 1415 1443 1443 1415 1471 1471 1443 1471 1471 1501 1533 1471 1533 1565 1471 1565 1533 1533 1533 1533 1599 1565 1599 1635 1599 1635 1635 1635 1672 1672 1672 1635 1795 1936 2164 2230 2230 2374 2453 2628 2725 2725 2725 2628 2628 0 0 0 0 0 0 0 8177 8177 8177 6690 6690 6690 6133 5661 6690 6133 6690 6690 7359 7359 6690 7359 8177 8177 0 6690 7359 7359 6133 6690 5661 5661 5661 5256 6133 4906 4599 5256 5256 4906 4906 4906 4906 4088 3873 3679 3504 2943 2725 2725 2299 2102 2102 2044 1887 1887 1887 1795 1635 1565 1672 1533 1599 1599 1533 1471 1443 1501 1443 1314 1268 1226 1168 1098 1149 1149 1149 1132 1149 1149 1082 0 0 981 886 0 943 931 943 943 908 876 836 855 826 817 808 791 799 791 774 782 750 735 721 714 714 669 669 651 639 623 629 0 0 618 603 603 598 593 598 593 584 584 584 598 566 561 561 537 507 514 514 511 500 511 514 500 493 504 490 490 0 121 121 121 0 0 0 0 0 481 468 0 0 0 0 443 438 435 435 438 432 427 0 0 0 0 0 0 0 0 0 0 385 373 369 373 369 367 369 0 0 0 0 0</data></depth>
</opencv_storage>
