<?xml version="1.0"?>
<opencv_storage>
<gps_time_stamp>320872</gps_time_stamp>
<gps_x>-1.2415032386779785e+001</gps_x>
<gps_y>1.0711280822753906e+001</gps_y>
<gps_z>-1.9703147411346436e+000</gps_z>
<image_time_stamp>311757</image_time_stamp>
<depth type_id="opencv-matrix">
  <rows>86</rows>
  <cols>320</cols>
  <dt>s</dt>
  <data>
    0 0 0 0 0 0 0 0 0 0 0 0 0 0 0 0 0 0 0 0 0 0 0 0 0 0 0 0 0 0 0 0 0 0 0 0 0 0 0 0 0 0 0 0 0 0 0 0 0 0 0 0 0 0 0 0 0 0 0 0 0 0 0 0 0 0 0 0 0 808 826 836 845 836 845 855 876 876 876 897 908 919 943 955 955 955 943 931 943 886 886 865 865 0 836 0 2628 2299 2299 2230 2537 2453 2725 2725 3504 6690 7359 7359 6690 6690 6133 6690 7359 0 0 7359 5661 4906 5661 6133 5661 4906 3873 3199 3345 0 0 0 0 0 0 0 0 0 0 0 0 0 0 0 0 0 0 0 0 0 0 0 0 0 0 0 0 0 0 0 0 0 4599 4906 4329 6133 6690 5661 6133 6133 6690 6690 6690 6690 5256 5256 6133 5661 6133 6690 5256 4599 0 0 0 0 0 0 0 0 0 3345 2943 2725 2725 2299 0 0 1839 1795 1599 1672 1599 1471 1415 1443 1362 1314 1247 1268 1149 1149 1098 1132 1132 1115 1115 1132 1082 1115 1036 1066 994 943 943 943 919 919 897 865 855 845 845 0 0 791 782 774 728 735 714 700 0 0 0 0 0 0 0 634 651 645 663 639 634 629 645 613 0 584 570 561 557 557 553 549 0 0 525 514 511 504 0 0 493 0 0 0 477 477 0 477 0 0 2628 2628 0 0 0 0 0 0 0 0 4329 4906 5661 5661 0 0 0 0 0 387 0 389 391 0 387 385 381 383 387 381 377 375 373 373 371 0 0 0 0 0
    0 0 0 0 0 0 0 0 0 0 0 0 0 0 0 0 0 0 0 0 0 0 0 0 0 0 0 0 0 0 0 0 0 0 0 0 0 0 0 0 0 0 0 0 0 0 0 0 0 0 0 0 0 0 0 0 0 0 0 0 0 0 0 0 0 0 0 0 0 808 826 836 845 836 845 855 865 876 876 886 919 919 943 955 955 968 955 943 968 886 886 876 886 0 0 0 0 2230 2299 2299 2537 2537 2725 0 4088 8177 8177 8177 7359 7359 7359 7359 8177 0 0 0 7359 6690 9199 8177 8177 0 0 0 0 0 0 0 0 0 0 0 0 0 0 0 0 0 0 0 0 0 0 0 0 0 0 0 0 0 0 0 0 0 0 0 0 0 4599 4599 0 6690 6690 6133 6690 6690 6690 6690 6690 6690 5256 5661 6133 5661 5661 6133 5256 4599 0 0 0 0 0 0 169 0 168 3199 2830 2830 2830 2453 1989 1839 1795 1795 1635 1672 1599 1471 1443 1443 1362 1314 1247 1268 1149 1149 1115 1115 1132 1115 1098 1132 1066 1098 1022 1022 981 943 931 943 919 908 886 855 845 845 0 0 0 782 774 766 721 728 714 694 0 0 0 0 0 0 0 639 651 651 669 645 634 629 645 613 0 584 570 561 557 561 553 549 0 0 521 514 511 504 0 0 0 0 0 808 0 0 0 477 0 0 2537 2537 0 0 0 0 0 0 0 0 4329 4906 5661 5256 0 728 0 0 0 389 0 0 393 0 389 387 385 387 391 387 381 381 377 375 375 0 0 0 0 0
    0 0 0 0 0 0 0 0 0 0 0 0 0 0 0 0 0 0 0 0 0 0 0 0 0 0 0 0 0 0 0 0 0 0 0 0 0 0 0 0 0 0 0 0 0 0 0 0 0 0 0 0 0 0 0 0 0 0 0 0 0 0 0 0 0 0 0 0 0 817 836 845 845 845 845 855 865 876 876 886 919 931 943 955 968 968 968 955 981 919 897 876 908 886 876 0 0 2102 2164 2164 2453 2537 2830 0 6690 0 0 0 0 0 0 0 0 0 0 0 0 0 0 0 0 0 0 0 0 0 0 0 0 0 0 0 0 0 0 0 0 0 0 0 0 0 0 0 0 0 0 0 0 0 0 0 0 0 0 0 0 0 4599 4599 4088 6133 5661 5256 5661 6133 6133 6133 6133 6133 5256 5661 6133 5256 5661 6133 5256 4599 0 0 0 0 0 0 169 0 168 3066 2725 2830 2830 2537 1989 1839 1795 1795 1635 1672 1533 1443 1415 1388 1362 1314 1247 1247 1168 1168 1115 1115 1132 0 0 1115 1066 1082 1008 994 981 919 919 931 908 897 876 855 845 0 0 91 0 774 758 758 721 714 707 687 687 0 132 131 131 131 0 639 657 651 669 645 639 634 651 613 0 584 574 566 561 561 553 0 0 0 521 511 507 504 0 0 0 791 782 0 0 0 0 0 0 0 2453 2537 2628 0 0 0 0 0 0 0 0 4599 5256 4906 0 721 0 0 0 389 0 0 0 0 391 389 387 391 395 391 387 385 381 379 379 0 0 0 0 0
    0 0 0 0 0 0 0 0 0 0 0 0 0 0 0 0 0 0 0 0 0 0 0 0 0 0 0 0 0 0 0 0 0 0 0 0 0 0 0 0 0 0 0 0 0 0 0 0 0 0 0 0 0 0 0 0 0 0 0 0 0 0 0 0 0 0 0 0 0 826 836 845 855 845 845 855 855 876 886 897 919 943 955 955 968 981 994 968 994 968 931 908 955 943 908 0 0 0 2102 2102 2453 2537 2830 0 0 0 0 0 0 0 0 0 0 0 0 0 0 0 0 0 0 0 0 0 0 0 0 0 0 0 0 0 0 0 0 0 0 0 0 0 0 0 0 0 0 0 0 0 0 0 0 0 0 0 0 0 0 0 4599 4599 4329 5661 5661 5256 5661 6133 5661 6133 6133 6133 5256 5661 5661 5256 5661 6133 5661 4906 0 0 0 0 0 169 0 171 168 3199 2943 2943 2943 2725 2102 1839 1795 1795 1635 1672 1533 1443 1415 1388 1362 1314 1226 1247 1149 1168 1115 1115 1132 0 0 0 1051 1066 994 981 981 897 908 931 908 897 876 865 0 0 93 91 0 758 743 743 714 707 707 687 687 0 132 131 131 131 131 645 657 651 669 645 639 629 645 613 0 584 574 566 561 561 557 0 0 0 521 511 507 0 0 0 0 0 782 0 817 0 0 0 0 0 2453 2537 2628 0 0 0 0 0 0 0 0 4329 4906 4599 0 721 728 0 0 389 0 0 0 0 0 391 389 393 397 395 389 389 385 381 381 0 0 0 0 0
    0 0 0 0 0 0 0 0 0 0 0 0 0 0 0 0 0 0 0 0 0 0 0 0 0 0 0 0 0 0 0 0 0 0 0 0 0 0 0 0 0 0 0 0 0 0 0 0 0 0 0 0 0 0 0 0 0 0 0 0 0 0 0 0 0 0 0 0 0 826 836 845 855 855 855 855 855 865 886 897 919 943 955 968 968 981 994 981 994 994 981 955 981 981 931 0 0 0 2044 2102 2453 2537 2725 0 0 0 0 0 0 0 0 0 0 0 0 0 0 0 0 0 0 0 0 0 0 0 0 0 0 0 0 0 0 0 0 0 0 0 0 0 0 0 0 0 0 0 0 0 0 0 0 0 0 0 0 0 0 4088 4599 4599 4329 5661 5661 5661 5661 6133 5661 6133 6133 6133 5256 5661 5661 5256 5661 6133 5661 4906 0 0 0 0 0 0 0 171 168 3199 3066 3066 3066 2830 2230 1839 1839 1839 1672 1672 1501 1443 1388 1362 1362 1291 1226 1247 1149 1168 1132 1115 1115 0 0 0 1036 1051 981 968 981 897 908 931 908 908 886 865 0 0 93 91 0 750 743 743 714 707 714 687 687 657 132 131 131 131 131 645 663 651 669 645 639 629 639 613 0 584 570 566 561 561 557 0 0 0 521 511 504 0 0 0 0 0 0 799 817 0 0 0 0 0 2453 2537 0 0 0 0 0 0 0 0 0 4329 4906 4329 0 0 728 0 0 0 0 0 758 750 758 0 0 395 0 0 391 391 387 383 383 0 0 0 0 0
    0 0 0 0 0 0 0 0 0 0 0 0 0 0 0 0 0 0 0 0 0 0 0 0 0 0 0 0 0 0 0 0 0 0 0 0 0 0 0 0 0 0 0 0 0 0 0 0 0 0 0 0 0 0 0 0 0 0 0 0 0 0 0 0 0 0 0 0 0 836 845 845 855 845 855 855 855 865 876 886 919 943 955 968 968 981 994 981 981 981 981 968 994 1022 1022 0 0 0 0 2044 2374 2537 0 0 0 0 0 0 0 0 0 0 0 0 0 0 0 0 0 0 0 0 0 0 0 0 0 0 0 0 0 0 0 0 0 0 0 0 0 0 0 0 0 0 0 0 0 0 0 0 0 0 0 0 0 0 0 4329 4599 4599 4329 5661 5661 5661 5661 6690 5661 5661 6133 6133 5256 5661 5661 5256 5661 6133 5661 4599 0 0 0 0 0 0 0 171 168 3199 3199 3199 3199 3066 2299 0 1839 1839 1711 1672 1501 1415 1388 1338 1338 1291 1206 1226 1149 1168 1132 1098 1115 0 0 0 1022 0 981 943 968 897 897 931 919 919 886 876 0 0 0 0 743 750 743 743 714 707 714 687 694 663 132 131 131 131 131 651 663 651 669 645 639 629 639 613 574 584 570 566 557 561 561 0 0 0 525 514 507 0 0 0 0 0 0 0 808 0 0 0 0 0 2453 2628 0 333 0 0 0 0 0 0 0 4329 4906 4329 0 0 735 0 0 0 0 735 758 750 766 774 0 0 0 876 0 0 389 383 383 0 0 0 0 0
    0 0 0 0 0 0 0 0 0 0 0 0 0 0 0 0 0 0 0 0 0 0 0 0 0 0 0 0 0 0 0 0 0 0 0 0 0 0 0 0 0 0 0 0 0 0 0 0 0 0 0 0 0 0 0 0 0 0 0 0 0 0 0 0 0 0 0 0 0 845 845 845 855 845 855 855 855 865 876 886 931 943 968 968 968 981 994 981 981 981 968 981 1082 1132 1132 0 0 0 1635 0 0 0 0 0 0 0 0 0 0 0 0 0 0 0 0 0 0 0 0 0 0 0 0 0 0 0 0 0 0 0 0 0 0 0 0 0 0 0 0 0 0 0 0 0 0 0 0 0 0 0 0 0 0 0 0 0 0 4599 4599 4599 4329 5661 5661 5661 5661 6690 5661 5661 6133 5661 4906 5256 5661 5256 5256 6133 5661 4599 0 0 0 0 0 0 0 171 168 3199 3345 3345 3345 3199 2453 0 1839 1839 1711 1672 1501 1415 1388 1338 1362 1291 1206 1247 1168 1187 1132 1098 0 0 0 0 1008 0 968 931 968 886 886 908 908 908 876 865 0 0 0 0 735 743 728 728 714 707 714 694 694 669 132 131 131 131 131 651 663 657 669 651 639 629 639 618 574 579 570 561 557 561 561 0 0 0 525 518 504 0 0 0 0 782 766 0 808 0 0 0 474 0 2537 2628 0 0 0 0 0 3679 3504 0 0 4088 0 4329 0 0 0 0 721 0 735 735 758 750 782 791 808 0 0 876 0 886 0 385 383 0 0 0 0 0
    0 0 0 0 0 0 0 0 0 0 0 0 0 0 0 0 0 0 0 0 0 0 0 0 0 0 0 0 0 0 0 0 0 0 0 0 0 0 0 0 0 0 0 0 0 0 0 0 0 0 0 0 0 0 0 0 0 0 0 0 0 0 0 0 0 0 0 0 0 845 845 845 855 845 855 855 855 865 886 897 931 943 968 968 968 981 994 981 994 1008 994 1036 1149 1187 1206 1291 1314 1338 1443 0 0 0 0 0 0 0 0 0 0 0 0 0 0 0 0 0 0 0 0 0 0 0 0 0 0 0 0 0 0 0 0 0 0 0 0 0 0 0 0 0 0 0 0 0 0 0 0 0 0 0 0 0 0 0 0 0 0 4599 4599 4599 4088 5661 5661 5661 5661 6690 5661 5661 6133 6133 4906 5661 5256 5256 5661 6133 5661 5256 0 0 0 0 0 0 0 171 168 3199 3345 3504 3679 3345 2628 0 1839 1839 1752 1672 1501 1415 1362 1338 1362 1291 1187 1226 1149 1168 1132 1082 0 0 0 0 1008 0 955 908 955 876 876 886 0 876 855 0 0 0 0 766 743 743 721 721 714 707 714 694 694 669 131 131 131 131 131 657 663 657 669 651 639 629 639 618 579 579 566 561 553 561 557 0 0 0 525 518 0 0 0 0 766 782 766 782 808 0 0 0 0 0 2537 2628 0 0 325 0 0 3679 3504 0 0 4088 0 4329 4906 0 0 0 0 0 728 735 766 758 799 808 817 855 0 886 886 886 865 383 0 0 0 0 0 0
    0 0 0 0 0 0 0 0 0 0 0 0 0 0 0 0 0 0 0 0 0 0 0 0 0 0 0 0 0 0 0 0 0 0 0 0 0 0 0 0 0 0 0 0 0 0 0 0 0 0 0 0 0 0 0 0 0 0 0 0 0 0 0 0 0 0 0 0 0 836 845 845 845 845 855 855 855 865 886 897 931 943 955 955 955 968 994 994 994 1008 1008 1066 1132 1149 1187 1247 1268 1291 1314 1565 0 0 0 0 0 0 0 0 0 0 0 0 0 0 0 0 0 0 0 0 0 0 0 0 0 0 0 0 0 0 0 0 0 0 0 0 0 0 0 0 0 0 0 0 0 0 0 0 0 0 0 0 0 0 0 0 0 4599 4599 4329 4088 5661 5256 5661 5661 6133 5661 5661 6133 5661 4906 5256 4906 4906 5661 5661 5661 5256 6690 0 0 0 0 0 0 0 0 3199 3345 3504 3873 3504 2830 0 0 1839 1752 1672 1533 1443 1388 1362 1415 1291 1187 1226 1149 1187 1132 1066 0 0 0 0 994 0 955 908 968 865 865 886 0 845 836 826 817 808 782 758 750 735 714 714 707 700 714 0 694 669 131 131 131 130 131 657 663 657 675 651 639 634 639 623 584 579 566 561 553 561 557 549 0 0 525 521 0 0 0 0 766 782 766 782 799 0 0 0 0 0 0 0 0 0 324 3504 0 0 3504 413 411 0 411 0 0 404 406 406 0 0 735 743 782 782 817 817 817 855 0 876 886 897 865 0 381 0 0 0 0 0
    0 0 0 0 0 0 0 0 0 0 0 0 0 0 0 0 0 0 0 0 0 0 0 0 0 0 0 0 0 0 0 0 0 0 0 0 0 0 0 0 0 0 0 0 0 0 0 0 0 0 0 0 0 0 0 0 0 0 0 0 0 0 0 0 0 0 0 0 0 845 845 845 855 845 855 855 855 865 886 897 919 943 955 955 955 968 981 994 1008 1022 1036 1082 1149 1168 1187 1247 1268 1268 1291 1362 1314 0 0 0 0 0 0 0 0 0 0 0 0 0 0 0 0 0 0 0 0 0 0 0 0 0 0 0 0 0 0 0 0 0 0 0 0 0 0 0 0 0 0 0 0 0 0 0 0 0 0 0 0 0 0 0 0 4599 4599 4329 4088 5661 5256 5661 5256 6133 5256 5256 5661 5661 4599 4906 4906 4906 5661 5661 5661 5661 6690 8177 0 0 0 0 0 0 3066 3199 3345 3679 3873 3504 2830 0 0 1839 1795 1672 1533 1443 1388 1362 1415 1291 1168 1206 1149 1168 1115 1066 0 0 0 0 994 0 955 908 968 876 865 886 876 845 826 826 817 799 766 766 750 735 721 721 721 707 721 0 700 675 131 131 131 130 131 657 663 657 675 651 639 634 639 623 584 574 561 557 553 557 557 549 0 537 529 525 511 0 493 497 774 782 766 782 799 0 0 0 0 0 0 0 0 0 0 3504 0 0 0 415 413 411 413 406 0 406 406 406 402 0 735 758 791 799 826 826 826 855 865 876 886 897 876 0 379 0 0 0 0 0
    0 0 0 0 0 0 0 0 0 0 0 0 0 0 0 0 0 0 0 0 0 0 0 0 0 0 0 0 0 0 0 0 0 0 0 0 0 0 0 0 0 0 0 0 0 0 0 0 0 0 0 0 0 0 0 0 0 0 0 0 0 0 0 0 0 0 0 0 0 845 845 845 855 855 855 855 855 865 886 897 908 931 943 943 943 955 981 994 1008 1036 1051 1082 1132 1168 1187 1247 1268 1268 1291 1314 1291 1314 0 0 0 0 0 0 0 0 0 0 0 0 0 0 0 0 0 0 0 0 0 0 0 0 0 0 0 0 0 0 0 0 0 0 0 0 0 0 0 0 0 0 0 0 0 0 0 0 0 0 0 0 0 0 0 4329 4329 3873 3873 5256 4906 5256 4906 5256 4906 4906 5256 5256 4599 4906 4599 4906 5661 5661 6133 5661 6690 7359 6690 0 0 3066 3345 3345 3199 3345 3345 3679 4088 3504 2943 0 0 1795 1795 1672 1565 1443 1362 1362 1415 1291 1132 1206 1132 1149 1098 1051 0 0 0 0 981 968 955 908 968 886 876 886 876 855 836 836 817 791 774 766 758 743 735 728 728 714 728 0 707 0 131 131 131 130 131 657 663 651 669 657 639 634 634 629 584 570 561 557 549 557 557 549 541 541 533 529 514 0 497 497 0 0 766 782 799 0 0 0 468 0 462 465 454 0 0 0 0 0 422 420 418 411 413 408 408 406 406 406 402 0 735 758 791 799 826 826 826 845 855 876 0 897 876 0 379 0 0 0 0 0
    0 0 0 0 0 0 0 0 0 0 0 0 0 0 0 0 0 0 0 0 0 0 0 0 0 0 0 0 0 0 0 0 0 0 0 0 0 0 0 0 0 0 0 0 0 0 0 0 0 0 0 0 0 0 0 0 0 0 0 0 0 0 0 0 0 0 0 0 0 845 855 845 855 855 865 865 865 865 886 897 908 919 943 931 931 955 994 1008 1022 1051 1066 1082 1115 1149 1187 1226 1268 1268 1291 1291 1291 1314 0 0 0 0 0 0 0 0 0 0 0 0 0 0 0 0 0 0 0 0 0 0 0 0 0 0 0 0 0 0 0 0 0 0 0 0 0 0 0 0 0 0 0 0 0 0 0 0 0 0 0 0 0 0 0 4088 4088 3679 4088 5256 4906 5256 4906 5256 5256 5256 5661 5256 4599 4906 4599 5256 6133 5661 5661 5661 6133 7359 6690 0 0 3066 3504 3504 3345 3679 3504 4088 4329 3679 3066 0 0 0 1752 1672 1565 1443 1362 1362 1443 1291 1115 1206 1132 1132 1082 1036 0 0 0 0 981 968 968 919 981 919 897 908 886 855 836 836 808 791 782 774 758 743 735 735 735 721 728 0 707 0 131 131 131 130 131 657 657 651 669 657 639 634 634 634 584 566 557 557 549 557 557 549 541 541 537 529 521 0 500 500 0 0 0 774 799 0 0 0 468 0 462 462 454 0 0 0 0 0 422 420 418 413 413 408 408 406 406 406 402 0 743 758 791 799 826 826 826 845 855 876 886 897 876 0 379 0 0 0 0 0
    0 0 0 0 0 0 0 0 0 0 0 0 0 0 0 0 0 0 0 0 0 0 0 0 0 0 0 0 0 0 0 0 0 0 0 0 0 0 0 0 0 0 0 0 0 0 0 0 0 0 0 0 0 0 0 0 0 0 0 0 0 0 0 0 0 0 0 0 0 855 855 855 855 855 865 876 876 876 886 897 908 908 931 931 931 955 994 1022 1036 1051 1066 1082 1098 1132 1168 1206 1226 1268 1268 1291 1268 1291 1291 0 0 0 0 0 0 0 0 0 0 0 0 0 0 0 0 0 0 0 0 0 0 0 0 0 0 0 0 0 0 0 0 0 0 0 0 0 0 0 0 0 0 0 0 0 0 0 0 0 0 0 0 0 0 4088 4088 3873 4599 5661 5256 5661 4906 5661 5661 5256 5661 5256 4329 4906 4599 5256 6133 5256 5661 5661 6133 7359 6690 0 0 0 3679 3679 3345 3679 3345 4088 4329 3679 3199 0 1752 1752 1711 1635 1565 1443 1362 1388 1443 1291 1132 1206 1132 1115 1082 1036 0 0 0 234 981 968 968 931 994 931 908 897 897 855 836 817 808 791 782 774 758 750 743 735 735 721 728 0 707 0 131 131 130 130 131 651 657 645 669 657 645 634 634 639 593 561 557 553 549 557 557 549 541 541 541 533 525 0 0 500 493 497 0 0 0 0 0 0 0 0 462 462 457 0 0 0 0 0 425 422 420 413 413 408 408 406 406 406 402 0 743 750 791 799 826 826 826 845 855 876 876 897 876 0 377 0 0 0 0 0
    0 0 0 0 0 0 0 0 0 0 0 0 0 0 0 0 0 0 0 0 0 0 0 0 0 0 0 0 0 0 0 0 0 0 0 0 0 0 0 0 0 0 0 0 0 0 0 0 0 0 0 0 0 0 0 0 0 0 0 0 0 0 0 0 0 0 0 0 0 855 855 865 865 865 865 876 876 886 886 897 897 908 919 919 931 955 994 1022 1036 1051 1066 1082 1098 1115 1168 1187 1206 1247 1268 1247 1268 1268 1268 1291 0 0 0 0 0 0 0 0 0 0 0 0 0 0 0 0 0 0 0 0 0 0 0 0 0 0 0 0 0 0 0 0 0 0 0 0 0 0 0 0 0 0 0 0 0 0 0 0 0 0 0 0 0 4088 3873 3873 4906 5256 5256 5661 4906 5256 5256 5256 5661 4906 4599 4906 4599 5256 5661 5256 5661 5661 6133 7359 6690 0 0 0 3873 3873 3679 3679 3345 4088 4599 3679 3199 0 1711 1672 1635 1599 1533 1471 1362 1388 1415 1291 1132 1206 1132 1098 1066 1022 0 0 0 232 981 968 981 943 1008 943 897 897 886 845 826 817 808 791 782 782 766 750 743 743 743 721 728 714 0 0 130 130 130 130 131 645 651 645 663 657 645 634 639 645 603 557 561 553 549 553 557 549 541 541 541 529 0 0 0 504 493 500 0 0 0 0 0 0 0 0 465 462 457 454 446 0 0 0 425 422 420 413 413 408 406 404 406 406 402 735 743 758 799 808 826 817 817 836 845 865 876 886 865 0 375 0 0 0 0 0
    0 0 0 0 0 0 0 0 0 0 0 0 0 0 0 0 0 0 0 0 0 0 0 0 0 0 0 0 0 0 0 0 0 0 0 0 0 0 0 0 0 0 0 0 0 0 0 0 0 0 0 0 0 0 0 0 0 0 0 0 0 0 0 0 0 0 0 0 0 855 855 865 865 876 876 876 876 886 897 908 908 908 931 931 943 968 1008 1036 1051 1066 1082 1098 1098 1132 1149 1187 1206 1226 1247 1247 1247 1247 1268 1268 1268 0 0 0 0 0 0 0 0 0 0 0 0 0 0 0 0 0 0 0 0 0 0 0 0 0 0 0 0 0 0 0 0 0 0 0 0 0 0 0 0 0 0 0 0 0 0 0 0 0 0 0 3504 4088 3679 3873 5256 5661 5256 5661 5256 5661 5661 5661 5661 5256 4599 5256 4906 5256 5661 5256 6133 5661 6133 7359 6690 0 0 0 4088 4088 4088 3873 3345 4088 4599 3679 3199 1752 1711 1635 1635 1599 1533 1471 1388 1415 1415 1314 1168 1226 1132 1082 1066 1022 0 0 0 232 994 981 994 981 1022 968 919 908 886 836 826 817 799 791 782 774 766 750 750 743 743 728 735 721 714 0 130 131 130 130 131 651 645 645 663 663 645 639 639 651 608 557 561 553 549 553 553 545 541 541 541 529 0 0 0 504 493 500 0 0 0 0 0 0 471 471 465 459 457 454 446 0 0 0 425 422 420 413 411 406 406 404 404 0 0 0 735 758 799 808 826 817 808 826 836 855 865 865 855 0 0 0 0 0 0 0
    0 0 0 0 0 0 0 0 0 0 0 0 0 0 0 0 0 0 0 0 0 0 0 0 0 0 0 0 0 0 0 0 0 0 0 0 0 0 0 0 0 0 0 0 0 0 0 0 0 0 0 0 0 0 0 0 0 0 0 0 0 0 0 0 0 0 0 0 0 855 855 865 865 876 876 886 886 886 908 919 908 919 931 931 943 968 1008 1022 1036 1066 1082 1082 1098 1115 1149 1168 1187 1206 1226 1226 1247 1247 1247 1268 1268 1268 0 0 0 0 0 0 0 0 0 0 0 0 0 0 0 0 0 0 0 0 0 0 0 0 0 0 0 0 0 0 0 0 0 0 0 0 0 0 0 0 0 0 0 0 0 0 0 0 0 0 3679 4088 3679 4088 5256 5256 5256 6133 5256 5661 5661 5661 6133 5256 4906 5256 4906 5256 5661 5256 6133 5661 6133 7359 6690 0 0 0 4329 4329 4329 4329 3345 4329 4599 3679 3345 1752 1711 1599 1599 1565 1533 1471 1415 1415 1415 1314 1187 1226 1132 1082 1066 1022 0 0 0 0 994 981 1008 994 1051 981 943 919 886 845 826 817 808 791 782 774 774 750 758 750 750 728 743 721 714 0 130 130 130 130 131 651 645 639 663 657 645 639 634 657 608 557 566 557 549 553 553 549 541 541 541 525 0 0 0 0 493 504 0 0 0 0 0 0 471 471 465 459 457 451 446 0 0 0 425 422 420 411 408 406 0 0 404 0 0 0 728 750 791 808 817 808 791 808 826 845 845 845 836 808 0 0 0 0 0 0
    0 0 0 0 0 0 0 0 0 0 0 0 0 0 0 0 0 0 0 0 0 0 0 0 0 0 0 0 0 0 0 0 0 0 0 0 0 0 0 0 0 0 0 0 0 0 0 0 0 0 0 0 0 0 0 0 0 0 0 0 0 0 0 0 0 0 0 0 0 855 865 865 865 886 886 897 886 886 908 919 919 919 931 931 943 955 994 1022 1036 1051 1066 1082 1082 1115 1132 1149 1168 1187 1206 1206 1226 1247 1247 1268 1268 1268 0 0 0 0 0 0 0 0 0 0 0 0 0 0 0 0 0 0 0 0 0 0 0 0 0 0 0 0 0 0 0 0 0 0 0 0 0 0 0 0 0 0 0 0 0 0 0 0 0 0 3679 4088 3504 4088 5256 5256 5256 6133 5661 5256 5661 5661 5661 5256 5256 5256 4906 4906 5661 4906 5661 5661 6133 6690 0 0 0 0 4088 4088 4088 4088 3345 4088 4329 3679 0 1711 1672 1533 1565 1533 1501 1501 1443 1443 1415 1338 1226 1226 1149 1082 1066 1036 0 0 0 0 1008 1008 1036 1008 1066 981 955 919 897 855 845 836 817 799 782 791 774 758 766 758 758 735 743 728 721 0 130 130 130 130 130 651 645 645 663 663 651 634 634 657 608 561 570 566 553 553 553 549 541 541 541 525 0 0 0 0 497 504 0 0 0 0 0 0 474 471 465 457 454 448 446 440 0 0 422 420 418 411 408 404 0 0 0 0 0 0 721 743 791 808 817 799 782 799 817 836 836 826 826 799 0 0 0 0 0 0
    0 0 0 0 0 0 0 0 0 0 0 0 0 0 0 0 0 0 0 0 0 0 0 0 0 0 0 0 0 0 0 0 0 0 0 0 0 0 0 0 0 0 0 0 0 0 0 0 0 0 0 0 0 0 0 0 0 0 0 0 0 0 0 0 0 0 0 0 0 855 865 865 876 886 897 908 908 897 919 919 931 931 943 943 955 968 994 1008 1022 1051 1051 1066 1082 1098 1115 1132 1149 1187 1187 1206 1226 1247 1268 1268 1268 1291 1291 0 0 0 0 0 0 0 0 0 0 0 0 0 0 0 0 0 0 0 0 0 0 0 0 0 0 0 0 0 0 0 0 0 0 0 0 0 0 0 0 0 0 0 0 0 0 0 0 3873 4088 4329 3873 4329 5256 4906 5256 5661 5256 5256 5256 5661 5661 5256 5256 5256 4906 5256 6133 4906 6690 6690 5661 0 0 0 0 0 3679 3873 3873 3873 3345 4088 4088 3873 0 1672 1635 1471 1533 1501 1471 1471 1443 1443 1388 1338 1226 1226 1149 1066 1066 1036 0 0 0 0 1022 1022 1066 1022 1082 981 943 919 897 865 855 845 826 808 799 799 782 766 774 774 774 750 758 735 721 0 130 130 130 130 130 651 645 645 657 669 651 639 634 663 613 561 574 566 553 553 553 549 541 541 541 525 0 0 81 80 0 511 490 490 487 0 0 0 474 471 465 457 457 448 446 438 0 430 420 418 415 408 406 404 0 0 0 0 0 0 0 728 782 817 817 799 774 799 808 826 826 817 808 791 782 0 0 0 0 0
    0 0 0 0 0 0 0 0 0 0 0 0 0 0 0 0 0 0 0 0 0 0 0 0 0 0 0 0 0 0 0 0 0 0 0 0 0 0 0 0 0 0 0 0 0 0 0 0 0 0 0 0 0 0 0 0 0 0 0 0 0 0 0 0 0 0 0 0 0 836 876 865 865 886 886 908 919 919 931 931 943 943 955 955 968 968 994 1008 1022 1051 1051 1066 1082 1082 1115 1115 1132 1187 1168 1187 1226 1247 1268 1291 1291 1291 1291 1338 0 0 0 0 0 0 0 0 0 0 0 0 0 0 0 0 0 0 0 0 0 0 0 0 0 0 0 0 0 0 0 0 0 0 0 0 0 0 0 0 0 0 0 0 0 0 3504 4329 5256 5661 4599 4906 5256 5256 5256 5661 5256 5256 5256 5661 5661 5256 5661 5661 5256 6133 6133 5661 6690 6133 0 0 0 0 0 0 3504 3679 3679 3679 3345 3873 3679 3873 0 1635 1565 1443 1471 1443 1471 1471 1443 1443 1388 1338 1268 1226 1168 1066 1082 1051 1082 0 0 1098 1051 1051 1082 1036 1082 981 931 919 897 876 865 845 836 817 808 799 782 774 782 782 782 750 758 735 721 0 0 130 130 130 131 657 639 651 657 669 651 639 634 663 613 566 579 570 557 549 553 549 541 541 0 525 0 81 81 0 0 0 490 490 487 487 0 0 474 474 468 459 457 448 446 0 0 0 0 415 413 406 0 0 0 0 3504 0 0 0 0 721 0 826 808 791 766 791 799 808 799 799 791 782 774 0 0 0 0 0
    0 0 0 0 0 0 0 0 0 0 0 0 0 0 0 0 0 0 0 0 0 0 0 0 0 0 0 0 0 0 0 0 0 0 0 0 0 0 0 0 0 0 0 0 0 0 0 0 0 0 0 0 0 0 0 0 0 0 0 0 0 0 0 0 0 0 0 0 0 0 0 886 876 897 897 919 931 931 943 943 955 955 968 968 981 981 994 1008 1022 1036 1051 1066 1066 1082 1098 1115 1115 1187 1187 1206 1226 1268 1268 1291 1291 1291 1314 1338 1362 0 0 0 0 0 0 0 0 0 0 0 0 0 0 0 0 0 0 0 0 0 0 0 0 0 0 0 0 0 0 0 0 0 0 0 0 0 0 0 0 0 0 6133 6690 5661 4599 5661 6133 6133 5256 5661 5661 5661 5661 6133 5661 5256 5256 5661 5661 5256 5661 5256 4906 5661 6133 5256 0 0 0 0 0 0 0 0 0 3504 3504 3504 3345 3679 3066 0 1565 1599 1565 1415 1443 1443 1443 1443 1443 1443 1388 1338 1268 1206 1149 1066 1098 1066 1098 1098 1082 1115 1082 1066 1115 1051 1082 981 931 919 897 876 865 845 836 826 817 799 782 774 782 782 782 750 758 735 728 0 0 0 0 0 0 657 639 651 657 669 651 639 634 663 613 570 584 574 557 549 549 545 537 541 0 525 0 0 0 0 0 0 490 490 490 490 0 0 477 477 471 0 459 448 446 435 0 0 0 0 0 0 0 0 0 0 0 0 0 0 0 0 0 886 808 782 750 774 791 791 774 766 774 766 758 0 0 0 0 0
    0 0 0 0 0 0 0 0 0 0 0 0 0 0 0 0 0 0 0 0 0 0 0 0 0 0 0 0 0 0 0 0 0 0 0 0 0 0 0 0 0 0 0 0 0 0 0 0 0 0 0 0 0 0 0 0 0 0 0 0 0 0 0 0 0 0 0 0 0 0 0 0 994 955 919 931 943 943 955 955 968 968 968 968 981 981 981 1008 1008 1036 1036 1051 1066 1066 1098 1115 1115 1168 1168 1187 1226 1247 1268 1291 1291 1291 1314 1338 1362 1362 0 0 0 0 0 0 0 0 0 0 0 0 0 0 0 0 0 0 0 0 0 0 0 0 0 0 0 0 0 0 0 0 0 0 0 0 0 3679 5256 5256 4088 5256 5256 4906 4329 5256 6133 6133 5256 5661 5661 5661 6133 6133 5661 5256 5256 5661 5661 5256 5661 5256 5661 6133 6133 0 0 0 0 0 0 0 0 0 0 3504 3504 3504 3345 3504 2299 1635 1565 1599 1565 1443 1471 1471 1471 1471 1501 1471 1415 1338 1291 1226 1168 1082 1115 1082 1115 1115 1098 1115 1098 1082 1115 1051 1051 968 919 908 897 876 855 845 836 826 817 799 791 782 791 791 791 750 758 743 728 0 0 0 0 0 0 657 639 651 657 669 651 639 634 657 613 574 584 574 557 549 549 545 537 0 0 525 518 0 0 0 0 0 490 490 490 490 490 0 481 0 474 0 462 448 446 435 0 425 0 0 0 0 0 0 391 393 0 0 0 0 0 0 0 968 808 774 743 774 791 782 766 758 766 766 758 0 0 0 0 0
    0 0 0 0 0 0 0 0 0 0 0 0 0 0 0 0 0 0 0 0 0 0 0 0 0 0 0 0 0 0 0 0 0 0 0 0 0 0 0 0 0 0 0 0 0 0 0 0 0 0 0 0 0 0 0 0 0 0 0 0 0 0 0 0 0 0 0 0 0 0 0 0 0 968 968 931 943 955 955 955 968 968 968 968 981 981 981 1008 1022 1036 1051 1051 1066 1082 1082 1115 1115 1149 1168 1187 1206 1247 1247 1291 1291 1314 1338 1338 1362 1362 0 0 0 0 0 0 0 0 0 0 0 0 0 0 0 0 0 0 0 0 0 0 0 0 0 0 0 0 0 0 0 0 0 0 0 3345 3504 3504 4906 5661 4329 5661 5661 5256 5256 5661 6133 6133 5256 5661 5661 5661 6133 5661 5661 5256 5256 5661 5661 5661 5661 5256 6133 5661 6133 0 0 0 0 0 0 0 0 0 0 3679 3504 3504 3504 3345 2102 1599 1599 1599 1565 1443 1471 1471 1471 1471 1501 1443 1388 1338 1291 1206 1187 1098 1132 1098 1132 1115 1115 1115 1115 1082 1098 1036 1036 968 919 908 897 876 855 855 836 826 808 799 791 782 791 791 791 766 766 750 735 0 0 0 0 0 0 663 639 657 657 669 645 639 634 657 613 579 584 574 557 549 549 545 537 0 0 525 521 0 0 0 0 0 490 490 487 490 490 487 484 0 474 0 462 448 443 0 0 0 0 0 0 0 0 0 391 389 0 391 0 0 0 0 1338 0 0 774 750 774 791 782 766 766 774 766 758 0 0 0 0 0
    0 0 0 0 0 0 0 0 0 0 0 0 0 0 0 0 0 0 0 0 0 0 0 0 0 0 0 0 0 0 0 0 0 0 0 0 0 0 0 0 0 0 0 0 0 0 0 0 0 0 0 0 0 0 0 0 0 0 0 0 0 0 0 0 0 0 0 0 0 0 0 0 0 981 994 981 968 968 981 968 981 981 981 968 981 994 994 1008 1022 1036 1051 1051 1066 1082 1082 1115 1098 1149 1132 1187 1206 1247 1226 1268 1291 1291 1314 1338 1362 1362 1388 0 0 0 0 0 0 0 0 0 0 0 0 0 0 0 0 0 0 0 0 0 0 0 0 0 0 0 0 0 0 0 0 0 0 3504 3679 3679 4088 5256 4599 5256 5661 5256 5256 5661 6133 6133 5661 6133 6133 6133 6133 6133 5661 5256 5661 5661 5661 5661 5661 5256 5661 5661 6690 6133 8177 8177 0 0 0 0 0 0 0 3873 3679 3504 3504 3345 2102 0 1599 1565 1599 1471 1471 1471 1471 1471 1501 1415 1415 1338 1291 1206 1187 1115 1149 1098 1149 1132 1115 1115 1115 1082 1098 1036 1022 968 919 908 908 876 876 855 836 826 808 791 791 782 791 791 791 766 766 750 735 0 0 0 0 0 0 663 645 657 657 669 645 639 634 651 613 579 588 574 557 549 549 545 0 0 0 529 525 0 0 0 0 0 487 487 487 490 490 0 484 0 477 0 462 446 0 432 0 420 411 0 0 0 2628 0 389 389 0 389 0 0 0 0 1362 0 0 766 750 782 799 791 774 766 774 766 758 0 0 0 0 0
    0 0 0 0 0 0 0 0 0 0 0 0 0 0 0 0 0 0 0 0 0 0 0 0 0 0 0 0 0 0 0 0 0 0 0 0 0 0 0 0 0 0 0 0 0 0 0 0 0 0 0 0 0 0 0 0 0 0 0 0 0 0 0 0 0 0 0 0 0 0 1115 1051 0 981 981 981 994 994 981 968 981 981 981 981 994 994 994 1008 1022 1036 1051 1051 1066 1082 1082 1098 1098 1149 1132 1187 1206 1247 1247 1268 1291 1291 1314 1338 1362 1362 1388 1415 0 0 0 0 0 0 0 0 0 0 0 0 0 0 0 0 0 0 0 0 0 0 0 0 0 0 0 0 0 0 0 0 0 3504 4088 3873 4599 5256 4906 5661 5661 5256 5661 5661 6133 6133 6133 6133 6133 6690 6690 6133 6133 5256 5661 5256 5661 5256 5256 4906 5661 5256 6690 5256 6690 6690 8177 8177 9199 0 0 0 0 3873 3679 3504 3345 3199 2044 0 1635 1533 1599 1471 1471 1471 1471 1471 1501 1415 1415 1314 1291 1187 1206 1115 1149 1098 1149 1132 1115 1115 1115 1082 1082 1022 1022 968 931 919 919 897 876 865 845 836 817 791 791 782 791 782 782 766 758 743 0 0 0 0 0 0 0 0 645 657 657 669 645 639 634 651 613 584 588 579 561 549 549 549 0 0 0 529 529 0 0 0 0 0 487 484 484 490 490 0 0 0 0 0 0 0 2453 430 0 420 411 0 0 0 2537 0 389 0 109 387 0 0 0 0 0 0 0 766 758 791 799 791 782 766 774 766 766 0 0 0 0 0
    0 0 0 0 0 0 0 0 0 0 0 0 0 0 0 0 0 0 0 0 0 0 0 0 0 0 0 0 0 0 0 0 0 0 0 0 0 0 0 0 0 0 0 0 0 0 0 0 0 0 0 0 0 0 0 0 0 0 0 0 0 0 0 0 0 0 0 0 0 1206 1115 1098 1082 1022 1008 994 1008 1022 994 968 981 994 994 994 994 1008 994 1022 1022 1051 1051 1051 1066 1082 1082 1098 1098 1149 1149 1206 1206 1247 1247 1291 1291 1314 1314 1362 1388 1388 1415 1415 1471 0 0 0 0 0 0 0 0 0 0 0 0 0 0 0 0 0 0 0 0 0 0 0 0 0 0 0 0 0 0 0 0 3504 3873 4088 4599 4599 4906 5256 5256 4906 5661 5661 6133 6133 6690 6133 6690 6690 7359 5661 5661 5256 5661 5256 5256 4906 4906 4599 5256 5256 6133 5661 6690 7359 8177 8177 0 0 0 6133 0 4329 3873 3504 3345 3199 2044 1599 1672 1565 1599 1501 1471 1471 1471 1471 1501 1388 1415 1314 1291 1187 1206 1115 1149 1098 1149 1132 1115 1115 1132 1082 1098 1022 1022 968 919 919 919 897 886 865 855 845 826 791 791 791 791 791 782 766 750 743 0 0 0 0 0 0 0 0 651 657 657 669 651 639 634 651 613 584 588 574 561 549 549 549 0 0 0 533 533 0 0 0 0 0 484 484 484 493 490 0 0 0 0 0 0 0 2374 0 0 0 411 0 0 0 0 0 389 0 109 0 0 0 0 0 0 0 0 0 766 799 808 799 791 774 782 774 766 0 0 0 0 0
    0 0 0 0 0 0 0 0 0 0 0 0 0 0 0 0 0 0 0 0 0 0 0 0 0 0 0 0 0 0 0 0 0 0 0 0 0 0 0 0 0 0 0 0 0 0 0 0 0 0 0 0 0 0 0 0 0 0 0 0 0 0 0 0 0 0 0 0 0 1187 1132 1098 1132 1082 1082 1051 1036 1051 1036 994 994 1008 1008 1008 1022 1022 1022 1036 1036 1051 1051 1066 1066 1082 1082 1098 1098 1168 1168 1206 1226 1268 1268 1291 1314 1338 1338 1362 1388 1388 1388 1415 1443 1471 0 0 0 0 0 0 0 0 0 0 0 0 0 0 0 0 0 0 0 0 0 0 0 0 0 0 0 0 0 0 0 3504 3679 3873 4599 4599 4329 5256 5256 4599 5256 5661 5661 6133 6133 6133 6133 6133 6690 5256 5661 4906 5256 4906 5256 4599 4906 4906 5661 5661 6133 5661 6690 7359 8177 8177 0 0 0 8177 0 4906 4088 3679 3504 3199 2102 1711 1752 1565 1635 1533 1501 1471 1471 1471 1501 1388 1415 1291 1291 1168 1206 1115 1149 1098 1149 1132 0 1115 1132 1082 1098 1022 1022 968 919 919 919 897 886 865 865 845 826 791 782 791 791 791 791 774 750 735 0 0 0 131 131 131 130 0 651 657 651 669 651 639 634 651 613 584 584 574 557 545 549 0 0 0 0 533 0 0 549 0 0 0 0 0 0 493 493 0 111 0 168 0 0 0 0 0 694 0 411 0 0 0 0 0 389 385 109 0 0 0 0 0 0 448 0 0 774 0 817 808 799 782 782 774 774 0 0 0 0 0
    0 0 0 0 0 0 0 0 0 0 0 0 0 0 0 0 0 0 0 0 0 0 0 0 0 0 0 0 0 0 0 0 0 0 0 0 0 0 0 0 0 0 0 0 0 0 0 0 0 0 0 0 0 0 0 0 0 0 0 0 0 0 0 0 0 0 0 0 0 1149 1115 1098 1132 1098 1098 1051 1036 1036 1022 1008 994 1008 1022 1022 1022 1036 1036 1051 1051 1066 1066 1066 1082 1098 1082 1115 1098 1168 1168 1206 1226 1247 1268 1291 1314 1314 1338 1362 1388 1388 1415 1388 1415 1415 0 0 0 0 0 0 0 0 0 0 0 0 0 0 0 0 0 0 0 0 0 0 0 0 0 0 0 0 0 0 0 3504 3679 3873 4599 4599 4329 5256 5661 4906 5661 5661 6133 6133 6133 6690 6133 6133 6690 5256 5256 5256 5256 5256 4906 4599 4906 4906 5661 5256 5661 5256 6133 7359 8177 8177 0 0 0 0 0 5661 4329 3873 3679 3199 2102 1795 1795 0 1672 1565 1501 1501 1501 1501 1533 1388 1471 1291 1291 1168 1206 1115 1168 1115 1149 1132 0 0 1132 1066 1082 1008 1008 955 931 919 919 897 886 876 865 836 817 774 782 791 791 782 782 774 750 743 1501 0 0 131 131 131 130 0 651 657 651 669 651 639 634 651 613 584 584 566 557 545 549 549 0 0 0 533 0 0 0 0 0 0 0 481 481 493 493 0 111 0 0 0 0 0 0 0 687 694 411 0 0 0 397 0 391 387 109 385 0 0 0 0 0 443 432 0 774 0 817 808 799 791 791 774 774 0 0 0 0 0
    0 0 0 0 0 0 0 0 0 0 0 0 0 0 0 0 0 0 0 0 0 0 0 0 0 0 0 0 0 0 0 0 0 0 0 0 0 0 0 0 0 0 0 0 0 0 0 0 0 0 0 0 0 0 0 0 0 0 0 0 0 0 0 0 0 0 0 0 0 1149 1115 1098 1132 1132 1115 1098 1082 1051 1036 1008 1008 1022 1008 1022 1036 1051 1051 1066 1066 1066 1066 1082 1082 1115 1098 1115 1115 1149 1168 1206 1226 1247 1247 1268 1291 1291 1314 1338 1362 1388 1415 1415 1415 1415 1415 0 0 0 0 0 0 0 0 0 0 0 0 0 0 0 0 0 0 0 0 0 0 0 0 0 0 0 0 0 0 3504 3873 3679 4329 4599 4599 5256 5256 4906 5256 5661 5661 5661 5256 6133 6133 5661 6133 5256 5256 4906 5256 4906 4599 4599 4906 4906 5256 5256 5661 5256 6133 6690 7359 7359 7359 0 7359 6690 3873 5256 4599 4329 4088 3345 2299 1989 1839 0 1672 1635 1533 1533 1533 1533 1565 1388 1501 1291 1291 1168 1226 1115 1168 1115 1132 0 0 0 0 1066 1066 1008 994 968 931 919 919 908 908 886 876 836 808 774 782 791 791 782 782 774 750 743 1443 0 0 131 131 131 130 0 651 657 651 669 645 639 629 645 613 584 579 561 553 545 549 553 545 0 545 533 0 0 0 0 0 0 0 484 484 497 493 0 0 0 0 0 0 0 2453 0 694 694 411 0 404 404 397 0 393 0 0 0 0 0 0 0 435 438 432 427 0 425 0 808 0 0 791 0 0 0 0 0 0 0
    0 0 0 0 0 0 0 0 0 0 0 0 0 0 0 0 0 0 0 0 0 0 0 0 0 0 0 0 0 0 0 0 0 0 0 0 0 0 0 0 0 0 0 0 0 0 0 0 0 0 0 0 0 0 0 0 0 0 0 0 0 0 0 0 0 0 0 0 0 1149 1115 1098 1132 1149 1149 1149 1132 1051 1036 1022 1008 1022 1022 1022 1036 1066 1066 1082 1082 1098 1082 1082 1098 1115 1098 1115 1115 1149 1168 1187 1206 1247 1247 1268 1291 1291 1314 1338 1362 1388 1415 1415 1415 1415 1443 1443 0 0 0 0 0 0 0 0 0 0 0 0 0 0 0 0 0 0 0 0 0 0 0 0 0 0 0 0 0 3504 3504 3504 3873 4329 4329 4906 5256 4906 4906 5256 5661 5661 4906 5661 6133 5256 5661 4906 4906 4906 5256 5256 4599 4599 5256 4906 5256 5256 5661 5256 6133 6133 6690 6690 6690 6690 5661 5661 3873 4599 4599 4088 3873 3345 2537 2299 1936 0 1711 1635 1565 1533 1533 1533 1533 1388 1471 1314 1314 1168 1226 1132 1187 1132 0 0 0 0 0 1066 1066 1008 994 968 931 919 931 919 919 908 897 836 826 791 791 799 791 782 782 782 750 743 0 0 0 131 131 131 130 0 651 657 651 669 645 639 629 645 613 584 574 561 553 545 553 553 545 545 545 533 0 0 0 0 497 0 0 0 0 493 0 0 0 0 0 0 0 0 2628 0 0 0 413 411 406 406 399 0 0 0 0 0 0 0 0 0 430 435 430 425 0 425 0 817 0 373 0 0 0 0 0 0 0 0
    0 0 0 0 0 0 0 0 0 0 0 0 0 0 0 0 0 0 0 0 0 0 0 0 0 0 0 0 0 0 0 0 0 0 0 0 0 0 0 0 0 0 0 0 0 0 0 0 0 0 0 0 0 0 0 0 0 0 0 0 0 0 0 0 0 0 0 0 0 1132 1115 1098 1115 1132 1149 1168 1149 1066 1066 1066 1036 1066 1051 1066 1051 1082 1098 1098 1098 1115 1098 1098 1098 1132 1115 1115 1132 1149 1168 1187 1206 1247 1247 1268 1291 1291 1314 1338 1388 1415 1415 1415 1415 1443 1443 1471 1471 0 0 0 0 0 0 0 0 0 0 0 0 0 0 0 0 0 0 0 0 0 0 0 0 0 0 0 0 0 3504 3679 3679 4329 4599 4906 5256 4906 5256 5661 5661 6133 5256 6133 6133 5256 5661 5256 5256 4599 5256 5661 4599 4599 5256 5256 5256 5256 6133 5661 6133 6133 6690 6690 6133 6133 5661 5661 4088 4599 4329 3873 3873 3345 2628 2374 1936 0 1711 1672 1565 1533 1533 1501 1533 1362 1443 1338 1314 1168 1226 1132 1187 1132 0 0 0 0 1132 1066 1066 1008 994 968 931 919 931 931 943 919 919 865 845 808 799 799 791 782 782 782 743 743 0 0 0 131 131 131 130 0 651 657 651 669 645 639 629 639 613 584 570 561 553 545 557 557 545 545 545 533 0 0 545 0 0 0 0 0 0 0 0 0 0 0 0 0 0 251 2725 0 0 0 415 411 408 408 402 0 0 0 0 0 0 0 0 0 430 432 430 425 427 425 0 0 385 371 0 0 362 0 0 0 0 0
    0 0 0 0 0 0 0 0 0 0 0 0 0 0 0 0 0 0 0 0 0 0 0 0 0 0 0 0 0 0 0 0 0 0 0 0 0 0 0 0 0 0 0 0 0 0 0 0 0 0 0 0 0 0 0 0 0 0 0 0 0 0 0 0 0 0 0 0 0 1115 1098 1098 1115 1149 1149 1187 1168 1115 1168 1168 1098 1115 1066 1098 1066 1098 1115 1098 1098 1132 1115 1115 1115 1132 1132 1132 1149 1168 1187 1187 1206 1247 1247 1268 1291 1291 1338 1362 1415 1443 1443 1443 1471 1471 1471 1471 1471 1533 0 0 0 0 0 0 0 0 0 0 0 0 0 0 0 0 0 0 0 0 0 0 0 0 0 0 0 0 3873 4088 3873 4088 4599 4906 4906 4906 4906 5661 5661 6133 5256 6133 6133 5661 5661 5661 5256 4599 4906 5661 4599 4599 5256 5256 5256 4906 5661 5661 5661 6133 6690 5661 5661 5661 5661 5256 4088 4599 4599 4329 4329 3504 2725 2453 1989 0 1711 1672 1565 1501 1501 1501 1501 1362 1415 1362 1314 1168 1226 1132 1187 1132 1132 0 0 0 1115 1066 1082 1008 1008 968 931 919 943 955 943 919 931 886 865 817 808 808 791 782 782 774 743 743 721 0 0 131 131 130 130 0 651 657 645 663 645 639 629 639 613 588 570 561 557 549 557 561 549 541 541 533 0 0 0 507 0 0 0 0 0 0 0 0 0 0 0 0 0 251 2830 0 309 0 418 0 0 411 404 0 0 0 0 0 0 0 0 0 427 432 430 425 425 425 404 0 385 371 371 367 362 0 0 0 0 0
    0 0 0 0 0 0 0 0 0 0 0 0 0 0 0 0 0 0 0 0 0 0 0 0 0 0 0 0 0 0 0 0 0 0 0 0 0 0 0 0 0 0 0 0 0 0 0 0 0 0 0 0 0 0 0 0 0 0 0 0 0 0 0 0 0 0 0 0 0 1132 1098 1098 1115 1149 1149 1168 1149 1115 1149 1187 1132 1132 1082 1115 1082 1098 1115 1115 1098 1115 1115 1132 1132 1149 1149 1149 1168 1187 1206 1206 1226 1247 1268 1268 1291 1291 1338 1362 1415 1443 1443 1471 1471 1501 1533 1501 1501 1533 1599 0 0 0 0 0 0 0 0 0 0 0 0 0 0 0 0 0 0 0 0 0 0 0 0 0 0 0 4329 3873 4599 3873 4599 4906 4906 4906 5256 5661 6133 6133 5661 6133 6133 5661 5256 5661 5256 4599 4599 5661 4599 4599 5256 5661 5256 4906 5256 5661 5256 4906 5661 5256 5256 4906 5256 5256 3873 4329 4906 4329 4329 3504 2725 2537 2044 0 1711 1672 1565 1501 1533 1501 1501 1388 1443 1388 1314 1168 1226 1132 1187 1132 1115 0 0 0 1115 1066 1082 1008 994 968 931 919 931 943 931 919 931 886 865 0 808 808 791 782 791 774 735 743 728 0 0 131 131 130 130 0 651 657 645 663 651 639 629 645 613 593 566 561 557 549 561 561 549 541 541 0 0 0 0 507 0 490 0 0 0 0 0 0 0 0 0 171 171 0 0 0 309 0 0 0 0 413 406 0 0 0 0 0 0 0 0 0 427 430 430 422 425 425 404 402 387 371 369 366 362 0 0 0 0 0
    0 0 0 0 0 0 0 0 0 0 0 0 0 0 0 0 0 0 0 0 0 0 0 0 0 0 0 0 0 0 0 0 0 0 0 0 0 0 0 0 0 0 0 0 0 0 0 0 0 0 0 0 0 0 0 0 0 0 0 0 0 0 0 0 0 0 0 0 0 1149 1132 1115 1149 1168 1187 1187 1187 1149 1168 1187 1149 1149 1098 1115 1098 1115 1115 1132 1098 1132 1132 1132 1149 1168 1168 1168 1187 1206 1226 1206 1226 1247 1268 1268 1291 1314 1362 1362 1415 1471 1471 1471 1471 1501 1501 1501 1501 1501 1533 0 0 0 0 0 0 0 0 0 0 0 0 0 0 0 0 0 0 0 0 0 0 0 0 0 7359 7359 4599 3873 4599 4088 4906 5256 4906 4906 5256 5661 6133 6133 5256 6133 6133 5256 5256 5256 4906 4329 4329 5661 4599 4599 5256 5661 5256 5256 5256 6133 4906 4906 5256 4906 5256 4599 4906 4906 3873 4599 4906 4329 4329 3504 2830 2628 2102 1795 1711 1672 1565 1533 1533 1471 1501 1388 1415 1443 1338 1168 1226 1149 1187 1132 1115 1115 0 0 1132 1051 1082 994 994 968 919 908 931 943 943 919 931 876 855 0 0 799 791 791 791 782 735 743 728 714 0 0 131 130 130 0 657 657 645 663 645 639 629 645 613 598 566 561 561 549 561 566 549 541 541 0 0 0 138 507 0 490 0 0 0 0 0 0 0 0 0 171 171 252 0 0 0 0 728 735 0 415 408 0 0 0 0 0 0 0 0 0 427 430 430 425 425 427 404 402 385 369 367 364 360 0 0 0 0 0
    0 0 0 0 0 0 0 0 0 0 0 0 0 0 0 0 0 0 0 0 0 0 0 0 0 0 0 0 0 0 0 0 0 0 0 0 0 0 0 0 0 0 0 0 0 0 0 0 0 0 0 0 0 0 0 0 0 0 0 0 0 0 0 0 0 0 0 0 0 1168 1149 1132 1168 1187 1206 1206 1206 1187 1206 1206 1168 1149 1098 1132 1098 1115 1132 1132 1132 1149 1149 1149 1168 1187 1187 1187 1206 1206 1247 1226 1247 1247 1268 1291 1314 1314 1362 1362 1415 1471 1471 1501 1501 1501 1533 1501 1501 1501 1501 1533 0 0 0 0 0 0 0 0 0 0 0 0 0 0 0 0 0 0 0 0 0 0 0 6690 7359 7359 6690 4599 4906 4906 5256 5661 5661 5661 5661 6133 6690 6690 5661 6133 6133 5661 5256 5256 4906 4329 4329 5661 4599 4599 5256 5661 5661 5256 4906 5661 4599 4599 4906 4599 4599 4329 4599 4906 3873 4329 4599 4329 4329 3504 2943 2830 2230 1839 1752 1672 1565 1533 1533 1501 1533 1388 1443 1501 1338 1168 1226 1149 1187 1132 1115 0 0 0 1132 1051 1051 994 981 968 908 897 919 943 943 919 931 876 855 0 0 0 799 791 791 782 743 750 735 721 0 131 131 130 130 0 657 651 645 657 645 639 629 645 613 603 566 570 566 553 561 566 549 541 541 0 0 0 138 507 0 0 0 0 0 0 0 0 0 0 0 171 171 0 0 721 721 0 735 750 0 420 413 411 0 0 0 0 0 0 0 0 430 432 430 427 427 430 406 399 379 367 364 360 357 0 0 0 0 0
    0 0 0 0 0 0 0 0 0 0 0 0 0 0 0 0 0 0 0 0 0 0 0 0 0 0 0 0 0 0 0 0 0 0 0 0 0 0 0 0 0 0 0 0 0 0 0 0 0 0 0 0 0 0 0 0 0 0 0 0 0 0 0 0 0 0 0 0 0 1168 1168 1132 1168 1187 1206 1206 1206 1187 1206 1206 1187 1149 1115 1132 1115 1115 1149 1168 1149 1187 1187 1187 1206 1206 1226 1206 1226 1226 1247 1226 1247 1247 1268 1268 1291 1314 1362 1388 1415 1471 1501 1533 1565 1565 1533 1565 1565 1565 1533 1533 1533 0 0 0 0 0 0 0 0 0 0 0 0 0 0 0 4906 4599 4599 4599 4599 5256 5256 5661 7359 6133 6690 5256 4906 5256 5661 6133 6133 6133 6133 6690 7359 7359 6133 6690 6133 5661 5256 5256 5256 4329 4329 5661 4599 4906 5256 5661 5256 4906 4906 5661 4599 4599 4599 4329 4329 4329 4329 4599 3679 4329 4599 4329 4329 3504 3066 2943 2374 1887 1752 1672 1599 1533 1565 1501 1533 1388 1415 1533 1338 1168 1226 1168 1168 1132 1115 0 0 0 1115 1036 1036 981 981 968 897 897 919 931 943 919 919 876 865 0 0 0 799 791 799 782 743 750 743 728 0 131 131 130 130 0 657 645 645 657 645 639 634 645 618 608 570 574 570 557 561 566 553 541 541 0 0 0 138 0 0 140 0 0 0 0 0 0 0 0 0 171 171 0 0 728 728 735 743 750 0 422 0 0 0 0 0 0 0 0 0 0 427 430 430 427 427 430 406 393 373 364 360 357 355 0 0 0 0 0
    0 0 0 0 0 0 0 0 0 0 0 0 0 0 0 0 0 0 0 0 0 0 0 0 0 0 0 0 0 0 0 0 0 0 0 0 0 0 0 0 0 0 0 0 0 0 0 0 0 0 0 0 0 0 0 0 0 0 0 0 0 0 0 0 0 0 0 0 0 1187 1187 1149 1168 1187 1206 1206 1206 1206 1206 1226 1206 1168 1149 1149 1168 1168 1187 1206 1206 1226 1247 1247 1247 1247 1247 1247 1247 1247 1268 1247 1247 1268 1268 1291 1314 1338 1388 1388 1443 1471 1533 1565 1565 1599 1565 1599 1599 1599 1599 1565 1565 0 0 0 0 0 0 0 0 0 0 0 0 0 0 3504 5661 6133 5661 5661 5256 6690 6690 6690 8177 6690 6690 4906 4906 5661 5256 5661 5661 6133 6133 6133 7359 7359 6133 6690 6690 6133 5256 5256 5256 4599 4329 5661 4906 4906 5661 5661 5661 5256 4906 6133 4906 4329 4599 4329 4599 4329 4329 4599 3679 4088 4599 4329 4329 3504 3066 2830 2374 1887 1711 1672 1599 1533 1533 1501 1533 1388 1415 1565 1338 1168 1247 1168 1168 1115 1115 1098 0 0 1115 1036 1036 994 994 968 908 908 919 943 943 908 919 897 886 0 0 0 808 799 799 791 735 758 750 743 0 0 130 130 130 0 663 645 645 657 645 639 634 651 623 613 579 584 579 561 566 566 553 541 541 0 0 0 139 139 138 140 0 0 0 0 0 0 0 0 0 171 171 0 735 735 735 743 743 758 0 425 0 0 0 408 413 0 411 0 0 0 427 430 430 427 427 430 404 385 369 362 359 357 355 0 0 0 0 0
    0 0 0 0 0 0 0 0 0 0 0 0 0 0 0 0 0 0 0 0 0 0 0 0 0 0 0 0 0 0 0 0 0 0 0 0 0 0 0 0 0 0 0 0 0 0 0 0 0 0 0 0 0 0 0 0 0 0 0 0 0 0 0 0 0 0 0 0 0 1226 1226 1206 1206 1206 1226 1226 1226 1226 1226 1247 1226 1187 1187 1187 1226 1206 1247 1247 1226 1247 1268 1291 1291 1268 1291 1268 1268 1291 1291 1268 1268 1291 1291 1291 1338 1338 1388 1415 1443 1501 1533 1565 1599 1599 1599 1635 1635 1635 1635 1635 1635 1672 0 0 0 0 0 0 0 0 0 0 0 0 4329 3679 5256 4906 5256 5256 4599 6133 5256 5661 6133 5661 5661 4599 4906 5256 4906 5661 5256 6133 6133 6133 7359 7359 6133 7359 6690 6133 5256 5256 5256 4329 4599 6133 5256 5256 5661 5661 5661 5256 5256 5661 4599 4329 4599 4599 4906 4599 4599 4599 3873 4088 4599 4329 4329 3504 3066 2943 2628 1936 0 1672 1599 1533 1533 1501 1533 1388 1415 1565 1338 1149 1226 1168 1168 1115 1115 1115 1098 1098 1132 1036 1051 994 994 955 897 908 908 931 931 897 919 908 897 0 0 0 808 808 799 791 735 758 758 750 0 0 0 0 0 0 669 651 651 657 651 645 639 657 629 618 584 588 584 561 566 566 553 541 541 0 0 525 0 139 138 140 0 0 0 0 0 0 0 0 0 171 171 0 735 743 743 750 750 758 0 425 0 0 0 408 413 413 411 0 0 0 425 430 0 430 425 430 402 377 367 362 357 357 355 0 0 0 0 0
    0 0 0 0 0 0 0 0 0 0 0 0 0 0 0 0 0 0 0 0 0 0 0 0 0 0 0 0 0 0 0 0 0 0 0 0 0 0 0 0 0 0 0 0 0 0 0 0 0 0 0 0 0 0 0 0 0 0 0 0 0 0 0 0 0 0 0 0 0 1291 1268 1247 1247 1226 1247 1226 1247 1268 1247 1268 1268 1226 1226 1226 1247 1226 1247 1268 1247 1268 1268 1291 1291 1291 1314 1291 1291 1314 1314 1314 1291 1291 1314 1314 1338 1362 1388 1415 1443 1501 1533 1565 1599 1599 1599 1672 1672 1672 1711 1711 1672 1711 0 0 0 0 0 0 0 0 0 0 0 3873 4329 3679 5256 4599 5256 5256 4599 5661 5256 5661 6133 5256 5661 4599 4906 5256 4906 5661 4906 5661 5661 6133 7359 7359 6133 7359 6690 6690 6133 5256 5661 4906 4599 6690 5661 5256 5256 5661 6133 5256 4906 5661 4599 4599 4906 4906 4906 4906 5256 4599 4088 4599 4329 4599 4599 3679 3066 3066 2943 1989 0 1672 1635 1565 1501 1501 1565 1415 1415 1533 1314 1149 1226 1187 1168 1115 1115 1115 1098 1098 1149 1022 1022 968 968 943 897 908 908 931 931 897 908 908 886 0 0 0 808 808 799 791 735 758 766 758 735 0 0 0 0 0 669 651 657 657 657 645 639 657 639 618 0 588 584 566 561 561 549 537 537 0 525 521 0 139 0 140 0 0 0 0 0 0 0 171 170 171 171 0 0 743 743 750 750 758 0 0 0 0 420 411 413 0 413 0 0 0 425 430 0 430 422 0 402 377 367 362 357 357 353 0 0 0 0 0
    0 0 0 0 0 0 0 0 0 0 0 0 0 0 0 0 0 0 0 0 0 0 0 0 0 0 0 0 0 0 0 0 0 0 0 0 0 0 0 0 0 0 0 0 0 0 0 0 0 0 0 0 0 0 0 0 0 0 0 0 0 0 0 0 0 0 0 0 0 1388 1338 1314 1291 1268 1268 1247 1268 1291 1291 1291 1291 1247 1247 1247 1291 1268 1291 1291 1268 1268 1291 1314 1338 1314 1338 1314 1314 1338 1338 1338 1314 1314 1314 1338 1362 1362 1388 1415 1471 1501 1533 1565 1599 1599 1599 1672 1711 1711 1752 1711 1672 1711 0 0 0 0 0 0 0 0 0 0 0 4599 4906 3873 5661 4329 4906 4906 4599 5661 5256 5661 5661 5256 5661 5256 5256 5661 4906 5661 5256 5661 6133 6133 6690 6690 6133 7359 6690 7359 6133 5661 6133 5661 5256 6690 5256 4906 4906 5256 5661 5256 4906 5661 4599 4906 5256 4906 5256 5256 5256 4599 4088 4599 4599 4599 4906 3679 3199 3066 3066 1989 1672 1672 1635 1565 1533 1501 1565 1415 1388 1443 1291 1149 1206 1187 1168 1115 1115 1115 1098 1082 1149 1008 1008 955 955 931 908 919 897 919 919 908 908 908 897 0 0 0 808 808 799 791 735 766 766 766 750 728 728 0 0 0 675 645 657 657 657 645 639 651 645 618 0 593 588 566 561 561 549 537 537 533 525 521 0 139 0 140 0 0 0 0 0 0 0 0 170 171 171 0 251 0 743 758 750 758 0 427 0 0 422 411 413 0 0 0 0 0 427 430 0 430 420 0 406 379 367 364 357 357 355 0 0 0 0 0
    0 0 0 0 0 0 0 0 0 0 0 0 0 0 0 0 0 0 0 0 0 0 0 0 0 0 0 0 0 0 0 0 0 0 0 0 0 0 0 0 0 0 0 0 0 0 0 0 0 0 0 0 0 0 0 0 0 0 0 0 0 0 0 0 0 0 0 0 0 1471 1388 1388 1338 1314 1338 1268 1314 1362 1314 1362 1338 1291 1268 1314 1338 1314 1314 1338 1314 1314 1338 1362 1362 1362 1388 1362 1362 1388 1362 1362 1338 1338 1338 1338 1362 1388 1415 1415 1443 1501 1533 1599 1599 1635 1599 1711 1752 1752 1839 1752 1711 1752 0 0 0 0 0 0 0 0 0 7359 3873 5256 5661 4088 5256 4599 4599 4906 4599 5661 5256 5661 5661 5256 6133 5661 5256 5661 4906 5256 5256 5256 5661 5661 6133 6690 6133 7359 7359 7359 6690 5661 6133 6133 6133 6690 5256 4906 4906 5256 5661 5256 5256 5256 4906 4906 5256 4906 5256 5661 4906 4599 4088 4599 4599 4599 4599 3679 3199 3066 3066 2044 1711 1711 1635 1565 1533 1533 1533 1415 1388 1388 1268 1149 1206 1187 1168 1132 1132 1132 1115 1098 1168 1008 994 968 955 943 919 931 908 931 931 919 919 919 908 0 0 0 808 0 799 799 735 774 766 766 750 735 735 728 0 0 675 651 657 657 657 645 639 651 645 618 167 593 588 566 557 557 549 537 537 0 525 521 521 139 74 140 141 0 0 0 0 0 0 0 171 171 171 0 0 0 0 0 750 0 430 430 427 425 422 0 0 0 0 0 0 0 427 430 430 430 420 0 408 381 367 364 357 359 355 0 0 0 0 0
    0 0 0 0 0 0 0 0 0 0 0 0 0 0 0 0 0 0 0 0 0 0 0 0 0 0 0 0 0 0 0 0 0 0 0 0 0 0 0 0 0 0 0 0 0 0 0 0 0 0 0 0 0 0 0 0 0 0 0 0 0 0 0 0 0 0 0 0 0 1471 1388 1415 1362 1362 1388 1338 1415 1443 1388 1388 1362 1338 1314 1338 1388 1338 1362 1362 1362 1362 1388 1415 1415 1415 1443 1415 1415 1415 1388 1362 1362 1338 1338 1362 1388 1388 1415 1443 1443 1501 1533 1599 1599 1635 1599 1711 1752 1795 1887 1795 1795 1795 1887 0 0 0 0 0 0 0 0 6690 4088 5256 5661 4329 5256 4906 4906 5256 4599 5661 5256 5661 5661 5661 5661 5661 5661 6133 4906 5661 5256 5256 5661 5661 6133 6133 5661 7359 7359 7359 7359 6133 6690 6690 6133 6690 5256 4906 4906 5661 5661 5661 5256 5661 5256 5661 5661 5661 5661 6133 5661 4906 4599 4906 4599 4599 4906 3679 3199 3199 3066 2044 1672 1711 1635 1565 1501 1501 1501 1388 1362 1338 1268 1149 1206 1187 1168 1149 1149 1149 0 1115 1187 1008 994 955 955 943 931 943 919 943 943 931 943 943 931 0 0 0 808 799 791 791 728 766 766 766 750 728 728 721 0 700 681 657 663 657 657 645 639 645 651 618 0 593 588 566 557 557 549 537 541 0 525 521 521 0 74 0 0 0 0 0 0 0 0 0 0 171 171 0 0 0 0 758 750 0 0 0 427 427 425 0 0 0 0 0 0 0 427 432 430 432 420 0 0 381 366 364 357 359 357 0 0 0 0 0
    0 0 0 0 0 0 0 0 0 0 0 0 0 0 0 0 0 0 0 0 0 0 0 0 0 0 0 0 0 0 0 0 0 0 0 0 0 0 0 0 0 0 0 0 0 0 0 0 0 0 0 0 0 0 0 0 0 0 0 0 0 0 0 0 0 0 0 0 0 1501 1415 1415 1362 1388 1415 1338 1415 1415 1388 1388 1388 1388 1314 1362 1415 1388 1415 1415 1388 1415 1443 1471 1471 1443 1471 1443 1471 1471 1443 1388 1388 1362 1362 1362 1388 1388 1415 1443 1443 1471 1533 1599 1635 1635 1599 1752 1795 1839 1936 1887 1839 1839 1989 0 0 0 0 0 0 0 7359 7359 4599 5661 6133 4599 5256 5256 4906 5256 4599 5661 5256 5661 5661 5256 5661 5256 5256 5661 4599 5256 4906 4906 5256 5256 6133 6133 5661 7359 7359 8177 7359 6690 6133 6690 6133 6690 5256 4329 4599 5256 5256 5256 5256 5256 4906 5661 6133 5661 6133 6690 6133 4906 4599 4906 4599 4906 4906 3679 3199 3199 3066 2044 0 1711 1635 1565 1501 1501 1501 1388 1338 1338 1247 1149 1206 1187 1168 1149 1149 0 0 1115 1206 1008 981 955 955 943 931 943 919 955 955 955 955 943 943 919 0 0 808 791 782 774 728 766 758 750 743 721 714 714 707 687 675 657 663 657 663 645 639 639 651 618 0 593 588 570 557 557 553 537 0 0 529 525 525 74 74 0 0 0 0 0 0 0 0 0 0 171 171 0 0 0 2628 0 0 0 0 0 430 0 0 0 0 0 0 0 0 0 0 432 430 432 420 865 0 0 0 364 357 360 359 0 0 0 0 0
    0 0 0 0 0 0 0 0 0 0 0 0 0 0 0 0 0 0 0 0 0 0 0 0 0 0 0 0 0 0 0 0 0 0 0 0 0 0 0 0 0 0 0 0 0 0 0 0 0 0 0 0 0 0 0 0 0 0 0 0 0 0 0 0 0 0 0 0 0 1599 1501 1501 1443 1471 1501 1415 1533 1443 1388 1388 1415 1415 1362 1388 1471 1415 1443 1443 1415 1443 1471 1471 1501 1471 1501 1471 1501 1533 1471 1388 1388 1362 1362 1362 1388 1388 1415 1415 1443 1471 1533 1599 1635 1635 1635 1752 1795 1936 2044 1989 1936 1936 1989 0 0 0 0 0 0 0 7359 6690 4906 6133 6133 4906 5256 5256 4906 5256 4599 5661 4906 5661 5256 5256 5661 5256 5256 6133 4906 5661 4599 4906 5256 5256 5661 5661 4906 6690 7359 8177 7359 6690 6690 6690 6690 7359 5661 4906 4906 5661 5256 5256 5256 5256 5256 5661 6133 5661 6133 7359 6690 4906 4906 4906 4906 4906 4906 3679 3199 3199 3066 2044 0 1711 1635 1565 1501 1501 1501 1362 1338 1314 1247 1149 1206 1187 1187 1149 1168 0 0 0 1206 1022 981 955 968 955 955 955 943 968 968 955 968 943 943 886 0 0 791 782 774 766 735 766 750 743 735 714 707 707 700 681 675 657 663 651 663 645 639 639 651 613 584 593 588 570 557 561 553 541 0 0 533 529 525 74 74 74 0 0 0 0 0 0 0 0 0 172 172 0 0 0 2725 0 0 0 0 0 430 0 0 0 0 0 0 0 0 0 0 432 432 432 420 0 0 876 0 0 359 362 360 0 0 0 0 0
    0 0 0 0 0 0 0 0 0 0 0 0 0 0 0 0 0 0 0 0 0 0 0 0 0 0 0 0 0 0 0 0 0 0 0 0 0 0 0 0 0 0 0 0 0 0 0 0 0 0 0 0 0 0 0 0 0 0 0 0 0 0 0 0 0 0 0 0 0 1599 1565 1565 1565 1599 1599 1533 1599 1565 1471 1415 1443 1471 1415 1443 1471 1443 1471 1471 1415 1443 1471 1471 1501 1471 1501 1501 1501 1565 1533 1388 1388 1362 1362 1388 1415 1388 1415 1443 1471 1501 1565 1599 1635 1635 1635 1752 1839 1989 2164 2044 2044 2044 2102 0 0 0 0 0 0 0 7359 6690 5661 6133 6133 6133 5661 5661 5256 5256 4906 6133 4906 5661 5256 5256 5256 4906 5256 5661 4906 5661 4329 4906 5256 5661 5661 5661 4906 6133 6690 8177 7359 6690 6133 7359 6690 7359 5661 4906 4906 5256 5661 5661 5256 5256 5661 5661 6133 6133 7359 7359 7359 5256 4906 5256 4906 5256 4906 3679 3199 3066 3066 2044 0 1711 1635 1565 1533 1501 1501 1362 1338 1314 1247 1168 1187 1187 1187 1168 1168 0 0 0 1206 1051 994 968 968 968 968 981 955 981 968 968 955 931 908 865 808 799 782 782 774 766 735 758 750 743 728 707 700 700 700 0 675 657 663 651 663 645 639 634 657 613 579 588 584 570 557 561 557 541 0 0 533 533 0 74 74 74 0 0 0 0 0 0 0 0 0 172 0 0 0 0 0 774 0 0 0 0 430 0 427 0 0 0 0 0 0 0 0 432 432 432 422 0 0 876 0 0 360 0 366 0 0 0 0 0
    0 0 0 0 0 0 0 0 0 0 0 0 0 0 0 0 0 0 0 0 0 0 0 0 0 0 0 0 0 0 0 0 0 0 0 0 0 0 0 0 0 0 0 0 0 0 0 0 0 0 0 0 0 0 0 0 0 0 0 0 0 0 0 0 0 0 0 0 0 1565 1533 1565 1599 1672 1711 1635 1635 1599 1565 1501 1533 1533 1443 1443 1443 1443 1443 1443 1415 1415 1471 1471 1471 1471 1471 1501 1471 1565 1533 1388 1388 1362 1362 1388 1415 1415 1443 1443 1471 1501 1533 1635 1635 1635 1635 1795 1839 1936 2164 2102 2102 2102 2164 0 0 0 0 0 0 0 7359 6690 6690 6690 6690 6690 5256 5256 4906 4906 4599 5661 4599 5256 4906 4906 5256 4906 5661 5661 5256 6133 4599 4906 5256 5661 5661 5661 5256 6133 6690 7359 6690 6690 6133 7359 6690 7359 5661 4906 5256 5661 5661 6133 5661 5661 6133 6690 7359 7359 7359 8177 8177 5661 5256 5661 4906 5256 4906 3679 3199 3199 3066 2164 0 1711 1672 1565 1533 1501 1501 1362 1314 1291 1226 1168 1187 1187 1187 1168 1168 0 0 0 1206 1082 1008 0 981 981 981 994 968 981 968 968 931 865 836 836 782 774 774 774 774 766 743 758 750 735 728 700 694 694 694 0 675 657 663 651 663 639 634 629 645 608 574 588 584 570 557 566 561 545 0 553 537 537 0 74 74 74 0 0 0 0 0 0 0 0 0 0 0 0 0 0 0 774 0 0 0 774 0 0 0 0 0 0 0 0 0 0 0 435 435 432 425 0 0 0 0 369 362 0 0 0 0 0 0 0
    0 0 0 0 0 0 0 0 0 0 0 0 0 0 0 0 0 0 0 0 0 0 0 0 0 0 0 0 0 0 0 0 0 0 0 0 0 0 0 0 0 0 0 0 0 0 0 0 0 0 0 0 0 0 0 0 0 0 0 0 0 0 0 0 0 0 0 0 0 1565 1565 1635 1672 1752 1752 1711 1672 1635 1635 1635 1599 1565 1471 1471 1443 1443 1443 1443 1415 1415 1471 1471 1501 1501 1501 1501 1501 1565 1599 1415 1415 1388 1388 1415 1443 1443 1443 1471 1501 1501 1533 1635 1635 1635 1635 1795 1839 1936 2164 2164 2164 2164 2164 0 0 0 0 0 0 0 7359 7359 8177 8177 7359 8177 6133 6133 5256 4906 4906 6133 4599 5256 5256 5256 5661 5661 6690 6133 6133 6690 5661 5256 5661 6133 6133 6133 5661 6133 6690 7359 6690 7359 6690 7359 6690 6690 5661 4906 5256 5661 5661 6133 6133 6133 6133 7359 8177 7359 8177 0 8177 6133 4906 5661 5256 5256 4906 3679 3199 3199 3066 2102 1752 1711 1672 1599 1565 1533 1501 1362 1314 1291 1247 1168 1168 1187 1187 1187 0 0 0 0 1206 1115 1022 0 1008 1008 1008 1022 994 1008 981 981 931 865 808 808 758 758 766 774 766 758 743 758 750 735 728 700 694 694 694 0 669 651 657 645 663 639 634 629 639 608 570 588 584 574 557 566 566 549 0 557 541 0 74 74 74 74 0 0 0 0 0 0 0 0 0 0 0 0 0 0 0 782 0 0 799 782 0 0 0 0 0 0 0 0 0 0 0 435 435 432 427 0 0 0 0 371 366 0 373 0 0 0 0 0
    0 0 0 0 0 0 0 0 0 0 0 0 0 0 0 0 0 0 0 0 0 0 0 0 0 0 0 0 0 0 0 0 0 0 0 0 0 0 0 0 0 0 0 0 0 0 0 0 0 0 0 0 0 0 0 0 0 0 0 0 0 0 0 0 0 0 0 0 0 1501 1565 1565 1672 1711 1795 1672 1635 1672 1672 1672 1635 1565 1533 1501 1471 1501 1501 1471 1415 1443 1501 1533 1533 1533 1533 1533 1533 1599 1672 1443 1443 1415 1388 1388 1443 1471 1471 1501 1533 1533 1565 1635 1672 1635 1635 1839 1839 1936 2102 2164 2164 2164 2230 0 0 0 0 0 0 3873 4906 5661 6133 6690 7359 8177 6133 8177 6133 5256 5661 6690 5256 5661 5661 5661 6133 6133 7359 6690 6133 7359 6133 6133 5661 6133 6133 6133 5661 6133 6690 7359 6690 7359 6690 7359 6690 6690 5661 4906 5256 5661 5256 6133 5661 5661 6133 6690 7359 6690 7359 7359 6690 7359 4906 5661 5661 5661 5256 3873 3199 3199 3066 2044 1752 1711 1635 1599 1565 1533 1501 1362 1314 1291 1247 1187 1168 1187 1187 0 0 0 0 0 1187 1149 1022 0 1022 1022 1022 1022 1008 1022 994 981 943 855 799 782 750 743 766 774 774 766 743 758 750 735 728 700 694 687 687 0 669 657 657 645 663 639 629 623 639 603 566 588 584 574 557 570 570 553 0 561 0 74 74 74 74 74 0 0 0 0 0 0 0 0 0 0 0 0 0 0 0 782 0 0 799 791 0 0 0 0 0 0 0 0 0 0 0 435 435 432 427 0 432 0 0 373 0 375 375 0 0 0 0 0
    0 0 0 0 0 0 0 0 0 0 0 0 0 0 0 0 0 0 0 0 0 0 0 0 0 0 0 0 0 0 0 0 0 0 0 0 0 0 0 0 0 0 0 0 0 0 0 0 0 0 0 0 0 0 0 0 0 0 0 0 0 0 0 0 0 0 0 0 0 1501 1565 1533 1599 1672 1752 1635 1599 1599 1635 1672 1672 1565 1471 1501 1533 1599 1599 1599 1471 1471 1565 1565 1533 1565 1533 1533 1501 1599 1672 1501 1533 0 0 0 0 0 0 0 1635 1599 1635 1711 1711 1672 1635 1795 1839 1887 2044 2102 2102 2102 2164 0 0 0 0 0 3066 4088 4088 4329 5256 6133 6690 6690 6133 0 7359 6133 7359 8177 5256 6133 6133 6133 6690 6133 7359 6690 6133 7359 6133 5661 5661 6133 6133 5661 5661 6133 6133 6690 6690 6690 6690 7359 6690 6690 6133 4906 5661 5661 5661 6133 5661 5661 6133 6133 7359 6133 6690 7359 6690 7359 5256 6133 6133 5661 5256 3873 3345 3199 3066 2044 1752 1711 1635 1599 1599 1533 1501 1362 1338 1314 1247 1187 1168 1187 1187 0 0 0 0 1168 1187 1168 1022 0 1036 1022 1022 1022 1008 1008 994 981 931 855 808 782 758 750 766 774 774 766 750 758 750 0 721 694 687 687 687 669 669 657 663 645 663 639 629 623 639 603 566 584 579 574 561 570 574 557 0 561 0 74 74 74 74 74 77 77 0 0 0 102 0 0 0 0 0 0 0 0 758 782 782 799 799 791 0 0 0 0 0 0 0 0 0 0 0 435 435 432 427 0 432 0 0 375 343 377 375 0 0 0 0 0
    0 0 0 0 0 0 0 0 0 0 0 0 0 0 0 0 0 0 0 0 0 0 0 0 0 0 0 0 0 0 0 0 0 0 0 0 0 0 0 0 0 0 0 0 0 0 0 0 0 0 0 0 0 0 0 0 0 0 0 0 0 0 0 0 0 0 0 0 0 1471 1599 1565 1565 1635 1711 1599 1565 1565 1599 1599 1599 1443 1338 1415 1501 1565 1599 1565 1443 1471 1599 1599 1565 1533 1533 1501 1533 1599 1672 1565 0 0 0 0 0 0 0 0 0 0 0 1752 1752 1672 1599 1795 1795 1839 1989 2044 2102 2102 2230 0 0 0 0 3504 3345 4088 4088 4329 5256 5661 5661 6133 6133 8177 8177 6690 8177 0 6133 7359 7359 6690 7359 6133 7359 6690 6690 8177 6133 6133 6133 6133 6690 6133 6133 5661 6133 6690 6133 6690 6133 7359 6690 6690 6690 5256 5661 6133 6133 6133 5661 6133 5661 6133 7359 6690 7359 8177 7359 8177 5661 6690 6690 6133 5661 4088 3345 3199 2943 2044 1752 1711 1635 1635 1599 1565 1533 1388 1338 1314 1247 1206 1149 1206 1206 0 0 0 0 1168 1168 1187 0 0 1022 1022 1022 1022 1022 1022 1008 994 943 865 808 774 758 750 774 782 782 774 758 758 750 134 721 687 687 681 681 663 669 657 663 645 663 634 629 623 639 603 566 584 579 574 557 570 574 557 0 557 0 0 74 74 74 74 77 0 0 0 0 102 0 0 0 0 0 0 0 0 758 782 782 799 799 791 758 0 0 0 0 0 0 0 0 0 0 435 435 432 427 0 432 0 0 375 337 0 0 0 0 0 0 0
    0 0 0 0 0 0 0 0 0 0 0 0 0 0 0 0 0 0 0 0 0 0 0 0 0 0 0 0 0 0 0 0 0 0 0 0 0 0 0 0 0 0 0 0 0 0 0 0 0 0 0 0 0 0 0 0 0 0 0 0 0 0 0 0 0 0 0 0 0 1471 1635 1599 1533 1635 1672 1599 1501 1533 1533 1565 1533 1471 1362 1415 1471 1599 1635 1565 1443 1471 1635 1635 1565 1533 1501 1501 1501 1599 1672 1635 0 2102 0 0 0 0 0 0 0 0 0 2044 1839 1711 1635 1839 1839 1887 2374 2453 2628 2628 0 0 0 0 4906 3873 3679 4329 4329 4599 5256 5256 5661 5661 6133 7359 8177 6133 8177 8177 6690 0 8177 7359 8177 6690 8177 7359 7359 8177 6133 6133 6133 6133 6133 6133 6133 5661 6133 6690 6133 6133 6133 7359 6690 6690 6690 5661 6133 6690 6690 6133 5661 5661 6133 6133 7359 6690 7359 8177 7359 8177 5661 6133 6133 6133 5661 4088 3345 3199 2943 2102 1795 1752 1672 1672 1635 1599 1565 1415 1362 1338 1268 1226 1115 1206 1187 0 0 0 0 0 0 1187 0 657 1036 1022 1022 1022 1022 1022 1008 1008 955 876 817 782 766 758 774 791 782 782 766 758 750 0 721 687 681 681 681 663 669 657 657 645 663 639 634 623 639 603 566 579 574 566 557 566 570 553 0 0 0 74 74 74 74 74 77 77 0 0 0 102 0 0 0 0 0 0 735 750 758 782 782 799 808 799 766 0 0 0 0 0 0 0 0 0 0 435 435 432 427 432 432 0 0 0 336 319 333 0 0 0 0 0
    0 0 0 0 0 0 0 0 0 0 0 0 0 0 0 0 0 0 0 0 0 0 0 0 0 0 0 0 0 0 0 0 0 0 0 0 0 0 0 0 0 0 0 0 0 0 0 0 0 0 0 0 0 0 0 0 0 0 0 0 0 0 0 0 0 0 0 0 0 1471 1635 1635 1501 1635 1672 1599 1471 1501 1533 1599 1599 1533 1443 1501 1471 1672 0 1711 1471 1471 1672 1672 1635 1635 1635 1565 1565 1635 0 0 3679 3199 0 0 0 0 0 0 0 0 0 3504 2453 1795 1752 2044 2164 0 3679 3679 4329 5661 0 0 0 6133 4906 4088 3873 4329 4329 4599 4906 4906 5661 5661 6133 6690 7359 6133 7359 7359 7359 8177 0 8177 0 7359 0 8177 8177 0 7359 6690 6690 6690 6690 6133 6133 6133 6133 6133 6133 6133 6133 7359 7359 6690 7359 6133 6690 6690 6690 6133 5661 6133 6133 6690 6690 6690 7359 7359 7359 8177 5661 6133 6133 6133 5661 4088 3345 3199 2830 2102 1795 1752 1711 1672 1635 1599 1565 1415 1388 1314 1268 1247 1115 1187 1187 0 0 0 0 0 0 1206 0 651 1036 1036 1022 1022 1008 1008 1008 1008 968 897 836 799 782 766 782 799 791 791 774 758 758 0 721 687 681 681 681 663 669 657 657 645 663 639 634 623 639 608 566 574 570 561 553 561 566 553 0 0 0 74 74 74 74 74 77 77 0 0 0 102 0 0 0 0 0 0 735 750 758 782 791 808 808 808 774 0 0 0 0 0 0 0 0 0 0 432 432 430 425 430 430 0 0 0 334 0 328 0 0 0 0 0
    0 0 0 0 0 0 0 0 0 0 0 0 0 0 0 0 0 0 0 0 0 0 0 0 0 0 0 0 0 0 0 0 0 0 0 0 0 0 0 0 0 0 0 0 0 0 0 0 0 0 0 0 0 0 0 0 0 0 0 0 0 0 0 0 0 0 0 0 0 1388 1565 1533 1415 1565 1599 1565 1443 1443 1471 1565 1599 1565 1471 1565 0 0 8177 4329 0 0 4906 0 0 0 0 1752 1672 0 0 4088 4906 4088 0 0 0 0 0 0 0 0 0 5661 2943 2102 1839 2830 3066 4906 6133 6690 6690 8177 0 0 6133 6690 5256 4329 3873 4329 4599 4906 5256 4906 5661 5661 6133 6690 6690 6133 6133 6690 7359 7359 8177 8177 0 7359 0 7359 7359 8177 7359 7359 6133 6690 6133 6690 6690 6133 6133 6133 6133 6133 5661 6690 6690 6133 6133 5661 6133 6133 6133 5661 5661 6133 5661 6133 6690 6690 6690 7359 7359 7359 5661 6133 6133 6133 5661 4329 3504 3199 2725 1989 1795 1752 1711 1635 1635 1599 1565 1443 1415 1314 1268 1247 1115 1187 1187 0 0 0 0 0 1132 1206 0 0 1051 1036 1036 1036 1008 1008 994 994 968 919 865 817 799 774 799 808 799 799 791 766 766 133 721 687 687 681 681 663 675 657 657 645 663 634 634 623 639 603 566 570 566 557 549 557 561 549 0 0 537 0 74 74 74 74 0 77 0 0 0 102 0 0 0 0 0 0 735 750 758 782 791 808 817 817 0 0 0 0 0 0 0 0 0 0 0 432 432 427 425 427 427 0 0 0 334 0 325 0 0 0 0 0
    0 0 0 0 0 0 0 0 0 0 0 0 0 0 0 0 0 0 0 0 0 0 0 0 0 0 0 0 0 0 0 0 0 0 0 0 0 0 0 0 0 0 0 0 0 0 0 0 0 0 0 0 0 0 0 0 0 0 0 0 0 0 0 0 0 0 0 0 0 1388 1565 1471 1415 1565 1599 1565 1443 1415 1443 0 0 0 0 0 0 0 0 0 0 0 0 0 0 0 7359 0 0 0 5661 6690 6690 6133 0 0 0 0 0 0 0 0 0 7359 3873 3066 3504 4088 4329 5661 6690 7359 7359 7359 0 0 6690 7359 5661 4906 4088 4599 4906 5256 5661 4906 6133 5661 6690 6690 6690 6133 6690 7359 8177 8177 8177 8177 0 8177 0 7359 7359 8177 7359 6690 6133 6690 6133 6133 6690 6133 6133 5661 5661 6133 5661 6690 6133 6133 5661 5256 6133 6133 6133 5661 5256 5661 5256 6133 6690 6133 6133 6690 6690 7359 5661 6133 6133 6133 6133 4906 3679 3504 2725 1887 1795 1752 1672 1635 1635 1599 1565 1443 1443 1314 1268 1268 1115 1187 1187 1187 1187 0 0 0 1132 1187 1036 0 1036 1036 1036 1036 1008 994 994 1008 981 955 897 826 808 782 808 817 808 808 799 766 774 0 721 694 687 681 681 663 675 663 657 645 663 634 629 623 634 603 566 566 561 0 0 553 557 545 0 537 533 0 0 74 74 74 74 77 0 0 0 102 172 172 0 0 0 0 0 0 758 782 791 808 826 826 0 0 0 0 0 0 0 0 0 0 0 430 430 427 422 425 425 0 0 0 0 0 0 0 0 0 0 0
    0 0 0 0 0 0 0 0 0 0 0 0 0 0 0 0 0 0 0 0 0 0 0 0 0 0 0 0 0 0 0 0 0 0 0 0 0 0 0 0 0 0 0 0 0 0 0 0 0 0 0 0 0 0 0 0 0 0 0 0 0 0 0 0 0 0 0 0 0 1388 1533 1443 1388 1565 1533 1533 1443 1388 1415 0 0 0 0 0 0 0 0 0 0 0 0 0 0 0 0 0 0 0 0 0 8177 8177 0 0 0 0 0 0 0 0 0 8177 5661 3504 5256 5661 5661 6133 7359 8177 8177 8177 0 0 6690 7359 6690 5256 4329 4906 4906 5256 5661 4906 5661 5661 6690 6690 6133 6133 6690 6690 8177 0 0 0 0 0 0 7359 7359 7359 7359 6690 6133 6690 6690 6133 6690 6133 6133 6133 6133 6133 5661 6133 6133 5661 5661 5256 5256 5661 5661 4906 4906 5661 5256 5661 6133 5661 6133 6133 6133 6690 5661 5661 6133 6133 6133 5256 3873 3873 2830 1887 1795 1752 1672 1635 1635 1599 1565 1443 1471 1314 1291 1291 1132 1206 1187 1187 1187 0 0 0 1132 1187 0 0 1036 1036 1036 1036 1008 994 994 1008 994 981 955 0 826 817 836 826 817 0 0 766 774 0 721 694 687 681 681 663 675 663 657 645 663 639 634 623 639 608 570 566 0 0 84 553 557 545 0 533 533 0 0 74 74 74 73 0 103 102 0 102 172 172 0 0 0 0 728 0 0 0 791 808 0 0 0 0 0 0 0 0 0 0 0 91 0 0 430 427 420 422 0 157 0 0 0 0 0 0 0 0 0 0
    0 0 0 0 0 0 0 0 0 0 0 0 0 0 0 0 0 0 0 0 0 0 0 0 0 0 0 0 0 0 0 0 0 0 0 0 0 0 0 0 0 0 0 0 0 0 0 0 0 0 0 0 0 0 0 0 0 0 0 0 0 0 0 0 0 0 0 0 0 1362 1443 1415 1362 1533 1501 1533 1471 1362 1388 0 0 0 0 0 0 0 0 0 0 0 0 0 0 0 0 0 0 0 0 0 0 0 0 0 0 0 0 0 0 0 0 8177 6690 4906 7359 7359 7359 7359 0 0 0 0 0 0 8177 8177 7359 6133 4599 5256 4906 5256 5661 4906 5661 5661 6133 6690 6133 6690 6690 6690 8177 8177 8177 0 0 8177 8177 7359 7359 7359 6690 6133 6133 6690 6690 6133 6690 5661 6133 5661 5661 5661 5661 6133 6133 6133 5661 5256 5256 5661 5661 4906 4906 5256 5256 5661 5661 5661 5661 6133 6133 6133 5661 5661 6133 6133 5661 5256 3873 4088 2725 0 1795 1752 1711 1672 1635 1599 1565 1471 1501 1291 1291 1291 1132 1206 1187 1187 1187 0 0 0 0 1206 0 651 1051 1036 1036 1036 1008 994 994 1008 1008 981 981 0 836 845 886 855 0 0 0 774 0 0 721 694 687 681 681 669 675 663 657 645 663 639 634 629 639 608 579 0 0 83 83 0 553 545 0 533 533 533 0 74 74 74 73 0 103 102 103 102 173 172 0 0 0 0 0 0 0 0 0 0 0 0 0 0 0 0 0 0 0 0 0 0 0 0 430 425 420 420 0 158 0 190 0 0 0 0 0 0 0 0
    0 0 0 0 0 0 0 0 0 0 0 0 0 0 0 0 0 0 0 0 0 0 0 0 0 0 0 0 0 0 0 0 0 0 0 0 0 0 0 0 0 0 0 0 0 0 0 0 0 0 0 0 0 0 0 0 0 0 0 0 0 0 0 0 0 0 0 0 0 1362 1388 1388 1362 1533 1501 1533 1471 1338 0 0 0 0 629 629 0 0 0 0 0 0 0 0 0 0 0 0 0 0 0 0 0 0 0 0 0 0 0 0 0 0 0 8177 7359 6133 8177 7359 7359 7359 0 0 0 0 0 0 8177 0 8177 6133 4906 5661 5661 5661 6133 4906 5661 5661 6133 6133 5661 6690 6690 6690 8177 8177 8177 0 0 8177 8177 6690 7359 6690 6690 6133 6133 6690 6133 6133 6690 5661 5661 5661 5661 5661 5661 6133 5661 5661 5256 5661 5661 5661 5661 5256 4906 5661 5256 5661 6133 6133 6133 6133 6133 6133 5256 5661 5661 5256 5256 4906 3873 3873 2725 0 1839 1752 1711 1635 1635 1599 1599 1471 1533 1291 1291 1291 1132 1206 1187 0 0 0 0 0 0 1206 0 0 1051 1051 1051 1036 1008 994 994 1022 1008 994 994 0 931 919 0 0 0 0 0 0 0 0 0 694 687 687 687 663 675 663 657 645 663 634 634 623 639 608 584 0 0 83 83 83 553 545 0 0 533 529 0 74 74 74 73 0 0 102 103 102 173 172 0 0 0 0 0 0 0 0 0 0 0 0 440 0 0 0 0 0 0 0 0 0 0 0 430 425 418 418 0 158 0 191 0 0 0 0 0 0 0 0
    0 0 0 0 0 0 0 0 0 0 0 0 0 0 0 0 0 0 0 0 0 0 0 0 0 0 0 0 0 0 0 0 0 0 0 0 0 0 0 0 0 0 0 0 0 0 0 0 0 0 0 0 0 0 0 0 0 0 0 0 0 0 0 0 0 0 0 0 0 1388 1388 1388 1362 1501 1471 1533 1471 1314 0 0 0 0 629 629 0 0 0 0 0 0 0 0 0 0 0 0 0 0 0 0 0 0 0 0 0 0 0 0 0 0 0 0 8177 8177 0 8177 8177 8177 0 0 0 0 0 0 0 0 0 6690 5661 6690 6690 6690 6690 4906 6133 5661 6133 6133 5661 5661 6133 6133 7359 7359 8177 8177 8177 8177 8177 6690 7359 6690 6133 6133 6133 6690 6133 6133 6690 6133 5661 5661 5256 5661 5256 5661 5256 5661 4906 5661 5256 5661 5661 5256 5256 5661 5256 6133 6133 6690 6690 6690 6133 6690 5661 6133 6133 5661 5256 4599 4088 4329 2830 0 1795 1795 1711 1672 1635 1599 1565 1471 1533 1291 1291 1291 1132 1187 1168 0 0 0 0 0 0 1226 1036 0 1051 1051 1051 1051 1022 0 1022 1036 1036 1008 1066 0 1098 0 0 0 0 0 0 0 0 0 0 700 687 687 687 663 675 663 651 639 657 634 629 623 639 608 588 0 0 0 83 83 553 545 0 0 533 529 0 74 74 74 73 0 0 102 0 0 173 172 0 0 0 0 0 0 0 0 0 0 0 886 0 0 1132 0 0 0 0 0 0 0 0 0 430 425 418 0 0 0 192 192 0 0 0 0 0 0 0 0
    0 0 0 0 0 0 0 0 0 0 0 0 0 0 0 0 0 0 0 0 0 0 0 0 0 0 0 0 0 0 0 0 0 0 0 0 0 0 0 0 0 0 0 0 0 0 0 0 0 0 0 0 0 0 0 0 0 0 0 0 0 0 0 0 0 0 0 0 0 1415 1415 1388 1362 1501 1471 1565 1471 1291 0 0 0 0 629 623 0 0 0 0 0 0 0 0 0 0 0 0 0 0 0 0 0 0 0 0 0 0 0 0 0 0 0 0 0 0 0 0 8177 8177 0 0 0 0 0 0 0 0 0 7359 5661 7359 7359 6690 7359 5256 6133 6133 5661 6133 5661 5661 5661 6133 6690 6690 6690 7359 7359 7359 7359 6690 6690 6690 6690 6690 6133 6690 6133 6133 6690 6133 5661 5661 5256 5661 5256 5661 5256 5661 4906 5256 5256 5661 5661 5256 5256 5661 5256 6133 6690 6690 6690 6690 6133 6690 6133 6133 5661 5256 4599 4329 4088 4329 2830 1887 1795 1752 1711 1635 1635 1599 1565 1471 1533 1291 1291 1291 1115 1187 1168 0 0 0 0 0 0 1226 1051 0 1066 1051 1066 0 0 0 1022 1036 1022 1008 1082 0 1132 0 0 0 0 0 0 0 0 0 0 700 687 687 687 663 675 663 651 639 657 634 629 623 634 613 598 0 0 0 83 83 553 545 0 0 0 529 0 74 74 74 73 0 82 0 0 0 173 0 0 0 0 0 0 0 0 0 0 0 0 897 0 0 0 0 0 0 0 0 0 0 0 430 427 425 418 0 0 0 192 193 0 0 355 0 0 0 0 0
    0 0 0 0 0 0 0 0 0 0 0 0 0 0 0 0 0 0 0 0 0 0 0 0 0 0 0 0 0 0 0 0 0 0 0 0 0 0 0 0 0 0 0 0 0 0 0 0 0 0 0 0 0 0 0 0 0 0 0 0 0 0 0 0 0 0 0 0 0 1415 1443 1415 1388 1501 1443 1533 1471 1187 0 0 0 0 629 623 0 0 0 0 0 0 0 0 0 0 0 0 0 0 0 0 0 0 0 0 0 0 0 0 0 0 0 0 0 0 0 0 0 0 0 0 0 0 0 0 0 0 0 8177 6690 8177 8177 8177 8177 5256 6690 6133 5661 6133 5661 5661 5661 6133 6690 6133 6690 7359 6690 6690 6690 6133 6690 6133 6690 6690 6133 6690 6133 6133 6690 6133 6133 5661 5661 5661 5256 5661 5256 5256 4906 5256 5256 5661 5661 5256 5256 5661 5256 5661 6133 6690 6133 6133 5661 6133 5661 6133 5661 5256 4329 4329 4088 4329 2830 1887 1795 1752 1711 1672 1635 1599 1565 1471 1565 1291 1291 1291 1115 1187 1168 0 0 0 0 0 0 1226 1051 0 1066 1051 1066 0 0 0 0 1036 1022 994 1066 0 0 0 0 0 0 0 0 0 0 0 0 700 687 687 687 663 669 657 645 639 657 629 629 623 634 613 603 0 0 0 83 83 561 549 0 0 0 533 529 74 74 74 73 82 81 81 0 0 174 0 0 0 0 0 0 0 0 0 0 0 0 0 0 432 0 0 0 0 0 0 0 0 427 430 427 425 418 0 0 192 193 194 0 367 364 0 0 0 0 0
    0 0 0 0 0 0 0 0 0 0 0 0 0 0 0 0 0 0 0 0 0 0 0 0 0 0 0 0 0 0 0 0 0 0 0 0 0 0 0 0 0 0 0 0 0 0 0 0 0 0 0 0 0 0 0 0 0 0 0 0 0 0 0 0 0 0 0 0 0 1415 1443 1415 1415 1471 1415 1501 1471 0 0 0 0 634 634 0 0 0 0 0 0 0 0 0 0 0 0 0 0 0 0 0 0 0 0 0 0 0 0 0 0 0 0 0 0 0 126 0 0 0 0 0 0 0 0 8177 8177 8177 8177 7359 6690 8177 8177 8177 0 5661 7359 6690 5256 6133 5256 5661 5661 6133 6690 6133 6133 6690 6133 6690 6690 6133 6690 6133 6690 6133 6133 6133 6133 6133 6690 6133 6133 5661 5661 5661 5661 5661 5256 5661 5256 5661 5661 6133 5661 5661 5256 5661 5256 5661 5661 6133 6133 6133 5661 6690 5661 6133 6133 5256 4329 4599 4329 4599 2943 0 1795 1752 1711 1672 1672 1599 1565 1471 1635 1314 1314 1314 1132 1187 1168 1168 1187 0 0 0 0 1226 0 0 1066 1066 1082 0 0 0 0 1051 1036 994 0 0 0 0 0 0 0 0 0 0 0 0 0 700 687 687 687 663 669 657 639 639 651 629 629 623 629 618 608 0 0 0 0 0 566 553 0 0 0 533 529 74 74 74 73 81 81 81 0 0 174 0 0 0 0 0 0 0 0 0 0 73 0 0 0 432 0 0 0 0 0 0 430 0 427 430 427 425 418 0 0 192 193 0 369 369 367 0 0 0 0 0
    0 0 0 0 0 0 0 0 0 0 0 0 0 0 0 0 0 0 0 0 0 0 0 0 0 0 0 0 0 0 0 0 0 0 0 0 0 0 0 0 0 0 0 0 0 0 0 0 0 0 0 0 0 0 0 0 0 0 0 0 0 0 0 0 0 0 0 0 0 1415 1443 1415 1415 1471 1415 1471 1471 0 0 0 0 0 629 0 0 0 0 0 0 0 0 0 0 0 0 0 0 0 0 0 0 0 0 0 0 0 0 0 0 0 0 0 0 0 126 126 0 8177 0 0 0 0 0 8177 7359 7359 7359 7359 6690 8177 7359 7359 7359 6133 6690 6690 4599 6133 5661 5661 5661 6133 6690 6133 6133 6690 6690 6690 6690 6690 6690 6133 6690 6133 6133 6133 6690 6690 6690 6133 6133 6133 6133 6133 5661 5661 5661 5661 5661 5661 5661 6133 6133 5661 5256 5661 5661 6133 6133 6133 6133 6133 5661 6690 5661 5661 5661 5256 4088 4329 4088 4088 2943 0 1839 1752 1711 1635 1635 1599 1565 1501 1672 1362 1362 1314 1149 1206 1187 1187 1187 0 0 0 0 1247 0 0 1036 1051 1082 0 0 0 0 1066 1051 0 0 808 0 0 0 0 0 0 0 0 0 0 0 700 687 687 687 663 0 651 639 639 651 629 629 623 629 618 613 170 593 584 570 0 570 557 0 0 0 533 529 74 74 74 73 0 81 0 0 0 0 174 174 0 0 0 0 774 0 799 0 0 446 0 0 435 0 0 0 0 427 0 427 0 425 427 427 425 418 0 0 192 192 194 369 369 367 0 0 0 0 0
    0 0 0 0 0 0 0 0 0 0 0 0 0 0 0 0 0 0 0 0 0 0 0 0 0 0 0 0 0 0 0 0 0 0 0 0 0 0 0 0 0 0 0 0 0 0 0 0 0 0 0 0 0 0 0 0 0 0 0 0 0 0 0 0 0 0 0 0 0 1415 1443 1415 1415 1471 1415 1471 1471 0 0 0 0 0 0 0 0 0 0 0 0 0 0 0 0 0 0 0 0 0 0 0 0 0 0 0 0 0 0 0 0 0 0 0 0 0 0 0 0 0 0 0 0 0 0 8177 6690 7359 7359 6690 6133 7359 6690 6690 6690 6133 6133 6133 3873 6133 5256 5256 5256 5661 6133 5661 6133 6690 6133 6690 6690 6690 6690 6690 6690 6133 6133 6690 6690 6690 6690 6690 6133 6133 6133 6133 6133 5661 5661 5661 5661 5661 5661 6133 6133 6133 5661 6133 5661 6133 6690 6690 6690 6690 6690 7359 6133 6133 5661 5256 4088 4329 3873 3873 2943 0 1795 1752 1672 1635 1635 1565 1565 1501 1672 1362 1362 1338 1168 1226 1206 1206 1206 0 0 0 0 0 0 1036 1022 1051 1098 0 0 0 0 1082 1066 0 0 808 0 0 0 0 0 0 0 808 0 0 0 0 694 687 687 663 0 651 634 634 645 629 629 623 629 629 618 0 593 588 574 561 574 557 0 0 0 533 533 74 74 74 74 570 0 0 0 0 0 0 0 0 0 0 0 791 799 799 817 0 446 0 443 438 0 0 0 430 427 415 427 0 425 427 427 425 420 0 0 191 191 0 369 369 369 0 0 0 0 0
    0 0 0 0 0 0 0 0 0 0 0 0 0 0 0 0 0 0 0 0 0 0 0 0 0 0 0 0 0 0 0 0 0 0 0 0 0 0 0 0 0 0 0 0 0 0 0 0 0 0 0 0 0 0 0 0 0 0 0 0 0 0 0 0 0 0 0 0 0 1443 1471 1471 1443 1471 1415 1501 1501 0 0 0 0 0 0 0 0 0 0 0 0 0 0 0 0 0 0 0 0 0 0 0 0 0 0 0 0 0 0 0 0 0 0 0 0 0 0 0 0 0 0 0 0 0 0 7359 6690 6690 6690 6690 6133 7359 6690 6690 7359 6690 6690 7359 3679 6133 4906 5256 4906 5256 5661 5661 5661 6690 6133 6690 6690 6690 6690 6690 6690 6133 6690 6690 6690 7359 7359 6690 6690 6690 6133 6133 6133 6133 5661 5661 5661 5661 6133 6690 6690 6133 5661 6133 5661 6690 6690 6690 6690 6690 6690 7359 6690 6690 5661 5661 4088 4088 3873 3873 2830 0 1795 1752 1672 1599 1599 1533 1533 1471 1635 1338 1338 1314 1168 1247 1226 1226 1226 1247 0 0 0 0 0 1022 1022 1051 1082 0 0 0 0 1098 1066 0 0 799 0 836 0 0 0 0 0 799 0 0 0 0 694 687 687 657 0 651 629 634 639 629 623 623 623 629 618 0 593 588 579 566 574 561 545 545 0 537 533 0 74 74 74 570 557 0 0 0 0 0 0 0 0 0 0 799 799 808 0 0 448 0 446 440 0 0 0 430 430 413 425 425 422 427 427 425 420 0 0 190 189 190 0 367 369 0 0 0 0 0
    0 0 0 0 0 0 0 0 0 0 0 0 0 0 0 0 0 0 0 0 0 0 0 0 0 0 0 0 0 0 0 0 0 0 0 0 0 0 0 0 0 0 0 0 0 0 0 0 0 0 0 0 0 0 0 0 0 0 0 0 0 0 0 0 0 0 0 0 0 1471 1533 1533 1533 1471 1443 1565 1533 0 0 0 0 0 0 0 0 0 0 0 0 0 0 0 0 0 0 0 0 0 0 0 0 0 0 0 0 0 0 0 0 0 0 0 0 0 0 0 0 0 0 0 0 0 0 7359 6133 6690 6690 6133 6133 7359 6133 6690 6690 6690 6133 7359 3679 5661 4599 4906 4906 5256 5256 5256 5661 6690 5661 6690 6133 6690 6690 6690 6690 6133 6690 6690 6690 7359 7359 6690 6690 6690 6133 6133 6133 6133 5256 5661 5661 5661 5661 6690 6690 6133 6133 6133 5661 6690 6690 6690 6690 6690 6690 8177 7359 6690 6133 5661 4088 4329 3873 3873 2830 1711 1752 1711 1635 1565 1565 1501 1501 1443 1599 1338 1338 1314 1187 1247 1268 1247 1247 1268 1226 1187 1168 0 0 1008 1008 1036 1082 0 0 0 0 1115 1082 0 0 791 0 817 0 0 0 0 0 799 0 0 0 0 694 0 687 651 651 651 629 634 639 629 623 618 623 623 613 0 593 588 579 566 574 561 549 549 0 537 537 0 74 0 0 570 557 0 0 0 0 0 0 0 0 0 0 799 0 0 0 826 451 451 451 440 435 0 430 430 427 413 425 422 422 427 427 425 420 0 0 0 188 188 0 367 367 0 0 0 0 0
    0 0 0 0 0 0 0 0 0 0 0 0 0 0 0 0 0 0 0 0 0 0 0 0 0 0 0 0 0 0 0 0 0 0 0 0 0 0 0 0 0 0 0 0 0 0 0 0 0 0 0 0 0 0 0 0 0 0 0 0 0 0 0 0 0 0 0 0 0 1471 1599 1533 1565 1501 1443 1565 1533 0 0 0 0 0 0 0 0 0 0 0 0 0 0 0 0 0 0 0 0 0 0 0 0 0 0 0 0 0 0 0 0 0 0 0 0 0 0 0 0 0 0 0 0 0 0 7359 6690 7359 6690 6690 6690 7359 6133 6690 7359 6690 6133 7359 3504 6133 4599 4906 4599 4906 5256 4906 5256 6133 5256 6690 6133 6690 6690 6690 6690 6133 6690 6690 6690 7359 7359 6690 6690 6690 6133 6133 6133 6133 5256 5661 5661 5661 5661 6690 6133 6133 6133 6133 5661 6133 6133 6690 6690 6690 7359 7359 7359 7359 6690 6133 4329 4599 4088 3873 2830 1672 1711 1672 1599 1533 1533 1443 1443 1415 1533 1314 1314 1314 1187 1291 1291 1268 1291 1291 1247 1226 1187 0 0 1008 994 1036 1066 0 430 0 0 1115 1082 0 0 0 0 799 0 0 0 0 836 791 0 0 0 0 687 0 681 651 645 651 623 629 639 629 623 623 623 623 613 0 593 588 579 566 574 566 549 549 553 541 0 0 74 0 0 574 557 0 0 0 0 0 0 0 0 0 0 808 0 0 0 836 457 454 457 443 438 0 430 430 427 411 422 420 420 425 427 427 420 0 157 0 0 0 0 0 367 0 0 0 0 0
    0 0 0 0 0 0 0 0 0 0 0 0 0 0 0 0 0 0 0 0 0 0 0 0 0 0 0 0 0 0 0 0 0 0 0 0 0 0 0 0 0 0 0 0 0 0 0 0 0 0 0 0 0 0 0 0 0 0 0 0 0 0 0 0 0 0 0 0 0 1443 1599 1533 1565 1501 1443 1565 1533 0 0 0 0 0 0 0 0 0 0 0 0 0 0 0 0 0 0 0 0 0 0 0 0 0 0 0 0 0 0 0 0 0 0 0 0 0 0 0 0 0 0 0 0 0 0 7359 6690 7359 6690 6690 6690 7359 6133 6133 6690 7359 5661 6690 3504 6133 4599 5256 4906 5256 5661 4906 5661 6133 5256 6690 6133 6690 6690 6690 7359 6690 7359 6690 6690 7359 7359 6690 6690 6690 6133 6133 6133 6133 5256 5256 6133 5661 5661 6690 6133 6133 5661 6133 5661 6133 5661 5661 6133 5661 6133 6690 6690 6133 6133 6133 4329 4329 4088 3679 2725 1711 1672 1635 1533 1471 1471 1415 1415 1362 1443 1314 1314 1314 1226 1291 1314 1291 1291 1314 1268 1247 1206 0 0 1008 994 1036 1066 1115 427 0 0 1132 1098 0 0 0 0 791 876 0 0 0 836 791 0 0 0 0 681 675 675 651 639 651 629 634 639 634 629 623 623 629 618 0 593 588 584 566 579 566 553 553 561 545 545 0 74 0 0 574 557 0 0 0 0 0 0 0 0 0 0 0 0 0 0 0 459 459 462 448 438 430 430 430 425 411 420 420 418 422 427 427 422 420 157 0 186 186 0 0 0 0 0 0 0 0
    0 0 0 0 0 0 0 0 0 0 0 0 0 0 0 0 0 0 0 0 0 0 0 0 0 0 0 0 0 0 0 0 0 0 0 0 0 0 0 0 0 0 0 0 0 0 0 0 0 0 0 0 0 0 0 0 0 0 0 0 0 0 0 0 0 0 0 0 0 1415 1565 1471 1565 1533 1501 1565 1599 0 0 0 0 0 0 0 0 0 0 0 0 0 0 0 0 0 0 0 0 0 0 0 0 0 0 0 0 0 0 0 0 0 0 0 0 0 0 0 0 0 0 8177 8177 0 0 8177 6690 8177 7359 7359 7359 8177 6133 6133 6690 7359 5661 6690 3504 6133 4599 5661 5256 5256 5661 5256 5661 6133 5256 6690 5661 6690 6690 6690 7359 6133 6690 6690 6690 7359 7359 6133 6690 6133 6133 5661 6133 6133 5256 5256 5661 5256 5661 6133 6133 5661 5661 5661 5256 5661 5661 5256 5661 5256 6133 6133 6133 5661 6133 6133 4906 4599 4088 3679 2830 1711 0 1599 1501 1443 1443 1388 1388 1338 1362 1314 1314 1314 1247 1314 1314 1291 1291 1291 1268 1247 0 0 0 1008 1008 1036 1082 1115 425 0 0 1168 1115 0 0 0 0 799 876 0 0 0 836 791 0 0 0 0 681 675 669 651 639 657 629 634 639 639 634 629 629 634 618 0 593 588 584 566 579 570 553 557 566 549 545 0 74 74 0 579 557 0 0 0 0 0 0 0 0 0 0 0 0 0 0 0 462 462 462 448 438 430 430 430 427 411 418 418 415 422 427 427 422 420 156 156 186 185 0 0 0 0 0 0 0 0
    0 0 0 0 0 0 0 0 0 0 0 0 0 0 0 0 0 0 0 0 0 0 0 0 0 0 0 0 0 0 0 0 0 0 0 0 0 0 0 0 0 0 0 0 0 0 0 0 0 0 0 0 0 0 0 0 0 0 0 0 0 0 0 0 0 0 0 0 0 1415 1533 1443 1501 1565 1599 1672 1672 1599 0 0 0 0 0 0 0 0 0 0 0 0 0 0 0 0 0 0 0 0 0 0 0 0 0 0 0 0 0 0 8177 7359 0 0 0 0 0 0 0 0 0 7359 6690 0 0 7359 6690 8177 8177 0 0 0 7359 7359 8177 0 7359 8177 3873 6133 4329 5661 5256 5256 5256 5256 5661 6133 5256 6690 5661 6690 6690 6690 7359 6133 6690 6133 6133 7359 7359 6133 6690 6133 6133 5661 6133 6133 5256 5256 5661 5256 5256 6133 6133 5256 5661 5661 5256 5661 5661 5661 5661 5661 6133 6133 6133 6133 6133 6690 5256 4906 4088 3679 2830 1711 0 1565 1443 1415 1415 1362 1362 1314 1314 1314 1314 1314 1268 1314 1314 1291 1291 1291 1268 0 0 0 0 994 0 1036 1082 1132 422 0 0 1206 1149 0 1887 0 0 808 876 0 0 897 845 791 0 0 0 0 681 675 669 651 639 657 634 639 645 639 634 629 629 639 618 0 598 593 588 566 579 570 553 557 566 553 549 545 74 75 0 579 557 0 0 0 0 0 0 0 0 0 0 0 0 0 0 0 465 465 468 454 440 430 0 0 427 411 418 418 415 420 427 427 422 420 156 156 185 184 0 0 0 0 0 0 0 0
    0 0 0 0 0 0 0 0 0 0 0 0 0 0 0 0 0 0 0 0 0 0 0 0 0 0 0 0 0 0 0 0 0 0 0 0 0 0 0 0 0 0 0 0 0 0 0 0 0 0 0 0 0 0 0 0 0 0 0 0 0 0 0 0 0 0 0 0 0 1415 1533 1443 1471 1599 1672 1672 1672 1635 0 0 0 0 0 0 0 0 0 0 0 0 0 0 0 0 0 0 0 0 0 0 0 0 8177 6690 8177 7359 0 7359 7359 6690 0 0 0 0 0 0 0 0 8177 7359 6133 8177 8177 6690 6690 7359 8177 0 0 0 8177 8177 0 0 7359 7359 4599 5661 4329 5661 5256 5256 5256 5256 5256 6133 5256 6690 5661 6133 6690 6690 6690 6133 6133 6133 6133 6690 6690 5661 6133 6133 5661 5661 5661 5661 4906 4906 5661 4906 4906 5661 5661 5256 5661 5661 5256 5661 5661 5661 5661 5661 6133 6133 6133 6133 6133 6133 5256 4906 4088 3679 2830 1711 0 1501 1415 0 1388 1338 1338 1291 1291 1314 1314 1314 1291 1314 1338 1291 1291 1291 1268 0 0 0 0 0 0 1036 1082 0 420 0 0 1206 1168 0 1887 0 0 826 897 0 0 919 855 799 0 132 0 0 675 669 669 651 639 663 634 639 645 645 639 629 629 634 613 0 593 588 584 566 579 570 557 557 570 553 549 545 74 75 0 579 557 0 0 0 0 0 0 0 0 0 0 0 0 0 0 471 468 468 471 459 443 432 0 0 430 411 418 418 0 420 427 427 422 420 156 156 185 184 0 0 0 0 0 0 0 0
    0 0 0 0 0 0 0 0 0 0 0 0 0 0 0 0 0 0 0 0 0 0 0 0 0 0 0 0 0 0 0 0 0 0 0 0 0 0 0 0 0 0 0 0 0 0 0 0 0 0 0 0 0 0 0 0 0 0 0 0 0 0 0 0 0 0 0 0 0 1443 1565 1471 1471 1635 1635 1635 1672 1635 1565 1533 0 0 0 0 0 0 0 0 0 0 0 0 0 8177 8177 8177 7359 7359 8177 8177 8177 6690 6690 5661 6133 6690 5256 6133 6133 6133 8177 0 0 0 0 0 0 0 8177 6690 6133 8177 8177 6690 6690 7359 7359 0 0 0 7359 7359 8177 8177 6690 7359 4906 5661 4329 5661 5256 5256 5256 5256 5256 6133 5256 6133 5661 6133 6690 6133 6133 6690 6133 6133 6133 6690 6690 5661 6133 5661 5256 5256 5661 5661 4906 4599 5256 4599 4599 5256 5256 5256 5256 5256 5256 5661 5661 5661 5661 5661 5661 6133 5661 6133 6690 6133 5256 5256 4088 3679 2943 1711 0 0 1388 1388 1388 1314 1314 1291 1268 1338 1314 1314 1291 1291 1314 1291 1291 1291 1268 0 0 0 0 0 669 1022 1098 0 0 0 0 0 1187 0 1839 0 0 836 0 0 0 931 0 799 0 0 0 0 675 669 663 645 639 663 639 639 645 651 639 634 629 634 613 588 593 588 584 566 579 574 557 557 566 553 549 545 74 75 0 570 553 0 0 0 0 0 0 0 235 234 0 0 0 0 0 477 471 474 474 465 446 0 435 0 432 413 418 420 0 420 427 427 420 418 156 156 0 184 0 0 359 0 0 0 0 0
    0 0 0 0 0 0 0 0 0 0 0 0 0 0 0 0 0 0 0 0 0 0 0 0 0 0 0 0 0 0 0 0 0 0 0 0 0 0 0 0 0 0 0 0 0 0 0 0 0 0 0 0 0 0 0 0 0 0 0 0 0 0 0 0 0 0 0 0 0 1443 1565 1471 1471 1599 1565 1635 1635 1599 1533 1501 1443 0 0 0 0 0 0 0 0 8177 7359 8177 8177 7359 6690 6690 6690 6133 6690 7359 6690 5256 5256 4906 5256 6133 5256 5661 5661 6133 8177 0 0 8177 8177 0 0 8177 7359 6690 5661 7359 8177 7359 6690 6690 7359 0 0 0 8177 7359 8177 8177 7359 7359 5661 5661 4599 5256 5256 4906 5256 5256 5256 5661 5661 6133 5661 6133 6690 6133 6133 6690 6133 5661 5661 6133 6690 5256 6133 5661 5256 5256 5661 5256 4906 4599 5256 4329 4599 5256 5256 5256 5256 5661 5661 5256 6133 5256 5661 5661 5661 5661 5256 5661 6133 6133 4906 4906 4088 3679 3066 0 0 0 1388 0 1388 1314 1314 1291 1268 1338 1291 1291 1291 1247 1291 1268 1268 1268 1247 1206 0 0 0 0 657 0 0 0 0 195 0 0 0 0 1795 0 0 826 0 0 0 943 0 808 0 0 0 0 669 663 657 645 639 663 639 645 645 651 639 634 629 634 613 588 593 588 579 561 574 574 557 557 566 553 549 545 74 0 0 0 553 0 0 0 0 0 0 0 235 235 0 0 0 0 0 481 477 477 481 471 448 0 0 0 0 415 418 420 0 420 427 425 420 415 0 0 0 185 185 0 364 0 0 0 0 0
    0 0 0 0 0 0 0 0 0 0 0 0 0 0 0 0 0 0 0 0 0 0 0 0 0 0 0 0 0 0 0 0 0 0 0 0 0 0 0 0 0 0 0 0 0 0 0 0 0 0 0 0 0 0 0 0 0 0 0 0 0 0 0 0 0 0 0 0 0 1443 1565 1443 1443 1599 1533 1599 1599 1533 1471 1471 1443 1501 0 0 0 0 0 6690 8177 7359 6690 7359 7359 7359 6690 6133 6133 5256 6133 6690 6133 4599 4906 4329 4088 5661 0 4906 4906 5661 7359 8177 8177 7359 7359 8177 8177 7359 6133 5661 4906 6690 7359 7359 6690 6690 7359 0 0 0 8177 8177 8177 8177 7359 7359 5661 5661 4906 5256 5661 5256 5661 5661 5256 6133 5661 6133 6133 6133 6690 6133 6133 6690 6133 5256 5661 5661 6133 5256 5661 5661 5256 5256 5661 5256 4906 4906 5256 4599 4906 5256 5256 5256 5256 5661 5256 5256 5661 5256 5256 5661 5661 5661 5256 5661 6133 5661 4906 4906 3873 3679 3199 0 0 0 1415 0 1388 1338 1314 1314 1268 1388 1314 1314 1314 1206 1291 1247 1226 1226 0 0 0 0 2453 0 651 0 0 0 0 195 0 0 0 0 1752 0 0 817 0 0 0 931 0 808 0 0 0 0 669 663 657 651 634 663 645 645 651 657 645 639 634 639 613 0 593 584 579 561 574 574 553 553 561 553 549 545 74 74 74 0 553 0 0 0 0 0 0 238 235 235 73 0 0 0 0 484 481 481 481 471 451 0 0 0 0 418 418 420 0 420 427 425 420 413 0 0 0 185 0 366 0 0 0 0 0 0
    0 0 0 0 0 0 0 0 0 0 0 0 0 0 0 0 0 0 0 0 0 0 0 0 0 0 0 0 0 0 0 0 0 0 0 0 0 0 0 0 0 0 0 0 0 0 0 0 0 0 0 0 0 0 0 0 0 0 0 0 0 0 0 0 0 0 0 0 0 1415 1565 1443 1415 1565 1501 1565 1565 1501 1443 1471 1443 1471 1443 0 0 0 0 6133 8177 6690 6690 7359 7359 6690 6133 6133 5661 5256 5661 6133 5661 4599 4329 4088 3873 4906 0 0 4329 4906 6133 7359 7359 6690 6133 6690 7359 6133 5256 5256 4599 6133 6690 6690 6133 6133 7359 0 0 0 0 0 8177 0 7359 7359 5661 5661 4906 5256 5661 4906 5661 5661 5256 6133 5661 6133 6133 6133 6690 6133 6133 6690 6133 5256 5661 5661 6133 5256 5661 5661 5256 5256 5661 5661 5256 4906 5661 4906 4906 5661 5661 5256 5256 5661 5661 5256 5661 5256 5661 5661 5661 6133 5256 5661 6690 6690 5256 5256 4088 3873 3345 0 0 1565 1471 1443 1415 1338 1338 1338 1291 1415 1314 1314 1314 1149 1268 1206 1206 1206 0 0 0 0 2453 2102 645 0 0 0 0 195 0 0 0 0 1752 0 0 817 0 0 931 931 0 817 0 0 0 0 663 663 657 651 634 663 645 645 651 663 651 639 634 651 613 0 0 579 570 557 570 570 553 553 557 549 549 545 74 74 74 76 553 0 0 0 0 0 0 238 235 235 73 0 0 0 0 484 477 477 481 471 448 0 0 0 0 420 418 422 0 420 425 425 418 411 0 0 0 186 0 366 0 0 0 0 0 0
    0 0 0 0 0 0 0 0 0 0 0 0 0 0 0 0 0 0 0 0 0 0 0 0 0 0 0 0 0 0 0 0 0 0 0 0 0 0 0 0 0 0 0 0 0 0 0 0 0 0 0 0 0 0 0 0 0 0 0 0 0 0 0 0 0 0 0 0 0 1443 1565 1443 1415 1565 1471 1565 1533 1501 1443 1471 1443 1471 1443 0 0 0 0 6133 8177 6690 6133 6690 6690 6690 5661 5661 5661 4906 5661 6133 5256 4599 4088 3873 3679 4329 0 4088 4088 4906 5256 6133 6133 5661 5256 6133 6133 5256 4329 5256 4329 5661 6690 6133 6133 5661 6690 0 0 0 8177 8177 8177 8177 7359 7359 5661 5256 4906 5256 5256 4906 5256 5661 5256 5661 5661 5661 6133 6133 6690 6133 6133 6690 5661 5256 5661 5256 5661 5256 5661 5661 5256 5256 5661 5661 5256 5256 5661 5256 5256 5661 5661 5661 5256 5661 5661 5256 5661 5256 5256 5661 5661 6133 5661 6133 7359 7359 6133 6133 4599 4329 3504 0 0 1635 1533 1471 1471 1362 1362 1362 1338 1471 1338 1338 1314 1115 1247 1187 1187 1187 0 0 0 0 0 2164 645 0 0 0 0 0 0 0 0 0 1752 0 799 817 0 0 0 919 0 817 0 0 0 700 663 663 657 657 634 663 651 645 651 663 651 639 634 651 613 0 0 574 566 553 566 570 553 549 549 549 549 0 74 74 74 76 553 0 0 0 0 0 0 238 234 234 73 0 0 0 0 481 474 474 474 468 446 0 0 0 0 422 420 422 418 420 425 422 415 408 0 0 0 187 0 0 0 0 0 0 0 0
    0 0 0 0 0 0 0 0 0 0 0 0 0 0 0 0 0 0 0 0 0 0 0 0 0 0 0 0 0 0 0 0 0 0 0 0 0 0 0 0 0 0 0 0 0 0 0 0 0 0 0 0 0 0 0 0 0 0 0 0 0 0 0 0 0 0 0 0 0 1443 1599 1443 1415 1565 1471 1533 1533 1471 1415 1471 1443 1471 1443 0 0 0 0 5256 8177 6690 4906 6133 5661 5661 4906 4906 4906 4599 4906 5256 4906 4329 4088 3873 3679 3873 3679 4088 4088 4599 4906 5661 5661 5256 4599 5661 5256 4599 4088 4599 4088 5256 6133 6133 5661 5256 6133 8177 8177 0 8177 8177 7359 8177 7359 6690 5661 4906 4906 4599 4906 4599 4906 5256 4906 5661 5661 5661 6133 5661 6690 5661 6133 6133 5661 5256 5661 5256 5661 5256 5661 5661 5256 5661 5661 5661 5661 5661 5661 5256 5256 5661 5661 5661 5256 5661 5661 5661 6133 5661 5661 5661 5661 6133 5661 6133 8177 8177 6133 6133 4906 4906 3679 0 0 1672 1599 1533 1533 1415 1415 1388 1362 1501 1338 1338 1314 1082 1226 1168 1168 0 0 0 0 0 0 0 645 1051 0 0 0 0 0 0 0 0 1795 0 799 808 0 0 0 908 0 817 0 0 0 714 669 669 663 663 634 663 651 645 651 663 651 639 629 645 608 0 0 570 557 549 561 566 549 541 0 545 545 74 74 74 74 0 553 0 0 0 0 0 0 238 234 233 0 799 0 0 0 477 477 474 474 468 446 0 0 0 0 425 420 422 418 420 425 420 413 408 0 0 0 188 0 0 0 0 0 0 0 0
    0 0 0 0 0 0 0 0 0 0 0 0 0 0 0 0 0 0 0 0 0 0 0 0 0 0 0 0 0 0 0 0 0 0 0 0 0 0 0 0 0 0 0 0 0 0 0 0 0 0 0 0 0 0 0 0 0 0 0 0 0 0 0 0 0 0 0 0 0 1471 1599 1443 1415 1565 1443 1501 1501 1471 1415 1471 1471 1533 1471 0 0 0 0 3199 4329 5256 3873 4329 4599 4329 4329 4329 4599 4088 4599 4906 4599 4329 3873 3873 3679 3873 3873 4329 4329 4906 4906 5661 5256 4906 4329 5256 4906 4088 3679 4329 3873 4906 5661 5661 4906 4599 5661 7359 7359 8177 7359 7359 7359 8177 6690 6690 5661 4599 4599 4599 4906 4329 4906 5256 4906 5661 5661 5661 6133 6133 6690 5661 5661 6133 5661 4906 5661 5256 5256 5256 5661 5661 5256 5661 5661 5661 5661 5661 5661 5256 5256 5661 5661 5661 5256 6133 6133 5661 6133 5661 5661 6133 5661 6133 5661 6690 8177 8177 6690 6690 4906 4906 3873 0 0 1672 1599 1565 1565 1443 1443 1415 1388 1565 1338 1338 1314 1082 1226 1187 1168 0 0 0 0 0 0 0 645 1066 0 0 0 0 0 432 0 0 0 845 799 808 0 0 0 886 0 817 799 0 817 721 675 669 669 669 634 669 651 645 651 663 651 639 629 645 608 0 0 561 549 545 557 561 545 537 0 0 541 74 74 74 74 0 553 0 0 0 0 0 0 0 233 0 0 808 0 0 0 0 481 477 477 474 448 0 0 0 0 0 418 422 418 420 422 418 413 406 0 0 189 189 0 373 0 0 0 0 0 0
    0 0 0 0 0 0 0 0 0 0 0 0 0 0 0 0 0 0 0 0 0 0 0 0 0 0 0 0 0 0 0 0 0 0 0 0 0 0 0 0 0 0 0 0 0 0 0 0 0 0 0 0 0 0 0 0 0 0 0 0 0 0 0 0 0 0 0 0 0 1471 1599 1443 1443 1565 1443 1501 1471 1443 1415 1471 1501 1565 1501 0 0 0 0 2943 0 3679 3504 3679 3873 4088 4088 4599 4599 4329 4599 4906 4599 4329 3873 3873 3873 4088 4329 4599 4599 5256 4906 6133 5256 4906 4329 4906 4599 4088 3679 4088 3679 4329 5256 5256 4906 4329 5256 6690 6690 6690 6690 6690 6133 6690 6133 6133 5256 4599 4599 4329 4906 4599 5256 5661 5256 5661 6133 5661 6133 6133 6690 5661 5661 6133 5256 4906 5661 5256 5661 5661 5661 6133 5661 6133 5661 5661 5661 5661 5661 5256 5661 5661 5661 6133 5661 6133 5661 5661 6133 5661 5661 5661 5256 6133 5661 6690 8177 0 6690 6133 4906 4906 3679 0 0 1672 1635 1565 1599 1471 1471 1471 1415 1565 1338 1338 1314 1082 1226 1187 1168 0 0 0 0 0 0 0 0 1066 1098 0 0 0 0 432 0 0 0 845 808 817 0 0 855 886 0 826 808 808 817 728 681 675 669 669 634 669 657 645 651 663 651 639 629 639 608 0 0 557 545 0 557 557 545 533 533 537 537 74 74 73 73 73 553 0 0 0 0 0 172 0 232 0 0 808 836 836 826 0 0 0 477 474 446 0 0 0 0 0 415 422 415 418 422 418 411 406 0 0 190 190 0 377 0 0 0 0 0 0
    0 0 0 0 0 0 0 0 0 0 0 0 0 0 0 0 0 0 0 0 0 0 0 0 0 0 0 0 0 0 0 0 0 0 0 0 0 0 0 0 0 0 0 0 0 0 0 0 0 0 0 0 0 0 0 0 0 0 0 0 0 0 0 0 0 0 0 0 0 1471 1599 1443 1415 1565 1443 1501 1471 1471 1415 1501 1533 1599 1533 0 0 0 0 2830 2943 3504 3504 3504 3679 4088 4088 4599 4599 4329 4599 5256 4599 4599 4088 4088 3873 4329 4599 4599 4599 4906 4599 5661 4906 4599 4329 4329 4329 3873 3679 4088 3679 4088 4906 4906 4906 4088 4906 6133 5661 6133 6690 5661 5661 6133 6133 5661 5256 4599 4599 4329 4599 4329 4906 5661 5256 5661 6133 5661 6133 6133 6690 5661 5256 5661 5256 4906 5661 5256 5661 5661 6133 6133 6133 6133 6133 5661 6133 6133 6133 5256 5661 6133 6133 6133 6133 6690 6133 5661 6133 5661 5661 5661 5661 6133 6133 7359 0 0 8177 6133 4906 4599 3679 0 0 1672 1635 1599 1635 1501 1501 1501 1443 1599 1338 1338 1314 1066 1226 1187 0 0 0 0 0 1098 1149 0 0 0 1098 0 0 0 0 430 427 0 0 845 808 817 0 865 865 886 876 836 808 808 817 735 687 681 675 675 639 669 657 639 651 663 651 639 629 645 608 0 0 0 0 83 553 557 545 529 533 537 537 74 74 73 73 0 553 0 0 0 0 0 172 0 0 0 0 808 0 836 817 0 0 0 474 471 440 0 0 0 0 0 415 422 415 418 420 415 411 406 0 0 190 190 0 379 0 0 0 0 0 0
    0 0 0 0 0 0 0 0 0 0 0 0 0 0 0 0 0 0 0 0 0 0 0 0 0 0 0 0 0 0 0 0 0 0 0 0 0 0 0 0 0 0 0 0 0 0 0 0 0 0 0 0 0 0 0 0 0 0 0 0 0 0 0 0 0 0 0 0 0 1471 1599 1443 1415 1565 1415 1471 1471 1471 1415 1501 1533 1599 1533 0 0 0 0 2943 2943 3504 3679 3504 3679 4088 3873 4599 4599 4329 4599 4906 4599 4599 3873 4088 3873 4088 4329 4329 4329 4906 4329 5256 4329 4329 3873 3873 3873 3679 3504 3679 3504 3679 4329 4599 4329 3873 4599 5661 5256 5661 6133 5661 5661 6133 5661 5661 4906 4599 4906 4599 4906 4599 4906 5661 5661 5661 6133 5661 6133 6133 6133 5661 5256 5661 5256 5256 5661 5256 5661 6133 6133 6690 6133 6690 6133 6133 6133 6133 6133 5661 6133 6133 6133 6690 6133 6690 6133 6133 6690 6133 6133 6133 6133 6690 7359 0 0 0 0 6690 5661 4599 3504 0 0 1672 1635 1599 1635 1501 1501 1501 1443 1599 1338 1338 1314 1066 1226 1187 0 0 0 0 0 1098 1149 0 0 0 1098 0 0 0 0 430 425 0 0 855 817 826 0 876 865 886 886 845 808 808 817 750 694 687 681 681 639 669 657 639 651 663 651 639 629 651 613 0 0 0 0 83 553 557 541 529 533 537 537 74 74 73 73 0 553 0 0 0 0 0 172 0 0 0 0 808 0 0 817 0 0 468 468 465 438 0 0 0 0 0 413 422 415 415 420 415 411 406 0 0 190 190 0 379 0 0 0 0 0 0
    0 0 0 0 0 0 0 0 0 0 0 0 0 0 0 0 0 0 0 0 0 0 0 0 0 0 0 0 0 0 0 0 0 0 0 0 0 0 0 0 0 0 0 0 0 0 0 0 0 0 0 0 0 0 0 0 0 0 0 0 0 0 0 0 0 0 0 0 0 1471 1599 1443 1415 1565 1443 1471 1501 1471 1415 1501 1533 1599 1501 0 0 0 0 3066 3066 3679 3679 3679 3873 4329 4088 4599 4599 4329 4599 4906 4329 4329 3679 3679 3679 3873 3873 4088 4088 4329 4088 4599 4088 3873 3679 3679 3679 3504 3345 3679 3504 3679 4088 4329 4088 4088 4599 5256 5256 5661 6690 5661 6133 6690 5661 5661 5256 5256 5256 4906 5256 4906 4906 5661 5661 5661 5661 5661 5661 5661 6133 5661 5256 5661 5256 5661 6133 5661 5661 6133 6133 6133 6133 6690 6133 6133 6133 6133 6133 6133 6133 6133 6690 7359 6133 6690 6133 6133 6133 6133 6133 6133 6133 7359 8177 0 0 0 0 8177 7359 6133 3504 1887 1443 1672 1635 1565 1599 1533 1501 1501 1443 1599 1314 1314 1314 1082 1226 1187 0 0 0 0 0 1098 1168 0 0 0 1115 1115 0 0 0 427 425 0 0 876 826 845 0 876 876 897 886 845 808 808 808 750 700 687 681 681 639 669 657 639 645 657 645 639 629 645 613 593 0 0 0 83 553 557 545 529 533 537 533 74 74 73 73 0 553 0 0 0 0 0 0 0 0 0 0 817 0 0 808 0 0 462 0 457 435 0 0 0 0 0 411 420 415 415 420 415 411 406 0 0 190 190 0 379 0 0 0 0 0 0
    0 0 0 0 0 0 0 0 0 0 0 0 0 0 0 0 0 0 0 0 0 0 0 0 0 0 0 0 0 0 0 0 0 0 0 0 0 0 0 0 0 0 0 0 0 0 0 0 0 0 0 0 0 0 0 0 0 0 0 0 0 0 0 0 0 0 0 0 0 1471 1599 1443 1415 1565 1443 1471 1501 1471 1415 1501 1533 1599 1533 0 0 0 0 3199 3199 3873 3873 3873 3873 4599 4088 4599 4329 4329 4599 4599 3873 4088 3504 3679 3679 3873 3873 3873 3873 4088 3873 4329 3873 3679 3345 3504 3504 3345 3345 3504 3345 3504 3873 4088 4088 4088 4599 4906 4906 5661 6133 5661 6133 6690 5661 5661 5661 5256 5256 4906 5256 4906 4906 5661 5661 5256 5661 5256 5256 5256 5661 5661 4906 5256 5256 5661 6133 5661 5661 6133 5661 6133 6133 6133 5661 5661 6133 6133 5661 6133 6133 6133 6133 7359 6133 6690 6133 6133 6133 6690 6690 6690 6690 8177 8177 0 0 0 0 0 8177 7359 3679 1936 1443 1672 1635 1565 1635 1533 1501 1533 1443 1565 1314 1314 1314 1098 1226 1187 0 0 0 0 1098 1098 1168 0 0 1115 1132 1149 0 0 0 427 0 0 0 886 845 865 0 876 876 897 897 855 817 817 808 758 700 687 687 687 639 669 657 634 645 657 639 634 629 639 613 593 0 566 0 83 557 561 545 533 533 541 533 74 74 73 0 0 549 0 0 0 0 0 0 0 232 0 0 0 0 4088 0 808 0 462 459 457 0 0 0 0 0 0 411 420 413 413 420 415 411 406 0 0 190 189 855 0 0 0 0 0 0 0
    0 0 0 0 0 0 0 0 0 0 0 0 0 0 0 0 0 0 0 0 0 0 0 0 0 0 0 0 0 0 0 0 0 0 0 0 0 0 0 0 0 0 0 0 0 0 0 0 0 0 0 0 0 0 0 0 0 0 0 0 0 0 0 0 0 0 0 0 0 1471 1599 1443 1415 1533 1443 1471 1501 1471 1443 1533 1565 1599 1565 0 0 229 0 3345 3345 3873 4088 4088 4088 4599 4088 4599 4329 4088 4599 4599 3873 3873 3679 3679 3679 3873 4088 4088 4088 4329 4088 4088 3679 3679 3345 3345 3345 3199 3199 3345 3199 3345 3679 3873 4088 4088 4599 4599 4906 5256 6133 5661 5661 6133 5661 5661 5661 5256 5256 4906 5256 5256 4906 5256 5661 5256 5256 5256 4906 4906 5256 5661 4906 4906 5256 5661 6133 5661 6133 6133 5661 6133 6133 6133 5661 5256 5661 5661 5661 5661 5661 5661 5661 6690 6133 6133 6133 6133 6133 6133 6690 6690 6690 7359 8177 0 0 0 0 8177 6690 6133 3873 1989 1501 1672 1635 1565 1635 1533 1501 1533 1443 1565 1291 1291 1291 1098 1226 1187 0 0 0 0 1098 1098 1187 0 0 1149 1149 1168 0 0 0 425 0 0 0 908 855 876 0 0 886 897 897 855 817 817 808 758 707 687 687 687 645 669 657 634 645 651 639 634 629 639 613 598 0 570 0 83 561 566 549 537 537 541 533 74 74 73 0 0 549 0 0 0 236 0 0 0 232 0 0 0 0 4329 0 0 0 465 462 459 0 0 0 0 0 0 408 420 413 413 420 415 411 406 0 0 0 189 0 381 0 0 0 0 0 0
    0 0 0 0 0 0 0 0 0 0 0 0 0 0 0 0 0 0 0 0 0 0 0 0 0 0 0 0 0 0 0 0 0 0 0 0 0 0 0 0 0 0 0 0 0 0 0 0 0 0 0 0 0 0 0 0 0 0 0 0 0 0 0 0 0 0 0 0 0 1471 1635 1443 1415 1533 1415 1471 1501 1471 1443 1533 1565 1635 1599 0 0 230 0 3345 3504 4088 4599 4906 4599 5256 4906 4906 4906 4599 4906 4906 3873 4088 3679 3873 3873 4088 4088 4088 4088 4088 4088 3873 3504 3504 3199 3345 3199 3199 3199 3199 3199 3345 3679 4088 4088 4088 4599 4599 4906 5256 6133 5661 5661 6133 5661 5256 5661 5256 5661 4906 5256 5256 4599 5256 5661 5256 5256 4906 4906 4906 4906 5256 4599 4599 4906 5256 5661 5661 5661 5661 5661 6133 5661 5661 5661 5256 5661 5661 5256 5256 5661 5256 5661 6133 5661 5661 5661 5661 5661 6133 6690 6133 6690 7359 7359 8177 8177 0 7359 6690 6133 4906 3679 2044 1565 1672 1635 1565 1635 1565 1501 1533 1443 1599 1291 1291 1291 1115 1226 1206 0 0 1168 1098 1115 1098 0 0 0 1168 1149 0 0 0 0 422 0 0 0 931 865 886 0 0 886 886 897 865 817 817 808 766 714 694 687 687 645 663 657 634 645 651 639 634 629 639 618 0 0 579 566 83 566 566 553 541 541 545 537 74 74 0 504 525 549 0 0 0 237 0 0 0 232 0 73 0 0 4599 4088 0 0 468 465 462 0 0 0 0 0 0 408 420 413 413 420 415 411 406 0 0 0 0 0 383 0 0 0 0 0 0
    0 0 0 0 0 0 0 0 0 0 0 0 0 0 0 0 0 0 0 0 0 0 0 0 0 0 0 0 0 0 0 0 0 0 0 0 0 0 0 0 0 0 0 0 0 0 0 0 0 0 0 0 0 0 0 0 0 0 0 0 0 0 0 0 0 0 0 0 0 1471 1635 1443 1415 1533 1415 1443 1501 1471 1443 1533 1565 1635 1635 0 0 231 0 3504 3679 4599 5256 5661 5661 6133 6133 6133 6133 5661 6133 5256 4329 4329 3873 4088 3873 4088 4329 4088 4088 4088 4088 3679 3504 3504 3199 3199 3199 3199 3199 3345 3345 3504 3873 4329 4329 4599 5256 5256 5256 5661 6690 6133 6133 6690 6133 5661 5661 5256 5661 5256 5661 5256 4599 5256 5661 4906 5256 4906 4906 4599 4906 5256 4088 4329 4599 4599 5256 4906 5256 5256 5256 5661 5256 5661 5256 5256 5256 5256 5256 5256 5256 5256 5661 6133 5661 5661 5661 5661 5661 6133 6690 6133 6690 7359 7359 7359 7359 8177 7359 6133 6133 4599 3679 2164 1599 1672 1635 1599 1672 1599 1533 1565 1471 1635 1291 1291 1291 1115 1226 1206 1187 1168 1187 1115 1115 0 0 0 0 0 0 0 0 0 0 422 422 0 0 955 865 886 0 876 876 886 886 855 817 817 808 766 707 687 687 687 645 663 657 634 645 651 639 634 629 639 623 613 0 584 574 0 570 570 557 541 541 549 537 0 74 0 507 525 549 0 0 0 238 0 0 0 232 0 73 0 0 4906 4088 4906 0 468 468 462 0 0 0 0 0 0 408 420 413 413 420 415 413 406 0 0 0 0 0 383 0 0 0 0 0 0
    0 0 0 0 0 0 0 0 0 0 0 0 0 0 0 0 0 0 0 0 0 0 0 0 0 0 0 0 0 0 0 0 0 0 0 0 0 0 0 0 0 0 0 0 0 0 0 0 0 0 0 0 0 0 0 0 0 0 0 0 0 0 0 0 0 0 0 0 0 1471 1635 1471 1415 1533 1415 1443 1501 1471 1443 1565 1565 1635 1635 0 232 232 0 3679 3873 4906 6133 6133 6690 7359 6690 7359 6690 6690 6690 5661 4599 4329 3873 4088 3679 3679 4088 3679 3679 3679 3679 3504 3345 3345 3199 3345 3345 3345 3345 3345 3345 3679 4088 4329 4599 4599 5256 5256 5661 6133 6690 6133 6690 6690 6690 6133 6133 5256 5661 5661 6133 5661 4906 5256 5661 4906 5256 4599 4599 4329 4906 4906 3873 4329 4329 4329 4906 4906 5256 5256 5256 5661 5256 5661 5256 5256 5256 4906 4906 5256 5256 5256 5661 5661 5256 5661 5661 5661 5661 6133 6133 6133 6690 7359 6690 7359 7359 7359 6690 6690 6133 5256 4599 2299 1635 1672 1635 1565 1672 1599 1533 1565 1501 1672 1291 1291 1291 1149 1247 1226 1206 1187 1206 1132 1115 0 0 0 0 0 0 0 0 0 0 422 422 0 0 0 0 886 0 865 865 865 865 855 817 808 799 758 707 687 687 687 645 657 657 634 645 651 645 634 629 639 629 613 0 588 579 561 574 574 561 545 545 549 0 0 74 525 507 529 549 0 0 0 0 0 0 0 0 0 73 73 0 4906 4329 4906 0 471 468 465 0 0 0 0 0 0 408 420 415 413 420 418 413 408 0 0 0 0 817 385 0 0 0 0 0 0
    0 0 0 0 0 0 0 0 0 0 0 0 0 0 0 0 0 0 0 0 0 0 0 0 0 0 0 0 0 0 0 0 0 0 0 0 0 0 0 0 0 0 0 0 0 0 0 0 0 0 0 0 0 0 0 0 0 0 0 0 0 0 0 0 0 0 0 0 0 1471 1635 1471 1415 1533 1443 1443 1501 1501 1443 1565 1565 1599 1599 0 232 231 0 4088 4906 6133 7359 6690 7359 7359 7359 7359 6690 6690 6690 5661 4329 4088 3873 4088 3679 3504 3679 3504 3504 3504 3504 3199 3199 3199 3066 3199 3199 3199 3345 3504 3504 3679 4329 4599 4599 4906 5256 4906 5661 6133 7359 6690 7359 7359 6690 6690 6690 5661 6133 5661 6133 5661 5256 5661 5256 4906 5256 4599 4599 4329 4906 4599 3873 3873 4088 4088 4329 4329 4599 4599 4599 5256 4906 5256 5256 4906 5256 4906 4906 5661 5256 5256 6133 5661 5256 5661 6133 6133 5661 6690 6690 6133 6690 7359 6690 7359 7359 7359 6690 6690 6690 6133 7359 2537 1672 1672 1635 1565 1672 1635 1565 1599 1533 1711 1291 1291 1291 1168 1247 1247 1226 1206 1226 1149 1132 0 0 0 0 0 0 2102 0 0 0 420 422 0 0 0 0 876 0 845 845 845 845 836 799 799 791 758 707 681 681 681 651 651 657 634 645 645 645 634 629 634 634 618 0 588 584 566 574 579 561 545 545 553 0 0 74 525 511 529 553 541 0 0 0 0 0 0 0 0 73 73 0 4906 4088 4599 0 468 468 465 0 0 0 0 0 0 411 420 418 413 420 418 413 408 0 0 0 0 808 385 0 0 0 0 0 0</data></depth>
</opencv_storage>
