<?xml version="1.0"?>
<opencv_storage>
<gps_time_stamp>283113</gps_time_stamp>
<gps_x>-1.3802141189575195e+001</gps_x>
<gps_y>1.1254434585571289e+001</gps_y>
<gps_z>-2.3289258480072021e+000</gps_z>
<image_time_stamp>273957</image_time_stamp>
<depth type_id="opencv-matrix">
  <rows>79</rows>
  <cols>320</cols>
  <dt>s</dt>
  <data>
    0 0 0 0 0 0 0 0 0 0 0 0 0 0 0 0 0 0 0 0 0 0 0 0 0 0 0 0 0 0 0 0 0 0 0 0 0 0 0 0 0 0 0 0 0 0 0 0 0 0 0 0 0 0 0 0 0 0 0 0 0 0 0 0 0 0 0 0 0 2299 2164 2164 2230 2044 2044 2102 2044 1989 1936 1936 1936 1936 1936 1989 2044 2044 2102 2164 1936 2164 2164 2164 2102 2164 2230 2164 2164 2628 2299 2374 2299 2628 2374 2102 2230 1989 1887 1795 1752 1752 1711 1795 1752 1795 1887 1936 0 0 0 2374 0 0 0 0 1565 1565 1533 1887 2102 0 2102 2044 1989 2044 2044 2164 2164 2230 2725 2628 2943 3199 3199 3199 3066 2537 2537 2453 2374 2453 2299 2102 2102 2299 2943 2943 3066 3066 2725 2830 2453 2628 2453 2299 2374 2374 2230 2453 2453 2830 2830 3066 3345 3066 2628 0 2537 1989 2299 2102 2044 2044 2102 2299 2102 2102 2628 1887 1839 0 0 0 1415 1443 1501 1599 1533 1565 1599 1711 1795 0 1887 1839 1887 1887 1936 1989 1936 1887 1839 1839 1839 2044 2044 1989 2044 2044 2044 2164 2164 2537 1989 1989 2943 1795 0 0 0 4906 4088 3504 5256 0 0 2299 2164 2164 2044 2102 1936 0 0 0 0 0 0 0 0 0 0 0 0 0 1752 1839 1795 1711 1711 1672 1635 1672 1672 1672 1635 1635 1635 1533 1635 1635 1471 1533 1565 1599 1533 1565 1565 1533 1533 1533 1501 1471 1443 1471 1415 1388 1362 1338 1338 1268 1247 1247 1206 1187 1206 1206 1206 1187 1206 1206 1206 1247 1291 1314 1338 1314 1051 1132 1149 1082 1082 1098 1082 1098 1082 0 0 0 0 0
    0 0 0 0 0 0 0 0 0 0 0 0 0 0 0 0 0 0 0 0 0 0 0 0 0 0 0 0 0 0 0 0 0 0 0 0 0 0 0 0 0 0 0 0 0 0 0 0 0 0 0 0 0 0 0 0 0 0 0 0 0 0 0 0 0 0 0 0 0 2230 2164 2164 2230 2102 2044 2102 2044 2044 1936 1989 1936 1936 1936 2044 2044 2102 2102 2230 1936 2230 2230 2230 2164 2230 2299 2230 2230 2725 2230 2299 2299 2628 2374 2102 2230 1989 1839 1752 1711 1711 1711 1795 1752 1795 1887 1936 0 0 0 2164 0 0 0 0 1635 1635 1672 1989 2164 1936 2164 2102 2044 2102 2102 2299 2230 2299 2830 2628 3066 3345 3199 3345 3066 2537 2628 2453 2453 2537 2374 2230 2164 2374 2943 2830 3066 3066 2725 2830 2537 2725 2537 2299 2453 2374 2230 2537 2453 2830 0 3066 3345 3199 2725 0 2537 0 2299 2102 2044 2044 2044 2230 2044 2044 2537 1795 1795 0 0 1415 1388 1415 1471 1565 1501 1565 1565 1711 0 0 1936 1887 1936 1989 1989 2044 1989 1887 1795 1887 1839 2044 2044 1989 2044 2044 2044 2230 2164 2537 1989 1989 2943 1795 0 0 4329 4088 3679 3345 4088 0 0 2453 2164 2102 1887 0 0 0 0 0 0 0 0 0 0 0 0 0 0 0 1752 1839 1795 1672 1711 1672 1635 1672 1672 1635 1599 1599 1635 1565 1635 1635 1471 1533 1565 1599 1533 1565 1565 1533 1501 1533 1501 1471 1443 1471 1415 1415 1388 1362 1388 1314 1268 1268 1206 1206 1206 1206 1206 1187 1206 1206 1226 1247 1314 1314 1338 1314 1036 1115 1132 1082 1082 1082 1082 1098 1066 0 0 0 0 0
    0 0 0 0 0 0 0 0 0 0 0 0 0 0 0 0 0 0 0 0 0 0 0 0 0 0 0 0 0 0 0 0 0 0 0 0 0 0 0 0 0 0 0 0 0 0 0 0 0 0 0 0 0 0 0 0 0 0 0 0 0 0 0 0 0 0 0 0 0 2230 2164 2164 2230 2164 2102 2230 2164 2164 2044 2164 2044 2044 1989 2102 2044 2102 2102 2230 1936 2299 2299 2299 2164 2230 2230 2230 2230 2628 2164 2164 2164 2537 2230 2044 2044 1839 1752 1672 1635 1672 1635 1711 1711 1711 1839 1839 1936 2044 2230 2102 1989 2044 1989 1672 1711 1752 1795 2102 2299 1989 2230 2102 2102 2164 2230 2453 2299 2374 2830 2725 3066 3345 3199 3345 3066 2628 2628 2537 2537 2537 2453 2230 2230 2453 2943 2830 3066 3066 2725 2830 0 2628 2537 2299 2453 2374 2230 2537 2453 2830 0 3066 3345 3199 2628 0 2537 2044 2230 2102 2044 2044 2044 2230 2044 2044 2374 1795 1711 0 1635 1443 1388 1443 1501 1565 1533 1565 1533 1672 0 0 0 1839 1839 1936 1936 1936 1887 1839 1711 1887 1839 2044 2044 1989 2044 2044 2044 2230 2164 2537 1989 1989 2943 1795 0 3679 4329 4088 3504 3199 0 0 0 2299 2044 1989 0 0 0 0 0 0 0 0 0 0 0 0 0 0 0 0 1752 1839 1795 1672 1672 1635 1672 1672 1672 1635 1599 1599 1635 1533 1635 1635 1471 1533 1565 1599 1533 1565 1565 1533 1501 1533 1501 1471 1443 1471 1415 1415 1388 1388 1415 1338 1314 1291 1247 1226 1226 1226 1226 1206 1226 1206 1226 1247 1291 1268 1314 1291 1036 1098 1115 1066 1066 1082 1066 1082 1066 0 0 0 0 0
    0 0 0 0 0 0 0 0 0 0 0 0 0 0 0 0 0 0 0 0 0 0 0 0 0 0 0 0 0 0 0 0 0 0 0 0 0 0 0 0 0 0 0 0 0 0 0 0 0 0 0 0 0 0 0 0 0 0 0 0 0 0 0 0 0 0 0 0 0 2230 2230 2230 2230 2299 2230 2374 2164 2299 2164 2230 2044 2102 1989 2044 2044 2102 2102 2164 1936 2230 2230 2230 2164 2164 2230 0 2164 2628 2102 2102 2102 2537 2299 1989 1936 1795 1672 1635 1599 1599 1565 1599 1672 1635 1752 1752 1839 1887 1936 1936 1887 1936 2044 1711 1711 1795 1839 2230 2299 2044 2299 2164 2164 2164 2230 2453 2299 2453 2830 2725 3066 3199 3199 3199 3066 2628 2628 2537 2537 2537 2453 2230 2230 2453 2943 2830 2943 2943 2725 2830 2537 2628 2537 2299 2453 2374 2230 2537 2453 2830 2943 3066 3345 3199 2628 0 2537 2044 2299 2102 2044 2044 2044 2230 1989 1989 2299 1752 1635 1839 1635 1443 1388 1471 1565 1599 1565 1635 1533 1672 1711 1752 1795 1752 1752 1839 1839 1887 1839 1795 1599 1839 1839 2044 2044 1989 2044 2044 2102 2299 2164 2537 1989 1989 2830 1795 1711 0 0 0 0 0 0 0 0 0 0 0 0 0 1672 0 0 0 1795 0 0 0 0 0 1752 0 0 0 1711 1839 1795 1635 1672 1635 1672 1672 1672 1599 1565 1565 1635 1565 1635 1599 1471 1533 1565 1599 1533 1565 1565 1533 1501 1533 1471 1471 1443 1471 1443 1443 1415 1415 1415 1388 1338 1291 1247 1247 1226 1226 1226 1206 1226 1187 1206 1226 1247 1268 1291 1268 1036 1082 1098 1051 1066 1066 1066 1082 1066 0 0 0 0 0
    0 0 0 0 0 0 0 0 0 0 0 0 0 0 0 0 0 0 0 0 0 0 0 0 0 0 0 0 0 0 0 0 0 0 0 0 0 0 0 0 0 0 0 0 0 0 0 0 0 0 0 0 0 0 0 0 0 0 0 0 0 0 0 0 0 0 0 0 0 0 2102 2164 2164 2374 2164 2453 2299 2537 2374 2453 2230 2230 2102 2102 2102 2102 2044 2102 1936 2230 2230 2164 2102 2164 2164 2230 2230 2628 2102 2102 2164 2537 2374 1989 0 1752 1635 1533 1501 1533 1471 1533 1599 1599 1711 1711 1795 0 0 1887 1839 1839 1989 0 0 0 1887 2230 2230 2102 2299 2164 2164 2230 2299 2537 2299 2453 2830 2725 3066 3199 3066 3066 2943 2453 2537 2374 2374 2374 2299 2164 2164 2374 2830 2725 2943 2943 2725 2830 2537 2725 2537 2299 2453 2374 2230 2537 2453 2830 2830 3066 3345 3199 2628 2830 2537 2102 2299 2164 2044 2044 2044 2164 1936 1936 2164 1711 1533 1752 1635 1501 1415 1533 1599 1635 1565 1635 1501 1635 1635 1711 1711 1711 1711 1839 1795 1887 1839 1795 1565 1839 1839 2044 2044 1989 2044 2044 2102 2299 2164 2453 1989 1989 2725 1795 1635 1314 1247 1168 1082 1051 1082 1082 1082 1149 1149 1149 1036 1066 1443 0 0 1599 1711 1752 0 0 1711 1887 1711 1443 0 0 1711 1795 1795 1599 1672 1672 1672 1672 1672 1635 1565 1565 1672 1565 1599 1565 1471 1533 1565 1599 1533 1565 1533 1533 1501 1533 1471 1471 1443 1471 1443 1443 1415 1443 1415 1388 1362 1314 1247 1247 1247 1226 1226 1226 1226 1187 1206 1226 1226 1226 1268 1247 1051 1051 1066 1036 1051 1051 1051 1066 1051 0 0 0 0 0
    0 0 0 0 0 0 0 0 0 0 0 0 0 0 0 0 0 0 0 0 0 0 0 0 0 0 0 0 0 0 0 0 0 0 0 0 0 0 0 0 0 0 0 0 0 0 0 0 0 0 0 0 0 0 0 0 0 0 0 0 0 0 0 0 0 0 0 0 0 0 0 0 0 0 0 0 0 2628 2537 2628 2164 2230 2044 2044 2044 2044 1989 2044 1887 2230 2230 2164 2102 2102 2164 2230 2230 2725 2102 2102 2102 2537 2453 1989 1752 1711 1599 1565 1501 1501 1443 1501 1599 1599 1672 1711 0 0 1887 1936 1887 1887 1989 0 0 0 1887 2230 2164 2102 2299 2164 2164 2164 2230 2453 2230 2374 2725 2299 3066 3066 2943 2830 2830 2299 2453 2299 2299 2374 2299 2102 2164 2374 2725 2628 2943 2943 2725 2830 2537 2725 2537 2299 2453 2374 2230 2453 2374 2725 2725 2943 3199 3066 2453 2725 2453 2044 2230 2164 2044 2044 2044 2102 1887 1936 2102 1711 1501 1752 1635 1533 0 1635 1635 1635 1565 1672 1533 1635 1635 1672 1711 1752 1752 1936 1839 1936 1887 1839 1533 1795 1795 1989 1989 1936 2044 2044 2044 2299 2164 2453 1936 1936 2537 1752 1443 1247 1115 1098 1066 1036 1066 1066 1066 1082 1082 1082 1022 1022 0 1187 0 0 1635 1711 0 0 1752 1839 1672 1362 1115 0 1752 1795 1795 1635 1672 1672 1711 1711 1711 1635 1565 1565 1672 1565 1599 1599 1471 1533 1565 1599 1533 1565 1533 1533 1501 1533 1471 1471 1443 1471 1443 1471 1415 1471 1415 1415 1362 1291 1247 1226 1226 1206 1226 1206 1226 1187 1206 1226 1226 1247 1268 1268 1051 0 1036 1008 1036 1036 1036 1066 1051 0 0 0 0 0
    0 0 0 0 0 0 0 0 0 0 0 0 0 0 0 0 0 0 0 0 0 0 0 0 0 0 0 0 0 0 0 0 0 0 0 0 0 0 0 0 0 0 0 0 0 0 0 0 0 0 0 0 0 0 0 0 0 0 0 0 0 0 0 0 0 0 0 0 0 0 0 0 0 0 0 0 0 2453 2374 2537 2044 2164 2044 1989 2044 2044 1936 1989 1887 2230 2164 2164 2102 2102 2102 2230 2164 2725 2044 2044 2230 2725 0 0 1752 1752 1672 1635 1565 1533 1471 0 1635 1599 1711 0 0 0 1936 1989 1936 1989 2102 1989 1936 1887 1887 2230 2102 2164 2299 2164 2230 2164 2230 2453 2164 2374 2537 2044 2374 2537 2537 2537 2537 2164 2299 2164 2230 2299 2230 2102 2102 2299 2628 2453 2725 2830 2628 2725 2537 2725 2537 2374 2453 2299 2164 2374 2230 2628 2453 2830 3066 2830 2299 2628 2299 1989 2164 2102 2044 1989 1989 2044 1887 1887 2044 1711 1533 1711 1635 1533 0 0 0 0 1635 1711 1599 1672 1635 1711 1711 1752 1752 1936 1839 1989 1936 1839 1501 1752 1795 1989 1989 1936 1989 1989 2044 2230 2164 2453 1936 1936 2299 1672 1291 1206 1066 1066 1051 1036 1066 1051 1051 1082 1066 1082 1036 1036 1187 1082 0 0 0 0 0 0 1795 1839 1635 0 0 808 0 1887 1839 1635 1711 1711 1752 1752 1711 1672 1599 1599 1711 1599 1635 1599 1471 1533 1533 1599 1533 1565 1533 1533 1471 1533 1471 1471 1471 1501 1471 1501 1443 1501 1443 1415 1362 1291 1226 1206 1206 1187 1206 1187 1206 1149 1168 1187 1206 1226 1247 1247 1051 968 1008 968 1008 1022 1022 1051 1036 0 0 0 0 0
    0 0 0 0 0 0 0 0 0 0 0 0 0 0 0 0 0 0 0 0 0 0 0 0 0 0 0 0 0 0 0 0 0 0 0 0 0 0 0 0 0 0 0 0 0 0 0 0 0 0 0 0 0 0 0 0 0 0 0 0 0 0 0 0 0 0 0 0 0 0 0 0 0 0 0 0 0 0 2453 2453 2044 2164 1989 1989 2044 1989 1887 1989 1887 2164 2164 2102 2102 2102 2102 2230 2164 2725 2044 2102 2374 2628 0 0 0 0 1672 1672 1599 1599 0 0 0 0 1752 1887 1936 2044 1989 2044 1989 2044 2102 1989 1989 1936 1887 2164 2102 2164 2299 2164 2230 2164 2299 2453 2164 2374 2374 1989 2102 2230 2299 2230 2230 2044 2164 2102 2102 2164 2102 2044 2102 2164 2453 2164 2628 2628 2537 2725 2537 2628 2453 2374 2453 2299 2102 2299 2044 2537 2102 2943 3066 2537 2102 2453 2102 1936 2102 2044 1989 1989 1989 1989 1887 1936 2102 1711 1599 1795 0 1839 0 1936 1839 0 1752 1795 1711 1752 1752 1795 1839 1839 1839 1989 1936 2044 1989 1839 1501 1752 1752 1936 1936 1887 1989 1989 2044 2230 2102 2374 1936 1936 2102 1635 1268 1168 1066 1066 1051 1036 1051 1051 1051 1082 1036 1051 1022 1036 1098 1051 1066 1082 1082 0 0 1795 1795 0 0 0 943 817 0 1936 1887 1672 1752 1752 1795 1795 1752 1672 1635 1635 1752 1565 1635 1565 1471 1533 1533 1565 1533 1533 1501 1501 1471 1501 1471 1471 1471 1501 1471 1501 1471 1501 1443 1415 1362 1268 1206 1206 1187 1168 1168 1168 1168 1098 1098 1082 1051 1082 1082 1082 1008 955 994 943 968 981 1008 1051 1036 0 0 0 0 0
    0 0 0 0 0 0 0 0 0 0 0 0 0 0 0 0 0 0 0 0 0 0 0 0 0 0 0 0 0 0 0 0 0 0 0 0 0 0 0 0 0 0 0 0 0 0 0 0 0 0 0 0 0 0 0 0 0 0 0 0 0 0 0 0 0 0 0 0 0 0 0 0 0 0 0 0 0 0 0 2299 1989 2164 2044 2044 1989 1989 0 1936 0 2164 2164 2102 2102 2102 2102 2230 2230 2725 2102 2102 2628 0 0 0 1711 1752 1672 1672 1599 1635 0 0 0 0 1839 1936 1989 2164 2044 2044 2044 2044 2102 1989 1936 1887 1839 2102 2044 2102 2230 2230 2164 2230 2299 2453 2230 2453 2374 1989 2044 2102 2044 2044 2044 1989 2044 1989 1989 2044 2044 1989 2044 2102 2230 2044 2374 2453 2374 2537 2453 2537 2453 2299 2453 2299 2102 2299 2044 2374 1989 2628 2725 2102 1887 2102 1936 1887 1989 1989 1936 1936 1936 1989 1887 1936 1989 1711 1565 1795 2044 1936 0 1936 1887 1887 1839 1839 1752 1752 1795 1839 1887 1989 1887 2102 2044 2102 2044 1887 1501 1711 1711 1936 1887 1887 1936 1936 1989 2164 2102 2374 1887 1887 2044 1533 1226 1149 1082 1066 1051 1051 1051 1051 1051 1098 1036 1036 1022 1036 1066 1036 1036 1022 1022 0 0 0 0 0 0 0 845 817 0 1936 1887 1711 1795 1795 1839 1839 1795 1711 1635 1635 1752 1415 1565 1533 1471 1501 1501 1565 1501 1533 1533 1501 1471 1501 1471 1471 1471 1501 1471 1501 1443 1501 1415 1388 1338 1268 1206 1206 1168 1168 1168 1149 1115 1051 1036 1022 994 1008 1022 1008 994 968 981 943 968 943 994 1051 1036 0 0 0 0 0
    0 0 0 0 0 0 0 0 0 0 0 0 0 0 0 0 0 0 0 0 0 0 0 0 0 0 0 0 0 0 0 0 0 0 0 0 0 0 0 0 0 0 0 0 0 0 0 0 0 0 0 0 0 0 0 0 0 0 0 0 0 0 0 0 0 0 0 0 0 0 0 0 0 0 0 0 0 0 0 2453 2044 2230 1989 2044 1989 1989 0 0 0 2102 2102 2044 2102 2102 2102 2230 2230 2725 2102 2102 0 0 0 0 1711 1752 1672 1672 1635 1711 1635 0 0 0 1887 2044 2044 2230 2102 2164 2102 2044 2164 2044 1936 1936 1839 2102 1989 2102 2230 2164 2164 2230 2299 2537 2299 2453 2374 1989 2044 2102 1989 1989 1989 1936 1936 1887 1936 1936 1989 1989 2044 2044 2102 2044 2299 2299 2164 2374 2374 2374 2299 2164 2374 2164 2102 2299 2044 2230 1989 2102 2230 1936 1752 1839 1795 1839 1936 1936 1887 1887 1887 1936 1887 1936 1887 1672 1533 1672 0 0 0 1887 1839 1795 1795 1839 1795 1752 1795 1795 1795 1989 1887 2044 1989 2044 1989 1839 1471 1711 1711 1936 1887 1887 1936 1936 1989 2164 2102 2299 1887 1887 1936 1443 1187 1149 1082 1082 1066 1051 1066 1066 1066 1115 1036 1051 1036 1036 1051 1036 1022 1008 1008 0 0 0 0 0 0 0 0 817 0 1936 1936 1795 1839 1839 1887 1839 1839 1711 1672 0 1672 1291 1471 1471 1443 1471 1471 1501 1471 1501 1501 1471 1443 1471 1443 1443 1443 1471 1471 1501 1443 1501 1415 1388 1338 1268 1206 1206 1187 1149 1149 1115 1051 1008 1008 981 968 981 994 981 968 968 981 955 968 968 994 1051 1036 0 0 0 0 0
    0 0 0 0 0 0 0 0 0 0 0 0 0 0 0 0 0 0 0 0 0 0 0 0 0 0 0 0 0 0 0 0 0 0 0 0 0 0 0 0 0 0 0 0 0 0 0 0 0 0 0 0 0 0 0 0 0 0 0 0 0 0 0 0 0 0 0 0 0 0 0 0 0 0 0 0 0 0 0 0 1936 2102 1989 2044 1989 1989 0 0 0 2102 2102 2044 2102 2044 2102 2230 2230 2725 2102 2164 0 0 0 0 0 0 1672 1711 1672 1711 1635 0 0 0 1887 0 0 2230 2044 2102 2044 1989 2044 1989 1936 1887 1839 2102 1989 2102 2230 2230 2164 2230 2230 2453 2230 2453 2299 1989 1989 2044 1936 1936 1936 1936 1887 1839 1887 1839 1887 1887 1936 1936 1887 1887 2044 2044 1989 2102 2164 2044 2044 2044 2230 2044 1989 2102 1936 1989 1989 1887 1989 1839 1635 1752 1711 1839 1887 1887 1887 1887 1887 1989 1936 2102 1936 1711 1635 1711 0 1887 1887 1936 1936 1839 0 1839 1795 1752 1752 1795 1752 1752 1795 1887 1839 1887 1839 1839 1443 1711 1672 1887 1887 1839 1936 1936 1989 2102 2044 2230 1839 1839 1887 1415 1168 1132 1082 1066 1051 1051 1066 1066 1066 1115 1036 1051 1036 1051 1051 1022 1008 1008 1008 0 968 0 0 0 0 0 0 0 0 0 0 0 0 0 1989 1936 0 0 0 0 0 1187 1388 1415 1415 1443 1443 1471 1443 1501 1501 1443 1443 1443 1415 1443 1443 1471 1443 1471 1443 1471 1388 1388 1338 1247 1206 1206 1187 1149 1132 1082 1022 981 981 955 955 968 968 968 955 955 981 955 981 0 0 1051 1051 0 0 0 0 0
    0 0 0 0 0 0 0 0 0 0 0 0 0 0 0 0 0 0 0 0 0 0 0 0 0 0 0 0 0 0 0 0 0 0 0 0 0 0 0 0 0 0 0 0 0 0 0 0 0 0 0 0 0 0 0 0 0 0 0 0 0 0 0 0 0 0 0 0 0 0 0 0 0 0 0 0 0 0 0 0 1887 2044 1989 2044 2044 1989 0 0 0 2102 2102 2044 2102 2102 2164 2230 2230 2830 2230 2230 0 0 0 0 0 0 1635 1672 1635 1635 1533 0 0 0 0 0 0 2164 1989 2044 1989 1887 1936 1936 1839 1887 1839 2044 1989 2102 2230 2230 2164 2230 2230 2453 2230 2453 2299 1989 1989 2102 1989 1989 1936 1936 1936 1887 1887 1839 1839 1795 1839 1839 1839 1795 1936 1936 1936 1989 2044 1887 1989 1989 2044 1936 0 1936 1839 1839 1936 1839 1887 1795 1599 1711 1711 1795 1887 1887 1839 1839 1887 1989 1936 2102 1989 1711 1672 1711 1795 1839 1887 1936 1936 1887 1839 1839 1839 1795 1795 1795 1711 1752 1795 1839 1839 1887 1839 1795 1471 1711 1711 1936 1887 1839 1936 1936 1936 2044 2044 2230 1839 1795 1839 1362 1132 1115 1066 1051 1051 1051 1051 1051 1066 1098 1036 1051 1051 1051 1051 1022 1022 1008 1022 0 0 0 0 0 0 0 0 0 0 0 0 0 0 0 0 0 0 0 0 462 462 0 0 0 1388 1415 1415 1443 1415 1471 1471 1443 1415 1415 1388 1415 1443 1443 1443 1443 0 0 1362 1338 1291 1226 1168 1168 1132 1098 1098 1051 994 955 955 931 943 955 968 968 955 968 981 955 994 0 0 1066 1051 0 0 0 0 0
    0 0 0 0 0 0 0 0 0 0 0 0 0 0 0 0 0 0 0 0 0 0 0 0 0 0 0 0 0 0 0 0 0 0 0 0 0 0 0 0 0 0 0 0 0 0 0 0 0 0 0 0 0 0 0 0 0 0 0 0 0 0 0 0 0 0 0 0 0 0 0 0 0 0 0 0 0 0 0 0 0 0 0 2164 2044 1989 0 0 0 2102 2044 2044 2102 2102 2164 2230 2230 2725 2299 2299 0 0 0 0 0 0 0 0 0 0 0 0 0 0 0 0 0 2164 1989 1989 1936 1936 1887 1936 1887 1936 1839 2044 1989 2102 2230 2230 2164 2230 2230 2453 2230 2374 2299 1936 1989 2044 1989 1989 1989 1936 1936 1887 1936 1887 1887 1839 1839 1839 1839 1839 1936 1887 1936 1989 1989 1887 1887 1887 1936 1839 0 1839 1752 1795 1839 1795 1887 1752 1565 1711 1672 1795 1887 1887 1839 1839 1887 1989 1936 2044 1839 1711 1672 1672 1711 1711 1711 1795 1795 1795 1795 1839 1887 1795 1887 1839 1752 1795 1839 1887 1887 1887 1839 1795 1501 1711 1711 1936 1887 1887 1936 1936 1989 2044 2044 2164 1795 1711 1672 1291 1098 1098 1066 1051 1051 1051 1051 1051 1066 1082 1036 1051 1051 1051 1051 1022 1036 1022 1036 0 0 0 0 0 0 0 0 0 399 0 0 0 0 791 791 0 0 0 0 0 0 0 0 459 462 0 0 0 1314 1388 1338 0 0 0 0 0 0 0 0 0 0 0 0 1291 1247 1168 1098 1082 1066 1051 1051 1022 968 943 955 931 943 955 968 968 955 968 981 968 0 0 0 1066 1051 0 0 0 0 0
    0 0 0 0 0 0 0 0 0 0 0 0 0 0 0 0 0 0 0 0 0 0 0 0 0 0 0 0 0 0 0 0 0 0 0 0 0 0 0 0 0 0 0 0 0 0 0 0 0 0 0 0 0 0 0 0 0 0 0 0 0 0 0 0 0 0 0 0 0 0 0 0 0 0 0 0 0 0 0 0 0 0 0 0 2044 0 0 0 0 2102 2044 2044 2102 2102 2164 2230 2230 2725 2299 2299 0 0 0 0 0 0 0 0 0 0 0 0 0 0 0 0 0 2164 1989 1989 1936 1936 1887 1936 1887 1936 1839 2044 1989 2044 2230 2230 2164 2230 2164 2453 2230 2374 2230 1936 1936 1989 1989 1936 1989 1936 1936 1936 1936 1936 1936 1887 1887 1887 1936 1887 1936 1887 1936 1989 1936 1887 1839 1839 1839 1795 1752 1752 1711 1752 1752 1795 1839 1711 1533 1672 1672 1795 1839 1839 1839 1839 1887 1989 1989 2102 1887 1839 1795 1795 1839 1795 1795 1795 1795 1795 1795 1839 1887 1839 1936 1936 1752 1795 1839 1839 1795 1795 1795 1711 1501 1752 1711 1936 1936 1887 1936 1936 1989 2044 1989 2102 1752 1599 1471 1226 1082 1098 1066 1051 1051 1051 1066 1051 1082 1082 1036 1066 1066 1082 1066 1022 1036 1008 1022 0 0 0 0 0 0 0 0 0 404 0 0 0 0 817 808 0 0 0 0 0 0 0 0 0 0 0 0 0 0 0 0 0 0 0 994 0 919 0 0 0 0 0 0 0 1187 1149 1066 1051 1051 1022 1022 994 955 943 943 931 955 955 955 955 955 968 981 981 0 0 0 1082 1051 0 0 0 0 0
    0 0 0 0 0 0 0 0 0 0 0 0 0 0 0 0 0 0 0 0 0 0 0 0 0 0 0 0 0 0 0 0 0 0 0 0 0 0 0 0 0 0 0 0 0 0 0 0 0 0 0 0 0 0 0 0 0 0 0 0 0 0 0 0 0 0 0 0 0 87 86 0 0 0 79 0 0 0 0 0 0 0 0 0 0 0 0 0 0 2044 2044 1989 2102 2102 2230 2299 2299 2725 2299 2374 0 0 0 0 0 0 0 1989 0 0 1533 0 0 0 0 0 0 2164 1989 1989 1936 1936 1887 1887 1839 1887 1839 1989 1989 2044 2164 2164 2102 2164 2164 2453 2230 2374 2230 1936 1936 1936 1936 1936 1936 1887 1936 1887 1936 1887 1936 1887 1887 1936 1936 1936 1989 1887 1989 1936 1887 1839 1752 1752 1752 1752 1752 1711 1672 1752 1752 1795 1887 1711 1501 1672 1635 1839 1839 1839 1839 1839 1936 2044 2044 2102 1936 1936 1936 1839 1936 1795 1839 1795 1795 1752 1795 1887 1936 1887 1989 1936 1795 1795 1839 1795 1752 1711 1711 1672 1565 1752 1711 1936 1936 1887 1936 1936 1936 1989 1936 2044 1752 1443 1338 1187 1082 1082 1051 1051 1051 1051 1066 1066 1082 1082 1051 1082 1082 1115 1051 1022 1022 1008 1008 0 0 0 0 0 0 0 0 418 411 0 0 0 865 845 836 845 0 0 0 8177 0 0 0 0 0 0 0 0 0 0 0 0 0 0 0 0 0 0 0 0 0 0 0 0 0 0 1036 0 1022 1008 994 994 955 955 955 943 955 955 968 968 955 968 994 994 0 0 0 1082 1066 0 0 0 0 0
    0 0 0 0 0 0 0 0 0 0 0 0 0 0 0 0 0 0 0 0 0 0 0 0 0 0 0 0 0 0 0 0 0 0 0 0 0 0 0 0 0 0 0 0 0 0 0 0 0 0 0 0 0 0 0 0 0 0 0 0 0 0 0 0 0 0 0 0 0 0 86 0 0 79 0 0 0 0 74 0 0 0 0 0 0 0 0 84 0 2044 2044 1989 2102 2164 2299 2299 2299 2725 2374 2453 0 3504 0 0 0 0 0 0 0 0 1501 0 0 0 0 0 0 0 0 0 1887 1839 1839 1839 1795 1887 1795 1936 1936 1936 2102 2102 2044 2102 0 2374 2164 2299 2299 1936 1887 1936 1936 1887 1936 1887 1887 1887 1887 1887 1936 1936 1989 1989 1989 1989 2044 1936 1989 1936 1887 1839 0 1752 1752 1752 1752 1711 1672 1752 1711 1795 1839 1711 1471 1672 1635 1839 1839 1839 1887 1839 1989 2044 2044 2164 1936 1936 1936 1887 1936 1795 1795 1795 1795 1752 1752 1839 1936 1887 1936 1936 1795 1839 1887 1795 1752 1752 1711 1672 1599 1752 1711 1936 1887 1839 1887 1887 1887 1936 1887 1936 1672 1338 1291 1168 1082 1082 1051 1051 1051 1051 1066 1066 1082 1066 1051 1082 1066 1098 1022 1008 1008 994 994 0 0 968 0 0 0 1022 0 0 415 0 0 0 0 876 876 876 886 897 0 0 0 0 0 0 0 0 0 0 0 0 0 0 0 0 0 0 0 0 0 0 0 0 0 0 0 0 0 0 1008 994 994 994 968 968 968 955 968 955 968 968 955 968 994 994 1051 1115 1066 1082 1066 0 0 0 0 0
    0 0 0 0 0 0 0 0 0 0 0 0 0 0 0 0 0 0 0 0 0 0 0 0 0 0 0 0 0 0 0 0 0 0 0 0 0 0 0 0 0 0 0 0 0 0 0 0 0 0 0 0 0 0 0 0 0 0 0 0 0 0 0 0 0 0 0 0 0 0 0 0 0 0 0 0 0 0 0 0 2164 2230 2164 0 0 0 0 0 0 2044 2044 1989 2044 2164 2299 2299 2299 2725 2374 2453 0 3679 0 0 0 0 0 0 0 0 1501 0 0 0 0 0 0 0 0 0 1887 1795 1839 1839 1795 1887 1795 1887 1887 1936 2044 2044 1989 2044 107 2230 2044 2230 2299 1887 1839 1887 1887 1795 1887 1887 1839 1839 1887 1887 1936 1887 1989 1989 1989 2102 2102 1989 2044 1989 1936 1887 0 1795 1795 1752 1752 1711 1711 1711 1672 1795 1839 1711 1501 1672 1672 1887 1887 1887 1887 1887 1989 2044 2044 2102 1936 1936 1989 1887 1936 1795 1795 1795 1752 1711 1672 1752 1795 1752 1795 1795 1752 1795 1839 1795 1752 1752 1711 1672 1599 1752 1711 1887 1887 1839 1839 1839 1839 1839 1839 1839 1533 1291 1247 1149 1098 1082 1051 1066 1051 1066 1066 1066 1066 1051 1051 1082 1051 1066 1008 994 994 994 994 994 981 0 968 994 1008 0 0 422 420 0 0 0 0 897 919 897 908 908 931 0 0 0 0 0 0 0 0 0 0 0 0 0 0 0 0 0 0 0 0 0 0 0 0 0 0 0 0 0 994 994 994 994 981 968 981 968 968 955 968 955 943 955 981 994 1036 1082 1066 1066 1066 0 0 0 0 0
    0 0 0 0 0 0 0 0 0 0 0 0 0 0 0 0 0 0 0 0 0 0 0 0 0 0 0 0 0 0 0 0 0 0 0 0 0 0 0 0 0 0 0 0 0 0 0 0 0 0 0 0 0 0 0 0 0 0 0 0 0 0 0 0 0 0 0 0 0 0 0 0 0 2230 2164 0 0 0 0 0 2164 2164 2102 0 0 0 0 0 0 2044 1989 1989 2044 2164 2230 2299 2299 2725 2299 2374 0 0 0 0 0 0 0 1533 1501 0 1443 1362 0 0 0 0 0 0 0 0 1795 1795 1839 1839 1839 1887 1795 1887 1887 1936 2044 2044 1989 1989 0 2164 2044 2230 2230 1839 1839 1887 1887 1795 1936 1887 1887 1887 1936 1936 1936 1936 1989 1989 2044 2102 2044 2044 2102 1989 1989 1936 1795 1795 1795 1795 1752 1711 1711 1711 1635 1795 1795 1672 1533 1672 1672 1936 1936 1887 1936 1887 2044 2044 2044 2102 1936 1936 1936 1839 1887 1795 1752 1795 1752 1711 1635 1672 1635 1635 0 1752 1711 1752 1795 1795 1752 1752 1711 1672 1599 1752 1672 1839 1839 1795 1795 1795 1752 1752 1672 1711 1415 1268 1206 1132 1098 1082 1051 1066 1066 1066 1066 1066 1066 1051 1051 1082 1036 1051 994 994 994 994 994 994 994 0 981 1008 1008 0 0 422 420 0 0 0 0 908 919 919 919 919 931 919 943 0 0 0 0 0 0 0 0 0 0 0 0 0 994 0 0 0 0 0 0 0 0 0 0 0 994 0 994 981 981 994 981 981 981 981 981 955 968 968 943 955 981 994 1022 1051 1051 1066 1051 0 0 0 0 0
    0 0 0 0 0 0 0 0 0 0 0 0 0 0 0 0 0 0 0 0 0 0 0 0 0 0 0 0 0 0 0 0 0 0 0 0 0 0 0 0 0 0 0 0 0 0 0 0 0 0 0 0 0 0 0 0 0 0 0 0 0 0 0 0 0 0 0 0 0 0 0 2374 2230 2102 2102 0 0 0 0 0 0 0 2102 0 0 0 0 0 0 1989 1989 1936 2044 2102 2230 2230 2299 2725 2374 2374 2943 3504 0 0 0 0 0 1635 1501 0 1415 1338 0 0 0 0 348 0 0 0 1795 1752 1795 1795 1795 1839 1752 1839 1839 1887 1989 1989 1936 1989 0 2164 2044 2230 2044 1839 1795 1839 1839 1795 1887 1839 1839 1887 1887 1936 1936 1887 1989 2044 2044 2164 2044 2044 2102 1989 2044 1989 1839 1839 1795 1795 1752 1711 1711 1672 1599 1752 1752 1672 1533 1672 1672 1936 1936 1887 1936 1887 2044 2044 2044 2102 1936 1936 1989 1887 1936 1795 1795 1795 1752 1752 1672 0 1635 0 0 0 1711 1752 1795 1795 1752 1795 1752 1711 1599 1711 1599 1795 1795 1711 1711 1711 1672 1672 1501 1471 1338 1247 1168 1098 1098 1082 1051 1066 1066 1066 1066 1066 1066 1051 1051 1082 1036 1051 994 994 994 994 994 994 994 981 981 1008 1008 1022 0 0 422 0 0 0 0 931 919 931 931 931 931 919 943 943 955 0 0 0 0 0 1022 0 0 0 0 0 0 0 0 0 0 0 0 0 0 0 994 0 981 0 994 981 981 994 994 981 994 981 994 968 994 981 955 968 981 1008 1022 1051 1036 1066 1051 0 0 0 0 0
    0 0 0 0 0 0 0 0 0 0 0 0 0 0 0 0 0 0 0 0 0 0 0 0 0 0 0 0 0 0 0 0 0 0 0 0 0 0 0 0 0 0 0 0 0 0 0 0 0 0 0 0 0 0 0 0 0 0 0 0 0 0 0 0 0 0 0 0 0 2830 2725 0 0 2230 2299 0 0 0 0 0 2102 0 0 0 0 0 0 0 0 0 0 0 2044 2102 2230 2230 2299 0 0 2374 2943 3199 0 0 3199 2725 2044 1752 1635 0 1471 0 359 0 0 0 352 0 0 0 1839 1795 1839 1839 1839 1839 1795 1839 1839 1936 1989 1989 1936 1936 0 2102 1989 2230 1936 1795 1752 1795 1839 1752 1839 1795 1795 1887 1887 1936 1936 1887 1989 2102 2102 2230 2044 2044 2102 1989 2044 2044 0 0 0 0 0 1711 1711 1672 1599 1795 1711 1672 1533 1672 1672 1936 1936 1887 1936 1887 1989 1989 1989 2044 1887 1887 1936 0 1887 1795 1795 1795 1795 1795 1711 0 0 0 0 0 1752 1795 1839 1887 1795 1839 1752 1752 1565 1635 1533 1672 1711 1635 1599 1599 1501 1501 1338 1291 1268 1187 1115 1082 1082 1082 1051 1082 1066 1066 1066 1066 1066 1051 1051 1082 1036 1036 994 994 994 994 994 994 994 994 981 1008 1022 1036 1036 1022 1008 1022 994 1008 955 931 919 931 931 931 931 919 931 931 943 955 955 931 0 0 981 0 0 0 0 0 0 0 0 0 268 267 270 0 0 0 981 0 981 955 994 981 981 994 994 994 994 994 1008 994 1008 1008 968 968 994 1008 1008 1022 1022 1036 1036 0 0 0 0 0
    0 0 0 0 0 0 0 0 0 0 0 0 0 0 0 0 0 0 0 0 0 0 0 0 0 0 0 0 0 0 0 0 0 0 0 0 0 0 0 0 0 0 0 0 0 0 0 0 0 0 0 0 0 0 0 0 0 0 0 0 0 0 0 0 0 0 0 0 0 2725 2628 2628 2537 2453 2453 2374 0 0 0 1989 2044 1989 2044 0 0 0 0 0 0 0 0 0 2044 2164 2230 2230 2299 2725 2374 2374 2943 0 0 2537 3066 2374 2044 1887 1795 0 0 0 360 352 0 0 0 0 0 1887 1839 1795 1839 1839 1839 1839 1752 1795 1795 1887 1936 1936 1887 1887 0 2044 1989 2164 1795 1752 1711 1752 1795 1752 1795 1795 1795 1839 1887 1887 1936 1887 1936 2044 2102 2230 2044 2044 2102 1989 2044 2044 0 0 0 0 0 1711 1711 1672 1599 1795 1752 1711 1533 1711 1672 1936 1936 1887 1989 1887 1989 1989 1989 2044 1887 1887 1936 1839 1887 1795 1795 1795 1795 1752 1672 0 0 0 0 0 1795 0 1839 1936 1795 1839 1752 1711 1533 1599 1471 1565 1599 1501 1443 1443 1388 1338 1291 1226 1226 1168 1098 1082 1098 1082 1051 1082 1082 1082 1066 1066 1066 1051 1051 1082 1022 0 994 994 994 1008 1008 994 994 994 994 1022 1036 1036 1036 1022 1008 1022 994 994 955 931 919 931 931 931 931 931 931 931 943 955 968 955 0 0 994 0 0 0 0 0 0 0 0 0 269 268 270 0 0 0 968 931 968 943 981 981 981 981 994 994 994 994 1008 994 1008 1022 955 919 968 981 968 994 1008 1022 1022 0 0 0 0 0
    0 0 0 0 0 0 0 0 0 0 0 0 0 0 0 0 0 0 0 0 0 0 0 0 0 0 0 0 0 0 0 0 0 0 0 0 0 0 0 0 0 0 0 0 0 0 0 0 0 0 0 0 0 0 0 0 0 0 0 0 0 0 0 0 0 0 0 0 0 2725 2725 2830 2725 2725 2537 2628 2374 2299 2102 2044 1989 2044 1989 0 0 0 0 0 0 0 0 0 2102 2164 2230 2299 2299 2725 2374 2374 2943 0 0 2628 0 2628 2164 1936 1887 2044 1989 0 360 353 352 0 0 0 0 1887 1887 1839 1887 1839 1839 1839 1752 1795 1795 1887 1887 1887 1839 1839 0 1989 1936 2044 1795 1711 1672 1711 1752 1752 1752 1795 1795 1887 1887 1936 1936 1936 1936 2102 2102 2230 2044 2102 2102 1989 2102 2102 1887 1887 1839 1839 1795 1752 1752 1711 1635 1795 1752 1711 1533 1711 1672 1936 1936 1887 1936 1887 1989 1989 1989 2044 1936 1936 1989 1839 1936 1839 1887 1887 1936 1795 0 0 0 0 0 0 1752 1752 1795 1887 1752 1752 1711 1711 1533 1565 1443 1443 1471 1415 1362 1362 1314 1268 1247 1206 1206 1149 1098 1082 1098 1082 1051 1098 1082 1082 1066 1082 1066 1051 1051 1082 1022 0 994 994 994 1008 1008 994 994 994 994 1022 1022 1022 1022 1008 994 1008 994 981 955 931 919 931 931 931 931 931 943 943 943 968 968 968 981 981 1008 0 0 0 0 0 0 0 0 0 269 0 270 0 0 0 955 919 968 943 981 981 981 981 994 981 1008 994 1008 981 1008 1008 931 876 943 955 931 994 1008 1008 1022 0 0 0 0 0
    0 0 0 0 0 0 0 0 0 0 0 0 0 0 0 0 0 0 0 0 0 0 0 0 0 0 0 0 0 0 0 0 0 0 0 0 0 0 0 0 0 0 0 0 0 0 0 0 0 0 0 0 0 0 0 0 0 0 0 0 0 0 0 0 0 0 0 0 0 2725 2830 2943 2725 2830 2628 2628 2453 2374 2230 2164 2102 2299 2102 2102 0 1989 0 0 0 0 0 0 2164 2230 2299 2299 2299 2725 2374 2374 2830 0 0 2230 2830 2830 2102 1989 1936 2164 2164 2044 360 353 0 0 0 0 0 1989 1887 1839 1936 1887 1887 1887 1752 1795 1752 1839 1887 1839 1839 1839 0 1936 1887 1989 1795 1711 1672 1752 1752 1711 1752 1839 1795 1887 1887 1936 1936 1936 1936 2102 2102 2299 2044 2102 2164 1989 2164 2164 1936 1887 1887 0 1839 1795 1795 1711 1635 1795 1752 1711 1533 1672 1672 1936 1887 1839 1936 1887 1936 1989 1989 2044 1887 1887 1936 1839 1936 1839 1839 1887 1989 0 0 0 0 0 0 0 1839 1839 1839 1887 1752 1752 1711 1711 1565 1533 1443 1415 1415 1362 1314 1291 1268 1247 1226 1187 1187 1149 1115 1115 1098 1098 1051 1098 1082 1082 1082 1082 1066 1051 1051 1082 1008 0 994 1008 994 1008 1008 1008 994 1008 1008 1022 1022 1022 1022 1008 994 1008 994 981 968 943 931 943 931 943 943 931 943 943 955 968 968 968 981 994 1008 0 0 0 0 0 0 0 0 0 268 0 270 0 0 0 955 919 968 943 981 968 981 981 994 994 1008 994 1022 994 1008 1022 943 865 886 897 886 943 981 1008 1022 0 0 0 0 0
    0 0 0 0 0 0 0 0 0 0 0 0 0 0 0 0 0 0 0 0 0 0 0 0 0 0 0 0 0 0 0 0 0 0 0 0 0 0 0 0 0 0 0 0 0 0 0 0 0 0 0 0 0 0 0 0 0 0 0 0 0 0 0 0 0 0 0 0 0 2725 2943 3066 2830 2830 2628 2628 2453 2453 2299 2230 2164 2453 2230 2299 1989 0 0 2164 1887 2164 0 0 2164 2230 2299 2299 2299 2725 2374 2374 0 0 0 1989 2044 2230 1989 1887 1887 2102 2102 1989 362 353 0 0 0 0 0 1989 1887 1839 1887 1887 1887 1887 1795 1795 1795 1839 1887 1839 1839 1839 0 1887 1887 1936 1795 1711 1672 1752 1752 1711 1711 1839 1795 1887 1887 1936 1936 1887 1936 2164 2102 2299 2044 2164 2102 1989 2164 2230 1936 1936 0 0 1839 1839 1887 1711 1599 1795 1795 1711 1533 1672 1672 1887 1887 1839 1887 1839 1887 1989 1936 1989 1839 1839 1887 1795 1839 1795 1795 1839 1936 0 0 4088 3679 0 0 2044 2102 2164 1989 1887 1795 1795 1752 1752 1599 1533 1471 1388 1388 1338 1268 1268 1226 1226 1206 1168 1187 1168 1132 1132 1115 1132 1051 1098 1098 1098 1082 1082 1066 1051 1066 1098 1022 1022 994 1008 1008 1008 1008 1008 1008 1008 1008 1022 1022 1022 1022 1008 994 1008 994 981 968 943 931 943 943 943 943 943 955 955 955 968 968 968 994 1008 0 0 0 0 0 0 0 0 0 0 0 0 271 0 0 931 955 931 968 943 981 981 981 981 994 994 1008 1008 1051 994 1036 0 955 876 876 886 865 908 943 994 1008 0 0 0 0 0
    0 0 0 0 0 0 0 0 0 0 0 0 0 0 0 0 0 0 0 0 0 0 0 0 0 0 0 0 0 0 0 0 0 0 0 0 0 0 0 0 0 0 0 0 0 0 0 0 0 0 0 0 0 0 0 0 0 0 0 0 0 0 0 0 0 0 0 0 0 2628 2943 3066 2725 2830 2628 2628 2537 2453 2374 2230 2230 2537 2374 2537 2230 0 2628 2537 1989 2230 2102 0 2164 2299 2299 2299 2299 2725 2299 2299 2830 0 0 1887 0 0 1887 1887 1887 1989 1989 1936 362 352 0 0 0 0 0 1989 1936 1887 1936 1936 1887 1887 1795 1795 1795 1839 1887 1839 1839 1839 0 1887 1839 1887 1752 1711 1672 1752 1752 1752 1672 1795 1752 1839 1887 1887 1839 1839 1839 2164 2164 2299 2044 2164 2102 2044 2164 2230 1936 1887 1887 1887 1839 1839 1887 1711 1635 1795 1839 1795 1501 1672 1635 1887 1839 1839 1887 1839 1887 1989 1989 1989 1839 1839 1887 1795 1839 1795 1795 1839 2044 2830 2830 3504 3345 3199 2830 2830 2725 2628 1989 1795 1839 1795 1752 1752 1599 1565 1501 1415 1415 1362 1268 1268 1226 1226 1226 1187 1206 1187 1168 1149 1132 1149 1066 1115 1098 1098 1082 1082 1066 1066 1066 1115 1022 1036 1008 1022 1022 1022 1036 1022 1008 1008 1008 1022 1022 1022 1022 1008 994 1008 981 968 955 943 919 943 943 943 943 943 955 955 955 981 968 981 994 1022 0 0 0 0 0 0 0 0 0 0 0 0 0 0 0 931 955 931 968 943 981 981 981 981 994 994 1008 1008 1066 1008 1051 0 955 886 876 886 865 897 943 1008 1022 0 0 0 0 0
    0 0 0 0 0 0 0 0 0 0 0 0 0 0 0 0 0 0 0 0 0 0 0 0 0 0 0 0 0 0 0 0 0 0 0 0 0 0 0 0 0 0 0 0 0 0 0 0 0 0 0 0 0 0 0 0 0 0 0 0 0 0 0 0 0 0 0 0 0 2628 0 3066 0 2830 2628 2725 2537 2453 2453 2299 2299 2628 2453 2725 2537 0 2943 2943 2044 2299 2164 0 2299 2299 2299 2230 2299 2725 2299 2299 0 2374 1839 1989 1887 1936 1936 1936 1887 1989 2044 1989 0 0 0 0 0 0 1989 1989 1936 1936 1989 1936 1887 1936 1839 1839 1839 1887 1887 1839 1839 1839 0 0 1839 1839 1752 1711 1711 1795 1752 1795 1711 1839 1839 1887 1887 1887 1887 1887 1887 2102 2102 2230 2044 2102 2102 2044 2164 2230 1936 1887 0 1887 1839 1887 1887 1752 1711 1936 1936 1839 1501 1672 1635 1839 1839 1795 1887 1839 1887 1989 1989 1989 1839 1839 1887 1752 1839 1795 1839 1839 2374 2537 2453 3199 2943 2830 2453 2537 2537 2374 1936 1752 1839 1795 1795 1752 1599 1599 1533 1471 1443 1388 1291 1291 1247 1247 1226 1206 1226 1206 1187 1168 1149 1168 1066 1115 1115 1098 1082 1082 1082 1066 1066 1115 1036 1036 1008 1036 1036 1036 1036 1022 1022 1022 1022 1022 1022 1022 1008 994 981 994 981 968 955 943 919 955 943 955 955 955 955 968 955 981 981 981 1008 1022 1022 1022 0 0 0 0 0 0 0 0 0 0 0 0 0 919 943 931 968 943 981 981 981 981 994 994 1008 1008 1098 1008 1066 0 955 876 865 876 865 897 955 1022 1022 0 0 0 0 0
    0 0 0 0 0 0 0 0 0 0 0 0 0 0 0 0 0 0 0 0 0 0 0 0 0 0 0 0 0 0 0 0 0 0 0 0 0 0 0 0 0 0 0 0 0 0 0 0 0 0 0 0 0 0 0 0 0 0 0 0 0 0 0 0 0 0 0 0 0 2725 2943 3066 0 2830 2628 2628 2537 2453 2453 2299 2299 2628 2453 2725 2725 0 3199 3199 2230 2453 2299 0 2374 2299 2299 2230 2230 2725 2230 2230 0 2628 2299 2453 2537 2628 2164 2102 2102 2164 2230 2164 2164 2164 2164 0 0 2164 2102 2102 2102 1989 2044 1887 1936 1936 1887 1887 1839 1887 1887 1887 1839 1839 1795 0 1795 1795 1752 1672 1672 1752 1752 1752 1711 1839 1839 1887 1887 1887 1839 1839 1887 2102 2044 2164 2044 2102 2102 2044 2164 2230 1936 1887 1887 1887 1887 1887 1887 1752 1752 2044 2044 1887 1501 1635 1635 1795 1795 1795 1839 1795 1839 1989 1989 2044 1887 1887 1936 1795 1839 1839 1887 0 2537 2230 2230 0 2830 2628 2299 2299 2453 2299 1936 1839 1839 1795 1795 1752 1635 1599 1565 1501 1471 1415 1314 1314 1268 1268 1247 1206 1226 1226 1187 1206 1168 1187 1066 1132 1115 1098 1082 1098 1082 1082 1082 1115 1036 1051 1022 1051 1051 1036 1051 1036 1022 1022 1022 1022 1022 1008 1008 994 981 994 981 968 955 955 931 955 955 968 955 955 968 968 968 981 968 981 994 1008 1008 1008 1008 0 0 0 0 0 0 931 0 0 0 0 981 919 943 931 968 943 981 981 981 981 994 994 1008 1008 1149 1008 0 0 943 855 845 0 865 0 0 1022 1036 0 0 0 0 0
    0 0 0 0 0 0 0 0 0 0 0 0 0 0 0 0 0 0 0 0 0 0 0 0 0 0 0 0 0 0 0 0 0 0 0 0 0 0 0 0 0 0 0 0 0 0 0 0 0 0 0 0 0 0 0 0 0 0 0 0 0 0 0 0 0 0 0 0 0 2725 2943 3199 2830 2830 2537 2628 2453 2453 2374 2299 2299 2628 2453 2830 2830 3504 3679 3345 2453 2537 2453 2299 2374 2374 2299 2230 2230 2725 2102 2164 0 2725 2374 2537 2374 2453 2164 2164 2164 2164 2230 2164 2164 2164 2164 2374 0 2164 2164 2164 2230 2102 2164 1936 1989 2044 1936 1936 1887 1936 1936 1887 1887 1839 1795 1839 1795 1795 1752 1711 1711 1752 1795 1752 1752 1839 1839 1887 1887 1839 1839 1839 1887 2044 1989 2102 2044 2044 2044 2044 2164 2164 1936 1887 1839 1887 1839 1887 1887 1752 1752 1989 2044 1839 1471 1635 1599 1752 1752 1752 1795 1795 1795 1936 1936 1989 1839 1839 0 1752 1795 1795 1839 0 2299 1936 1936 2628 2628 2230 2102 2102 2374 2164 1887 1839 1887 1795 1795 1752 1635 1635 1599 1565 1501 1415 1338 1338 1268 1291 1247 1226 1226 1226 1206 1206 1168 1206 1066 1132 1115 1098 1082 1098 1098 1082 1082 1132 1036 1051 1036 1066 1066 1051 1066 1036 1036 1036 1022 1022 1008 1008 994 994 981 994 968 968 955 955 931 968 968 968 968 968 981 981 968 994 981 994 994 1008 1008 1008 1008 0 0 0 0 981 968 931 981 0 0 0 0 919 943 931 968 943 981 981 981 981 994 1008 1022 1008 1226 1036 0 0 919 845 836 0 0 0 0 1022 1036 0 0 0 0 0
    0 0 0 0 0 0 0 0 0 0 0 0 0 0 0 0 0 0 0 0 0 0 0 0 0 0 0 0 0 0 0 0 0 0 0 0 0 0 0 0 0 0 0 0 0 0 0 0 0 0 0 0 0 0 0 0 0 0 0 0 0 0 0 0 0 0 0 0 0 2830 2943 3199 2830 2830 2537 2628 2374 2374 2374 2374 2299 2628 2453 2830 2725 3345 3679 3345 2453 2537 2453 2299 2374 2374 2230 2230 2230 2725 2102 2102 3345 0 2537 2537 2102 2230 2102 2102 2102 2164 2164 2102 2164 2230 2164 2299 2164 2164 2230 2230 2230 2164 2102 1936 1936 1989 1936 1887 1839 1887 1887 1887 1887 1839 1795 1839 1795 1795 1752 1711 1711 1795 1795 1711 1752 1887 1839 0 0 1839 1839 1795 1887 1989 1936 1989 2044 2044 1989 1989 2164 2102 1936 0 0 1839 1839 1936 1887 1752 1752 1887 2044 1839 1443 1635 1565 1711 1752 1711 1752 1752 1795 1936 1936 0 1839 1839 1936 1795 1887 1839 1795 0 2299 1795 0 0 2453 1989 2044 2102 2299 2044 1839 1839 1887 1795 1752 1711 1672 1635 1635 1599 1533 1443 1338 1338 1291 1291 1268 1226 1247 1247 1206 1226 1187 1226 1082 1132 1132 1098 1098 1098 1098 1082 1098 1149 1051 1066 1051 1066 1082 1051 1066 1036 1036 1036 1022 1008 1008 994 981 981 968 981 968 955 955 955 943 981 968 981 981 981 994 994 994 1008 994 1008 1008 1008 1008 1008 994 0 0 0 994 968 955 931 981 981 981 0 0 919 943 943 981 955 981 981 981 994 1008 1008 1022 1051 1268 1149 0 0 0 845 0 0 0 0 0 1051 1051 0 0 0 0 0
    0 0 0 0 0 0 0 0 0 0 0 0 0 0 0 0 0 0 0 0 0 0 0 0 0 0 0 0 0 0 0 0 0 0 0 0 0 0 0 0 0 0 0 0 0 0 0 0 0 0 0 0 0 0 0 0 0 0 0 0 0 0 0 0 0 0 0 0 0 2830 3066 3199 2725 2830 2453 2537 2374 2374 2374 2374 2374 2628 2537 2830 2725 3345 3504 3345 2453 2537 2453 2299 2299 2299 2230 2164 2164 2725 2044 2044 3345 0 2943 2830 2453 2453 2164 2102 2044 2102 2102 2102 2230 2164 2164 2230 2164 2230 2299 2299 2299 2230 2044 1936 1989 2044 2044 1989 1887 1936 1936 1936 1936 1887 1839 1839 1839 1795 1752 1752 1752 1795 1795 1711 1795 1887 1887 0 0 1887 1839 1839 1936 1936 1936 1989 1989 1989 1936 1989 2102 2044 0 265 0 0 1887 1989 1936 1795 1795 1839 1989 1839 1415 1599 1533 1672 1711 1711 1711 1752 1752 1887 1887 0 1839 1839 1887 1795 1795 1752 1795 0 2102 1752 1672 0 2230 1887 1989 2044 2164 1989 1752 1839 1839 1795 1752 1711 1672 1599 1599 1635 1533 1443 1362 1338 1291 1291 1268 1247 1247 1247 1206 1226 1187 1247 1082 1149 1132 1115 1098 1115 1098 1098 1098 1149 1066 1082 1066 1082 1098 1066 1066 1051 1051 1036 1022 1008 994 981 981 981 955 968 955 955 955 968 943 981 981 994 981 994 994 994 994 1008 981 994 994 1008 994 994 981 0 0 0 0 968 943 943 0 0 0 0 0 0 943 955 981 968 994 994 994 994 1008 1036 1051 1098 1291 1291 0 0 0 0 0 0 0 0 0 1066 1051 0 0 0 0 0
    0 0 0 0 0 0 0 0 0 0 0 0 0 0 0 0 0 0 0 0 0 0 0 0 0 0 0 0 0 0 0 0 0 0 0 0 0 0 0 0 0 0 0 0 0 0 0 0 0 0 0 0 0 0 0 0 0 0 0 0 0 0 0 0 0 0 0 0 0 2830 3066 3199 2725 2830 2453 2537 2299 2374 2374 2374 2374 2628 2537 2830 2725 3345 3504 3345 2374 2537 2453 2299 2299 2299 2164 2164 2164 2725 1989 1989 0 2830 2453 2537 2299 2299 2102 2044 1989 2044 2102 2102 2230 2230 2164 2164 2164 2299 2374 2299 2299 2230 2044 1989 2044 2102 2044 1989 1887 1936 1936 1989 1936 1936 1887 1887 1839 1887 1795 1795 1795 1839 1839 1795 1839 1887 1887 0 0 1839 1839 1839 1887 1887 1936 1936 1989 1936 1989 2044 2102 2044 0 265 0 1839 1887 1887 1839 1752 1795 1795 1936 1839 1415 1599 1533 1635 1672 1672 1711 1752 1752 1887 1887 1989 1887 1887 1936 1795 1839 1752 1795 0 0 1672 1501 1415 0 1711 1887 1936 2044 1936 1711 1795 1887 1795 1752 1711 1672 1599 1599 1635 1533 1443 1362 1362 0 1291 0 1247 1247 1247 1226 1247 1187 1247 1082 1149 1149 1115 1098 1115 1115 1098 1098 1149 1082 1082 1082 1098 1098 1066 1082 1066 1051 1051 1036 1008 994 981 981 981 955 968 955 955 955 968 955 994 981 994 994 994 994 1008 1008 1008 994 1008 994 1008 981 981 981 0 0 0 0 0 0 0 0 0 0 0 0 0 955 955 981 968 994 994 1008 1008 1022 1051 1066 1168 1314 1291 1635 0 0 0 0 0 0 0 0 1098 1066 0 0 0 0 0
    0 0 0 0 0 0 0 0 0 0 0 0 0 0 0 0 0 0 0 0 0 0 0 0 0 0 0 0 0 0 0 0 0 0 0 0 0 0 0 0 0 0 0 0 0 0 0 0 0 0 0 0 0 0 0 0 0 0 0 0 0 0 0 0 0 0 0 0 0 2725 2830 3066 2537 2725 2299 2453 2230 2374 2374 2374 2374 2628 2453 2830 2725 3199 3345 3199 2374 2537 2453 2299 2299 2299 2164 2164 2164 2725 1936 1936 0 0 2102 2299 2044 2044 1936 1936 1936 1989 1989 2102 2164 2102 2102 2044 2102 2230 2230 2230 2164 2102 1989 1989 2044 2044 1989 1989 1887 1989 1989 2044 1989 1936 1936 1936 1887 1989 1795 1795 1795 1839 1795 1795 1839 1887 1887 0 0 1839 1795 1839 1887 1887 1936 1936 1989 1936 1989 2044 2044 1989 0 264 0 1839 1839 1795 1752 1711 1752 1795 1887 1839 1415 1599 1501 1635 1672 1672 1711 1752 1752 1887 1887 2044 1936 1989 2044 1795 1887 1795 1839 0 0 1672 1501 1415 0 1711 1936 1989 2044 1887 1795 1839 1887 1795 1795 1711 1672 1635 1635 1635 1501 1443 1362 1362 0 1291 0 1247 1247 1247 1226 1247 1206 1247 1098 1149 1149 1115 1098 1115 1098 1098 1098 1149 1082 1082 1082 1098 1115 1082 1082 1066 1066 1051 1051 1008 1008 981 968 968 943 968 955 955 943 968 943 994 981 994 994 994 994 1008 994 1022 994 1008 994 994 994 981 981 0 0 0 0 0 0 0 0 0 0 0 0 0 943 955 981 968 994 1008 1008 1008 1022 1066 1066 1187 1338 1291 1565 0 0 0 0 0 0 0 0 1187 1115 0 0 0 0 0
    0 0 0 0 0 0 0 0 0 0 0 0 0 0 0 0 0 0 0 0 0 0 0 0 0 0 0 0 0 0 0 0 0 0 0 0 0 0 0 0 0 0 0 0 0 0 0 0 0 0 0 0 0 0 0 0 0 0 0 0 0 0 0 0 0 0 0 0 0 2628 2628 2725 2230 2537 2164 2299 2164 2299 2299 2374 2374 2537 2374 2725 2628 3066 3066 3199 2230 2537 2453 2299 2299 2230 2102 2102 2102 2628 1887 1887 0 0 2164 2374 2044 2044 1936 1936 1936 1989 1989 2044 2044 2044 1989 1989 2044 2164 2164 2102 2044 2044 1936 1936 2044 1989 1936 1936 1887 1989 1989 2102 2044 1989 1989 1989 1936 2102 1839 1839 1839 1887 1839 1795 1839 1887 1887 0 1839 1839 1795 1839 1936 1887 1936 1936 1936 1936 1936 2044 2044 1936 0 0 1839 1839 1887 1887 1752 1711 1795 1752 1752 1711 1388 1599 1471 1599 1635 1635 1711 1752 1752 1839 1887 2102 1989 2164 2164 1887 1936 1887 1989 0 0 1839 1635 1533 1839 1752 1936 1989 2044 1887 1839 1887 1936 1839 1795 0 1711 1635 1635 1635 1501 1443 0 1362 0 0 0 1247 1247 1247 1226 1247 1206 1268 1098 1168 1149 1115 1098 1098 1098 1098 1098 1132 1082 1082 1098 1098 1115 1082 1082 1082 1082 1066 1066 1022 1008 981 955 968 943 955 955 943 931 955 943 994 981 994 994 994 994 1008 1008 1022 994 994 981 981 981 968 968 0 0 0 0 0 0 0 0 0 0 415 413 0 943 955 981 968 994 1008 1008 1008 1022 1066 1066 1187 1338 1291 1501 0 0 0 0 0 0 0 0 1226 1187 0 0 0 0 0
    0 0 0 0 0 0 0 0 0 0 0 0 0 0 0 0 0 0 0 0 0 0 0 0 0 0 0 0 0 0 0 0 0 0 0 0 0 0 0 0 0 0 0 0 0 0 0 0 0 0 0 0 0 0 0 0 0 0 0 0 0 0 0 0 0 0 0 0 0 2537 2453 2374 2102 2299 2044 2164 2102 2230 2230 2374 2299 2537 2299 2628 2537 2943 2943 3066 2102 2537 2453 2374 2230 2230 2102 2102 2102 2537 1887 1887 0 0 0 2453 2102 2044 1989 1936 1936 1989 2044 2044 2044 1989 1936 1936 1989 2102 2044 2044 1989 1989 1936 1989 2102 2044 1989 1989 1887 2044 2102 2164 2164 2044 2044 2044 1989 2230 1839 1887 1887 1887 1839 1839 1887 1887 0 0 1839 1839 1839 1887 1936 1887 1887 1936 1936 1887 1936 1989 1989 1936 0 0 1839 1839 1936 1887 1752 1752 1795 1711 1635 1635 1388 1565 1471 1565 1599 1635 1711 1711 1711 1795 1839 2102 1989 2299 2164 1989 1989 1989 2230 2537 1936 1887 1711 1565 1711 1711 1887 1887 1887 1839 1839 1887 1887 1839 1795 0 1711 1599 1635 1635 1471 1443 1388 1362 0 1314 0 1268 1247 1247 1226 1247 1206 1268 1115 1168 1149 1098 1098 1098 1098 1098 1098 1132 1082 1066 1098 1082 1098 1082 1082 1066 1066 1066 1082 1022 1008 981 955 968 943 968 968 955 931 955 955 994 981 1008 994 994 994 1008 1008 1036 1008 994 981 968 968 968 968 0 968 0 0 0 0 0 0 418 418 415 413 0 919 943 981 968 994 994 994 1008 1022 1066 1066 1187 1338 1291 0 0 0 0 0 0 0 0 1226 1206 1149 0 0 0 0 0
    0 0 0 0 0 0 0 0 0 0 0 0 0 0 0 0 0 0 0 0 0 0 0 0 0 0 0 0 0 0 0 0 0 0 0 0 0 0 0 0 0 0 0 0 0 0 0 0 0 0 0 0 0 0 0 0 0 0 0 0 0 0 0 0 0 0 0 0 0 2453 2230 2164 1989 2164 1989 2102 2044 2164 2164 2299 2230 2374 2164 2453 2299 2725 2725 2830 1989 2453 2453 0 2230 2230 2102 2102 2102 2537 1936 1936 2299 0 2374 2453 2102 1989 1989 1936 1936 2044 1989 2044 2044 1936 1936 1936 1989 2102 2044 2044 1989 1936 1989 2044 2102 2044 1989 1989 1936 2102 2164 2230 2164 2044 2102 2102 2044 2299 1887 1887 1887 1887 1887 1839 1887 1887 0 0 1887 1887 1839 1887 1887 1839 1887 1887 1887 1887 1887 1989 1936 1936 0 0 1887 1839 1887 1795 1752 1711 1752 1672 1501 1599 1388 1565 1443 1565 1565 1635 1672 1711 1711 1795 1795 2044 1989 2374 2044 1989 1989 1989 2374 2537 1936 1936 1839 1672 1752 1752 1887 1887 1839 1752 1839 1887 1887 1839 1795 94 1711 1599 1635 1599 1471 1443 1388 1362 0 1314 0 1268 1247 1247 1226 1247 1206 1268 1115 1168 1149 1098 1098 1098 1098 1098 1098 1132 1082 1066 1098 1082 1098 1066 1066 1066 1066 1066 1082 1036 1022 994 968 981 943 968 955 955 931 968 0 0 0 1008 1008 1008 1008 1022 1022 1051 1008 1008 981 981 968 968 968 0 0 0 0 0 0 0 422 418 418 415 413 0 919 955 981 968 994 1008 1008 1008 1022 1066 1066 1187 1338 1314 0 0 0 0 0 0 0 0 1149 1132 1066 0 0 0 0 0
    0 0 0 0 0 0 0 0 0 0 0 0 0 0 0 0 0 0 0 0 0 0 0 0 0 0 0 0 0 0 0 0 0 0 0 0 0 0 0 0 0 0 0 0 0 0 0 0 0 0 0 0 0 0 0 0 0 0 0 0 0 0 0 0 0 0 0 0 0 2299 2102 2044 1989 2102 1989 2044 1989 2102 2102 2299 2164 2374 2102 2299 2164 2628 2537 2628 1989 2374 2374 0 2299 2299 2164 2164 2164 2537 1989 1989 2299 2164 1989 1989 1989 1887 1887 1839 1887 1989 1936 2044 2044 1887 1887 1887 1989 1989 1989 1989 1936 1887 1936 2044 2044 1936 1936 1989 1887 2102 2230 2230 2102 2044 2102 2102 2044 2299 1887 1887 1887 1887 1887 1887 1887 1887 0 1887 1887 1887 1839 1887 1887 1887 1887 1887 1887 1887 1887 1936 1936 1887 0 1839 1839 1839 1839 1795 1711 1711 1752 1635 1443 1565 1388 1565 1443 1565 1565 1635 1711 1711 1711 1795 1795 2044 1989 2453 1936 1989 2044 2102 2537 2537 1989 2102 1936 1887 1887 1887 1936 1936 1887 1711 1752 1839 1839 1795 0 94 1672 1565 1635 1599 1443 1443 1388 1362 1338 1314 1314 1268 1268 1247 1226 1247 1206 1268 1115 1168 1149 1098 1098 1098 1098 1098 1082 1132 1066 1066 1098 1082 1098 1066 1066 1066 1066 1066 1082 1051 1051 1022 994 1008 968 968 0 0 0 0 0 0 0 1008 1008 1022 1008 1022 1022 1066 1051 1036 1008 1008 994 994 994 0 0 0 0 0 0 0 0 420 420 418 415 0 919 955 981 968 994 1008 1008 1008 1022 1082 1066 1187 1362 0 0 0 0 0 0 0 0 0 0 1082 1036 0 0 0 0 0
    0 0 0 0 0 0 0 0 0 0 0 0 0 0 0 0 0 0 0 0 0 0 0 0 0 0 0 0 0 0 0 0 0 0 0 0 0 0 0 0 0 0 0 0 0 0 0 0 0 0 0 0 0 0 0 0 0 0 0 0 0 0 0 0 0 0 0 0 0 2044 1989 1989 1936 2044 1936 1989 1989 2102 2164 2299 2164 2299 2102 2230 2102 2453 2374 2453 1989 2374 2374 0 2299 2299 2164 2164 2164 2537 1989 1989 2164 1887 1795 1795 1839 1752 1795 1752 1795 1887 1887 1989 1989 1887 1887 1887 1936 1936 1936 1936 1887 1839 1887 1989 1989 1936 1936 1936 1887 2102 2230 2230 2102 2044 2102 2102 2044 2299 1887 1887 1887 1839 1887 1887 1839 1839 0 1839 1887 1887 1887 1887 1887 1887 1936 1887 1887 1887 1936 1936 1887 0 0 1839 1839 1887 1887 1752 1711 1752 1795 1672 1501 1635 1388 1599 1471 1565 1599 1672 1752 1752 1711 1839 1839 2164 2102 2628 1989 2044 2044 2230 2628 2537 2044 2230 2044 1936 1989 1989 1989 1989 1887 1672 1752 1795 1795 1752 0 94 1672 1565 1635 1565 1415 1415 1388 1362 1338 1314 1314 1291 1268 1268 1226 1268 1226 1268 1115 1168 1149 1098 1098 1082 1082 1082 1082 1132 1066 1051 1082 1066 1082 1066 1051 1066 1051 1066 1082 1066 1051 1036 0 1022 981 0 0 0 0 0 0 0 0 1008 1008 1008 1008 1022 1022 1066 1051 1051 1022 1022 994 994 994 0 0 0 0 0 0 0 0 420 420 420 415 0 919 955 981 981 1008 1008 1008 1008 1022 1082 1051 1149 1291 0 0 0 0 0 0 0 0 0 0 1082 1036 0 0 0 0 0
    0 0 0 0 0 0 0 0 0 0 0 0 0 0 0 0 0 0 0 0 0 0 0 0 0 0 0 0 0 0 0 0 0 0 0 0 0 0 0 0 0 0 0 0 0 0 0 0 0 0 0 0 0 0 0 0 0 0 0 0 0 0 0 0 0 0 0 0 0 1936 1887 1936 1887 1936 1936 1989 1989 2102 2102 2230 2102 2230 2102 2102 2044 2299 2230 2299 1989 2374 2374 2230 2299 2299 2164 2164 2164 2537 1989 1989 2102 1795 1711 1672 1752 1672 1711 1672 1711 1752 1795 1936 1887 1839 1887 1839 1887 1887 1887 1887 1839 1839 1839 1936 1936 1936 1936 1989 1887 2164 2299 2230 2102 2102 2102 2102 2044 2374 1887 1887 1936 1887 1839 1936 1887 1839 0 1839 1887 1887 1887 1936 1887 1887 1936 1936 1887 1887 1936 1936 1887 0 0 1839 1839 1936 1887 1752 1752 1752 1795 1711 1599 1672 1443 1635 1501 1599 1635 1752 1795 1795 1795 1887 1887 2230 2164 2628 2044 2044 2102 2299 2628 2537 2102 2230 2044 1936 1989 1989 2044 1989 1887 1599 1752 1752 1795 1711 1711 0 1672 1565 1672 1533 1415 1415 1388 1362 1338 1314 1314 1291 1291 1268 1226 1268 1226 1268 1115 1168 1132 1098 1098 1082 1082 1082 1082 1132 1066 1051 1082 1066 1066 1066 1066 1066 1066 1066 1098 1066 1066 1051 1022 1036 0 0 0 0 0 0 0 0 0 994 994 994 994 1022 1022 1066 1051 1036 1022 1022 1008 1008 0 0 0 0 0 0 0 0 0 0 0 0 415 0 897 955 981 981 1008 1008 1008 1008 1008 1082 1051 1115 0 0 0 0 0 0 0 0 0 0 0 1066 1051 0 0 0 0 0
    0 0 0 0 0 0 0 0 0 0 0 0 0 0 0 0 0 0 0 0 0 0 0 0 0 0 0 0 0 0 0 0 0 0 0 0 0 0 0 0 0 0 0 0 0 0 0 0 0 0 0 0 0 0 0 0 0 0 0 0 0 0 0 0 0 0 0 0 0 1989 1936 1936 1887 1936 1936 1936 1936 2044 2102 2230 2044 2102 2044 2044 1936 2164 2164 2164 1989 2374 2374 2299 0 2374 2164 2164 2164 2537 1989 1936 2044 1795 1635 1599 1672 1599 1635 1599 1635 1672 1711 1795 1839 1839 1887 1839 1839 1839 1839 1887 1839 1839 1887 1887 1936 1936 1989 1989 1936 2164 2299 2164 2102 2102 2102 2102 2044 2374 1936 1936 1936 1887 1887 1936 1887 1839 0 1839 1887 1839 1887 1887 1887 1887 1936 1936 1887 1887 1936 1936 1887 0 0 1839 1839 1887 1839 1752 1752 1795 1795 1711 1565 1672 1443 1672 1533 1635 1672 1795 1795 1839 1795 1887 1887 2230 2164 2725 2044 2044 2102 2453 2725 2628 2102 2230 2044 1887 1936 2044 1989 1989 1839 1471 1752 1752 1795 1711 1711 0 1672 1599 1672 1533 1415 1415 1388 1362 1338 1314 1314 1291 1291 1291 1247 1268 1226 1268 1098 1149 1115 1082 1082 1082 1082 1066 1066 1115 1066 1051 1082 1066 1066 1051 1066 1066 1066 1082 1115 1082 1066 1066 1051 1051 0 0 0 0 0 981 955 981 981 994 994 994 981 1008 1008 1051 1051 1036 1008 1008 1008 1008 0 0 0 0 0 0 0 0 0 0 0 0 418 0 897 955 981 968 1008 1008 1008 1008 1008 1066 1036 1098 0 0 0 0 0 0 0 0 0 0 0 1098 1098 0 0 0 0 0
    0 0 0 0 0 0 0 0 0 0 0 0 0 0 0 0 0 0 0 0 0 0 0 0 0 0 0 0 0 0 0 0 0 0 0 0 0 0 0 0 0 0 0 0 0 0 0 0 0 0 0 0 0 0 0 0 0 0 0 0 0 0 0 0 0 0 0 0 0 2044 1989 1989 1936 1936 1936 1989 1936 1989 2102 2164 1989 2044 1989 1989 1936 2164 2164 2164 1989 2374 2374 2299 0 2374 2164 2164 2164 2537 1989 1989 2164 1795 1672 1635 1672 1565 0 1565 1501 1533 1599 1672 1752 1839 1887 1839 1839 1839 1887 1887 1839 1887 1887 1887 1887 1936 1989 1989 1936 2164 2230 2102 2044 2102 2102 2102 2044 2453 1989 2044 1989 1936 1989 1936 1936 1839 1839 1839 1887 1839 1887 1887 1887 1936 1936 1936 1887 1887 1936 1936 1839 0 0 1795 1795 1839 1795 1752 1752 1795 1795 1711 1533 1599 1415 1672 1533 1635 1672 1839 1839 1839 1839 1936 1936 2230 2164 2725 1989 2044 2164 2537 2830 2628 2299 2453 2164 1989 2044 2164 2164 2102 1839 1443 1752 1752 1795 1711 1711 0 1672 1599 1711 1501 1415 1415 1388 1362 1338 1338 1338 1314 1314 1291 1247 1268 1247 1247 1066 1132 1098 1082 1082 1066 1066 1066 1066 1115 1051 1051 1082 1051 1066 1036 1051 1051 1066 1066 1098 1066 1066 1066 1051 1051 0 0 0 0 955 981 955 981 981 994 994 994 981 1008 1008 1051 1051 1036 1008 1008 1008 1008 0 0 0 0 0 0 0 0 0 0 0 0 418 0 897 955 981 968 994 1008 1008 1008 1008 1051 1036 1066 0 0 0 0 0 0 0 0 0 0 0 1098 1098 0 0 0 0 0
    0 0 0 0 0 0 0 0 0 0 0 0 0 0 0 0 0 0 0 0 0 0 0 0 0 0 0 0 0 0 0 0 0 0 0 0 0 0 0 0 0 0 0 0 0 0 0 0 0 0 0 0 0 0 0 0 0 0 0 0 0 0 0 0 0 0 0 0 0 2164 2102 2102 1989 2044 1989 1989 1936 1989 2102 2164 1989 2044 2044 1989 1989 2164 2164 2164 1989 2374 2374 2299 0 2374 2164 2164 2164 2537 2102 2102 2374 1989 1752 1752 1795 1672 0 1635 1533 1533 1599 1672 1752 1887 1936 1887 1839 1839 1887 1887 1839 1887 1887 1887 1887 1936 1989 1989 1936 2164 2230 2102 2102 2102 2102 2102 2044 2453 2044 2164 2102 1989 2102 2044 1989 1887 1887 1887 1887 1887 1887 1887 1887 1887 1936 1887 1887 1839 1887 1887 0 0 0 1795 1795 1887 1795 1795 1795 1839 1839 1752 1635 1635 1443 1711 1565 1672 1711 1839 1839 1887 1839 1936 1936 2164 2102 2725 1887 1936 2102 2725 2830 2725 2453 2628 2453 2102 2164 2374 2299 2164 1839 1443 1711 1752 1752 1711 1711 1672 1672 1599 1711 1471 1415 1415 1415 1362 1362 1338 1338 1338 1314 1314 1247 1268 1247 1226 1066 1115 0 1066 1066 1051 1066 1051 1066 1115 1051 1051 1066 1051 1051 1036 1051 1051 1051 1066 1098 1082 1066 1066 1051 1066 1051 0 0 0 968 994 968 994 981 994 994 994 994 1008 1008 1051 1036 1036 1008 0 0 0 0 0 0 0 0 0 0 0 0 0 0 0 418 0 897 955 981 968 1008 1008 1008 1008 1008 1051 1022 1066 0 0 0 0 0 0 0 0 0 1098 994 1051 1066 0 0 0 0 0
    0 0 0 0 0 0 0 0 0 0 0 0 0 0 0 0 0 0 0 0 0 0 0 0 0 0 0 0 0 0 0 0 0 0 0 0 0 0 0 0 0 0 0 0 0 0 0 0 0 0 0 0 0 0 0 0 0 0 0 0 0 0 0 0 0 0 0 0 0 2299 2299 2230 2102 2102 1989 2044 1989 1989 2102 2164 1989 2044 2044 2044 1989 2164 2164 2230 2044 2374 2374 2299 0 2453 2230 2164 2230 2628 2164 2164 2453 2164 1795 0 1936 1752 2102 1711 1599 1565 1711 1795 1839 1936 1989 1936 1839 1839 1887 1887 1839 1839 1887 1887 1839 1936 1989 1989 1936 2230 2164 2102 2044 2044 2102 2044 2044 2453 2044 2230 2102 2044 2230 2164 2102 1936 1936 1887 1936 1887 1936 1839 1887 1887 1936 1887 1839 1887 1887 1887 0 0 0 1795 1839 1989 1795 1795 1795 1839 1839 1795 1711 1711 1471 1711 1599 1711 1711 1887 1887 1887 1887 1936 1936 2164 2102 2628 1795 1795 2044 2943 2830 2830 2537 2830 2537 2102 2230 2453 2230 2044 1839 1443 1711 1711 1711 1672 1711 1672 1672 1599 1711 1443 1415 1415 1415 1362 1338 1338 1338 1338 1338 1291 1247 1268 1247 1187 1051 1098 0 1051 1066 1051 1051 1051 1051 1098 1051 1051 1066 1051 1051 1036 1036 1051 1051 1066 1098 1066 1066 1066 1051 1066 1051 0 0 0 981 994 968 994 994 994 994 994 994 1008 1008 1051 1036 1036 1022 0 0 0 0 0 0 0 0 0 0 0 0 0 0 0 0 0 908 968 981 981 1008 1008 1008 1008 1008 1066 1022 1082 0 0 0 0 0 0 0 0 1051 1066 981 1022 1036 0 0 0 0 0
    0 0 0 0 0 0 0 0 0 0 0 0 0 0 0 0 0 0 0 0 0 0 0 0 0 0 0 0 0 0 0 0 0 0 0 0 0 0 0 0 0 0 0 0 0 0 0 0 0 0 0 0 0 0 0 0 0 0 0 0 0 0 0 0 0 0 0 0 0 2453 2628 2453 0 2164 2044 2044 1989 1989 2102 2164 1989 2044 2044 2044 1989 2164 2230 2230 2044 2374 2374 2230 0 2453 2230 2230 2230 2628 2164 2230 2453 2230 1795 1887 1887 1795 1839 1599 1443 1501 0 0 0 1989 2044 1989 1887 1887 1936 1887 1839 1887 1887 1839 1839 1887 1989 1989 1936 2230 2102 2044 2044 2044 2102 2044 2044 2374 1936 2164 1989 1989 2164 2164 2102 1936 1936 1887 1936 1887 1989 1887 1887 1936 1936 1887 1887 1887 1936 1887 0 0 0 1795 1839 1989 1795 1795 1795 1839 1839 1839 1795 1752 1471 1752 1635 1752 1752 1887 1887 1887 1887 1989 1989 2164 2044 2628 1795 1752 0 3199 2830 2943 0 3199 0 2102 2230 2537 2230 1989 1795 1443 1672 1672 1672 1635 1672 1672 1672 1635 1711 1443 1415 1415 1388 1338 1338 1314 1314 1314 1314 1268 1247 1226 1247 1149 0 1066 0 0 1051 1036 1036 1036 1051 1098 1051 1051 1066 1051 1051 1036 1036 1036 1051 1066 1098 1066 1066 1066 1066 1066 1066 1036 1036 0 994 1008 981 994 994 994 981 994 981 1008 1008 1036 1022 1036 1022 1051 0 1036 0 0 0 0 0 0 0 0 0 0 0 0 0 0 919 981 994 994 1008 1008 1022 1022 1008 1066 1036 1132 0 0 0 0 1226 1226 0 1132 1082 1082 1022 1036 1036 0 0 0 0 0
    0 0 0 0 0 0 0 0 0 0 0 0 0 0 0 0 0 0 0 0 0 0 0 0 0 0 0 0 0 0 0 0 0 0 0 0 0 0 0 0 0 0 0 0 0 0 0 0 0 0 0 0 0 0 0 0 0 0 0 0 0 0 0 0 0 0 0 0 0 2537 2725 2537 0 2299 0 2102 1989 1989 2102 2164 1989 2044 2044 2044 2044 2164 2230 2230 2044 2453 2374 2299 0 2453 2230 2230 2230 2628 2164 2230 2453 2230 1795 1839 1839 1752 1711 1501 1362 1443 0 0 0 0 2044 1989 1887 1887 1936 1887 1887 1887 1887 1839 1839 1887 1989 1936 1936 2230 2044 2044 2044 2044 2044 1989 1989 2374 1887 2102 1936 1989 2102 2164 2102 1887 1839 1839 1887 1887 1936 1887 1887 1936 1989 1936 1887 1887 1936 1839 0 1752 0 1711 1795 1887 1795 1752 1752 1752 1839 1839 1795 1752 1471 1711 1635 1752 1795 1936 1936 1936 1936 2044 1989 2230 2044 2628 1795 1752 0 3345 2943 3066 0 3199 3199 2164 2299 2628 2374 1989 1752 1471 1672 1672 1635 1635 1672 1672 1672 1635 1752 1443 1415 1443 1388 1314 1314 1291 1291 1291 1291 1247 1226 1226 1226 1115 0 1051 0 1036 1036 1022 1036 1022 1036 1098 1051 1051 1066 1051 1051 1036 1051 1036 1066 1066 1115 1082 1082 1082 1082 1066 1082 1051 1051 1022 1008 1008 981 994 994 994 981 994 981 994 1008 1036 1022 1036 1022 1051 0 1036 0 0 0 0 0 0 0 0 0 0 0 0 422 0 919 981 994 994 1008 1008 1008 1008 1008 1066 1022 1132 0 0 1226 1226 1187 1206 1168 1168 1115 1115 1051 1098 0 0 0 0 0 0
    0 0 0 0 0 0 0 0 0 0 0 0 0 0 0 0 0 0 0 0 0 0 0 0 0 0 0 0 0 0 0 0 0 0 0 0 0 0 0 0 0 0 0 0 0 0 0 0 0 0 0 0 0 0 0 0 0 0 0 0 0 0 0 0 0 0 0 0 0 2537 2628 0 0 2230 0 2102 2044 1989 2102 2164 1989 2044 2102 2102 2044 2230 2230 2230 2044 2453 2374 2299 85 2453 2230 2230 0 2628 2164 2230 2453 2453 1887 1887 1795 0 0 1443 1314 1388 1415 0 0 1936 1989 1989 1887 1887 1936 1887 1887 1936 1887 1839 1887 1936 1989 1989 1936 2230 2044 2044 2044 2044 2044 1989 1989 2374 1887 2299 2044 2102 2164 2230 2102 1887 1795 1795 1839 1795 1887 1839 1887 1887 1936 1887 1887 1887 1936 1839 0 1711 1711 1672 1752 1839 1752 1795 1795 1752 1839 1795 1795 1752 1471 1711 1635 1795 1839 1989 1936 1936 1936 2044 2044 2230 2044 2628 1795 0 0 0 2725 0 0 2374 0 1887 2102 2537 2453 1989 1752 1533 1711 1672 1635 1635 1672 1672 1672 1672 1752 1471 1415 1443 1362 1314 1291 1268 1291 1268 1268 1206 1206 1206 1206 1098 0 1036 1022 1022 1022 1008 1022 0 1022 1082 1066 1051 1066 1066 1066 1036 1051 1051 1066 1082 1132 1082 1082 1082 1098 1082 1082 1051 1051 0 0 1008 981 994 994 994 981 994 981 994 1008 1022 1008 1022 1008 1036 0 0 0 0 0 0 0 0 422 422 427 422 422 0 422 0 919 981 994 994 0 0 0 0 1008 1051 1022 1115 1226 1247 1206 1206 1187 1187 1187 1187 1149 1149 1098 1149 0 0 0 0 0 0
    0 0 0 0 0 0 0 0 0 0 0 0 0 0 0 0 0 0 0 0 0 0 0 0 0 0 0 0 0 0 0 0 0 0 0 0 0 0 0 0 0 0 0 0 0 0 0 0 0 0 0 0 0 0 0 0 0 0 0 0 0 0 0 0 0 0 0 0 0 2537 2628 2453 0 2230 0 2164 2044 2044 2044 2164 1989 2044 2102 2102 2044 2230 2299 2299 2102 2453 2374 2299 85 2453 2299 2299 2299 2628 2230 2299 2628 2725 2299 2628 2044 0 0 1443 1268 1362 0 0 0 1989 2044 1989 1936 1887 1936 1839 1887 1936 1887 1839 1887 1936 2044 1989 1989 2299 2044 2044 2044 2044 2044 1989 1989 2299 1887 2453 2102 2374 2453 2537 2374 1936 1839 1795 1839 1795 1795 1752 1752 1752 1839 1795 1839 1839 1887 1839 1795 1752 1839 1752 1887 1839 1795 1795 1795 1672 1795 1752 1752 1711 1443 1672 1599 1795 1795 1989 1936 1936 1936 2044 2044 2230 2044 2537 1752 0 0 0 0 0 1672 0 0 0 1795 0 2230 1887 1672 1565 1711 1672 1635 1672 1711 1711 1711 1711 1752 1533 1471 1501 1388 1314 1291 1268 1268 1268 1247 1187 1206 1187 1187 1082 0 1022 1022 1022 1022 1008 1022 0 0 1082 1066 1051 1082 1066 1082 1051 1051 1051 1082 1082 1115 1082 1082 1082 1098 1082 1082 1051 1051 0 0 1008 981 1008 994 994 994 994 994 1008 1008 1022 994 1008 1008 1022 0 1022 0 0 0 0 0 0 420 420 425 422 422 0 0 0 919 981 994 0 0 0 0 0 1008 1051 1022 1132 1226 1247 1206 1206 1187 1206 1187 1206 1168 1168 1132 1187 1168 0 0 0 0 0
    0 0 0 0 0 0 0 0 0 0 0 0 0 0 0 0 0 0 0 0 0 0 0 0 0 0 0 0 0 0 0 0 0 0 0 0 0 0 0 0 0 0 0 0 0 0 0 0 0 0 0 0 0 0 0 0 0 0 0 0 0 0 0 0 0 0 0 0 0 2537 2537 2453 2374 2299 2230 2164 2044 2044 2044 2164 1989 2102 2102 2102 2044 2230 2299 2299 2102 2537 2374 2299 0 0 2299 2299 2299 2628 2299 2374 2628 2725 2628 2830 2374 0 0 1443 1268 1362 0 0 0 1936 1989 2044 1989 1936 1989 1887 1887 1989 1936 1887 1936 1936 1989 2044 1989 2299 2044 2044 2044 2044 2044 1989 1989 2299 1887 2537 2164 2537 2628 2725 2725 2299 1936 1839 1887 1839 1711 1672 1599 1599 1672 1672 1752 1752 0 1839 1752 1795 1887 1752 1839 1839 1839 1839 1795 1672 1752 1752 1795 1711 1388 1599 1565 1795 1795 1989 1936 1936 1936 2044 2044 2230 2044 2537 1752 0 0 0 1711 1635 1635 0 0 1839 0 0 2628 1936 1672 1635 1711 1672 1635 1711 1711 1711 1711 1752 1752 1599 1501 1565 1388 1314 1291 1268 1268 1247 1226 1149 1187 1168 1187 1066 0 1022 1022 1022 1008 994 1008 0 0 1082 1066 1051 1082 1066 1082 1051 1051 1051 1066 1066 1098 1066 1082 1082 1082 1066 1082 1051 1051 1022 0 1008 981 1008 1008 1008 994 994 994 1008 1008 1022 1008 1008 1008 1036 1022 1022 0 0 0 0 981 0 422 420 425 420 420 0 0 0 919 981 981 981 0 0 1008 0 1008 1066 1022 1149 1226 1247 1206 1226 1206 1206 1206 1206 1187 1168 1168 1206 1187 0 0 0 0 0
    0 0 0 0 0 0 0 0 0 0 0 0 0 0 0 0 0 0 0 0 0 0 0 0 0 0 0 0 0 0 0 0 0 0 0 0 0 0 0 0 0 0 0 0 0 0 0 0 0 0 0 0 0 0 0 0 0 0 0 0 0 0 0 0 0 0 0 0 0 2453 2453 2453 2374 2299 2230 2230 2102 2102 2044 2164 1989 2102 2164 2164 2102 2299 2299 2299 2164 2537 2453 2374 2453 2537 2374 2374 2453 2725 2374 2453 2725 2725 2830 2830 2537 0 0 1471 1268 1388 0 0 0 1936 1989 2102 2102 2102 1989 1887 1936 1989 1989 1936 1936 1887 1989 2044 1989 2230 2044 2044 2044 2044 2044 1989 1989 2230 1887 2164 2044 2453 2628 2830 2943 2725 2230 1936 1989 1989 1711 1672 1471 1338 1314 1415 1362 0 0 0 1752 1839 1936 1795 1936 2044 1989 1936 1839 1752 1839 1795 1887 1752 1388 1599 1565 1839 1839 1989 1936 1936 1936 2102 2102 2299 1989 2453 1752 1711 1711 1635 1711 1635 1711 1795 1936 1989 1989 0 2830 1989 1711 1672 1711 1711 1672 1711 1752 1752 1752 1752 1752 1635 1533 1599 1415 1314 1291 1268 0 1247 1226 1149 1187 1168 1168 1066 0 1022 1022 1022 1008 994 994 1008 1008 1066 1066 1036 1066 1051 1066 1036 1051 0 1051 1051 1082 1066 1066 1066 1082 1051 1082 1051 1051 0 0 1008 981 1008 1008 1008 994 994 994 1008 1008 1022 1008 1008 1008 1036 1036 1036 0 0 0 0 981 0 0 0 425 425 422 0 420 0 919 994 994 994 0 0 1008 1008 0 1082 1036 1187 1247 1247 1226 1226 1206 1206 1206 1206 1187 1187 1168 1206 1168 0 0 0 0 0
    0 0 0 0 0 0 0 0 0 0 0 0 0 0 0 0 0 0 0 0 0 0 0 0 0 0 0 0 0 0 0 0 0 0 0 0 0 0 0 0 0 0 0 0 0 0 0 0 0 0 0 0 0 0 0 0 0 0 0 0 0 0 0 0 0 0 0 0 0 2453 2453 2374 2374 2230 2164 2164 2102 2102 2044 2102 1989 2102 2164 2164 2102 2299 2299 2299 2164 2628 2453 2453 2537 2628 2537 2537 2537 2725 2453 2537 2725 2830 3066 2830 2374 0 0 1599 0 1565 0 0 1887 1936 2044 2102 2102 2102 1936 1887 1936 1989 1936 1936 1936 1887 1989 2044 1936 2164 2044 2044 2044 2044 2102 1989 1989 0 1887 2044 1887 2044 2537 3066 3066 0 0 0 0 2044 0 0 0 1247 0 0 0 0 0 0 0 0 0 0 0 2044 1936 1936 1839 1795 1839 1795 1887 1752 1388 1565 1533 1795 1839 1989 1936 1936 1936 2044 2102 2374 1989 2374 1752 1711 1752 1635 1672 1672 1711 1795 1795 1839 1936 2230 2453 1936 1672 1711 1711 1711 1672 1711 1711 1752 1752 1795 1752 1635 1565 0 1443 0 1314 1268 0 1247 1206 1132 1187 1168 1168 1066 0 1022 1022 1022 1008 994 994 994 1008 1066 1066 1036 1051 1051 1066 1036 1051 0 0 1036 1066 1051 1066 1066 1066 1036 1066 0 0 0 0 994 981 994 994 994 981 994 981 994 1008 1008 994 1008 994 1022 1022 1022 1022 1008 1008 0 981 0 0 0 0 425 422 0 0 0 931 1008 994 994 1008 1008 1008 1008 1008 1082 1036 1187 1226 1247 1226 1226 1206 1206 1206 1206 1187 1187 1168 1206 1168 0 0 0 0 0
    0 0 0 0 0 0 0 0 0 0 0 0 0 0 0 0 0 0 0 0 0 0 0 0 0 0 0 0 0 0 0 0 0 0 0 0 0 0 0 0 0 0 0 0 0 0 0 0 0 0 0 0 0 0 0 0 0 0 0 0 0 0 0 0 0 0 0 0 0 2374 2374 2299 2299 2164 2164 2164 2044 2102 2044 2102 1989 2102 2164 2164 2102 2299 2299 2299 2164 2628 2537 2453 2537 2725 2628 2628 2628 2830 2537 2628 2830 2943 3345 0 0 0 0 0 1226 0 0 0 1887 1989 2044 2164 2230 2102 1887 1887 1936 1936 1936 1936 1936 1887 1989 2102 1936 2164 2044 2044 2044 1989 2044 1989 1989 0 1887 2102 1839 1839 2299 3066 2830 1887 1635 1565 1599 1795 0 0 0 0 0 0 0 0 0 2044 0 0 0 0 0 1989 1936 1936 1795 1839 1795 1752 1795 1672 1388 1533 1533 1839 1839 1989 1936 1936 1989 2102 2102 2453 1989 2374 1795 1795 1795 1672 1711 1672 1752 1795 1795 1795 1839 1936 2164 1936 1672 1711 1711 1672 1635 1672 1711 1711 1711 1795 1752 1672 1635 0 0 0 0 1268 0 1247 1187 1115 1168 1149 1149 1051 0 1022 1022 1022 1008 994 994 1008 1008 1051 1082 1022 1036 1036 1051 1008 1022 0 0 1008 1022 1022 1051 1066 1066 1036 1066 1036 0 0 0 981 955 981 981 981 981 981 981 994 994 1008 994 994 994 1022 1022 1036 1022 1008 0 0 0 0 0 420 0 422 0 0 0 994 919 994 994 994 1008 1008 1008 1008 1008 1082 1036 1206 1226 1247 1206 1226 1206 1206 1206 1226 1187 1187 1187 1226 1206 0 0 0 0 0
    0 0 0 0 0 0 0 0 0 0 0 0 0 0 0 0 0 0 0 0 0 0 0 0 0 0 0 0 0 0 0 0 0 0 0 0 0 0 0 0 0 0 0 0 0 0 0 0 0 0 0 0 0 0 0 0 0 0 0 0 0 0 0 0 0 0 0 0 0 2299 2230 2230 2230 2102 2102 2102 2044 2102 1989 2044 1936 2044 2164 2230 2044 2299 2299 2299 2230 2628 2537 2537 2537 2725 2628 2628 2628 2830 2537 2537 2725 0 0 0 1187 1098 1168 0 0 0 0 0 0 2044 2044 2230 2164 2044 1839 1887 1936 1936 1936 1936 1936 1887 1989 2164 1936 2102 1989 2044 2044 1989 2044 1989 1989 2230 1936 2164 1839 1839 2044 0 1936 1752 1471 1415 1635 0 0 0 0 0 0 0 0 0 0 2164 0 0 0 0 1989 0 1936 1887 0 0 1711 1711 1752 1533 1338 1501 1533 1936 1887 1989 1989 1989 2044 2164 2164 2537 2044 2453 1795 1887 1839 1711 1711 1711 1795 1839 1795 1839 1887 1936 2164 1936 1635 1711 1711 1672 1635 1672 1711 1711 1711 1795 1752 1711 1672 0 0 0 0 0 0 0 1168 1115 1168 1149 1132 1051 0 1008 1022 1022 1008 994 994 1008 1008 1036 1066 1008 1036 1036 1036 1008 1008 1008 994 1008 1022 1008 1036 1066 1066 1036 1051 1022 0 1008 968 955 931 981 968 981 981 981 981 994 994 1008 994 994 994 1008 1022 1036 1022 1022 0 0 0 0 0 0 0 0 0 0 0 994 919 994 994 994 994 1008 1008 1008 1008 1098 1051 1206 1226 1247 1206 1206 1206 1206 1206 1226 1206 1206 1206 1247 1226 0 0 0 0 0
    0 0 0 0 0 0 0 0 0 0 0 0 0 0 0 0 0 0 0 0 0 0 0 0 0 0 0 0 0 0 0 0 0 0 0 0 0 0 0 0 0 0 0 0 0 0 0 0 0 0 0 0 0 0 0 0 0 0 0 0 0 0 0 0 0 0 0 0 0 2230 2164 2230 2230 2102 2044 2102 2044 2102 1989 2044 1936 2044 2164 2230 2044 2299 2299 2299 2230 2628 2537 2453 2537 2725 2628 2628 2725 2830 2628 2628 2830 0 0 0 1206 1132 0 0 0 0 553 521 1887 2044 1989 2102 2102 1936 1839 1887 1936 1936 1887 1936 1936 1887 1989 2102 1936 2044 1989 2044 2044 1989 2044 1989 2044 2230 1989 2374 1887 1936 2164 0 2230 0 1388 0 0 0 0 0 0 0 0 0 0 0 0 0 0 0 0 0 0 0 0 1752 0 0 0 0 1635 1471 1338 1501 1533 1936 1936 1989 1989 1989 2044 2164 2164 2628 1989 2299 1839 1887 1839 1711 1752 1752 1839 1839 1839 1936 1989 2044 2164 1936 1672 1711 1711 1672 1635 1672 1711 1711 1711 1795 1752 1752 1711 0 0 0 0 0 0 0 1149 1098 1168 1149 1132 1051 0 1008 1036 1022 1008 994 1008 1008 0 1036 1066 1008 1036 1036 1036 1022 1022 1022 994 1008 1022 1008 1036 1066 1051 1022 1036 1022 1022 994 968 955 931 968 968 981 981 981 981 994 994 1008 981 994 981 1008 1008 1008 968 994 0 0 0 0 0 0 0 0 0 0 968 994 931 994 994 994 994 1008 994 1008 1008 1098 1051 1206 1226 1226 1206 1206 1206 1206 1206 1226 1206 1226 1206 1247 1247 0 0 0 0 0
    0 0 0 0 0 0 0 0 0 0 0 0 0 0 0 0 0 0 0 0 0 0 0 0 0 0 0 0 0 0 0 0 0 0 0 0 0 0 0 0 0 0 0 0 0 0 0 0 0 0 0 0 0 0 0 0 0 0 0 0 0 0 0 0 0 0 0 0 0 2164 2102 2164 2230 2102 1989 2102 2044 2102 1989 2044 1936 2044 2164 2299 2044 2299 2299 2230 2299 2628 2537 2453 2537 2725 2628 2628 2725 2725 2537 2537 2943 0 0 0 1187 1115 0 0 0 0 0 0 1887 1989 1989 2044 2044 1936 1887 1936 1936 1936 1936 1936 1936 1887 2044 2044 1887 2044 1936 2044 2044 1989 2102 2044 2044 2299 2044 2537 1989 2164 2374 2943 2537 0 0 0 0 0 0 0 0 0 0 0 0 0 0 0 0 0 0 1672 0 0 0 0 0 0 0 0 0 0 1314 1533 1533 1989 1936 2044 1989 1989 2044 2164 2164 2628 1936 2044 1795 1752 1795 1711 1711 1752 1839 1839 1839 1936 2044 2044 2164 1936 1672 1711 1711 1672 1635 1672 1711 1711 1711 1795 1752 1752 1711 0 0 0 1443 0 0 0 1149 1115 1168 1149 1132 1051 1036 1022 1036 1022 1022 1008 1008 1008 0 1036 1082 1008 1036 1022 1036 1008 1022 1022 994 1008 1022 1008 1036 1066 1036 1008 1022 1008 968 886 886 897 886 931 931 943 0 968 981 981 994 994 981 994 981 994 994 1008 943 0 663 634 0 0 0 0 0 0 0 0 0 1022 955 1022 1008 1022 1022 1022 1008 1022 1022 1132 1066 1226 1226 1247 1206 1206 1206 1206 1206 1226 1206 1206 1206 1247 1247 0 0 0 0 0
    0 0 0 0 0 0 0 0 0 0 0 0 0 0 0 0 0 0 0 0 0 0 0 0 0 0 0 0 0 0 0 0 0 0 0 0 0 0 0 0 0 0 0 0 0 0 0 0 0 0 0 0 0 0 0 0 0 0 0 0 0 0 0 0 0 0 0 0 0 2230 2102 2164 2230 2102 1989 2102 2044 2102 1989 2044 1936 1989 2164 2374 2044 2299 2299 2230 2299 2628 2628 2453 2537 2830 2725 2725 2830 2830 2453 2537 3066 3345 0 0 1168 1098 0 0 0 0 0 0 1887 1936 1936 1989 1989 1887 1887 1989 1936 1936 1936 1989 1989 1887 2044 2044 1839 1989 1936 2044 2044 1989 2102 2044 2044 2299 2102 2628 2044 2299 2453 2943 2628 0 0 0 0 0 0 1168 0 0 0 0 0 0 0 0 0 0 0 1635 0 0 0 0 0 0 0 0 0 0 1314 1565 1565 1989 1989 2044 2044 1989 2044 2164 2164 2725 1887 1989 1795 1752 1795 1752 1752 1795 1887 1887 1839 1936 2044 2044 2102 1936 1635 1711 1672 1672 1635 1635 1711 1711 1711 1795 1711 1711 1711 0 0 1599 1443 0 0 0 1168 1132 1168 1168 1149 1051 1051 1022 1036 1022 1022 1008 1022 1022 0 1036 1066 1008 1022 1008 1022 994 994 994 968 981 994 981 994 1008 981 955 968 943 855 826 836 855 855 886 886 886 908 955 968 968 981 981 955 968 955 968 981 981 0 0 681 657 0 0 0 0 0 0 0 1036 1022 1036 981 1036 1022 1022 1036 1036 1036 1051 1082 1226 1168 1268 1268 1268 1226 1226 1226 1206 1226 1226 1206 1206 1187 1226 1206 0 0 0 0 0
    0 0 0 0 0 0 0 0 0 0 0 0 0 0 0 0 0 0 0 0 0 0 0 0 0 0 0 0 0 0 0 0 0 0 0 0 0 0 0 0 0 0 0 0 0 0 0 0 0 0 0 0 0 0 0 0 0 0 0 0 0 0 0 0 0 0 0 0 0 2230 1989 2102 2164 2044 1936 2044 1989 2044 1989 2044 1936 1989 2164 2453 2102 2299 2299 2230 2299 2628 2628 2453 2537 2830 2830 2830 3066 2830 2628 2830 3504 3873 0 0 1268 0 0 0 0 0 0 1839 1887 1936 1887 1936 1887 1795 1887 1989 1936 1936 1989 1989 1989 1887 2102 2044 1839 1989 1887 2044 2044 1989 2102 2044 2044 2299 2102 2628 2044 2299 2453 2725 2537 2725 0 0 0 0 0 0 0 1149 0 0 0 0 0 359 359 357 0 1635 0 0 0 0 0 0 0 0 0 0 1314 1599 1565 1989 1989 2044 2044 1989 2102 2164 2164 2725 1839 1989 1839 1752 1795 1752 1752 1839 1887 1936 1839 1989 2102 2044 2044 1887 1565 1711 1672 1672 1635 1635 1672 1672 1672 1795 1711 1711 1711 0 0 1565 1388 0 1247 0 1168 1132 1168 1168 1149 1066 1051 1036 1051 1022 1022 1008 1022 1022 0 1022 1036 994 1008 994 1008 981 968 968 943 955 968 955 968 981 943 886 836 0 0 782 782 817 0 845 845 865 876 919 943 955 968 968 919 0 897 0 0 0 750 728 700 687 0 0 728 714 0 0 0 1082 0 1051 1008 1066 1036 1036 1036 1051 1051 1066 1115 1247 1187 1291 1268 1268 1226 1226 1226 1206 1226 1226 1187 1187 1149 1187 1132 0 0 0 0 0
    0 0 0 0 0 0 0 0 0 0 0 0 0 0 0 0 0 0 0 0 0 0 0 0 0 0 0 0 0 0 0 0 0 0 0 0 0 0 0 0 0 0 0 0 0 0 0 0 0 0 0 0 0 0 0 0 0 0 0 0 0 0 0 0 0 0 0 0 0 2164 1887 2044 1989 1936 1839 1989 1989 2044 1989 2044 1936 1989 2230 2537 2102 2299 2299 2230 2299 2628 2628 2453 2537 2830 2830 2830 3066 2943 2725 3066 3504 4088 3345 0 0 0 0 0 0 0 0 1839 1887 1936 1936 1936 1936 1839 1887 1989 1936 1936 1989 1989 1989 1936 2164 2044 1839 1936 1887 2044 1989 1989 2102 1989 2044 2299 2164 2628 2044 2374 2453 2628 2374 0 0 0 0 0 0 0 0 0 0 0 0 0 0 359 357 355 0 1672 0 0 0 0 0 0 0 0 0 0 1338 1565 1533 1989 1936 1989 1989 1989 2044 2102 2164 2725 1839 1936 1839 1795 1795 1752 1752 1795 1887 1936 1839 1989 2102 2044 1989 1887 1533 1711 1672 1672 1599 1599 1635 1672 1672 1752 1672 1672 1672 1711 0 0 0 0 1226 1226 1168 1132 1149 1149 1132 1066 1066 1036 1036 1022 1022 1008 1008 1022 0 1008 1008 981 994 994 994 955 931 931 897 908 908 897 876 845 743 743 714 675 700 735 728 743 758 817 817 836 826 865 897 908 897 897 0 0 0 0 0 782 750 743 721 707 743 774 766 774 0 0 1226 1132 1149 1098 1051 1098 1051 1051 1051 1082 1098 1115 1187 1247 1206 1291 1268 1268 1226 1206 1206 1187 1206 1206 1168 1149 1115 1132 1082 0 0 0 0 0
    0 0 0 0 0 0 0 0 0 0 0 0 0 0 0 0 0 0 0 0 0 0 0 0 0 0 0 0 0 0 0 0 0 0 0 0 0 0 0 0 0 0 0 0 0 0 0 0 0 0 0 0 0 0 0 0 0 0 0 0 0 0 0 0 0 0 0 0 0 1989 1711 1887 1887 1839 1752 1936 1936 1936 1936 2044 1936 1989 2164 2537 2102 2299 2299 2230 2299 2537 2537 2453 2537 2830 2830 2830 3066 2943 2830 3066 3504 3873 3199 0 0 0 0 0 0 0 0 1887 1936 1989 1989 2044 1936 1887 1936 1989 1936 1989 1989 2044 1989 1936 2164 2044 1839 1936 1887 1989 1989 1989 2044 1989 1989 2230 2102 2628 2044 2453 2537 2830 2374 0 0 0 0 0 0 0 1187 0 0 0 0 0 0 359 359 357 0 1672 1672 0 0 0 0 0 0 0 0 0 1338 1565 1501 1936 1936 0 1936 1989 2044 2102 2164 2628 1887 1936 1887 1839 1795 1752 1752 1795 1839 1936 1795 1936 2044 1989 1936 1839 1471 1672 1672 1672 1599 1599 1635 1635 1635 1752 1635 1635 1635 1635 0 0 0 0 1206 1206 1149 1132 1149 1149 1132 1051 1066 1036 1036 1008 1008 1008 1008 1008 1008 1008 1008 981 981 981 968 919 897 897 865 865 855 836 808 728 700 694 700 675 687 714 707 728 728 774 766 791 791 817 0 0 0 826 728 0 645 669 669 735 735 735 728 721 735 766 766 774 0 0 1226 1132 0 1132 1098 1149 1066 1066 1066 1115 1149 1168 1226 1247 1206 1268 1247 1247 1226 1206 1206 1187 1187 1187 1115 1098 1066 1066 1036 0 0 0 0 0
    0 0 0 0 0 0 0 0 0 0 0 0 0 0 0 0 0 0 0 0 0 0 0 0 0 0 0 0 0 0 0 0 0 0 0 0 0 0 0 0 0 0 0 0 0 0 0 0 0 0 0 0 0 0 0 0 0 0 0 0 0 0 0 0 0 0 0 0 0 1936 1672 1839 1839 1795 1672 1887 1887 1887 1936 2044 1936 1936 2102 2537 2102 2230 2299 2164 2299 2453 2537 2374 2453 2725 2628 2628 2830 2628 2537 2725 2943 3199 2725 2044 1672 0 1635 0 0 0 0 1887 0 0 1989 2044 1936 1936 1989 1989 1936 1989 1989 2044 2044 1989 2230 1989 1839 1936 1839 1989 1936 1936 1989 1936 1989 2230 2102 2628 2044 2537 2537 2725 0 0 0 0 0 0 0 0 0 0 0 0 0 0 0 362 362 362 362 0 0 0 0 0 0 0 0 0 0 0 1362 1599 1501 1887 0 0 1887 1936 2044 2102 2102 2628 1887 1936 1887 1839 1795 1795 1795 1795 1839 1936 1839 2044 2164 1989 1936 1839 1471 1672 1672 1635 1599 1599 1635 1635 1635 1711 1599 1599 1599 1599 0 0 0 0 1187 1187 1149 1132 1132 1168 1149 1066 1082 1051 1036 1022 1022 1008 1008 1008 1008 1008 994 968 968 955 908 876 865 855 826 791 808 799 766 735 707 700 707 687 700 714 707 721 721 750 743 750 766 782 0 0 0 0 0 0 645 675 675 735 735 743 728 728 743 774 774 791 0 0 0 0 0 0 0 1362 1187 1187 1226 1247 1268 1268 1291 1268 1247 1291 1247 1247 1187 1168 1168 1149 1168 1132 1082 1066 1036 1022 1008 0 0 0 0 0
    0 0 0 0 0 0 0 0 0 0 0 0 0 0 0 0 0 0 0 0 0 0 0 0 0 0 0 0 0 0 0 0 0 0 0 0 0 0 0 0 0 0 0 0 0 0 0 0 0 0 0 0 0 0 0 0 0 0 0 0 0 0 0 0 0 0 0 0 0 1936 1672 1795 1795 1795 1672 1887 1887 1887 1887 2044 1936 1936 2102 2537 2102 2230 2299 2164 2299 2299 2453 2230 2374 2537 2537 2453 2628 2537 2453 2628 2830 2830 2537 2230 1887 1711 1672 1752 0 1752 1839 1887 0 0 1989 1989 1887 1887 1989 1936 1936 1989 1989 1989 2044 1989 2230 1989 1839 1936 1839 1936 1936 1936 1989 1936 1936 2164 2102 2628 2044 2628 2537 0 0 0 0 1036 1022 0 0 0 0 0 0 0 0 0 0 364 364 362 364 0 0 0 0 274 0 0 0 0 0 0 1415 1635 1501 1887 0 0 1887 1936 1989 1989 2044 2537 1887 1887 1887 1795 1795 1795 1752 1795 1795 1936 1936 2164 2230 1989 1936 1839 1443 1672 1635 1635 1599 1599 1635 1635 1635 1711 1565 1565 1565 1533 0 0 1247 1206 1206 1206 1168 1149 1115 1132 1115 1066 1066 1036 1022 1008 1008 1008 1008 1008 994 994 968 931 919 897 0 855 817 750 743 721 743 743 721 714 700 694 700 681 694 700 700 707 707 728 728 735 758 782 0 0 0 0 663 0 634 669 681 735 735 750 743 743 758 782 774 799 774 0 0 0 0 0 1839 1795 1565 1565 1443 1415 1415 1362 1338 1314 1291 1291 1268 1247 1168 1132 1115 1115 1115 1082 1051 1036 1022 1008 994 0 0 0 0 0
    0 0 0 0 0 0 0 0 0 0 0 0 0 0 0 0 0 0 0 0 0 0 0 0 0 0 0 0 0 0 0 0 0 0 0 0 0 0 0 0 0 0 0 0 0 0 0 0 0 0 0 0 0 0 0 0 0 0 0 0 0 0 0 0 0 0 0 0 0 1936 1672 1839 1839 1839 1711 1887 1887 1887 1887 2044 1936 1887 2044 2537 2044 2164 2230 2102 2230 2164 2374 2230 2299 2453 2537 2453 2628 2537 2537 2628 2830 2943 2628 2453 2044 1839 1795 1795 1839 1752 1839 1887 1887 0 1936 1936 1887 1887 2044 1989 1936 1989 1989 1989 2044 2044 2299 1989 1839 1936 1839 1936 1936 1936 1989 1887 1936 2164 2102 2628 2102 2725 2628 2725 0 0 0 1051 1036 1036 1098 1098 1115 0 0 0 0 0 0 0 366 366 0 0 0 0 276 276 273 0 0 0 0 0 1471 1635 1501 1795 0 1795 1839 1887 1936 1936 1989 2374 1887 1887 1839 1795 1795 1795 1752 1752 1752 1839 1887 2102 2164 1936 1839 1839 1415 1672 1635 1635 1599 1599 1635 1635 1635 1711 1533 1501 1533 1501 0 0 0 1226 1226 1226 1168 1132 1098 1098 1082 1051 1051 1036 1008 994 1008 994 994 981 981 968 897 865 845 0 694 782 735 707 714 707 714 721 707 707 694 687 694 669 687 694 687 700 700 721 714 728 750 766 0 0 0 0 0 0 0 645 687 735 735 750 750 743 758 774 766 791 758 0 0 0 0 0 1752 1711 1443 1599 1501 1471 1443 1388 1362 1314 1291 1291 1268 1247 1168 1115 1115 1082 1066 1036 1022 1008 994 994 981 0 0 0 0 0
    0 0 0 0 0 0 0 0 0 0 0 0 0 0 0 0 0 0 0 0 0 0 0 0 0 0 0 0 0 0 0 0 0 0 0 0 0 0 0 0 0 0 0 0 0 0 0 0 0 0 0 0 0 0 0 0 0 0 0 0 0 0 0 0 0 0 0 0 0 1887 1711 1839 1839 1839 1672 1839 1839 1839 1839 1989 1887 1887 1936 2537 2044 2102 2164 2102 2164 2164 2374 2230 2299 2453 2537 2374 2537 2453 2537 2537 2628 2725 2537 2453 2164 1936 1887 1839 1839 1795 1839 1887 1887 1887 1936 1936 1887 1936 2044 1989 1936 2044 2044 2044 2102 2044 2299 2044 1887 1936 1839 1936 1936 1936 1989 1887 1887 2102 2044 2537 2044 2830 0 0 0 0 0 1066 1051 1066 1115 1115 1115 1132 0 0 0 0 0 0 0 0 0 0 0 0 277 276 276 0 0 152 0 0 1501 1672 1501 1752 1752 1752 1795 1839 1887 1887 1936 2230 1887 1887 1887 1795 1795 1839 1752 1752 1752 1795 1795 1936 1989 1839 1752 1839 1415 1635 1635 1635 1599 1599 1635 1635 1599 1711 1533 1471 1471 1443 0 0 1247 1226 1206 1187 1132 1115 1066 1082 1066 1036 1036 1022 1008 981 981 968 955 943 931 919 845 826 791 758 707 721 721 700 707 700 707 714 700 700 694 687 694 675 681 687 681 687 694 700 694 700 728 766 0 0 0 0 0 0 0 657 681 735 735 750 750 750 750 774 766 791 774 799 750 0 0 0 0 1599 1338 1501 1501 1533 1443 1388 1362 1338 1291 1314 1291 1247 1168 1098 1082 1051 1036 1008 981 943 908 908 897 0 0 0 0 0
    0 0 0 0 0 0 0 0 0 0 0 0 0 0 0 0 0 0 0 0 0 0 0 0 0 0 0 0 0 0 0 0 0 0 0 0 0 0 0 0 0 0 0 0 0 0 0 0 0 0 0 0 0 0 0 0 0 0 0 0 0 0 0 0 0 0 0 0 0 1887 1672 1795 1795 1795 1635 1795 1795 1795 1795 1936 1839 1839 1887 2628 2044 1989 2102 2044 2044 2044 2230 2230 2230 2299 2453 2374 2453 2453 2537 2453 2453 2537 2453 2374 2164 1989 1887 1839 1839 1839 1936 1887 1936 1989 1989 1936 1936 1989 2044 1936 1989 2044 2044 2044 2164 2102 2299 2102 1936 1936 1887 1936 1936 1936 1989 1839 1887 2102 1989 2453 1936 0 2537 0 0 0 0 0 981 0 0 1036 0 0 0 0 0 0 0 371 359 360 0 0 0 0 0 0 0 0 0 0 0 1415 1533 1635 1471 1711 1711 1711 1752 1795 1839 1839 1839 2164 1887 1887 1887 1839 1839 1887 1795 1795 1752 1795 1795 1887 1887 1752 1672 1711 1388 1599 1599 1599 1565 1533 1565 1565 1533 1672 1388 1388 1362 1362 0 1268 1226 1168 1115 1115 1082 1066 1036 1051 1036 1008 1008 1008 981 931 931 931 886 865 865 855 808 782 766 743 714 714 714 700 700 700 700 707 700 700 687 687 694 681 687 681 681 687 694 707 700 707 758 817 0 0 0 0 0 0 0 681 700 735 735 750 758 758 758 774 774 799 791 817 799 799 0 0 0 1036 1036 0 0 1388 1362 1314 1338 1338 1291 1314 1291 1247 1187 1132 1098 1051 1022 981 955 886 845 845 855 0 0 0 0 0
    0 0 0 0 0 0 0 0 0 0 0 0 0 0 0 0 0 0 0 0 0 0 0 0 0 0 0 0 0 0 0 0 0 0 0 0 0 0 0 0 0 0 0 0 0 0 0 0 0 0 0 0 0 0 0 0 0 0 0 0 0 0 0 0 0 0 0 0 0 1887 1711 1839 1839 1839 1635 1711 1752 1752 1752 1839 1795 1795 1795 2537 2102 2044 2102 2044 1989 1989 2102 2102 2164 2164 2374 2299 2374 2453 2537 2537 2537 2537 2374 2299 2102 1989 1936 1839 1839 1839 1989 1936 1936 2044 2044 1936 1936 1989 1989 1887 1936 1989 1989 1989 2164 0 2299 2102 1936 1936 1887 1936 1936 1887 1936 1839 1839 2044 1989 2453 1936 0 2453 2453 0 0 0 955 886 855 836 836 0 0 0 0 0 0 0 0 0 0 0 0 0 0 0 0 0 0 0 0 0 1415 1533 1635 1471 1672 1672 1672 1711 1752 1795 1795 1795 2102 1839 1839 1839 1795 1839 1887 1795 1795 1752 1839 1839 1795 1635 1415 1415 1415 1338 1533 1533 1533 1533 1501 1501 1501 1471 1599 1338 1314 0 1291 0 1206 1168 1082 1066 1066 1036 1051 1022 1022 1022 981 981 981 943 876 865 865 836 826 808 817 782 758 743 735 714 714 714 700 694 694 694 700 694 694 687 687 694 681 687 681 663 675 669 687 681 681 0 0 0 1051 0 0 0 0 0 0 707 743 743 758 758 758 758 774 766 799 774 0 0 774 791 826 0 0 1008 981 0 1098 1098 1098 1098 1132 1098 1206 1226 1187 1098 1082 1066 1036 981 943 908 865 817 817 826 0 0 0 0 0
    0 0 0 0 0 0 0 0 0 0 0 0 0 0 0 0 0 0 0 0 0 0 0 0 0 0 0 0 0 0 0 0 0 0 0 0 0 0 0 0 0 0 0 0 0 0 0 0 0 0 0 0 0 0 0 0 0 0 0 0 0 0 0 0 0 0 0 0 0 1936 1711 1839 1839 1839 1599 1711 1711 1711 1752 1795 1752 1752 1752 2453 2044 1989 2102 2044 1989 1989 2044 2102 2102 2102 2230 2230 2299 2374 2453 2374 2453 2453 2374 2230 2102 2044 2044 1936 1936 1936 2044 2044 2044 2102 2044 1887 1936 1989 1989 1887 1936 1936 1936 1989 2230 0 2230 2102 1936 1936 1887 1936 1887 1887 1936 1795 1795 2044 1936 2453 0 0 0 0 0 968 955 931 0 0 808 782 0 0 0 0 0 0 0 0 0 0 0 0 0 0 0 0 0 0 148 0 0 1388 1533 1635 1443 1635 1672 1672 1672 1711 1752 1752 1752 2044 1839 1839 0 0 1839 1839 1795 1839 1795 1887 1887 1672 1471 1338 1388 1388 1338 1471 1471 1501 1533 1443 1443 1415 1415 1471 1291 1226 1022 1149 1132 1187 1168 1066 1036 1022 1008 1022 981 994 968 931 931 897 876 845 836 836 808 782 774 791 735 721 721 714 707 707 707 694 694 694 700 707 700 707 694 694 700 700 700 694 681 687 687 817 0 0 0 0 1115 1115 1206 1226 1149 0 0 0 721 758 743 758 758 758 758 766 766 791 766 0 0 0 0 0 0 0 0 0 0 0 0 1082 1082 1082 1082 1149 1187 1168 1036 994 1022 981 897 845 836 836 808 791 808 0 0 0 0 0
    0 0 0 0 0 0 0 0 0 0 0 0 0 0 0 0 0 0 0 0 0 0 0 0 0 0 0 0 0 0 0 0 0 0 0 0 0 0 0 0 0 0 0 0 0 0 0 0 0 0 0 0 0 0 0 0 0 0 0 0 0 0 0 0 0 0 0 0 0 1936 1752 1839 1839 1839 1599 1711 1711 1711 1711 1795 1752 1711 1711 2164 1989 1989 2044 2044 1989 1989 2044 2044 2102 2102 2230 2230 2230 2299 2453 2299 2374 2374 2299 2299 2164 2102 2164 2044 2044 2044 2164 2164 2164 2230 2102 1936 1936 2044 1989 1887 1936 1989 1936 1989 2230 0 2164 2044 1936 1936 1887 1936 1887 1887 1936 1752 1752 1989 1887 2453 0 0 0 0 0 0 968 931 0 0 0 0 0 0 0 0 2453 0 0 0 0 0 0 0 0 0 0 0 0 0 147 147 147 0 1565 1635 1471 1635 1635 1635 1672 1711 1752 1752 1752 1989 1839 1795 0 0 0 1795 1752 1936 2164 2164 2230 1887 1752 1672 1711 1635 1362 1471 1501 1471 1471 1415 1388 1338 1362 1362 1226 1082 1008 1051 1051 1132 1132 1051 1008 981 981 981 919 931 919 876 855 836 826 817 799 0 782 750 743 743 714 714 714 714 707 714 714 707 700 700 700 707 707 714 700 700 714 714 714 700 694 700 0 0 0 1066 1098 1226 1247 1247 1314 1291 1226 0 0 0 0 758 743 766 758 758 750 766 758 791 766 0 0 0 0 0 0 0 0 0 0 0 0 0 0 0 0 0 0 1132 1022 994 1022 968 865 799 799 808 774 774 782 0 0 0 0 0
    0 0 0 0 0 0 0 0 0 0 0 0 0 0 0 0 0 0 0 0 0 0 0 0 0 0 0 0 0 0 0 0 0 0 0 0 0 0 0 0 0 0 0 0 0 0 0 0 0 0 0 0 0 0 0 0 0 0 0 0 0 0 0 0 0 0 0 0 0 1936 1795 1839 1887 1839 1635 1711 1752 1752 1752 1795 1752 1752 1752 2230 1989 1989 2044 2044 1989 1989 2044 2102 2102 2102 2164 2230 2164 2299 2374 2299 2374 2374 2230 2230 2164 2102 2164 2102 2102 2102 2164 2230 2164 2230 2044 1989 1989 2044 1936 1887 1936 1936 1936 1989 2102 1936 2164 2044 1887 1887 1887 1887 1887 1887 1936 1752 1711 2044 1989 2537 0 0 0 0 0 0 0 0 0 0 0 0 0 0 0 0 0 0 0 0 0 0 0 0 196 195 194 0 0 0 0 0 146 0 1635 1672 1471 1635 1635 1635 1635 1711 1752 1711 1711 1936 1795 1795 0 0 0 1839 1795 2102 2628 2453 2453 2164 1989 1887 1887 1795 1362 1443 1471 1443 1415 1388 1338 1291 1314 1291 1149 1036 994 1022 1022 1066 1115 1036 981 943 931 943 886 876 876 855 836 826 817 808 791 791 774 743 735 728 714 721 721 721 714 728 728 721 721 714 714 728 743 766 721 728 743 743 774 758 791 0 0 0 1115 1206 1226 0 0 0 0 0 0 0 0 0 0 766 743 758 758 750 750 758 750 791 758 0 0 0 0 0 0 0 0 0 0 0 0 0 0 0 0 0 0 0 0 0 931 886 845 766 774 782 750 750 758 0 0 0 0 0
    0 0 0 0 0 0 0 0 0 0 0 0 0 0 0 0 0 0 0 0 0 0 0 0 0 0 0 0 0 0 0 0 0 0 0 0 0 0 0 0 0 0 0 0 0 0 0 0 0 0 0 0 0 0 0 0 0 0 0 0 0 0 0 0 0 0 0 0 0 1936 1795 1839 1887 1887 1672 1752 1752 1795 1752 1795 1795 1752 1752 2230 1989 1936 2044 2044 1989 2044 2102 2044 2102 2102 2230 2299 2164 2374 2374 2230 2374 2453 2299 2230 2164 2230 2299 2102 2164 2230 2230 2299 2230 2230 1989 1936 1989 1936 1887 1839 1887 1887 1887 1936 2102 1936 2102 2044 1887 1887 1887 1887 1887 1839 1936 1752 1672 2102 2164 2628 0 7359 0 0 0 0 0 0 0 0 0 0 0 0 0 0 0 0 0 0 0 0 0 0 0 0 0 0 0 0 0 0 0 0 1672 1711 1471 1635 1635 1635 1635 1672 1752 1672 1672 1887 1752 1711 0 0 1752 1839 1752 1989 2453 2299 2453 2164 1989 1936 1887 1795 1362 1388 1415 1388 1362 1338 1268 1082 1206 1187 1098 1036 994 1022 1008 1036 1098 1022 955 919 897 908 865 855 855 845 836 817 808 799 791 782 766 743 743 728 721 721 728 728 721 735 735 735 743 743 735 735 743 774 743 728 758 750 758 774 799 0 1051 1149 1247 1247 0 0 0 0 0 0 0 0 0 0 0 766 750 766 758 750 750 758 750 782 758 0 0 0 0 0 0 0 0 0 0 0 0 0 0 0 0 0 0 0 0 0 0 0 0 0 750 758 735 743 743 0 0 0 0 0
    0 0 0 0 0 0 0 0 0 0 0 0 0 0 0 0 0 0 0 0 0 0 0 0 0 0 0 0 0 0 0 0 0 0 0 0 0 0 0 0 0 0 0 0 0 0 0 0 0 0 0 0 0 0 0 0 0 0 0 0 0 0 0 0 0 0 0 0 0 1989 1839 1887 1936 1936 1752 1795 1795 1839 1839 1887 1839 1795 1795 2230 2044 1989 2044 2044 1989 2102 2102 1989 2044 1989 2164 2299 2164 2374 2299 2230 2374 2453 2374 2299 2102 2164 2230 2044 2164 2230 2164 2230 2164 2164 1989 1936 2044 1936 1887 1887 1936 1936 1936 1936 2102 1936 2164 2044 1936 1887 1887 1887 1936 1839 1936 1711 1635 2230 0 0 0 5661 0 0 0 3504 0 3199 3066 2830 2628 2725 2628 2537 2453 2453 2299 0 0 0 0 0 0 0 0 0 0 0 0 0 0 1887 0 0 1711 1752 1501 1635 1635 1635 1635 1635 1711 1635 1635 1795 1672 1599 1565 1711 1672 1672 1599 0 2164 2164 2374 2164 1989 1936 1887 1795 1362 1338 1362 1338 1314 1314 1168 1008 1051 1082 1066 1022 981 1008 1008 1008 1066 994 943 908 886 886 865 845 845 826 817 808 799 791 782 766 758 743 743 728 728 735 735 735 735 743 750 758 766 774 758 758 766 791 791 766 766 766 774 782 0 1082 1066 0 0 0 0 0 0 0 1314 1314 0 0 0 0 0 758 750 766 758 758 758 766 758 791 766 0 0 0 0 0 0 0 0 0 0 0 0 0 0 0 0 0 0 0 0 0 0 0 0 0 728 735 728 735 735 0 0 0 0 0
    0 0 0 0 0 0 0 0 0 0 0 0 0 0 0 0 0 0 0 0 0 0 0 0 0 0 0 0 0 0 0 0 0 0 0 0 0 0 0 0 0 0 0 0 0 0 0 0 0 0 0 0 0 0 0 0 0 0 0 0 0 0 0 0 0 0 0 0 0 1989 1887 1887 1887 1887 1752 1795 1795 1839 1839 1887 1887 1839 1887 2164 2164 2044 2230 2102 2044 2164 2044 1989 1989 1936 1989 2044 1936 2164 2044 2164 2299 2453 2374 2299 2164 2230 2299 2164 2230 2374 2299 2374 2299 2230 2044 1989 2044 1989 1887 1887 1936 1936 1989 2044 2164 1989 2164 2102 1936 1936 1887 1887 1936 1887 1989 1711 1599 0 0 0 0 0 0 0 0 3345 0 3066 2725 2537 2537 2453 2453 2374 2299 2299 2164 2164 2164 0 0 0 1599 0 0 0 0 0 0 1711 1989 1936 1795 1501 1752 1752 1501 1635 1635 1635 1599 1599 1672 1599 1565 1752 1471 1362 1362 1533 1501 0 0 0 0 2374 2453 2164 2044 2044 1936 1795 1362 1268 1314 1291 1268 1268 1066 955 994 1008 1022 994 968 981 981 994 1036 981 931 908 886 897 865 845 845 826 817 808 799 791 774 766 766 750 750 728 728 735 743 750 750 758 774 782 791 799 791 782 774 782 799 766 758 758 766 774 0 1115 1098 0 0 0 0 0 0 1314 1314 0 0 0 0 0 0 0 0 774 766 766 758 766 766 799 791 0 774 782 0 0 0 0 0 0 0 0 0 0 0 0 0 0 0 0 0 0 0 0 0 201 735 735 728 735 743 0 0 0 0 0
    0 0 0 0 0 0 0 0 0 0 0 0 0 0 0 0 0 0 0 0 0 0 0 0 0 0 0 0 0 0 0 0 0 0 0 0 0 0 0 0 0 0 0 0 0 0 0 0 0 0 0 0 0 0 0 0 0 0 0 0 0 0 0 0 0 0 0 0 0 2044 1936 1936 1989 1936 1839 1887 1887 1887 1887 1936 1936 1887 1887 2102 2164 2044 2230 2102 2102 2164 2044 1989 2044 1989 2044 1936 1839 2102 2044 2230 2374 2537 2374 2374 2230 2230 2299 2230 2299 2374 2374 2453 2299 2230 2102 2044 2044 1936 1887 1887 1887 1936 1936 1989 2044 1989 2164 2102 1936 1936 1936 1887 1936 1887 1989 1711 1565 0 0 0 0 7359 0 0 3504 3199 0 2943 2230 2299 2374 2299 2299 2230 2164 2164 2102 2230 2102 1936 0 1752 1635 1599 0 0 0 0 0 1839 2299 2102 1989 1599 1795 1795 1533 1672 1635 1599 1565 1599 1635 1533 1501 1672 1362 1314 1291 1362 1388 0 0 0 0 2537 2537 2230 2044 2102 1989 1795 1362 1247 1247 1247 1206 1187 1022 897 968 981 981 981 955 968 968 981 1008 968 931 919 886 886 865 845 845 817 817 808 799 791 782 774 774 750 750 735 735 743 750 758 758 766 782 791 791 808 799 782 782 791 799 774 766 774 782 782 0 0 1098 1098 1247 1226 0 1268 1226 0 1388 1388 0 0 0 0 0 0 0 0 0 0 766 774 0 0 0 0 0 799 0 0 0 0 0 0 0 0 0 0 0 0 0 0 0 0 0 0 0 0 0 0 750 750 743 750 750 0 0 0 0 0
    0 0 0 0 0 0 0 0 0 0 0 0 0 0 0 0 0 0 0 0 0 0 0 0 0 0 0 0 0 0 0 0 0 0 0 0 0 0 0 0 0 0 0 0 0 0 0 0 0 0 0 0 0 0 0 0 0 0 0 0 0 0 0 0 0 0 0 0 0 1989 1936 1936 1936 1936 1887 1887 1936 1936 1936 1989 1989 1936 1936 2102 2164 2044 2299 2102 2164 2164 2102 2044 2102 2044 2164 1936 1795 1989 1989 2299 2537 2628 2453 2374 2299 2299 2374 2164 2299 2299 2299 2299 2230 2164 2044 1989 2044 1936 1887 1887 1887 1887 1936 1989 1989 1936 2102 2102 1936 1887 1887 1887 1936 1887 1989 1711 1565 0 0 0 0 4599 0 0 3679 3066 0 2725 1989 2164 2230 2102 2164 2102 2102 2102 2102 2230 2044 1887 0 1752 1672 0 0 0 0 0 0 2044 2453 2230 2102 1711 1839 1839 1599 1672 1672 1599 1565 1565 1635 1501 1471 1672 1338 1291 1268 1291 0 0 782 750 0 0 0 0 0 2299 2102 1887 1415 1247 1247 1247 1206 1168 1008 855 931 955 943 943 931 955 955 968 1008 943 943 919 876 876 855 836 836 808 808 799 791 791 782 774 766 750 750 728 728 735 750 750 750 766 782 791 799 799 799 782 774 782 782 743 735 735 750 743 782 0 0 1051 1082 1168 1291 1226 1098 0 1362 0 0 0 0 300 0 0 0 0 0 0 766 0 0 0 0 0 0 0 0 0 0 0 0 157 0 981 0 0 0 0 0 0 0 0 0 0 570 0 0 0 743 743 750 750 750 0 0 0 0 0
    0 0 0 0 0 0 0 0 0 0 0 0 0 0 0 0 0 0 0 0 0 0 0 0 0 0 0 0 0 0 0 0 0 0 0 0 0 0 0 0 0 0 0 0 0 0 0 0 0 0 0 0 0 0 0 0 0 0 0 0 0 0 0 0 0 0 0 0 0 1936 1936 1936 1936 1936 1887 1936 1936 1989 1989 1989 2044 1989 1989 2102 2164 2044 2374 2164 2230 2299 2164 2164 2230 2102 2299 1936 1752 1887 1795 2102 2453 2628 2453 2374 2299 2299 2299 2102 2230 2164 2164 2164 2102 2102 1989 2044 2044 1989 1936 1887 1936 1936 1936 1989 1936 1936 2102 2044 1936 1887 1887 1887 1936 1887 1989 1672 1565 0 0 0 0 0 0 0 4088 0 0 2299 1887 2102 2102 2044 2102 2044 2044 2102 2102 2299 2044 1936 0 1752 1711 0 0 0 0 0 0 2164 2453 2299 2102 1795 1936 1839 1635 1711 1711 1635 1599 1599 1672 1533 1471 1672 1338 1268 1247 0 0 836 808 758 728 0 0 0 2943 2830 2628 2230 1839 0 0 1268 1206 1082 981 855 955 981 968 968 968 981 981 994 1036 994 955 886 845 845 836 826 836 799 808 799 791 791 782 774 766 750 758 714 728 735 743 750 743 766 782 782 791 799 791 774 766 782 766 714 714 714 721 721 721 0 0 0 0 1051 0 0 0 865 0 0 0 0 0 300 0 0 0 0 0 0 774 0 0 0 0 0 0 0 1533 1338 0 0 0 0 0 0 0 0 0 0 0 0 0 0 561 0 598 0 0 0 0 728 743 750 743 0 0 0 0 0
    0 0 0 0 0 0 0 0 0 0 0 0 0 0 0 0 0 0 0 0 0 0 0 0 0 0 0 0 0 0 0 0 0 0 0 0 0 0 0 0 0 0 0 0 0 0 0 0 0 0 0 0 0 0 0 0 0 0 0 0 0 0 0 0 0 0 0 0 0 1936 1936 1936 1936 1936 1936 1989 1989 1989 1989 1989 2102 1989 1989 2102 2164 2044 2374 2164 2230 2299 2230 2230 2299 2230 2453 2044 1839 2102 1887 2453 2537 2725 2537 2453 2299 2299 2230 2102 2164 2102 2102 2102 2044 2044 1989 2044 2102 1989 1989 1936 1989 1989 1989 2044 1989 1936 2102 2044 1936 1936 1936 1936 1936 1936 2044 1711 1565 0 0 0 0 0 0 0 3873 0 0 2102 1839 2044 2102 2044 2102 2044 2044 2102 2044 2299 2044 1936 0 1752 1672 0 0 0 207 0 0 2164 2537 2374 2164 1839 1989 1887 1672 1752 1752 1672 1672 1672 1711 1533 1471 0 1268 1115 1051 1036 955 855 808 766 750 714 687 634 0 3066 2943 2830 0 387 0 0 1036 994 955 908 0 0 1008 1008 1022 1036 1036 1022 1008 1022 886 845 826 826 826 799 808 782 799 791 791 782 782 766 774 750 750 707 728 758 774 782 758 766 782 791 799 799 791 774 766 782 774 707 707 700 707 707 700 0 0 0 0 1051 0 0 0 836 707 0 0 0 0 0 0 782 774 799 791 782 782 766 0 0 0 0 0 0 1565 1362 0 0 0 0 3679 0 0 4329 0 0 0 0 0 0 0 0 639 0 0 707 714 721 728 743 735 0 0 0 0 0
    0 0 0 0 0 0 0 0 0 0 0 0 0 0 0 0 0 0 0 0 0 0 0 0 0 0 0 0 0 0 0 0 0 0 0 0 0 0 0 0 0 0 0 0 0 0 0 0 0 0 0 0 0 0 0 0 0 0 0 0 0 0 0 0 0 0 0 0 0 1936 1989 1936 1989 1936 1936 1989 2044 2044 2044 2044 2102 2044 1989 2102 2230 2102 2453 2164 2230 2299 2230 2164 2299 2230 2453 1989 1887 2299 2044 2537 2537 2628 2537 2453 2230 2299 2164 2044 2164 2102 2102 2044 2044 2044 1989 1989 2044 1989 1989 1936 1989 1989 1989 2044 1989 1936 2102 2102 1989 1936 1936 1936 1936 1936 2044 1711 1565 0 0 0 0 0 0 0 0 2628 0 2102 1887 2044 2102 2044 2102 2044 2044 2102 2044 2374 2044 1936 0 1752 1672 0 0 0 207 0 0 2164 2537 2374 2164 1887 2044 1936 1711 1752 1752 1711 1711 1672 1711 1501 0 0 1206 1022 994 994 931 865 817 782 791 750 714 707 707 707 750 758 766 791 791 826 836 836 0 0 0 0 0 0 0 0 0 1022 943 955 943 908 845 836 836 817 836 808 817 799 791 791 791 782 782 766 758 707 750 774 791 791 766 766 791 791 799 791 782 766 758 774 782 700 694 681 694 694 681 0 0 0 0 0 0 0 0 791 700 0 0 743 766 758 766 774 774 791 791 774 774 766 782 782 774 782 0 0 1565 1388 0 0 0 0 3504 4088 4329 4329 0 0 0 0 0 0 0 0 669 707 707 707 714 714 721 728 728 0 0 0 0 0
    0 0 0 0 0 0 0 0 0 0 0 0 0 0 0 0 0 0 0 0 0 0 0 0 0 0 0 0 0 0 0 0 0 0 0 0 0 0 0 0 0 0 0 0 0 0 0 0 0 0 0 0 0 0 0 0 0 0 0 0 0 0 0 0 0 0 0 0 0 1936 1989 1936 1989 1989 1989 1989 1989 1989 1989 2044 2102 2044 1989 2044 2230 2102 2453 2164 2230 2230 2164 2102 2230 2164 2374 1795 1839 2044 2102 2374 2453 2628 2628 2453 2299 2374 2230 2102 2164 2102 2102 2044 2044 1989 1989 1989 1989 1936 1936 1936 1989 1989 1989 2044 1989 1936 2102 2102 1989 1936 1936 1936 1936 1989 2102 1711 1565 0 0 0 0 0 0 0 0 0 0 2044 1887 2044 2044 2044 2044 2044 2044 2044 2044 2299 1989 1887 1989 1752 1711 0 0 0 207 0 0 2230 2537 2374 2230 1887 2044 1936 1752 1752 1752 1672 1711 0 0 0 0 0 1098 994 955 968 908 876 817 791 808 782 728 750 758 728 774 766 782 791 791 808 808 0 0 0 0 0 0 0 0 0 0 0 0 0 0 0 855 817 826 817 808 791 808 791 782 782 799 774 774 766 750 707 743 782 791 791 774 758 791 791 799 791 782 766 758 766 791 700 694 681 681 681 663 0 0 0 0 0 0 0 0 743 694 0 766 735 766 743 766 766 758 774 782 766 766 758 774 774 766 774 0 1599 1565 1415 1338 0 0 0 3679 0 5661 0 0 0 0 570 561 0 0 707 687 707 707 700 707 714 714 721 721 0 0 0 0 0
    0 0 0 0 0 0 0 0 0 0 0 0 0 0 0 0 0 0 0 0 0 0 0 0 0 0 0 0 0 0 0 0 0 0 0 0 0 0 0 0 0 0 0 0 0 0 0 0 0 0 0 0 0 0 0 0 0 0 0 0 0 0 0 0 0 0 0 0 0 1989 1989 1989 2044 1989 1989 1989 1989 1989 1989 1989 2044 1989 1989 2044 2230 2102 2453 2164 2230 2164 2102 2102 2164 2102 2164 1752 1565 2102 2044 2374 2374 2537 2537 2453 2374 2230 2102 2044 2102 2044 2044 1989 1989 1989 1989 1989 2044 1989 1989 1936 1989 2044 2044 2044 1989 1936 2102 2102 1989 1989 1989 1936 1989 1989 2230 1711 1565 0 0 0 0 0 0 0 0 0 0 1989 1839 2044 2044 2044 2044 2044 2044 2044 2044 2299 1936 1839 0 0 0 0 0 0 209 210 206 2299 2537 2374 2230 1936 2102 1936 1752 1752 1752 1672 0 0 0 0 0 0 0 955 886 919 886 865 808 791 817 826 735 791 799 735 782 774 791 791 791 799 799 799 836 0 0 0 0 0 0 0 0 0 0 0 0 0 0 0 0 0 0 0 799 791 774 774 782 774 766 750 735 694 728 782 799 799 782 758 791 791 791 782 774 758 758 758 782 700 694 681 675 663 0 0 0 0 0 574 0 0 0 721 700 714 758 743 750 735 750 750 750 766 766 750 750 750 766 758 750 766 0 0 1599 1443 1415 0 0 0 0 0 6133 4906 0 574 574 570 566 0 0 714 714 714 714 714 714 714 721 714 721 0 0 0 0 0
    0 0 0 0 0 0 0 0 0 0 0 0 0 0 0 0 0 0 0 0 0 0 0 0 0 0 0 0 0 0 0 0 0 0 0 0 0 0 0 0 0 0 0 0 0 0 0 0 0 0 0 0 0 0 0 0 0 0 0 0 0 0 0 0 0 0 0 0 0 1936 1989 2044 1989 1936 1936 1936 1936 1936 1936 1936 1989 1989 1936 1989 2164 2044 2374 2102 2102 0 0 2164 2230 2164 2230 1711 0 0 0 2725 2374 2628 2628 2453 2453 2453 2230 2230 2164 2044 2102 1989 1989 1989 1989 1989 1989 2044 2044 1989 2044 2044 2044 2044 1989 1936 2102 2102 1989 1989 1989 1989 1989 2044 2374 1711 0 0 0 0 0 0 0 0 0 0 0 0 1839 2044 2044 1989 1989 1989 2044 2044 1989 2374 1839 0 0 0 0 0 0 0 0 209 0 2230 2453 2299 2164 1887 2044 1936 1752 1795 0 0 0 0 0 0 0 0 0 931 865 897 876 855 808 799 826 0 0 808 808 743 782 774 782 791 791 799 791 791 826 0 0 0 0 0 0 0 0 0 0 0 0 0 0 0 0 0 0 0 0 791 774 774 782 774 766 743 721 657 735 766 782 782 766 750 782 791 791 782 774 758 758 758 782 700 694 687 0 0 0 0 0 0 588 574 0 0 0 728 728 728 766 743 750 735 750 750 750 758 758 743 750 750 758 750 750 758 0 1533 1565 1471 1471 1711 0 0 2943 0 0 5256 0 0 0 579 570 0 735 714 714 714 714 714 714 714 721 714 721 0 0 0 0 0
    0 0 0 0 0 0 0 0 0 0 0 0 0 0 0 0 0 0 0 0 0 0 0 0 0 0 0 0 0 0 0 0 0 0 0 0 0 0 0 0 0 0 0 0 0 0 0 0 0 0 0 0 0 0 0 0 0 0 0 0 0 0 0 0 0 0 0 0 0 1936 1989 1989 2044 2044 1989 2044 2044 2102 1989 1989 2102 2044 1887 1936 2164 1989 2299 1989 2044 0 0 0 0 0 0 0 0 0 0 0 0 0 0 2299 2453 2628 2102 1989 2044 1887 1989 1936 1936 1989 1936 1989 2044 2044 2044 1989 2102 2044 1989 1989 1936 1887 2044 2044 1989 1936 1936 1936 1936 2044 2374 1752 0 0 0 0 0 0 0 0 0 0 0 0 1839 2102 2044 1989 1989 1989 2044 2102 2044 2537 1795 0 0 0 0 0 0 0 0 0 2453 2102 2299 2164 2102 1887 2044 1936 1795 1795 0 0 0 0 0 0 0 0 0 908 865 886 865 865 817 808 0 0 0 808 808 743 782 774 782 791 791 799 791 791 826 0 0 0 0 0 0 0 0 0 0 0 0 0 0 0 0 0 0 0 0 0 808 791 782 758 735 728 700 0 735 766 766 758 750 743 774 774 782 766 758 750 758 766 782 707 707 707 0 0 0 0 0 0 588 570 541 0 0 750 758 743 782 758 758 743 750 750 750 750 750 743 743 743 750 743 743 0 0 1443 1471 1415 1471 1672 0 0 0 0 4599 0 0 0 0 593 584 0 721 714 714 714 714 714 714 714 714 714 721 0 0 0 0 0
    0 0 0 0 0 0 0 0 0 0 0 0 0 0 0 0 0 0 0 0 0 0 0 0 0 0 0 0 0 0 0 0 0 0 0 0 0 0 0 0 0 0 0 0 0 0 0 0 0 0 0 0 0 0 0 0 0 0 0 0 0 0 0 0 0 0 0 0 0 1839 1887 1936 1936 1936 1887 1989 1936 2164 1887 1839 0 0 0 0 0 0 0 0 0 0 0 0 0 0 0 0 0 0 0 0 0 0 0 0 0 2628 2044 1887 0 0 1839 1795 1887 1887 1839 0 2102 2164 2164 2102 2230 2102 2044 2102 1989 1839 1989 1989 1936 1936 1936 1936 1936 2044 2453 0 0 0 0 0 0 0 0 0 0 0 0 0 0 2102 2044 2044 2044 2044 0 0 0 2537 0 0 0 0 0 0 0 0 0 0 2299 2044 2164 2102 2102 1887 2044 1989 1839 0 0 0 0 0 0 0 0 0 0 908 865 897 876 876 817 817 0 0 0 808 808 743 782 774 782 791 791 799 791 791 817 0 0 0 0 0 603 613 0 799 791 808 808 808 817 817 808 817 817 855 855 817 817 799 0 0 0 0 0 0 735 766 766 766 743 735 766 766 782 766 750 750 750 766 782 707 707 700 687 657 0 0 0 0 593 570 541 0 799 758 766 750 782 758 750 743 750 750 750 743 750 735 743 743 750 735 735 0 0 1388 1443 1415 1501 1672 0 4088 2725 3679 3345 0 0 0 0 603 0 598 0 707 714 714 714 707 707 714 714 714 714 0 0 0 0 0</data></depth>
</opencv_storage>
