<?xml version="1.0"?>
<opencv_storage>
<gps_time_stamp>289771</gps_time_stamp>
<gps_x>-1.2368045806884766e+001</gps_x>
<gps_y>1.1126849174499512e+001</gps_y>
<gps_z>-2.2358286380767822e+000</gps_z>
<image_time_stamp>280656</image_time_stamp>
<depth type_id="opencv-matrix">
  <rows>81</rows>
  <cols>320</cols>
  <dt>s</dt>
  <data>
    0 0 0 0 0 0 0 0 0 0 0 0 0 0 0 0 0 0 0 0 0 0 0 0 0 0 0 0 0 0 0 0 0 0 0 0 0 0 0 0 0 0 0 0 0 0 0 0 0 0 0 0 0 0 0 0 0 0 0 0 0 0 0 0 0 0 0 0 0 1206 1247 1247 1338 1291 1415 1388 1388 1388 1415 1362 1362 0 1268 1226 1247 1247 1247 1226 1268 1268 1291 1291 1291 1268 1268 1247 0 0 1149 1168 1132 1098 1187 1268 1226 1187 1247 1338 0 0 0 0 1066 0 0 0 0 1168 1098 1168 1187 1187 1187 1187 1206 1206 1168 1226 1187 1168 1115 1168 1082 1066 1066 1132 1187 1206 1187 1226 1206 1206 1206 1168 1168 1098 1132 1132 1132 1132 1132 1132 1149 1132 1206 1168 1168 1168 1168 1149 1115 1168 1168 1132 1187 1168 1206 1187 1168 1187 1132 1149 1149 1115 1132 1115 1098 1115 1115 1132 1098 1115 1082 1149 1206 1226 1206 1247 1268 1247 1226 1187 1187 1036 1132 1168 1168 1066 1149 1149 1132 1149 1187 1168 1149 1149 1247 1187 1187 1247 1206 1082 1115 1082 1066 1066 1082 1066 1066 1066 1098 1082 1115 1149 1168 0 0 1388 1338 1338 1314 0 0 0 1226 1115 1098 1098 1008 1036 0 1098 1226 1149 1051 1036 1226 1149 0 0 994 0 0 1066 1066 1051 1036 1051 1051 1036 1051 1051 1036 1022 1036 1051 1036 1036 1066 1008 1008 1008 1291 0 0 0 0 0 0 0 0 0 0 0 0 0 0 0 0 0 8177 8177 0 0 0 0 0 0 0 514 514 507 518 504 504 0 0 0 0 0 0 0 0 0 0 0 0 0 0 0
    0 0 0 0 0 0 0 0 0 0 0 0 0 0 0 0 0 0 0 0 0 0 0 0 0 0 0 0 0 0 0 0 0 0 0 0 0 0 0 0 0 0 0 0 0 0 0 0 0 0 0 0 0 0 0 0 0 0 0 0 0 0 0 0 0 0 0 0 0 1226 1247 1226 1314 1268 1362 1314 1338 1362 1415 1388 1388 0 1247 1226 1247 1247 1226 1226 1247 1247 1268 1291 1291 1268 1291 1268 0 0 0 1187 0 0 1168 1206 1187 1132 0 0 0 0 0 0 0 0 0 0 0 1187 1098 1168 1187 1187 1168 1187 1206 1206 1168 1247 1187 1187 1149 1206 1132 1082 1098 1187 1247 1247 1226 1247 1226 1226 1226 1168 1168 1098 1132 1115 1132 1132 1132 1132 1149 1132 1187 1168 1168 1149 1168 1149 1132 1187 1168 1168 1187 1187 1206 1206 1187 1206 1115 1149 1149 1132 1132 1115 1115 1115 1098 1132 1082 1132 1082 0 1338 1362 1388 1362 1443 1362 1291 1206 1168 1036 1149 1168 1168 1066 1149 1149 1132 1149 1187 1168 1149 1149 1247 1187 1187 1247 1206 1082 1098 1066 1051 1051 1066 1051 1051 1051 1082 1066 1115 1168 1168 1168 0 1388 1362 1338 1314 0 0 0 1206 1082 1082 1082 981 994 981 1022 1098 1036 1022 0 1268 1268 0 0 1051 1098 1036 1082 1082 1066 1036 1051 1051 1036 1036 1036 1022 1008 1022 1036 1022 1022 1022 1022 1022 1022 1291 1008 0 0 0 0 0 0 0 0 0 0 0 0 0 0 0 0 7359 8177 0 0 0 0 0 0 0 0 500 490 514 504 504 0 0 0 0 0 0 0 0 0 0 0 0 0 0 0
    0 0 0 0 0 0 0 0 0 0 0 0 0 0 0 0 0 0 0 0 0 0 0 0 0 0 0 0 0 0 0 0 0 0 0 0 0 0 0 0 0 0 0 0 0 0 0 0 0 0 0 0 0 0 0 0 0 0 0 0 0 0 0 0 0 0 0 0 0 1247 1206 1187 1314 1247 1314 1268 1268 1314 1415 1415 0 0 0 1187 1247 1206 1226 1206 1206 1247 1247 1291 1268 1268 1291 0 0 0 0 0 0 0 0 0 1247 1187 0 1314 0 0 0 0 0 1066 1066 1066 1051 1187 1098 1168 1187 1187 1168 1187 1187 1206 1168 1247 1187 1187 1168 1268 1168 1115 1115 1226 1268 1268 1226 1226 1226 1226 1226 1187 1168 1082 1132 1115 1132 1132 1149 1132 1149 1132 1206 1187 1226 1168 1206 1149 1187 1206 1187 1187 1187 1187 1226 1206 1168 1206 1098 1149 1132 1149 1149 1132 1132 1132 1115 1187 1149 1226 0 1635 1388 1338 1338 1338 1338 1314 1226 1098 1036 1022 1168 1168 1168 1051 1132 1132 1132 1132 1187 1149 1149 1149 1247 1168 1187 1226 1206 1066 0 1036 1022 1036 1051 1036 1036 1022 1036 1036 1066 1132 1149 1149 0 1338 1338 1291 1268 1226 1082 1022 1066 1008 994 1008 968 981 968 994 994 994 994 981 0 0 0 0 1115 1168 1051 1082 1082 1066 1036 1036 1036 1022 1008 1008 1008 994 1008 1008 1008 1008 1008 1022 1036 1036 1291 0 0 0 0 0 0 0 0 0 549 0 0 0 0 0 0 0 6690 0 8177 0 0 0 0 0 0 0 481 471 0 0 0 0 0 0 0 0 0 0 0 0 0 0 0 0 0 0
    0 0 0 0 0 0 0 0 0 0 0 0 0 0 0 0 0 0 0 0 0 0 0 0 0 0 0 0 0 0 0 0 0 0 0 0 0 0 0 0 0 0 0 0 0 0 0 0 0 0 0 0 0 0 0 0 0 0 0 0 0 0 0 0 0 0 0 0 0 0 1247 1206 1314 1226 1247 1206 1226 0 1415 1471 0 0 0 1206 0 1187 1206 1187 1187 1206 1226 1268 1268 1268 1291 0 0 0 0 0 0 0 0 0 1268 0 0 0 0 0 0 1098 1098 1066 0 1066 1051 1187 1098 1168 1187 1187 1168 1187 1187 1226 1187 1268 1226 1226 1226 1291 1268 1247 1247 1338 1362 1388 1291 1226 1226 1314 1268 1187 1187 1082 1132 1132 1149 1149 1149 1149 1168 1149 1247 1226 1291 0 1206 1168 1206 1226 1206 1149 1115 1098 1132 1115 1098 1149 1066 1132 1115 1149 1132 1132 1132 1168 1132 1226 1226 0 0 1711 1415 1338 1338 1314 1314 1291 1187 1115 1066 1036 1168 1168 1168 1051 1115 1132 1115 1132 1168 1132 1132 1132 1247 1187 1187 1226 0 0 0 0 0 0 0 0 0 1008 1008 1008 1022 1082 1098 1115 1247 1291 1268 1247 1226 1187 1098 1066 1051 1008 1008 1008 968 981 968 981 955 955 955 955 0 0 0 0 0 1149 1051 1066 1066 1051 1036 1022 1022 1022 981 994 994 981 994 994 1008 994 994 1036 1036 1036 1291 1008 931 0 0 0 0 0 0 574 574 0 0 0 0 0 0 0 0 0 6690 0 0 0 0 0 0 0 0 0 0 0 0 0 0 0 0 0 0 0 0 0 0 0 0 0 0 0
    0 0 0 0 0 0 0 0 0 0 0 0 0 0 0 0 0 0 0 0 0 0 0 0 0 0 0 0 0 0 0 0 0 0 0 0 0 0 0 0 0 0 0 0 0 0 0 0 0 0 0 0 0 0 0 0 0 0 0 0 0 0 0 0 0 0 0 0 0 1388 1291 1291 1338 1268 1268 1226 0 0 1599 1533 0 0 0 0 0 1226 1226 1168 1168 1187 1187 1247 1268 1247 1291 1314 0 0 0 0 0 0 0 0 1226 1168 0 0 0 0 0 1115 1098 1082 0 1098 1066 1187 1098 1168 1168 1168 1149 1168 1187 1206 1168 1268 1206 1226 1226 1314 1291 1268 1291 1338 1415 1565 1314 0 0 1533 1291 1206 1206 1082 1149 1149 1168 1187 1168 1187 1187 1168 1247 1247 0 0 0 0 0 0 1149 1098 1082 1066 1098 1115 1082 1149 1066 1149 1132 1168 1149 1149 1149 1168 1149 1247 0 1599 1795 1711 1471 1471 1443 1443 1533 1388 0 0 0 0 1187 1168 1168 1066 1115 1132 1115 1115 1168 1115 1132 1132 1226 1206 1187 1226 0 0 0 0 0 0 0 0 0 0 0 1008 1036 1066 1082 1082 1206 1206 1226 1206 1187 1132 1066 1051 1051 1008 1008 994 955 968 955 981 943 943 968 968 0 1362 0 0 0 0 1051 0 1051 1036 1022 981 1008 1008 968 981 981 968 981 994 994 981 981 1036 1036 1036 1268 1008 968 0 0 0 0 0 618 593 593 593 0 0 0 0 0 0 0 0 0 0 0 0 0 0 0 0 0 0 0 0 0 0 0 0 0 0 0 0 0 0 0 0 0 0 0 0
    0 0 0 0 0 0 0 0 0 0 0 0 0 0 0 0 0 0 0 0 0 0 0 0 0 0 0 0 0 0 0 0 0 0 0 0 0 0 0 0 0 0 0 0 0 0 0 0 0 0 0 0 0 0 0 0 0 0 0 0 0 0 0 0 0 0 0 0 0 1443 0 1388 1443 1388 0 0 0 0 1635 1565 0 0 0 1098 0 1187 1168 1132 1132 1149 1168 1226 1247 1226 1291 0 0 0 0 0 0 0 0 0 0 0 0 1226 0 0 0 1149 1132 0 0 1149 1066 1187 1098 1168 1168 1168 1149 1168 1168 1206 1168 1268 1206 1206 1226 1291 1291 1291 1314 1338 1501 1711 1362 1226 0 1471 1268 1168 1206 1082 1149 1149 1187 1187 1187 1187 1206 1187 1247 1247 0 0 0 0 0 0 0 1051 0 1008 1008 1051 1066 1149 1066 1149 1132 1168 1149 1149 1168 1187 1168 1268 1471 1599 1752 1711 1471 1471 1443 1443 1533 0 0 0 0 0 1187 1168 1187 1066 1098 1132 1132 1115 1168 1115 1132 1132 1226 1226 1187 1206 0 0 0 0 0 0 0 0 0 994 994 994 1008 1036 1051 1051 1115 1115 1149 1168 1149 1082 1036 1022 1036 994 994 981 943 968 968 0 981 981 1008 1008 1066 1314 1268 1314 1247 1206 1051 0 1022 1008 1008 943 994 994 943 981 981 968 981 981 1008 981 981 1051 1036 1036 1268 1008 943 855 0 0 0 0 603 584 584 0 0 0 0 0 0 0 0 0 0 0 0 0 0 0 0 0 0 0 0 0 0 0 0 0 0 0 0 0 0 0 0 0 0 0 0 0
    0 0 0 0 0 0 0 0 0 0 0 0 0 0 0 0 0 0 0 0 0 0 0 0 0 0 0 0 0 0 0 0 0 0 0 0 0 0 0 0 0 0 0 0 0 0 0 0 0 0 0 0 0 0 0 0 0 0 0 0 0 0 0 0 0 0 0 0 0 0 0 1672 1635 1672 1599 0 0 0 0 0 0 0 1008 1022 1082 1098 1132 1098 1115 1132 1168 1206 1226 1168 1247 0 0 0 0 0 0 0 0 0 0 0 0 0 0 0 0 1168 0 0 0 1187 1066 1187 1115 1168 1168 1168 1149 1168 1168 1206 1168 1268 1206 1206 1226 1291 1362 1362 1362 1415 1599 1795 1471 0 0 0 0 1149 1226 1082 1168 1149 1187 1187 1187 1187 1206 1187 1268 1247 0 6133 0 0 0 0 0 0 0 1008 0 0 1066 1149 1066 1132 1115 1149 1115 1149 1149 1149 0 0 0 0 0 1672 1362 0 1388 0 0 0 0 0 0 0 1187 1187 1187 1066 1098 1132 1132 1132 1168 1115 1132 1132 1206 1247 1206 1206 0 0 0 0 0 0 0 994 1008 994 994 994 1022 1051 1051 1036 1115 1082 1115 1132 1115 1066 1022 1022 1022 994 0 0 0 0 0 0 0 0 0 1036 1066 1268 1206 1268 1187 1149 1036 0 1008 994 994 919 981 994 943 968 981 968 981 981 1008 981 981 1051 1022 1022 1149 994 897 855 865 0 0 0 566 561 570 0 0 0 0 0 0 0 0 0 0 0 0 0 0 0 0 0 0 0 0 0 0 0 0 0 0 0 0 0 0 0 0 0 0 0 0 0
    0 0 0 0 0 0 0 0 0 0 0 0 0 0 0 0 0 0 0 0 0 0 0 0 0 0 0 0 0 0 0 0 0 0 0 0 0 0 0 0 0 0 0 0 0 0 0 0 0 0 0 0 0 0 0 0 0 0 0 0 0 0 0 0 0 0 0 0 0 1471 0 1672 1635 1672 1533 0 0 0 0 0 0 0 1008 1008 1051 1066 1098 1066 1098 1132 1168 1206 1206 1168 1226 0 0 0 0 0 2044 2044 0 0 0 0 0 0 0 0 0 0 0 0 0 0 1082 1187 1115 1187 1187 1187 1168 1168 1168 1226 1187 1268 1206 1206 1206 1291 1471 0 0 0 1839 2230 0 0 0 0 0 0 1268 1115 1187 1168 1187 1206 1187 1206 1206 1206 1268 1247 0 6690 0 817 0 0 0 0 0 0 0 0 0 0 1051 1098 1066 1082 0 0 0 0 0 0 4088 3504 3679 0 0 0 0 0 4599 4088 3345 0 0 0 1206 1206 1226 1082 1082 1149 1149 1132 1168 1115 1132 1132 1206 1268 1226 1226 0 0 0 0 0 0 0 1008 1022 1008 1008 1008 1036 1051 1051 1036 1115 1036 1082 1115 1098 1066 1022 1022 1036 994 0 0 0 0 0 1082 1066 0 1082 1082 1115 1247 1247 1268 1206 1168 0 0 994 994 981 908 981 981 943 981 994 981 981 994 1008 994 981 1066 1008 1008 1008 994 897 855 855 855 0 0 557 0 0 0 0 0 0 0 0 0 0 0 0 0 0 0 0 0 0 0 0 0 0 0 0 0 0 0 0 0 0 0 0 0 0 0 0 0 0 0
    0 0 0 0 0 0 0 0 0 0 0 0 0 0 0 0 0 0 0 0 0 0 0 0 0 0 0 0 0 0 0 0 0 0 0 0 0 0 0 0 0 0 0 0 0 0 0 0 0 0 0 0 0 0 0 0 0 0 0 0 0 0 0 0 0 0 0 0 0 1362 1362 1443 1501 1501 1415 0 0 0 0 0 0 0 994 994 1008 1022 1036 1036 1066 1098 1168 1206 1187 1206 1226 0 0 0 0 0 0 1839 0 0 0 0 0 0 0 0 0 0 0 0 0 1314 1098 1206 1132 1206 1206 1206 1187 1187 1187 1247 1206 1268 1226 1206 1206 1268 1415 0 0 0 2164 0 0 0 0 0 0 0 0 1149 1187 1187 1206 1206 1206 1206 1226 1206 1268 1247 0 5256 3873 0 0 0 0 0 0 0 0 0 0 0 1051 1066 1051 1051 0 0 0 0 0 0 4599 3873 4088 0 0 0 0 4599 5661 4906 3504 0 0 0 1206 1206 1226 1115 1082 1149 1149 1149 1168 1132 1132 1132 1187 1268 1226 1247 0 0 0 0 0 0 0 0 1022 1008 1008 1022 1051 1082 1066 1082 1149 1051 1098 1132 1098 1082 1036 1036 1036 1008 1036 0 0 0 0 1132 0 0 1098 1098 1082 1206 1149 1226 1132 1115 0 0 994 994 981 897 981 994 943 981 994 994 994 994 1022 994 994 1066 1008 994 994 994 897 855 855 855 0 0 557 0 0 0 0 0 0 0 0 0 0 0 0 0 0 0 0 0 0 0 0 0 0 0 0 0 0 0 0 0 0 0 0 0 0 0 0 0 0 0
    0 0 0 0 0 0 0 0 0 0 0 0 0 0 0 0 0 0 0 0 0 0 0 0 0 0 0 0 0 0 0 0 0 0 0 0 0 0 0 0 0 0 0 0 0 0 0 0 0 0 0 0 0 0 0 0 0 0 0 0 0 0 0 0 0 0 0 0 0 1314 1362 1471 1471 0 0 0 0 0 0 0 0 0 981 981 994 981 994 1008 1051 1082 1168 1187 0 1226 1247 0 0 0 0 2044 1887 1887 0 0 0 0 0 0 0 0 0 0 0 0 1338 1314 1098 1206 1149 1206 1226 1226 1206 1206 1206 1247 1226 1291 1226 1206 1206 1247 0 0 0 0 0 0 0 0 0 0 0 0 0 1206 1226 1206 1226 1226 1226 1226 1247 1226 0 0 0 6133 3679 0 0 0 0 0 0 0 0 0 0 0 1051 1082 1051 1051 0 0 0 0 0 0 5661 4329 4599 4088 0 0 4906 5256 6133 5661 3679 0 0 0 1206 1226 1226 1132 1066 1149 1149 1149 1168 1132 1132 1132 1168 1291 1247 1247 1268 0 0 0 0 0 0 0 1022 1008 1008 1008 1036 1066 1051 1066 1132 1051 1082 1115 1098 1066 1022 1036 1022 994 0 0 0 0 0 1149 0 0 1098 1098 1036 1115 1022 0 0 0 0 0 981 994 981 897 994 1008 968 1008 1022 1008 1008 1008 1036 1008 1008 1082 994 981 968 994 886 855 845 845 0 0 0 0 0 0 0 0 0 0 0 0 0 0 1936 1989 1752 0 0 0 0 0 0 0 0 0 0 0 0 0 0 0 0 0 0 0 0 0 0 0 0 0
    0 0 0 0 0 0 0 0 0 0 0 0 0 0 0 0 0 0 0 0 0 0 0 0 0 0 0 0 0 0 0 0 0 0 0 0 0 0 0 0 0 0 0 0 0 0 0 0 0 0 0 0 0 0 0 0 0 0 0 0 0 0 0 0 0 0 0 0 0 1291 1362 1533 1533 1501 1415 0 0 0 0 0 0 0 0 0 0 0 0 1008 1036 0 1187 1187 0 0 1226 0 0 0 0 1989 1839 1795 0 0 0 0 0 0 0 0 0 1268 0 0 0 1314 1115 1206 1168 1226 1247 1247 1247 1226 1206 1268 1268 1362 1247 1206 1206 1206 0 0 0 4088 0 0 0 0 0 391 0 0 0 1168 1226 1206 1226 1226 1226 1226 1247 1247 0 0 0 7359 0 0 0 6133 5661 0 6133 0 0 943 0 1082 1051 1082 1066 1066 0 0 0 0 0 0 0 4599 4599 4329 0 0 5256 5661 6690 5661 3873 0 0 0 0 1206 1226 1149 1051 1149 1149 1149 1168 1132 1132 1132 1168 1291 1268 1268 1291 0 0 0 0 0 0 0 994 994 994 994 994 1022 1008 1036 1082 1036 1051 1098 1082 1066 1022 1036 1022 994 0 0 0 0 1082 1149 1115 1187 1132 1115 1051 0 994 0 968 0 0 0 981 981 981 908 1022 1022 981 1036 1036 1036 1022 1022 1051 1008 1008 1082 994 968 955 994 886 855 836 836 0 0 0 0 0 0 0 0 0 0 0 0 0 0 0 1887 1672 1672 1533 1533 0 0 0 0 0 0 0 0 0 0 0 0 0 0 0 0 0 0 0 0 0 0
    0 0 0 0 0 0 0 0 0 0 0 0 0 0 0 0 0 0 0 0 0 0 0 0 0 0 0 0 0 0 0 0 0 0 0 0 0 0 0 0 0 0 0 0 0 0 0 0 0 0 0 0 0 0 0 0 0 0 0 0 0 0 0 0 0 0 0 0 0 1268 1415 1565 1533 1501 1443 0 0 0 0 0 0 0 0 0 0 0 0 0 0 0 0 1187 0 1226 1206 1268 0 0 0 0 0 0 0 0 0 0 0 0 0 0 0 0 0 0 0 1338 1115 1226 1187 1247 1247 1247 1268 1247 1226 1291 1268 1362 1247 1187 1187 1187 0 0 0 4906 3873 0 0 0 397 391 385 393 0 1115 1187 1206 1206 1226 1226 1226 1247 1226 0 0 0 0 0 0 0 6690 6133 8177 7359 0 943 981 994 1082 1051 1098 1082 1066 1066 1082 1066 0 0 0 0 0 4329 4088 0 4599 4906 5661 6690 5661 4329 0 0 0 0 1226 1226 1187 1051 1168 1149 1149 1168 1149 1149 1149 1149 1291 1247 1247 1268 1247 0 1066 0 0 0 0 0 994 994 994 0 0 981 1008 1051 1008 1036 1082 1082 1066 1022 1036 1022 994 0 0 0 0 1098 1168 0 1226 1206 1168 1082 0 994 994 981 0 955 0 981 994 994 931 1036 1036 1008 1051 1066 1051 1036 1036 1066 1022 1022 1082 981 955 943 994 886 855 845 845 0 0 0 0 0 0 1082 0 0 0 0 0 0 0 0 0 1471 1501 1443 0 1362 0 0 0 0 0 0 0 0 0 0 0 0 0 0 0 0 0 0 0 0 0
    0 0 0 0 0 0 0 0 0 0 0 0 0 0 0 0 0 0 0 0 0 0 0 0 0 0 0 0 0 0 0 0 0 0 0 0 0 0 0 0 0 0 0 0 0 0 0 0 0 0 0 0 0 0 0 0 0 0 0 0 0 0 0 0 0 0 0 0 0 1247 1471 1599 1599 0 0 0 0 0 0 0 0 0 0 0 355 0 0 0 0 0 0 1206 1098 1206 1187 0 0 0 0 0 0 1795 0 0 0 0 0 0 0 0 1206 0 0 1149 1226 1314 1115 1226 1187 1247 1268 1268 1268 1247 1226 1291 1291 1338 1247 1168 1168 1168 0 0 6133 4599 3679 3873 4329 0 0 395 0 402 0 1082 1168 1187 1187 1206 1206 1226 1247 1226 0 0 0 0 0 0 0 0 6690 0 0 0 0 1008 1022 1115 1051 1115 1098 1082 1098 1098 1098 1082 0 247 0 0 4329 3873 4906 4088 4599 5256 6133 5661 4599 3345 0 443 438 1226 1247 1206 1066 1168 1168 1149 1168 1149 1149 1149 1149 1268 1187 1187 1226 1187 1187 1066 1036 1051 0 0 0 0 981 0 0 0 0 0 0 968 0 1051 1051 1051 994 1022 1008 994 1036 0 0 0 1132 1187 1168 1247 1247 1206 1098 0 0 0 1008 1051 0 0 1008 1008 1008 955 1051 1051 1022 1082 1082 1066 1051 1051 1082 1036 1036 1098 981 943 943 994 897 865 876 876 0 0 0 0 1051 1066 1098 0 0 0 0 0 0 0 0 0 1415 1443 1443 1415 1362 0 0 0 0 0 0 0 0 0 0 0 0 0 0 0 0 0 0 0 0 0
    0 0 0 0 0 0 0 0 0 0 0 0 0 0 0 0 0 0 0 0 0 0 0 0 0 0 0 0 0 0 0 0 0 0 0 0 0 0 0 0 0 0 0 0 0 0 0 0 0 0 0 0 0 0 0 0 0 0 0 0 0 0 0 0 0 0 0 0 0 1268 1443 1565 1533 1471 1443 0 0 0 0 0 0 0 0 0 355 0 0 0 0 0 0 1226 1168 1206 1187 1226 0 0 0 0 0 0 0 0 0 0 0 0 0 0 1168 0 1226 1168 1168 1314 1115 1226 1206 1247 1268 1268 1268 1247 1226 1291 1291 1314 1247 1149 1149 1132 0 0 5256 4088 3504 3679 4088 0 0 404 406 402 0 1066 1149 1187 1187 1187 1206 1206 1247 1226 6690 0 0 0 0 0 0 0 5661 0 0 4329 0 1008 1036 1168 1051 1132 1115 1098 1115 1132 1115 1098 1066 0 0 0 4329 3873 4906 4088 4906 5256 6133 5661 4906 3504 454 443 438 0 1247 1206 1051 1168 1149 1149 1168 1149 1132 1149 1149 1268 1149 1168 1206 1187 0 1082 0 1066 0 0 0 0 955 0 0 0 0 0 0 0 0 0 1051 1051 994 0 994 994 1051 1082 0 1149 1132 1187 1168 1226 1206 1149 1066 1051 1008 1051 1022 1066 1022 0 1036 1036 1022 994 1066 1066 1036 1098 1098 1082 1051 1066 1098 1036 1036 1098 981 931 931 994 886 855 876 876 0 908 0 0 1036 1066 1115 0 0 0 0 0 0 0 0 0 1471 1533 1501 1501 1388 0 0 0 0 0 0 0 0 0 0 0 0 0 0 0 0 0 0 0 0 0
    0 0 0 0 0 0 0 0 0 0 0 0 0 0 0 0 0 0 0 0 0 0 0 0 0 0 0 0 0 0 0 0 0 0 0 0 0 0 0 0 0 0 0 0 0 0 0 0 0 0 0 0 0 0 0 0 0 0 0 0 0 0 0 0 0 0 0 0 0 1314 1415 1471 1443 1388 1388 1314 0 1226 1226 1168 0 1115 0 0 0 0 0 0 0 0 0 1247 0 1226 1206 1247 1291 1314 1388 1795 1711 1752 0 0 0 0 0 0 0 1187 1187 1226 1206 1132 1132 1291 1115 1206 1206 1247 1268 1268 1268 1247 1226 1291 1291 1291 1247 1115 1115 1115 4088 3679 4088 3504 3345 3345 3679 3504 0 411 413 402 0 1051 1132 1168 1168 1187 1187 1206 1247 1226 0 0 0 6133 0 0 0 6133 5256 0 0 4088 0 994 1051 1206 1066 1149 1132 1115 1132 1149 1132 1132 1082 0 0 0 4088 3679 4906 4088 4906 5256 6133 6133 5661 3873 454 440 435 0 1226 1168 1051 1168 1149 1132 1149 1149 1132 1132 1132 1268 1115 1149 1206 1187 1206 1098 0 1082 0 0 0 0 0 0 0 0 0 0 0 0 0 0 0 1051 994 0 981 1022 1051 1082 1098 1149 1149 1187 1187 0 1206 0 0 0 981 994 1008 1036 1022 0 1051 1051 1051 1022 1082 1082 1051 1115 1115 1082 1066 1066 1098 1036 1051 1098 981 931 919 994 886 855 865 865 0 0 0 0 0 0 1149 0 0 0 0 0 0 0 0 0 1533 0 1501 1471 1362 0 0 0 0 0 0 0 0 0 0 0 0 0 0 0 0 0 0 0 0 0
    0 0 0 0 0 0 0 0 0 0 0 0 0 0 0 0 0 0 0 0 0 0 0 0 0 0 0 0 0 0 0 0 0 0 0 0 0 0 0 0 0 0 0 0 0 0 0 0 0 0 0 0 0 0 0 0 0 0 0 0 0 0 0 0 0 0 0 0 0 1362 1443 1471 1471 1388 1388 1314 1268 1226 1226 1187 1149 1132 1098 0 0 0 0 0 0 0 0 1226 1187 1226 1226 1247 1291 1388 1565 1839 1752 1839 1887 1887 0 0 0 0 0 1206 1206 1187 1168 1115 1115 1268 1098 1206 1206 1247 1268 1268 1268 1247 1226 1291 1291 1291 1226 1098 1098 1082 4088 3504 3873 3345 3199 3199 3345 3345 0 413 415 404 0 1036 1132 1168 1149 1168 1187 1206 1247 1226 0 0 0 5661 8177 0 7359 6690 0 0 0 0 0 994 0 1226 1066 1168 1149 1132 1149 1168 1149 1149 1098 0 0 0 3873 3504 0 3679 4599 4599 6133 5661 5661 3873 454 443 438 0 1187 1149 1051 1168 1149 1132 1149 1149 1132 1132 1132 1247 1098 1115 1187 1149 1187 1115 1082 1098 0 0 0 0 0 0 0 0 0 0 0 0 0 0 1051 1036 1008 0 994 1022 1066 1098 1098 1168 1149 1206 1206 0 1226 0 0 0 943 968 994 1008 1022 0 1066 1066 1066 1036 1082 1082 1051 1115 1115 1082 1051 1066 1098 1036 1036 1082 981 931 919 994 886 855 855 845 0 0 0 0 1082 1149 1168 1268 1247 0 0 0 0 0 0 0 0 0 1471 0 0 0 0 0 0 0 0 0 0 0 0 0 0 0 0 0 443 0 0 0 0 0
    0 0 0 0 0 0 0 0 0 0 0 0 0 0 0 0 0 0 0 0 0 0 0 0 0 0 0 0 0 0 0 0 0 0 0 0 0 0 0 0 0 0 0 0 0 0 0 0 0 0 0 0 0 0 0 0 0 0 0 0 0 0 0 0 0 0 0 0 0 1415 1471 1533 1533 1415 1388 1314 1268 1247 1226 1206 1168 1132 1115 1168 0 0 0 0 0 0 0 1206 1168 1206 1206 1247 0 1599 1795 1887 1887 1887 1936 1839 0 0 1268 1149 1149 1168 1187 1168 1168 1115 1115 1268 1115 1206 1206 1247 1268 1268 1268 1247 1226 1291 1268 1268 1226 1098 1098 1098 4329 3345 3679 3066 3066 3066 3199 0 422 420 0 0 0 1036 1115 1168 1149 1168 1187 1206 1247 1226 0 0 0 6690 0 0 8177 0 0 0 0 0 0 0 0 1268 1082 1187 1168 1149 1168 1187 1168 1168 1115 0 0 0 0 0 0 0 4088 4329 6133 6133 5661 3873 457 446 443 0 1168 1132 1051 1149 1132 1115 1132 1168 1132 1132 1132 1247 1082 1098 1187 1115 1168 1115 1066 1082 0 0 0 0 0 0 0 0 808 0 0 955 1008 994 1022 0 0 0 0 0 0 0 0 0 1149 1168 1206 1291 1226 1051 1036 981 968 981 994 1022 1022 1051 1066 1066 1082 1036 1082 1098 1051 1098 1098 1082 1051 1051 1082 1022 1036 1051 981 931 919 0 908 855 886 0 0 0 0 0 1168 1206 1206 1291 1268 0 0 0 0 0 0 0 0 0 0 0 0 0 0 0 0 0 0 0 0 0 0 0 0 0 0 0 446 0 0 0 0 0
    0 0 0 0 0 0 0 0 0 0 0 0 0 0 0 0 0 0 0 0 0 0 0 0 0 0 0 0 0 0 0 0 0 0 0 0 0 0 0 0 0 0 0 0 0 0 0 0 0 0 0 0 0 0 0 0 0 0 0 0 0 0 0 0 0 0 0 0 0 1415 1501 1565 1599 1443 1415 1338 1268 0 0 1187 1168 1132 1132 1168 0 0 0 0 0 0 0 1206 0 1187 1187 0 0 1887 1887 1936 1936 1989 1989 1839 0 0 1206 1098 1082 1115 1115 1115 1115 1082 1082 1247 1098 1206 1206 1226 1268 1268 1268 1247 1226 1291 1268 1268 1247 1115 1115 0 4599 3199 3504 2943 2943 3066 3199 0 425 422 0 0 0 1036 1115 1168 1149 1168 1187 1206 1247 1226 0 0 0 8177 0 0 8177 0 0 0 0 0 0 0 0 0 1082 1206 1206 1187 1187 1206 1187 1168 1115 0 0 256 0 0 0 0 3873 4088 6133 6133 6133 3873 457 448 451 0 1149 1115 1051 1149 1132 1115 1132 1168 1115 1132 1115 1226 1082 1098 1187 1115 1149 1115 1066 1082 0 0 0 0 0 0 799 791 808 0 0 886 943 919 931 919 897 0 968 0 0 0 0 0 1082 1082 1168 1268 1226 0 1149 0 0 1066 1066 1066 1036 1082 1082 1082 1098 1036 1082 1082 1051 1082 1082 1066 1036 1036 1066 1022 1022 1022 981 931 931 0 955 865 0 0 0 0 0 0 1187 1226 1226 1314 1338 0 0 0 0 0 0 0 0 0 0 0 0 0 0 0 0 0 0 0 0 0 0 0 0 0 0 448 451 0 0 0 0 0
    0 0 0 0 0 0 0 0 0 0 0 0 0 0 0 0 0 0 0 0 0 0 0 0 0 0 0 0 0 0 0 0 0 0 0 0 0 0 0 0 0 0 0 0 0 0 0 0 0 0 0 0 0 0 0 0 0 0 0 0 0 0 0 0 0 0 0 0 0 1415 1501 1565 1599 1415 1443 1362 1291 0 0 1226 1187 1168 1168 1187 0 0 0 0 0 0 0 1226 0 1168 0 0 0 1839 1887 1887 1989 1936 1989 1839 0 0 0 1051 1036 1051 1051 1066 1082 1066 1051 1226 1098 1206 1206 1226 1247 1247 1247 1226 1226 1291 1268 1247 1247 1115 1115 0 4906 3345 3504 3066 3066 3066 3199 0 425 425 0 0 0 1036 1098 1149 1149 1168 1187 1206 1247 1226 0 0 0 8177 0 0 8177 0 0 0 0 0 0 0 0 1338 0 1226 1226 1206 1206 1206 1206 1168 1132 0 161 259 0 3679 8177 3066 3679 3679 4906 5661 5661 3679 459 451 0 1132 1149 1132 1051 1149 1132 1115 1132 1168 1115 1132 1132 1226 1082 1098 1187 1098 1082 1082 1066 1051 1098 0 0 799 0 0 808 808 817 0 0 886 931 908 931 908 897 0 968 0 0 0 0 0 0 1051 1115 1247 1247 0 0 0 0 1187 1187 1098 1066 1098 1098 1098 1115 1036 1082 1082 1051 1066 1066 1051 1036 1036 1051 1008 1008 1008 994 943 943 0 981 886 0 0 0 0 0 0 1149 1187 1226 1268 1268 0 0 0 0 0 0 0 0 0 0 0 0 0 0 0 0 0 0 0 0 0 0 0 0 0 0 462 462 0 0 0 0 0
    0 0 0 0 0 0 0 0 0 0 0 0 0 0 0 0 0 0 0 0 0 0 0 0 0 0 0 0 0 0 0 0 0 0 0 0 0 0 0 0 0 0 0 0 0 0 0 0 0 0 0 0 0 0 0 0 0 0 0 0 0 0 0 0 0 0 0 0 0 1388 1501 1533 1599 1415 1443 1388 1291 0 1247 1206 1187 1149 1149 1168 0 0 0 0 0 0 0 0 0 1187 0 0 0 0 1936 1887 1936 1936 1936 0 0 0 0 1066 0 1036 1036 0 1051 1051 1036 1206 1098 1187 1206 1206 1247 1247 1247 1226 1226 1268 1247 1247 1247 1132 1132 4906 5256 3679 3873 3199 3199 3199 3199 3066 0 427 0 0 0 1036 1098 1149 1149 1168 1187 1206 1226 1226 1268 1268 0 8177 0 9199 6690 0 0 0 0 0 0 0 1533 1338 0 1247 1226 1226 1226 1226 1206 1168 1132 0 0 261 0 4329 7359 3199 3504 3504 3873 4906 5256 3504 0 0 0 1149 1168 1149 1066 1149 1149 1115 1132 1168 1115 1115 1115 1226 1082 1098 1168 1098 1082 1082 1066 1036 1098 0 0 791 808 0 799 808 817 0 931 897 931 919 943 897 886 931 968 994 1036 0 0 0 1036 1008 1066 0 0 0 0 0 0 0 0 1115 1082 1115 1115 1098 1132 1051 1082 1082 1051 1051 1036 1036 1022 1022 1036 1008 994 994 994 968 955 0 981 865 931 931 0 0 0 0 1115 1168 1206 0 1206 0 0 0 0 0 0 0 0 0 0 0 302 0 0 0 0 0 0 566 0 0 545 0 0 0 0 0 465 0 0 0 0 0
    0 0 0 0 0 0 0 0 0 0 0 0 0 0 0 0 0 0 0 0 0 0 0 0 0 0 0 0 0 0 0 0 0 0 0 0 0 0 0 0 0 0 0 0 0 0 0 0 0 0 0 0 0 0 0 0 0 0 0 0 0 0 0 0 0 0 0 0 0 1338 1443 1471 1501 1362 1388 1362 0 0 1226 1206 1168 1132 1132 1149 1132 1187 0 0 0 0 0 0 0 1187 0 0 0 0 1936 1839 1839 1795 1839 0 0 0 0 1066 0 1008 0 0 0 0 0 1206 1082 1187 1206 1187 1247 1247 1247 1226 1226 1268 1247 1247 1247 1132 1149 4599 5256 3873 4088 3345 3345 3345 3345 3199 0 0 0 0 0 1036 1115 1149 1149 1168 1187 1206 1226 1226 1268 1268 0 7359 7359 6690 4906 0 74 0 0 0 0 0 1501 1338 0 1247 1226 1226 1226 1226 1206 1168 1132 0 0 262 0 5256 0 3345 3873 3345 3345 4329 4906 3345 0 0 0 1168 1168 1168 1066 1149 1149 1115 1132 1168 1115 1115 1132 1226 1082 1082 1168 1098 1082 1098 1082 1051 1082 0 0 0 0 855 865 886 876 908 968 919 943 931 943 897 897 943 968 994 1036 1008 0 0 1036 994 1051 0 0 0 0 0 0 0 0 1098 1098 1115 1115 1115 1132 1051 1066 1082 1051 1036 1022 1022 1008 1008 1008 1008 981 981 1008 968 968 0 994 845 908 919 0 1022 1082 1168 1115 0 1168 0 1187 0 0 0 0 0 0 0 0 0 0 0 306 0 0 0 0 0 570 0 0 0 541 533 0 0 0 0 471 0 0 0 0 0
    0 0 0 0 0 0 0 0 0 0 0 0 0 0 0 0 0 0 0 0 0 0 0 0 0 0 0 0 0 0 0 0 0 0 0 0 0 0 0 0 0 0 0 0 0 0 0 0 0 0 0 0 0 0 0 0 0 0 0 0 0 0 0 0 0 0 0 0 0 1291 1362 1388 1388 1338 1338 1362 0 0 1226 1206 1168 1132 1132 1132 1115 1132 1149 1115 1098 0 0 0 0 0 0 0 0 0 1936 1839 1752 1711 1711 1672 0 0 1247 0 0 0 0 0 0 0 0 0 1098 1187 1206 1206 1247 1247 1247 1226 1226 1268 1247 1247 1268 1168 0 4599 5256 4329 4599 3679 3504 3504 3504 3199 0 0 0 0 0 1051 1115 1149 1149 1168 1187 1206 1226 1226 1268 1268 0 6690 6133 5256 3873 0 0 0 0 0 0 0 1443 1338 0 1226 1226 1226 1226 1226 1206 1168 1149 0 0 0 0 6690 0 4088 4599 3199 0 0 0 0 1008 0 1051 1168 1168 1168 1066 1149 1149 1132 1132 1168 1115 1132 1132 1226 1082 1098 1187 1149 1098 1115 1115 1082 1115 0 0 981 981 994 968 968 943 955 994 955 968 955 0 0 0 0 981 1022 1066 1022 0 0 1066 1008 1082 0 0 0 0 0 1066 1098 1115 1066 1082 1115 1115 1115 1132 1051 1066 1082 1051 1022 1008 1008 994 1008 1008 994 981 968 1008 981 981 0 994 826 865 865 0 0 0 1187 1115 0 0 0 1115 0 0 0 0 0 0 0 0 0 0 0 309 0 0 0 0 0 557 549 0 0 533 521 0 514 504 490 0 0 0 0 0 0
    0 0 0 0 0 0 0 0 0 0 0 0 0 0 0 0 0 0 0 0 0 0 0 0 0 0 0 0 0 0 0 0 0 0 0 0 0 0 0 0 0 0 0 0 0 0 0 0 0 0 0 0 0 0 0 0 0 0 0 0 0 0 0 0 0 0 0 0 0 1291 1362 1388 1388 1338 1362 1388 1291 1268 1226 1206 1149 1115 1115 1115 1082 1098 1082 1051 1022 0 0 0 0 0 0 0 0 0 1887 1795 1752 1711 1752 1672 1565 0 0 0 0 0 0 0 0 0 0 0 1098 1206 1206 1206 1247 1247 1247 1247 1226 1291 1268 1247 1268 1206 0 0 5661 5256 5256 4599 3873 3679 3504 3345 0 430 0 0 142 1051 1132 1149 1149 1168 1187 1187 1226 1206 1268 1268 0 7359 6690 6133 4599 0 0 0 0 0 0 0 0 1314 0 1226 1206 1206 1206 1206 1187 1168 1132 0 0 0 0 7359 0 5256 0 3066 1839 1388 1149 1206 1066 1098 1082 1168 1168 1168 1082 1168 1149 1132 1149 1168 1132 1132 1132 1226 1098 1098 1187 1187 1115 1132 1132 1082 1149 1036 1066 0 1036 1022 994 981 931 955 994 955 968 968 981 0 1008 994 1022 1036 1082 1066 1082 1115 1082 1036 1082 1115 1098 0 1082 1036 1036 1036 1051 1036 1082 1098 1115 1098 1115 1051 1051 1082 1051 994 994 994 994 994 994 994 968 968 1008 994 994 0 0 826 0 0 0 0 0 0 1187 0 0 0 0 0 0 0 0 0 0 0 0 0 0 0 0 0 0 0 0 549 549 545 541 541 541 533 541 533 525 500 0 0 0 0 0 0
    0 0 0 0 0 0 0 0 0 0 0 0 0 0 0 0 0 0 0 0 0 0 0 0 0 0 0 0 0 0 0 0 0 0 0 0 0 0 0 0 0 0 0 0 0 0 0 0 0 0 0 0 0 0 0 0 0 0 0 0 0 0 0 0 0 0 0 0 0 1268 1338 1362 1388 1314 0 1415 1314 1268 1226 1206 1149 1115 1132 1132 1098 1082 1082 1066 1036 0 0 0 0 0 0 0 0 0 1936 1752 1599 1599 1635 1533 0 0 0 0 0 0 0 0 0 0 0 0 1098 1206 1226 1206 1247 1247 1247 1247 1226 1291 1268 1268 1291 1247 0 0 6133 5661 5661 5661 4088 3873 3679 3345 0 430 0 0 142 1051 1132 1149 1168 1168 1168 1187 1206 1206 1268 1247 0 0 7359 6690 5256 0 0 0 0 0 0 0 0 1291 1098 1206 1187 1206 1187 1187 1168 1149 1132 0 0 0 0 7359 8177 4599 0 2453 1711 1362 1168 1206 1115 1115 1098 1187 1187 1187 1082 1168 1149 1149 1149 1168 1115 1115 1132 1226 1098 1098 1187 0 0 0 1168 0 0 0 0 0 0 1036 1022 1008 994 981 1022 981 1008 1008 1008 1008 1022 1008 1036 1036 1066 1051 1051 1066 1036 1008 1022 1022 0 0 0 1036 1022 1022 1036 1036 1082 1098 1098 1098 1098 1051 1051 1066 1051 981 994 994 994 994 994 994 968 968 1022 994 994 0 0 817 0 0 0 0 0 0 1226 0 0 0 0 0 0 0 855 0 0 0 0 0 0 0 314 0 0 0 0 545 545 545 0 0 0 545 545 0 0 0 0 0 0 0 0 0
    0 0 0 0 0 0 0 0 0 0 0 0 0 0 0 0 0 0 0 0 0 0 0 0 0 0 0 0 0 0 0 0 0 0 0 0 0 0 0 0 0 0 0 0 0 0 0 0 0 0 0 0 0 0 0 0 0 0 0 0 0 0 0 0 0 0 0 0 0 1149 1132 1268 1206 1132 0 0 1132 1168 1132 1168 1132 1115 1149 1149 1115 1115 1132 1115 1082 0 0 0 0 0 0 0 0 0 0 0 0 0 0 1415 0 0 0 0 0 0 0 0 0 0 0 0 1098 1206 1226 1206 1247 1247 1247 1247 1226 1291 1291 1291 1291 0 0 4329 5661 5661 5256 5661 4329 4088 3679 3504 3345 432 0 0 0 1051 1149 1149 1168 1168 1168 1187 1206 1187 1247 1226 0 0 6690 5661 4329 0 0 0 0 0 0 0 0 1268 1082 1206 1168 1206 1187 1187 1168 1149 1132 1206 0 0 8177 6133 0 0 1599 1672 1443 1338 1132 1187 1132 1115 1115 1187 1187 1187 1082 1168 1168 1149 1149 1168 1115 1115 1115 1247 1082 1082 1149 0 0 0 1187 0 0 0 0 0 0 1036 1022 1008 981 981 1008 994 1008 1008 1008 1022 1022 1008 1022 1008 1051 1036 1022 1022 1008 981 994 994 0 0 0 1022 1022 1022 1036 1036 1082 1082 1082 1082 1082 1036 1036 1066 1051 981 1008 1008 994 1008 1008 1008 981 968 1036 1008 994 0 1008 826 0 0 2164 0 0 0 1226 0 0 0 0 0 0 0 855 0 0 0 0 0 0 0 314 0 0 0 0 541 541 541 537 0 0 549 549 541 0 0 0 0 0 0 0 0
    0 0 0 0 0 0 0 0 0 0 0 0 0 0 0 0 0 0 0 0 0 0 0 0 0 0 0 0 0 0 0 0 0 0 0 0 0 0 0 0 0 0 0 0 0 0 0 0 0 0 0 0 0 0 0 0 0 0 0 0 0 0 0 0 0 0 0 0 0 1036 1008 1082 1022 1022 981 943 0 0 0 0 0 0 0 1187 1132 1132 1149 0 0 0 0 0 0 0 0 0 0 0 0 1362 0 0 0 1388 1338 0 0 0 0 0 0 0 0 0 0 0 1082 1206 1206 1206 1247 1247 1247 1247 1226 1291 1291 1291 1291 0 0 3873 5256 5661 5256 6133 4599 4599 4088 3873 3345 0 0 0 0 1051 1149 1132 1168 1149 1168 1168 1187 1168 1247 1187 0 0 0 0 0 0 0 0 0 0 0 0 0 1247 1098 1206 1168 1187 1187 1187 1168 1149 1132 1206 0 0 0 0 0 0 1471 1362 1388 1338 1149 1206 1168 1115 1132 1187 1187 1187 1098 1168 1168 1149 1149 1168 1115 1115 1115 1247 1082 1082 1132 0 0 0 0 0 0 0 1022 0 0 1022 1008 1008 1008 1022 1036 1036 1051 1036 1036 1066 1036 1008 1008 981 1036 1008 1008 1008 994 981 1008 1008 0 1008 1036 1051 1036 1022 1051 1036 1066 1066 1066 1066 1066 1036 1036 1082 1051 994 1022 1022 1022 1008 1008 1008 981 981 1051 994 981 981 994 826 0 0 2299 0 0 0 0 0 0 0 0 0 0 0 0 0 0 0 0 0 0 0 0 0 525 529 533 537 537 537 533 537 0 0 0 541 0 529 0 0 0 0 0 0
    0 0 0 0 0 0 0 0 0 0 0 0 0 0 0 0 0 0 0 0 0 0 0 0 0 0 0 0 0 0 0 0 0 0 0 0 0 0 0 0 0 0 0 0 0 0 0 0 0 0 0 0 0 0 0 0 0 0 0 0 0 0 0 0 0 0 0 0 0 1022 1008 1051 1008 1022 994 968 0 0 0 0 0 0 0 0 0 0 0 0 0 0 0 0 0 0 0 0 0 0 0 1338 0 0 0 0 0 0 122 0 0 0 0 0 0 0 0 0 1082 1187 1187 1187 1247 1247 1247 1247 1226 1291 1291 1291 1291 1268 1291 3679 4906 5661 5661 6133 4599 4906 4329 4329 3504 0 0 0 1149 1051 1149 1132 1168 1149 1149 1168 1187 1168 1226 1168 1268 0 0 0 0 1635 1415 0 1388 1291 1291 0 0 1247 1098 1206 1168 1187 1187 1187 1168 1168 1149 1226 1082 0 0 0 0 0 1443 1362 1362 1338 1149 1206 1187 1115 1132 1187 1187 1187 1098 1168 1168 1168 1168 1168 1115 1115 1115 1247 1066 1082 1115 1187 0 0 0 1098 0 0 994 955 1051 1036 1051 1036 1051 1132 1115 1168 1132 1098 1098 1132 1082 1036 1022 981 1036 1022 1008 1008 1008 994 1022 1022 1066 1022 1036 1036 1008 994 1008 1008 1051 1051 1051 1051 1036 1036 1036 1082 1066 1008 1036 1036 1036 1022 1022 1022 994 994 1051 994 968 968 994 826 791 0 2164 0 0 0 0 0 0 0 0 0 0 0 0 0 0 0 0 0 0 0 0 529 525 529 529 529 533 533 533 537 0 0 557 545 0 533 0 0 0 0 0 0
    0 0 0 0 0 0 0 0 0 0 0 0 0 0 0 0 0 0 0 0 0 0 0 0 0 0 0 0 0 0 0 0 0 0 0 0 0 0 0 0 0 0 0 0 0 0 0 0 0 0 0 0 0 0 0 0 0 0 0 0 0 0 0 0 0 0 0 0 0 1022 1008 1036 1008 1022 1008 994 994 1066 0 0 0 0 0 0 0 0 0 0 0 0 0 0 0 0 0 0 0 0 0 1362 0 0 0 0 0 0 0 0 0 0 0 0 0 0 265 0 1082 1187 1187 1187 1247 1247 1247 1247 1226 1291 1291 1268 1291 1247 1247 0 4329 4906 5256 6133 4329 4599 4329 4599 3504 0 0 0 1187 1051 1168 1132 1168 1149 1168 1168 1187 1168 1226 1168 1268 1187 1314 1362 0 1338 1362 1338 1338 1291 1291 1268 1206 1247 1115 1206 1168 1187 1187 1187 1168 1187 1149 1226 1098 0 0 0 1022 0 1082 1066 1082 1082 1051 1149 1132 1098 1132 1187 1187 1187 1098 1168 1168 1168 1168 1168 1132 1132 1115 1247 1066 1082 1115 1187 1082 1082 1149 1187 1115 1187 1036 0 1149 1082 1115 1066 1082 1187 1149 1226 1168 1098 1098 1132 1082 1036 1022 981 1036 1008 1022 1008 1022 981 1036 1008 1036 1008 1008 1022 981 955 968 981 1022 1022 1022 1022 1022 1036 1036 1098 1066 1022 1051 1051 1036 1036 1036 1036 1008 1008 1066 994 968 955 0 826 791 0 1887 0 0 0 0 0 0 0 0 0 0 0 0 0 0 557 579 561 0 0 0 533 529 529 533 529 529 533 533 537 0 0 0 545 0 541 0 0 0 0 0 0
    0 0 0 0 0 0 0 0 0 0 0 0 0 0 0 0 0 0 0 0 0 0 0 0 0 0 0 0 0 0 0 0 0 0 0 0 0 0 0 0 0 0 0 0 0 0 0 0 0 0 0 0 0 0 0 0 0 0 0 0 0 0 0 0 0 0 0 0 0 1036 1008 1051 1008 1036 994 0 0 0 0 0 0 0 0 0 0 0 1206 0 0 0 0 0 0 1247 0 0 0 0 0 1291 1226 0 0 0 1338 0 0 0 0 0 0 0 0 0 0 1268 1098 1187 1187 1187 1247 1247 1247 1247 1226 1291 1268 1268 1268 1206 1226 0 3679 0 0 5661 3873 3873 3873 4599 3345 0 0 0 1187 1066 1168 1132 1168 1149 1168 1168 1187 1168 1226 1168 1268 1187 1268 1314 1291 1247 1291 1268 1314 1268 1268 1247 1168 1247 1115 1206 1168 1187 1187 1187 1168 1187 1149 1247 1132 1247 1132 1082 1082 1098 1066 1066 1051 1022 1036 1115 1098 1082 1132 1168 1187 1187 1098 1168 1168 1168 1149 1168 1132 1132 1115 1247 1082 1098 1132 1226 1168 1187 1206 1247 1206 1226 1132 1247 1247 1187 1187 1149 1149 1226 1187 1268 1187 1066 1066 1051 1036 994 994 955 1008 994 1008 994 994 968 1008 981 1008 981 981 994 955 943 968 968 1008 1008 1008 1008 1008 1022 1022 1098 1082 1036 1066 1066 1051 1036 1051 1051 1008 1022 1066 981 955 955 0 0 0 0 1795 0 0 0 0 0 0 0 0 0 0 0 0 0 525 553 588 561 0 545 0 537 533 533 533 533 533 533 533 537 0 549 553 541 0 533 529 0 0 0 0 0
    0 0 0 0 0 0 0 0 0 0 0 0 0 0 0 0 0 0 0 0 0 0 0 0 0 0 0 0 0 0 0 0 0 0 0 0 0 0 0 0 0 0 0 0 0 0 0 0 0 0 0 0 0 0 0 0 0 0 0 0 0 0 0 0 0 0 0 0 0 1051 1008 1051 1008 1066 1008 0 0 0 0 1443 0 1415 1415 0 0 1247 1226 1247 1226 0 0 0 0 1226 0 0 0 0 0 0 1132 0 0 0 1247 0 0 0 0 1635 0 0 0 0 0 1268 1098 1187 1187 1187 1247 1247 1247 1247 1206 1291 1268 1268 1268 1187 1187 1187 0 3679 3873 6133 3873 3873 3873 4906 3345 0 0 0 1149 1066 1168 1132 1168 1149 1149 1149 1187 1168 1226 1149 1247 1168 1247 1268 1187 1206 1247 1206 1314 1268 1268 1226 1132 1226 1098 1187 1168 1168 1168 1168 1168 1168 1149 1226 1149 1206 1149 1115 1132 1149 1132 1115 1082 1066 1051 1098 1082 1082 1115 1149 1168 1187 1098 1168 1168 1168 1149 1168 1132 1132 1132 1247 1098 1115 1149 1247 1226 1268 1268 1314 1314 1314 1226 0 1291 1247 1247 1226 0 0 1226 1247 1206 1066 1066 1008 1008 968 968 943 994 994 1008 981 981 968 994 981 994 981 968 981 955 0 955 968 994 994 994 994 994 1022 1022 1098 1082 1036 1082 1082 1066 1051 1051 1082 1036 1036 1082 994 968 955 1168 0 0 0 1795 0 1415 0 0 0 0 0 477 0 0 507 0 518 514 545 574 553 545 545 0 537 533 533 533 529 529 533 529 533 537 549 549 533 525 518 504 0 0 0 0 0
    0 0 0 0 0 0 0 0 0 0 0 0 0 0 0 0 0 0 0 0 0 0 0 0 0 0 0 0 0 0 0 0 0 0 0 0 0 0 0 0 0 0 0 0 0 0 0 0 0 0 0 0 0 0 0 0 0 0 0 0 0 0 0 0 0 0 0 0 0 1036 1008 1022 1008 1066 1008 0 0 0 0 1415 0 1443 1415 1362 1362 1291 1268 1268 1247 0 0 0 1268 1226 0 0 0 0 0 0 0 0 0 1168 1168 0 0 0 0 1501 0 0 0 0 1132 1247 1098 1187 1187 1187 1226 1226 1247 1247 1226 1291 1268 1268 1268 1168 1187 1187 0 0 0 0 3504 0 0 0 0 0 0 0 1132 1066 1168 1132 1168 1149 1149 1149 1187 1168 1226 1149 1226 1168 1206 1226 1168 1168 1206 1168 1268 1291 1268 1247 1168 1226 1115 1187 1168 1168 1168 1149 1149 1168 1132 1226 1132 1206 1149 1115 1132 1168 1149 1098 1082 1082 1051 1098 1082 1082 1098 1132 1168 1187 1098 1168 1149 1168 1149 1168 1149 1132 1132 1247 1115 1149 1168 1247 1226 1291 1314 1388 1362 1362 1268 0 1314 1247 1226 1226 1206 0 0 0 1187 1036 1051 1008 994 981 981 955 1008 994 994 981 968 968 981 955 981 968 968 981 955 955 955 968 981 981 981 981 981 1022 1022 1098 1098 1051 1098 1098 1082 1066 1066 1098 1051 1051 1098 994 968 968 1206 1098 1051 0 0 0 1415 0 0 0 471 468 477 0 487 497 497 518 521 545 561 553 549 545 0 541 537 533 533 533 533 533 533 537 541 549 545 521 521 504 497 0 0 0 0 0
    0 0 0 0 0 0 0 0 0 0 0 0 0 0 0 0 0 0 0 0 0 0 0 0 0 0 0 0 0 0 0 0 0 0 0 0 0 0 0 0 0 0 0 0 0 0 0 0 0 0 0 0 0 0 0 0 0 0 0 0 0 0 0 0 0 0 0 0 0 1036 1008 1022 1036 1066 1022 0 0 1362 1388 1415 1388 1415 1415 1362 1338 1291 1268 1291 1247 0 1247 0 1247 1206 1206 0 0 0 0 0 0 0 0 1168 1149 1247 1338 0 1362 1388 0 0 0 1226 1132 1247 1098 1187 1187 1187 1247 1247 1247 1247 1226 1291 1268 1268 1247 1149 1149 1149 1206 1149 0 1115 1051 1066 1051 0 0 0 0 1051 1115 1066 1149 1132 1168 1149 1149 1149 1187 1168 1226 1149 1226 1168 1187 1206 1149 1149 1168 1132 1226 1268 1247 1226 1168 1226 1132 1187 1168 1168 1149 1149 1149 1168 1132 1226 1149 1206 1168 1132 1149 1168 1149 1098 1082 1082 1051 1082 1082 1082 1098 1115 1168 1168 1082 1168 1149 1149 1132 1149 1132 1115 1115 1247 1149 1168 1187 1268 1247 1291 1314 1362 1338 1338 1268 0 1314 1247 1226 1187 1168 1168 0 0 1132 0 0 0 0 981 981 968 0 981 0 943 908 919 931 897 943 919 968 968 955 943 955 968 981 981 981 968 981 1022 1022 1098 1098 1051 1115 1115 1098 1082 1082 1115 1051 1051 1115 994 968 968 1226 0 994 0 0 0 1362 1362 0 0 477 474 477 484 484 490 497 525 529 545 561 553 553 549 545 541 537 537 537 533 533 533 529 533 533 537 529 500 504 497 493 0 0 0 0 0
    0 0 0 0 0 0 0 0 0 0 0 0 0 0 0 0 0 0 0 0 0 0 0 0 0 0 0 0 0 0 0 0 0 0 0 0 0 0 0 0 0 0 0 0 0 0 0 0 0 0 0 0 0 0 0 0 0 0 0 0 0 0 0 0 0 0 0 0 0 1051 1022 1036 1051 1098 1036 1051 0 1388 1388 1443 0 0 0 1362 1362 1291 1268 1268 1247 1247 1247 1247 1268 1226 1226 1206 1132 0 1149 1082 1082 0 1132 1132 1132 1206 1226 1247 1268 1314 1247 0 0 1206 1132 1226 1098 1187 1187 1187 1247 1247 1247 1247 1226 1291 1268 1268 1247 1132 1132 1115 1168 1115 1115 1149 1066 1098 1066 1082 1082 1098 1132 1066 1115 1082 1149 1132 1168 1168 1149 1149 1187 1149 1226 1149 1206 1149 1168 1168 1132 1132 1149 1115 1206 1247 1226 1206 1187 1226 1132 1168 1168 1168 1149 1132 1149 1149 1115 1206 1132 1168 1168 1132 1149 1168 1149 1098 1082 1082 1051 1082 1082 1066 1082 1098 1149 1168 1082 1132 1115 1132 1115 1115 1115 1082 1098 1247 1132 1149 1168 1247 1226 1268 1268 1268 1291 1268 1247 1268 1291 1226 1206 1168 1149 1168 0 0 1132 1008 0 0 0 0 994 981 0 968 0 931 886 897 897 855 897 876 968 968 955 0 0 994 994 994 981 981 994 1022 1022 1098 1098 1051 1115 1115 1098 1082 1082 1115 1066 1051 1115 994 968 968 1247 0 994 0 0 0 0 0 0 0 481 481 481 484 487 490 493 533 537 549 561 557 557 553 549 545 541 541 537 533 529 533 529 529 525 525 507 497 500 497 497 0 0 0 0 0
    0 0 0 0 0 0 0 0 0 0 0 0 0 0 0 0 0 0 0 0 0 0 0 0 0 0 0 0 0 0 0 0 0 0 0 0 0 0 0 0 0 0 0 0 0 0 0 0 0 0 0 0 0 0 0 0 0 0 0 0 0 0 0 0 0 0 0 0 0 1082 1022 1051 1051 1115 1082 1168 1268 1314 1314 1362 1314 0 0 0 0 1247 1226 1226 1226 1226 1268 1247 1291 1247 1247 0 1187 1226 1187 1098 1082 1066 1098 1098 1098 1115 1115 1168 1226 1247 1226 1168 0 1187 1115 1226 1082 1187 1168 1187 1226 1226 1226 1247 1226 1291 1247 1268 1226 1115 1115 1115 1149 1098 1149 1187 1098 1132 1098 1098 1098 1115 1132 1066 1115 1082 1132 1132 1168 1168 1149 1168 1187 1168 1226 1168 1206 1168 1168 1168 1132 1132 1132 1098 1168 1226 1206 1206 1187 1226 1132 1168 1168 1168 1149 1132 1132 1132 1098 1206 1098 1115 1132 1132 1149 1149 1115 1082 1066 1082 1051 1082 1066 1066 1066 1082 1149 1149 1082 1115 1098 1098 1082 1098 1082 1066 1066 1226 1149 1168 1168 1247 1226 1268 1268 1268 1268 1247 1226 1206 1268 1187 1187 1149 1132 1168 1168 0 1149 1008 1051 0 1008 994 1008 994 0 0 0 0 0 0 0 0 908 865 0 968 955 0 981 994 994 994 994 981 994 1022 1022 1098 1098 1051 1098 1115 1098 1066 1082 1115 1066 1051 1115 994 981 981 1268 0 0 0 0 0 1388 0 500 0 0 477 481 481 0 0 0 553 549 549 561 557 557 553 549 545 545 541 537 529 529 529 525 525 521 518 507 504 504 504 497 0 0 0 0 0
    0 0 0 0 0 0 0 0 0 0 0 0 0 0 0 0 0 0 0 0 0 0 0 0 0 0 0 0 0 0 0 0 0 0 0 0 0 0 0 0 0 0 0 0 0 0 0 0 0 0 0 0 0 0 0 0 0 0 0 0 0 0 0 0 0 0 0 0 0 0 0 1051 1051 1098 1082 1149 1187 1268 1268 0 0 0 0 0 0 0 0 1206 1187 1206 1226 1226 1247 1187 1187 1168 1115 1115 1098 1066 1066 0 1066 1066 1082 1098 1098 1168 1226 1268 1247 1226 0 1187 1132 1226 1082 1187 1149 1187 1226 1226 1226 1226 1206 1268 1247 1268 1226 1115 1115 1115 1168 1098 1149 1187 1098 1149 1098 1098 1082 1098 1115 1066 1098 1082 1132 1132 1168 1168 1149 1168 1187 1168 1226 1187 1206 1168 1168 1168 1132 1132 1132 1098 1168 1226 1206 1187 1187 1226 1149 1168 1187 1168 1132 1132 1132 1132 1098 1206 1115 1098 1115 1132 1132 1132 1098 1082 1066 1066 1036 1066 1036 1036 1051 1066 1132 1132 1066 1098 1082 1082 1066 1082 1066 1051 1051 1187 1168 1168 1168 1226 1206 1268 1247 1247 1247 1226 1187 1149 1247 1206 1187 1149 1132 1149 1168 1132 1132 1008 1036 0 994 994 1008 994 1036 0 0 0 0 0 0 0 0 0 0 968 968 0 994 1008 994 994 994 981 994 1022 1022 1098 1098 1051 1098 1098 1098 1066 1082 1098 1051 1051 1098 1008 994 994 1247 1036 0 0 0 1314 0 0 497 0 0 0 0 0 0 0 0 570 557 549 561 557 557 553 557 549 549 545 541 529 529 529 525 521 518 518 511 507 507 504 497 0 0 0 0 0
    0 0 0 0 0 0 0 0 0 0 0 0 0 0 0 0 0 0 0 0 0 0 0 0 0 0 0 0 0 0 0 0 0 0 0 0 0 0 0 0 0 0 0 0 0 0 0 0 0 0 0 0 0 0 0 0 0 0 0 0 0 0 0 0 0 0 0 0 0 0 0 0 0 0 0 1132 1098 1247 0 0 0 0 0 0 0 0 0 0 0 1206 1226 1206 1206 1149 1132 1115 1098 1115 1098 1082 1082 1066 1082 1098 1115 1149 1149 1226 1268 1291 1268 1247 1268 1206 1132 1226 1082 1168 1149 1187 1206 1206 1206 1226 1206 1268 1226 1268 1226 1132 1149 1149 1168 1115 1168 1206 1132 1168 1115 1098 1098 1115 1132 1066 1098 1082 1132 1149 1168 1168 1168 1187 1206 1187 1226 1187 1206 1187 1168 1168 1132 1132 1132 1098 1149 1206 1187 1168 1149 1206 1132 1149 1168 1149 1115 1115 1115 1132 1098 1187 1115 1098 1115 1132 1132 1132 1098 1066 1066 1066 1036 1051 1036 1036 1036 1051 1132 1132 1066 1066 1066 1082 1066 1066 1066 1036 1051 1115 1168 1149 1149 1206 1206 1226 1226 1226 1247 1206 1187 1149 1226 1206 1187 1149 1132 1149 1187 1168 1187 1008 1022 981 994 994 1008 1008 1051 0 0 0 0 0 0 0 0 0 0 981 0 0 1022 1022 1008 1008 994 994 1008 1022 1022 1098 1098 1051 1082 1082 1082 1051 1066 1098 1036 1036 1066 1008 1022 1008 1247 1082 1036 1098 0 1247 0 0 0 0 639 645 645 639 639 613 618 598 570 549 557 549 557 557 561 557 557 549 545 533 533 529 525 521 518 518 514 514 511 511 500 0 0 0 0 0
    0 0 0 0 0 0 0 0 0 0 0 0 0 0 0 0 0 0 0 0 0 0 0 0 0 0 0 0 0 0 0 0 0 0 0 0 0 0 0 0 0 0 0 0 0 0 0 0 0 0 0 0 0 0 0 0 0 0 0 0 0 0 0 0 0 0 0 0 0 0 0 0 0 0 0 0 0 0 0 0 0 0 0 0 0 0 0 0 1206 1206 1226 1187 1206 1149 1132 1132 1115 1132 1132 1098 1098 1082 1098 1098 1115 1168 1149 1206 1268 1268 1247 1226 1247 1206 1132 1206 1082 1168 1132 1187 1206 1206 1206 1226 1206 1268 1226 1291 1226 1168 1187 1187 1187 1132 1187 1226 1149 1168 1115 1115 1098 1115 1132 1066 1098 1082 1132 1149 1168 1187 1168 1187 1206 1187 1226 1206 1206 1187 1187 1187 1149 1132 1132 1098 1132 1187 1168 1149 1132 1168 1132 1132 1149 1132 1098 1098 1098 1115 1082 1168 1149 1115 1132 1115 1115 1132 1115 1082 1066 1066 1036 1051 1036 1036 1036 1051 1132 1132 1066 1051 1051 1066 1051 1051 1051 1022 1036 1051 1187 1149 1149 1226 1226 1226 1226 1187 1247 1187 1149 1115 1132 1149 1149 1132 1115 1115 1132 1082 1132 1008 1022 981 1008 1008 1022 1036 1082 1036 1115 0 0 943 0 0 0 0 0 994 0 0 1036 1036 1022 1022 1008 1008 1008 1022 1022 1098 1082 1051 1051 1066 1066 1036 1051 1082 1036 1036 1051 1022 1022 1036 1247 1051 1036 1082 1168 1132 0 0 0 645 629 639 639 634 634 618 618 608 584 553 553 549 553 553 557 553 553 549 545 533 533 529 525 525 521 521 518 518 514 511 500 0 0 0 0 0
    0 0 0 0 0 0 0 0 0 0 0 0 0 0 0 0 0 0 0 0 0 0 0 0 0 0 0 0 0 0 0 0 0 0 0 0 0 0 0 0 0 0 0 0 0 0 0 0 0 0 0 0 0 0 0 0 0 0 0 0 0 0 0 0 0 0 0 0 0 0 0 0 0 0 0 0 1051 0 0 0 0 0 0 0 0 0 0 0 1187 1187 1187 1149 1168 1115 1098 1098 1098 1115 1115 1082 1082 1066 1082 1098 1132 1187 1168 1206 1247 1247 1226 1206 1226 1168 1115 1206 1082 1168 1115 1168 1206 1187 1206 1206 1206 1268 1226 1291 1247 1187 1206 1187 1187 1132 1187 1206 1149 1168 1132 1115 1098 1115 1132 1066 1082 1082 1115 1149 1168 1187 1168 1187 1206 1187 1226 1206 1206 1187 1187 1187 1149 1149 1132 1098 1149 1206 1187 1168 1149 1168 1149 1132 1168 1132 1115 1098 1098 1098 1098 1149 1149 1115 1115 1098 1115 1115 1098 1066 1066 1066 1036 1066 1036 1036 1036 1051 1132 1168 1082 1051 1051 1066 1051 1051 1051 1022 1008 1008 1206 1149 1149 1226 1206 1226 1247 1168 1247 1168 1115 1082 1066 1082 1115 1098 1082 1066 1098 1051 1132 1051 1066 1036 1051 1036 1082 1082 1132 1098 1149 1132 0 0 0 0 0 0 0 0 0 0 1051 1051 1036 1036 1022 1022 1022 1036 1022 1082 1082 1051 1036 1036 1051 1036 1051 1066 1022 1022 1022 1036 1036 1036 1226 1022 1022 1051 1036 0 0 0 0 634 623 629 629 629 623 613 613 608 588 557 557 549 549 549 553 549 549 545 545 537 533 533 529 525 525 521 518 518 514 507 497 0 0 0 0 0
    0 0 0 0 0 0 0 0 0 0 0 0 0 0 0 0 0 0 0 0 0 0 0 0 0 0 0 0 0 0 0 0 0 0 0 0 0 0 0 0 0 0 0 0 0 0 0 0 0 0 0 0 0 0 0 0 0 0 0 0 0 0 0 0 0 0 0 0 0 0 0 0 0 0 0 0 1051 0 1132 0 0 0 0 0 0 0 0 0 1187 1187 1187 1168 1168 1132 1098 1098 1098 1132 1132 1098 1098 1066 1098 1132 1149 1226 1206 1226 1268 1247 1247 1226 1247 1187 1098 1206 1082 1168 1115 1168 1187 1187 1206 1206 1206 1268 1226 1338 1268 1206 1206 1187 1168 1115 1168 1187 1149 1168 1132 1132 1115 1115 1132 1082 1082 1082 1115 1168 1168 1206 1168 1206 1206 1206 1226 1206 1187 1187 1168 1187 1168 1168 1132 1115 1168 1187 1187 1187 1168 1187 1187 1187 1187 1149 1132 1098 1115 1115 1115 1149 1149 1132 1115 1115 1115 1098 1082 1051 1051 1066 1036 1051 1022 1036 1036 1066 1115 1149 1082 1036 1051 1051 1051 1051 1036 1022 1008 1008 1226 1132 1115 1247 1187 1206 1247 1168 1226 1187 1132 1115 1082 1115 1115 1115 1082 1051 1051 1036 1098 1066 1066 1066 1066 1066 1098 1098 1132 1115 1168 1187 0 0 0 0 0 0 0 0 0 1022 1051 1066 1051 1051 1036 1036 1022 1051 1036 1066 1082 1051 1022 1022 1022 1022 1036 1036 1008 1008 1008 1036 1051 1051 1268 1008 968 0 0 743 675 0 0 629 618 629 623 623 618 608 613 608 593 574 566 553 557 557 557 557 557 549 549 545 541 537 533 529 525 521 518 518 514 507 497 0 0 0 0 0
    0 0 0 0 0 0 0 0 0 0 0 0 0 0 0 0 0 0 0 0 0 0 0 0 0 0 0 0 0 0 0 0 0 0 0 0 0 0 0 0 0 0 0 0 0 0 0 0 0 0 0 0 0 0 0 0 0 0 0 0 0 0 0 0 0 0 0 0 0 0 0 0 0 0 0 0 1082 0 0 0 0 0 0 0 0 0 0 0 1206 1206 1226 1206 1187 1168 1115 1132 1132 1168 1168 1098 1098 1066 1098 1132 1187 1226 1226 1247 1291 1291 1268 1268 1268 1206 1098 1206 1066 1168 1098 1168 1187 1168 1187 1206 1187 1268 1226 1362 1268 1206 1206 1168 1132 1115 1168 1187 1149 1168 1149 1149 1132 1115 1132 1082 1082 1082 1115 1168 1149 1206 1226 1226 1206 1206 1226 1187 1168 1187 1168 1168 1168 1168 1132 1115 1168 1187 1168 1168 1168 1168 1187 1206 1206 1187 1187 1132 1168 1187 1168 1168 1149 1149 1115 1132 1132 1098 1082 1066 1051 1066 1008 1051 1008 994 1008 1051 1082 1132 1082 1022 1036 1051 1036 1051 1036 1022 994 994 1226 1115 1115 1206 1132 1132 1149 1115 1149 1149 1115 1115 1066 1098 1115 1115 1082 1036 1008 1008 1066 1051 1066 1066 1066 1066 1115 1115 1132 1115 1187 1206 0 0 0 0 0 0 0 0 0 1022 1051 1066 1066 1051 1036 1036 1022 1036 1036 1051 1066 1036 994 1008 1008 994 1022 1022 1008 994 994 1051 1051 1051 1247 1008 0 0 766 714 687 639 623 634 623 629 629 623 623 613 613 608 598 579 566 553 553 553 553 553 553 549 549 545 545 541 537 533 529 529 521 521 518 511 500 0 0 0 0 0
    0 0 0 0 0 0 0 0 0 0 0 0 0 0 0 0 0 0 0 0 0 0 0 0 0 0 0 0 0 0 0 0 0 0 0 0 0 0 0 0 0 0 0 0 0 0 0 0 0 0 0 0 0 0 0 0 0 0 0 0 0 0 0 0 0 0 0 0 0 0 0 0 0 0 0 0 0 0 0 0 0 0 0 0 0 0 0 0 0 0 0 1206 1206 0 1149 1149 1168 1187 1187 1082 1098 1051 1098 1132 1187 1226 1206 1226 1268 0 1268 1247 1268 1187 1082 1187 1066 1149 1098 1168 1187 1168 1187 1206 1187 1268 1226 1388 1268 1206 1187 1168 1115 1115 1168 1206 1187 1168 1168 1168 1149 1149 1168 1115 1098 1098 1149 1187 1168 1247 1226 1226 1226 1226 1226 1168 1168 1187 1168 1187 1187 1206 1168 1187 1226 1247 1226 1226 1187 1187 1187 1247 1247 1226 1247 1187 1187 1226 1206 1187 1149 1149 1132 1132 1115 1098 1098 1066 1066 1082 1008 1082 1008 981 1008 1066 1066 1149 1082 1036 1051 1051 1051 1066 1051 1051 1008 1008 1206 1098 1098 1149 1098 1082 1066 1082 1098 1115 1066 1051 1022 1022 1022 1051 1036 1008 1008 1036 1066 1098 1098 1082 1082 1066 1098 1098 1098 1098 1132 1149 1082 0 0 0 0 0 0 1008 0 1008 1051 1066 1066 1051 1022 1036 1022 1036 1022 1051 1051 1036 968 994 994 981 994 1008 994 981 981 1051 1036 1036 0 0 817 728 721 700 687 645 629 639 618 629 629 623 618 613 613 608 598 584 570 557 553 557 553 553 553 549 549 549 545 541 537 533 533 529 525 525 521 514 500 0 0 0 0 0
    0 0 0 0 0 0 0 0 0 0 0 0 0 0 0 0 0 0 0 0 0 0 0 0 0 0 0 0 0 0 0 0 0 0 0 0 0 0 0 0 0 0 0 0 0 0 0 0 0 0 0 0 0 0 0 0 0 0 0 0 0 0 0 0 0 0 0 0 0 0 0 0 0 0 0 0 1098 1082 1168 1206 1187 1149 0 0 1362 0 0 0 0 0 0 0 1187 0 1132 1132 1149 1132 1098 1051 1066 1022 1051 1082 0 0 0 1226 1291 1291 1268 0 1268 1206 1082 1187 1066 1149 1098 1168 1168 1168 1168 1206 1187 1268 1226 1362 1291 1226 1206 1206 1115 1132 1149 1206 1206 1187 1187 1187 1149 1168 1187 1149 1115 1115 1168 1206 1206 1268 1247 1247 1247 1247 1226 1206 1187 1206 1206 1226 1226 1247 1206 1268 1268 1291 1268 1291 1226 1226 1226 1268 1268 1226 1226 1187 1187 1206 1187 1168 1149 1132 1132 1115 1115 1098 1098 1082 1082 1098 1036 1098 1036 1008 994 1066 1066 1149 1098 1036 1066 1082 1082 1082 1082 1082 1022 1022 1168 1036 1051 1051 1036 1022 1008 1022 1051 1051 1036 1008 981 994 981 1008 994 994 994 1008 1051 1098 1098 1098 1098 1066 1115 1082 1098 1098 1132 1168 1098 0 0 0 0 0 0 1022 0 1008 1051 1066 1051 1036 1008 1022 1022 1036 1022 1036 1051 1036 955 994 981 981 994 994 994 968 968 1036 1022 1022 1036 994 817 700 687 681 675 651 634 645 629 639 634 629 623 613 613 613 598 588 574 566 557 561 557 557 557 553 553 549 549 545 537 537 533 529 525 521 518 511 500 0 0 0 0 0
    0 0 0 0 0 0 0 0 0 0 0 0 0 0 0 0 0 0 0 0 0 0 0 0 0 0 0 0 0 0 0 0 0 0 0 0 0 0 0 0 0 0 0 0 0 0 0 0 0 0 0 0 0 0 0 0 0 0 0 0 0 0 0 0 0 0 0 0 0 0 0 0 0 0 0 0 0 1132 1226 1268 1226 0 0 0 1362 0 0 0 0 0 0 0 0 0 1098 1098 1115 1098 1066 1051 1051 1008 1051 1082 1206 0 1247 1268 1314 1338 1291 0 1291 1247 1098 1206 1066 1168 1115 1168 1187 1187 1187 1206 1187 1268 1247 1362 1291 1226 1226 1226 1149 1149 1149 1187 1206 1168 1187 1187 1149 1168 1168 1132 1115 1115 1168 1187 1206 1247 1226 1247 1247 1247 1226 1187 1168 1206 1187 1206 1226 1247 1226 1268 1291 1291 1268 1314 1206 1206 1206 1206 1226 1132 1132 1115 1115 1149 1115 1115 1132 1115 1115 1115 1098 1082 1098 1082 1082 1098 1066 1115 1098 1082 1036 1082 1066 1168 1115 1051 1082 1098 1082 1098 1098 1115 1036 1022 1115 1008 1008 1008 1008 994 994 994 1022 1022 1022 994 968 968 968 981 981 981 981 1008 1051 1098 1149 1168 1187 1115 1149 1098 1098 1098 1115 1132 1098 0 0 1066 1132 1115 0 1066 1036 1036 1066 1066 1066 1036 1008 1036 1022 1036 1022 1036 1051 1036 955 994 981 981 981 994 994 968 968 1036 1008 994 994 0 808 700 681 687 681 657 645 651 634 645 634 629 623 613 618 613 598 593 579 570 566 570 566 566 561 561 557 553 553 549 541 537 533 525 521 521 518 507 500 0 0 0 0 0
    0 0 0 0 0 0 0 0 0 0 0 0 0 0 0 0 0 0 0 0 0 0 0 0 0 0 0 0 0 0 0 0 0 0 0 0 0 0 0 0 0 0 0 0 0 0 0 0 0 0 0 0 0 0 0 0 0 0 0 0 0 0 0 0 0 0 0 0 0 0 0 0 0 0 0 0 0 1187 1247 1268 1268 1247 1291 1388 1338 0 0 0 0 0 0 0 0 0 1115 0 0 1132 1082 1051 1066 1036 1082 1132 1226 1247 1247 1247 1291 1314 1291 1268 1291 1247 1132 1226 1082 1168 1132 1187 1206 1187 1206 1226 1206 1268 1247 1362 1268 1226 1226 1226 1168 1168 1149 1206 1187 1168 1187 1168 1149 1149 1132 1115 1082 1082 1132 1132 1168 1226 1206 1226 1226 1226 1206 1149 1132 1132 1115 1168 1187 1226 1206 1226 1247 1247 1206 1268 1149 1149 1132 1082 1066 1022 1051 1066 1051 1066 1066 1082 1115 1098 1132 1082 1066 1066 1082 1066 1082 1098 1082 1149 1168 1132 1066 1098 1066 1168 1115 1051 1098 1098 1098 1115 1098 1115 1036 1022 1082 994 994 994 994 981 981 981 1008 994 1022 981 968 968 968 981 981 981 981 1008 1036 1082 1187 1168 1206 1149 1149 1115 1115 1082 1098 1115 1115 1066 1098 1082 1115 1115 1115 1066 1051 1051 1082 1082 1066 1036 1008 1036 1022 1036 1022 1022 1051 1036 968 1008 994 994 994 1008 994 981 968 1036 994 968 0 0 791 694 675 681 675 663 651 651 634 639 634 623 618 613 613 608 598 593 579 574 566 570 566 566 566 561 561 561 553 553 545 541 533 525 521 521 514 504 500 0 0 0 0 0
    0 0 0 0 0 0 0 0 0 0 0 0 0 0 0 0 0 0 0 0 0 0 0 0 0 0 0 0 0 0 0 0 0 0 0 0 0 0 0 0 0 0 0 0 0 0 0 0 0 0 0 0 0 0 0 0 0 0 0 0 0 0 0 0 0 0 0 0 0 0 0 0 0 0 0 0 1168 1132 1226 1268 1268 1247 1291 1314 1268 0 0 0 0 0 0 0 0 0 1051 0 0 1051 1008 1008 1036 994 1066 0 0 0 1187 1187 1226 1247 1226 1206 1247 1226 1149 1226 1098 1187 1149 1187 1206 1206 1206 1226 1206 1291 1268 1338 1268 1206 1206 1206 1168 1168 1132 1187 1168 1132 1149 1149 1115 1115 1115 1082 1051 1051 1082 1066 1066 1098 1082 1098 1115 1168 1149 1115 1082 1082 1066 1132 1149 1206 1168 1226 1206 1226 1168 1226 1115 1115 1066 1036 1008 1008 1008 1022 1022 1022 1022 1051 1082 1082 1115 1066 1051 1036 1066 1066 1082 1115 1115 1168 1206 1168 1082 1098 1051 1168 1132 1051 1098 1098 1115 1115 1115 1115 1036 1022 1066 981 981 981 981 981 981 981 1008 994 1008 981 968 955 955 968 968 968 981 994 1008 1066 1149 1149 1168 1115 1115 1082 1082 1066 1082 1098 1098 1066 1082 1082 1115 1082 1082 1051 1066 1066 1082 1082 1098 1051 1022 1051 1051 1036 1022 1022 1066 1036 981 1008 994 994 994 1008 1008 981 968 1022 981 931 0 897 766 694 681 687 681 669 663 651 634 645 634 623 618 613 608 608 598 598 584 579 566 570 566 566 566 561 561 561 557 557 545 541 533 525 521 518 514 504 500 0 0 0 0 0
    0 0 0 0 0 0 0 0 0 0 0 0 0 0 0 0 0 0 0 0 0 0 0 0 0 0 0 0 0 0 0 0 0 0 0 0 0 0 0 0 0 0 0 0 0 0 0 0 0 0 0 0 0 0 0 0 0 0 0 0 0 0 0 0 0 0 0 0 0 0 0 0 1022 994 0 0 1115 1082 1187 1247 1247 1247 1291 1338 1268 0 0 0 0 0 0 0 0 0 994 981 981 981 955 968 994 968 1036 1051 1098 1098 1115 1115 1168 1168 1168 1149 1187 1206 1149 1206 1115 1187 1168 1206 1226 1226 1226 1247 1226 1291 1268 1314 1268 1149 1132 1149 1098 1115 1098 1149 1132 1098 1115 1115 1098 1082 1098 1082 1051 1036 1066 1051 1066 1082 1082 1066 1082 1149 1149 1098 1066 1051 1051 1098 1115 1168 1132 1187 1187 1226 1149 1206 1098 1082 1036 1008 1008 994 1008 1008 1022 1022 1022 1036 1066 1066 1098 1051 1036 1022 1051 1051 1051 1098 1098 1168 1206 1149 1066 1082 0 1168 1132 1066 1115 1115 1115 1115 1115 1132 1036 1036 1066 994 994 994 994 981 968 981 994 981 994 968 955 955 943 955 968 968 968 994 1008 1082 1149 1149 1149 1115 1098 1066 1066 1051 1066 1082 1098 1082 1115 1098 1149 1115 1132 1066 1098 1098 1132 1132 1149 1051 1022 1051 1051 1036 1022 1022 1066 1051 981 1008 1008 1008 994 1008 1008 981 968 1022 968 886 0 0 735 687 681 687 681 675 669 663 645 645 634 623 618 613 613 608 603 603 588 584 570 574 566 570 566 561 561 561 561 561 549 541 533 525 518 518 514 504 504 0 0 0 0 0
    0 0 0 0 0 0 0 0 0 0 0 0 0 0 0 0 0 0 0 0 0 0 0 0 0 0 0 0 0 0 0 0 0 0 0 0 0 0 0 0 0 0 0 0 0 0 0 0 0 0 0 0 0 0 0 0 0 0 0 0 0 0 0 0 0 0 0 0 0 0 0 0 0 0 0 0 1098 1051 1187 1247 1268 1247 0 0 1247 0 0 0 0 0 0 0 0 0 0 931 908 908 908 931 968 943 1022 0 1051 1036 1082 1066 1098 1098 1115 1098 1149 1149 1149 1187 1132 1206 1168 1206 1226 1226 1226 1247 1226 1291 1268 1291 1247 1098 1098 1115 1066 1082 1066 1132 1115 1082 1082 1098 1082 1066 1082 1066 1036 1036 1051 1051 1066 1082 1098 1082 1115 1132 1168 1082 1051 1036 1036 1082 1098 1132 1115 1168 1168 1206 1132 1168 1051 1036 1008 994 981 981 981 994 1008 994 1008 1022 1051 1066 1098 1051 1022 1022 1051 1051 1051 1082 1082 1132 1132 1098 1051 1036 981 1132 1098 1051 1098 1115 1115 1115 1115 1149 1051 1051 1066 994 994 994 981 968 968 968 981 968 981 955 955 955 943 955 968 968 968 994 1022 1082 1132 1149 1132 1098 1082 1066 1051 1051 1066 1098 1132 1115 1132 1132 1187 1149 1168 1098 1132 1149 1168 1168 1149 1051 1022 1051 1051 1022 1022 1008 1066 1036 981 1008 1008 1008 994 1008 1008 981 955 0 931 0 0 0 721 687 681 687 681 675 675 669 657 651 639 623 623 618 613 613 608 603 593 584 570 570 566 566 566 561 561 561 561 561 549 541 533 525 518 518 514 507 504 0 0 0 0 0
    0 0 0 0 0 0 0 0 0 0 0 0 0 0 0 0 0 0 0 0 0 0 0 0 0 0 0 0 0 0 0 0 0 0 0 0 0 0 0 0 0 0 0 0 0 0 0 0 0 0 0 0 0 0 0 0 0 0 0 0 0 0 0 0 0 0 0 0 0 0 0 0 0 0 0 0 0 0 0 1226 0 0 0 0 0 0 0 0 0 0 0 0 0 0 0 0 0 897 908 919 955 943 1008 1008 1022 1022 1066 1066 1082 1082 1098 1098 1132 1132 1168 1187 1149 1206 1187 1226 1247 1247 1247 1247 1247 1291 1247 1268 1247 1098 1082 1115 1066 1066 1066 1115 1115 1082 1066 1066 1051 1051 1051 1051 1022 1022 1036 1051 1066 1082 1098 1082 1132 1132 1187 1082 1022 1008 1008 1066 1082 1115 1115 1168 1168 1206 1115 1149 1036 1022 994 981 968 968 981 994 994 994 994 1022 1036 1066 1098 1051 1022 1022 1051 1051 1051 1082 1082 1149 1149 1115 1082 1051 981 1132 1115 1051 1115 1115 1115 1115 1132 1149 1066 1051 1082 994 994 981 994 968 955 955 968 955 968 943 955 943 943 955 955 968 968 994 1022 1066 1098 1115 1098 1066 1051 1036 1022 1036 1051 1098 1132 1115 1168 1149 1187 1168 1168 1115 1149 1149 1168 1132 1115 1036 1022 1036 1051 1022 1022 1008 1066 1051 994 1022 1008 1008 1008 1008 1008 968 955 0 886 0 0 0 707 687 681 681 681 675 675 669 663 663 651 634 629 623 623 618 613 603 588 584 566 570 566 566 566 561 561 561 557 561 549 541 533 529 518 518 514 507 507 0 0 0 0 0
    0 0 0 0 0 0 0 0 0 0 0 0 0 0 0 0 0 0 0 0 0 0 0 0 0 0 0 0 0 0 0 0 0 0 0 0 0 0 0 0 0 0 0 0 0 0 0 0 0 0 0 0 0 0 0 0 0 0 0 0 0 0 0 0 0 0 0 0 0 0 1115 994 0 981 0 0 0 0 0 1226 0 0 0 0 0 0 0 0 0 0 0 0 0 0 0 0 0 908 897 908 931 931 1022 1022 1022 1008 1066 1066 1066 1082 1098 1098 1132 1132 1187 1206 1187 1226 1226 1247 1268 1247 1247 1268 1247 1291 1247 1247 1226 1098 1098 1132 1082 1066 1066 1098 1098 1066 1051 1051 1036 1051 1051 1036 1022 1008 1036 1051 1066 1082 1098 1082 1115 1132 1206 1082 1036 1008 1022 1066 1066 1098 1115 1149 1149 1187 1115 1149 1036 1022 981 968 968 968 981 994 1008 1008 1008 1036 1051 1066 1082 1066 1022 1022 1036 1051 1051 1082 1066 1132 1149 1132 1098 1082 1022 1149 1132 1066 1115 1132 1132 1115 1132 1149 1066 1051 1066 994 994 981 981 968 955 955 968 943 955 943 955 943 931 943 955 968 968 994 1022 1066 1066 1082 1066 1036 1036 1022 1008 1022 1036 1082 1132 1098 1149 1132 1168 1132 1132 1098 1132 1115 1149 1115 1098 1051 1036 1051 1051 1022 1022 1022 1066 1051 1008 1022 1022 1022 1008 1008 1008 968 943 0 845 799 0 728 707 687 687 681 681 675 669 663 663 663 651 639 639 634 629 623 618 608 593 584 570 570 570 570 566 561 561 561 561 561 549 541 533 525 518 518 514 507 507 0 0 0 0 0
    0 0 0 0 0 0 0 0 0 0 0 0 0 0 0 0 0 0 0 0 0 0 0 0 0 0 0 0 0 0 0 0 0 0 0 0 0 0 0 0 0 0 0 0 0 0 0 0 0 0 0 0 0 0 0 0 0 0 0 0 0 0 0 0 0 0 0 0 0 0 1149 0 0 0 0 0 0 0 0 1226 0 0 0 0 1206 0 1168 1115 0 1098 1036 0 0 0 0 0 0 0 0 0 981 1008 1082 1066 1051 1022 1082 1066 1082 1098 1098 1115 1149 1149 1206 1206 1206 1247 1247 1247 1268 1247 1247 1268 1247 1268 1226 1226 1226 1115 1115 1149 1098 1051 1051 1066 1066 1066 1036 1036 1036 1022 1022 1022 994 994 1008 1036 1051 1051 1066 1082 1115 1132 1206 1082 1022 1008 994 1066 1066 1098 1098 1132 1132 1168 1115 1168 1036 0 981 968 968 968 981 994 994 994 1008 1022 1051 1066 1066 1066 1022 1022 1036 1051 1051 1066 1051 1098 1115 1098 1082 1051 1008 1132 1115 1066 1132 1132 1132 1132 1132 1132 1066 1051 1066 994 981 968 981 968 943 955 955 943 955 943 955 931 931 943 955 955 968 994 1022 1051 1036 1051 1051 1022 1008 1022 994 1022 1036 1115 1168 1132 1187 1168 1168 1149 1132 1115 1149 1132 1168 1115 1082 1051 1036 1051 1051 1036 1022 1022 1066 1051 1008 1022 1022 1022 1008 1008 1008 968 931 0 826 774 0 714 707 687 687 681 681 675 669 663 663 663 651 645 639 634 634 623 618 608 588 584 570 570 570 570 566 566 561 561 561 561 553 541 537 529 518 518 518 511 507 0 0 0 0 0
    0 0 0 0 0 0 0 0 0 0 0 0 0 0 0 0 0 0 0 0 0 0 0 0 0 0 0 0 0 0 0 0 0 0 0 0 0 0 0 0 0 0 0 0 0 0 0 0 0 0 0 0 0 0 0 0 0 0 0 0 0 0 0 0 0 0 0 0 0 0 1187 0 1098 0 0 0 0 968 0 0 0 0 0 0 0 0 1168 1115 1115 1098 1051 1022 0 0 0 0 0 0 0 0 1066 1051 1098 1082 1066 1036 1082 1066 1066 1082 1098 1098 1149 1149 1206 1206 1226 1247 1247 1226 1268 1247 1247 1247 1247 1247 1206 1226 1226 1115 1115 1149 1115 1066 1066 1066 1066 1066 1036 1036 1022 1022 1022 1022 994 981 1008 1022 1036 1051 1066 1051 1082 1115 1206 1066 1036 1022 981 1051 1066 1082 1098 1115 1115 1149 1098 1149 1022 1008 981 955 968 968 968 994 994 994 1008 1022 1051 1051 1066 1066 1022 1022 1036 1036 1036 1066 1051 1082 1098 1082 1082 1036 981 1115 1098 1051 1115 1115 1132 1115 1132 1132 1066 1051 1066 994 981 968 981 968 943 955 955 943 943 943 955 931 931 955 955 968 981 1008 1022 1051 1036 1036 1022 1022 1022 1036 1008 1036 1051 1115 1168 1149 1187 1168 1149 1115 1098 1098 1149 1115 1149 1115 1082 1066 1051 1066 1066 1036 1022 1022 1066 1051 1008 1022 1022 1022 1008 1008 1008 968 908 0 808 743 714 707 700 687 687 681 681 669 663 657 657 657 651 639 639 634 634 629 618 608 588 584 574 570 570 570 566 566 561 561 561 561 553 541 537 529 521 518 518 511 507 0 0 0 0 0
    0 0 0 0 0 0 0 0 0 0 0 0 0 0 0 0 0 0 0 0 0 0 0 0 0 0 0 0 0 0 0 0 0 0 0 0 0 0 0 0 0 0 0 0 0 0 0 0 0 0 0 0 0 0 0 0 0 0 0 0 0 0 0 0 0 0 0 0 0 1226 0 0 0 0 0 0 0 0 0 0 0 0 0 0 0 0 0 1132 1149 1132 1082 0 0 0 0 0 0 0 0 0 1036 1036 1051 1051 1036 1022 1051 1051 1051 1066 1082 1082 1115 1115 1187 1187 1226 1268 1247 1226 1247 1247 1247 1247 1247 1226 1187 1206 1226 1115 1115 1149 1098 1051 1051 1082 1082 1066 1036 1036 1022 1008 1022 1022 981 981 994 1008 1022 1036 1051 1036 1051 1082 1168 1066 1051 1036 981 1051 1051 1082 1082 1098 1115 1132 1098 1115 1022 994 968 955 968 968 968 994 1008 1008 1022 1036 1051 1066 1066 1066 1022 1022 1036 1036 1036 1066 1036 1082 1082 1082 1066 1022 981 1098 1098 1051 1115 1115 1132 1115 1132 1132 1066 1051 1082 1008 981 968 981 968 943 955 943 943 943 955 968 943 955 968 981 968 981 994 0 1036 1008 1008 994 1022 1022 1036 1036 1051 1066 1132 1187 1168 1168 1149 0 1082 1036 1066 1115 1098 1115 1098 1051 1066 1051 1066 1066 1036 1022 1022 1066 1051 1008 1022 1008 1008 994 994 994 919 855 0 766 714 700 694 694 687 687 675 675 663 663 651 657 657 651 639 639 634 634 623 618 608 588 584 574 570 570 570 566 566 561 561 561 557 553 545 541 533 521 521 518 511 507 0 0 0 0 0
    0 0 0 0 0 0 0 0 0 0 0 0 0 0 0 0 0 0 0 0 0 0 0 0 0 0 0 0 0 0 0 0 0 0 0 0 0 0 0 0 0 0 0 0 0 0 0 0 0 0 0 0 0 0 0 0 0 0 0 0 0 0 0 0 0 0 0 0 0 1098 0 0 0 0 0 0 0 0 0 0 0 0 0 0 0 0 0 0 0 0 0 0 0 0 0 0 0 0 0 0 1022 1022 1036 1051 1036 1022 1051 1051 1051 1051 1066 1082 1098 1098 1168 1168 1226 1247 1247 1206 1247 1226 1247 1247 1247 1226 1187 1206 1226 1115 1115 1168 1082 1022 1036 1066 1082 1051 1036 1036 1022 1008 1036 1022 981 994 994 1008 1022 1036 1051 1036 1051 1082 1149 1098 1082 1051 1008 1066 1066 1098 1098 1098 1115 1132 1098 1098 1022 1008 968 968 968 981 981 994 1008 1022 1022 1036 1051 1066 1066 1066 1022 1022 1036 1036 1036 1066 1022 1082 1066 1066 1051 1008 994 1098 1098 1051 1115 1132 1132 1132 1149 1149 1082 1066 1115 1008 994 981 981 968 943 955 955 955 955 968 968 955 968 981 981 968 968 0 0 1051 955 994 981 1008 1022 1036 1022 1051 1066 1168 1187 1187 0 1149 1082 1066 1022 1051 1066 1066 1082 1082 1036 1051 1036 1051 1036 1022 1008 1008 1051 1036 981 981 981 955 943 931 919 865 826 799 728 700 694 694 687 687 687 675 675 663 663 651 651 651 645 639 639 634 634 629 623 608 593 588 579 570 574 570 566 566 561 561 561 557 557 545 541 533 521 521 521 514 511 0 0 0 0 0
    0 0 0 0 0 0 0 0 0 0 0 0 0 0 0 0 0 0 0 0 0 0 0 0 0 0 0 0 0 0 0 0 0 0 0 0 0 0 0 0 0 0 0 0 0 0 0 0 0 0 0 0 0 0 0 0 0 0 0 0 0 0 0 0 0 0 0 0 0 0 0 0 0 0 0 0 0 0 0 0 0 0 0 0 0 0 0 0 0 0 0 0 0 0 0 0 0 0 0 0 1051 1036 1036 1036 1022 1022 1036 1051 1036 1051 1051 1066 1115 1098 1168 1168 1226 1247 1226 1187 1226 1226 1226 1247 1247 1206 1187 1206 1247 1115 1115 1187 1098 1036 1036 1066 1098 1066 1036 1036 1036 1008 1036 1022 994 994 1008 1022 1036 1051 1066 1051 1066 1098 1168 1115 1115 1082 1036 1082 1082 1115 1115 1098 1115 1132 1098 1098 1022 1008 968 968 981 981 981 1008 1022 1022 1036 1051 1051 1066 1066 1082 1036 1036 1036 1036 1036 1051 1022 1066 1051 1051 1036 994 1008 1098 1098 1051 1115 1132 1132 1149 1168 1168 1115 1098 1149 1022 1008 981 994 968 955 955 955 968 968 968 981 981 981 994 994 981 943 0 0 1066 919 994 981 1008 1022 1036 1036 1066 1132 1226 0 0 0 0 0 1051 1022 1051 1051 1051 1066 1051 1022 1036 1036 1022 1022 1008 994 981 1036 1022 955 955 943 886 865 845 845 826 799 743 721 700 694 694 687 687 687 675 675 657 657 651 651 651 645 645 639 639 634 629 623 608 598 588 584 574 574 574 566 566 566 561 561 557 557 545 541 537 521 521 521 514 511 0 0 0 0 0
    0 0 0 0 0 0 0 0 0 0 0 0 0 0 0 0 0 0 0 0 0 0 0 0 0 0 0 0 0 0 0 0 0 0 0 0 0 0 0 0 0 0 0 0 0 0 0 0 0 0 0 0 0 0 0 0 0 0 0 0 0 0 0 0 0 0 0 0 0 0 0 0 0 0 0 0 0 0 0 0 0 0 0 0 0 0 0 0 0 0 0 1168 0 0 0 0 0 0 0 0 1066 1051 1036 1036 1036 1022 1036 1051 1051 1051 1051 1082 1132 1098 1168 1168 1226 1247 1226 1187 1226 1206 1226 1226 1226 1206 1168 1206 1247 1149 1149 1206 1132 1066 1066 1115 1098 1082 1051 1051 1051 1022 1036 1036 1008 1008 1008 1022 1022 1051 1066 1051 1066 1098 1168 1132 1132 1115 1051 1098 1098 1132 1132 1098 1115 1115 1098 1115 1036 1022 981 994 994 994 994 1036 1022 1036 1036 1066 1066 1082 1082 1098 1051 1036 1051 1051 1051 1066 1036 1066 1066 1066 1051 1022 1022 1098 1098 1051 1132 1132 1132 1149 1168 1187 1132 1098 1149 1022 1008 994 981 981 955 955 968 981 968 981 994 1008 1008 1036 0 968 0 0 0 0 876 968 955 981 1008 1036 1036 1098 1132 1226 0 0 0 0 0 0 968 1022 1008 1022 1036 1036 1022 1036 1036 1022 1008 1008 994 981 1008 0 931 876 855 836 817 808 791 774 750 721 714 700 694 694 687 687 687 675 675 657 657 645 651 651 645 645 645 639 634 629 623 608 598 588 584 574 579 574 566 566 566 561 561 557 557 545 545 537 525 521 521 518 511 0 0 0 0 0
    0 0 0 0 0 0 0 0 0 0 0 0 0 0 0 0 0 0 0 0 0 0 0 0 0 0 0 0 0 0 0 0 0 0 0 0 0 0 0 0 0 0 0 0 0 0 0 0 0 0 0 0 0 0 0 0 0 0 0 0 0 0 0 0 0 0 0 0 0 0 0 0 0 0 0 0 0 0 0 0 0 0 0 0 0 0 0 0 0 0 0 1187 0 0 0 0 0 0 0 0 1082 1051 1051 1051 1036 1036 1051 1066 1051 1051 1066 1082 1132 1115 1149 1187 1226 1247 1226 1187 1206 1187 1206 1206 1226 1187 1168 1187 1247 1187 1168 1247 1187 1115 1115 1168 1132 1098 1082 1082 1066 1036 1051 1036 1008 1008 1008 1008 1022 1036 1051 1051 1051 1082 1149 1132 1132 1132 1066 1115 1098 1132 1132 1115 1132 1115 1098 1132 1066 1051 1008 1022 1036 1022 1022 1066 1051 1051 1051 1082 1066 1082 1082 1115 1051 1036 1051 1051 1051 1066 1036 1066 1066 1066 1051 1022 1022 1115 1115 1066 1132 1149 1149 1168 1168 1187 1132 1098 1132 1022 1008 994 994 994 968 981 994 994 994 1008 1008 1022 1036 1098 0 0 0 0 0 0 876 955 943 955 994 1022 1036 1082 1115 1206 0 0 0 0 0 886 955 1008 1008 1008 1036 1051 1022 1051 1051 1022 1008 994 968 955 955 0 865 817 808 782 766 750 735 728 728 714 707 700 700 694 694 694 687 675 675 657 663 645 651 651 651 645 645 639 634 629 623 608 603 588 588 579 579 574 570 566 566 561 561 557 561 545 545 537 525 521 521 518 511 0 0 0 0 0
    0 0 0 0 0 0 0 0 0 0 0 0 0 0 0 0 0 0 0 0 0 0 0 0 0 0 0 0 0 0 0 0 0 0 0 0 0 0 0 0 0 0 0 0 0 0 0 0 0 0 0 0 0 0 0 0 0 0 0 0 0 0 0 0 0 0 0 0 0 0 0 0 0 0 0 0 0 0 0 0 0 0 0 0 0 0 0 0 0 1187 0 1187 0 0 0 0 1291 1187 0 0 1098 1066 1051 1051 1051 1036 1036 1066 1051 1066 1051 1082 1132 1098 1132 1187 1226 1226 1206 1168 1206 1187 1187 1206 1226 1187 1168 1187 1247 1187 1187 1247 1187 1149 1132 1187 1149 1115 1098 1115 1115 1066 1066 1051 1022 1022 1022 1022 1036 1051 1066 1051 1051 1082 1132 1132 1168 1149 1066 1115 1115 1149 1132 1115 1132 1115 1098 1149 1098 1098 1036 1051 1066 1051 1051 1082 1066 1066 1066 1098 1082 1082 1082 1115 1036 1022 1022 1036 1022 1036 1008 1036 1036 1036 1036 1008 1022 1115 1132 1066 1132 1149 1149 1168 1149 1187 1132 1098 1132 1022 1008 994 1008 1008 981 994 1008 1008 1008 1022 1036 1051 1066 1149 0 0 0 0 0 0 886 943 943 968 981 1022 1066 1132 1168 1226 0 0 0 0 0 0 994 1022 1008 1022 1051 1051 1022 1051 1036 1008 981 955 931 897 886 897 845 808 799 782 766 750 743 728 728 714 714 707 707 700 700 694 694 681 675 657 663 651 651 651 651 645 645 645 634 629 623 613 603 593 588 579 584 574 570 566 570 561 566 561 561 549 545 537 529 521 521 518 511 0 0 0 0 0
    0 0 0 0 0 0 0 0 0 0 0 0 0 0 0 0 0 0 0 0 0 0 0 0 0 0 0 0 0 0 0 0 0 0 0 0 0 0 0 0 0 0 0 0 0 0 0 0 0 0 0 0 0 0 0 0 0 0 0 0 0 0 0 0 0 0 0 0 0 0 0 0 0 0 0 0 0 0 0 0 0 0 0 0 0 0 0 0 0 0 0 1247 0 0 0 0 0 0 0 0 1098 1066 1051 1051 1051 1036 1036 1051 1051 1051 1066 1082 1115 1098 1115 1168 1206 1206 1187 1168 1206 1187 1187 1226 1226 1187 1187 1206 1247 1187 1187 1247 1168 1149 1115 1187 1132 1115 1098 1115 1132 1066 1066 1066 1036 1036 1036 1036 1036 1051 1066 1066 1082 1098 1132 1132 1187 1168 1066 1132 1115 1149 1132 1115 1132 1115 1098 1149 1098 1098 1036 1066 1066 1051 1051 1082 1066 1066 1066 1098 1066 1082 1082 1115 1022 1008 1008 1008 1022 1036 994 1008 1036 1051 1036 1022 1022 1132 1132 1066 1132 1149 1149 1168 1149 1168 1115 1082 1115 1022 1008 1008 1008 1008 994 1008 1022 1022 1022 1036 1051 1066 1098 1206 0 0 0 0 0 855 886 931 931 955 981 1036 1115 1187 1206 1247 0 0 0 0 0 0 1036 1051 1036 1036 1066 1051 1022 1036 1022 994 943 908 886 865 865 865 826 808 799 782 766 750 743 735 735 721 721 714 714 707 700 694 694 681 675 657 663 651 657 651 651 651 639 645 634 629 623 613 608 593 593 584 584 579 570 566 570 561 566 561 561 549 549 541 529 525 521 518 511 0 0 0 0 0
    0 0 0 0 0 0 0 0 0 0 0 0 0 0 0 0 0 0 0 0 0 0 0 0 0 0 0 0 0 0 0 0 0 0 0 0 0 0 0 0 0 0 0 0 0 0 0 0 0 0 0 0 0 0 0 0 0 0 0 0 0 0 0 0 0 0 0 0 0 0 0 0 0 0 0 0 0 0 0 0 0 0 0 0 0 0 0 0 0 0 0 0 0 0 0 0 0 0 0 0 1082 1051 1022 1036 1036 1036 1036 1051 1051 1066 1066 1082 1132 1098 1098 1168 1187 1206 1187 1168 1206 1187 1187 1226 1226 1206 1206 1226 1268 1206 1206 1268 1206 1187 1187 1226 1206 1149 1115 1149 1149 1098 1098 1082 1066 1066 1051 1051 1066 1066 1098 1082 1098 1115 1132 1149 1206 1168 1082 1149 1115 1149 1132 1115 1115 1098 1098 1149 1098 1098 1051 1082 1082 1082 1066 1115 1082 1082 1082 1132 1082 1082 1082 1149 1008 1008 1008 1008 1008 1022 994 1008 1036 1051 1051 1036 1036 1149 1149 1066 1132 1149 1132 1149 1132 1168 1115 1082 1132 1036 1022 1022 1022 1022 1008 1022 1036 1036 1036 1066 1066 1082 1115 1247 0 0 0 0 0 0 908 943 943 955 981 1051 1115 1187 1206 1247 0 0 0 0 0 0 1051 1066 1051 1051 1082 1066 1022 1022 994 968 919 886 876 865 855 855 826 808 799 782 766 750 750 743 743 735 728 721 721 714 707 694 694 681 669 657 663 651 657 645 651 651 639 645 634 629 629 613 608 598 593 584 584 579 574 566 570 561 566 557 566 549 549 537 529 525 521 521 514 0 0 0 0 0
    0 0 0 0 0 0 0 0 0 0 0 0 0 0 0 0 0 0 0 0 0 0 0 0 0 0 0 0 0 0 0 0 0 0 0 0 0 0 0 0 0 0 0 0 0 0 0 0 0 0 0 0 0 0 0 0 0 0 0 0 0 0 0 0 0 0 0 0 0 0 0 0 0 0 0 0 0 0 0 0 0 0 0 0 0 0 0 0 0 0 0 0 0 0 0 0 0 0 0 0 0 1066 1022 1036 1051 1051 1051 1082 1082 1082 1082 1115 1149 1098 1098 1168 1168 1187 1187 1168 1206 1206 1187 1247 1247 1226 1226 1247 1268 1226 1206 1291 1226 1206 1226 1268 1247 1206 1132 1168 1149 1132 1115 1098 1082 1082 1082 1066 1082 1098 1115 1098 1115 1149 1132 1168 1206 1187 1082 1149 1115 1149 1132 1115 1115 1098 1098 1149 1098 1115 1066 1082 1098 1098 1066 1115 1098 1098 1082 1149 1098 1082 1082 1187 1008 994 994 1008 1022 1036 1008 1051 1066 1066 1066 1036 1051 1149 1149 1082 1132 1149 1149 1132 1132 1168 1115 1098 1132 1051 1036 1036 1036 1036 1008 1022 1036 1051 1051 1066 1066 1098 1115 1226 0 0 0 0 0 0 931 955 943 955 955 1008 1066 1132 1168 1206 0 0 0 0 0 0 1051 1066 1051 1066 1098 1066 1036 1022 994 943 908 886 876 865 865 855 836 817 808 782 774 750 750 743 743 743 735 728 728 721 714 694 694 681 669 657 663 651 663 651 657 651 645 645 634 634 629 613 613 598 598 584 588 579 574 566 570 561 566 557 566 549 545 537 529 521 521 521 514 0 0 0 0 0
    0 0 0 0 0 0 0 0 0 0 0 0 0 0 0 0 0 0 0 0 0 0 0 0 0 0 0 0 0 0 0 0 0 0 0 0 0 0 0 0 0 0 0 0 0 0 0 0 0 0 0 0 0 0 0 0 0 0 0 0 0 0 0 0 0 0 0 0 0 0 0 0 0 0 0 0 0 0 0 0 0 0 0 0 0 0 0 0 0 0 0 0 0 0 0 0 0 0 0 0 0 1115 1051 1066 1098 1082 1082 1115 1115 1115 1098 1149 1168 1132 1115 1187 1187 1187 1187 1187 1226 1226 1206 1268 1268 1247 1247 1268 1268 1226 1226 1291 1226 1206 1206 1268 1268 1206 1115 1149 1149 1132 1132 1115 1098 1098 1115 1098 1115 1132 1149 1132 1132 1168 1149 1149 1187 1187 1066 1149 1132 1149 1132 1115 1115 1115 1098 1168 1098 1132 1082 1098 1115 1115 1082 1132 1098 1098 1082 1132 1082 1066 1066 1187 994 994 1008 1036 1036 1051 1036 1066 1066 1066 1066 1036 1051 1168 1168 1082 1132 1149 1149 1132 1132 1168 1098 1098 1132 1066 1051 1051 1051 1051 1036 1051 1051 1066 1066 1082 1082 1098 1098 1226 0 0 0 0 0 0 955 955 955 943 943 994 1051 1132 0 1206 0 0 0 0 0 1036 1036 1036 1036 1051 1082 1066 1051 1036 981 931 908 886 876 876 865 865 845 836 817 799 782 758 758 750 750 743 743 735 735 728 721 694 694 687 669 657 669 651 663 651 657 657 645 651 639 634 634 618 618 603 598 588 588 579 574 566 574 561 566 557 566 549 545 537 533 521 521 521 514 0 0 0 0 0
    0 0 0 0 0 0 0 0 0 0 0 0 0 0 0 0 0 0 0 0 0 0 0 0 0 0 0 0 0 0 0 0 0 0 0 0 0 0 0 0 0 0 0 0 0 0 0 0 0 0 0 0 0 0 0 0 0 0 0 0 0 0 0 0 0 0 0 0 0 0 0 0 0 0 0 0 0 0 0 0 0 0 0 0 0 0 0 0 0 0 0 1362 0 0 0 0 0 0 0 0 0 1168 1082 1066 1115 1115 1098 1132 1132 1132 1132 1149 1187 1168 1132 1187 1187 1187 1168 1206 1247 1226 1206 1268 1291 1268 1268 1291 1268 1247 1226 1291 1247 1226 1226 1268 1268 1226 1132 1168 1187 1168 1149 1132 1115 1132 1132 1115 1115 1149 1149 1132 1149 1149 1132 1132 1187 1187 1066 1149 1115 1132 1132 1115 1132 1115 1115 1168 1115 1132 1082 1115 1115 1115 1082 1132 1098 1098 1082 1132 1082 1066 1082 1187 1008 1022 1051 1051 1051 1066 1051 1066 1066 1082 1082 1066 1066 1168 1149 1082 1132 1132 1149 1132 1115 1168 1082 1082 1132 1066 1051 1051 1066 1066 1036 1066 1066 1082 1082 1098 1098 1098 1115 1226 0 0 0 0 0 0 0 968 955 931 931 981 1051 0 0 0 0 0 0 0 0 0 1022 1036 1051 1051 1082 1082 1066 1036 981 931 919 886 876 876 865 865 845 845 826 808 791 766 766 758 758 750 750 743 743 728 728 700 700 694 675 663 669 657 669 651 663 657 645 651 639 639 639 618 623 603 603 588 588 579 574 566 574 561 566 557 566 549 545 537 533 521 521 521 514 0 0 0 0 0
    0 0 0 0 0 0 0 0 0 0 0 0 0 0 0 0 0 0 0 0 0 0 0 0 0 0 0 0 0 0 0 0 0 0 0 0 0 0 0 0 0 0 0 0 0 0 0 0 0 0 0 0 0 0 0 0 0 0 0 0 0 0 0 0 0 0 0 0 0 0 0 0 0 0 0 0 0 1362 1115 1149 0 0 0 0 0 0 0 0 0 0 0 0 0 0 0 0 0 0 0 0 0 1206 1098 1115 1187 1149 1132 1149 1149 1149 1149 1168 1187 1187 1132 1187 1187 1187 1187 1206 1247 1247 1206 1268 1291 1291 1291 1291 1268 1226 1226 1268 1247 1247 1247 1268 1268 1268 1168 1187 1187 1206 1168 1149 1132 1132 1132 1115 1115 1149 1132 1132 1132 1149 1132 1132 1168 1187 1051 1132 1115 1132 1132 1115 1132 1132 1115 1187 1115 1149 1098 1115 1132 1115 1098 1132 1098 1098 1082 1132 1098 1066 1082 1168 1036 1051 1051 1066 1066 1082 1066 1082 1082 1082 1082 1082 1066 1149 1132 1082 1115 1132 1132 1115 1098 1132 1066 1066 1115 1051 1051 1051 1051 1066 1036 1066 1082 1082 1082 1098 1115 1098 1149 1268 1206 0 0 0 0 0 981 968 955 955 955 1008 1051 1098 0 1168 0 0 0 0 0 1008 1008 1022 1051 1036 1066 1066 1066 1051 968 943 919 886 886 886 876 865 855 845 826 808 799 774 766 766 758 750 750 743 743 728 728 707 707 700 687 675 681 669 675 657 669 663 645 657 645 639 639 618 623 608 603 588 593 579 574 566 574 561 561 557 566 549 549 537 533 521 521 521 514 0 0 0 0 0
    0 0 0 0 0 0 0 0 0 0 0 0 0 0 0 0 0 0 0 0 0 0 0 0 0 0 0 0 0 0 0 0 0 0 0 0 0 0 0 0 0 0 0 0 0 0 0 0 0 0 0 0 0 0 0 0 0 0 0 0 0 0 0 0 0 0 0 0 0 1711 0 0 0 0 1388 1362 1362 1362 1187 1149 1082 1098 0 0 0 0 0 0 0 0 0 0 0 0 0 0 0 0 0 0 0 0 0 1206 1226 1187 1149 1168 1168 1168 1168 1187 1187 1187 1149 1187 1187 1187 1187 1226 1268 1268 1226 1291 1291 1291 1291 1291 1268 1226 1206 1247 1247 1247 1226 1247 1268 1268 1168 1187 1206 1206 1187 1149 1149 1132 1149 1132 1132 1149 1132 1132 1132 1149 1149 1132 1187 1187 1051 1149 1115 1132 1132 1132 1132 1132 1115 1187 1115 1149 1098 1115 1132 1115 1098 1115 1098 1098 1082 1132 1098 1082 1082 1187 1066 1082 1082 1082 1082 1115 1082 1098 1082 1082 1082 1098 1066 1115 1115 1082 1098 1098 1115 1098 1082 1115 1066 1066 1098 1051 1051 1051 1066 1066 1051 1082 1098 1098 1098 1115 1115 1098 1168 1268 1187 0 0 0 0 0 981 981 968 968 981 1051 1082 1115 1149 1149 0 0 0 0 0 1036 1022 1036 1051 1051 1051 1082 1082 1051 968 955 931 897 897 886 876 865 855 855 826 808 799 774 774 774 766 758 758 743 743 735 735 707 714 707 694 681 681 669 675 663 669 663 651 657 645 639 639 618 623 608 603 588 593 579 574 566 574 566 561 557 566 549 549 541 537 518 518 521 514 0 0 0 0 0
    0 0 0 0 0 0 0 0 0 0 0 0 0 0 0 0 0 0 0 0 0 0 0 0 0 0 0 0 0 0 0 0 0 0 0 0 0 0 0 0 0 0 0 0 0 0 0 0 0 0 0 0 0 0 0 0 0 0 0 0 0 0 0 0 0 0 0 0 0 1599 1599 0 0 1471 1338 1338 1338 1362 1206 1206 1149 1115 0 0 0 0 0 0 0 0 0 0 0 0 0 0 0 0 1565 1471 0 0 0 1226 1268 1206 1168 1168 1187 1187 1187 1206 1187 1187 1149 1187 1187 1187 1187 1247 1268 1291 1247 1291 1314 1314 1314 1314 1268 1206 1206 1226 1226 1187 1187 1187 1226 1247 1149 1132 1187 1187 1206 1168 1149 1132 1149 1132 1149 1149 1149 1132 1149 1149 1168 1132 1187 1187 1051 1149 1132 1132 1132 1132 1132 1132 1115 1206 1115 1149 1098 1115 1132 1115 1098 1115 1098 1098 1098 1149 1098 1082 1098 1187 1098 1115 1098 1115 1098 1149 1115 1115 1098 1098 1082 1098 1066 1098 1098 1066 1082 1082 1098 1082 1066 1082 1051 1066 1115 1066 1051 1051 1066 1066 1066 1082 1082 1066 1082 1098 1082 1066 1168 1247 1168 0 0 0 0 0 0 1008 994 994 1022 1098 1098 1098 1132 1132 1149 0 0 0 0 1051 1051 1051 1066 1066 1066 1082 1082 1051 955 955 943 897 908 897 886 876 865 865 836 817 808 782 782 774 766 758 758 750 750 743 735 714 714 707 694 681 687 675 675 663 669 663 651 657 639 639 639 618 623 608 603 588 593 579 574 566 574 566 561 557 566 549 545 541 533 518 518 518 514 0 0 0 0 0
    0 0 0 0 0 0 0 0 0 0 0 0 0 0 0 0 0 0 0 0 0 0 0 0 0 0 0 0 0 0 0 0 0 0 0 0 0 0 0 0 0 0 0 0 0 0 0 0 0 0 0 0 0 0 0 0 0 0 0 0 0 0 0 0 0 0 0 0 0 1599 0 0 0 1501 1388 1415 1533 1443 0 0 0 0 0 0 0 0 0 0 244 0 0 0 0 243 0 0 0 0 0 0 0 0 0 1226 1268 1206 1168 1168 1187 1187 1187 1206 1168 1168 1168 1187 1187 1187 1187 1247 1268 1291 1268 1314 1338 1314 1314 1338 1247 1206 1206 1226 1226 1149 1168 1168 1247 1268 1206 1149 1206 1206 1226 1206 1168 1132 1168 1149 1149 1149 1149 1132 1132 1168 1168 1132 1187 1187 1051 1132 1115 1115 1115 1115 1115 1115 1115 1187 1098 1132 1098 1115 1132 1132 1098 1115 1115 1115 1098 1149 1098 1066 1098 1168 1132 1149 1132 1132 1132 1168 1168 1132 1132 1098 1082 1115 1082 1098 1082 1066 1082 1066 1066 1066 1051 1051 1051 1051 1098 1066 1051 1066 1066 1051 1082 1082 1066 1051 1066 1066 1051 1051 1132 1187 1082 0 0 0 0 0 0 1051 1022 1036 1051 1082 1066 1066 1066 1066 1066 0 0 0 0 1036 1051 1051 1082 1098 1066 1082 1082 1051 943 955 943 897 919 908 897 886 876 876 836 817 817 782 782 782 774 766 766 750 750 743 735 707 714 707 694 687 687 675 675 663 675 663 651 657 639 639 639 618 623 603 603 588 593 579 579 566 574 566 561 557 566 549 545 537 533 518 514 518 511 0 0 0 0 0
    0 0 0 0 0 0 0 0 0 0 0 0 0 0 0 0 0 0 0 0 0 0 0 0 0 0 0 0 0 0 0 0 0 0 0 0 0 0 0 0 0 0 0 0 0 0 0 0 0 0 0 0 0 0 0 0 0 0 0 0 0 0 0 0 0 0 0 0 0 0 0 0 0 1501 1415 1415 1471 1443 1291 0 0 0 0 0 0 0 0 242 240 0 0 0 0 242 0 0 0 0 0 0 0 0 0 1206 1247 1187 1168 1187 1187 1187 1206 1187 1168 1168 1168 1187 1187 1187 1187 1247 1268 1314 1291 1314 1338 1338 1338 1338 1247 1206 1206 1206 1226 1168 1187 1187 1247 1314 1247 1187 1226 1206 1226 1226 1168 1132 1168 1149 1149 1149 1149 1132 1132 1168 1187 1132 1149 1168 1051 1115 1098 1098 1098 1098 1098 1115 1098 1187 1115 1132 1098 1132 1149 1132 1098 1115 1115 1115 1098 1149 1098 1066 1098 1149 1132 1149 1149 1149 1149 1187 1168 1132 1132 1098 1082 1115 1082 1082 1082 1051 1066 1066 1066 1051 1051 1036 1051 1051 1098 1082 1066 1082 1082 1066 1098 1082 1051 1051 1051 1066 1051 1036 1115 1115 0 1082 0 0 1082 0 1098 1066 1051 1051 1051 1082 1051 1051 1051 1036 1036 0 0 0 0 1051 1051 1066 1098 1115 1066 1082 1082 1036 931 955 955 908 919 919 897 886 876 886 845 826 817 782 782 782 774 758 758 750 750 743 735 714 714 714 700 687 687 675 675 663 669 663 651 657 639 639 639 618 623 603 603 588 593 579 579 566 574 566 561 557 566 549 545 541 533 514 514 518 511 0 0 0 0 0
    0 0 0 0 0 0 0 0 0 0 0 0 0 0 0 0 0 0 0 0 0 0 0 0 0 0 0 0 0 0 0 0 0 0 0 0 0 0 0 0 0 0 0 0 0 0 0 0 0 0 0 0 0 0 0 0 0 0 0 0 0 0 0 0 0 0 0 0 0 0 0 1533 1415 1471 1471 1415 1415 1415 1314 1291 1247 0 0 0 0 0 0 241 0 0 0 0 0 0 0 0 0 0 0 0 0 0 1115 1206 1226 1168 1149 1168 1187 1187 1206 1187 1149 1187 1187 1206 1206 1187 1187 1247 1268 1314 1314 1314 1314 1314 1314 1314 1247 1206 1187 1187 1226 1149 1168 1132 1206 1247 1206 1168 1226 1206 1226 1206 1168 1132 1168 1168 1149 1149 1132 1132 1132 1149 1168 1115 1132 1149 1051 1115 1098 1082 1098 1098 1098 1115 1115 1206 1098 1115 1115 1132 1149 1132 1098 1098 1098 1115 1098 1149 1082 1066 1098 1115 1132 1149 1149 1132 1149 1168 1149 1115 1115 1098 1066 1098 1066 1066 1082 1051 1051 1051 1051 1051 1036 1036 1051 1051 1082 1082 1082 1082 1066 1066 1115 1082 1051 1051 1051 1051 1051 1051 0 1066 0 0 0 0 1066 1051 1082 1066 1051 1066 1066 1082 1066 1066 1066 1036 1036 0 0 0 0 1082 1082 1098 1132 1149 1066 1082 1082 1036 931 955 955 908 931 931 908 897 886 897 845 836 826 791 782 782 774 758 758 750 743 743 743 714 721 714 0 0 687 675 675 663 669 663 651 651 639 639 634 618 623 0 603 593 593 584 579 566 574 566 561 557 566 553 545 541 0 514 514 518 511 0 0 0 0 0
    0 0 0 0 0 0 0 0 0 0 0 0 0 0 0 0 0 0 0 0 0 0 0 0 0 0 0 0 0 0 0 0 0 0 0 0 0 0 0 0 0 0 0 0 0 0 0 0 0 0 0 0 0 0 0 0 0 0 0 0 0 0 0 0 0 0 0 0 0 0 0 1415 1362 1415 1443 1415 1388 1443 1338 1314 1291 0 0 0 0 0 0 238 0 0 0 0 0 0 0 0 0 0 0 0 0 0 1168 1226 1226 1168 1132 1149 1187 1187 1206 1187 1132 1187 1206 1206 1206 1206 1187 1247 1291 1314 1314 1291 1314 1314 1314 1314 1268 1206 1187 1187 1247 1132 1132 1066 1149 1187 1149 1149 1226 1187 1206 1206 1168 1132 1168 1168 1168 1149 1132 1132 1132 1132 1168 1098 1115 1132 1051 1115 1098 1082 1098 1098 1098 1098 1115 1206 1098 1115 1115 1149 1149 1115 1115 1098 1098 1098 1115 1149 1082 1066 1098 1098 1149 1149 1149 1132 1149 1149 1149 1098 1098 1082 1051 1082 1066 1051 1066 1051 1051 1051 1036 1036 1022 1022 1051 1036 1066 1082 1082 1082 1066 1066 1115 1098 1066 1051 1066 1051 1051 1066 0 0 0 0 0 0 1036 1036 1051 1051 1051 1066 1082 1082 1082 1082 1082 1066 1066 1051 0 0 0 1082 1098 1098 1149 1149 1066 1082 1098 1036 919 955 955 908 931 931 897 886 886 897 845 836 826 782 782 782 774 758 758 750 750 743 743 714 721 714 0 0 687 681 675 669 669 663 651 651 634 634 634 618 623 0 603 0 593 584 579 566 574 566 557 561 566 553 545 541 0 518 518 518 511 0 0 0 0 0
    0 0 0 0 0 0 0 0 0 0 0 0 0 0 0 0 0 0 0 0 0 0 0 0 0 0 0 0 0 0 0 0 0 0 0 0 0 0 0 0 0 0 0 0 0 0 0 0 0 0 0 0 0 0 0 0 0 0 0 0 0 0 0 0 0 0 0 0 0 0 0 0 0 0 1388 1415 1388 1443 1338 1314 1291 0 0 0 0 0 0 238 238 238 237 0 0 0 0 0 0 0 0 0 0 0 1206 1247 1226 1168 1149 1168 1187 1206 1206 1187 1132 1187 1206 1206 1226 1187 1187 1247 1291 1338 1314 1291 1314 1314 1314 1314 1268 1187 1168 1149 1247 1115 1115 1036 1098 1132 1115 1132 1206 1206 1206 1187 1168 1149 1168 1168 1168 1132 1132 1132 1132 1149 1149 1115 1132 1098 1066 1115 1098 1082 1098 1098 1098 1098 1115 1206 1098 1098 1132 1149 1149 1132 1132 1098 1115 1115 1149 1168 1132 1098 1115 1115 1168 1149 1149 1149 1149 1149 1149 1098 1098 1082 1051 1098 1082 1036 1066 1051 1036 1036 1036 1036 1022 1022 1051 1022 0 0 0 1082 1066 1066 1115 1082 1066 1066 1066 1051 1066 1098 0 0 0 0 0 0 1022 1008 1022 1036 1036 1036 1051 1066 1066 1051 1051 1051 1051 0 0 0 1098 1115 1149 1149 1168 1149 1082 1098 1098 1036 919 968 955 908 931 919 897 886 876 897 845 826 817 782 782 774 774 758 758 750 750 743 750 721 728 721 707 700 694 681 675 669 669 663 651 651 634 639 634 618 618 608 603 593 0 584 584 566 570 566 557 561 566 553 549 545 0 518 518 518 514 0 0 0 0 0
    0 0 0 0 0 0 0 0 0 0 0 0 0 0 0 0 0 0 0 0 0 0 0 0 0 0 0 0 0 0 0 0 0 0 0 0 0 0 0 0 0 0 0 0 0 0 0 0 0 0 0 0 0 0 0 0 0 0 0 0 0 0 0 0 0 0 0 0 0 0 0 1388 1314 1362 1388 1443 1388 1443 1362 1338 1314 1291 1268 0 0 0 0 241 239 238 0 0 0 0 0 1226 1247 1268 0 0 1247 1168 1226 1247 1226 1168 1168 1168 1206 1206 1206 1187 1132 1187 1206 1206 1226 1206 1187 1247 1291 1338 1338 1291 1314 1291 1291 1291 1247 1168 1149 1132 1226 1098 1098 1022 1082 1115 1115 1115 1206 1187 1187 1168 1132 1149 1168 1187 1187 1149 1149 1168 1168 1187 1187 1168 1149 1115 1082 1115 1098 1082 1082 1098 1098 1098 1132 1187 1082 1098 1132 1168 1149 1115 1115 1098 1115 1115 1149 1168 1115 1098 1115 1115 1149 1149 1149 1149 1149 1132 1132 1098 1082 1082 1051 1082 1066 1036 1066 1051 1036 1036 1022 1022 1008 1022 1051 1022 0 0 0 1082 1066 1082 1115 1066 1051 1051 1051 1051 1051 0 0 0 0 0 0 994 1022 1022 1022 1022 1036 1051 1066 1066 1066 1051 1051 1051 1051 0 0 0 1115 1149 1187 1168 1187 1149 1098 1098 1082 1036 908 968 955 908 931 919 897 886 876 897 845 826 817 782 774 774 774 758 758 750 750 750 758 728 728 721 714 700 694 681 675 669 669 663 651 651 634 634 629 613 618 608 603 593 588 584 579 566 570 570 557 561 566 557 549 545 0 518 518 518 511 0 0 0 0 0
    0 0 0 0 0 0 0 0 0 0 0 0 0 0 0 0 0 0 0 0 0 0 0 0 0 0 0 0 0 0 0 0 0 0 0 0 0 0 0 0 0 0 0 0 0 0 0 0 0 0 0 0 0 0 0 0 0 0 0 0 0 0 0 0 0 0 0 0 0 1291 0 1291 1226 1268 1291 1338 1338 1362 1314 1314 1291 1268 1247 1187 0 0 0 0 0 0 0 0 0 0 0 1226 1247 1247 1206 1206 1206 1168 1226 1247 1226 1168 1187 1187 1206 1206 1206 1168 1132 1187 1206 1206 1206 1187 1168 1247 1291 1338 1338 1314 1314 1291 1314 1291 1247 1149 1132 1115 1226 1066 1098 1022 1082 1132 1149 1115 1206 1187 1187 1149 1132 1149 1168 1168 1187 1149 1149 1168 1187 1206 1206 1187 1168 1115 1098 1132 1098 1082 1082 1098 1098 1098 1132 1168 1082 1098 1132 1168 1149 1115 1115 1098 1115 1115 1149 1132 1098 1082 1098 1115 1132 1132 1132 1132 1132 1115 1115 1082 1066 1066 1036 1082 1066 1036 1082 1051 1022 1022 1022 1022 1008 1022 1051 1022 0 0 1098 1098 1082 1098 1098 1051 1051 1051 1051 1036 1036 0 0 0 994 981 981 1008 1036 1022 1036 1036 1036 1051 1066 1066 1066 1066 1066 1066 1082 1066 1115 1115 1132 1168 1168 1168 1168 1132 1115 1115 1082 1036 908 968 968 908 931 919 897 886 886 897 845 826 826 782 782 774 774 766 766 750 758 750 766 728 728 721 707 700 687 681 675 669 669 669 651 651 634 634 629 613 613 608 603 593 588 584 579 566 570 570 561 561 561 557 549 545 0 518 518 514 511 0 0 0 0 0
    0 0 0 0 0 0 0 0 0 0 0 0 0 0 0 0 0 0 0 0 0 0 0 0 0 0 0 0 0 0 0 0 0 0 0 0 0 0 0 0 0 0 0 0 0 0 0 0 0 0 0 0 0 0 0 0 0 0 0 0 0 0 0 0 0 0 0 0 0 1168 0 1206 1149 1206 1247 0 0 1362 1314 1291 1268 1247 1247 1187 0 0 0 0 0 0 0 0 0 0 0 0 0 0 1168 1168 1187 1132 1206 1226 1187 1149 1187 1187 1206 1206 1187 1149 1132 1187 1206 1187 1187 1168 1168 1247 1291 1338 1314 1314 1314 1314 1314 1291 1247 1168 1149 1132 1206 1066 1115 1022 1098 1168 1168 1149 1206 1206 1187 1149 1132 1168 1168 1187 1187 1168 1168 1168 1187 1206 1187 1187 1168 1115 1115 1132 1098 1082 1098 1098 1098 1098 1149 1132 1066 1098 1149 1168 1149 1115 1115 1098 1115 1115 1132 1115 1066 1066 1082 1082 1115 1098 1115 1098 1115 1082 1098 1082 1066 1066 1036 1066 1082 1036 1098 1066 1022 1022 1022 1022 1022 1022 1051 1008 0 1115 1115 1098 1082 1098 1098 1051 1051 1051 1051 1036 1051 0 1008 1022 994 968 981 1008 1036 1022 1036 1036 1036 1036 1066 1066 1051 1051 1066 1051 1066 1066 1098 1115 1149 1187 1187 1187 1168 1132 1115 1115 1082 1036 908 968 968 908 931 919 897 897 886 897 845 836 826 791 782 774 782 766 766 758 766 758 774 735 728 721 707 707 687 681 681 675 669 669 657 651 634 634 623 613 608 608 598 593 588 584 579 566 570 570 561 566 561 557 549 545 541 518 514 514 511 0 0 0 0 0
    0 0 0 0 0 0 0 0 0 0 0 0 0 0 0 0 0 0 0 0 0 0 0 0 0 0 0 0 0 0 0 0 0 0 0 0 0 0 0 0 0 0 0 0 0 0 0 0 0 0 0 0 0 0 0 0 0 0 0 0 0 0 0 0 0 0 0 0 0 1115 0 1206 1115 0 0 0 1226 1338 1268 1268 1247 1247 1226 1187 0 0 0 0 0 0 0 0 0 0 0 1247 1226 1226 1206 1206 1206 1168 1226 1226 1168 1149 1187 1187 1206 1206 1187 1149 1149 1206 1206 1187 1187 1168 1187 1247 1291 1314 1314 1314 1314 1314 1314 1291 1247 1168 1149 1149 1187 1098 1132 1082 1149 1206 1206 1187 1226 1226 1206 1149 1149 1187 1168 1187 1187 1168 1168 1187 1206 1206 1168 1168 1168 1115 1132 1132 1098 1082 1098 1098 1098 1098 1149 1115 1066 1098 1168 1187 1149 1115 1115 1098 1115 1115 1132 1098 1066 1066 1082 1082 1082 1082 1098 1082 1082 1066 1082 1066 1051 1051 1036 1066 1082 1036 1115 1066 1036 1036 1022 1022 1022 1036 1051 1008 994 1098 1098 1082 1098 1115 1098 1066 1066 1066 1066 1051 0 0 994 0 994 981 994 1008 1022 1022 1036 1036 1036 1036 1066 1066 1051 1066 1066 1066 1082 1082 1115 1149 1168 1187 1206 1206 1187 1132 1132 1132 1082 1036 908 968 968 908 919 919 897 897 886 908 855 836 826 791 782 782 782 766 774 766 766 758 782 743 735 728 714 707 687 681 681 675 669 663 657 645 634 629 618 608 603 608 598 593 588 579 579 566 570 570 561 566 561 561 549 545 541 518 514 514 511 0 0 0 0 0
    0 0 0 0 0 0 0 0 0 0 0 0 0 0 0 0 0 0 0 0 0 0 0 0 0 0 0 0 0 0 0 0 0 0 0 0 0 0 0 0 0 0 0 0 0 0 0 0 0 0 0 0 0 0 0 0 0 0 0 0 0 0 0 0 0 0 0 0 0 1187 1206 1187 1168 1149 1187 1206 1226 1314 1247 1247 1247 1247 1206 1168 0 0 0 0 0 0 0 0 1338 1291 1268 1268 1268 1268 1247 1247 1226 1206 1247 1226 1187 1149 1187 1206 1206 1206 1168 1149 1168 1206 1206 1187 1168 1168 1187 1247 1291 1291 1291 1291 1314 1314 1314 1291 1247 1168 1168 1168 1187 1168 1168 1149 1187 1206 0 0 1226 1226 1187 1149 1149 1187 1187 1187 1168 1187 1168 1187 1226 1206 1168 1187 1149 1132 1132 1132 1115 1098 1115 1115 1115 1132 1149 1115 1082 1115 1168 1187 1149 1115 1115 1115 1115 1132 1132 1082 1066 1066 1066 1066 1066 1066 1082 1066 1082 1066 1051 1051 1036 1066 1051 1066 1098 1051 1132 1082 1036 1036 1036 1036 1036 1036 1051 1008 994 1098 1098 1082 1098 1132 1082 1082 1082 1082 1066 1051 1066 0 994 0 981 955 981 1008 1022 1022 1036 1051 1051 1051 1082 0 0 0 1115 1115 0 1132 1187 1206 1206 1226 1226 1226 1187 1132 1149 1149 1082 1036 908 968 968 919 919 919 897 897 886 908 855 836 836 791 791 782 782 766 774 766 774 766 791 750 743 728 714 714 687 681 675 675 663 669 657 639 634 629 618 608 603 608 598 593 588 579 574 566 570 570 561 566 561 561 549 549 541 521 518 514 511 0 0 0 0 0
    0 0 0 0 0 0 0 0 0 0 0 0 0 0 0 0 0 0 0 0 0 0 0 0 0 0 0 0 0 0 0 0 0 0 0 0 0 0 0 0 0 0 0 0 0 0 0 0 0 0 0 0 0 0 0 0 0 0 0 0 0 0 0 0 0 0 0 0 0 1247 1226 1187 1168 1187 0 0 1247 1314 1226 1247 1226 1206 1168 1132 1132 1206 1149 1247 1226 0 0 0 1291 1291 1268 1268 1291 1291 1268 1247 1226 1226 1247 1226 1187 1149 1187 1206 1206 1187 1149 1149 1187 1206 1187 1168 1168 1168 1187 1247 1268 1268 1268 1291 1338 1314 1314 0 1247 1187 1168 1187 1206 1187 1187 1206 1187 1226 0 0 1247 1226 1187 1132 1168 1206 1187 1187 1168 1187 1187 1206 1247 1206 1149 1187 1132 1132 1149 1149 1132 1115 1132 1132 1132 1168 1187 1115 1082 1115 1168 1168 1149 1115 1115 1115 1115 1132 1132 1066 1066 1066 1066 1051 1066 1066 1066 1066 1066 1066 1051 1051 1036 1051 1036 1066 1115 1051 1132 1082 1036 1036 1036 1036 1036 1036 1066 1008 994 1115 1115 1082 1115 1115 1066 1066 1066 1066 1066 1051 1066 0 1008 1036 1022 981 994 1008 1022 1036 1036 1051 1051 1051 1082 0 0 0 0 1149 0 0 0 1226 0 1247 1247 1247 1187 1132 1168 1168 1098 1036 919 968 968 919 919 908 886 886 886 897 855 836 836 791 791 782 791 774 782 774 782 766 799 766 743 721 707 707 675 675 675 675 663 669 657 639 634 629 618 608 603 608 593 593 584 579 574 566 566 570 561 566 557 561 549 545 537 521 518 514 511 0 0 0 0 0
    0 0 0 0 0 0 0 0 0 0 0 0 0 0 0 0 0 0 0 0 0 0 0 0 0 0 0 0 0 0 0 0 0 0 0 0 0 0 0 0 0 0 0 0 0 0 0 0 0 0 0 0 0 0 0 0 0 0 0 0 0 0 0 0 0 0 0 0 0 1314 1291 1226 1206 1291 1226 1226 1226 1291 1226 1247 1226 1206 1168 1149 1132 1187 1149 1226 1206 1226 1291 1291 1314 1291 1268 1291 1314 1314 1291 1226 1226 1226 1247 1226 1187 1168 1187 1206 1226 1187 1149 1168 1206 1226 1187 1149 1168 1149 1187 1247 1268 1268 1268 1291 1338 1314 0 0 1247 1187 1168 1187 1187 1187 1187 1187 1187 1226 1226 1247 1268 1268 1187 1132 1168 1206 1187 1187 1168 1187 1187 1206 1247 1206 1149 1187 1115 1149 1149 1149 1132 1115 1132 1132 1132 1168 1187 1098 1082 1115 1168 1168 1132 1115 1132 1115 1132 1149 1149 1082 1082 1115 1115 1082 1098 1098 1098 1082 1098 1082 1066 1066 1051 1051 1036 1066 1115 1051 1132 1082 0 1036 1036 1036 1051 1051 1066 1008 1008 1115 1115 1082 1132 1098 1036 1051 1051 1051 1051 1036 1066 1036 1008 1036 1022 994 994 1008 1022 1036 1051 1051 1036 1022 1082 1115 1082 0 0 0 0 0 0 0 0 1247 1247 1247 1168 1115 1168 1168 1115 1051 931 981 981 931 919 908 886 886 886 897 855 836 836 799 791 782 791 782 782 774 791 774 808 782 758 728 707 700 669 675 675 675 663 663 657 645 634 634 618 613 603 608 593 588 579 574 570 566 566 566 557 561 557 561 549 545 537 525 518 514 514 0 0 0 0 0
    0 0 0 0 0 0 0 0 0 0 0 0 0 0 0 0 0 0 0 0 0 0 0 0 0 0 0 0 0 0 0 0 0 0 0 0 0 0 0 0 0 0 0 0 0 0 0 0 0 0 0 0 0 0 0 0 0 0 0 0 0 0 0 0 0 0 0 0 0 1443 1362 0 0 0 1082 0 1149 1247 1187 1206 1206 1187 1115 1115 1115 1115 1098 1187 1168 0 1268 1268 1291 1268 1247 1268 1268 1268 1268 1132 1187 1206 1226 1206 1187 1168 1206 1206 1226 1187 1149 1168 1206 1226 1168 1149 1149 1149 1187 1226 1268 1268 1247 1291 1338 1314 0 0 1247 1187 1187 1187 1168 1187 1187 1206 1206 1226 1247 1291 1314 1291 1168 1132 1187 1206 1187 1187 1149 1187 1187 1226 1247 1187 1187 1206 1098 1149 1168 1132 1132 1115 1132 1132 1132 1187 1187 1082 1082 1132 1168 1168 1132 1132 1132 1132 1149 1187 1168 1115 1115 1168 1187 1168 1187 1168 1168 1149 1168 1149 1082 1082 1066 1082 1051 1066 1132 1051 1132 1082 0 1036 1036 1022 1051 1051 1066 1008 1008 1132 1115 1082 1168 1082 1036 1051 1036 1051 1036 1036 1051 1008 1008 1036 1022 1008 994 1008 1022 1036 1051 1051 1036 1008 1066 1115 1082 0 0 0 0 0 0 0 0 1291 1291 1247 1168 1115 1187 1168 1098 1036 931 968 968 931 908 908 886 886 886 897 855 836 836 799 791 791 791 782 791 782 791 782 808 782 758 728 700 700 675 675 675 0 663 669 657 645 634 634 618 613 603 608 593 588 579 574 570 566 566 566 557 561 557 561 549 545 533 525 518 514 514 0 0 0 0 0
    0 0 0 0 0 0 0 0 0 0 0 0 0 0 0 0 0 0 0 0 0 0 0 0 0 0 0 0 0 0 0 0 0 0 0 0 0 0 0 0 0 0 0 0 0 0 0 0 0 0 0 0 0 0 0 0 0 0 0 0 0 0 0 0 0 0 0 0 0 1565 1415 1338 0 0 1149 1115 1149 1206 1206 1206 1187 1168 1098 1082 1082 1098 1082 1168 1168 0 0 1268 1268 1268 1247 1268 1291 1268 1247 1115 1168 1206 1206 1168 1168 1149 1187 1206 1226 1168 1168 1187 1206 1226 1168 1132 1149 1149 1187 1226 1268 1268 1247 1314 1338 1338 1314 0 1247 1187 1187 1187 1187 1187 1206 1226 1226 1226 1268 1291 1314 1291 1168 1149 1187 1206 1187 1168 1149 1187 1187 1226 1247 1187 1206 1206 1098 1168 1168 1132 1149 1132 1149 1132 1132 1187 1168 1082 1098 1132 1149 1168 1115 1115 1132 1132 1168 1187 1168 1132 1132 1206 1206 1187 1226 1206 1226 1187 1226 1168 1066 1051 1066 1082 1036 1051 1149 1036 1149 1082 0 1036 1022 1022 1051 1051 1066 1008 1008 1132 1115 1082 1187 1082 1051 1051 1036 1051 1036 1036 1051 1008 994 1008 1022 1008 1008 1036 1036 1051 1066 1082 1066 1051 0 0 1098 1168 0 0 0 0 0 0 0 1291 1291 1226 1149 1098 1168 1149 1082 1036 931 968 968 943 897 908 886 886 886 897 865 836 836 808 799 791 799 791 791 782 791 782 808 782 743 721 700 700 675 681 675 0 669 669 663 651 639 639 618 613 603 603 593 588 579 579 570 566 566 566 557 561 557 561 549 545 533 525 518 514 514 0 0 0 0 0
    0 0 0 0 0 0 0 0 0 0 0 0 0 0 0 0 0 0 0 0 0 0 0 0 0 0 0 0 0 0 0 0 0 0 0 0 0 0 0 0 0 0 0 0 0 0 0 0 0 0 0 0 0 0 0 0 0 0 0 0 0 0 0 0 0 0 0 0 0 1533 1314 1247 1226 1206 1132 1098 1115 1187 1187 1206 1187 1149 1098 1082 1082 1098 1082 1132 1132 1149 1187 1247 1247 1247 1247 0 1314 1291 1268 1149 1187 1206 1187 1149 1149 1168 1187 1206 1226 1168 1168 1206 1226 1226 1168 1132 1149 1168 1187 1247 1268 1268 1268 1314 1338 1338 1314 1314 1268 1206 1187 1206 1187 1187 1187 1226 1206 1226 1247 1268 1291 1291 1168 1187 1206 1206 1187 1168 1149 1187 1187 1226 1226 1115 1168 1149 1098 1168 1149 1132 1149 1132 1149 1149 1149 1206 1149 1082 1115 1132 1149 1149 1115 1115 1132 1132 1168 1187 1168 1149 1168 1226 1226 1206 1226 1226 1226 1187 1247 1168 1082 1051 1098 1132 1036 1051 1168 1036 1149 1082 0 1036 1036 1022 1066 1051 1082 1008 1008 1132 1098 1082 1206 1066 1066 1051 1051 1051 1051 1051 1066 1008 1008 1008 1036 1022 1022 1051 1036 1051 1051 1066 1066 1051 0 0 1098 1206 0 0 0 0 0 0 0 1268 1268 1206 1132 1098 1149 1115 1066 1036 931 968 968 943 886 908 886 886 886 897 865 836 836 808 799 791 799 791 791 782 791 782 808 782 743 714 694 694 669 681 675 675 669 669 663 657 645 645 623 613 603 603 593 588 579 579 570 566 566 566 557 557 553 561 549 545 537 529 521 518 518 0 0 0 0 0
    0 0 0 0 0 0 0 0 0 0 0 0 0 0 0 0 0 0 0 0 0 0 0 0 0 0 0 0 0 0 0 0 0 0 0 0 0 0 0 0 0 0 0 0 0 0 0 0 0 0 0 0 0 0 0 0 0 0 0 0 0 0 0 0 0 0 0 0 0 1711 0 0 0 1187 1132 1115 1115 1168 1187 1187 1168 1149 1082 1066 1066 1082 1066 1082 1082 1082 1115 1187 1168 1206 1187 0 0 1314 1291 1168 1206 1226 1187 1168 1168 1168 1187 1206 1206 1149 1187 1206 1226 1226 1168 1149 1168 1187 1206 1247 1268 1268 1268 1314 1362 1338 1314 1314 1268 1206 1206 1206 1187 1168 1149 1187 1168 1187 1206 1247 1268 1247 1149 1187 1206 1206 1187 0 1168 1187 1206 1226 1206 1098 1149 1115 1098 1168 1132 1115 1132 1132 1149 1132 1168 1206 1115 1082 1115 1149 1149 1149 1115 1115 1132 1149 1187 1206 1168 1168 1187 1247 1247 1206 1226 1226 1226 1206 1268 1206 1115 0 1226 1226 1082 1051 1168 1036 1149 1098 0 1051 1036 1036 1066 1066 1082 1022 1036 1149 1098 1082 1206 1066 1051 1051 1051 1051 1051 1066 1082 1036 1036 1036 1066 1051 0 1051 1022 1051 1051 1098 1082 1082 0 0 0 0 0 0 0 0 0 0 0 1268 1268 1187 1115 1115 1149 1115 1066 1036 931 955 968 943 886 908 897 886 886 897 865 836 826 799 791 782 791 782 782 774 791 782 808 782 728 707 687 687 657 675 663 669 663 669 663 657 645 645 623 618 603 603 593 588 579 574 570 570 566 566 557 557 553 561 545 541 533 529 521 518 521 0 0 0 0 0</data></depth>
</opencv_storage>
