<?xml version="1.0"?>
<opencv_storage>
<gps_time_stamp>289996</gps_time_stamp>
<gps_x>-1.2364647865295410e+001</gps_x>
<gps_y>1.1114383697509766e+001</gps_y>
<gps_z>-2.2014400959014893e+000</gps_z>
<image_time_stamp>280858</image_time_stamp>
<depth type_id="opencv-matrix">
  <rows>78</rows>
  <cols>320</cols>
  <dt>s</dt>
  <data>
    0 0 0 0 0 0 0 0 0 0 0 0 0 0 0 0 0 0 0 0 0 0 0 0 0 0 0 0 0 0 0 0 0 0 0 0 0 0 0 0 0 0 0 0 0 0 0 0 0 0 0 0 0 0 0 0 0 0 0 0 0 0 0 0 0 0 0 0 0 0 0 0 1168 0 0 0 0 1008 1036 1022 1051 1051 1082 1098 1132 1115 0 0 0 0 0 0 171 0 0 0 0 0 0 0 0 1291 0 1247 1187 1132 1098 1206 1168 1149 1132 1098 0 0 1132 1082 0 1149 1066 1187 1187 1115 1149 1149 1149 1149 1149 1206 1149 1168 1291 1362 1314 0 0 0 5661 4906 4906 4088 4599 3873 4329 3504 0 0 0 0 0 0 0 1098 1098 1098 1115 1132 1132 1226 1168 0 1226 0 2102 0 2374 0 0 0 0 0 1314 1226 1247 1115 1082 1132 1098 1132 0 1115 1115 1098 0 1187 0 0 0 0 178 0 0 1415 1268 1132 1066 1082 1082 1051 1066 1149 1149 1149 1082 1022 1008 1008 1008 1008 968 955 955 955 1098 1066 1082 1226 1132 1149 1132 1115 1098 1082 1098 1082 1082 1082 1066 1022 1051 994 0 981 955 955 908 908 931 886 897 919 931 943 981 1022 1022 1098 1098 1168 1206 1168 1168 1098 1051 1066 1008 1036 1008 1022 1022 1036 1036 1051 1036 1051 1022 1022 1022 1022 919 955 955 955 955 968 955 943 931 994 955 955 981 981 876 0 0 4088 3873 0 0 0 0 0 943 955 0 0 0 0 0 0 0 0 0 504 521 525 518 518 511 514 511 518 511 504 504 0 0 0 0 0
    0 0 0 0 0 0 0 0 0 0 0 0 0 0 0 0 0 0 0 0 0 0 0 0 0 0 0 0 0 0 0 0 0 0 0 0 0 0 0 0 0 0 0 0 0 0 0 0 0 0 0 0 0 0 0 0 0 0 0 0 0 0 0 0 0 0 0 0 0 0 0 0 0 0 0 0 0 1051 1066 1082 1115 1132 1132 1149 0 0 0 0 0 0 0 0 0 0 0 0 0 0 0 0 0 0 1362 0 0 1149 1132 1226 1168 1149 1168 1132 1187 1206 1187 1115 1066 1168 1066 1187 1187 1115 1149 1149 1168 1149 1149 1226 1168 1168 1268 1314 1314 0 0 0 0 3873 3873 0 0 0 4329 3504 0 0 0 0 1036 1115 1098 1115 1098 1115 1115 1132 1115 1226 1149 1268 1187 0 0 0 0 0 0 0 1338 1314 1314 1226 1226 1115 1082 1132 1098 1115 1115 1115 1098 1082 1098 1168 0 181 0 0 0 0 1187 1206 1168 1082 1066 1098 1098 1066 1082 1168 1168 1168 1082 1036 1022 1022 1022 1008 981 968 955 955 1066 1051 1051 1168 1098 1132 1132 1115 1115 1082 1098 1082 1066 1051 1051 1008 1036 981 968 968 955 955 931 943 955 919 931 943 955 968 994 1022 1022 1082 1082 1149 1206 1168 1149 1082 1036 1051 1008 1036 1022 1022 1022 1036 1036 1066 1036 1051 1036 1022 1022 1022 919 968 968 968 955 955 955 943 931 994 955 955 968 994 931 0 0 4329 4088 0 0 4906 0 0 931 0 0 0 0 0 0 0 0 0 507 514 529 533 529 529 518 518 514 518 514 507 507 0 0 0 0 0
    0 0 0 0 0 0 0 0 0 0 0 0 0 0 0 0 0 0 0 0 0 0 0 0 0 0 0 0 0 0 0 0 0 0 0 0 0 0 0 0 0 0 0 0 0 0 0 0 0 0 0 0 0 0 0 0 0 0 0 0 0 0 0 0 0 0 0 0 0 0 0 0 1206 1168 0 1098 1082 1082 1115 1132 1168 1187 1187 1206 0 0 0 0 0 0 0 0 0 1168 0 0 0 0 0 0 0 1291 1338 1247 1187 1168 1187 1226 1168 1168 1187 1168 1168 1206 1149 1051 1036 1115 1051 1168 1168 1115 1149 1149 1168 1149 1149 1226 1149 1168 1268 1268 1268 1268 0 0 0 3504 3345 3199 3679 3345 3873 3345 0 0 0 1149 1051 1115 1098 1115 1115 1115 1115 1149 1115 1226 1149 1268 1168 0 0 0 0 0 0 1226 1247 1268 1291 1206 1168 1098 1082 1115 1098 1115 1098 1098 1098 1098 1098 1149 1051 0 0 1051 0 1132 1115 1115 1132 1082 1082 1098 1082 1066 1082 1149 1168 1168 1082 1036 1022 1022 1022 1008 981 968 968 968 1066 1051 1051 1132 1115 1132 1132 1132 1115 1098 1082 1066 1066 1036 1022 994 1008 981 968 968 968 968 955 968 968 968 955 968 981 981 1022 1036 1022 0 1066 1115 1187 1149 1115 1051 1036 1051 0 0 0 1022 1036 1036 1051 1066 1036 1051 1036 1022 1036 1022 931 968 968 968 955 968 968 943 931 994 955 955 968 1008 968 0 0 4329 0 0 0 0 0 0 931 943 0 0 0 0 0 0 0 504 518 518 533 537 533 533 521 518 514 518 514 507 507 0 0 0 0 0
    0 0 0 0 0 0 0 0 0 0 0 0 0 0 0 0 0 0 0 0 0 0 0 0 0 0 0 0 0 0 0 0 0 0 0 0 0 0 0 0 0 0 0 0 0 0 0 0 0 0 0 0 0 0 0 0 0 0 0 0 0 0 0 0 0 0 0 0 0 0 0 0 1149 1149 1098 1115 1098 1098 1115 1132 1168 1187 1168 1187 1187 1187 1187 1168 1149 0 0 0 0 1168 0 0 0 0 1247 0 0 1268 0 1226 1168 1168 1206 1226 1206 1206 1206 1168 1168 1168 1098 1022 994 1051 1051 1149 1149 1098 1149 1149 1168 1149 1132 1206 1149 1149 1247 1187 1206 1187 0 2537 3066 3066 3066 2943 0 0 0 0 0 0 0 1168 1066 1132 1098 1115 1115 1115 1115 1149 1115 1206 1149 1247 1149 1206 1206 1082 1115 1036 1082 1066 1066 1187 1206 1149 1115 1098 1066 1098 1098 1098 1082 1098 1082 1082 1098 1149 1066 1066 1066 1066 1051 1132 1115 1098 1115 1082 1082 1098 1098 1082 1098 1132 1149 1149 1098 1036 1036 1036 1036 1022 994 994 981 981 1098 1036 1051 1115 1115 1168 1149 1149 1132 1115 1115 1082 1066 1036 1036 1008 1008 981 968 981 981 981 981 994 994 994 994 994 1022 1022 1066 1082 1051 1082 1066 1115 1187 0 0 0 1036 0 0 0 0 1022 1036 1051 1066 1066 1036 1051 1036 1022 1036 1022 931 968 981 981 955 968 968 943 931 994 955 955 955 1008 994 0 0 0 0 0 0 0 0 0 0 0 0 0 0 0 0 0 0 511 518 521 533 537 533 533 521 521 514 518 518 507 507 0 0 0 0 0
    0 0 0 0 0 0 0 0 0 0 0 0 0 0 0 0 0 0 0 0 0 0 0 0 0 0 0 0 0 0 0 0 0 0 0 0 0 0 0 0 0 0 0 0 0 0 0 0 0 0 0 0 0 0 0 0 0 0 0 0 0 0 0 0 0 0 0 0 0 1226 1247 1206 1149 1168 1115 1132 1115 1115 1132 1149 1168 1187 1149 1206 1187 1187 1206 1187 1168 0 0 1168 1168 1168 1187 1187 1226 1226 1226 1226 1247 1247 0 1226 1168 1187 1206 1247 1226 1226 1226 1168 1168 1168 1098 1022 1008 1051 1036 1132 1149 1115 1149 1149 1168 1149 1132 1206 1149 1168 1226 1132 1132 1115 0 0 0 0 0 0 0 0 0 0 0 0 0 1168 1082 1132 1115 1132 1132 1115 1132 1149 1132 1206 1168 1206 1149 1168 1149 1098 1098 1066 1066 1066 1066 1132 1149 1132 1098 1082 1066 1098 1098 1098 1082 1098 1082 1082 1082 1149 1066 1066 1082 1082 1082 1168 1132 1098 1115 1098 1082 1115 1115 1082 1098 1115 1149 1149 1098 1051 1051 1051 1051 1036 1008 1008 994 994 1115 1022 1022 1066 1082 1168 1149 1168 1132 1132 1132 1115 1098 1082 1066 1036 1022 981 981 981 0 994 994 1008 1008 1022 1008 1036 1051 1051 1098 0 0 0 0 1115 0 0 0 0 1022 0 0 0 0 1022 1036 1036 1051 1051 1022 1036 1036 1022 1051 1022 943 981 981 981 968 968 968 955 943 994 955 955 955 1008 1008 0 0 0 1036 1082 1066 0 0 0 0 0 0 0 0 0 0 0 0 507 514 518 529 533 533 533 529 525 518 521 521 514 514 0 0 0 0 0
    0 0 0 0 0 0 0 0 0 0 0 0 0 0 0 0 0 0 0 0 0 0 0 0 0 0 0 0 0 0 0 0 0 0 0 0 0 0 0 0 0 0 0 0 0 0 0 0 0 0 0 0 0 0 0 0 0 0 0 0 0 0 0 0 0 0 0 0 0 1226 1206 1187 1168 1206 1168 1168 1149 1098 1149 1168 1206 1226 1168 1226 1226 1206 1247 1206 0 0 0 1187 1168 1187 1187 1187 1206 1206 1187 1206 1226 1226 1226 1226 1187 1206 1247 1291 1247 0 1247 1187 1187 0 1115 0 1022 1051 1036 1132 1149 1115 1168 1168 1168 1168 1149 1226 1168 1187 1226 1115 1115 1115 1206 0 0 1268 1226 0 1247 1206 1291 1149 1226 1187 1115 1168 1098 1149 1132 1149 1149 1132 1149 1168 1149 1226 1168 1206 1149 1149 1132 1115 1115 1098 1082 1082 1082 1132 1149 1149 1098 1098 1066 1098 1098 1098 1082 1098 1082 1082 1082 1149 1066 1051 1082 1082 1082 1149 1132 1098 1098 1082 1082 1115 1115 1082 1098 1115 1149 1149 1098 1051 1066 1066 1066 1051 1036 1022 1008 1008 1149 1008 994 1008 1008 1132 1132 1149 1132 1132 1149 1132 1132 1115 1098 1066 1051 1008 1008 0 0 1008 1008 1036 1036 1066 0 1066 1082 0 0 0 0 0 0 0 0 0 0 994 1008 1008 0 0 0 1022 1022 1036 1036 1036 1022 1036 1036 1022 1051 1036 955 994 994 1008 968 981 981 955 943 994 955 943 943 1008 994 0 0 0 1036 1066 1051 1051 0 0 0 0 0 0 0 0 0 0 514 507 521 518 529 533 537 533 533 529 525 525 525 518 514 0 0 0 0 0
    0 0 0 0 0 0 0 0 0 0 0 0 0 0 0 0 0 0 0 0 0 0 0 0 0 0 0 0 0 0 0 0 0 0 0 0 0 0 0 0 0 0 0 0 0 0 0 0 0 0 0 0 0 0 0 0 0 0 0 0 0 0 0 0 0 0 0 0 0 1206 1226 1206 1206 1247 1247 1226 1247 1206 1226 1247 1291 1268 0 1247 1291 0 0 0 0 0 0 1187 1187 1187 0 1187 1206 1187 1168 1187 1206 1187 1206 1206 1168 1206 1268 1314 1291 0 0 1226 1206 0 0 0 0 1082 1051 1132 1132 1132 1168 1168 1168 1168 1149 1247 1168 1206 1206 1115 1115 1115 1187 1226 1226 1247 1226 1187 1247 1226 1268 1168 1226 1187 1132 1168 1115 1168 1149 1149 1168 1149 1168 1187 1168 1226 1168 1206 1149 1149 1132 1115 1115 1115 1098 1098 1082 1132 1149 1149 1115 1115 1066 1098 1115 1098 1082 1098 1082 1082 1082 1149 1066 1051 1082 1082 1082 1149 1132 1098 1115 1098 1082 1115 1115 1098 1098 1098 1149 1149 1115 1066 1082 1082 1082 1066 1051 1036 1036 1036 1187 1008 1008 1036 1051 1168 1168 1168 1149 1168 1168 1149 1168 1168 1132 1132 1115 1066 1066 1036 0 1036 1036 1066 1066 1132 0 0 1132 0 0 0 0 0 0 1051 0 0 0 0 994 1008 981 0 994 1022 1022 1022 1022 1022 1022 1036 1036 1022 1066 1036 981 1022 1022 1022 994 994 994 968 955 1008 968 943 943 1036 1008 0 0 1036 1036 1051 1036 1051 943 0 0 0 0 0 0 0 0 0 0 525 533 529 533 533 537 537 541 537 529 525 529 518 518 0 0 0 0 0
    0 0 0 0 0 0 0 0 0 0 0 0 0 0 0 0 0 0 0 0 0 0 0 0 0 0 0 0 0 0 0 0 0 0 0 0 0 0 0 0 0 0 0 0 0 0 0 0 0 0 0 0 0 0 0 0 0 0 0 0 0 0 0 0 0 0 0 0 0 1187 1226 0 0 0 0 0 0 0 1268 0 0 0 0 0 0 0 0 0 0 0 0 1206 1187 1168 0 1168 0 0 1149 1149 1168 1149 1168 1187 1149 1206 1268 1291 1291 0 0 0 0 0 0 0 0 1098 1051 1149 1132 1149 1168 1168 1168 1168 1168 1247 1168 1206 1206 1115 1115 1115 1187 1206 1206 1226 1226 1187 1247 1247 1268 1187 1226 1187 1149 1187 1132 1168 1168 1168 1168 1168 1187 1206 1187 1247 1187 1206 1168 1168 1149 1115 1115 1115 1098 1098 1098 1132 1132 1149 1115 1115 1066 1115 1115 1115 1098 1098 1066 1098 1082 1149 1066 1036 1066 1082 1066 1149 1132 1098 1115 1098 1098 1132 1115 1098 1115 1098 1149 1149 1115 1066 1098 1098 1098 1082 1082 1066 1051 1066 1206 1022 1036 1082 1098 1187 1187 1168 1168 1187 1168 1187 1187 1187 1168 1168 1149 1115 1098 1066 0 1051 1051 1132 1149 1226 0 0 1226 0 0 0 0 0 0 1149 0 0 0 0 0 994 981 0 0 1022 1022 1022 1036 1022 1022 1036 1051 1022 1066 1051 1008 1036 1036 1036 1008 1008 1008 981 981 1022 981 955 955 1066 1036 1036 0 1051 1051 1036 1051 0 0 0 0 0 0 608 588 0 561 0 545 541 541 533 533 529 533 533 541 537 529 525 529 518 518 0 0 0 0 0
    0 0 0 0 0 0 0 0 0 0 0 0 0 0 0 0 0 0 0 0 0 0 0 0 0 0 0 0 0 0 0 0 0 0 0 0 0 0 0 0 0 0 0 0 0 0 0 0 0 0 0 0 0 0 0 0 0 0 0 0 0 0 0 0 0 0 0 0 0 0 0 0 0 0 0 0 0 0 0 0 0 0 0 0 0 0 0 0 0 0 1226 1206 1187 1168 1149 1168 1168 0 1115 1132 1132 1132 1132 1187 1149 1187 1247 1268 1268 0 0 0 0 0 0 0 0 1098 1051 1149 1115 1149 1168 1168 1168 1168 1168 1247 1168 1226 1187 1115 1115 1132 1187 1206 1206 1226 1247 1187 1247 1247 1247 1187 1226 1187 1149 1187 1149 1187 1168 1187 1187 1168 1206 1206 1187 1247 1187 1206 1168 1168 1149 1115 1132 1115 1082 1098 1082 1132 1115 1149 1098 1115 1066 1115 1132 1115 1098 1115 1066 1098 1082 1149 1066 1036 1066 1082 1082 1149 1132 1082 1098 1098 1115 1132 1132 1115 1115 1082 1149 1149 1132 1066 1115 1115 1115 1098 1098 1082 1066 1082 1206 1022 1036 1051 1066 1132 1149 1149 1168 1168 1187 1187 1187 1187 1149 1149 1132 0 1082 1051 0 1036 1036 1098 1115 1206 0 0 1206 0 0 0 0 0 0 0 0 0 0 0 1022 994 0 0 0 1022 1022 1036 1051 1022 1008 1036 1036 1022 1082 1051 1022 1051 1051 1051 1022 1022 1036 1008 994 1051 981 968 968 1115 1082 1082 1066 1082 1082 1066 1066 0 0 0 0 0 0 598 588 584 570 561 553 549 541 537 533 529 533 533 537 533 525 521 521 514 511 0 0 0 0 0
    0 0 0 0 0 0 0 0 0 0 0 0 0 0 0 0 0 0 0 0 0 0 0 0 0 0 0 0 0 0 0 0 0 0 0 0 0 0 0 0 0 0 0 0 0 0 0 0 0 0 0 0 0 0 0 0 0 0 0 0 0 0 0 0 0 0 0 0 0 0 0 0 0 0 0 0 0 0 0 0 0 0 0 0 0 0 0 0 0 0 1247 1226 1187 1187 1149 1168 1168 1149 1115 1115 1115 1115 1115 1187 1168 1206 1268 1291 1291 0 0 0 0 0 0 0 0 1115 1051 1149 1115 1149 1168 1168 1168 1168 1149 1247 1168 1226 1168 1115 1115 1132 1187 1206 1206 1226 1226 1187 1247 1226 1247 1168 1226 1187 1168 1187 1168 1187 1187 1187 1187 1168 1206 1206 1206 1247 1206 1187 1168 1168 1149 1132 1132 1115 1082 1098 1082 1115 1098 1132 1082 1115 1082 1115 1132 1115 1098 1115 1082 1098 1098 1149 1082 1051 1098 1115 1132 1168 1168 1098 1132 1115 1115 1149 1132 1115 1115 1082 1149 1149 1132 1066 1132 1132 1132 1115 1132 1098 1082 1098 1226 1008 1008 1022 1036 1082 1098 1115 1168 1168 1168 1187 1168 1187 1115 0 0 0 1066 1036 1051 1036 1022 1066 1098 1149 1115 0 1149 0 1226 0 1206 0 0 0 0 0 0 0 1036 0 0 0 1036 1051 1051 1051 1051 1022 1008 1022 1022 1008 1082 1066 1022 1066 1082 1066 1036 1036 1051 1008 1022 1066 994 981 981 1132 1098 1082 1066 1082 1066 1066 1066 0 0 0 0 593 598 598 593 588 574 570 561 561 549 537 533 525 533 529 537 533 525 521 518 511 511 0 0 0 0 0
    0 0 0 0 0 0 0 0 0 0 0 0 0 0 0 0 0 0 0 0 0 0 0 0 0 0 0 0 0 0 0 0 0 0 0 0 0 0 0 0 0 0 0 0 0 0 0 0 0 0 0 0 0 0 0 0 0 0 0 0 0 0 0 0 0 0 0 0 0 0 0 0 0 0 0 0 0 0 0 0 0 0 0 0 0 0 0 0 0 0 1247 1226 1206 1187 1168 0 0 1149 1115 1115 1098 1098 1082 1149 1132 1187 1226 1268 1247 0 0 0 0 0 113 0 0 1115 1051 1149 1115 1168 1168 1168 1168 1168 1149 1226 1149 1226 1149 1098 1098 1115 1187 1168 1187 1206 1206 1168 1206 1206 1206 1168 1206 1168 1168 1168 1168 1187 1187 1187 1187 1168 1206 1206 1206 1247 1187 1187 1168 1149 1168 1132 1132 1132 1082 1098 1082 1098 1082 1098 1066 1082 1066 1082 1115 1115 1098 1115 1082 1115 1115 1168 1132 1098 1132 1149 1168 1187 1187 1098 1132 1115 1115 1149 1132 1115 1115 1066 1115 1149 1132 1066 1132 1132 1132 1115 1149 1115 1098 1098 1247 1008 1022 1022 1051 1082 1082 1066 1115 1115 1132 1168 1149 1168 1098 1082 0 0 1082 1066 1066 1051 1036 1082 1082 1115 1082 1082 1098 1132 1187 1206 1168 0 0 0 0 0 1098 0 1051 1051 0 0 1036 1036 1036 1051 1051 1008 1008 1022 1022 1008 1082 1066 1036 1082 1098 1082 1051 1051 1066 1022 1022 1082 994 981 981 1149 1098 1082 1066 1066 0 0 0 0 0 0 0 593 603 598 593 593 579 574 561 561 553 541 533 525 529 529 537 533 525 521 521 514 514 0 0 0 0 0
    0 0 0 0 0 0 0 0 0 0 0 0 0 0 0 0 0 0 0 0 0 0 0 0 0 0 0 0 0 0 0 0 0 0 0 0 0 0 0 0 0 0 0 0 0 0 0 0 0 0 0 0 0 0 0 0 0 0 0 0 0 0 0 0 0 0 0 0 0 1247 0 0 0 0 0 0 0 0 0 0 0 0 0 0 0 0 0 0 0 0 1226 1206 1206 1187 1149 0 0 0 1082 1098 1066 1066 1066 1098 1098 1132 1187 1206 0 0 104 103 0 113 114 113 0 1149 1051 1149 1115 1168 1168 1168 1149 1168 1149 1226 1149 1247 1132 1098 1098 1132 1168 1168 1168 1206 1187 1149 1187 1187 1206 1149 1206 1168 1168 1187 1187 1206 1206 1187 1206 1168 1226 1206 1206 1247 1187 1168 1168 1149 1168 1149 1149 1132 1098 1098 1082 1066 1051 1066 1036 1051 1051 1051 1082 1082 1098 1115 1082 1132 1149 1187 1187 1149 1149 1149 1187 1206 1187 1115 1115 1115 1098 1168 1132 1115 1115 1082 1115 1168 1168 1082 1149 1149 1149 1132 1149 1149 1115 1115 1247 1036 1036 1036 1066 1051 1051 1036 1066 1082 1115 1187 1206 0 0 0 0 1132 1132 1115 1082 1051 1036 1066 1082 1082 1066 1051 1066 1082 1168 1206 1168 0 1115 1168 1187 1168 1149 0 1051 1066 0 1022 1051 1051 1036 1036 1036 1008 1008 1022 1036 1008 1082 1066 1036 1082 1098 1082 1051 1066 1082 1036 1036 1082 1008 994 994 1149 1098 1082 1051 0 0 0 0 0 0 0 598 593 603 598 593 593 584 584 566 570 557 545 533 529 533 529 537 533 525 521 521 514 514 0 0 0 0 0
    0 0 0 0 0 0 0 0 0 0 0 0 0 0 0 0 0 0 0 0 0 0 0 0 0 0 0 0 0 0 0 0 0 0 0 0 0 0 0 0 0 0 0 0 0 0 0 0 0 0 0 0 0 0 0 0 0 0 0 0 0 0 0 0 0 0 0 0 0 1247 0 0 0 0 0 0 0 0 0 0 0 0 0 0 0 0 0 0 0 0 1226 1226 0 1187 0 0 0 0 1082 1098 1066 1051 1066 1098 1098 1115 1149 1168 1149 0 0 0 113 113 114 113 0 1206 1066 1168 1115 1168 1168 1168 1149 1168 1149 1226 1149 1247 1132 1098 1098 1149 1168 1149 1168 1206 1187 1149 1168 1168 1168 1149 1187 1168 1168 1168 1187 1206 1226 1226 1247 1206 1268 1206 1226 1247 1206 1168 1187 1168 1187 1187 1187 1168 1149 1149 1098 1066 1051 1066 1036 1036 1036 1051 1082 1115 1115 1149 1115 1168 1168 1187 1187 1168 1132 1132 1168 1206 1168 1098 1098 1098 1098 1149 1132 1115 1098 1082 1115 1168 1168 1082 1149 1149 1149 1149 1149 1149 1132 1132 1268 1036 1036 1051 1082 1022 1022 1022 1051 1066 1098 1149 1149 1187 0 1098 0 1098 1098 1051 1051 1022 1022 1036 1051 1051 1036 1022 1066 1066 1149 1206 1168 0 1098 1168 1187 1149 1149 0 1066 1082 1066 1036 1036 1051 1036 1036 1036 1008 1008 1022 1036 1008 1082 1082 1036 1098 1115 1082 1051 1066 1082 1036 1036 1098 1008 994 994 1168 1066 1051 0 669 639 618 613 608 0 608 593 588 598 593 593 593 584 584 570 574 561 557 537 533 537 533 537 533 529 525 525 521 518 0 0 0 0 0
    0 0 0 0 0 0 0 0 0 0 0 0 0 0 0 0 0 0 0 0 0 0 0 0 0 0 0 0 0 0 0 0 0 0 0 0 0 0 0 0 0 0 0 0 0 0 0 0 0 0 0 0 0 0 0 0 0 0 0 0 0 0 0 0 0 0 0 0 0 1226 0 0 0 0 0 0 0 0 0 0 0 0 0 0 0 0 0 0 0 0 1226 1226 0 0 0 0 0 0 1098 1098 1066 1066 1082 1115 1132 1132 1168 0 0 0 0 0 113 113 114 113 0 1226 1082 1187 1115 1187 1187 1187 1168 1187 1168 1226 1149 1268 1132 1082 1115 1187 1168 1149 1187 1226 1206 1187 1168 1168 1168 1149 1187 1149 1149 1149 1187 1226 1226 1226 1247 1226 1268 1206 1226 1247 1206 1187 1206 1187 1206 1206 1226 1206 1206 1206 1149 1115 1082 1082 1036 1036 1051 1051 1066 1132 1132 1168 1149 1187 1187 1187 1168 1168 1132 1132 1168 1187 1149 1115 1115 1132 1115 1168 1149 1098 1082 1115 1098 1168 1168 1082 1168 1168 1168 1149 1149 1168 1132 1132 1247 1036 1036 1036 1066 1008 994 1008 1008 1066 1082 1115 1115 1115 1051 1051 1066 1082 1066 1036 1036 1022 1022 1051 1066 1022 1022 1008 1036 1036 1115 1115 1098 1082 1098 1149 1206 1168 1206 1115 1132 1132 1098 1051 1051 1051 1036 1036 1022 994 994 1022 1036 994 1082 1066 1036 1082 1098 1082 1051 1066 1082 1051 1051 1098 1008 1008 1008 1132 1036 0 675 657 639 618 618 618 613 608 593 588 593 588 593 588 579 579 570 574 566 561 549 545 545 541 541 537 533 525 525 521 518 0 0 0 0 0
    0 0 0 0 0 0 0 0 0 0 0 0 0 0 0 0 0 0 0 0 0 0 0 0 0 0 0 0 0 0 0 0 0 0 0 0 0 0 0 0 0 0 0 0 0 0 0 0 0 0 0 0 0 0 0 0 0 0 0 0 0 0 0 0 0 0 0 0 0 0 0 0 0 0 0 0 0 0 0 1362 0 1388 0 0 0 0 0 0 0 0 0 0 0 0 0 0 0 0 0 1082 1036 1051 1066 1098 1115 1115 1149 1168 0 0 0 0 113 113 113 0 0 1226 1082 1187 1115 1168 1187 1168 1149 1187 1149 1226 1149 1247 1115 1066 1066 1168 1098 1115 1149 1206 1206 1187 1149 1168 1149 1149 1168 1149 1149 1132 1168 1206 1187 1226 1226 1187 1247 1187 1226 1247 1226 1226 1226 1226 1226 1226 1247 1226 1226 1206 1168 1132 1082 1066 1022 1022 1022 1022 1022 1098 1098 1149 1115 1187 1187 1168 1168 1149 1115 1115 1149 1187 1168 1132 1149 1168 1149 1187 1168 1132 1098 1132 1098 1168 1168 1082 1168 1168 1168 1149 1149 1168 1132 1115 1247 1008 994 1008 1008 994 968 981 981 1022 1036 1082 1051 1036 1008 994 1008 1022 1008 981 994 981 1008 1008 1051 981 1008 981 1022 1008 1051 1036 1051 1036 1066 1115 1168 1168 1226 1098 1132 1082 0 1008 1022 1036 1022 1008 1008 981 994 1022 1022 994 1066 1066 1036 1082 1098 1082 1051 1051 1082 1036 1036 1082 1022 1008 1008 1115 0 0 675 645 629 618 623 623 618 613 593 588 588 588 593 588 574 579 570 574 566 561 549 549 549 545 541 541 537 529 529 525 521 0 0 0 0 0
    0 0 0 0 0 0 0 0 0 0 0 0 0 0 0 0 0 0 0 0 0 0 0 0 0 0 0 0 0 0 0 0 0 0 0 0 0 0 0 0 0 0 0 0 0 0 0 0 0 0 0 0 0 0 0 0 0 0 0 0 0 0 0 0 0 0 0 0 0 0 0 0 0 0 0 0 0 0 0 0 0 0 0 0 0 0 0 0 0 0 0 0 0 0 0 0 0 0 0 1082 1051 1051 1098 1115 1132 1115 1115 1098 1082 1132 0 0 0 112 0 0 0 1206 1082 1168 1115 1168 1187 1187 1168 1187 1168 1226 1149 1247 1132 1051 1051 1168 1051 1082 1115 1168 1168 1168 1132 1168 1132 1132 1149 1149 1132 1132 1149 1168 1149 1187 1226 1168 1247 1149 1206 1206 1226 1226 1226 1206 1206 1226 1247 1226 1247 1206 1149 1115 1051 1051 994 994 994 981 981 1008 1008 1051 1022 1082 1115 1098 1115 1115 1082 1082 1098 1168 1149 1115 1115 1149 1132 1187 1168 1115 1082 1115 1082 1168 1168 1082 1168 1168 1168 1149 1149 1187 1132 1115 1226 1008 943 968 968 955 943 943 943 981 968 1008 968 943 943 931 943 968 955 943 955 981 994 994 1036 968 994 981 1022 994 1036 1022 1036 1036 1066 1098 1132 1132 1187 1066 1082 1051 994 994 1008 1022 1008 1008 1008 981 994 1022 1036 994 1066 1066 1036 1066 1066 1066 1036 1051 1066 1022 1022 1051 1022 1022 1008 0 0 707 675 634 623 613 618 618 613 608 593 593 593 593 593 588 574 579 570 566 561 557 549 549 545 545 541 541 537 533 529 525 525 0 0 0 0 0
    0 0 0 0 0 0 0 0 0 0 0 0 0 0 0 0 0 0 0 0 0 0 0 0 0 0 0 0 0 0 0 0 0 0 0 0 0 0 0 0 0 0 0 0 0 0 0 0 0 0 0 0 0 0 0 0 0 0 0 0 0 0 0 0 0 0 0 0 0 0 0 0 0 0 0 0 0 0 0 0 0 0 0 0 0 0 0 0 0 0 0 0 0 0 0 0 0 0 0 1066 1051 1066 1098 1115 1132 1082 1082 1066 1051 1082 0 0 0 0 0 0 1082 1206 1082 1168 1115 1168 1187 1187 1168 1187 1168 1226 1149 1226 1132 1036 1036 1132 1022 1051 1115 1168 1187 1168 1132 1149 1115 1115 1132 1115 1098 1098 1115 1132 1115 1149 1187 1168 1226 1132 1187 1132 1168 1132 1187 1132 1149 1168 1226 1206 1226 1187 1132 1082 1022 1008 968 981 968 955 968 968 981 994 994 1022 1051 1051 1082 1082 1082 1066 1066 1098 1082 1051 1051 1082 1098 1132 1115 1066 1066 1115 1066 1168 1149 1082 1168 1168 1168 1149 1149 1187 1115 1098 1168 994 919 955 955 943 931 931 919 955 943 981 908 908 908 908 931 955 943 931 968 981 994 1008 1036 994 1008 994 1022 994 1022 1008 1008 1022 1051 1051 1098 1082 1132 1066 1082 1066 1022 1022 1022 1036 1022 1022 1008 981 994 1022 1022 994 1066 1066 1036 1051 1051 1051 1022 1036 1051 1008 1008 1008 1022 1008 994 0 0 700 675 645 629 623 623 623 618 608 598 598 603 598 598 588 579 584 574 570 566 561 553 549 549 545 541 537 533 529 529 525 521 0 0 0 0 0
    0 0 0 0 0 0 0 0 0 0 0 0 0 0 0 0 0 0 0 0 0 0 0 0 0 0 0 0 0 0 0 0 0 0 0 0 0 0 0 0 0 0 0 0 0 0 0 0 0 0 0 0 0 0 0 0 0 0 0 0 0 0 0 0 0 0 0 0 0 0 0 0 0 0 0 0 0 0 0 0 0 0 0 0 0 0 0 0 0 0 0 0 0 0 0 0 0 0 1022 1036 1036 1036 1066 1082 1115 1066 1066 1022 0 0 0 0 0 0 1115 1098 1082 1187 1082 1168 1132 1149 1187 1187 1168 1187 1168 1226 1149 1206 1132 1008 1008 1036 994 1022 1098 1168 1168 1168 1132 1168 1115 1115 1115 1082 1066 1066 1082 1082 1066 1066 1082 1098 1187 1098 1149 1115 1132 1082 1168 1098 1132 1149 1206 1168 1187 1149 1115 1066 1008 994 968 968 968 943 955 943 968 981 981 994 994 1008 1036 1036 1082 1051 1066 1082 1066 1036 1036 1066 1082 1082 1082 1036 1036 1098 1051 1149 1149 1082 1168 1168 1168 1149 1132 1187 1098 1082 1098 981 919 955 943 943 931 931 919 955 931 968 908 919 908 919 919 943 943 943 981 981 1008 1022 1036 994 1008 994 1008 981 994 981 968 994 1022 1022 1051 0 1132 1066 1066 1066 1051 1051 1036 1051 1036 1022 1008 994 994 1022 1022 1008 1066 1066 1036 1036 1036 1036 1008 1022 1022 1008 994 994 1022 1008 981 0 799 700 675 651 634 629 629 629 629 618 603 603 613 603 598 588 584 584 574 574 570 566 561 553 553 545 541 537 533 529 529 525 521 0 0 0 0 0
    0 0 0 0 0 0 0 0 0 0 0 0 0 0 0 0 0 0 0 0 0 0 0 0 0 0 0 0 0 0 0 0 0 0 0 0 0 0 0 0 0 0 0 0 0 0 0 0 0 0 0 0 0 0 0 0 0 0 0 0 0 0 0 0 0 0 0 0 0 0 0 0 0 0 0 0 0 0 0 0 0 0 0 0 0 0 0 0 0 0 0 0 0 0 0 968 994 1008 1022 1036 1022 1036 1051 1066 1098 1051 0 0 0 0 0 0 1008 1022 1082 1082 1082 1168 1082 1168 1132 1149 1187 1187 1168 1187 1168 1226 1132 1168 1149 1008 994 1008 994 994 1066 1132 1149 1115 1082 1132 1098 1082 1066 1051 1036 1036 1036 1036 1022 1022 1036 1051 1082 1066 0 1098 1098 0 1115 1066 1098 1115 1168 1132 1168 1132 1115 1066 1008 994 968 968 955 943 943 931 943 968 955 981 968 981 1008 1008 1066 1036 1036 1066 1036 1022 1022 1051 1066 1036 1051 1022 1022 1082 1051 1149 1149 1082 1149 1149 1149 1149 1132 1187 1098 1082 1098 994 943 968 968 968 955 955 943 968 943 981 943 931 919 919 919 943 943 943 955 968 994 1008 1022 981 994 981 994 968 968 968 943 955 994 994 1022 0 0 1066 0 1066 1066 1051 1036 1051 1036 1008 994 994 994 1008 1008 994 1051 1051 1036 1008 1008 1008 994 1008 1008 994 981 981 1022 994 943 0 735 694 669 651 639 634 634 634 629 623 613 613 613 608 603 593 588 588 579 574 570 566 561 553 549 545 541 537 533 533 529 525 525 0 0 0 0 0
    0 0 0 0 0 0 0 0 0 0 0 0 0 0 0 0 0 0 0 0 0 0 0 0 0 0 0 0 0 0 0 0 0 0 0 0 0 0 0 0 0 0 0 0 0 0 0 0 0 0 0 0 0 0 0 0 0 0 0 0 0 0 0 0 0 0 0 0 0 0 0 0 0 0 0 0 0 0 0 0 0 0 0 0 0 0 774 0 0 0 0 0 0 0 0 955 994 994 1008 1022 1022 1036 1066 1082 1098 1051 1036 0 994 0 994 1008 1008 1022 1066 1082 1098 1187 1098 1168 1149 1149 1187 1187 1168 1187 1168 1226 1149 1168 1187 1008 994 1008 994 994 1051 1082 1098 1082 1051 1098 1082 1066 1051 1036 1022 1022 1008 1022 1008 1008 1008 1022 1036 1051 1051 1066 0 0 1066 1036 1082 1098 1132 1115 1149 1132 1115 1066 1022 994 968 968 955 931 943 931 943 968 943 968 955 955 981 968 1036 1022 1008 1036 1022 1008 1022 1036 1051 1022 1022 1008 994 1051 1036 1132 1132 1082 1149 1149 1149 1132 1115 1168 1082 1082 1098 1008 955 968 968 968 955 968 943 955 943 968 943 931 931 919 919 943 943 931 943 955 981 994 1036 981 994 981 1008 981 968 968 943 943 994 994 1008 0 1098 1066 1082 1066 1066 1066 1051 1066 1051 1022 994 994 994 994 994 981 1036 1036 1022 981 994 994 981 994 994 981 968 968 1022 981 897 0 707 687 669 645 639 634 634 629 629 623 613 613 613 608 603 593 593 593 584 579 574 566 561 553 549 545 537 537 533 529 529 525 525 0 0 0 0 0
    0 0 0 0 0 0 0 0 0 0 0 0 0 0 0 0 0 0 0 0 0 0 0 0 0 0 0 0 0 0 0 0 0 0 0 0 0 0 0 0 0 0 0 0 0 0 0 0 0 0 0 0 0 0 0 0 0 0 0 0 0 0 0 0 0 0 0 0 0 0 0 0 0 0 0 0 0 0 0 0 0 0 0 0 0 0 0 0 0 0 0 0 0 0 0 968 994 994 1008 1022 1036 1036 1066 1082 1082 1051 1036 968 981 968 981 994 1008 1022 1051 1066 1098 1168 1098 1168 1149 1132 1187 1187 1187 1187 1168 1226 1168 1168 1206 1022 1008 0 994 994 1008 1036 1066 1066 1036 1098 1082 1051 1036 1036 1022 1008 994 1008 994 994 1008 1008 1022 1051 1051 1082 1066 0 1051 1022 1082 1082 1115 1098 1132 1132 1115 1066 1022 994 955 943 943 931 943 931 943 968 955 968 968 968 994 981 1036 1008 1008 1022 1022 1036 1036 1066 1051 1036 1022 1022 994 1022 1036 1115 1115 1066 1132 1149 1149 1132 1115 1168 1082 1066 1082 1008 968 981 968 968 955 955 943 955 943 968 931 931 919 919 919 931 931 908 931 931 968 981 1036 955 981 981 1008 968 968 955 943 943 1008 1008 1022 0 1082 1066 1082 1066 1066 1066 1066 1066 1066 1022 1008 994 994 994 968 968 1022 1022 1022 968 994 981 968 981 981 968 943 955 1022 931 0 0 700 687 663 645 639 634 634 634 629 623 618 613 613 613 603 598 598 593 588 579 579 566 561 553 549 545 537 537 529 529 525 525 525 0 0 0 0 0
    0 0 0 0 0 0 0 0 0 0 0 0 0 0 0 0 0 0 0 0 0 0 0 0 0 0 0 0 0 0 0 0 0 0 0 0 0 0 0 0 0 0 0 0 0 0 0 0 0 0 0 0 0 0 0 0 0 0 0 0 0 0 0 0 0 0 0 0 0 0 0 0 0 0 0 0 0 0 0 0 0 0 0 0 0 0 0 0 0 0 0 0 0 0 0 955 981 981 1008 1008 1022 1036 1051 1082 1098 1051 1036 943 968 955 968 981 1008 1022 1036 1051 1098 1149 1115 1168 1168 1115 1187 1187 1187 1206 1187 1226 1168 1168 1226 1036 1022 0 1008 994 1008 1008 1022 1036 0 1051 1051 1022 1008 1008 994 994 981 994 994 994 1008 1022 1036 1051 1036 1098 1051 0 1051 1022 1066 1066 1098 1098 1115 1115 1115 1066 1022 994 943 931 943 919 931 919 931 955 943 968 968 968 994 981 1051 1036 1022 1036 1051 1051 1051 1082 1066 1036 1022 1022 994 994 1022 1098 1098 1066 1132 1132 1149 1132 1115 1168 1082 1066 1066 1008 968 981 968 968 955 955 943 955 931 955 919 943 919 908 908 919 919 908 931 931 968 994 1066 981 981 981 1008 955 943 943 919 931 994 1008 1022 1022 1066 1066 1066 1082 1082 1066 1082 1082 1066 1022 1008 994 994 981 968 968 1022 1022 1022 955 981 968 968 968 981 968 931 931 0 0 0 0 700 687 669 645 639 634 634 634 629 629 618 623 618 618 613 608 603 598 588 584 579 566 561 553 549 545 537 537 529 529 525 525 525 0 0 0 0 0
    0 0 0 0 0 0 0 0 0 0 0 0 0 0 0 0 0 0 0 0 0 0 0 0 0 0 0 0 0 0 0 0 0 0 0 0 0 0 0 0 0 0 0 0 0 0 0 0 0 0 0 0 0 0 0 0 0 0 0 0 0 0 0 0 0 0 0 0 0 0 0 0 0 0 0 0 0 0 0 0 0 0 0 1187 1206 1098 0 0 0 0 0 0 0 0 0 943 968 968 981 994 1008 1022 1051 1098 1098 1066 1036 955 981 981 981 994 1008 1022 1036 1051 1115 1132 1115 1168 1168 1115 1168 1168 1168 1187 1168 1206 1168 1149 1247 1066 1051 0 1008 994 994 981 981 1008 981 1022 1022 1008 994 994 994 994 968 994 981 994 1008 1022 1036 1051 1051 1098 1051 1022 1051 1022 1066 1066 1082 1082 1098 1098 1098 1051 1022 981 943 931 931 908 931 919 931 955 943 968 968 968 994 994 1036 1036 1022 1036 1051 1051 1051 1066 1051 1036 1008 1022 994 981 1008 1098 1098 1066 1132 1132 1132 1132 1115 1149 1066 1066 1051 994 968 968 968 968 955 955 931 955 919 943 919 931 919 908 908 919 919 908 931 931 955 981 1066 1008 1008 1008 1008 955 943 931 0 0 0 981 968 0 0 1036 1036 1066 1082 1066 1082 1082 1082 1022 1008 1008 994 981 968 968 1022 1022 1022 943 968 968 955 955 968 955 908 908 0 826 728 0 700 681 663 645 639 634 629 634 629 629 623 623 623 623 618 613 608 603 593 588 579 566 561 553 549 545 537 537 529 529 525 525 525 0 0 0 0 0
    0 0 0 0 0 0 0 0 0 0 0 0 0 0 0 0 0 0 0 0 0 0 0 0 0 0 0 0 0 0 0 0 0 0 0 0 0 0 0 0 0 0 0 0 0 0 0 0 0 0 0 0 0 0 0 0 0 0 0 0 0 0 0 0 0 0 0 0 0 0 0 0 0 0 0 0 0 0 0 0 0 0 0 0 1206 1149 1206 1206 1206 1187 0 0 0 0 0 0 968 968 981 1008 1022 1036 1051 1066 1082 1066 1036 981 994 994 994 1008 1008 1022 1036 1051 1115 1132 1115 1149 1149 1098 1168 1149 1149 1168 1168 1206 1149 1149 1247 1082 1066 1066 1008 994 981 968 955 981 968 1008 1022 1008 981 981 981 981 968 994 994 994 1008 1036 1051 1066 1066 1115 1051 1022 1051 1008 1066 1051 1066 1066 1082 1082 1082 1036 1008 981 931 931 919 897 931 919 931 955 955 968 968 968 1008 994 1051 1036 1008 1036 1051 1051 1051 1051 1036 1022 994 1008 981 968 981 1082 1098 1051 1132 1132 1132 1132 1115 1149 1066 1051 1051 994 981 981 968 968 955 968 943 955 919 931 931 943 908 897 908 908 919 908 919 908 908 943 1051 1008 994 0 1008 919 897 897 0 0 0 0 0 0 0 1036 1036 1066 1082 1082 1098 1098 1082 1036 1022 1022 1008 994 968 968 994 1008 1008 931 955 955 943 943 955 943 897 886 0 808 707 0 694 681 663 645 639 634 629 634 629 634 623 629 623 623 618 618 608 608 598 593 579 570 561 553 549 545 533 537 529 529 525 521 525 0 0 0 0 0
    0 0 0 0 0 0 0 0 0 0 0 0 0 0 0 0 0 0 0 0 0 0 0 0 0 0 0 0 0 0 0 0 0 0 0 0 0 0 0 0 0 0 0 0 0 0 0 0 0 0 0 0 0 0 0 0 0 0 0 0 0 0 0 0 0 0 0 0 0 0 0 0 0 0 0 0 1989 1936 1936 0 0 0 0 0 1226 1187 1206 1206 1226 1206 1187 1187 1115 0 0 968 981 981 994 1008 1022 1036 1051 1066 1082 1066 1036 994 1008 994 1008 1008 1022 1022 1051 1066 1115 1132 1115 1149 1168 1098 1168 1149 1149 1168 1168 1187 1149 1149 1247 1098 1082 0 1022 994 981 968 955 981 968 1008 1008 1008 968 968 968 981 968 994 994 994 1008 1036 1051 1082 1066 1132 1051 1036 1036 1008 1066 1051 1051 1066 1066 1066 1066 1036 1008 968 931 919 919 897 931 919 931 968 955 968 968 981 1008 1008 1051 1036 1022 1036 1051 1051 1051 1051 1022 1022 994 994 968 955 968 1082 1082 1051 1115 1132 1132 1132 1115 1149 1066 1066 1051 1008 994 981 968 968 955 968 931 955 919 931 931 943 908 908 908 919 919 908 919 865 855 0 0 931 908 919 908 876 865 876 0 0 0 0 0 0 0 1022 1022 1066 1082 1098 1115 1098 1082 1036 1036 1036 1008 981 955 943 955 994 994 897 943 943 919 931 943 931 876 876 0 791 700 694 687 675 657 645 639 634 629 639 629 639 629 634 629 623 623 618 613 608 598 593 579 570 566 553 549 545 533 537 529 529 525 525 525 0 0 0 0 0
    0 0 0 0 0 0 0 0 0 0 0 0 0 0 0 0 0 0 0 0 0 0 0 0 0 0 0 0 0 0 0 0 0 0 0 0 0 0 0 0 0 0 0 0 0 0 0 0 0 0 0 0 0 0 0 0 0 0 0 0 0 0 0 0 0 0 0 0 0 0 0 0 0 0 0 0 0 0 0 0 0 0 0 0 1226 1226 1247 1226 0 1247 1226 1247 0 0 0 0 968 981 994 1008 1022 1036 1051 1051 1066 1051 1036 994 1008 994 1008 1022 1022 1036 1051 1066 1115 1132 1132 1149 1168 1098 1168 1149 1149 1149 1168 1187 1149 1149 1247 1115 1098 1098 1036 994 981 968 955 968 968 1008 1008 1008 968 981 981 994 981 994 994 994 1008 1036 1051 1066 1051 1132 1051 1036 1036 994 1051 1051 1051 1051 1051 1051 1051 1036 1008 968 931 919 919 908 931 919 943 968 955 968 981 981 1008 1008 1051 1036 1022 1051 1066 1051 1066 1066 1036 1022 1008 1008 968 955 981 1082 1098 1051 1115 1132 1132 1115 1115 1149 1066 1066 1066 1008 994 994 981 981 955 968 943 955 931 931 943 955 931 931 931 931 908 897 876 836 808 791 791 817 826 808 817 826 826 845 836 0 0 876 897 955 981 994 1008 1051 1066 1082 1098 1098 1066 1036 1022 1022 994 968 931 931 919 981 981 886 943 931 908 919 919 908 855 855 0 750 694 681 675 657 645 639 639 634 629 634 629 634 629 629 629 623 623 618 613 608 598 593 579 570 566 557 549 545 537 541 533 533 525 525 525 0 0 0 0 0
    0 0 0 0 0 0 0 0 0 0 0 0 0 0 0 0 0 0 0 0 0 0 0 0 0 0 0 0 0 0 0 0 0 0 0 0 0 0 0 0 0 0 0 0 0 0 0 0 0 0 0 0 0 0 0 0 0 0 0 0 0 0 0 0 0 0 0 0 0 0 0 0 0 0 0 0 0 0 0 0 0 0 0 0 1247 1268 1268 1268 0 0 0 0 0 0 0 0 0 994 0 1008 1022 1036 1051 1036 1036 1036 1022 994 994 994 994 1008 1008 1022 1051 1051 1115 1132 1132 1168 1168 1098 1168 1149 1149 1149 1168 1187 1149 1149 1247 1149 1132 1132 1051 1008 981 968 968 981 968 1008 1008 1008 981 994 981 994 981 1008 994 1008 1022 1036 1036 0 1051 1115 1051 1066 1051 1022 1066 1051 1051 1051 1066 1066 1051 1036 1008 981 943 919 931 919 943 931 955 981 968 981 994 994 1022 1022 1051 1051 1036 1051 1066 1066 1066 1082 1036 1036 1008 1008 981 955 968 1082 1082 1051 1115 1115 1115 1115 1115 1149 1066 1066 1082 1022 1008 994 981 981 968 968 955 968 943 955 968 968 955 955 931 919 886 865 845 817 799 774 782 826 808 799 799 826 817 845 826 826 808 886 886 955 968 968 981 1036 1051 1066 1082 1082 1036 1036 1022 1008 981 955 931 919 908 968 955 876 919 908 886 886 876 876 836 826 808 721 687 681 675 657 645 639 639 634 629 639 629 634 629 634 629 623 623 618 613 613 598 593 584 570 570 557 549 549 541 541 537 533 529 525 525 0 0 0 0 0
    0 0 0 0 0 0 0 0 0 0 0 0 0 0 0 0 0 0 0 0 0 0 0 0 0 0 0 0 0 0 0 0 0 0 0 0 0 0 0 0 0 0 0 0 0 0 0 0 0 0 0 0 0 0 0 0 0 0 0 0 0 0 0 0 0 0 0 0 0 0 0 0 0 0 0 0 0 0 0 0 0 0 0 0 0 0 1291 1268 1291 1268 1247 0 0 0 0 0 0 0 0 0 0 1036 1051 1036 1036 1036 1022 994 981 994 994 1008 1008 1022 1051 1051 1115 1132 1132 1168 1168 1098 1168 1149 1149 1149 1168 1168 1149 1149 1247 1168 1149 1168 1082 1022 994 981 968 994 981 1022 1022 1008 994 1008 1008 1008 994 1022 1008 1008 1022 1051 1051 1066 1066 1149 1066 1098 1082 1051 1082 1066 1066 1082 1066 1066 1066 1036 1022 981 955 931 931 931 955 943 968 981 981 981 1008 1008 1036 1036 1066 1051 1036 1051 1082 1066 1082 1082 1051 1051 1008 1008 981 955 968 1066 1066 1051 1115 1115 1115 1115 1115 1149 1082 1066 1082 1008 1008 994 981 968 943 955 943 955 943 955 955 981 968 968 955 943 897 876 855 836 808 808 0 0 836 0 782 826 0 845 826 0 791 0 0 0 981 981 1008 1051 1051 1066 1082 1066 1036 1022 1022 1008 981 955 943 931 908 968 943 865 897 876 855 845 836 845 808 758 735 707 687 687 675 663 651 645 645 634 629 634 629 639 629 634 629 623 623 623 613 613 598 598 584 570 570 557 553 549 541 545 537 537 529 525 525 0 0 0 0 0
    0 0 0 0 0 0 0 0 0 0 0 0 0 0 0 0 0 0 0 0 0 0 0 0 0 0 0 0 0 0 0 0 0 0 0 0 0 0 0 0 0 0 0 0 0 0 0 0 0 0 0 0 0 0 0 0 0 0 0 0 0 0 0 0 0 0 0 0 0 0 0 0 0 0 0 0 0 0 0 0 0 0 0 0 0 1268 1291 1247 1268 1247 1226 1268 0 0 0 0 0 0 0 0 0 1051 1051 1036 1036 1036 1036 1008 994 1008 1008 1008 1022 1036 1051 1051 1115 1115 1132 1149 1149 1098 1149 1132 1132 1149 1168 1168 1149 1149 1247 1149 1149 1168 1082 1036 1008 981 994 1008 1008 1022 1036 1022 1008 1008 1008 1022 1008 1022 1008 1008 1036 1066 1066 1082 1082 1168 1082 1115 1115 1066 1098 1082 1082 1082 1082 1082 1066 1036 1036 994 968 943 943 955 968 968 981 994 981 994 1008 1022 1051 1051 1066 1066 1051 1066 1098 1082 1098 1098 1066 1066 1022 1022 981 968 981 1082 1082 1051 1115 1132 1132 1115 1115 1149 1082 1082 1082 1008 994 981 981 968 955 955 943 968 968 968 981 994 994 994 994 955 886 897 886 855 836 845 855 908 876 855 0 0 0 826 799 0 782 0 0 0 0 0 1022 1066 1066 1066 1082 1066 1022 1022 1022 1008 981 968 955 943 919 981 931 0 0 826 817 808 791 774 743 714 714 700 687 694 681 675 663 657 657 634 629 639 629 639 629 634 629 623 623 623 613 613 598 593 579 570 574 561 553 549 541 545 537 537 529 525 525 0 0 0 0 0
    0 0 0 0 0 0 0 0 0 0 0 0 0 0 0 0 0 0 0 0 0 0 0 0 0 0 0 0 0 0 0 0 0 0 0 0 0 0 0 0 0 0 0 0 0 0 0 0 0 0 0 0 0 0 0 0 0 0 0 0 0 0 0 0 0 0 0 0 0 0 0 0 0 0 0 0 0 0 0 0 0 0 0 0 0 1314 1314 1291 1291 1268 1247 0 0 0 0 0 0 1082 0 0 0 1051 1051 1036 1051 1036 1036 1022 1008 1008 1022 1022 1022 1036 1066 1066 1115 1115 1132 1149 1149 1098 1149 1132 1132 1149 1168 1168 1149 1149 1247 1149 1149 1168 1082 1036 1008 981 994 1008 994 1022 1022 1008 994 1008 1022 1022 1022 1036 1022 1022 1036 1066 1066 1082 1066 1132 1082 1115 1132 1066 1115 1082 1098 1098 1082 1082 1066 1051 1066 1008 1008 981 968 968 981 968 981 994 981 994 1008 1008 1036 1036 1051 1066 1051 1082 1115 1098 1098 1098 1066 1066 1022 1022 981 981 994 1082 1098 1051 1115 1132 1115 1115 1115 1149 1082 1066 1066 1008 994 981 981 968 968 968 968 981 981 981 994 1008 1008 1008 1022 968 886 919 897 865 836 845 845 876 865 0 0 0 0 826 808 0 791 0 0 0 0 0 1036 1066 1066 1051 1066 1051 1022 1022 1022 1008 981 968 955 931 908 955 865 808 799 782 766 750 728 714 707 700 700 694 681 687 681 681 669 657 657 639 629 639 629 639 629 634 629 623 623 623 613 613 598 593 579 570 574 561 553 553 545 545 541 537 533 525 525 0 0 0 0 0
    0 0 0 0 0 0 0 0 0 0 0 0 0 0 0 0 0 0 0 0 0 0 0 0 0 0 0 0 0 0 0 0 0 0 0 0 0 0 0 0 0 0 0 0 0 0 0 0 0 0 0 0 0 0 0 0 0 0 0 0 0 0 0 0 0 0 0 0 0 0 0 0 0 0 0 0 0 0 0 0 0 0 0 0 0 1314 1338 1314 1291 1268 1247 0 0 0 0 0 0 1098 0 0 0 1051 1051 1036 1036 1036 1036 1022 1022 1022 1036 1036 1036 1051 1066 1066 1098 1115 1132 1149 1149 1098 1149 1132 1132 1149 1168 1149 1149 1149 1247 1149 1149 1187 1082 1036 1008 981 994 994 1008 1022 1036 1022 1022 1022 1036 1036 1036 1036 1036 1036 1051 1066 1082 1098 1082 1132 1082 1149 1132 1066 1115 1098 1098 1098 1082 1082 1066 1051 1066 1022 1022 994 981 994 994 994 1008 1008 1008 1008 1008 1022 1036 1036 1051 1066 1051 1082 1098 1098 1098 1098 1051 1066 1022 1008 981 981 994 1082 1098 1066 1115 1115 1115 1115 1098 1149 1082 1066 1066 1008 994 994 981 981 968 968 968 994 981 981 994 1008 1008 1008 1036 968 897 931 886 876 845 845 845 865 865 855 836 836 817 817 808 0 782 0 0 0 0 0 1022 1036 1036 1051 1051 1051 1008 1022 1022 1008 981 968 943 908 876 897 836 799 791 774 774 758 728 714 707 700 694 694 681 687 681 681 669 657 657 639 634 639 634 645 634 634 634 623 623 623 613 613 598 593 579 570 574 561 557 553 545 545 541 537 533 529 525 0 0 0 0 0
    0 0 0 0 0 0 0 0 0 0 0 0 0 0 0 0 0 0 0 0 0 0 0 0 0 0 0 0 0 0 0 0 0 0 0 0 0 0 0 0 0 0 0 0 0 0 0 0 0 0 0 0 0 0 0 0 0 0 0 0 0 0 0 0 0 0 0 0 0 0 0 0 0 0 0 0 0 0 0 0 0 0 0 0 0 0 0 1314 0 0 1247 0 0 0 0 0 1115 1098 1168 1051 1066 1036 1036 1022 1036 1022 1036 1022 1008 1022 1036 1036 1036 1051 1082 1066 1098 1132 1132 1149 1149 1082 1149 1132 1132 1168 1168 1149 1149 1149 1226 1149 1149 1206 1082 1051 1022 1008 1008 1008 1022 1036 1036 1036 1022 1036 1036 1051 1036 1051 1036 1051 1066 1082 1082 1115 1082 1132 1098 1168 1132 1066 1132 1098 1098 1098 1082 1082 1066 1051 1066 1036 1036 1008 994 1008 1008 1008 1022 1022 1022 1022 1036 1051 1036 1051 1066 1082 1066 1115 1115 1098 1098 1098 1066 1066 1022 1022 994 994 1022 1082 1098 1066 1098 1115 1115 1098 1098 1149 1082 1066 1066 1022 1008 994 994 994 981 981 981 994 994 1008 1008 1008 1008 1022 1066 981 919 955 931 908 876 865 865 865 855 845 826 836 817 808 808 799 782 0 0 0 0 0 1022 1036 1022 1036 1036 1051 994 1022 1022 1008 968 943 919 886 855 865 826 791 782 782 774 766 735 728 714 714 707 700 694 694 687 687 675 657 657 639 634 639 634 645 634 639 634 623 623 623 613 613 598 588 584 570 579 561 557 557 545 549 545 0 533 529 529 0 0 0 0 0
    0 0 0 0 0 0 0 0 0 0 0 0 0 0 0 0 0 0 0 0 0 0 0 0 0 0 0 0 0 0 0 0 0 0 0 0 0 0 0 0 0 0 0 0 0 0 0 0 0 0 0 0 0 0 0 0 0 0 0 0 0 0 0 0 0 0 0 0 0 0 0 0 0 1388 0 0 0 0 0 0 0 0 0 0 0 0 0 0 0 0 0 0 0 0 0 0 1132 1132 1206 1051 0 1022 1022 1022 1022 1022 1022 1022 1022 1022 1036 1051 1051 1066 1082 1066 1082 1132 1132 1149 1149 1082 1149 1149 1132 1187 1168 1168 1149 1149 1226 1149 1149 1206 1098 1066 1036 1036 1022 1036 1022 1036 1036 1036 1036 1036 1036 1051 1051 1066 1036 1051 1066 1082 1082 1098 1098 1115 1098 1187 1115 1066 1132 1098 1115 1115 1098 1098 1082 1066 1098 1051 1066 1022 1022 1036 1036 1036 1036 1036 1036 1036 1051 1066 1051 1051 1082 1149 1115 1149 1149 1132 1132 1115 1082 1082 1051 1036 1022 1008 1022 1082 1098 1066 1098 1098 1098 1082 1082 1132 1082 1066 1082 1022 1022 1008 1008 1008 981 981 994 1008 1008 1008 1022 1022 1022 1051 1132 1008 908 994 981 968 955 943 897 897 865 855 826 836 817 799 791 0 0 0 0 0 0 0 1036 1051 1036 1051 1051 1051 994 1022 1008 994 943 908 897 865 855 865 826 791 791 782 774 766 735 728 721 721 721 714 707 700 694 700 687 675 663 645 639 639 634 645 634 639 634 623 623 623 613 608 598 588 584 574 579 566 561 557 549 549 0 0 0 529 529 0 0 0 0 0
    0 0 0 0 0 0 0 0 0 0 0 0 0 0 0 0 0 0 0 0 0 0 0 0 0 0 0 0 0 0 0 0 0 0 0 0 0 0 0 0 0 0 0 0 0 0 0 0 0 0 0 0 0 0 0 0 0 0 0 0 0 0 0 0 0 0 0 0 0 0 1388 0 0 1415 1362 1388 0 0 0 0 0 0 0 0 0 0 0 0 0 0 0 0 0 0 0 0 1132 1132 0 1082 0 1036 1022 1036 1022 1022 1036 1022 1022 1036 1051 1051 1066 1082 1098 1066 1082 1132 1132 1149 1149 1082 1168 1149 1149 1206 1168 1168 1168 1168 1226 1149 1149 1226 1115 1082 1051 1051 1036 1051 1022 1051 1051 1051 1051 1066 1051 1051 1066 1066 1051 1066 1082 1082 1082 1098 1098 1115 1098 1187 1115 1066 1132 1098 1115 1115 1098 1098 1098 1082 1115 1066 1082 1036 1036 1051 1051 1051 1051 1051 1051 1051 1066 1098 1066 1066 1115 1206 1168 1187 1206 1168 1168 1149 1115 1098 1066 1051 1036 1022 1036 1082 1082 1051 1082 1082 1082 1066 1066 1115 1066 1066 1082 1036 1036 1022 1022 1022 994 994 1008 1022 1022 1022 1036 1036 1036 1051 1082 994 931 994 1008 1008 0 0 943 919 865 845 826 826 808 782 766 0 0 0 0 0 0 0 1082 1082 1066 1066 1066 1051 1008 1022 1008 981 919 886 876 855 855 855 826 799 791 782 774 766 728 735 728 728 728 721 714 714 707 707 700 681 675 657 645 639 634 651 634 639 634 623 623 623 613 608 598 593 584 574 584 566 561 561 549 549 545 0 0 529 525 0 0 0 0 0
    0 0 0 0 0 0 0 0 0 0 0 0 0 0 0 0 0 0 0 0 0 0 0 0 0 0 0 0 0 0 0 0 0 0 0 0 0 0 0 0 0 0 0 0 0 0 0 0 0 0 0 0 0 0 0 0 0 0 0 0 0 0 0 0 0 0 0 0 0 0 1388 1443 1443 1471 1415 1501 0 0 0 0 0 0 0 0 0 0 0 0 0 0 0 0 0 0 0 1132 1132 1132 1187 1098 0 1051 1051 1051 1036 1051 1066 1051 1036 1066 1066 1066 1066 1098 1098 1082 1082 1149 1149 1149 1168 1115 1168 1168 1149 1206 1187 1187 1187 1187 1226 1149 1132 1226 1132 1082 1066 1066 1066 1082 1051 1066 1066 1066 1066 1066 1066 1066 1066 1082 1051 1066 1082 1082 1082 1082 1098 1098 1082 1168 1132 1066 1132 1115 1132 1132 1115 1115 1098 1082 1132 1066 1098 1066 1051 1066 1066 1051 1051 1051 1066 1051 1066 1098 1066 1066 1115 1206 1206 1206 1206 1187 1168 1149 1132 1098 1066 1051 1051 1022 1036 1051 1066 1036 1051 1066 1066 1051 1051 1082 1066 1051 1066 1036 1036 1036 1036 1036 1008 1022 1022 1036 1036 1036 1051 1036 1036 1036 1036 981 955 994 1008 1008 1008 994 955 931 886 865 845 845 836 0 0 0 0 0 0 0 0 1098 1115 1115 1082 1098 1082 1051 1022 1022 994 955 897 876 865 845 845 845 817 808 791 791 774 766 735 735 728 735 728 721 721 714 714 714 700 687 675 663 651 639 634 651 634 639 634 623 623 623 0 608 598 593 584 574 584 566 561 561 549 549 545 0 0 529 529 0 0 0 0 0
    0 0 0 0 0 0 0 0 0 0 0 0 0 0 0 0 0 0 0 0 0 0 0 0 0 0 0 0 0 0 0 0 0 0 0 0 0 0 0 0 0 0 0 0 0 0 0 0 0 0 0 0 0 0 0 0 0 0 0 0 0 0 0 0 0 0 0 0 0 1415 1443 1471 0 1471 1415 1471 0 0 0 0 0 0 0 0 0 0 0 0 1168 1149 1168 0 0 0 1132 1132 1132 1132 1187 1098 1115 1066 1082 1082 1051 1082 1098 1066 1066 1098 1098 1098 1098 1115 1132 1115 1098 1149 1149 1168 1168 1115 1187 1187 1168 1226 1206 1187 1206 1206 1247 1149 1149 1247 1187 1132 1098 1115 1098 1149 1082 1082 1082 1082 1066 1082 1066 1066 1082 1098 1066 1082 1098 1098 1098 1098 1115 1098 1082 1149 1115 1051 1132 1098 1115 1115 1098 1115 1098 1082 1149 1066 1098 1066 1051 1082 1066 1066 1066 1051 1066 1051 1066 1115 1066 1082 1132 1206 1206 1187 1206 1187 1168 1149 1132 1082 1051 1051 1051 1036 1036 1051 1051 1036 1036 1051 1036 1036 1036 1066 1051 1051 1066 1051 1036 1036 1036 1036 1008 1022 1036 1036 1036 1022 1036 1022 1022 1036 1008 968 981 994 994 994 994 981 955 931 908 876 865 0 0 0 0 0 0 0 0 0 0 1098 1115 1115 1098 1115 1082 1051 1022 1022 994 943 886 865 855 845 845 845 826 808 799 791 774 782 735 743 735 735 735 728 728 721 714 714 700 681 669 663 651 639 634 645 639 639 634 623 623 623 0 608 603 593 588 574 584 570 561 566 549 549 545 0 0 529 529 0 0 0 0 0
    0 0 0 0 0 0 0 0 0 0 0 0 0 0 0 0 0 0 0 0 0 0 0 0 0 0 0 0 0 0 0 0 0 0 0 0 0 0 0 0 0 0 0 0 0 0 0 0 0 0 0 0 0 0 0 0 0 0 0 0 0 0 0 0 0 0 0 0 0 1388 1415 1471 1443 1443 1362 1388 0 0 0 955 0 994 981 0 1036 0 0 0 1149 1082 0 0 0 0 1132 1149 1149 1168 1226 1132 1187 1098 1115 1098 1082 1115 1149 1098 1098 1115 1132 1115 1132 1149 1149 1149 1115 1168 1168 1187 1187 1132 1206 1206 1168 1226 1226 1206 1206 1206 1247 1168 1168 1226 1226 1187 1132 1168 1168 1226 1149 1098 1098 1082 1082 1082 1066 1066 1082 1098 1066 1082 1098 1098 1098 1098 1115 1115 1082 1168 1132 1036 1132 1098 1115 1115 1098 1115 1098 1082 1149 1066 1098 1066 1051 1082 1082 1066 1066 1066 1066 1066 1082 1115 1066 1066 1132 1187 1187 1187 1206 1187 1168 1149 1115 1066 1051 1051 1051 1036 1036 1036 1051 1036 1036 1036 1022 1022 1022 1036 1022 1036 1051 1051 1051 1036 1036 1066 1036 1051 1051 1051 1051 1036 1036 1036 1022 1036 994 955 968 968 981 968 968 931 919 908 897 865 865 0 0 0 0 0 0 0 0 0 1098 1098 1098 1098 1082 1098 1066 1036 1022 1008 981 919 886 865 855 855 855 845 826 817 808 791 782 791 735 743 735 743 743 735 735 728 721 721 700 681 675 663 657 639 639 645 639 639 634 623 623 623 0 608 603 593 588 579 584 570 566 566 549 553 545 0 0 529 529 0 0 0 0 0
    0 0 0 0 0 0 0 0 0 0 0 0 0 0 0 0 0 0 0 0 0 0 0 0 0 0 0 0 0 0 0 0 0 0 0 0 0 0 0 0 0 0 0 0 0 0 0 0 0 0 0 0 0 0 0 0 0 0 0 0 0 0 0 0 0 0 0 0 0 1338 1362 1388 1362 1362 1314 1338 1338 0 0 0 0 0 981 0 0 0 0 0 0 0 0 0 0 0 1187 1187 1187 1206 1268 1226 1247 1168 1168 1132 1082 1149 1168 1098 1115 1115 1132 1132 1149 1149 1149 1149 1132 1168 1187 1187 1187 1149 1206 1206 1187 1226 1226 1226 1226 1226 1247 1168 1149 1226 1226 1206 1132 1168 1149 1226 1187 1082 1115 1082 1098 1082 1082 1066 1082 1098 1082 1098 1115 1098 1115 1115 1132 1132 1098 1168 1132 1036 1132 1098 1115 1115 1098 1098 1098 1098 1149 1066 1098 1066 1051 1082 1082 1066 1066 1066 1082 1066 1082 1132 1066 1082 1132 1187 1168 1168 1168 1168 1149 1132 1098 1066 1036 1051 1051 1036 1036 0 1036 1022 1022 1022 1008 994 1008 1008 1022 1022 1036 1051 1051 1051 1051 1066 1036 1051 1051 1051 1036 1036 1036 1022 1008 1036 994 955 968 981 1008 0 1008 0 955 955 919 897 886 0 0 0 0 0 0 0 0 0 1082 1082 1082 1082 1082 1082 1051 1022 1008 1008 968 908 886 865 855 855 855 845 826 817 808 799 782 791 735 743 743 750 743 743 735 728 721 721 700 681 675 669 663 645 639 645 639 639 634 623 623 618 0 608 603 593 588 579 584 570 566 570 549 553 545 0 0 0 529 0 0 0 0 0
    0 0 0 0 0 0 0 0 0 0 0 0 0 0 0 0 0 0 0 0 0 0 0 0 0 0 0 0 0 0 0 0 0 0 0 0 0 0 0 0 0 0 0 0 0 0 0 0 0 0 0 0 0 0 0 0 0 0 0 0 0 0 0 0 0 0 0 0 0 1314 1314 1362 1338 1338 1314 1338 1338 1247 0 0 0 0 0 0 1098 0 0 0 0 0 0 0 0 0 1168 1168 1206 1247 1314 1247 1268 1226 1226 1132 1098 1168 1187 1115 1115 1115 1132 1132 1149 1168 1132 1149 1132 1168 1187 1187 1187 1149 1226 1226 1206 1247 1226 1226 1226 1247 1247 1168 1149 1206 1206 1206 1115 1132 1082 1149 1168 1082 1115 1098 1115 1115 1082 1066 1082 1098 1082 1098 1115 1098 1115 1115 1149 1149 1115 1187 1132 1036 1132 1098 1098 1098 1098 1098 1098 1082 1149 1066 1098 1066 1051 1082 1066 1066 1066 1066 1082 1066 1082 1149 1082 1098 1149 1187 1168 1168 1168 1168 1149 1132 1098 1066 1036 1036 1051 1036 1036 0 1022 1022 994 994 994 981 981 994 1008 1022 1022 1066 1066 1051 1066 1066 1036 1066 1051 1051 1036 1036 1036 1022 1022 1051 994 968 1008 1022 1098 1168 1082 0 1022 1008 981 0 0 0 0 0 0 0 0 0 0 0 1066 1082 1066 1082 1066 1066 1036 1022 1008 1008 968 897 897 876 855 865 855 845 836 826 817 799 782 791 743 750 743 750 750 743 743 735 721 721 700 681 675 669 669 645 645 645 634 639 634 618 618 618 0 608 603 593 588 579 584 570 561 570 553 553 545 0 0 0 529 0 0 0 0 0
    0 0 0 0 0 0 0 0 0 0 0 0 0 0 0 0 0 0 0 0 0 0 0 0 0 0 0 0 0 0 0 0 0 0 0 0 0 0 0 0 0 0 0 0 0 0 0 0 0 0 0 0 0 0 0 0 0 0 0 0 0 0 0 0 0 0 0 0 0 1291 1291 1338 1338 1338 1314 1362 1338 0 0 0 0 0 955 0 1066 0 1115 1149 0 0 0 0 0 0 1132 1132 1247 1247 1362 1268 1268 1247 1247 1132 1132 1168 1187 1115 1132 1115 1132 1132 1168 1168 1132 1149 1149 1168 1187 1187 1187 1168 1226 1247 1226 1247 1247 1247 1247 1247 1247 1149 1149 1187 1206 1187 1132 1149 1098 1168 1206 1098 1115 1115 1115 1132 1115 1082 1082 1115 1098 1098 1115 1098 1115 1115 1149 1149 1098 1168 1098 1036 1115 1082 1082 1082 1082 1082 1098 1082 1149 1066 1098 1082 1051 1082 1066 1066 1066 1066 1082 1066 1098 1168 1098 1115 1168 1187 1187 1168 1187 1168 1149 1132 1115 1066 1036 1051 1051 1036 1036 0 1008 1008 968 981 981 968 968 968 994 1008 1022 1066 1066 1051 1066 1082 1066 1115 1082 1082 1066 1066 1066 1051 1051 1082 994 968 1022 1051 1098 1168 0 0 0 1036 1008 0 994 0 0 1098 0 0 0 0 0 0 1066 1066 1066 1066 1066 1051 1022 1008 1008 1008 955 897 897 876 855 865 865 845 836 826 817 799 782 791 743 750 750 750 750 743 743 735 721 721 707 687 681 675 669 651 645 639 634 634 634 618 618 0 0 608 603 593 588 584 584 570 561 570 549 549 545 0 0 0 529 0 0 0 0 0
    0 0 0 0 0 0 0 0 0 0 0 0 0 0 0 0 0 0 0 0 0 0 0 0 0 0 0 0 0 0 0 0 0 0 0 0 0 0 0 0 0 0 0 0 0 0 0 0 0 0 0 0 0 0 0 0 0 0 0 0 0 0 0 0 0 0 0 0 0 1268 1268 1314 1314 1314 1314 1362 1338 0 0 0 0 0 0 0 0 0 1115 1149 1132 1082 1098 1098 1036 1036 1066 1098 1082 0 0 0 1247 1226 1226 1132 1132 1168 1187 1115 1115 1132 1132 1132 1168 1168 1132 1149 1168 1168 1187 1187 1187 1187 1247 1268 1247 1247 1247 1247 1247 1247 1247 1149 1149 1168 1206 1187 1132 1132 1098 1206 1291 1132 1149 1132 1149 1149 1149 1082 1082 1115 1098 1098 1115 1098 1098 1098 1149 1149 1082 1132 1082 1036 1098 1082 1066 1082 1082 1082 1082 1098 1149 1066 1115 1082 1051 1082 1082 1066 1066 1066 1082 1066 1098 1187 1115 1115 1168 1187 1187 1187 1206 1187 1149 1149 1115 1066 1036 1066 1066 1051 1036 968 994 994 955 981 968 955 955 955 994 994 1008 1066 1066 1051 1066 1066 1066 1115 1098 1066 1066 1066 1066 1051 1066 1082 994 955 994 1008 1036 0 0 0 0 0 994 0 981 0 0 1066 0 0 0 1187 1132 0 1066 1066 1066 1066 1051 1051 1022 1008 1008 1008 955 897 908 876 855 876 865 845 836 826 817 799 782 791 743 750 750 750 750 735 743 728 721 721 707 687 681 681 681 657 651 645 634 634 634 0 613 0 0 603 603 593 593 584 584 574 561 566 549 549 545 0 0 0 529 0 0 0 0 0
    0 0 0 0 0 0 0 0 0 0 0 0 0 0 0 0 0 0 0 0 0 0 0 0 0 0 0 0 0 0 0 0 0 0 0 0 0 0 0 0 0 0 0 0 0 0 0 0 0 0 0 0 0 0 0 0 0 0 0 0 0 0 0 0 0 0 0 0 0 1268 1247 1268 1291 1291 1268 1291 0 0 0 0 0 0 0 0 0 0 1098 1115 1132 1066 1066 1082 1022 1036 1036 1066 0 0 0 0 1247 1226 1226 1132 1149 1187 1187 1132 1115 1132 1149 1149 1168 1168 1115 1149 1168 1187 1206 1187 1187 1187 1247 1268 1247 1247 1247 1247 1247 1247 1247 1132 1132 1132 1206 1187 1149 1115 1115 1247 1314 1168 1187 1168 1168 1168 1168 1098 1115 1132 1132 1115 1115 1115 1115 1098 1132 1132 1082 1115 1082 1051 1098 1082 1066 1082 1082 1082 1098 1098 1168 1051 1098 1082 1066 1082 1082 1066 1066 1066 1082 1082 1115 1187 1115 1132 1187 1206 1206 1206 1226 1206 1149 1149 1098 1036 1022 1051 1051 1036 1036 955 994 994 955 968 968 955 955 943 994 1008 1008 1082 1066 1082 1066 1066 1082 1149 1098 1082 1066 1066 1051 1051 1082 1066 994 968 0 994 0 0 518 518 0 0 981 0 968 994 0 1066 1066 1115 1187 1168 1132 1098 1066 1066 1066 1066 1066 1051 1022 1008 1008 1008 955 897 919 886 855 876 865 845 836 836 826 799 782 799 743 743 750 750 750 735 735 728 721 721 707 687 687 681 681 657 657 645 634 634 629 613 618 613 0 603 608 593 593 588 579 574 561 0 553 0 0 0 0 0 529 0 0 0 0 0
    0 0 0 0 0 0 0 0 0 0 0 0 0 0 0 0 0 0 0 0 0 0 0 0 0 0 0 0 0 0 0 0 0 0 0 0 0 0 0 0 0 0 0 0 0 0 0 0 0 0 0 0 0 0 0 0 0 0 0 0 0 0 0 0 0 0 0 0 0 1226 1187 1187 1206 1247 1206 1187 0 0 0 0 0 0 0 0 0 0 0 1149 1149 1082 1082 1098 1022 1036 1036 1066 0 0 0 0 0 1247 1226 1115 1149 1187 1168 1132 1115 1132 1149 1149 1168 1149 1115 1168 1187 1187 1206 1187 1187 1187 1247 1291 1268 1226 1247 1247 1247 1247 1247 1132 1132 1132 1226 1226 1226 1187 1187 1268 1314 1168 1206 1187 1168 1168 1168 1098 1098 1132 1132 1098 1115 1098 1115 1098 1115 1115 1066 1098 1082 1051 1098 1066 1066 1082 1066 1082 1082 1098 1168 1066 1115 1098 1082 1098 1082 1082 1066 1082 1098 1082 1132 1187 1132 1149 1168 1187 1206 1187 1206 1187 1132 1115 1082 1022 0 0 1051 1036 1036 955 994 994 955 981 968 955 968 943 994 994 994 1066 1066 1066 1066 1051 1098 1149 1082 1066 1066 1066 1051 1051 1098 1066 994 981 1008 0 1036 0 0 507 0 0 0 0 968 981 0 1051 1051 1066 1098 1115 1082 1082 1066 1066 1051 1051 1066 1036 1022 1008 1008 1008 943 886 919 886 855 876 865 845 836 836 826 808 782 799 743 750 750 758 750 735 735 728 721 721 707 687 687 681 681 657 651 639 634 634 629 0 618 613 0 608 608 593 593 588 584 579 561 0 0 0 0 0 0 0 525 0 0 0 0 0
    0 0 0 0 0 0 0 0 0 0 0 0 0 0 0 0 0 0 0 0 0 0 0 0 0 0 0 0 0 0 0 0 0 0 0 0 0 0 0 0 0 0 0 0 0 0 0 0 0 0 0 0 0 0 0 0 0 0 0 0 0 0 0 0 0 0 0 0 0 1187 1098 1082 1115 1168 1115 1098 0 1066 0 0 0 0 0 0 0 0 0 1247 1206 1168 1168 1187 1115 1098 1132 1115 0 0 0 0 0 0 0 1115 1149 1187 1149 1115 1115 1115 1149 1149 1187 1132 1115 1168 1187 1187 1206 1187 1187 1168 1247 1291 1268 1226 1247 1226 1247 1247 1247 1132 1149 1132 1247 1247 1268 1226 1149 1187 1247 1132 1187 1187 1187 1168 1149 1115 1115 1132 1149 1115 1115 1115 1115 1115 1132 1115 1066 1098 1066 1051 1082 1066 1066 1066 1082 1082 1082 1098 1149 1066 1098 1098 1066 1098 1082 1082 1066 1098 1098 1115 1168 1226 1168 1149 1168 1187 1187 1168 1168 1168 1115 1098 1082 0 0 0 1051 1036 1036 968 1008 1008 955 981 981 968 968 955 994 994 994 0 0 1051 1051 1051 1098 1132 1066 1066 1066 1051 1051 1066 1132 1051 1008 994 1051 1066 1066 0 0 0 0 0 0 0 968 0 0 1051 1066 1066 1098 1098 1082 1098 1066 1066 1051 1051 1066 1036 1022 1008 1008 1008 943 886 931 886 865 876 865 845 836 836 826 799 782 799 750 750 758 758 750 743 743 735 721 721 707 694 687 681 687 657 657 639 634 634 0 0 618 618 0 608 608 593 593 593 584 579 561 0 553 0 0 0 0 0 525 0 0 0 0 0
    0 0 0 0 0 0 0 0 0 0 0 0 0 0 0 0 0 0 0 0 0 0 0 0 0 0 0 0 0 0 0 0 0 0 0 0 0 0 0 0 0 0 0 0 0 0 0 0 0 0 0 0 0 0 0 0 0 0 0 0 0 0 0 0 0 0 0 0 0 1098 1051 1051 1051 1149 1098 0 0 1098 1098 0 0 0 0 0 0 0 0 1291 1206 1168 1187 1206 1187 1168 0 1168 0 0 0 0 0 0 0 1098 1149 1168 1132 1115 1115 1115 1149 1149 1168 1132 1115 1187 1187 1187 1206 1187 1187 1187 1247 1291 1291 1226 1247 1247 1247 1247 1247 1149 1149 1132 1247 1206 1247 1187 1132 1115 1168 1115 1168 1187 1187 1187 1132 1098 1115 1132 1149 1115 1115 1115 1115 1132 1149 1115 1082 1098 1066 1066 1082 1066 1051 1066 1066 1082 1082 1098 1115 1051 1098 1098 1082 1098 1082 0 0 1082 1098 1115 1149 1206 1149 1115 1149 1168 1149 1149 1149 0 1098 1098 0 0 0 0 1051 1051 1036 968 1022 1022 968 981 981 968 968 955 994 981 981 0 0 1051 1036 1051 1098 1115 1082 1082 1082 1082 1082 1098 1206 1098 1051 1051 1115 1098 1082 1066 0 0 0 0 0 0 981 981 0 1051 1066 1066 1115 1098 1082 1098 1066 1066 1066 1051 1066 1022 1022 1022 1008 1008 943 886 931 886 865 876 865 845 836 836 817 799 774 799 750 750 758 766 758 743 743 735 728 728 714 694 687 681 687 657 657 639 629 634 0 0 618 618 0 608 613 593 593 593 584 579 566 0 553 0 0 0 0 0 525 0 0 0 0 0
    0 0 0 0 0 0 0 0 0 0 0 0 0 0 0 0 0 0 0 0 0 0 0 0 0 0 0 0 0 0 0 0 0 0 0 0 0 0 0 0 0 0 0 0 0 0 0 0 0 0 0 0 0 0 0 0 0 0 0 0 0 0 0 0 0 0 0 0 0 1051 1008 1022 994 1082 1036 0 0 1051 1082 0 0 0 0 0 0 0 0 1291 1226 1206 1226 1226 0 0 0 0 0 0 0 0 0 0 0 1115 1149 1149 1115 1098 1098 1115 1132 1149 1168 1115 1115 1187 1187 1187 1187 1168 1168 1187 1268 1291 1291 1226 1247 1247 1247 1247 1247 1149 1149 1132 1247 1149 1168 1082 1098 1098 1149 1132 1168 1187 1206 1187 1115 1098 1115 1132 1132 1115 1115 1115 1115 1149 1132 1115 1082 1098 1066 1066 1082 1066 1051 1066 1082 1082 1082 1115 1115 1066 1098 1098 1098 1098 1066 0 0 1082 1082 1098 1132 1149 1132 1115 1149 1149 1132 1098 1115 0 1098 0 0 0 0 0 0 0 1051 955 1022 1022 955 981 981 981 968 955 994 981 981 0 1036 1036 1036 1051 1098 1098 1082 1082 1082 1082 1098 1149 1247 1187 1149 1149 1168 1132 1098 1098 0 0 0 0 0 0 981 968 994 1022 1051 1036 1082 1066 1066 1082 1066 1066 1066 1051 1066 1022 1022 1036 1008 1022 943 886 931 886 855 876 855 845 836 836 826 799 774 799 750 750 758 766 758 750 743 743 728 735 714 700 694 681 687 657 657 634 634 634 0 618 623 618 618 608 613 593 598 593 584 579 566 0 553 0 0 0 0 0 525 0 0 0 0 0
    0 0 0 0 0 0 0 0 0 0 0 0 0 0 0 0 0 0 0 0 0 0 0 0 0 0 0 0 0 0 0 0 0 0 0 0 0 0 0 0 0 0 0 0 0 0 0 0 0 0 0 0 0 0 0 0 0 0 0 0 0 0 0 0 0 0 0 0 0 0 981 981 943 1008 955 931 955 968 0 994 0 0 0 0 0 0 0 0 1247 1226 0 0 0 0 0 0 0 0 0 0 0 0 0 1115 1149 1132 1098 1098 1098 1115 1132 1149 1149 1115 1132 1187 1187 1187 1187 1168 1168 1187 1247 1268 1268 1226 1247 1247 1247 1247 1247 1149 1149 1132 1247 1115 1168 1082 1082 1098 1149 1149 1168 1206 1206 1187 1115 1115 1115 1132 1132 1115 1115 1115 1115 1149 1132 1098 1082 1098 1066 1082 1082 1066 1066 1082 1082 1082 1082 1132 1098 1082 1098 1115 1115 1098 1082 0 0 1082 1098 1115 1132 1098 1098 1098 1115 1115 1082 1082 1082 1082 1066 1051 0 0 0 0 0 0 1051 955 1036 1022 968 981 981 981 981 968 1008 981 981 0 1036 1036 1036 1051 1098 1082 1082 1066 1082 1082 1098 1187 1247 1206 1168 1168 1168 1115 1082 1051 1022 0 0 0 0 0 981 955 968 994 1036 1008 1036 1036 1036 1066 1051 1066 1051 1036 1051 1022 1036 1051 1022 1022 943 886 931 897 855 876 855 845 836 836 826 808 774 799 750 750 758 766 758 750 750 743 735 735 721 700 694 681 687 657 657 634 634 634 634 623 623 618 623 613 613 593 598 598 584 584 566 0 553 0 0 0 0 0 525 0 0 0 0 0
    0 0 0 0 0 0 0 0 0 0 0 0 0 0 0 0 0 0 0 0 0 0 0 0 0 0 0 0 0 0 0 0 0 0 0 0 0 0 0 0 0 0 0 0 0 0 0 0 0 0 0 0 0 0 0 0 0 0 0 0 0 0 0 0 0 0 0 0 0 0 968 955 919 968 931 908 931 968 1008 981 0 0 0 0 0 0 0 0 0 0 0 0 311 310 310 0 0 0 0 0 0 0 1082 1115 1149 1132 1098 1098 1098 1115 1132 1149 1132 1115 1149 1206 1187 1187 1168 1149 1168 1187 1247 1268 1247 1247 1268 1247 1247 1247 1247 1168 1168 1168 1247 1168 1226 1206 1187 1168 1206 1226 1206 1226 1247 1187 1115 1115 1132 1132 1132 1115 1115 1115 1132 1149 1115 1082 1082 1082 1066 1082 1082 1066 1066 1082 1082 1098 1098 1149 1098 1082 1098 1115 1132 1115 1082 0 1082 1082 1115 1132 1132 1082 1082 1082 1098 1098 1066 1051 0 0 1066 1066 0 0 0 0 0 0 1066 981 1066 1036 981 994 994 994 994 981 1008 981 981 0 1036 1036 1036 1051 1082 1051 1066 1051 1066 1066 1082 1187 1268 1226 1168 1132 1149 1066 1036 994 981 968 981 968 955 968 955 955 968 981 1036 1008 1008 1022 994 1051 1051 1036 1036 1022 1036 1022 1036 1066 1051 1036 955 897 943 897 855 876 855 845 836 836 826 808 782 799 750 750 766 766 766 758 750 750 735 743 721 700 694 687 694 663 657 639 634 634 634 623 629 623 623 613 618 598 598 598 584 584 566 0 557 0 0 0 0 0 525 0 0 0 0 0
    0 0 0 0 0 0 0 0 0 0 0 0 0 0 0 0 0 0 0 0 0 0 0 0 0 0 0 0 0 0 0 0 0 0 0 0 0 0 0 0 0 0 0 0 0 0 0 0 0 0 0 0 0 0 0 0 0 0 0 0 0 0 0 0 0 0 0 0 0 0 0 994 943 981 943 919 931 955 981 968 0 0 0 0 0 0 0 0 0 0 0 0 0 307 0 0 0 0 0 0 1132 1132 1098 1149 1168 1132 1098 1098 1115 1132 1132 1149 1115 1115 1168 1206 1168 1168 1149 1149 1168 1168 1247 1247 1226 1247 1268 1247 1247 1247 1247 1187 1168 1187 1226 1187 1206 1206 1206 1168 1206 1226 1226 1226 1247 1149 1115 1132 1149 1149 1132 1115 1115 1115 1149 1168 1098 1066 1066 1066 1066 1098 1082 1066 1066 1098 1098 1098 1115 1149 1098 1082 1098 1132 1132 1132 1098 1098 1098 1098 1132 1168 1132 1082 1066 1066 1066 1051 1036 1036 1036 1066 1082 1098 1168 0 0 0 0 0 1066 1008 1082 1051 994 1008 1008 994 994 994 1008 981 981 1051 1036 1036 1036 1051 1066 1036 1051 1036 1051 1036 1051 1187 1247 0 0 0 0 1066 1036 994 994 955 968 955 943 955 955 943 968 981 1036 1022 1022 1036 1022 1051 1051 1051 1051 1036 1036 1036 1066 1082 1066 1036 968 886 943 897 855 876 855 845 845 836 826 808 782 808 758 750 766 766 766 758 750 750 743 750 728 707 700 687 694 657 657 634 634 634 634 623 629 623 623 618 618 598 603 598 584 584 566 570 557 0 0 0 0 0 529 0 0 0 0 0
    0 0 0 0 0 0 0 0 0 0 0 0 0 0 0 0 0 0 0 0 0 0 0 0 0 0 0 0 0 0 0 0 0 0 0 0 0 0 0 0 0 0 0 0 0 0 0 0 0 0 0 0 0 0 0 0 0 0 0 0 0 0 0 0 0 0 0 0 0 0 0 1036 981 994 968 943 943 943 968 955 0 0 0 0 0 0 0 0 0 0 0 0 0 0 0 0 0 1443 0 0 1149 1115 1098 1149 1168 1132 1098 1115 1115 1149 1149 1149 1132 1132 1187 1206 1149 1149 1149 1132 1149 1168 1226 1206 1206 1247 1268 1268 1247 1247 1247 1187 1168 1187 1226 1187 1168 1187 1187 1149 1206 1226 1206 1226 1226 1115 1098 1132 1149 1132 1132 1115 1115 1132 1168 1187 1098 1082 1082 1066 1082 1098 1082 1082 1082 1098 1098 1098 1132 1149 1115 1082 1082 1132 1132 1115 1098 1098 1098 1115 1149 1168 1132 1082 1066 1066 1051 1051 1036 1022 1022 1051 1066 1082 1132 0 0 0 0 0 1066 1008 1082 1051 0 1008 1008 1008 1008 1008 1022 981 981 1051 1036 1036 1022 1051 1051 1022 1022 1008 1022 1008 1022 1115 1098 981 0 0 0 1066 1051 1022 1022 981 1008 981 968 968 968 943 968 981 1036 1022 1036 1036 1022 1066 1066 1066 1066 1051 1051 1036 1082 1098 1066 1036 968 886 943 908 855 876 855 855 845 845 0 817 791 808 758 758 766 774 766 766 758 766 743 758 735 707 694 681 681 645 657 629 634 634 634 623 629 629 623 618 618 598 603 598 584 584 566 570 557 549 549 0 0 0 529 0 0 0 0 0
    0 0 0 0 0 0 0 0 0 0 0 0 0 0 0 0 0 0 0 0 0 0 0 0 0 0 0 0 0 0 0 0 0 0 0 0 0 0 0 0 0 0 0 0 0 0 0 0 0 0 0 0 0 0 0 0 0 0 0 0 0 0 0 0 0 0 0 0 0 0 1051 1036 994 994 955 931 931 931 943 931 0 0 0 284 0 0 0 0 0 0 0 0 0 0 1443 0 0 1471 0 0 1168 1115 1115 1168 1168 1132 1098 1132 1132 1168 1168 1149 1132 1149 1206 1226 1149 1132 1132 1132 1149 1149 1206 1187 1187 1247 1268 1268 1268 1247 1247 1187 1187 1206 1226 1206 1187 1206 1206 1149 1226 1247 1247 1247 1226 1098 1098 1149 1132 1132 1115 1115 1115 1132 1168 1206 1082 1082 1098 1066 1082 1098 1082 1082 1082 1098 1098 1098 1132 1132 1082 1082 1098 1132 1115 0 1082 1098 1098 1115 1149 1132 1098 1066 1066 1066 1051 1051 1036 1036 1036 1051 1066 1098 1132 1098 1115 1051 1082 0 1066 1022 1098 1051 0 1008 1008 1008 1008 1008 1022 981 981 1051 1051 1036 1036 1051 1036 1022 1022 1008 1008 1008 1008 1051 1008 943 994 1008 1098 1051 1051 1036 1036 994 1022 1008 0 981 994 955 968 968 1022 994 1008 1022 1008 1036 1051 1051 1066 1051 1036 1036 1082 1098 1066 1036 981 886 943 919 855 876 865 855 845 845 836 817 791 808 766 758 766 774 766 774 758 774 750 766 743 707 694 675 675 645 651 629 634 634 634 623 629 623 623 613 618 598 598 593 579 584 566 566 557 549 549 0 0 0 529 0 0 0 0 0
    0 0 0 0 0 0 0 0 0 0 0 0 0 0 0 0 0 0 0 0 0 0 0 0 0 0 0 0 0 0 0 0 0 0 0 0 0 0 0 0 0 0 0 0 0 0 0 0 0 0 0 0 0 0 0 0 0 0 0 0 0 0 0 0 0 0 0 0 0 0 0 0 968 968 931 886 897 897 897 886 0 0 297 292 0 0 0 0 0 0 0 0 0 0 1471 0 0 1471 1415 0 1187 1115 1132 1187 1168 1132 1115 1132 1149 1168 1168 1149 1132 1187 1206 1226 1132 1132 1132 1132 1149 1132 1206 1187 1187 1247 1268 1268 1268 1247 1247 1187 1187 1206 1206 1187 1168 1187 1187 1132 1226 1247 1226 1226 1206 1082 1115 1149 1149 1132 1115 1115 1132 1132 1187 1206 1082 1098 1115 1066 1082 1098 1082 1082 1082 1098 1098 1098 1149 1132 1066 1082 1098 1132 1115 1098 1082 1098 1098 1115 1132 1115 1066 1066 1066 1082 1051 1051 1036 1036 1036 1066 1066 1098 1115 1082 1098 1066 1115 1098 1098 1022 1115 1066 0 0 1022 1008 1022 1022 1022 994 981 1051 1051 1051 1051 1066 1036 1022 1036 1008 1022 1022 1022 1066 0 943 0 0 1082 1036 1036 1022 1036 994 1022 1008 1008 994 1022 981 1008 981 1036 1022 1036 1036 1036 1051 1066 1066 1066 1051 1036 1036 1082 1098 1066 1051 994 897 955 931 865 876 865 865 855 855 836 817 791 808 766 758 766 774 766 774 758 774 750 758 743 707 687 675 675 645 657 634 634 634 634 629 629 623 623 613 618 598 598 593 579 584 561 561 557 545 545 0 0 0 525 0 0 0 0 0
    0 0 0 0 0 0 0 0 0 0 0 0 0 0 0 0 0 0 0 0 0 0 0 0 0 0 0 0 0 0 0 0 0 0 0 0 0 0 0 0 0 0 0 0 0 0 0 0 0 0 0 0 0 0 0 0 0 0 0 0 0 0 0 0 0 0 0 0 0 0 0 0 968 968 931 886 908 897 908 908 0 0 299 0 0 0 0 0 0 0 0 0 0 0 1388 0 1415 1415 1443 1362 1226 1149 1168 1187 1168 1132 1115 1132 1149 1168 1168 1132 1149 1187 1226 1226 1132 1115 1132 1132 1149 1132 1187 1187 1168 1247 1268 1268 1268 1247 1247 1187 1187 1187 1206 1168 1132 1168 1149 1132 1226 1268 1247 1247 1206 1098 1132 1149 1149 1132 1115 1132 1149 1168 1206 1206 1115 1149 1132 1082 1098 1098 1082 1082 1082 1098 1098 1098 1149 1115 1066 1098 1115 1132 1132 1098 1082 1098 1098 1115 1132 1098 1066 1066 1066 1082 1051 1051 1036 1051 1036 1066 1082 1115 1115 1066 1098 1098 1149 1115 1115 1036 1115 1066 0 0 1022 1008 1022 1022 1036 994 981 1066 1066 1051 1082 1066 1036 1036 1036 1022 1022 1022 1036 1066 0 955 1036 1022 1115 1036 1051 1036 1036 994 1022 1022 1022 1008 1022 994 1008 994 1051 1036 1036 1022 1036 1051 1051 1066 1066 1051 1036 1036 1082 1082 1066 1051 1008 897 955 943 865 886 876 865 865 855 845 826 799 808 774 758 766 766 766 774 758 766 750 758 750 707 694 681 681 645 663 634 639 634 634 629 629 629 623 613 618 598 598 588 579 579 561 561 553 545 545 537 0 0 525 0 0 0 0 0
    0 0 0 0 0 0 0 0 0 0 0 0 0 0 0 0 0 0 0 0 0 0 0 0 0 0 0 0 0 0 0 0 0 0 0 0 0 0 0 0 0 0 0 0 0 0 0 0 0 0 0 0 0 0 0 0 0 0 0 0 0 0 0 0 0 0 0 0 0 0 1066 0 981 981 955 931 931 919 931 955 0 0 0 0 0 0 0 1206 0 1268 0 1291 1314 1314 1388 1338 1388 1362 1388 1338 1226 1168 1187 1206 1168 1132 1115 1132 1168 1187 1168 1132 1149 1206 1226 1226 1132 1115 1132 1149 1168 1132 1187 1187 1187 1247 1268 1268 1247 1247 1247 1168 1168 1187 1187 1168 1115 1149 1132 1132 1226 1247 1226 1247 1168 1115 1149 1168 1149 1132 1115 1132 1149 1168 1206 1187 1115 1149 1115 1082 1098 1098 1082 1082 1098 1098 1098 1115 1149 1098 1066 1098 1115 1149 1132 1098 1098 1115 1115 1149 1149 1115 1098 1082 1082 1115 1066 1066 1051 1051 1051 1066 1082 1115 1098 1066 1082 1082 1149 1115 1132 1036 1115 1066 0 1022 1022 1008 1036 1036 1051 994 994 1082 1082 1066 1098 1051 1022 1022 1022 1008 1008 1008 1022 1008 1008 981 0 0 1149 1051 1051 1022 1036 981 1008 1008 994 981 1008 981 981 981 1008 994 1008 981 1008 1022 1036 1036 1036 1036 1022 1036 1066 1066 1066 1051 1008 908 955 943 865 886 876 876 865 865 855 836 808 817 774 758 766 766 766 774 766 766 758 766 758 721 700 681 681 651 669 639 645 639 634 629 629 629 623 613 618 598 598 588 574 579 561 557 553 545 545 537 0 0 525 0 0 0 0 0
    0 0 0 0 0 0 0 0 0 0 0 0 0 0 0 0 0 0 0 0 0 0 0 0 0 0 0 0 0 0 0 0 0 0 0 0 0 0 0 0 0 0 0 0 0 0 0 0 0 0 0 0 0 0 0 0 0 0 0 0 0 0 0 0 0 0 0 0 0 0 1132 1036 1008 1008 994 1008 968 955 955 981 1098 1187 0 0 0 0 1206 1206 0 1268 0 1314 1314 1314 1362 0 1362 1338 1388 1314 1206 1168 1187 1187 1132 1132 1132 1149 1168 1187 1168 1132 1168 1206 1226 1226 1132 1115 1132 1168 1168 1115 1187 1187 1187 1247 1268 1268 1247 1247 1247 1187 1187 1187 1187 1168 1115 1132 1098 1115 1206 1226 1206 1206 1132 1098 1149 1168 1149 1132 1132 1132 1149 1187 1206 1132 1098 1132 1082 1082 1115 1098 1082 1082 1082 1098 1098 1115 1149 1082 1066 1098 1115 1132 1115 1098 1098 1115 1132 1168 1187 1149 1132 1115 1115 1149 1082 1082 1066 1082 1082 1082 1082 1132 1115 1066 1066 1051 1082 1066 1082 1036 1115 1066 0 1022 1022 1022 1036 1036 1051 1008 994 1098 1082 1066 1132 1036 1022 1008 1022 994 994 994 1008 994 994 968 0 0 1115 1051 1051 1008 1036 981 1008 1008 994 981 1008 981 981 981 1008 994 994 981 1008 1008 1022 1036 1036 1022 1022 1036 1066 1051 1051 1051 1008 908 955 955 865 897 886 876 865 865 855 836 817 817 782 758 774 766 766 774 766 766 758 758 758 721 700 687 681 645 669 634 645 634 634 629 629 629 623 613 618 598 603 588 574 574 561 557 553 541 545 537 533 0 525 0 0 0 0 0
    0 0 0 0 0 0 0 0 0 0 0 0 0 0 0 0 0 0 0 0 0 0 0 0 0 0 0 0 0 0 0 0 0 0 0 0 0 0 0 0 0 0 0 0 0 0 0 0 0 0 0 0 0 0 0 0 0 0 0 0 0 0 0 0 0 0 0 0 0 1247 1115 1066 1051 1022 1022 1022 981 968 981 1022 1168 1206 0 0 0 0 1206 1187 0 1268 1268 1291 0 1314 1362 0 1338 1314 1338 1291 1187 1168 1187 1187 1132 1132 1132 1168 1187 1187 1168 1149 1187 1226 1226 1226 1115 1115 1149 1168 1149 1115 1187 1187 1187 1247 1268 1247 1226 1247 1247 1168 1168 1187 1187 1149 1098 1115 1098 1115 1206 1206 1206 1168 1082 1098 1149 1168 1149 1132 1115 1132 1149 1187 1187 1115 1082 1115 1066 1082 1115 1082 1082 1082 1082 1098 1098 1115 1149 1066 1066 1082 1132 1132 1115 1098 1098 1132 1132 1187 1187 1149 1149 1149 1149 1187 1115 1115 1098 1115 1115 1115 1115 1168 1149 1098 1066 1066 1082 1066 1098 1036 1132 1082 0 1036 1036 1022 1051 1051 1066 1008 1008 1115 1098 1082 1149 1036 1022 1022 1022 1008 1008 1008 1008 994 994 981 994 1008 1066 1008 1036 994 1022 981 0 0 981 968 994 968 981 981 1008 1008 1008 1022 1022 1022 1051 1066 1051 1022 1022 1022 1051 1036 1036 1036 994 897 955 943 865 897 886 886 865 865 855 836 817 817 782 758 766 766 766 774 758 766 750 750 758 714 700 687 681 645 663 634 645 634 634 629 629 629 623 613 618 598 603 584 574 570 557 553 553 541 541 537 537 0 525 0 0 0 0 0
    0 0 0 0 0 0 0 0 0 0 0 0 0 0 0 0 0 0 0 0 0 0 0 0 0 0 0 0 0 0 0 0 0 0 0 0 0 0 0 0 0 0 0 0 0 0 0 0 0 0 0 0 0 0 0 0 0 0 0 0 0 0 0 0 0 0 0 0 0 1247 1066 1022 1022 1008 1008 1008 981 955 981 1098 1206 1247 0 0 0 1247 1206 1187 1226 1247 1247 1291 0 1291 1338 1314 1314 1291 1291 1268 1187 1168 1187 1168 1132 1132 1149 1168 1187 1206 1168 1149 1187 1226 1226 1226 1115 1115 1149 1187 1149 1115 1187 1187 1168 1226 1247 1247 1226 1226 1247 1168 1168 1187 1187 1132 1082 1082 1051 1051 1132 1132 1149 1115 1066 1098 1149 1149 1132 1115 1115 1132 1149 1187 1168 1082 1082 1115 1066 1082 1115 1098 1082 1098 1098 1098 1098 1132 1132 1051 1066 1098 1132 1132 1115 1098 1098 1132 1149 1206 1187 1149 1168 1168 1187 1187 1132 1149 1115 1132 1115 1115 1132 1149 1132 1082 1066 1051 1082 1066 1098 1036 1132 1082 1036 1051 1051 1036 1066 1066 1082 1022 1036 1132 1098 1082 1168 1036 1036 1022 1022 1008 1022 1022 1022 1008 1022 1008 1022 1022 1066 1036 1066 1022 1051 1008 0 0 1008 994 1008 968 981 981 1008 1008 1022 1036 1036 1051 1082 1115 1082 1036 1036 1036 1036 1022 1022 1022 981 897 955 943 865 897 886 886 876 865 855 836 817 817 782 758 766 766 766 766 758 758 750 750 750 707 694 675 669 645 663 634 645 634 634 629 629 629 623 613 618 598 598 584 570 570 557 553 549 537 541 533 533 0 525 0 0 0 0 0
    0 0 0 0 0 0 0 0 0 0 0 0 0 0 0 0 0 0 0 0 0 0 0 0 0 0 0 0 0 0 0 0 0 0 0 0 0 0 0 0 0 0 0 0 0 0 0 0 0 0 0 0 0 0 0 0 0 0 0 0 0 0 0 0 0 0 0 0 0 0 994 943 994 1008 1008 1008 1008 981 0 1226 1247 0 0 0 0 0 1206 1206 1247 1247 1247 1268 0 1291 0 0 1268 1268 1247 1206 1149 1168 1187 1149 1115 1132 1149 1187 1206 1206 1168 1168 1206 1226 1247 1226 1132 1115 1149 1187 1132 1098 1168 1168 1168 1206 1226 1226 1206 1226 1226 1168 1168 1187 1187 1098 1082 1066 1022 1036 1098 1098 1115 1082 1066 1098 1149 1149 1132 1115 1115 1115 1149 1206 1132 1082 1082 1098 1066 1098 1115 1082 1082 1098 1098 1098 1098 1132 1115 1051 1066 1115 1149 1149 1115 1115 1115 1132 1168 1206 1187 1132 1149 1168 1187 1187 1132 1168 1132 1149 1132 1115 1149 1149 1149 1082 1051 1066 1066 1066 1115 1036 1132 1082 1051 1066 1051 1036 1082 1066 1098 1036 1066 1149 1098 1082 1187 1022 1036 1022 1022 1008 1022 1022 1036 1008 1022 1008 1022 1022 1051 1022 1036 994 1022 981 994 994 994 981 1008 955 968 968 1008 1008 1036 1036 1051 1066 1098 1132 1098 1036 1036 1036 1022 1008 1022 1022 968 897 955 943 865 897 897 886 876 876 865 836 817 817 782 758 766 766 766 766 758 758 750 743 758 707 700 669 669 645 663 634 651 634 634 634 629 629 623 618 623 603 603 584 574 570 557 549 549 533 537 533 533 533 525 0 0 0 0 0
    0 0 0 0 0 0 0 0 0 0 0 0 0 0 0 0 0 0 0 0 0 0 0 0 0 0 0 0 0 0 0 0 0 0 0 0 0 0 0 0 0 0 0 0 0 0 0 0 0 0 0 0 0 0 0 0 0 0 0 0 0 0 0 0 0 0 0 0 0 0 968 908 0 994 0 1008 1022 1008 0 1247 1247 0 0 1247 1268 1268 1226 1226 1247 1247 1247 1268 0 1268 1291 1291 1268 1268 1247 1187 1168 1187 1187 1132 1132 1132 1149 1187 1206 1187 1168 1168 1206 1226 1247 1226 1132 1115 1149 1187 1098 1082 1149 1149 1132 1187 1206 1206 1206 1226 1226 1168 1168 1187 1187 1082 1098 1066 1036 1051 1115 1115 1132 1082 1082 1115 1149 1149 1149 1115 1115 1115 1168 1206 1098 1082 1082 1082 1066 1098 1098 1082 1082 1098 1098 1098 1098 1132 1082 1051 1066 1115 1168 1149 1115 1115 1132 1149 1168 1206 1168 1132 1132 1168 1168 1149 1132 1149 1115 1149 1132 1132 1149 1149 1168 1082 1082 1098 1098 1066 1132 1036 1132 1098 1051 1066 1066 1051 1098 1082 1115 1066 1082 1168 1098 1098 1206 1036 1036 1036 1036 1022 1022 1036 1051 1022 1051 1036 1051 1051 1051 1022 1022 968 955 943 955 981 981 1008 1008 981 994 1008 1066 1051 1051 1051 1051 1082 1115 1132 1082 1036 1036 1022 1022 1008 1008 1022 968 897 955 931 865 897 897 886 876 876 865 836 826 817 791 758 766 758 758 766 758 758 750 743 758 707 707 681 675 651 663 634 651 634 639 634 634 629 629 623 629 603 608 588 584 574 561 549 545 529 537 533 533 533 525 0 0 0 0 0
    0 0 0 0 0 0 0 0 0 0 0 0 0 0 0 0 0 0 0 0 0 0 0 0 0 0 0 0 0 0 0 0 0 0 0 0 0 0 0 0 0 0 0 0 0 0 0 0 0 0 0 0 0 0 0 0 0 0 0 0 0 0 0 0 0 0 0 0 0 0 0 876 0 0 0 0 1022 0 0 1314 1291 0 0 1247 1268 1268 1226 1206 1226 1206 1226 1226 1226 1247 1247 1247 1247 1247 1247 1168 1168 1187 1187 1132 1132 1132 1149 1187 1206 1168 1149 1168 1206 1226 1247 1226 1132 1115 1149 1168 1082 1066 1115 1115 1115 1149 1187 1187 1187 1226 1226 1187 1187 1187 1226 1098 1149 1115 1066 1082 1132 1132 1132 1082 1082 1115 1149 1149 1132 1115 1115 1115 1149 1206 1082 1082 1098 1082 1082 1115 1098 1098 1082 1098 1098 1098 1115 1132 1082 1066 1066 1132 1149 1149 1115 1115 1132 1149 1187 1226 1187 1149 1149 1187 1206 1168 1132 1149 1098 1115 1115 1115 1115 1115 1115 1066 1051 1082 1082 1051 1098 1036 1132 1098 1051 1082 1082 1051 1098 1098 1132 1082 1098 1168 1098 1098 1206 1036 1036 1036 1036 1022 1036 1051 1066 1051 1082 1066 1098 1082 1051 1022 1008 943 886 919 908 919 955 994 1008 1008 1008 1066 1115 1082 1082 1066 1082 1098 1132 1149 1066 1036 1036 1008 1008 994 994 1008 955 886 943 931 865 897 897 886 876 886 876 845 836 0 799 750 766 758 758 758 750 750 743 735 750 707 714 681 675 645 663 634 651 639 639 639 634 634 634 623 634 608 613 593 584 574 566 549 549 529 541 533 533 533 529 0 0 0 0 0
    0 0 0 0 0 0 0 0 0 0 0 0 0 0 0 0 0 0 0 0 0 0 0 0 0 0 0 0 0 0 0 0 0 0 0 0 0 0 0 0 0 0 0 0 0 0 0 0 0 0 0 0 0 0 0 0 0 0 0 0 0 0 0 0 0 0 0 0 0 0 0 943 0 0 0 0 0 0 0 1314 1268 0 0 1247 1268 1268 1226 1206 1226 1226 1226 0 0 1226 1226 1226 1226 1226 1206 1149 1149 1187 1168 1115 1115 1115 1149 1168 1187 1149 1149 1168 1206 1226 1226 1206 1115 1115 1132 1132 1051 1051 1098 1098 1082 1115 1149 1168 1168 1226 1226 1206 1206 1226 1268 1168 1206 1168 1132 1149 1168 1168 1149 1082 1098 1132 1149 1149 1132 1098 1115 1115 1149 1187 1066 1082 1082 1066 1082 1115 1098 1098 1098 1098 1098 1098 1132 1149 1066 1082 1082 1132 1149 1149 1115 1115 1132 1168 1206 1226 1187 1168 1187 1226 1226 1187 1149 1168 1098 1115 1098 1098 1098 1098 1098 1051 1036 1066 1051 1036 1066 1036 1115 1082 1051 1082 1082 1066 1098 1098 1149 1098 1115 1168 1098 1098 1206 1036 1036 1036 1036 1036 1036 1051 1051 1051 1066 1066 1082 1066 1051 1036 1008 943 865 886 886 865 886 943 968 968 968 1008 1051 1051 1051 1051 1051 1066 1098 1115 1051 1022 1022 1008 1008 981 981 994 943 886 943 919 865 897 897 886 886 886 886 855 836 0 799 750 758 750 758 758 750 743 743 735 750 707 707 681 675 645 657 634 651 639 645 639 639 639 639 629 639 613 618 593 579 574 566 549 549 529 537 533 533 533 529 0 0 0 0 0
    0 0 0 0 0 0 0 0 0 0 0 0 0 0 0 0 0 0 0 0 0 0 0 0 0 0 0 0 0 0 0 0 0 0 0 0 0 0 0 0 0 0 0 0 0 0 0 0 0 0 0 0 0 0 0 0 0 0 0 0 0 0 0 0 0 0 0 0 0 0 0 994 0 0 0 0 0 0 0 0 1268 0 0 1226 1247 1268 1226 1206 1226 1226 1247 0 1226 1226 1226 1247 1226 1206 1187 1132 1149 1187 1149 1115 1115 1115 1149 1168 1187 1149 1132 1187 1206 1226 1226 1206 1115 1115 1115 1098 1036 1036 1082 1082 1066 1098 1132 1168 1168 1226 1247 1226 1226 1247 1291 1226 1247 1206 1187 1206 1206 1187 1149 1098 1098 1132 1149 1149 1132 1098 1098 1115 1149 1149 1051 1066 1082 1066 1082 1115 1098 1098 1098 1115 1098 1098 1149 1149 1066 1082 1082 1115 1132 1132 0 0 1115 1168 1206 1226 1187 1168 1187 1226 1247 1168 1168 1168 1098 1115 1098 1098 1098 1082 1082 1036 1022 1036 1022 1022 1051 1022 1098 1082 1051 1082 1082 1066 1115 1098 1149 1098 1115 1187 1115 1115 1226 1051 1051 1051 1051 1051 1066 1066 1051 1066 1082 1082 1098 1051 1036 1008 994 931 886 897 908 886 886 943 955 955 968 0 0 0 1051 1066 1051 1098 1115 1132 1051 1022 1022 1008 994 968 968 981 931 876 931 908 865 897 897 897 886 886 886 855 836 0 799 750 758 750 750 750 750 743 743 728 750 700 707 687 681 645 657 634 651 634 645 639 639 639 639 634 639 613 618 593 579 570 561 545 545 525 537 533 533 533 529 0 0 0 0 0
    0 0 0 0 0 0 0 0 0 0 0 0 0 0 0 0 0 0 0 0 0 0 0 0 0 0 0 0 0 0 0 0 0 0 0 0 0 0 0 0 0 0 0 0 0 0 0 0 0 0 0 0 0 0 0 0 0 0 0 0 0 0 0 0 0 0 0 0 0 1206 0 0 0 1051 0 0 0 0 0 0 1247 0 0 1206 0 0 1206 1168 1187 1187 0 0 0 1206 1226 1226 1226 1187 1132 1115 1149 1187 1132 1115 1115 1115 1149 1187 1168 1132 1149 1187 1206 1206 1226 1187 1098 1115 1098 1066 1036 1036 1082 1082 1066 1082 1132 1168 1168 1226 1247 1226 1226 1247 1268 1226 1268 1226 1206 1226 1206 1206 1149 1098 1115 1132 1132 1149 1132 1098 1098 1115 1132 1115 1051 1066 1082 1066 1098 1115 1098 1115 1115 1115 1115 1115 1149 1132 1066 1082 1098 1115 1132 1115 0 0 1115 1149 1206 1206 1168 1149 1187 1226 1247 1149 1149 1149 1082 1098 1066 1066 1082 1051 1066 1022 1022 1022 1022 1022 1036 1022 1066 1066 1036 1082 1082 1066 1115 1098 1149 1115 1132 1187 1115 1115 1226 1051 1051 1051 1066 1066 1098 1082 1051 1098 1098 1115 1149 1051 1022 1008 981 943 908 897 943 931 943 1022 994 0 0 0 0 0 1082 1115 1098 1149 1168 1149 1051 1036 1036 1008 981 968 968 981 931 876 931 897 865 886 897 897 886 886 886 855 836 0 799 750 758 750 750 750 743 735 743 728 743 700 707 687 681 651 651 629 645 634 645 645 639 639 639 634 639 613 618 588 570 566 553 541 541 521 533 533 533 533 529 0 0 0 0 0
    0 0 0 0 0 0 0 0 0 0 0 0 0 0 0 0 0 0 0 0 0 0 0 0 0 0 0 0 0 0 0 0 0 0 0 0 0 0 0 0 0 0 0 0 0 0 0 0 0 0 0 0 0 0 0 0 0 0 0 0 0 0 0 0 0 0 0 0 0 0 0 0 0 0 0 0 0 0 0 0 1268 1268 1226 1226 1226 0 1206 1132 1187 1168 1187 0 0 1206 1187 1187 1187 1132 1098 1098 1132 1149 1115 1098 1115 1115 1149 1168 1168 1132 1149 1187 1206 1206 1226 1187 1098 1115 1098 1066 1022 1036 1066 1066 1066 1082 1115 1149 1168 1226 1247 1226 1226 1247 1268 1226 1268 1247 1226 1226 1226 1226 1149 1115 1132 1132 1149 1149 1132 1098 1115 1132 1132 1098 1051 1082 1082 1066 1098 1115 1098 1115 1115 1115 1115 1115 1149 1115 1082 1082 1098 1115 1132 1115 0 0 1115 1149 1206 1187 1132 1115 1149 1206 1247 1132 1149 1132 1082 1082 1066 1066 1082 1051 1051 1022 1022 1022 1022 1022 1036 1022 1036 1036 1036 1082 1082 1066 1115 1098 1149 1132 1132 1187 1115 1115 1226 1051 1051 1051 1066 1066 1115 1098 1036 1115 1115 1115 1187 1022 968 0 955 955 943 908 981 955 981 1036 1022 0 0 0 0 0 1098 1115 1115 1149 1168 1149 1051 1036 1036 1008 994 981 981 981 943 876 931 897 865 886 897 886 886 886 897 855 845 0 799 750 758 743 743 743 735 735 735 721 743 700 714 694 681 657 657 634 651 639 651 645 645 639 639 634 645 618 618 588 570 566 553 541 541 521 537 533 537 537 533 0 0 0 0 0
    0 0 0 0 0 0 0 0 0 0 0 0 0 0 0 0 0 0 0 0 0 0 0 0 0 0 0 0 0 0 0 0 0 0 0 0 0 0 0 0 0 0 0 0 0 0 0 0 0 0 0 0 0 0 0 0 0 0 0 0 0 0 0 0 0 0 0 0 0 1362 0 0 0 0 0 0 0 0 0 0 0 1268 1247 1226 1226 1247 1206 1132 1206 1149 1187 1187 1132 1187 1187 1168 1149 1115 1098 1098 1132 1149 1115 1115 1132 1132 1168 1168 1149 1132 1149 1187 1206 1206 1206 1187 1098 1115 1082 1051 1022 1036 1066 1066 1051 1082 1098 1149 1149 1226 1247 1226 1226 1247 1247 1226 1247 1226 1226 1226 1206 1206 1132 1115 1149 1149 1149 1168 1132 0 1115 1149 1149 1082 1051 1082 1082 1066 1115 1115 1098 1115 1115 1132 1115 1132 1168 1098 1082 1098 1098 1132 1132 1115 1098 0 1115 1149 1187 1149 1115 1115 1115 1149 1206 1115 1132 1098 1066 1066 1066 1066 1066 1051 1051 1022 1008 1022 1008 1008 1008 1008 1022 1022 1022 1082 1082 1066 1098 1098 1149 1149 1132 1187 1115 1115 1226 1051 1051 1051 1066 1066 1115 1051 1008 1098 1098 1098 1206 994 0 0 919 0 955 908 0 981 1036 1066 1051 1098 1036 1066 1066 1051 1082 1098 1098 1132 1115 1098 1051 1036 1036 1022 994 994 994 994 955 886 931 897 876 886 897 897 886 897 908 865 855 0 808 750 758 743 743 735 735 728 735 721 743 700 714 694 681 651 657 634 645 639 651 645 645 645 639 639 645 623 623 593 570 570 549 537 537 518 537 533 537 537 533 0 0 0 0 0
    0 0 0 0 0 0 0 0 0 0 0 0 0 0 0 0 0 0 0 0 0 0 0 0 0 0 0 0 0 0 0 0 0 0 0 0 0 0 0 0 0 0 0 0 0 0 0 0 0 0 0 0 0 0 0 0 0 0 0 0 0 0 0 0 0 0 0 0 0 1314 0 0 0 0 0 0 0 0 588 0 0 1247 1226 1206 1226 1247 1247 1168 1206 1149 1168 1149 1132 1187 1187 1149 1149 1115 1098 1082 1149 1149 1098 1115 1132 1132 1149 1168 1149 1132 1149 1187 1187 1187 1187 1168 1098 1115 1082 1051 1036 1051 1066 1066 1051 1082 1098 1149 1149 1226 1247 1247 1226 1268 1247 1226 1247 1226 1226 1247 1226 1226 1132 1149 1168 1168 1168 1168 0 0 1132 1149 1132 1066 1066 1098 1082 1066 1115 1098 1098 1115 1115 1132 1115 1132 1168 1082 1098 1115 1115 1132 1132 1115 1098 0 1115 1149 1168 1132 1115 1098 1098 1115 1168 1098 1098 1082 1051 1051 1051 1051 1066 1051 1051 1008 1008 1008 1022 1008 1008 1008 1008 1022 1022 1082 1082 1051 1098 1098 1132 1149 1132 1187 1115 1115 1226 1066 1051 1051 1066 1082 1115 1008 994 1098 1098 1149 1268 0 0 0 0 0 0 826 845 886 0 1066 1051 1082 1022 0 1051 1051 1066 1066 1051 1082 1066 1066 1036 1036 1036 1022 1008 994 994 994 968 886 919 897 876 886 897 897 886 897 919 876 865 855 817 750 758 735 743 735 735 728 735 728 750 714 728 700 687 651 651 629 645 639 645 645 645 639 639 639 645 629 629 598 566 566 545 537 533 518 533 533 537 537 529 0 0 0 0 0
    0 0 0 0 0 0 0 0 0 0 0 0 0 0 0 0 0 0 0 0 0 0 0 0 0 0 0 0 0 0 0 0 0 0 0 0 0 0 0 0 0 0 0 0 0 0 0 0 0 0 0 0 0 0 0 0 0 0 0 0 0 0 0 0 0 0 0 0 0 1314 1314 1314 0 0 0 0 0 0 0 0 1268 1187 1168 1132 0 0 1226 1115 1206 1115 1115 0 1098 1132 1132 1098 1098 1098 1098 1082 1149 1149 1098 1115 1132 1149 1149 1149 1149 1132 1149 1187 1187 1187 1168 1149 1115 1115 1082 1051 1036 1051 1066 1066 1066 1082 1115 1149 1149 1247 1268 1268 1247 1268 1247 1226 1247 1226 1291 1291 1268 1226 1149 1168 1187 1187 1187 1168 0 0 1149 1187 1149 1066 1066 1098 1066 1082 1115 1098 1098 1115 1115 1132 1115 1149 1168 1082 1098 1115 1115 1132 1132 1132 1098 0 1115 1149 1149 1115 1115 1098 1098 1098 1149 1115 1098 1066 1036 1036 1036 1036 1051 1051 1036 1008 1008 1008 1008 1008 1008 1008 981 1022 1008 1066 1066 1051 1098 1082 1115 1149 1115 1168 1115 1115 1226 1066 1066 1066 1082 1115 1149 1036 0 1149 1149 0 1291 0 0 0 0 0 0 0 0 0 0 1098 1082 1082 1022 0 1036 1036 1051 1051 1051 1051 1036 1051 1036 1036 1022 1008 1008 1008 1008 1008 968 886 919 897 876 886 897 897 886 897 931 886 865 876 826 750 758 735 735 735 735 728 735 728 743 721 735 707 694 663 657 634 645 639 645 645 645 639 639 639 645 629 623 598 566 561 541 537 529 518 529 529 533 533 529 0 0 0 0 0
    0 0 0 0 0 0 0 0 0 0 0 0 0 0 0 0 0 0 0 0 0 0 0 0 0 0 0 0 0 0 0 0 0 0 0 0 0 0 0 0 0 0 0 0 0 0 0 0 0 0 0 0 0 0 0 0 0 0 0 0 0 0 0 0 0 0 0 0 0 1338 1338 1362 1314 1206 0 0 0 0 0 1226 1226 1149 1115 0 0 0 0 1098 1187 1098 1098 0 1066 1082 1082 1066 1066 1082 1098 1082 1149 1149 1098 1132 1132 1168 1149 1149 1149 1132 1149 1187 1168 1168 1149 1149 1115 1115 1082 1066 1051 1066 1082 1082 1082 1098 1168 1168 1168 1247 1291 1291 1268 1291 1268 1226 1247 1226 1247 1268 1247 1206 1115 1168 1206 1187 1187 0 0 1149 1168 1187 1149 1066 1066 1098 1066 1082 1115 1098 1098 1115 1115 1132 1115 1149 1168 1082 1098 1132 1132 1115 1115 1132 1098 0 1115 0 1132 1115 1132 1132 1115 1115 1187 1149 1115 1082 1051 1036 1036 1036 1036 1036 1022 994 994 994 994 994 994 994 955 1008 1008 1051 1051 1036 1082 1082 1098 1132 1115 1168 1115 1115 1226 1082 1066 1066 1082 1149 1187 1082 1051 1168 1168 1268 1291 0 1711 1711 1599 1565 1565 0 0 0 0 0 0 1082 0 0 1022 1022 1051 1036 1036 1051 1036 1036 1022 1036 1036 1022 1022 1022 1022 1008 981 886 919 897 876 876 897 886 886 897 931 886 876 876 836 743 750 728 735 728 728 728 728 728 743 721 728 700 687 669 657 634 645 639 645 645 645 639 639 639 651 634 634 598 561 557 537 537 0 518 529 529 533 533 525 0 0 0 0 0
    0 0 0 0 0 0 0 0 0 0 0 0 0 0 0 0 0 0 0 0 0 0 0 0 0 0 0 0 0 0 0 0 0 0 0 0 0 0 0 0 0 0 0 0 0 0 0 0 0 0 0 0 0 0 0 0 0 0 0 0 0 0 0 0 0 0 0 0 0 1388 1362 1388 1338 1247 1168 0 0 1098 1168 1168 1149 1115 1098 1115 0 0 0 0 1206 1132 1098 0 1066 1082 1066 1051 1066 1098 1115 1082 1168 1187 1132 1149 1149 1187 1168 1149 1149 1149 1149 1187 1168 1149 1132 1149 1132 1115 1098 1082 1051 1082 1098 1098 1082 1132 1187 1168 1187 1247 1291 1291 1268 1291 1268 1226 1206 1206 1206 1247 1206 1168 1098 1168 1206 1206 1206 1187 1168 1168 1187 1206 1149 1066 1066 1082 1066 1066 1115 1082 1098 1098 1115 1132 1115 1149 1149 1082 1098 1132 1149 1115 1115 1132 0 0 1132 1168 1132 1132 1168 1168 1149 1168 1206 1187 1168 1098 1066 1066 1036 1051 1051 1036 1022 994 994 994 994 994 994 994 943 994 994 1051 1051 1036 1066 1066 1098 1132 1098 1149 1098 1098 1206 1082 1066 1066 1082 1187 1168 1082 1036 1149 1132 1132 1226 0 0 1711 1599 1565 1501 0 0 0 1206 1098 1066 1066 1008 0 981 1008 1022 1022 1008 1036 1008 1022 1022 1051 1036 1022 1022 1022 1036 1022 1008 897 919 908 876 876 897 886 886 897 931 876 865 855 826 735 743 728 728 728 728 721 728 721 735 714 721 700 694 675 663 634 645 639 645 645 645 639 645 645 657 645 657 603 570 561 545 541 0 521 533 533 537 537 525 0 0 0 0 0
    0 0 0 0 0 0 0 0 0 0 0 0 0 0 0 0 0 0 0 0 0 0 0 0 0 0 0 0 0 0 0 0 0 0 0 0 0 0 0 0 0 0 0 0 0 0 0 0 0 0 0 0 0 0 0 0 0 0 0 0 0 0 0 0 0 0 0 0 0 1362 1338 1338 1291 1226 1187 1082 1149 1098 1149 1132 1115 1098 1082 1098 1115 0 1149 0 1187 1115 1066 1082 1051 1051 1066 1036 1051 1098 1132 1098 1168 1187 1132 1168 1168 1187 1168 1149 1149 1149 1149 1187 1149 1149 1132 1149 1132 1115 1115 1098 1066 1082 1115 1115 1098 1149 1206 1168 1187 1268 1291 1291 1268 1338 1247 1226 1206 1187 1187 1247 1187 1149 1098 1187 1206 1206 1206 1187 1168 1149 1187 1206 1115 1051 1051 1066 1051 1066 1098 1082 1082 1098 1115 1132 1115 1149 1132 1066 1098 1149 1132 1115 1115 1115 0 0 1149 1149 1132 1132 1187 1187 1168 1187 1206 1187 1149 1098 1082 1066 1051 1066 1066 1066 1051 1008 1008 1008 994 1008 994 994 955 994 994 1051 1051 1036 1066 1066 1098 1115 1098 1149 1082 1098 1187 1098 1066 1051 1082 1206 1149 1066 1008 1132 1132 1051 1206 0 0 1635 1501 1443 1362 0 1291 1187 1149 1082 1066 1066 1022 1008 994 1008 1022 1036 1036 1036 1008 1008 1022 1051 1036 1022 1022 1036 1036 1022 1022 897 931 908 886 876 886 886 886 886 931 865 855 836 826 735 735 721 721 721 721 721 721 721 728 714 721 700 694 675 663 634 639 634 645 639 639 639 639 639 651 639 651 603 574 570 553 549 0 529 0 537 541 537 529 0 0 0 0 0
    0 0 0 0 0 0 0 0 0 0 0 0 0 0 0 0 0 0 0 0 0 0 0 0 0 0 0 0 0 0 0 0 0 0 0 0 0 0 0 0 0 0 0 0 0 0 0 0 0 0 0 0 0 0 0 0 0 0 0 0 0 0 0 0 0 0 0 0 0 1338 1314 1314 1268 1268 1247 1187 1226 1187 1247 1206 1187 1149 1115 1115 1132 1115 1132 1115 0 1132 0 1066 1051 1036 1051 1036 1051 1082 1132 1098 1149 1168 1149 1168 1168 1187 1187 1132 1149 1168 1168 1187 1149 1149 1115 1149 1149 1098 1132 1115 1082 1098 1115 1115 1098 1149 1206 1149 1149 1247 1291 1291 1268 1338 1247 1206 1168 1168 1149 1206 1149 1098 1082 1187 1206 1226 1187 1187 1168 1149 1187 1187 1098 1051 1051 1066 1051 1082 1098 1082 1098 1115 1115 1132 1115 1168 1132 1082 1132 1187 1168 1149 1132 1149 0 0 1168 1149 1132 1132 1187 1168 1149 1187 1168 1187 1132 1082 1082 1066 1066 1082 1066 1098 1066 1036 1022 1008 1008 1008 994 994 955 1008 1008 1051 1051 1036 1066 1066 1082 1115 1082 1149 1082 1082 1149 1098 1051 1036 1051 1115 1022 994 968 994 1022 994 1036 0 0 1415 1362 0 1291 1206 1268 1168 1132 1082 1082 1066 1036 1022 1022 1022 1022 1036 1036 1022 1008 1008 1022 1051 1036 1036 1036 1036 1051 1036 1036 908 931 908 886 865 886 886 886 897 931 876 865 855 845 743 735 721 721 721 721 721 721 721 728 714 721 714 700 681 663 634 639 634 639 639 639 639 634 639 645 639 639 603 584 579 561 553 0 0 545 0 0 541 529 0 0 0 0 0
    0 0 0 0 0 0 0 0 0 0 0 0 0 0 0 0 0 0 0 0 0 0 0 0 0 0 0 0 0 0 0 0 0 0 0 0 0 0 0 0 0 0 0 0 0 0 0 0 0 0 0 0 0 0 0 0 0 0 0 0 0 0 0 0 0 0 0 0 0 1314 1291 1314 1291 1314 1291 1268 1268 1247 1291 1247 1226 1149 1149 1132 1132 1132 1149 1132 1187 1149 1098 1098 1066 1066 1066 1036 1051 1082 1132 1098 1149 1168 1149 1168 1168 1187 1168 1132 1168 1168 1168 1187 1149 1132 1115 1132 1149 1082 1132 1132 1082 1098 1115 1115 1098 1149 1206 1132 1149 1247 1268 1268 1268 1388 1268 1226 1187 1187 1149 1247 1132 1066 1082 1226 1226 1247 1206 1206 1168 1168 1187 1187 1082 1051 1051 1066 1051 1082 1082 1082 1098 1098 1115 1132 1115 1187 1115 1066 1149 1206 1187 1187 1168 0 0 0 1187 1149 1132 1149 1187 1168 1149 1187 1149 1206 1149 1098 1098 1082 1082 1098 1082 1149 1082 1051 1036 1022 1008 1008 1008 1022 994 1022 1008 1036 1051 1036 1051 1066 1082 1098 1066 1132 1082 1082 1132 1115 1051 1036 1051 1082 994 968 943 931 968 919 981 968 0 0 0 0 0 1168 1268 1168 1132 1082 1098 1066 1051 1022 1022 1022 1008 1036 1036 1022 1008 1008 1036 1051 1036 1036 1051 1051 1051 1051 1036 897 919 908 886 865 886 886 897 897 931 876 865 855 855 743 735 721 721 721 721 721 721 721 728 721 721 714 694 681 657 634 634 634 639 639 639 639 639 639 645 639 639 608 588 588 570 557 0 0 0 0 0 537 529 0 0 0 0 0
    0 0 0 0 0 0 0 0 0 0 0 0 0 0 0 0 0 0 0 0 0 0 0 0 0 0 0 0 0 0 0 0 0 0 0 0 0 0 0 0 0 0 0 0 0 0 0 0 0 0 0 0 0 0 0 0 0 0 0 0 0 0 0 0 0 0 0 0 0 1314 1268 1314 1291 1314 1314 1314 1291 1247 1268 1226 1187 1115 1098 1098 1098 1098 1132 1132 1168 1149 1115 1098 1066 1066 1082 1051 1036 1098 1149 1098 1149 1168 1149 1168 1168 1206 1168 1132 1168 1168 1168 1187 1149 1115 1115 1132 1149 1066 1132 1132 1082 1098 1115 1115 1098 1149 1206 1132 1132 1247 1268 1268 1247 1443 1291 1291 1187 1206 0 0 1206 0 1115 1268 1247 1268 1206 1206 1168 1168 1187 1168 1082 1051 1051 1066 1051 1082 1082 1066 1082 1098 1115 1132 1115 1187 1098 1066 1168 1247 1247 1226 1226 0 0 0 1206 1149 1132 1149 1187 1168 1149 1187 1132 1206 1168 1098 1098 1082 1066 1098 1066 1149 1082 1051 1036 1036 1022 1036 1036 1036 1022 1051 1022 1051 1051 1051 1051 1066 1082 1082 1066 1098 1082 1082 1115 1132 1051 1051 1082 1132 1008 1036 981 981 0 968 1022 1008 0 0 0 0 0 0 0 1168 1132 1066 1082 1051 1051 1022 1022 1036 1008 1036 1051 1022 1008 1008 1036 1051 1036 1036 1051 1051 1066 1066 1036 876 908 897 886 865 886 886 897 886 943 876 865 855 855 735 728 714 721 721 721 721 721 721 735 721 728 0 700 681 651 629 634 634 639 639 639 639 639 639 645 645 639 608 588 588 570 557 357 0 0 0 0 0 529 0 0 0 0 0
    0 0 0 0 0 0 0 0 0 0 0 0 0 0 0 0 0 0 0 0 0 0 0 0 0 0 0 0 0 0 0 0 0 0 0 0 0 0 0 0 0 0 0 0 0 0 0 0 0 0 0 0 0 0 0 0 0 0 0 0 0 0 0 0 0 0 0 0 0 1314 1268 1314 1314 1314 1314 1314 1314 1268 1268 1247 1187 1115 1082 1082 1098 1082 1115 1132 1168 1132 1098 1098 1082 1066 1098 1066 1036 1098 1168 1098 1149 1168 1149 1168 1168 1206 1168 1115 1187 1168 1168 1187 1149 1115 1115 1132 1168 1066 1132 1132 1082 1098 1115 1115 1098 1149 1187 1115 1132 1247 1247 1247 1247 1533 1314 0 1226 1268 0 0 0 0 1268 1314 0 1338 1226 1226 1187 1187 1187 1149 1082 1051 1051 1051 1051 1066 1066 1066 1082 1082 1115 1132 1115 1187 1115 0 0 0 0 1314 1314 0 0 1226 1226 1168 1149 1149 1206 1187 1187 1226 0 0 1187 1132 1168 1082 1051 1082 1036 1115 1066 1051 1051 1036 1022 1051 1066 1051 1051 1066 1036 1051 1051 1051 1051 1066 1082 1066 1051 1082 1082 1082 1115 1149 1051 1051 1115 1187 1022 1115 1022 0 1066 0 1066 1082 1187 1226 0 0 0 0 0 1132 1082 1036 1051 1036 1036 994 1022 1022 1008 1036 1051 1022 1008 1022 1036 1036 1036 1051 1066 1066 1082 1115 1051 865 897 886 876 855 886 886 886 886 931 876 865 845 855 743 728 714 721 721 721 721 721 721 735 721 728 0 694 681 651 629 634 634 639 634 634 634 634 0 645 0 0 0 584 588 570 561 0 541 0 0 0 0 529 0 0 0 0 0
    0 0 0 0 0 0 0 0 0 0 0 0 0 0 0 0 0 0 0 0 0 0 0 0 0 0 0 0 0 0 0 0 0 0 0 0 0 0 0 0 0 0 0 0 0 0 0 0 0 0 0 0 0 0 0 0 0 0 0 0 0 0 0 0 0 0 0 0 0 1314 1268 1314 1314 1314 1338 1338 1314 1314 1268 1268 1206 1115 1066 1066 1098 1082 0 0 1168 1149 1098 1132 1098 1051 0 0 0 1132 1187 1115 1168 1187 1168 1168 1187 1206 1168 1132 1187 1187 1187 1168 1149 1115 1115 1149 1168 1066 1149 1149 1098 1098 1115 1115 1082 1132 1187 1115 1115 1226 1226 1247 1226 1533 1291 1314 1268 1314 1415 1443 0 0 1362 1388 1672 1443 1268 1268 1187 1187 1187 1149 1132 1082 1051 1051 1051 1051 0 0 0 0 0 0 0 0 0 0 314 0 0 0 1388 0 0 1268 1268 1206 1206 1187 1291 1247 1314 0 0 0 0 1206 1268 1132 1066 1082 1036 1051 1036 1051 1036 1022 1008 1036 1051 1036 1066 1066 1036 1036 1036 1036 1036 1066 1066 1051 1051 1082 1082 1082 1098 1168 1051 1066 1132 1206 1098 0 0 0 0 0 1082 1132 1206 1206 0 1206 1187 1132 1187 1115 1066 1051 1051 1036 1036 968 981 994 981 1008 1022 1008 1008 1022 1051 1051 1051 1066 1066 1082 1098 1187 1051 0 876 876 865 845 886 886 886 876 931 876 865 855 855 743 735 721 721 728 721 721 721 721 735 721 721 0 694 0 657 634 634 634 639 634 634 634 634 0 0 0 0 0 579 584 570 561 0 545 0 0 0 0 529 0 0 0 0 0
    0 0 0 0 0 0 0 0 0 0 0 0 0 0 0 0 0 0 0 0 0 0 0 0 0 0 0 0 0 0 0 0 0 0 0 0 0 0 0 0 0 0 0 0 0 0 0 0 0 0 0 0 0 0 0 0 0 0 0 0 0 0 0 0 0 0 0 0 0 1268 1226 1268 1314 1314 1338 1338 1338 1338 1314 1338 1314 1247 1206 1187 1187 1132 1149 1187 1206 1187 1115 1132 0 1051 0 0 0 1168 1206 1132 1168 1187 1187 1187 1187 1206 1168 1132 1206 1187 1187 1168 1132 1132 1132 1168 1187 1066 1149 1149 1098 1098 1098 1115 1082 1132 1187 1098 1098 1206 1226 1226 1226 1471 1291 1314 1268 1314 1314 0 0 0 1388 0 0 0 0 0 1187 1149 1115 1082 1115 1082 1036 1036 1066 0 0 0 0 0 0 0 0 0 0 314 313 0 0 0 0 0 0 1268 1247 1206 1247 1268 1338 0 0 0 0 0 0 0 1268 1132 1066 1066 1022 1036 1022 1036 1022 1022 994 1036 1066 1051 1066 1066 1036 1036 1036 1036 1036 1066 1066 1051 1051 1066 1082 1082 1098 1187 1066 1082 1149 1187 0 0 0 0 0 1036 1051 1098 1149 1132 1206 1115 1132 1115 1132 1098 1066 1051 1066 1051 0 0 981 1008 981 1008 1008 994 994 1022 1051 1051 1051 1066 1051 1082 1098 1206 1051 0 865 855 855 845 876 886 886 876 931 886 876 845 855 750 735 721 721 728 721 721 721 721 735 721 721 714 694 0 657 634 634 634 634 634 634 634 634 0 0 0 0 603 574 584 570 561 0 545 0 0 0 0 533 0 0 0 0 0
    0 0 0 0 0 0 0 0 0 0 0 0 0 0 0 0 0 0 0 0 0 0 0 0 0 0 0 0 0 0 0 0 0 0 0 0 0 0 0 0 0 0 0 0 0 0 0 0 0 0 0 0 0 0 0 0 0 0 0 0 0 0 0 0 0 0 0 0 0 1206 1168 1247 1314 1314 1338 1362 1362 1362 1362 1415 1388 1362 1338 1268 1247 1187 0 1226 1247 1206 1132 1132 1115 1036 0 0 0 1168 1206 1149 1168 1168 1187 1187 1187 1206 1149 1132 1206 1187 1187 1168 1132 1132 1149 1168 1149 1066 1149 1149 1098 1098 1098 1098 1066 1115 1168 1098 1098 1206 1206 1206 1206 1415 1268 1291 1268 1338 1338 1443 0 1635 1443 0 0 0 0 0 0 1098 1082 1051 1098 1082 1036 1051 0 0 0 0 0 0 0 0 0 317 314 314 313 0 0 0 0 0 0 0 1247 1226 1291 0 0 0 0 0 0 0 0 0 0 1149 0 1082 1036 1036 1022 1066 1036 1022 1008 1036 1066 1051 1066 1066 1051 1022 1036 1036 1022 1066 1066 1051 1051 1066 1098 1098 1115 1206 1082 1115 1168 1168 0 0 0 0 0 981 1008 1051 1082 1082 1066 1036 0 1066 1066 1051 0 0 0 0 0 0 994 1022 1022 1036 1022 994 994 1022 1036 1036 1022 1036 1022 1036 1051 1115 1036 0 845 845 845 836 876 876 876 865 919 886 876 845 855 750 735 721 721 728 728 728 728 721 735 721 728 721 694 681 651 634 629 634 634 634 634 634 634 0 0 0 0 603 566 579 561 557 553 545 0 0 0 0 533 0 0 0 0 0
    0 0 0 0 0 0 0 0 0 0 0 0 0 0 0 0 0 0 0 0 0 0 0 0 0 0 0 0 0 0 0 0 0 0 0 0 0 0 0 0 0 0 0 0 0 0 0 0 0 0 0 0 0 0 0 0 0 0 0 0 0 0 0 0 0 0 0 0 0 1187 1132 1226 1314 1314 1362 1388 1415 1415 1415 1501 1471 1471 1443 1314 1247 1098 0 1226 1226 1187 1115 1132 1115 1051 0 0 0 1149 1187 1132 1149 1149 1168 1168 1168 1187 1132 1132 1187 1187 1187 1168 1149 1132 1149 1187 1132 1051 1132 1149 1082 1082 1082 1082 1066 1115 1168 1082 1082 1187 1187 1187 1187 1314 1226 1187 1247 1314 1291 1415 1415 1672 1533 0 0 0 0 0 0 1082 1066 1036 1066 1066 1051 0 0 0 0 0 0 0 0 0 0 0 314 315 0 0 0 0 0 0 0 0 0 0 0 0 0 0 669 0 0 675 663 0 0 1098 0 1051 1036 1036 1022 1051 0 1022 981 1036 1066 1051 1082 1082 1051 1022 1022 1036 1022 1051 1051 1051 1051 1066 1115 1098 1115 1206 1098 1149 0 0 0 0 0 0 0 943 981 1051 1066 1066 0 0 0 0 1066 1036 0 0 0 0 0 0 1008 1036 1051 1066 1036 1008 994 1036 1036 1022 1022 1036 1022 1036 1022 1051 1022 836 836 836 836 836 876 876 876 865 908 886 876 855 855 766 743 728 728 728 728 728 735 728 743 728 743 728 700 687 645 634 629 634 634 634 634 634 634 634 634 634 0 603 566 579 561 557 549 545 0 0 0 0 533 0 0 0 0 0</data></depth>
</opencv_storage>
