<?xml version="1.0"?>
<opencv_storage>
<gps_time_stamp>317308</gps_time_stamp>
<gps_x>-1.2399988174438477e+001</gps_x>
<gps_y>1.0945762634277344e+001</gps_y>
<gps_z>-1.9668264389038086e+000</gps_z>
<image_time_stamp>308160</image_time_stamp>
<depth type_id="opencv-matrix">
  <rows>82</rows>
  <cols>320</cols>
  <dt>s</dt>
  <data>
    0 0 0 0 0 0 0 0 0 0 0 0 0 0 0 0 0 0 0 0 0 0 0 0 0 0 0 0 0 0 0 0 0 0 0 0 0 0 0 0 0 0 0 0 0 0 0 0 0 0 0 0 0 0 0 0 0 0 0 0 0 0 0 0 0 0 0 0 0 1115 1115 1115 1082 1098 1098 1066 1098 1098 1098 1082 1082 1132 1098 1115 1149 1115 1115 1115 1115 1168 1168 1206 1206 1187 1226 1247 1268 1415 1388 1388 1388 1443 1415 1471 1471 1501 1501 0 0 0 0 0 0 0 0 0 0 0 0 0 0 0 0 0 0 0 0 0 0 0 0 0 0 0 0 0 0 0 6690 0 6133 5661 5661 5661 6133 7359 6690 6133 6133 5661 6133 6690 7359 6690 5661 6133 6690 6690 7359 7359 6690 5661 6133 7359 6690 6690 6690 8177 8177 9199 0 0 0 0 0 2537 1989 1936 2044 1989 1936 1839 1839 1795 1795 1752 1711 1565 1443 1443 1415 1268 1314 1291 1206 1226 1226 1187 1187 1187 1187 1149 1098 1115 1036 1036 1022 968 943 943 943 931 919 931 908 865 865 876 865 845 782 791 782 782 791 743 721 721 714 0 669 657 639 639 0 0 0 0 0 0 0 0 0 0 0 574 0 0 0 0 0 0 529 525 521 518 507 511 497 497 493 490 484 474 471 468 459 0 457 0 0 0 0 0 2453 2537 2628 0 2628 2537 2537 0 0 0 629 0 0 0 0 639 634 639 0 199 198 197 0 0 0 389 389 391 389 0 383 0 0 0 0 336 334 334 337 340 339 0 0 0 0 0
    0 0 0 0 0 0 0 0 0 0 0 0 0 0 0 0 0 0 0 0 0 0 0 0 0 0 0 0 0 0 0 0 0 0 0 0 0 0 0 0 0 0 0 0 0 0 0 0 0 0 0 0 0 0 0 0 0 0 0 0 0 0 0 0 0 0 0 0 0 1132 1132 1132 1082 1098 1098 1066 1098 1082 1098 1082 1082 1132 1098 1115 1149 1115 1132 1132 1132 1168 1168 1206 1206 1187 1226 1247 1268 1362 1388 1388 1388 1415 1443 1471 1471 1471 1471 1501 0 0 0 0 0 0 0 0 0 0 0 0 0 0 0 0 0 0 0 0 0 0 0 0 0 0 0 0 0 0 6690 0 6690 6133 6133 6690 6690 7359 7359 6690 6690 5661 6133 6690 6690 6133 5661 5661 6133 6133 7359 7359 6690 6133 7359 8177 7359 7359 7359 8177 8177 8177 0 0 0 0 0 2537 1989 1839 1936 1936 1887 1752 1795 1795 1752 1711 1711 1533 1415 1443 1471 1291 1291 1291 1206 1226 1226 1187 1187 1187 1187 1149 1098 1115 1036 1022 1022 981 943 943 943 931 943 931 919 865 876 886 876 845 791 799 791 782 791 743 714 714 714 0 0 0 0 639 0 0 0 0 0 0 0 0 0 0 0 574 0 0 0 0 0 0 525 525 518 514 504 507 493 493 493 487 484 471 471 468 0 0 0 0 0 2044 0 0 2374 2537 2628 0 2725 2537 2453 0 0 0 618 0 0 0 0 634 629 634 0 199 198 196 0 0 0 385 385 385 383 0 375 0 0 0 0 337 336 336 339 340 339 0 0 0 0 0
    0 0 0 0 0 0 0 0 0 0 0 0 0 0 0 0 0 0 0 0 0 0 0 0 0 0 0 0 0 0 0 0 0 0 0 0 0 0 0 0 0 0 0 0 0 0 0 0 0 0 0 0 0 0 0 0 0 0 0 0 0 0 0 0 0 0 0 0 0 1132 1132 1132 1098 1098 1115 1066 1098 1082 1098 1082 1082 1132 1115 1115 1149 1132 1149 1132 1149 1187 1187 1206 1226 1187 1226 1226 1247 1291 1338 1362 1362 1388 1415 1443 1471 1471 1471 1501 1501 0 0 0 0 0 0 0 0 0 0 0 0 0 0 0 0 0 0 0 0 0 0 0 0 0 0 0 0 0 6690 0 7359 6690 6133 6133 6690 7359 7359 7359 6690 5661 6690 7359 7359 6690 6133 6133 6133 6690 7359 7359 6690 6133 6690 8177 7359 7359 6690 8177 8177 8177 0 0 5256 3199 0 2830 2044 1839 1936 1936 1887 1752 1752 1752 1752 1711 1711 1533 1415 1415 1533 1291 1291 1291 1226 1247 1226 1187 1206 1187 1187 1168 1098 1115 1051 1036 1036 968 931 943 943 931 931 919 919 876 876 886 876 845 799 799 0 782 782 743 0 0 0 0 0 0 0 639 0 0 0 0 0 634 623 0 0 0 0 574 0 0 0 0 0 0 525 521 518 511 500 504 490 490 490 484 481 468 468 468 0 0 0 0 0 2537 0 2537 2453 2628 2628 2725 2725 2537 2537 0 0 0 618 0 0 0 0 0 0 0 0 199 197 0 0 0 0 379 379 373 0 0 0 352 0 0 0 337 337 337 339 340 339 0 0 0 0 0
    0 0 0 0 0 0 0 0 0 0 0 0 0 0 0 0 0 0 0 0 0 0 0 0 0 0 0 0 0 0 0 0 0 0 0 0 0 0 0 0 0 0 0 0 0 0 0 0 0 0 0 0 0 0 0 0 0 0 0 0 0 0 0 0 0 0 0 0 0 1149 1132 1149 1098 1098 1115 1082 1098 1098 1115 1082 1082 1115 1115 1098 1132 1132 1149 1132 1168 1187 1187 1206 1226 1206 1226 1226 1247 1291 1338 1362 1362 1415 1443 1443 1471 1471 1471 1501 1501 0 0 0 0 0 0 0 0 0 0 0 0 0 0 0 0 0 0 0 0 0 0 0 0 0 0 0 0 0 6133 0 6690 6690 6133 6133 6690 7359 7359 7359 7359 6133 6690 7359 7359 7359 6133 6690 6133 6690 8177 8177 7359 6690 6690 8177 7359 7359 6690 8177 8177 8177 0 8177 5661 3504 0 3066 2299 1936 2044 2044 1936 1795 1795 1752 1752 1711 1711 1533 1415 1415 1533 1291 1268 1291 1226 1226 1226 1168 1187 1187 1168 1168 1098 1115 1051 1036 1051 981 943 955 943 931 931 908 908 865 876 876 855 845 799 799 0 782 782 743 707 0 0 0 0 669 657 639 645 0 0 0 0 645 629 0 0 0 0 574 0 0 0 0 0 0 0 521 0 507 497 500 490 493 0 0 481 468 468 471 0 0 0 0 0 2943 3066 2725 2537 2628 2628 2830 2725 2628 2628 0 0 0 618 0 0 0 0 0 0 0 0 0 0 0 0 0 0 371 373 366 0 0 360 350 345 340 339 337 337 337 339 339 337 0 0 0 0 0
    0 0 0 0 0 0 0 0 0 0 0 0 0 0 0 0 0 0 0 0 0 0 0 0 0 0 0 0 0 0 0 0 0 0 0 0 0 0 0 0 0 0 0 0 0 0 0 0 0 0 0 0 0 0 0 0 0 0 0 0 0 0 0 0 0 0 0 0 0 1187 1168 1187 1149 1132 1149 1098 1115 1115 1132 1098 1098 1115 1132 1098 1132 1132 1149 1132 1168 1187 1206 1206 1226 1226 1226 1226 1247 1268 1338 1362 1388 1415 1443 1443 1443 1501 1501 1501 1501 1533 0 0 0 0 0 0 0 0 0 0 0 0 0 0 0 0 0 0 0 0 0 0 0 0 0 0 0 0 7359 0 7359 7359 7359 7359 6690 8177 7359 7359 7359 6133 6133 6690 6690 6690 5661 6133 5661 6690 8177 8177 8177 7359 7359 0 8177 8177 7359 8177 8177 8177 0 8177 5661 3873 3345 3066 2374 2044 2164 2102 1936 1795 1795 1752 1711 1711 1672 1501 1415 1415 1533 1291 1226 1268 1206 1206 1206 1168 1168 1168 1149 1168 1098 1115 1066 1036 1051 981 943 955 943 931 919 897 897 865 855 855 836 826 791 782 0 774 774 743 707 707 707 0 675 669 663 639 651 639 645 639 0 657 634 639 0 0 0 574 0 0 0 0 0 0 0 521 0 0 0 504 0 0 0 0 0 465 468 471 0 0 462 0 0 3199 3345 2943 2725 2725 0 2943 2830 2725 0 0 422 0 0 0 375 369 362 0 0 359 0 0 0 0 362 364 362 366 367 362 362 357 355 348 345 342 340 339 339 337 339 339 336 0 0 0 0 0
    0 0 0 0 0 0 0 0 0 0 0 0 0 0 0 0 0 0 0 0 0 0 0 0 0 0 0 0 0 0 0 0 0 0 0 0 0 0 0 0 0 0 0 0 0 0 0 0 0 0 0 0 0 0 0 0 0 0 0 0 0 0 0 0 0 0 0 0 0 1247 1226 1226 1206 1168 1187 1168 1149 1149 1149 1115 1115 1132 1132 1115 1132 1132 1149 1149 1168 1187 1206 1226 1226 1226 1247 1226 1247 1291 1338 1388 1415 1443 1471 1443 1471 1501 1533 1565 1533 1533 1565 0 0 0 0 0 0 0 0 0 0 0 0 0 0 0 0 0 0 0 0 0 0 0 0 0 0 0 5661 0 7359 6690 6690 6690 6690 8177 7359 7359 7359 6133 6690 6690 6690 6690 6133 6133 5661 6133 7359 8177 8177 7359 7359 0 8177 0 7359 8177 7359 7359 8177 8177 5256 3679 3345 3066 2453 2164 2164 2102 1989 1795 1795 1752 1711 1672 1672 1501 1415 1415 1565 1314 1206 1247 1206 1187 1187 1168 1168 1149 1149 1168 1115 1132 1098 1051 1051 981 931 955 943 919 908 886 876 855 845 836 817 808 782 766 774 766 766 743 714 0 0 0 0 675 669 645 657 645 657 645 645 663 639 645 0 0 0 574 0 0 0 0 0 0 0 0 0 0 0 0 0 0 0 0 0 462 465 471 0 0 0 0 0 3345 3504 3066 2830 2830 2830 3066 2830 2830 0 0 0 0 0 0 377 371 0 0 359 360 364 366 0 0 362 364 362 364 364 360 359 353 352 347 347 343 342 339 339 339 339 339 336 0 0 0 0 0
    0 0 0 0 0 0 0 0 0 0 0 0 0 0 0 0 0 0 0 0 0 0 0 0 0 0 0 0 0 0 0 0 0 0 0 0 0 0 0 0 0 0 0 0 0 0 0 0 0 0 0 0 0 0 0 0 0 0 0 0 0 0 0 0 0 0 0 0 0 1291 1268 1268 1247 1226 1247 1226 1206 1168 1168 1115 1115 1132 1132 1132 1132 1132 1168 1149 1187 1187 1206 1226 1226 1226 1247 1226 1247 1268 1338 1388 1415 1471 1471 1471 1471 1565 1533 1635 1599 1599 1599 1635 0 0 0 0 0 0 0 0 0 0 0 0 0 0 0 0 0 0 0 0 0 0 0 0 0 0 6133 0 8177 6133 6690 7359 6690 7359 6690 7359 6690 6133 6133 6133 6133 6133 6133 6133 5661 6133 7359 8177 8177 7359 7359 0 8177 0 7359 8177 6690 7359 8177 7359 5256 4088 3679 3199 2537 2299 2299 2230 1989 1839 1795 1752 1752 1711 1672 1501 1415 1415 1565 1314 1168 1226 1206 1187 1168 1149 1149 1149 1149 1187 1115 1132 1115 1082 1066 981 943 955 931 908 908 886 876 0 0 0 808 799 774 750 766 758 758 750 714 0 0 0 0 675 669 645 663 651 663 657 657 669 651 657 0 0 0 0 0 0 0 0 0 0 0 0 0 0 0 0 0 0 0 0 0 459 465 468 462 0 0 0 3679 3504 3873 3199 3066 3066 0 0 0 0 0 415 0 0 0 391 379 375 369 366 362 364 0 0 0 0 364 364 362 364 364 360 359 353 352 347 347 345 343 340 340 339 339 339 339 0 0 0 0 0
    0 0 0 0 0 0 0 0 0 0 0 0 0 0 0 0 0 0 0 0 0 0 0 0 0 0 0 0 0 0 0 0 0 0 0 0 0 0 0 0 0 0 0 0 0 0 0 0 0 0 0 0 0 0 0 0 0 0 0 0 0 0 0 0 0 0 0 0 0 1314 1291 1291 1268 1247 1291 1268 1226 1168 1168 1115 1098 1149 1115 1132 1149 1149 1187 1187 1206 1206 1226 1247 1247 1247 1247 1247 1268 1268 1338 1362 1388 1443 1501 1501 1501 1599 1599 1635 1672 1672 1672 1672 1711 0 0 0 0 0 0 0 0 0 0 0 0 0 0 0 0 0 0 0 0 0 0 0 0 7359 7359 0 0 8177 7359 8177 7359 7359 7359 7359 7359 6690 6690 6690 6690 6690 6133 6690 5661 6133 7359 8177 8177 7359 8177 0 8177 8177 6690 7359 6690 6690 7359 6133 4906 4088 3873 3199 2537 2374 2374 2299 2044 1839 1795 1752 1711 1711 1672 1501 1415 1443 1599 1314 1168 1226 1206 1168 1149 1149 1149 1132 1132 1168 1115 1115 1115 1066 1051 981 931 943 931 897 897 865 0 0 0 0 808 791 782 743 0 766 758 758 714 0 0 0 0 675 669 645 663 657 663 663 657 675 657 657 0 0 0 0 0 0 0 0 0 0 0 111 0 0 0 0 0 0 0 0 0 459 465 468 465 465 0 4599 4088 3679 4088 3345 3199 3199 3199 0 0 0 0 0 0 0 0 0 0 0 371 0 366 366 0 0 0 0 0 366 364 366 0 360 359 355 352 348 348 348 345 342 342 340 339 339 340 0 0 0 0 0
    0 0 0 0 0 0 0 0 0 0 0 0 0 0 0 0 0 0 0 0 0 0 0 0 0 0 0 0 0 0 0 0 0 0 0 0 0 0 0 0 0 0 0 0 0 0 0 0 0 0 0 0 0 0 0 0 0 0 0 0 0 0 0 0 0 0 0 0 0 1291 1291 1268 1268 1247 1291 1291 1247 1187 1168 1132 1098 1149 1115 1132 1149 1168 1187 1187 1206 1206 1206 1247 1247 1247 1247 1247 1268 1268 1338 1388 1388 1443 1533 1565 1533 1635 1635 1672 1711 1711 1752 1752 1795 1887 0 0 0 0 0 0 0 0 0 0 0 0 0 0 0 0 0 0 0 0 0 7359 7359 7359 7359 0 5661 8177 7359 8177 7359 7359 6690 7359 7359 6690 6690 6690 6690 6690 6133 6690 6133 6690 7359 8177 8177 8177 8177 0 8177 8177 6690 7359 6133 6133 6133 5661 4906 3873 3873 3199 2537 2453 2374 2299 2044 1839 1795 1752 1711 1711 1672 1501 1443 1443 1599 1338 1168 1226 1226 1168 1149 1149 1132 1115 1115 1168 1082 1082 1098 1036 1022 968 919 931 908 886 876 855 0 0 0 0 808 791 791 0 0 774 758 766 714 0 0 0 0 681 669 651 663 657 663 663 657 675 657 657 0 0 0 0 198 0 0 0 0 0 0 111 0 0 0 0 95 0 0 0 0 465 0 0 468 0 0 5256 4599 3873 4329 3504 0 3345 0 0 0 420 415 0 0 0 399 393 387 383 377 0 367 0 0 0 0 0 0 0 0 0 0 362 0 357 353 350 352 350 347 343 343 342 340 339 340 0 0 0 0 0
    0 0 0 0 0 0 0 0 0 0 0 0 0 0 0 0 0 0 0 0 0 0 0 0 0 0 0 0 0 0 0 0 0 0 0 0 0 0 0 0 0 0 0 0 0 0 0 0 0 0 0 0 0 0 0 0 0 0 0 0 0 0 0 0 0 0 0 0 0 1314 1291 1291 1268 1268 1291 1314 1268 1206 1187 1149 1115 1149 1115 1132 1132 1168 1187 1168 1206 1206 1206 1247 1247 1268 1268 1268 1291 1291 1388 1415 1415 1471 1501 1565 1565 1635 1635 1672 1711 1752 1795 1795 1839 1989 2164 0 0 0 0 0 0 0 0 0 0 0 0 0 0 0 0 0 8177 6690 7359 8177 8177 8177 8177 6690 4329 6133 6690 7359 6690 6690 6133 6690 6690 6690 6133 6690 6133 6690 6133 6690 6690 6690 7359 8177 8177 8177 7359 8177 7359 8177 6690 6690 6133 5661 6690 6133 5256 4599 4329 3345 2725 2453 2453 2299 2044 1839 1795 1752 1752 1711 1672 1501 1443 1443 1599 1338 1168 1226 1226 1149 1149 1132 1115 1115 1115 1149 1066 1066 1082 1008 1008 943 908 908 897 876 855 836 0 0 0 0 799 791 791 0 0 774 766 774 721 0 0 0 0 681 669 651 663 657 669 663 657 675 657 657 0 0 0 0 198 0 0 0 0 0 0 111 0 0 0 95 95 0 0 0 0 0 0 0 0 0 0 0 4906 4329 4599 3679 0 0 0 0 0 422 0 0 0 0 402 393 389 385 379 375 369 369 373 373 0 0 0 0 0 0 0 0 0 359 355 352 353 352 348 345 343 343 340 340 342 0 0 0 0 0
    0 0 0 0 0 0 0 0 0 0 0 0 0 0 0 0 0 0 0 0 0 0 0 0 0 0 0 0 0 0 0 0 0 0 0 0 0 0 0 0 0 0 0 0 0 0 0 0 0 0 0 0 0 0 0 0 0 0 0 0 0 0 0 0 0 0 0 0 0 1314 1338 1291 1291 1268 1291 1314 1291 1226 1206 1168 1132 1149 1132 1132 1132 1149 1168 1168 1206 1206 1206 1247 1247 1268 1268 1268 1291 1314 1415 1443 1443 1501 1533 1565 1565 1635 1672 1672 1711 1752 1795 1887 1936 2044 2164 0 0 0 0 0 0 0 0 0 0 0 0 0 0 4329 6133 7359 7359 5661 6133 6690 6690 6133 6690 6133 4088 5256 5661 5661 5661 5661 5661 6133 6133 6690 6133 6690 6690 7359 6690 7359 6690 7359 8177 8177 8177 7359 6690 8177 7359 7359 6690 6690 6133 6133 6690 5661 4906 4088 3679 3199 2628 2453 2453 2374 2044 1887 1887 1795 1795 1752 1672 1501 1415 1415 1599 1314 1168 1226 1226 1149 1132 1115 1098 1098 1098 1132 1051 1051 0 994 981 919 897 897 886 865 845 836 0 0 0 0 791 774 782 0 0 774 766 782 728 0 0 0 0 681 669 645 663 657 669 663 657 675 657 0 0 0 0 0 198 0 0 0 0 0 0 111 0 0 0 0 95 0 0 0 0 0 0 0 0 0 0 0 0 4329 4599 3679 0 3679 0 0 0 425 420 0 0 0 399 393 389 385 381 377 371 371 373 373 0 0 0 0 0 0 0 0 0 360 355 352 355 353 348 345 343 342 339 340 342 0 0 0 0 0
    0 0 0 0 0 0 0 0 0 0 0 0 0 0 0 0 0 0 0 0 0 0 0 0 0 0 0 0 0 0 0 0 0 0 0 0 0 0 0 0 0 0 0 0 0 0 0 0 0 0 0 0 0 0 0 0 0 0 0 0 0 0 0 0 0 0 0 0 0 1314 1338 1291 1291 1268 1291 1314 1268 1226 1206 1168 1149 1168 1132 1149 1115 1149 1168 1149 1187 1187 1206 1226 1226 1268 1268 1291 1291 1314 1415 1443 1471 1501 1565 1599 1565 1635 1672 1711 1711 1752 1839 1887 1936 2044 2164 2299 0 0 0 0 0 0 0 0 0 0 0 4088 4088 4088 5661 7359 8177 6133 6690 7359 7359 6690 6690 7359 4906 5661 6133 6133 6133 6133 5661 6133 6133 6690 6133 6690 6133 6690 5661 6690 6133 6133 6690 7359 7359 6690 6690 8177 7359 8177 6690 6690 6133 6133 6133 4906 4329 3504 3199 2943 2628 2374 2453 2374 2102 1936 1887 1839 1795 1711 1635 1501 1415 1415 1565 1314 1187 1247 1247 1149 1132 1115 1098 1098 1082 1115 1051 1051 0 981 994 919 908 897 886 855 836 826 808 0 0 791 782 766 782 0 766 774 774 782 728 0 0 0 0 681 669 645 663 651 663 651 651 669 651 0 0 0 0 0 198 0 0 0 0 0 0 0 0 0 0 0 0 0 0 0 0 0 0 0 0 0 0 0 0 0 0 0 3504 3873 0 0 0 425 420 420 422 413 397 0 389 387 383 381 373 373 375 375 0 0 0 0 0 0 0 2453 2725 362 357 352 355 353 348 345 343 342 339 339 342 0 0 0 0 0
    0 0 0 0 0 0 0 0 0 0 0 0 0 0 0 0 0 0 0 0 0 0 0 0 0 0 0 0 0 0 0 0 0 0 0 0 0 0 0 0 0 0 0 0 0 0 0 0 0 0 0 0 0 0 0 0 0 0 0 0 0 0 0 0 0 0 0 0 0 1314 1338 1291 1268 1268 1291 1314 1291 1247 1226 1187 1168 1168 1132 1149 1132 1149 1149 1149 1187 1168 1187 1226 1226 1247 1268 1291 1314 1338 1415 1471 1471 1501 1565 1599 1599 1672 1672 1711 1752 1795 1887 1936 1989 2102 2230 2230 2299 0 0 0 0 0 0 0 0 0 0 3873 3873 3873 4599 7359 7359 5661 6133 6690 6690 6690 6690 7359 5256 6133 6690 6133 6133 5661 5661 6133 6133 6690 5661 6133 6133 6690 5661 6133 5661 5661 6133 7359 6690 6690 6690 8177 7359 7359 6690 6690 6133 5256 6133 5256 4906 3504 3066 2943 2628 2374 2453 2374 2044 1887 1887 1839 1795 1711 1672 1501 1388 1388 1443 1314 1206 1247 1268 1168 1132 1132 1115 1115 1098 1132 1066 1051 1051 981 994 931 919 897 886 855 836 826 808 0 0 782 782 766 774 735 766 774 774 782 735 0 721 714 0 675 663 639 657 645 651 639 634 0 634 0 0 0 0 0 0 0 0 0 0 0 0 0 0 0 0 0 0 0 0 0 0 0 0 0 0 0 0 465 462 462 0 0 0 4088 0 0 430 425 418 418 420 411 395 389 387 387 385 387 375 375 375 377 0 0 0 0 0 0 0 2537 2830 0 357 353 355 353 348 345 343 342 339 337 342 0 0 0 0 0
    0 0 0 0 0 0 0 0 0 0 0 0 0 0 0 0 0 0 0 0 0 0 0 0 0 0 0 0 0 0 0 0 0 0 0 0 0 0 0 0 0 0 0 0 0 0 0 0 0 0 0 0 0 0 0 0 0 0 0 0 0 0 0 0 0 0 0 0 0 1338 1338 1314 1291 1291 1314 1314 1291 1247 1226 1187 1168 1168 1132 1149 1132 1149 1149 1132 1168 1168 1187 1206 1226 1247 1247 1268 1291 1338 1415 1471 1501 1533 1599 1635 1635 1672 1711 1752 1752 1839 1936 1989 1989 2102 2164 2230 2230 2230 0 0 0 0 0 0 0 0 3066 3679 3679 3679 4599 6690 7359 5661 6133 6133 6690 6133 6133 6690 5256 5661 6133 6133 6133 5661 6133 6133 6133 6690 5661 6690 6133 6690 5661 6133 6133 5661 5661 6690 6690 6133 6133 6690 6690 6133 6133 6690 5661 5256 5661 4906 4599 3504 2943 2943 2725 2374 2453 2299 2102 1887 1887 1887 1795 1672 1672 1501 1388 1388 1443 1314 1247 1291 1291 1187 1168 1132 1115 1132 1115 1132 1066 1051 1051 994 994 955 919 886 886 865 845 826 808 0 0 0 782 766 766 743 766 774 774 782 735 721 721 714 0 675 663 0 651 639 645 634 629 0 0 0 0 0 0 0 0 0 0 0 0 0 0 0 0 0 0 0 0 0 507 511 0 0 0 0 0 0 0 465 462 462 465 459 0 0 0 0 0 0 418 413 415 408 391 385 387 387 387 389 379 0 377 379 0 0 0 0 0 2830 2628 2628 2943 0 359 0 0 0 348 347 343 342 339 339 342 0 0 0 0 0
    0 0 0 0 0 0 0 0 0 0 0 0 0 0 0 0 0 0 0 0 0 0 0 0 0 0 0 0 0 0 0 0 0 0 0 0 0 0 0 0 0 0 0 0 0 0 0 0 0 0 0 0 0 0 0 0 0 0 0 0 0 0 0 0 0 0 0 0 0 1338 1362 1314 1291 1291 1314 1338 1291 1226 1226 1168 1168 1168 1115 1132 1115 1149 1149 1132 1168 1168 1168 1206 1206 1247 1247 1268 1314 1338 1443 1501 1501 1533 1599 1635 1635 1672 1672 1752 1795 1839 1989 2102 2044 2102 2230 2299 2230 2230 2164 0 0 0 0 0 0 3345 3199 3679 3873 3679 4329 6133 7359 5661 6133 6690 6690 6133 6690 6690 5661 6133 6690 6690 6690 5661 6133 6133 6133 6133 5256 6133 5661 5661 6133 6133 6133 5661 5661 6690 6133 6133 6133 6133 5661 5661 5256 5661 5661 4906 5256 4329 3873 3345 2830 2943 2725 2299 2374 2299 2044 1887 1839 1839 1752 1672 1635 1533 1415 1415 1471 1362 1291 1314 1314 1206 1187 1149 1132 1132 1115 1132 1082 1051 1051 994 1008 968 931 897 897 876 845 836 817 0 0 0 0 774 774 743 766 774 774 782 735 721 721 714 700 675 663 639 645 639 639 629 623 0 0 0 0 0 570 0 0 0 0 0 0 0 0 0 109 0 0 0 518 504 507 511 504 0 0 0 0 0 0 468 462 462 462 459 451 0 0 0 0 0 0 0 413 406 391 385 387 387 387 391 383 0 379 381 387 387 387 0 0 0 0 2830 3066 3199 360 0 257 0 350 347 345 343 340 339 343 0 0 0 0 0
    0 0 0 0 0 0 0 0 0 0 0 0 0 0 0 0 0 0 0 0 0 0 0 0 0 0 0 0 0 0 0 0 0 0 0 0 0 0 0 0 0 0 0 0 0 0 0 0 0 0 0 0 0 0 0 0 0 0 0 0 0 0 0 0 0 0 0 0 0 1338 1362 1338 1314 1291 1291 1314 1247 1206 1206 1149 1149 1149 1115 1132 1115 1149 1149 1132 1168 1168 1168 1206 1206 1247 1247 1291 1338 1388 1471 1533 1533 1565 1599 1635 1635 1672 1672 1711 1795 1839 2044 2164 2102 2164 2164 2299 2230 2230 2230 2230 0 0 0 0 0 3679 3345 3873 3873 3873 4329 6133 7359 5661 6133 6690 6133 6133 6133 6133 5661 6133 6133 6133 6133 5661 6133 6133 6133 6133 4906 6133 6133 6133 6690 6690 6133 6133 5661 6690 6690 6690 6133 6133 5661 5256 5256 5661 5256 4329 4599 4088 3873 3199 2725 2830 2628 2164 2299 2230 2044 1887 1839 1839 1752 1635 1635 1533 1415 1388 1443 1362 1314 1314 1314 1226 1187 1149 1149 1132 1115 1132 1082 1051 1066 994 1022 981 955 908 919 876 855 845 826 0 0 0 799 782 782 743 766 774 774 782 743 721 721 714 700 675 663 645 645 639 639 629 623 0 0 0 0 0 570 0 0 0 0 0 588 0 0 0 0 529 529 0 514 504 504 511 504 0 0 0 0 0 0 468 462 462 462 459 454 0 0 0 0 0 0 0 411 406 393 387 389 389 387 391 385 383 381 383 387 389 389 385 379 0 0 0 3345 3345 0 0 257 0 0 348 345 343 342 0 347 0 0 0 0 0
    0 0 0 0 0 0 0 0 0 0 0 0 0 0 0 0 0 0 0 0 0 0 0 0 0 0 0 0 0 0 0 0 0 0 0 0 0 0 0 0 0 0 0 0 0 0 0 0 0 0 0 0 0 0 0 0 0 0 0 0 0 0 0 0 0 0 0 0 0 1362 1362 1338 1314 1291 1291 1291 1226 1206 1187 1149 1149 1132 1115 1132 1115 1132 1149 1132 1168 1168 1168 1206 1206 1226 1247 1268 1338 1388 1471 1533 1565 1565 1599 1635 1635 1672 1672 1711 1752 1839 2044 2164 2102 2164 2230 2299 2299 2299 2230 2230 2299 0 0 0 0 3679 3345 4088 4088 4088 4906 6690 7359 6133 6133 6690 6133 6133 6133 6133 5256 6133 6133 5661 5661 5256 5661 5661 5661 5661 4329 5661 5661 6133 6133 6133 6133 6133 5661 6690 6690 6690 6133 5661 5661 5661 5661 5661 5256 4329 4906 4329 3873 3199 2537 2725 2725 2164 2230 2164 1989 1839 1795 1795 1711 1599 1599 1565 1415 1388 1415 1362 1291 1291 1291 1206 1187 1132 1149 1149 1115 1132 1098 1051 1066 1008 1051 1008 981 931 943 897 865 845 826 0 799 791 799 782 782 750 766 774 774 782 743 721 721 714 707 675 663 645 645 639 639 629 623 0 0 0 0 0 570 0 0 0 0 0 588 0 0 0 0 529 529 0 518 504 504 511 504 493 0 487 0 0 198 468 462 462 462 462 454 0 0 5661 4599 0 0 0 411 406 395 389 391 391 0 0 387 383 381 383 389 391 391 387 383 0 0 0 3504 3345 0 0 256 0 0 350 347 345 0 0 348 0 0 0 0 0
    0 0 0 0 0 0 0 0 0 0 0 0 0 0 0 0 0 0 0 0 0 0 0 0 0 0 0 0 0 0 0 0 0 0 0 0 0 0 0 0 0 0 0 0 0 0 0 0 0 0 0 0 0 0 0 0 0 0 0 0 0 0 0 0 0 0 0 0 0 1388 1443 1388 1362 1338 1314 1291 1206 1187 1168 1132 1132 1132 1115 1132 1132 1149 1168 1149 1187 1187 1187 1206 1206 1226 1268 1291 1338 1415 1471 1565 1565 1599 1599 1635 1635 1672 1672 1711 1711 1795 1839 2102 2044 2164 2230 2299 2299 2374 2374 2374 2374 2453 0 0 0 3679 3504 4088 4088 3873 4906 6690 7359 6133 6690 6690 6133 6133 6133 6133 5661 6133 6133 6133 5661 5256 5661 5661 5661 5661 4599 5661 5661 6133 6690 6690 6133 6133 6133 7359 7359 6690 6133 6133 6133 6133 5661 6133 5661 4906 5256 4906 3873 3345 2537 2725 2725 2164 2164 2044 1936 1839 1752 1752 1672 1565 1565 1565 1415 1362 1415 1362 1291 1291 1291 1206 1206 1149 1168 1149 1132 1132 1115 1066 1098 1036 1098 1036 1022 968 968 919 897 865 826 826 808 791 799 782 782 750 766 766 766 774 750 721 714 714 707 669 663 645 639 639 634 629 623 0 0 0 0 0 570 0 0 0 0 0 588 0 0 0 0 533 529 0 521 507 504 511 507 497 490 487 0 0 0 468 462 459 462 462 0 0 0 5661 4906 5661 5661 0 413 408 397 0 0 393 0 0 0 0 381 383 391 391 391 389 385 381 0 0 3679 3345 0 0 255 0 0 352 348 345 0 0 348 0 0 0 0 0
    0 0 0 0 0 0 0 0 0 0 0 0 0 0 0 0 0 0 0 0 0 0 0 0 0 0 0 0 0 0 0 0 0 0 0 0 0 0 0 0 0 0 0 0 0 0 0 0 0 0 0 0 0 0 0 0 0 0 0 0 0 0 0 0 0 0 0 0 0 1388 1471 1415 1388 1338 1314 1268 1187 1149 1149 1115 1115 1115 1115 1132 1132 1149 1168 1168 1206 1187 1206 1226 1226 1247 1268 1291 1338 1415 1471 1565 1599 1599 1599 1672 1672 1672 1711 1711 1752 1752 1795 2044 2044 2102 2230 2230 2374 2453 2537 2537 2537 2628 0 0 0 3679 3504 4088 3873 3873 4088 6690 7359 6133 6690 6133 6133 6133 5661 6690 6133 6690 6690 6690 6133 5661 6133 6690 6133 6133 4906 6133 6133 6690 8177 7359 6690 6690 6133 7359 7359 7359 6133 6133 6133 6133 6133 6690 6133 5661 5661 5661 4599 3345 2537 2725 2628 2164 2044 1989 1936 1795 1752 1711 1672 1533 1565 1565 1415 1362 1388 1362 1314 1291 1291 1206 1206 1149 1187 1168 1149 1149 1149 1082 1132 1066 1149 1066 1051 1008 994 943 943 886 845 836 817 791 808 791 782 743 766 766 766 766 750 714 714 714 707 669 663 651 639 639 634 629 623 0 0 0 0 0 566 0 0 0 0 0 584 566 0 0 0 533 533 0 525 511 504 511 507 497 490 487 0 0 0 468 462 459 459 0 0 5661 6133 5661 4906 6133 6133 0 413 408 0 0 0 0 0 0 0 0 383 383 391 393 393 389 389 385 0 0 0 3345 0 0 254 0 0 0 348 347 0 0 347 0 0 0 0 0
    0 0 0 0 0 0 0 0 0 0 0 0 0 0 0 0 0 0 0 0 0 0 0 0 0 0 0 0 0 0 0 0 0 0 0 0 0 0 0 0 0 0 0 0 0 0 0 0 0 0 0 0 0 0 0 0 0 0 0 0 0 0 0 0 0 0 0 0 0 1338 1471 1471 1415 1338 1314 1268 1149 1132 1132 1115 1115 1115 1115 1149 1149 1168 1187 1206 1226 1226 1226 1247 1247 1268 1291 1291 1338 1443 1471 1565 1635 1635 1635 1711 1711 1752 1752 1795 1795 1795 1795 1989 2102 2164 2230 2299 2299 2453 2537 2537 2628 2725 2830 3066 3679 3873 4088 4329 4329 4088 4906 7359 8177 7359 7359 7359 6690 6690 6133 7359 7359 7359 8177 8177 6690 6690 6690 7359 6690 6133 4906 5661 5661 6690 7359 7359 6690 6690 6133 7359 7359 7359 6133 5661 6133 6133 5661 6133 6133 5661 5661 6690 6690 3873 2943 2943 2943 2299 2044 1989 1887 1752 1672 1672 1635 1533 1533 1565 1415 1388 1415 1362 1314 1291 1291 1206 1206 1168 1187 1168 1149 1149 1168 1098 1168 1098 1187 1098 1066 1036 1022 968 955 908 855 845 836 799 817 799 791 743 766 766 766 766 750 714 714 714 707 669 663 651 0 639 634 629 623 0 0 0 0 0 0 0 553 0 0 0 579 561 0 0 0 533 0 0 525 511 504 511 507 497 0 487 0 0 477 471 462 459 459 0 0 5661 6133 5661 4906 6133 6133 5661 413 411 0 0 0 0 0 0 0 0 0 385 391 395 393 391 391 387 381 0 0 0 0 3345 254 256 0 0 350 347 0 191 0 0 0 0 0 0
    0 0 0 0 0 0 0 0 0 0 0 0 0 0 0 0 0 0 0 0 0 0 0 0 0 0 0 0 0 0 0 0 0 0 0 0 0 0 0 0 0 0 0 0 0 0 0 0 0 0 0 0 0 0 0 0 0 0 0 0 0 0 0 0 0 0 0 0 0 1388 1635 1711 1635 1501 1443 1291 1168 1149 1132 1115 1115 1115 1115 1149 1168 1187 1226 1247 1268 1268 1268 1291 1291 1291 1388 1415 1388 1533 1565 1635 1672 1711 1711 1711 1752 1752 1795 1795 1839 1839 1839 1936 1989 2102 2164 2299 2230 2453 2537 2537 2725 2830 2943 3199 3679 3873 4599 4599 4599 4088 4906 8177 0 0 7359 7359 6690 6690 6133 6690 6690 7359 8177 8177 6690 6133 6133 7359 6690 6133 5256 5661 5661 6690 8177 7359 6690 6690 6690 7359 7359 6690 5661 5661 5661 5661 5256 5661 5661 5661 5661 7359 6690 4906 3873 3679 3199 2453 2044 1936 1839 1672 1672 1672 1635 1533 1533 1599 1415 1388 1415 1362 1314 1268 1291 1187 1206 1168 1187 1168 1149 1149 1187 1098 1187 1098 1206 1098 1066 1036 1022 981 981 919 865 855 836 808 817 808 799 750 766 766 766 758 750 714 0 707 707 669 663 657 639 645 639 639 629 0 0 0 0 0 0 0 0 0 0 0 579 0 0 0 0 533 0 0 0 514 504 511 507 497 487 490 0 0 477 471 462 459 457 0 0 5661 6133 6133 4906 5661 6133 5256 413 411 404 0 0 0 0 0 0 0 0 385 393 0 0 393 393 391 0 0 0 0 0 3345 0 257 0 0 353 348 190 191 0 0 0 0 0 0
    0 0 0 0 0 0 0 0 0 0 0 0 0 0 0 0 0 0 0 0 0 0 0 0 0 0 0 0 0 0 0 0 0 0 0 0 0 0 0 0 0 0 0 0 0 0 0 0 0 0 0 0 0 0 0 0 0 0 0 0 0 0 0 0 0 0 0 0 0 1711 1887 1887 1795 1752 1672 1338 1206 1168 1115 1132 1115 1132 1132 1168 1187 1206 1247 1291 1291 1314 1291 1338 1338 1362 1635 1711 1565 1635 1672 1672 1711 1752 1752 1752 1752 1795 1795 1839 1887 1887 1839 1936 1936 2044 2102 2230 2164 2453 2537 2628 2725 2830 2943 3345 3873 4329 4599 4329 4329 3873 4599 6690 0 0 7359 7359 7359 7359 6690 6133 6690 7359 7359 8177 6690 6133 6690 7359 7359 7359 6133 6133 6133 7359 0 8177 7359 7359 6690 7359 7359 6690 5661 5256 5661 5256 5256 5661 5661 5661 5661 7359 6690 5256 3873 3679 3199 2453 2044 1936 1839 1711 1672 1672 1672 1599 1565 1635 1443 1415 1471 1388 1338 1247 1268 1187 1206 1149 1187 1168 1149 1149 1187 1098 1187 1115 1206 1098 1066 1036 1022 994 994 931 876 855 845 817 826 808 808 758 766 766 766 758 750 714 0 0 707 669 669 663 645 657 645 645 634 0 0 0 0 0 0 0 0 0 0 0 0 0 0 0 0 533 0 0 0 518 504 514 507 497 487 490 0 0 0 474 465 459 457 0 0 5256 6133 5661 4599 5256 5661 4906 413 408 404 0 0 0 0 0 0 0 0 0 0 0 0 0 0 393 0 385 383 0 371 3199 0 0 0 0 355 350 191 191 0 0 0 0 0 0
    0 0 0 0 0 0 0 0 0 0 0 0 0 0 0 0 0 0 0 0 0 0 0 0 0 0 0 0 0 0 0 0 0 0 0 0 0 0 0 0 0 0 0 0 0 0 0 0 0 0 0 0 0 0 0 0 0 0 0 0 0 0 0 0 0 0 0 0 0 2102 2164 2299 1936 1839 1752 1362 1226 1187 1149 1168 1149 1168 1168 1206 1226 1226 1268 1314 1338 1362 1362 1443 1415 1471 1711 1752 1672 1711 1711 1711 1752 1795 1795 1795 1795 1839 1839 1887 1936 1936 1887 1936 1989 2102 2102 2164 2102 2453 2537 2725 2830 2830 2943 3345 3873 4906 4906 4329 4599 4088 4599 7359 9199 0 7359 8177 8177 8177 6690 6690 7359 7359 8177 8177 6690 6690 6690 8177 8177 7359 6690 6133 6690 7359 8177 8177 7359 6690 7359 7359 6690 6690 6133 5256 6133 5661 5661 5661 6133 6133 6133 6690 6690 5256 4088 3504 3199 2453 2102 1989 1887 1711 1711 1711 1672 1635 1599 1635 1443 1415 1501 1415 1338 1206 1247 1168 1206 1149 1187 1149 1149 1149 1187 1098 1168 1115 1206 1098 1066 1036 1022 994 994 943 886 865 855 826 826 817 817 766 766 766 766 758 750 714 0 707 707 675 669 669 645 663 651 657 645 634 0 0 0 0 0 0 360 0 0 0 0 0 0 0 0 0 0 0 0 521 504 514 511 497 487 490 0 0 0 477 465 459 459 0 0 4599 5661 5256 4329 4906 0 0 413 0 406 0 268 0 0 0 0 0 0 0 0 0 117 117 0 393 0 387 385 0 373 0 0 0 0 0 357 352 191 192 0 0 0 0 0 0
    0 0 0 0 0 0 0 0 0 0 0 0 0 0 0 0 0 0 0 0 0 0 0 0 0 0 0 0 0 0 0 0 0 0 0 0 0 0 0 0 0 0 0 0 0 0 0 0 0 0 0 0 0 0 0 0 0 0 0 0 0 0 0 0 0 0 0 0 0 2628 2453 2374 1936 1839 1752 1533 1635 1291 1226 1226 1206 1226 1226 1247 1268 1268 1291 1388 1415 1443 1501 1533 1471 1565 1752 1752 1711 1752 1795 1795 1839 1839 1887 1839 1839 1936 1936 1936 1989 1936 1936 1989 2044 2164 2164 2164 2102 2453 2537 2725 2943 2943 3066 3504 4088 4906 5256 4329 4599 4329 4599 6690 6690 6690 6690 6690 8177 8177 7359 7359 6690 7359 7359 7359 6133 6690 6690 8177 7359 7359 7359 6690 6690 7359 8177 7359 7359 6690 7359 6690 6690 6690 6133 5256 6133 6133 6133 6133 6133 6690 6133 6690 7359 5661 4329 3504 3345 2628 2230 1989 1839 1711 1672 1711 1711 1635 1599 1599 1443 1388 1471 1362 1314 1149 1226 1168 1187 1132 1168 1149 1132 1132 1187 1115 1168 1132 1206 1082 1066 1051 1036 1008 1008 968 919 886 865 836 836 817 817 774 766 774 774 758 758 714 707 707 707 675 675 669 645 663 651 663 645 639 0 0 0 0 0 0 360 0 0 0 0 0 0 0 0 0 0 0 537 525 507 518 511 497 490 493 0 0 0 477 468 462 459 0 0 4088 4906 4599 3679 4088 0 0 413 0 406 0 269 0 0 0 0 0 0 0 0 0 117 116 0 0 0 387 385 0 375 0 0 0 0 0 357 353 192 192 0 0 0 0 0 0
    0 0 0 0 0 0 0 0 0 0 0 0 0 0 0 0 0 0 0 0 0 0 0 0 0 0 0 0 0 0 0 0 0 0 0 0 0 0 0 0 0 0 0 0 0 0 0 0 0 0 0 0 0 0 0 0 0 0 0 0 0 0 0 0 0 0 0 0 0 2830 2374 2164 1936 1887 1752 1795 1839 1533 1362 1314 1291 1291 1291 1338 1388 1338 1388 1533 1565 1599 1635 1635 1565 1599 1752 1752 1752 1752 1839 1839 1887 1887 1887 1887 1887 1936 1989 1989 1989 1989 1936 1989 2044 2164 2164 2164 2044 2374 2537 2725 2943 3066 3066 3679 4329 5256 5661 4088 4599 4599 4906 6690 7359 7359 7359 7359 0 0 0 8177 0 7359 8177 8177 7359 7359 7359 8177 7359 6690 7359 6690 6690 7359 7359 7359 6690 6690 6690 6133 6690 7359 6133 5661 6133 6133 6133 6133 6133 6133 6133 6690 6690 5661 4599 3504 3199 2725 2230 1989 1839 1711 1711 1711 1711 1635 1599 1599 1443 1415 1501 1338 1314 1149 1226 1168 1168 1132 1168 1132 1132 1132 1187 1115 1149 1132 1206 1082 1066 1051 1036 1008 1008 981 943 897 865 836 826 817 817 774 758 766 766 758 766 714 707 707 707 0 675 669 645 663 651 663 645 639 0 0 0 0 0 0 360 0 0 0 0 0 0 0 0 0 0 0 537 529 511 521 514 497 490 493 0 0 0 0 471 465 462 0 4329 3679 4329 3873 0 0 0 406 411 0 0 0 269 0 0 269 0 0 0 0 0 0 116 116 0 0 0 387 385 381 375 369 0 0 0 0 0 0 192 192 0 0 0 0 0 0
    0 0 0 0 0 0 0 0 0 0 0 0 0 0 0 0 0 0 0 0 0 0 0 0 0 0 0 0 0 0 0 0 0 0 0 0 0 0 0 0 0 0 0 0 0 0 0 0 0 0 0 0 0 0 0 0 0 0 0 0 0 0 0 0 0 0 0 0 0 2830 2374 2044 1936 1887 1795 1839 1887 1795 1752 1711 1635 1533 1599 1711 1711 1501 1635 1635 1672 1711 1711 1672 1635 1599 1711 1752 1752 1795 1839 1887 1887 1936 1989 1989 1936 1989 2044 1989 2044 1989 1989 1989 2044 2164 2164 2164 2044 2299 2453 2628 2830 3066 3066 3504 4088 5256 5256 3873 4599 4906 4906 6690 6690 6690 7359 7359 0 0 0 0 0 8177 0 8177 7359 7359 8177 0 8177 7359 8177 6690 7359 7359 7359 7359 6690 6690 6690 6133 6690 7359 6133 5256 6133 6133 6133 5661 6133 6690 6133 6133 6690 5256 4329 3345 3199 2628 2164 1936 1839 1711 1711 1711 1711 1672 1635 1635 1501 1443 1565 1362 1314 1168 1226 1187 1168 1132 1168 1149 1132 1132 1187 1115 1149 1132 1187 1066 1051 1036 1022 994 994 968 943 897 876 0 836 817 817 774 758 774 766 758 766 714 707 707 707 0 675 669 645 663 651 657 645 639 0 0 0 0 0 0 360 0 0 0 0 265 0 0 0 0 0 0 541 533 511 525 518 497 0 0 0 0 0 0 471 0 462 0 4088 3504 3873 3504 0 0 0 0 0 408 406 0 270 271 269 268 0 0 0 0 116 0 0 116 0 0 0 387 385 381 375 369 0 0 0 0 0 0 191 0 0 0 0 0 0 0
    0 0 0 0 0 0 0 0 0 0 0 0 0 0 0 0 0 0 0 0 0 0 0 0 0 0 0 0 0 0 0 0 0 0 0 0 0 0 0 0 0 0 0 0 0 0 0 0 0 0 0 0 0 0 0 0 0 0 0 0 0 0 0 0 0 0 0 0 0 0 2374 2044 1989 1936 1839 1887 1887 1887 1887 1839 1839 1839 1839 1887 1839 1711 1752 1672 1711 1711 1711 1672 1672 1599 1672 1752 1795 1795 1887 1887 1936 1936 1989 1989 1989 2044 2164 2102 2102 2102 2044 1989 1989 2164 2164 2164 1989 2230 2374 2537 2725 2943 3066 3504 3873 5256 5256 4088 4599 4906 5256 6690 7359 7359 8177 8177 0 0 0 0 0 8177 8177 7359 7359 7359 7359 0 7359 7359 7359 6690 7359 7359 6690 6690 6133 6690 6690 6133 6133 6690 6133 4906 6133 6133 6133 5256 6133 6133 6133 6133 6133 5256 4088 3345 3199 2725 2299 2044 1887 1752 1795 1795 1795 1711 1672 1672 1565 1501 1635 1388 1314 1168 1226 1187 1168 1132 1168 1132 1132 1132 1187 1115 1132 1132 1168 1036 1036 0 1008 981 968 968 943 897 886 0 836 826 826 782 750 774 766 758 766 721 714 714 714 0 675 669 645 663 651 657 645 634 0 0 0 0 0 364 360 0 0 0 0 264 0 0 0 0 0 0 545 537 511 525 514 497 0 0 0 0 0 0 471 0 0 0 4088 3504 3679 3504 0 0 0 0 0 0 0 0 270 271 268 266 0 0 0 0 116 0 116 115 115 0 0 387 383 379 375 369 0 0 364 0 0 0 191 0 0 0 0 0 0 0
    0 0 0 0 0 0 0 0 0 0 0 0 0 0 0 0 0 0 0 0 0 0 0 0 0 0 0 0 0 0 0 0 0 0 0 0 0 0 0 0 0 0 0 0 0 0 0 0 0 0 0 0 0 0 0 0 0 0 0 0 0 0 0 0 0 0 0 0 0 0 2230 1989 1989 1936 1839 1887 1936 1936 1936 1936 1936 1887 1887 1989 1936 1795 1839 1711 1752 1752 1711 1752 1752 1635 1672 1795 1887 1839 1989 1989 1989 1989 2102 2164 2044 2164 2374 2299 2299 2299 2374 2230 2164 2374 2374 2374 2044 2299 2374 2537 2725 2943 3066 3504 4088 5256 5256 4088 4599 4906 5661 7359 8177 8177 0 0 0 0 0 0 0 8177 8177 7359 7359 6690 7359 8177 7359 7359 7359 6690 6690 6690 6690 6133 6133 6133 6133 5661 6690 7359 6690 5256 6690 6133 6133 5256 5661 5661 5661 5661 6133 5256 4088 3345 3199 2725 2230 2044 1936 1795 1839 1839 1839 1795 1752 1711 1635 1533 1672 1443 1338 1168 1226 1187 1168 1132 1149 1132 1132 1132 1187 1115 1115 1115 1132 1036 1036 0 1008 981 968 968 943 897 0 0 0 817 817 782 743 766 766 758 766 728 714 714 714 0 675 663 645 657 645 651 634 629 79 0 0 0 0 362 359 0 0 0 0 0 0 0 0 0 0 0 557 0 0 0 0 0 0 0 0 0 0 0 474 0 0 0 0 3345 0 3345 0 2725 0 0 0 404 402 0 269 0 0 263 0 0 0 116 116 115 115 115 115 0 0 387 383 379 375 369 0 0 362 0 0 0 191 0 0 0 0 0 0 0
    0 0 0 0 0 0 0 0 0 0 0 0 0 0 0 0 0 0 0 0 0 0 0 0 0 0 0 0 0 0 0 0 0 0 0 0 0 0 0 0 0 0 0 0 0 0 0 0 0 0 0 0 0 0 0 0 0 0 0 0 0 0 0 0 0 0 0 0 0 0 1989 1887 1936 1887 1839 1887 1936 1936 1936 1936 1936 1936 1936 2044 2102 1936 1936 1795 1839 1839 1795 0 2628 1839 1839 2044 2102 2044 2164 2230 2164 2044 2299 2374 2299 2374 2725 2628 2537 2628 2725 2628 2453 2628 2537 2537 2164 2374 2374 2453 2628 2943 3066 3679 4329 5661 5661 4329 4906 5256 6133 7359 8177 8177 0 0 0 0 0 0 0 8177 8177 7359 6690 6133 6690 7359 6690 7359 7359 6690 6690 6690 6690 6133 6133 6690 6690 6133 7359 8177 8177 6690 7359 6133 6133 5256 5661 5256 5256 5256 5661 5256 3873 3199 3066 2628 2164 2044 1887 1839 1839 1887 1887 1795 1752 1752 1672 1599 1711 1471 1338 1187 1247 1206 1187 1132 1149 1132 1115 1115 1187 1115 0 0 1115 1036 1036 0 1008 981 981 981 955 897 0 0 0 808 808 774 735 766 766 758 766 728 714 714 714 0 675 657 639 651 639 639 629 623 0 0 0 0 0 360 359 0 0 0 0 0 0 0 0 0 0 0 0 0 0 0 0 0 0 0 0 0 0 0 474 200 198 0 0 0 0 0 2537 2453 2299 0 0 0 0 0 0 0 0 261 0 259 116 116 115 115 115 115 114 0 0 387 383 379 375 367 0 364 362 0 0 0 192 0 0 0 0 0 0 0
    0 0 0 0 0 0 0 0 0 0 0 0 0 0 0 0 0 0 0 0 0 0 0 0 0 0 0 0 0 0 0 0 0 0 0 0 0 0 0 0 0 0 0 0 0 0 0 0 0 0 0 0 0 0 0 0 0 0 0 0 0 0 0 0 0 0 0 0 0 0 0 0 1887 1887 1839 1887 1887 1936 1936 1936 1936 1989 1989 2102 2230 2164 2044 1839 1936 2044 0 5256 4599 2943 0 2830 0 2453 2628 2537 2374 2230 2628 2725 2628 2725 3345 3066 0 0 0 2943 2830 2830 2725 2628 2374 2537 2453 2537 2628 2943 3066 3873 5256 6133 6133 4599 4906 5661 6690 8177 8177 8177 0 0 0 0 0 0 0 8177 8177 7359 7359 6690 6690 7359 6690 7359 7359 6690 6690 6690 6690 6133 6133 6690 6690 6690 8177 0 0 7359 8177 7359 7359 5661 6133 5661 5661 5256 5256 5256 3873 3199 3199 2537 2164 1989 1887 1839 1887 1887 1887 1839 1795 1752 1711 1672 1752 1501 1338 1187 1247 1206 1168 1132 1132 1115 1098 1115 1168 1098 0 557 0 1036 1036 0 1008 994 981 981 968 908 0 0 0 808 791 766 728 766 0 758 774 735 721 714 714 0 669 657 639 645 634 634 623 618 0 0 0 0 0 359 357 0 0 0 0 0 0 0 0 0 0 0 0 0 76 76 0 0 0 0 0 0 0 0 474 201 199 201 0 0 0 0 2230 2102 0 0 1795 1635 0 0 0 0 0 260 0 259 115 115 114 114 115 114 114 0 0 387 381 379 373 367 362 362 362 359 0 0 0 0 0 0 0 0 0 0
    0 0 0 0 0 0 0 0 0 0 0 0 0 0 0 0 0 0 0 0 0 0 0 0 0 0 0 0 0 0 0 0 0 0 0 0 0 0 0 0 0 0 0 0 0 0 0 0 0 0 0 0 0 0 0 0 0 0 0 0 0 0 0 0 0 0 0 0 0 1388 1711 0 1839 1839 1795 1887 1887 1936 1936 1936 1989 1989 1989 2102 2299 2299 2102 1887 1989 2374 4599 6133 5661 3679 6690 3873 3679 0 0 2725 2453 2299 0 2943 3066 0 6133 4906 0 304 0 4329 3345 3199 2943 2830 2628 2725 2628 2628 2725 3199 3199 4329 5661 6133 6133 4906 5256 5661 7359 0 8177 0 0 0 0 0 0 0 0 0 8177 7359 7359 6690 6690 7359 6690 6690 6690 6690 6133 6690 6133 6133 6133 6690 6690 6690 7359 0 0 7359 8177 8177 8177 6133 6133 5661 5661 4906 4906 4599 3679 3199 3199 2453 1989 1887 1839 1795 1839 1839 1887 1839 1795 1795 1711 1672 1752 1533 1338 1187 1247 1226 1187 1149 1132 1115 1115 1115 1168 1115 0 557 0 1051 1036 0 1008 994 981 981 968 919 0 0 0 808 782 766 728 766 0 758 774 735 721 721 714 0 669 657 639 639 634 629 618 613 0 0 0 0 357 0 0 0 0 0 0 0 0 0 0 0 0 0 0 76 76 76 76 0 0 0 0 0 0 0 474 201 199 201 0 0 0 0 2102 0 0 1752 1752 1599 0 0 0 0 0 260 0 0 0 115 114 114 114 114 114 0 0 387 381 377 373 367 362 362 362 359 355 355 0 0 0 0 0 0 0 0
    0 0 0 0 0 0 0 0 0 0 0 0 0 0 0 0 0 0 0 0 0 0 0 0 0 0 0 0 0 0 0 0 0 0 0 0 0 0 0 0 0 0 0 0 0 0 0 0 0 0 0 0 0 0 0 0 0 0 0 0 0 0 0 0 0 0 0 0 0 1388 1635 0 1887 1887 1795 1887 1887 1936 1936 1989 1989 1989 1989 2102 2374 2374 2164 1989 2102 3345 6690 7359 6690 6133 0 8177 5256 3504 3199 2830 2628 0 0 0 5256 0 0 8177 0 0 0 7359 6690 5256 3504 3345 2943 2943 2725 2725 2830 3679 3504 4906 5661 6690 6690 5256 5661 5661 8177 0 8177 0 0 0 0 0 0 0 0 0 0 8177 7359 7359 6690 7359 6690 6690 7359 6690 6690 6690 6690 6133 6133 6690 6690 7359 8177 0 0 8177 0 8177 8177 6133 6133 5661 5256 4906 4599 4329 3504 3066 0 2299 1887 1795 1795 1752 1839 1839 1839 1795 1752 1752 1711 1672 1711 1565 1338 1206 1268 1247 1206 1168 1149 1115 1115 1115 0 0 0 557 0 1066 0 0 1008 994 981 981 968 919 0 0 0 808 782 766 728 766 766 758 774 743 721 721 714 0 675 663 639 639 634 629 618 613 0 0 0 0 357 0 104 103 0 0 0 0 0 0 0 0 0 0 76 76 76 76 0 0 0 201 201 201 201 202 0 201 199 201 0 2830 0 0 1989 0 0 1599 1635 1501 1388 0 0 0 0 257 0 0 0 115 114 114 114 114 114 0 0 387 379 377 373 367 364 364 362 360 357 357 353 0 0 0 0 0 0 0
    0 0 0 0 0 0 0 0 0 0 0 0 0 0 0 0 0 0 0 0 0 0 0 0 0 0 0 0 0 0 0 0 0 0 0 0 0 0 0 0 0 0 0 0 0 0 0 0 0 0 0 0 0 0 0 0 0 0 0 0 0 0 0 0 0 0 0 0 0 1388 1599 0 1887 1887 1839 1887 1936 1936 1936 1989 1989 1989 1989 2102 2453 2537 2299 2164 2453 5661 8177 8177 8177 0 0 0 7359 6133 8177 6690 5661 0 0 0 0 0 0 0 0 0 0 0 0 8177 6133 4599 3679 3345 2830 2943 3199 4088 3679 5256 6133 6690 6690 5661 6133 6133 0 0 0 0 0 0 0 0 0 0 0 0 0 8177 7359 6690 6690 7359 6690 6690 6690 6690 6690 6690 6690 6133 6133 7359 6690 7359 8177 0 0 8177 0 8177 8177 6133 6133 5661 5256 4906 4329 4329 3504 3066 0 2102 1887 1795 1795 1795 1839 1839 1839 1795 1752 1795 1711 1672 1711 1599 1338 1247 1291 1268 1206 1187 1149 1132 1115 1132 0 0 0 557 0 0 0 0 994 981 968 968 968 908 0 0 0 808 782 766 721 766 758 758 766 743 721 721 721 0 669 663 639 639 634 629 618 613 0 0 0 0 359 0 104 103 0 0 0 0 0 0 0 0 0 0 76 76 76 76 76 0 0 201 201 201 201 202 0 201 199 201 0 2725 0 0 0 955 0 1415 1565 1443 0 0 0 0 253 252 0 0 0 115 114 114 114 114 114 0 0 387 379 377 373 369 366 0 0 362 0 359 353 0 0 0 0 0 0 0
    0 0 0 0 0 0 0 0 0 0 0 0 0 0 0 0 0 0 0 0 0 0 0 0 0 0 0 0 0 0 0 0 0 0 0 0 0 0 0 0 0 0 0 0 0 0 0 0 0 0 0 0 0 0 0 0 0 0 0 0 0 0 0 0 0 0 0 0 0 1362 1635 1839 1887 1936 1839 1887 1936 1936 1989 1989 1989 1989 1989 2102 2453 2628 2537 2537 0 6690 8177 0 0 0 0 0 0 0 0 0 0 0 0 0 0 0 0 0 0 0 0 0 0 0 0 7359 6133 4088 3066 3345 3679 4599 4088 5661 6690 7359 6690 6690 6690 6133 0 0 0 0 0 0 0 0 0 0 0 0 0 8177 8177 6690 6690 7359 6690 6690 6690 6690 6690 6690 6690 6690 6690 7359 7359 8177 8177 0 0 8177 0 0 8177 6690 6133 5661 5256 4906 4329 4599 3504 2943 0 2102 1887 1839 1839 1839 1839 1839 1839 1795 1752 1795 1711 1672 1672 1599 1362 1268 1291 1268 1226 1187 1132 1132 1115 1132 0 0 0 557 561 0 0 0 994 981 968 968 955 908 0 0 0 808 782 766 721 758 758 750 766 743 721 721 714 0 669 663 645 634 634 623 618 618 0 0 0 0 0 0 104 103 0 0 0 0 0 0 0 0 0 0 76 76 76 76 76 0 0 201 201 201 201 203 0 201 200 202 0 2537 0 0 0 0 0 1388 1501 1415 0 0 0 0 0 0 0 297 300 115 114 114 114 114 114 0 391 387 381 377 375 371 0 0 0 364 0 359 355 0 0 0 0 0 0 0
    0 0 0 0 0 0 0 0 0 0 0 0 0 0 0 0 0 0 0 0 0 0 0 0 0 0 0 0 0 0 0 0 0 0 0 0 0 0 0 0 0 0 0 0 0 0 0 0 0 0 0 0 0 0 0 0 0 0 0 0 0 0 0 0 0 0 0 0 0 1362 1711 1839 1936 1936 1839 1887 1936 1936 1936 1989 1989 1989 1989 2044 2453 2628 2453 2830 8177 6690 8177 0 0 0 0 0 0 0 0 0 0 0 0 0 0 0 0 0 0 0 0 0 0 0 0 0 0 5661 3679 4329 4906 5661 4906 6690 6690 7359 7359 7359 7359 5661 0 0 0 0 0 0 0 0 0 0 0 0 0 0 8177 7359 6690 7359 6690 6690 6690 6690 6690 6690 7359 6690 6690 7359 7359 8177 8177 0 0 8177 0 8177 8177 6690 6690 5661 5256 4906 4599 4599 3679 3066 2943 2230 1936 1936 1936 1887 1839 1887 1887 1795 1752 1795 1672 1635 1635 1635 1362 1314 1314 1291 1226 1187 1115 1132 1115 1132 0 0 0 557 561 0 0 159 1008 994 968 968 968 919 908 0 0 817 791 766 728 758 758 750 758 743 721 721 714 0 0 663 645 87 634 629 623 618 0 0 345 0 0 0 104 103 0 0 0 0 0 0 0 0 0 0 76 76 76 76 76 0 117 201 201 201 202 203 0 0 0 0 0 2537 0 529 525 0 0 1362 1443 0 0 0 0 0 0 0 0 297 299 115 114 114 114 114 114 0 0 387 381 379 377 371 0 0 0 0 0 360 355 0 0 0 0 0 0 0
    0 0 0 0 0 0 0 0 0 0 0 0 0 0 0 0 0 0 0 0 0 0 0 0 0 0 0 0 0 0 0 0 0 0 0 0 0 0 0 0 0 0 0 0 0 0 0 0 0 0 0 0 0 0 0 0 0 0 0 0 0 0 0 0 0 0 0 0 0 1338 1711 1839 1887 1936 1887 1887 1936 1989 1989 1989 1989 1989 1989 2044 2299 2453 2374 3199 5661 6133 7359 8177 8177 0 0 0 0 0 0 0 0 0 0 0 0 0 0 0 0 0 0 0 0 0 0 0 0 6690 4599 5256 5661 5661 5256 6690 6690 7359 7359 8177 8177 5256 0 0 0 0 0 0 0 0 0 0 0 0 0 0 8177 7359 7359 7359 6690 6690 6690 6690 6690 6690 7359 6690 6690 7359 7359 8177 8177 8177 8177 8177 8177 8177 8177 6690 6690 5661 5661 5256 4599 4599 3679 2943 2830 2164 1887 1936 1936 1887 1839 1839 1839 1752 1711 1752 1635 1599 1599 1635 1388 1314 1314 1291 1226 1206 1115 1132 1115 1132 0 0 0 561 561 0 0 0 0 1008 981 981 981 931 919 0 0 826 791 774 728 758 758 750 750 743 721 714 714 0 0 663 651 87 639 629 629 623 0 634 0 0 0 0 104 103 0 0 0 0 0 0 0 0 0 0 76 76 76 76 76 0 117 0 201 201 202 203 0 0 0 0 0 2537 0 525 521 0 518 1362 1415 0 0 334 334 0 0 0 0 0 0 115 114 114 114 114 114 114 393 389 383 379 377 373 0 0 0 0 0 360 355 0 0 0 0 0 0 0
    0 0 0 0 0 0 0 0 0 0 0 0 0 0 0 0 0 0 0 0 0 0 0 0 0 0 0 0 0 0 0 0 0 0 0 0 0 0 0 0 0 0 0 0 0 0 0 0 0 0 0 0 0 0 0 0 0 0 0 0 0 0 0 0 0 0 0 0 0 1415 1672 1839 1887 1989 1887 1936 1989 1989 1989 1989 1989 1989 1989 1989 2164 2299 2299 3345 5256 5661 6690 7359 7359 0 0 0 0 0 0 0 0 0 0 0 0 0 0 0 0 0 0 0 0 0 0 0 0 5661 4599 5256 5661 5661 5661 6690 6690 7359 8177 8177 8177 4599 0 0 0 0 0 0 0 0 0 0 0 0 0 0 8177 6690 6690 6690 6133 6133 6690 6133 6133 6690 7359 6690 6690 7359 7359 7359 7359 7359 8177 7359 7359 7359 7359 6690 6133 5661 5661 4906 4329 4088 3504 2830 2830 2230 1936 1989 1989 1887 1839 1839 1795 1752 1672 1711 1599 1565 1565 1635 1415 1338 1314 1314 1226 1206 1115 1132 1132 0 0 1168 0 561 566 0 0 0 0 1008 981 981 981 943 931 886 0 836 799 791 735 758 758 750 750 750 721 714 714 714 0 669 657 87 645 634 639 629 629 645 0 0 0 0 104 103 0 0 0 0 0 0 0 0 0 0 0 0 0 76 76 0 0 0 0 202 202 203 0 0 0 0 0 2537 0 521 521 0 518 0 1415 0 0 0 337 0 0 0 0 0 0 115 114 114 114 114 114 114 393 389 383 379 379 373 0 0 0 0 0 360 357 0 0 0 0 0 0 0
    0 0 0 0 0 0 0 0 0 0 0 0 0 0 0 0 0 0 0 0 0 0 0 0 0 0 0 0 0 0 0 0 0 0 0 0 0 0 0 0 0 0 0 0 0 0 0 0 0 0 0 0 0 0 0 0 0 0 0 0 0 0 0 0 0 0 0 0 0 1443 1635 1839 1936 2044 1936 1936 1989 1989 1989 2044 2044 2044 1989 1989 2044 2102 2044 3504 5661 6133 6690 7359 7359 8177 8177 0 0 0 0 0 0 0 0 0 0 0 0 0 0 0 0 0 0 0 0 8177 7359 5256 4329 4906 5661 5256 5661 6133 6133 6690 8177 8177 7359 4329 0 0 0 0 0 0 0 0 0 0 0 8177 8177 8177 8177 6690 6690 6133 6133 6133 6133 6133 6690 6133 6690 6133 6690 7359 7359 7359 7359 6690 7359 6690 7359 6690 6690 6690 6690 5661 5661 4906 4329 4088 3504 2725 2725 2299 1989 2044 1989 1936 1839 1839 1795 1752 1672 1711 1565 1533 1533 1635 1415 1362 1314 1314 1206 1206 1132 1149 1132 0 0 1187 0 566 566 0 1082 0 0 1022 994 994 994 955 943 897 0 836 808 799 735 766 758 758 750 750 721 714 714 714 0 675 669 87 657 639 651 639 634 651 0 0 0 0 104 103 0 0 0 196 0 0 0 0 0 0 0 0 0 0 76 0 0 0 201 202 202 203 0 474 474 0 484 0 525 518 521 0 518 0 1388 0 0 0 0 0 0 0 0 430 0 0 114 114 114 114 114 114 393 389 385 381 381 375 0 0 0 0 0 362 359 0 0 0 0 0 0 0
    0 0 0 0 0 0 0 0 0 0 0 0 0 0 0 0 0 0 0 0 0 0 0 0 0 0 0 0 0 0 0 0 0 0 0 0 0 0 0 0 0 0 0 0 0 0 0 0 0 0 0 0 0 0 0 0 0 0 0 0 0 0 0 0 0 0 0 0 0 1388 1565 1752 1936 2044 1936 1936 2044 2044 2044 2044 2044 2044 1989 1989 1989 1989 1936 3504 5661 6690 7359 8177 7359 0 8177 0 0 0 0 0 0 0 0 0 0 0 0 0 0 0 0 0 0 8177 7359 6690 6690 4906 4088 4906 5256 5256 5661 5661 6133 6133 7359 7359 5661 4088 7359 8177 0 0 8177 8177 8177 8177 0 8177 8177 7359 7359 7359 7359 6690 6690 6133 6133 6133 6133 6133 6690 6133 6690 6133 6690 7359 7359 6690 7359 6690 7359 6690 7359 6690 6690 6133 6690 6133 6133 4906 4599 3873 3345 2628 2537 2230 1989 2044 2044 1936 1839 1839 1795 1752 1672 1672 1565 1501 1501 1635 1471 1362 1338 1314 1226 1226 1132 1168 1149 0 0 1187 1132 566 566 0 1098 0 0 1022 994 994 0 968 955 908 845 845 808 799 743 766 758 758 750 758 721 0 714 714 0 675 669 87 663 645 657 645 645 663 0 0 0 0 0 104 0 0 0 196 0 0 0 0 0 0 0 0 0 0 76 0 0 199 201 201 202 0 0 474 0 0 0 0 0 518 521 0 518 0 0 0 0 0 0 0 411 411 427 422 413 0 0 114 114 114 114 0 391 389 385 383 383 377 371 0 0 367 0 364 360 0 0 0 0 0 0 0
    0 0 0 0 0 0 0 0 0 0 0 0 0 0 0 0 0 0 0 0 0 0 0 0 0 0 0 0 0 0 0 0 0 0 0 0 0 0 0 0 0 0 0 0 0 0 0 0 0 0 0 0 0 0 0 0 0 0 0 0 0 0 0 0 0 0 0 0 0 1314 1362 0 1936 2102 1989 1989 2044 2044 2044 2044 2044 2044 1989 1989 1936 1936 1839 3504 5661 6690 6690 0 8177 0 8177 0 0 0 0 0 0 0 8177 0 8177 0 0 8177 0 0 0 0 0 7359 6690 6133 6133 4599 4088 4599 5256 5256 6133 6133 6690 6690 8177 8177 7359 5256 6690 7359 0 8177 8177 8177 7359 7359 0 7359 7359 6690 6690 6690 7359 6133 6690 6133 5661 6133 6133 6133 6690 6133 6690 6133 6690 7359 7359 6690 6690 6133 6690 6133 6690 6133 6133 5661 6133 5661 5661 4906 4599 4088 3504 2725 2628 2453 2044 2164 2102 1989 1839 1839 0 1752 1672 1672 1565 1471 1501 1635 1471 1388 1314 1314 1206 1206 1132 1149 1149 0 1132 1187 1132 561 0 0 1098 159 159 1036 0 0 0 0 955 908 845 0 808 0 750 766 766 758 750 758 721 0 714 714 0 675 675 87 669 651 663 651 651 669 645 0 0 0 0 104 0 0 0 197 0 0 0 0 0 0 0 0 0 0 76 0 0 198 201 201 202 0 0 474 0 73 0 0 0 507 518 0 514 0 0 0 381 399 399 404 406 406 415 418 408 413 0 113 114 114 113 0 391 389 385 383 383 377 373 0 0 369 0 0 360 0 0 0 0 0 0 0
    0 0 0 0 0 0 0 0 0 0 0 0 0 0 0 0 0 0 0 0 0 0 0 0 0 0 0 0 0 0 0 0 0 0 0 0 0 0 0 0 0 0 0 0 0 0 0 0 0 0 0 0 0 0 0 0 0 0 0 0 0 0 0 0 0 0 0 0 0 1291 0 0 1989 2164 2044 1989 2044 2044 2044 2044 2044 2044 1989 1936 1887 1887 1752 0 5661 6690 6690 8177 8177 8177 8177 0 0 0 0 0 8177 0 7359 8177 7359 8177 8177 7359 0 0 0 0 0 6690 6690 5661 6133 4906 4329 4906 5661 5256 6690 6133 6690 6690 7359 7359 7359 5256 6690 6690 8177 8177 7359 7359 7359 7359 8177 7359 7359 6133 6133 6133 6690 6133 6690 6133 5661 6133 6133 5661 6690 6133 6690 6133 6690 7359 6690 6133 6690 6133 6690 6133 6133 5661 5661 5256 6133 5661 5661 4906 4599 4599 3679 2830 2830 2537 2102 2230 2164 2044 1887 1839 1887 1752 1711 1711 1565 1471 1501 1635 1471 1388 1268 1291 1187 1206 1115 1149 1132 1132 1132 1168 1132 0 0 0 1098 0 159 1036 0 0 0 981 0 0 0 0 817 0 750 758 766 758 750 766 721 0 0 0 0 675 675 0 669 651 663 657 657 675 657 0 675 0 0 104 199 199 0 197 0 0 0 0 0 0 0 0 191 0 76 0 0 198 201 201 0 0 0 474 0 74 73 0 0 0 0 0 0 0 0 385 393 402 404 404 404 406 411 415 406 411 406 113 114 114 113 0 391 389 385 383 383 379 373 0 0 367 0 0 0 0 0 0 0 0 0 0
    0 0 0 0 0 0 0 0 0 0 0 0 0 0 0 0 0 0 0 0 0 0 0 0 0 0 0 0 0 0 0 0 0 0 0 0 0 0 0 0 0 0 0 0 0 0 0 0 0 0 0 0 0 0 0 0 0 0 0 0 0 0 0 0 0 0 0 0 0 1501 1415 0 1989 2164 2044 1989 2044 2044 2044 2044 2044 2044 1989 1936 1887 1839 1672 0 5661 6133 6133 0 8177 8177 7359 0 8177 0 8177 8177 7359 8177 6690 6690 6133 7359 7359 6690 8177 0 0 7359 8177 6133 6133 5661 6133 4906 4599 4906 5661 5256 6690 6133 6690 6133 6690 7359 7359 5661 7359 6690 8177 7359 7359 7359 7359 6690 7359 6690 6690 6133 6133 6133 6690 6133 6690 6133 5661 6690 6690 5661 6690 6133 6133 6133 6690 6690 6690 6133 6690 5661 6690 6690 5661 5661 5661 4906 6133 5661 5661 4906 4599 4599 3679 2943 2830 2628 2102 2299 2230 2044 1887 1887 1887 1795 1752 1711 1565 1471 1501 1635 1471 1362 1247 1268 1187 1187 1098 1132 1115 1115 1115 1168 1132 0 1149 1149 1098 0 159 1051 0 1008 0 981 968 931 0 0 817 0 758 758 766 766 750 774 728 0 0 714 0 675 675 0 669 651 669 663 663 681 663 663 687 629 0 0 0 0 0 198 0 0 0 0 0 0 0 0 0 0 0 0 0 0 201 0 0 487 481 474 0 0 74 0 0 0 0 0 0 0 0 397 397 402 406 404 406 406 408 413 406 408 406 113 114 114 113 0 391 389 387 383 383 379 373 0 0 367 0 0 0 0 0 0 0 0 0 0
    0 0 0 0 0 0 0 0 0 0 0 0 0 0 0 0 0 0 0 0 0 0 0 0 0 0 0 0 0 0 0 0 0 0 0 0 0 0 0 0 0 0 0 0 0 0 0 0 0 0 0 0 0 0 0 0 0 0 0 0 0 0 0 0 0 0 0 0 0 1599 1388 0 1936 2164 2044 1989 2044 2044 2044 1989 2044 2044 1989 1936 1887 1795 1672 0 4906 0 5661 8177 8177 7359 7359 8177 6690 7359 6690 7359 6690 6690 6133 6133 6133 6690 6690 6690 7359 0 0 7359 7359 6133 6133 5661 6133 4906 4599 4599 5661 5256 6133 5661 6133 5661 6133 6690 7359 6133 7359 6133 7359 7359 6690 6690 6690 6133 7359 6690 6690 6133 6133 6133 6133 6133 6690 6133 6133 6690 6690 6133 6690 6133 6690 6133 6690 6690 6690 6133 6690 6133 6690 6690 5661 5661 6133 5256 6133 5661 5661 4906 4599 4906 3679 2943 2830 2628 2102 2299 2164 2102 1936 1936 1936 1795 1795 1752 1599 1501 1501 1672 1471 1362 1247 1268 1187 1168 1098 1132 1115 1115 1115 1168 1132 1132 1149 1149 1098 1082 159 1051 0 1008 0 981 968 931 0 0 0 0 766 766 774 766 758 774 728 0 714 714 0 675 669 651 663 657 669 663 663 681 669 669 0 639 0 0 0 0 0 0 0 0 0 799 799 0 0 0 0 0 0 0 507 0 200 0 490 487 484 0 0 0 0 0 0 0 0 0 0 391 0 404 399 404 406 404 404 404 406 411 406 408 406 0 114 114 0 0 391 391 387 385 383 379 373 0 0 0 0 0 0 0 0 0 0 0 0 0
    0 0 0 0 0 0 0 0 0 0 0 0 0 0 0 0 0 0 0 0 0 0 0 0 0 0 0 0 0 0 0 0 0 0 0 0 0 0 0 0 0 0 0 0 0 0 0 0 0 0 0 0 0 0 0 0 0 0 0 0 0 0 0 0 0 0 0 0 0 1501 1362 0 1887 2044 1989 1936 1989 1989 1989 1989 1989 1989 1989 1936 1887 1839 1711 0 0 0 0 6690 8177 6690 6690 6690 5661 6133 5661 6133 5661 6133 5661 5661 6133 6690 6690 6690 7359 8177 0 6690 7359 5661 6133 5256 5661 4906 4599 4599 5256 4906 6133 5256 5661 5256 5661 6133 6690 6133 6690 5661 6690 6690 6133 6133 6690 5661 6690 6133 6133 6133 6133 6133 6690 6133 6690 6133 6133 6690 6690 6133 6690 6133 6133 6133 6690 6690 6690 6133 6690 6133 6690 6690 6133 6133 6133 4906 6133 5661 5661 4906 4599 4906 3504 2943 2830 2628 2102 2230 2164 2102 1936 1936 1989 1839 1839 1795 1635 1501 1533 1672 1501 1362 1226 1268 1187 1168 1098 1132 1115 1098 1098 1168 1115 1132 1149 1149 1098 1098 159 1051 0 1022 0 994 968 931 0 0 0 0 774 766 774 766 758 774 728 714 714 707 0 675 669 645 663 651 663 663 669 0 675 0 0 651 0 0 200 0 0 0 0 0 0 799 791 0 0 0 0 0 0 518 511 0 200 0 493 490 487 0 0 0 0 0 0 0 0 0 0 0 0 408 402 404 406 404 404 404 404 408 404 406 406 0 113 113 0 0 393 391 387 385 385 379 373 0 0 0 0 0 0 0 0 0 0 0 0 0
    0 0 0 0 0 0 0 0 0 0 0 0 0 0 0 0 0 0 0 0 0 0 0 0 0 0 0 0 0 0 0 0 0 0 0 0 0 0 0 0 0 0 0 0 0 0 0 0 0 0 0 0 0 0 0 0 0 0 0 0 0 0 0 0 0 0 0 0 0 1501 1415 1338 1839 1989 1936 1936 1936 1989 1989 1936 1989 1989 1989 1936 1887 1887 1795 0 0 0 0 0 7359 6690 6133 6133 5256 5661 5256 5661 5661 6133 5661 5661 6133 6690 6690 6690 7359 8177 8177 6133 6690 5256 5661 5256 5661 4906 4599 4599 5256 4906 6133 5256 6133 5256 5661 6133 6690 6133 6690 6133 6133 6133 6133 6133 6690 5661 6133 6133 6133 6133 6133 6133 6690 6133 6690 6133 6133 6690 6690 6133 6690 6133 6133 6133 6690 6690 6690 6133 6690 6133 6690 7359 6133 6133 6133 5256 6133 5661 5661 4906 4599 4906 3679 2943 2830 2628 2044 2230 2164 2044 1936 1936 2044 1887 1887 1839 1672 1565 1599 1711 1565 1362 1226 1268 1187 1168 1098 1132 1115 1098 1098 1149 1115 1115 1149 1149 1098 1098 0 1066 0 1022 0 994 968 943 0 0 0 0 774 766 774 766 758 774 721 714 707 707 675 675 669 645 657 651 663 663 663 0 669 0 0 645 0 0 0 0 0 0 0 0 0 799 791 0 0 0 0 0 529 521 518 0 0 0 493 493 490 0 0 0 0 0 0 0 0 0 0 0 0 418 406 406 408 404 404 402 402 406 402 404 404 0 113 0 0 0 393 393 389 385 383 381 373 0 0 0 0 0 0 0 0 0 0 0 0 0
    0 0 0 0 0 0 0 0 0 0 0 0 0 0 0 0 0 0 0 0 0 0 0 0 0 0 0 0 0 0 0 0 0 0 0 0 0 0 0 0 0 0 0 0 0 0 0 0 0 0 0 0 0 0 0 0 0 0 0 0 0 0 0 0 0 0 0 0 0 1471 1388 1362 1839 1936 1936 1887 1936 1989 1989 1936 1936 1936 1936 1936 1936 1887 1795 1752 0 0 0 0 0 5661 6133 5256 4329 4906 4906 5256 5256 6133 5661 6133 6133 6690 6690 6690 6690 7359 7359 6133 6133 4906 5661 4906 5256 4906 4599 4599 5256 4906 6133 5256 6133 5661 5661 6133 6133 6690 6690 6133 6133 6133 6133 6133 6690 5661 6133 5661 6133 6133 6133 6133 6690 6133 6690 6133 6133 6690 6690 6133 7359 6690 6690 6690 6690 7359 7359 6690 7359 6690 7359 7359 6690 6690 6133 5256 6133 5661 5661 5256 4906 5256 3679 2943 2830 2628 2044 2164 2102 2044 1936 1936 2044 1936 1887 1887 1711 1599 1635 1752 1599 1362 1226 1268 1206 1168 1098 1132 1115 1082 1098 1149 1115 1115 1132 1132 1098 1098 0 1066 1022 1022 1036 994 968 943 0 0 0 0 774 758 766 766 750 774 721 714 707 707 675 669 663 639 651 645 657 0 0 0 0 0 0 639 0 0 0 0 0 0 0 0 0 799 782 0 0 0 545 0 533 525 521 0 0 0 0 0 493 0 0 0 0 0 0 0 0 0 0 0 0 422 411 408 411 404 404 402 402 404 0 0 404 0 113 0 0 0 393 393 389 385 383 381 375 0 0 0 0 0 0 0 0 0 0 0 0 0
    0 0 0 0 0 0 0 0 0 0 0 0 0 0 0 0 0 0 0 0 0 0 0 0 0 0 0 0 0 0 0 0 0 0 0 0 0 0 0 0 0 0 0 0 0 0 0 0 0 0 0 0 0 0 0 0 0 0 0 0 0 0 0 0 0 0 0 0 0 0 1388 1388 1795 1936 1887 1887 1887 1936 1936 1887 1936 1936 1936 1936 1936 1887 1795 1795 2044 1936 2164 2044 0 0 4599 4088 3873 4329 4599 5256 5256 6133 5661 6133 6690 6690 7359 7359 6690 7359 6690 5661 5661 4599 5256 4599 4906 4599 4329 4599 5256 4906 5661 5256 5661 5256 5256 5661 6133 6690 6690 5661 6133 6133 5661 6133 6690 5661 6133 6133 6133 6133 6133 6133 6690 6133 6690 6133 6133 6690 6690 6133 6690 6690 6690 6690 7359 7359 7359 6690 7359 7359 7359 7359 6690 6690 6690 5256 6133 6133 6133 5256 5256 5661 3873 3066 2830 2628 2044 2230 2164 2044 1936 1989 2102 1989 1936 1936 1752 1672 1672 1752 1599 1362 1247 1268 1206 1149 1098 1115 1098 1082 1082 1132 1098 1098 1132 1132 1098 1098 1098 1082 1036 1022 1036 1008 968 955 0 0 0 0 782 750 766 758 750 766 721 714 707 707 681 669 657 639 645 639 651 0 0 0 0 0 0 639 0 0 0 0 0 0 0 0 0 799 774 0 0 0 549 0 533 525 529 521 0 0 0 504 500 0 0 0 0 0 0 0 0 0 0 0 0 425 418 413 415 406 404 402 402 0 0 0 406 0 113 0 0 0 0 393 389 385 383 381 375 0 0 0 0 629 357 0 0 0 0 0 0 0
    0 0 0 0 0 0 0 0 0 0 0 0 0 0 0 0 0 0 0 0 0 0 0 0 0 0 0 0 0 0 0 0 0 0 0 0 0 0 0 0 0 0 0 0 0 0 0 0 0 0 0 0 0 0 0 0 0 0 0 0 0 0 0 0 0 0 0 0 0 0 1388 1415 1711 1887 1887 1839 1839 1936 1936 1839 1887 1887 1887 1887 1887 1887 1795 1795 2044 1936 2164 2044 2374 0 3345 3345 3504 3679 4088 4906 5256 6133 5661 6133 6690 6690 7359 7359 6690 6690 6690 5256 5256 4088 4906 4329 4599 4329 4329 4329 4906 4599 5661 4906 5661 5256 5256 5661 6690 6690 6690 6133 6133 6133 5661 6133 6690 5661 6133 6133 6133 6133 6133 6133 6133 6133 6690 5661 6133 6133 6690 6133 6690 6690 6690 6690 7359 6690 7359 6690 7359 7359 7359 7359 6690 6690 6690 5256 6133 6133 5661 5256 5256 6133 4088 3199 2943 2725 2102 2230 2164 2102 1936 1989 2102 1989 1887 1936 1795 1711 1672 1752 1635 1388 1247 1268 1226 1149 0 1115 1098 1066 0 1132 1098 1082 1132 1132 1098 1098 1098 1082 1036 1036 0 1008 968 955 0 0 0 817 782 750 766 758 750 766 721 714 707 707 681 669 657 639 639 639 639 0 0 0 0 0 0 0 0 0 0 0 0 0 0 0 0 0 0 0 0 0 549 533 533 529 529 0 0 518 0 511 511 493 0 487 0 0 0 0 0 4329 0 0 0 425 422 418 418 411 406 404 0 215 214 0 411 0 114 114 114 0 0 393 389 385 381 381 375 0 0 0 0 634 0 0 0 0 0 0 0 0
    0 0 0 0 0 0 0 0 0 0 0 0 0 0 0 0 0 0 0 0 0 0 0 0 0 0 0 0 0 0 0 0 0 0 0 0 0 0 0 0 0 0 0 0 0 0 0 0 0 0 0 0 0 0 0 0 0 0 0 0 0 0 0 0 0 0 0 0 0 0 1415 1415 1635 1839 1839 1839 1839 1887 1887 1839 1887 1887 1887 1887 1887 1887 1839 1839 2102 1936 2164 2044 2230 2537 2830 2943 3199 3345 3873 4088 4906 5256 5661 5661 6133 6690 7359 7359 6690 6690 6690 5256 5256 4329 4906 4329 4599 4329 4088 4088 4329 4088 4906 4599 4906 4599 4906 5256 6690 6133 7359 6690 6690 6690 6133 6690 6690 5661 6690 6133 6133 6133 6133 6133 6133 5661 6690 5661 6133 6133 6133 6133 6690 6690 6690 6690 7359 7359 8177 7359 7359 7359 8177 8177 6690 7359 6690 5661 6133 6133 6133 5256 5256 6133 4329 3345 2943 2725 2102 2230 2164 2102 1936 1989 2044 1989 1887 1887 1795 1711 1672 1752 1635 1388 1247 1291 1226 1149 0 1115 1098 1066 0 1115 1098 1082 1115 1115 1098 1098 1098 1082 1051 1036 0 0 981 968 0 865 845 817 782 743 758 758 743 758 728 714 707 707 687 669 657 639 634 634 0 0 0 0 0 0 0 0 0 0 0 0 0 0 0 0 0 0 0 0 0 553 553 537 533 529 533 0 0 0 514 514 514 500 0 490 0 0 0 0 0 4906 0 0 425 427 425 420 420 413 408 0 215 215 214 0 0 0 114 114 114 114 0 393 389 385 381 381 375 0 0 0 0 634 0 0 0 0 0 0 0 0
    0 0 0 0 0 0 0 0 0 0 0 0 0 0 0 0 0 0 0 0 0 0 0 0 0 0 0 0 0 0 0 0 0 0 0 0 0 0 0 0 0 0 0 0 0 0 0 0 0 0 0 0 0 0 0 0 0 0 0 0 0 0 0 0 0 0 0 0 0 1471 1443 1443 1635 1839 1839 1839 1839 1936 1887 1839 1887 1887 1887 1887 1936 1887 1839 1887 2102 1989 2164 2102 2164 2374 2628 2725 2943 3066 3679 3873 4599 5256 5256 5661 6133 6133 6690 7359 7359 6133 6133 5256 4906 4088 4599 4088 4088 3873 3873 3873 3873 3873 4329 4088 4599 4329 4906 5256 6133 6690 7359 7359 7359 7359 6690 6690 7359 6133 6690 6690 6133 6133 6133 6133 6133 5661 6133 5256 6133 5661 6133 6133 6690 6690 6690 7359 8177 7359 8177 8177 7359 7359 8177 8177 7359 7359 7359 6133 6133 6133 6133 5661 5256 6133 4329 3345 2830 2725 2164 2164 2164 2102 1936 1989 1989 1989 1887 1887 1795 1752 1711 1752 1672 1388 1291 1314 1268 1187 1149 1132 1098 1066 0 1132 1098 1082 0 1115 1098 1115 1098 1098 1051 1036 0 0 981 968 886 865 845 817 782 743 758 750 743 750 721 707 700 700 687 669 657 639 0 0 0 0 0 0 0 0 0 0 663 0 0 0 0 0 0 0 0 0 0 0 0 553 553 537 533 529 533 0 0 0 0 514 514 511 0 493 0 0 0 0 0 0 432 430 427 427 422 420 420 415 0 0 215 0 0 0 0 0 114 114 114 114 114 0 389 385 381 381 377 0 0 0 0 639 0 0 634 0 0 0 0 0
    0 0 0 0 0 0 0 0 0 0 0 0 0 0 0 0 0 0 0 0 0 0 0 0 0 0 0 0 0 0 0 0 0 0 0 0 0 0 0 0 0 0 0 0 0 0 0 0 0 0 0 0 0 0 0 0 0 0 0 0 0 0 0 0 0 0 0 0 0 1471 1443 1443 1565 1839 1839 1839 1839 1936 1887 1795 1887 1887 1887 1887 1936 1936 1887 1887 2164 1989 2164 2102 2164 2374 2537 2628 2943 2943 3679 3679 4599 4906 5256 5661 6133 6133 6690 7359 6690 6133 6133 5256 4329 3873 4329 4088 3873 3679 3679 3679 3679 3679 3873 3679 4329 4088 5256 5256 6133 6690 7359 7359 7359 7359 7359 6690 7359 6690 7359 6690 6133 6133 6133 6133 6133 5661 6133 4906 6133 5256 6133 6133 6690 6690 6690 6690 7359 7359 8177 8177 7359 8177 8177 8177 7359 7359 7359 6133 6133 6690 6133 6133 5256 5661 4599 3345 2830 2725 2164 2164 2102 2102 1936 1936 1989 1989 1839 1839 1795 1752 1711 1711 1672 1415 1314 1338 1291 1206 1168 0 1098 1066 0 1132 1098 1082 0 1115 1098 1115 1115 1098 1066 1051 0 0 981 968 897 865 855 817 791 735 750 750 743 743 721 707 700 700 694 663 657 639 0 0 629 634 618 0 618 0 0 623 645 0 0 0 0 0 0 0 0 0 0 0 0 553 553 537 529 529 529 0 0 0 0 0 518 514 0 0 0 0 0 454 443 0 432 427 425 425 422 420 420 415 0 0 0 0 0 0 0 0 114 114 114 114 114 114 389 383 381 379 377 0 0 0 0 645 0 0 0 0 0 0 0 0
    0 0 0 0 0 0 0 0 0 0 0 0 0 0 0 0 0 0 0 0 0 0 0 0 0 0 0 0 0 0 0 0 0 0 0 0 0 0 0 0 0 0 0 0 0 0 0 0 0 0 0 0 0 0 0 0 0 0 0 0 0 0 0 0 0 0 0 0 0 1533 1533 1501 1565 1839 1839 1795 1839 1936 1887 0 1887 1887 1887 1887 1936 1936 1887 1887 2164 1989 2164 2164 2164 2299 2537 2537 2943 2830 3679 3873 4906 4906 5256 5661 6133 6133 6690 6690 6690 5661 5256 4906 3873 3873 4088 3873 3679 3679 3679 3679 3679 3873 3873 3873 4599 4906 6133 6133 6133 6690 6690 7359 7359 7359 7359 6690 6690 6690 6690 6690 6133 6133 6133 6133 6133 5661 6133 4906 5661 5256 6133 6133 6133 6133 6690 6690 7359 6690 8177 7359 7359 7359 7359 7359 7359 7359 6690 6690 6133 6133 6133 6133 4906 4906 4329 3345 2725 2830 2230 2164 2102 2044 1936 1887 1936 1936 1795 1795 1795 1711 1672 1672 1711 1443 1338 1362 1314 1206 1168 0 1098 1066 0 1115 1098 1066 553 1115 1115 1132 1115 1098 1082 1066 0 0 994 981 908 865 855 817 791 735 750 750 743 743 728 707 700 700 694 669 663 639 86 0 629 634 618 618 623 0 0 629 634 0 0 0 0 0 0 0 0 0 0 0 0 553 553 537 529 529 525 0 0 0 0 0 518 0 0 0 0 0 0 443 438 432 430 427 420 420 420 420 422 418 212 0 0 0 0 0 0 0 113 114 114 114 114 114 0 383 379 379 375 371 371 367 367 0 0 357 0 0 0 0 0 0
    0 0 0 0 0 0 0 0 0 0 0 0 0 0 0 0 0 0 0 0 0 0 0 0 0 0 0 0 0 0 0 0 0 0 0 0 0 0 0 0 0 0 0 0 0 0 0 0 0 0 0 0 0 0 0 0 0 0 0 0 0 0 0 0 0 0 0 0 0 0 1672 1672 1635 1887 1839 1839 1839 1936 1936 0 1936 1887 1887 1936 1936 1936 1887 1887 2164 1989 2164 2164 2164 2299 2537 2537 2830 2830 3873 4088 5256 5256 5256 5661 6133 5661 6133 6133 5661 4906 4599 4329 3679 3504 3679 3679 3679 3504 3504 3679 3504 3873 3873 3873 4906 5256 6690 6690 6690 6690 6690 7359 7359 6690 6690 6133 6690 6690 6690 6690 6690 6133 6133 6133 6133 6133 5661 4906 5661 5256 5661 5661 5661 6133 6133 6133 6690 6133 7359 7359 7359 7359 7359 7359 7359 6690 6690 6690 6133 6133 6133 6133 4599 4599 4088 3345 2725 2830 2299 2164 2102 2044 1936 1839 1887 1887 1752 1752 1752 1672 1635 1672 1711 1443 1338 1362 1314 1226 1187 1132 1098 1066 0 1115 1098 1066 557 0 1115 1149 1132 1115 1082 1066 0 0 0 981 908 855 855 817 799 743 750 750 743 743 735 714 707 707 700 669 663 645 86 0 634 639 618 623 629 0 0 629 629 0 0 0 0 0 0 0 0 0 0 0 0 553 557 537 529 529 529 514 514 518 0 0 514 0 0 0 0 0 0 0 432 430 430 422 415 413 418 420 422 0 210 0 0 0 0 0 0 0 0 114 114 114 114 114 0 381 377 377 373 369 369 367 366 364 359 357 348 0 0 0 0 0
    0 0 0 0 0 0 0 0 0 0 0 0 0 0 0 0 0 0 0 0 0 0 0 0 0 0 0 0 0 0 0 0 0 0 0 0 0 0 0 0 0 0 0 0 0 0 0 0 0 0 0 0 0 0 0 0 0 0 0 0 0 0 0 0 0 0 0 0 0 0 1711 1752 1711 1936 1887 1839 1839 1936 1936 0 1936 1887 1887 1936 1936 1936 1887 1887 2102 1989 2164 2164 2164 2230 2453 2537 2830 2830 4088 4599 5661 5661 5661 5661 5661 5661 5661 5661 4906 4329 4088 4088 3504 3504 3504 3504 3504 3504 3679 3679 3504 3873 3873 3873 4906 5256 6690 6133 6690 6690 6690 6690 7359 6690 6690 6133 6133 6690 6690 6690 6690 5661 5661 6133 6133 5661 5256 4906 5661 4906 5661 5661 5661 6133 6133 6133 6690 6133 7359 7359 7359 7359 7359 7359 7359 6690 7359 6690 6133 6133 6133 5661 4599 4329 4088 3345 2725 2830 2299 2164 2102 2044 1936 1839 1839 1839 1711 1672 1752 1635 1565 1599 1711 1471 1362 1362 1314 1206 1187 0 1098 1066 0 1115 1115 0 557 0 1132 1149 1132 1115 1098 1066 0 0 994 981 908 845 845 817 799 743 750 750 750 743 743 714 707 707 0 669 663 645 86 0 634 639 623 623 639 0 0 634 0 0 0 0 0 0 0 267 0 0 0 0 0 553 557 541 529 529 529 518 514 518 0 0 0 0 0 0 0 0 0 0 432 430 427 418 411 408 411 418 425 0 0 0 0 0 0 0 0 0 0 0 0 114 114 114 0 381 375 375 373 369 369 367 366 364 359 359 350 0 0 0 0 0
    0 0 0 0 0 0 0 0 0 0 0 0 0 0 0 0 0 0 0 0 0 0 0 0 0 0 0 0 0 0 0 0 0 0 0 0 0 0 0 0 0 0 0 0 0 0 0 0 0 0 0 0 0 0 0 0 0 0 0 0 0 0 0 0 0 0 0 0 0 0 1795 1839 1795 1936 1936 1839 1887 1936 1936 0 1936 1936 1887 1936 1936 1936 1887 1936 2164 1989 2164 2164 2164 2230 2453 2537 2830 2725 4088 4906 5661 5661 6133 5256 5661 5256 5256 5256 4599 4329 4329 4088 3504 3679 3679 3679 3679 3504 3679 3679 3504 3873 3873 4329 5256 5256 6690 6690 7359 7359 7359 7359 7359 7359 6690 6133 6133 6690 6133 6690 6133 5661 5256 5661 5661 5256 4906 4906 5256 4906 5661 5661 5256 6133 6133 6133 6690 6133 7359 7359 7359 7359 7359 7359 7359 6690 7359 6690 6133 6133 5661 5661 4599 4599 4329 3504 2830 2830 2374 2164 2102 2044 1936 1795 1795 0 1672 1635 1711 1565 1501 1565 1672 1471 1362 1362 1338 1226 1206 1132 1115 1082 1098 1115 1115 0 561 0 1149 1168 0 1098 1098 1066 0 0 981 981 908 845 845 817 799 750 758 758 750 743 750 714 707 707 0 675 669 657 0 645 639 651 634 629 651 623 0 0 0 0 0 0 0 0 0 0 0 0 0 0 0 553 557 541 529 533 529 518 511 518 0 0 0 0 0 0 0 0 0 0 435 0 425 413 0 406 408 418 422 422 0 0 0 0 210 0 0 0 0 0 0 114 114 115 0 381 375 0 371 367 367 366 364 364 359 359 352 0 0 0 0 0
    0 0 0 0 0 0 0 0 0 0 0 0 0 0 0 0 0 0 0 0 0 0 0 0 0 0 0 0 0 0 0 0 0 0 0 0 0 0 0 0 0 0 0 0 0 0 0 0 0 0 0 0 0 0 0 0 0 0 0 0 0 0 0 0 0 0 0 0 0 0 1887 1839 1839 1989 1936 1887 1887 1936 1936 1839 1989 1936 1887 1936 1989 1936 1936 1936 2164 1989 2164 2164 2164 2230 2374 2537 2830 2725 4088 5256 5661 5256 5661 4906 5256 4906 4906 4906 4329 4329 4088 4088 3679 3679 3679 3679 3873 3679 3679 3873 3679 4088 4088 4906 6133 6133 7359 7359 7359 7359 7359 7359 7359 7359 6690 6133 6133 6690 6133 6133 6133 5256 5256 5661 5256 4906 4329 4906 4906 4906 5256 5661 5256 6133 5661 6690 6690 6690 7359 7359 7359 7359 7359 8177 7359 6690 7359 6690 6133 5661 5661 5661 4599 4599 4329 3504 2830 2830 2374 2102 2044 2044 1936 1795 1795 514 1672 1599 1672 1533 1471 1533 1672 1501 1388 1362 1338 1226 1206 1149 1132 1098 1115 0 1149 0 566 566 1168 1168 0 1098 1082 1066 0 0 981 981 908 845 845 817 808 758 758 766 758 750 758 721 714 714 707 675 675 663 0 657 639 657 639 639 657 634 0 0 0 0 0 0 0 0 0 0 267 0 0 533 0 549 549 541 529 533 529 521 511 0 0 0 0 0 0 0 0 669 0 0 438 0 0 408 0 404 406 413 420 422 0 0 0 0 209 0 0 0 0 0 114 114 114 115 0 379 0 0 0 366 364 364 362 360 357 357 350 0 0 0 0 0
    0 0 0 0 0 0 0 0 0 0 0 0 0 0 0 0 0 0 0 0 0 0 0 0 0 0 0 0 0 0 0 0 0 0 0 0 0 0 0 0 0 0 0 0 0 0 0 0 0 0 0 0 0 0 0 0 0 0 0 0 0 0 0 0 0 0 0 0 0 0 1936 1887 1839 1989 1989 1887 1887 1989 1989 1887 2044 1989 1936 1989 1989 1989 1936 1936 2164 1936 2164 2164 2164 2164 2374 2537 0 2830 4329 5256 5256 5256 5661 4906 5256 4906 4329 4329 4088 4088 3873 3873 3679 3679 3679 3873 4088 3873 3873 4329 4088 4599 4906 5661 6690 6133 7359 8177 7359 7359 7359 7359 7359 7359 6690 6133 6133 6690 6133 6133 6133 5256 5256 5661 4906 4599 4088 4599 4329 4329 4906 4906 4599 6133 5661 6690 6690 6690 7359 7359 7359 7359 7359 8177 7359 6690 6690 6690 6133 5661 5661 5661 4906 4599 4599 3504 2830 2943 2453 2102 2044 1989 1936 1752 1752 518 1672 1599 1672 1533 1471 1533 1672 1533 1388 1362 1338 1226 1226 1168 1149 1115 1132 0 1168 0 570 570 0 1168 160 0 1082 1051 0 0 981 981 908 845 845 817 808 766 766 766 758 750 758 721 714 714 714 0 675 669 0 663 645 657 645 639 663 639 639 0 104 104 0 0 0 0 0 0 0 0 0 529 529 541 541 541 525 529 529 521 511 518 507 507 0 0 0 0 0 669 0 0 435 0 418 406 0 404 406 413 420 422 0 0 0 0 0 0 0 0 0 0 0 0 114 0 0 0 0 0 0 364 360 362 359 357 355 353 348 0 0 0 0 0
    0 0 0 0 0 0 0 0 0 0 0 0 0 0 0 0 0 0 0 0 0 0 0 0 0 0 0 0 0 0 0 0 0 0 0 0 0 0 0 0 0 0 0 0 0 0 0 0 0 0 0 0 0 0 0 0 0 0 0 0 0 0 0 0 0 0 0 0 0 1887 1936 1887 1839 2044 1989 1936 1936 1989 1989 1887 2044 2044 1936 1989 2044 1989 1936 1936 2164 1936 2102 2164 2102 2164 2374 2537 0 0 4906 5661 5661 5256 6133 5256 5256 5256 4599 4906 4088 4088 3873 3873 3504 3679 3679 3873 3873 4088 3873 4906 4599 5256 5661 6133 7359 6690 7359 8177 7359 7359 7359 7359 7359 7359 6690 6133 6133 6690 5661 6133 6133 5256 5256 5256 4906 4329 3873 4599 4088 4088 4329 4599 4329 5256 5256 6133 6133 6133 6690 6690 7359 7359 7359 8177 7359 6690 6690 6690 6133 5661 5661 5661 4906 4599 4599 3679 2830 2830 2374 1989 1989 1936 1887 1752 1752 0 1672 1599 1672 1533 1471 1533 1672 1533 1415 1338 1338 1226 1226 1168 1168 1132 1132 0 1187 0 574 574 0 0 160 160 1051 0 0 1008 968 968 919 0 855 826 817 774 766 774 766 750 766 721 714 714 714 0 675 669 645 663 645 663 651 645 669 0 0 0 0 0 0 0 0 0 0 265 0 0 0 529 525 537 537 537 525 529 529 525 511 518 511 507 0 0 0 0 0 663 0 0 435 0 0 0 0 404 406 415 420 422 0 0 0 0 0 0 0 0 0 0 0 0 0 0 0 0 0 0 364 362 357 360 353 353 352 350 347 0 0 0 0 0
    0 0 0 0 0 0 0 0 0 0 0 0 0 0 0 0 0 0 0 0 0 0 0 0 0 0 0 0 0 0 0 0 0 0 0 0 0 0 0 0 0 0 0 0 0 0 0 0 0 0 0 0 0 0 0 0 0 0 0 0 0 0 0 0 0 0 0 0 0 1887 1839 1839 1839 1989 1989 1936 1887 1989 1989 1887 2044 2044 1936 1989 2044 1989 1936 1936 2102 1936 2102 2164 2102 2102 2299 2537 0 0 5661 6133 6133 5256 6133 5256 5256 5256 4599 4906 3873 4088 3873 3873 3504 3679 3679 3873 3873 4329 4088 5256 4906 6133 6133 6690 7359 7359 7359 8177 7359 7359 7359 7359 7359 7359 6133 6133 6133 6690 5661 5661 5661 5256 5256 5256 4599 4088 3873 4329 3873 3873 4088 4088 4088 4599 5256 5661 6133 6133 6690 6690 7359 7359 7359 8177 7359 6690 6133 6690 6133 5661 5661 5661 4906 4906 4599 3679 2943 2830 2374 1989 1936 1936 1887 1752 1752 1752 1672 1599 1672 1565 1471 1501 1672 1533 1415 1314 1314 1206 1226 1168 1168 1132 1132 0 1187 0 574 574 0 0 0 0 0 0 0 1008 968 968 919 0 855 826 817 774 774 774 774 758 774 728 714 714 714 0 675 669 651 663 651 663 651 645 669 0 0 0 0 0 0 0 0 0 0 0 0 0 0 525 525 533 533 537 525 529 529 525 511 521 511 507 0 0 0 0 0 0 0 0 446 0 0 0 0 406 0 415 0 0 0 0 0 0 0 0 0 0 0 0 0 0 0 0 0 0 0 364 362 360 353 359 352 348 348 348 345 0 0 0 0 0
    0 0 0 0 0 0 0 0 0 0 0 0 0 0 0 0 0 0 0 0 0 0 0 0 0 0 0 0 0 0 0 0 0 0 0 0 0 0 0 0 0 0 0 0 0 0 0 0 0 0 0 0 0 0 0 0 0 0 0 0 0 0 0 0 0 0 0 0 0 1936 1887 1839 1839 1989 1989 1936 1887 1936 1989 1887 2102 2044 1936 1989 2044 2044 1989 1989 2102 1936 2044 2164 2044 2102 2230 2537 124 124 6133 6133 6133 5661 6133 5256 5256 5256 4329 4906 4088 4088 3873 3679 3504 3679 3873 4088 4088 4599 4599 5661 5661 6690 6690 6690 7359 7359 7359 8177 7359 7359 7359 8177 8177 8177 6690 6690 6690 6690 5661 6133 5661 5256 4906 5256 4599 4088 3873 4329 3873 3873 3873 4088 3873 4599 4906 5256 5661 6133 6133 6690 6690 7359 8177 8177 8177 6690 6133 6690 6690 6133 6133 5661 5256 4906 4599 3873 3066 2830 2453 2044 1936 1936 1887 1752 1752 1752 1672 1599 1635 1565 1471 1471 1672 1533 1415 1314 1314 1206 1226 1149 1168 1132 1132 1132 1187 0 0 0 0 1066 0 0 0 0 0 994 968 968 919 0 855 826 817 782 774 774 774 758 782 735 721 714 714 0 675 669 645 663 651 663 651 645 669 106 0 0 0 0 570 0 0 0 0 0 0 0 0 525 525 533 533 0 525 529 529 529 514 521 514 511 0 0 0 487 0 0 0 0 0 0 0 0 0 0 0 418 0 0 0 0 0 0 0 114 0 0 0 0 0 0 0 0 0 375 369 362 360 359 352 357 348 347 347 347 343 0 0 0 0 0
    0 0 0 0 0 0 0 0 0 0 0 0 0 0 0 0 0 0 0 0 0 0 0 0 0 0 0 0 0 0 0 0 0 0 0 0 0 0 0 0 0 0 0 0 0 0 0 0 0 0 0 0 0 0 0 0 0 0 0 0 0 0 0 0 0 0 0 0 0 1989 1936 1887 1839 1989 1989 1936 1887 1936 1989 1887 2044 2044 1936 1989 2044 2044 1989 1989 2102 1936 2044 2164 2044 2044 2164 2537 124 0 6133 6133 6133 5661 6133 5661 5661 5256 4329 4599 4088 4088 3873 3873 3504 3679 3873 4088 4329 4906 5256 6133 6133 6690 7359 7359 7359 7359 7359 7359 7359 7359 8177 8177 8177 8177 7359 7359 6690 6690 5661 6133 6133 5256 4599 4906 4329 4088 3873 4329 3873 3873 3873 4329 3873 4329 4599 4906 5256 5661 5661 6133 6690 7359 8177 8177 8177 7359 6690 7359 6690 6133 6133 6133 5661 5256 4906 4088 3066 2830 2453 0 1989 1936 1887 1795 1752 1752 1711 1635 1672 1599 1471 1471 1635 1533 1388 1291 1291 1206 1206 1149 1168 1132 1132 1132 0 0 0 0 0 1051 0 0 0 0 0 994 968 968 919 0 865 826 817 791 782 782 782 774 791 735 721 721 714 0 675 669 645 663 651 657 651 645 663 106 106 0 0 0 574 0 0 0 0 545 0 0 0 529 529 533 533 0 525 529 529 529 518 521 514 0 0 0 487 484 0 0 0 0 471 0 0 0 0 0 0 427 425 0 0 0 0 0 0 0 0 0 0 0 0 99 0 0 377 377 371 364 362 360 352 355 348 345 343 343 342 0 0 0 0 0
    0 0 0 0 0 0 0 0 0 0 0 0 0 0 0 0 0 0 0 0 0 0 0 0 0 0 0 0 0 0 0 0 0 0 0 0 0 0 0 0 0 0 0 0 0 0 0 0 0 0 0 0 0 0 0 0 0 0 0 0 0 0 0 0 0 0 0 0 0 1936 1887 1839 1839 1989 1989 1936 1887 1936 1989 1887 2044 2044 1936 1989 2044 2044 1936 1936 2044 1887 1989 2164 2044 2044 2164 2537 0 0 5256 5256 5256 5256 5661 5256 5256 4906 4088 4329 3873 4088 4088 3873 3679 3679 4088 4088 4599 5256 5661 6690 6133 6690 6690 7359 7359 7359 7359 7359 7359 7359 8177 8177 8177 0 7359 7359 7359 6690 5661 5661 5661 5256 4329 4599 4088 3873 3873 4329 3873 3679 3679 4329 3873 4088 4599 4906 5256 5661 5661 6133 6690 7359 8177 0 8177 7359 6690 7359 6690 6690 6690 6133 5661 5661 5256 4599 3199 0 0 0 1989 1936 1887 1795 1795 1752 1711 1635 1635 1599 1443 1443 1599 1501 1388 1268 1291 1187 1206 1149 1168 1132 1115 1115 1168 1098 0 1115 1132 0 1022 994 1008 994 994 994 955 955 919 0 865 836 826 791 782 791 791 782 791 743 728 721 714 0 675 669 645 663 651 657 651 639 663 107 106 0 0 0 579 549 0 0 0 549 0 0 0 533 0 537 537 0 529 533 533 533 521 521 514 0 0 507 487 484 0 0 0 0 471 465 462 451 0 0 0 430 427 0 420 0 0 0 0 0 0 0 0 0 0 99 0 0 377 377 371 364 362 360 352 353 347 343 342 342 342 0 0 0 0 0
    0 0 0 0 0 0 0 0 0 0 0 0 0 0 0 0 0 0 0 0 0 0 0 0 0 0 0 0 0 0 0 0 0 0 0 0 0 0 0 0 0 0 0 0 0 0 0 0 0 0 0 0 0 0 0 0 0 0 0 0 0 0 0 0 0 0 0 0 0 1936 1887 1839 1839 1989 1989 1936 1887 1936 1989 1936 2044 2044 1936 1989 2044 2044 1936 1936 2044 1887 1989 2164 2044 2044 2164 2537 2830 2943 4599 4906 4599 4329 4599 4329 4329 3873 3679 4088 3504 3679 3873 3679 3504 3679 4329 4088 4329 4906 5661 6690 6690 7359 6690 7359 7359 8177 8177 8177 8177 8177 0 0 0 0 8177 8177 7359 6690 5661 6133 5661 4906 4088 4599 3873 3679 3679 4088 3679 3679 3679 4088 3679 4088 4599 4599 4906 5661 5661 6690 6690 7359 0 0 0 8177 6690 7359 6690 6690 6690 6133 5661 5661 5256 4906 3345 2830 2628 2102 2044 1989 1936 1839 1795 1795 1795 1672 1672 1635 1501 1471 1635 1533 1415 1268 1291 1206 1206 1149 1149 1149 1132 1132 1187 1098 1132 1115 1115 0 1008 981 994 981 981 981 955 955 908 865 876 845 836 799 791 791 791 782 791 750 728 721 721 681 675 669 645 663 645 651 645 639 657 107 0 0 0 0 588 553 0 553 545 553 549 0 0 537 0 537 537 0 0 533 533 533 525 521 514 504 504 504 487 0 0 0 3679 0 468 465 462 451 443 0 0 430 427 0 420 0 0 0 0 0 0 0 0 0 0 0 0 0 373 375 371 364 360 360 350 352 345 342 340 340 0 0 0 0 0 0
    0 0 0 0 0 0 0 0 0 0 0 0 0 0 0 0 0 0 0 0 0 0 0 0 0 0 0 0 0 0 0 0 0 0 0 0 0 0 0 0 0 0 0 0 0 0 0 0 0 0 0 0 0 0 0 0 0 0 0 0 0 0 0 0 0 0 0 0 0 1936 1887 1839 1839 1936 1936 1887 1887 1936 1936 1887 1989 1989 1887 1989 1989 1989 1936 1936 2044 1887 1989 2102 2044 2044 2164 2453 2830 2943 4329 4329 4329 3873 3873 3679 3504 3199 3199 3345 3066 3066 3345 3345 3345 3679 4329 3873 4329 4906 5661 6133 6690 7359 6690 7359 7359 8177 0 8177 8177 8177 0 0 0 0 8177 8177 7359 6690 6133 6133 5661 4906 4088 4599 3873 3873 3873 3873 3679 3679 3504 4088 3679 3873 4329 4599 4906 5256 5661 6133 6690 7359 0 0 0 8177 6690 7359 6690 6690 6690 6133 5661 5661 5256 4906 3345 2830 2628 2164 2044 1989 1936 1887 1839 1839 1795 1711 1672 1672 1565 1501 1599 1565 1415 1268 1291 1206 1187 1149 1149 1149 1132 1132 1187 1098 1132 1132 1132 0 1022 981 994 981 981 981 955 955 908 865 876 845 836 808 791 799 799 791 799 758 735 721 714 681 675 663 645 657 645 645 645 634 645 107 0 0 0 0 593 557 557 0 549 557 553 549 0 0 0 0 537 0 0 533 533 533 521 518 511 504 500 0 487 0 0 0 3504 0 468 462 462 451 443 440 0 432 427 427 420 0 0 0 0 0 0 0 0 0 0 0 359 0 373 373 371 366 362 362 350 350 343 342 340 340 0 0 0 0 0 0
    0 0 0 0 0 0 0 0 0 0 0 0 0 0 0 0 0 0 0 0 0 0 0 0 0 0 0 0 0 0 0 0 0 0 0 0 0 0 0 0 0 0 0 0 0 0 0 0 0 0 0 0 0 0 0 0 0 0 0 0 0 0 0 0 0 0 0 0 0 1936 1887 1839 1839 1887 1887 1887 1839 1887 1887 1887 1989 1989 1887 1936 1989 1989 1936 1936 1989 1887 1989 2102 1989 2044 2164 2374 2830 2943 4088 4088 4088 3679 3345 3199 3199 2725 0 1989 2374 2537 2943 3066 3199 3345 4088 3679 4088 4599 6133 6133 6690 7359 6690 7359 7359 8177 0 8177 8177 8177 0 0 0 0 0 8177 7359 6690 6133 6133 5661 5256 4088 4599 3873 4088 4088 4088 3873 3679 3679 4088 3873 3873 4329 4329 4599 5256 5661 6133 6133 7359 0 0 8177 8177 6690 6690 6690 6133 6133 5661 5256 5661 4906 5256 3504 0 2830 2374 2164 2044 1989 1887 1839 1839 1839 1711 1672 1672 1599 1533 1599 1599 1415 1268 1291 1206 1187 1149 1149 1149 1132 1132 1187 1098 1132 1149 1132 1066 1022 981 981 968 968 981 955 955 908 876 886 855 836 808 791 791 799 791 799 758 728 714 714 681 669 663 645 657 645 645 645 634 645 0 0 0 0 598 598 561 561 561 553 557 557 553 545 545 0 541 541 0 0 533 533 529 525 514 511 500 497 0 484 0 0 0 3504 0 0 459 457 446 443 438 0 430 427 427 420 0 0 0 0 0 0 0 0 0 0 0 362 371 373 373 373 367 366 364 352 352 343 342 339 339 337 0 0 0 0 0
    0 0 0 0 0 0 0 0 0 0 0 0 0 0 0 0 0 0 0 0 0 0 0 0 0 0 0 0 0 0 0 0 0 0 0 0 0 0 0 0 0 0 0 0 0 0 0 0 0 0 0 0 0 0 0 0 0 0 0 0 0 0 0 0 0 0 0 0 0 1936 1839 1795 1711 1839 1839 1839 1795 1839 1839 1839 1887 1936 1839 1887 1936 1936 1887 1887 1936 1839 1936 2044 1989 1989 2102 2299 2628 2830 3679 3679 3873 3504 3066 2943 2943 2102 1752 1752 1839 1887 2044 2830 2943 3199 3679 3345 3679 4329 5661 5256 6133 6690 6133 6690 7359 7359 8177 8177 0 8177 0 0 0 0 8177 8177 7359 6690 6690 6690 6133 5256 4329 4599 4329 4329 4329 4329 4088 4088 3873 4329 4088 4088 4329 4599 4329 5256 5256 5661 5661 6133 8177 8177 7359 7359 6133 6690 6133 6133 6133 5661 5256 5661 4906 5256 3504 2943 2725 2374 2230 2102 2044 1936 1839 1839 1839 1752 1672 1672 1635 1533 1599 1635 1415 1247 1268 1206 1168 1149 1149 1132 1115 1115 1168 1098 1115 1149 1132 1082 1022 994 994 968 968 968 955 955 897 876 886 855 836 808 791 791 799 799 799 758 728 707 707 675 669 663 645 651 645 639 645 629 639 629 623 0 0 598 603 566 566 566 557 561 557 557 549 549 545 545 545 541 529 533 533 529 525 514 507 497 493 490 484 0 0 0 3504 0 0 454 451 443 440 435 0 430 425 425 415 0 406 0 0 0 0 0 0 0 0 364 364 371 373 373 373 367 366 364 355 353 345 342 339 339 337 0 0 0 0 0
    0 0 0 0 0 0 0 0 0 0 0 0 0 0 0 0 0 0 0 0 0 0 0 0 0 0 0 0 0 0 0 0 0 0 0 0 0 0 0 0 0 0 0 0 0 0 0 0 0 0 0 0 0 0 0 0 0 0 0 0 0 0 0 0 0 0 0 0 0 1936 1839 1711 1635 1711 1752 1795 1711 1795 1795 1795 1839 1839 1795 1839 1887 1887 1839 1887 1887 1839 1887 1989 1936 1936 1989 2164 2453 2725 3199 3345 3345 3199 2628 2044 2044 1839 1672 1711 1752 1795 1795 2164 2725 3066 3679 3345 3873 4329 5256 4906 6133 6133 6133 7359 7359 7359 8177 8177 0 8177 0 0 8177 0 8177 8177 7359 6690 7359 6690 6133 5661 4329 4906 4329 4599 4329 4599 4088 4329 3873 4599 4088 4329 4329 4599 4329 5256 5256 5661 5661 5661 7359 7359 6133 6690 6133 6133 6133 6133 6133 5661 4906 5661 4599 4906 3679 2943 2725 2453 2299 2164 2044 1989 1839 1839 1887 1752 1711 1711 1672 1565 1599 1635 1388 1226 1268 1206 1149 1149 1149 1149 1115 1115 1168 1098 1115 1168 1168 1168 1051 1022 1008 981 968 981 955 943 886 886 886 855 836 808 791 791 799 799 791 766 728 707 707 681 663 663 645 651 645 639 645 629 639 629 618 618 608 598 608 570 574 570 561 566 561 557 553 549 549 549 549 545 533 0 533 529 525 514 507 497 493 0 484 0 0 0 3345 0 3504 0 448 440 438 435 432 427 422 422 413 408 406 0 0 0 0 0 0 0 0 366 369 377 375 375 375 369 367 366 359 355 347 342 339 337 336 0 0 0 0 0
    0 0 0 0 0 0 0 0 0 0 0 0 0 0 0 0 0 0 0 0 0 0 0 0 0 0 0 0 0 0 0 0 0 0 0 0 0 0 0 0 0 0 0 0 0 0 0 0 0 0 0 0 0 0 0 0 0 0 0 0 0 0 0 0 0 0 0 0 0 1989 1839 1599 1565 1635 1711 1711 1672 1711 1711 1711 1752 1795 1752 1795 1795 1839 1795 1795 1839 1795 1839 1936 1887 1887 1936 2044 2164 2453 2830 2943 3199 3066 2164 1752 1795 1752 1599 1565 1635 1672 1711 0 0 3199 3679 3504 3873 4329 5256 4906 6133 6133 6133 7359 7359 7359 8177 8177 0 8177 0 8177 8177 0 8177 8177 7359 6690 7359 6690 6133 6133 4599 5256 4599 4906 4329 4599 4088 4599 4088 4906 4329 4599 4329 4906 4329 5256 5256 5256 5661 5661 6133 6690 5256 6690 5661 5661 5661 5661 6133 5256 4599 5256 4088 4329 3504 2943 2725 2453 2374 2230 2102 2044 1887 1887 1887 1795 1752 1711 1672 1565 1533 1599 1362 1206 1247 1206 1132 1132 1132 1149 1115 1115 1168 1115 1132 1187 1206 1226 1132 1098 1098 1036 1022 1008 981 968 886 897 897 865 845 808 791 791 799 799 791 766 735 707 707 681 669 663 651 657 645 639 645 629 634 629 618 613 608 598 613 579 579 570 566 566 566 557 553 553 553 549 549 545 533 0 533 529 529 511 507 493 0 0 0 0 0 0 3345 0 3504 0 0 0 438 435 432 427 425 425 415 408 408 402 0 0 0 0 0 0 0 369 371 381 379 377 377 373 367 366 360 355 347 342 339 337 334 0 0 0 0 0
    0 0 0 0 0 0 0 0 0 0 0 0 0 0 0 0 0 0 0 0 0 0 0 0 0 0 0 0 0 0 0 0 0 0 0 0 0 0 0 0 0 0 0 0 0 0 0 0 0 0 0 0 0 0 0 0 0 0 0 0 0 0 0 0 0 0 0 0 0 1752 1599 1443 1443 1471 1599 1635 1599 1672 1672 1672 1672 1711 1711 1711 1711 1752 1711 1752 1752 1795 1752 1839 1839 1839 1887 1936 1936 2044 2374 2628 2725 2537 1887 1599 1711 1635 1501 1501 1565 1599 1672 1711 1887 2537 3199 3199 3345 3873 4599 4329 5256 5661 6133 7359 7359 7359 8177 8177 0 8177 8177 8177 7359 8177 8177 7359 6690 6690 7359 7359 6690 6133 5256 5661 4906 4906 4599 4599 4088 4599 4088 4599 4329 4599 4599 5256 4329 5661 5661 5256 5256 5256 5661 6133 4906 6133 5256 5256 4906 5256 5661 4906 4329 5256 3873 4088 3345 2943 2628 2374 2299 2230 2102 2044 1936 1936 1936 1839 1752 1711 1711 1599 1533 1599 1388 1226 1247 1206 1132 1132 1132 1149 1132 1115 1168 1132 1149 1206 1226 1247 1187 1187 1206 1115 1082 1051 1008 968 876 908 897 876 845 817 791 791 799 799 782 766 735 707 707 687 669 663 657 657 645 634 645 623 629 623 613 613 603 593 0 584 584 574 570 570 566 557 557 557 553 549 549 0 533 0 533 529 529 511 507 0 0 2628 0 0 0 0 3345 0 3679 0 0 0 435 432 430 427 422 425 415 411 411 402 0 0 0 0 0 0 0 373 375 385 381 377 377 375 369 366 362 355 345 342 339 337 334 0 0 0 0 0
    0 0 0 0 0 0 0 0 0 0 0 0 0 0 0 0 0 0 0 0 0 0 0 0 0 0 0 0 0 0 0 0 0 0 0 0 0 0 0 0 0 0 0 0 0 0 0 0 0 0 0 0 0 0 0 0 0 0 0 0 0 0 0 0 0 0 0 0 0 1672 1533 1443 1415 1443 1565 1565 1533 1599 1635 1635 1635 1672 1635 1635 1672 1711 1672 1672 1672 1711 1711 1752 1752 1795 1795 1795 1752 1795 1795 1795 1795 1752 1711 1443 1599 1533 1471 1443 1501 1533 1599 1635 1752 1752 2725 2943 3199 3504 3873 3679 4599 4906 5661 6690 7359 7359 8177 8177 0 7359 8177 7359 7359 7359 7359 7359 6690 6690 7359 7359 6690 6690 5661 5661 4906 4906 4329 4599 4088 4599 4329 4599 4329 4906 4599 5661 4599 5661 5661 4906 5256 4906 5661 6133 4599 5661 4906 4906 4906 5256 5256 4599 4088 5256 3873 3679 3199 2830 2537 2230 2230 2164 2102 1989 1887 1887 1887 1795 1752 1711 1711 1635 1533 1599 1388 1247 1247 1226 1132 1149 1149 1168 1132 1132 1168 1132 1149 1206 1226 1247 1206 1206 1247 1187 0 1051 994 943 876 897 897 876 845 817 782 782 791 791 774 766 735 707 707 687 669 663 657 657 645 634 645 629 629 629 613 608 603 588 0 579 584 570 566 566 557 553 553 553 549 545 541 533 521 521 525 521 521 507 504 493 0 2725 0 0 0 0 0 0 3679 0 0 0 432 430 427 425 420 422 413 406 408 399 395 0 0 0 0 0 0 373 375 383 377 375 375 373 367 366 360 353 345 342 339 337 334 0 0 0 0 0
    0 0 0 0 0 0 0 0 0 0 0 0 0 0 0 0 0 0 0 0 0 0 0 0 0 0 0 0 0 0 0 0 0 0 0 0 0 0 0 0 0 0 0 0 0 0 0 0 0 0 0 0 0 0 0 0 0 0 0 0 0 0 0 0 0 0 0 0 0 1635 1533 1443 1415 1443 1501 1501 1471 1565 1533 1533 1565 1599 1599 1599 1599 1672 1672 1672 1672 1711 1711 1752 1711 1711 1711 1711 1672 1672 1672 1672 1635 1635 1565 1388 1565 1471 1471 1443 1471 1533 1565 1599 1711 1672 1839 2628 2943 3199 3679 3504 4329 4599 5661 6690 7359 7359 8177 8177 0 8177 8177 7359 7359 7359 7359 7359 6690 6690 8177 7359 6690 6690 6690 6133 4906 5256 4329 4599 4088 4599 4329 4329 4329 4906 4599 6133 4599 6133 5661 4599 4906 4599 4599 5256 3873 5256 4329 4329 4599 4599 4906 4599 4088 5256 3679 3504 3199 2725 2453 2164 2164 2102 2044 1936 1887 1887 1887 1795 1752 1711 1711 1635 1565 1599 1415 1268 1268 1247 1149 1168 1149 1168 1149 1132 1187 1149 1149 1226 1226 1247 1206 1206 1247 1187 0 1051 1008 968 897 908 897 876 845 808 774 774 774 774 766 766 735 714 714 694 669 669 663 663 645 634 645 629 629 634 613 613 608 593 0 579 579 566 561 561 553 549 549 549 541 533 521 507 497 493 500 497 500 497 493 490 490 0 0 0 0 462 0 454 0 0 0 432 432 430 425 422 415 415 408 404 404 399 393 0 0 0 0 0 0 373 377 383 377 373 375 371 367 366 362 353 345 342 340 337 334 0 0 0 0 0
    0 0 0 0 0 0 0 0 0 0 0 0 0 0 0 0 0 0 0 0 0 0 0 0 0 0 0 0 0 0 0 0 0 0 0 0 0 0 0 0 0 0 0 0 0 0 0 0 0 0 0 0 0 0 0 0 0 0 0 0 0 0 0 0 0 0 0 0 0 1599 1471 1415 1415 1443 1471 1443 1443 1471 1443 1443 1471 1501 1501 1501 1533 1599 1635 1672 1711 1711 1711 1711 1711 1711 1711 1711 1635 1635 1635 1599 1565 1565 1533 1362 1533 1443 1471 1471 1471 1533 1533 1565 1711 1635 1795 2299 2725 3066 3504 3345 3679 4088 5256 6690 6690 6133 6690 6690 8177 6690 7359 6690 6133 6690 7359 6690 6690 6690 8177 7359 7359 7359 7359 6690 5256 5661 4599 4906 4329 4906 4599 4599 4599 4906 4599 6133 4599 6133 5256 4088 4599 3873 4088 4329 3679 4599 3873 4088 4329 4329 4906 4329 4088 5661 3679 3345 3199 2830 2374 2044 2164 2044 1989 1936 1839 1839 1839 1795 1752 1672 1672 1599 1533 1565 1388 1247 1268 1247 1168 1168 1168 1187 1149 1132 1168 1132 1149 1206 1206 1247 1187 1206 1226 1168 0 1066 1008 981 931 919 897 865 836 799 750 758 758 766 758 766 743 714 714 700 669 669 669 669 651 639 651 634 634 651 629 623 613 603 0 584 584 566 561 557 553 545 545 541 529 518 500 493 490 484 490 487 493 493 490 484 487 477 0 0 465 457 451 451 446 443 440 432 432 430 425 422 415 413 406 402 404 397 391 0 0 381 0 0 387 377 379 385 379 375 375 373 369 366 364 355 347 343 342 339 334 0 0 0 0 0
    0 0 0 0 0 0 0 0 0 0 0 0 0 0 0 0 0 0 0 0 0 0 0 0 0 0 0 0 0 0 0 0 0 0 0 0 0 0 0 0 0 0 0 0 0 0 0 0 0 0 0 0 0 0 0 0 0 0 0 0 0 0 0 0 0 0 0 0 0 1565 1471 1415 1415 1443 1471 1443 1443 1471 1415 1415 1471 1501 1471 1471 1533 1599 1635 1711 1711 1752 1752 1752 1711 1672 1672 1672 1599 1599 1565 1565 1533 1533 1471 1388 1533 1443 1443 1471 1443 1471 1501 1533 1635 1599 1752 1989 2453 3066 3199 3199 3504 3873 4906 6133 5661 6133 6133 6133 6690 6133 6690 5661 5661 6133 6690 6690 6690 6690 7359 7359 7359 7359 7359 6690 5256 5661 4329 4906 4329 4599 4329 4329 4329 4906 4599 6133 4329 5661 4599 3873 4329 3679 3873 3873 3504 4088 3873 3873 4088 4088 4599 4329 4329 6133 3679 3345 3066 2943 2299 1989 2164 1989 1936 1887 1839 1839 1795 1795 1711 1672 1635 1599 1501 1533 1388 1268 1268 1247 1168 1168 1168 1187 1149 1132 1168 1132 1132 1206 1187 1226 1149 1149 1168 1098 0 1022 994 981 968 968 931 845 817 782 728 750 750 750 743 766 750 721 721 714 681 675 681 675 669 645 663 645 645 663 634 629 618 613 618 593 588 566 561 557 553 545 545 537 525 514 500 497 490 487 490 490 493 500 493 484 484 477 471 468 462 454 448 446 443 440 440 432 432 430 427 425 413 413 406 402 402 397 391 391 387 385 385 383 387 379 379 385 379 375 375 373 369 366 366 357 348 345 343 339 334 0 0 0 0 0
    0 0 0 0 0 0 0 0 0 0 0 0 0 0 0 0 0 0 0 0 0 0 0 0 0 0 0 0 0 0 0 0 0 0 0 0 0 0 0 0 0 0 0 0 0 0 0 0 0 0 0 0 0 0 0 0 0 0 0 0 0 0 0 0 0 0 0 0 0 1533 1443 1415 1415 1415 1443 1443 1415 1471 1415 1415 1471 1533 1501 1533 1565 1635 1672 1752 1752 1795 1752 1752 1711 1672 1635 1635 1501 1533 1533 1501 1471 1471 1415 1362 1501 1443 1443 1443 1443 1443 1471 1501 1599 1565 1711 0 0 3199 3199 3199 3345 3679 4599 5661 5256 5661 5661 5661 6133 5661 6133 5661 5661 5661 6133 6133 6133 6133 7359 6690 7359 7359 7359 6133 4906 5256 4088 4329 4088 4088 4088 4088 4088 4599 4088 5661 4329 5661 4088 3679 4329 3679 3873 3873 3504 4088 3679 4088 4088 3873 4906 4329 4329 6690 3679 3199 2943 2830 2164 1936 2044 1989 1887 1887 1839 1795 1795 1752 1711 1672 1672 1599 1501 1533 1415 1268 1268 1268 1168 1187 1168 1187 1149 1132 1168 1132 1132 1206 1168 1226 1149 1115 1149 1098 0 0 968 955 955 981 968 897 836 799 728 766 758 766 750 774 758 735 728 721 687 681 687 681 669 645 657 645 645 657 634 634 623 618 0 598 588 561 561 561 553 541 537 529 514 507 497 493 487 487 487 490 493 497 497 481 484 477 468 468 459 451 448 446 446 440 440 435 435 435 432 427 415 413 406 402 402 399 391 391 387 385 385 385 385 379 379 385 379 377 375 371 367 366 366 357 348 345 345 340 336 0 0 0 0 0
    0 0 0 0 0 0 0 0 0 0 0 0 0 0 0 0 0 0 0 0 0 0 0 0 0 0 0 0 0 0 0 0 0 0 0 0 0 0 0 0 0 0 0 0 0 0 0 0 0 0 0 0 0 0 0 0 0 0 0 0 0 0 0 0 0 0 0 0 0 1501 1443 1388 1415 1415 1443 1415 1415 1501 1415 1443 1501 1533 1501 1533 1599 1635 1711 1795 1795 1839 1839 1752 1752 1672 1599 1599 1471 1471 1471 1443 1443 1415 1388 1388 1471 1415 1443 1443 1443 1443 1471 1501 1565 1533 1672 0 0 3504 3504 3504 3504 3873 4906 5256 4906 5256 5256 5256 5661 5256 5256 4906 5256 5256 6133 6133 5661 6133 6690 6690 6690 6690 6690 5661 4329 4906 3873 4088 3873 3873 3873 3873 3873 4329 3873 4906 4088 5661 3873 3679 4329 3679 3873 3873 3504 4088 3873 4329 4329 3873 4906 4329 4599 6690 4088 3345 2830 2628 2164 1887 2044 1936 1887 1839 1839 1795 1752 1752 1711 1672 1672 1599 1533 1533 1415 1314 1291 1291 1187 1206 1187 1206 1168 1149 1187 1149 1132 1206 1187 1247 1149 1082 1082 1082 1051 1008 968 955 955 968 994 994 855 799 728 774 766 774 743 774 766 750 743 735 700 694 700 694 675 645 651 645 645 651 634 634 623 618 0 0 588 561 557 561 557 541 541 533 514 504 493 490 484 487 481 487 490 497 504 490 497 487 468 471 465 454 448 448 446 443 443 440 440 438 438 430 418 415 408 404 404 402 393 393 389 387 387 387 387 381 379 385 379 377 375 371 367 366 364 355 350 347 347 343 339 0 0 0 0 0
    0 0 0 0 0 0 0 0 0 0 0 0 0 0 0 0 0 0 0 0 0 0 0 0 0 0 0 0 0 0 0 0 0 0 0 0 0 0 0 0 0 0 0 0 0 0 0 0 0 0 0 0 0 0 0 0 0 0 0 0 0 0 0 0 0 0 0 0 0 1443 1415 1388 1388 1415 1415 1415 1415 1501 1415 1443 1533 1501 1533 1533 1565 1635 1752 1839 1839 1839 1887 1795 1795 1672 1599 1565 1443 1471 1443 1388 1362 1362 1338 1362 1443 1415 1388 1415 1415 1415 1443 1501 1565 1471 1635 0 0 3066 3345 3345 3345 3873 4599 4599 4599 4906 4906 4906 4906 4599 4329 4329 4599 4906 5256 5256 5256 5661 6133 6133 6133 6133 5661 5256 3873 4329 3679 3873 3679 3873 3873 3873 3873 4088 3873 4599 4329 5256 3679 3679 4088 3504 3679 3504 3345 3679 3679 3873 4088 3873 5256 4599 4906 6690 4599 3504 3066 2725 2230 1887 2044 1936 1936 1839 1839 1795 1752 1752 1711 1672 1672 1635 1533 1565 1443 1338 1314 1314 1206 1226 1187 1206 1187 1168 1187 1149 1132 1206 1168 1247 1098 1066 1051 1036 1008 1008 968 955 943 968 0 1008 886 808 735 782 774 774 743 774 774 750 750 750 714 707 707 707 675 645 645 645 639 645 634 634 623 618 0 0 0 561 557 557 553 537 537 529 514 504 493 490 487 487 484 490 493 497 500 493 497 487 462 465 459 448 446 448 448 446 443 446 443 440 440 430 420 415 411 406 404 402 395 393 389 387 387 387 385 381 379 383 377 375 373 369 367 364 364 353 350 347 348 345 340 0 0 0 0 0
    0 0 0 0 0 0 0 0 0 0 0 0 0 0 0 0 0 0 0 0 0 0 0 0 0 0 0 0 0 0 0 0 0 0 0 0 0 0 0 0 0 0 0 0 0 0 0 0 0 0 0 0 0 0 0 0 0 0 0 0 0 0 0 0 0 0 0 0 0 1443 1388 1388 1388 1415 1443 1415 1415 1533 1415 1443 1533 1565 1565 1533 1565 1672 1795 1887 1839 1839 1936 1795 1752 1635 1501 1471 1388 1415 1388 1338 1338 1338 1338 1362 1415 1388 1388 1415 1415 1443 1471 1501 1533 1501 1672 0 0 2725 2943 3066 2943 3504 3873 4088 4088 4599 4599 4329 4329 4329 3873 4088 4088 4329 4329 4329 4329 4599 4599 4906 4906 4599 4088 4088 3679 4088 3679 3679 3679 3679 3679 3679 3679 4088 3873 4599 4329 4906 3504 3504 3679 3345 3345 3345 3199 3504 3504 3873 3873 3873 4906 4599 4906 6690 4599 3504 3066 2830 2453 1936 2102 1936 1936 1839 1839 1795 1752 1711 1711 1672 1672 1635 1565 1599 1471 1338 1362 1314 1226 1247 1206 1226 1187 1168 1206 1149 1132 1206 1149 1226 1098 1066 1066 1008 994 981 931 897 886 908 943 943 876 817 728 791 791 782 735 766 766 750 750 758 721 714 714 721 681 639 639 645 639 639 634 634 629 623 0 0 0 570 561 561 557 541 541 533 518 507 497 490 487 487 484 490 490 493 493 487 497 487 462 462 459 451 446 448 448 446 443 446 443 440 440 427 420 413 411 408 404 404 0 0 391 387 387 387 383 379 377 381 375 375 371 367 366 362 362 352 352 350 350 350 343 0 0 0 0 0
    0 0 0 0 0 0 0 0 0 0 0 0 0 0 0 0 0 0 0 0 0 0 0 0 0 0 0 0 0 0 0 0 0 0 0 0 0 0 0 0 0 0 0 0 0 0 0 0 0 0 0 0 0 0 0 0 0 0 0 0 0 0 0 0 0 0 0 0 0 1415 1388 1388 1388 1415 1443 1443 1443 1533 1388 1415 1533 1565 1501 1471 1501 1635 1752 1839 1795 1887 1887 1672 1565 1415 1362 1362 1338 1362 1362 1338 1362 1338 1338 1362 1443 1388 1388 1388 1415 1415 1443 1471 1501 1471 1635 0 0 2628 2943 2943 2943 3345 3873 3873 4088 4599 4599 4329 4329 4329 3873 4088 4088 4088 4088 4088 3873 4088 4088 4329 4088 3679 3679 3679 3504 3873 3504 3679 3504 3679 3679 3679 3679 3873 3679 4329 4329 4599 3345 3504 3504 3345 3345 3199 3199 3345 3345 3873 3679 4088 4906 4906 5256 6133 4906 3679 3199 3199 2725 2044 2164 1989 1936 1839 1795 1795 1711 1711 1711 1672 1672 1635 1533 1599 1471 1338 1362 1314 1226 1247 1206 1226 1187 1168 1206 1168 1132 1206 1132 1226 1098 1082 1115 1022 994 981 931 886 876 886 908 897 865 817 728 791 791 791 735 774 774 758 758 774 735 735 735 758 694 657 645 663 657 657 639 645 639 639 639 0 0 566 557 557 553 537 541 529 518 511 493 490 487 487 481 487 487 487 484 484 490 484 465 462 459 451 446 448 448 446 443 443 440 440 440 427 418 413 411 408 406 404 0 0 391 387 387 387 381 377 375 379 373 373 369 364 364 360 362 350 352 352 353 355 350 0 0 0 0 0
    0 0 0 0 0 0 0 0 0 0 0 0 0 0 0 0 0 0 0 0 0 0 0 0 0 0 0 0 0 0 0 0 0 0 0 0 0 0 0 0 0 0 0 0 0 0 0 0 0 0 0 0 0 0 0 0 0 0 0 0 0 0 0 0 0 0 0 0 0 1388 1362 1362 1362 1388 1443 1415 1415 1533 1362 1388 1471 1471 1415 1388 1443 1533 1565 1635 1635 1672 1501 1338 1338 1338 1314 1338 1338 1314 1291 1314 1338 1314 1338 1362 1415 1388 1388 1415 1415 1415 1415 1471 1501 1471 1672 0 0 2537 2830 2943 2830 3345 3679 3873 4088 4599 4329 4088 4088 4088 3679 3873 3873 3873 3873 3679 3679 3873 3873 3873 3679 3504 3504 3504 3504 3873 3504 3679 3504 3679 3679 3679 3679 3873 3679 4088 4088 4329 3199 3504 3504 3345 3345 3199 3199 3345 3345 3679 3679 3873 4906 4906 5256 6133 4906 3679 3345 3199 2830 2230 2299 1989 1936 1887 1795 1795 1711 1711 1711 1672 1672 1635 1533 1599 1471 1338 1338 1314 1226 1247 1206 1226 1206 1168 1206 1168 1132 1206 1132 1206 1098 1066 1098 1008 994 994 955 919 876 908 943 919 865 836 735 791 799 791 735 774 774 766 758 782 750 750 750 791 714 694 669 681 675 663 663 663 669 663 663 0 0 0 0 0 0 0 549 529 514 511 493 490 487 487 484 484 487 484 481 0 487 484 462 459 457 451 448 451 451 448 443 446 443 440 440 427 418 413 411 408 406 404 0 395 391 387 387 387 383 379 377 379 373 373 369 366 364 360 362 350 353 352 355 359 355 0 0 0 0 0
    0 0 0 0 0 0 0 0 0 0 0 0 0 0 0 0 0 0 0 0 0 0 0 0 0 0 0 0 0 0 0 0 0 0 0 0 0 0 0 0 0 0 0 0 0 0 0 0 0 0 0 0 0 0 0 0 0 0 0 0 0 0 0 0 0 0 0 0 0 1362 1338 1314 1338 1338 1415 1443 1415 1533 1388 1415 1443 1443 1388 1338 1338 1388 1388 1362 1314 1314 1291 1226 1247 1268 1247 1268 1247 1268 1268 1247 1291 1268 1291 1314 1362 1362 1362 1388 1388 1362 1388 1443 1471 1471 1711 1936 0 2537 2830 2830 2830 3199 3504 3873 4329 4599 4599 4088 3873 4088 3679 3873 3679 3679 3679 3504 3679 3679 3504 3679 3504 3345 3345 3345 3345 3679 3504 3504 3504 3679 3679 3679 3679 3873 3504 3873 4088 4088 3199 3504 3504 3345 3345 3345 3199 3345 3345 3873 3679 4088 4906 4599 5256 6133 4906 3679 3345 3199 2830 2453 2453 1989 1936 1887 1795 1795 1711 1711 1711 1672 1672 1672 1533 1599 1471 1362 1338 1314 1226 1268 1226 1226 1206 1187 1206 1187 1149 1206 1132 1187 1066 1051 1036 994 968 981 955 943 908 931 955 931 876 826 735 791 799 791 735 766 766 758 750 774 743 743 743 791 714 700 675 687 675 663 663 663 669 663 657 0 0 0 0 0 0 588 566 549 537 521 511 507 507 507 511 500 511 533 549 553 529 493 465 457 454 448 446 451 451 448 443 443 440 438 440 430 420 415 411 411 408 406 0 0 391 387 387 389 383 379 377 381 375 375 371 367 366 362 362 353 355 353 353 357 352 0 0 0 0 0
    0 0 0 0 0 0 0 0 0 0 0 0 0 0 0 0 0 0 0 0 0 0 0 0 0 0 0 0 0 0 0 0 0 0 0 0 0 0 0 0 0 0 0 0 0 0 0 0 0 0 0 0 0 0 0 0 0 0 0 0 0 0 0 0 0 0 0 0 0 1362 1338 1314 1314 1314 1388 1388 1388 1443 1388 1388 1415 1388 1388 1362 1338 1362 1362 1314 1268 1268 1247 1226 1268 1268 1268 1247 1268 1268 1268 1268 1291 1268 1268 1314 1362 1362 1362 1362 1388 1362 1388 1415 1443 1415 1672 1887 1989 2537 2725 2725 2725 3066 3345 3873 4329 4906 4329 4088 3679 3873 3504 3679 3504 3345 3345 3345 3345 3345 3345 3504 3345 3199 3199 3199 3345 3679 3504 3504 3504 3504 3679 3504 3504 3679 3504 3679 3873 3873 3199 3504 3504 3345 3345 3199 3199 3345 3345 3679 3504 4088 4906 4599 5661 5661 5256 3679 3345 3199 2830 2628 2537 2044 1989 1887 1839 1839 1752 1711 1711 1672 1672 1672 1533 1599 1471 1362 1338 1314 1226 1268 1226 1247 1226 1187 1206 1206 1149 1206 1149 1168 1066 1036 1036 994 968 968 968 955 919 955 968 931 886 826 750 791 799 782 735 758 758 750 750 766 735 728 735 791 707 700 681 687 675 663 663 663 669 663 657 669 651 0 0 0 603 593 0 574 566 545 533 533 533 537 537 553 549 588 598 588 549 529 0 0 0 462 451 457 454 448 440 438 438 435 438 430 422 418 415 411 408 406 0 395 391 389 389 389 385 381 379 383 375 377 373 367 366 362 362 352 355 355 355 359 353 0 0 0 0 0
    0 0 0 0 0 0 0 0 0 0 0 0 0 0 0 0 0 0 0 0 0 0 0 0 0 0 0 0 0 0 0 0 0 0 0 0 0 0 0 0 0 0 0 0 0 0 0 0 0 0 0 0 0 0 0 0 0 0 0 0 0 0 0 0 0 0 0 0 0 1338 1314 1291 1291 1291 1338 1338 1338 1338 1314 1338 1338 1338 1338 1338 1314 1314 1314 1247 1187 1226 1168 1168 1206 1206 1206 1206 1226 1247 1226 1247 1268 1226 1247 1291 1338 1338 1362 1362 1388 1388 1388 1443 1443 1443 0 0 0 2374 2628 2628 2628 2943 3066 3679 4088 4599 3873 3679 3504 3679 3345 3504 3345 3345 3345 3199 3345 3199 3199 3345 3199 3199 3199 3199 3199 3504 3345 3345 3345 3504 3504 3504 3504 3679 3345 3679 4088 3873 3066 3504 3345 3345 3345 3199 3199 3199 3345 3679 3504 4088 4599 4329 5661 4906 5256 3679 3345 3199 2830 2725 2725 2102 2044 1936 1839 1839 1752 1711 1711 1672 1672 1672 1533 1599 1471 1388 1314 1314 1226 1247 1247 1247 1226 1187 1206 1206 1168 1206 1168 1168 1082 1051 1051 1008 981 994 981 968 955 968 981 931 908 826 774 782 799 782 743 758 758 758 758 766 750 735 743 791 714 707 687 694 681 669 669 669 675 675 663 663 0 0 0 0 603 584 561 574 566 549 525 525 525 537 0 570 557 0 0 570 549 537 518 500 0 0 477 462 457 446 438 438 432 427 432 427 422 422 420 415 408 406 0 395 391 389 389 389 385 383 379 385 377 377 373 366 366 360 362 353 355 355 355 359 357 0 0 0 0 0</data></depth>
</opencv_storage>
