<?xml version="1.0"?>
<opencv_storage>
<gps_time_stamp>276272</gps_time_stamp>
<gps_x>-1.4021263122558594e+001</gps_x>
<gps_y>1.1277406692504883e+001</gps_y>
<gps_z>-2.2223334312438965e+000</gps_z>
<image_time_stamp>267157</image_time_stamp>
<depth type_id="opencv-matrix">
  <rows>75</rows>
  <cols>320</cols>
  <dt>s</dt>
  <data>
    0 0 0 0 0 0 0 0 0 0 0 0 0 0 0 0 0 0 0 0 0 0 0 0 0 0 0 0 0 0 0 0 0 0 0 0 0 0 0 0 0 0 0 0 0 0 0 0 0 0 0 0 0 0 0 0 0 0 0 0 0 0 0 0 0 0 0 0 0 1635 1711 1672 1711 1752 1752 1795 1887 1887 1887 1936 2044 2102 2164 2299 2102 2230 2374 2453 2453 2453 2537 2537 2725 3066 3066 3199 3066 3345 3345 3345 3504 3066 3066 2943 2943 2943 2725 2725 2628 2725 2725 2943 2830 3199 3504 3679 3504 3873 4088 3679 3504 3873 3066 3066 3066 3066 3066 2943 2943 2943 3066 0 2943 3066 3066 3066 3066 3066 0 0 3345 3066 3345 3345 3504 0 3679 3199 3066 3199 4329 2943 3066 2537 1887 2164 2453 2725 2830 2830 2943 2830 2943 3066 3066 2830 2725 2628 2102 2102 2374 2374 2374 2453 2628 2537 2628 2725 3345 3199 3066 3066 2537 2628 2537 2537 2537 2537 2628 2725 2628 2943 2830 2628 2725 2537 2725 2725 2628 2725 2725 2830 2830 2725 2943 2830 2628 2725 2628 2628 2628 2725 2725 2725 2830 3066 2943 3504 3199 3504 3345 3199 3066 3199 3345 2628 2374 2725 2628 0 2830 2374 2044 2044 2299 2230 2299 2299 2299 2230 2299 2453 2725 2374 2725 2628 0 0 0 0 0 0 0 0 0 0 0 0 0 0 0 0 0 0 0 0 0 0 2044 2102 1936 2164 2230 2164 2164 2044 2230 1989 2044 0 0 0 1936 1936 1989 1887 2044 1936 1989 2044 1989 1989 2299 2164 0 1362 1471 1635 1565 1471 1501 1471 1533 1501 1501 1471 1443 1471 1501 1443 1471 1362 1362 1415 1338 0 0 0 0 0
    0 0 0 0 0 0 0 0 0 0 0 0 0 0 0 0 0 0 0 0 0 0 0 0 0 0 0 0 0 0 0 0 0 0 0 0 0 0 0 0 0 0 0 0 0 0 0 0 0 0 0 0 0 0 0 0 0 0 0 0 0 0 0 0 0 0 0 0 0 1635 1711 1711 1752 1839 1839 1887 1989 1989 1936 1989 2044 2102 2164 2230 2102 2164 2299 2374 2299 2374 2453 2537 2628 3066 3066 3199 3066 3345 3345 3345 3345 3199 3066 2943 2943 2830 2725 2725 2628 2628 2725 2943 2830 3199 3345 3504 3345 3679 3679 3504 3345 3679 3066 3066 3066 3066 3066 2943 2943 2943 2943 0 2943 2943 3066 3066 3066 3066 0 3199 3345 3066 3345 3345 3504 0 3679 3066 3066 3199 4329 3199 4088 2628 1887 2044 2230 2725 2725 2725 2830 2725 2830 2943 3066 2725 2725 2453 1936 2044 2299 2299 2299 2374 2537 2537 2628 2725 3345 3199 3066 3066 2453 2628 2537 2537 2537 2537 2628 2725 2628 3066 2943 2628 2725 2537 2628 2725 2628 2725 2725 2725 2830 2830 2943 2830 2725 2830 2725 2725 2725 2830 2830 2830 2943 3066 3066 3873 3345 3873 3345 3504 3345 3199 3199 2453 2230 2628 0 0 2830 2230 2102 2044 2299 2230 2230 2299 2299 2230 2374 2453 2725 2374 2725 2537 2725 0 0 0 0 0 0 0 0 0 0 0 0 0 6133 0 0 0 0 0 0 0 2102 2102 1989 2230 2299 2230 2230 2102 2299 1989 2044 0 0 0 0 1936 1936 1887 1989 1936 1989 1989 1936 1936 2102 2044 1887 1362 1471 1635 1599 1471 1533 1501 1533 1501 1501 1471 1443 1443 1471 1415 1415 1338 1338 1362 1291 0 0 0 0 0
    0 0 0 0 0 0 0 0 0 0 0 0 0 0 0 0 0 0 0 0 0 0 0 0 0 0 0 0 0 0 0 0 0 0 0 0 0 0 0 0 0 0 0 0 0 0 0 0 0 0 0 0 0 0 0 0 0 0 0 0 0 0 0 0 0 0 0 0 0 1635 1752 1752 1839 1887 1936 1936 2044 2044 1989 2044 2102 2044 2102 2164 2044 2164 2230 2299 2230 2374 2453 2453 2537 2943 2943 3066 3066 3345 3345 3345 3345 3199 3066 3066 3066 2830 2725 2725 2628 2725 2830 2943 2830 0 3345 3345 3345 3504 3504 3345 3199 3504 2943 3066 2943 3066 3066 2943 2943 3066 3066 0 2943 3066 3066 3066 3066 3066 0 3199 3345 3066 3345 3199 3345 0 0 3066 3066 3199 4088 3199 5661 2725 2044 2044 2164 0 0 0 2830 2725 2830 2943 3066 2830 2830 2453 1936 1989 2299 2230 2230 2299 2453 2453 2628 2830 3504 3199 3066 3066 2453 2628 2453 2537 2537 2537 2628 2725 2628 3199 2943 2537 2725 2537 2628 2628 2628 2628 2725 2725 2830 2830 2943 2830 2830 2830 2725 2830 2725 2943 2830 2943 2943 3066 3199 3679 3199 3679 3199 3345 3199 3066 3345 2537 2374 2628 0 2628 2830 2164 2102 2044 2299 2164 2299 2299 2299 2230 2374 2374 2725 2374 2830 2537 2943 0 0 0 0 0 0 0 0 0 0 0 0 0 0 0 0 0 0 0 0 0 2102 2102 1936 2230 2299 2299 2299 2102 2299 1989 2044 0 0 0 0 1887 1936 1887 1989 1936 1936 1936 1887 1887 2102 2044 1887 1338 1471 1635 1599 1471 1533 1501 1533 1501 1471 1443 1415 1415 1443 1388 1388 1314 1338 1362 1291 0 0 0 0 0
    0 0 0 0 0 0 0 0 0 0 0 0 0 0 0 0 0 0 0 0 0 0 0 0 0 0 0 0 0 0 0 0 0 0 0 0 0 0 0 0 0 0 0 0 0 0 0 0 0 0 0 0 0 0 0 0 0 0 0 0 0 0 0 0 0 0 0 0 0 1672 1795 1795 1887 1936 1989 1936 2044 2044 1989 2044 2102 2044 2164 2164 2102 2164 2230 2374 2230 2374 2537 2537 2537 2943 3066 3066 3066 3345 3199 3345 3345 3199 3199 3199 3066 2830 2830 2830 2725 2830 0 2943 0 3199 3504 3504 3345 3504 3504 3199 3199 3345 2943 3066 2943 3066 3066 3066 3066 3066 3066 0 2943 3066 2943 2943 2943 2943 3345 3199 3345 3066 3199 3199 3345 0 0 3066 3066 3066 3679 3066 6133 2725 2044 1936 0 0 0 0 2943 2943 2943 3066 3199 3066 3066 2628 2044 1989 2299 2230 2299 2299 2453 2453 2628 2830 3345 3199 3066 3066 2537 2628 2537 2537 2537 2537 2628 2725 2725 3199 3066 2725 2830 2537 2725 2628 2628 2628 2628 2628 2830 2725 2943 2830 2943 2943 2830 2943 2830 3066 3066 3066 3504 3066 3199 3873 3066 3504 3066 3345 3066 2943 3066 2725 2537 2628 2453 2628 2830 2102 2102 2044 2230 2164 2299 2299 2299 2230 2374 2374 2725 2374 2943 2299 2725 2230 0 0 0 0 0 0 0 0 0 0 0 0 0 0 0 0 0 0 0 0 2102 2102 1936 2230 2299 2299 2230 2102 2230 1989 2044 0 0 0 0 1887 1936 1887 1989 1936 1936 1989 1887 1887 2164 2299 0 1314 1501 1672 1599 1471 1533 1501 1533 1501 1471 1443 1415 1415 1443 1388 1388 1338 1338 1338 1314 0 0 0 0 0
    0 0 0 0 0 0 0 0 0 0 0 0 0 0 0 0 0 0 0 0 0 0 0 0 0 0 0 0 0 0 0 0 0 0 0 0 0 0 0 0 0 0 0 0 0 0 0 0 0 0 0 0 0 0 0 0 0 0 0 0 0 0 0 0 0 0 0 0 0 1672 1795 1839 1989 1989 2044 2044 2102 2102 1989 2102 2102 1989 2164 2164 2102 2102 2230 2374 2230 2453 2628 2537 2537 2943 3066 3066 3066 3345 3199 3345 3345 3199 3345 3199 3199 2830 2943 2830 2830 2830 0 3066 0 3199 3679 3504 3345 3345 3345 3066 3066 3199 2830 2943 2830 2943 2943 3066 3066 3066 3066 0 2943 3066 2943 2943 2943 2943 3199 3199 3199 3199 3345 3199 3345 0 0 0 2943 3066 3199 2943 0 0 1887 1887 0 0 0 0 3066 3066 3066 3345 3345 3199 3066 2628 2164 1989 2299 2299 2299 2299 2453 2537 2628 2725 3345 3066 3066 3066 2537 2628 2537 2537 2537 2628 2725 2830 2943 3345 3199 2830 2830 2628 2725 2725 2628 2628 2628 2628 2725 2725 2943 2830 3066 3066 2943 2943 2943 3345 3199 3345 4329 3199 3199 4088 3199 3504 3066 3345 3066 2943 3066 2943 2725 2830 2725 2943 2943 2102 2164 2044 2230 2164 2299 2230 2230 2230 2374 2374 2628 2299 2830 2102 2725 2374 0 0 0 0 0 0 0 0 0 0 0 0 0 0 0 0 0 0 0 0 2102 2102 1936 2230 2299 2299 2230 2102 2164 1989 2044 0 0 0 1936 1887 1936 1887 2044 1936 1989 2044 1936 1936 2230 2164 0 0 1471 1635 1599 1471 1533 1501 1533 1501 1501 1443 1415 1415 1443 1388 1362 1338 1338 1338 1291 0 0 0 0 0
    0 0 0 0 0 0 0 0 0 0 0 0 0 0 0 0 0 0 0 0 0 0 0 0 0 0 0 0 0 0 0 0 0 0 0 0 0 0 0 0 0 0 0 0 0 0 0 0 0 0 0 0 0 0 0 0 0 0 0 0 0 0 0 0 0 0 0 0 0 1711 1839 1887 2044 2044 2164 2102 2164 2102 2044 2102 2102 2044 2230 2164 2102 2164 2230 2453 2230 2453 2628 2453 2537 2943 3066 3066 3066 3345 3199 3345 3345 3345 3345 3345 3199 2943 3066 2943 2943 2943 0 3066 3066 3199 3504 3345 3345 3345 3345 2943 2943 3066 2830 2943 2830 2943 3066 3066 3066 3066 3066 3066 2943 2943 2943 2943 2943 2943 3199 3345 3199 3345 3345 3199 3345 0 0 0 3066 3199 3066 2943 0 3679 0 0 0 3066 3199 3199 3066 3066 0 3199 3199 3199 3066 2628 2299 2044 2299 2299 2299 2299 2537 2537 2628 2725 3345 3066 3066 3066 2628 2628 2537 2537 2628 2628 2830 2830 2943 3345 3345 2943 2943 2725 2830 2725 2725 2628 2628 2628 2628 2628 2830 2725 3066 3066 2943 3066 3066 3504 3504 3504 5256 3199 3199 3873 2943 3066 2830 3199 2943 2830 2943 2830 2830 3066 2943 3066 2943 2044 2164 2102 2299 2164 2299 2230 2230 2164 2374 2299 2537 2230 2725 1989 2537 2299 0 0 0 0 0 0 0 0 0 0 0 0 0 0 0 0 0 0 0 0 2102 2102 1936 2230 2299 2230 2164 2102 2164 1989 2044 2044 0 0 1936 1936 1989 1936 2044 1989 2044 2044 1936 1887 2044 0 0 1362 1443 1565 1565 1471 1533 1533 1533 1501 1501 1471 1415 1415 1443 1388 1362 1314 1314 1314 1291 0 0 0 0 0
    0 0 0 0 0 0 0 0 0 0 0 0 0 0 0 0 0 0 0 0 0 0 0 0 0 0 0 0 0 0 0 0 0 0 0 0 0 0 0 0 0 0 0 0 0 0 0 0 0 0 0 0 0 0 0 0 0 0 0 0 0 0 0 0 0 0 0 0 0 1711 1887 1936 2044 2044 2299 2164 2164 2164 2044 2164 2164 2102 2299 2230 2164 2164 2299 2453 2230 2453 2628 2453 2537 2943 3066 3066 3066 3345 3345 3504 3504 3345 3504 3504 3199 3066 3066 2943 2943 2943 0 3066 2943 3066 3199 3199 3199 3199 3066 2830 2830 2943 2725 2943 2943 2943 3066 3199 3199 3199 3199 3066 2943 2943 2830 2830 2943 2830 3345 3345 3345 3345 3504 3345 3345 3345 3504 0 3066 3199 2943 2830 6690 3679 0 3199 3066 3066 3066 3066 3066 2943 2943 3066 3199 3199 3066 2537 2453 2044 2374 2374 2374 2374 2537 2537 2725 2725 3199 3066 3066 3066 2628 2628 2537 2628 2628 2725 2830 2943 3066 3345 3504 3066 3066 2830 2830 2830 2725 2725 2725 2537 2537 2628 2725 2628 3199 3199 3066 3066 3199 3679 3679 3679 5661 3066 3066 3873 2830 2830 2628 3199 2830 2830 2943 3066 3066 3199 3066 3066 2943 1989 2164 2102 2299 2164 2230 2230 2230 2164 2374 2299 2453 2164 2628 1936 2299 2230 2374 0 0 0 0 0 0 0 0 0 0 0 0 0 0 0 0 0 0 1936 2164 2102 1989 2164 2230 2230 2102 2102 2102 1936 1989 2044 1936 1936 1936 1936 1989 1936 2044 1936 1989 1989 1839 1839 1887 1672 1533 1388 1415 1565 1533 1471 1533 1533 1533 1501 1501 1471 1415 1415 1415 1388 1338 1314 1314 1291 1291 0 0 0 0 0
    0 0 0 0 0 0 0 0 0 0 0 0 0 0 0 0 0 0 0 0 0 0 0 0 0 0 0 0 0 0 0 0 0 0 0 0 0 0 0 0 0 0 0 0 0 0 0 0 0 0 0 0 0 0 0 0 0 0 0 0 0 0 0 0 0 0 0 0 0 1752 1887 1936 2044 2044 2299 2230 2164 2164 2102 2230 2230 2102 2374 2299 2230 2299 2299 2537 2299 2453 2725 2453 2537 2943 3066 3199 3066 3345 3345 3873 3679 3504 4088 3679 3199 3066 2943 2943 2830 2943 0 3066 2830 2943 3066 0 3066 2943 2943 2725 2725 2943 2725 2943 2943 2943 3199 3199 3345 3345 3345 3199 2943 2830 2725 2725 2830 2830 3345 3504 3199 3504 3504 3345 3504 3504 3679 3199 3199 4088 2943 2830 0 3873 3066 3199 3066 2943 3066 2943 2943 2830 2830 3066 3066 3199 3066 0 0 2044 2453 2453 2374 2374 2537 2537 2725 2725 3199 3066 3066 2943 2628 2628 2537 2537 2628 2628 2830 2943 3199 3345 3504 3066 3066 2943 2943 2943 2830 2725 2830 2537 2453 2537 2628 2537 3345 3199 3066 3199 3199 3873 3873 3873 6133 2943 2830 3679 2830 2830 2725 3199 2943 3066 3199 3199 3199 3199 3066 2943 2830 1989 2164 2164 2230 2102 2230 2230 2230 2164 2374 2374 2374 2102 2628 1887 2299 2230 2374 0 0 0 0 0 0 0 0 0 0 0 0 0 0 0 0 0 0 1936 2164 2102 1989 2164 2230 2164 2102 2044 2102 1936 1989 2044 1936 1936 1936 1936 1936 1936 1989 1887 1936 1887 1795 1752 1752 1599 1533 1443 1415 1533 1533 1501 1533 1533 1565 1501 1501 1501 1415 1415 1415 1388 1338 1291 1291 1268 1268 0 0 0 0 0
    0 0 0 0 0 0 0 0 0 0 0 0 0 0 0 0 0 0 0 0 0 0 0 0 0 0 0 0 0 0 0 0 0 0 0 0 0 0 0 0 0 0 0 0 0 0 0 0 0 0 0 0 0 0 0 0 0 0 0 0 0 0 0 0 0 0 0 0 0 1839 1989 1989 2102 2102 2299 2299 2230 2230 2102 2299 2299 2164 2453 2374 2299 2299 2299 2628 2453 2537 2943 2628 2725 3066 3066 3199 3066 3199 3345 3504 3345 3199 3873 3504 3066 3066 2943 2830 2830 2830 92 0 0 2943 2943 2943 2943 2830 2830 2628 2537 2830 2628 2830 2830 2830 3199 3199 3199 3345 3345 3066 2830 2725 2453 2374 2537 2725 3345 3345 3066 3679 3504 3345 3504 3504 3504 3199 3345 4906 2943 2943 0 4088 3066 3345 3066 3066 3066 2943 2943 2943 2830 3066 3066 3199 3066 0 0 2102 2453 2453 2453 2453 2537 2537 2725 2725 3345 3199 3199 3066 2725 2725 2537 2628 2628 2725 2830 3066 3345 3345 3345 3066 3066 2943 2943 2943 2830 2725 2830 2537 2299 2453 2537 2374 3066 3066 2943 3066 3066 3679 3504 3679 5661 2943 2628 3066 2628 2628 2725 3066 2943 3066 3199 3345 3199 3199 3066 2943 2830 1936 2102 2164 2230 2102 2230 2230 2164 2164 2374 2374 2374 2102 2628 1936 2299 2230 2374 0 0 0 0 0 0 0 0 0 0 0 0 0 0 0 0 1887 1887 1887 2102 2044 1936 2164 2164 2102 2044 2044 2044 1936 1989 1989 1887 1936 1936 1936 1936 1936 1989 1887 1936 1839 1795 1711 1711 1565 1533 1443 1415 1533 1533 1501 1533 1533 1565 1501 1501 1533 1415 1415 1443 1362 1314 1268 1291 1247 1226 0 0 0 0 0
    0 0 0 0 0 0 0 0 0 0 0 0 0 0 0 0 0 0 0 0 0 0 0 0 0 0 0 0 0 0 0 0 0 0 0 0 0 0 0 0 0 0 0 0 0 0 0 0 0 0 0 0 0 0 0 0 0 0 0 0 0 0 0 0 0 0 0 0 0 1887 1989 2044 2102 2102 2374 2299 2230 2299 2102 2299 2374 2164 2453 2374 2299 2299 2374 2725 2537 2537 3066 2830 2943 2943 2943 2943 2830 3066 3066 3199 3345 3066 3679 3504 2943 2943 2943 2830 2830 2830 92 0 0 2830 2830 2830 2943 2830 2725 2628 2537 2830 2537 2628 2628 2628 3066 3066 2943 2943 3066 2725 2453 2299 2044 2044 2102 2374 3066 3066 2830 3504 3504 3345 3345 3504 3504 0 3345 5256 3066 3066 6133 3679 3066 3199 3066 3066 3199 3066 3066 2943 2943 3199 3199 3345 3199 0 0 2230 2537 2537 2537 2537 2537 2628 2725 2628 3345 3066 3199 2943 2725 2725 2628 2628 2725 2725 2943 3066 3345 3199 3345 3066 3066 2943 2943 2830 2830 2725 2830 2453 2164 2453 2453 2230 2830 2943 2830 2830 2830 3345 3345 3345 4906 2830 2453 2943 2537 2830 3066 3345 3066 3199 3199 3345 3199 0 3066 2943 2830 1936 2102 2164 2230 2102 2230 2230 2164 2164 2374 2374 2299 2164 2725 1989 2299 2230 2374 0 0 0 0 0 0 0 0 0 0 0 0 1752 1839 1936 2044 1936 1936 1887 2102 2044 1936 2164 2102 2044 2044 1989 1989 1936 1989 1989 1887 1936 1936 1936 1936 1936 1989 1887 1887 1839 1752 1711 1711 1533 1533 1471 1415 1533 1533 1501 1533 1533 1565 1501 1501 1565 1415 1415 1443 1362 1314 1247 1268 1206 1187 0 0 0 0 0
    0 0 0 0 0 0 0 0 0 0 0 0 0 0 0 0 0 0 0 0 0 0 0 0 0 0 0 0 0 0 0 0 0 0 0 0 0 0 0 0 0 0 0 0 0 0 0 0 0 0 0 0 0 0 0 0 0 0 0 0 0 0 0 0 0 0 0 0 0 1887 1989 2044 2102 2102 2299 2299 2230 2230 2164 2299 2374 2164 2537 2374 2374 2374 2374 2830 2725 2725 3199 2830 2943 2943 2830 2943 2830 2943 3066 3504 3345 2943 3504 3345 2943 2943 2943 2830 2725 2830 92 0 0 2830 2830 2830 2943 2830 2830 2628 2628 2725 2453 2537 2537 2537 2943 2725 2453 2725 3199 2453 2374 2230 2102 2102 2164 2374 2830 2830 2628 3345 3345 3199 0 3345 3345 0 0 4906 3066 2943 3873 3345 2830 2943 2943 3066 3199 3066 3066 0 0 3066 3199 3199 3066 0 0 2299 2537 2537 2537 2537 2537 2628 2725 2628 3199 3066 3066 2943 2830 2725 2725 2725 2725 2830 3066 3199 3504 3199 3345 3199 3199 3066 3066 2943 2830 2725 2943 2537 2164 2453 2453 2230 2725 2830 2725 2725 2725 3199 3199 3199 4599 2830 2537 3873 3199 3504 3504 3679 3345 3504 3504 3504 3345 0 3199 3199 2943 1936 2102 2230 2230 2102 2230 2230 2164 2164 2374 2453 2230 2164 2725 2044 2374 2164 0 0 0 0 0 0 0 0 0 0 0 0 2044 1936 2044 2164 2102 1989 1989 1936 2102 2044 1989 2102 2102 2044 1989 1989 1989 1887 1989 1989 1887 1936 1936 1936 1936 1936 1989 1887 1887 1795 1752 1672 1672 1501 1501 1471 1415 1533 1533 1501 1533 1533 1533 1501 1501 1599 1415 1415 1443 1388 1314 1268 1268 1187 1168 0 0 0 0 0
    0 0 0 0 0 0 0 0 0 0 0 0 0 0 0 0 0 0 0 0 0 0 0 0 0 0 0 0 0 0 0 0 0 0 0 0 0 0 0 0 0 0 0 0 0 0 0 0 0 0 0 0 0 0 0 0 0 0 0 0 0 0 0 0 0 0 0 0 0 1887 1989 1989 2102 2044 2230 2230 2230 2230 2164 2374 2453 2230 2628 2537 2453 2453 2537 2943 2830 2830 3504 2943 3066 3199 3066 3199 2943 2943 3199 5256 3679 3066 3504 3199 2830 2943 2943 2830 2830 2830 92 0 0 2943 2830 2830 2830 2830 2725 2628 2628 2830 2537 2537 2628 2537 2943 0 0 0 2725 2164 2230 2102 2102 2164 2230 2299 2830 2830 2537 3199 3199 0 0 0 0 0 0 3873 2943 2830 2943 2830 2537 2725 2830 2943 3345 3066 3345 0 3199 3199 3199 3199 3066 0 0 2374 2628 2628 2537 2537 2628 2628 2725 2537 3199 3066 3066 2830 2830 2725 2725 2725 2725 2830 3066 3199 3504 3199 3504 3199 3199 3199 3199 3066 2943 2830 3504 2628 2102 2537 2453 2164 2725 2725 2628 2628 2725 2943 0 0 4088 2830 2453 3679 3199 3504 3504 3504 3345 3504 3504 3504 3345 3199 3199 3066 2725 1936 2044 2230 2230 2102 2230 2164 2164 2230 2374 2537 2230 2164 2725 2164 2374 0 0 0 0 0 0 0 0 0 0 0 0 0 2044 1989 2044 2102 2044 1936 2044 1989 2102 2044 1989 2102 2044 2044 1989 1989 1936 1887 1989 1989 1936 1936 1936 1936 1936 1989 1989 1887 1887 1795 1752 1672 1672 1501 1533 1501 1415 1533 1533 1501 1533 1533 1533 1501 1501 1599 1415 1443 1443 1388 1314 1268 1268 1168 1132 0 0 0 0 0
    0 0 0 0 0 0 0 0 0 0 0 0 0 0 0 0 0 0 0 0 0 0 0 0 0 0 0 0 0 0 0 0 0 0 0 0 0 0 0 0 0 0 0 0 0 0 0 0 0 0 0 0 0 0 0 0 0 0 0 0 0 0 0 0 0 0 0 0 0 1887 1989 1989 2044 2102 2230 2230 2230 2230 2230 2374 2453 2374 2725 2628 2628 2628 2628 2943 2943 2943 3679 2943 3199 3199 3066 3199 2943 3199 3199 8177 4088 2943 3345 3066 2725 3066 2943 2943 2830 2830 0 0 0 2943 2830 2725 2830 2725 2725 2628 2628 2830 2628 2628 2725 2628 2943 2628 2725 2628 2628 2164 2230 2102 2102 2164 2164 2102 2830 2830 2453 2943 0 0 0 0 0 0 0 3679 2943 2943 2943 2830 2537 2725 2830 2943 3345 2943 3345 0 3199 3345 3345 3345 3199 0 0 2374 2628 2628 2537 2537 2628 2537 2725 2537 3066 2943 2830 2725 2725 2628 2628 2628 2725 2725 2943 3199 3504 3199 3345 3199 3199 3199 3345 3199 2943 2943 4599 2725 2164 2537 2537 2164 2628 2725 2537 2628 2628 2830 0 0 3679 2830 2628 4088 3345 3873 3679 3679 3345 3504 3679 3504 3345 3345 3199 3066 2537 1989 2044 2230 2230 2102 2230 2230 2164 2230 2374 2537 2230 2164 2830 2299 2453 0 0 0 0 0 0 0 0 0 0 0 0 0 2102 1936 1989 2044 1989 1936 2044 1989 2102 1989 1989 2102 2044 2044 1989 2044 1936 1936 1989 1989 1936 1989 1989 1989 1936 1989 1989 1887 1887 1795 1752 1711 1672 1501 1533 1533 1415 1533 1501 1501 1533 1533 1533 1501 1471 1599 1388 1388 1388 1314 1268 1206 1226 1115 1115 0 0 0 0 0
    0 0 0 0 0 0 0 0 0 0 0 0 0 0 0 0 0 0 0 0 0 0 0 0 0 0 0 0 0 0 0 0 0 0 0 0 0 0 0 0 0 0 0 0 0 0 0 0 0 0 0 0 0 0 0 0 0 0 0 0 0 0 0 0 0 0 0 0 0 1887 1989 1989 2044 2044 2230 2230 2230 2230 2299 2453 2537 2453 2830 2725 2725 2725 2725 2943 3066 3199 4088 3199 3679 3504 3199 3345 3345 3679 3679 0 4329 0 3066 2943 2725 3066 2943 2943 2943 2943 0 0 0 0 2830 2725 2830 2830 2725 2628 2725 2943 2830 2830 2943 2830 3345 2943 2943 2830 2725 2164 2230 2102 0 2230 0 0 0 2943 2453 2830 0 0 0 0 0 0 0 3679 3199 3199 2943 2830 2628 2725 2725 2830 3199 2943 3199 0 0 3345 3199 3345 3199 0 0 2299 2537 2628 2537 2537 2537 2537 2725 2453 2943 2725 2725 2628 2628 2628 2628 2537 2628 2725 2830 3066 3345 3066 3199 3066 3066 3066 3066 3066 2943 2830 4599 2830 2164 2628 2628 2164 2537 2628 2537 2537 2537 2830 0 0 3504 2830 2537 4599 3345 3873 3873 3679 3504 3679 3873 3679 3345 3345 3199 3066 2299 2044 2044 2230 2230 2102 2230 2230 2230 2299 2374 2628 2230 2230 2830 2299 2453 0 0 0 0 0 0 0 0 0 0 0 0 2102 2044 1989 1989 2044 2044 1936 2044 1989 2044 1989 2044 2102 2044 2044 2044 2044 1936 1936 2044 1989 1936 1989 1989 1989 1936 1989 1989 1887 1887 1795 1752 1711 1672 1471 1533 1533 1415 1533 1501 1501 1533 1533 1533 1501 1471 1599 1362 1362 1338 1247 1226 1168 1187 1098 1098 0 0 0 0 0
    0 0 0 0 0 0 0 0 0 0 0 0 0 0 0 0 0 0 0 0 0 0 0 0 0 0 0 0 0 0 0 0 0 0 0 0 0 0 0 0 0 0 0 0 0 0 0 0 0 0 0 0 0 0 0 0 0 0 0 0 0 0 0 0 0 0 0 0 0 1887 1989 1989 2102 2102 2230 2230 2230 2230 2299 2453 2537 2537 2830 2830 2830 2830 2830 3066 3199 3504 5256 3504 4329 3873 3345 3345 3345 3679 3679 6133 4088 0 2943 2943 2830 3066 2943 2943 2943 2943 3066 0 0 0 2943 2830 2943 0 2830 2725 2830 2943 2830 2830 2943 2830 2943 2725 0 0 2537 0 0 0 0 0 0 0 0 2943 0 0 0 0 0 0 0 0 2943 3345 3199 0 2943 2725 2725 2725 2725 2725 3345 2943 3066 0 0 0 0 3345 3199 0 2725 2164 2537 2537 2453 2537 2537 2453 2725 2453 3066 2725 2628 2628 2537 2628 2537 2537 2628 2628 2830 3066 3199 2943 2943 2943 2830 2943 2943 2943 2725 2628 3504 2830 2164 2628 2628 2102 2537 2537 2453 2453 2453 2725 2537 2628 3345 2830 2537 4088 3345 3679 3504 3504 3345 3504 3679 3504 3199 3345 3199 3066 2102 2044 2044 2230 2230 2102 2230 2230 2230 2299 2374 2628 2230 2230 2830 2537 0 0 0 0 0 0 2164 1936 1936 0 2230 1989 2102 2102 2102 2102 2102 2102 2102 1989 2102 2044 2044 1989 2044 2102 2102 2044 2044 2044 1936 1936 2044 1989 1936 1989 1989 1936 1936 1989 1989 1839 1839 1795 1711 1711 1635 1501 1565 1565 1415 1533 1501 1501 1533 1533 1533 1471 1471 1565 1338 1338 1314 1226 1206 1168 1168 1098 1098 0 0 0 0 0
    0 0 0 0 0 0 0 0 0 0 0 0 0 0 0 0 0 0 0 0 0 0 0 0 0 0 0 0 0 0 0 0 0 0 0 0 0 0 0 0 0 0 0 0 0 0 0 0 0 0 0 0 0 0 0 0 0 0 0 0 0 0 0 0 0 0 0 0 0 1887 1989 1989 2102 2102 2230 2230 2230 2230 2374 2537 2537 2537 2943 2830 2830 2943 0 3199 3199 3873 6133 3679 5661 4088 0 3504 0 0 0 5256 4088 0 2943 2943 3066 0 2943 2943 2943 2943 3066 2943 0 2943 2943 2943 2943 0 2830 2830 2943 2943 2830 2830 2830 2830 2943 2830 2830 0 2628 0 0 0 0 0 0 0 0 0 0 121 121 0 0 0 0 2830 2943 3345 3345 0 0 2725 2628 2537 2628 0 0 2943 0 0 0 0 2830 3066 2943 1989 2537 2044 2374 2453 2374 2453 2453 2453 2628 2453 3066 2830 2725 2725 2537 2628 2628 2537 2628 2628 2725 2943 3199 2830 2830 2725 2725 2725 2830 2725 2628 2374 2943 2628 2164 2628 2628 2102 2537 2537 2453 2453 2453 2628 2537 2537 2943 2725 2453 3679 3345 3679 3345 3345 3199 3504 3679 3345 3066 3066 3066 2943 2044 2102 2044 2230 2230 2164 2230 2230 2230 2374 2374 2628 2299 2299 2830 0 0 0 0 0 0 0 2044 1887 1887 1887 2102 1989 2102 2102 2102 2102 2102 2102 2102 1989 2164 2102 2044 1989 2102 2102 2102 2044 2102 2044 1936 1989 2044 1989 1989 1989 1989 1936 1936 1989 1989 1839 1839 1795 1711 1711 1635 1501 1565 1533 1415 1565 1501 1501 1533 1533 1533 1471 1501 1565 1338 1338 1314 1226 1206 1168 1168 1115 1115 0 0 0 0 0
    0 0 0 0 0 0 0 0 0 0 0 0 0 0 0 0 0 0 0 0 0 0 0 0 0 0 0 0 0 0 0 0 0 0 0 0 0 0 0 0 0 0 0 0 0 0 0 0 0 0 0 0 0 0 0 0 0 0 0 0 0 0 0 0 0 0 0 0 0 1887 1936 1989 2102 2102 2230 2230 2299 2164 2374 2537 2537 2628 2943 2830 2830 2830 0 0 0 0 0 3873 0 0 0 0 0 0 0 0 0 0 2943 2943 0 0 3066 3066 3066 3199 3199 3066 3199 3066 3066 3066 3066 0 2943 2943 3066 2943 2943 2943 2943 2943 3066 2943 3066 3345 2725 0 0 0 0 0 0 0 0 0 120 121 121 0 0 0 0 2830 2943 3199 3199 0 0 2628 2628 2628 0 0 3873 3199 3345 0 0 0 2830 2943 2725 2102 2453 2102 2374 2374 2374 2453 2453 2453 2628 2537 3199 2943 2830 2725 2628 2628 2628 2628 2628 2628 2725 2725 0 0 2725 2628 2453 2374 2537 2374 2374 2230 2830 2453 2164 2725 2725 2164 2537 2537 2453 2453 2453 2628 2453 2453 2830 2537 2299 3199 3066 0 3066 0 2830 3199 3199 3345 2943 3066 2943 2830 1989 2102 2044 2230 2230 2164 2230 2230 2230 2453 2374 2725 2299 2299 2830 0 0 0 0 0 0 0 1989 1839 1887 1936 2102 1989 2164 2102 2102 2102 2102 2102 2164 1989 2164 2102 2044 2044 2102 2102 2164 2102 2230 2102 1989 1989 2102 1989 1989 1989 1989 1936 1936 2044 1989 1839 1839 1795 1711 1752 1635 1533 1565 1533 1415 1565 1501 1501 1501 1533 1533 1501 1501 1599 1362 1362 1338 1247 1226 1187 1187 1132 1132 0 0 0 0 0
    0 0 0 0 0 0 0 0 0 0 0 0 0 0 0 0 0 0 0 0 0 0 0 0 0 0 0 0 0 0 0 0 0 0 0 0 0 0 0 0 0 0 0 0 0 0 0 0 0 0 0 0 0 0 0 0 0 0 0 0 0 0 0 0 0 0 0 0 0 1887 1936 1936 2044 2044 2230 2230 2299 2230 2453 2537 2628 2628 2943 2943 2943 2943 3066 2943 2943 0 0 0 0 0 0 728 707 687 700 758 758 750 0 0 0 0 3199 3199 3199 3345 3345 3199 3504 3199 3199 3199 3199 3345 3066 3066 3504 2943 2943 2943 2943 2943 3066 3199 3345 3679 3066 0 0 0 0 0 0 0 0 120 120 122 121 0 0 0 2943 2725 2943 2943 2943 0 0 2537 2628 0 0 0 0 3199 3345 0 0 2830 2830 2830 2628 2230 2453 2102 2374 2374 2374 2453 2453 2537 2628 2453 3066 2725 2628 2537 2453 2537 2537 2537 2537 2537 2628 2628 2725 2628 2453 2299 2230 2102 2230 2102 2230 2299 2628 2453 2230 2725 2725 2374 2628 2628 2537 2537 2537 2628 2537 2537 2830 2374 2230 2830 2164 0 2374 0 2374 0 0 3345 3066 3199 3066 2830 1989 2164 2044 2230 2230 2164 2230 2230 2230 2453 2374 2725 2299 2299 2830 0 0 0 0 1599 0 0 1936 1839 1887 1936 2102 2044 2164 2164 2102 2164 2102 2102 2164 2044 2164 2102 2044 2102 2164 2164 2230 2102 2299 2164 1989 2044 2102 1989 2044 2044 1989 1989 1989 2044 1989 1839 1839 1752 1711 1752 1635 1501 1565 1501 1415 1533 1501 1501 1501 1501 1533 1501 1533 1599 1388 1388 1338 1268 1247 1226 1206 1149 1132 0 0 0 0 0
    0 0 0 0 0 0 0 0 0 0 0 0 0 0 0 0 0 0 0 0 0 0 0 0 0 0 0 0 0 0 0 0 0 0 0 0 0 0 0 0 0 0 0 0 0 0 0 0 0 0 0 0 0 0 0 0 0 0 0 0 0 0 0 0 0 0 0 0 0 1887 1887 1936 2044 2044 2230 2230 2299 2230 2453 2628 2628 2725 2943 2943 2943 3066 3345 3066 3066 3345 8177 0 0 0 799 728 714 694 0 0 0 0 0 0 0 3504 3345 3504 3199 3504 3504 3199 3679 3199 3199 3199 3199 3345 3066 3066 3679 2943 2943 2943 2943 2943 3345 4088 4088 0 3504 0 0 886 0 0 0 897 0 0 0 122 0 0 0 0 2943 2725 2943 2943 2725 0 2628 2453 2628 0 0 0 0 3066 3066 0 0 2725 2725 2725 2453 2230 2453 2102 2374 2374 2299 2374 2374 2453 2628 2453 2943 2537 2537 2453 2374 2453 2453 2453 2453 2453 2537 2453 2537 2453 2230 2164 2164 2102 2102 2044 2164 2299 2537 2537 2374 2725 2725 2453 2725 2628 2537 2537 2537 2725 2537 2628 2830 2374 2299 2628 2299 2537 2374 1936 2374 0 3504 3345 3199 3199 3199 2725 1936 2164 1989 2230 2230 2164 2230 2230 2230 2453 2299 2725 2299 2230 2725 2044 2230 1936 1936 1672 0 1839 1936 1839 1887 1989 2102 2044 2164 2102 2102 2164 2102 2102 2164 1989 2164 2102 2044 2102 2164 2164 2230 2164 2374 2230 1989 2044 2164 2044 2044 2044 1989 1989 1989 2044 1989 1795 1795 1711 1711 1752 1635 1501 1565 1471 1388 1533 1471 1471 1501 1501 1533 1501 1533 1565 1388 1388 1362 1291 1268 1226 1206 1168 1149 0 0 0 0 0
    0 0 0 0 0 0 0 0 0 0 0 0 0 0 0 0 0 0 0 0 0 0 0 0 0 0 0 0 0 0 0 0 0 0 0 0 0 0 0 0 0 0 0 0 0 0 0 0 0 0 0 0 0 0 0 0 0 0 0 0 0 0 0 0 0 0 0 0 0 1839 1887 1936 2044 2044 2230 2230 2230 2230 2537 2628 2628 2725 2943 2943 2943 3066 3504 3066 3066 3504 6690 3873 0 3873 0 0 0 0 0 0 0 0 2725 2725 3873 3873 3679 3679 3345 3504 3345 3199 3679 3066 3066 3199 3066 3199 2943 3066 3679 2943 3066 2943 2943 2725 2943 3345 3679 4088 0 0 0 0 0 0 525 0 0 0 0 0 0 0 0 3066 2830 2725 2943 2830 2628 2830 2537 2299 2628 2537 0 0 3345 3066 3066 0 2830 2830 2725 2725 2453 2299 2453 2164 2374 2374 2374 2453 2374 2537 2628 2453 2943 2537 2537 2453 2374 2453 2453 2374 2374 2374 2537 2374 2453 2374 2230 2164 2164 2164 2164 2102 2299 2299 2453 2299 2102 2628 2453 2374 2628 2628 2537 2537 2537 2725 2628 2725 2830 2537 2453 2628 2453 2725 2628 2299 2299 2830 0 3199 3066 3199 3066 2374 1936 2164 1989 2230 2164 2164 2164 2164 2230 2453 2230 2725 2164 2164 2537 1795 1839 1839 1887 1711 1711 0 1887 1887 1936 1989 2102 1989 2102 2102 2044 2102 2102 2044 2164 1989 2164 2102 2044 2102 2164 2164 2299 2164 2299 2230 1989 2044 2102 2044 2044 2044 1989 1989 1989 2044 1936 1795 1795 1752 1711 1752 1672 1533 1565 1443 1388 1533 1471 1471 1501 1501 1501 1501 1533 1565 1388 1388 1362 1291 1268 1226 1206 1168 1149 0 0 0 0 0
    0 0 0 0 0 0 0 0 0 0 0 0 0 0 0 0 0 0 0 0 0 0 0 0 0 0 0 0 0 0 0 0 0 0 0 0 0 0 0 0 0 0 0 0 0 0 0 0 0 0 0 0 0 0 0 0 0 0 0 0 0 0 0 0 0 0 0 0 0 1839 1887 1887 1989 2044 2164 2230 2230 2164 2453 2628 2628 2628 2830 2830 2830 3066 3345 3066 3066 3345 3345 3345 3345 3679 3199 3066 2725 0 0 0 3066 0 2628 2453 3873 3873 3679 3504 3345 3504 3345 3199 3504 3066 3066 3066 3199 3345 3066 3199 3679 3066 3345 3066 2830 2537 2725 0 3066 3679 0 0 0 0 0 0 533 0 0 0 0 0 0 0 3066 3199 2943 2830 2943 2725 2537 2725 2453 2374 2725 2628 2725 2537 3066 2830 2830 2943 2725 2725 2628 2628 2374 2374 2453 2164 2374 2374 2374 2453 2374 2628 2628 2453 2943 2374 2453 2374 2299 2453 2374 2374 2453 2453 2537 2374 2453 2374 2299 2164 2230 2230 2164 2164 2299 2164 2374 2102 1936 2453 2230 2299 2537 2537 2537 2537 2537 2628 2537 2725 2725 2537 2453 2537 2374 2725 2628 3066 2628 0 0 3345 3066 3345 3066 2164 1887 2102 1936 2164 2102 2102 2102 2102 2164 2374 2102 2628 2044 1989 2164 1711 1635 1672 1887 1711 0 0 1887 1887 1936 1989 2102 2044 2164 2102 2044 2102 2102 2044 2164 2044 2164 2102 2044 2164 2164 2164 2299 2164 2299 2230 1989 2044 2102 2044 2044 2044 1989 1989 1936 2044 1936 1795 1795 1752 1711 1752 1672 1533 1533 1415 1388 1501 1443 1471 1471 1471 1501 1501 1533 1565 1388 1415 1362 1314 1268 1247 1206 1187 1168 0 0 0 0 0
    0 0 0 0 0 0 0 0 0 0 0 0 0 0 0 0 0 0 0 0 0 0 0 0 0 0 0 0 0 0 0 0 0 0 0 0 0 0 0 0 0 0 0 0 0 0 0 0 0 0 0 0 0 0 0 0 0 0 0 0 0 0 0 0 0 0 0 0 0 1887 1887 1936 1989 2044 2164 2230 2230 2230 2453 2628 2537 2628 2830 2830 2830 2943 3066 3066 3066 3199 3504 3345 3504 3679 3345 3345 3066 0 0 0 0 2830 2628 2374 3504 3504 3345 3199 3199 3345 3199 3066 3345 2943 3066 3066 3199 3199 3066 3199 3504 3199 3504 3066 2830 2725 2830 3199 3066 3345 0 0 0 0 0 0 0 549 0 3345 3873 3504 0 0 3199 3199 3066 2943 3066 2725 2453 2725 2537 2453 2725 2628 2725 2628 2943 2830 2628 2830 2628 2628 2537 2537 2299 2374 2453 2230 2374 2453 2453 2537 2453 2725 2628 2537 2830 2374 2537 2453 2299 2453 2453 2453 2453 2453 2628 2453 2537 2374 2299 2230 2230 2374 2230 2230 2374 2230 2374 2044 1936 2299 2044 2299 2453 2453 2453 2537 2453 2628 2537 2725 2628 2453 2453 2453 2299 2725 2453 2830 2628 2628 0 3199 3066 3345 3066 2044 1887 2044 1887 2044 2044 2044 2044 2044 2102 2230 2044 2628 1989 1936 2044 1635 1443 1471 1839 0 0 0 0 1839 1887 1936 2044 1989 2164 2102 2044 2164 2102 2102 2164 2044 2230 2102 2102 2164 2164 2230 2299 2102 2299 2164 1989 2044 2102 1989 2044 1989 1989 1936 1936 1989 1887 1795 1795 1752 1711 1752 1672 1565 1501 1388 1362 1501 1443 1443 1471 1471 1533 1501 1565 1565 1443 1471 1415 1362 1314 1268 1247 1226 1187 0 0 0 0 0
    0 0 0 0 0 0 0 0 0 0 0 0 0 0 0 0 0 0 0 0 0 0 0 0 0 0 0 0 0 0 0 0 0 0 0 0 0 0 0 0 0 0 0 0 0 0 0 0 0 0 0 0 0 0 0 0 0 0 0 0 0 0 0 0 0 0 0 0 0 1887 1839 1887 1989 1989 2102 2102 2102 2164 2374 2453 2453 2537 2725 2725 2725 2943 3066 3066 3066 3199 3504 3345 3504 3679 3345 3345 3199 3345 0 0 0 2830 2725 2453 3199 3199 3199 2943 2943 3066 2943 2943 3199 2830 2943 3066 3199 3199 3066 3345 3345 3199 3504 2943 2725 2628 2725 0 2943 3066 2943 2537 0 0 0 0 0 0 4088 3345 4329 3679 3504 3345 3345 3345 3066 2943 3199 2725 2453 2628 2537 2537 2725 2628 2830 2725 3199 2943 2725 2943 2725 2725 2537 2537 2299 2453 2453 2299 2453 2453 2537 2628 2537 2830 2725 2628 2943 2453 2628 2453 2374 2453 2453 2453 2374 2453 2537 2374 2537 2374 2374 2299 2299 2374 2230 2230 2374 2230 2374 1989 1936 2164 1989 2299 2453 2453 2453 2453 2453 2628 2453 2725 2537 2453 2374 2453 2374 2628 2453 0 2830 2725 0 3199 3199 3345 3066 1936 1839 1936 1839 1989 1936 1936 1989 1989 1989 2102 1989 2537 1887 1887 1887 1635 1415 1471 0 0 0 0 0 0 1887 1989 2044 1989 2102 2102 2044 2164 2164 2102 2164 2044 2230 2102 2102 2164 2164 2164 2299 2044 2230 2164 1936 2044 2102 1989 1989 1989 1936 1936 1887 1936 1839 1752 1752 1711 1711 1711 1672 1635 1501 1362 1362 1471 1415 1443 1471 1471 1533 1501 1565 1565 1471 1501 1471 1415 1388 1314 1291 1268 1226 0 0 0 0 0
    0 0 0 0 0 0 0 0 0 0 0 0 0 0 0 0 0 0 0 0 0 0 0 0 0 0 0 0 0 0 0 0 0 0 0 0 0 0 0 0 0 0 0 0 0 0 0 0 0 0 0 0 0 0 0 0 0 0 0 0 0 0 0 0 0 0 0 0 0 1887 1839 1887 1936 1936 2044 2044 2044 2102 2230 2374 2299 2453 2628 2628 2628 2943 2943 3066 3066 3199 3504 3345 3679 3873 3504 3679 3345 3345 0 0 0 2830 2725 2453 2943 3066 2943 2725 2725 2943 2830 2830 3066 2830 2943 3066 3199 3345 3199 3345 3199 3066 3345 3066 2725 2628 2830 0 3199 3199 3066 2725 0 0 0 0 2725 0 0 0 4599 4088 3679 3504 3345 3345 3199 3066 3199 2725 2374 2628 2537 2537 2725 2725 2943 2943 3345 2830 2830 2830 2725 2725 2628 2537 2299 2453 2453 2374 2537 2537 2537 2628 2725 2943 2830 2830 2943 2537 2628 2374 2299 2453 2453 2453 2374 2453 2537 2374 2537 2299 2374 2299 2299 2374 2230 2230 2299 2164 2374 1989 1936 2102 1936 2299 2453 2453 2374 2374 2374 2537 2453 2725 2453 2374 2374 2453 2453 2725 2537 5661 0 0 0 3199 3199 3199 2628 1887 1795 1887 1752 1887 1839 1887 1887 1887 1936 1936 1887 2299 1795 1839 1795 1711 1672 1672 1989 0 0 0 0 0 1887 1989 2044 1989 2102 2102 2044 2102 2164 2102 2164 2044 2164 2102 2102 2230 2164 2164 2299 2044 2164 2102 1936 2044 2044 1936 1989 1936 1936 1887 1887 1887 1795 1752 1752 1711 1672 1711 1711 1672 1599 1362 1388 1471 1415 1443 1471 1471 1501 1501 1533 1565 1501 1565 1565 1533 1533 1388 1415 1338 1268 0 0 0 0 0
    0 0 0 0 0 0 0 0 0 0 0 0 0 0 0 0 0 0 0 0 0 0 0 0 0 0 0 0 0 0 0 0 0 0 0 0 0 0 0 0 0 0 0 0 0 0 0 0 0 0 0 0 0 0 0 0 0 0 0 0 0 0 0 0 0 0 0 0 0 1839 1839 1887 1936 1936 2044 2044 1989 2044 2164 2230 2164 2299 2537 2453 2453 2943 2830 3066 3066 3066 3504 3504 3679 3873 3504 3679 3345 3504 3873 3345 0 2830 2725 2374 2830 2830 2830 2628 2537 2830 2830 2725 3066 2830 2943 3066 3345 3504 3345 3345 3199 3066 3199 3066 2725 2725 2830 0 3345 3345 3199 2943 2943 0 0 0 2830 0 0 0 4906 4329 3873 3679 3345 3345 3066 2943 3199 2628 2299 2537 2537 2537 2725 2628 2830 2830 3066 2725 2725 2830 2725 2725 2628 2537 2374 2453 2537 2453 2628 2628 2628 2725 2830 3066 2943 2943 2943 2453 2537 2453 2374 2453 2453 2453 2374 2537 2628 2453 2537 2299 2374 2299 2299 2374 2230 2230 2299 2230 2453 1989 1936 2102 1936 2230 2374 2299 2299 2299 2299 2537 2374 2628 2453 2374 2374 2374 2453 2628 2537 3679 0 0 0 3066 3066 2725 2164 1887 1795 1795 1711 1795 1795 1795 1795 1795 1795 1795 1795 1989 1752 1752 1711 1711 1711 1672 2044 1989 0 0 1887 1839 1839 1936 1989 1936 2044 2044 1989 2044 2044 1989 2102 2044 2164 2102 2102 2230 2164 2102 2230 1989 2102 2102 1936 1989 1989 1936 1936 1887 1887 1839 1839 1839 1795 1711 1752 1711 1711 1711 1752 1752 1672 1443 1415 1471 1415 1443 1471 1471 1501 1501 1533 1599 1533 1599 1599 1599 1635 1471 1599 0 0 0 0 0 0 0
    0 0 0 0 0 0 0 0 0 0 0 0 0 0 0 0 0 0 0 0 0 0 0 0 0 0 0 0 0 0 0 0 0 0 0 0 0 0 0 0 0 0 0 0 0 0 0 0 0 0 0 0 0 0 0 0 0 0 0 0 0 0 0 0 0 0 0 0 0 1839 1887 1887 1936 1887 1989 1989 1989 2044 2164 2102 2102 2164 2537 2374 2374 2943 2830 3066 3066 3199 3504 3504 3679 3873 3504 3679 3504 3504 3873 3345 0 2830 2725 2299 2725 2725 2725 2537 2537 2725 2725 2725 3066 2830 2943 3199 3504 3504 3504 3345 3066 2943 3199 3066 2830 2725 2943 2943 3345 3345 3199 0 2943 0 0 0 2943 2943 3504 0 4906 4329 4088 3679 3345 3199 3066 2943 3066 2628 2230 2453 2453 2453 2628 2537 2628 2725 2830 2725 2725 2830 2725 2725 2628 2537 2374 2537 2537 2537 2628 2628 2725 2830 2943 3066 3066 2943 2830 2374 2537 2453 2374 2453 2453 2453 2453 2537 2725 2537 2628 2374 2453 2374 2374 2453 2230 2230 2299 2230 2537 1989 1936 2044 1887 2164 2164 2164 2230 2230 2230 2453 2299 2628 2374 2374 2453 2374 2374 2537 2628 3345 0 2044 0 2943 2299 2299 2102 1887 1839 1752 1672 1752 1752 1752 1752 1752 1752 1752 1752 1839 1752 1752 1672 1711 1635 1599 2044 1989 0 1887 1839 1839 0 1839 1887 1795 1752 1839 1839 1887 1936 1887 1936 1936 2044 2164 2102 2299 2230 2102 2230 2044 2102 2044 1887 1887 1887 1839 1839 1839 1839 1795 1795 1795 1795 1752 1752 1752 1752 1752 1752 1752 1711 1565 1471 1501 1443 1443 1471 1471 1501 1501 1533 1565 1533 1599 1599 1635 1635 1501 1635 0 0 0 0 0 0 0
    0 0 0 0 0 0 0 0 0 0 0 0 0 0 0 0 0 0 0 0 0 0 0 0 0 0 0 0 0 0 0 0 0 0 0 0 0 0 0 0 0 0 0 0 0 0 0 0 0 0 0 0 0 0 0 0 0 0 0 0 0 0 0 0 0 0 0 0 0 1795 1887 1936 1936 1887 1989 1989 1936 1989 2044 2044 1989 2044 2299 2164 2164 2830 2725 3066 3066 3066 3504 3504 3679 3873 3504 3873 3504 3504 3873 3345 3199 2943 2830 2374 2628 2725 2725 2537 2537 2725 2725 2725 3066 2830 3066 3199 3504 3504 3679 3345 2943 2943 3066 3066 2830 2725 2943 0 3199 3345 3199 3066 2943 0 0 0 3066 2943 3345 3199 4906 4329 4088 3679 3199 3199 3066 2943 0 2537 2164 2299 2374 2453 2537 2453 2628 2725 2830 2830 2830 2943 2943 2830 2628 2537 2453 2537 2537 2628 2725 0 0 0 2943 3199 3066 3066 2830 2299 2537 2453 2374 2453 2453 2453 2453 2628 2725 2628 2628 2374 2537 2453 2453 2453 2299 2230 2299 2230 2537 1989 1887 1989 1839 2102 2102 2044 2164 2164 2164 2299 2299 2537 2374 2299 2453 2374 2374 2537 2628 0 2453 2102 2374 2537 1989 2164 2044 1887 1839 1752 1672 1752 1711 1752 1711 1711 1711 1672 1711 1752 1711 1711 1635 1599 1533 1501 1752 1711 1599 1752 1795 1752 1795 1752 1795 1711 1635 1711 1672 1672 1711 1711 1752 1752 0 2164 2102 2230 2164 1989 2044 1989 1989 1887 1752 1672 1795 1752 1795 1795 1795 1795 1795 1795 1795 1795 1795 1795 1795 1795 1795 1795 1752 1635 1533 1533 1471 1471 1471 1471 1501 1501 1533 1565 1533 1599 1599 1599 1635 1501 1635 0 0 0 0 0 0 0
    0 0 0 0 0 0 0 0 0 0 0 0 0 0 0 0 0 0 0 0 0 0 0 0 0 0 0 0 0 0 0 0 0 0 0 0 0 0 0 0 0 0 0 0 0 0 0 0 0 0 0 0 0 0 0 0 0 0 0 0 0 0 0 0 0 0 0 0 0 1752 1887 1989 1989 1887 1936 1936 1936 1936 2044 1936 1936 1936 2164 2102 2102 2725 2537 2943 2943 3066 3504 3345 3679 3873 3504 3873 3504 3504 4088 3504 3345 2943 2943 2374 2628 2628 2628 2453 2537 2628 2725 2830 3066 3066 3199 3504 3679 3679 4088 3679 2943 3066 3199 3199 2830 2725 2943 0 3199 3345 3199 3066 2943 0 0 3066 0 0 3199 3066 4906 4329 0 0 3199 3066 0 2943 0 2537 2044 2230 2299 2453 2537 2453 2628 2725 2830 2943 2943 2943 2943 2943 2628 2537 2453 2537 2453 2628 2725 0 0 0 3066 3199 3066 3199 2830 2230 2537 2453 2374 2453 2537 2453 2453 2537 2725 2628 2628 2453 2537 2453 2453 2537 2299 2299 2299 2230 2537 1989 1887 1989 1839 2044 2044 2044 2164 2164 2164 2374 2299 2628 2374 2374 2453 2374 2374 2537 2628 0 2537 2164 2374 2453 1936 2164 2044 1936 1839 1752 1672 1711 1672 1711 1672 1672 1672 1635 1672 1711 1635 1711 1565 1501 1501 1501 1635 1635 1599 1672 1711 1711 1795 1711 1752 1711 1635 1711 1635 1635 1635 1672 1672 1672 0 0 0 0 1989 0 0 0 0 1501 1471 1388 1672 1711 1711 1752 1752 1752 1795 1795 1839 1795 1795 1795 1795 1795 1795 1795 1752 1672 1599 1599 1501 1501 1471 1471 1501 1501 1533 1565 1501 1565 1565 1599 1635 1501 1635 0 0 0 0 0 0 0
    0 0 0 0 0 0 0 0 0 0 0 0 0 0 0 0 0 0 0 0 0 0 0 0 0 0 0 0 0 0 0 0 0 0 0 0 0 0 0 0 0 0 0 0 0 0 0 0 0 0 0 0 0 0 0 0 0 0 0 0 0 0 0 0 0 0 0 0 0 1752 1936 2044 1989 1887 1936 1936 1887 1936 1989 1887 1887 1887 2102 2044 2102 2628 2453 2830 2830 2943 3345 3345 3679 3873 3504 3873 3679 3504 4088 3504 3345 2943 2943 2299 2537 2537 2537 2453 2537 2628 2725 2830 3199 3066 3345 3679 3873 3873 4599 3873 3199 3345 3345 3345 2943 2830 3066 2943 3066 3345 3199 3066 2943 2943 3066 3066 3066 2943 3199 2943 4599 4088 0 0 3066 3066 0 2943 0 2537 2102 2299 2374 2453 2537 2537 2725 2830 2830 2943 2943 2943 2943 2943 2628 2537 2537 2537 2453 2725 0 0 0 0 0 3066 3066 3345 2830 2299 2628 2537 2453 2537 2628 2453 2537 2628 2725 2628 2537 2453 2537 2453 2453 2537 2374 2299 2299 2299 2537 1989 1887 1936 1795 2044 1989 2044 2102 2102 2164 2299 2230 2537 2299 2374 2453 2299 2374 2537 2628 2830 2628 2299 2537 2453 1887 2102 1989 1936 1839 1711 1672 1711 1635 1711 1635 1635 1635 1635 1672 1672 1635 1711 1565 1533 1565 1565 1599 1599 1599 1635 1672 1672 1752 1672 1711 1711 1635 1711 1672 1635 1672 1672 1711 1711 0 0 0 0 0 0 0 0 0 0 0 1362 1599 1635 1635 1711 1752 1752 1752 1795 1839 1795 1795 1839 1795 1795 1795 1795 1752 1711 1635 1635 1533 1533 1471 1471 1533 1501 1533 1565 1501 1565 1565 1599 1599 1471 1635 0 0 0 0 0 0 0
    0 0 0 0 0 0 0 0 0 0 0 0 0 0 0 0 0 0 0 0 0 0 0 0 0 0 0 0 0 0 0 0 0 0 0 0 0 0 0 0 0 0 0 0 0 0 0 0 0 0 0 0 0 0 0 0 0 0 0 0 0 0 0 0 0 0 0 0 0 1795 1989 2044 1989 1839 1887 1887 1887 1936 1989 1887 1839 1887 2044 2044 2044 2628 2453 2725 2725 2830 3345 3345 3504 3679 3504 3679 3504 3504 3873 3345 3345 3066 3066 2374 2537 2537 2537 2453 2537 2537 2725 2830 3199 3066 3345 3873 3873 3873 4599 4088 3345 3345 3345 3345 3066 3066 3199 2943 3066 3199 3199 3066 2943 2943 2943 2943 3066 2943 3066 2830 4088 3873 0 0 3066 3066 2943 2943 3504 2628 2102 2453 2374 2537 2453 2453 2628 2830 2830 2943 2943 3066 3066 2943 2725 2628 2628 2628 2374 2725 2830 2725 2830 0 3066 3066 3066 3504 2830 2374 2628 2628 2453 2537 2537 2453 2453 2628 2725 2628 2537 2453 2537 2453 2537 2537 2374 2299 2299 2374 2537 2044 1839 1887 1795 1989 1989 1989 2102 2044 2102 2299 2230 2537 2299 2374 2453 2230 2374 2453 2537 2537 2299 2299 2537 2299 1839 2102 1989 1936 1839 1711 1672 1711 1635 1672 1635 1635 1635 1599 1672 1672 1635 1711 1599 1565 1635 1599 1599 1599 1599 1599 1635 1672 1711 1599 1635 1711 1599 1635 1599 1599 1599 1635 1672 1672 1672 1752 0 0 0 0 0 0 0 0 0 1338 1533 1599 1565 1672 1711 1711 1752 1795 1839 1839 1795 1839 1795 1795 1795 1795 1795 1752 1635 1635 1533 1533 1501 1471 1533 1501 1533 1565 1533 1565 1565 1599 1635 1501 1672 0 0 0 0 0 0 0
    0 0 0 0 0 0 0 0 0 0 0 0 0 0 0 0 0 0 0 0 0 0 0 0 0 0 0 0 0 0 0 0 0 0 0 0 0 0 0 0 0 0 0 0 0 0 0 0 0 0 0 0 0 0 0 0 0 0 0 0 0 0 0 0 0 0 0 0 0 1795 1936 1989 1936 0 1839 1839 0 1887 1936 1839 1839 1839 1989 2044 2044 2537 2374 2628 2628 2830 3199 3199 3345 3345 3199 3345 3199 3199 3345 3199 3066 2943 3066 2374 2537 2537 2537 2453 2537 2537 2725 2830 3199 3066 3345 3679 3873 3873 4599 3873 3504 3504 3504 3679 3199 3066 3199 2943 3066 3199 3199 2943 2830 2830 2830 2830 2943 2830 2943 2725 3345 0 0 0 0 3066 2943 2943 3504 2725 2102 2453 2299 2374 2299 2374 2628 2725 2830 2943 2943 3066 3066 2943 2830 2628 2725 2628 2299 2628 2725 2725 2830 2943 3066 2943 2943 3504 2725 2374 2537 2537 2374 2453 2453 2374 2453 2628 2628 2537 2537 2537 2537 2537 2537 2537 2374 2299 2374 2453 2537 2044 1839 1839 1795 1989 1936 1989 2102 2044 2102 2299 2299 2537 2299 2453 2453 2299 2453 2453 2725 2230 2453 2537 2830 2299 1887 2102 1989 1936 1839 1711 1711 1711 1635 1672 1635 1599 1599 1599 1672 1635 1635 1711 1599 1599 1635 1635 1635 1635 1599 1599 1635 1672 1711 1599 1635 1672 1599 1635 1565 1565 1599 1599 1672 1635 1599 1672 1672 0 1599 1565 0 1314 0 1268 1362 1338 1501 1599 1599 1672 1711 1711 1795 1795 1887 1839 1795 1839 1795 1795 1795 1795 1752 1752 1672 1672 1565 1565 1501 1501 1533 1501 1565 1565 1533 1565 1565 1599 1635 1471 1711 0 0 0 0 0 0 0
    0 0 0 0 0 0 0 0 0 0 0 0 0 0 0 0 0 0 0 0 0 0 0 0 0 0 0 0 0 0 0 0 0 0 0 0 0 0 0 0 0 0 0 0 0 0 0 0 0 0 0 0 0 0 0 0 0 0 0 0 0 0 0 0 0 0 0 0 0 1795 1989 2044 1887 0 1839 1839 0 1887 1936 1839 1839 0 2044 2044 2044 2537 2374 2537 2537 2830 3066 3066 3066 3199 2943 3199 3066 3066 3066 3066 3066 2943 2943 2374 2537 2453 2453 2453 2628 2537 2725 2830 3066 0 3199 0 3679 3679 4329 3679 3504 3504 3679 3679 3345 3199 3199 2943 3066 3199 3199 3066 2830 2830 2943 2830 2943 2830 2830 2628 3066 0 121 120 120 2943 2830 2830 3345 2725 2164 2537 2299 2453 2374 2453 2628 2725 2830 2943 2943 3066 3066 2943 2830 2725 2725 2628 2230 2537 2628 2628 2725 2830 2830 2830 2830 3345 2628 2374 2537 2537 2374 2537 2453 2374 2453 2628 2628 2537 2453 2537 2537 2537 2537 2537 2453 2299 2374 2453 2628 2102 1795 1839 1795 1989 1936 1989 2102 2044 2102 2299 2374 2537 2299 2453 2453 2230 2374 2537 2830 2044 2537 2537 2725 2230 1936 2102 1989 1989 1887 1752 1752 1752 1672 1711 1635 1599 1599 1565 1672 1599 1599 1711 1565 1599 1635 1635 1635 1599 1599 1599 1635 1635 1672 1565 1599 1672 1599 1599 1599 1599 1599 1599 1672 1635 1635 1672 1672 1672 1565 1565 0 0 0 1268 1362 1338 1501 1599 1599 1711 1711 1752 1795 1839 1887 1839 1795 1795 1795 1795 1752 1752 1752 1752 1672 1672 1599 1599 1533 1501 1533 1533 1565 1599 1533 1565 1565 1599 1635 1471 1752 0 0 0 0 0 0 0
    0 0 0 0 0 0 0 0 0 0 0 0 0 0 0 0 0 0 0 0 0 0 0 0 0 0 0 0 0 0 0 0 0 0 0 0 0 0 0 0 0 0 0 0 0 0 0 0 0 0 0 0 0 0 0 0 0 0 0 0 0 0 0 0 0 0 0 0 0 1795 1936 1989 1887 0 1839 1839 0 1887 1989 1887 1887 0 2044 2102 2044 2537 2374 2537 2537 2830 2943 2943 2943 3066 2830 2943 2943 2943 2943 2830 2943 2943 2943 2453 2628 2453 2453 2537 2628 2453 2725 2830 0 0 3199 0 3504 3504 4088 3873 3679 3679 3873 3873 3345 3199 3199 2943 3066 3199 3199 3066 2943 2830 2943 2830 2943 2830 2830 2628 2943 0 121 120 120 2830 2830 2830 3199 2725 2299 2628 2374 2453 2453 2453 2628 2725 2830 2943 2943 3066 3066 2830 2725 2725 2725 2628 2164 2537 2537 2628 2725 2830 2725 2628 2628 3066 2537 2374 2537 2537 2374 2537 2453 2453 2453 2537 2628 2453 2453 2453 2453 2537 2537 2537 2453 2374 2453 2453 2537 2164 1795 1795 1839 1989 1936 2044 2102 2102 2164 2374 2453 2537 2374 2537 2453 2230 2299 2537 2725 1989 2537 2537 2628 2102 1936 2164 2044 2044 1936 1795 1795 1795 1711 1711 1635 1599 1599 1565 1672 1565 1565 1672 1533 1565 1635 1635 1599 1599 1599 1599 1599 1635 1672 1565 1599 1635 1599 1599 1599 1599 1599 1599 1711 1635 1672 1711 1752 1711 1599 1565 0 1314 0 1268 1362 1338 1501 1599 1599 1711 1711 1752 1839 1839 1887 1839 1795 1795 1795 1752 1752 1752 1711 1752 1672 1672 1599 1599 1533 1533 1565 1533 1565 1565 1501 1565 1533 1565 1565 1415 1565 0 0 0 0 0 0 0
    0 0 0 0 0 0 0 0 0 0 0 0 0 0 0 0 0 0 0 0 0 0 0 0 0 0 0 0 0 0 0 0 0 0 0 0 0 0 0 0 0 0 0 0 0 0 0 0 0 0 0 0 0 0 0 0 0 0 0 0 0 0 0 0 0 0 0 0 0 1839 1936 1989 1839 0 1839 1839 0 1936 2044 1936 1936 2044 2102 2164 2164 2628 2453 2537 2537 2830 2830 2725 2725 2943 2725 2943 2830 2943 2830 2830 3066 3066 2830 2537 2628 2453 2453 2537 2725 2537 2725 2830 0 0 3199 0 3504 3679 4088 3873 3873 3873 3873 3873 3504 3199 3199 2943 2943 3066 3066 3066 2830 2830 2943 2830 2943 2943 2830 2628 2943 2943 0 120 120 0 2830 2830 3199 2725 2374 2628 2453 2453 2374 2453 2725 2725 2830 2943 3066 3066 2943 2830 2725 2725 2725 2628 2164 2453 2453 2537 2628 2725 2537 2453 2537 2830 2374 2299 2537 2453 2374 2537 2374 2374 2453 2537 2537 2374 2453 2453 2374 2453 2453 2537 2453 2299 2453 2453 2299 2102 1795 1839 1839 1936 1936 2102 2164 2102 2164 2453 2537 2537 2453 2537 2453 2299 2453 2628 2830 2164 2830 2628 2299 2044 1936 2164 2044 2044 1936 1839 1839 1839 1711 1711 1635 1599 1599 1565 1672 1565 1565 1672 1533 1565 1635 1635 1599 1599 1599 1599 1599 1635 1672 1565 1599 1635 1599 1599 1599 1599 1635 1635 1711 1672 1672 1711 1752 1711 1599 1599 0 0 0 1247 1362 1362 1471 1599 1599 1711 1711 1752 1839 1887 1936 1839 1839 1839 1752 1752 1752 1711 1711 1711 1672 1672 1599 1599 1565 1533 1565 1533 1565 1565 1501 1565 1501 1533 1501 1362 1471 0 0 0 0 0 0 0
    0 0 0 0 0 0 0 0 0 0 0 0 0 0 0 0 0 0 0 0 0 0 0 0 0 0 0 0 0 0 0 0 0 0 0 0 0 0 0 0 0 0 0 0 0 0 0 0 0 0 0 0 0 0 0 0 0 0 0 0 0 0 0 0 0 0 0 0 0 1839 1936 2044 1839 1839 1887 1887 1839 1989 2102 2044 1989 2164 2164 2299 2230 2628 2453 2537 2537 2830 2830 2725 2725 2943 2725 2943 2943 2943 2943 2830 3066 3066 2830 2628 2628 2453 2453 2537 2628 2537 2725 2830 2943 0 3199 0 3504 3679 4088 3873 3873 4088 4088 3873 3504 3199 3066 2943 2830 2943 3066 3066 2830 2830 2830 2725 2830 2943 2830 2628 2830 2943 0 0 0 0 0 2943 3066 2725 2453 2725 2537 2453 2230 2453 2943 2830 2943 3066 3199 3199 2943 2830 2725 2725 2725 2628 2164 2453 2374 2537 2537 2537 2374 2374 2374 2725 2230 2299 2453 2374 2374 2453 2374 2374 2453 2537 2537 2374 2374 2453 2374 2453 2453 2537 2453 2374 2453 2453 2230 2164 1795 1839 1887 1989 1989 2102 2164 2164 2230 2453 2537 2628 2537 2628 2453 2374 2537 2830 2830 2537 2943 2628 2102 2044 1936 2164 2044 2044 1989 1839 1839 1839 1752 1752 1635 1599 1599 1533 1672 1565 1565 1672 1533 1599 1635 1635 1635 1599 1599 1599 1635 1635 1672 1533 1565 1635 1599 1599 1565 1599 1599 1599 1711 1672 1672 1711 1711 1752 1672 0 0 0 0 1268 1388 1362 1501 1599 1635 1711 1752 1752 1887 1887 1887 1839 1839 1795 1752 1752 1711 1711 1711 1711 1672 1672 1599 1635 1599 1565 1565 1533 1565 1565 1501 1533 1471 1501 1443 1338 1388 0 0 0 0 0 0 0
    0 0 0 0 0 0 0 0 0 0 0 0 0 0 0 0 0 0 0 0 0 0 0 0 0 0 0 0 0 0 0 0 0 0 0 0 0 0 0 0 0 0 0 0 0 0 0 0 0 0 0 0 0 0 0 0 0 0 0 0 0 0 0 0 0 0 0 0 0 1887 1936 2044 1839 1887 1887 1887 1839 2044 2102 2044 1989 2230 2230 2374 2299 2725 2537 2628 2628 2830 2943 2725 2725 0 0 0 2943 2830 2830 2830 3066 2943 2725 2628 2628 2374 2453 2537 2628 2537 2725 2830 2943 2943 3199 3345 3504 3873 4088 3873 3873 4329 3873 3873 3345 3199 3066 2943 2830 2943 0 0 0 2943 2830 2725 2830 2943 2830 2725 2943 3066 0 0 0 0 0 2943 3066 2725 2628 3066 2725 2725 0 2725 3066 2830 2943 2943 3066 3199 2943 2830 2830 2725 2725 2725 2164 2453 2374 2453 2453 2374 2299 2299 2299 2628 2230 2453 2453 2453 2374 2537 2453 2453 2537 2537 2453 2374 2374 2453 2299 2453 2453 2453 2374 2374 2453 2453 2230 2164 1795 1839 1936 1989 2044 2164 2230 2164 2230 2453 2628 2537 2628 2725 2453 2453 2725 3199 3199 3066 3199 2830 2044 2102 1989 2164 2044 2044 1989 1839 1839 1839 1711 1711 1599 1565 1565 1533 1635 1565 1565 1672 1565 1635 1672 1672 1635 1635 1635 1599 1599 1635 1635 1533 1533 1599 1565 1533 1533 1533 1565 1599 1711 1711 1711 1839 1839 2044 0 0 0 0 0 1247 1388 1388 1471 1599 1599 1672 1711 1752 1887 1887 1887 1795 1795 1795 1752 1711 1711 1711 1711 1711 1672 1672 1599 1672 1635 1599 1599 1565 1565 1565 1501 1533 1471 1443 1388 1314 1338 0 0 0 0 0 0 0
    0 0 0 0 0 0 0 0 0 0 0 0 0 0 0 0 0 0 0 0 0 0 0 0 0 0 0 0 0 0 0 0 0 0 0 0 0 0 0 0 0 0 0 0 0 0 0 0 0 0 0 0 0 0 0 0 0 0 0 0 0 0 0 0 0 0 0 0 0 1936 1936 2044 1839 1887 1887 1887 1839 2044 2044 1989 1989 2230 2164 2299 2299 2725 2628 2725 2725 2943 2943 2725 2725 0 0 0 2943 2830 2830 2830 3066 2943 2628 2628 2628 2374 2537 2537 2628 2537 2725 2830 2943 3066 3199 3345 3679 4088 4088 4088 4088 4329 3873 3679 3345 3199 3066 3066 2830 0 269 0 0 0 2725 2725 2830 2943 2830 2830 2943 3066 0 0 0 0 0 0 2943 2725 2725 3199 2725 2725 2725 2628 3066 2830 2943 2943 2943 3066 2830 2725 2830 2725 2725 2628 2164 2453 2453 2537 2537 2453 2453 2374 2453 2725 2299 2537 2537 2453 2453 2537 2453 2453 2537 2537 2374 2374 2453 2453 2299 2453 2453 2453 2374 2453 2537 2453 2299 2230 1839 1887 1989 1989 2044 2164 2164 2164 2230 2453 2537 2453 2628 2628 2374 2453 2725 3066 3066 2943 3066 2725 1989 2164 1989 2164 2102 2044 1989 1887 1887 1887 1711 1711 1599 1565 1565 1533 1635 1565 1565 1672 1565 1635 1672 1672 1635 1599 1599 1599 1599 1599 1599 1501 1501 1533 1533 1471 1471 1501 1533 1599 1711 1711 0 2230 2102 0 0 0 782 0 0 1247 1415 1388 1471 1565 1599 1672 1711 1752 1887 1887 1887 1839 1795 1795 1752 1711 1711 1672 1711 1711 1672 1672 1599 1672 1635 1599 1599 1565 1565 1599 1533 1565 1471 1471 1443 1338 1362 0 0 0 0 0 0 0
    0 0 0 0 0 0 0 0 0 0 0 0 0 0 0 0 0 0 0 0 0 0 0 0 0 0 0 0 0 0 0 0 0 0 0 0 0 0 0 0 0 0 0 0 0 0 0 0 0 0 0 0 0 0 0 0 0 0 0 0 0 0 0 0 0 0 0 0 0 1936 1936 2044 1795 1887 1887 1887 1839 2044 1989 1989 1989 2230 2164 2299 2374 2725 2725 2725 2725 2943 2943 2725 2725 2830 0 0 0 2830 2830 2830 0 2943 2628 2628 2628 2374 2537 2537 0 2628 2725 2943 2943 3066 3345 3504 3873 4329 4088 4088 4088 4329 3679 3504 3199 3066 2943 2943 2830 270 268 0 78 0 2725 2725 2830 2943 2830 2943 3066 0 0 0 120 120 0 0 2943 2725 2830 3199 2628 2725 2628 2453 2830 2725 2830 2830 2943 2943 2725 2725 2725 2628 2628 2453 2164 2374 2453 2537 2628 2537 2537 2537 2628 2830 2453 2537 2374 2299 2374 2537 2374 2453 2453 2537 2374 2374 2453 2374 2299 2453 2453 2453 2374 2537 2628 2537 2374 2299 1887 1887 2044 2044 2102 2230 2164 2164 2230 2453 2628 2453 2628 2628 2374 2537 2725 3066 2943 2830 2943 2453 1887 2102 1989 2102 2044 2044 1989 1887 1887 1887 1752 1711 1635 1599 1599 1533 1635 1565 1565 1672 1565 1635 1672 1635 1635 1565 1599 1565 1599 1565 1565 1471 1471 1501 1501 1471 1471 1471 1501 1565 1711 1711 0 2374 2044 0 0 0 774 0 0 1247 1415 1415 1471 1533 1565 1672 1711 1752 1887 1887 1887 1839 1839 1795 1752 1711 1711 1672 1711 1672 1672 1672 1599 1672 1672 1599 1635 1565 1599 1599 1533 1599 1501 1501 1501 1388 1443 0 0 0 0 0 0 0
    0 0 0 0 0 0 0 0 0 0 0 0 0 0 0 0 0 0 0 0 0 0 0 0 0 0 0 0 0 0 0 0 0 0 0 0 0 0 0 0 0 0 0 0 0 0 0 0 0 0 0 0 0 0 0 0 0 0 0 0 0 0 0 0 0 0 0 0 0 1989 1989 1989 1795 1936 1936 1887 1887 2044 1989 1989 1989 2299 2164 2299 2374 2628 2628 2725 2725 2830 2943 2628 2725 2830 0 0 2830 2830 2830 2830 3066 2943 2537 2628 2628 2374 2537 2537 2628 2628 2725 0 0 3199 3504 3504 3873 4906 4088 4088 3873 4329 3345 3199 2943 2830 2830 2830 2725 0 0 0 0 0 0 0 2943 2943 2943 3066 3345 0 3199 0 0 0 0 3345 2943 2628 2725 2943 2537 2628 2725 2374 2830 2725 2725 2725 2830 2725 2537 2628 2628 2628 2628 2374 2230 2374 2537 2628 2628 2725 2628 2628 2725 2943 2725 2628 2374 2299 2453 2537 2374 2453 2537 2537 2299 2374 2453 2374 2299 2453 2374 2453 2374 2537 2628 2453 2453 2374 1887 1936 2102 2044 2164 2299 2230 2230 2299 2453 2628 2453 2725 2628 2453 2628 2830 3199 2943 2943 2943 2374 1936 2102 1989 2102 2044 2044 1989 1887 1887 1887 1752 1711 1635 1599 1599 1533 1635 1533 1565 1672 1565 1635 1635 1635 1635 1565 1635 1599 1599 1565 1501 1471 1471 1501 1501 1471 1471 1471 1533 1599 1711 1711 2374 2299 0 0 0 0 766 0 0 1268 1443 1415 1471 1501 1565 1635 1711 1752 1887 1887 1887 1839 1839 1795 1752 1711 1711 1672 1672 1672 1672 1635 1599 1672 1711 1635 1635 1565 1599 1599 1533 1599 1501 1471 1501 1388 1443 0 0 0 0 0 0 0
    0 0 0 0 0 0 0 0 0 0 0 0 0 0 0 0 0 0 0 0 0 0 0 0 0 0 0 0 0 0 0 0 0 0 0 0 0 0 0 0 0 0 0 0 0 0 0 0 0 0 0 0 0 0 0 0 0 0 0 0 0 0 0 0 0 0 0 0 0 1989 2044 1989 1795 1936 1936 1887 1887 2044 1936 1936 1989 2164 2044 2230 2374 2537 2537 2725 2725 2830 2943 2628 2725 2830 2943 2943 2943 2830 2830 2830 3199 3066 2537 2725 2537 2374 2537 2537 2537 2628 2725 0 2943 3345 3504 3679 3873 4906 4088 3873 3873 4088 3066 3066 2830 2830 2830 2830 2725 0 0 0 0 0 0 0 0 3199 3066 3345 3504 0 3345 0 0 0 0 3504 2830 2628 2830 2943 2725 2830 2943 2374 2830 2725 2725 2628 2725 2537 2537 2628 2628 2628 2628 2374 2299 2453 2628 2725 2725 2830 2725 2725 2943 2943 2943 2725 2453 2299 2537 2537 2374 2453 2628 2537 2374 2374 2453 2374 2299 2453 2453 2453 2374 2537 2537 2453 2453 2299 1936 1989 2164 2044 2230 2374 2299 2299 2374 2537 2725 2537 2830 2628 2453 2628 2725 2943 2830 2830 2830 2164 1989 2164 2044 2164 2044 2044 1989 1936 1936 1887 1752 1711 1635 1599 1599 1533 1635 1533 1565 1711 1565 1635 1565 1533 1599 1415 1599 1565 1533 1533 1471 1471 1471 1471 1501 1471 1471 1471 1501 1599 1672 1711 0 2537 0 0 0 0 758 0 0 1247 1415 1415 1443 1471 1501 1635 1711 1711 1887 1887 1839 1839 1839 1795 1752 1711 1711 1672 1672 1672 1672 1635 1635 1711 1711 1635 1635 1565 1565 1599 1533 1599 1501 1471 1501 1388 1471 0 0 0 0 0 0 0
    0 0 0 0 0 0 0 0 0 0 0 0 0 0 0 0 0 0 0 0 0 0 0 0 0 0 0 0 0 0 0 0 0 0 0 0 0 0 0 0 0 0 0 0 0 0 0 0 0 0 0 0 0 0 0 0 0 0 0 0 0 0 0 0 0 0 0 0 0 1989 2102 1989 1795 1936 1936 1936 1936 2102 1936 1936 1936 2164 2044 2164 2374 2537 2537 2725 2725 2830 2830 2628 2830 2830 3066 3066 2943 2830 2830 2943 3199 2943 2453 2628 2453 2374 2453 2537 2537 2628 2725 0 2943 3345 3504 3873 4088 5256 4329 3873 3873 4329 2943 2943 2830 2830 2830 2830 2725 2830 2830 0 0 0 0 0 3199 3345 3199 3504 3679 3504 3504 3873 0 3199 3199 3679 2830 2537 2830 3066 2830 2943 2943 0 2725 2830 2725 2725 2537 2537 2453 2628 2628 2628 2628 2299 2299 2453 2725 2830 2725 2943 2830 2725 2943 2943 3066 2628 2374 2299 2537 2537 2374 2374 2725 2628 2374 2453 2537 2374 2299 2453 2537 2453 2453 2628 2537 2537 2537 2374 2044 1989 2164 2102 2374 2453 2374 2374 2453 2537 2725 2628 2943 2628 2453 2537 2725 2830 2725 2725 2725 2044 1989 2164 2044 2164 2102 2044 1989 1936 1936 1936 1752 1752 1672 1635 1599 1565 1635 1565 1565 1711 0 1599 1443 1443 1565 1388 1599 1635 1565 1565 1443 1443 1443 1443 1471 1443 1443 1471 1501 1599 1635 1711 0 2453 0 0 0 0 735 0 0 0 1443 1443 1443 1443 1501 1635 1711 1711 1887 1887 1839 1839 1839 1795 1752 1711 1711 1672 1672 1672 1672 1635 1635 1672 1711 1599 1599 1533 1565 1599 1533 1599 1501 1471 1501 1415 1533 0 0 0 0 0 0 0
    0 0 0 0 0 0 0 0 0 0 0 0 0 0 0 0 0 0 0 0 0 0 0 0 0 0 0 0 0 0 0 0 0 0 0 0 0 0 0 0 0 0 0 0 0 0 0 0 0 0 0 0 0 0 0 0 0 0 0 0 0 0 0 0 0 0 0 0 0 2044 2164 2044 1839 1936 1936 1936 1936 2044 1887 1887 1936 2102 1989 2044 2299 2453 2537 2628 2725 2830 2830 2628 2830 2830 3199 3066 3066 2943 2830 2943 3199 3066 2453 2628 2374 2374 2453 2453 2453 2628 2725 2943 2943 3504 3679 3873 4329 5661 4599 4088 4088 4329 2943 2830 2725 2725 2830 2830 2725 2725 2830 0 0 0 0 3199 3199 3504 3345 3504 3873 3504 3504 4088 3199 3199 3199 3679 2830 2453 2725 2943 2628 2830 0 0 2628 2725 2628 2725 2299 2453 2537 2628 2537 2537 2628 2299 2374 2537 2830 2830 2830 2943 2830 2830 3199 3066 3066 2628 2299 2299 2453 2374 2374 2299 2830 2725 2374 2628 2628 2453 2374 2537 2628 2537 2537 2725 2628 2725 2725 2453 2164 2044 2299 2164 2453 2453 2453 2374 2453 2537 2725 2628 2830 2537 2453 2628 2725 2830 2830 2830 2725 2044 2044 2230 2044 2164 2102 2044 1989 1936 1989 1936 1752 1752 1672 1635 1635 1599 1635 1565 1565 1711 0 1501 1388 1388 1533 1443 1635 0 0 1565 1415 1443 1415 1443 1471 1443 1443 1471 1501 1599 1599 1672 0 1936 0 0 0 0 0 0 0 0 1443 1443 1471 1443 1501 1635 1711 1752 1887 1887 1839 1839 1839 1795 1752 1711 1711 1672 1711 1672 1672 1599 1635 1672 1711 1635 1599 1533 1565 1599 1565 1599 1533 1501 1533 1415 0 0 0 0 0 0 0 0
    0 0 0 0 0 0 0 0 0 0 0 0 0 0 0 0 0 0 0 0 0 0 0 0 0 0 0 0 0 0 0 0 0 0 0 0 0 0 0 0 0 0 0 0 0 0 0 0 0 0 0 0 0 0 0 0 0 0 0 0 0 0 0 0 0 0 0 0 0 2044 2164 1989 1839 1936 1936 1887 1887 1989 1839 1887 1887 1989 1936 1989 2299 2374 2537 2628 2725 2830 2830 2725 2943 2830 3199 3199 3066 2943 2830 2943 3199 3066 2537 2628 2453 2453 2537 2537 2537 0 2725 3066 3066 3504 3679 4088 4088 5256 4599 4088 3873 4088 0 2830 2628 2725 2725 2725 2628 2628 2725 2943 0 0 2943 3199 3199 3504 3345 3679 3873 3504 3504 4088 3066 3066 3066 3504 2725 2453 2830 2943 2725 2943 2943 2628 2628 2725 2628 2830 2299 2453 2537 2537 2537 2537 2628 2299 2453 2628 2943 2943 2943 3066 2943 2830 3199 3199 3504 2725 2453 2537 2453 2374 2453 2374 2943 2943 2299 2725 2628 2537 2537 2537 2725 2725 2628 2943 2830 2943 3066 2628 2453 2102 2374 2230 2453 2453 2453 2374 2453 2537 2725 2537 2830 2537 2453 2537 2725 2830 2830 2830 2830 2044 2102 2299 2102 2164 2102 2102 1989 1989 2044 1936 1752 1752 1672 1635 1635 1635 1635 1599 1599 1711 0 1443 1388 1362 1501 1415 1565 1599 1501 1533 1415 1443 1415 1443 1471 1443 1471 1471 1501 1565 1565 1635 1752 1795 1795 1752 1752 0 0 0 0 0 1471 1471 1471 1443 1533 1672 1711 1752 1887 1839 1839 1839 1887 1795 1752 1752 1711 1672 1711 1672 1672 1599 1635 1672 1711 1599 1599 1533 1565 1565 1565 1599 1501 1471 1501 1388 0 0 0 0 0 0 0 0
    0 0 0 0 0 0 0 0 0 0 0 0 0 0 0 0 0 0 0 0 0 0 0 0 0 0 0 0 0 0 0 0 0 0 0 0 0 0 0 0 0 0 0 0 0 0 0 0 0 0 0 0 0 0 0 0 0 0 0 0 0 0 0 0 0 0 0 0 0 2044 2230 1989 1839 1936 1936 1887 1839 1936 1795 1839 1839 1936 1887 1936 2164 2230 2453 2628 2628 2725 2943 2725 2943 2830 3199 3066 3066 2943 2830 2943 3066 3066 2537 2628 2453 2453 2453 2628 2628 2725 2830 3066 3066 3345 3504 3873 3873 4906 4906 3873 3679 3873 0 2725 2628 2628 2725 2628 2628 2537 2628 2830 2830 2943 2830 3199 3199 3345 3345 3504 3873 3504 3504 4088 3066 2943 3066 3504 2725 2374 2943 3066 2830 3066 3066 2830 2725 2725 2725 2725 2299 2374 2537 2537 2453 2537 2628 2230 2537 2628 2943 2943 2943 3066 2943 2943 3345 3199 3873 2725 2537 2628 2537 2374 2374 2299 2830 2943 2299 2830 2725 2537 2628 2628 2943 2830 2725 3066 2943 3066 3199 2628 2628 2102 2374 2299 2453 2537 2453 2453 2537 2537 2725 2537 2830 2537 2453 2537 2628 2725 2830 2830 2725 1989 2164 2299 2102 2164 2102 2044 1989 1989 2102 1887 1752 1752 1711 1672 1635 1672 1672 1635 1635 1711 0 0 1362 0 1443 1388 0 1533 1443 1501 1415 1443 1415 1443 1471 1443 1471 1501 1501 1565 1565 1635 1711 1752 1795 1752 1795 0 0 0 0 0 1471 1471 1471 1443 1533 1672 1711 1752 1887 1887 1839 1887 1887 1839 1752 1752 1752 1711 1711 1711 1672 1599 1635 1672 1672 1501 1533 1471 1501 1533 1533 1565 1471 1443 1533 1388 0 0 0 0 0 0 0 0
    0 0 0 0 0 0 0 0 0 0 0 0 0 0 0 0 0 0 0 0 0 0 0 0 0 0 0 0 0 0 0 0 0 0 0 0 0 0 0 0 0 0 0 0 0 0 0 0 0 0 0 0 0 0 0 0 0 0 0 0 0 0 0 0 0 0 0 0 0 2102 2230 1989 1839 1887 1936 1839 1839 1887 1795 1795 1795 1887 1887 1936 2102 2164 2374 2628 2628 2725 2830 2830 3066 2830 3199 3066 2943 2943 2725 2943 3066 3066 2628 2725 2537 2537 2453 2628 2537 2628 2725 2943 2943 3199 3345 3679 3679 4088 4329 3345 3199 0 0 2628 2537 2537 2628 2628 2537 2453 2537 2725 2725 2830 2725 3066 3199 3345 3345 3679 4088 3679 3679 4329 3066 3066 3066 3873 2830 2453 3066 3066 3066 3199 3199 2943 2830 2830 2725 2537 2299 2374 2453 2374 2299 2374 2537 2164 2537 2537 2943 2943 0 3066 2943 2943 3504 3345 4329 2830 2628 2628 1989 0 0 0 0 0 0 2943 2830 2628 2830 2830 3199 3066 2830 3345 3199 3345 3345 2725 2725 2102 2374 2299 2453 2537 2453 2453 2537 2537 2725 2628 2830 2537 2453 2537 2628 2628 2725 2725 2453 1936 2164 2230 2102 2102 2102 2044 1989 1989 2164 1887 1795 1752 1711 1711 1672 1711 1672 1635 1635 1711 0 0 1291 1247 1388 0 0 1501 1443 1533 1415 1471 1443 1443 1471 1471 1471 1501 1501 1565 1533 1635 1711 1711 1752 1752 1795 1839 0 0 0 0 1471 1471 1471 1443 1565 1711 1711 1795 1936 1887 1887 1887 1936 1839 1795 1795 1752 1711 1711 1711 1635 1565 1599 1599 1565 1443 1471 1443 1501 1533 1533 1565 1501 1471 1599 1443 0 0 0 0 0 0 0 0
    0 0 0 0 0 0 0 0 0 0 0 0 0 0 0 0 0 0 0 0 0 0 0 0 0 0 0 0 0 0 0 0 0 0 0 0 0 0 0 0 0 0 0 0 0 0 0 0 0 0 0 0 0 0 0 0 0 0 0 0 0 0 0 0 0 0 0 0 0 2102 2230 1989 1839 1887 1936 1839 1839 1887 1839 1839 1839 1936 1936 1936 2102 2044 2230 2374 2453 2628 2725 2725 3066 2830 3199 3066 2943 2943 2725 2943 3066 3066 2628 2725 2537 2537 2453 2537 2537 2537 2628 2830 2830 2943 3066 3345 3345 3504 3679 3066 2943 2943 2453 2628 2537 2537 2628 2537 2537 2374 2537 2725 2628 2725 2830 3066 3199 3345 3345 3679 4088 3679 3873 4599 3199 3066 3199 4329 2943 2725 3199 3066 3066 3199 3199 2943 2830 2830 2725 2374 2299 2374 2374 2374 2230 2374 2453 2164 2537 2537 2830 2830 2830 3066 2830 2830 3345 3199 4088 2725 2725 2725 2164 0 0 0 0 0 0 0 0 0 0 0 3679 3504 3199 3504 3345 3345 3199 2628 2725 2044 2374 2299 2453 2453 2453 2453 2537 2537 2830 2725 2830 2537 2453 2453 2537 2628 2537 2537 2164 1989 2230 2230 2102 2102 2102 2044 1989 2044 2164 1839 1795 1795 1752 1711 1711 1711 1672 1635 1635 1672 1599 1314 1247 0 0 0 1565 1635 1471 1565 1415 1471 1443 1443 1501 1471 1501 1533 1501 1599 1565 1635 1711 1672 1711 1711 1795 1839 1887 0 0 0 1471 1471 1471 1471 1599 1711 1711 1795 1936 1887 1887 1936 1989 1839 1795 1795 1752 1711 1711 1672 1565 1533 1565 1565 1533 1443 1471 1471 1501 1565 1565 1565 1501 1471 1599 1415 0 0 0 0 0 0 0 0
    0 0 0 0 0 0 0 0 0 0 0 0 0 0 0 0 0 0 0 0 0 0 0 0 0 0 0 0 0 0 0 0 0 0 0 0 0 0 0 0 0 0 0 0 0 0 0 0 0 0 0 0 0 0 0 0 0 0 0 0 0 0 0 0 0 0 0 0 0 2102 2230 2044 1887 1936 1936 1839 1839 1887 1839 1839 1839 1936 1936 1936 2044 1989 2164 2230 2299 2537 2628 2725 3199 2943 3345 3066 3066 3066 2830 2943 3066 3066 2725 2725 2628 2628 2453 2537 2537 2537 2537 2725 2725 2830 2830 3066 3066 3066 3199 2943 2830 2830 2537 2628 2628 2537 2628 2537 2537 2299 2537 2628 2628 2725 2725 3066 3066 3199 3345 3504 4088 3679 3873 4599 3066 3066 3066 4088 3066 2943 3199 3066 3066 0 3066 2943 2725 2830 2725 2299 2299 2453 2453 2374 2299 2374 2453 2230 2537 2537 2725 2830 2725 2943 2830 2830 3199 3066 3679 2725 2725 2830 2374 2299 0 0 0 0 0 0 0 0 0 0 4329 4088 3504 3504 3199 3199 3199 2537 2628 2044 2299 2299 2453 2453 2537 2453 2537 2537 2943 2830 2830 2537 2537 2374 2537 2628 2537 2453 2044 1989 2230 2299 2102 2102 2102 2044 2044 2102 2164 1839 1839 0 1752 1711 1672 1711 1635 1635 1635 1635 1501 1291 1268 0 1711 1672 1711 1752 1599 1635 1501 1533 1471 1471 1501 1471 1501 1533 1501 1599 1565 1635 1711 1711 1752 1795 1839 1887 1887 1711 1415 1388 1501 1501 1471 1471 1599 1672 1711 1795 1936 1887 1887 1936 1989 1839 1795 1795 1752 1672 1672 1635 1565 1533 1599 1599 1533 1471 1501 1471 1533 1599 1599 1599 1501 1501 1635 0 0 0 0 0 0 0 0 0
    0 0 0 0 0 0 0 0 0 0 0 0 0 0 0 0 0 0 0 0 0 0 0 0 0 0 0 0 0 0 0 0 0 0 0 0 0 0 0 0 0 0 0 0 0 0 0 0 0 0 0 0 0 0 0 0 0 0 0 0 0 0 0 0 0 0 0 0 0 2102 2230 2102 1936 1989 1989 1839 1839 1887 1839 1839 1839 1887 1936 1936 2044 1989 2164 2164 2230 2628 2830 2943 3873 3679 3679 3199 3199 3199 2943 2943 3066 2943 2725 2830 2725 2725 2453 2537 2628 2453 2537 2725 2725 2725 2725 2943 2943 2943 3066 2830 2830 2830 2537 2628 2725 2537 2725 2628 2537 2164 2453 2628 2537 2537 2628 2943 2943 3066 3345 3345 3873 3679 3679 4329 3066 2943 3066 3873 3199 3066 3199 3066 3066 0 3066 2943 2830 2830 2628 2374 2374 2537 2453 2374 2299 2453 2537 2299 2537 2537 2725 2725 2725 2830 2725 2725 3199 2943 3504 2725 2725 2830 2374 2164 0 0 0 0 0 0 0 0 0 0 5256 4906 3504 3504 3345 3345 3199 2725 2725 2044 2374 2374 2453 2453 2537 2537 2628 2537 3066 2943 2943 2628 2537 2299 2453 2537 2374 2230 1936 1989 2230 2299 2102 2164 2102 2102 2044 2102 2102 1795 1839 0 1752 1711 1672 1711 1635 1599 1635 1599 1415 1268 1247 1268 1533 1533 1565 1599 1501 1635 1501 1533 1471 1471 1501 1501 1501 1565 1533 1599 1599 1672 1752 1752 1795 1795 1839 1936 1936 1795 1471 1415 1533 1501 1501 1501 1635 1711 1711 1795 1936 1887 1887 1989 1989 1839 1795 1795 1752 1672 1672 1635 1533 1501 1599 1599 1533 1501 1533 1533 1599 1672 1672 1635 1565 1599 1752 0 0 0 0 0 0 0 0 0
    0 0 0 0 0 0 0 0 0 0 0 0 0 0 0 0 0 0 0 0 0 0 0 0 0 0 0 0 0 0 0 0 0 0 0 0 0 0 0 0 0 0 0 0 0 0 0 0 0 0 0 0 0 0 0 0 0 0 0 0 0 0 0 0 0 0 0 0 0 2164 2230 2164 2044 2102 2044 1887 1887 1936 1887 1887 1887 1887 1989 1989 2102 2102 2299 2230 2374 2725 2830 3066 4329 3873 3504 3066 3345 3199 3066 2943 3066 2943 2725 2830 2830 2725 2374 2537 2628 2537 2537 2725 2725 2725 2628 2943 2943 2830 3066 2943 2830 2725 2537 2628 2628 2374 2628 2453 2453 2102 2374 2537 2453 2453 2537 2725 2830 2830 3199 3199 3504 3504 3679 4088 3066 3066 3066 3873 3504 3345 3345 3066 3066 0 2943 2943 2830 2830 2453 2453 2453 2453 2453 2374 2230 2453 2453 2299 2537 2453 2628 2725 2725 2830 2725 2725 3066 2943 3504 2725 2725 0 2453 2299 0 0 0 0 484 474 0 0 0 0 5256 4906 3679 3679 3504 3345 3199 2830 2830 1989 2299 2374 2374 2374 2453 2453 2537 2537 3066 2943 2830 2628 0 2299 2453 2537 2453 2230 1936 2044 2230 2299 2102 2102 2102 2102 2044 2164 2102 1839 1887 1795 1752 1711 1672 1711 1599 1565 1635 1471 1338 1268 1268 1268 1388 1443 1443 1443 1443 1565 1471 1501 1443 1443 1443 1443 1471 1533 1501 1635 1635 1711 1839 1887 2044 2044 2044 2164 2044 1887 1599 1443 1565 1533 1501 1533 1672 1711 1752 1795 1936 1887 1936 2044 2044 1839 1795 1795 1752 1635 1635 1599 1501 1471 1565 1533 1471 1471 1533 1533 1599 1672 1752 1711 1672 1711 1989 2164 0 0 0 0 0 0 0 0
    0 0 0 0 0 0 0 0 0 0 0 0 0 0 0 0 0 0 0 0 0 0 0 0 0 0 0 0 0 0 0 0 0 0 0 0 0 0 0 0 0 0 0 0 0 0 0 0 0 0 0 0 0 0 0 0 0 0 0 0 0 0 0 0 0 0 0 0 0 2164 2299 2299 2102 2164 2102 2044 1936 1989 1936 1887 1887 1887 1989 2044 2102 2102 2299 2230 2453 2725 2943 3199 3504 3345 3199 3066 3199 3066 2943 2830 3066 2943 2943 2943 3066 2943 2374 2628 2725 2537 2628 2725 2725 2725 2628 3066 2943 2830 2943 2830 2830 2725 2453 2537 2537 2299 2537 2453 2374 2044 2299 2453 2299 2299 2453 2453 2628 2725 2943 2943 3199 3199 3504 3679 3066 3066 3066 3873 3873 3504 3504 3066 0 2725 2943 2943 2830 2830 2374 2453 2453 2453 2453 2374 2230 2453 2453 2299 2537 2453 2628 2628 2628 2830 2725 2725 3066 2943 3504 2830 0 0 0 0 0 0 0 0 481 471 465 443 0 0 0 0 0 3679 3345 3199 3066 2537 2537 1887 2230 2299 2299 2299 2374 2453 2453 2453 2943 2830 2725 2537 2537 2230 2453 2628 2453 2230 1936 2102 2230 2230 2102 2102 2102 2044 2044 2230 1989 1795 1839 1795 1752 1672 1635 1635 1443 1443 1501 1388 1314 1247 1226 1226 1362 1415 1388 1388 1362 1443 1388 1415 1388 1388 1415 1415 1443 1501 1501 1635 1599 1711 1839 1989 2299 2164 2230 2374 2164 2044 1752 1599 1635 1635 1565 1599 1711 1711 1752 1795 1936 1887 1936 2102 2102 1839 1795 1795 1752 1635 1635 1599 1501 1471 1565 1533 1443 1443 1501 1565 1599 1711 1795 1752 1711 1795 1989 2044 0 0 0 0 0 0 0 0
    0 0 0 0 0 0 0 0 0 0 0 0 0 0 0 0 0 0 0 0 0 0 0 0 0 0 0 0 0 0 0 0 0 0 0 0 0 0 0 0 0 0 0 0 0 0 0 0 0 0 0 0 0 0 0 0 0 0 0 0 0 0 0 0 0 0 0 0 0 2164 2299 2299 2164 2164 2102 2044 2044 1989 1936 1887 1887 1887 2044 2164 2164 2044 2299 2230 2628 2830 3066 3345 3345 3066 2943 2943 3066 2830 2725 2628 3066 3066 2830 3066 3199 3066 2453 2725 2830 2628 2725 2830 2830 2725 2725 3199 2943 2725 2943 0 2628 2537 2299 2453 2453 2230 2537 2537 2374 2102 2299 2453 2299 2299 2374 2299 2374 2537 2830 2725 2943 3199 3345 3504 3199 3199 3199 3873 3679 3504 3345 3199 3066 2628 2943 2943 2830 2830 2453 2537 2628 2537 2537 2453 2299 2453 2453 2374 2537 2374 2537 2628 2628 2725 2628 2628 3066 2943 3679 2943 0 0 0 0 0 0 0 0 481 468 457 443 0 0 0 0 0 0 0 0 0 2102 2044 1887 2164 2164 2164 2230 2230 2374 2299 2374 2943 2628 2628 2453 2453 2230 2299 2537 2299 2044 1887 2102 2230 2230 2102 2102 2102 2044 1989 2164 1887 1752 1795 1752 1711 1635 1599 1599 1415 1415 1443 1362 1291 1226 1226 1226 1362 1388 1362 1362 1362 1415 1388 1388 1388 1362 1388 1415 1443 1501 1501 1635 1635 1752 2044 2453 2628 2374 2374 2453 2230 1989 1795 1672 1711 1672 1599 1635 1711 1752 1752 1795 1936 1887 1936 2102 2102 1887 1839 1795 1752 1672 1635 1599 1501 1471 1565 1533 1443 1471 1533 1599 1672 1795 1795 1795 1752 1839 2044 1989 2044 0 0 0 0 0 0 0
    0 0 0 0 0 0 0 0 0 0 0 0 0 0 0 0 0 0 0 0 0 0 0 0 0 0 0 0 0 0 0 0 0 0 0 0 0 0 0 0 0 0 0 0 0 0 0 0 0 0 0 0 0 0 0 0 0 0 0 0 0 0 0 0 0 0 0 0 0 2102 2299 2164 2102 2044 1989 1936 1936 2044 1887 1839 1839 1887 1989 2102 2102 1989 2164 2230 2725 2943 3066 3345 3199 3199 3066 2830 2830 2628 2102 1752 0 3066 2537 2725 2943 2943 2299 2628 2725 2537 2537 2725 2725 2628 2628 2943 2830 2628 2725 2628 2537 2453 2230 2374 2453 2299 2628 2537 2374 2102 2299 2453 2299 2230 2299 2164 2230 2453 2628 2374 2830 3199 3504 3504 3504 3504 3504 3873 3873 3679 3345 3345 3199 2830 2830 2830 2830 2628 2453 2537 2628 2537 2537 2453 2299 2453 2537 2374 2537 2374 2537 2537 2537 2725 2628 2628 3066 2830 3679 2943 0 0 0 0 2102 0 0 0 477 465 448 443 446 0 0 0 0 0 0 0 2044 2044 1989 1887 2164 2164 2102 2164 2164 2299 2299 2299 2943 2830 2628 2725 2830 2453 2374 2537 2230 1936 1887 2102 2164 2164 2044 2044 2044 1989 1989 2102 1795 1711 1752 1711 1672 1635 1565 1565 1388 1338 1362 1314 1247 1206 1206 1226 1415 1501 1443 1388 1388 1443 1388 1388 1362 1338 1362 1362 1415 1443 1443 1599 1635 1795 2628 2725 2830 2628 2537 2628 2374 2102 1839 1711 1711 1711 1635 1672 1752 1752 1752 1795 1936 1887 1936 2102 2044 1839 1839 1839 1752 1672 1635 1599 1533 1533 1635 1599 1533 1533 1635 1711 1711 1839 1795 1795 1795 1887 2044 1989 2044 0 0 0 0 0 0 0
    0 0 0 0 0 0 0 0 0 0 0 0 0 0 0 0 0 0 0 0 0 0 0 0 0 0 0 0 0 0 0 0 0 0 0 0 0 0 0 0 0 0 0 0 0 0 0 0 0 0 0 0 0 0 0 0 0 0 0 0 0 0 0 0 0 0 0 0 0 2044 2230 2102 2102 2044 1936 1887 1936 1989 1887 1839 1887 1887 2044 2230 2102 2044 2374 2374 2725 3066 3066 3199 2943 3066 2943 2628 2374 2299 1936 1501 0 3066 2230 2628 2830 2830 2299 2628 2628 2537 2453 2628 2628 2537 2537 2830 2628 2453 2537 2537 2537 2374 2230 2299 2374 2230 2628 2537 2374 2164 2299 2453 2374 2299 2374 2102 2164 2453 2537 2102 2725 3199 3504 3504 3679 3679 3679 3873 3873 3504 3345 3199 3199 2830 2830 2830 2830 2537 2453 2537 2537 2453 2453 2453 2230 2453 2537 2299 2453 2374 2537 2537 2537 2725 2537 2628 3066 2943 3504 3199 0 0 0 0 0 1936 0 0 474 457 446 440 446 0 0 0 0 2537 2374 0 2044 2102 2044 1887 2164 2164 2164 2164 2230 2374 2299 2374 2943 2943 2830 2943 2943 2537 2453 2537 2164 1887 1839 2044 2102 2102 1989 1989 1989 1936 1936 2044 1752 1672 1672 1672 1635 1533 1501 1501 1362 1338 1362 1314 1291 1247 1247 1291 1599 1635 1501 1415 1415 1471 1388 1362 1338 1314 1314 1338 1362 1388 1388 1565 1672 1839 3199 3066 3066 2830 2725 2628 2374 2102 1839 1711 1752 1711 1672 1711 1752 1752 1795 1795 1887 1887 1936 2102 1936 1795 1795 1752 1711 1635 1599 1599 1565 1599 1672 1672 1599 1635 1711 1752 1795 1887 1795 1795 1795 1989 2044 2044 2044 0 0 0 0 0 0 0
    0 0 0 0 0 0 0 0 0 0 0 0 0 0 0 0 0 0 0 0 0 0 0 0 0 0 0 0 0 0 0 0 0 0 0 0 0 0 0 0 0 0 0 0 0 0 0 0 0 0 0 0 0 0 0 0 0 0 0 0 0 0 0 0 0 0 0 0 0 1989 2102 2044 2044 1989 1887 1839 1887 1936 1936 1887 1887 1936 2044 2299 2164 2102 2374 2230 2537 2943 2943 2943 2830 2943 2830 2374 2102 2044 1839 1443 1206 0 1989 2453 2725 2725 2374 2628 2725 2537 2453 2628 2628 2453 2537 2830 2628 2374 2453 2453 2453 2374 2164 2230 2299 2164 2628 2628 2374 2299 2374 2537 2537 2453 2537 2164 2164 2453 2628 2102 2628 2943 3199 3345 3504 3504 3504 3679 3679 3504 3345 3345 3199 2943 2943 2943 2830 2725 2537 2628 2628 2537 2537 2537 2374 2537 2628 2374 2537 2453 2537 2537 2537 2725 2537 2628 3199 3066 3504 3345 0 0 0 0 2374 1989 0 0 468 454 443 443 443 0 0 0 0 2453 2299 2164 1989 2044 2044 1839 2164 2164 2164 2230 2299 2453 2374 2374 3066 3066 2943 2830 2628 2299 2299 2537 2102 1887 1839 2044 2044 1989 1936 1887 1887 1887 1887 1839 1672 1471 1471 1471 1471 1443 1415 1415 1338 1338 1388 1362 1338 1291 1291 1415 1711 1711 1599 1443 1443 1471 1388 1338 1314 1247 1247 1268 1314 1338 1338 0 0 2164 3199 3066 2943 2830 2725 2628 2230 1989 1839 1752 1752 1711 1672 1752 1752 1752 1795 1795 1839 1839 1839 1936 1795 1795 1752 1711 1672 1599 1599 1635 1599 1635 1672 1672 1635 1672 1752 1795 0 0 0 0 1887 2044 0 0 0 735 0 0 0 0 0 0
    0 0 0 0 0 0 0 0 0 0 0 0 0 0 0 0 0 0 0 0 0 0 0 0 0 0 0 0 0 0 0 0 0 0 0 0 0 0 0 0 0 0 0 0 0 0 0 0 0 0 0 0 0 0 0 0 0 0 0 0 0 0 0 0 0 0 0 0 0 1989 2102 2044 2044 1989 1887 1839 1839 1887 1936 1887 1887 1936 2044 2374 2299 2230 2537 2374 2628 3066 3066 2943 2830 2943 2830 2374 2044 1989 1839 1471 1226 0 0 2453 2725 2628 2453 2725 2725 2537 2537 2725 2628 2537 2537 2830 2537 2230 2374 2374 2374 2299 2164 2164 2230 2102 2725 2725 2537 2374 2453 2628 2628 2537 2537 2164 2164 2453 2537 2164 2628 2943 3199 3345 3504 3504 3504 3679 3504 3679 3345 3199 3199 2943 2943 2943 2830 2725 2537 2628 2628 2537 2537 2537 2453 2628 2725 2453 2537 2537 2628 2628 2628 2725 2537 2628 3345 3199 3679 3679 0 0 0 0 2628 0 0 3679 459 448 443 446 443 0 0 0 0 2453 2164 1989 1936 1989 1936 1839 2164 2164 2164 2230 2299 2453 2374 2374 3066 3066 3066 2830 2453 2299 2164 2537 2044 1839 1795 1936 1936 1936 1839 1839 1839 1795 1839 1752 1501 1362 1362 1388 1415 1388 1362 1388 1314 1362 1388 1415 1338 1291 1291 1388 1635 1635 1533 1388 1388 1415 1362 1291 1247 1226 1168 1226 1247 1291 1291 0 0 1887 2943 2830 2725 2628 2628 2537 2102 1936 1839 1752 1711 1635 1533 1635 1635 1672 1672 1711 1752 1752 1752 1839 1752 1752 1711 1711 1672 1533 1565 1599 1565 1599 1635 1635 1565 1635 1752 1839 1936 0 446 0 0 0 0 0 0 714 707 0 0 0 0 0
    0 0 0 0 0 0 0 0 0 0 0 0 0 0 0 0 0 0 0 0 0 0 0 0 0 0 0 0 0 0 0 0 0 0 0 0 0 0 0 0 0 0 0 0 0 0 0 0 0 0 0 0 0 0 0 0 0 0 0 0 0 0 0 0 0 0 0 0 0 1936 1989 1936 1989 1936 1839 1795 1795 1839 1887 1839 1839 1887 2044 2374 2299 2374 2628 2537 2628 3066 2943 2943 2830 2830 2725 2374 2044 1936 1839 1501 1247 0 0 0 2628 2628 2453 2725 2725 2628 2537 2725 2628 2537 2537 2830 2374 2102 2164 2102 2164 2044 2044 2102 2102 2102 2628 2725 2537 2453 2537 2628 2628 2628 2537 2230 2164 2453 2453 2299 2628 2943 3199 3345 3504 3504 3504 3679 3504 3504 3504 3345 3345 3199 3199 3199 2943 2943 2725 2725 2628 2537 2537 2453 2453 2725 2725 2537 2537 2628 2725 2725 2725 2830 2628 2725 3679 3504 4088 4088 4599 4599 3345 3504 0 0 0 3873 0 0 0 0 0 3199 2725 2537 2374 2299 2102 1936 1887 1936 1936 1839 2102 2102 2102 2230 2299 2453 2299 2299 2943 2943 0 2725 2044 2230 2102 2537 2102 1839 1795 1936 1936 1887 1795 1752 1752 1711 1752 1672 1415 1338 1338 1388 1388 1388 1362 1388 1338 1388 1388 1443 1338 1291 1291 1362 1533 1501 1388 1291 1268 1291 1291 1226 1115 1206 1187 1247 1268 1314 0 0 0 1936 2830 2725 2725 2628 2628 2453 2102 1887 1839 1752 1635 1501 1443 1471 1533 1565 1599 1599 1599 1672 1711 1752 1752 1711 1672 1635 1565 1471 1443 1443 1415 1443 1471 1471 0 1533 1711 0 0 0 471 462 0 0 0 0 0 0 0 0 0 0 0 0
    0 0 0 0 0 0 0 0 0 0 0 0 0 0 0 0 0 0 0 0 0 0 0 0 0 0 0 0 0 0 0 0 0 0 0 0 0 0 0 0 0 0 0 0 0 0 0 0 0 0 0 0 0 0 0 0 0 0 0 0 0 0 0 0 0 0 0 0 0 1887 1887 1839 1887 1887 1795 1752 1752 1795 1887 1887 1887 1887 1936 2164 2102 2164 2453 2230 2374 2628 2628 2628 2628 2628 2628 2374 1989 1887 1839 1471 1247 0 1887 2374 2537 2537 2453 2725 2725 2628 2537 2725 2628 2537 2537 2725 2230 1989 1989 1989 2044 1989 1989 2044 2102 2102 2628 2725 2537 2537 2537 2628 2725 2628 2628 2230 2164 2537 2374 2374 2725 3066 3199 3345 3504 3504 3504 3679 3504 3504 3345 3199 3345 3199 3345 3199 3066 2943 2830 2830 2725 2537 2537 2453 2537 2725 2725 2537 2628 2628 2725 2830 2830 2830 2725 2830 3873 3679 3873 3873 4088 3679 3345 3504 0 0 4088 3679 3504 3504 0 0 3345 3345 2725 2537 2374 2164 1989 0 0 1839 1839 1752 2044 1989 2044 2164 2230 2374 2230 2299 2943 2725 0 2374 0 2102 2044 2537 2044 1839 1752 1887 1887 1839 1711 1672 1635 1599 1599 1565 1362 1338 1338 1388 1388 1388 1388 1415 1362 1443 1471 1565 1388 1362 1388 1471 1599 1533 1415 1314 1268 1291 1247 1168 1066 1206 1226 1268 1291 1338 0 0 0 1936 2628 2628 2628 2537 2537 2453 2102 1887 1839 1752 1635 1443 1443 1471 1471 1501 1565 1565 1565 1565 1635 1672 1672 1672 1565 1471 1388 1338 1338 1338 0 0 0 0 0 0 1565 1533 0 0 487 0 0 0 598 579 566 0 0 0 0 0 0 0
    0 0 0 0 0 0 0 0 0 0 0 0 0 0 0 0 0 0 0 0 0 0 0 0 0 0 0 0 0 0 0 0 0 0 0 0 0 0 0 0 0 0 0 0 0 0 0 0 0 0 0 0 0 0 0 0 0 0 0 0 0 0 0 0 0 0 0 0 0 1795 1795 1795 1839 1839 1752 1752 1752 1795 1887 1887 1887 1887 1936 2044 2102 2102 2299 2102 2102 2299 2299 2374 2537 2374 2374 1989 1795 1635 1599 1388 1206 0 0 2374 2628 2628 2537 2830 2830 2628 2537 2725 2628 2537 2537 2725 2230 1936 0 1936 1989 1936 1989 2044 2044 2044 2628 2725 2628 2628 2628 2725 2725 2725 2725 2374 2230 2628 2374 2537 2830 3066 3199 3345 3504 3345 3345 3504 3345 3345 3199 3066 3199 3199 3199 3066 2943 2830 2725 2725 2725 2628 2537 2453 2628 2725 2830 2628 2725 2725 2830 2943 2943 2943 2830 2943 4088 3873 4329 4329 5256 3679 3066 3199 2537 2725 3066 2943 2830 2830 2830 3066 2943 3066 2725 2537 2453 2230 1989 1752 1795 1839 1795 1711 1989 1989 1989 2102 2164 2299 2164 2299 2830 2628 0 2299 1752 1989 1989 2453 1989 1795 1752 1839 1839 1752 1635 1565 1501 1443 1443 1443 1314 1314 1314 1362 1388 1388 1388 1415 1415 1471 1533 1711 1565 1533 1533 1672 1795 1711 1599 1388 1314 0 0 1226 1115 1226 1268 1291 1291 1415 1443 1635 0 1839 2164 2299 2299 2299 2230 2230 1989 1839 1795 1711 1599 1415 1443 1443 1415 1443 1471 1501 1501 1501 1565 1565 1565 1599 1471 1388 1291 1226 1168 1247 994 931 876 865 865 0 0 0 629 570 0 0 0 0 603 579 561 566 0 0 0 0 0 0
    0 0 0 0 0 0 0 0 0 0 0 0 0 0 0 0 0 0 0 0 0 0 0 0 0 0 0 0 0 0 0 0 0 0 0 0 0 0 0 0 0 0 0 0 0 0 0 0 0 0 0 0 0 0 0 0 0 0 0 0 0 0 0 0 0 0 0 0 0 1795 1795 1795 1795 1839 1752 1711 1711 1752 1839 1887 1887 1887 1839 1936 1989 2044 2164 1989 1989 2102 2102 2299 2628 2164 2102 1795 1599 1443 1443 1362 1226 0 0 2453 2628 2628 2628 2943 2830 2725 2628 2830 2725 2628 2628 2628 2230 1989 0 1887 1936 1936 1989 2044 2044 2102 2628 2725 2628 2725 2725 2725 2830 2830 2725 2453 2230 2725 2537 0 3199 3345 3345 3504 3504 3504 3345 3345 3345 3345 3199 3066 3199 3199 3199 2943 2830 2725 2725 2725 2725 2537 2537 2453 2725 2830 3066 2830 2943 2943 3066 3066 3345 2943 2943 2943 3873 3873 4088 3873 4906 3504 2830 2943 2537 2628 2830 2725 2628 2628 2628 2830 2725 2943 2725 2628 2628 2374 2102 1887 1887 1887 1839 1752 1936 1936 1936 2044 2164 2299 2164 2374 2943 2830 0 2628 0 2102 2044 2537 1989 1795 1711 1752 1752 1672 1565 1471 1415 1388 1362 1388 1291 1314 1314 1362 1388 1388 1388 1443 1443 1533 1565 1752 1672 1635 1599 1672 1752 1672 1565 1443 1443 1501 1533 1388 1268 1291 1388 1415 1388 1501 1501 0 0 1887 2102 2164 2102 2102 2164 2044 1887 1752 1672 1599 1501 1388 1415 1415 1415 1415 1471 1501 1471 1471 1533 1533 1533 1565 1471 1362 1268 1149 1082 1187 981 886 855 845 845 0 0 0 639 588 0 0 541 603 603 574 557 561 598 0 0 0 0 0
    0 0 0 0 0 0 0 0 0 0 0 0 0 0 0 0 0 0 0 0 0 0 0 0 0 0 0 0 0 0 0 0 0 0 0 0 0 0 0 0 0 0 0 0 0 0 0 0 0 0 0 0 0 0 0 0 0 0 0 0 0 0 0 0 0 0 0 0 0 1795 1795 1752 1795 1839 1795 1711 1711 1752 1839 1839 1887 1839 1795 1887 1936 1989 2102 1936 1887 1887 1887 2044 2374 1936 1887 1711 1565 1443 1471 1388 1247 0 0 2374 2537 2628 2628 2830 2830 2628 2537 2725 2628 2628 2628 2628 2299 2164 2102 2044 2044 1989 2102 2102 2102 2164 2725 2830 2725 2725 2725 2725 2830 2943 2830 2537 2374 2830 2943 3199 3199 3345 3504 3679 3679 3504 3345 3504 3345 3345 3199 3066 3199 3199 3066 2943 2830 2725 2725 2725 2725 2537 2537 2453 2830 2943 3066 3066 3066 3199 3345 3345 3679 2943 3066 3199 3873 3679 3679 3345 3873 3199 2830 2830 2537 2628 2725 2725 2725 2628 2628 2725 2725 2943 2830 2725 2830 2374 2164 1989 1936 1887 1839 1752 1887 1887 1887 2044 2164 2230 2230 2453 2943 2943 0 0 0 0 0 2374 1936 1635 1635 1752 1752 1635 1501 1443 1388 1362 1362 1338 1268 1268 1291 1388 1388 1388 1388 1415 1443 1501 1533 1752 1565 1501 1533 1672 1795 1635 1501 1362 1314 1338 1362 1314 1226 1291 1314 0 1338 1443 1443 1565 1711 1752 1936 2044 1989 1989 2044 1887 1752 1635 1533 1471 1415 1338 1362 1388 1388 1388 1415 1471 1443 1443 1501 1471 1471 1501 1415 1338 1247 1115 1051 1115 968 855 836 826 836 826 0 714 651 598 0 541 0 584 588 566 557 557 579 0 0 0 0 0
    0 0 0 0 0 0 0 0 0 0 0 0 0 0 0 0 0 0 0 0 0 0 0 0 0 0 0 0 0 0 0 0 0 0 0 0 0 0 0 0 0 0 0 0 0 0 0 0 0 0 0 0 0 0 0 0 0 0 0 0 0 0 0 0 0 0 0 0 0 1795 1795 1795 1839 1839 1839 1795 1752 1752 1887 1887 1887 1839 1839 1839 1936 1936 2044 1839 1839 0 0 0 0 1839 1795 1711 1565 1415 1471 1362 1291 1443 1415 2453 2725 2628 2725 2943 2830 2725 2537 2725 2628 2628 2725 2628 2374 2164 0 2044 2044 2044 2164 2102 2102 2164 0 2943 2943 2943 2943 2943 3199 3345 2943 2628 2537 2943 3066 3199 3345 3345 3345 3679 3679 3199 3199 3199 3199 3345 3199 2943 3066 3066 3066 2943 2830 2830 2725 2725 2725 2628 2537 2453 2943 3066 3199 3199 3199 3345 3504 3345 3873 3066 3066 3345 3873 3679 3679 3199 3679 3199 2830 2943 2628 2725 2830 2725 2725 2628 2628 2830 2725 2943 2830 2830 2943 2453 2102 2044 1989 1936 1839 1839 1887 1887 1887 2102 2102 2164 2164 2374 2830 2299 0 0 1226 1132 1051 1415 1711 1501 1501 1635 1672 1599 1501 1443 1388 1362 1338 1362 1268 1268 1291 1362 1388 1388 1388 1415 1443 1501 1533 1711 1533 1443 1471 1599 1635 1362 1291 1291 1268 1291 1314 1314 1268 1314 1362 1362 1388 1415 0 0 1839 1795 1936 1936 1887 1887 1887 1565 1388 1314 1338 1338 1338 1268 1314 1338 1338 1362 1388 1415 1415 1415 1471 1443 1415 1443 1388 1314 1206 1066 1022 1051 955 845 836 826 826 817 0 721 657 598 0 0 0 553 570 553 557 553 570 0 0 0 0 0
    0 0 0 0 0 0 0 0 0 0 0 0 0 0 0 0 0 0 0 0 0 0 0 0 0 0 0 0 0 0 0 0 0 0 0 0 0 0 0 0 0 0 0 0 0 0 0 0 0 0 0 0 0 0 0 0 0 0 0 0 0 0 0 0 0 0 0 0 0 1795 1752 1752 1795 1839 1795 1752 1752 1752 1887 1887 1887 1839 1839 1839 1936 1936 1989 1839 1795 1795 1839 1887 1887 1795 1752 1711 1565 1533 1565 1415 1388 1533 1501 1711 1989 2453 2725 2943 2830 2725 2628 2725 2628 2628 2943 3199 2830 0 0 0 0 2102 2374 2230 2230 2374 2725 2830 2943 3066 3066 2943 3504 3679 3199 2725 2628 2725 2943 3066 3199 3199 3345 3504 3504 3199 3066 3199 3199 3345 3199 2943 3199 3066 3066 2943 2830 2830 2725 2725 2830 2628 2537 2453 2943 3199 3199 3199 3345 3345 3504 3504 3873 3066 3066 3504 3679 3679 3679 3199 4088 3199 2830 2943 2628 2725 2830 2725 2725 2628 2628 2725 2725 2943 2943 2943 3066 2628 2164 2044 1887 1839 1752 1752 1795 1795 1752 1839 1839 1936 1936 2044 0 1711 1082 1247 1226 1149 1066 1314 1533 1415 1415 1533 1599 1501 1443 1443 1388 1338 1362 1415 1314 1314 1314 1415 1415 1415 1415 1443 1443 1501 1533 1711 1471 1388 1415 1533 1415 1268 1226 1206 1247 1268 1291 1314 1291 1314 1338 1362 1388 1314 1362 0 1635 0 0 0 0 0 0 0 0 0 0 1338 1338 1291 1314 1314 1314 1338 1362 1388 1388 1362 1415 1388 1388 1415 1362 1291 1168 1036 1008 1036 943 855 836 836 826 817 808 714 657 603 561 541 541 557 570 561 561 557 570 0 0 0 0 0
    0 0 0 0 0 0 0 0 0 0 0 0 0 0 0 0 0 0 0 0 0 0 0 0 0 0 0 0 0 0 0 0 0 0 0 0 0 0 0 0 0 0 0 0 0 0 0 0 0 0 0 0 0 0 0 0 0 0 0 0 0 0 0 0 0 0 0 0 0 1752 1752 1752 1752 1795 1752 1711 1711 1752 1839 1887 1839 1839 1795 1839 1887 1887 1936 1795 1795 1752 1795 1839 1839 1752 1711 1672 1635 1565 1599 1443 1415 1533 1533 1565 1672 2628 2725 2943 2830 2725 2725 2830 2725 2725 2628 2943 1839 0 0 0 0 0 0 0 2299 2537 2628 2725 2830 2830 2830 2725 0 0 2943 2537 2230 2299 2628 2830 3066 3199 3199 3504 3679 3199 3066 3345 3199 3345 3199 2830 3066 3066 3066 2830 2725 2725 2628 2628 2725 2537 2453 2374 2830 3066 3199 3345 3345 3345 3504 3504 4088 3199 3199 3679 3679 3679 3679 3199 3873 3199 2725 2830 2537 2628 2725 2628 2628 2537 2628 2725 2628 2943 2943 2943 3199 2725 2299 2102 1887 1839 1752 1711 1711 1711 1672 1711 1635 1711 1672 1752 1795 1415 1187 1247 1226 1132 1132 1268 1338 1362 1388 1471 1565 1501 1471 1533 1565 1501 1415 1471 1415 1388 1362 1501 1501 1471 1443 1471 1471 1533 1501 1711 1443 1338 1362 1443 1362 1247 1149 1149 1226 1247 1268 1291 1268 1291 1314 1338 1314 1268 0 0 0 0 0 613 549 529 500 0 0 0 0 0 0 1206 1268 1291 1291 1338 1338 1362 1362 1338 1388 1338 1338 1338 1314 1268 1115 1022 994 1008 919 845 836 826 826 808 808 721 675 608 593 561 561 561 574 561 561 557 561 0 0 0 0 0
    0 0 0 0 0 0 0 0 0 0 0 0 0 0 0 0 0 0 0 0 0 0 0 0 0 0 0 0 0 0 0 0 0 0 0 0 0 0 0 0 0 0 0 0 0 0 0 0 0 0 0 0 0 0 0 0 0 0 0 0 0 0 0 0 0 0 0 0 0 1752 1711 1711 1711 1711 1711 1711 1672 1711 1795 1839 1795 1752 1752 1795 1839 1839 1887 1752 1711 1711 1795 1795 1795 1752 1752 1711 1635 1599 1635 1471 1443 1565 1565 1501 1599 1887 2164 2725 2628 2453 2374 2453 2453 2374 2164 0 1752 1291 1036 1022 1008 1008 994 943 908 0 2164 2230 2299 2374 2374 2230 2453 0 0 0 2102 0 0 0 0 0 0 0 3504 2943 2830 3066 3066 3066 3066 2725 3066 3066 3066 2725 2725 2725 2628 2628 2725 2537 2453 2374 2943 2943 3199 3345 3345 3345 3504 3504 4088 3345 3199 3679 3504 3504 3504 3066 3873 3066 2628 2830 2453 2537 2628 2537 2628 2537 2537 2628 2628 2830 2943 2943 3199 2628 2230 2044 1887 1795 1711 1672 1672 1635 1599 1599 1501 1501 1533 1501 1533 1338 1314 1187 1168 1132 1132 1247 1314 1314 1338 1501 1635 1599 1635 1635 1672 1599 1501 1599 1501 1501 1415 1533 1533 1501 1501 1533 1501 1533 1533 1711 1443 1362 1362 1471 1338 1226 1149 1149 1206 1247 1268 1268 1247 1268 1291 1314 1291 1247 1206 0 0 0 0 0 0 533 511 0 0 0 0 0 0 1149 1247 1314 1314 1338 1338 1338 1338 1314 1338 1291 1291 1268 1226 1115 1036 981 981 981 908 845 836 836 836 817 808 721 675 608 598 574 561 553 557 561 561 553 566 0 0 0 0 0
    0 0 0 0 0 0 0 0 0 0 0 0 0 0 0 0 0 0 0 0 0 0 0 0 0 0 0 0 0 0 0 0 0 0 0 0 0 0 0 0 0 0 0 0 0 0 0 0 0 0 0 0 0 0 0 0 0 0 0 0 0 0 0 0 0 0 0 0 0 1711 1711 1711 1672 1672 1711 1711 1672 1711 1795 1795 1795 1752 1752 1752 1795 1795 1795 1711 1672 1672 1711 1752 1752 1752 1711 1672 1635 1599 1635 1443 1415 1533 1565 1501 1599 1795 1936 2299 2299 2044 1989 2044 2102 2044 1936 0 0 0 0 0 0 0 0 0 0 0 0 0 0 0 0 0 0 0 0 0 0 0 0 0 0 0 0 0 0 0 0 0 2725 2830 2453 2374 2628 2725 2725 2453 2628 2537 2537 2628 2725 2628 2537 2453 3066 3066 3345 3679 3679 3679 3679 3679 4599 3504 3345 4329 3199 3345 3199 2943 3679 3066 2537 2830 2537 2628 2628 2537 2628 2537 2537 2628 2628 2830 2943 2943 3199 2537 2164 2044 1839 1711 1672 1599 1635 1565 1565 1565 1501 1471 1533 1471 1533 1362 1314 1226 1206 1168 1149 1226 1314 1314 1338 1471 1565 1635 1635 1635 1635 1565 1501 1599 1565 1501 1415 1533 1533 1533 1501 1565 1533 1501 1533 1672 1415 1338 1314 1362 1291 1149 1082 1082 1168 1226 1226 1247 1226 1247 1268 1291 1268 1206 1098 0 0 0 0 566 533 521 497 0 0 0 0 0 0 0 0 0 1291 1338 1338 1338 1314 1268 0 1168 1098 1115 1082 1036 1008 908 919 955 886 836 826 817 817 799 799 721 663 603 584 566 553 549 566 579 574 588 0 0 0 0 0 0
    0 0 0 0 0 0 0 0 0 0 0 0 0 0 0 0 0 0 0 0 0 0 0 0 0 0 0 0 0 0 0 0 0 0 0 0 0 0 0 0 0 0 0 0 0 0 0 0 0 0 0 0 0 0 0 0 0 0 0 0 0 0 0 0 0 0 0 0 0 1711 1672 1672 1599 1599 1635 1635 1599 1635 1672 1752 1711 1711 1711 1711 1752 1752 1752 1672 1635 1635 1711 1711 1711 1711 1635 1635 1635 1599 1635 1501 1501 1565 1599 1635 1711 1795 1887 2102 2102 1989 1936 1936 2102 1989 1989 0 0 0 0 0 0 0 0 0 0 0 0 0 0 0 0 0 0 0 0 0 0 0 0 0 0 0 0 0 0 0 0 0 0 0 0 2102 2299 2453 2453 2164 2374 2230 2374 2453 2628 2537 2537 2537 3345 3504 3679 4088 4329 4088 4088 3873 5256 3873 3679 0 0 0 0 148 0 3066 2453 2725 2453 2537 2628 2537 2537 2537 2537 2628 2537 2830 2830 2943 3066 2453 2044 1989 1839 1672 1672 1599 1635 1565 1565 1565 1471 1471 1533 1471 1471 1338 1314 1226 1187 1168 1206 1247 1314 1314 1362 1443 1501 1599 1635 1599 1635 1565 1533 1565 1565 1565 1415 1501 1501 1533 1443 1471 1443 1443 1443 1599 1338 1268 1247 1314 1268 1132 1066 0 0 1206 1206 1226 1226 1226 1247 1268 1226 1132 0 0 0 0 0 537 518 490 487 465 474 0 0 0 663 0 0 0 0 1247 1247 1206 1187 1098 0 0 0 0 0 0 0 0 845 836 836 808 774 782 758 750 782 707 669 0 0 0 0 0 0 0 598 0 0 0 0 0 0 0
    0 0 0 0 0 0 0 0 0 0 0 0 0 0 0 0 0 0 0 0 0 0 0 0 0 0 0 0 0 0 0 0 0 0 0 0 0 0 0 0 0 0 0 0 0 0 0 0 0 0 0 0 0 0 0 0 0 0 0 0 0 0 0 0 0 0 0 0 0 1672 1635 1635 1565 1533 1501 1533 1471 1471 1533 1565 1565 1599 1635 1635 1635 1672 1711 1635 1599 1599 1672 1711 1711 1752 1672 1711 1711 1672 1711 1599 1565 1599 1599 1635 1635 1752 1839 1887 1989 1887 1887 1936 2044 1989 1989 0 0 0 0 0 0 0 0 0 0 0 0 0 0 0 0 0 0 0 0 0 0 0 0 0 0 0 0 0 0 0 0 0 0 0 0 0 0 0 0 0 0 2230 2453 2453 2537 2537 2725 2725 3679 4599 4088 4599 4599 4329 4329 4088 5661 0 0 0 0 0 0 0 0 3066 2537 2830 2537 2628 2725 2628 2725 2628 2628 2725 2628 2830 2943 2943 3066 2374 1989 1989 1839 1672 1711 1599 1635 1565 1599 1599 1501 1501 1533 1471 1471 1362 1338 1247 1226 1226 1268 1314 1362 1388 1415 1471 1501 1599 1635 1599 1599 1533 1501 1533 1533 1533 1415 1443 1443 1471 1415 1388 1362 1362 1362 1443 1291 1149 0 1149 1149 1066 0 0 0 1132 1149 1206 1206 1206 1206 1206 1206 1115 0 0 0 0 0 541 521 493 490 0 481 0 0 0 669 694 700 700 700 0 0 743 0 0 669 639 675 663 639 639 629 623 675 687 675 657 645 0 0 0 721 681 681 0 0 0 0 0 0 0 613 0 0 0 0 0 0 0
    0 0 0 0 0 0 0 0 0 0 0 0 0 0 0 0 0 0 0 0 0 0 0 0 0 0 0 0 0 0 0 0 0 0 0 0 0 0 0 0 0 0 0 0 0 0 0 0 0 0 0 0 0 0 0 0 0 0 0 0 0 0 0 0 0 0 0 0 0 1599 1599 1565 1501 1471 1415 1443 1443 1443 1443 1471 1471 1501 1599 1635 1565 1565 1599 1533 1533 1533 1599 1599 1599 1672 1635 1672 1672 1635 1711 1599 1599 1599 1565 1565 1501 1635 1752 1795 1887 1839 1839 1887 2044 1989 1989 0 0 0 0 0 0 0 0 0 0 0 0 0 0 0 0 0 0 0 0 0 0 0 0 0 0 0 0 0 0 0 0 0 0 0 0 0 0 0 0 0 0 0 0 0 0 0 0 0 0 0 0 0 0 0 0 0 0 0 0 0 0 0 0 0 0 0 0 0 2725 2830 2943 2830 2943 2830 2725 2725 2725 0 3199 3199 3199 2453 1887 1936 1795 1635 1711 1599 1635 1565 1635 1635 1533 1533 1565 1471 1471 1388 1362 1291 1247 1247 1314 1338 1388 1415 1415 1471 1501 1565 1635 1599 1565 1471 1471 1501 1471 1443 1388 1388 1388 1415 1362 1362 1314 1314 1338 1362 1268 1066 0 0 0 0 0 0 0 0 1098 1168 1168 1168 1168 1149 1149 1098 0 0 0 0 0 545 514 0 484 462 474 471 0 0 681 707 714 714 714 0 845 782 721 728 675 663 663 651 639 639 634 634 645 634 618 613 613 0 0 0 0 0 0 0 0 0 0 0 0 0 0 0 0 0 0 0 0 0
    0 0 0 0 0 0 0 0 0 0 0 0 0 0 0 0 0 0 0 0 0 0 0 0 0 0 0 0 0 0 0 0 0 0 0 0 0 0 0 0 0 0 0 0 0 0 0 0 0 0 0 0 0 0 0 0 0 0 0 0 0 0 0 0 0 0 0 0 0 1565 1599 1565 1501 1443 1415 1415 1388 1415 1415 1415 1415 1443 1501 1533 1443 1443 1471 1415 1443 1443 1501 1471 1501 1599 1599 1635 1635 1565 1635 1533 1565 1565 1565 1533 1471 1565 1711 1752 1839 1795 1795 1795 1936 1936 1936 0 0 0 0 0 0 0 0 0 0 0 0 0 0 0 0 0 0 0 0 0 0 0 0 0 0 0 0 0 0 0 0 0 0 0 0 0 0 0 0 0 0 0 0 0 0 0 0 0 0 0 0 0 0 0 0 0 0 0 0 0 0 0 0 0 0 0 0 0 0 0 0 0 0 0 0 0 0 0 0 0 0 2537 1795 1887 1752 1565 1672 1565 1635 1565 1599 1635 1533 1533 1565 1471 1471 1388 1388 1291 1268 1268 1314 1338 1388 1415 1415 1443 1471 1533 1599 1565 1599 1471 1471 1471 1443 1415 1388 1362 1362 1362 1338 1291 1168 1066 0 0 0 0 728 735 782 750 728 721 0 0 1098 1168 1168 1168 1168 1132 1115 1051 0 0 0 0 0 533 497 477 0 446 468 465 0 0 681 700 714 721 714 0 865 0 791 750 694 694 681 669 657 663 663 663 663 639 618 613 613 598 579 579 574 588 0 0 0 0 0 0 0 0 0 0 0 0 0 0 0 0
    0 0 0 0 0 0 0 0 0 0 0 0 0 0 0 0 0 0 0 0 0 0 0 0 0 0 0 0 0 0 0 0 0 0 0 0 0 0 0 0 0 0 0 0 0 0 0 0 0 0 0 0 0 0 0 0 0 0 0 0 0 0 0 0 0 0 0 0 0 1471 1501 1471 1415 1388 1338 1338 1291 1362 1338 1362 1338 1362 1388 1415 1362 1362 1362 1362 1362 1388 1388 1415 1415 1471 1501 1565 1565 1533 1599 1565 1533 1533 1533 1533 1443 1533 1672 1711 1795 1795 1795 1839 2044 1989 1989 0 0 0 0 0 0 0 0 0 0 0 0 0 0 0 0 0 0 0 0 0 0 0 0 0 0 0 0 0 0 0 0 0 0 0 0 0 0 0 0 0 0 0 0 0 0 0 0 0 0 0 0 0 0 0 0 0 0 0 0 0 0 0 0 0 0 0 0 0 0 0 0 0 0 0 0 0 0 0 0 0 0 0 1533 1672 1533 1443 1599 1471 1599 1533 1565 1599 1533 1533 1565 1471 1443 1388 1362 1291 1268 1268 1314 1338 1362 1443 1415 1471 1471 1471 1565 1533 1533 1443 1443 1443 1415 1415 1388 1362 1362 1362 1338 1226 0 931 836 0 714 694 681 0 743 728 721 714 735 0 0 0 0 0 0 0 0 0 0 0 0 471 0 497 481 468 481 457 465 465 0 651 669 681 694 707 707 743 808 808 782 735 700 700 687 669 669 675 675 675 681 657 618 608 608 588 570 570 574 588 0 0 0 0 0 0 0 0 0 0 0 0 0 0 0 0
    0 0 0 0 0 0 0 0 0 0 0 0 0 0 0 0 0 0 0 0 0 0 0 0 0 0 0 0 0 0 0 0 0 0 0 0 0 0 0 0 0 0 0 0 0 0 0 0 0 0 0 0 0 0 0 0 0 0 0 0 0 0 0 0 0 0 0 0 0 1388 1415 1388 1362 1314 1291 1291 1268 1314 1314 1314 1291 1314 1338 1338 1338 1314 1314 1314 1338 1362 1362 1362 1388 1443 1471 1533 1565 1501 1599 1565 1565 1533 1565 1533 1443 1501 1752 1711 1752 1752 1752 1795 1989 1936 0 0 0 0 0 0 0 0 0 0 0 0 0 0 0 0 0 0 0 0 0 0 0 0 0 0 0 0 0 0 0 0 0 0 0 0 0 0 0 0 0 0 0 0 0 0 0 0 0 0 0 0 0 0 0 0 0 0 0 0 0 0 0 0 0 0 0 0 0 0 0 0 0 0 0 0 0 0 0 0 0 0 0 0 1443 1599 1565 1415 1565 1471 1565 1501 1565 1599 1533 1501 1565 1443 1443 1388 1362 1291 1268 1268 1314 1338 1388 1415 1415 1443 1471 1471 1533 1501 1471 1415 1415 1415 1388 1362 1362 1314 1314 1314 1291 1051 876 836 817 774 714 694 669 0 728 728 714 0 735 766 0 0 0 0 0 0 0 0 0 459 471 457 446 484 474 468 487 484 481 477 681 687 700 700 707 714 728 799 826 826 817 774 728 721 694 675 657 669 675 675 681 651 618 593 588 570 549 549 557 561 570 0 0 0 0 0 0 0 0 0 435 0 0 0 0 0
    0 0 0 0 0 0 0 0 0 0 0 0 0 0 0 0 0 0 0 0 0 0 0 0 0 0 0 0 0 0 0 0 0 0 0 0 0 0 0 0 0 0 0 0 0 0 0 0 0 0 0 0 0 0 0 0 0 0 0 0 0 0 0 0 0 0 0 0 0 1338 1362 1338 1314 1268 1268 1247 1226 1291 1291 1291 1291 1291 1314 1314 1314 1314 1291 1314 1338 1338 1338 1338 1362 1388 1415 1471 1501 1471 1599 1599 1635 1565 1599 1635 1501 1565 1752 1672 1711 1711 1711 1752 1795 1839 0 0 0 0 0 0 0 0 0 0 0 0 0 0 0 0 0 0 0 0 0 0 0 0 0 0 0 0 0 0 0 0 0 0 0 0 0 0 0 0 0 0 0 0 0 0 0 0 0 0 0 0 0 0 0 0 0 0 0 0 0 0 0 0 0 0 0 0 0 0 0 0 0 0 0 0 0 0 0 0 0 0 0 0 1443 1565 1599 1471 1599 1533 1635 1533 1599 1635 1533 1533 1565 1443 1415 1388 1362 1291 1268 1291 1314 1338 1388 1388 1388 1415 1443 1443 1501 1471 1443 1362 1415 1388 1362 1338 1338 1291 1268 1291 0 1008 836 817 817 774 714 694 669 0 735 735 728 0 735 743 774 0 0 0 0 0 0 0 0 0 459 454 440 468 459 446 0 438 454 446 700 707 721 728 728 743 766 826 855 845 836 817 808 817 782 714 687 675 675 681 675 639 613 579 561 549 537 533 537 541 0 0 0 0 0 0 0 0 0 432 438 0 0 0 0 0
    0 0 0 0 0 0 0 0 0 0 0 0 0 0 0 0 0 0 0 0 0 0 0 0 0 0 0 0 0 0 0 0 0 0 0 0 0 0 0 0 0 0 0 0 0 0 0 0 0 0 0 0 0 0 0 0 0 0 0 0 0 0 0 0 0 0 0 0 0 1291 1314 1291 1268 1247 1206 1206 1187 1268 1268 1268 1247 1268 1291 1314 1291 1268 1247 1291 1291 1314 1314 1314 1338 1362 1362 1415 1415 1415 1533 1565 1599 1533 1565 1672 1533 1599 1752 1635 1672 1672 1672 1711 0 0 0 0 0 0 0 0 0 0 0 0 0 0 0 0 0 0 0 0 0 0 0 0 0 0 0 0 0 0 0 0 0 0 0 0 0 0 0 0 0 0 0 0 0 0 0 0 0 0 0 0 0 0 0 0 0 0 0 0 0 0 0 0 0 0 0 0 0 0 0 0 0 0 0 0 0 0 0 0 0 0 0 0 0 0 1501 1565 1635 1501 1635 1565 1635 1565 1599 1672 1565 1533 1565 1443 1415 1388 1362 1314 1291 1314 1338 1362 1388 1388 1415 1415 1415 1415 1471 1443 1415 0 0 1362 1338 1338 1338 1268 1226 1226 0 981 826 799 799 758 714 694 657 0 728 728 728 728 728 743 758 758 0 0 0 0 0 0 0 0 0 0 0 0 0 0 430 438 454 446 681 700 721 735 735 766 782 826 876 908 855 845 836 855 845 808 728 700 700 681 675 634 613 584 561 553 541 533 537 537 533 537 0 0 0 0 0 0 446 438 438 0 0 0 0 0
    0 0 0 0 0 0 0 0 0 0 0 0 0 0 0 0 0 0 0 0 0 0 0 0 0 0 0 0 0 0 0 0 0 0 0 0 0 0 0 0 0 0 0 0 0 0 0 0 0 0 0 0 0 0 0 0 0 0 0 0 0 0 0 0 0 0 0 0 0 1247 1268 1226 1206 1187 1168 1168 1149 1247 1226 1226 1206 1247 1247 1247 1268 1226 1206 1247 1268 1314 1291 1314 1338 1338 1388 1443 1443 1415 1533 1565 1635 1565 1565 1672 1501 1599 1752 1599 1599 1471 1471 0 0 0 0 0 0 0 0 0 0 0 0 0 0 0 0 0 0 0 0 0 0 0 0 0 0 0 0 0 0 0 0 0 0 0 0 0 0 0 0 0 0 0 0 0 0 0 0 0 0 0 0 0 0 0 0 0 0 0 0 0 0 0 0 0 0 0 0 0 0 0 0 0 0 0 0 0 0 0 0 0 0 0 0 0 0 1672 1599 1635 1672 1635 1711 1672 1711 1672 1672 1711 1599 1565 1565 1415 1388 1388 1388 1338 1314 1338 1362 1388 1415 1415 1415 1443 1415 1415 0 0 0 293 0 1338 1314 1314 1338 1226 1132 1115 1115 955 817 774 799 750 707 687 645 0 735 766 774 782 782 799 0 0 0 0 0 826 799 364 360 362 359 352 355 0 0 0 0 0 0 0 0 0 774 774 766 791 799 826 876 908 865 865 876 919 908 897 808 721 707 700 687 629 618 588 561 545 533 525 533 529 525 525 511 0 0 0 425 0 446 443 440 0 0 0 0 0
    0 0 0 0 0 0 0 0 0 0 0 0 0 0 0 0 0 0 0 0 0 0 0 0 0 0 0 0 0 0 0 0 0 0 0 0 0 0 0 0 0 0 0 0 0 0 0 0 0 0 0 0 0 0 0 0 0 0 0 0 0 0 0 0 0 0 0 0 0 1226 1247 1206 1168 1168 1168 1168 1168 1247 1247 0 0 1247 1247 1247 1247 1226 1206 1247 1268 1291 1268 1268 1338 1338 1388 1443 1388 1362 1388 1471 1533 1415 1415 1388 1314 1338 1443 1388 1291 1247 0 0 0 0 0 0 0 0 0 0 0 0 0 0 0 0 0 0 0 0 0 0 0 0 0 0 0 0 0 0 0 0 0 0 0 0 0 0 0 0 0 0 0 0 0 0 0 0 0 0 0 0 0 0 0 0 0 0 0 0 0 0 0 0 0 0 0 0 0 0 0 0 0 0 0 0 0 0 0 0 0 0 0 0 0 0 0 1672 1672 1635 1711 1752 1839 1795 1887 1795 1839 1839 1711 1711 1635 1443 1388 1415 1415 1388 1362 1388 1415 1415 1471 1471 1471 1471 0 0 0 0 0 0 0 1314 1291 1268 1314 1187 1051 1036 1066 943 826 817 826 774 714 694 657 714 758 0 0 0 774 808 0 0 333 324 321 321 321 347 350 353 355 0 0 0 0 0 0 0 0 0 0 0 0 836 808 817 817 836 865 865 836 836 826 845 855 836 774 721 714 707 687 618 613 566 545 529 518 504 507 507 497 493 490 0 0 0 422 0 443 440 440 0 0 0 0 0</data></depth>
</opencv_storage>
