<?xml version="1.0"?>
<opencv_storage>
<gps_time_stamp>287772</gps_time_stamp>
<gps_x>-1.2392457008361816e+001</gps_x>
<gps_y>1.1125240325927734e+001</gps_y>
<gps_z>-2.2161226272583008e+000</gps_z>
<image_time_stamp>278657</image_time_stamp>
<depth type_id="opencv-matrix">
  <rows>79</rows>
  <cols>320</cols>
  <dt>s</dt>
  <data>
    0 0 0 0 0 0 0 0 0 0 0 0 0 0 0 0 0 0 0 0 0 0 0 0 0 0 0 0 0 0 0 0 0 0 0 0 0 0 0 0 0 0 0 0 0 0 0 0 0 0 0 0 0 0 0 0 0 0 0 0 0 0 0 0 0 0 0 0 0 1533 1533 1711 1565 1533 1672 1711 1752 1752 0 0 0 0 1989 1795 1711 1565 0 0 0 0 0 1599 1565 1533 1533 1471 0 1501 1443 1443 0 0 0 0 0 0 0 0 0 0 0 0 0 0 1362 1565 1443 77 0 0 0 0 1388 79 0 0 1672 1711 0 4599 4599 5661 6133 6133 6690 6133 0 0 0 0 0 0 0 1672 0 0 0 0 4906 5256 6133 5661 5661 3873 4329 3679 3679 3679 3679 0 0 0 0 0 0 0 0 0 0 3679 3504 3345 3199 3199 2943 3504 3066 2044 0 1887 1839 1501 1314 1415 1415 1362 1388 1388 1338 1338 1362 1565 1338 1362 0 0 1051 0 1036 1066 1098 1187 1247 1268 0 0 0 0 0 0 0 0 0 0 0 0 0 0 0 1098 1066 1098 1066 1082 1115 1082 1247 1291 1291 1247 1291 1206 1268 1268 1268 1291 1291 1291 1314 1314 1533 1443 1471 1752 1415 1599 0 0 0 0 0 0 0 0 0 1415 0 0 0 0 0 0 0 0 0 0 0 0 0 0 981 0 0 0 0 0 0 0 0 0 0 0 504 504 511 518 521 518 518 500 525 518 514 521 514 518 518 514 518 507 511 514 0 0 0 0 0 541 529 574 553 533 514 521 525 0 0 0 0 0
    0 0 0 0 0 0 0 0 0 0 0 0 0 0 0 0 0 0 0 0 0 0 0 0 0 0 0 0 0 0 0 0 0 0 0 0 0 0 0 0 0 0 0 0 0 0 0 0 0 0 0 0 0 0 0 0 0 0 0 0 0 0 0 0 0 0 0 0 0 1533 1533 1711 1533 1533 1672 1672 1711 1711 0 0 0 0 2044 1839 0 0 0 0 0 0 0 1565 1533 1443 1501 1415 0 1443 1443 1415 0 0 0 0 0 0 0 0 0 0 0 0 0 0 1388 1565 1443 77 0 0 0 0 0 79 79 0 0 0 0 4599 4599 5256 6133 6133 6133 5661 0 0 0 0 0 0 1635 1635 1635 0 1711 0 0 4906 6133 5661 5256 3679 3873 3679 3504 3504 3345 198 0 0 0 0 0 0 0 0 0 0 3679 3345 3199 3199 2830 3504 2943 1936 1711 1795 1752 1501 1314 1415 1415 1388 1415 1415 1362 1362 1362 1635 1362 1362 0 0 1066 0 1036 1066 1082 1168 1226 1247 0 0 0 0 0 0 0 0 0 0 0 0 0 0 0 0 0 1082 0 0 1051 1051 1226 1291 1291 1149 1268 1206 1268 1268 1268 1291 1291 1291 1338 1362 1565 1471 1471 1752 1415 1415 0 0 0 0 0 0 0 0 0 0 0 0 0 0 0 0 0 0 0 0 0 0 0 0 0 0 0 0 0 0 0 0 0 0 0 0 514 514 521 525 525 521 518 500 525 518 514 521 518 521 518 518 521 511 518 0 0 0 0 0 545 541 521 0 545 529 514 521 525 0 0 0 0 0
    0 0 0 0 0 0 0 0 0 0 0 0 0 0 0 0 0 0 0 0 0 0 0 0 0 0 0 0 0 0 0 0 0 0 0 0 0 0 0 0 0 0 0 0 0 0 0 0 0 0 0 0 0 0 0 0 0 0 0 0 0 0 0 0 0 0 0 0 0 1533 1533 1711 1565 1533 1711 1672 1635 1635 0 0 0 0 0 0 0 0 0 0 0 0 0 0 0 0 0 0 0 1443 1443 1443 0 0 0 0 0 0 0 0 0 0 0 0 0 0 1388 1599 1471 77 1388 1388 1388 1388 1415 79 79 0 0 0 0 4088 4088 4906 5661 5661 5661 4906 0 0 0 0 1599 1533 1635 1599 1599 1672 1672 1635 0 4906 7359 6690 4906 3199 3679 3345 3345 3345 0 198 0 0 0 0 0 0 0 0 0 0 4088 3504 3199 0 2628 3199 2453 1839 1565 1711 1711 1533 1338 1471 1471 1415 1443 1443 1388 1388 1388 1672 1362 1362 0 0 1066 1066 1022 1051 1066 1149 1206 1206 0 0 0 0 0 0 0 0 0 0 0 0 0 0 0 0 0 0 0 0 0 1036 1268 1338 1314 1098 1247 1187 1268 1268 1268 1314 1314 1314 1362 1388 1599 1471 1471 1752 1388 1388 0 0 0 0 0 0 0 0 0 0 0 0 0 0 0 0 0 0 0 0 0 0 0 0 0 0 0 0 0 0 0 0 0 0 537 529 529 525 529 533 533 525 521 504 525 518 514 521 518 521 521 518 525 518 521 529 0 0 0 0 533 525 514 511 529 525 514 525 529 0 0 0 0 0
    0 0 0 0 0 0 0 0 0 0 0 0 0 0 0 0 0 0 0 0 0 0 0 0 0 0 0 0 0 0 0 0 0 0 0 0 0 0 0 0 0 0 0 0 0 0 0 0 0 0 0 0 0 0 0 0 0 0 0 0 0 0 0 0 0 0 0 0 0 1533 1533 1711 1565 1565 1711 1672 1599 1599 1635 1672 0 1752 1887 1752 0 0 0 0 0 0 0 0 0 0 0 0 0 1443 0 1443 0 0 0 0 0 0 0 0 0 0 0 0 0 0 1388 1599 1471 0 1415 1415 1415 1415 1443 79 79 0 0 0 0 3873 3873 4599 5256 5256 5256 4329 0 0 1839 1415 1599 1533 1599 1599 1599 1635 1672 1599 1839 0 0 0 4088 2830 3066 3199 3066 3066 0 0 0 0 0 0 0 0 0 0 0 0 0 3873 0 0 2102 0 1795 1752 1415 1672 1635 1533 1362 1471 1471 1443 1471 1501 1415 1415 1415 1672 1338 1338 0 1226 1066 1051 1022 1066 1066 1115 1132 1149 0 0 0 0 0 0 0 0 0 0 0 0 0 0 0 0 2230 2044 0 0 0 1051 1362 1388 1314 1082 1226 1206 1268 1291 1291 1314 1314 1314 1388 1415 1599 1471 1471 1752 1388 1362 0 0 0 0 0 0 1206 1291 0 0 0 0 0 0 0 0 0 0 0 0 0 0 0 0 0 257 0 253 252 0 0 0 0 537 541 533 537 533 533 533 533 525 525 504 525 518 514 521 521 521 521 521 525 518 525 0 0 0 0 507 525 518 511 511 537 533 525 533 537 0 0 0 0 0
    0 0 0 0 0 0 0 0 0 0 0 0 0 0 0 0 0 0 0 0 0 0 0 0 0 0 0 0 0 0 0 0 0 0 0 0 0 0 0 0 0 0 0 0 0 0 0 0 0 0 0 0 0 0 0 0 0 0 0 0 0 0 0 0 0 0 0 0 0 1533 1533 1711 1565 1533 1672 1635 1533 1533 1599 1635 1672 1635 1752 1635 0 0 0 0 0 0 0 0 0 0 0 0 0 0 0 0 0 0 0 1388 0 1443 0 0 0 0 0 0 0 0 1388 1599 1501 0 1443 1443 1443 1443 1471 79 79 0 0 0 2044 3504 3504 3873 4329 4088 4088 3679 0 2453 1795 1415 1599 1533 1599 1565 1565 1599 1635 1565 1795 1711 0 0 3066 2537 2230 2453 2453 2044 1795 1471 1501 1533 1443 1471 1471 0 0 0 0 0 0 0 0 193 0 0 0 1501 1362 1599 1565 1533 1362 1501 1501 1471 1501 1533 1443 1443 1443 1711 1362 1362 0 0 1098 1066 1036 1082 1066 1098 1098 1051 994 0 968 0 919 0 0 0 0 0 0 0 0 0 0 0 2230 2044 2299 0 0 0 1471 1471 1338 1098 1226 1206 1291 1291 1291 1314 1314 1338 1415 1443 1635 1471 1471 1752 1388 1388 0 0 0 0 1115 1168 1187 1268 0 0 0 0 0 0 0 0 0 0 0 0 0 257 0 256 255 256 252 252 252 0 0 0 0 553 553 549 549 541 537 537 533 529 525 507 525 521 514 521 521 521 521 521 525 518 521 0 0 0 0 497 518 511 514 511 0 541 537 537 545 0 0 0 0 0
    0 0 0 0 0 0 0 0 0 0 0 0 0 0 0 0 0 0 0 0 0 0 0 0 0 0 0 0 0 0 0 0 0 0 0 0 0 0 0 0 0 0 0 0 0 0 0 0 0 0 0 0 0 0 0 0 0 0 0 0 0 0 0 0 0 0 0 0 0 1533 1533 1711 1533 1501 1599 1565 1415 1388 1388 1415 1362 1415 1501 1443 1443 0 0 0 0 0 0 0 0 0 0 0 0 1672 1752 1599 1501 1471 1501 1443 1533 1471 1388 0 0 0 0 0 0 0 1388 1599 1501 0 1471 1471 1443 1471 1501 79 79 0 1795 0 1936 3199 3199 3345 3679 3504 3345 3066 1887 1752 1752 1415 1599 1533 1565 1565 1565 1599 1599 1533 1752 1635 0 0 2299 2102 1887 1887 1936 1752 1711 1415 1471 1501 1443 1471 1443 0 0 0 0 0 193 0 0 0 0 0 0 0 0 1533 1501 1501 1362 1501 1501 1471 1501 1533 1471 1471 1471 1711 1388 1388 1533 0 0 0 0 0 1066 1115 1066 1008 0 0 0 0 908 0 0 1338 0 1471 1471 0 0 0 0 0 2044 0 0 1989 0 1362 1501 1533 1362 1115 1247 1226 1314 1314 1314 1338 1338 1338 1443 1471 1635 1471 1471 1711 1362 1362 0 1226 0 0 1149 1206 1206 1268 0 0 0 0 0 0 0 0 0 0 0 0 0 0 0 253 252 255 252 252 252 0 0 0 584 566 561 557 549 541 537 537 533 525 525 507 525 521 518 521 521 525 521 521 525 518 521 529 514 0 504 500 518 514 518 521 541 541 537 541 549 0 0 0 0 0
    0 0 0 0 0 0 0 0 0 0 0 0 0 0 0 0 0 0 0 0 0 0 0 0 0 0 0 0 0 0 0 0 0 0 0 0 0 0 0 0 0 0 0 0 0 0 0 0 0 0 0 0 0 0 0 0 0 0 0 0 0 0 0 0 0 0 0 0 0 1533 1533 1711 1501 1471 1565 1471 1388 1362 1338 1338 1291 1362 1415 1443 1501 0 0 0 0 0 0 0 0 0 0 0 0 0 1795 1635 1565 1471 1599 1501 1599 1501 1388 0 1443 0 0 0 0 0 1415 1599 1501 1415 1471 1471 1471 1501 1533 79 79 0 1795 0 1936 3066 3066 3199 3345 3345 3066 2537 1795 1711 1711 1415 1565 1501 1533 1533 1533 1565 1565 1501 1711 1565 1752 1752 0 0 1752 1752 1839 1635 1672 1388 1443 1501 1443 1471 1443 1443 1443 1443 1501 0 0 0 0 0 0 0 3504 0 0 1471 1443 1471 1362 1501 1501 1471 1471 1533 1471 1471 1471 1672 1362 1388 1501 1362 0 0 0 0 0 0 0 943 0 0 0 0 919 0 0 1338 1388 1471 1471 1501 1565 1533 1711 0 0 0 0 1936 1565 1388 1501 1501 1362 1115 1247 1247 1338 1338 1314 1338 1338 1362 1471 1471 1635 1443 1443 1711 1314 1314 1268 1226 1226 1187 1187 1226 1226 1314 1314 0 0 0 0 0 0 0 0 0 0 0 0 0 0 0 0 255 251 0 0 0 598 584 588 579 574 570 557 549 545 545 537 529 529 511 525 521 514 521 521 521 521 521 525 518 518 525 518 511 511 504 514 511 518 525 545 541 541 541 549 0 0 0 0 0
    0 0 0 0 0 0 0 0 0 0 0 0 0 0 0 0 0 0 0 0 0 0 0 0 0 0 0 0 0 0 0 0 0 0 0 0 0 0 0 0 0 0 0 0 0 0 0 0 0 0 0 0 0 0 0 0 0 0 0 0 0 0 0 0 0 0 0 0 0 1533 1533 1711 1501 1471 1533 1471 1388 1362 1338 1338 1291 1362 1443 1501 1565 1388 0 0 0 0 0 2164 1989 0 0 0 0 0 1635 1565 1501 1415 1565 1471 1599 1533 1388 1415 1443 0 0 0 0 0 1388 1565 1533 1415 1501 1501 1501 1501 1565 79 0 0 0 0 1936 2943 2943 3199 3199 3199 3066 2164 1752 1635 1711 1415 1533 1501 1533 1501 1533 1565 1533 1471 1711 1471 1672 0 0 919 0 0 1839 1565 1635 1388 1415 1471 1443 1471 1443 1443 1443 1443 1501 1471 0 0 0 0 0 0 0 1022 981 0 1415 1415 1338 1501 1501 1471 1471 1533 1471 1471 1471 1672 1362 1362 0 0 0 0 0 0 0 0 0 0 0 0 0 0 931 0 0 1338 1388 1415 1471 1501 1533 1501 1672 0 0 206 0 0 1443 1362 1471 1443 1338 1098 1247 1247 1338 1338 1338 1338 1338 1362 1501 1471 1635 1415 1415 1672 1291 1291 1268 1247 1268 1247 0 1268 0 1501 0 1443 0 0 0 0 0 0 0 0 0 0 0 0 0 0 0 0 0 0 603 593 598 593 593 588 584 584 570 561 557 557 545 533 529 518 525 521 514 518 521 521 525 521 525 521 521 525 521 514 514 504 511 507 518 529 541 541 541 541 553 0 0 0 0 0
    0 0 0 0 0 0 0 0 0 0 0 0 0 0 0 0 0 0 0 0 0 0 0 0 0 0 0 0 0 0 0 0 0 0 0 0 0 0 0 0 0 0 0 0 0 0 0 0 0 0 0 0 0 0 0 0 0 0 0 0 0 0 0 0 0 0 0 0 0 1533 1533 1711 1533 1501 1599 1533 1388 1362 1314 1338 1291 1362 1388 1471 1533 1415 0 0 0 0 0 0 0 1989 1936 1887 0 0 1711 1599 1565 1443 1599 1533 1672 1565 1415 0 0 0 0 0 0 0 1388 1565 1533 1415 1501 1501 1501 1533 1565 79 0 0 0 0 1887 2830 2628 3066 3199 3066 2830 2044 1672 1599 1672 1388 1533 1471 1501 1501 1501 1533 1501 1443 1672 1415 0 0 968 908 0 0 0 1501 1635 1388 1415 1471 1415 1443 1443 1443 1443 1443 1501 1471 1338 0 0 0 0 0 0 1008 981 0 1388 1415 1338 1471 1501 1443 1471 1533 1471 1471 1471 1672 1362 1362 0 1291 0 0 0 0 0 0 0 0 0 0 0 0 981 1036 0 0 1388 1415 1471 1501 1565 1565 1672 0 0 206 0 0 0 1338 1415 1415 1338 1098 1247 1247 1338 1338 1338 1362 1362 1362 1501 1471 1635 1415 1415 1672 1291 1314 1291 1291 1565 0 0 1471 0 0 0 0 0 553 561 0 533 529 0 0 0 0 0 0 0 0 0 0 629 608 603 593 593 593 593 588 593 588 579 574 584 588 0 0 0 521 525 525 514 521 525 521 525 525 525 521 521 525 525 518 521 507 507 504 514 525 537 537 541 541 561 0 0 0 0 0
    0 0 0 0 0 0 0 0 0 0 0 0 0 0 0 0 0 0 0 0 0 0 0 0 0 0 0 0 0 0 0 0 0 0 0 0 0 0 0 0 0 0 0 0 0 0 0 0 0 0 0 0 0 0 0 0 0 0 0 0 0 0 0 0 0 0 0 0 0 1533 1533 1711 1533 1533 1599 1565 1415 1362 1314 1291 1268 1314 1338 1415 1471 1362 0 0 0 0 0 0 0 1989 1989 1936 1887 0 1795 1711 0 1599 1711 1672 1752 1635 1501 0 0 0 0 0 0 0 1388 1533 1501 1415 1501 1501 1501 1533 1565 0 0 0 0 0 1839 2628 2453 3066 3199 3199 3066 2102 1599 1533 1672 1388 1501 1443 1471 1471 1471 1471 1471 1443 1672 1388 0 0 968 931 955 0 0 1471 1635 1362 1388 1471 1415 1443 1443 1443 1443 1443 1501 1471 1338 0 0 0 0 0 0 994 981 0 1415 1443 1338 1471 1501 1443 1471 1501 1471 1471 1471 1672 1362 1362 1471 1291 0 0 0 0 1415 0 0 0 0 0 0 0 994 1036 0 0 1388 1415 1501 1533 1599 1599 1672 0 0 0 0 0 0 1362 1443 1443 1338 1098 1247 1247 1338 1338 1338 1338 1338 1362 1471 1443 1635 1415 1415 1672 1314 1338 1362 1471 1672 1635 0 1635 1752 1711 1672 1565 0 0 0 0 0 0 0 304 0 0 0 0 0 0 645 634 629 608 603 588 593 598 593 588 593 593 593 593 598 603 588 0 0 525 525 525 518 521 525 521 525 525 525 521 521 525 525 518 521 511 511 504 518 525 533 537 0 0 0 0 0 0 0 0
    0 0 0 0 0 0 0 0 0 0 0 0 0 0 0 0 0 0 0 0 0 0 0 0 0 0 0 0 0 0 0 0 0 0 0 0 0 0 0 0 0 0 0 0 0 0 0 0 0 0 0 0 0 0 0 0 0 0 0 0 0 0 0 0 0 0 0 0 0 1533 1533 1711 1565 1533 1599 1565 1415 1338 1314 1291 1268 1314 1314 1388 1471 1388 1471 0 0 0 0 0 0 2102 2044 1989 1936 1839 1795 1711 0 1599 1711 1672 1752 1672 1599 1533 1672 0 0 0 0 0 1388 1501 1501 1388 1501 1501 1501 1501 1533 0 1565 1565 1795 1839 1839 2628 2830 3199 3504 3345 3345 2628 0 1443 1635 1362 1471 1443 1443 1443 1443 1443 1443 1415 1599 1338 0 0 968 943 968 0 0 0 1599 1362 1388 1443 1415 1443 1443 1443 1443 1443 1501 1501 1338 3873 0 0 0 0 0 0 994 0 1415 1443 1338 1471 1501 1443 1471 1501 1471 1471 1471 1672 1388 1362 1501 1291 0 0 0 0 1501 0 0 0 0 0 0 0 981 1036 0 0 1388 1415 1533 1565 1635 1599 1672 0 0 0 0 0 0 1388 1471 1443 1362 1098 1247 1268 1338 1338 1314 1338 1338 1338 1443 1415 1599 1415 1415 1672 1314 1314 1388 1599 1672 1635 1711 1635 1752 1711 1635 1565 0 0 0 0 0 0 0 0 0 0 0 0 634 634 634 629 623 613 608 598 603 608 598 593 598 598 598 593 598 598 584 0 545 541 537 537 521 525 529 521 529 529 529 521 521 525 525 521 525 518 518 514 0 0 0 0 0 0 0 0 0 0 0 0
    0 0 0 0 0 0 0 0 0 0 0 0 0 0 0 0 0 0 0 0 0 0 0 0 0 0 0 0 0 0 0 0 0 0 0 0 0 0 0 0 0 0 0 0 0 0 0 0 0 0 0 0 0 0 0 0 0 0 0 0 0 0 0 0 0 0 0 0 0 1533 1565 1711 1533 1533 1599 1501 1388 1314 1291 1268 1268 1291 1314 1388 1471 1415 1443 1635 0 0 0 0 2102 2102 2044 2044 1936 1887 1795 1711 1752 1635 1711 1711 1795 1752 1672 0 1711 0 0 0 0 0 1388 1471 1471 1388 1471 1501 1471 1501 1533 1599 1533 1565 1795 1839 1795 2830 3066 3345 3679 3504 3504 0 0 0 1599 1362 1443 1415 1443 1415 1443 1443 1443 1388 0 1338 0 0 981 968 981 0 0 0 1565 1338 1362 1415 1388 1415 1415 1443 1443 1443 1565 1599 0 2830 2943 3199 3504 3679 3345 0 0 0 1415 1443 1338 1471 1471 1443 1443 1501 1471 1471 1471 1635 1388 1362 1443 1291 1268 1314 1314 1338 1443 1314 0 0 0 0 0 0 981 1022 981 0 0 1471 1599 1635 1672 1599 1672 1635 0 0 1471 1415 1362 1388 1471 1443 1338 1098 1247 1268 1314 1314 1291 1314 1314 1314 0 0 0 1388 1388 1711 1314 1314 1415 1672 1672 1635 1672 1635 1711 1752 1635 1565 1415 0 0 0 0 0 0 0 0 0 0 623 629 629 629 623 623 613 608 608 613 618 608 603 608 603 603 598 0 0 0 553 545 545 545 545 533 537 537 529 533 533 529 525 521 525 525 525 529 525 525 521 0 0 0 0 0 0 0 0 0 0 0 0
    0 0 0 0 0 0 0 0 0 0 0 0 0 0 0 0 0 0 0 0 0 0 0 0 0 0 0 0 0 0 0 0 0 0 0 0 0 0 0 0 0 0 0 0 0 0 0 0 0 0 0 0 0 0 0 0 0 0 0 0 0 0 0 0 0 0 0 0 0 1533 1565 1672 1533 1533 1565 1501 1362 1291 1291 1268 1268 1268 1291 1338 1443 1415 1415 1565 0 0 2044 0 1989 2044 2044 2044 1936 1887 1795 1752 1795 1672 1752 1711 1795 1752 1672 0 1672 0 0 0 0 0 1388 1443 1443 1388 1471 1471 1471 1471 1533 1565 1533 1565 1795 1839 1839 2374 3066 3199 3679 3504 3504 3199 0 0 1672 1388 1471 1443 1443 1415 1443 1443 1443 1388 0 0 0 0 0 968 0 0 0 0 0 1338 1362 1415 1388 1415 1415 1415 1443 1471 1635 1711 0 2628 2725 2830 2943 3199 3199 1989 0 0 1443 1443 1338 1471 1471 1415 1443 1501 1471 1471 1471 1635 1388 1388 1443 1291 1268 1291 1291 1314 1388 1291 1291 1314 0 0 0 1036 1008 1022 0 0 0 0 1635 1635 1672 1599 1635 1565 1565 1443 1362 1291 1362 1362 1443 1415 1338 1098 1247 1268 1291 1291 1291 1291 1291 1291 0 0 0 0 0 1711 1338 1314 1501 1752 1635 1599 1635 1635 0 1752 1635 1533 1388 0 0 0 0 0 0 0 0 634 618 613 618 618 623 618 618 613 613 608 618 618 613 618 0 0 0 593 0 584 557 549 541 549 545 545 541 541 537 533 533 533 529 525 525 525 529 525 533 525 529 525 0 0 0 0 0 529 0 0 0 0 0 0
    0 0 0 0 0 0 0 0 0 0 0 0 0 0 0 0 0 0 0 0 0 0 0 0 0 0 0 0 0 0 0 0 0 0 0 0 0 0 0 0 0 0 0 0 0 0 0 0 0 0 0 0 0 0 0 0 0 0 0 0 0 0 0 0 0 0 0 0 0 1533 1599 1672 1533 1533 1599 1501 1362 1314 1291 1291 1268 1291 1268 1338 1443 1415 1415 0 0 0 0 0 0 0 0 1936 1887 1839 1752 1672 1752 1635 1711 1795 1795 1839 0 0 0 0 0 0 0 0 1388 1443 1443 1362 1471 1471 1471 1471 1501 1599 1565 1599 1887 1936 1989 2453 2943 3066 3504 3504 3504 3199 0 0 1752 1388 1501 1443 1443 1415 1443 1443 1443 1415 0 0 0 0 0 0 0 0 0 0 0 1338 1338 1388 1362 1415 1415 1415 1443 1501 1711 1795 1936 2453 2453 2537 2725 2830 3066 1989 0 0 1471 1471 1362 1501 1501 1443 1443 1501 1501 1501 1471 1672 1415 1388 1501 1291 1247 1268 1268 1314 1362 1268 1268 1247 0 1149 0 1066 1036 1051 0 0 1362 1388 1501 1565 1565 1501 1565 1471 1415 1338 1291 1247 1338 1362 1443 1388 1338 1082 1247 1268 1247 1268 1268 1268 1268 1268 0 0 0 0 0 0 1388 0 0 0 1599 0 0 0 0 0 1635 1565 0 0 0 0 0 0 0 561 0 0 593 588 608 608 613 608 613 608 608 608 613 618 613 618 0 0 603 588 574 566 553 545 541 549 545 545 541 541 541 533 537 533 529 525 525 525 529 525 529 525 529 525 0 0 0 0 541 533 537 0 0 0 0 0
    0 0 0 0 0 0 0 0 0 0 0 0 0 0 0 0 0 0 0 0 0 0 0 0 0 0 0 0 0 0 0 0 0 0 0 0 0 0 0 0 0 0 0 0 0 0 0 0 0 0 0 0 0 0 0 0 0 0 0 0 0 0 0 0 0 0 0 0 0 1565 1635 1672 1501 1533 1599 1533 1362 1314 1338 1338 1338 1338 1314 1388 1501 1471 0 0 0 0 0 0 0 0 0 0 1839 1752 1711 1635 1752 1635 1711 1795 1887 1936 0 0 0 0 0 0 0 0 1388 0 1415 1362 1471 1471 1443 1443 1501 1599 1599 1635 1989 2044 2044 2453 2943 2943 3345 3345 3345 3066 0 0 1839 1415 1533 1471 1443 1415 1443 1443 1443 1388 0 0 0 0 0 0 4088 3679 3066 0 0 0 0 0 1362 1415 1443 1443 1471 1565 1795 1839 1989 2374 2374 2374 2453 2628 2628 1989 1672 1565 1565 1533 1362 1533 1501 1443 1471 1533 1533 1501 1501 1711 1443 1388 1501 1268 1187 1206 1226 1268 1314 1247 1268 1247 1247 1187 1115 1098 1066 1066 1082 1115 0 1362 1501 1565 1565 1501 1565 1471 1415 0 1291 1226 1338 1362 1415 1362 1314 1082 1247 1247 1226 1247 1247 1247 1247 1247 0 0 0 0 0 0 1635 0 0 0 0 0 0 0 0 0 0 0 0 0 0 0 0 557 566 588 584 613 588 584 603 603 608 608 608 603 603 608 613 618 613 618 603 598 598 584 561 561 553 549 545 553 549 549 545 545 545 537 541 537 529 521 525 525 525 525 529 525 525 525 533 537 537 529 537 533 533 0 0 0 0 0
    0 0 0 0 0 0 0 0 0 0 0 0 0 0 0 0 0 0 0 0 0 0 0 0 0 0 0 0 0 0 0 0 0 0 0 0 0 0 0 0 0 0 0 0 0 0 0 0 0 0 0 0 0 0 0 0 0 0 0 0 0 0 0 0 0 0 0 0 0 1565 1635 1672 1501 1501 1599 1501 1362 1338 1362 1388 1388 1388 1388 1565 1599 0 0 0 0 0 0 0 0 0 0 0 0 1711 1711 1635 0 1672 1672 1752 1795 0 0 0 0 0 0 0 0 0 1388 0 1388 1338 1443 1443 1443 1443 1501 1599 1599 1635 1936 1989 2044 2374 2830 2830 3199 3199 3199 3066 0 0 1887 1443 1565 1501 1443 1443 1443 1443 1443 1415 0 0 0 0 0 0 3679 3504 2943 0 0 0 0 0 0 0 1471 1443 1533 1635 1839 1936 2044 2374 2230 2230 2299 2537 2374 1989 1752 1599 1599 1599 1388 1533 1533 1471 1471 1533 1565 1533 1501 1711 1443 1388 1501 1268 1187 1206 1206 1247 1268 1226 1247 0 0 1206 0 0 1098 1082 1098 1082 1247 1247 1471 1635 1672 1565 1565 1471 1415 0 1314 1247 1338 1388 1415 1362 1314 1082 1247 1247 1187 1226 1226 1206 1226 1226 1291 1247 1247 0 0 0 1887 0 0 0 0 4599 0 0 0 0 0 0 0 0 0 0 0 570 593 598 593 613 588 588 603 603 608 608 608 608 608 613 613 613 613 613 598 598 588 574 561 561 557 553 549 557 557 553 549 553 549 541 541 541 533 525 525 525 525 525 529 525 529 525 533 533 533 529 533 533 533 0 0 0 0 0
    0 0 0 0 0 0 0 0 0 0 0 0 0 0 0 0 0 0 0 0 0 0 0 0 0 0 0 0 0 0 0 0 0 0 0 0 0 0 0 0 0 0 0 0 0 0 0 0 0 0 0 0 0 0 0 0 0 0 0 0 0 0 0 0 0 0 0 0 0 1599 1635 1672 1533 1533 1635 1565 1415 1362 1362 1415 1471 1388 1362 1672 0 0 0 0 0 0 0 0 0 0 0 0 0 0 1711 0 0 1672 1711 1795 1752 0 0 0 0 0 0 0 0 0 1388 0 1388 1338 1443 1443 1443 1443 1471 1565 1599 1672 2102 2102 2164 2537 2943 2830 3066 3199 3199 3066 2725 0 1936 1533 0 1565 1471 1443 1471 1501 1471 1415 1672 0 0 0 0 3066 3345 3345 2830 0 0 193 0 193 0 0 1501 1471 1565 1672 1887 1936 2044 2299 2230 2230 2299 2537 2299 1989 1839 1599 1635 1599 1415 1565 1533 1471 1501 1533 1599 1533 1533 1752 1501 1415 1533 1268 1206 1206 1206 1206 1247 1206 1226 1206 1226 1187 0 0 1082 1066 1098 1051 1187 0 0 0 0 1711 1635 1599 1471 1471 1388 1338 1415 1443 1501 1415 1338 1098 1247 1247 1168 1206 1206 1187 1206 1206 1268 1226 1226 0 0 0 1887 0 0 0 0 0 0 0 0 0 0 0 0 0 0 0 0 0 613 613 0 623 598 603 613 608 613 608 608 608 608 613 608 608 603 608 588 588 579 570 561 561 557 557 553 557 557 557 553 553 553 545 545 541 533 521 525 525 525 525 529 525 529 525 533 533 533 529 529 529 529 0 0 0 0 0
    0 0 0 0 0 0 0 0 0 0 0 0 0 0 0 0 0 0 0 0 0 0 0 0 0 0 0 0 0 0 0 0 0 0 0 0 0 0 0 0 0 0 0 0 0 0 0 0 0 0 0 0 0 0 0 0 0 0 0 0 0 0 0 0 0 0 0 0 0 1599 1635 1672 1501 1533 1599 1533 1415 1362 1362 1415 1471 1362 0 0 0 0 0 0 0 0 0 0 0 0 0 0 0 0 1672 1635 0 1672 1711 1795 1752 0 0 0 0 0 0 0 0 0 1388 0 1388 1338 1443 1443 1443 1443 1471 1599 1635 1711 2102 2102 2230 2537 2943 2725 2943 3066 3066 3066 2725 2725 2044 0 0 1599 1501 1471 1501 1533 1501 1443 1711 1338 0 2628 2725 2830 3066 3066 2628 0 0 0 0 193 0 0 1533 1533 1599 1711 1887 1936 2044 2299 2230 2230 2230 2628 2299 1989 1839 1599 1635 1599 1415 1565 1533 1471 1471 1533 1599 1533 1533 1752 1533 1415 1471 1268 1206 1187 1187 1187 1206 1168 1187 1168 1206 1168 0 0 0 1082 1149 0 0 0 0 0 1752 1635 1635 1565 1501 1501 1415 1415 1501 1501 1565 1501 1338 1132 1268 1268 1149 1206 1187 1168 1206 1206 1247 1206 1206 0 0 0 1795 0 0 0 0 0 0 0 0 0 0 0 0 0 0 0 651 613 634 629 623 634 603 613 613 608 613 608 608 613 613 618 613 613 603 598 588 588 579 574 561 561 561 561 553 561 561 557 553 557 553 545 545 541 533 521 525 525 525 525 525 525 529 525 533 529 529 529 529 529 529 0 0 0 0 0
    0 0 0 0 0 0 0 0 0 0 0 0 0 0 0 0 0 0 0 0 0 0 0 0 0 0 0 0 0 0 0 0 0 0 0 0 0 0 0 0 0 0 0 0 0 0 0 0 0 0 0 0 0 0 0 0 0 0 0 0 0 0 0 0 0 0 0 0 0 1599 1635 1635 1471 1501 1565 1501 1415 1415 1415 1501 1599 1501 1565 1711 0 0 0 0 1711 1599 0 0 0 0 1443 1362 1533 1471 1565 1533 1599 1635 1599 1672 1711 1711 0 0 0 0 0 0 0 0 1388 1388 1388 1338 1443 1443 1415 1443 1471 1635 1672 1752 2102 2102 2230 2537 2830 2725 2830 2943 3066 2943 2628 2628 2044 0 0 0 1565 1533 1533 1599 1533 1471 1711 1415 1936 2230 2453 2453 2725 2830 2453 0 0 0 192 193 193 0 0 1533 1635 0 1887 1936 1989 2299 2230 2164 2230 2537 2299 1989 1839 1599 1635 1599 1415 1565 1533 1471 1471 1533 1599 1533 1533 1752 1501 1415 1388 0 1206 1149 1168 1168 1187 1168 1168 1168 1226 0 0 0 1149 1132 0 0 0 0 0 1565 1471 1471 1533 1471 1415 1415 1415 1443 1533 1533 1565 1533 1338 1168 1291 1268 1149 1206 1187 1168 1206 1206 1247 1206 1187 0 0 0 1795 2453 0 0 0 0 0 0 0 0 561 579 0 0 0 0 681 675 675 669 657 657 608 623 618 608 613 608 613 618 618 623 618 613 608 603 593 588 584 579 566 566 566 561 557 561 561 557 557 557 553 549 545 541 533 521 525 525 525 525 525 525 529 525 533 533 529 529 529 529 525 0 0 0 0 0
    0 0 0 0 0 0 0 0 0 0 0 0 0 0 0 0 0 0 0 0 0 0 0 0 0 0 0 0 0 0 0 0 0 0 0 0 0 0 0 0 0 0 0 0 0 0 0 0 0 0 0 0 0 0 0 0 0 0 0 0 0 0 0 0 0 0 0 0 0 1599 1635 1635 1443 1471 1533 1501 1501 1533 1533 1635 1711 1672 1711 1711 1795 0 1672 1635 1599 1533 1471 0 0 1338 1415 1362 1443 1443 1443 1443 1501 1565 1533 1599 1635 1533 1599 1533 0 0 0 0 0 0 1362 1388 1388 1362 1443 1443 1443 1443 1501 1635 1672 1752 2102 2044 2164 2453 2725 2537 2725 2830 2725 2725 2453 2537 2044 0 0 1672 1565 1533 1565 1599 1565 1471 1672 1471 1795 1936 2299 2230 2537 2725 2374 0 0 0 0 193 0 0 0 1533 1635 0 0 1936 1936 2230 2230 2102 2102 2537 2164 1936 1839 1501 1599 1565 1415 1533 1533 1471 1471 1533 1599 1501 1501 1752 1415 1362 1314 1268 1187 1132 1168 1187 1187 1187 1206 1226 1247 1268 0 0 1247 1206 0 1388 0 0 1362 1388 1415 1471 1533 1443 1415 1443 1471 1471 1565 1565 1565 1533 1362 1226 1291 1291 1149 1206 1187 1168 1206 1206 1247 1206 1187 1291 1291 1268 1795 0 0 0 1115 1051 1051 0 0 0 566 0 0 0 0 0 687 687 687 675 687 669 613 629 623 618 618 618 618 623 623 623 613 608 603 603 593 588 584 579 570 570 566 566 557 561 561 557 557 557 553 549 545 541 537 525 525 525 525 525 525 525 529 525 533 533 529 525 525 525 521 0 0 0 0 0
    0 0 0 0 0 0 0 0 0 0 0 0 0 0 0 0 0 0 0 0 0 0 0 0 0 0 0 0 0 0 0 0 0 0 0 0 0 0 0 0 0 0 0 0 0 0 0 0 0 0 0 0 0 0 0 0 0 0 0 0 0 0 0 0 0 0 0 0 0 1635 1672 1635 1443 1443 1565 1533 1565 1635 1635 1711 1752 1711 1795 1752 1752 0 0 1599 1565 1501 0 0 0 1338 1415 1362 1471 1471 1443 1443 1471 1501 1501 1533 1533 1415 0 0 0 0 0 0 0 0 1362 1388 1415 1362 1443 1443 1443 1443 1501 1635 1672 1752 2044 1989 2044 2299 2628 2374 2537 2725 2628 2537 2299 2374 1989 1752 0 1672 1599 1533 1565 1599 1565 1471 1672 1443 1711 1839 2044 2102 2374 2725 2374 0 0 0 192 193 0 0 1599 1565 1672 0 1839 1887 1936 2230 2102 2044 1989 2374 1839 1795 1752 1471 1565 1533 1415 1533 1533 1471 1471 1533 1599 1501 1501 1752 1388 1338 1314 1268 1187 1149 1187 1187 1187 1206 1226 1226 1247 1268 1291 1268 1291 1247 1268 0 1291 0 1291 1268 1338 1415 1471 1415 1388 1415 1443 1471 1533 1533 1533 1471 1338 1247 1314 1291 1168 1206 1206 0 1226 1226 1247 1206 1206 1314 1314 1291 1752 0 0 1082 1082 1036 0 0 0 0 0 0 0 743 728 728 707 714 694 681 694 675 634 639 634 629 629 629 629 629 629 623 618 613 608 603 598 593 588 584 574 574 570 566 561 561 566 557 557 557 557 549 545 541 537 525 525 525 525 525 525 525 525 525 533 533 529 525 525 525 521 0 0 0 0 0
    0 0 0 0 0 0 0 0 0 0 0 0 0 0 0 0 0 0 0 0 0 0 0 0 0 0 0 0 0 0 0 0 0 0 0 0 0 0 0 0 0 0 0 0 0 0 0 0 0 0 0 0 0 0 0 0 0 0 0 0 0 0 0 0 0 0 0 0 0 1635 1672 1672 1415 1443 1565 1533 1635 1711 1752 1752 1795 1752 1839 1795 1795 0 1839 1752 0 0 0 0 0 0 1415 1338 1415 1443 1415 1443 1415 1471 1501 1501 1501 1443 1415 1362 0 0 0 0 0 1338 1362 1388 1388 1338 1415 1415 1415 1443 1471 1635 1635 0 2044 1989 2044 2299 2537 2299 2453 2628 2453 2299 2102 2299 1989 1711 1752 1672 1599 1533 1599 1599 1565 1443 1635 1443 1599 1752 1936 1989 2299 2725 2374 0 0 0 0 0 0 0 1599 1565 1672 0 1795 1936 1936 2230 2102 1989 1936 2299 1795 1795 1752 1443 1565 1533 1388 1533 1533 1471 1471 1501 1599 1501 1501 1795 1443 1415 1362 1314 1206 1149 1187 1206 1187 1206 1226 1226 1247 1291 1338 0 0 0 1268 1314 1291 0 1268 1268 1338 1388 1443 1415 1415 1415 1443 1471 1533 1533 1501 1471 1362 1291 1314 1314 1168 1226 1226 0 0 1247 1268 1226 1226 1338 1314 1314 1752 0 1226 1082 1051 0 0 0 0 721 714 714 728 735 735 735 721 728 700 694 707 681 651 657 651 634 639 634 629 634 629 629 618 618 613 608 603 598 593 588 579 579 574 570 570 566 570 561 561 561 557 553 549 541 537 525 525 525 525 525 525 525 525 525 533 533 529 525 525 525 521 0 0 0 0 0
    0 0 0 0 0 0 0 0 0 0 0 0 0 0 0 0 0 0 0 0 0 0 0 0 0 0 0 0 0 0 0 0 0 0 0 0 0 0 0 0 0 0 0 0 0 0 0 0 0 0 0 0 0 0 0 0 0 0 0 0 0 0 0 0 0 0 0 0 0 1672 1672 1672 1415 1471 1565 1533 1635 1711 1752 1752 1839 1795 1839 1795 1795 0 0 0 0 0 0 0 0 0 1415 1314 0 1415 1388 1443 1388 1471 1501 1501 1501 1443 1415 1362 1362 1415 1268 0 0 1314 1362 1362 1362 1338 1388 1388 1388 1415 1415 1533 1565 0 1989 1936 1989 2230 2537 2230 2374 2628 2299 2164 2044 2230 1936 1711 1752 1672 1599 1533 1599 1599 1565 1443 1599 1443 1565 1752 1887 1936 2230 2725 2374 0 2044 0 0 0 0 0 1635 1599 1672 0 0 1887 1887 2230 2044 1936 1887 2299 1795 1752 1711 1415 1533 1533 1388 1533 1533 1471 1471 1501 1599 1501 1501 1795 1501 1471 1443 0 1226 1149 1149 1187 1168 1206 1226 1226 1247 1291 0 0 0 0 0 0 0 0 1206 1206 1291 1362 1415 1415 1388 1388 1443 1471 1501 1501 1471 1443 1362 1314 1338 1314 1187 1247 1247 0 0 0 1291 1247 1247 1362 1338 1362 1711 1362 1226 1082 1036 0 0 0 721 735 728 728 735 735 743 735 735 735 707 700 707 687 681 669 669 657 663 645 645 645 639 634 629 623 618 608 608 598 598 588 584 584 579 579 574 566 570 561 561 561 557 553 549 541 537 525 529 525 525 525 525 525 529 525 533 529 529 525 525 521 521 0 0 0 0 0
    0 0 0 0 0 0 0 0 0 0 0 0 0 0 0 0 0 0 0 0 0 0 0 0 0 0 0 0 0 0 0 0 0 0 0 0 0 0 0 0 0 0 0 0 0 0 0 0 0 0 0 0 0 0 0 0 0 0 0 0 0 0 0 0 0 0 0 0 0 1635 1672 1672 1443 1471 1599 1599 1711 1752 1752 1795 1887 1752 1795 1752 0 0 0 0 0 0 0 0 0 0 1388 1268 1314 1388 1362 1415 1362 1443 1471 1471 1471 1443 1388 1362 1338 1388 1268 1168 1206 1314 1362 1362 1362 1314 1362 1362 1362 1388 1388 1443 1471 0 1887 1887 1887 2164 2374 2164 2230 2453 2102 2044 1989 2164 1936 1711 1752 1672 1599 1565 1599 1599 1565 1443 1599 1443 1533 1672 1795 1795 1989 2453 2230 1989 1989 1936 0 1711 0 0 1599 1599 1672 0 0 1887 1839 2102 2044 1887 1795 1989 1711 1672 1635 1388 1501 1471 1362 1501 1501 1471 1471 1501 1599 1501 1501 1752 1501 1501 1501 1672 0 1226 1206 1187 1168 1206 1226 1226 1247 1314 0 0 0 0 0 0 0 1132 1115 1132 1206 1291 1338 1338 1338 1362 1415 1443 1471 1471 1443 1415 1362 1338 1362 1338 1206 1268 1268 0 0 0 1314 1291 1291 1415 1362 1388 1672 1314 1206 1066 1022 0 681 687 728 743 735 735 743 743 750 743 743 743 721 707 714 694 687 663 669 657 663 651 651 651 645 639 639 629 623 613 613 603 598 593 588 588 579 584 574 566 570 561 561 561 557 553 549 541 537 525 529 525 529 525 525 525 529 525 533 529 529 521 525 521 521 0 0 0 0 0
    0 0 0 0 0 0 0 0 0 0 0 0 0 0 0 0 0 0 0 0 0 0 0 0 0 0 0 0 0 0 0 0 0 0 0 0 0 0 0 0 0 0 0 0 0 0 0 0 0 0 0 0 0 0 0 0 0 0 0 0 0 0 0 0 0 0 0 0 0 0 0 1672 1443 1501 1635 1635 1711 1752 1795 1795 1839 1711 1635 1599 1533 0 1565 0 0 0 0 0 1226 1132 0 1226 0 1338 1338 1388 1362 1443 1471 1471 1501 1471 1415 1388 1362 1388 0 0 1206 1268 1362 1362 1338 1291 1338 1338 1338 1362 1362 1388 1415 0 1887 1839 1839 2044 2164 1989 2044 2164 1887 1839 1887 2044 1936 1711 1752 1672 1599 1565 1599 1599 1565 1415 1533 1415 1443 1533 1672 1672 1752 1989 2044 1887 1887 1887 1711 1711 0 1599 1565 1565 1635 0 1672 1752 1711 1839 1989 1795 1752 1752 1672 1599 1565 1362 1471 1443 1362 1471 1471 1471 1443 1471 1533 1471 1471 1711 1471 1501 1471 1635 1388 0 0 1291 1226 1291 1268 1268 1291 1362 0 0 0 0 0 1247 1206 1187 1168 1149 1206 1291 1314 1338 1338 1362 1415 1443 1471 1443 1443 1415 1362 1338 1388 1338 1247 1314 1314 0 0 0 1338 1314 1314 1471 1388 1415 1635 1291 1206 1008 931 0 0 714 743 750 743 750 743 750 750 743 743 750 728 721 714 694 687 663 663 645 657 645 645 645 645 639 639 629 629 618 618 608 603 598 593 588 584 584 574 566 570 561 561 561 557 553 549 541 537 529 529 525 529 525 525 525 525 525 529 529 525 521 521 521 521 0 0 0 0 0
    0 0 0 0 0 0 0 0 0 0 0 0 0 0 0 0 0 0 0 0 0 0 0 0 0 0 0 0 0 0 0 0 0 0 0 0 0 0 0 0 0 0 0 0 0 0 0 0 0 0 0 0 0 0 0 0 0 0 0 0 0 0 0 0 0 0 0 0 0 0 0 0 0 0 0 0 1672 1711 1752 1711 1752 1635 1501 1471 1388 1291 1291 1247 0 0 0 0 1149 0 1149 0 0 1362 1362 1415 1388 1501 1501 1533 1565 1533 1471 1443 1415 1443 0 0 0 1291 1362 1338 1338 1268 1314 1314 1314 1362 1362 1338 1388 0 1795 1752 1711 1839 1839 1795 1795 1839 1752 1711 1711 1795 1795 1672 1672 1635 1565 1565 1599 1533 1533 1388 1471 1388 1388 1415 1471 1471 1471 1672 1839 1752 1752 1795 1635 1635 1565 1533 1471 1471 1565 1565 1565 1635 1471 1711 1795 1672 1635 1599 1533 1471 1443 1338 1362 1338 1314 1388 1415 1415 1388 1415 1471 1415 1415 1711 1415 1471 1443 1599 1388 0 0 1338 1268 1338 1291 1291 1338 1338 1338 1338 1314 1291 1247 1268 1247 0 1247 1268 1291 1362 1362 1388 1362 1362 1415 1443 1471 1471 1443 1388 1362 1338 1415 1338 1268 1338 1338 0 1362 1362 1388 1338 1362 1533 1388 1415 1635 1268 1066 931 855 817 750 750 758 774 750 758 750 750 750 750 743 750 728 721 714 687 681 663 663 645 657 645 645 645 645 639 639 634 629 618 618 608 608 598 598 593 584 584 579 566 570 561 561 561 557 553 549 541 537 529 529 529 529 525 525 525 525 525 529 529 525 518 521 521 525 0 0 0 0 0
    0 0 0 0 0 0 0 0 0 0 0 0 0 0 0 0 0 0 0 0 0 0 0 0 0 0 0 0 0 0 0 0 0 0 0 0 0 0 0 0 0 0 0 0 0 0 0 0 0 0 0 0 0 0 0 0 0 0 0 0 0 0 0 0 0 0 0 0 0 0 0 1565 0 0 0 0 1635 1672 1795 1711 1752 1635 1533 1533 1415 1291 1314 1247 0 0 0 0 0 0 0 0 0 1388 1388 1415 1388 1471 1471 1501 1533 1501 1443 1443 1443 1471 0 0 0 1247 1362 1338 1338 1268 1314 1314 1314 1338 1338 1314 1362 1388 1711 1635 1599 1711 1635 1672 1635 1635 1599 1565 1565 1599 1635 1533 1565 1565 1501 1501 1501 1443 1443 1362 1388 1362 1362 1362 1338 1362 1338 1388 1599 1388 1415 1501 1471 1533 1443 1443 1388 1388 1443 1415 1415 1388 1314 0 1565 1471 1471 1443 1415 1388 1388 1314 1314 1291 1291 1362 1362 1362 1362 1388 1415 1388 1388 1672 1415 1471 1443 1565 1314 1247 0 1314 1268 1314 1291 1291 1314 1338 1338 1314 1314 1268 1247 1226 1247 1226 1268 1314 1338 1388 1388 1388 1388 1362 1415 1415 1443 1443 1415 1388 1362 1338 1415 1338 1291 1362 1338 1338 1388 1388 1415 1388 1388 1565 1388 1415 1635 1226 0 865 836 808 782 774 774 782 758 766 750 758 750 750 743 743 728 721 707 694 681 669 663 651 663 645 645 645 645 639 639 634 629 618 623 613 608 603 598 593 584 584 574 566 570 561 561 557 557 553 545 541 537 529 525 529 529 525 529 525 525 525 529 529 529 521 525 521 525 0 0 0 0 0
    0 0 0 0 0 0 0 0 0 0 0 0 0 0 0 0 0 0 0 0 0 0 0 0 0 0 0 0 0 0 0 0 0 0 0 0 0 0 0 0 0 0 0 0 0 0 0 0 0 0 0 0 0 0 0 0 0 0 0 0 0 0 0 0 0 0 0 0 0 0 0 1565 0 1443 0 0 1501 1501 1635 1565 1565 1533 1443 1501 1443 1415 1415 0 0 0 0 0 0 0 0 0 0 1362 1362 1388 1362 1415 1415 1443 1471 1443 1415 1415 1443 1501 0 0 0 1247 1362 1338 1338 1247 1314 1314 1314 1338 1338 0 1338 1362 1599 1443 1443 1501 1443 1501 1443 1471 1443 1443 1443 1443 1471 1415 1415 1443 1388 1443 1415 1362 1388 1314 1362 1338 1338 1314 1291 1314 1291 1314 1388 1291 1268 1291 1362 1415 1362 1415 1362 1362 1388 0 0 0 0 0 1415 1415 1443 1443 1415 1388 1388 1338 1314 1314 1314 1338 1338 1338 1338 1362 1388 1388 1362 1599 1443 1501 1443 1565 1314 1247 0 1314 1268 1338 1291 1291 1314 1338 1338 1314 1291 1268 1226 1206 1247 1226 1314 1362 1388 1443 1415 1415 1415 1362 1415 1415 1415 1415 1388 1362 1362 1314 1388 1362 1314 1388 1362 1362 1415 1415 1471 1415 1443 1565 1388 1388 0 1149 943 845 836 817 799 791 782 782 766 766 750 758 750 743 735 735 721 714 707 694 681 669 663 657 663 645 645 645 645 639 639 634 634 623 629 613 613 603 598 593 584 584 574 561 566 561 557 557 553 549 545 541 537 529 529 529 529 529 529 525 525 525 529 529 529 521 525 525 529 0 0 0 0 0
    0 0 0 0 0 0 0 0 0 0 0 0 0 0 0 0 0 0 0 0 0 0 0 0 0 0 0 0 0 0 0 0 0 0 0 0 0 0 0 0 0 0 0 0 0 0 0 0 0 0 0 0 0 0 0 0 0 0 0 0 0 0 0 0 0 0 0 0 0 0 0 1565 1443 1471 1565 0 1471 1443 1565 1501 1501 1501 1443 1501 1471 1471 1501 0 0 0 0 0 0 0 0 0 0 1314 1338 1362 1362 1415 1415 1443 1471 1471 1415 1443 1443 1533 1338 0 1247 1226 1362 0 1314 1226 1291 1314 1314 1314 1314 0 1338 1362 1599 1443 1443 1471 1415 1471 1415 1443 1415 1415 1415 1415 1415 1388 1388 1443 1388 1471 1415 1338 1362 1291 1338 1291 1291 1291 1268 1291 1291 1268 1291 1247 1247 1268 1338 1415 1362 1415 1362 1338 0 0 0 0 0 1268 1268 1291 1338 1415 1388 1388 1443 1362 1314 1362 1338 1338 1338 1338 1338 1338 1362 1388 1338 1533 1471 1501 1443 1533 1314 1247 1338 1362 1314 1362 1314 1314 1338 1362 1362 1314 1291 1268 1226 1206 1226 1226 0 0 0 1415 1362 1362 1362 1338 1388 1388 1388 1388 1362 1338 1338 1314 1415 1362 1314 1388 1388 1388 1443 1443 1501 1443 1443 1565 1362 1388 0 1115 931 855 836 826 808 799 791 782 766 758 743 750 743 735 735 721 714 714 707 694 681 675 669 657 663 645 645 645 645 639 639 634 639 623 634 618 618 608 603 598 588 584 574 561 566 557 557 553 553 549 545 541 537 529 529 529 529 529 529 529 529 525 529 529 529 521 525 525 529 0 0 0 0 0
    0 0 0 0 0 0 0 0 0 0 0 0 0 0 0 0 0 0 0 0 0 0 0 0 0 0 0 0 0 0 0 0 0 0 0 0 0 0 0 0 0 0 0 0 0 0 0 0 0 0 0 0 0 0 0 0 0 0 0 0 0 0 0 0 0 0 0 0 0 0 0 1565 1471 1501 1599 1599 1471 1415 1501 1471 1471 1501 1443 1565 1533 1599 1635 0 0 0 0 0 0 0 0 0 0 1314 1338 1362 1362 1415 1443 1471 1501 1533 1471 1533 1533 1565 1415 0 0 1247 1362 1291 1314 1206 1291 1291 1291 1314 1314 0 1338 1338 1599 1443 1443 1471 1415 1471 1415 1443 1415 1415 1415 1388 1415 1388 1362 1388 1338 1415 1314 1314 1314 1268 1314 1291 1291 1268 1268 1291 1291 1291 1338 1268 1291 1268 1338 1362 1314 1362 1314 1291 1247 0 0 0 1168 1206 1187 1226 1226 1268 1291 1291 1388 1338 1291 1362 1338 1314 1338 1338 1338 1338 1338 1362 1314 1388 1415 1388 1362 1362 1268 1268 1314 1338 1314 1338 1291 1314 1338 1362 1362 1338 1314 1314 1268 1247 1268 0 0 1471 0 1415 1314 1314 1362 1314 1362 1362 1362 1388 1362 1338 1338 1314 1415 1362 1338 1415 1415 1388 1471 1471 1501 1443 1443 1565 1338 1362 1443 1066 931 855 845 836 817 808 799 782 774 766 750 743 743 735 728 721 714 707 700 694 687 675 663 657 663 639 645 645 645 639 639 634 634 629 634 618 618 608 608 598 588 584 570 561 561 557 557 553 553 549 545 541 537 533 529 529 533 529 529 529 529 529 529 529 525 521 525 525 529 0 0 0 0 0
    0 0 0 0 0 0 0 0 0 0 0 0 0 0 0 0 0 0 0 0 0 0 0 0 0 0 0 0 0 0 0 0 0 0 0 0 0 0 0 0 0 0 0 0 0 0 0 0 0 0 0 0 0 0 0 0 0 0 0 0 0 0 0 0 0 0 0 0 0 1565 1711 1533 1471 1501 1565 1533 1388 1338 1415 1415 1443 1471 1443 1565 1533 0 1672 0 0 0 0 0 0 0 0 0 1314 1338 1362 1388 1388 1443 1443 1471 1533 1533 1533 1565 1599 1635 1471 1533 1443 1314 1362 1187 1291 1226 0 0 0 1314 0 78 1362 1388 1635 1415 1443 1501 1388 1471 1388 1443 1415 1415 1415 1388 1388 1388 1338 1362 1291 1338 1268 1226 1247 1206 1247 1247 1268 1247 1268 1291 1291 1291 1362 1314 1338 1314 1362 1338 1314 1338 1314 1291 1247 1226 1226 1187 1168 1187 1187 1206 1226 1268 1268 1268 1362 1338 1247 1338 1338 1291 1314 1314 1314 1314 1314 1362 1291 1338 1388 1338 1338 1338 1291 1291 1314 1338 1291 1338 1314 1338 1338 1338 1362 1338 1338 1362 0 0 1268 0 0 1599 0 1533 1362 1314 1362 1338 1388 1362 1362 1388 1338 1338 1362 1314 1415 1388 1338 1443 1443 1415 1471 1471 1501 1471 1443 1565 1338 1362 0 1022 919 855 845 836 817 817 799 791 782 774 750 750 743 735 728 721 714 714 707 694 687 675 663 657 657 639 645 645 645 639 639 634 629 623 634 613 618 608 608 598 584 584 566 557 557 553 553 549 549 545 541 541 537 533 529 529 533 529 529 529 529 529 529 529 525 521 525 525 529 0 0 0 0 0
    0 0 0 0 0 0 0 0 0 0 0 0 0 0 0 0 0 0 0 0 0 0 0 0 0 0 0 0 0 0 0 0 0 0 0 0 0 0 0 0 0 0 0 0 0 0 0 0 0 0 0 0 0 0 0 0 0 0 0 0 0 0 0 0 0 0 0 0 0 1533 1672 1501 1471 1501 1565 1501 1338 1314 1362 1388 1388 1443 1388 1533 1501 0 0 0 0 0 0 0 0 0 1314 0 1314 1362 1362 1388 1388 1415 1443 1471 1501 1533 1533 1599 1635 1599 1501 1533 1471 1362 1388 1291 1291 1247 1314 1338 1314 1338 0 78 1415 1415 1672 1443 1443 1565 1415 1501 1415 1443 1415 1443 1415 1388 1362 1362 1314 1338 1291 1314 1268 1226 1268 1226 1268 1268 1268 1247 1268 1314 1291 1291 1338 1338 1362 1338 1362 1362 1338 1338 1314 1291 1268 1247 1226 1206 1187 1206 1206 1206 1226 1268 1268 1268 1338 1338 1247 1338 1314 1268 1291 1291 1291 1314 1314 1338 1268 1291 1338 1291 1268 1268 1247 1226 1268 1314 1268 1291 1291 1314 1314 1314 1362 1362 1388 1501 1388 1388 0 0 0 1752 1415 1599 1415 1291 1338 1338 1388 1362 1362 1388 1338 1338 1338 1314 1388 1362 1338 1443 1443 1415 1471 1471 1501 1471 1443 1565 1338 1338 0 1008 908 855 836 826 817 817 808 791 782 774 750 750 743 735 728 721 721 714 707 694 687 675 663 657 657 645 651 645 645 639 639 634 629 623 629 613 613 608 608 598 584 584 566 553 553 553 553 549 549 545 541 537 537 533 529 529 533 529 529 529 529 529 529 529 525 521 525 529 533 0 0 0 0 0
    0 0 0 0 0 0 0 0 0 0 0 0 0 0 0 0 0 0 0 0 0 0 0 0 0 0 0 0 0 0 0 0 0 0 0 0 0 0 0 0 0 0 0 0 0 0 0 0 0 0 0 0 0 0 0 0 0 0 0 0 0 0 0 0 0 0 0 0 0 1533 1672 1533 1471 1501 1565 1533 1338 1314 1338 1362 1388 1415 1388 1501 0 0 0 0 0 0 0 0 0 1247 0 0 1338 1362 1362 1388 1388 1415 1443 1471 1471 1501 1501 1533 1599 1533 1443 1415 1388 1362 1388 1314 1314 1268 1362 1362 1362 1362 1388 0 1443 1443 1672 1443 1443 1565 1388 1443 1388 1415 1415 1415 1388 0 1338 1314 1291 1291 1268 1268 1226 1187 1226 1187 1268 1247 1268 1268 1268 1314 1291 1291 1338 1314 1338 1338 1338 1314 1314 1338 1338 1314 1291 1268 1268 1268 1226 1226 1226 1226 1247 1268 1268 1268 1314 1314 1226 1314 1314 1247 1291 1291 1291 1291 1291 1338 1268 1291 1338 1268 1268 1291 1247 1247 1291 1291 1268 1291 1291 1291 1291 1291 1338 1338 1501 1599 1565 1565 1501 1839 1887 1887 1795 0 1672 1388 1338 1362 1415 1388 1362 1362 1314 1314 1291 1291 1362 1338 1314 1415 1443 1415 1471 1443 1501 1471 1443 1533 1314 0 0 981 897 855 836 836 817 817 808 791 782 774 750 750 735 735 728 721 721 714 707 700 687 681 663 657 657 645 651 645 645 639 634 634 623 623 629 613 613 608 603 593 584 584 566 553 557 553 553 545 545 545 537 537 537 533 529 529 533 533 533 533 529 529 529 533 525 521 525 525 533 0 0 0 0 0
    0 0 0 0 0 0 0 0 0 0 0 0 0 0 0 0 0 0 0 0 0 0 0 0 0 0 0 0 0 0 0 0 0 0 0 0 0 0 0 0 0 0 0 0 0 0 0 0 0 0 0 0 0 0 0 0 0 0 0 0 0 0 0 0 0 0 0 0 0 1533 1672 1565 1501 1501 1599 1599 1338 1314 1338 1415 1415 1471 1443 1533 0 0 0 0 0 0 0 0 0 1247 0 0 1338 1388 1362 1388 1388 1415 1443 1443 1471 1471 1471 1471 1565 1501 1415 1415 1415 1388 1388 1362 1362 1314 1388 1415 1388 1415 1415 1471 1471 1471 0 1415 1443 1599 1415 1443 1362 1415 1362 1388 1362 0 0 0 1268 1268 1247 1268 1247 1206 1247 1206 1268 1268 1291 1268 1291 1338 1338 1314 1338 1314 1338 1314 1314 1314 0 0 1314 1314 1291 1268 1268 1268 1247 1226 1226 1206 1226 1268 1268 1268 1291 1314 1206 1291 1291 1247 1291 1291 1291 1314 1314 1362 1291 1291 1362 1268 1268 1268 1247 1247 1268 1268 1268 1268 1268 1291 1268 1268 1291 1314 1501 1635 1672 1635 1599 0 1936 1936 0 0 1711 1362 1338 1362 1388 1338 1338 1338 1314 1268 1268 1291 1314 1314 1314 1415 1415 1415 1443 1443 1471 1443 1443 1501 1268 0 0 955 897 855 836 826 817 817 808 791 782 774 743 750 743 735 728 721 721 714 707 707 687 687 669 663 657 645 651 645 645 639 634 634 623 629 629 613 613 608 608 598 584 584 566 553 557 553 553 545 545 545 537 537 537 533 529 529 533 533 533 533 533 533 533 533 525 521 525 525 529 0 0 0 0 0
    0 0 0 0 0 0 0 0 0 0 0 0 0 0 0 0 0 0 0 0 0 0 0 0 0 0 0 0 0 0 0 0 0 0 0 0 0 0 0 0 0 0 0 0 0 0 0 0 0 0 0 0 0 0 0 0 0 0 0 0 0 0 0 0 0 0 0 0 0 1533 1672 1565 1501 1533 1599 1635 1362 1338 1388 1471 1471 1565 0 0 0 0 1565 0 0 0 0 0 0 1388 0 0 1388 1415 1362 1388 1388 1388 1415 1415 1443 1443 1443 1443 1533 1501 1415 1443 1443 1415 1388 1388 1415 1338 1415 1443 1415 1443 1443 1533 1501 1501 0 0 1415 1599 1415 1415 1338 1388 1338 1362 0 0 0 1268 1247 1268 1247 1268 1247 1226 1247 1226 1291 1291 1291 1291 1314 1338 1362 1362 1362 1338 1362 1338 1338 1291 1291 0 1291 1291 1268 1268 1247 1247 1247 1226 1226 1187 1206 1247 1247 1247 1291 1314 1206 1314 1314 1268 1314 1314 1314 1338 1338 1388 1314 1314 1388 1291 1268 1291 1268 1247 1268 1268 1268 1268 1268 1268 1247 1247 1268 0 1565 1752 0 1672 1338 1752 1672 0 0 0 1247 1268 1291 1314 1314 1291 1291 1314 1291 1268 1268 1268 1314 1314 1314 1388 1415 1388 1443 1415 1443 1415 1388 1443 1247 1008 981 943 897 855 836 826 817 817 808 791 782 774 750 750 743 735 728 721 721 714 714 707 694 687 669 669 663 651 657 645 645 639 639 634 623 629 629 608 613 603 603 593 579 579 566 553 557 553 553 545 545 545 537 537 537 533 529 529 533 533 533 533 533 533 533 533 525 518 525 521 529 0 0 0 0 0
    0 0 0 0 0 0 0 0 0 0 0 0 0 0 0 0 0 0 0 0 0 0 0 0 0 0 0 0 0 0 0 0 0 0 0 0 0 0 0 0 0 0 0 0 0 0 0 0 0 0 0 0 0 0 0 0 0 0 0 0 0 0 0 0 0 0 0 0 0 1501 1672 1565 1501 1533 1599 1672 1388 1415 1471 1565 1565 1599 0 0 0 0 1599 0 0 0 0 1388 1635 1471 1565 1471 1415 1443 1388 1388 1362 1388 1415 1415 1415 1415 1415 1415 1471 1443 1388 1415 1415 1415 1388 1388 1415 1338 1443 1471 1443 1443 1471 1565 1501 1501 0 0 1415 1565 1388 1362 1314 1362 1338 1338 1338 0 1268 1247 1226 1247 1226 1247 1247 1226 1247 1247 1291 1291 1314 1314 1362 1388 1388 1388 1362 1362 1388 1338 1314 1314 1314 1291 1291 1291 1268 1268 1247 1268 1247 1226 1226 1206 1206 1247 1226 1268 1268 1291 1206 1314 1314 1268 1338 1338 1314 1338 1338 1388 1338 1338 1415 1291 1291 1291 1291 1268 1291 1291 1268 1247 1247 1268 1247 1247 1268 0 1752 1887 2044 0 0 0 0 0 1247 1206 1226 1226 1247 1291 1291 1291 1291 1291 1268 1291 1268 1291 1314 1314 1314 1388 1388 1388 1388 1388 1388 1362 1362 1362 1168 994 968 943 897 855 845 836 826 826 808 799 791 774 750 758 750 743 735 728 721 721 714 707 694 687 669 669 663 651 657 645 645 639 639 634 629 629 629 613 613 603 603 593 579 574 561 553 553 553 553 549 549 545 541 537 537 533 529 529 533 529 533 533 529 529 529 529 521 518 521 521 529 0 0 0 0 0
    0 0 0 0 0 0 0 0 0 0 0 0 0 0 0 0 0 0 0 0 0 0 0 0 0 0 0 0 0 0 0 0 0 0 0 0 0 0 0 0 0 0 0 0 0 0 0 0 0 0 0 0 0 0 0 0 0 0 0 0 0 0 0 0 0 0 0 0 0 1501 1635 1599 1501 1501 1599 1672 1415 1471 1533 1672 1635 1635 0 0 0 0 0 0 0 0 0 1415 1599 1501 1599 1533 1501 1501 1415 1415 1388 1388 1443 1415 1415 1415 1415 1415 1443 1443 1388 1415 1415 1415 1388 1415 1443 1362 1443 1501 1443 1443 1501 1565 1533 1501 0 0 0 1565 0 1314 1268 1338 1314 1338 1314 1268 1247 1226 1206 1247 1226 1247 1247 1226 1268 1268 1362 1314 1362 1362 1415 1415 1415 1388 1362 1362 1388 1338 1291 1268 1268 1247 1268 1268 1268 1268 1247 1268 1247 1226 1247 1226 1226 1247 1226 1247 1247 1226 1168 1268 1268 1247 1338 1338 1338 1338 1338 1388 1338 1338 1388 1291 1268 1291 1291 1268 1268 1268 1268 1247 1247 1268 1268 1226 1247 0 0 1936 2102 0 0 0 1533 0 1268 1206 1206 1226 1247 1291 1291 1268 1268 1268 1268 1291 1268 1291 1291 1291 1291 1362 1362 1362 1362 1362 1338 1338 1338 1314 1066 981 955 931 897 865 845 836 826 826 817 799 791 782 758 766 750 750 743 735 721 721 714 707 694 687 675 669 663 651 657 645 651 639 639 639 629 634 629 613 613 603 603 593 579 579 566 553 557 557 553 549 549 549 541 541 537 533 529 529 533 529 529 533 529 529 525 529 521 518 521 521 529 0 0 0 0 0
    0 0 0 0 0 0 0 0 0 0 0 0 0 0 0 0 0 0 0 0 0 0 0 0 0 0 0 0 0 0 0 0 0 0 0 0 0 0 0 0 0 0 0 0 0 0 0 0 0 0 0 0 0 0 0 0 0 0 0 0 0 0 0 0 0 0 0 0 0 1501 1635 1599 1501 1501 1599 1635 1388 1443 0 0 0 0 0 0 0 0 0 0 0 0 0 1415 1565 1501 1599 1533 1471 1471 1388 1415 1362 1388 1415 1415 1388 1388 1415 1415 1415 1443 1388 1415 1415 1415 1415 1415 1443 1388 1471 1501 1471 1471 1501 1565 1533 1501 0 0 1388 1501 1362 1314 1268 1314 1291 1314 1314 1247 1226 1206 1206 1226 1226 1247 1247 1247 1268 1268 1388 1338 1388 1362 1415 1415 1415 1388 1338 1362 1388 1338 1291 1268 1268 1226 1268 1268 1268 1247 1247 1268 1268 1247 1268 1247 1247 1268 1247 1247 1268 1226 1149 1226 1226 1226 1314 1314 1314 1338 1338 1388 1362 1338 1388 1291 1268 1268 1268 1268 1268 1268 1268 1226 1226 1268 1247 1226 1226 0 1752 1887 2044 1936 0 0 1711 0 1291 1206 1187 1187 1226 1291 1291 1268 1291 1268 1291 1314 1291 1291 1247 1268 1268 1338 1338 1338 1338 1314 1314 1291 1268 1115 1008 968 919 908 876 855 836 826 826 817 817 808 799 791 758 766 758 750 743 743 728 728 721 714 700 687 675 675 663 657 657 645 651 639 639 639 629 634 629 608 613 598 598 588 579 579 566 557 557 557 557 549 549 545 541 537 537 533 525 529 533 529 529 529 529 529 525 529 525 521 521 521 529 0 0 0 0 0
    0 0 0 0 0 0 0 0 0 0 0 0 0 0 0 0 0 0 0 0 0 0 0 0 0 0 0 0 0 0 0 0 0 0 0 0 0 0 0 0 0 0 0 0 0 0 0 0 0 0 0 0 0 0 0 0 0 0 0 0 0 0 0 0 0 0 0 0 0 1501 1599 1599 1471 1471 1565 1635 1388 0 0 0 0 0 0 0 0 0 0 0 0 0 0 0 1415 1415 1565 1471 1415 1415 1362 1388 1338 1362 1388 1388 1388 1362 1415 1388 1415 1443 1388 1415 1415 1415 1415 1415 1443 1388 1471 1501 1471 1471 1533 1565 1501 1471 0 0 1362 1443 1338 1291 1268 1291 1268 1314 1291 1226 1226 1187 1187 1226 1226 1247 1247 1247 1268 1291 1388 1338 1362 1338 1388 1388 1388 1388 1338 1338 1362 1338 1291 1268 1268 1247 1268 1268 1268 1268 1268 1291 1268 1268 1291 1268 1291 1291 1291 1291 1291 1247 1149 1206 1206 1206 1314 1314 0 1338 1338 1415 1362 1362 1415 1314 1291 1291 1291 1268 1291 1291 1291 1247 1247 1268 1268 1226 1226 1247 1711 1839 1936 1887 1887 1936 1795 1314 1314 1206 1168 1206 1226 1268 1268 1268 1268 1268 1291 1314 1268 1291 1226 1247 1226 1314 1314 1291 1314 1268 1226 1187 1008 1008 994 955 897 886 865 845 836 826 817 817 817 808 799 791 766 774 774 766 758 743 728 728 721 714 700 694 681 675 669 663 663 651 657 645 645 645 629 634 629 608 608 598 598 584 579 579 570 557 557 557 553 549 549 545 541 537 537 533 525 525 529 529 529 529 529 529 525 533 525 525 521 521 529 0 0 0 0 0
    0 0 0 0 0 0 0 0 0 0 0 0 0 0 0 0 0 0 0 0 0 0 0 0 0 0 0 0 0 0 0 0 0 0 0 0 0 0 0 0 0 0 0 0 0 0 0 0 0 0 0 0 0 0 0 0 0 0 0 0 0 0 0 0 0 0 0 0 0 1501 1599 1635 1471 1471 1565 1635 1443 1533 0 1672 0 0 0 0 0 0 0 0 0 0 0 0 1501 1471 1672 1533 0 0 1362 1362 1338 1338 1388 1362 1362 1362 1362 1362 1388 1388 1362 1362 1388 1388 1388 1415 1443 1388 1471 1533 1501 1501 1565 1565 1501 1471 1672 1388 1362 1415 1314 1268 1247 1247 1226 1291 1291 1206 1226 1206 1206 1226 1247 1268 1268 1268 1291 1291 1388 1338 1362 1338 1362 1362 1362 1362 1314 1338 1338 1338 1268 1268 1268 1226 1247 1268 1268 1247 1247 1291 1291 1268 1314 1291 1291 1314 1314 1291 1291 1247 1132 1206 1206 1187 1314 1314 1314 1338 1362 1415 1362 1362 1388 1291 1268 1291 1268 1268 1268 1268 1291 1247 1268 1291 1291 1247 1247 1268 0 1795 0 1936 1839 1989 0 1565 1362 1226 1168 1268 1268 1291 1291 1291 1291 1268 1291 1291 1247 1268 1168 1206 1187 1226 1247 1226 1187 1132 1066 1036 994 981 968 931 876 876 855 845 836 826 817 817 817 817 808 799 774 782 782 774 766 750 728 735 721 714 700 694 681 681 669 663 663 651 657 645 645 645 634 639 629 613 613 598 598 588 584 579 570 557 561 557 557 549 553 549 541 541 537 533 525 525 529 525 529 529 529 529 525 533 529 529 521 521 525 0 0 0 0 0
    0 0 0 0 0 0 0 0 0 0 0 0 0 0 0 0 0 0 0 0 0 0 0 0 0 0 0 0 0 0 0 0 0 0 0 0 0 0 0 0 0 0 0 0 0 0 0 0 0 0 0 0 0 0 0 0 0 0 0 0 0 0 0 0 0 0 0 0 0 1501 1599 1635 1471 1471 1565 1672 1501 1533 1672 0 0 0 0 0 0 0 0 0 0 0 0 0 0 1599 0 0 0 0 1388 1388 0 1338 1388 1362 1362 1338 1362 1362 1362 1388 1362 1362 1388 1388 1388 1443 1471 1415 1471 1533 1501 1533 1565 1565 1501 1471 1672 1388 1362 1443 1338 1291 1268 1247 1206 1268 1268 1206 1226 1206 1206 1226 1268 1291 1291 1291 1338 1338 1415 1338 1362 1338 1362 1362 1362 1362 1314 1338 1338 1338 1268 1268 1247 1226 1247 1268 1247 1247 1247 1291 1291 1268 1314 1291 1291 1314 1314 1314 1314 1268 1132 1206 1206 1206 1338 1338 1314 1338 1362 1415 1388 1362 1388 1314 1291 1291 1291 1291 1291 1291 1314 1291 1291 1314 1362 1291 1268 1314 0 1795 0 1936 1795 1936 0 0 1415 1291 1187 1314 1314 1291 1291 1291 1291 1291 1291 1291 1247 1226 1115 1132 1115 1132 1168 1115 1051 1036 1022 994 981 968 955 931 886 876 865 845 845 836 826 826 826 817 817 808 791 791 791 782 774 750 728 735 721 714 707 694 681 681 669 669 669 651 657 645 645 645 634 639 629 618 613 603 603 588 584 579 574 557 561 557 557 549 553 549 541 541 537 533 525 529 529 529 529 529 529 533 529 533 533 529 525 525 525 0 0 0 0 0
    0 0 0 0 0 0 0 0 0 0 0 0 0 0 0 0 0 0 0 0 0 0 0 0 0 0 0 0 0 0 0 0 0 0 0 0 0 0 0 0 0 0 0 0 0 0 0 0 0 0 0 0 0 0 0 0 0 0 0 0 0 0 0 0 0 0 0 0 0 1501 1565 1635 1471 1471 1565 1672 1501 0 0 0 0 0 0 0 0 0 0 0 0 0 0 0 0 1599 0 0 0 0 0 0 0 0 1362 1362 1338 1338 1362 1362 1362 1388 1362 1388 1388 1388 1415 1443 1471 1415 1471 1533 1501 1501 1565 1565 1501 1501 1672 1443 1415 1501 1388 1338 1314 1268 1247 1291 1291 1247 1247 1226 1226 1247 1291 1314 1314 1314 1362 1388 1415 1362 1362 1314 1338 1362 1362 1362 1314 1338 1362 1338 1268 0 0 1206 1247 1268 1247 1226 1226 1291 1268 1268 1338 1291 1291 1338 1338 1338 1338 1291 1132 1206 1206 1206 1338 1338 1338 1338 1362 1415 1388 1362 1415 1314 1314 1291 1314 1314 1314 1314 1338 1314 1314 1362 1443 1291 1314 1362 1501 0 0 1936 1795 1936 1795 1501 1388 1291 1206 1314 1338 1314 1314 1314 1314 1314 1314 1314 1247 1187 1115 1098 1082 1066 1066 1036 1008 994 994 981 955 955 943 931 897 886 865 845 845 836 826 826 826 826 817 808 799 799 799 782 782 750 728 728 721 714 707 694 687 687 675 669 669 645 657 645 645 645 634 639 634 618 613 598 598 588 584 579 574 557 561 561 557 549 553 549 545 541 541 533 525 529 529 529 529 529 529 533 529 533 537 533 529 529 529 0 0 0 0 0
    0 0 0 0 0 0 0 0 0 0 0 0 0 0 0 0 0 0 0 0 0 0 0 0 0 0 0 0 0 0 0 0 0 0 0 0 0 0 0 0 0 0 0 0 0 0 0 0 0 0 0 0 0 0 0 0 0 0 0 0 0 0 0 0 0 0 0 0 0 1533 1565 1672 1471 1471 1533 1635 0 0 0 0 0 0 0 0 0 0 0 0 0 0 0 0 1501 1533 1599 0 0 0 0 0 0 0 1338 1338 1338 1338 1362 1362 1362 1388 1388 1388 1415 1388 1415 1443 1443 1415 1471 1533 1501 1501 1599 1565 1533 1501 1711 1471 1443 1565 1415 1362 1362 1314 1314 1338 1338 1291 1268 1268 1291 1268 1338 1338 1338 1362 1388 1443 1443 1362 1362 1314 1338 1338 1362 1338 1314 1338 1338 1338 1291 0 0 1206 1247 1268 1247 1226 1226 1291 1268 1268 1362 1314 1314 1362 1362 1338 1338 1291 1132 1206 1226 1226 1362 1362 1338 1362 1362 1415 1388 1362 1388 1314 1314 1291 1314 1314 1314 1314 1338 1314 1314 1338 1443 1314 1291 1314 0 0 0 0 0 0 0 0 0 1314 1247 1338 1362 1338 1362 1362 1338 1314 1291 1268 1206 1149 1098 1082 1066 1051 1036 1008 994 981 981 955 955 943 943 931 908 897 876 855 855 845 836 836 836 826 817 817 808 799 799 791 791 758 728 735 728 714 707 694 687 687 675 669 669 651 657 645 645 645 634 645 634 618 613 598 598 588 584 574 574 557 561 561 557 553 553 549 549 545 541 537 525 529 529 529 529 529 529 533 529 533 537 533 529 529 533 0 0 0 0 0
    0 0 0 0 0 0 0 0 0 0 0 0 0 0 0 0 0 0 0 0 0 0 0 0 0 0 0 0 0 0 0 0 0 0 0 0 0 0 0 0 0 0 0 0 0 0 0 0 0 0 0 0 0 0 0 0 0 0 0 0 0 0 0 0 0 0 0 0 0 1533 1565 1672 1471 1471 1533 1635 0 0 0 0 0 0 0 0 0 0 0 0 0 0 0 1415 1471 1501 1533 0 0 0 0 0 0 0 1338 1314 1338 1362 1362 1388 1362 1388 1388 1388 1415 1388 1415 1443 1443 1415 1471 1501 1471 1501 1599 1565 1533 1533 1711 1533 1471 1599 1443 1362 1388 1314 1338 1338 1338 1314 1291 1291 1291 1291 1338 1314 1338 1338 1362 1388 1388 1338 1338 1291 1314 1314 1338 1338 1314 1314 1338 1362 1291 0 0 0 1247 0 1247 1247 1247 0 1268 1268 1388 1362 1362 1388 1388 1362 1362 1314 1149 1247 1247 1247 1362 1362 1362 1362 1388 1415 1388 1388 1415 1314 1314 1291 1314 1314 1314 1314 1338 1338 1314 1338 1471 1314 1314 0 0 0 0 0 0 0 0 0 1226 1291 1268 1338 1362 1362 1388 1362 1314 1291 1268 1247 1187 1132 1115 1066 1051 1051 1022 1008 981 968 968 955 943 943 931 919 919 908 886 855 865 855 845 845 845 826 826 817 817 799 799 791 791 758 735 735 728 714 707 694 687 687 675 669 669 651 657 651 645 651 634 645 634 618 613 598 598 588 584 574 570 557 561 561 557 553 553 553 549 545 545 537 529 529 529 529 529 529 529 533 529 533 533 537 529 533 533 0 0 0 0 0
    0 0 0 0 0 0 0 0 0 0 0 0 0 0 0 0 0 0 0 0 0 0 0 0 0 0 0 0 0 0 0 0 0 0 0 0 0 0 0 0 0 0 0 0 0 0 0 0 0 0 0 0 0 0 0 0 0 0 0 0 0 0 0 0 0 0 0 0 0 1533 1533 1672 1471 1471 1501 1635 0 0 0 0 0 0 0 0 0 0 0 0 0 0 1415 1415 1471 1533 0 0 0 0 1415 0 0 0 1362 1314 1362 1388 1388 1388 1388 1415 1415 1415 1443 1388 1415 1443 1443 1415 1471 1501 1501 1501 1599 1565 1533 1533 1711 1533 1471 1565 1471 1415 1415 1338 1362 1388 1362 1338 1338 1314 1314 1291 1362 1338 1338 1362 1388 1362 1388 1338 1314 1291 1268 1291 1291 1314 1291 1314 1338 1362 1291 1314 0 1247 1268 1291 1268 1247 1247 1314 1291 1314 1415 1388 1388 1388 1415 1362 1362 1314 1187 1268 1268 1268 1388 1388 1362 1388 1415 1443 1388 1388 1415 1314 1314 1291 1314 1314 1314 1314 1314 1338 1338 1362 1501 1362 1314 0 0 0 0 0 0 0 0 0 1206 1247 1247 1338 1362 1362 1362 1362 1314 1268 1247 1226 1168 1132 1115 1082 1066 1066 1036 1022 994 994 994 968 943 955 943 919 919 919 886 865 876 865 845 845 845 826 826 817 817 808 799 791 791 758 735 735 728 714 707 700 687 687 675 675 669 651 657 651 645 651 634 645 629 618 613 603 598 593 588 584 574 561 561 561 557 553 553 553 549 545 545 537 529 533 529 529 529 529 529 533 529 533 537 537 529 529 533 0 0 0 0 0
    0 0 0 0 0 0 0 0 0 0 0 0 0 0 0 0 0 0 0 0 0 0 0 0 0 0 0 0 0 0 0 0 0 0 0 0 0 0 0 0 0 0 0 0 0 0 0 0 0 0 0 0 0 0 0 0 0 0 0 0 0 0 0 0 0 0 0 0 0 1501 1533 1672 1471 1443 1501 1635 1501 1415 0 0 0 0 0 0 0 0 0 0 1291 1314 1388 1388 1443 1415 0 1471 1338 0 0 0 0 0 0 1314 1415 1415 1415 1415 1415 1415 1415 1415 1443 1388 1415 1443 1443 1415 1471 1501 1501 1471 1565 1565 1533 1501 1672 1501 1471 1533 1533 1415 1471 1338 1388 1415 1388 1362 1362 1338 1362 1338 1388 1362 1362 1362 1388 1388 1388 1338 1268 1268 1247 1247 1268 1291 1268 1291 1314 1362 1314 1338 1314 1268 1291 1291 1268 1268 1268 1338 1291 1291 1415 1362 1362 1388 1388 1362 1388 1314 1226 1314 1314 1314 1415 1415 1388 1415 1415 1471 1415 1415 1443 1338 1338 1338 1314 1338 1314 1314 1338 1362 1338 1362 1471 1362 0 0 0 0 0 0 0 0 0 0 1226 1247 1291 1362 1362 1362 1362 1338 1291 1268 1247 1226 1168 1149 1132 1098 1082 1082 1051 1036 1022 1022 1008 981 955 968 943 919 931 919 897 865 876 876 855 845 845 826 826 817 817 808 799 791 799 766 735 735 728 714 714 700 694 687 675 675 669 651 663 651 651 651 634 645 629 618 613 603 598 593 588 584 574 561 561 561 557 557 553 553 549 545 545 537 529 533 529 529 529 529 529 529 529 533 537 533 529 529 529 0 0 0 0 0
    0 0 0 0 0 0 0 0 0 0 0 0 0 0 0 0 0 0 0 0 0 0 0 0 0 0 0 0 0 0 0 0 0 0 0 0 0 0 0 0 0 0 0 0 0 0 0 0 0 0 0 0 0 0 0 0 0 0 0 0 0 0 0 0 0 0 0 0 0 1501 1533 1672 1471 1443 1533 1711 1672 1443 0 0 0 1187 0 1206 1226 0 0 1247 1291 1291 1362 1362 1415 1388 0 1443 1338 0 0 0 0 0 0 0 1471 1471 1415 1415 1415 1415 1415 1415 1443 1388 1415 1471 1471 1415 1501 1501 1501 1471 1565 1565 1533 1501 1672 1471 1471 1533 1565 1415 1533 1362 1415 1415 1443 1388 1388 1362 1388 1362 1388 1388 1388 1388 1388 1388 1415 1338 1268 1268 1247 1247 1268 1291 1268 1314 1314 1388 1314 1362 1338 1291 1314 1314 1291 1268 1291 1338 1291 1291 1362 1291 1291 1314 1338 1338 1362 1338 1268 1362 1362 1338 1443 1443 1415 1415 1415 1471 1415 1415 1443 1338 1338 1338 1338 1362 1338 1338 1338 1362 1362 1362 1471 1338 0 0 0 0 0 0 0 0 0 0 1247 1314 1338 1443 1388 1388 1362 1338 1291 1268 1247 1226 1187 1149 1132 1098 1082 1082 1051 1051 1036 1022 1022 994 955 968 955 919 931 919 897 865 886 886 855 855 855 826 0 826 826 808 799 791 799 766 735 735 728 714 707 0 694 687 669 675 669 651 657 651 651 651 639 645 629 623 618 608 603 598 593 588 579 566 566 566 557 557 557 553 553 549 549 537 533 533 529 529 529 529 529 529 529 533 537 533 525 529 529 0 0 0 0 0
    0 0 0 0 0 0 0 0 0 0 0 0 0 0 0 0 0 0 0 0 0 0 0 0 0 0 0 0 0 0 0 0 0 0 0 0 0 0 0 0 0 0 0 0 0 0 0 0 0 0 0 0 0 0 0 0 0 0 0 0 0 0 0 0 0 0 0 0 0 1501 1565 1672 1501 1471 1565 1795 1887 0 0 0 0 0 0 1206 1226 0 0 0 1291 1314 1388 1362 1415 1388 0 1501 0 0 0 0 0 0 0 0 1533 1533 1415 1415 1415 1415 1415 1415 1471 1415 1415 1471 1501 1415 1501 1501 1501 1471 1565 1565 1533 1533 1672 1501 1501 1565 1635 1471 1599 1388 1443 1471 1471 1443 1415 1388 1415 1388 1415 1415 1388 1388 1415 1388 1443 1314 1268 1268 1268 1268 1291 1291 1291 1314 1338 1362 1338 1362 1362 1314 1314 1338 1291 1291 1291 1338 1268 1268 1314 1291 0 0 1314 1338 1362 1338 1291 1415 1415 1362 1471 1471 1443 1415 1415 1471 1415 1415 1443 1338 1314 1314 1338 1338 1291 1291 1291 1314 1314 1338 1415 1314 1268 0 0 0 0 0 4599 0 0 0 0 1314 1415 1533 1443 1443 1388 1338 1291 1268 1247 1226 1187 1168 1132 1115 1098 1098 1066 1051 1036 1036 1022 1008 968 981 968 931 943 931 908 876 886 897 855 855 855 826 0 826 826 808 799 791 799 766 735 735 728 714 714 0 694 687 669 675 669 651 657 651 651 651 639 651 629 629 623 613 608 603 598 593 584 566 570 566 557 561 557 557 553 549 549 537 533 533 529 525 529 525 529 529 529 533 537 533 525 529 529 0 0 0 0 0
    0 0 0 0 0 0 0 0 0 0 0 0 0 0 0 0 0 0 0 0 0 0 0 0 0 0 0 0 0 0 0 0 0 0 0 0 0 0 0 0 0 0 0 0 0 0 0 0 0 0 0 0 0 0 0 0 0 0 0 0 0 0 0 0 0 0 0 0 0 1501 1565 1672 1501 1471 1565 1839 2102 0 0 0 0 0 0 0 0 0 0 0 1291 1291 1388 1338 1388 1314 0 0 1415 0 0 0 0 0 0 0 1565 1599 1443 1415 1471 1471 1501 1471 1533 1471 1443 1533 1533 1415 1533 1501 1533 1471 1565 1565 1533 1533 1672 1533 1533 1599 1672 1501 1599 1443 1471 1501 1565 1501 1415 1388 1443 1388 1443 1415 1415 1388 1388 1415 1443 1314 1291 1291 1268 1291 1291 1314 1314 1338 1388 1388 1362 1388 1388 1338 1338 1338 1314 1314 1314 1314 1247 1247 1291 1268 0 0 1314 1338 1388 1362 1314 1415 1415 1362 1471 1471 1443 1415 1443 1501 1443 1443 1501 1362 1338 1338 1362 1338 1314 1314 1314 1314 1291 1314 1338 1291 1268 0 0 0 0 4906 5256 5256 5661 0 0 0 1471 1599 1501 1471 1388 1338 1268 1268 1247 1206 1187 1168 1149 1115 1115 1115 1066 1051 1051 1022 1022 1008 968 981 968 931 943 931 919 876 897 897 865 855 865 826 0 826 826 808 799 791 799 766 735 735 728 714 714 0 0 687 669 675 669 651 657 651 651 651 645 657 634 639 629 613 608 603 593 588 584 566 570 570 557 561 557 557 557 549 549 537 533 533 529 525 525 525 529 529 529 533 533 533 525 525 529 0 0 0 0 0
    0 0 0 0 0 0 0 0 0 0 0 0 0 0 0 0 0 0 0 0 0 0 0 0 0 0 0 0 0 0 0 0 0 0 0 0 0 0 0 0 0 0 0 0 0 0 0 0 0 0 0 0 0 0 0 0 0 0 0 0 0 0 0 0 0 0 0 0 0 1501 1533 1672 1471 1443 1533 0 0 0 0 0 0 0 0 0 0 0 0 0 1291 1291 1362 1314 1338 1291 1291 0 0 0 0 0 0 0 0 0 1533 1565 1443 1443 1471 1471 1501 1471 1533 1471 1443 1533 1533 1415 1501 1501 1533 1471 1533 1565 1533 1533 1672 1501 1501 1565 1672 1471 1599 1471 1501 1533 1599 1565 1443 1415 1471 1415 1443 1443 1388 1388 1388 1443 1415 1291 1268 1291 1291 1314 1314 1314 1314 1338 1415 1388 1388 1443 1415 1362 1362 1362 1338 1338 1362 1314 1247 1247 1291 0 0 1314 1314 1362 1415 1362 1338 1415 1415 1362 1471 1471 1443 1415 1443 1501 1471 1443 1565 1388 1362 1362 1362 1338 1314 1268 1268 1291 1268 0 1291 1268 1247 0 0 0 0 6133 6690 0 0 0 0 0 1565 1635 1565 1533 1415 1314 1247 1247 1226 1206 1187 1187 1168 1132 1132 1115 1066 1051 1051 1022 1022 1008 981 981 968 931 943 931 919 886 897 908 865 855 865 826 0 826 826 799 791 782 799 766 735 735 728 714 714 0 0 687 669 675 669 651 657 657 651 651 645 663 634 639 623 613 608 598 593 588 588 566 570 570 561 566 561 557 557 553 549 537 533 533 529 525 525 525 525 529 533 533 533 533 525 525 525 0 0 0 0 0
    0 0 0 0 0 0 0 0 0 0 0 0 0 0 0 0 0 0 0 0 0 0 0 0 0 0 0 0 0 0 0 0 0 0 0 0 0 0 0 0 0 0 0 0 0 0 0 0 0 0 0 0 0 0 0 0 0 0 0 0 0 0 0 0 0 0 0 0 0 1471 1533 1635 1443 1415 1471 0 0 0 0 0 0 0 0 0 0 0 0 0 1291 1291 1362 1314 1314 1268 1268 0 1291 0 0 0 0 0 1415 1415 1533 1565 1443 1443 1501 1501 1501 1471 1501 1471 1443 1533 1565 1415 1533 1501 1565 1471 1533 1565 1533 1501 1672 1501 1471 1533 1672 1415 1501 1415 1471 1501 1533 1565 1415 1415 1471 1443 1443 1443 1415 1388 1388 1443 1415 1291 1291 1314 1314 1338 1338 1362 1338 1362 1415 1388 1388 1443 1415 1388 1388 1362 1362 1362 1388 1314 1247 1247 1291 1291 1291 1314 1314 1362 1443 1362 1338 1415 1415 1362 1443 1471 1443 1415 1443 1501 1471 1443 1565 1388 1338 1338 1362 1314 1268 1247 1247 1268 1247 1268 1268 1268 1226 1206 1206 1187 0 0 0 0 0 0 1338 1443 1635 1672 1599 1565 1415 1314 1247 1247 1226 1187 1187 1187 1168 1132 1132 1115 1066 1051 1051 1022 1022 1022 981 981 981 931 955 943 931 886 908 919 865 865 876 836 0 0 0 799 791 782 799 766 735 735 728 721 714 0 0 687 675 0 669 657 663 657 651 657 651 663 634 645 623 613 613 603 598 598 593 570 574 574 561 566 561 557 557 553 549 537 533 533 525 525 525 525 525 529 533 533 533 529 525 525 525 0 0 0 0 0
    0 0 0 0 0 0 0 0 0 0 0 0 0 0 0 0 0 0 0 0 0 0 0 0 0 0 0 0 0 0 0 0 0 0 0 0 0 0 0 0 0 0 0 0 0 0 0 0 0 0 0 0 0 0 0 0 0 0 0 0 0 0 0 0 0 0 0 0 0 1471 1533 1635 1443 1415 1471 0 0 0 0 0 0 0 0 0 0 0 0 1314 1291 1314 1362 1314 1314 1268 1268 0 0 0 0 0 0 1415 1415 1443 1533 1533 1443 1443 1501 1501 1501 1443 1501 1471 1443 1533 1565 1415 1501 1533 1565 1471 1501 1533 1501 1501 1672 1471 1471 1471 1672 1388 1415 1362 1415 1443 1501 1501 1415 1415 1471 1443 1443 1443 1415 1388 1388 1443 1388 1268 1314 1338 1338 1362 1388 1388 1388 1388 1471 1388 1415 1471 1443 1415 1388 1388 1388 1415 1443 1314 1247 1247 1291 1291 1314 1338 1314 1388 1443 1362 1362 1388 1388 1338 1443 1443 1415 1388 1415 1501 1471 1471 1599 1388 1338 1338 1388 1314 1268 1268 1268 1247 1247 1291 1268 1268 1291 1268 1268 1247 1268 0 0 0 0 0 1362 1471 1635 1672 1565 1533 1362 1314 1226 1247 1226 1187 1187 1187 1168 1115 1132 1115 1066 1051 1051 1022 1022 1022 981 994 981 931 955 943 931 886 908 919 876 865 876 836 0 0 0 799 791 782 799 766 735 735 728 714 721 0 0 687 675 0 669 663 663 663 657 657 651 669 634 651 623 618 613 608 603 603 593 574 574 574 561 566 561 557 557 553 549 537 533 529 525 521 525 525 525 529 533 533 533 529 525 525 521 0 0 0 0 0
    0 0 0 0 0 0 0 0 0 0 0 0 0 0 0 0 0 0 0 0 0 0 0 0 0 0 0 0 0 0 0 0 0 0 0 0 0 0 0 0 0 0 0 0 0 0 0 0 0 0 0 0 0 0 0 0 0 0 0 0 0 0 0 0 0 0 0 0 0 1501 1533 1635 1443 1415 1471 0 0 0 0 0 0 0 0 0 0 1415 1338 1291 1268 0 0 1291 1268 1206 1206 0 0 0 0 0 1388 1415 1443 1471 1565 1533 1471 1443 1501 1501 1501 1443 1501 1501 1471 1533 1565 1415 1533 1533 1599 1471 1501 1533 1501 1501 1672 1471 1443 1471 1635 1362 1388 1362 1415 1471 1471 1471 1388 1415 1501 1471 1501 1501 1471 1443 1443 1533 1471 1291 1362 1362 1362 1388 1415 1415 1415 1415 1501 1388 1471 1471 1471 1443 1415 1415 1388 1471 1471 1291 1247 1247 1268 1291 1314 1314 1314 1388 1443 1362 1362 1338 1362 1338 1415 1415 1388 1362 1388 1443 1443 1443 1565 1338 0 1338 1362 1291 1247 1247 1247 1247 1268 1291 1291 1338 1362 1362 1362 1314 1314 1362 0 1599 1415 1388 1443 1501 1635 1672 1565 1533 1338 1268 1226 1247 1226 1187 1187 1187 1149 1115 1132 1098 1066 1051 1051 1008 1022 1022 981 994 981 931 955 943 931 897 908 919 876 865 876 826 0 0 0 799 782 774 799 766 735 735 721 714 721 0 0 687 675 681 669 663 663 663 657 663 657 669 634 651 618 618 613 608 608 603 598 579 579 579 561 566 557 557 553 549 549 537 533 529 525 525 525 525 525 525 533 529 533 525 521 521 521 0 0 0 0 0
    0 0 0 0 0 0 0 0 0 0 0 0 0 0 0 0 0 0 0 0 0 0 0 0 0 0 0 0 0 0 0 0 0 0 0 0 0 0 0 0 0 0 0 0 0 0 0 0 0 0 0 0 0 0 0 0 0 0 0 0 0 0 0 0 0 0 0 0 0 1501 1533 1635 1443 1415 1443 0 0 0 0 0 4088 0 0 0 1711 1471 1362 1314 1268 1268 0 1268 1247 1206 1206 0 1268 0 0 0 1362 1388 1415 1471 1533 1501 1443 1443 1501 1501 1471 1471 1501 1501 1501 1565 1565 1415 1533 1533 1599 1471 1501 1501 1501 1501 1672 1471 1443 1471 1672 1338 1338 1388 1415 1501 1533 1471 1388 1443 1533 1533 1501 0 1471 1443 1443 1599 1471 1291 1362 1362 1388 1388 1415 1443 1415 1443 1533 1415 1471 1471 1443 1415 1388 1388 1362 1443 1415 1268 1247 1247 1268 1291 1291 1338 1314 1415 1443 1362 1338 0 1314 1314 1388 1388 1362 1362 1388 1415 1443 1443 88 88 88 88 1314 1268 1226 1226 1226 1247 1268 1291 1291 1338 1362 1362 1362 1338 1338 1362 1388 1501 1415 1415 1443 1501 1599 1635 1565 1533 1338 1268 1226 1247 1226 1168 1187 1187 1168 1115 1132 1098 1066 1036 1051 1008 1022 1022 994 994 981 931 955 943 931 897 908 919 876 865 876 836 0 0 0 799 782 774 799 766 735 743 728 714 721 0 0 687 675 681 669 663 669 663 663 663 663 675 639 657 623 618 618 613 608 608 603 584 579 584 566 566 557 557 553 549 545 533 533 529 529 525 525 525 525 529 533 529 529 521 521 521 521 0 0 0 0 0
    0 0 0 0 0 0 0 0 0 0 0 0 0 0 0 0 0 0 0 0 0 0 0 0 0 0 0 0 0 0 0 0 0 0 0 0 0 0 0 0 0 0 0 0 0 0 0 0 0 0 0 0 0 0 0 0 0 0 0 0 0 0 0 0 0 0 0 0 0 1501 1533 1672 1443 1415 1471 0 0 0 0 0 3345 0 0 0 1795 1599 1501 1362 1291 0 0 1268 1247 1206 1206 0 0 0 0 0 1362 1388 1415 1471 1501 1471 1443 1443 1501 1501 1471 1471 1471 1501 1501 1565 1565 1388 1533 1565 1599 1471 1501 1501 1501 1501 1672 1471 1471 1471 1672 1362 1415 1565 1533 1599 1599 1471 1388 1471 1565 1533 1471 1501 1471 1443 1471 1565 1415 1314 1388 1388 1388 1388 1443 1443 1415 1443 1471 1388 1471 1443 1415 1388 1388 1362 1362 1443 1388 1268 1247 1268 1268 1291 1314 1388 1338 1443 1443 1338 1338 1247 1291 1268 1362 1362 1362 1338 1362 1388 1443 1443 88 88 0 0 1291 1247 1206 1206 1206 1226 1268 1314 1314 1338 1362 1338 1362 1338 1338 1314 1338 1388 1362 1362 1415 1471 1565 1565 1533 1501 1338 1268 1226 1247 1226 1168 1187 1187 1168 1132 1132 1098 1066 1051 1051 1008 1008 1022 994 994 981 931 955 943 931 897 919 919 876 865 876 836 0 0 0 799 782 774 799 766 735 743 728 714 714 0 0 681 669 675 669 663 669 663 663 657 663 675 639 663 623 618 618 613 608 608 603 588 584 584 566 570 561 557 553 549 545 537 533 529 529 525 525 525 525 529 533 529 529 525 521 521 521 0 0 0 0 0
    0 0 0 0 0 0 0 0 0 0 0 0 0 0 0 0 0 0 0 0 0 0 0 0 0 0 0 0 0 0 0 0 0 0 0 0 0 0 0 0 0 0 0 0 0 0 0 0 0 0 0 0 0 0 0 0 0 0 0 0 0 0 0 0 0 0 0 0 0 1501 1501 1672 1471 1443 1471 0 0 0 0 3066 3066 2537 2102 0 1795 1672 1599 1415 1314 0 0 1291 1291 1247 0 0 0 0 0 0 0 0 1415 1471 1501 1443 1443 1443 1501 1471 1443 1471 1471 1471 1501 1565 1565 1388 1533 1565 1565 1471 1533 1501 1501 1501 1672 1501 1501 1501 1635 1415 1533 1711 1672 1711 1752 1471 1415 1533 1565 1533 1471 1501 1471 1443 1471 1533 1362 1338 1388 1388 1388 1388 1415 1443 1415 1443 1443 1388 1471 1443 1415 1362 1362 1362 1362 1443 1362 1268 1247 1291 1291 1338 1362 1443 1362 1471 1443 1314 1338 1187 1247 1247 1338 1362 1338 1338 1362 1388 1443 1443 88 88 0 0 1291 1226 1187 1206 1206 1226 1268 1291 1314 1338 1362 1338 1338 1314 1314 1291 1291 1291 1247 1291 1338 1388 1443 1443 1443 1415 1314 1247 1226 1247 1226 1149 1187 1187 1168 1132 1132 1098 1066 1051 1051 1008 1022 1022 994 994 981 931 955 943 931 897 919 919 876 865 876 836 826 0 0 791 782 774 791 758 735 743 728 714 714 700 700 681 669 675 669 663 663 663 663 657 663 675 645 663 623 618 618 613 608 608 603 588 584 584 570 570 561 557 553 549 545 537 533 533 529 529 529 525 525 529 533 529 529 525 525 521 525 0 0 0 0 0
    0 0 0 0 0 0 0 0 0 0 0 0 0 0 0 0 0 0 0 0 0 0 0 0 0 0 0 0 0 0 0 0 0 0 0 0 0 0 0 0 0 0 0 0 0 0 0 0 0 0 0 0 0 0 0 0 0 0 0 0 0 0 0 0 0 0 0 0 0 1501 1501 1672 1471 1443 1471 0 0 0 0 2725 2299 2044 1936 1839 1711 1635 1565 1415 1314 1314 1314 1314 1314 1291 0 0 0 0 0 0 0 0 1415 1471 1471 1443 1443 1443 1501 1471 1443 1471 1471 1471 1471 1533 1533 1388 1533 1565 1565 0 0 1533 1501 1501 1672 1501 1471 1501 1565 1388 1501 1752 1752 1752 1752 1415 1415 1533 1565 1533 1443 1471 1471 1443 1471 1533 1338 1338 1388 1388 1388 1388 1415 1443 1415 1443 1415 1415 1471 1415 0 1362 1362 0 1338 1415 1314 1247 1247 1291 1291 1314 1338 1443 1388 1443 1443 1291 1314 1149 1247 1226 1338 1338 1338 1338 1362 1388 1471 1471 88 0 0 0 1291 1226 1187 1206 1226 1247 1268 1291 1314 1338 1362 1338 1338 1314 1314 1291 1268 1226 1206 1187 1314 1362 1388 1362 1388 1388 1314 1247 1226 1247 1206 1149 1168 1168 1149 1132 1132 1098 1066 1051 1051 1022 1022 1022 994 994 981 931 955 943 931 897 919 919 876 865 876 826 826 817 0 791 774 774 791 750 735 743 728 714 714 700 694 681 669 675 663 663 663 663 657 657 663 675 645 0 618 618 613 613 608 603 603 588 584 584 570 566 557 557 549 549 545 537 533 533 529 529 529 525 525 529 529 525 529 525 525 521 525 0 0 0 0 0
    0 0 0 0 0 0 0 0 0 0 0 0 0 0 0 0 0 0 0 0 0 0 0 0 0 0 0 0 0 0 0 0 0 0 0 0 0 0 0 0 0 0 0 0 0 0 0 0 0 0 0 0 0 0 0 0 0 0 0 0 0 0 0 0 0 0 0 0 0 1501 1501 1672 1471 1443 1501 0 0 0 0 0 0 0 1839 1672 1672 1599 1599 1471 1388 1388 1338 1338 1338 1314 1338 1338 0 1362 0 0 0 0 1443 1471 1471 1443 1443 1471 1501 1471 1443 1471 1471 1471 1471 1533 1533 1388 1533 1565 1565 79 0 1533 1501 1501 1672 1501 1501 1501 1533 1388 1565 1752 1795 1795 1711 1388 1415 1533 1565 1501 1443 1471 1471 1443 1501 1501 1338 1362 1388 1388 1388 1388 1415 1415 1415 1443 1415 1415 1471 1415 0 1362 1362 1362 1362 1415 1291 1268 1268 1291 1314 1314 1338 1415 1388 1415 1415 1291 1314 1132 1247 1226 1338 1338 1338 1338 1362 1388 1471 1471 1565 1362 0 1388 1314 1247 1206 1226 1226 1247 1268 1268 1291 1314 1338 1338 1338 1314 1314 1291 1291 1268 1247 1247 1314 1362 1388 1362 1362 1362 1314 1247 1226 1247 1226 1149 1168 1168 1168 1132 1132 1098 1066 1051 1066 1022 1022 1022 994 1008 981 919 955 943 931 897 908 919 876 865 876 826 826 817 817 791 774 774 791 750 735 735 721 714 707 700 694 675 669 675 663 663 663 663 657 651 663 669 645 0 613 613 613 613 608 608 603 588 584 584 570 566 557 557 549 549 545 537 533 529 529 529 525 525 525 529 529 521 525 521 521 521 521 0 0 0 0 0
    0 0 0 0 0 0 0 0 0 0 0 0 0 0 0 0 0 0 0 0 0 0 0 0 0 0 0 0 0 0 0 0 0 0 0 0 0 0 0 0 0 0 0 0 0 0 0 0 0 0 0 0 0 0 0 0 0 0 0 0 0 0 0 0 0 0 0 0 0 1533 1533 1711 1501 1471 1533 0 0 0 0 0 0 0 1795 1533 1565 1533 1565 1443 1415 1388 1362 1338 1362 1314 1338 1362 1362 1362 0 0 0 0 1443 1471 1443 1415 1443 1471 1501 1443 1443 1471 1471 1471 1471 1533 1501 1388 1565 1599 1565 0 1565 1533 1501 1501 1672 1501 1501 1501 1533 1443 1635 1752 0 1795 1635 1388 1443 1533 1533 1471 1415 1443 1471 1443 1501 1443 1338 1362 1388 1362 1362 1362 1388 1415 1415 1415 1415 1415 1443 1415 0 1362 1362 1362 1388 1415 1291 1268 1268 1314 1314 1314 1314 1338 1338 1338 1362 1268 1314 1132 1247 1247 1338 1338 1338 1362 1388 1388 1501 1471 1533 1362 1362 1443 1291 1247 1226 1247 1247 1268 1291 1268 1291 1338 1362 1338 1338 1338 1362 1338 1338 1314 1291 1291 1338 1362 1362 1362 1362 1362 1314 1247 1226 1247 1226 1149 1187 1168 1168 1149 1115 1098 1082 1066 1082 1036 1036 1036 1008 1008 981 908 943 943 919 886 908 908 876 855 865 826 826 817 817 791 782 774 791 750 735 735 721 714 707 694 694 675 663 669 663 663 663 663 657 651 663 669 651 663 613 613 608 608 608 603 598 588 579 584 570 566 557 553 549 545 541 537 533 529 529 529 525 525 521 525 525 518 525 521 521 521 525 0 0 0 0 0
    0 0 0 0 0 0 0 0 0 0 0 0 0 0 0 0 0 0 0 0 0 0 0 0 0 0 0 0 0 0 0 0 0 0 0 0 0 0 0 0 0 0 0 0 0 0 0 0 0 0 0 0 0 0 0 0 0 0 0 0 0 0 0 0 0 0 0 0 0 1533 1533 1711 1533 1533 1599 2230 2102 0 0 0 0 0 1711 1501 1533 1501 1565 1443 1443 1362 1338 1338 1338 1314 1338 1338 1362 1338 0 0 1338 1388 1443 1471 1443 1415 1471 1501 1501 1443 1443 1471 1471 1471 1471 1501 1501 1388 1565 1599 1533 1471 0 1533 1501 1501 1672 1501 1501 1501 1533 1501 1711 0 0 0 1599 1415 1501 1565 1533 1471 1415 1443 1471 1471 1533 1443 1338 1362 1362 1362 1362 1362 1388 1388 1388 1415 1388 1415 1443 1415 0 1362 1362 1362 1415 1388 1291 1268 1268 1338 1314 1314 1291 1338 1314 1338 1338 1247 1291 1132 1268 1268 1362 1362 1338 1388 1388 1415 1533 1471 1533 1362 1362 1471 1291 1226 1206 1226 1226 1268 1291 1291 1314 1362 1362 0 0 1388 1362 1338 1314 1268 1247 1247 1314 1338 1338 1338 1338 1338 1314 1268 1247 1247 1226 1149 1187 1187 1168 1149 1115 1098 1082 1082 1098 1051 1051 1036 1008 1008 981 908 931 931 919 886 908 908 876 855 865 826 817 817 808 791 782 774 791 758 743 735 728 714 700 694 687 669 657 663 657 657 663 657 657 651 657 663 651 663 613 613 608 608 603 598 593 584 579 584 570 566 557 557 549 545 541 537 533 529 529 529 525 525 521 525 525 518 525 518 521 518 521 0 0 0 0 0
    0 0 0 0 0 0 0 0 0 0 0 0 0 0 0 0 0 0 0 0 0 0 0 0 0 0 0 0 0 0 0 0 0 0 0 0 0 0 0 0 0 0 0 0 0 0 0 0 0 0 0 0 0 0 0 0 0 0 0 0 0 0 0 0 0 0 0 0 0 1533 1533 1711 1565 1599 1635 2230 2299 2044 1887 0 0 0 1711 1599 1635 1635 1672 1565 1533 1388 1362 1362 1362 1338 1362 1338 0 0 0 0 1338 1388 1471 1471 1443 1415 1471 1501 1501 1443 1443 1471 1471 1471 1471 1471 1471 1388 1565 1599 1533 1471 0 1533 1471 1501 1672 1471 1471 1471 1501 1501 1711 1795 1839 1839 1565 1443 1533 1565 1533 1501 1443 1443 1471 1501 1533 1415 1338 1362 1362 1362 1362 1362 1388 1388 1388 1388 1388 1415 1443 1415 0 1362 1362 1362 1415 1362 1291 1268 1268 1314 1291 1268 1268 1268 1268 1268 1291 1226 1268 1132 1291 1291 1388 1388 1362 1415 1415 1443 1533 1471 1565 1388 1388 1565 1291 1226 1206 1226 1226 1268 1291 1314 1362 0 0 0 0 1443 1415 1362 0 1291 1291 1314 1338 1338 1338 1338 1338 1338 1314 1268 1226 1247 1247 1168 1187 1187 1187 1168 1132 1115 1082 1082 1098 1066 1066 1051 1022 1036 981 897 919 919 908 886 897 908 876 855 855 826 826 817 808 791 782 774 791 758 743 743 728 714 700 687 687 663 657 657 651 657 657 657 657 645 657 657 651 657 608 608 603 603 598 598 593 584 579 584 570 566 557 557 553 545 541 537 533 525 529 529 525 525 525 525 525 518 525 521 518 518 521 0 0 0 0 0
    0 0 0 0 0 0 0 0 0 0 0 0 0 0 0 0 0 0 0 0 0 0 0 0 0 0 0 0 0 0 0 0 0 0 0 0 0 0 0 0 0 0 0 0 0 0 0 0 0 0 0 0 0 0 0 0 0 0 0 0 0 0 0 0 0 0 0 0 0 1533 1565 1752 1599 1635 1672 2230 2537 2374 2230 0 0 0 1599 1443 1599 1635 1599 1533 1533 1415 1362 1388 1415 1388 1415 1362 0 0 1362 1388 1338 1415 1471 1443 1415 1415 1471 1501 1471 1415 1443 1443 1471 1443 1443 1471 1443 1388 1565 1565 1533 1471 0 1533 1471 1501 1635 1443 1471 1443 1501 1471 1672 1752 1795 1839 1501 1443 1565 1565 1533 1471 1415 1443 1443 1501 1533 1388 1362 1388 1362 1362 1362 1362 1388 1388 1388 1388 1388 1415 1443 1388 0 1338 1338 1362 1388 1314 1268 1268 1268 1291 1268 1247 1226 1226 1226 1226 1226 1187 1226 1132 1314 1314 1415 1415 1362 1443 1443 1471 1565 1501 1565 1443 1415 1599 1291 1268 1247 1268 1247 1291 1291 1314 1362 1388 1388 0 0 1443 1388 1338 0 1247 1226 0 1338 1338 1338 1338 1338 1338 1314 1291 1226 1247 1226 1168 1187 1187 1187 1168 1132 1132 1098 1098 1115 1082 1082 1066 1036 1051 994 886 919 908 897 886 897 897 865 855 855 826 826 817 808 791 782 774 791 758 750 743 728 721 700 687 687 657 651 651 645 657 657 651 651 645 651 657 657 663 613 608 603 603 598 593 588 579 574 579 570 566 557 557 553 549 541 537 533 525 529 529 525 525 525 529 525 518 525 521 518 518 521 0 0 0 0 0
    0 0 0 0 0 0 0 0 0 0 0 0 0 0 0 0 0 0 0 0 0 0 0 0 0 0 0 0 0 0 0 0 0 0 0 0 0 0 0 0 0 0 0 0 0 0 0 0 0 0 0 0 0 0 0 0 0 0 0 0 0 0 0 0 0 0 0 0 0 1565 1565 1752 1635 1672 1752 1989 2102 2374 0 0 0 0 1388 1291 1443 1471 1443 1471 1471 1388 1338 0 0 1388 1443 1388 0 0 1388 1388 1362 1415 1471 1415 1415 1415 1471 1471 1471 1443 1443 1443 1471 1443 1443 1443 1443 1388 1565 1565 1533 1471 0 1533 1471 1471 1635 1443 1443 1443 1501 1471 1635 1711 1752 1752 1443 1443 1533 1533 1501 1471 1415 1443 1443 1533 1533 1362 1362 1415 1388 1388 1388 1388 1388 1388 1415 1388 1388 1415 1415 1388 0 1362 1362 1362 1388 1291 1268 1268 1247 1268 1247 1206 1187 1187 1187 1187 1206 1187 1226 1168 1362 1338 1443 1443 1388 1471 1471 1501 1599 1501 1599 1443 1443 1672 1291 1291 1291 1291 1291 1291 1291 1314 1362 1415 1388 0 0 1471 1443 1362 0 1206 1149 1291 1338 1338 1338 1338 1338 1338 1314 1291 1226 1247 1226 1149 1187 1187 1187 1168 1132 1132 1098 1098 1132 1098 1082 1066 1051 1066 994 897 908 897 897 886 886 897 865 855 855 826 826 826 808 791 791 782 791 766 750 743 728 728 700 687 681 651 645 639 639 651 651 645 645 639 651 651 657 657 613 608 603 598 593 593 588 579 574 579 570 566 557 561 557 549 541 537 533 525 529 529 525 525 525 525 525 521 525 521 518 518 521 0 0 0 0 0
    0 0 0 0 0 0 0 0 0 0 0 0 0 0 0 0 0 0 0 0 0 0 0 0 0 0 0 0 0 0 0 0 0 0 0 0 0 0 0 0 0 0 0 0 0 0 0 0 0 0 0 0 0 0 0 0 0 0 0 0 0 0 0 0 0 0 0 0 0 1565 1565 1752 1672 1711 1752 1887 1936 2102 0 0 0 0 1338 1247 1338 0 1388 1471 1501 1415 1338 0 0 1415 1443 1415 1415 1415 1388 1388 1338 1388 1443 1388 1415 1415 1471 1471 1443 1443 1471 1471 1471 1443 1415 1443 1443 1388 1565 1533 1501 1471 0 1533 1471 1471 1635 1443 1471 1443 1533 1471 1635 1711 1711 1672 1415 1443 1533 1533 1471 1443 1415 1415 1443 1533 1471 1362 1362 1415 1388 1415 1415 1415 1415 1415 1415 1388 1388 1443 1443 1388 0 1362 1362 1415 1443 1314 1291 1291 1268 1268 1247 1206 1168 1206 1187 1187 1206 1187 1247 1206 1388 1362 1471 1471 1415 1471 1501 1501 1599 1501 1599 1443 1443 1672 1314 1314 1291 1291 1291 1338 1291 1338 1362 1471 1443 0 0 1565 1533 1388 1268 1226 1168 1268 1338 1338 1314 1338 1338 1338 1314 1291 1226 1247 1226 1149 1187 1187 1187 1168 1115 1132 1098 1115 1149 1098 1098 1082 1051 1082 1008 897 908 886 897 886 886 886 865 845 855 836 836 826 808 799 791 782 799 766 750 743 735 743 700 700 694 657 651 634 639 645 645 645 645 639 645 651 657 657 618 0 603 598 593 588 584 574 574 579 570 566 557 561 557 549 541 537 533 525 529 529 525 525 525 525 525 521 525 521 518 518 518 0 0 0 0 0
    0 0 0 0 0 0 0 0 0 0 0 0 0 0 0 0 0 0 0 0 0 0 0 0 0 0 0 0 0 0 0 0 0 0 0 0 0 0 0 0 0 0 0 0 0 0 0 0 0 0 0 0 0 0 0 0 0 0 0 0 0 0 0 0 0 0 0 0 0 1565 1565 1752 1672 1711 1752 1795 1839 1989 0 0 0 1362 1362 1247 1338 0 1415 1501 1565 1443 1362 0 1565 1471 1471 1443 1415 1415 1362 1388 1362 1415 1443 1388 1388 1415 1471 1471 1443 1443 1471 1471 1501 1443 1415 1443 1443 1415 1565 1533 1501 1471 0 1565 1501 1471 1672 1443 1471 1443 1565 1471 1635 1635 1711 1533 1415 1443 1501 1501 1471 1443 1415 1415 1443 1533 1443 1338 1362 1415 1388 1415 1415 1415 1415 1415 1415 1388 1415 1471 1443 1415 1415 1388 1388 1471 1471 1338 1314 1314 1291 1268 1247 1206 1168 1206 1187 1206 1206 1206 1247 1247 1415 1362 1471 1471 1415 1501 1501 1501 1599 1471 1599 1443 1443 1672 1291 1291 1291 1291 1314 1415 1291 1362 0 1599 1565 1565 1711 1635 1415 1362 1226 1247 1226 1268 1338 1314 1314 1338 1338 1338 1338 1314 1226 1247 1226 1168 1206 1206 1187 1168 1132 1149 1098 1115 1149 1098 1098 1082 1066 1098 1022 897 908 886 897 886 886 886 865 855 855 836 836 826 808 799 791 782 799 766 750 743 735 750 700 714 700 657 651 634 639 645 645 645 645 639 645 645 657 657 623 0 603 598 588 588 579 570 566 574 570 561 557 561 557 549 541 537 533 525 529 529 525 525 525 525 525 521 525 521 518 518 518 0 0 0 0 0
    0 0 0 0 0 0 0 0 0 0 0 0 0 0 0 0 0 0 0 0 0 0 0 0 0 0 0 0 0 0 0 0 0 0 0 0 0 0 0 0 0 0 0 0 0 0 0 0 0 0 0 0 0 0 0 0 0 0 0 0 0 0 0 0 0 0 0 0 0 1565 1565 1752 1672 1711 1752 1795 0 1936 0 0 0 1338 1362 1247 0 0 0 1533 1635 1471 1362 1471 1565 1415 1443 1443 1388 1415 1388 1388 1362 1443 1443 1388 1388 1415 1471 1471 1443 1443 1443 1443 1501 1443 1415 1443 1443 1415 1565 1501 1501 1471 1565 1565 1501 1471 1672 1443 1443 1443 1565 1471 1565 1599 1635 1415 1388 1471 1501 1501 1443 1415 1415 1415 1443 1533 1415 1338 1388 1388 1388 1388 1415 1415 1388 1388 1388 1388 1415 1443 1443 1388 1415 1388 1415 1501 1471 1362 1338 1338 1338 1291 1247 1206 1168 1226 1206 1226 1226 1226 1268 1268 1443 1388 1471 1471 1415 1501 1501 1501 1565 1471 1565 1443 1443 1672 1291 1291 1291 1291 1388 1599 0 1471 0 1672 1711 1711 1839 1672 1415 1388 1268 1291 1268 1291 1338 1314 1314 1338 1338 1362 1388 1338 1247 1247 1247 1187 1206 1226 1206 1187 1132 1149 1098 1115 1149 1098 1098 1066 0 1098 1008 897 897 876 886 886 876 886 865 845 855 845 845 836 817 808 799 782 799 774 750 750 743 758 714 728 707 669 657 634 639 645 645 645 645 639 645 645 663 657 623 0 603 598 588 584 574 570 566 574 570 561 557 561 557 553 545 541 533 525 529 529 529 529 525 529 525 521 525 521 518 514 518 0 0 0 0 0
    0 0 0 0 0 0 0 0 0 0 0 0 0 0 0 0 0 0 0 0 0 0 0 0 0 0 0 0 0 0 0 0 0 0 0 0 0 0 0 0 0 0 0 0 0 0 0 0 0 0 0 0 0 0 0 0 0 0 0 0 0 0 0 0 0 0 0 0 0 1533 1565 1752 1672 1752 1795 1887 1936 2044 2044 0 0 0 0 1206 0 0 0 0 0 0 0 0 0 1338 1362 1388 1362 1388 1388 1388 1388 1471 1443 1388 1388 1443 1471 1443 1415 1443 1443 1443 1471 1443 1415 1443 1471 1415 1565 1501 1501 1471 1565 1565 1471 1471 1672 1443 1443 1443 1565 1471 1533 1565 1533 1388 1388 1471 1501 1471 1443 1443 1415 1415 1443 1533 1388 1362 1388 1388 1388 1415 1415 1415 1388 1388 1388 1388 1415 1443 0 0 0 0 1415 1471 1415 1338 1338 1338 1314 1268 1226 1187 1168 1226 1226 1226 1226 1226 1291 1291 1471 1388 1471 1471 1415 1501 1501 1501 1565 1443 1533 1443 1443 1635 1291 1268 1268 1268 1362 1565 1388 1565 0 1635 1711 1711 1839 1672 1338 1314 1226 1247 1247 1291 1314 1291 1291 1314 1314 1338 1362 1314 1206 1247 1247 1187 1206 1226 1206 1187 1149 1168 1115 1115 1149 1098 1082 1066 0 1082 1008 908 886 865 876 876 865 876 855 845 855 845 845 836 817 808 799 782 799 766 758 750 743 766 728 735 721 669 657 629 639 645 645 645 645 639 651 645 663 657 629 0 0 598 588 588 574 566 561 570 566 561 557 561 557 553 545 541 533 529 529 533 529 529 529 529 529 525 529 525 518 514 518 0 0 0 0 0
    0 0 0 0 0 0 0 0 0 0 0 0 0 0 0 0 0 0 0 0 0 0 0 0 0 0 0 0 0 0 0 0 0 0 0 0 0 0 0 0 0 0 0 0 0 0 0 0 0 0 0 0 0 0 0 0 0 0 0 0 0 0 0 0 0 0 0 0 0 1533 1565 1795 1672 1752 1795 1887 1989 2044 1989 0 0 0 0 0 0 0 0 0 1314 0 0 0 0 1314 1362 1388 0 0 1362 1362 1388 1443 1415 1388 1388 1443 1471 1443 1415 1443 1443 1443 1471 1415 1388 1443 1471 1415 1533 1501 1533 1471 1565 1565 1501 1501 1672 1443 1443 1443 1565 1471 1501 1533 1471 1362 1415 1501 1501 1471 1443 1443 1415 1443 1471 1533 1388 1362 1415 1415 1415 1415 1443 1443 1415 1415 1415 1388 1443 1443 1415 1388 0 1388 1415 1471 1362 1338 1314 1314 1314 1268 1226 1168 1149 1226 1226 1226 1226 1247 1291 1314 1443 1388 1443 1471 1415 1501 1471 1471 1533 1415 1533 1415 1443 1635 1291 1247 1268 1268 1338 1388 1338 1443 1471 1471 1565 1501 1635 1471 1268 1247 1187 1206 1247 1291 1291 1291 1291 1314 1314 1338 1362 1314 1187 1226 1226 1187 1206 1226 1226 1187 1149 1168 1115 1115 1149 1098 1082 1051 0 1082 1022 943 886 865 876 876 865 855 855 836 845 845 845 836 817 808 799 774 791 766 750 750 743 758 735 735 728 675 663 634 639 645 645 645 645 645 651 645 669 657 634 0 0 598 588 588 574 566 557 566 566 557 553 561 553 549 545 545 537 529 533 533 533 529 529 529 529 525 529 525 521 514 518 0 0 0 0 0
    0 0 0 0 0 0 0 0 0 0 0 0 0 0 0 0 0 0 0 0 0 0 0 0 0 0 0 0 0 0 0 0 0 0 0 0 0 0 0 0 0 0 0 0 0 0 0 0 0 0 0 0 0 0 0 0 0 0 0 0 0 0 0 0 0 0 0 0 0 1501 1533 1752 1635 1711 1795 1795 1989 2044 1989 0 0 1711 1471 0 0 0 0 1415 1314 0 0 0 0 0 0 0 0 0 1388 1388 1388 1443 1415 1388 1415 1443 1471 1443 1443 1471 1443 1443 1501 1415 1362 1443 1501 1415 1501 1501 1501 1471 1565 1599 1501 1471 1672 1471 1443 1471 1599 1501 1471 1533 1443 1388 1443 1501 1501 1471 1471 1471 1443 1443 1501 1533 1388 1388 1443 1415 1415 1443 1443 1471 1415 1415 1415 1388 1443 1415 1388 0 0 1388 1415 1443 1338 1338 1291 1314 1291 1247 1206 1149 1132 1226 1206 1226 1226 1268 1314 1314 1443 1388 1443 1471 1415 1471 1471 1471 1501 1415 1533 1415 1443 1635 1291 1268 1268 1291 1471 1338 1338 1388 1362 1388 1443 1443 1501 1388 1291 1268 1206 1226 1268 1291 1291 1291 1291 1314 1314 1338 1362 1291 1149 1226 1226 1187 1206 1226 1226 1187 1149 1168 1098 1098 1149 1082 1066 1051 0 1051 1022 955 908 865 876 876 865 855 855 845 855 845 845 836 817 808 799 774 782 758 750 743 743 750 735 735 721 681 669 634 645 645 645 645 645 645 657 645 669 657 645 0 0 603 588 588 574 570 557 566 566 561 557 561 557 549 545 549 537 533 533 533 533 533 529 529 529 525 529 529 521 518 518 0 0 0 0 0
    0 0 0 0 0 0 0 0 0 0 0 0 0 0 0 0 0 0 0 0 0 0 0 0 0 0 0 0 0 0 0 0 0 0 0 0 0 0 0 0 0 0 0 0 0 0 0 0 0 0 0 0 0 0 0 0 0 0 0 0 0 0 0 0 0 0 0 0 0 1501 1533 0 1599 1635 1752 1795 1989 2044 1936 1839 1711 1599 1443 1268 0 0 1291 0 1314 0 0 0 0 1338 0 1565 1388 1338 1388 1388 1388 1443 1415 1388 1415 1443 1471 1443 1443 1471 1443 1443 1501 1415 1362 1443 1501 1415 1501 1501 1501 1501 1599 1599 1533 1501 1711 1565 1471 1501 1635 1599 1599 1635 1471 1415 1471 1533 1533 1501 1471 1471 1443 1471 1533 1501 1362 1388 1443 1415 1415 1443 1443 1443 1415 1415 1415 1415 1443 1415 1388 0 1362 1388 1443 1471 1338 1338 1291 1291 1291 1247 1187 1132 1115 1206 1206 1247 0 1268 1338 1314 1415 1388 1443 1443 1415 1471 1471 1443 1471 1415 1533 1415 1415 1635 1291 1291 1291 1314 1635 1362 1338 1362 1362 1388 1415 1388 1443 1362 1291 1268 1226 1226 1268 1291 1291 1291 1291 1291 1291 1338 1338 1291 1149 1226 1226 1187 1206 1226 1226 1187 1168 1168 1098 1098 1132 1082 1066 1036 1036 1036 1008 968 919 876 876 876 865 855 855 845 855 855 845 836 826 808 799 774 766 750 743 743 735 743 735 735 728 0 675 634 645 639 645 645 645 645 651 645 669 657 657 0 0 0 593 0 584 574 561 566 566 561 557 561 557 553 545 549 541 533 533 533 533 533 533 529 529 529 529 529 525 521 521 0 0 0 0 0
    0 0 0 0 0 0 0 0 0 0 0 0 0 0 0 0 0 0 0 0 0 0 0 0 0 0 0 0 0 0 0 0 0 0 0 0 0 0 0 0 0 0 0 0 0 0 0 0 0 0 0 0 0 0 0 0 0 0 0 0 0 0 0 0 0 0 0 0 0 1471 1501 0 1501 1533 1711 1795 1989 1989 1936 1887 1752 1711 1501 0 0 0 0 0 1635 0 0 0 0 1415 0 1471 1362 0 1362 1388 1362 1443 1415 1362 1415 1443 1471 1415 1415 1471 1443 1443 1471 1415 1362 1443 1533 1415 1501 1501 1533 1501 1599 1635 1533 1533 1711 1635 1533 1565 1672 1672 1635 1672 1501 1415 1501 1565 1533 1501 1471 1471 1443 1501 1533 1501 1388 1388 1443 1415 1415 1443 1443 1443 1415 1415 1415 1388 0 0 0 1362 0 0 0 1501 1362 1362 1314 1314 1362 1291 1226 1187 1132 1247 1226 1268 0 1314 1362 1338 1415 1388 1443 1443 1388 1443 1443 1415 1443 1415 1471 1362 1388 1565 1291 1268 1268 0 1672 1362 1338 1388 1388 1388 1443 1415 1443 1362 1314 1291 1247 1226 1268 1268 1291 1268 1268 1291 1291 1338 1362 1291 1168 1247 1247 1206 1226 1247 1226 1187 1168 1149 1098 1082 1115 1082 1051 1036 1036 1022 1008 968 931 876 876 865 855 845 855 845 855 855 845 836 826 808 799 766 758 750 743 743 735 743 735 735 735 0 681 634 645 639 639 645 645 645 651 645 669 651 657 0 0 0 593 593 584 574 561 566 566 561 557 561 557 553 549 549 541 537 533 533 533 533 533 533 529 529 533 533 529 521 521 0 0 0 0 0
    0 0 0 0 0 0 0 0 0 0 0 0 0 0 0 0 0 0 0 0 0 0 0 0 0 0 0 0 0 0 0 0 0 0 0 0 0 0 0 0 0 0 0 0 0 0 0 0 0 0 0 0 0 0 0 0 0 0 0 0 0 0 0 0 0 0 0 0 0 1471 1501 0 1443 1443 1599 1711 1989 1989 1887 1887 1795 1795 1672 0 0 0 0 1989 0 0 0 0 0 0 0 0 0 0 1362 1388 1362 1443 1415 1388 1415 1443 1471 1388 1415 1471 1415 1415 1471 1388 1338 1443 1533 1415 1471 1501 1501 1533 1599 1635 1533 1533 1711 1672 1565 1635 1711 1711 1711 1711 1533 1443 1565 1599 1533 1501 1471 1471 1471 1533 1599 1501 1388 1415 1443 1415 1443 1443 1471 1471 1415 1415 1388 0 0 0 0 0 0 0 0 0 1388 1338 1291 1291 1338 1314 1268 1226 1187 1268 1247 1291 1314 1338 1388 1338 1415 1388 1415 1443 1388 1443 1415 1415 1415 1388 1415 1338 1338 1388 1291 1268 1268 1291 1599 1338 1338 1362 1388 1362 1362 1314 1314 1314 1291 1247 1226 1226 1268 1268 1268 1268 1268 1291 1291 1362 1362 1314 1187 1247 1247 1226 1226 1247 1226 1168 1168 1132 1066 1066 1082 1051 1036 1022 1008 1022 1008 981 943 886 865 855 855 836 845 836 845 845 0 0 826 799 799 766 750 750 743 743 743 743 743 735 743 0 687 0 651 639 645 645 645 645 651 645 669 645 657 0 0 0 593 593 579 570 557 561 561 557 553 557 553 549 549 553 541 537 533 537 533 533 533 533 529 533 533 537 529 525 525 0 0 0 0 0
    0 0 0 0 0 0 0 0 0 0 0 0 0 0 0 0 0 0 0 0 0 0 0 0 0 0 0 0 0 0 0 0 0 0 0 0 0 0 0 0 0 0 0 0 0 0 0 0 0 0 0 0 0 0 0 0 0 0 0 0 0 0 0 0 0 0 0 0 0 1471 1471 1711 1415 1415 1533 1672 1887 1887 1839 1839 1795 1795 0 0 0 0 0 2453 0 0 0 0 0 0 0 0 0 0 1388 1415 1388 1471 1443 1415 1443 1471 1471 1415 1415 1471 1415 1415 1443 1388 1338 1443 1565 1388 1471 1501 1501 1533 1599 1635 1565 1533 1711 1635 1565 1672 1711 1711 1711 1711 1599 1471 1599 1635 1565 1533 1501 1501 1501 1565 1599 1501 1388 1443 1443 1415 1443 1471 1471 1443 1415 1415 1388 0 0 0 0 0 0 0 0 1471 1388 1338 1268 1291 1314 1314 1268 1247 1206 1247 1268 1314 1314 1362 1388 1338 1415 1388 1415 1443 1388 1415 1415 1388 1415 1362 1388 1338 1314 1338 1291 1291 1291 1388 1565 1338 1362 1362 1388 1338 1314 1314 1291 1314 1291 1268 1247 1247 1268 1291 1291 1291 1268 1291 1291 1338 1338 1291 1187 1247 1247 1226 1226 1247 1226 1168 1168 1115 1051 1051 1066 1051 1022 1008 1008 1008 1008 981 943 886 855 845 845 836 836 836 836 0 227 0 817 799 799 766 750 750 743 743 735 743 735 735 743 0 694 0 651 639 645 645 645 645 651 645 669 639 657 0 0 0 593 588 574 566 553 561 557 557 553 561 557 553 553 553 545 541 537 537 533 533 533 533 529 533 533 537 533 529 525 0 0 0 0 0
    0 0 0 0 0 0 0 0 0 0 0 0 0 0 0 0 0 0 0 0 0 0 0 0 0 0 0 0 0 0 0 0 0 0 0 0 0 0 0 0 0 0 0 0 0 0 0 0 0 0 0 0 0 0 0 0 0 0 0 0 0 0 0 0 0 0 0 0 0 1471 1501 1711 1443 1443 1565 1752 1839 1839 1795 1795 1752 0 0 0 0 0 0 0 0 0 0 0 0 0 0 0 0 0 1388 1443 1388 1471 1443 1415 1443 1501 1471 1415 1443 1471 1415 1415 1443 1388 1338 1471 1565 1388 1471 1501 1501 1533 1599 1635 1565 1533 1711 1635 1565 1711 1711 1752 1752 1752 1635 1565 1635 1672 1565 1501 1471 1501 1501 1565 1599 1501 1388 1501 1501 1443 1471 1471 1471 1471 1415 1415 1362 1388 0 0 0 1338 0 0 0 1415 1362 1314 1268 1268 1338 1338 1291 1291 1206 1268 1291 1362 1362 1388 1415 1338 1415 1415 1415 1443 1388 1388 1388 1388 1388 1362 1362 1338 1291 1291 1314 1314 1338 1501 1635 1388 1388 1388 1415 1415 1388 1362 1362 1362 1388 1338 1314 1338 1338 1338 1338 1338 1338 1338 1314 1338 1314 1268 1168 1247 1247 1226 1226 1247 1226 1168 1168 1098 1051 1051 1066 1051 1022 1022 1008 1008 1008 994 955 897 855 845 845 817 826 826 826 0 0 0 817 799 808 766 750 743 743 743 735 743 735 735 743 0 694 0 657 639 645 651 645 645 651 645 669 639 651 0 0 0 593 593 584 570 0 566 561 561 557 561 561 553 553 557 545 541 537 537 533 533 533 533 529 533 533 537 533 529 525 0 0 0 0 0
    0 0 0 0 0 0 0 0 0 0 0 0 0 0 0 0 0 0 0 0 0 0 0 0 0 0 0 0 0 0 0 0 0 0 0 0 0 0 0 0 0 0 0 0 0 0 0 0 0 0 0 0 0 0 0 0 0 0 0 0 0 0 0 0 0 0 0 0 0 1501 1501 1752 1501 1533 1635 1839 1887 1839 1795 1839 1752 1752 1711 0 0 0 0 0 0 0 0 0 0 0 0 0 0 0 1388 1443 1388 1471 1443 1443 1471 1501 1471 1415 1443 1471 1415 1443 1415 1388 1362 1471 1533 1388 1471 1501 1471 1533 1599 1635 1565 1565 1711 1672 1599 1752 1711 1752 1752 1795 1672 1635 1672 1711 1635 1533 1501 1501 1501 1565 1533 1471 1388 1533 1533 1471 1501 1501 1533 1533 1443 1443 1388 1388 1443 1362 0 1314 0 0 0 0 1338 1291 1247 1247 1291 1338 0 1291 1168 1226 0 1338 1362 1415 1443 1362 1415 1415 1415 1443 1415 1388 1388 1362 1362 1362 1362 1338 1291 1291 1314 1338 1388 1565 1565 1291 1338 1362 1388 1415 1388 1388 1415 1415 1443 1415 1362 1415 1415 1415 1388 1388 1362 1338 1338 1362 1291 1268 1168 1247 1247 1226 1226 1247 1226 1168 1149 1098 1066 1051 1066 1051 1022 1022 1008 1008 1008 994 955 897 855 845 845 817 826 826 826 0 0 0 817 799 808 766 750 743 735 743 735 743 735 735 735 0 687 0 657 639 651 651 651 645 657 645 663 634 645 0 0 0 598 598 593 579 0 570 566 561 557 566 561 553 557 557 545 541 537 537 533 533 533 533 529 533 533 537 533 529 525 0 0 0 0 0
    0 0 0 0 0 0 0 0 0 0 0 0 0 0 0 0 0 0 0 0 0 0 0 0 0 0 0 0 0 0 0 0 0 0 0 0 0 0 0 0 0 0 0 0 0 0 0 0 0 0 0 0 0 0 0 0 0 0 0 0 0 0 0 0 0 0 0 0 0 1501 1501 1752 1501 1565 1635 1752 1752 1795 1752 1752 1711 1711 1672 1672 1672 0 2230 0 0 0 0 2102 0 0 0 0 0 0 1415 1471 1362 1471 1443 1443 1471 1471 1443 1415 1443 1501 1415 1415 1415 1362 1362 1501 1533 1388 1471 1501 1471 1533 1599 1672 1599 1565 1711 1672 1635 1795 1752 1795 1795 1795 1711 1711 1711 1752 1672 1565 1533 1501 1471 1565 1443 1388 1362 1533 1533 1501 1533 1533 1565 1565 1471 1471 1388 1388 1415 1338 0 0 0 0 0 0 1314 1268 1226 0 0 0 0 0 0 0 0 1314 1362 1415 1443 1362 1415 1415 1415 1471 1415 1388 1362 1362 1362 1338 1362 1338 1268 1268 1338 1338 1471 1599 1471 1247 1291 1314 1362 1388 1388 1388 1415 1443 1471 1501 1388 1501 1443 1471 1415 1415 1388 1362 1362 1362 1291 1268 1168 1247 1247 1226 1226 1226 1226 1168 1149 1098 1066 1051 1066 1051 0 0 1008 1008 1008 994 968 908 865 855 845 826 836 826 826 229 228 227 817 808 808 774 750 750 735 743 735 735 735 735 728 0 687 0 663 645 651 651 651 645 657 645 663 634 645 0 603 608 598 598 593 0 0 570 570 561 557 566 566 557 557 557 545 541 537 537 533 533 533 529 529 533 533 537 533 529 525 0 0 0 0 0
    0 0 0 0 0 0 0 0 0 0 0 0 0 0 0 0 0 0 0 0 0 0 0 0 0 0 0 0 0 0 0 0 0 0 0 0 0 0 0 0 0 0 0 0 0 0 0 0 0 0 0 0 0 0 0 0 0 0 0 0 0 0 0 0 0 0 0 0 0 1501 1501 1711 1415 1471 1533 1672 1672 1711 1711 1672 1711 1672 1672 1635 1635 1635 0 0 0 0 0 1936 0 0 0 0 0 0 1501 1501 1388 1501 1471 1443 1471 1471 1443 1415 1443 1501 1415 1415 1415 1388 1362 1501 1533 1388 1471 1501 1471 1565 1599 1672 1599 1565 1711 1672 1635 1887 1795 1839 1887 1887 1795 1839 1839 1887 1711 1635 1565 1501 1443 1501 1338 1338 1338 1501 1533 1501 1533 1565 1565 1565 1443 1501 1362 0 1388 1338 0 0 0 0 0 0 0 0 0 0 0 0 0 0 0 0 0 1314 1388 1415 1443 1362 1443 1443 1415 1501 1443 1388 1362 1362 1362 1338 1338 1314 1247 1226 1314 1314 1471 1565 1443 1226 1291 1338 1362 1388 1388 1388 1443 1443 1471 1501 1415 1533 1471 1471 1443 1443 1388 1362 1362 1362 1291 1268 1168 1247 1247 1226 1206 1226 1206 1149 1149 1098 1066 1051 1066 1051 0 0 1008 1008 1008 994 968 908 865 855 855 836 836 826 0 229 228 227 0 808 808 774 750 750 743 743 735 735 735 735 728 0 687 0 663 645 651 651 651 651 657 645 669 634 645 0 603 608 598 593 593 0 566 574 574 566 561 570 566 561 557 557 545 541 537 537 533 533 533 533 529 533 533 537 533 529 525 0 0 0 0 0
    0 0 0 0 0 0 0 0 0 0 0 0 0 0 0 0 0 0 0 0 0 0 0 0 0 0 0 0 0 0 0 0 0 0 0 0 0 0 0 0 0 0 0 0 0 0 0 0 0 0 0 0 0 0 0 0 0 0 0 0 0 0 0 0 0 0 0 0 0 1501 1501 1711 1415 1443 1471 1599 1565 1565 1599 1565 1599 1635 1672 1599 1635 1501 0 0 0 0 1752 1752 0 0 0 1533 1533 1362 1533 1533 1415 1501 1471 1471 1501 1471 1443 1415 1443 1501 1415 1415 1415 1388 1362 1533 1501 1388 1471 1501 1471 1565 1635 1672 1599 1599 1752 1672 1635 2102 0 1887 2044 2044 1989 2044 2044 2164 1711 1635 1501 1415 1338 1314 1268 1291 1291 0 1443 1471 0 0 0 1599 0 0 0 0 0 1443 0 0 0 0 0 205 203 203 0 203 0 0 0 1291 1168 0 0 1314 1388 1388 1415 1338 1443 1443 1415 1471 1415 1362 1362 1362 1362 1314 1314 1291 1247 1206 1314 1314 1533 1533 1565 0 1314 1388 1388 1415 1415 1415 1443 1443 1471 1501 1415 1533 1471 1471 1471 1471 1415 1362 1362 1388 1291 1291 1168 1247 1247 1226 1206 1226 1206 1149 1132 1098 1066 1051 1066 1066 0 0 1008 1008 1008 994 968 919 876 855 845 826 826 817 817 229 229 227 817 808 808 774 750 750 743 743 735 743 735 728 728 0 694 0 663 645 657 651 651 651 657 645 663 634 645 0 608 603 598 593 588 584 566 574 574 566 566 570 570 561 557 557 541 541 533 533 533 533 533 529 529 533 533 537 533 529 521 0 0 0 0 0
    0 0 0 0 0 0 0 0 0 0 0 0 0 0 0 0 0 0 0 0 0 0 0 0 0 0 0 0 0 0 0 0 0 0 0 0 0 0 0 0 0 0 0 0 0 0 0 0 0 0 0 0 0 0 0 0 0 0 0 0 0 0 0 0 0 0 0 0 0 1501 1501 1711 1443 1471 1501 1635 1635 1599 1711 1635 1672 1672 1839 1752 1887 0 1989 0 0 0 0 1711 1599 1599 1599 1501 1565 1362 1565 1565 1443 1501 1471 1501 1501 1471 1471 1443 1443 1501 1415 1415 1415 1388 1388 1533 1501 1388 1501 1501 1471 1533 1599 1672 1599 1599 1752 1672 1672 2230 1795 1795 1936 2102 2299 2102 2102 2453 0 0 1415 1338 1268 1206 1187 1226 1247 0 0 0 0 0 0 0 0 0 0 0 0 0 0 0 0 0 0 0 205 0 203 203 201 0 0 0 1187 0 0 1314 1388 1388 1415 1338 1471 1471 1415 1501 1443 1362 1362 1338 1362 1291 1291 1291 1226 1187 1291 1314 1471 1415 1443 1247 1314 1388 1388 1415 1415 1388 1415 1415 1471 1471 1415 1501 1471 1471 1501 1501 1415 1362 1362 1388 1291 1268 1149 1226 1226 1226 1206 1206 1187 1149 1132 1115 1051 1051 1066 1051 1022 0 0 1008 1008 994 968 919 886 865 845 826 817 817 817 0 0 0 817 808 808 774 758 750 743 750 743 743 735 728 728 0 687 645 669 645 657 657 651 651 657 645 669 634 645 0 608 608 603 593 593 584 566 574 574 570 566 570 570 557 557 553 541 537 533 533 533 533 533 529 529 533 533 537 529 525 521 0 0 0 0 0</data></depth>
</opencv_storage>
