<?xml version="1.0"?>
<opencv_storage>
<gps_time_stamp>289372</gps_time_stamp>
<gps_x>-1.2374279022216797e+001</gps_x>
<gps_y>1.1141931533813477e+001</gps_y>
<gps_z>-2.2331233024597168e+000</gps_z>
<image_time_stamp>280257</image_time_stamp>
<depth type_id="opencv-matrix">
  <rows>79</rows>
  <cols>320</cols>
  <dt>s</dt>
  <data>
    0 0 0 0 0 0 0 0 0 0 0 0 0 0 0 0 0 0 0 0 0 0 0 0 0 0 0 0 0 0 0 0 0 0 0 0 0 0 0 0 0 0 0 0 0 0 0 0 0 0 0 0 0 0 0 0 0 0 0 0 0 0 0 0 0 0 0 0 0 0 0 1635 0 0 0 0 0 0 1247 1115 1132 1149 1115 1066 1082 1051 994 994 1008 1008 1022 0 0 0 0 1098 0 1168 1187 1206 1226 1226 1168 1082 1187 1168 1098 1168 1149 1149 1149 1168 1226 1168 1168 1268 1206 1226 1226 1226 1187 1168 1187 1168 1168 1187 1187 1206 1206 1206 1226 1226 1226 1226 1247 1226 1247 1226 1206 1206 1206 1168 1168 1115 1082 1066 1066 1082 1098 1098 1168 1149 1132 1168 1168 1187 1168 1168 1168 1098 1115 1149 1115 1115 1098 1115 1098 1098 1132 1115 1082 1098 1066 1098 1082 1098 1168 1168 1066 1098 1066 1149 1149 1082 1149 1149 1149 1149 1168 1226 1132 1132 1206 1051 1051 1051 1082 1051 1036 1051 1051 1066 1051 1051 1022 1022 1008 1008 1022 1051 1051 1115 1247 1314 1314 1247 1314 1268 1206 1132 1115 1098 1132 1115 1149 1132 1149 1187 1149 1168 1187 1187 1187 1149 1098 1115 1132 1187 1066 1132 1132 1066 1132 1149 1098 1115 1098 1132 1098 1082 1149 1022 1008 0 955 808 735 735 721 714 707 700 694 687 687 681 669 663 651 645 639 634 629 618 618 613 608 603 593 588 588 579 566 561 561 557 561 561 561 557 557 553 553 549 549 537 533 525 514 511 514 497 500 497 493 493 490 487 484 471 474 465 459 462 454 0 0 0 0 0
    0 0 0 0 0 0 0 0 0 0 0 0 0 0 0 0 0 0 0 0 0 0 0 0 0 0 0 0 0 0 0 0 0 0 0 0 0 0 0 0 0 0 0 0 0 0 0 0 0 0 0 0 0 0 0 0 0 0 0 0 0 0 0 0 0 0 0 0 0 0 0 1635 0 0 0 0 0 0 1226 1082 1115 1132 1115 1051 1082 1036 994 1008 994 994 1008 0 0 994 1066 1066 1098 1132 1149 1149 1187 1187 1187 1098 1187 1187 1098 1168 1149 1149 1149 1168 1206 1149 1168 1268 1206 1226 1206 1206 1168 1149 1168 1132 1132 1132 1168 1168 1149 1149 1149 1115 1115 1115 1115 1115 1115 1115 1098 1149 1187 1187 1168 1149 1098 1098 1082 1098 1115 1115 1149 1149 1115 1149 1149 1168 1132 1149 1149 1082 1098 1132 1098 1098 1082 1115 1082 1082 1132 1098 1066 1082 1051 1082 1066 1066 1022 1115 1066 1098 1066 1149 1149 1082 1149 1149 1149 1149 1168 1206 1132 1115 1168 1051 1051 1066 1082 1051 1051 1051 1051 1082 1051 1051 1022 1022 1008 1008 1008 1051 1051 1098 0 1362 1314 1291 1362 1314 1247 1206 1187 1168 1187 1168 1187 1168 1187 1206 1187 1206 1206 1206 1206 1168 1115 1149 1149 1187 1051 1132 1132 1066 1132 1149 1098 1098 1098 1132 1082 1082 1132 1008 981 0 908 799 728 735 721 714 707 700 694 694 687 681 669 663 645 645 639 634 629 623 618 613 608 608 593 593 584 584 566 561 561 557 561 561 557 557 557 553 553 549 549 537 533 525 514 511 518 493 497 497 493 493 490 487 484 471 474 465 459 462 454 0 0 0 0 0
    0 0 0 0 0 0 0 0 0 0 0 0 0 0 0 0 0 0 0 0 0 0 0 0 0 0 0 0 0 0 0 0 0 0 0 0 0 0 0 0 0 0 0 0 0 0 0 0 0 0 0 0 0 0 0 0 0 0 0 0 0 0 0 0 0 0 0 0 0 0 0 0 0 0 0 0 0 0 1187 1082 1098 1115 1098 1051 1066 1022 994 994 981 981 981 968 0 981 1066 1066 1082 1115 1115 1132 1168 1149 1187 1098 1187 1187 1098 1168 1168 1149 1168 1187 1226 1168 1168 1268 1206 1226 1206 1206 1149 1132 1132 1098 1098 1098 1132 1149 1115 1115 1098 1066 1066 1082 1098 1066 1082 1082 1082 1132 1168 1206 1149 1168 1098 1098 1098 1115 1115 1115 1132 1132 1098 1132 1115 1132 1098 1098 1115 1066 1098 1115 1098 1115 1098 1115 1115 1098 1168 1098 1066 1082 1051 1066 1051 1051 1008 1082 1051 1082 1051 1149 1149 1082 1149 1149 1132 1132 1168 1187 1132 1115 1168 1066 1066 1066 1082 1051 1051 1036 1051 1066 1036 1036 1008 994 994 1008 1008 1022 1022 1082 0 1338 1314 1291 1362 1291 1226 1187 1187 1187 1187 1187 1206 1168 1206 1206 1187 1226 1226 1206 1226 1187 1115 1149 1149 1168 1051 1115 1115 1066 1132 1149 1098 1098 1098 1115 1066 1066 1115 994 931 0 876 791 728 735 721 714 707 700 700 694 687 681 663 663 645 645 639 634 629 623 623 618 613 608 593 593 584 584 570 566 561 557 561 561 557 557 557 553 549 549 549 537 533 529 518 514 521 497 500 497 493 490 487 487 481 471 474 465 459 462 454 0 0 0 0 0
    0 0 0 0 0 0 0 0 0 0 0 0 0 0 0 0 0 0 0 0 0 0 0 0 0 0 0 0 0 0 0 0 0 0 0 0 0 0 0 0 0 0 0 0 0 0 0 0 0 0 0 0 0 0 0 0 0 0 0 0 0 0 0 0 0 0 0 0 0 0 0 0 0 0 0 0 0 0 1149 1066 1082 1082 1082 1036 1051 1008 994 981 981 968 955 955 981 981 1066 1051 1066 1098 1115 1115 1149 1149 1206 1115 1187 1187 1115 1168 1168 1168 1187 1187 1226 1187 1187 1291 1226 1226 1226 1206 1149 1098 1115 1066 1066 1066 1115 1115 1098 1098 1082 1066 1066 1082 1098 1066 1082 1098 1098 1132 1168 1206 1168 1187 1098 1115 1098 1115 1132 1115 1132 1132 1098 1132 1098 1115 1098 1082 1098 1066 1098 1132 1115 1132 1115 1132 1132 1098 1187 1082 1066 1066 1051 1051 1036 1036 994 1066 1051 1082 1051 1132 1149 1082 1149 1149 1132 1132 1168 1187 1132 1115 1168 1066 1051 1066 1082 1036 1036 1022 1036 1051 1022 1036 1008 994 994 1008 1008 1008 1008 1036 0 1362 1314 0 1388 1291 1187 1149 1187 1168 1187 1168 1206 1187 1206 1206 1187 1226 1206 1206 1226 1168 1115 1149 1149 1168 1051 1115 1115 1066 1132 1149 1098 1098 1082 1098 1066 1051 1082 981 865 0 836 782 728 735 721 714 707 700 700 694 687 675 657 657 639 645 639 639 634 629 623 623 618 613 598 598 588 588 574 570 566 557 561 561 557 557 553 553 549 549 545 537 533 529 521 514 525 497 497 497 490 490 487 484 481 471 471 465 457 462 454 0 0 0 0 0
    0 0 0 0 0 0 0 0 0 0 0 0 0 0 0 0 0 0 0 0 0 0 0 0 0 0 0 0 0 0 0 0 0 0 0 0 0 0 0 0 0 0 0 0 0 0 0 0 0 0 0 0 0 0 0 0 0 0 0 0 0 0 0 0 0 0 0 0 0 0 0 0 0 0 0 0 1132 1149 1168 1082 1082 1066 1066 1036 1036 0 1008 1008 994 994 994 994 994 994 1082 1066 1082 1098 1098 1132 1149 1149 1226 1132 1206 1206 1132 1187 1187 1187 1187 1187 1226 1187 1187 1291 1226 1226 1206 1206 1132 1066 1066 1036 1036 1036 1082 1082 1082 1082 1066 1051 1051 1082 1098 1082 1098 1115 1098 1149 1168 1226 1168 1187 1098 1132 1098 1132 1132 1132 1132 1132 1098 1132 1082 1098 1082 1082 1098 1066 1098 1132 1115 1115 1115 1115 1132 1082 1132 1082 1051 1066 1066 1051 1051 1036 1022 1066 1066 1082 1051 1132 1149 1082 1149 1149 1149 1132 1149 1187 1132 1115 1168 1066 1051 1066 1082 1036 1022 1008 1036 1036 1022 1036 1008 994 994 1008 1008 1022 994 1022 0 1388 0 0 0 1187 1098 1082 1168 1149 1168 1149 1187 1149 1187 1168 1168 1187 1187 1187 1206 1149 1115 1149 1168 1168 1066 1115 1132 1066 1132 1149 1098 1082 1082 0 1051 1036 1051 943 836 0 817 774 735 735 728 714 714 707 700 694 687 675 657 663 639 645 634 634 634 629 623 623 613 618 598 603 588 588 574 570 566 561 561 561 557 557 553 549 549 549 545 541 533 533 525 518 525 497 497 497 490 490 487 484 481 468 471 465 457 462 454 0 0 0 0 0
    0 0 0 0 0 0 0 0 0 0 0 0 0 0 0 0 0 0 0 0 0 0 0 0 0 0 0 0 0 0 0 0 0 0 0 0 0 0 0 0 0 0 0 0 0 0 0 0 0 0 0 0 0 0 0 0 0 0 0 0 0 0 0 0 0 0 0 0 0 0 0 0 0 0 0 1187 1149 1149 1168 1082 1098 1066 1082 1051 1051 1022 1036 1036 1022 1008 1036 1022 1022 1022 1082 1082 1082 1098 1115 1132 1168 1168 1226 1149 1206 1206 1132 1187 1187 1187 1187 1187 1226 1187 1187 1291 1206 1187 1187 1187 1098 1036 1051 1022 1022 1022 1066 1066 1066 1066 1066 1051 1051 1082 1098 1082 1098 1115 1115 1149 1168 1226 1149 1187 1115 1149 1115 1149 1132 1132 1132 1132 1098 1149 1082 1098 1066 1066 1082 1066 1082 1115 1098 1098 1098 1098 1115 1082 1098 1082 1051 1066 1066 1066 1066 1051 1051 1082 1082 1066 1036 1132 1132 1082 1149 1149 1132 1132 1149 1187 1132 1115 1149 1066 1051 1066 1066 1051 1036 1008 1022 1036 1022 1036 1008 1008 1008 1008 1008 1022 994 1036 0 0 0 0 0 1168 1149 1132 1168 1149 1168 1132 1168 1132 1168 1168 1168 1187 1206 1206 1226 1168 1149 1168 1168 1168 1066 1115 1132 1066 1149 1132 1082 1082 1082 1082 1036 1036 0 908 826 0 817 766 735 735 721 714 707 700 694 694 687 675 657 663 639 645 634 634 634 629 629 623 613 618 598 603 593 588 574 574 561 561 561 561 557 557 553 549 545 549 541 537 533 533 525 518 529 497 497 497 490 490 487 484 481 468 471 465 457 462 454 0 0 0 0 0
    0 0 0 0 0 0 0 0 0 0 0 0 0 0 0 0 0 0 0 0 0 0 0 0 0 0 0 0 0 0 0 0 0 0 0 0 0 0 0 0 0 0 0 0 0 0 0 0 0 0 0 0 0 0 0 0 0 0 0 0 0 0 0 0 0 0 0 0 0 0 0 0 0 0 0 1226 1187 1187 1206 1115 1115 1082 1082 1066 1051 0 1051 1051 1051 1022 1036 1051 1051 1036 1082 1098 1098 1115 1115 1149 1168 1168 1226 1168 1206 1206 1132 1187 1187 1187 1187 1187 1226 1168 1187 1268 1187 1168 1168 1168 1098 1051 1066 1036 1022 1022 1066 1066 1051 1051 1051 1036 1036 1082 1082 1066 1082 1115 1115 1132 1168 1226 1149 1168 1098 1149 1115 1149 1149 1132 1132 1132 1098 1149 1082 1098 1066 1066 1082 1066 1082 1115 1098 1098 1098 1098 1115 1082 1115 1082 1066 1066 1066 1066 1066 1051 1051 1082 1066 1051 1036 1115 1115 1066 1132 1132 1132 1115 1149 1168 1115 1098 1132 1066 1051 1051 1066 1036 1036 1008 1022 1036 1022 1036 1008 994 1008 1008 1008 1022 994 1036 0 1226 1206 1132 1187 1132 1132 1115 1132 1132 1149 1098 1149 1132 1168 1187 1187 1226 1226 1226 1247 1187 1187 1206 1187 1168 1066 1115 1132 1066 1149 1132 1082 1082 1066 1066 1036 1022 0 876 817 808 808 766 735 735 728 714 707 700 700 694 687 675 657 669 639 645 634 634 634 629 629 629 613 618 603 603 593 588 579 574 566 561 561 561 557 557 553 549 545 549 541 541 533 533 525 521 529 497 497 500 493 490 487 484 481 471 471 468 457 462 454 0 0 0 0 0
    0 0 0 0 0 0 0 0 0 0 0 0 0 0 0 0 0 0 0 0 0 0 0 0 0 0 0 0 0 0 0 0 0 0 0 0 0 0 0 0 0 0 0 0 0 0 0 0 0 0 0 0 0 0 0 0 0 0 0 0 0 0 0 0 0 0 0 0 0 0 0 0 0 0 0 1226 1168 1149 1168 1098 1115 1082 1082 1066 1051 0 1051 1066 1051 1022 1036 1066 1066 1051 1098 1098 1098 1115 1115 1149 1168 1149 1206 1168 1206 1206 1132 1206 1206 1187 1187 1187 1226 1187 1187 1268 1206 1168 1187 1187 1149 1066 1098 1036 1022 1022 1051 1051 1051 1036 1051 1022 1036 1066 1082 1066 1082 1115 1098 1115 1149 1206 1132 1168 1082 1115 1098 1132 1149 1149 1132 1132 1098 1168 1082 1082 1051 1051 1082 1051 1082 1115 1098 1098 1115 1115 1115 1098 1132 1098 1082 1082 1066 1066 1082 1082 1082 1082 1066 1051 1036 1115 1115 1066 1132 1132 1132 1115 1149 1168 1115 1098 1132 1051 1051 1066 1066 1036 1036 1008 1036 1036 1022 1036 1008 1008 1008 1008 1008 1008 994 1022 0 1247 1206 1206 1247 1168 1168 1132 1168 1168 1149 1098 1115 1098 1132 1168 1206 1206 1226 1226 1226 1187 1206 1226 1187 1149 1066 1115 1115 1066 1132 1115 1066 1066 1066 1051 1022 994 0 855 817 799 791 758 735 735 721 714 707 707 700 694 694 681 663 669 634 645 634 634 634 629 629 629 618 623 603 603 598 593 579 579 566 566 561 561 557 557 553 549 545 549 541 541 537 533 529 521 529 500 497 500 493 490 487 484 481 471 471 468 457 462 454 0 0 0 0 0
    0 0 0 0 0 0 0 0 0 0 0 0 0 0 0 0 0 0 0 0 0 0 0 0 0 0 0 0 0 0 0 0 0 0 0 0 0 0 0 0 0 0 0 0 0 0 0 0 0 0 0 0 0 0 0 0 0 0 0 0 0 0 0 0 0 0 0 0 0 0 0 0 0 0 0 0 0 1115 1132 1082 1098 1066 1066 1051 1051 1036 1051 1066 1066 1036 1051 1082 1098 1066 1098 1115 1115 1132 1132 1149 1168 1149 1206 1187 1206 1206 1149 1206 1226 1206 1206 1206 1226 1206 1226 1291 1226 1187 1226 0 0 1066 1082 1022 1008 1008 1051 1051 1036 1036 1051 1022 1051 1066 1082 1082 1098 1115 1098 1115 1149 1187 1132 1168 1066 1115 1098 1149 1149 1149 1149 1149 1098 1168 1098 1082 1051 1051 1066 1051 1082 1115 1098 1098 1115 1132 1132 1098 1132 1115 1098 1098 1082 1082 1115 1098 1132 1098 1066 1036 1022 1132 1115 1066 1132 1132 1132 1115 1149 1168 1115 1098 1132 1066 1051 1066 1066 1036 1036 1008 1036 1036 1036 1036 1022 1022 1022 1036 1008 1036 1008 1051 0 1206 1168 1168 1226 1149 1149 1115 1132 1168 1132 1098 1098 1082 1115 1168 1206 1206 1226 1226 1206 1187 1206 1226 1187 1132 1066 1098 1098 1066 1132 1115 1066 1051 1051 1036 1008 955 886 836 808 791 774 750 735 728 721 714 707 707 700 694 687 681 663 669 639 645 634 634 634 634 629 629 618 623 608 608 603 593 584 584 570 570 561 566 561 557 553 549 545 549 541 545 537 533 529 521 529 504 497 500 493 490 487 484 481 468 471 468 454 459 454 0 0 0 0 0
    0 0 0 0 0 0 0 0 0 0 0 0 0 0 0 0 0 0 0 0 0 0 0 0 0 0 0 0 0 0 0 0 0 0 0 0 0 0 0 0 0 0 0 0 0 0 0 0 0 0 0 0 0 0 0 0 0 0 0 0 0 0 0 0 0 0 0 0 0 0 0 0 0 0 0 0 0 0 1168 1098 1098 1066 1066 1066 1051 1051 1066 1098 1098 1082 1066 1082 1115 1082 1098 1132 1115 1132 1132 1149 1187 1149 1206 1206 1206 1206 1168 1226 1247 1226 1247 1226 1247 1226 1226 1314 1206 1168 1226 1206 1149 1066 1066 1008 1008 1008 1066 1051 1036 1051 1051 1036 1051 1082 1098 1082 1098 1115 1098 1115 1132 1187 1098 1132 1066 1115 1098 1132 1149 1149 1149 1168 1115 1187 1098 1098 1036 0 1066 1051 1066 1098 1098 1098 1115 1132 1132 1098 1132 1132 1098 1115 1098 1098 1149 1132 1168 1115 1066 1022 0 1132 1115 1066 1132 1132 1132 1115 1149 1168 1132 1115 1149 1082 1066 1082 1082 1051 1036 1022 1036 1051 1036 1051 1036 1051 1051 1066 1036 1051 1051 1082 1098 1149 1098 1051 1168 1082 1098 1082 0 0 0 1066 1082 1066 1098 1187 1226 1226 1226 1247 1206 1187 1206 1226 1168 1132 1082 1082 1098 1066 1115 1082 1051 1036 1036 1008 968 865 836 826 799 774 766 743 735 721 721 714 707 707 700 694 687 681 663 669 639 645 634 634 634 634 634 634 618 623 608 603 603 593 584 584 570 574 561 566 566 561 557 549 549 553 541 545 537 533 529 525 533 504 497 500 493 493 487 487 484 471 471 471 457 462 454 0 0 0 0 0
    0 0 0 0 0 0 0 0 0 0 0 0 0 0 0 0 0 0 0 0 0 0 0 0 0 0 0 0 0 0 0 0 0 0 0 0 0 0 0 0 0 0 0 0 0 0 0 0 0 0 0 0 0 0 0 0 0 0 0 0 0 0 0 0 0 0 0 0 0 0 0 0 0 0 0 0 0 0 1149 1098 1082 1051 0 1066 1051 1051 1082 1098 1132 1115 1082 1098 1115 1115 1115 1149 1132 1132 1132 1168 1187 1168 1206 1226 1206 1226 1187 1247 1268 1247 1247 1247 1247 1226 1226 1314 1206 1132 1206 1226 1206 1098 1098 1051 1036 1022 1082 1066 1051 1051 1066 1051 1066 1098 1115 1098 1098 1132 1115 1115 1132 1168 1098 1132 1066 1115 1115 1132 1149 1168 1168 1168 1132 1206 1115 1115 1051 1051 1082 1066 1066 1115 1098 1115 1115 1149 1149 1115 1149 1149 1115 1115 1115 1132 1168 1168 1187 1187 0 0 1008 1149 1132 1066 1132 1149 1149 1115 1149 1168 1132 1115 1168 1082 1082 1082 1082 1051 1036 1022 1051 1051 1051 1066 1066 1082 1098 1098 1066 1036 1036 0 994 0 855 0 0 0 0 0 0 0 0 0 1036 1036 1066 1206 1226 1226 1226 1247 1187 1187 1206 1226 1149 1098 1066 1082 1082 1066 1082 1051 1022 994 994 943 876 826 817 808 791 774 758 743 735 728 721 714 707 700 694 687 681 681 663 663 639 645 639 634 639 634 629 634 618 629 608 608 603 598 588 588 574 579 566 566 566 561 557 553 549 553 541 545 537 533 529 525 533 507 497 504 497 493 490 487 484 471 474 471 457 462 454 0 0 0 0 0
    0 0 0 0 0 0 0 0 0 0 0 0 0 0 0 0 0 0 0 0 0 0 0 0 0 0 0 0 0 0 0 0 0 0 0 0 0 0 0 0 0 0 0 0 0 0 0 0 0 0 0 0 0 0 0 0 0 0 0 0 0 0 0 0 0 0 0 0 0 0 0 0 0 0 0 0 0 0 1187 1115 1098 0 1082 1082 1066 1066 1082 1115 1168 1149 1098 1132 1149 1132 1115 1168 1149 1132 1132 1168 1187 1168 1206 1226 1226 1226 1187 1247 1268 1247 1247 1247 1247 1226 1226 1291 1206 1132 1206 0 1268 1206 1187 1132 1082 1051 1098 1082 1066 1066 1082 1066 1082 1098 1115 1098 1115 1132 1132 1115 1132 1149 1115 1149 1066 1132 1115 1149 1168 1187 1187 1187 1149 1226 1168 1149 1066 1082 1098 1066 1082 1115 1098 1115 1115 1149 1149 1115 1132 1168 1132 1132 1132 1149 1187 1187 1226 1226 1206 1149 0 1168 1149 1066 1149 1149 1149 1115 1149 1187 1132 1115 1168 1082 1066 1066 1082 1051 1036 1036 1066 1066 1066 1098 1132 1149 1187 1168 1082 1051 1036 0 897 897 845 845 782 728 0 0 0 0 0 0 0 1022 1066 1247 1268 1268 1268 1268 1187 1187 1226 1226 1115 1082 1051 1051 1051 1036 1036 1022 968 908 897 845 817 808 799 791 774 766 750 743 743 728 721 714 707 700 694 687 687 681 669 669 639 651 639 634 639 634 629 629 618 629 608 608 608 598 593 593 574 579 566 570 566 561 557 553 549 553 541 545 533 533 529 525 533 511 493 504 493 493 490 487 484 471 474 474 457 462 454 0 0 0 0 0
    0 0 0 0 0 0 0 0 0 0 0 0 0 0 0 0 0 0 0 0 0 0 0 0 0 0 0 0 0 0 0 0 0 0 0 0 0 0 0 0 0 0 0 0 0 0 0 0 0 0 0 0 0 0 0 0 0 0 0 0 0 0 0 0 0 0 0 0 0 0 0 0 0 0 0 0 0 0 0 1115 1115 0 1098 1098 1098 1098 1115 1149 1206 1187 1132 1149 1168 1168 1132 1168 1168 1149 1149 1168 1187 1168 1206 1226 1226 1226 1168 1247 1268 1247 1226 1226 1226 1206 1206 1291 1187 1115 1206 0 1314 1291 1268 1247 0 1082 1132 1098 1066 1066 1082 1066 1082 1098 1098 1098 1115 1132 1132 1132 1132 1149 1115 1168 1066 1132 1132 1168 1187 1206 1206 1187 1168 1247 1206 1187 1082 1098 1098 1082 1082 1115 1098 1098 1115 1168 1132 1115 1132 1187 1132 1149 1132 1149 1206 1206 1247 1268 0 1226 0 1187 1149 1066 1149 1149 1149 1115 1132 1168 1132 1115 1168 1082 1082 1082 1098 1066 1066 1066 1082 1082 1098 1132 1168 1206 1226 1206 1149 1082 1082 1036 981 994 955 886 0 0 0 0 0 0 0 0 0 1066 1168 1268 1291 1268 1268 1247 1168 1187 1226 1206 1082 1036 1008 1008 994 994 968 931 865 845 836 808 791 782 782 774 766 758 758 750 743 728 721 714 707 700 700 687 687 681 675 675 645 651 645 634 639 634 634 634 623 629 613 608 608 603 593 593 574 584 566 570 570 561 557 553 549 553 541 545 533 533 529 525 533 511 493 500 493 493 490 487 484 471 471 474 457 462 457 0 0 0 0 0
    0 0 0 0 0 0 0 0 0 0 0 0 0 0 0 0 0 0 0 0 0 0 0 0 0 0 0 0 0 0 0 0 0 0 0 0 0 0 0 0 0 0 0 0 0 0 0 0 0 0 0 0 0 0 0 0 0 0 0 0 0 0 0 0 0 0 0 0 0 0 0 0 0 0 0 0 0 0 0 1149 1132 1115 1115 1098 1098 1098 1098 1149 1206 1187 1115 1149 1168 1168 1132 1168 1149 1149 1149 1168 1187 1168 1206 1247 1226 1226 1168 1247 1268 1247 1226 1226 1226 1206 1206 1291 1187 1115 1206 0 1338 1338 1314 1314 0 1149 1168 1149 1082 1066 1082 1082 1098 1115 1098 1115 1115 1132 1132 1132 1132 1132 1115 1187 1066 1132 1132 1168 1187 1206 1206 1187 1168 1247 1206 1187 1066 1098 1098 1082 1082 1115 1098 1098 1115 1168 1132 1115 1132 1187 1149 1149 1132 1168 1206 1226 1314 1415 1443 0 0 1187 1168 1082 1149 1149 1149 1115 1132 1168 1132 1098 1149 1082 1082 1082 1098 1082 1066 1066 1098 1098 1115 1149 1168 1187 1226 1226 1132 1066 1082 1036 981 994 931 876 817 808 0 0 0 0 0 0 0 1115 1168 1268 1291 1268 1268 1226 1132 1206 1187 1168 1036 1008 981 981 968 955 931 886 855 836 826 808 791 782 791 782 774 774 766 750 750 728 721 714 707 707 700 687 687 687 675 681 651 657 651 639 651 634 634 634 623 639 613 608 613 603 598 593 579 584 566 570 570 561 561 553 549 553 541 545 533 533 529 525 533 514 493 500 493 493 490 487 484 471 474 474 459 462 457 0 0 0 0 0
    0 0 0 0 0 0 0 0 0 0 0 0 0 0 0 0 0 0 0 0 0 0 0 0 0 0 0 0 0 0 0 0 0 0 0 0 0 0 0 0 0 0 0 0 0 0 0 0 0 0 0 0 0 0 0 0 0 0 0 0 0 0 0 0 0 0 0 0 0 0 0 0 0 0 0 0 0 0 0 0 1187 1168 1132 1115 1098 1098 1082 0 1206 1226 1149 1149 1187 1187 1149 1187 1168 1168 1149 1187 1187 1168 1206 1247 1226 1247 1187 1247 1268 1247 1247 1226 1206 1206 1206 1291 1187 1149 1247 0 1362 1362 1338 1338 1247 1206 1187 1149 1098 1082 1082 1082 1115 1115 1098 1115 1132 1149 1132 1132 1149 1132 1132 1206 1066 1132 1132 1168 1187 1206 1206 1187 1168 1247 1206 1187 1082 1132 1115 1098 1082 1132 1115 1115 1132 1187 1132 1115 1149 1206 1168 1168 1115 1168 1226 1247 1565 1635 1565 0 1051 1206 1187 1082 1149 1149 1149 1115 1149 1187 1132 1115 1168 1098 1098 1098 1115 1082 1082 1098 1115 1115 1132 1149 1168 1187 1247 1247 1149 1066 1115 1066 968 981 886 845 799 782 774 799 0 0 0 0 0 1206 1247 1268 1314 1268 1268 1226 1115 1187 1132 1082 1008 981 968 968 955 955 919 876 855 836 836 817 808 799 799 791 782 782 766 758 750 728 721 721 714 714 700 694 694 694 687 681 651 657 657 645 651 639 634 634 629 645 618 608 613 608 598 598 579 584 566 574 570 561 561 553 553 557 541 549 533 533 529 525 533 514 493 500 493 493 490 487 484 474 474 477 459 462 457 0 0 0 0 0
    0 0 0 0 0 0 0 0 0 0 0 0 0 0 0 0 0 0 0 0 0 0 0 0 0 0 0 0 0 0 0 0 0 0 0 0 0 0 0 0 0 0 0 0 0 0 0 0 0 0 0 0 0 0 0 0 0 0 0 0 0 0 0 0 0 0 0 0 0 0 0 0 0 0 0 0 0 0 0 0 0 0 1149 1115 1098 1098 0 0 0 1268 1206 1187 1226 1206 1168 1206 1187 1168 1168 1187 1206 1187 1206 1247 1247 1247 1187 1268 1268 1247 1247 1247 1206 1206 1206 1291 1187 1168 1226 0 1338 1338 1314 1338 1268 1206 1206 1149 1115 1115 1115 1098 1132 1132 1132 1132 1149 1168 1149 1149 1149 1132 1132 1206 1082 1149 1168 1187 1206 1226 1226 1206 1187 1247 1226 1206 1098 1149 1149 1132 1098 1149 1132 1115 1132 1206 1132 1115 1149 1226 1187 1206 1168 1226 1268 1291 1471 1443 1471 0 0 1206 1187 1082 1149 1149 1149 1132 1149 1187 1149 1115 1187 1115 1115 1115 1132 1098 1098 1115 1132 1132 1149 1168 1187 1187 1268 1268 1132 1066 1132 1051 981 968 897 865 817 799 791 0 0 0 0 0 0 1226 1268 1291 1314 1268 1268 1226 1115 1149 1051 1036 994 968 955 943 931 931 897 876 855 845 836 826 817 808 808 799 791 782 766 758 750 728 721 721 721 714 707 694 694 694 687 687 657 663 657 651 657 639 634 634 629 645 618 608 613 608 598 598 579 588 566 574 574 566 561 557 553 557 541 545 533 533 529 521 529 514 493 500 493 493 490 487 487 474 474 477 459 462 457 0 0 0 0 0
    0 0 0 0 0 0 0 0 0 0 0 0 0 0 0 0 0 0 0 0 0 0 0 0 0 0 0 0 0 0 0 0 0 0 0 0 0 0 0 0 0 0 0 0 0 0 0 0 0 0 0 0 0 0 0 0 0 0 0 0 0 0 0 0 0 0 0 0 0 0 0 0 0 0 0 0 0 0 0 0 1226 0 0 0 0 0 0 0 0 0 1268 1226 1268 1247 1206 1226 1206 1187 1187 1187 1226 1206 1226 1268 1247 1268 1206 1268 1268 1247 1226 1247 1206 1206 1187 1268 1187 1168 1206 0 1268 1268 1268 1291 1247 1187 1187 1168 1132 1115 1132 1115 1149 1168 1149 1149 1168 1168 1168 1168 1168 1149 1149 1226 1082 1168 1187 1226 1226 1226 1247 1226 1206 1268 1247 1226 1132 1168 1187 1149 1115 1149 1132 1132 1132 1206 1149 1132 1149 1247 1206 1226 1226 1247 1268 1291 1362 1338 1388 0 1082 1206 1187 1098 1168 1168 1168 1132 1149 1206 1149 1132 1206 1132 1132 1115 1149 1115 1115 1132 1149 1132 1149 1168 1206 1206 1268 1268 1168 1098 1149 1066 1008 994 968 908 826 0 0 876 0 0 0 0 0 1226 1291 1291 1314 1268 1268 1206 1115 1115 1022 994 968 955 943 943 919 919 886 876 855 845 845 836 836 826 817 817 799 791 774 766 750 728 728 721 721 714 707 694 694 694 687 687 663 669 663 657 663 639 639 634 629 639 618 608 613 608 598 598 584 588 570 574 574 566 566 557 553 557 541 545 533 533 529 521 529 514 490 500 493 493 490 487 487 474 474 477 459 462 457 0 0 0 0 0
    0 0 0 0 0 0 0 0 0 0 0 0 0 0 0 0 0 0 0 0 0 0 0 0 0 0 0 0 0 0 0 0 0 0 0 0 0 0 0 0 0 0 0 0 0 0 0 0 0 0 0 0 0 0 0 0 0 0 0 0 0 0 0 0 0 0 0 0 0 0 0 0 0 0 0 0 0 1247 1268 1226 1206 0 1168 1115 1098 0 0 0 0 0 0 1226 1268 1247 1226 1247 1226 1206 1206 1206 1247 1226 1247 1268 1268 1291 1206 1247 1247 1247 1226 1226 1206 1187 1168 1268 1168 1168 1187 0 1268 1247 1247 1291 1268 1187 1206 1187 1168 1132 1149 1149 1168 1187 1168 1168 1168 1187 1187 1187 1187 1168 1149 1206 1082 1168 1187 1226 1226 1226 1247 1226 1206 1268 1247 1247 1149 1187 1187 1168 1132 1168 1168 1149 1149 1226 1149 1132 1149 1247 1206 1206 1226 1247 1247 1268 1291 1291 1314 0 1082 1187 1168 1098 1168 1168 1168 1132 1168 1206 1168 1149 1206 1168 1132 1132 1168 1132 1132 1149 1168 1149 1149 1187 1226 1206 1291 1314 1168 1115 1187 1036 994 994 968 943 845 0 0 0 0 0 0 0 0 1247 1291 1291 1314 1268 1247 1187 1115 1098 1008 994 955 955 943 943 931 919 886 886 855 855 855 845 836 836 826 817 799 791 774 766 750 735 728 728 721 721 707 700 694 700 694 694 669 669 669 663 669 645 639 634 629 639 618 608 613 608 598 598 584 588 570 574 574 566 566 557 553 557 545 545 533 533 525 521 529 514 490 497 493 490 490 487 484 474 471 477 462 462 459 0 0 0 0 0
    0 0 0 0 0 0 0 0 0 0 0 0 0 0 0 0 0 0 0 0 0 0 0 0 0 0 0 0 0 0 0 0 0 0 0 0 0 0 0 0 0 0 0 0 0 0 0 0 0 0 0 0 0 0 0 0 0 0 0 0 0 0 0 0 0 0 0 0 0 0 0 0 0 0 0 0 0 1226 1206 1168 1168 0 1168 1115 1082 0 0 0 0 0 0 1268 1291 1247 1247 1247 1226 1226 1226 1247 1247 1247 1268 1268 1291 1291 1206 1247 1247 1226 1187 1206 1187 1168 1168 1247 1168 1168 1187 0 1268 1247 1247 1291 1268 1226 1206 1206 1187 1168 1168 1149 1168 1187 1168 1187 1187 1187 1187 1187 1187 1168 1149 1226 1082 1187 1206 1226 1247 1247 1247 1226 1226 1268 1247 1268 1149 1206 1206 1187 1149 1168 1168 1149 1149 1226 1132 1115 1132 1226 1168 1187 1187 1206 1226 1247 1247 1247 1268 0 1082 1168 1149 1098 1149 1168 1168 1149 1168 1206 1187 1168 1226 1168 1149 1149 1168 1132 1149 1149 1149 1132 1149 1187 1187 1187 0 1247 1115 1098 1187 0 981 994 981 968 886 0 0 0 0 0 0 0 0 1247 1291 1291 1291 1268 1247 1168 1115 1082 1008 994 955 955 943 943 931 919 897 886 865 865 855 855 845 845 826 826 799 799 774 774 758 743 728 735 728 728 707 707 700 700 700 700 669 675 675 669 669 645 639 634 629 645 618 0 613 608 598 598 584 588 570 574 574 566 566 557 557 557 545 545 533 533 529 521 525 514 490 497 490 490 490 487 484 474 471 477 462 462 459 0 0 0 0 0
    0 0 0 0 0 0 0 0 0 0 0 0 0 0 0 0 0 0 0 0 0 0 0 0 0 0 0 0 0 0 0 0 0 0 0 0 0 0 0 0 0 0 0 0 0 0 0 0 0 0 0 0 0 0 0 0 0 0 0 0 0 0 0 0 0 0 0 0 0 0 0 1247 0 1206 1187 1187 1187 1226 1206 1115 0 0 1132 1082 1066 0 0 0 0 149 149 0 1314 1247 1247 1247 1247 1247 1247 1247 1268 1268 1268 1268 1268 1291 1187 1226 1226 1226 1187 1206 1187 1168 1149 1247 1168 1187 1187 0 1268 1226 1247 1268 1268 1226 1206 1206 1206 1187 1168 1168 1187 1206 1187 1187 1187 1187 1187 1187 1187 1187 1149 1226 1082 1168 1206 1226 1226 1247 1247 1226 1226 1291 1268 1268 1149 1206 1206 1187 1149 1187 1168 1168 1149 1226 1115 1115 1132 1206 1149 1149 1168 1187 1206 1226 1226 1226 1247 1149 1082 1132 1149 1098 1149 1168 1168 1149 1168 1206 1187 1168 1226 1187 1149 1149 1168 1132 1168 1149 1149 1115 1149 1168 1168 1187 0 1268 1066 1066 1132 994 981 981 981 981 994 1098 1149 1115 1226 1338 1291 1291 1187 1226 1268 1268 1268 1226 1206 1132 1098 1066 1008 994 955 968 955 955 943 919 908 897 865 876 865 855 855 845 836 836 808 799 782 774 766 743 735 743 735 735 714 714 707 714 707 714 675 675 675 675 675 651 639 639 634 645 623 0 613 603 598 598 579 588 570 574 574 566 566 557 557 557 545 545 533 533 529 521 525 514 487 497 490 490 487 487 484 474 471 477 462 462 459 0 0 0 0 0
    0 0 0 0 0 0 0 0 0 0 0 0 0 0 0 0 0 0 0 0 0 0 0 0 0 0 0 0 0 0 0 0 0 0 0 0 0 0 0 0 0 0 0 0 0 0 0 0 0 0 0 0 0 0 0 0 0 0 0 0 0 0 0 0 0 0 0 0 0 1247 1268 1247 1226 1187 1168 1149 1168 1187 1168 1098 1082 1115 1098 1066 1051 0 0 0 0 149 149 0 1291 1247 1268 1247 1247 1247 1247 1268 1268 1268 1268 1268 1268 1268 1168 1226 1226 1206 1168 1187 1187 1168 1149 1247 1168 1187 1187 1268 1247 1226 1226 1247 1247 1226 1187 1206 1206 1206 1187 1168 1187 1226 1187 1206 1206 1206 1187 1187 1206 1206 1149 1226 1066 1168 1206 1226 1226 1226 1226 1226 1226 1291 1247 1247 1149 1206 1206 1206 1149 1187 1168 1168 1149 1206 1115 1115 1115 1206 1132 1132 1168 1187 1206 1226 1226 1226 1247 1132 1082 1132 1149 1098 1149 1168 1168 1149 1187 1187 1206 1187 1226 1206 1149 1187 1168 1149 1187 1149 1149 1115 1149 1168 1132 1187 0 0 0 1051 1226 1022 1008 1008 1022 1051 1082 1206 1206 1187 1226 1268 1247 1247 1132 1206 1226 1226 1226 1206 1168 1115 1098 1051 1008 994 955 968 955 955 943 931 908 897 865 876 865 865 855 855 845 836 817 808 782 782 766 750 735 750 735 743 714 721 714 714 714 714 681 681 681 675 675 651 645 639 634 645 623 0 608 598 593 593 579 584 570 574 574 566 566 561 557 557 545 545 533 533 529 521 525 518 487 497 490 490 490 487 484 477 471 477 462 462 459 0 0 0 0 0
    0 0 0 0 0 0 0 0 0 0 0 0 0 0 0 0 0 0 0 0 0 0 0 0 0 0 0 0 0 0 0 0 0 0 0 0 0 0 0 0 0 0 0 0 0 0 0 0 0 0 0 0 0 0 0 0 0 0 0 0 0 0 0 0 0 0 0 0 0 1187 1206 1206 1187 1168 1149 1149 1168 1187 1168 1115 1082 1098 1082 1066 0 0 0 0 0 150 149 0 1268 1226 1268 1247 1247 1247 1247 1268 1247 1247 1268 1268 1268 1268 1168 1206 1226 1206 1168 1187 1187 1168 1149 1247 1168 1187 1187 1247 1226 1187 1206 1226 1226 1187 1149 1206 1187 1206 1206 1149 1187 1226 1206 1206 1226 1206 1206 1187 1206 1206 1149 1187 1066 1168 1187 1187 1206 1226 1226 1206 1206 1291 1247 1247 1168 1206 1226 1206 1168 1187 1187 1168 1149 1206 1098 1115 1115 1187 1132 1149 1168 1206 1226 1247 1226 1226 1247 1132 1098 1115 1149 1115 1149 1168 1168 1149 1187 1187 1206 1206 1226 1206 1168 1187 1168 1149 1187 1149 1115 1098 1132 1132 1115 1187 0 0 0 0 0 0 1051 1051 1082 1115 1149 1187 1187 1187 1187 1247 1206 1187 1115 1187 1226 1226 1226 1206 1168 1132 1098 1051 1008 994 955 968 955 955 943 931 908 897 865 886 865 865 865 855 845 845 817 808 782 782 774 758 743 758 743 750 721 721 714 721 714 721 681 681 681 675 675 651 645 639 634 639 623 0 608 598 593 588 579 584 570 574 574 566 570 561 557 561 545 549 537 533 529 521 525 518 487 497 493 490 490 487 484 477 471 477 462 459 459 0 0 0 0 0
    0 0 0 0 0 0 0 0 0 0 0 0 0 0 0 0 0 0 0 0 0 0 0 0 0 0 0 0 0 0 0 0 0 0 0 0 0 0 0 0 0 0 0 0 0 0 0 0 0 0 0 0 0 0 0 0 0 0 0 0 0 0 0 0 0 0 0 0 0 1149 1149 1168 1149 1149 1132 1132 1149 1168 1168 1115 1098 1098 1098 1066 0 0 0 148 0 150 149 1226 1268 1247 1268 1247 1268 1247 1268 1268 1268 1268 1268 1247 1268 1268 1168 1206 1206 1206 1168 1187 1187 1168 1168 1268 1187 1206 1187 1247 1226 1149 1168 1187 1187 1168 1149 1187 1187 1187 1206 1132 1187 1226 1206 1206 1206 1206 1206 1187 1226 1206 1149 1168 1082 1168 1187 1187 1206 1206 1226 1226 1226 1291 1268 1247 1206 1226 1226 1226 1187 1187 1187 1168 1168 1206 1098 1115 1115 1168 1132 1149 1168 1206 1226 1226 1206 1206 1226 1132 1115 1098 1149 1115 1132 1168 1168 1149 1187 1187 1226 1206 1226 1226 1206 1187 1168 1168 1206 1149 1115 1098 1132 1098 1115 0 0 0 0 0 0 1168 1115 1098 1168 1187 1226 1226 1226 1226 1226 1247 1206 1168 1098 1206 1226 1226 1226 1206 1168 1149 1098 1036 1008 1008 955 968 955 955 943 931 908 897 876 886 876 865 865 855 0 845 817 808 782 782 774 766 750 758 750 750 728 728 721 721 714 0 681 675 675 675 675 651 639 639 634 639 623 0 0 598 588 588 579 584 570 574 574 566 570 561 557 561 545 545 537 533 529 521 521 514 487 497 490 490 487 487 484 477 471 477 462 459 462 0 0 0 0 0
    0 0 0 0 0 0 0 0 0 0 0 0 0 0 0 0 0 0 0 0 0 0 0 0 0 0 0 0 0 0 0 0 0 0 0 0 0 0 0 0 0 0 0 0 0 0 0 0 0 0 0 0 0 0 0 0 0 0 0 0 0 0 0 0 0 0 0 0 0 1168 1168 1206 1187 1168 1132 1132 1168 1168 1187 1115 1098 1098 1098 1082 0 0 0 0 0 0 0 1247 1247 1268 1268 1247 1268 1268 1268 1291 1268 1268 1268 1268 1268 1268 1149 1206 1226 1206 1168 1187 1187 1187 1168 1268 1187 1206 1187 1247 1206 1098 1115 1149 1168 1168 1132 1206 1187 1187 1206 1149 1187 1226 1226 1206 1206 1206 1206 1187 1226 1206 1149 1149 1082 1168 1168 1168 1187 1206 1206 1206 1206 1291 1268 1247 1226 1247 1247 1226 1206 1206 1187 1187 1187 1206 1115 1115 1132 1187 1149 1168 1187 1226 1247 1247 1206 1206 1206 1132 1115 1098 1132 1115 1115 1168 1168 1168 1187 1168 1226 1226 1226 1247 1226 1206 1168 1187 1206 1115 1098 1098 1115 1082 1149 0 0 0 0 0 1149 1168 1132 1098 1187 1206 1247 1247 1226 1226 1206 1247 1149 1098 1066 1187 1206 1206 1226 1206 1149 1149 1098 1036 1008 1008 955 981 955 968 943 931 908 897 876 897 876 865 865 855 0 845 817 808 791 791 782 766 750 766 750 758 728 728 721 721 721 0 681 675 675 0 675 651 639 645 634 639 0 0 0 0 593 588 574 584 570 574 574 566 570 561 557 561 0 545 533 529 529 521 521 514 487 497 490 487 487 484 484 477 471 474 462 459 462 0 0 0 0 0
    0 0 0 0 0 0 0 0 0 0 0 0 0 0 0 0 0 0 0 0 0 0 0 0 0 0 0 0 0 0 0 0 0 0 0 0 0 0 0 0 0 0 0 0 0 0 0 0 0 0 0 0 0 0 0 0 0 0 0 0 0 0 0 0 0 0 0 0 0 1187 1187 1206 1206 1187 1149 1132 1168 1168 1187 1115 1098 1115 1098 1098 1132 0 0 0 0 0 0 1247 1247 1268 1268 1247 1268 1268 1268 1268 1268 1268 1268 1268 1268 1268 1149 1206 1226 1206 1168 1187 1206 1187 1187 1291 1226 1226 1206 1268 1247 1115 1132 1149 1187 1187 1132 1206 1206 1187 1206 1149 1187 1226 1226 1226 1206 1187 1206 1168 1206 1187 1149 1132 1066 1149 1149 1149 1187 1206 1206 1206 1206 1291 1247 1226 1226 1226 1226 1206 1187 1187 1187 1187 1206 1226 1115 1149 1149 1206 1168 1187 1206 1226 1226 1226 1168 1187 1168 1098 1115 1082 1132 1132 1115 1168 1168 1168 1168 1168 1226 1206 1206 124 1206 1187 1149 1187 1206 1098 1082 1082 1098 1066 1149 0 0 0 0 1082 1098 1132 1115 1098 1187 1226 1268 1268 1268 1247 1226 1226 1098 1051 1051 1115 1115 1115 1149 1132 1098 1149 1098 1036 1022 1022 955 981 968 968 943 931 919 897 876 908 876 865 865 855 0 845 826 808 791 791 782 774 758 774 758 766 735 728 721 721 714 0 681 675 675 669 675 651 645 645 634 639 0 0 0 0 0 0 579 579 570 574 574 566 570 561 561 561 0 545 537 533 529 521 518 511 487 493 490 487 487 484 481 477 471 474 465 459 462 0 0 0 0 0
    0 0 0 0 0 0 0 0 0 0 0 0 0 0 0 0 0 0 0 0 0 0 0 0 0 0 0 0 0 0 0 0 0 0 0 0 0 0 0 0 0 0 0 0 0 0 0 0 0 0 0 0 0 0 0 0 0 0 0 0 0 0 0 0 0 0 0 0 0 1206 1226 1206 1226 1206 1168 1149 1206 1206 1226 1168 1168 1168 1149 1149 1187 0 0 0 0 0 1206 1247 1226 1247 1247 1226 1247 1247 1247 1247 1247 1268 1268 1247 1268 1247 1132 1206 1226 1206 1168 1168 1206 1187 1187 1314 1247 1247 1226 1268 1291 1187 1206 1168 1187 1206 1168 1206 1206 1206 1187 1132 1206 1226 1226 1226 1206 1206 1187 1187 1206 1168 1132 1115 1066 1149 1149 1149 1187 1206 1206 1206 1206 1291 1226 1206 1206 1226 1206 164 0 1187 1168 1187 1206 1226 1115 1149 1149 1206 1149 1168 1168 1206 1187 1187 1082 1115 1115 1082 1115 1066 1132 1132 1098 1168 1168 1149 1168 1168 1226 1206 1206 124 0 1168 1149 1187 1206 1082 1082 1098 1098 1082 1168 0 0 0 0 1036 1051 1098 1115 1098 1187 1226 1291 1314 1291 1268 1247 1206 1066 1036 1066 1115 1098 1098 1149 1115 1115 1168 1098 1022 1022 1022 955 0 968 968 943 931 919 897 876 908 876 876 865 855 0 845 826 808 791 791 782 774 758 774 758 766 735 728 728 728 721 0 681 675 675 669 669 651 639 645 639 639 0 0 95 95 0 0 579 579 574 570 574 566 566 561 561 561 549 549 537 533 529 521 521 507 487 493 487 487 484 484 481 477 471 474 465 459 462 0 0 0 0 0
    0 0 0 0 0 0 0 0 0 0 0 0 0 0 0 0 0 0 0 0 0 0 0 0 0 0 0 0 0 0 0 0 0 0 0 0 0 0 0 0 0 0 0 0 0 0 0 0 0 0 0 0 0 0 0 0 0 0 0 0 0 0 0 0 0 0 0 0 0 1226 0 1206 1226 1206 1168 1149 1226 1226 1247 1206 1206 1187 1149 1168 1187 1168 0 0 0 0 1226 1247 1226 1247 1247 1226 1247 1247 1247 1247 1226 1247 1247 1226 1247 1226 1115 1206 1206 1206 1149 1168 1187 1187 1187 1291 1226 1206 1206 1247 1268 1226 1206 1149 1206 1226 1187 1226 1226 1206 1168 1149 1206 1226 1226 1226 1206 1187 1187 1187 1206 1168 1149 1115 1082 1149 1132 1132 1168 1206 1206 1187 1206 1268 1226 1187 1206 1206 1187 164 0 1168 1168 1187 1206 1206 1115 1168 1149 1187 1132 1149 1132 0 1168 1168 1066 1098 1098 1066 1115 1066 1132 1132 1098 1168 1168 1149 1168 1168 1247 1206 1206 123 0 1149 1168 1187 1187 1098 1115 1115 1115 1082 0 0 0 931 1022 1022 1051 1082 1098 1098 1168 1206 1268 1314 1268 1268 1247 1187 1082 1051 1098 1132 1115 1115 1149 1115 1115 1149 1098 1022 1022 1022 968 981 968 968 943 931 919 897 876 908 876 876 865 865 0 855 826 817 799 791 791 782 758 774 758 766 735 735 728 728 721 0 681 675 675 669 669 651 639 645 639 639 0 0 95 0 0 0 579 579 570 570 574 566 566 561 561 557 0 0 537 533 529 521 518 507 490 493 487 487 487 484 481 477 468 474 465 459 462 0 0 0 0 0
    0 0 0 0 0 0 0 0 0 0 0 0 0 0 0 0 0 0 0 0 0 0 0 0 0 0 0 0 0 0 0 0 0 0 0 0 0 0 0 0 0 0 0 0 0 0 0 0 0 0 0 0 0 0 0 0 0 0 0 0 0 0 0 0 0 0 0 0 0 1268 0 1268 1268 1268 1226 1206 1268 1247 1268 1247 1226 1206 1187 0 1206 0 0 0 0 0 1226 1247 1226 1247 1247 1226 1247 1247 1247 1226 1226 1247 1226 1226 1226 1206 1115 1206 1206 1206 1149 1187 1206 1187 1187 1291 1226 1206 1226 1268 1268 1247 1291 1168 1226 1247 1206 1247 1247 1226 1168 1149 1226 1226 1226 1226 1206 1206 1206 1206 1206 1168 1168 1115 1115 1168 1149 1149 1168 1187 1206 1187 1226 1268 1206 1187 1206 1226 1187 0 1168 1187 1168 1187 1206 1187 1115 1168 1168 1206 1149 0 0 0 0 0 1098 1115 1098 1066 1115 1066 1132 1132 1115 1168 1168 1168 1187 1168 1247 1206 1206 123 1206 1149 1187 1206 1187 1115 1132 1115 1115 1098 1206 0 0 981 1036 1022 1051 1082 1115 1132 1187 1206 1268 1291 1268 1268 1247 1187 1098 1082 1115 1115 1115 1098 1132 1098 1098 1149 1098 1022 1022 1022 968 981 968 968 943 943 919 897 886 919 886 876 876 865 855 855 836 817 799 799 791 782 766 774 758 766 735 728 728 728 714 0 681 675 675 669 669 645 639 645 634 634 0 0 0 0 0 0 579 574 570 570 574 566 566 557 557 557 0 0 537 529 529 521 518 507 490 497 490 487 487 484 484 477 468 474 468 459 462 0 0 0 0 0
    0 0 0 0 0 0 0 0 0 0 0 0 0 0 0 0 0 0 0 0 0 0 0 0 0 0 0 0 0 0 0 0 0 0 0 0 0 0 0 0 0 0 0 0 0 0 0 0 0 0 0 0 0 0 0 0 0 0 0 0 0 0 0 0 0 0 0 0 0 1388 0 0 1314 1291 1226 1226 1268 1268 1268 1268 1268 1247 1226 0 0 0 0 0 0 1187 1247 1247 1226 1268 1247 1247 1247 1268 1247 1226 1226 1247 1206 1206 1206 1206 1115 1206 1206 1187 1149 1187 1206 1187 1187 1291 1226 1206 1206 1247 1247 1226 1268 1187 1206 1247 1226 1226 1247 1206 1149 1149 1226 1226 1226 1206 1187 1206 1206 1206 1206 1168 1168 1098 1115 1168 1149 1149 1168 1206 1206 1187 1226 1268 1187 1187 0 1226 1187 0 1168 1168 1168 1206 1226 1168 1115 1168 1187 1206 1168 0 0 0 0 0 0 1115 1082 1066 1132 1066 1132 1132 1115 1187 1187 1168 1187 1187 1247 1226 1226 0 1206 1149 1206 1226 1187 1115 1132 1132 1115 1115 1206 1098 0 981 1022 1008 1051 1082 1115 1132 1187 1206 1268 1291 1247 1247 1226 1168 1082 1066 1115 1115 1115 1115 1149 1098 1115 1168 1098 1022 1022 1022 968 981 981 968 955 943 931 908 886 919 886 876 876 865 855 865 836 817 799 799 791 782 758 774 758 766 735 728 721 721 714 0 687 669 675 669 669 645 634 639 634 634 0 598 0 598 593 588 579 574 570 566 570 561 561 557 557 553 549 0 537 529 525 518 518 507 493 497 490 490 490 487 484 481 468 474 468 459 465 0 0 0 0 0
    0 0 0 0 0 0 0 0 0 0 0 0 0 0 0 0 0 0 0 0 0 0 0 0 0 0 0 0 0 0 0 0 0 0 0 0 0 0 0 0 0 0 0 0 0 0 0 0 0 0 0 0 0 0 0 0 0 0 0 0 0 0 0 0 0 0 0 0 0 0 0 1338 1338 1314 1247 1247 1268 1268 1268 1268 1291 1268 0 0 0 0 0 0 0 1206 1247 1247 1226 1268 1247 1247 1268 1268 1226 1206 1226 1247 1206 1206 1206 1206 1115 1206 1206 1187 1149 1187 1206 1187 1168 1268 1206 1187 1206 1247 1226 1226 1226 1206 1206 1247 1226 1226 1226 1168 1115 1132 1226 1206 1206 1168 1168 1187 1187 1206 1187 1132 1149 1098 1132 1168 1149 1149 1187 1206 1206 1206 1247 1247 1187 1187 0 0 1187 1168 1168 1168 1168 1206 1226 1149 1132 1187 1206 1226 1168 1268 0 0 0 0 0 1082 1066 1051 1115 1051 1132 1132 1132 1187 1187 1168 1187 1206 1268 1226 1247 1247 1187 1149 1226 1226 1187 1132 1168 1149 1132 1132 0 1051 1008 0 0 1008 1036 1066 1098 1115 1168 1187 1247 1268 1247 1247 1226 1206 1098 1082 1149 1132 1132 1132 1149 1082 1115 1168 1098 1008 1022 1022 968 981 981 968 955 955 931 908 886 931 886 886 876 876 855 865 836 826 799 799 782 774 758 766 758 758 735 728 721 721 714 0 687 669 669 663 669 639 634 639 634 629 623 603 603 598 598 593 579 574 570 566 570 561 561 557 557 553 549 0 537 525 525 518 518 507 497 497 490 490 490 487 484 481 468 471 468 459 465 0 0 0 0 0
    0 0 0 0 0 0 0 0 0 0 0 0 0 0 0 0 0 0 0 0 0 0 0 0 0 0 0 0 0 0 0 0 0 0 0 0 0 0 0 0 0 0 0 0 0 0 0 0 0 0 0 0 0 0 0 0 0 0 0 0 0 0 0 0 0 0 0 0 0 1415 1388 1338 1314 1291 1247 1247 1268 1268 1291 1291 1314 1314 0 0 1388 0 0 0 0 1247 1268 1247 1247 1268 1247 1247 1247 1268 1226 1206 1247 1247 1206 1187 1206 1206 1132 1206 1206 1187 1149 1187 1206 1187 1168 1268 1187 1187 1187 1247 1226 1226 1247 1247 1206 1247 1247 1226 1226 1149 1098 1132 1206 1206 1187 1149 1149 1168 1187 1206 1168 1132 1132 1098 1168 1187 1168 1168 1187 1206 1206 1226 1247 1247 1168 1187 0 0 0 1149 1149 1168 1168 1206 1226 1149 1149 1206 1226 1226 1168 1291 1226 0 0 0 0 1115 1082 1051 1115 1051 1132 1132 1149 1206 1206 1168 1206 1206 1268 1247 0 1247 1168 1149 1247 1247 1187 1187 1206 1187 1187 1187 0 1051 1022 981 1008 981 1022 1036 1066 1098 1149 1206 1247 1291 1247 1226 1226 1206 1098 1098 1149 1149 1132 1149 1168 1082 1115 1168 1082 1008 1022 1022 968 994 994 981 955 955 943 919 886 931 897 886 886 876 865 876 845 826 808 799 782 774 750 758 750 750 728 721 721 721 707 0 687 669 669 663 663 639 634 639 634 629 623 603 608 598 598 593 584 570 570 561 566 561 557 553 553 553 549 541 537 525 525 518 518 504 497 497 490 490 490 487 481 477 465 471 468 457 462 0 0 0 0 0
    0 0 0 0 0 0 0 0 0 0 0 0 0 0 0 0 0 0 0 0 0 0 0 0 0 0 0 0 0 0 0 0 0 0 0 0 0 0 0 0 0 0 0 0 0 0 0 0 0 0 0 0 0 0 0 0 0 0 0 0 0 0 0 0 0 0 0 0 0 1388 1362 1338 1314 1291 1268 1268 1268 1268 1291 1291 1338 1338 0 0 1388 1388 0 0 0 1268 1291 1268 1247 1268 1247 1247 1268 1268 1226 1226 1247 1247 1206 1187 1206 1206 1149 1206 1206 1187 1149 1187 1206 1187 1168 1268 1187 1187 1206 1247 1247 1268 1268 1291 1247 1268 1291 1268 1268 1132 1115 1149 1206 1206 1206 1168 1168 1168 1206 1206 1168 1149 1132 1115 1168 1187 1168 1168 1187 1206 1206 1226 1247 1206 1168 1187 0 164 0 1132 1149 1149 1168 1206 1206 1168 1149 1247 1247 1247 1206 1291 1247 0 0 0 1206 1149 1066 1051 1132 1051 1132 1132 1168 1226 1226 1187 1206 1226 1268 1268 0 1247 1168 1149 1247 1247 1206 1206 1226 1206 1206 1226 0 0 994 955 968 943 943 968 1036 1066 1098 1168 1206 1247 1206 1206 1206 1187 1082 1098 1168 1149 1149 1168 1149 1082 1132 1168 1082 1008 1022 1022 981 994 994 981 968 968 955 931 897 931 897 886 886 886 865 886 855 845 817 799 782 774 743 750 743 743 721 714 714 714 700 700 687 669 669 663 663 639 634 639 634 629 623 608 608 603 603 593 584 570 570 561 566 557 553 553 553 549 549 541 541 529 529 521 521 504 504 500 493 490 493 487 481 477 462 468 468 457 462 0 0 0 0 0
    0 0 0 0 0 0 0 0 0 0 0 0 0 0 0 0 0 0 0 0 0 0 0 0 0 0 0 0 0 0 0 0 0 0 0 0 0 0 0 0 0 0 0 0 0 0 0 0 0 0 0 0 0 0 0 0 0 0 0 0 0 0 0 0 0 0 0 0 0 1415 1388 1338 1314 1314 1268 1291 1268 1268 1268 1291 1338 1338 1338 1338 1338 1338 1314 0 1226 1247 1268 1247 1247 1247 1247 1247 1247 1247 1226 1226 1247 1226 1187 1187 1206 1206 1149 1206 1187 1187 1149 1187 1206 1187 1168 1247 1187 1168 1187 1247 1247 1268 1291 1314 1268 1314 1314 1291 1291 1132 1115 1149 1206 1206 1206 1168 1168 1187 1226 1206 1168 1149 1115 1115 1187 1168 1168 1168 1187 1206 1206 1226 1247 1168 1168 1187 0 0 1132 0 1149 1149 1187 1206 1206 1168 1168 1268 1268 1268 1226 1314 1226 0 0 1206 1115 1098 1036 1036 1115 1051 1132 1149 1187 1247 1247 1187 1226 1226 1291 1268 0 1226 1149 1149 1247 1226 1206 1206 1247 1226 1226 1247 0 0 1008 955 955 931 908 955 1022 1051 1066 1115 1149 1187 1168 1168 1187 1149 1082 1115 1168 1168 1149 1168 1149 1098 1132 1149 1082 994 1022 1022 981 1008 1008 994 981 981 968 955 908 943 908 897 886 886 876 886 855 855 817 799 774 766 735 743 743 735 721 714 707 707 700 694 681 663 663 663 657 639 634 634 634 629 623 608 608 603 603 593 584 566 570 557 561 557 553 549 553 549 549 541 541 529 529 521 521 507 507 500 497 493 497 490 484 481 459 468 468 454 462 0 0 0 0 0
    0 0 0 0 0 0 0 0 0 0 0 0 0 0 0 0 0 0 0 0 0 0 0 0 0 0 0 0 0 0 0 0 0 0 0 0 0 0 0 0 0 0 0 0 0 0 0 0 0 0 0 0 0 0 0 0 0 0 0 0 0 0 0 0 0 0 0 0 0 0 1362 1338 1314 1291 1268 1268 1247 1247 1268 1291 1338 1314 1314 1338 1362 1338 0 0 1247 1268 1268 1268 1247 1247 1247 1247 1247 1226 1206 1226 1226 1226 1187 1187 1206 1206 1149 1206 1187 1187 1168 1187 1206 1187 1149 1247 1168 1168 1187 1226 1226 1268 1291 1314 1268 1291 1314 1291 1291 1098 1115 1149 1206 1206 1187 1168 1168 1187 1226 1206 1168 1168 1115 1115 1187 1168 1168 1168 1187 1187 1187 1226 1247 1149 1168 1187 1187 0 1132 1149 1149 1168 1187 1206 1168 1149 1149 1247 1226 1226 1168 1268 1187 0 0 0 1115 1115 1051 1051 1132 1051 1149 1149 1226 1247 1247 1187 1226 1226 1291 1268 0 1226 1132 1149 1268 1226 1206 1226 1247 1226 1226 1268 0 0 1082 1008 968 919 897 943 0 1082 1082 1132 1149 1206 1168 1187 1206 1187 1132 1168 1206 1187 1187 1206 1168 1115 1149 1149 1066 994 1036 1022 994 1022 1008 1008 994 994 981 955 908 943 908 886 886 886 865 886 845 855 817 799 758 766 735 735 735 728 714 714 707 707 694 687 681 663 663 657 651 639 634 634 629 623 623 608 608 603 603 593 588 566 570 557 561 557 553 549 553 549 549 541 541 529 529 521 521 511 511 504 500 493 497 490 484 481 459 468 468 454 462 0 0 0 0 0
    0 0 0 0 0 0 0 0 0 0 0 0 0 0 0 0 0 0 0 0 0 0 0 0 0 0 0 0 0 0 0 0 0 0 0 0 0 0 0 0 0 0 0 0 0 0 0 0 0 0 0 0 0 0 0 0 0 0 0 0 0 0 0 0 0 0 0 0 0 0 0 1338 1338 1314 1268 1268 1247 1247 1268 1291 1338 1314 0 0 0 0 0 0 1291 1291 1268 1268 1268 1247 1247 1247 1226 1206 1206 1247 1247 1226 1206 1168 1206 1206 1149 1187 1187 1187 1168 1187 1206 1187 1168 1247 1187 1168 1187 1226 1247 1268 1268 1314 1268 1291 1314 1291 1247 1098 1132 1149 1187 1187 0 1168 1168 1187 1226 1206 1149 1168 1098 1132 1187 1168 1168 1168 1187 1187 1187 1226 1226 1132 1168 1187 1187 1168 0 1149 1149 1168 1187 1187 1149 1132 1149 1247 1226 1247 1206 1314 1268 1247 0 1226 1206 1187 1149 1082 1168 1051 1149 1149 1226 1247 1247 1187 1226 1226 1291 1268 0 1226 1132 1149 1268 1226 1206 1226 1226 1226 1226 1268 1247 1098 1036 1008 943 876 886 931 0 1098 1115 1168 1187 1187 1168 1206 1226 1206 1168 1187 1206 1206 1206 1226 1149 1115 1149 1168 1066 1008 1036 1036 1008 1036 1022 1022 1008 1008 994 968 908 955 908 886 876 876 865 876 845 865 817 791 750 758 728 728 728 728 714 707 700 700 687 687 681 657 663 657 651 639 634 634 629 623 623 608 608 603 603 593 588 566 570 557 561 557 553 553 553 549 553 541 545 529 533 521 525 514 514 511 504 497 500 493 487 481 459 468 468 454 459 0 0 0 0 0
    0 0 0 0 0 0 0 0 0 0 0 0 0 0 0 0 0 0 0 0 0 0 0 0 0 0 0 0 0 0 0 0 0 0 0 0 0 0 0 0 0 0 0 0 0 0 0 0 0 0 0 0 0 0 0 0 0 0 0 0 0 0 0 0 0 0 0 0 0 1388 1388 1362 1362 1338 1314 1291 1268 1247 1291 1291 1338 1314 0 0 0 0 0 1362 1338 1314 1291 1291 1268 1247 1268 1247 1226 1206 1226 1247 1247 1247 1206 1168 1206 1206 1149 1187 1187 1187 1168 1187 1206 1187 1168 1268 1187 1187 1206 1247 1247 1268 1291 1314 1268 1291 1291 1268 1168 1082 1149 1149 1187 1187 127 1168 1168 1187 1226 1187 1168 1168 1098 1149 1187 1168 1168 1187 1206 1206 1206 1247 1226 1132 1168 1206 0 0 0 1132 1132 1168 1187 1187 1149 1149 1168 1268 1247 1268 1247 1338 1291 1268 1226 1187 1187 1168 1132 1066 1168 1051 1149 1149 1206 1247 1247 1168 1226 1206 1268 1247 0 1226 1115 1149 1268 1206 1187 1206 1206 1206 1226 1268 1149 1022 994 1008 0 0 0 0 0 1149 1149 1206 1247 1206 1168 1206 1206 1206 1168 1187 1206 1187 1187 1206 1132 1115 1168 1168 1082 1008 1051 1036 1022 1051 1036 1036 1022 1022 0 981 919 955 908 886 876 876 865 876 845 855 808 791 743 750 728 728 728 721 714 700 700 694 687 681 681 657 657 651 645 639 634 634 634 623 629 613 613 608 608 598 593 566 570 557 561 557 553 553 553 549 557 545 549 533 533 525 529 518 518 514 511 500 504 493 487 481 459 468 468 454 459 0 0 0 0 0
    0 0 0 0 0 0 0 0 0 0 0 0 0 0 0 0 0 0 0 0 0 0 0 0 0 0 0 0 0 0 0 0 0 0 0 0 0 0 0 0 0 0 0 0 0 0 0 0 0 0 0 0 0 0 0 0 0 0 0 0 0 0 0 0 0 0 0 0 0 0 1388 1362 1362 1314 1314 1268 1226 1226 1291 1291 1338 1314 0 0 0 0 0 1388 1362 1338 1314 1314 1268 1268 1268 1247 1226 1206 1226 1247 1247 1247 1206 1187 1206 1226 1149 1187 1187 1187 1168 1206 1226 1187 1168 1268 1187 1187 1206 1247 1268 1268 1291 1291 1247 1291 1268 1247 1132 1098 1168 0 1168 1187 0 1168 1168 1187 1206 1168 1168 1168 1115 1168 1187 1187 1187 1187 1206 1206 1206 1247 1206 1132 1168 164 164 0 76 0 1132 1168 1187 1168 1132 1132 1168 1268 1247 1247 1226 1268 1149 1132 1132 1082 1115 1115 1082 1066 1149 1051 1149 1149 1187 1226 1226 1168 1206 1206 1247 1226 1226 1206 1115 1149 1268 1187 1187 1187 1206 1206 1247 1268 1132 994 0 0 0 0 0 0 0 1132 1132 1187 1226 1206 1168 1226 1226 1187 1187 1206 1206 1206 1206 1206 1115 1132 1168 1168 1082 1022 1051 1051 1022 1051 1036 1036 1022 1022 0 981 908 943 897 865 865 865 855 865 836 0 808 774 735 743 728 721 721 721 707 700 700 694 681 681 681 651 657 651 645 639 634 634 634 623 629 618 613 613 608 598 593 561 574 557 561 561 553 553 557 553 561 545 553 533 537 529 529 518 518 511 507 497 500 493 484 481 459 465 465 454 459 0 0 0 0 0
    0 0 0 0 0 0 0 0 0 0 0 0 0 0 0 0 0 0 0 0 0 0 0 0 0 0 0 0 0 0 0 0 0 0 0 0 0 0 0 0 0 0 0 0 0 0 0 0 0 0 0 0 0 0 0 0 0 0 0 0 0 0 0 0 0 0 0 0 0 0 0 0 1388 1314 1314 1247 1226 1226 1314 1314 1362 0 0 0 0 0 0 1388 1388 1338 1338 1314 1268 1268 1268 1247 1206 1206 1226 1247 1226 1247 1206 1187 1226 1247 1168 1206 1206 1206 1187 1226 1226 1206 1187 1268 1206 1187 1206 1268 1268 1268 1291 1291 1247 1268 1268 1226 1115 1115 1187 0 0 1187 127 1187 1187 1206 1226 1168 1187 1149 1115 1187 1187 1187 1187 1206 1206 1206 1206 1247 1168 1132 1187 164 164 164 0 0 1132 1168 1187 1149 1132 1149 1187 1291 1268 1247 1247 1268 1149 1132 1115 1082 1115 1115 1098 1082 1149 1066 1149 1168 1168 1226 1226 1149 1206 1187 1247 1226 1206 1206 1115 1149 1247 1149 1149 1168 1168 1168 1226 1226 1132 0 0 0 0 0 0 0 0 1132 1132 1187 1247 1226 1226 1268 1268 1226 1226 1247 1247 1226 1226 1187 1115 1132 1168 1168 1066 1022 1051 1051 1036 1066 1036 1036 1022 1022 0 981 908 931 897 865 865 855 855 855 836 0 808 774 735 743 721 714 714 714 707 700 694 687 681 675 675 645 657 645 639 639 639 634 634 623 629 618 618 613 613 598 598 561 574 557 561 561 557 557 557 557 566 549 561 537 537 529 529 518 518 507 504 493 497 493 0 477 459 462 465 454 457 0 0 0 0 0
    0 0 0 0 0 0 0 0 0 0 0 0 0 0 0 0 0 0 0 0 0 0 0 0 0 0 0 0 0 0 0 0 0 0 0 0 0 0 0 0 0 0 0 0 0 0 0 0 0 0 0 0 0 0 0 0 0 0 0 0 0 0 0 0 0 0 0 0 0 0 0 0 0 1338 1338 1291 1247 1247 1415 1388 1362 0 0 0 0 0 0 1388 1415 1362 1338 1314 1291 1268 1268 1247 1206 1206 1226 1226 1226 1247 1206 1206 1247 1268 1187 1226 1226 1226 1206 1226 1247 1206 1206 1291 1226 1206 1226 1291 1291 1268 1291 1291 1247 1291 1268 1226 1132 1149 1187 0 0 1187 127 1187 1206 1226 1226 1187 1206 1149 1132 1187 1187 1187 1187 1206 1206 1187 1226 1247 1149 1149 1187 164 164 164 0 1149 1132 1187 1206 1132 1149 1149 1206 1314 1268 1226 1226 1247 1149 1149 1132 1098 1115 1149 1149 1098 1168 1066 1168 1168 1168 1206 1206 1149 1206 1187 1247 1206 1187 1206 1115 1132 1247 1132 1132 1132 1149 1168 1206 1226 1132 1051 0 0 0 0 1066 1051 1132 1187 1187 1226 1314 1268 1247 1291 1291 1206 1226 1247 1247 1226 1226 1168 1098 1149 1187 1168 1082 1022 1066 1051 1036 1066 1051 1036 1022 1022 0 981 908 931 897 855 865 855 0 845 826 0 808 774 735 743 728 714 714 714 707 700 694 687 675 669 675 645 657 645 639 639 639 639 634 623 634 618 618 613 613 598 593 561 574 557 561 561 557 557 561 557 570 553 570 541 541 529 529 518 514 504 504 493 493 490 0 474 462 462 465 454 457 0 0 0 0 0
    0 0 0 0 0 0 0 0 0 0 0 0 0 0 0 0 0 0 0 0 0 0 0 0 0 0 0 0 0 0 0 0 0 0 0 0 0 0 0 0 0 0 0 0 0 0 0 0 0 0 0 0 0 0 0 0 0 0 0 0 0 0 0 0 0 0 0 0 0 271 266 0 0 0 1338 1268 1226 1247 1565 1471 1415 0 0 1338 1415 1362 1388 1388 1388 1338 1338 1314 1268 1268 1268 1226 1187 1206 1226 1226 1226 1247 1206 1206 1268 1268 1187 1226 1247 1247 1226 1247 1268 1226 1206 1291 1226 1206 1226 1291 1291 1291 1314 1268 1268 1268 1268 1206 1132 1168 1206 0 0 1187 127 1187 1206 1247 1226 1168 1206 1132 1149 1187 1168 1168 1168 1187 1187 1187 1226 1226 1149 1149 1187 164 164 164 0 1149 0 1206 1226 1115 1132 1149 1247 1338 1268 1206 1168 1149 1115 1115 1115 1082 1115 1132 1132 1098 1168 1082 1187 1187 1168 1206 1206 1132 1187 1187 1226 1187 1168 1187 1115 1132 1226 1115 1115 1098 1115 1149 1187 1187 1098 1051 0 1036 0 0 1051 1036 1115 1206 1226 1268 1415 1314 1268 1291 1291 1206 1226 1247 1247 1226 1226 1168 1115 1168 1187 1168 1098 1022 1066 1066 1036 1066 1036 1036 1036 1022 1008 981 908 0 897 855 855 0 0 826 817 0 791 750 728 743 728 721 721 721 707 700 694 687 675 663 669 645 651 645 639 639 639 639 634 623 634 618 613 613 608 593 593 561 579 557 566 566 561 561 566 561 574 557 579 541 541 533 529 521 518 507 504 493 493 490 481 474 462 462 465 454 457 0 0 0 0 0
    0 0 0 0 0 0 0 0 0 0 0 0 0 0 0 0 0 0 0 0 0 0 0 0 0 0 0 0 0 0 0 0 0 0 0 0 0 0 0 0 0 0 0 0 0 0 0 0 0 0 0 0 0 0 0 0 0 0 0 0 0 0 0 0 0 0 0 0 0 271 266 0 0 0 0 1314 0 0 1635 1599 1501 0 0 0 1388 0 1388 1388 1362 1338 1314 1291 1268 1268 1268 1226 1187 1206 1226 1226 1226 1226 1187 1206 1268 1291 1187 1247 1247 1247 1247 1247 1268 1226 1206 1291 1226 1187 1206 1247 1268 1268 1291 1247 1226 1247 1247 1187 1132 1187 1206 0 0 1168 0 1187 1206 1247 1206 1187 1206 1115 1149 1187 1168 1168 1168 1187 1187 1187 1226 1226 1149 1168 1206 164 164 164 0 0 0 1206 1206 1082 1082 1115 1226 1314 1168 1115 1036 1066 1082 1098 1098 1066 1098 1098 1115 1098 1187 1082 1187 1206 1149 1206 1206 1132 1187 1187 1226 1187 1149 1187 1115 1115 1226 1082 1082 1082 1098 1132 1149 1132 1051 0 0 1051 0 0 1098 1082 1247 1338 1362 1388 1501 1362 1291 1314 1268 1206 1226 1247 1247 1226 1226 1168 1132 1168 1206 1168 1115 1036 1066 1066 1051 1066 1036 1036 1036 1022 1008 981 897 0 886 845 845 0 0 817 817 0 791 750 728 735 728 714 714 714 714 700 694 681 675 663 669 639 651 639 634 639 634 634 634 623 634 618 613 613 608 593 593 561 579 557 570 566 561 561 566 561 574 557 574 541 537 533 529 521 518 511 511 497 497 493 484 474 462 459 462 454 457 0 0 0 0 0
    0 0 0 0 0 0 0 0 0 0 0 0 0 0 0 0 0 0 0 0 0 0 0 0 0 0 0 0 0 0 0 0 0 0 0 0 0 0 0 0 0 0 0 0 0 0 0 0 0 0 0 0 0 0 0 0 0 0 0 0 0 0 0 0 0 0 0 0 0 0 0 0 221 0 0 0 0 0 0 0 0 0 0 0 0 0 1362 1362 1338 1314 1314 1291 1268 1268 1268 1226 1187 1206 1226 1226 1226 1226 1168 1206 1291 1314 1206 1268 1268 1268 1268 1268 1268 1226 1226 1291 1247 1206 1226 1247 1268 1247 1268 1226 1206 1226 1226 1149 1132 1187 1206 0 0 0 0 1187 1206 1247 1187 1187 1206 1115 1168 1187 1168 1187 1187 1206 1206 1187 1247 1226 1168 1187 1206 164 164 163 0 0 165 0 0 1066 1066 1082 0 0 0 1051 994 1036 1051 1098 1098 1066 1098 1115 1115 1115 1187 1098 1206 1226 1149 1206 1206 1132 1187 1187 1206 1168 1132 1187 1115 1132 1226 1098 1098 1082 1098 1132 1149 1115 1051 1036 1051 1051 1082 0 1206 1314 1362 1388 1415 1443 1501 1415 1338 0 1268 1206 1226 1226 1226 1206 1206 1132 1132 1168 1187 1187 1132 1051 1082 1082 1051 1051 1036 1036 1022 1022 994 981 886 897 886 836 845 836 836 826 826 817 799 750 735 735 721 714 714 714 707 700 694 687 675 663 669 634 651 639 639 639 634 634 634 629 639 618 618 613 613 593 593 561 579 561 570 570 566 566 570 566 574 557 574 541 541 537 533 525 518 514 511 497 497 493 484 471 462 459 462 454 457 0 0 0 0 0
    0 0 0 0 0 0 0 0 0 0 0 0 0 0 0 0 0 0 0 0 0 0 0 0 0 0 0 0 0 0 0 0 0 0 0 0 0 0 0 0 0 0 0 0 0 0 0 0 0 0 0 0 0 0 0 0 0 0 0 0 0 0 0 0 0 0 0 0 0 0 0 0 0 0 0 0 0 0 0 0 0 0 0 0 0 0 1362 1362 1338 1314 1314 1268 1247 1268 1268 1206 1206 1226 1226 1226 1226 1226 1168 1206 1314 1314 1226 1268 1268 1268 1268 1291 1291 1247 1226 1338 1268 1247 1247 1268 1291 1268 1268 1226 1226 1226 1226 1149 1149 1206 1206 0 0 0 0 1206 1226 1268 1206 1226 1206 1132 1187 1187 1187 1187 1187 1206 1206 1206 1247 1206 1187 1187 1206 164 164 163 0 0 165 0 0 1082 1082 1098 0 0 1082 1066 1008 1036 1051 1082 1098 1066 1098 1098 1098 1098 1168 1098 1187 1226 1132 1187 1206 1132 1187 1168 1206 1168 1132 1187 1115 1132 1226 1115 1115 1098 1115 1168 1168 1115 1051 1036 1051 1051 1082 0 1247 1362 1388 1415 1443 1471 1501 1415 1362 0 1268 1206 1226 1226 1206 1187 1168 1115 1132 1187 1187 1187 1132 1051 1066 1066 1051 1036 1036 1022 1008 1008 994 968 886 897 886 845 845 845 845 826 836 826 799 750 735 728 721 714 714 714 707 700 694 687 681 669 669 629 651 639 634 639 639 639 639 634 645 623 623 623 613 588 593 557 574 561 570 570 566 566 570 566 574 557 570 541 541 537 533 529 518 514 507 493 493 490 477 468 462 457 462 454 457 0 0 0 0 0
    0 0 0 0 0 0 0 0 0 0 0 0 0 0 0 0 0 0 0 0 0 0 0 0 0 0 0 0 0 0 0 0 0 0 0 0 0 0 0 0 0 0 0 0 0 0 0 0 0 0 0 0 0 0 0 0 0 0 0 0 0 0 0 0 0 0 0 0 0 0 0 0 0 0 0 0 0 0 0 0 0 0 0 0 0 1226 1338 1291 1268 1268 1291 1247 1247 1268 1247 1206 1206 1226 1226 1226 1247 1226 1168 1226 1314 1314 1226 1291 1291 1291 1268 1314 1314 1247 1247 1338 1268 1247 1268 1291 1291 1268 1268 1247 1226 1226 1226 1149 1168 1206 1206 0 1206 0 0 1206 1247 1268 1206 1226 1206 1149 1206 1206 1206 1206 1206 1206 1206 1226 1268 1187 1187 1187 1187 164 164 0 1149 0 165 0 0 1082 1082 1098 0 0 1051 1036 994 1036 1036 1066 1082 1066 1082 1082 1082 1098 1132 1098 1168 1226 1132 1187 1206 1132 1187 1168 1206 1168 1115 1187 1132 1132 1226 1115 1115 1098 1115 1187 1168 1115 1051 1051 1066 1066 1082 0 1291 1362 1415 1415 1443 1471 1501 1443 1362 0 0 1206 1226 1226 1206 1187 1149 1115 1149 1187 1206 1168 1132 1051 1066 1066 1051 1022 1022 1008 1008 994 981 968 886 897 886 845 845 845 855 836 836 0 808 799 750 735 728 714 714 714 707 700 694 687 681 663 669 629 645 639 634 639 639 639 639 634 645 623 623 623 608 584 588 557 574 561 570 570 566 566 570 566 574 553 566 541 537 533 529 525 511 507 500 490 490 487 474 468 462 457 462 454 454 0 0 0 0 0
    0 0 0 0 0 0 0 0 0 0 0 0 0 0 0 0 0 0 0 0 0 0 0 0 0 0 0 0 0 0 0 0 0 0 0 0 0 0 0 0 0 0 0 0 0 0 0 0 0 0 0 0 0 0 0 0 0 0 0 0 0 0 0 0 0 0 0 0 0 268 0 0 0 1415 0 0 0 0 1533 1501 0 0 0 0 0 1226 1268 1247 1226 1247 1268 1247 1247 1247 1247 1226 1226 1247 1247 1226 1247 1226 1168 1226 1314 1314 1247 1291 1291 1291 1291 1314 1314 1247 1247 1362 1268 1247 1247 1268 1268 1268 1268 1226 1226 1226 1206 1132 1187 1226 1206 0 0 0 0 1206 1226 1247 1187 1226 1168 1149 1206 1187 1206 1206 1206 1206 1187 1226 1247 1168 1187 1187 1187 164 164 0 1149 0 0 0 0 1098 1066 1082 0 0 0 1022 994 1036 1036 1082 1098 1082 1098 1082 1082 1098 1132 1098 1132 1206 1132 1187 1206 1132 1187 1168 1187 1168 1115 1187 1132 1132 1226 1115 1132 1115 1132 1206 1206 1132 1066 1051 1066 1066 1066 1098 1291 1338 1362 1388 1388 1415 1443 1443 1338 0 1247 1226 1226 1226 1206 1187 1132 1098 1168 1206 1206 1187 1132 1051 1066 1066 1036 1008 1008 1008 994 994 0 968 886 897 886 855 845 845 855 845 845 836 817 817 766 743 735 721 721 714 714 707 700 694 687 669 675 629 651 645 634 639 639 639 639 634 645 623 623 618 608 579 584 557 574 561 570 570 570 566 570 566 570 553 561 541 537 533 533 525 511 507 497 490 487 484 474 468 462 457 462 454 454 0 0 0 0 0
    0 0 0 0 0 0 0 0 0 0 0 0 0 0 0 0 0 0 0 0 0 0 0 0 0 0 0 0 0 0 0 0 0 0 0 0 0 0 0 0 0 0 0 0 0 0 0 0 0 0 0 0 0 0 0 0 0 0 0 0 0 0 0 0 0 0 0 0 0 268 268 264 0 1471 1443 1415 1388 1415 1471 1443 1415 1362 0 1314 1314 1291 1247 1247 1226 1226 1268 1247 1247 1247 1247 1247 1247 1247 1247 1226 1247 1226 1168 1226 1314 1314 1226 1291 1291 1291 1291 1314 1314 1247 1247 1362 1268 1206 1206 1226 1247 1268 1268 1226 1226 1226 1187 1149 1187 1226 1187 1187 127 0 0 1187 1206 1187 1168 1226 1149 1149 1187 1187 1206 1206 1206 1206 1187 1226 1247 1187 0 1206 1187 0 0 0 1168 0 0 0 0 1149 1115 1098 0 0 0 1022 994 1051 1051 1082 1115 1098 1115 1082 1066 1098 1132 1098 1115 1206 1132 1187 1206 1149 1187 1187 1187 1187 1132 1187 1132 1132 1247 1132 1132 1132 1149 1247 1206 1168 1098 1082 1066 1082 1082 1082 1247 0 1362 1362 1388 1415 1443 1443 1338 0 1247 1226 1247 1226 1187 1168 1098 1098 1187 1206 1187 1187 1149 1051 1066 1066 1036 994 1008 994 981 994 981 981 886 908 886 855 845 845 845 836 836 836 817 817 782 743 743 721 714 714 707 707 700 694 687 669 669 629 651 645 639 645 639 639 639 639 651 629 629 623 613 579 584 557 574 561 570 570 570 566 566 561 570 553 557 541 537 537 533 529 514 511 500 487 484 481 471 468 462 457 462 457 454 0 0 0 0 0
    0 0 0 0 0 0 0 0 0 0 0 0 0 0 0 0 0 0 0 0 0 0 0 0 0 0 0 0 0 0 0 0 0 0 0 0 0 0 0 0 0 0 0 0 0 0 0 0 0 0 0 0 0 0 0 0 0 0 0 0 0 0 0 0 0 0 0 0 0 267 0 0 1599 1471 1415 1415 1415 1415 1443 1443 1415 1388 1362 1362 1338 1314 1226 1226 1226 1226 1268 1247 1247 1247 1247 1268 1268 1268 1268 1247 1247 1226 1187 1226 1291 1314 1226 1268 1291 1291 1291 1314 1314 1247 1226 1362 1268 1168 1206 1206 1247 1268 1268 1247 1247 1226 1187 1149 1206 1206 0 0 0 0 1132 1168 1187 1132 1149 1206 1149 1149 1187 1187 1206 1206 1206 1206 1187 1226 1226 1168 164 0 164 164 164 164 0 0 166 0 0 1149 1115 1098 0 981 994 994 968 1022 1036 1066 1098 1082 1115 1066 1066 1082 1115 1098 1098 1187 1115 1187 1206 1132 1187 1168 1187 1187 1132 1206 1132 1149 1247 1168 1168 1149 1187 1268 1247 1206 1168 1098 1098 1098 1115 1187 1291 0 1388 1415 1415 1443 1443 1443 1314 0 1206 1187 1187 1168 1132 1098 1066 1098 1187 1206 1187 1187 1149 1066 1051 1066 1036 981 994 994 981 981 981 981 886 908 886 845 836 836 845 836 826 826 817 817 791 750 758 728 721 714 714 707 700 694 694 669 669 634 651 651 639 645 639 645 645 639 651 634 634 629 618 584 588 557 574 561 574 570 570 561 566 561 566 553 553 541 537 533 533 529 518 514 500 487 484 481 471 468 462 457 462 457 454 0 0 0 0 0
    0 0 0 0 0 0 0 0 0 0 0 0 0 0 0 0 0 0 0 0 0 0 0 0 0 0 0 0 0 0 0 0 0 0 0 0 0 0 0 0 0 0 0 0 0 0 0 0 0 0 0 0 0 0 0 0 0 0 0 0 0 0 0 0 0 0 0 0 0 0 0 0 1533 1415 1388 1388 1388 1388 1388 1388 1388 1362 1362 1338 1338 1291 1187 1206 1206 1206 1268 1247 1247 1247 1226 1268 1268 1291 1268 1247 1247 1226 1206 1226 1291 1291 1206 1268 1268 1291 1291 1291 1314 1247 1247 1362 1247 1168 1206 1206 1247 1268 1268 1247 1247 1247 1206 1149 0 0 1168 1168 1149 1132 1132 1187 1206 1115 1168 1226 1132 1168 1206 1187 1187 1206 1206 1206 1187 1226 1206 0 164 164 164 0 0 0 0 0 166 0 0 1132 1098 1082 1115 1008 0 1022 981 1008 1022 1051 1082 1066 1115 1051 1051 1082 1115 1098 1082 1187 1098 1168 1187 1132 1168 1168 1187 1187 1132 1206 1149 1149 1247 1187 1168 1149 1206 1291 1268 1226 1187 1132 1132 1132 1132 0 0 0 1415 1443 1443 1471 1471 1501 1338 0 1206 1206 1187 1168 1115 1115 1066 1115 1206 1206 1187 1187 1168 1066 1051 1066 1036 981 994 994 981 981 981 981 886 897 876 845 836 836 836 826 826 836 826 826 808 758 766 728 721 721 714 714 707 700 700 675 675 629 651 651 639 639 639 639 645 645 651 634 634 639 629 0 593 561 574 566 574 570 570 561 566 561 561 553 553 537 537 533 533 529 518 514 500 490 487 484 474 468 465 457 462 459 454 0 0 0 0 0
    0 0 0 0 0 0 0 0 0 0 0 0 0 0 0 0 0 0 0 0 0 0 0 0 0 0 0 0 0 0 0 0 0 0 0 0 0 0 0 0 0 0 0 0 0 0 0 0 0 0 0 0 0 0 0 0 0 0 0 0 0 0 0 0 0 0 0 0 0 0 0 1501 1501 1443 1415 1388 1388 1362 1388 1388 1388 1362 1338 1314 1314 1314 1168 1206 1206 1226 1247 1247 1247 1226 1226 1291 1291 1291 1291 1247 1247 1247 1226 1226 1268 1268 1187 1268 1268 1291 1268 1291 1291 1247 1226 1338 1247 1168 1187 1226 1268 1291 1268 1268 1268 1268 1206 1168 1226 1226 1187 1168 1149 1132 1132 1187 1226 1115 1187 1247 1149 1187 1206 1187 1206 1206 1206 1206 1187 1247 0 0 164 0 0 0 1149 1115 0 0 0 1115 0 1132 1098 1066 1098 0 0 0 0 1036 1036 1066 1098 1115 1132 1082 1051 1082 1098 1098 1082 1187 1098 1168 1187 1132 1168 1168 1187 1187 1132 1206 1149 1149 1247 1187 1168 1168 1226 1291 1268 1247 1206 1168 1187 1187 1149 1314 1291 0 1362 1388 1388 1415 1443 1501 0 0 0 1226 1226 1187 1132 1132 1082 1132 1206 1206 1187 1206 1168 1066 1051 1051 1022 968 981 981 968 981 981 981 886 886 876 0 836 826 836 826 836 836 826 826 817 758 766 728 728 721 721 714 714 700 707 681 681 629 651 651 634 639 639 645 645 645 651 639 634 645 629 0 593 566 574 566 574 574 570 561 566 561 561 553 553 537 533 533 533 529 518 514 500 490 487 484 477 468 465 457 462 459 454 0 0 0 0 0
    0 0 0 0 0 0 0 0 0 0 0 0 0 0 0 0 0 0 0 0 0 0 0 0 0 0 0 0 0 0 0 0 0 0 0 0 0 0 0 0 0 0 0 0 0 0 0 0 0 0 0 0 0 0 0 0 0 0 0 0 0 0 0 0 0 0 0 0 0 1752 1635 1533 1471 1415 1415 1388 1388 1362 1362 1362 1362 1362 1338 1314 1338 1314 1187 1226 1226 1226 1247 1247 1247 1226 1226 1291 1291 1291 1291 1247 1247 1247 1226 1226 1268 1268 1187 1268 1268 1291 1268 1268 1291 1247 1247 1338 1226 1168 1187 1247 1268 1291 1291 1268 1291 1268 1206 1168 1226 1226 1187 1168 1132 1132 1132 1206 1247 1082 1187 1268 1132 1206 1206 1187 1206 1206 1226 1206 1187 1247 0 0 0 0 0 0 1149 1115 0 0 0 0 0 1168 1082 1066 1082 0 0 1082 1226 1082 1051 1115 1187 1206 1187 1098 1066 1082 1098 1098 1082 1168 1098 1168 1206 1149 1187 1187 1187 1187 1149 1206 1149 1149 1226 1206 1168 1187 1247 1291 1291 1247 1226 1206 1206 1206 1168 1226 1187 1115 1291 1314 1338 1362 0 1501 0 0 0 1268 1268 1226 1187 1149 1082 1132 1187 1206 1168 1187 1168 1066 1051 1051 1022 968 981 981 968 981 968 981 886 897 865 0 836 826 836 826 826 836 826 826 817 758 766 735 735 728 728 721 721 707 0 687 687 634 651 657 634 639 639 639 639 645 651 634 634 645 629 0 593 566 574 566 574 570 566 561 566 561 561 553 553 541 533 537 533 529 521 514 500 487 484 481 477 468 465 454 462 462 454 0 0 0 0 0
    0 0 0 0 0 0 0 0 0 0 0 0 0 0 0 0 0 0 0 0 0 0 0 0 0 0 0 0 0 0 0 0 0 0 0 0 0 0 0 0 0 0 0 0 0 0 0 0 0 0 0 0 0 0 0 0 0 0 0 0 0 0 0 0 0 0 0 0 0 1672 1565 1471 1388 1388 1388 1362 1362 1362 1362 1338 1338 1338 1338 1314 1338 1338 1206 1247 1226 1226 1247 1247 1247 1206 1206 1268 1268 1291 1291 1268 1247 1247 1247 1226 1247 1268 1187 1268 1268 1291 1247 1268 1291 1247 1226 1314 1226 1149 1168 1268 1268 1291 1291 1291 1314 1291 1206 1206 1247 1247 1187 1168 1132 1132 1132 1206 1247 1051 1168 1268 1132 1226 1206 1206 1226 1226 1226 1206 1206 1268 0 0 0 0 0 0 1168 0 0 0 0 0 0 1115 1022 1022 0 0 1066 1132 0 1168 1082 1187 1268 1268 1247 1115 1066 1082 1098 1098 1098 1187 1115 1187 1206 1168 1187 1187 1187 1187 1149 1206 1149 1132 1226 1206 1149 1187 1268 1291 1291 1268 1247 1247 1247 1247 1206 1247 1168 1098 1168 1206 1247 1291 0 1443 0 0 1291 1291 1291 1247 1206 1168 1098 1149 1187 1187 1168 1187 1149 1051 1051 1051 1008 955 968 981 968 968 968 981 886 897 865 0 826 826 826 826 826 826 826 817 817 758 774 735 735 735 728 728 728 0 0 694 687 634 657 657 634 645 639 645 645 645 651 634 634 645 623 0 593 566 570 566 570 570 566 561 566 561 561 553 553 541 533 537 533 529 521 514 500 490 487 484 477 468 468 454 465 462 454 0 0 0 0 0
    0 0 0 0 0 0 0 0 0 0 0 0 0 0 0 0 0 0 0 0 0 0 0 0 0 0 0 0 0 0 0 0 0 0 0 0 0 0 0 0 0 0 0 0 0 0 0 0 0 0 0 0 0 0 0 0 0 0 0 0 0 0 0 0 0 0 0 0 0 1471 1415 1388 1338 1338 1362 1362 1362 1362 1362 1338 1338 1338 1338 1291 1338 1314 1187 1226 1226 1226 1247 1247 1247 1206 1206 1291 1268 1291 1291 1268 1247 1247 1268 1226 1247 1247 1187 1268 1268 1291 1247 1247 1268 1226 1226 1291 1206 1132 1132 1247 1226 1268 1314 1291 1314 1314 1247 1226 1268 1268 1206 1187 1149 1132 1132 1206 1206 1036 1168 1291 1132 1226 1206 1206 1206 1226 1226 1187 1168 1247 0 0 0 0 0 0 0 0 0 0 0 0 0 0 0 1008 0 0 0 0 1388 0 0 1362 1388 1415 1314 1132 1082 1082 1098 1115 1115 1187 1132 1206 1226 1187 1187 1206 1206 1187 1168 1206 1149 1132 1206 1187 1115 1168 1247 1247 1247 1226 1206 1226 1206 1226 1168 1187 1098 1066 1066 1082 1082 1168 1168 0 0 0 1268 1291 1291 1226 1206 1132 1098 1149 1187 1168 1149 1168 1149 1051 1036 1036 1008 955 968 981 968 968 968 981 886 886 865 0 826 826 826 826 826 826 826 817 817 758 774 735 743 735 735 728 728 0 0 694 687 639 657 657 634 645 645 645 645 645 651 634 634 639 623 0 593 570 570 566 570 570 566 561 561 561 561 553 553 541 533 537 533 529 521 518 507 493 487 484 481 471 471 454 465 462 454 0 0 0 0 0
    0 0 0 0 0 0 0 0 0 0 0 0 0 0 0 0 0 0 0 0 0 0 0 0 0 0 0 0 0 0 0 0 0 0 0 0 0 0 0 0 0 0 0 0 0 0 0 0 0 0 0 0 0 0 0 0 0 0 0 0 0 0 0 0 0 0 0 0 0 1388 0 1362 0 0 0 1338 1362 1338 1338 1338 1314 1338 1338 1314 1338 1314 1187 1247 1226 1226 1247 1247 1247 1187 1206 1291 1268 1291 1291 1268 1247 1247 1268 1206 1247 1247 1187 1268 1268 1291 1226 1247 1268 1226 1206 1268 1187 1115 1115 1247 1168 1268 1314 1291 1338 1314 1268 1247 1291 1291 1226 1187 1132 1098 1098 1149 0 968 0 1247 1115 1247 1206 1206 1206 1206 1206 1132 1115 1149 1036 0 0 1115 0 0 0 0 0 0 0 0 0 0 968 968 919 0 0 1362 1415 1362 1443 1471 1501 1533 1388 1226 1115 1132 1149 1132 1168 1226 1168 1226 1247 1226 1206 1226 1226 1206 1168 1206 1149 1115 1187 1187 1115 1168 1247 1247 1247 1226 1226 1226 1226 1247 1206 1206 1098 1066 1066 1082 1066 1149 1132 0 1066 0 1247 1268 1268 1226 1206 1132 1115 1168 1187 1149 1149 1168 1149 1066 1051 1036 1008 955 968 981 968 968 968 981 876 886 865 0 826 826 826 826 826 826 826 808 808 750 766 735 743 735 735 728 0 0 0 694 687 639 657 657 639 645 645 645 645 645 651 639 634 639 623 0 593 570 570 566 566 570 561 561 561 561 557 557 553 545 533 537 533 529 525 521 514 497 490 487 484 471 471 454 465 462 454 0 0 0 0 0
    0 0 0 0 0 0 0 0 0 0 0 0 0 0 0 0 0 0 0 0 0 0 0 0 0 0 0 0 0 0 0 0 0 0 0 0 0 0 0 0 0 0 0 0 0 0 0 0 0 0 0 0 0 0 0 0 0 0 0 0 0 0 0 0 0 0 0 0 0 0 0 0 0 0 0 0 0 1314 0 1314 0 1338 1338 1291 1338 1314 1206 1247 1226 1226 1247 1247 1247 1187 1206 1268 1268 1268 1291 1247 1226 1247 1268 1206 1247 1268 1206 1268 1291 1291 1226 1247 1268 1226 1206 1268 1187 1132 1132 1268 1168 1247 1291 1268 1314 1314 1268 1268 1291 1314 1226 1132 1082 1051 1066 1022 0 0 0 0 0 1338 1206 1149 1115 0 0 0 0 0 994 0 1036 1066 0 0 1132 0 0 0 0 0 0 0 919 955 908 0 1226 0 1388 0 1443 1443 1501 1565 1443 1314 1187 1206 1206 1168 1226 1268 1206 1247 1268 1247 1226 1247 1226 1206 1187 1206 1149 1115 1168 1187 1115 1187 1247 1247 1247 1247 1226 1268 1247 1291 1247 1247 1149 1115 1115 1098 1082 1168 1149 0 0 0 1268 1268 1268 1226 1206 1149 1115 1187 1168 1149 1132 1168 1149 1066 1036 1022 994 955 968 981 981 968 968 981 865 876 855 0 826 817 826 826 826 826 826 808 808 743 766 735 743 735 728 728 0 0 0 694 687 645 657 657 639 651 645 645 645 645 657 645 639 651 629 0 598 574 566 566 566 566 561 557 561 557 557 553 0 541 533 537 529 529 521 521 514 497 490 490 484 0 471 454 465 462 454 0 0 0 0 0
    0 0 0 0 0 0 0 0 0 0 0 0 0 0 0 0 0 0 0 0 0 0 0 0 0 0 0 0 0 0 0 0 0 0 0 0 0 0 0 0 0 0 0 0 0 0 0 0 0 0 0 0 0 0 0 0 0 0 0 0 0 0 0 0 0 0 0 0 0 0 0 0 1226 0 0 0 1268 1247 1247 1247 1247 1291 1314 1247 1314 1291 1206 1247 1226 1226 1247 1247 1247 1187 1206 1268 1247 1247 1247 1226 1226 1226 1247 1168 1247 1268 1206 1268 1291 1291 1226 1247 1268 1226 1206 1268 1187 1149 1149 1268 1168 1226 1247 1247 1291 1268 1247 1206 1168 1268 1082 0 0 0 1022 0 0 0 0 0 0 0 0 0 0 0 0 411 408 0 0 0 968 994 981 0 1051 0 0 0 0 0 0 0 0 943 0 0 1206 0 1415 0 1471 1443 1501 1533 1443 1314 1226 1247 1226 1168 1268 1268 1226 1268 1268 1247 1226 1226 1226 1187 1168 1187 1149 1098 1132 1187 1098 1187 1226 1226 1226 1226 1226 1268 1291 1338 1291 1268 1168 1149 1149 1115 1082 1132 0 0 0 1226 1247 1247 1247 1226 1206 1149 1149 1206 1168 1132 1149 1168 1149 1066 1022 1008 981 955 968 981 981 968 955 981 865 876 855 0 826 817 826 826 826 826 826 808 808 735 758 735 735 735 728 728 735 0 735 700 694 639 657 657 645 651 651 651 651 651 663 651 645 657 629 0 593 570 561 561 561 566 557 557 557 557 557 553 0 541 533 533 529 525 521 518 514 497 490 487 484 0 471 451 462 462 454 0 0 0 0 0
    0 0 0 0 0 0 0 0 0 0 0 0 0 0 0 0 0 0 0 0 0 0 0 0 0 0 0 0 0 0 0 0 0 0 0 0 0 0 0 0 0 0 0 0 0 0 0 0 0 0 0 0 0 0 0 0 0 0 0 0 0 0 0 0 0 0 0 0 0 0 1187 1247 1206 1187 1206 1226 1226 1206 1187 1206 1206 1247 1268 1206 1291 1291 1226 1247 1247 1247 1247 1247 1247 1187 1206 1247 1247 1226 1226 1206 1206 1206 1226 1149 1247 1268 1206 1291 1291 1291 1226 1268 1268 1226 1226 1268 1206 1149 1149 1268 1187 1206 1247 1226 1268 0 0 0 0 0 0 0 0 0 0 0 0 0 0 0 1471 1471 0 0 0 0 413 408 408 0 0 0 0 0 0 0 0 0 0 0 0 0 0 0 0 943 0 0 0 1388 1415 1338 1501 1443 1501 1565 1415 1314 1226 1268 1206 1168 1268 1291 1247 1268 1291 1247 1226 1226 1226 1187 1149 1168 1132 1082 1098 1168 1098 1187 1226 1226 1206 1247 1247 1314 1314 1338 1291 1247 1168 1149 1115 1098 1066 1115 1098 1115 1036 1206 1226 1247 1247 1226 1206 1149 1168 1206 1187 1149 1149 1168 1149 1051 0 994 981 955 968 981 981 968 968 981 876 876 855 0 826 826 826 826 826 836 826 799 799 728 743 728 735 735 728 728 735 721 743 707 694 639 651 657 645 657 651 651 651 651 663 651 645 651 623 613 593 574 561 561 561 561 557 557 557 557 557 553 0 545 533 533 525 521 518 514 511 497 490 487 484 0 471 451 462 462 451 0 0 0 0 0
    0 0 0 0 0 0 0 0 0 0 0 0 0 0 0 0 0 0 0 0 0 0 0 0 0 0 0 0 0 0 0 0 0 0 0 0 0 0 0 0 0 0 0 0 0 0 0 0 0 0 0 0 0 0 0 0 0 0 0 0 0 0 0 0 0 0 0 0 0 1206 1168 1206 1187 1187 1206 1226 1206 1206 1187 1206 1226 1247 1247 1226 1291 1268 1247 1247 1247 1247 1247 1247 1247 1206 1226 1247 1247 1226 1226 1206 1226 1226 1226 1132 1268 1268 1226 1291 1314 1291 1226 1268 1268 1226 1206 1247 1187 1149 1149 1268 1187 1206 1247 1226 0 0 0 0 0 0 0 0 0 0 0 0 0 0 0 0 1471 1443 0 0 0 0 0 0 408 0 0 0 0 0 0 0 0 0 0 0 0 0 0 0 0 0 0 0 0 1599 1565 1471 1599 1565 1599 1599 1415 1362 1247 1291 1206 1168 1291 1291 1268 1268 1291 1247 1226 1226 1226 1168 1132 1149 1132 1066 1082 1168 1098 1206 1206 1187 1149 1206 1187 1268 1268 1291 1226 1206 1132 1149 1115 1098 1066 1098 1115 1115 1051 1187 1206 1226 1226 1206 1187 1132 1168 1206 1187 1168 1149 1149 1132 1051 981 981 968 943 968 981 981 968 968 994 876 886 865 855 836 826 826 826 836 836 826 799 791 721 743 728 735 735 735 728 735 728 743 707 694 645 651 657 651 657 657 651 645 651 657 645 639 639 613 603 584 570 557 561 557 561 557 557 557 557 557 557 0 549 533 0 525 521 514 514 511 500 490 484 481 468 468 451 459 462 451 0 0 0 0 0
    0 0 0 0 0 0 0 0 0 0 0 0 0 0 0 0 0 0 0 0 0 0 0 0 0 0 0 0 0 0 0 0 0 0 0 0 0 0 0 0 0 0 0 0 0 0 0 0 0 0 0 0 0 0 0 0 0 0 0 0 0 0 0 0 0 0 0 0 0 1226 1187 1206 1206 1206 1206 1247 1226 1206 1187 1226 1206 1226 1206 1206 1268 1247 1247 1247 1247 1247 1247 1268 1247 1206 1226 1247 1247 1226 1226 1206 1206 1226 1206 1132 1291 1291 1247 1314 1314 1314 1247 1268 1291 1226 1206 1247 1206 1168 1168 1291 1187 1206 1226 1206 0 0 0 0 0 0 0 0 0 0 0 0 0 0 0 0 0 0 0 0 0 0 0 0 0 0 0 0 0 0 0 0 0 0 448 0 0 0 0 0 0 500 0 0 0 0 0 0 1635 1635 1635 1565 1415 1362 1268 1314 0 1187 1291 1291 1291 1291 1291 1268 1206 1226 1206 1168 1132 1132 1132 1051 1082 1168 1149 1226 1206 1206 1149 1187 1168 1206 1226 1268 1187 1187 1132 1149 1115 1098 1098 1115 1149 1115 1066 1187 1206 1247 1247 1206 1168 1115 1168 1206 1168 1132 1115 1115 1115 1051 955 981 955 943 981 994 981 981 981 1008 897 897 876 865 836 836 836 836 836 836 826 791 782 721 735 728 735 735 735 728 735 728 743 714 694 645 651 657 651 663 657 651 651 645 657 651 639 629 608 603 574 570 557 561 557 561 557 557 557 557 557 557 0 549 0 0 521 521 514 514 511 497 0 481 477 468 468 454 459 462 451 0 0 0 0 0
    0 0 0 0 0 0 0 0 0 0 0 0 0 0 0 0 0 0 0 0 0 0 0 0 0 0 0 0 0 0 0 0 0 0 0 0 0 0 0 0 0 0 0 0 0 0 0 0 0 0 0 0 0 0 0 0 0 0 0 0 0 0 0 0 0 0 0 0 0 1226 1168 1206 1187 1187 1187 1206 1187 1168 1168 1206 1206 1206 1187 1206 1268 1226 1226 1226 1226 1247 1247 1247 1247 1206 1247 1247 1247 1226 1206 1206 1226 1226 1206 1132 1314 1314 1268 1314 1338 1314 1247 1268 1291 1226 1206 1247 1206 1168 1168 1291 1187 1206 1226 1206 0 0 0 0 0 0 0 0 0 0 0 0 0 0 0 0 0 0 0 0 0 0 0 0 0 0 0 0 0 0 0 0 443 0 446 0 0 0 0 0 0 497 0 0 0 0 0 0 0 0 0 0 0 0 0 0 0 1187 0 1291 1291 1268 1291 1226 1187 1187 1187 1149 1098 1115 1115 1051 1066 1168 1187 1247 1226 1206 1132 1187 1168 1187 1206 1226 1168 1187 1149 1187 1115 1115 1206 1149 1187 1132 1082 1206 1206 1247 1226 1187 1132 1115 1168 1206 1132 1115 1115 1115 1115 1051 955 968 955 955 981 994 994 981 994 1008 908 908 886 876 845 836 836 836 845 845 826 782 774 714 735 728 735 735 728 728 735 721 743 707 687 645 645 657 657 663 657 657 651 651 657 657 645 629 608 603 574 570 553 561 557 561 557 557 557 557 557 561 0 549 0 0 0 0 514 514 507 497 0 0 477 468 468 454 459 462 454 0 0 0 0 0
    0 0 0 0 0 0 0 0 0 0 0 0 0 0 0 0 0 0 0 0 0 0 0 0 0 0 0 0 0 0 0 0 0 0 0 0 0 0 0 0 0 0 0 0 0 0 0 0 0 0 0 0 0 0 0 0 0 0 0 0 0 0 0 0 0 0 0 0 0 1226 1149 1187 1168 1149 1168 1149 1149 1149 1149 1187 1206 1206 1206 1226 1268 1226 1247 1226 1247 1247 1247 1247 1226 1206 1247 1247 1268 1226 1206 1206 1226 1226 1187 1132 1314 1314 1268 1338 1338 1314 1247 1268 1291 1226 1206 1247 1187 1149 1168 1291 1187 1206 1206 1206 0 0 0 0 0 0 0 0 0 0 0 0 0 0 0 0 0 0 0 0 0 0 1132 1036 0 0 0 0 0 0 0 0 446 0 0 0 0 0 493 0 0 0 0 0 0 0 0 0 0 0 0 0 0 0 0 0 0 1168 0 1268 1268 1226 1268 1206 1149 1149 1149 1115 1082 1082 1115 1036 1066 1168 1226 1247 1247 1247 1115 1149 1115 1115 1187 1187 1149 1168 1149 1206 1149 1168 1291 1226 1247 1187 1132 1206 1226 1247 1226 1187 1132 1098 1149 1187 1115 1098 1098 1115 1098 1051 931 968 955 955 994 1008 994 994 994 1036 931 919 897 876 845 845 845 845 855 855 836 774 766 714 728 721 728 728 721 721 721 714 735 700 0 645 645 657 657 663 657 657 651 651 657 663 0 0 608 603 570 574 553 566 557 561 557 557 557 557 557 561 0 0 0 0 0 521 514 514 507 497 0 0 0 468 465 454 457 459 454 0 0 0 0 0
    0 0 0 0 0 0 0 0 0 0 0 0 0 0 0 0 0 0 0 0 0 0 0 0 0 0 0 0 0 0 0 0 0 0 0 0 0 0 0 0 0 0 0 0 0 0 0 0 0 0 0 0 0 0 0 0 0 0 0 0 0 0 0 0 0 0 0 0 0 1268 1149 1187 1187 1132 1168 1115 1115 1115 1132 1168 1206 1206 1226 1268 1291 1247 1268 1247 1268 1268 1268 1247 1247 1226 1247 1247 1268 1226 1206 1206 1226 1226 1149 1132 1314 1314 1268 1338 1338 1338 1247 1268 1291 1247 1206 1247 1187 1149 1168 1291 1206 1206 1206 1187 0 0 0 0 931 0 0 0 0 0 0 0 0 0 0 0 0 0 0 0 0 0 1226 1149 1115 1098 0 0 0 0 0 0 448 0 0 0 0 0 0 0 0 0 0 0 0 0 0 0 0 0 0 0 0 0 0 0 0 1149 0 1268 1247 1206 1226 1187 1132 1115 1115 1098 1066 1066 1098 1036 1051 1168 1247 1268 1247 1268 1149 1168 1132 1149 1206 1206 1206 1206 1206 1247 1206 1247 1338 1314 1314 1247 1206 1226 1226 1268 1247 1187 1115 1098 1132 1168 1098 1082 1082 1098 1098 1051 919 968 955 943 994 1008 994 994 994 1066 943 908 908 876 845 845 845 855 855 855 845 766 766 707 728 721 728 728 721 721 721 714 0 0 0 645 639 651 657 657 657 651 645 651 651 657 629 618 608 598 570 574 553 566 557 561 557 557 557 561 557 566 0 0 0 0 0 518 511 511 504 497 0 0 0 468 465 454 457 459 451 0 0 0 0 0
    0 0 0 0 0 0 0 0 0 0 0 0 0 0 0 0 0 0 0 0 0 0 0 0 0 0 0 0 0 0 0 0 0 0 0 0 0 0 0 0 0 0 0 0 0 0 0 0 0 0 0 0 0 0 0 0 0 0 0 0 0 0 0 0 0 0 0 0 0 1268 1206 1206 1206 1149 1168 1132 1115 1098 1115 1168 1206 1206 1226 1291 1291 1247 1268 1247 1268 1268 1268 1268 1247 1247 1268 1268 1268 1226 1226 1206 1226 1206 1098 1115 1314 1338 1291 1338 1362 1338 1268 1291 1291 1247 1206 0 1206 1168 1168 1291 1226 1226 1226 0 0 0 955 931 919 931 943 0 0 0 0 0 0 0 0 0 0 0 0 0 0 0 1291 1247 1206 1187 0 0 0 0 0 0 454 454 451 0 0 0 0 0 0 0 0 0 0 0 0 0 0 0 0 0 0 0 0 0 0 1132 0 1247 1226 1149 1206 1149 1115 1098 1098 1082 1051 1066 1098 1036 1051 1149 1247 1247 1226 1206 1132 1168 1115 1149 1206 1206 1206 1206 1226 1247 1206 1247 1314 1314 1314 1268 1226 1226 1247 1268 1247 1187 1098 1098 1115 1132 1082 1066 1082 1098 1098 1036 908 955 955 943 994 1008 994 994 994 1066 968 908 919 876 845 845 845 855 855 855 855 774 766 707 728 721 728 728 728 721 721 714 735 0 0 639 634 651 651 657 651 651 645 651 645 657 623 613 603 598 570 579 553 566 557 561 557 557 557 561 557 566 549 0 0 0 0 514 507 507 500 497 0 0 0 0 468 457 457 462 454 0 0 0 0 0
    0 0 0 0 0 0 0 0 0 0 0 0 0 0 0 0 0 0 0 0 0 0 0 0 0 0 0 0 0 0 0 0 0 0 0 0 0 0 0 0 0 0 0 0 0 0 0 0 0 0 0 0 0 0 0 0 0 0 0 0 0 0 0 0 0 0 0 0 0 1247 1168 1187 1168 1132 1149 1115 1115 1098 1115 1149 1187 0 1226 1291 1268 1247 1268 1247 1268 1268 1268 1247 1247 1247 1268 1268 1268 1226 1226 1226 1247 1187 1115 1132 1338 1338 1291 1362 1362 1338 0 1291 1291 1247 1226 0 1206 1187 1187 1314 1314 1314 1291 0 0 0 955 908 908 919 943 0 0 0 0 0 0 0 0 0 0 0 0 0 0 0 1314 1268 1247 1226 0 0 0 0 0 0 459 457 451 0 0 0 0 0 0 0 0 0 0 0 0 0 0 0 1415 0 1247 0 0 0 0 1115 0 1247 1206 1132 1187 1149 1098 1098 1098 1082 1051 1051 1098 1036 1051 1132 1226 1206 1187 1115 1082 1115 1082 1098 1168 1168 1187 1187 1206 1247 1206 1226 1291 1291 1291 1247 1226 1226 1226 1268 1268 1187 1098 1115 1115 1098 1082 1066 1082 1098 1098 1036 897 955 955 943 994 1008 1008 1008 994 1066 994 943 943 897 865 855 865 865 865 865 876 791 766 707 721 721 728 728 728 728 728 721 735 0 0 639 634 645 645 651 645 645 639 645 639 657 623 613 603 598 566 579 553 566 557 561 561 561 561 561 557 566 549 0 0 0 0 514 504 504 500 497 490 0 0 0 468 459 459 462 454 0 0 0 0 0
    0 0 0 0 0 0 0 0 0 0 0 0 0 0 0 0 0 0 0 0 0 0 0 0 0 0 0 0 0 0 0 0 0 0 0 0 0 0 0 0 0 0 0 0 0 0 0 0 0 0 0 0 0 0 0 0 0 0 0 0 0 0 0 0 0 0 0 0 0 1206 1098 1132 1115 1098 1115 1082 1098 1098 0 1168 1206 0 1247 1291 1268 1247 1247 1247 1268 1268 1268 1247 1247 1247 1268 1268 1268 1226 1226 1226 1247 1206 1149 1187 1362 1362 1314 1362 1362 1362 0 1291 1314 1247 1226 1268 1206 1187 1187 1362 1362 1338 1362 0 0 0 0 886 897 0 908 0 0 0 0 0 497 0 0 0 0 0 0 0 0 0 1388 1338 1268 1268 0 0 0 0 0 465 462 462 454 448 0 430 0 0 0 0 0 0 0 0 0 0 0 0 1388 0 0 0 0 0 0 1132 0 1247 1206 1115 1187 1132 1098 1098 1098 1082 1051 1051 1098 1036 1066 1132 1247 1187 1168 1115 1082 1115 1066 1082 1132 1132 1149 1149 1187 1206 1168 1226 1268 1314 1314 1268 1268 1247 1268 1291 1291 1187 1115 1115 1115 1082 1082 1082 1082 1098 1132 1036 886 955 955 943 994 1008 1008 1008 1008 1066 1008 955 955 908 876 876 876 876 886 886 886 808 774 707 728 721 728 735 728 728 728 721 743 0 0 645 629 645 639 645 639 639 634 639 639 657 623 618 608 608 570 584 553 566 557 566 561 561 561 566 561 570 553 561 0 2164 0 0 0 504 500 500 490 0 0 0 471 462 459 462 454 0 0 0 0 0
    0 0 0 0 0 0 0 0 0 0 0 0 0 0 0 0 0 0 0 0 0 0 0 0 0 0 0 0 0 0 0 0 0 0 0 0 0 0 0 0 0 0 0 0 0 0 0 0 0 0 0 0 0 0 0 0 0 0 0 0 0 0 0 0 0 0 0 0 0 1206 1098 1115 1082 1066 1066 1066 1066 0 373 0 0 0 1268 1291 1247 1247 1247 1247 1268 1247 1247 1226 1226 1247 1268 1268 1247 1226 1226 1226 1247 1206 1187 1226 1388 1388 1338 1388 1388 1362 0 1314 1314 1247 1226 0 1206 1187 1187 1388 1388 1362 1415 1599 0 0 0 0 0 0 0 0 0 0 0 0 0 0 0 0 0 0 0 0 0 1672 1471 1415 1338 0 0 0 0 0 0 474 471 468 459 0 0 432 0 0 0 0 0 251 0 0 0 0 0 0 1362 0 0 0 0 0 0 1168 0 1247 1206 1115 1187 1149 1115 1098 1115 1098 1051 1066 1115 1051 1066 1132 1226 1149 1132 1098 1082 1115 1066 1082 1132 1132 1149 1168 1206 1226 1187 1247 1291 1362 1338 1314 1314 1268 1314 1338 1314 1206 1115 1098 1098 1066 1066 1066 1066 1082 1149 1036 886 955 955 955 994 1008 1008 1008 1008 1051 1022 955 955 919 876 876 876 876 886 886 897 826 791 714 728 728 728 735 735 735 735 728 743 0 0 645 629 645 639 645 639 639 634 639 634 657 0 618 608 613 574 588 553 570 557 566 561 561 561 566 561 570 553 561 0 2164 0 0 0 504 500 500 490 493 0 0 474 465 459 462 454 0 0 0 0 0
    0 0 0 0 0 0 0 0 0 0 0 0 0 0 0 0 0 0 0 0 0 0 0 0 0 0 0 0 0 0 0 0 0 0 0 0 0 0 0 0 0 0 0 0 0 0 0 0 0 0 0 0 0 0 0 0 0 0 0 0 0 0 0 0 0 0 0 0 0 1268 1168 1168 1098 0 0 1082 0 0 369 0 0 0 1291 1268 1247 1247 1226 1247 1247 1247 1247 1206 1226 1247 1247 1268 1226 1226 1226 1226 1247 1187 1187 1226 1388 1388 1338 1388 1415 1388 0 1314 1338 1268 1226 0 1206 1187 1187 1415 1415 1415 1533 1711 0 0 2725 0 0 0 0 0 0 0 0 0 0 0 0 0 0 0 0 0 0 0 1599 1635 1635 0 0 0 0 0 0 0 477 471 462 0 0 435 0 0 0 0 0 251 252 0 0 0 0 0 1362 1388 1338 0 0 0 0 1187 0 1247 1206 1115 1168 1149 1115 1115 1115 1115 1051 1066 1149 1066 1082 1149 1206 1132 1149 1115 1098 1149 1098 1115 1149 1168 1187 1206 1226 1247 1226 1291 1268 1338 1314 1338 1314 1291 1314 1338 1291 1206 1098 1082 1066 1036 1051 1051 1051 1066 1115 1036 886 955 968 955 994 1008 1008 1008 1008 1051 1008 943 943 908 876 876 876 876 876 876 886 826 799 714 728 721 728 735 735 735 735 728 743 0 0 0 629 645 639 645 639 639 634 639 634 657 0 623 613 613 574 593 553 570 557 566 561 561 561 566 561 570 553 566 0 2164 0 0 0 504 504 500 493 493 493 0 0 468 459 462 454 0 0 0 0 0
    0 0 0 0 0 0 0 0 0 0 0 0 0 0 0 0 0 0 0 0 0 0 0 0 0 0 0 0 0 0 0 0 0 0 0 0 0 0 0 0 0 0 0 0 0 0 0 0 0 0 0 0 0 0 0 0 0 0 0 0 0 0 0 0 0 0 0 0 0 0 0 0 0 0 0 0 0 0 366 364 0 0 1314 1268 1247 1247 1226 1247 1247 1247 1247 1226 1247 1268 1247 1268 1226 1226 1226 1226 1226 1149 1168 1226 1388 1415 1338 1415 1415 1388 1338 1314 1338 1268 1247 0 1206 1187 1187 1415 1415 1415 1533 1635 1599 0 2537 0 0 0 0 0 0 0 387 385 0 391 0 0 0 0 0 0 0 0 0 1533 0 0 0 0 0 0 0 0 0 0 0 0 0 0 0 0 0 0 0 251 0 0 0 0 0 0 1443 1501 1362 0 0 0 0 1187 0 1247 1206 1098 1168 1149 1132 1115 1115 1115 1066 1082 1168 1082 1098 1149 1187 1115 1132 1115 1115 1149 1115 1168 1168 1206 1206 1226 1268 1268 1247 1291 1268 1314 1314 1314 1291 1268 1291 1314 1268 1206 1098 1082 1066 1036 1051 1051 1051 1066 1098 1036 886 955 968 955 994 1008 1008 1008 1008 1036 1008 931 943 908 876 876 876 876 876 876 897 836 799 707 728 721 728 728 728 735 728 728 0 0 0 0 634 645 639 645 639 639 634 645 639 663 623 629 613 618 570 593 553 570 557 566 561 561 561 566 561 570 553 570 0 2102 2230 0 0 507 504 500 497 0 497 0 0 468 459 462 457 0 0 0 0 0
    0 0 0 0 0 0 0 0 0 0 0 0 0 0 0 0 0 0 0 0 0 0 0 0 0 0 0 0 0 0 0 0 0 0 0 0 0 0 0 0 0 0 0 0 0 0 0 0 0 0 0 0 0 0 0 0 0 0 0 0 0 0 0 0 0 0 0 0 0 0 0 0 0 0 0 0 0 0 0 0 0 0 1314 1268 1226 1247 1226 1247 1268 1268 1247 1226 1247 1268 1247 1268 1226 1226 1226 1247 1226 1132 1149 1226 1415 1415 1338 1415 1415 1388 0 1338 1338 1268 1247 0 1226 1187 1187 1415 1415 1415 1533 1599 1565 0 0 0 0 0 817 836 0 0 383 371 0 0 0 0 0 0 0 0 0 0 0 1565 0 0 0 0 0 0 0 0 0 0 0 0 256 0 0 0 0 0 0 0 0 0 0 0 0 0 0 1471 0 0 0 0 0 1187 0 1226 1206 1098 1168 1149 1132 1132 1132 1149 1066 1098 1206 1098 1115 1149 1168 1098 1098 1115 1115 1149 1132 1168 1168 1206 1226 1247 1268 1268 1247 1314 1247 1314 1291 1291 1291 1247 1291 1291 1247 1187 1115 1082 1051 1036 1051 1036 1036 1051 1066 1022 865 943 955 955 994 994 994 1008 994 1022 1008 931 943 908 876 876 876 876 876 865 897 0 799 714 728 721 728 728 735 735 735 728 0 0 0 0 634 651 639 645 639 639 639 645 639 663 623 629 613 618 574 588 553 570 557 566 561 561 561 566 561 574 553 570 0 2102 2299 2230 0 507 504 500 497 0 0 0 0 471 457 465 457 0 0 0 0 0
    0 0 0 0 0 0 0 0 0 0 0 0 0 0 0 0 0 0 0 0 0 0 0 0 0 0 0 0 0 0 0 0 0 0 0 0 0 0 0 0 0 0 0 0 0 0 0 0 0 0 0 0 0 0 0 0 0 0 0 0 0 0 0 0 0 0 0 0 0 0 0 0 0 0 0 0 0 0 0 0 0 1291 1291 1247 1226 1247 1226 1247 1268 1247 1226 1226 1247 1268 1247 1247 1206 1226 1226 1247 1226 1168 1187 1247 1415 1415 1362 1415 1443 1388 0 1338 1338 1268 1247 0 1226 1187 1206 1415 1415 1415 1533 0 0 0 0 886 0 855 826 0 0 0 385 0 0 0 0 0 0 0 1635 1533 0 1565 1471 1599 0 0 0 0 0 0 0 0 0 0 0 0 0 0 0 201 0 0 0 0 0 0 0 0 0 0 0 0 0 0 0 0 0 1206 0 1226 1206 1115 1168 1168 1149 1149 1149 1168 1098 1115 1226 1132 1132 1149 1149 1098 1098 1115 1098 1132 1115 1149 1149 1206 1226 1247 1268 1268 1226 1291 1206 1268 1268 1268 1268 1247 1268 1291 1226 1187 1132 1082 1066 1036 1051 1051 1051 1066 1066 1022 855 943 943 943 981 994 994 994 994 1008 1008 919 943 908 876 876 876 876 876 865 0 0 791 714 728 721 728 735 735 735 735 735 750 721 0 0 629 651 639 645 645 639 639 645 639 663 629 634 613 613 574 588 553 570 557 566 561 561 561 566 561 574 553 570 0 2102 2230 2230 2102 507 500 500 497 0 0 0 0 471 457 465 459 0 0 0 0 0
    0 0 0 0 0 0 0 0 0 0 0 0 0 0 0 0 0 0 0 0 0 0 0 0 0 0 0 0 0 0 0 0 0 0 0 0 0 0 0 0 0 0 0 0 0 0 0 0 0 0 0 0 0 0 0 0 0 0 0 0 0 0 0 0 0 0 0 0 0 0 0 0 0 0 0 0 0 0 0 0 0 1314 1247 1226 1206 1226 1226 1247 1247 1247 1226 1226 1247 1247 1247 1247 1206 1226 1247 1268 1268 1247 1268 1268 1443 1443 1362 1415 1443 1388 1338 1338 1338 1268 1268 0 1226 1187 1206 1415 1388 1388 1471 0 0 0 0 0 0 0 791 0 0 0 389 0 0 0 0 0 0 0 1599 1471 1388 1471 0 0 0 0 0 0 0 0 0 0 0 0 0 0 0 0 0 0 0 0 0 0 0 0 0 0 156 0 0 0 0 0 0 0 0 1206 0 1226 1206 1115 1187 1168 1168 1168 1168 1187 1115 1132 1247 1168 1149 1149 1132 1098 1082 1115 1098 1132 1098 1115 1132 1168 1187 1206 1226 1226 1187 1226 1132 1206 1226 1247 1247 1226 1268 1291 1206 1187 1168 1098 1082 1066 1082 1066 1066 1115 1098 1022 855 943 943 943 981 994 994 994 981 1008 1008 919 943 908 876 876 876 886 886 876 0 0 782 714 728 721 728 735 735 735 735 735 750 728 0 0 0 651 639 651 645 645 0 645 645 675 634 645 613 613 566 579 553 570 557 566 561 561 561 566 561 574 553 570 0 2102 2230 2230 0 507 500 500 497 0 0 490 0 474 457 465 459 0 0 0 0 0
    0 0 0 0 0 0 0 0 0 0 0 0 0 0 0 0 0 0 0 0 0 0 0 0 0 0 0 0 0 0 0 0 0 0 0 0 0 0 0 0 0 0 0 0 0 0 0 0 0 0 0 0 0 0 0 0 0 0 0 0 0 0 0 0 0 0 0 0 0 0 0 0 0 0 0 221 218 0 0 0 0 1314 1226 1206 1206 1226 1206 1247 1247 1226 1206 1226 1247 1247 1247 1247 1226 1226 1247 1291 1291 1291 1314 1291 1471 1443 1362 1415 1443 1388 1338 1338 1338 1268 1268 0 1226 1187 1206 1415 1388 1388 1443 0 0 0 0 0 0 0 750 0 0 402 391 387 0 0 0 1533 0 0 1501 1415 0 0 0 0 0 0 0 0 0 931 955 0 0 0 0 0 0 0 0 0 0 0 0 0 256 252 0 0 0 0 0 0 0 0 0 0 0 1247 0 1226 1226 1132 1187 1187 1187 1187 1168 1206 1132 1149 1268 1168 1132 1132 1132 1098 1066 1115 1082 1115 1098 1098 1115 1149 1168 1206 1187 1206 1132 1149 1115 1149 1226 1226 1247 1226 1247 1268 1206 1206 1187 1115 1098 1082 1098 1082 1082 1187 1098 1008 855 931 943 943 981 994 994 994 994 1008 1008 919 955 908 886 886 876 886 886 876 0 0 782 714 728 721 728 728 728 735 735 728 0 721 0 0 0 657 639 651 645 651 0 651 645 675 639 651 618 618 0 570 549 570 557 566 561 561 561 566 566 574 557 570 0 2102 2299 2230 2102 507 504 500 497 0 0 0 0 474 457 465 459 0 0 0 0 0
    0 0 0 0 0 0 0 0 0 0 0 0 0 0 0 0 0 0 0 0 0 0 0 0 0 0 0 0 0 0 0 0 0 0 0 0 0 0 0 0 0 0 0 0 0 0 0 0 0 0 0 0 0 0 0 0 0 0 0 0 0 0 0 0 0 0 0 0 0 0 0 0 0 0 0 221 217 0 0 0 0 1314 1226 1206 1226 1226 1226 1247 1247 1226 1206 1247 1247 1247 1247 1247 1226 1247 1268 1291 1314 1314 1338 1291 1471 1443 1362 1415 1415 1388 1314 1314 1338 1268 1268 0 1226 1187 1187 1388 1362 1362 0 0 0 0 0 0 0 0 758 0 0 393 383 0 0 0 1471 1443 1471 1338 1338 1338 1206 0 1008 931 955 0 0 0 968 943 0 0 0 0 0 0 0 533 0 0 0 0 0 0 0 0 0 0 0 0 0 0 0 0 0 0 0 1268 0 1226 1226 1132 1206 1206 1206 1187 1187 1206 1149 1168 1268 1168 1115 1115 1115 1082 1051 1098 1082 1115 1098 1098 1115 1149 1168 1226 1206 1226 1168 1168 1132 1149 1206 1206 1226 1226 1247 1247 1168 1187 1187 1098 1082 1066 1066 1051 1051 1149 1036 981 855 931 931 931 968 994 981 994 981 1008 1008 908 943 908 876 876 876 876 876 865 0 817 782 721 728 721 728 728 728 728 728 0 0 721 0 687 629 657 645 657 651 651 645 651 645 675 639 651 618 618 574 574 553 570 557 566 561 561 561 566 566 574 557 570 0 2102 2299 2230 2102 511 504 504 500 0 0 0 0 474 454 465 462 0 0 0 0 0
    0 0 0 0 0 0 0 0 0 0 0 0 0 0 0 0 0 0 0 0 0 0 0 0 0 0 0 0 0 0 0 0 0 0 0 0 0 0 0 0 0 0 0 0 0 0 0 0 0 0 0 0 0 0 0 0 0 0 0 0 0 0 0 0 0 0 0 0 0 0 0 0 0 0 0 0 0 0 0 0 0 1314 1226 1206 1226 1226 1226 1247 1247 1226 1206 1247 1247 1247 1247 1247 1226 1247 1268 1291 1291 1291 0 1268 1443 1443 1362 1415 1415 1362 1314 1314 1338 1268 1247 0 1226 1187 1206 1388 1362 1362 1443 0 0 0 0 0 0 0 0 0 377 0 0 0 0 0 1443 1388 1415 1291 1268 1268 1082 0 968 919 968 955 0 931 0 0 0 0 0 0 0 0 0 533 525 0 0 0 0 0 0 0 0 0 0 0 0 0 0 0 0 0 0 0 0 1206 1206 1132 1206 1206 1206 1187 1187 1226 1168 1168 1268 1168 1115 1115 1149 1098 1066 1098 1082 1115 1115 1115 1115 1168 1187 1226 1247 1247 1226 1206 1168 1168 1226 1206 1226 1206 1226 1226 1132 1149 1168 1066 1051 1036 1036 1022 1022 1082 1008 981 855 931 931 931 981 994 981 994 981 1008 1008 908 943 897 865 865 865 865 865 855 0 817 782 721 728 714 728 721 728 728 728 0 0 0 0 687 629 657 645 657 651 651 651 651 651 675 634 651 618 613 579 570 553 570 557 566 561 561 561 566 566 574 557 570 0 2102 2299 2230 2102 511 507 507 500 0 0 0 0 477 454 465 462 0 0 0 0 0
    0 0 0 0 0 0 0 0 0 0 0 0 0 0 0 0 0 0 0 0 0 0 0 0 0 0 0 0 0 0 0 0 0 0 0 0 0 0 0 0 0 0 0 0 0 0 0 0 0 0 0 0 0 0 0 0 0 0 0 0 0 0 0 0 0 0 0 0 0 0 260 260 258 260 0 0 0 0 0 0 1314 1314 1226 1226 1226 1226 1247 1247 1247 1206 1206 1247 1247 1226 1247 1226 1226 1247 1268 1291 1291 1268 0 0 1443 1415 1362 1388 1388 1362 1314 1314 1338 1268 1268 1268 1247 1206 1206 1415 1362 1362 0 0 0 0 0 0 0 0 0 0 0 0 0 0 0 0 1415 0 1362 1268 1226 1268 0 0 968 919 968 955 955 943 968 955 0 0 0 0 0 0 0 533 525 0 0 0 0 0 0 0 0 0 0 0 0 0 0 0 0 0 0 0 0 1187 1187 1132 1206 1206 1206 1187 1187 1226 1187 1206 1291 1206 1168 1149 1187 1115 1066 1115 1082 1115 1115 1098 1098 1149 1187 1226 1226 1268 1247 1206 1187 1168 1226 1206 1226 1206 1226 1187 1098 1115 1149 1051 1051 1036 1022 1008 1008 0 994 981 855 931 931 931 981 994 994 994 981 1008 1022 919 955 897 865 855 855 865 865 855 0 817 0 721 728 714 728 721 721 728 0 0 0 0 0 681 629 657 645 657 651 651 651 657 651 675 634 651 613 608 574 566 553 570 557 570 561 566 566 566 566 574 557 570 0 2102 2299 2230 2102 514 507 507 504 0 0 0 0 477 454 465 462 0 0 0 0 0
    0 0 0 0 0 0 0 0 0 0 0 0 0 0 0 0 0 0 0 0 0 0 0 0 0 0 0 0 0 0 0 0 0 0 0 0 0 0 0 0 0 0 0 0 0 0 0 0 0 0 0 0 0 0 0 0 0 0 0 0 0 0 0 0 0 0 0 0 0 0 262 0 0 0 0 0 0 0 0 1268 1291 1291 1206 1226 1226 1226 1247 1247 1226 1206 1206 1247 1247 1226 1247 1226 1206 1247 1291 1314 1314 0 0 1226 1415 1415 1362 1388 1388 1362 1314 1338 1338 1268 1268 0 1247 1206 1206 1388 1314 1314 0 0 0 0 0 0 0 0 0 0 0 0 0 0 0 0 1443 1415 1415 1291 1268 1314 0 0 0 919 0 955 955 943 968 968 1036 0 0 0 254 0 0 537 0 0 0 0 0 1565 0 0 0 0 0 0 0 0 0 95 95 95 0 0 1066 1187 1187 1132 1206 1206 1226 1206 1206 1247 1226 1226 1388 1247 1206 1187 1226 1168 1066 1115 1082 1098 1098 1082 1098 1132 1168 1226 1226 1247 1206 1168 1168 1132 1206 1187 1206 1187 1206 1168 1098 1132 1168 1082 1066 1051 1036 1022 1008 0 994 981 855 931 931 931 981 994 994 994 994 1022 1022 919 943 897 865 855 855 865 876 865 0 817 791 721 728 714 728 721 721 721 0 0 0 0 0 681 629 657 645 651 651 651 651 657 651 681 639 657 613 603 574 561 553 570 557 570 566 566 566 570 570 574 557 570 0 2102 2230 2164 2102 514 514 511 504 0 0 0 0 477 454 465 462 0 0 0 0 0
    0 0 0 0 0 0 0 0 0 0 0 0 0 0 0 0 0 0 0 0 0 0 0 0 0 0 0 0 0 0 0 0 0 0 0 0 0 0 0 0 0 0 0 0 0 0 0 0 0 0 0 0 0 0 0 0 0 0 0 0 0 0 0 0 0 0 0 0 0 0 260 261 260 0 0 0 0 0 0 1247 1268 1247 1206 1226 1226 1226 1247 1247 1226 1206 1206 1247 1226 1226 1247 1206 1206 1247 1291 1338 1314 0 0 1226 1415 1388 1362 1388 1388 1362 1314 1338 1362 1291 1291 0 1268 1226 1206 1388 1268 1268 0 0 0 0 0 0 0 0 0 0 0 0 0 0 1501 0 1415 1415 1388 1314 0 0 0 0 0 908 0 955 955 943 968 968 0 0 0 257 253 0 0 0 1443 0 1415 1443 1443 1501 1471 0 0 0 0 0 0 0 0 95 0 0 0 1187 1066 1187 1187 1132 1206 1226 1226 1206 1206 1268 1247 1247 1471 1268 1247 1226 1268 1206 1082 1132 1082 1098 1082 1082 1082 1115 1115 1187 1168 1206 1187 1132 1149 1115 1187 1168 1187 1187 1187 1115 1098 1132 1168 1082 1066 1051 1036 1022 1022 0 994 968 855 931 931 931 994 1008 994 994 994 1022 1022 897 931 876 855 855 855 855 855 855 0 0 791 728 735 714 728 721 721 0 0 0 242 240 0 675 0 645 639 651 645 645 645 657 651 681 639 657 618 603 584 561 557 570 561 574 566 566 570 570 570 574 561 570 537 0 2230 2164 2102 518 514 514 507 507 0 0 0 477 454 465 462 0 0 0 0 0
    0 0 0 0 0 0 0 0 0 0 0 0 0 0 0 0 0 0 0 0 0 0 0 0 0 0 0 0 0 0 0 0 0 0 0 0 0 0 0 0 0 0 0 0 0 0 0 0 0 0 0 0 0 0 0 0 0 0 0 0 0 0 0 0 0 0 0 0 0 261 261 0 260 0 0 0 1149 1206 1206 1247 1268 1247 1206 1226 1226 1226 1247 1247 1226 1206 1226 1247 1226 1226 1247 1226 1226 1247 1291 1338 1314 0 0 1226 1415 1388 1362 1388 1388 1362 1314 1338 1388 1291 1314 0 0 1247 1226 1388 1291 1291 1314 0 0 0 0 0 0 0 0 0 0 0 0 0 0 0 1415 1388 1388 0 0 1314 0 0 0 919 968 968 968 955 981 0 0 0 0 0 0 0 0 0 0 0 1362 0 1443 1471 0 0 0 0 0 0 0 0 0 0 0 0 0 1206 1066 1187 1187 1149 1206 1226 1226 1206 1206 1268 1247 1268 1501 1268 1247 1206 0 1226 1082 1149 1098 1115 1098 1082 1082 1098 1115 1168 1115 1187 1149 1082 1115 1098 1187 1187 1206 1206 1187 1098 1115 1115 1132 1066 1051 1036 1022 1022 1036 1008 994 968 855 931 931 931 1008 1008 1008 1008 1008 1036 1022 897 919 876 845 845 845 845 855 855 0 0 0 728 735 0 728 721 0 0 0 0 242 240 245 675 0 645 639 645 645 645 645 651 651 681 639 657 618 603 588 561 557 570 561 574 570 570 570 570 570 574 561 570 541 0 2164 2164 2044 518 518 518 511 507 0 0 0 477 457 465 465 0 0 0 0 0
    0 0 0 0 0 0 0 0 0 0 0 0 0 0 0 0 0 0 0 0 0 0 0 0 0 0 0 0 0 0 0 0 0 0 0 0 0 0 0 0 0 0 0 0 0 0 0 0 0 0 0 0 0 0 0 0 0 0 0 0 0 0 0 0 0 0 0 0 0 0 264 0 0 0 0 1247 1206 1226 1226 1268 1291 1247 1206 1226 1226 1226 1247 1247 1206 1187 1226 1247 1226 1226 1247 1226 1247 1268 1291 1314 1291 0 1226 1206 1388 1388 1338 1362 1388 1388 1338 1362 1388 1314 1314 0 0 1247 1247 1415 1291 1314 1338 0 0 0 0 0 0 0 0 0 0 0 0 0 0 0 0 0 1362 0 0 0 0 0 968 931 981 981 994 981 0 0 0 0 0 0 0 0 0 0 0 0 0 0 1533 1672 1635 0 0 0 0 0 0 0 0 95 0 0 0 0 1082 1206 1206 1149 1226 1247 1247 1226 1206 1291 1268 1291 1533 1291 1247 1206 0 1247 1098 1149 1115 1132 1098 1098 1115 1115 1115 1168 1115 1132 1115 1051 1082 1082 1149 1149 1149 1187 1149 1082 1115 1098 1098 1066 1051 1036 1022 1022 1022 1008 981 968 855 931 943 943 1008 1008 1008 1008 1008 1036 1022 897 908 865 845 845 845 845 855 855 0 0 0 735 735 0 728 0 0 0 0 0 242 241 245 675 623 645 639 645 645 645 645 657 657 687 651 669 623 603 588 561 561 570 561 574 570 570 570 566 570 574 561 566 541 0 2102 0 2044 518 518 518 511 507 504 490 0 477 459 465 465 0 0 0 0 0
    0 0 0 0 0 0 0 0 0 0 0 0 0 0 0 0 0 0 0 0 0 0 0 0 0 0 0 0 0 0 0 0 0 0 0 0 0 0 0 0 0 0 0 0 0 0 0 0 0 0 0 0 0 0 0 0 0 0 0 0 0 0 0 0 0 0 0 0 0 0 271 0 0 0 0 1247 1206 1226 1226 1268 1291 1226 1226 1226 1226 1226 1247 1226 1206 1206 1226 1247 1247 1226 1247 1226 1247 1268 1268 1247 1226 1226 1168 1168 1362 1362 1338 1362 1388 1388 1338 1362 1415 1314 1338 1338 0 1268 1247 0 1291 1291 1314 0 0 0 0 0 0 0 0 0 0 0 0 0 0 0 0 0 0 0 0 0 0 0 0 955 981 994 0 1008 0 0 0 0 0 0 0 0 0 0 0 0 0 0 0 0 0 0 0 0 0 0 0 0 0 95 0 0 0 0 1066 1206 1206 1149 1226 1247 1247 1226 1226 1291 1291 1291 1501 1291 1268 1226 0 1268 1115 1132 1115 1132 1115 1115 1149 0 1132 1206 1168 1168 1132 1066 1082 1082 1132 1132 1132 1149 1132 1082 1098 1082 1082 1066 1051 1036 1022 1022 1022 1008 981 968 855 943 943 943 1022 1008 1008 1022 1022 1036 1022 886 897 865 845 845 845 845 845 855 0 88 0 743 743 0 728 0 0 0 0 0 242 241 246 675 629 645 639 651 651 651 651 657 657 687 663 675 634 608 598 561 561 570 561 570 570 566 570 566 570 570 561 566 541 0 0 0 0 521 518 518 511 504 500 490 0 477 459 465 465 0 0 0 0 0</data></depth>
</opencv_storage>
