<?xml version="1.0"?>
<opencv_storage>
<gps_time_stamp>320773</gps_time_stamp>
<gps_x>-1.2417351722717285e+001</gps_x>
<gps_y>1.0716245651245117e+001</gps_y>
<gps_z>-1.9642761945724487e+000</gps_z>
<image_time_stamp>311658</image_time_stamp>
<depth type_id="opencv-matrix">
  <rows>84</rows>
  <cols>320</cols>
  <dt>s</dt>
  <data>
    0 0 0 0 0 0 0 0 0 0 0 0 0 0 0 0 0 0 0 0 0 0 0 0 0 0 0 0 0 0 0 0 0 0 0 0 0 0 0 0 0 0 0 0 0 0 0 0 0 0 0 0 0 0 0 0 0 0 0 0 0 0 0 0 0 0 0 0 0 1443 1471 1443 1599 1565 1599 1415 1226 0 0 0 0 687 663 0 0 0 0 0 0 0 0 0 0 0 0 0 0 0 0 0 0 0 0 0 0 0 0 0 0 0 0 0 0 0 0 0 8177 0 0 0 0 0 0 0 0 0 0 7359 8177 0 0 8177 5256 5661 6690 6690 6690 6133 6690 6133 6690 7359 8177 7359 7359 7359 7359 6133 6690 6133 6133 5661 5661 5256 5256 5661 6133 6133 5661 5661 5661 6133 6133 6133 6690 6690 6690 6690 6690 6690 6690 6690 5661 5661 6133 5256 5661 5661 5256 5256 5256 6133 5661 5661 6690 6690 6133 6133 5256 5256 4906 0 0 1711 1672 1565 1533 1501 1471 1443 1471 1314 1314 1314 1132 1206 1168 1168 1168 1206 1132 0 0 1226 1098 651 1066 1066 1036 0 0 931 931 908 897 919 897 0 855 0 0 0 0 0 0 0 0 0 0 0 0 0 0 0 645 639 645 663 651 645 645 669 623 0 0 0 86 579 584 566 557 557 566 549 0 77 77 77 0 0 0 0 0 0 242 243 0 743 743 791 774 782 782 791 791 0 457 454 0 0 0 0 0 97 97 0 97 0 0 432 425 0 0 200 0 0 357 343 340 342 0 0 0 0 0 0 0 0 0 0
    0 0 0 0 0 0 0 0 0 0 0 0 0 0 0 0 0 0 0 0 0 0 0 0 0 0 0 0 0 0 0 0 0 0 0 0 0 0 0 0 0 0 0 0 0 0 0 0 0 0 0 0 0 0 0 0 0 0 0 0 0 0 0 0 0 0 0 0 0 1471 1443 1415 1533 1501 1533 1388 1187 0 0 0 687 681 657 0 0 0 0 0 0 0 0 0 0 0 0 0 0 0 0 0 0 0 0 0 0 0 0 0 0 0 0 0 0 0 0 0 0 0 0 0 0 0 0 0 0 0 0 8177 8177 0 8177 0 4906 5661 6690 6690 7359 6133 6690 6690 7359 8177 0 8177 8177 8177 7359 6690 6690 6133 6690 6133 6133 5256 5661 6133 6133 6133 6133 6133 6133 6133 6133 6133 7359 6133 6690 6690 6690 6690 6690 6690 5661 5661 6133 5256 5661 6133 5661 5661 5256 6133 5661 5661 6133 6133 5661 5256 4906 4906 4599 0 0 1711 1672 1533 1533 1501 1471 1443 1443 1338 1314 1314 1132 1187 1168 1168 1168 0 0 0 0 1247 1115 657 1066 1082 1036 0 0 0 919 908 897 919 886 817 0 0 0 0 0 0 0 0 0 0 0 0 0 0 0 0 645 639 645 663 651 645 645 669 623 603 0 0 86 579 579 566 557 553 561 549 0 77 76 76 0 0 84 0 0 0 242 243 0 750 743 791 774 782 782 791 799 0 457 454 0 0 0 0 0 0 0 0 97 0 435 432 427 0 0 201 0 0 364 345 0 0 0 0 0 0 0 0 0 0 0 0
    0 0 0 0 0 0 0 0 0 0 0 0 0 0 0 0 0 0 0 0 0 0 0 0 0 0 0 0 0 0 0 0 0 0 0 0 0 0 0 0 0 0 0 0 0 0 0 0 0 0 0 0 0 0 0 0 0 0 0 0 0 0 0 0 0 0 0 0 0 1501 1471 1415 1501 1471 1501 1388 1098 0 0 0 0 675 639 0 0 0 0 0 0 0 0 0 0 0 0 0 0 0 0 0 0 0 0 0 0 0 0 0 0 0 0 0 0 0 0 0 0 0 0 0 0 0 0 0 0 0 0 0 0 0 0 0 4906 5256 6690 7359 7359 6133 7359 6690 7359 7359 8177 7359 7359 7359 7359 6133 6690 6133 6133 6133 6133 5661 6133 6133 6690 6690 6133 6133 6690 6133 6690 6690 7359 6690 6690 6690 6690 6690 6690 6690 6133 5661 6133 5256 5661 6133 5661 5256 5256 5661 5661 5661 6133 6133 5661 4906 4906 5256 4599 3679 0 1711 1672 1533 1565 1533 1471 1415 1443 1338 1291 1291 1115 1187 1168 1168 1168 1187 1132 0 1149 1247 1132 0 1082 1082 1051 1082 0 0 931 943 943 931 865 808 0 0 0 0 0 0 0 0 0 0 0 0 0 0 0 0 651 639 645 663 651 639 639 663 623 598 0 0 0 574 579 566 553 553 557 545 0 76 76 76 0 0 84 0 0 0 243 244 735 750 743 791 774 0 0 791 799 457 454 454 446 0 0 0 0 0 0 159 0 0 435 432 427 0 0 201 0 0 367 0 0 0 0 0 0 236 0 0 0 0 0 0
    0 0 0 0 0 0 0 0 0 0 0 0 0 0 0 0 0 0 0 0 0 0 0 0 0 0 0 0 0 0 0 0 0 0 0 0 0 0 0 0 0 0 0 0 0 0 0 0 0 0 0 0 0 0 0 0 0 0 0 0 0 0 0 0 0 0 0 0 0 1501 1471 1443 1471 1415 1471 1362 1051 0 0 0 0 669 0 0 0 0 0 0 0 0 0 0 0 0 0 0 0 0 0 0 0 0 0 0 0 0 0 0 0 0 0 8177 0 0 0 0 0 0 0 0 0 0 0 0 0 0 0 0 0 0 0 0 5661 5661 6133 6690 7359 5661 6690 6690 7359 7359 7359 7359 7359 6690 6690 6133 6690 6133 6133 6133 6133 5661 6133 6133 6690 6690 6690 6133 6690 6690 6690 6690 7359 6133 6690 6133 6690 6690 6690 6133 6133 5661 6133 5256 5661 5661 5661 5256 5661 5661 5661 5661 6133 6690 5661 4906 4906 5256 4906 3679 0 1752 1711 1565 1565 1533 1471 1415 1443 1362 1291 1268 1115 1187 1187 1187 1187 1206 0 0 1149 1247 1132 0 1066 1082 1066 1098 0 0 981 0 0 0 0 791 799 0 0 0 0 0 0 0 0 0 0 0 0 0 0 0 651 639 645 663 651 639 639 663 618 593 0 593 579 570 579 566 553 549 0 0 0 76 76 76 76 0 84 0 0 0 243 244 735 750 743 791 774 0 0 799 799 457 454 454 446 0 0 0 0 0 0 159 0 0 435 432 427 427 0 202 0 0 0 0 687 694 0 707 707 0 0 0 0 0 0 0
    0 0 0 0 0 0 0 0 0 0 0 0 0 0 0 0 0 0 0 0 0 0 0 0 0 0 0 0 0 0 0 0 0 0 0 0 0 0 0 0 0 0 0 0 0 0 0 0 0 0 0 0 0 0 0 0 0 0 0 0 0 0 0 0 0 0 0 0 0 1501 1443 1415 1443 1388 1415 1362 0 0 0 0 0 657 0 0 0 0 0 0 0 0 0 0 0 0 0 0 0 0 0 0 0 0 0 0 0 0 0 0 0 0 0 8177 0 127 127 0 0 0 0 0 0 0 0 0 0 0 0 0 0 0 0 0 6690 6133 5661 6133 7359 5661 6690 6133 6690 7359 7359 7359 7359 6690 7359 6133 6690 6133 6133 6133 6133 5661 6133 6690 6690 6690 6690 6690 6690 6690 7359 6690 7359 6133 6690 6133 6690 6133 6690 6133 6133 5661 6690 5256 5661 6133 5661 5661 5661 5661 5661 5256 6133 6133 5661 4906 4906 4906 4599 3679 0 1752 1711 1565 1565 1533 1471 1443 1443 1415 1291 1291 1149 1206 1206 1206 1226 1226 0 1168 1187 0 1149 1098 1051 1082 1066 1098 0 0 0 1051 1051 0 0 782 799 0 0 0 0 0 0 0 0 0 0 0 0 0 0 0 657 639 645 657 651 639 634 657 618 593 598 588 579 570 579 566 549 549 0 0 0 76 76 76 76 83 0 0 0 0 244 0 735 743 743 791 774 0 0 799 808 457 457 457 446 443 440 0 0 422 0 159 0 0 435 432 427 427 0 201 0 0 0 0 694 700 714 714 714 0 0 0 0 0 0 0
    0 0 0 0 0 0 0 0 0 0 0 0 0 0 0 0 0 0 0 0 0 0 0 0 0 0 0 0 0 0 0 0 0 0 0 0 0 0 0 0 0 0 0 0 0 0 0 0 0 0 0 0 0 0 0 0 0 0 0 0 0 0 0 0 0 0 0 0 0 1501 1415 1415 1443 1362 1388 1338 0 0 0 0 0 651 0 0 0 0 0 0 0 0 0 0 0 0 0 0 0 0 0 0 0 0 0 0 0 0 0 0 0 0 0 8177 0 127 0 0 0 0 0 0 0 0 0 0 0 0 0 0 0 0 0 0 7359 6690 6133 6133 7359 5661 6690 6133 6690 6690 6690 7359 7359 6690 6690 6133 6690 6133 6133 6133 6133 5661 6133 6690 7359 6690 6690 6690 7359 6690 7359 6690 6690 6133 6690 5661 6133 6133 6133 6133 6133 6133 6690 5661 5661 5661 5661 5661 6133 5661 5661 5256 6133 6690 6133 4906 4906 4906 4599 3504 0 1752 1711 1565 1565 1501 1471 1443 1443 1443 1314 1314 1168 1226 1226 1247 1247 1247 0 1206 1206 0 1187 1098 1051 1098 1066 1115 1066 1051 1066 1098 1082 1291 0 0 0 0 0 0 0 0 0 0 0 0 0 0 0 0 0 675 663 639 645 657 651 639 634 657 618 593 598 593 584 570 579 566 549 549 0 0 0 76 76 76 0 83 0 0 0 0 244 0 735 743 743 791 782 0 0 799 808 457 457 459 448 443 443 440 0 422 0 159 158 432 435 432 427 0 0 200 0 0 0 721 707 707 721 721 721 0 728 0 0 0 0 0
    0 0 0 0 0 0 0 0 0 0 0 0 0 0 0 0 0 0 0 0 0 0 0 0 0 0 0 0 0 0 0 0 0 0 0 0 0 0 0 0 0 0 0 0 0 0 0 0 0 0 0 0 0 0 0 0 0 0 0 0 0 0 0 0 0 0 0 0 0 1533 1443 1443 1443 1362 1415 1362 0 0 0 0 0 0 0 0 0 0 0 0 0 0 0 0 0 0 0 0 0 0 0 0 0 0 0 0 0 0 0 0 0 0 0 0 0 0 0 0 0 0 8177 8177 0 0 8177 0 0 0 0 0 0 0 8177 0 8177 8177 6133 0 0 5661 7359 6133 6690 6690 6690 7359 6690 6133 7359 6133 6690 6690 6690 6133 6133 5661 6133 6690 7359 6690 6690 6690 7359 6690 7359 6690 6690 6133 6690 5661 6133 6133 6690 6133 6133 6133 6690 5661 5661 5661 6133 5661 6133 5661 5661 5256 6133 6690 6133 4906 5256 4906 4599 0 0 1711 1672 1565 1565 1501 1471 1443 1443 1471 1314 1314 1187 1247 1268 1268 1268 1268 0 1226 1226 0 1206 1115 1066 1115 1098 1149 1098 1066 1115 1132 1115 1338 0 0 0 0 0 0 0 0 0 0 0 0 0 0 0 0 0 675 669 639 651 657 651 645 639 663 618 598 603 593 588 570 579 566 549 549 0 0 0 0 77 77 0 83 0 0 0 0 0 0 735 743 743 791 782 0 0 799 808 459 459 459 448 443 443 440 0 422 0 158 158 432 435 432 430 0 0 199 0 0 0 735 721 721 735 728 735 0 735 0 0 0 0 0
    0 0 0 0 0 0 0 0 0 0 0 0 0 0 0 0 0 0 0 0 0 0 0 0 0 0 0 0 0 0 0 0 0 0 0 0 0 0 0 0 0 0 0 0 0 0 0 0 0 0 0 0 0 0 0 0 0 0 0 0 0 0 0 0 0 0 0 0 0 1533 1443 1443 1443 1362 1443 1362 0 0 0 0 0 0 0 0 0 0 0 0 0 0 0 0 0 0 0 0 0 0 0 0 0 0 0 0 0 0 0 0 0 0 0 0 0 0 0 0 0 0 8177 8177 0 0 7359 8177 0 8177 8177 8177 0 8177 7359 8177 7359 6690 6133 0 0 6133 7359 6690 6690 6690 7359 7359 6690 6133 7359 6133 7359 7359 6690 6133 6133 6133 6133 6690 7359 6690 6690 6690 7359 6690 6690 7359 6690 6133 6690 5661 6133 6133 6690 6133 6133 6133 6690 5661 6133 6133 6133 6133 6690 5661 6133 5256 6133 6690 6133 4906 4906 4906 4906 0 0 0 1672 1565 1565 1471 1443 1443 1443 1533 1314 1314 1206 1268 1291 1268 1291 1291 1268 1247 1247 0 1226 1132 1066 1115 1115 1168 1132 1115 1149 1168 1132 1415 1388 0 0 0 0 0 0 0 0 0 0 0 791 728 0 707 651 681 669 645 651 657 651 645 639 663 623 598 603 598 593 570 579 570 549 549 0 0 0 0 77 0 0 0 0 0 0 0 0 0 0 735 735 0 791 0 0 799 817 465 465 465 451 443 443 440 435 422 0 158 158 432 435 432 430 0 0 0 0 0 0 750 735 735 750 743 750 0 743 0 0 0 0 0
    0 0 0 0 0 0 0 0 0 0 0 0 0 0 0 0 0 0 0 0 0 0 0 0 0 0 0 0 0 0 0 0 0 0 0 0 0 0 0 0 0 0 0 0 0 0 0 0 0 0 0 0 0 0 0 0 0 0 0 0 0 0 0 0 0 0 0 0 0 1533 1443 1443 1415 1362 1415 1362 0 0 0 0 0 0 0 0 0 0 0 0 0 0 0 0 0 0 0 0 0 0 0 0 0 0 0 0 0 0 0 0 0 0 0 8177 0 0 0 8177 8177 0 8177 8177 0 0 7359 8177 0 0 8177 8177 0 8177 8177 0 7359 6133 5256 0 0 6133 7359 6690 6690 6690 7359 8177 6690 6133 7359 6690 7359 7359 7359 6133 6133 6133 6133 6690 7359 6690 6690 6690 7359 6690 6690 6690 6690 5661 6133 5661 6133 6133 6133 6133 6133 6133 6690 5661 6690 6133 6690 6133 7359 6133 6133 5661 6690 6690 6133 4906 4906 4906 4599 2628 1635 1711 1672 1565 1565 1471 1443 1443 1443 1533 1314 1314 1247 1268 1291 1268 1291 1291 1268 1247 1226 1268 1226 1115 1066 1115 1132 1168 1168 1149 1187 1206 1168 1501 1443 0 0 0 0 0 0 0 0 0 0 0 791 721 0 700 657 681 675 645 651 663 651 645 639 663 623 598 603 598 593 570 579 570 553 553 0 0 0 0 77 0 0 0 0 0 0 0 0 0 0 0 0 0 0 0 0 0 0 468 468 468 451 443 443 438 435 420 0 158 0 432 438 432 0 0 0 0 7359 0 0 774 743 750 0 743 758 766 735 0 0 0 0 0
    0 0 0 0 0 0 0 0 0 0 0 0 0 0 0 0 0 0 0 0 0 0 0 0 0 0 0 0 0 0 0 0 0 0 0 0 0 0 0 0 0 0 0 0 0 0 0 0 0 0 0 0 0 0 0 0 0 0 0 0 0 0 0 0 0 0 0 0 0 1501 1443 1443 1443 1388 1443 1388 0 0 0 0 0 0 0 0 0 0 0 0 0 0 0 0 0 0 0 0 0 0 0 0 0 0 0 0 0 0 0 0 0 0 0 8177 8177 0 0 0 0 0 7359 7359 0 0 0 0 0 0 0 0 0 8177 8177 0 8177 6690 4599 0 0 5661 7359 6690 6690 6690 6690 7359 6133 5661 7359 6133 7359 7359 6690 6133 6133 6133 6133 6133 7359 6690 6690 6690 7359 6690 6690 6690 6690 5661 6133 5661 5661 5661 6133 5661 6133 5661 6133 5661 6690 6133 6133 6133 6690 6690 6690 6690 6690 7359 6690 5256 5256 4906 4329 2453 1672 1711 1672 1599 1565 1501 1471 1471 1443 1533 1314 1314 1268 1268 1291 1268 1291 1268 1268 0 1226 1247 1226 1132 1082 1132 1149 1187 1187 1187 1226 1226 1206 1533 1533 0 0 0 0 0 0 0 0 0 0 0 791 728 707 707 663 681 675 651 657 663 651 645 639 663 623 598 603 598 593 570 579 570 553 553 561 0 0 0 77 77 0 0 0 0 0 0 0 0 0 243 0 242 243 243 0 0 0 471 471 468 454 440 443 438 435 420 0 0 0 432 440 435 0 0 0 6690 6133 0 0 782 750 0 0 0 750 758 735 0 0 0 0 0
    0 0 0 0 0 0 0 0 0 0 0 0 0 0 0 0 0 0 0 0 0 0 0 0 0 0 0 0 0 0 0 0 0 0 0 0 0 0 0 0 0 0 0 0 0 0 0 0 0 0 0 0 0 0 0 0 0 0 0 0 0 0 0 0 0 0 0 0 0 1471 1471 1443 1443 1415 1501 1443 0 0 0 0 0 0 0 0 0 0 0 0 0 0 0 0 0 0 0 0 0 0 0 0 0 0 0 0 0 0 0 0 8177 0 0 7359 8177 8177 0 8177 8177 8177 7359 6690 0 0 0 0 0 0 0 0 0 0 8177 0 0 8177 4906 0 0 5661 6690 6133 6133 6133 6133 6133 5661 4906 6133 5661 6133 6690 6133 5661 5661 5661 5661 5661 6690 6133 6133 6690 6690 6690 6690 6690 6690 5661 6133 5661 5256 5661 5661 5661 5661 5661 5661 5661 6133 6133 6133 6133 7359 6690 7359 7359 7359 8177 7359 6133 5661 4906 4088 2374 1672 1711 1672 1599 1599 1501 1471 1471 1443 1533 1291 1291 1268 1268 1291 1268 1291 1268 1268 0 0 1247 1226 1115 1082 1132 1168 1187 0 1206 1226 1226 1206 1565 1635 0 0 0 0 0 0 142 0 0 0 0 799 728 707 707 669 681 675 651 657 657 657 645 639 657 623 603 603 598 593 570 584 574 553 557 566 0 0 0 77 77 77 0 0 0 0 245 0 0 0 244 239 243 244 244 242 0 477 474 474 471 454 440 443 438 435 418 0 0 0 0 443 435 0 0 0 0 5256 0 0 774 743 743 0 743 743 750 735 0 0 0 0 0
    0 0 0 0 0 0 0 0 0 0 0 0 0 0 0 0 0 0 0 0 0 0 0 0 0 0 0 0 0 0 0 0 0 0 0 0 0 0 0 0 0 0 0 0 0 0 0 0 0 0 0 0 0 0 0 0 0 0 0 0 0 0 0 0 0 0 0 0 0 1471 1471 1443 1471 1501 1599 1533 1565 0 0 0 0 0 0 0 0 0 0 0 0 0 0 0 0 0 0 0 0 0 0 0 0 0 0 0 0 7359 8177 7359 8177 0 8177 8177 8177 8177 0 8177 8177 7359 6690 6133 8177 0 6690 6690 7359 8177 8177 8177 0 8177 8177 8177 0 7359 5661 0 0 5661 6690 5661 5661 5661 5661 6133 5661 4906 6133 5256 6133 6133 6133 5661 6133 5661 5661 5661 6133 6133 6133 6690 6690 6133 6133 6690 6690 5661 5661 5256 4906 5256 5661 5256 5661 5661 5661 5661 6133 6133 6133 6133 7359 6690 7359 7359 8177 8177 8177 7359 6133 4906 4329 2230 1635 1711 1635 1599 1599 1501 1471 1471 1443 1533 1291 1291 1291 1268 1291 1268 1268 1268 1268 0 0 1206 1226 1115 1098 1115 1168 1187 0 1206 1226 1226 1206 1533 1635 0 0 0 0 0 0 142 138 0 0 0 799 735 700 700 675 681 675 651 657 657 657 645 639 657 629 603 0 598 593 570 579 574 557 561 570 553 0 0 77 78 78 0 0 0 0 0 0 0 0 244 239 243 245 244 0 0 481 477 477 474 457 440 443 438 438 418 0 0 0 0 443 438 0 0 0 0 0 0 758 766 743 743 750 750 758 774 750 0 0 0 0 0
    0 0 0 0 0 0 0 0 0 0 0 0 0 0 0 0 0 0 0 0 0 0 0 0 0 0 0 0 0 0 0 0 0 0 0 0 0 0 0 0 0 0 0 0 0 0 0 0 0 0 0 0 0 0 0 0 0 0 0 0 0 0 0 0 0 0 0 0 0 1471 1471 1415 1471 1565 1635 1565 1635 0 0 0 0 8177 0 0 0 0 0 0 0 0 0 0 0 0 0 0 0 0 0 0 0 8177 7359 7359 7359 6690 7359 7359 7359 0 0 8177 8177 0 0 0 8177 7359 6690 5661 7359 7359 6133 6133 6690 7359 0 0 0 0 0 0 0 8177 6690 8177 8177 5661 6690 6133 5661 5661 5661 5661 5661 4599 5661 5256 5661 6133 5661 5661 6133 5256 5661 5256 6133 6133 5661 6690 6133 6133 6133 6133 6133 5661 5661 5256 4599 4906 5256 4906 5256 5661 5256 5661 6133 6133 6133 6133 6690 6690 6690 7359 7359 8177 8177 6690 5661 4088 3873 2102 1635 1672 1635 1599 1599 1501 1471 1471 1443 1533 1314 1314 1314 1226 1268 1247 1247 1247 1247 0 0 1187 1226 1115 1098 1115 1149 1168 0 0 0 1206 1187 0 1795 0 0 0 0 0 0 142 138 0 0 0 799 728 700 700 675 675 675 651 657 657 657 645 639 651 629 603 0 598 593 570 584 574 557 561 570 561 557 0 78 78 78 561 0 0 0 0 0 0 0 244 239 243 246 245 0 0 484 481 481 477 462 440 446 440 438 420 430 430 0 0 443 438 0 0 0 0 6133 774 766 782 758 750 0 774 774 799 774 0 0 0 0 0
    0 0 0 0 0 0 0 0 0 0 0 0 0 0 0 0 0 0 0 0 0 0 0 0 0 0 0 0 0 0 0 0 0 0 0 0 0 0 0 0 0 0 0 0 0 0 0 0 0 0 0 0 0 0 0 0 0 0 0 0 0 0 0 0 0 0 0 0 0 1471 1501 1443 1471 1599 1599 1565 1635 1565 0 0 0 6133 6690 0 0 0 0 0 0 0 0 0 0 0 0 8177 8177 0 0 8177 7359 6690 6690 6690 6690 6690 6690 6690 7359 0 0 0 8177 0 0 0 8177 7359 6690 5256 6690 6690 6133 5661 6690 7359 8177 8177 0 0 0 0 0 0 8177 0 0 6133 6690 6133 5661 6133 5661 5661 5256 4906 5661 5256 5661 6133 5661 5661 6133 5256 5661 5256 5661 5661 5661 6133 6133 5661 6133 6133 6133 5661 5661 5256 4599 4906 5256 4906 4906 5256 4906 5256 5256 5661 5661 6133 6690 6690 6690 7359 7359 8177 7359 6133 5256 3679 3504 2164 1672 1711 1672 1635 1635 1533 1501 1501 1443 1533 1291 1291 1291 1168 1247 1226 1206 1206 1226 0 0 1168 1206 1098 0 1098 1132 1132 0 0 0 0 1187 0 0 0 0 0 0 0 0 142 138 0 0 0 799 728 700 700 681 675 675 651 651 657 657 645 639 651 634 0 0 598 593 570 584 579 557 566 574 566 561 557 78 78 78 561 541 0 0 0 0 0 242 244 240 242 246 0 0 0 487 487 484 481 468 443 0 0 440 422 430 0 0 0 443 438 0 0 168 0 0 0 0 799 782 774 0 791 791 0 0 0 0 0 0 0
    0 0 0 0 0 0 0 0 0 0 0 0 0 0 0 0 0 0 0 0 0 0 0 0 0 0 0 0 0 0 0 0 0 0 0 0 0 0 0 0 0 0 0 0 0 0 0 0 0 0 0 0 0 0 0 0 0 0 0 0 0 0 0 0 0 0 0 0 0 1471 1501 1415 1471 1565 1565 1599 1635 1533 1599 1471 0 0 0 0 0 0 0 0 8177 7359 0 0 8177 7359 8177 6690 6133 7359 8177 6133 6133 5661 5661 6133 6690 6133 6690 6133 6690 8177 0 8177 7359 8177 0 8177 8177 6690 6133 4906 6690 6690 6133 5661 6133 6690 8177 8177 0 0 0 0 0 0 8177 0 0 6690 6690 6133 5661 6133 5661 5661 5256 4906 5256 5256 5661 6133 5661 5661 6133 5256 5256 5256 5661 5661 5256 6133 5661 5661 6133 6133 6133 5661 5256 5256 4599 4906 5256 4906 4599 5256 4906 5256 5256 6133 5661 6133 6690 6690 6690 6690 7359 8177 7359 5661 4599 3679 3345 2230 1672 1711 1672 1672 1672 1565 1533 1533 1443 1533 1291 1291 1291 1132 1226 1206 1187 1187 1206 1132 1132 1149 1206 1098 0 1098 1115 1115 0 448 0 0 0 0 1887 0 0 0 0 0 0 142 138 0 0 855 799 728 700 694 681 669 675 657 651 657 663 645 639 645 639 0 0 598 593 570 584 584 561 566 574 570 561 557 77 0 0 561 545 0 0 0 0 0 242 245 242 242 0 0 0 0 487 487 487 484 471 0 0 0 0 425 0 0 0 0 440 438 0 0 0 0 0 0 0 0 808 799 0 808 0 0 0 0 0 0 0 0
    0 0 0 0 0 0 0 0 0 0 0 0 0 0 0 0 0 0 0 0 0 0 0 0 0 0 0 0 0 0 0 0 0 0 0 0 0 0 0 0 0 0 0 0 0 0 0 0 0 0 0 0 0 0 0 0 0 0 0 0 0 0 0 0 0 0 0 0 0 1443 1501 1415 1471 1533 1501 1565 1599 1501 1565 1471 0 0 0 0 0 0 0 8177 8177 6690 0 8177 8177 6690 7359 6133 5661 6133 7359 5661 5256 5256 5256 5256 6133 5661 5661 5661 6133 7359 7359 7359 6690 6690 7359 7359 6690 5661 5661 4599 6133 6690 6133 6133 6133 7359 0 0 0 0 0 0 0 0 8177 8177 8177 6690 6690 6133 5661 5661 5661 5661 5256 4906 5256 5661 5661 6133 5661 5661 6133 5256 5256 5256 5256 5661 5256 6133 6133 5661 6133 6133 6133 5661 5661 5661 4599 4906 5256 4906 4599 5256 5256 5661 5661 6133 6133 6133 6690 7359 6690 6690 7359 8177 7359 5661 4599 3504 3504 2230 1672 1711 1672 1672 1672 1565 1533 1533 1443 1565 1291 1291 1291 1098 1206 1187 1149 1149 1168 1115 1115 1132 1206 1082 651 1082 1098 1098 0 448 446 443 0 0 1936 0 0 0 0 0 143 142 138 0 0 855 799 728 700 694 687 663 675 657 651 657 663 645 639 645 639 0 0 598 593 570 584 584 561 566 570 570 561 557 77 553 0 561 545 0 0 0 0 0 242 245 242 242 0 0 0 0 487 487 484 484 474 0 0 0 0 427 0 0 0 0 0 435 0 0 0 0 0 0 0 0 0 0 0 0 0 0 0 0 0 0 0 0
    0 0 0 0 0 0 0 0 0 0 0 0 0 0 0 0 0 0 0 0 0 0 0 0 0 0 0 0 0 0 0 0 0 0 0 0 0 0 0 0 0 0 0 0 0 0 0 0 0 0 0 0 0 0 0 0 0 0 0 0 0 0 0 0 0 0 0 0 0 1443 1501 1415 1471 1533 1471 1565 1599 1471 1565 1471 0 0 0 0 0 0 0 8177 7359 6133 8177 7359 6690 6133 6690 5661 5256 5661 6690 5256 4906 4906 4599 4599 5661 5256 5256 5256 5661 6133 7359 6133 6133 5661 6690 6133 5661 4599 5256 4329 6133 6133 6133 5661 5661 6690 0 0 0 0 0 0 0 0 0 7359 7359 6690 6133 6133 5661 6133 5661 5661 5661 5256 5661 5661 5661 6133 5661 6133 6133 5256 5661 5256 5256 5661 5256 6133 5661 5661 6133 6133 6133 6133 5661 5661 4906 4906 5256 5256 4906 5256 5256 5661 5661 6133 6133 6133 6690 6690 6690 6690 7359 8177 8177 6133 4906 3679 3504 2299 1672 1711 1672 1672 1672 1565 1533 1533 1443 1565 1291 1291 0 0 1206 1168 1132 1149 1168 1098 1115 1115 1187 1066 651 1066 1098 1098 0 446 446 443 0 0 1936 0 0 0 0 0 142 142 139 0 876 855 799 728 700 694 687 663 675 657 651 657 663 645 634 645 645 0 177 598 593 570 584 588 566 561 566 570 561 553 0 553 545 561 549 0 0 0 0 0 242 245 0 0 0 0 0 0 0 487 484 484 471 0 0 0 0 430 0 0 0 0 0 435 0 0 0 0 0 0 0 0 0 0 0 0 0 265 265 0 0 0 0 0
    0 0 0 0 0 0 0 0 0 0 0 0 0 0 0 0 0 0 0 0 0 0 0 0 0 0 0 0 0 0 0 0 0 0 0 0 0 0 0 0 0 0 0 0 0 0 0 0 0 0 0 0 0 0 0 0 0 0 0 0 0 0 0 0 0 0 0 0 0 1443 1501 1388 1471 1533 1471 1565 1599 1471 1533 1471 1635 0 0 0 0 0 0 0 8177 6133 7359 6690 6133 5256 5661 5256 4599 4906 5661 4906 4906 4599 4599 4329 0 0 5256 4906 5661 5661 6690 5661 5661 5256 6133 5661 4906 4329 4906 4088 5661 5661 5661 5256 5256 6133 0 0 0 0 0 0 0 0 0 6690 6690 6690 6133 6133 5661 6133 5661 5661 5661 5256 5256 5661 5661 6133 5661 6133 6690 5661 5661 5256 5256 5661 5256 6133 6133 5661 6133 6133 6133 6133 5661 5661 4906 5256 5661 5256 4906 5661 5661 5661 5661 6133 6133 6133 6690 7359 7359 6690 7359 0 8177 6133 5256 3873 3679 2299 0 1752 1672 1672 1672 1599 1533 1533 1443 1599 1291 0 0 0 1187 1168 1132 1132 1149 1098 1115 1115 1187 0 645 1066 1098 1082 0 448 446 443 0 0 1989 0 0 0 144 142 142 141 139 0 886 855 808 735 700 700 694 657 675 657 651 657 669 645 634 639 651 0 176 598 593 570 584 584 566 561 566 570 557 553 0 553 549 561 553 553 0 0 0 0 0 245 0 0 0 0 0 0 484 484 481 481 471 0 0 0 0 0 0 0 0 0 0 432 427 0 0 0 0 0 0 0 0 0 0 0 267 266 265 0 0 0 0 0
    0 0 0 0 0 0 0 0 0 0 0 0 0 0 0 0 0 0 0 0 0 0 0 0 0 0 0 0 0 0 0 0 0 0 0 0 0 0 0 0 0 0 0 0 0 0 0 0 0 0 0 0 0 0 0 0 0 0 0 0 0 0 0 0 0 0 0 0 0 1443 1501 1388 1443 1501 1443 1565 1565 1443 1501 1443 1565 1565 1565 0 0 0 0 0 8177 5256 6133 5661 5256 4599 4906 4599 4088 4329 5256 4599 4599 4329 4088 3873 4329 4329 4906 4599 5256 4906 5661 5256 4906 4599 5256 4599 4088 3873 4599 3873 4906 5256 5256 4599 4906 5661 8177 7359 0 0 0 8177 0 0 8177 6690 6133 6690 6133 6133 5256 6133 5661 5256 5661 5661 5256 5661 5661 6133 5661 6133 6133 5256 5661 5661 5256 5661 5661 6133 6133 5661 6133 6133 6133 6133 5661 5661 4906 5256 5661 5256 5256 5661 5661 6133 5661 6690 6690 7359 7359 7359 8177 6690 8177 0 8177 6133 5256 4088 3679 2299 0 1752 1672 1635 1672 1599 1533 1533 1443 1599 1291 0 0 0 1187 1168 1115 1132 1149 1098 1115 1115 1187 1066 645 1066 1082 1082 0 446 446 443 0 0 2044 0 0 0 144 142 142 141 139 0 876 855 808 735 700 694 694 651 675 657 651 657 669 651 639 639 657 0 175 598 593 570 584 584 566 561 561 570 557 553 0 553 549 566 553 553 0 0 0 241 0 244 0 0 826 0 0 0 0 487 481 481 474 0 0 0 0 0 0 0 0 0 0 432 425 0 0 0 0 0 0 0 0 0 0 271 267 266 265 0 0 0 0 0
    0 0 0 0 0 0 0 0 0 0 0 0 0 0 0 0 0 0 0 0 0 0 0 0 0 0 0 0 0 0 0 0 0 0 0 0 0 0 0 0 0 0 0 0 0 0 0 0 0 0 0 0 0 0 0 0 0 0 0 0 0 0 0 0 0 0 0 0 0 1443 1501 1388 1443 1501 1443 1565 1533 1443 1501 1471 1565 1533 1533 0 0 0 0 0 8177 4329 5256 4599 4599 4088 4329 4329 3873 4088 4599 4329 4329 4088 4088 3873 4329 4329 4906 4906 5256 4906 5661 5256 4906 4088 4599 4088 3873 3679 4088 3679 4599 4906 4906 4329 4329 4906 6690 6690 8177 8177 7359 7359 8177 8177 7359 6690 6133 6133 5661 6133 5661 6133 6133 5661 6133 6133 5661 6133 5661 6133 5256 5661 6133 5256 5256 5661 5256 5661 5661 6133 6133 6133 6690 6133 6133 6133 5661 5661 4906 5256 5661 5256 5256 5661 6133 6133 5661 6690 6690 7359 7359 7359 8177 6690 7359 0 8177 5661 4906 3873 3679 2164 0 1711 1672 1635 1711 1599 1533 1533 1471 1635 1291 1247 1247 1066 1187 1168 1115 1132 1149 1098 1115 1115 1168 1066 651 1066 1082 1066 0 446 0 443 0 0 2102 0 0 0 0 0 0 0 0 0 0 855 808 735 700 694 694 651 675 657 651 657 669 651 639 639 663 618 175 598 593 570 584 584 566 561 561 570 557 0 0 553 545 566 557 553 0 0 0 241 242 244 0 766 817 808 0 0 0 0 481 481 474 454 0 0 0 0 0 0 0 0 0 430 425 0 0 0 0 0 0 0 0 0 0 271 267 266 265 0 0 0 0 0
    0 0 0 0 0 0 0 0 0 0 0 0 0 0 0 0 0 0 0 0 0 0 0 0 0 0 0 0 0 0 0 0 0 0 0 0 0 0 0 0 0 0 0 0 0 0 0 0 0 0 0 0 0 0 0 0 0 0 0 0 0 0 0 0 0 0 0 0 0 1443 1501 1388 1443 1501 1415 1533 1501 1415 1471 1471 1565 1533 1565 0 0 0 0 2830 4329 3679 3873 3873 4088 3873 4329 4329 3873 4329 4599 4088 4329 3873 4088 3873 4088 4599 4906 4906 5256 5256 5661 4906 4599 4088 4329 4088 3679 3679 3873 3679 4329 4599 4599 4329 4088 5256 6690 6690 7359 7359 7359 7359 8177 8177 7359 6690 6133 6133 5661 6133 5661 6133 6133 6133 6133 6133 5661 6133 6133 6133 5256 5661 5661 5256 5256 5661 5256 5661 5661 6690 6690 6133 6690 6133 5661 6133 6133 6133 5256 5661 5661 5661 5661 6133 6133 6133 6133 7359 6690 7359 6690 7359 7359 6690 7359 8177 8177 5661 4906 3873 3504 2102 0 1711 1672 1635 1711 1635 1565 1565 1471 1672 1268 1226 1226 1066 1187 1168 1132 1149 1149 1115 1115 1115 1168 1051 651 1066 1066 1066 0 0 0 0 0 0 2164 0 0 0 0 0 0 141 138 0 0 855 808 735 700 700 700 651 675 663 651 657 669 651 639 645 669 623 174 603 593 574 584 584 566 561 557 570 553 0 0 0 545 561 557 553 0 0 0 241 242 244 782 766 817 799 808 0 826 0 481 481 474 0 0 0 0 0 0 0 0 0 0 0 0 0 0 0 0 0 0 0 0 0 0 272 268 267 266 0 0 0 0 0
    0 0 0 0 0 0 0 0 0 0 0 0 0 0 0 0 0 0 0 0 0 0 0 0 0 0 0 0 0 0 0 0 0 0 0 0 0 0 0 0 0 0 0 0 0 0 0 0 0 0 0 0 0 0 0 0 0 0 0 0 0 0 0 0 0 0 0 0 0 1443 1501 1362 1443 1471 1415 1533 1471 1415 1501 1471 1565 1501 1565 0 0 0 2725 2830 3873 3679 3679 3873 4088 3873 4329 4329 3873 4088 4599 4088 4329 3873 3873 3679 4088 4599 4599 4906 4906 4599 5256 4599 4599 4088 4088 4088 3679 3504 3679 3504 3873 4329 4329 4329 3873 4599 5661 5661 6133 6690 6133 6133 6690 7359 6690 6690 6133 6690 6133 6133 6133 6690 6133 6133 6133 6133 6133 6133 5661 6133 5256 5256 5661 4906 5256 5661 5256 5661 6133 6690 6690 6690 7359 6690 6133 6690 6133 6133 5661 5661 6133 6133 6133 7359 6690 6690 6690 7359 7359 7359 7359 8177 8177 7359 8177 0 8177 6133 5661 4329 3504 2044 0 1672 1672 1635 1672 1599 1533 1565 1501 1711 1268 1226 1226 1066 1187 1187 1132 1149 1168 1115 1115 1115 1168 1051 657 1051 1066 1066 0 0 0 0 0 0 2164 0 0 0 0 0 0 0 0 0 0 845 808 743 707 707 707 657 681 663 651 657 669 651 639 639 663 623 174 603 593 574 584 584 570 557 557 570 0 0 0 76 0 557 553 553 0 0 242 242 242 0 782 766 817 799 0 0 826 0 477 477 471 0 0 0 0 0 0 0 422 0 0 0 0 0 0 0 0 0 0 0 0 0 0 272 269 268 266 0 0 0 0 0
    0 0 0 0 0 0 0 0 0 0 0 0 0 0 0 0 0 0 0 0 0 0 0 0 0 0 0 0 0 0 0 0 0 0 0 0 0 0 0 0 0 0 0 0 0 0 0 0 0 0 0 0 0 0 0 0 0 0 0 0 0 0 0 0 0 0 0 0 0 1443 1533 1362 1471 1501 1415 1533 1501 1415 1471 1471 1533 1471 1501 0 0 0 0 2830 4088 3679 3679 3873 4088 3873 4088 4088 3873 4088 4329 4088 4088 3679 3679 3679 3873 4329 4329 4599 4599 4088 4906 4329 4088 3679 3679 3873 3504 3504 3504 3504 3679 4088 4088 4088 3873 4599 5256 5256 5661 6133 5661 6133 6690 6690 6690 6133 6133 6690 6133 6690 6133 6133 6133 6690 6690 6133 6133 6133 5661 6133 4906 4906 5256 4599 5256 5661 5256 5661 6133 6690 6690 6690 7359 6133 6133 6690 6133 6133 5661 6133 6133 6133 6690 6690 6690 6690 6690 7359 7359 7359 7359 8177 8177 7359 8177 0 0 7359 6133 5256 3873 2102 0 1672 1635 1599 1672 1599 1533 1533 1501 1711 1268 1226 1226 1082 1206 1206 1168 1187 1187 0 1132 1132 1187 1051 663 1051 1066 1066 1098 1066 1051 0 0 0 2164 0 0 0 0 0 1338 0 0 0 0 845 817 743 714 714 707 663 681 669 657 663 669 657 639 639 663 618 174 598 593 574 579 584 570 557 557 566 0 0 0 76 537 549 553 549 0 0 243 242 243 0 782 758 817 799 0 0 817 0 474 474 468 0 0 0 0 0 0 427 422 0 0 0 0 0 0 0 0 0 0 0 0 0 0 272 270 268 266 0 0 0 0 0
    0 0 0 0 0 0 0 0 0 0 0 0 0 0 0 0 0 0 0 0 0 0 0 0 0 0 0 0 0 0 0 0 0 0 0 0 0 0 0 0 0 0 0 0 0 0 0 0 0 0 0 0 0 0 0 0 0 0 0 0 0 0 0 0 0 0 0 0 0 1443 1565 1388 1471 1533 1415 1565 1501 1415 1501 1501 1533 1471 1471 0 0 0 0 2943 4329 3873 3873 3873 4088 3873 4088 4088 3873 4088 4088 3873 3873 3504 3504 3504 3679 3873 4088 4088 4329 3873 4329 4088 3873 3504 3679 3679 3504 3345 3504 3345 3504 3873 4088 4088 4088 4599 5256 5256 5661 6133 6133 6133 6690 6133 6133 6133 6133 6133 6133 6133 6133 6133 6690 6690 6690 6133 6133 6133 5661 6133 5256 5256 5256 4906 5661 5661 5661 6133 6133 6690 6690 6690 6690 6133 6133 6690 6133 6133 5661 6133 6133 6133 6690 6690 6133 6133 6690 6690 6690 6690 6690 6690 0 8177 8177 9199 0 8177 7359 6133 4906 2374 0 1635 1635 1599 1635 1599 1533 1533 1501 1711 1268 1247 1247 1098 1226 1226 1206 1226 1226 1187 1168 1168 0 1066 0 1051 1066 1066 1098 1082 1066 1082 0 0 2164 0 0 0 0 0 0 1008 0 0 0 845 817 750 721 714 707 663 681 669 657 663 669 657 639 639 663 618 175 598 593 574 579 579 570 557 557 561 549 545 0 0 533 549 553 545 0 0 0 243 243 758 774 758 817 799 0 0 0 0 471 474 468 0 0 0 0 0 0 425 420 422 0 0 0 0 0 0 0 0 0 0 0 0 0 272 270 267 266 0 0 0 0 0
    0 0 0 0 0 0 0 0 0 0 0 0 0 0 0 0 0 0 0 0 0 0 0 0 0 0 0 0 0 0 0 0 0 0 0 0 0 0 0 0 0 0 0 0 0 0 0 0 0 0 0 0 0 0 0 0 0 0 0 0 0 0 0 0 0 0 0 0 0 1443 1565 1388 1471 1565 1415 1565 1533 1443 1501 1501 1533 1501 1471 1635 0 0 3066 2943 3873 3873 3873 3873 4329 3873 3873 4088 3679 3873 4088 3679 3873 3345 3504 3504 3504 3873 3873 4088 4088 4088 4329 3873 3679 3504 3504 3504 3345 3199 3345 3345 3504 3873 4088 4088 4088 4906 5256 5256 5661 6690 6133 6690 6690 6133 6690 6133 6133 6133 6133 6133 6133 5661 6133 6133 6133 6133 5661 5661 5661 6133 5661 4906 5256 4906 5661 5661 5661 6133 6133 6133 6690 6133 6690 5661 5661 6133 5661 5661 5661 5661 5661 6133 6690 6133 6133 6133 6133 6133 6133 6690 6133 6690 8177 7359 8177 8177 8177 7359 7359 6133 5661 2725 0 1635 1599 1565 1599 1565 1533 1501 1501 1672 1268 1247 1247 1132 1247 1247 1247 1247 1247 1226 1187 1187 0 1082 0 1066 1066 1082 1115 1082 1082 1098 0 0 2102 0 0 0 0 0 0 1008 968 0 0 845 817 758 728 721 714 669 687 675 657 669 669 663 645 639 663 618 175 598 588 574 574 579 570 557 557 566 549 549 0 0 529 545 553 541 0 0 0 0 244 750 774 750 808 791 0 0 0 0 471 474 465 0 0 0 0 0 418 425 422 422 0 427 0 0 0 0 0 0 0 0 0 0 0 273 269 267 265 0 0 0 0 0
    0 0 0 0 0 0 0 0 0 0 0 0 0 0 0 0 0 0 0 0 0 0 0 0 0 0 0 0 0 0 0 0 0 0 0 0 0 0 0 0 0 0 0 0 0 0 0 0 0 0 0 0 0 0 0 0 0 0 0 0 0 0 0 0 0 0 0 0 0 1471 1599 1415 1471 1565 1415 1599 1533 1443 1501 1533 1565 1501 1501 1635 0 0 0 0 3873 4329 4329 4329 5256 4329 4329 4088 3873 4088 4088 3679 3679 3345 3504 3504 3679 3873 4088 4088 4329 4088 4329 3873 3679 3345 3504 3345 3345 3199 3199 3199 3345 3679 4088 4088 4088 4906 4906 5256 5661 6133 6133 6133 6690 6133 6133 6133 5661 6133 5661 5661 5661 5256 6133 6133 5661 5661 5256 5256 5256 5256 5256 4329 4599 4599 5661 5661 5661 6133 6133 6133 6133 5661 6133 5661 5256 5661 5661 5256 5661 5661 5661 6133 6133 6133 5661 6133 5661 5661 6133 6690 6133 6690 7359 7359 7359 8177 8177 7359 7359 6133 5661 2830 0 1635 1565 1533 1533 1533 1471 1443 1443 1565 1268 1268 1268 1168 1268 1268 1268 0 1291 0 1226 1226 0 1115 0 1066 1066 1082 1132 1098 1098 1115 0 0 0 0 0 0 0 0 994 994 968 0 0 855 826 766 728 721 714 669 687 675 663 669 675 669 645 639 669 618 175 598 593 574 574 579 570 557 557 566 549 549 0 0 529 541 549 537 0 0 0 0 244 743 766 750 808 791 0 0 0 0 474 474 465 0 0 0 0 0 415 425 422 422 0 430 427 0 0 0 0 0 0 0 0 0 0 273 270 267 265 0 0 0 0 0
    0 0 0 0 0 0 0 0 0 0 0 0 0 0 0 0 0 0 0 0 0 0 0 0 0 0 0 0 0 0 0 0 0 0 0 0 0 0 0 0 0 0 0 0 0 0 0 0 0 0 0 0 0 0 0 0 0 0 0 0 0 0 0 0 0 0 0 0 0 1471 1599 1415 1471 1565 1415 1599 1533 1443 1533 1533 1565 1533 1533 1635 0 0 0 0 4088 4906 4906 5256 5661 5256 4906 4906 4599 4599 4599 3873 3873 3504 3679 3679 3873 4088 4329 4088 4088 4088 4088 3679 3679 3345 3345 3345 3199 3199 3199 3199 3345 3679 4088 4599 4329 5256 5256 5256 5661 6690 6133 6133 6133 6133 6133 6133 5661 5661 5256 5661 5661 4906 5661 5661 5661 5661 5256 5256 4906 5256 5256 4088 4329 4329 4906 5256 5256 5661 5661 5661 6133 5661 5661 5256 5256 5661 5256 5256 5256 5256 5661 6133 5661 6133 5661 5661 5661 5661 6133 6133 6133 6133 6690 7359 7359 7359 8177 7359 6690 6133 5661 3066 1635 1635 1565 1501 1471 1501 1471 1415 1415 1501 1291 1268 1268 1206 1291 1291 1314 0 1314 0 1247 0 0 0 0 1066 1066 1082 0 1132 1115 0 0 0 0 0 0 333 328 0 981 968 955 886 0 855 826 774 728 721 714 675 694 681 669 675 675 669 651 645 669 623 0 603 593 579 574 579 570 553 553 566 0 545 0 77 525 533 549 533 0 0 0 0 0 735 758 743 799 0 0 0 0 0 474 477 468 0 0 0 0 0 415 427 422 425 0 430 427 425 0 0 0 0 0 0 0 0 0 274 270 267 265 0 0 0 0 0
    0 0 0 0 0 0 0 0 0 0 0 0 0 0 0 0 0 0 0 0 0 0 0 0 0 0 0 0 0 0 0 0 0 0 0 0 0 0 0 0 0 0 0 0 0 0 0 0 0 0 0 0 0 0 0 0 0 0 0 0 0 0 0 0 0 0 0 0 0 1471 1599 1443 1443 1565 1443 1599 1533 1443 1533 1533 1565 1565 1565 0 0 236 0 0 4088 5661 5661 6133 6690 6690 6133 6133 5661 5661 4906 4088 3873 3504 3679 3504 3679 4088 4088 3873 3873 4088 3873 3679 3504 3345 3345 3345 3345 3199 3199 3199 3345 3873 4329 4599 4599 5256 5256 5661 6133 6690 6690 6690 6690 6133 6133 6133 5661 6133 5661 5661 5256 4906 5661 5661 5256 5661 5256 5256 4906 5256 4906 3873 4329 4088 4599 4599 4906 5256 5256 5256 5661 5256 5661 5256 5256 5661 5256 5256 5661 5661 5661 6133 5661 5661 5661 5661 5661 5661 6133 6133 5661 6133 6690 6690 6690 7359 7359 6690 6690 6133 6133 4599 0 1599 1533 1471 1443 1471 1443 1415 1415 1443 1291 1291 1291 1247 1291 1314 1314 1314 1314 0 1268 0 0 0 0 1066 1051 1082 1168 1149 1168 0 0 0 0 0 331 333 328 0 968 955 955 886 865 855 836 774 735 721 714 681 700 687 669 675 681 675 657 651 669 623 0 603 593 584 570 579 570 553 553 561 0 0 0 77 521 529 545 529 525 0 0 0 0 728 750 0 791 0 0 0 0 0 477 481 0 0 0 0 0 0 415 427 425 425 0 430 427 425 0 0 0 0 0 0 0 0 0 274 271 267 266 0 0 0 0 0
    0 0 0 0 0 0 0 0 0 0 0 0 0 0 0 0 0 0 0 0 0 0 0 0 0 0 0 0 0 0 0 0 0 0 0 0 0 0 0 0 0 0 0 0 0 0 0 0 0 0 0 0 0 0 0 0 0 0 0 0 0 0 0 0 0 0 0 0 0 1471 1599 1443 1443 1565 1443 1565 1533 1443 1533 1533 1565 1599 1565 0 237 237 0 0 4599 6133 6133 6690 7359 7359 6690 6690 6133 5661 5256 4088 3873 3504 3679 3504 3504 3679 3504 3504 3504 3679 3504 3504 3345 3199 3345 3345 3345 3345 3345 3199 3345 3873 4329 4906 4906 5661 5256 6133 6690 7359 6690 7359 7359 6690 6690 6690 6133 6133 6133 6133 5661 5256 5661 5661 5256 5256 4906 4906 4599 5256 4599 3873 4088 3873 4088 4329 4329 4906 4906 4906 5661 4906 5661 5256 5256 5256 5256 5256 5661 5256 5661 6133 5661 5661 5661 5661 5661 5256 5661 5661 5661 6133 6690 6690 6690 6690 7359 6690 6690 6133 7359 0 0 1599 1471 1415 1388 1443 1415 1388 1388 1415 1314 1291 1291 1268 1291 1291 1314 1314 1314 1291 1291 0 0 0 0 1082 1066 1098 1187 1187 1187 0 0 0 0 0 0 0 0 931 943 943 943 876 855 855 836 774 728 721 714 687 700 694 675 681 681 675 657 651 669 623 0 598 593 584 570 579 570 553 553 561 0 0 0 77 521 529 549 529 0 0 0 0 0 735 0 0 0 774 0 3199 0 0 474 477 0 0 0 0 0 0 418 430 0 0 0 430 430 427 0 0 0 0 0 0 0 0 0 0 272 267 266 0 0 0 0 0
    0 0 0 0 0 0 0 0 0 0 0 0 0 0 0 0 0 0 0 0 0 0 0 0 0 0 0 0 0 0 0 0 0 0 0 0 0 0 0 0 0 0 0 0 0 0 0 0 0 0 0 0 0 0 0 0 0 0 0 0 0 0 0 0 0 0 0 0 0 1471 1635 1443 1443 1565 1443 1565 1565 1443 1533 1533 1565 1599 1565 238 237 238 0 0 5661 6690 6690 7359 7359 7359 7359 6690 6133 5661 4906 4088 3873 3679 3679 3345 3345 3504 3504 3504 3504 3345 3345 3199 3199 3066 3199 3199 3199 3345 3345 3345 3504 3873 4599 4906 5256 5661 5661 6133 6690 7359 7359 7359 7359 7359 7359 7359 6133 6690 6133 6133 5661 5256 5661 5256 4906 5256 4599 4599 4599 4906 4088 3679 3679 3679 3504 3873 3873 4329 4329 4329 4906 4599 5256 5256 4906 5256 4906 5256 5661 5256 5661 6133 5661 5661 5661 5661 5661 5661 6133 6133 6133 6690 6690 6690 6690 7359 7359 6690 7359 6690 8177 0 0 0 1471 1388 1338 1415 1388 1362 1362 1362 1338 1291 1291 1291 1268 1291 1291 1314 1314 1291 1291 0 0 0 0 0 1082 1132 1226 0 1206 0 0 0 0 0 330 0 0 908 919 931 931 876 855 855 836 774 728 721 714 694 700 694 675 675 675 681 657 645 663 623 593 598 588 584 566 579 570 553 553 561 0 0 0 77 525 0 549 529 0 0 0 0 0 0 0 0 0 766 0 3345 0 0 0 0 465 0 0 0 0 0 0 432 0 0 0 430 430 427 0 0 0 0 0 0 0 0 0 0 272 267 0 0 0 0 0 0
    0 0 0 0 0 0 0 0 0 0 0 0 0 0 0 0 0 0 0 0 0 0 0 0 0 0 0 0 0 0 0 0 0 0 0 0 0 0 0 0 0 0 0 0 0 0 0 0 0 0 0 0 0 0 0 0 0 0 0 0 0 0 0 0 0 0 0 0 0 1471 1635 1471 1443 1599 1443 1565 1565 1471 1533 1565 1565 1599 1565 238 237 237 4088 0 6133 7359 7359 8177 7359 7359 7359 6690 6133 6133 5256 4599 4088 3873 3873 3504 3504 3504 3504 3504 3345 3199 3199 3066 3066 3066 3066 3066 3066 3199 3345 3345 3679 4088 4906 5256 6133 6133 6133 6690 7359 8177 8177 8177 8177 7359 7359 7359 6133 6690 6133 5661 5661 5256 5661 5256 4906 5256 4599 4599 4599 4599 4088 3504 3504 3504 3345 3504 3504 3873 3873 3873 4599 4329 4599 4906 4906 5256 4906 5256 5661 5256 5661 6133 5256 5256 5256 5661 5661 5661 6133 6133 6133 6690 6690 6690 7359 7359 7359 7359 6690 6690 7359 0 0 0 0 1415 1362 1415 1415 1388 1388 1362 1388 1314 1314 1314 1268 1291 1291 1291 1291 1291 1291 1268 0 0 0 0 1082 1132 1206 0 1187 0 0 0 0 0 0 0 886 897 897 908 908 865 845 845 836 782 721 714 714 694 694 694 675 675 675 681 663 651 663 629 598 598 588 584 566 579 574 553 557 566 549 0 0 77 0 77 549 529 0 0 0 0 0 0 0 0 0 0 3679 3504 3679 4088 0 0 468 0 0 0 0 0 0 0 0 0 0 430 430 425 422 0 418 0 0 0 0 0 0 0 0 0 0 0 0 0 0 0
    0 0 0 0 0 0 0 0 0 0 0 0 0 0 0 0 0 0 0 0 0 0 0 0 0 0 0 0 0 0 0 0 0 0 0 0 0 0 0 0 0 0 0 0 0 0 0 0 0 0 0 0 0 0 0 0 0 0 0 0 0 0 0 0 0 0 0 0 0 1471 1635 1471 1443 1599 1443 1565 1565 1471 1533 1565 1565 1635 1599 237 0 0 3873 4599 5661 7359 7359 8177 7359 7359 7359 7359 6690 6690 6133 5256 4599 4599 4088 3679 3679 3504 3504 3345 3345 3066 3066 2943 3066 3066 3066 3066 3066 3199 3504 3345 3873 4329 4906 5661 6133 6690 6133 7359 7359 8177 0 0 0 8177 8177 7359 6133 6690 6133 5661 5661 5256 5661 5256 4906 5256 4906 4906 4599 4329 4088 3504 3504 3504 3199 3345 3345 3504 3504 3504 4088 4088 4329 4599 4599 5256 4599 4906 5661 5256 5661 6133 5256 5256 5256 6133 6133 5661 6690 6690 6690 6690 7359 7359 7359 7359 8177 7359 6690 6690 7359 0 0 0 0 1443 1362 0 1443 1388 1388 1362 1388 1314 1314 1314 1247 1268 1268 1268 1268 1268 0 0 0 0 0 0 1066 1098 1168 0 1149 0 0 0 0 0 0 855 876 876 886 886 886 855 845 845 836 782 721 714 714 694 694 687 675 675 675 681 663 651 663 634 598 598 593 584 566 579 574 557 561 570 553 0 0 77 77 77 553 533 0 0 0 0 0 0 0 0 0 0 3679 3679 3679 4088 3873 0 477 0 0 0 0 0 0 0 0 0 0 427 427 425 422 0 418 0 0 0 0 0 0 0 0 0 0 0 0 0 0 0
    0 0 0 0 0 0 0 0 0 0 0 0 0 0 0 0 0 0 0 0 0 0 0 0 0 0 0 0 0 0 0 0 0 0 0 0 0 0 0 0 0 0 0 0 0 0 0 0 0 0 0 0 0 0 0 0 0 0 0 0 0 0 0 0 0 0 0 0 0 1501 1635 1471 1415 1599 1443 1565 1565 1471 1565 1565 1565 1635 1599 0 0 0 3873 4599 6133 7359 7359 7359 6690 7359 7359 7359 6690 7359 6690 6133 5256 5661 4906 4088 4329 4088 3873 3504 3345 3199 3066 2943 3066 3066 3199 3199 3199 3345 3679 3679 4088 4599 4906 5661 6133 6690 6690 7359 7359 8177 0 8177 8177 8177 8177 8177 6690 7359 6133 5661 5661 5256 6133 5256 4906 5256 4599 4599 4599 4329 3873 3345 3345 3345 3199 3345 3199 3504 3504 3504 3873 4088 4329 4599 4599 5256 4906 4906 5661 5661 6133 6133 5661 5256 5256 6133 6133 5661 6133 6133 6133 6690 6690 6690 7359 7359 8177 7359 6690 6133 6690 0 0 0 0 0 0 0 0 1415 1415 1362 1415 1338 1314 1314 1226 1247 1247 1226 1226 1247 0 0 1187 0 0 0 1051 0 0 0 1132 0 0 0 0 0 0 0 865 865 865 876 876 845 836 836 826 782 714 707 707 700 687 687 669 675 675 681 663 651 663 634 598 598 593 584 566 579 574 557 561 574 557 553 549 77 77 77 557 533 0 0 0 0 0 0 0 0 0 3873 3679 3679 3873 4088 0 0 484 481 0 0 0 0 0 0 0 0 0 425 427 422 420 0 418 0 0 0 0 0 0 0 0 0 0 0 0 0 0 0
    0 0 0 0 0 0 0 0 0 0 0 0 0 0 0 0 0 0 0 0 0 0 0 0 0 0 0 0 0 0 0 0 0 0 0 0 0 0 0 0 0 0 0 0 0 0 0 0 0 0 0 0 0 0 0 0 0 0 0 0 0 0 0 0 0 0 0 0 0 1471 1635 1471 1415 1565 1443 1533 1565 1471 1533 1565 1565 1635 1565 0 0 0 4599 5256 6690 7359 8177 7359 6690 7359 7359 7359 6690 7359 6690 6690 6133 7359 6133 5256 5256 5256 4599 4088 3504 3199 3199 3066 3066 3345 3345 3345 3345 3873 4599 4599 4906 5661 5661 6133 6690 6690 6690 7359 8177 0 0 8177 8177 8177 8177 8177 7359 7359 7359 6133 6133 6133 6690 5661 4906 5661 4599 4599 4329 4088 3679 3345 3345 3345 3199 3199 3199 3345 3345 3504 3679 3679 4088 4088 4329 4906 4599 4906 5256 5256 5661 5661 5661 4906 5256 6133 6133 6133 6690 6133 6133 6690 6690 6690 7359 7359 7359 7359 6690 6133 6690 0 0 0 0 0 0 0 0 1443 1443 1362 1415 1338 1291 1291 1187 1226 1206 1187 1206 1206 0 0 1149 1247 0 0 1066 0 0 0 1115 0 0 0 0 0 0 0 855 855 855 855 855 836 826 826 826 774 714 707 707 700 681 687 669 669 675 681 663 645 657 639 598 598 593 584 566 579 579 557 561 574 561 557 553 77 77 0 566 541 0 0 0 0 0 0 0 0 3504 3679 3679 3504 3679 4088 3679 0 0 484 0 0 0 0 0 0 0 0 430 420 425 422 420 0 418 0 0 0 0 0 0 0 393 391 391 0 0 0 0 0
    0 0 0 0 0 0 0 0 0 0 0 0 0 0 0 0 0 0 0 0 0 0 0 0 0 0 0 0 0 0 0 0 0 0 0 0 0 0 0 0 0 0 0 0 0 0 0 0 0 0 0 0 0 0 0 0 0 0 0 0 0 0 0 0 0 0 0 0 0 1471 1599 1443 1415 1565 1415 1501 1533 1471 1501 1565 1533 1599 1533 0 0 0 0 0 7359 7359 8177 7359 6133 6690 7359 7359 6133 6690 6690 6690 6690 8177 6690 6133 5661 6133 5256 4599 3504 3345 3199 3066 3066 3345 3504 3504 3504 4329 5256 5256 5661 6133 6133 6133 6690 7359 7359 7359 8177 0 0 8177 0 0 8177 0 8177 8177 8177 6690 6690 6690 6690 6133 5256 5661 4906 4599 4088 4088 3504 3345 3345 3345 3066 3199 3199 3345 3199 3345 3504 3504 3873 3873 4329 4599 4329 4599 4906 5256 5661 5661 5661 4906 5256 5661 6133 6133 6690 6133 6133 6690 6690 6690 7359 7359 7359 7359 6690 6133 6133 0 0 0 0 0 0 0 0 1471 1443 1388 1415 1362 1291 1291 1168 1206 1187 1168 1168 1187 1115 1115 1115 1206 1051 0 1066 1066 1036 1051 1051 1036 0 0 0 0 0 0 845 836 826 826 826 817 808 808 817 774 714 714 707 700 675 687 669 669 669 681 663 645 651 645 603 598 593 584 570 574 579 557 566 570 561 557 553 566 0 0 566 541 0 0 0 0 0 0 0 0 3345 3504 3504 3504 3504 3873 3679 0 0 484 0 0 0 0 0 0 0 0 430 418 422 420 418 0 418 0 0 0 0 0 0 0 393 391 391 0 0 0 0 0
    0 0 0 0 0 0 0 0 0 0 0 0 0 0 0 0 0 0 0 0 0 0 0 0 0 0 0 0 0 0 0 0 0 0 0 0 0 0 0 0 0 0 0 0 0 0 0 0 0 0 0 0 0 0 0 0 0 0 0 0 0 0 0 0 0 0 0 0 0 1471 1599 1443 1388 1533 1415 1501 1533 1471 1501 1565 1533 1565 1471 0 0 0 0 0 0 0 0 7359 6133 6133 7359 7359 5661 6690 6133 6133 6690 8177 6690 6133 5661 6133 4906 4906 3504 3345 3199 3066 3066 3345 3504 3679 3679 4599 5661 4906 5661 5661 6133 6133 6690 7359 7359 7359 8177 8177 0 0 0 0 0 0 8177 0 8177 7359 7359 7359 7359 6690 5661 5661 4906 4599 3873 4088 3504 3345 3345 3345 3066 3066 3066 3345 3066 3199 3345 3504 3679 3679 4088 4329 4329 4599 4906 5256 5661 5661 5661 4906 5256 5661 6133 6133 6690 6133 6133 6690 6690 6690 7359 7359 7359 7359 6690 6133 5661 0 0 0 0 0 0 0 0 1533 1471 1388 1415 1362 1314 1291 1168 1206 1168 1149 1149 1168 1115 1115 1098 1187 1066 1115 1082 1066 1022 1036 1008 1008 994 943 908 845 817 826 826 817 808 808 799 791 782 799 799 774 721 721 707 707 669 681 663 663 663 675 657 645 651 651 608 598 593 588 570 579 579 557 566 570 561 553 553 561 553 553 566 541 0 0 0 0 0 0 3345 3345 3345 3504 3345 3345 3504 3873 3679 0 0 0 0 0 0 0 0 0 0 0 0 415 422 418 418 0 0 0 0 0 0 0 0 0 393 391 391 0 0 0 0 0
    0 0 0 0 0 0 0 0 0 0 0 0 0 0 0 0 0 0 0 0 0 0 0 0 0 0 0 0 0 0 0 0 0 0 0 0 0 0 0 0 0 0 0 0 0 0 0 0 0 0 0 0 0 0 0 0 0 0 0 0 0 0 0 0 0 0 0 0 0 1471 1565 1443 1388 1533 1415 1471 1533 1471 1471 1565 1533 1565 1471 0 0 0 0 0 0 0 0 6690 5256 5661 7359 7359 5256 6133 5661 6133 6690 8177 6690 6690 5661 6133 4329 4329 3199 3199 3066 3066 2943 3199 3504 3679 3679 4599 5661 4906 6133 5661 6133 6690 6690 7359 7359 7359 8177 8177 0 8177 0 0 0 0 0 0 0 7359 7359 7359 7359 6690 5661 6133 5256 4599 3873 3873 3504 3199 3199 3199 2943 3066 3066 3199 3066 3066 3199 3345 3504 3679 4088 4088 4329 4329 4906 5256 5661 5256 5256 4906 5256 5661 5661 6133 6690 6133 6133 6690 6690 6690 7359 8177 8177 7359 6133 6133 5661 0 0 0 0 0 0 0 1672 1599 1533 1388 1415 1388 1314 1291 1187 1206 1168 1132 1149 1149 1098 1115 1115 1168 1066 1098 1082 1051 1022 1008 994 981 955 919 908 845 826 817 799 808 791 791 791 774 766 782 782 758 714 714 700 700 669 681 663 657 663 669 651 639 645 657 613 603 598 588 574 579 579 561 566 570 561 553 553 557 553 549 561 541 0 0 0 0 0 0 3199 3199 3199 3504 3345 3345 3345 3679 3679 0 0 0 0 0 0 0 0 0 0 0 0 413 420 418 415 0 0 0 0 0 0 0 0 0 393 391 389 0 0 0 0 0
    0 0 0 0 0 0 0 0 0 0 0 0 0 0 0 0 0 0 0 0 0 0 0 0 0 0 0 0 0 0 0 0 0 0 0 0 0 0 0 0 0 0 0 0 0 0 0 0 0 0 0 0 0 0 0 0 0 0 0 0 0 0 0 0 0 0 0 0 0 1471 1565 1415 1388 1533 1415 1471 1501 1471 1471 1565 1533 1533 1443 0 0 0 0 0 0 955 0 0 0 0 0 6690 4906 6133 5661 6690 7359 8177 6690 6690 5661 5661 3873 3504 2943 2943 2943 2943 2943 0 0 3679 3679 4599 5661 4906 6133 5661 6690 7359 7359 7359 7359 7359 8177 8177 0 8177 8177 0 0 0 0 0 8177 7359 7359 7359 7359 6690 6133 6133 5256 5256 4088 4088 3504 3345 3199 3199 3066 3066 3066 3199 3066 3066 3199 3345 3504 3504 4088 4329 4329 4329 4906 4906 5256 5256 5256 4906 4906 5661 5661 5661 6690 6690 6133 6690 6690 7359 8177 8177 8177 8177 6133 5661 4599 0 0 0 0 1795 1795 1752 1711 1635 1565 1388 1415 1388 1314 1291 1206 1206 1168 1132 1149 1149 1098 1115 1115 1149 1066 1082 1082 1036 1008 994 981 955 943 908 908 845 826 808 782 799 782 782 774 758 750 766 766 743 707 707 700 694 663 675 657 657 663 669 651 639 645 663 613 603 598 593 579 579 579 561 561 566 561 553 549 553 553 549 561 541 541 0 0 0 0 0 3199 3345 3345 0 3345 3345 3345 3679 3679 0 0 481 477 0 0 0 0 0 0 0 0 411 420 415 413 0 0 0 0 0 0 0 0 0 393 391 387 0 0 0 0 0
    0 0 0 0 0 0 0 0 0 0 0 0 0 0 0 0 0 0 0 0 0 0 0 0 0 0 0 0 0 0 0 0 0 0 0 0 0 0 0 0 0 0 0 0 0 0 0 0 0 0 0 0 0 0 0 0 0 0 0 0 0 0 0 0 0 0 0 0 0 1443 1565 1415 1388 1501 1388 1471 1501 1471 1471 1565 1533 1533 1415 1501 1415 0 0 0 1008 955 955 955 955 968 968 0 3873 5256 5256 6690 7359 8177 6133 5661 4906 4906 3345 3066 2628 2725 0 0 2830 0 0 3679 4088 5256 5661 4906 6133 5661 6690 7359 6690 7359 7359 7359 8177 8177 0 8177 8177 0 0 0 0 0 8177 7359 8177 7359 7359 7359 6133 6690 5256 5661 4329 4329 3873 3679 3504 3504 3345 3345 3199 3345 3199 3199 3345 3345 3504 3504 3873 4329 4329 4329 4906 4906 5256 5256 5256 5256 5256 5661 6133 6133 6690 6133 6133 6690 6690 6690 8177 8177 8177 8177 6133 5256 4329 4906 3345 0 2374 1936 1887 1795 1795 1711 1635 1415 1388 1388 1314 1291 1226 1226 1168 1132 1149 1149 1098 1098 1115 1132 1066 1082 1082 1036 994 994 968 943 919 897 908 845 817 808 766 782 766 774 766 750 743 758 750 735 707 700 694 694 663 675 657 657 663 669 651 639 645 669 618 603 598 593 584 579 579 561 561 561 561 549 549 553 549 549 557 545 541 541 545 545 541 533 0 0 0 0 0 0 0 3873 0 477 477 484 477 474 471 471 0 0 0 0 0 408 415 413 411 0 0 0 0 0 0 0 0 0 391 389 385 0 0 0 0 0
    0 0 0 0 0 0 0 0 0 0 0 0 0 0 0 0 0 0 0 0 0 0 0 0 0 0 0 0 0 0 0 0 0 0 0 0 0 0 0 0 0 0 0 0 0 0 0 0 0 0 0 0 0 0 0 0 0 0 0 0 0 0 0 0 0 0 0 0 0 1443 1533 1415 1388 1501 1388 1443 1501 1443 1443 1533 1533 1501 1415 1443 1362 1291 0 1051 994 955 943 955 955 955 968 981 0 0 3873 5661 6690 6690 4599 4599 3873 0 0 2725 2453 2453 2628 2830 2830 0 0 4329 4906 5661 6133 5256 6133 5661 6690 6690 6690 7359 6690 7359 8177 8177 0 8177 8177 8177 8177 0 8177 8177 8177 8177 8177 8177 7359 8177 6690 7359 5256 5661 4329 4906 4088 3873 3679 3679 3504 3504 3345 3345 3199 3199 3345 3345 3679 3679 4088 4329 4329 4599 4906 4906 5256 5256 5256 5661 5256 5661 6133 6133 6690 6133 6133 6690 6133 6690 7359 8177 8177 7359 6133 4906 4329 4329 3504 3066 2830 2628 2374 2044 1887 1752 1635 1388 1362 1362 1314 1268 1226 1226 1149 1132 1149 1149 1098 1098 1115 1115 1082 1098 1082 1036 994 994 981 943 919 897 908 845 817 808 766 782 758 774 766 743 735 750 743 728 700 700 694 687 657 675 657 657 663 669 657 645 651 669 623 603 598 593 584 579 574 561 557 557 561 549 545 549 549 549 553 541 537 537 537 541 533 529 0 0 493 493 0 0 0 0 477 477 474 481 474 468 465 0 0 0 0 0 0 408 415 413 411 0 0 0 0 0 0 397 0 389 389 387 381 0 0 0 0 0
    0 0 0 0 0 0 0 0 0 0 0 0 0 0 0 0 0 0 0 0 0 0 0 0 0 0 0 0 0 0 0 0 0 0 0 0 0 0 0 0 0 0 0 0 0 0 0 0 0 0 0 0 0 0 0 0 0 0 0 0 0 0 0 0 0 0 0 0 0 1415 1501 1388 1362 1443 1362 1388 1443 1415 1415 1501 1471 1443 1362 1388 1314 1187 1051 1008 955 943 943 943 943 955 968 981 994 1036 0 0 5256 4906 3504 3873 0 0 0 2230 2164 2230 2453 2725 2725 0 4088 4329 5256 6133 5661 5256 6133 5661 6690 6690 6690 7359 7359 7359 8177 8177 0 7359 7359 8177 7359 8177 8177 8177 8177 8177 8177 8177 8177 8177 7359 8177 6133 6133 4599 5256 4329 4088 3873 3873 3504 3504 3345 3345 3199 3345 3345 3345 3679 3679 4088 4329 4599 4599 5256 4906 5661 5256 5661 5661 5661 5661 6133 6133 6690 6133 6133 6690 6133 6133 7359 7359 6690 6690 5661 4599 3873 3679 3504 3066 2830 2830 2628 2299 1989 1795 1672 1388 1362 1388 1314 1268 1247 1226 1149 1115 1149 1149 1115 1098 1115 1115 1082 1115 1115 1036 1008 1008 981 943 919 897 908 855 826 808 782 782 758 774 758 743 735 743 735 721 694 700 687 687 657 675 657 657 663 675 657 645 645 675 623 598 598 593 588 574 570 557 557 553 557 545 541 541 545 545 545 537 533 533 529 529 525 518 507 500 490 487 484 481 477 477 471 471 468 474 468 457 451 446 0 0 0 0 422 411 418 413 413 0 406 0 0 399 397 393 391 385 385 381 377 0 0 0 0 0
    0 0 0 0 0 0 0 0 0 0 0 0 0 0 0 0 0 0 0 0 0 0 0 0 0 0 0 0 0 0 0 0 0 0 0 0 0 0 0 0 0 0 0 0 0 0 0 0 0 0 0 0 0 0 0 0 0 0 0 0 0 0 0 0 0 0 0 0 0 1415 1443 1362 1314 1362 1291 1338 1362 1362 1338 1415 1415 1388 1291 1291 1187 1036 994 981 943 943 943 943 955 955 981 994 994 1132 1268 1226 0 0 0 0 0 2164 2044 1989 1989 2102 2164 2537 2453 2628 0 3504 4599 5661 5661 4906 6133 5661 6690 6690 6690 7359 7359 7359 8177 8177 8177 7359 7359 8177 7359 8177 7359 7359 7359 7359 8177 7359 7359 8177 8177 8177 6133 6690 4599 5256 4329 4088 3873 3679 3679 3504 3345 3345 3199 3199 3345 3345 3679 3679 4088 4599 4599 4906 5256 4906 5661 5661 5661 5661 5661 5661 6133 6133 7359 6690 6133 6690 6133 6133 6690 7359 6690 6133 5256 4088 3504 3345 3345 3066 2725 2725 2230 1887 1839 1752 1599 1362 1338 1388 1338 1268 1247 1226 1132 1115 1132 1132 1098 1098 1115 1098 1082 1115 1115 1051 1008 1008 994 955 919 908 919 855 826 817 782 782 758 774 766 743 735 743 735 721 694 694 687 687 657 669 657 657 663 675 651 645 645 675 623 598 598 593 588 574 566 557 553 553 553 541 537 541 541 541 537 533 533 533 525 521 511 504 493 490 484 481 481 477 474 471 468 471 465 468 462 451 0 440 435 430 430 0 422 415 418 415 411 408 404 399 397 397 395 389 383 381 379 375 373 0 0 0 0 0
    0 0 0 0 0 0 0 0 0 0 0 0 0 0 0 0 0 0 0 0 0 0 0 0 0 0 0 0 0 0 0 0 0 0 0 0 0 0 0 0 0 0 0 0 0 0 0 0 0 0 0 0 0 0 0 0 0 0 0 0 0 0 0 0 0 0 0 0 0 1388 1362 1314 1268 1291 1226 1247 1268 1291 1268 1338 1338 1291 1187 1066 1022 1008 981 968 931 943 943 943 943 955 968 994 994 1149 1291 1268 1291 1362 1314 1268 0 1887 1887 1887 1936 2044 2044 2374 2453 2537 3066 3199 3679 4599 4906 4599 5661 5256 6133 6690 6690 6690 7359 7359 8177 7359 8177 7359 7359 7359 6690 7359 6690 6690 7359 7359 7359 6690 6690 8177 7359 8177 6690 6690 5256 5661 4906 4329 3873 3873 3679 3504 3345 3345 3199 3345 3504 3345 3873 3873 4329 4906 4906 5256 5661 4906 5661 5661 5256 5661 5256 5661 6133 5661 7359 6690 5661 7359 6133 6690 7359 7359 7359 6133 4329 3679 3345 3345 3345 3066 2830 2725 1989 1795 1795 1711 1635 1388 1388 1443 1362 1291 1291 1247 1149 1132 1132 1132 1098 1098 1115 1082 1066 1115 1098 1051 1008 1008 994 955 931 908 908 845 817 817 782 782 758 782 766 743 735 743 728 721 694 694 687 687 657 669 663 657 663 669 651 639 639 669 623 598 603 593 588 579 570 561 553 553 553 541 537 537 537 537 533 529 525 525 518 511 500 493 487 484 481 477 474 474 474 471 468 471 468 468 459 448 0 438 432 430 430 425 422 415 418 415 411 408 402 397 395 393 393 385 375 377 373 371 369 0 0 0 0 0
    0 0 0 0 0 0 0 0 0 0 0 0 0 0 0 0 0 0 0 0 0 0 0 0 0 0 0 0 0 0 0 0 0 0 0 0 0 0 0 0 0 0 0 0 0 0 0 0 0 0 0 0 0 0 0 0 0 0 0 0 0 0 0 0 0 0 0 0 0 1314 1291 1247 1168 1206 1149 1149 1168 1206 1206 1247 1226 1168 1066 1036 1022 1008 994 955 919 943 943 943 943 955 968 994 1008 1247 1338 1314 1314 1362 1388 1362 1599 1711 1752 1795 1839 1936 1936 2230 2299 2453 3066 3199 3679 4329 4906 4906 5256 5256 6133 6690 6690 6690 7359 7359 7359 7359 8177 7359 7359 7359 6133 6690 6133 6133 6690 6690 6690 6133 6133 7359 7359 8177 6690 6690 5661 6133 5256 4599 4088 3873 3679 3679 3345 3345 3345 3345 3504 3504 3873 4088 4599 5256 5256 5256 5661 5256 5661 5661 5256 6133 5661 5661 6133 5661 7359 6690 5661 7359 6133 6690 7359 7359 6690 5256 3679 3345 3199 3199 3066 2830 2453 2374 1989 1795 1795 1795 1672 1415 1415 1471 1388 1291 1291 1268 1168 1149 1149 1149 1115 1098 1132 1082 1066 1098 1082 1036 1022 1022 994 968 943 919 919 845 817 817 791 782 766 782 766 735 728 735 728 714 687 694 687 687 663 675 663 657 663 675 651 639 639 663 623 603 603 593 588 579 570 561 553 553 553 541 537 537 533 537 529 525 521 518 511 500 497 490 484 481 477 474 474 474 474 471 468 471 468 468 459 446 440 435 432 430 430 425 422 415 420 415 411 408 399 395 393 391 389 379 369 371 369 367 367 0 0 0 0 0
    0 0 0 0 0 0 0 0 0 0 0 0 0 0 0 0 0 0 0 0 0 0 0 0 0 0 0 0 0 0 0 0 0 0 0 0 0 0 0 0 0 0 0 0 0 0 0 0 0 0 0 0 0 0 0 0 0 0 0 0 0 0 0 0 0 0 0 0 0 1132 1051 1082 1082 1168 1115 1132 1149 1168 1187 1226 1168 1115 1051 1036 1008 1008 1008 931 919 943 955 943 943 955 981 994 1066 1291 1338 1338 1338 1415 1443 1415 1565 1635 1672 1752 1795 1839 1887 2102 2230 2374 0 3199 3504 4088 4599 4906 5661 5256 6690 6133 6690 6690 6690 7359 7359 7359 7359 6690 7359 7359 6133 6690 6133 6133 6133 6690 6690 6133 5661 6690 7359 7359 6133 6690 6133 6133 5256 4599 4088 3873 3679 3679 3345 3345 3345 3504 3679 3679 4329 4599 4906 5661 5256 5256 5661 5256 5661 5661 5661 6133 5661 6133 6133 5661 7359 6690 5661 7359 5256 6690 8177 8177 7359 5256 3679 3199 3066 3066 2943 2374 1887 1936 1839 1752 1752 1752 1711 1415 1415 1471 1362 1268 1268 1247 1149 1149 1168 1149 1115 1098 1149 1082 1082 1098 1082 1022 1022 1022 994 968 931 908 931 845 826 0 799 791 782 791 758 728 721 721 714 707 675 687 687 687 663 675 663 657 663 675 651 639 639 663 618 603 603 593 584 579 570 566 557 553 557 545 541 537 537 537 529 521 521 514 504 497 497 490 484 481 481 474 474 474 474 474 471 474 471 471 459 446 438 432 430 430 430 425 425 418 420 420 413 411 402 397 393 393 389 377 367 371 367 366 366 0 0 0 0 0
    0 0 0 0 0 0 0 0 0 0 0 0 0 0 0 0 0 0 0 0 0 0 0 0 0 0 0 0 0 0 0 0 0 0 0 0 0 0 0 0 0 0 0 0 0 0 0 0 0 0 0 0 0 0 0 0 0 0 0 0 0 0 0 0 0 0 0 0 0 1022 1022 1051 1082 1149 1115 1132 1149 1149 1187 1206 1132 1098 1066 1051 1022 1036 1022 931 931 955 943 931 931 943 968 981 1098 1247 1314 1338 1338 1362 1362 1362 1443 1533 1565 1672 1711 1795 1839 2044 2102 2230 0 3066 3199 3873 4329 4906 5256 5256 6133 6133 6133 6690 6690 7359 7359 7359 7359 6690 6690 6690 5661 6133 5661 5256 5661 6133 6133 6133 5661 6690 7359 7359 6133 6690 6133 6133 5256 4906 4329 3679 3679 3679 3345 3345 3345 3504 3679 3679 4906 4906 5661 5661 5256 5661 6133 5661 6133 6133 6133 6690 6133 6690 6690 6690 8177 7359 6133 8177 5661 8177 0 0 7359 4599 3504 3199 2830 0 2628 1989 1752 1795 1752 1711 1711 1672 1672 1415 1388 1443 1362 1247 1268 1247 1132 1149 1149 1132 1098 1098 1132 1082 1066 1098 1066 1022 1036 1036 1036 981 919 919 943 855 0 0 817 817 808 808 774 735 721 721 714 707 669 687 687 687 657 675 669 657 663 675 651 639 639 663 618 603 603 593 584 579 570 566 557 553 561 545 541 541 537 537 529 521 521 511 504 493 497 490 484 481 481 477 474 474 477 471 471 477 471 471 459 446 440 435 432 432 432 425 425 418 420 418 411 408 404 397 395 395 391 379 367 371 367 367 366 0 0 0 0 0
    0 0 0 0 0 0 0 0 0 0 0 0 0 0 0 0 0 0 0 0 0 0 0 0 0 0 0 0 0 0 0 0 0 0 0 0 0 0 0 0 0 0 0 0 0 0 0 0 0 0 0 0 0 0 0 0 0 0 0 0 0 0 0 0 0 0 0 0 0 1022 1022 1066 1098 1149 1115 1132 1149 1149 1168 1168 1098 1082 1051 1036 1008 1022 1022 919 931 955 931 919 919 919 943 955 1008 1098 1314 1314 1314 1338 1338 1314 1388 1471 1471 1565 1635 1711 1795 1936 1989 2102 0 3066 3345 3679 4088 5256 5661 5256 6133 5661 6133 6690 6690 7359 7359 6690 7359 6690 6690 6133 5256 5661 5256 5256 5661 6133 6133 5661 5661 6133 6690 6690 6133 6133 6133 6133 5256 4906 4088 3679 3679 3504 3345 3345 3345 3345 3504 3504 4906 4599 5661 5661 5661 5661 5661 5661 6133 6690 6690 7359 7359 7359 8177 7359 0 8177 6133 7359 5256 6690 8177 0 6133 3873 3345 3199 2299 0 1989 1887 1711 1752 1752 1672 1672 1672 1672 1415 1388 1443 1362 1247 1247 1247 1149 1168 1132 1132 1115 1098 1132 1082 1066 1115 1066 1051 1066 1082 1132 994 919 0 0 0 0 836 0 0 826 826 808 735 735 743 728 714 669 694 694 694 663 675 669 657 669 675 657 639 639 669 618 608 608 593 584 584 574 570 561 557 561 549 545 545 541 537 533 521 521 514 504 493 497 490 484 481 481 477 477 474 474 471 468 474 468 468 454 443 438 435 430 432 432 425 422 415 418 415 411 408 402 395 393 393 391 379 367 371 367 367 366 0 0 0 0 0
    0 0 0 0 0 0 0 0 0 0 0 0 0 0 0 0 0 0 0 0 0 0 0 0 0 0 0 0 0 0 0 0 0 0 0 0 0 0 0 0 0 0 0 0 0 0 0 0 0 0 0 0 0 0 0 0 0 0 0 0 0 0 0 0 0 0 0 0 0 1008 1022 1082 1098 1149 1098 1132 1132 1132 1149 1132 1082 1066 1051 1036 1008 1022 1008 919 943 955 919 919 919 897 919 931 981 1008 1082 1247 1226 1291 1291 1268 1314 1388 1388 1443 1533 1672 1795 1887 1989 2044 2628 3066 3199 3504 3873 5256 5661 5661 6133 5256 6133 6690 6690 6690 6690 6690 6690 6133 6690 6133 5256 5256 4906 4906 5256 5661 5661 5661 5256 6133 6690 6133 6690 6133 6133 5661 4906 4329 3873 3345 3504 3199 3199 3199 3199 3199 3345 3199 4329 4088 5256 5256 5256 5661 5661 5661 6133 6133 6690 6690 6690 7359 6690 6133 6690 7359 6133 5661 4329 4906 6690 6690 6133 3504 3199 3066 1887 0 1795 1795 1672 1711 1711 1672 1672 1635 1711 1471 1388 1443 1338 1247 1268 1247 1168 1168 1149 1149 1115 1098 1132 1082 1066 1098 1066 1066 1066 1098 1187 0 931 0 0 0 0 836 826 0 826 836 836 743 750 766 743 714 675 700 700 700 663 675 669 663 669 675 657 645 639 669 623 613 618 598 584 588 579 574 570 561 566 553 549 549 541 537 533 518 521 514 504 490 497 490 484 484 481 477 477 477 477 471 465 474 465 468 448 440 435 432 430 432 430 422 420 415 418 418 411 408 402 397 395 395 393 379 367 371 367 367 367 0 0 0 0 0
    0 0 0 0 0 0 0 0 0 0 0 0 0 0 0 0 0 0 0 0 0 0 0 0 0 0 0 0 0 0 0 0 0 0 0 0 0 0 0 0 0 0 0 0 0 0 0 0 0 0 0 0 0 0 0 0 0 0 0 0 0 0 0 0 0 0 0 0 0 981 1022 1051 1066 1098 1082 1098 1098 1098 1098 1082 1066 1051 1036 1022 1008 1008 1008 908 955 943 919 919 919 897 919 931 981 981 1036 1132 1098 1168 1226 1247 1247 1338 1338 1362 1471 1672 1795 1936 1989 2044 2537 2943 3066 3345 3873 4906 5256 5661 6133 5256 6133 6133 6690 6690 6690 6690 6133 6133 6690 6133 5256 5256 5256 4906 5256 5661 5661 5256 5256 6133 6133 5661 6133 5661 5256 5256 4599 4088 3679 3199 3345 3199 3199 3066 3199 3066 3199 3066 4088 3679 5256 5256 5661 5661 5661 5661 5661 6133 6133 6133 6133 5661 4906 4906 5256 5256 5256 3873 3679 4088 4906 5661 4906 3345 3199 3066 1795 1226 1565 1672 1533 1635 1635 1599 1599 1599 1711 1565 1388 1415 1338 1247 1268 1247 1187 1168 1149 1149 1132 1115 1149 1082 1066 1082 1066 1066 1051 1066 1051 994 931 908 876 876 836 845 845 826 826 826 836 750 766 766 750 721 687 707 700 700 669 681 675 663 675 681 663 645 645 675 629 623 629 603 588 593 588 579 579 570 570 561 553 557 541 537 533 521 518 514 504 490 500 493 487 484 481 477 481 481 481 474 468 477 471 477 454 440 435 435 432 435 432 425 422 415 418 418 411 408 404 399 397 397 395 379 367 371 367 367 367 0 0 0 0 0
    0 0 0 0 0 0 0 0 0 0 0 0 0 0 0 0 0 0 0 0 0 0 0 0 0 0 0 0 0 0 0 0 0 0 0 0 0 0 0 0 0 0 0 0 0 0 0 0 0 0 0 0 0 0 0 0 0 0 0 0 0 0 0 0 0 0 0 0 0 968 994 1022 1051 1066 1051 1066 1066 1066 1066 1066 1066 1051 1036 1022 1008 1008 1008 897 955 943 908 908 908 886 908 931 981 968 1008 1066 1051 1066 1168 1187 1206 1291 1291 1314 1415 1672 1839 1936 1989 2044 2537 2943 3199 3345 3679 4599 5256 5256 6133 4906 5661 6133 6133 6133 6133 5661 5661 5661 6133 5661 4906 5256 4906 4599 4906 4906 5256 4906 4599 5256 5661 5256 5661 5256 4906 4599 4088 3873 3679 3199 3345 3199 3199 3199 3199 3199 3345 3199 4088 3679 5256 4906 5661 5256 5256 5256 5256 5256 5661 5661 5661 4599 4088 4599 4906 4599 5256 3873 4088 4599 5256 5661 5256 3504 3345 3199 1989 0 1471 1635 1471 1599 1635 1599 1599 1565 1672 1565 1415 1388 1314 1247 1247 1226 1187 1168 1132 1132 1132 1115 1149 1082 1066 1066 1066 1066 1036 1051 1036 981 931 908 865 876 845 836 845 826 826 826 826 758 774 766 758 728 700 707 707 707 675 681 681 669 675 681 663 651 651 675 639 629 645 613 598 608 603 593 593 593 593 588 588 608 570 545 541 525 521 511 504 0 500 497 487 484 0 481 0 484 481 474 471 481 481 484 468 451 0 0 0 0 0 0 0 413 418 0 0 411 406 399 399 399 397 383 367 371 367 369 369 0 0 0 0 0
    0 0 0 0 0 0 0 0 0 0 0 0 0 0 0 0 0 0 0 0 0 0 0 0 0 0 0 0 0 0 0 0 0 0 0 0 0 0 0 0 0 0 0 0 0 0 0 0 0 0 0 0 0 0 0 0 0 0 0 0 0 0 0 0 0 0 0 0 0 994 1008 1022 1036 1036 1036 1051 1051 1036 1036 1036 1036 1036 1022 1022 1008 1008 981 886 943 919 886 897 897 886 897 919 968 943 981 1051 1036 1036 1098 1115 1132 1247 1247 1247 1338 1533 1752 1887 1936 2044 2537 2943 3345 3345 3679 4599 4906 5256 6133 4906 5661 6133 5661 5661 5661 5661 5256 5256 5661 4906 4329 4906 4599 4329 4599 4329 4599 4329 4088 4906 5256 5256 5661 4906 4599 4599 4088 4088 3679 3199 3345 3199 3199 3199 3199 3199 3345 3199 4329 3679 4906 4599 5256 4906 4906 4906 4906 4906 5661 5256 5661 5256 4906 5256 5661 5256 6690 4906 5256 5661 6133 6133 5661 4088 3679 3504 3066 0 1711 1752 1599 1711 1752 1711 1672 1635 1672 1635 1415 1388 1314 1247 1247 1247 1206 1187 1132 1132 1132 1115 1149 1082 1066 1066 1051 1066 1051 1066 1051 994 943 919 865 855 826 817 826 817 808 808 808 743 758 743 743 721 700 707 707 707 681 681 681 669 675 681 663 651 651 675 657 639 663 623 608 629 618 613 608 608 603 603 598 0 588 557 545 0 0 0 0 0 511 504 490 490 0 0 0 490 487 481 0 0 481 484 474 0 0 0 459 459 0 0 0 0 0 0 0 411 406 404 402 402 399 387 369 373 369 371 369 0 0 0 0 0
    0 0 0 0 0 0 0 0 0 0 0 0 0 0 0 0 0 0 0 0 0 0 0 0 0 0 0 0 0 0 0 0 0 0 0 0 0 0 0 0 0 0 0 0 0 0 0 0 0 0 0 0 0 0 0 0 0 0 0 0 0 0 0 0 0 0 0 0 0 981 1008 1008 1022 1022 1008 1022 1022 1008 1008 1008 1022 1022 1022 1022 1008 1008 968 886 943 919 886 897 897 886 897 919 943 931 968 1022 1008 1008 1051 1082 1098 1226 1226 1226 1291 1415 1672 1839 1887 1936 2230 2830 3345 3345 3679 4329 4599 5256 5661 4329 4906 5256 4906 4906 5256 4599 4599 4599 4906 4329 3873 4329 4088 4088 4088 4088 4088 4088 3873 4329 4599 4599 4906 4329 4329 4329 3873 3873 3504 3199 3345 3199 3199 3199 3199 3199 3345 3345 4329 3504 4599 4329 5256 4599 4906 4599 4599 4599 4906 4329 4329 3679 3504 3504 4329 4329 4906 4088 5256 5661 5256 5661 5661 3504 3679 3345 2830 1887 1795 1795 1752 1752 1839 1752 1711 1672 1672 1635 1362 1291 1291 1226 1247 1226 1206 1187 1132 1132 1132 1115 1132 1098 1082 1066 1066 1082 1051 1066 1036 994 931 908 855 836 826 817 817 808 799 799 791 735 750 728 735 721 694 700 700 700 681 681 675 669 675 681 663 657 657 675 663 645 669 629 618 639 618 618 613 608 608 603 598 0 579 0 0 0 0 0 0 0 0 514 500 500 0 487 493 493 487 484 0 481 474 477 471 465 462 0 465 465 0 0 0 0 0 0 0 411 408 406 404 404 399 389 373 377 371 371 371 0 0 0 0 0
    0 0 0 0 0 0 0 0 0 0 0 0 0 0 0 0 0 0 0 0 0 0 0 0 0 0 0 0 0 0 0 0 0 0 0 0 0 0 0 0 0 0 0 0 0 0 0 0 0 0 0 0 0 0 0 0 0 0 0 0 0 0 0 0 0 0 0 0 0 968 994 1008 1008 1008 994 994 994 994 994 994 1008 1008 1008 1008 994 981 931 876 931 897 876 897 897 876 897 919 943 931 968 1008 994 1008 1036 1066 1098 1206 1206 1226 1291 1388 1672 1795 1887 1887 2044 2725 3345 3345 3504 4088 4599 4906 5256 4329 4599 4599 4599 4599 4599 4088 4088 4088 4088 3873 3679 3873 3679 3679 3679 3679 3679 3679 3504 4088 3873 4088 4329 3873 4088 4088 3679 3679 3504 3066 3345 3199 3199 3199 3199 3199 3345 3345 4599 3679 4599 4599 5256 4906 5256 4599 4088 3873 3873 3504 3199 3066 3066 3066 3345 3504 3679 3679 4599 5661 4906 4599 4906 4329 3504 3199 2725 1887 1795 1795 1795 1752 1839 1795 1711 1711 1711 1711 1338 1247 1247 1226 1226 1226 1206 1187 1132 1132 1149 1132 1149 1098 1098 1066 1066 1098 1066 1082 1036 981 919 897 855 836 826 817 826 808 808 799 782 735 758 728 735 721 694 700 700 700 681 675 675 669 675 681 663 657 651 669 663 639 651 623 618 639 613 618 618 613 613 608 603 0 0 0 0 0 0 0 0 0 525 525 511 514 0 0 0 487 471 0 0 0 0 474 0 0 0 0 0 0 0 0 0 413 0 0 0 411 415 413 408 406 402 393 377 381 375 375 373 0 0 0 0 0
    0 0 0 0 0 0 0 0 0 0 0 0 0 0 0 0 0 0 0 0 0 0 0 0 0 0 0 0 0 0 0 0 0 0 0 0 0 0 0 0 0 0 0 0 0 0 0 0 0 0 0 0 0 0 0 0 0 0 0 0 0 0 0 0 0 0 0 0 0 968 994 994 994 981 955 955 968 968 968 968 981 994 981 981 981 968 897 865 908 886 865 886 897 876 897 919 943 943 968 1008 994 1008 1036 1066 1115 1226 1206 1247 1291 1388 1672 1752 1887 1887 1989 2453 3199 3345 3345 3679 4088 4329 4599 4088 4088 4088 4088 4599 4088 3873 3873 3873 3679 3679 3504 3679 3504 3504 3504 3345 3504 3504 3504 3679 3504 3679 3679 3345 3504 3679 3504 3345 3199 3066 3199 3199 3199 3199 3199 3199 3199 3345 4329 3504 4599 4599 5661 5256 5256 4088 4088 3679 3679 3345 3066 2943 2943 3066 3199 3199 3066 3345 3873 5256 4329 3873 3873 3679 3504 3199 2830 1989 1839 1839 1795 1711 1795 1752 1672 1672 1635 1672 1291 1206 1247 1226 1226 1226 1226 1206 1168 1168 1168 1149 1149 1115 1098 1082 1082 1098 1066 1066 1022 968 908 886 855 836 826 817 836 817 817 808 799 743 766 728 743 721 687 694 694 694 675 675 675 669 675 681 663 657 651 669 657 634 639 623 618 639 618 623 623 618 613 613 0 968 0 0 0 931 886 0 0 0 0 521 0 507 493 477 0 0 468 462 0 0 0 0 0 0 0 0 0 0 0 0 422 413 0 0 411 406 411 413 408 404 402 393 379 385 377 377 375 0 0 0 0 0
    0 0 0 0 0 0 0 0 0 0 0 0 0 0 0 0 0 0 0 0 0 0 0 0 0 0 0 0 0 0 0 0 0 0 0 0 0 0 0 0 0 0 0 0 0 0 0 0 0 0 0 0 0 0 0 0 0 0 0 0 0 0 0 0 0 0 0 0 0 994 994 981 968 943 919 919 931 931 943 955 968 968 955 955 955 931 876 865 886 865 855 897 897 886 908 931 955 955 981 1008 1008 1008 1051 1066 1132 1226 1206 1247 1291 1388 1711 1752 1887 1936 2044 2299 2943 3345 3345 3504 3873 4329 4088 4088 4088 3873 3873 4329 4088 3873 3679 3679 3504 3679 3504 3679 3345 3345 3345 3199 3345 3345 3345 3504 3199 3345 3345 2943 3066 3199 3199 3066 3066 2943 3199 3066 3345 3199 3199 3199 3345 3345 4088 3345 4329 3873 5256 4599 4599 3504 3679 3504 3345 3199 2943 2943 2943 2943 3066 3066 2943 3199 3504 4906 4088 3679 3679 3504 3504 3345 3066 2102 1839 1887 1839 1752 1752 1752 1672 1672 1599 1711 1291 1226 1247 1226 1247 1247 1247 1226 1187 1187 1206 1168 1168 1132 1115 1082 1066 1082 1051 1022 994 955 897 886 855 836 826 826 836 817 817 817 808 758 774 743 750 721 687 694 694 694 681 675 681 675 675 681 669 663 657 669 663 634 639 629 623 639 618 623 618 613 608 603 598 981 0 0 943 931 886 0 0 0 0 0 0 511 493 0 0 0 0 0 0 0 0 0 0 465 0 0 0 0 0 0 0 0 0 0 0 406 406 408 406 402 399 391 383 387 381 381 379 0 0 0 0 0
    0 0 0 0 0 0 0 0 0 0 0 0 0 0 0 0 0 0 0 0 0 0 0 0 0 0 0 0 0 0 0 0 0 0 0 0 0 0 0 0 0 0 0 0 0 0 0 0 0 0 0 0 0 0 0 0 0 0 0 0 0 0 0 0 0 0 0 0 0 1008 994 955 931 897 897 897 908 908 919 931 968 968 943 931 943 931 876 865 886 865 855 897 897 897 908 943 955 968 981 1008 1022 1036 1066 1082 1168 1226 1187 1206 1247 1362 1752 1795 1887 1989 2164 2164 2725 3199 3199 3345 3504 4088 3873 3873 3873 3679 3679 3873 3873 3679 3504 3504 3345 3504 3504 3504 3345 3199 3199 3199 3199 3345 3345 3504 3066 3199 3066 2628 2830 2943 2943 2943 2943 2943 3199 3199 3345 3345 3345 3345 3345 3345 3873 3199 4088 3679 4906 4329 4088 3199 3345 3345 3199 3199 2830 2943 2943 2943 3066 3066 2943 3066 3345 4599 3873 3504 3504 3504 3504 3345 3066 2164 1839 1839 1795 1711 1711 1711 1672 1672 1599 1752 1338 1247 1268 1247 1268 1247 1247 1247 1206 1206 1206 1168 1187 1132 1132 1082 1066 1082 1036 1008 981 943 897 897 865 845 845 836 845 826 826 826 817 774 782 750 758 721 694 694 694 694 681 675 681 675 675 675 669 663 657 663 663 634 639 634 629 634 613 618 618 608 608 598 598 981 0 0 0 0 0 0 0 0 0 0 0 497 484 477 0 0 0 0 0 471 0 0 0 0 0 0 0 0 0 0 0 0 0 0 0 0 0 0 0 1036 1008 0 389 391 387 387 385 0 0 0 0 0
    0 0 0 0 0 0 0 0 0 0 0 0 0 0 0 0 0 0 0 0 0 0 0 0 0 0 0 0 0 0 0 0 0 0 0 0 0 0 0 0 0 0 0 0 0 0 0 0 0 0 0 0 0 0 0 0 0 0 0 0 0 0 0 0 0 0 0 0 0 968 943 886 865 865 886 886 897 897 897 908 955 955 908 897 919 897 855 855 876 855 855 897 897 897 919 943 955 968 981 1008 1022 1036 1051 1066 1149 1226 1206 1226 1291 1415 1752 1795 1887 1936 2102 2102 2453 3066 3066 3066 3345 3679 3679 3873 3679 3345 3504 3679 3679 3504 3345 3345 3199 3504 3345 3504 3345 3199 3199 3199 3199 3345 3199 3345 2943 2943 2943 2453 2725 2830 2830 2943 2943 3066 3199 3199 3504 3504 3345 3504 3345 3504 4088 3199 4329 3679 4906 4599 3873 3066 3199 3199 3066 3066 2725 2830 2830 2943 2943 2943 2943 3066 3199 4906 3873 3345 3504 3504 3504 3345 3066 2164 1795 1839 1795 1711 1711 1672 1635 1635 1599 1795 1362 1247 1291 1268 1268 1268 1247 1247 1226 1206 1226 1187 1187 1149 1132 1098 1066 1082 1051 1008 981 955 897 886 855 836 836 836 845 826 826 836 826 791 791 766 774 728 700 694 694 694 687 669 675 675 669 669 669 657 651 657 663 634 634 634 634 629 613 613 613 608 603 598 593 0 574 0 0 0 0 0 0 0 0 0 0 0 471 471 474 0 0 0 0 0 0 0 0 0 0 0 0 0 0 0 0 0 0 0 1314 0 0 0 0 0 0 0 0 0 0 393 393 0 0 0 0 0
    0 0 0 0 0 0 0 0 0 0 0 0 0 0 0 0 0 0 0 0 0 0 0 0 0 0 0 0 0 0 0 0 0 0 0 0 0 0 0 0 0 0 0 0 0 0 0 0 0 0 0 0 0 0 0 0 0 0 0 0 0 0 0 0 0 0 0 0 0 0 0 865 855 855 865 876 876 876 886 886 908 908 865 845 855 855 836 836 855 855 845 886 886 897 908 943 955 968 981 1008 1008 1036 1051 1066 1149 1206 1206 1247 1314 1415 1711 1752 1839 0 2044 2044 2299 2943 2830 2943 3199 3504 3504 3679 3504 3345 3345 3504 3504 3345 3199 3199 3199 3345 3345 3504 3199 3199 3199 3199 3199 3345 3199 3345 2830 2830 2830 2374 2725 2628 2628 2725 2830 2943 3199 3066 3679 3504 3504 3504 3504 3504 4088 3345 4088 3504 3873 3873 3873 3066 3345 3199 3066 3066 2725 2830 2830 2830 2943 2830 2830 2943 3199 4906 3873 3345 3504 3504 3345 3345 3066 2230 1795 1887 1839 1752 1711 1672 1635 1635 1599 1752 1362 1268 1314 1291 1291 1291 1268 1268 1226 1206 1226 1187 1168 1149 1132 1098 1066 1098 1066 994 981 943 886 865 855 826 826 826 836 826 826 0 0 791 791 774 782 728 700 687 694 694 687 669 675 669 669 663 663 651 645 651 663 634 634 634 634 629 613 618 613 608 603 598 593 0 579 0 0 0 0 0 493 0 0 0 0 490 0 474 0 0 0 0 0 0 0 0 0 0 0 0 0 0 0 0 0 0 0 0 0 1226 1187 0 0 1098 1051 0 0 0 0 0 0 0 0 0 0 0
    0 0 0 0 0 0 0 0 0 0 0 0 0 0 0 0 0 0 0 0 0 0 0 0 0 0 0 0 0 0 0 0 0 0 0 0 0 0 0 0 0 0 0 0 0 0 0 0 0 0 0 0 0 0 0 0 0 0 0 0 0 0 0 0 0 0 0 0 0 0 0 0 0 826 855 865 845 855 865 855 855 855 836 799 817 826 817 826 845 845 845 876 886 897 908 931 955 968 968 1008 1008 1036 1051 1082 1168 1206 1226 1268 1314 0 1711 1752 1795 0 1989 1989 2164 2830 2628 2830 2943 3504 3504 3504 3504 3345 3345 3504 3504 3345 3066 3199 3199 3345 3345 3345 3199 3199 3199 3199 3199 3345 3199 3199 2830 2830 2830 2299 2628 2537 2453 2453 2628 2830 3066 2943 3504 3504 3345 3504 3504 3345 3679 3199 3679 3066 3199 3345 3345 2943 3199 3199 2830 2943 2537 2725 2830 2830 2830 2830 2830 2943 3066 4906 3679 3345 3345 3345 3066 3066 2830 2164 1795 1936 1887 1795 1752 1711 1711 1711 1635 1795 1388 1291 1338 1314 1338 1314 1291 1291 1247 1226 1226 1168 1168 1132 1132 1098 1066 1098 1066 1008 994 955 886 865 855 836 826 826 826 826 826 845 0 799 774 0 774 728 700 687 694 687 681 663 669 669 663 657 663 651 645 651 663 634 634 634 645 629 618 623 618 608 603 598 593 0 579 0 0 0 0 0 0 0 0 0 0 0 0 0 0 0 0 0 0 468 462 0 0 0 0 0 2374 0 0 0 0 0 0 389 0 0 0 0 0 0 1082 0 0 0 0 0 0 0 0 0 0 0
    0 0 0 0 0 0 0 0 0 0 0 0 0 0 0 0 0 0 0 0 0 0 0 0 0 0 0 0 0 0 0 0 0 0 0 0 0 0 0 0 0 0 0 0 0 0 0 0 0 0 0 0 0 0 0 0 0 0 0 0 0 0 0 0 0 0 0 0 0 0 0 0 0 0 0 855 836 826 836 826 826 826 817 774 799 817 808 826 845 855 855 876 886 908 908 919 943 981 981 994 1008 1036 1066 1098 1187 1206 1247 1268 1314 0 1635 1672 1752 1795 1936 1989 2164 2830 2537 2725 2830 3345 3504 3504 3504 3199 3504 3679 3679 3345 0 3066 3066 3199 3199 3345 3199 3066 3199 3199 3345 3345 3199 3345 2830 2830 2830 2374 2537 2453 2374 2374 2453 2628 2725 2725 3504 3345 3199 3345 3504 3345 3679 3199 3679 2830 2943 3345 3345 2830 3066 3066 2725 2830 2537 2725 2725 2725 2830 2830 2725 2943 2943 4599 3504 3199 3199 3066 2830 2725 2453 1989 1752 1887 1839 1752 1752 1711 1711 1711 1672 1795 1415 1291 1338 1338 1338 1314 1291 1291 1247 1226 1247 1187 1149 1132 1132 1098 1066 1098 1066 994 981 943 897 865 865 845 836 845 836 836 826 845 836 826 782 782 782 735 707 687 694 687 681 663 675 669 663 657 663 651 645 651 663 634 634 639 651 634 618 629 623 613 603 598 593 588 579 545 553 553 549 545 533 0 0 0 0 0 0 0 0 0 0 471 465 471 465 0 0 0 0 0 2299 0 0 0 0 0 0 0 0 0 180 0 177 0 0 0 0 0 0 0 0 0 0 0 0 0
    0 0 0 0 0 0 0 0 0 0 0 0 0 0 0 0 0 0 0 0 0 0 0 0 0 0 0 0 0 0 0 0 0 0 0 0 0 0 0 0 0 0 0 0 0 0 0 0 0 0 0 0 0 0 0 0 0 0 0 0 0 0 0 0 0 0 0 0 0 0 0 735 707 687 0 0 735 728 735 728 728 721 791 750 791 808 808 817 836 845 855 865 886 908 908 908 955 981 981 994 1022 1051 1082 1098 1187 1206 1247 1291 1338 1388 1635 1672 1711 1752 1936 1936 2164 2725 2453 2537 2725 3504 3504 3679 3873 3199 3679 4329 3873 3504 0 2943 2943 3066 3066 3066 3066 2943 3066 3066 3199 3199 3199 3345 2830 2830 2830 2374 2537 2453 2453 2374 2537 2725 2628 2537 3504 3199 2725 3066 3504 3345 3504 3345 4088 2943 0 4088 3679 2725 3066 3066 2725 2943 2537 2725 2725 2725 2725 2725 2628 2943 2943 4088 3504 3066 3066 3066 2725 2628 2164 1887 1711 1839 1839 1795 1752 1752 1711 1711 1711 1795 1415 1291 1338 1338 1338 1314 1291 1291 1268 1226 1247 1187 1168 1132 1132 1115 1066 1098 1066 994 981 955 908 876 876 855 845 855 845 836 826 845 836 817 774 774 774 735 714 687 694 687 681 663 675 669 663 657 669 651 651 651 663 634 639 639 657 629 618 629 623 618 608 603 598 598 588 574 561 557 557 549 0 0 0 0 0 0 0 0 0 0 0 474 474 474 474 468 0 0 0 0 0 0 0 0 0 193 0 0 0 0 181 0 0 0 0 0 0 402 402 0 0 0 0 0 0 0
    0 0 0 0 0 0 0 0 0 0 0 0 0 0 0 0 0 0 0 0 0 0 0 0 0 0 0 0 0 0 0 0 0 0 0 0 0 0 0 0 0 0 0 0 0 0 0 0 0 0 0 0 0 0 0 0 0 0 0 0 0 0 0 0 0 0 0 0 0 714 707 694 687 669 681 687 700 694 694 681 700 694 774 750 782 808 817 817 836 845 855 865 886 908 897 908 943 968 981 994 1008 1036 1066 1098 1168 1187 1247 1291 1338 1388 1635 1672 1711 1752 1936 1936 2102 2628 2230 2230 2453 3679 3679 3873 4088 3345 3873 5256 3873 0 0 2628 2453 2725 2628 2725 2725 2628 2725 2830 2943 3066 3066 3345 2725 2725 2830 2230 2453 2374 2374 2374 2453 2628 2453 2299 3199 3066 2044 0 0 0 2628 2725 0 1887 1533 0 0 2164 0 3199 0 0 2725 2830 2830 2830 2830 2628 2628 2830 2830 4088 3345 2830 2830 2830 0 2628 2102 1839 1711 1795 1839 1752 1752 1711 1711 1672 1711 1752 1443 1314 1338 1338 1338 1314 1291 1291 1268 1247 1247 1187 1168 1149 1149 1115 1082 1098 1082 1008 994 968 919 886 886 865 855 865 845 845 826 845 826 817 766 766 758 735 714 687 687 687 681 663 675 663 663 651 669 651 651 651 669 639 639 645 663 634 623 634 629 629 618 608 608 603 603 598 584 574 557 549 537 0 0 0 0 0 0 0 0 0 0 477 477 477 477 471 462 0 0 0 0 0 0 0 0 0 0 0 0 0 0 0 0 0 413 0 0 404 402 0 0 0 0 0 0 0
    0 0 0 0 0 0 0 0 0 0 0 0 0 0 0 0 0 0 0 0 0 0 0 0 0 0 0 0 0 0 0 0 0 0 0 0 0 0 0 0 0 0 0 0 0 0 0 0 0 0 0 0 0 0 0 0 0 0 0 0 0 0 0 0 0 0 0 0 0 0 687 681 681 669 675 669 651 675 681 681 707 707 758 758 791 808 817 826 826 836 855 855 865 886 886 886 931 968 981 994 994 1036 1051 1082 1132 1132 1206 1247 1314 1362 1599 1635 1635 1672 1887 1887 1989 2453 2044 1989 2044 7359 4088 4088 3504 0 0 4906 4088 3504 0 1752 1752 1839 1752 1839 1839 1839 1936 1989 2374 2537 2830 3199 2537 2628 2628 2299 2374 2374 2374 2374 2453 2628 2537 2374 2943 3066 2374 1936 0 1752 0 0 0 0 1149 0 0 0 0 0 0 0 2830 2943 3066 3066 3066 2830 2830 2943 3345 5256 3504 2830 2943 2943 0 2374 2044 1795 1711 1795 1795 1711 1711 1711 1672 1672 1711 1711 1471 1362 1362 1362 1362 1338 1314 1314 1268 1247 1247 1187 1149 1149 1132 1115 1082 1098 1082 1008 0 968 0 0 0 865 855 855 845 836 826 836 826 808 758 758 750 735 721 681 687 687 681 657 669 663 657 651 669 651 651 651 669 639 645 651 669 629 623 634 623 618 613 608 608 603 603 603 593 593 579 553 541 537 574 0 0 0 0 0 500 0 0 477 477 477 481 474 465 0 0 0 1711 0 2299 0 0 0 0 0 0 0 0 0 425 420 413 406 0 0 0 0 0 0 0 0 0 0
    0 0 0 0 0 0 0 0 0 0 0 0 0 0 0 0 0 0 0 0 0 0 0 0 0 0 0 0 0 0 0 0 0 0 0 0 0 0 0 0 0 0 0 0 0 0 0 0 0 0 0 0 0 0 0 0 0 0 0 0 0 0 0 0 0 0 0 0 0 681 681 675 675 669 675 675 657 681 694 707 721 721 774 766 791 808 808 817 826 836 845 845 855 865 865 876 908 968 968 981 981 1022 1036 1066 1098 1098 1226 1291 1338 1388 1565 1565 1599 1635 1839 1795 1936 2164 1936 1839 1839 0 1711 1443 1362 1415 0 0 0 0 1672 1471 1501 1501 1362 1599 1672 1635 1672 1672 1752 1936 0 3679 0 0 2830 2628 2374 2164 0 0 0 0 0 0 0 0 0 0 0 0 0 0 0 0 0 0 0 0 0 0 0 0 0 0 0 0 0 0 0 0 0 0 0 0 0 0 0 0 1936 1711 1672 1752 1752 1711 1711 1752 1672 1635 1711 1711 1443 1338 1362 1362 1362 1338 1314 1314 1268 1247 1268 1206 1149 1132 1132 1132 1082 1115 1082 0 0 0 0 0 0 0 865 876 845 845 826 836 826 817 766 766 758 750 721 675 687 681 675 645 663 657 651 645 669 651 645 645 675 645 645 651 669 629 623 639 623 623 613 608 608 603 603 603 588 584 579 553 541 541 545 0 525 0 0 0 493 493 500 477 477 477 484 477 0 0 0 0 1672 0 2230 0 0 0 0 399 402 397 402 406 418 420 413 406 0 0 0 0 0 0 0 0 0 0
    0 0 0 0 0 0 0 0 0 0 0 0 0 0 0 0 0 0 0 0 0 0 0 0 0 0 0 0 0 0 0 0 0 0 0 0 0 0 0 0 0 0 0 0 0 0 0 0 0 0 0 0 0 0 0 0 0 0 0 0 0 0 0 0 0 0 0 0 0 687 675 669 669 657 675 675 657 687 707 714 728 728 766 758 782 799 799 817 817 836 845 845 855 865 865 876 919 968 968 968 981 1022 1022 1051 1066 1066 1314 1314 1362 1388 1533 1533 1533 1565 1795 1752 1936 2102 1936 1839 1839 0 1672 1415 1362 1362 1388 1415 1501 1443 1443 1388 1415 1443 1362 1565 1599 1599 1599 1599 1672 1887 0 4088 0 3679 3199 0 0 0 0 0 0 0 0 0 0 0 0 0 0 0 0 0 0 0 0 0 0 0 0 0 0 0 0 0 0 0 0 0 0 0 0 0 0 0 0 0 0 0 1887 1635 1672 1752 1752 1711 1711 1711 1672 1599 1711 1672 1443 1338 1362 1338 1362 1338 1314 1291 1268 1247 1268 1206 1149 1115 1115 1115 1082 1082 1066 0 0 0 0 0 0 0 0 886 865 855 836 845 826 817 782 774 766 758 728 669 681 681 675 639 663 657 651 645 669 651 645 645 675 645 645 651 663 629 623 639 623 623 613 608 608 608 613 603 588 588 584 553 541 541 545 537 525 518 511 504 497 500 507 481 477 481 487 481 477 0 0 0 0 0 2164 0 0 0 0 408 413 408 408 411 420 420 413 406 0 0 0 0 0 0 0 0 0 0
    0 0 0 0 0 0 0 0 0 0 0 0 0 0 0 0 0 0 0 0 0 0 0 0 0 0 0 0 0 0 0 0 0 0 0 0 0 0 0 0 0 0 0 0 0 0 0 0 0 0 0 0 0 0 0 0 0 0 0 0 0 0 0 0 0 0 0 0 0 694 687 687 681 663 681 681 675 700 707 721 728 728 766 750 774 799 799 808 817 826 836 836 855 865 865 876 919 955 955 955 968 1008 1022 1066 1082 1066 1314 1314 1338 1362 1443 1471 1471 1501 1752 1711 1839 1989 1936 1839 1839 0 1711 1471 1415 1388 1415 1471 1599 1533 1471 1388 1388 1415 1362 1501 1565 1565 1565 1565 1672 1887 0 4088 0 3679 3199 0 0 0 0 0 0 0 0 0 0 0 0 0 0 0 0 0 0 0 0 0 0 0 0 0 0 0 0 0 0 0 0 0 0 0 0 0 0 0 0 0 0 0 1887 1635 1672 1752 1711 1672 1672 1711 1635 1565 1672 1635 1443 1338 1362 1338 1362 1338 1314 1291 1268 1247 1268 1206 1149 1098 1098 1098 1051 1051 0 0 0 0 0 0 0 919 897 908 886 865 845 845 817 817 774 758 758 750 721 663 681 675 669 639 663 657 651 645 669 651 645 651 675 645 651 651 657 629 618 629 613 613 613 608 608 608 608 608 593 588 579 557 549 545 549 545 533 533 529 525 518 525 529 497 487 490 500 484 0 0 0 0 0 0 0 0 0 0 0 422 425 418 418 420 420 420 413 406 402 404 404 0 0 0 0 0 0 0
    0 0 0 0 0 0 0 0 0 0 0 0 0 0 0 0 0 0 0 0 0 0 0 0 0 0 0 0 0 0 0 0 0 0 0 0 0 0 0 0 0 0 0 0 0 0 0 0 0 0 0 0 0 0 0 0 0 0 0 0 0 0 0 0 0 0 0 0 0 707 707 694 681 669 681 681 675 700 714 721 735 728 758 750 774 791 791 808 808 826 836 836 855 855 865 865 919 955 955 955 968 1008 1036 1082 1098 1066 1247 1291 1314 1338 1388 1388 1388 1415 1711 1635 1752 1839 1936 1752 1752 1795 1672 1471 1415 1415 1415 1443 1533 1501 1443 1362 1362 1415 1362 1471 1533 1533 1533 1533 1672 1887 0 3873 0 3504 3199 0 0 0 0 0 0 0 0 0 0 0 0 0 0 0 0 0 0 0 0 0 0 0 0 0 0 0 0 0 0 0 0 0 0 0 0 0 0 0 0 0 0 0 1887 1635 1672 1711 1672 1635 1635 1672 1599 1533 1635 1471 1388 1291 1314 1314 1338 1338 1291 1291 1291 1268 1291 1226 1149 1082 1082 1082 1051 1051 1036 994 0 0 0 943 931 919 919 919 897 876 855 845 817 817 774 0 750 743 721 657 675 675 663 634 663 657 651 645 669 657 651 651 675 651 657 651 657 634 618 623 613 613 613 608 608 608 608 608 593 579 570 561 553 549 557 553 545 549 545 541 529 533 533 504 493 518 518 497 507 0 0 0 545 0 0 0 0 0 0 425 425 418 413 418 415 415 411 404 399 402 402 402 0 0 0 0 0 0
    0 0 0 0 0 0 0 0 0 0 0 0 0 0 0 0 0 0 0 0 0 0 0 0 0 0 0 0 0 0 0 0 0 0 0 0 0 0 0 0 0 0 0 0 0 0 0 0 0 0 0 0 0 0 0 0 0 0 0 0 0 0 0 0 0 0 0 0 0 707 707 694 687 669 681 681 675 700 714 721 728 728 750 750 774 791 791 808 808 826 836 836 845 855 865 865 919 955 955 955 955 994 1008 1051 1051 1036 1132 1268 1268 1291 1338 1338 1338 1362 1635 1501 1599 1711 1839 1711 1635 1635 1635 1471 1415 1388 1388 1415 1471 1388 1362 1338 1338 1388 1362 1443 1471 1471 1501 1565 1635 1795 0 3873 3873 3504 0 0 0 0 0 0 0 0 0 0 0 0 0 0 0 0 0 0 0 0 0 0 0 0 0 0 0 0 0 0 0 0 0 0 0 0 0 0 0 0 0 0 0 0 1887 1635 1672 1672 1635 1565 1599 1599 1501 1443 1501 1338 1291 1247 1247 1268 1268 1268 1247 1247 1268 1268 1268 1247 1168 1082 1066 1066 1036 1022 1022 994 968 968 0 955 943 931 931 931 919 886 865 855 826 817 782 0 750 743 721 651 675 669 663 634 663 657 651 645 669 657 651 651 675 651 651 645 651 634 613 618 613 613 613 608 613 608 608 608 593 570 557 549 541 545 553 549 545 545 545 541 533 533 525 511 511 525 521 518 525 541 541 553 553 553 553 0 0 0 0 430 425 420 413 415 411 411 408 404 399 399 399 402 395 0 0 0 0 0
    0 0 0 0 0 0 0 0 0 0 0 0 0 0 0 0 0 0 0 0 0 0 0 0 0 0 0 0 0 0 0 0 0 0 0 0 0 0 0 0 0 0 0 0 0 0 0 0 0 0 0 0 0 0 0 0 0 0 0 0 0 0 0 0 0 0 0 0 0 707 707 694 681 669 681 681 675 687 707 721 735 728 750 750 774 791 782 799 799 817 826 836 845 855 865 865 919 955 955 955 955 994 1008 1051 1022 1022 1051 1206 1226 1268 1291 1291 1314 1362 1635 1533 1565 1711 1795 1635 1533 1533 1599 1501 1471 1415 1443 1443 1415 1338 1314 1291 1314 1338 1314 1362 1388 1388 1415 1501 1501 1635 0 0 0 0 0 0 0 0 0 0 0 0 0 0 0 0 0 0 0 0 0 0 0 0 0 0 0 0 0 0 0 0 0 0 0 0 0 0 0 0 0 0 0 0 0 0 0 0 1936 1711 1672 1672 1635 1501 1533 1501 1415 1362 1362 1268 1247 1226 1226 1226 1247 1247 1226 1247 1247 1291 1291 1268 1206 1082 1066 1066 1036 1008 1022 981 968 968 968 955 943 943 943 931 919 897 876 865 836 817 791 0 750 743 721 639 675 669 663 634 663 657 657 651 669 651 651 645 675 645 645 639 645 629 613 613 613 608 613 608 613 608 608 608 603 593 570 557 545 549 557 553 553 549 545 541 529 533 525 514 514 525 525 521 533 545 541 553 553 553 553 553 0 0 440 435 430 425 418 420 415 415 413 406 399 399 402 406 0 0 0 0 0 0
    0 0 0 0 0 0 0 0 0 0 0 0 0 0 0 0 0 0 0 0 0 0 0 0 0 0 0 0 0 0 0 0 0 0 0 0 0 0 0 0 0 0 0 0 0 0 0 0 0 0 0 0 0 0 0 0 0 0 0 0 0 0 0 0 0 0 0 0 0 700 700 687 675 663 675 681 675 694 714 728 735 735 750 758 774 791 791 808 808 826 836 836 845 855 865 865 919 955 955 943 943 994 1022 1051 1051 1036 1051 1149 1168 1187 1206 1206 1247 1268 1314 1314 1362 1415 1533 1443 1443 1443 1533 1471 1415 1415 1443 1415 1388 1291 1268 1247 1268 1291 1268 1291 1291 1314 1362 1415 1415 0 0 0 0 0 0 0 0 0 0 0 0 0 0 0 0 0 0 0 0 0 0 0 0 0 0 0 0 0 0 0 0 0 0 0 0 0 0 0 0 0 0 0 0 0 0 0 0 0 0 1795 1672 1672 1533 1415 1415 1362 1338 1314 1268 1247 1187 1206 1206 1226 1247 1247 1226 1247 1247 1314 1291 1268 1206 1082 1051 1051 1022 994 1008 981 955 955 955 943 943 931 931 919 908 897 876 865 836 817 799 0 758 743 721 634 669 669 663 634 663 657 657 651 669 651 645 645 675 645 645 639 639 629 613 613 608 603 608 603 608 603 603 608 598 603 557 549 537 541 545 545 541 541 541 533 525 529 525 518 514 529 529 525 533 545 537 545 0 0 533 500 0 471 438 435 432 432 425 427 425 425 422 0 0 0 402 408 0 0 0 0 0 0
    0 0 0 0 0 0 0 0 0 0 0 0 0 0 0 0 0 0 0 0 0 0 0 0 0 0 0 0 0 0 0 0 0 0 0 0 0 0 0 0 0 0 0 0 0 0 0 0 0 0 0 0 0 0 0 0 0 0 0 0 0 0 0 0 0 0 0 0 0 707 707 694 681 675 687 687 687 707 728 743 743 735 750 758 774 782 791 799 808 0 0 0 2 845 865 865 908 943 931 931 931 981 1008 1051 1051 1036 1051 1115 1132 1149 1168 1168 1206 1247 1268 1291 1314 1338 1388 1362 1388 1362 1443 1443 1415 1388 1362 1338 1314 1247 1226 1206 1206 1247 1247 1247 1268 1291 1314 1362 1388 0 0 0 0 0 0 0 0 0 0 0 0 0 0 0 0 0 0 0 0 0 0 0 0 0 0 0 0 0 0 0 0 0 0 0 0 0 0 0 0 0 0 0 0 0 0 0 0 0 0 0 0 1635 1471 1362 1338 1291 1268 1268 1226 1206 1168 1187 1187 1226 1226 1226 1226 1226 1226 1291 1268 1268 1187 1066 1051 1036 1022 994 1008 981 955 955 955 943 943 931 919 908 897 886 865 855 826 817 799 774 758 750 721 639 675 675 669 634 669 663 663 657 675 657 651 651 675 645 645 639 639 623 608 608 598 598 598 593 598 593 598 598 588 0 545 537 529 529 537 541 533 537 537 529 525 533 525 518 518 533 533 525 529 537 514 493 0 474 481 477 471 471 448 438 435 440 0 432 427 430 427 0 0 0 411 422 0 0 0 0 0 0
    0 0 0 0 0 0 0 0 0 0 0 0 0 0 0 0 0 0 0 0 0 0 0 0 0 0 0 0 0 0 0 0 0 0 0 0 0 0 0 0 0 0 0 0 0 0 0 0 0 0 0 0 0 0 0 0 0 0 0 0 0 0 0 0 0 0 0 0 0 714 714 707 694 687 700 707 707 714 735 743 743 728 750 750 766 774 782 782 808 817 826 836 836 855 865 876 897 931 931 919 919 981 1008 1036 1036 1036 1066 1098 1115 1132 1168 1168 1226 1247 1268 1291 1291 1314 1362 1314 1338 1338 1362 1388 1388 1362 1338 1268 1226 1168 1149 1149 1168 1206 1226 1247 1268 1291 1338 1388 0 0 0 0 0 0 0 0 0 0 0 0 0 0 0 0 0 0 0 0 0 0 0 0 0 0 0 0 0 0 0 0 0 0 0 0 0 0 0 0 0 0 0 0 0 0 0 0 0 0 0 0 0 0 1501 1314 1168 1187 1149 1206 1132 1115 1098 1115 1115 1168 1187 1187 1168 1206 1206 1268 1268 1247 1187 1066 1036 1051 1022 994 1008 981 955 955 955 943 943 931 919 908 897 886 865 855 826 817 791 782 766 758 728 651 681 681 675 639 669 669 669 663 675 663 657 651 681 651 645 639 634 623 608 603 593 593 588 588 593 588 584 579 561 561 533 525 525 518 529 533 529 533 533 525 525 529 525 521 525 533 537 529 525 525 507 490 481 474 477 471 462 457 440 435 432 438 432 432 427 430 425 0 0 0 420 430 0 0 0 0 0 0
    0 0 0 0 0 0 0 0 0 0 0 0 0 0 0 0 0 0 0 0 0 0 0 0 0 0 0 0 0 0 0 0 0 0 0 0 0 0 0 0 0 0 0 0 0 0 0 0 0 0 0 0 0 0 0 0 0 0 0 0 0 0 0 0 0 0 0 0 0 714 721 714 700 700 700 707 707 707 721 728 728 707 728 735 743 750 774 782 808 817 836 845 845 865 876 876 897 908 919 908 897 955 981 1022 1022 1036 1051 1082 1082 1115 1149 1168 1206 1247 1268 1291 1314 1314 1338 1314 1314 1314 1338 1388 1388 1362 1291 1226 1187 1132 1115 1132 1149 1187 1206 1226 1247 1291 1338 0 0 0 0 0 0 0 0 0 0 0 0 0 0 0 0 0 0 0 0 0 0 0 0 0 0 0 0 0 0 0 0 0 0 0 0 0 0 0 0 0 0 0 0 0 0 0 0 0 0 0 0 0 0 0 0 0 1066 1149 1115 1168 1098 1082 1066 1082 1082 1115 1132 1132 1115 1132 1149 1226 1206 1187 1168 1066 1051 1036 1036 1008 1008 981 955 955 943 943 943 931 919 897 897 876 855 845 817 808 774 758 750 743 721 663 687 681 681 651 675 675 675 663 681 669 657 657 681 657 639 639 634 618 608 603 593 588 588 588 588 579 574 566 549 541 533 529 525 518 525 529 529 529 529 525 525 525 521 518 518 525 529 518 514 507 504 493 481 474 477 471 459 448 435 432 430 435 432 432 427 427 422 422 420 425 415 420 422 0 0 0 0 0
    0 0 0 0 0 0 0 0 0 0 0 0 0 0 0 0 0 0 0 0 0 0 0 0 0 0 0 0 0 0 0 0 0 0 0 0 0 0 0 0 0 0 0 0 0 0 0 0 0 0 0 0 0 0 0 0 0 0 0 0 0 0 0 0 0 0 0 0 0 714 728 721 700 694 694 700 694 700 700 694 707 657 728 750 743 758 766 782 799 817 836 836 836 865 876 876 886 908 919 897 897 955 968 1008 1022 1036 1051 1051 1066 1082 1132 1149 1187 1226 1268 1291 1291 1291 1314 1291 1291 1291 1314 1338 1338 1291 1247 1168 1132 1115 1115 1115 1132 1149 1187 1206 1226 1268 0 0 0 0 0 0 0 0 0 0 0 0 0 0 0 0 0 0 0 0 0 0 0 0 0 0 0 0 0 0 0 0 0 0 0 0 0 0 0 0 0 0 0 0 0 0 0 0 0 0 0 0 0 0 0 0 0 0 0 1132 1115 1149 1082 1066 1051 1066 1066 1082 1115 1115 1098 1115 1132 1168 1168 1168 1168 1098 1066 1066 1051 1022 1022 981 955 955 943 931 931 919 919 897 897 876 845 836 817 791 758 743 728 728 714 657 687 681 681 657 681 681 681 675 687 675 663 663 687 657 639 634 634 618 608 603 593 593 588 588 588 579 570 566 557 549 537 533 529 525 529 529 529 529 525 521 521 521 518 514 514 518 518 511 504 507 504 493 484 477 481 474 465 451 435 430 430 435 0 430 425 0 0 0 418 418 411 408 0 0 0 0 0 0
    0 0 0 0 0 0 0 0 0 0 0 0 0 0 0 0 0 0 0 0 0 0 0 0 0 0 0 0 0 0 0 0 0 0 0 0 0 0 0 0 0 0 0 0 0 0 0 0 0 0 0 0 0 0 0 0 0 0 0 0 0 0 0 0 0 0 0 0 0 721 721 714 700 694 681 687 681 694 687 657 694 629 750 774 743 766 774 782 799 808 836 836 836 865 876 876 886 897 919 897 897 968 968 994 1008 1022 1036 1051 1051 1066 1115 1115 1168 1206 1226 1187 1247 1226 1247 1247 1247 1268 1291 1291 1291 1226 1187 1115 1098 1082 1082 1098 1115 1132 1168 1187 1206 1247 0 0 0 0 0 0 0 0 0 0 0 0 0 0 0 0 0 0 0 0 0 0 0 0 0 0 0 0 0 0 0 0 0 0 0 0 0 0 0 0 0 0 0 0 0 0 0 0 0 0 0 0 0 0 0 0 0 0 0 0 1098 1149 1066 1051 1051 1066 1066 1082 1098 1098 1082 1098 1115 1149 1132 1168 1168 1115 1098 1098 1051 1036 1022 981 955 955 943 931 931 919 919 897 886 876 845 845 817 799 766 743 728 728 714 657 687 687 687 663 687 687 687 681 694 675 669 669 687 663 639 639 634 623 613 603 588 588 588 588 584 574 570 561 561 553 537 537 529 529 529 529 529 525 521 514 514 511 507 504 507 507 507 504 497 497 497 490 481 477 481 474 468 454 435 430 430 0 0 430 425 0 0 0 420 413 408 406 0 0 0 0 0 0
    0 0 0 0 0 0 0 0 0 0 0 0 0 0 0 0 0 0 0 0 0 0 0 0 0 0 0 0 0 0 0 0 0 0 0 0 0 0 0 0 0 0 0 0 0 0 0 0 0 0 0 0 0 0 0 0 0 0 0 0 0 0 0 0 0 0 0 0 0 707 707 707 694 694 675 687 675 0 687 663 0 0 782 782 750 774 782 782 799 808 836 836 836 865 876 876 886 897 919 897 908 955 943 981 1008 1022 1036 1051 1051 1066 1098 1132 1187 1206 1082 1098 1187 1187 1206 1206 1226 1247 1268 1268 1226 1149 1115 1082 1066 1051 1066 1082 1082 1098 1132 1149 1187 0 0 0 0 0 0 0 0 0 0 0 0 0 0 0 0 0 0 0 0 0 0 0 0 0 0 0 0 0 0 0 0 0 0 0 0 0 0 0 0 0 0 0 0 0 0 0 0 0 0 0 0 0 0 0 0 0 0 0 0 0 1098 1149 1066 1051 1036 1066 1051 1066 1082 1098 1082 1098 1115 1132 1132 1168 1149 1149 1115 1115 1066 1051 1036 994 968 955 931 919 931 919 908 886 886 876 855 845 817 799 774 750 735 728 714 663 694 694 694 675 694 694 694 687 694 681 675 669 687 663 634 634 634 618 613 593 574 584 584 584 574 570 570 561 561 561 541 533 529 525 525 525 525 518 518 511 511 507 507 507 507 507 507 504 500 500 497 487 477 474 477 468 462 454 438 435 435 438 0 432 427 0 415 427 418 413 411 406 0 0 0 0 0 0
    0 0 0 0 0 0 0 0 0 0 0 0 0 0 0 0 0 0 0 0 0 0 0 0 0 0 0 0 0 0 0 0 0 0 0 0 0 0 0 0 0 0 0 0 0 0 0 0 0 0 0 0 0 0 0 0 0 0 0 0 0 0 0 0 0 0 0 0 0 700 700 707 700 694 681 694 694 728 700 707 721 728 782 791 750 774 782 782 799 808 836 826 836 865 865 876 886 897 919 886 908 955 931 968 1008 1022 1036 1051 1051 1066 1082 1132 1206 1051 1066 1082 1132 1132 1187 1187 1206 1206 1226 1206 1168 1098 1082 1051 1051 1051 1051 1066 1082 1098 1115 1132 0 0 0 0 0 0 0 0 0 0 0 0 0 0 0 0 0 0 0 0 0 0 0 0 0 0 0 0 0 0 0 0 0 0 0 0 0 0 0 0 0 0 0 0 0 0 0 0 0 0 0 0 0 0 0 0 0 0 0 0 0 0 0 1115 1051 1036 1036 1066 1051 1066 1082 1082 1082 1082 1082 1098 1098 1115 1098 1115 1115 1115 1098 1098 1066 1022 981 955 943 908 919 908 897 886 876 865 855 845 826 808 782 758 743 735 714 669 694 694 694 681 694 700 694 694 700 681 675 675 687 669 634 634 629 613 608 593 566 579 579 579 570 566 566 566 566 566 545 537 533 529 529 525 525 518 518 511 507 504 500 500 497 497 497 493 490 490 490 484 477 477 477 468 462 454 443 438 435 440 440 432 430 430 422 427 420 413 413 411 411 0 0 0 0 0
    0 0 0 0 0 0 0 0 0 0 0 0 0 0 0 0 0 0 0 0 0 0 0 0 0 0 0 0 0 0 0 0 0 0 0 0 0 0 0 0 0 0 0 0 0 0 0 0 0 0 0 0 0 0 0 0 0 0 0 0 0 0 0 0 0 0 0 0 0 707 714 728 714 714 707 714 714 750 735 728 721 728 782 782 743 774 782 782 799 799 826 826 836 865 865 876 876 886 919 886 908 943 931 968 1008 1022 1051 1066 1082 1082 1115 1187 1168 1022 1051 1051 1082 1082 1132 1115 1149 1149 1149 1115 1082 1051 1051 1036 1036 1036 1036 1051 1066 1082 1098 0 0 0 0 0 0 0 0 0 0 0 0 0 0 0 0 0 0 0 0 0 0 0 0 0 0 0 0 0 0 0 0 0 0 0 0 0 0 0 0 0 0 0 0 0 0 0 0 0 0 0 0 0 0 0 0 0 0 0 0 0 0 0 0 0 1036 981 1008 1036 1022 1051 1051 1066 1051 1051 1051 1066 1066 1066 1051 1066 1066 1082 1098 1098 1082 1036 994 968 943 908 897 886 886 876 865 855 845 836 817 808 791 766 750 743 721 681 700 694 694 687 700 700 694 694 700 687 681 681 687 675 639 639 634 613 613 593 566 574 574 570 561 561 566 561 561 561 545 537 533 533 529 525 525 521 518 511 507 504 500 497 500 497 497 493 490 493 490 484 477 471 468 457 451 448 440 435 432 435 435 430 425 420 411 418 415 411 411 408 402 0 0 0 0 0
    0 0 0 0 0 0 0 0 0 0 0 0 0 0 0 0 0 0 0 0 0 0 0 0 0 0 0 0 0 0 0 0 0 0 0 0 0 0 0 0 0 0 0 0 0 0 0 0 0 0 0 0 0 0 0 0 0 0 0 0 0 0 0 0 0 0 0 0 0 707 714 728 714 707 714 721 721 743 750 743 728 743 782 774 750 766 774 782 791 799 817 817 826 855 865 876 876 886 931 886 908 943 931 968 994 1008 1022 1051 1051 1066 1098 1187 1022 955 1022 1036 1051 1051 1082 1098 1115 1098 1098 1066 1051 1022 1022 1022 1022 1022 1022 1036 1051 1066 1082 0 0 0 0 0 0 0 0 0 0 0 0 0 0 0 0 0 0 0 0 0 0 0 0 0 0 0 0 0 0 0 0 0 0 0 0 0 0 0 0 0 0 0 0 0 0 0 0 0 0 0 0 0 0 0 0 0 0 0 0 0 0 0 0 0 0 886 955 994 981 1022 1036 1036 1036 1022 1036 1036 1036 1051 1036 1036 1051 1051 1082 1098 1082 1036 994 968 931 897 886 876 865 865 855 845 845 836 826 817 791 782 758 758 728 687 700 700 700 687 694 700 694 687 700 687 681 681 687 675 645 645 639 613 613 598 574 574 574 566 561 557 561 557 557 557 549 541 537 537 533 529 529 521 521 511 507 504 504 500 500 500 500 497 493 497 493 487 477 471 465 451 446 443 438 435 430 430 430 427 415 406 399 402 404 404 404 404 397 0 0 0 0 0
    0 0 0 0 0 0 0 0 0 0 0 0 0 0 0 0 0 0 0 0 0 0 0 0 0 0 0 0 0 0 0 0 0 0 0 0 0 0 0 0 0 0 0 0 0 0 0 0 0 0 0 0 0 0 0 0 0 0 0 0 0 0 0 0 0 0 0 0 0 707 721 728 721 721 721 728 735 750 774 743 735 758 799 774 750 774 774 782 791 791 817 817 826 855 865 876 886 886 919 886 908 931 931 955 968 981 994 1008 1008 1008 1036 1022 955 876 919 981 1022 1022 1051 1066 1066 1051 1051 1022 1022 1008 1008 994 994 994 1022 1036 1036 1051 0 0 0 0 0 0 0 0 0 0 0 0 0 0 0 0 0 0 0 0 0 0 0 0 0 0 0 0 0 0 0 0 0 0 0 0 0 0 0 0 0 0 0 0 0 0 0 0 0 0 0 0 0 0 0 0 0 0 0 0 0 0 0 0 0 0 0 0 968 994 981 1022 1036 1036 1036 1022 1022 1022 1036 1036 1022 1008 1022 1022 1051 1066 1051 1036 981 943 919 897 897 876 876 865 865 865 855 855 836 826 808 791 774 774 728 694 700 700 700 694 694 694 694 687 694 687 675 675 681 675 639 645 639 618 618 608 584 584 579 570 561 561 561 557 557 553 549 545 545 541 537 533 529 525 518 511 500 497 497 497 497 497 497 497 497 504 500 493 484 481 468 448 443 440 435 432 427 425 422 420 408 402 397 397 399 399 402 402 397 0 0 0 0 0
    0 0 0 0 0 0 0 0 0 0 0 0 0 0 0 0 0 0 0 0 0 0 0 0 0 0 0 0 0 0 0 0 0 0 0 0 0 0 0 0 0 0 0 0 0 0 0 0 0 0 0 0 0 0 0 0 0 0 0 0 0 0 0 0 0 0 0 0 0 694 714 714 714 714 721 728 728 743 766 743 743 774 799 774 758 774 782 782 791 791 817 817 836 865 876 886 886 886 919 886 908 919 919 943 943 955 968 981 968 943 943 897 855 836 855 919 931 994 1008 1022 1022 1008 1022 994 994 994 981 994 994 994 1008 1022 1036 0 0 0 0 0 0 0 0 0 0 0 0 0 0 0 0 0 0 0 0 0 0 0 0 0 0 0 0 0 0 0 0 0 0 0 0 0 0 0 0 0 0 0 0 0 0 0 0 0 0 0 0 0 0 0 0 0 0 0 0 0 0 0 0 0 0 0 0 0 981 1036 994 1036 1051 1051 1036 1022 1022 1022 1022 1022 1008 994 1008 1008 1036 1036 1022 1008 955 919 897 897 886 865 865 865 855 855 855 855 836 826 817 791 766 750 721 694 700 700 700 694 687 694 687 687 687 681 675 675 675 675 639 639 639 618 618 613 593 593 588 574 566 566 566 561 561 557 553 545 545 545 537 537 529 525 521 511 500 497 493 493 490 493 490 490 490 493 493 490 481 477 468 454 448 443 438 430 427 422 420 415 404 399 395 395 399 397 397 397 395 0 0 0 0 0
    0 0 0 0 0 0 0 0 0 0 0 0 0 0 0 0 0 0 0 0 0 0 0 0 0 0 0 0 0 0 0 0 0 0 0 0 0 0 0 0 0 0 0 0 0 0 0 0 0 0 0 0 0 0 0 0 0 0 0 0 0 0 0 0 0 0 0 0 0 707 714 721 721 721 721 728 735 758 766 743 750 791 808 774 766 774 782 782 791 791 808 817 836 855 876 886 886 886 931 897 919 931 931 943 931 931 943 968 908 865 845 845 826 826 845 908 897 968 994 981 981 981 981 968 968 968 968 968 981 994 1008 1008 0 0 0 0 0 0 0 0 0 0 0 0 0 0 0 0 0 0 0 0 0 0 0 0 0 0 0 0 0 0 0 0 0 0 0 0 0 0 0 0 0 0 0 0 0 0 0 0 0 0 0 0 0 0 0 0 0 0 0 0 0 0 0 0 0 0 0 0 0 0 0 1098 1022 1066 1066 1051 1051 1036 1022 1022 1008 1008 994 981 981 981 1008 994 994 994 943 919 897 886 876 865 855 865 855 855 855 855 836 836 836 799 766 735 714 687 694 694 694 694 681 694 687 681 687 681 669 669 669 681 645 645 645 623 623 618 598 593 593 579 574 574 570 570 566 561 557 549 545 545 537 533 529 525 521 518 507 507 497 493 490 493 490 487 487 490 490 484 477 474 462 454 454 448 443 438 435 430 425 420 406 399 397 397 402 397 397 397 395 0 0 0 0 0
    0 0 0 0 0 0 0 0 0 0 0 0 0 0 0 0 0 0 0 0 0 0 0 0 0 0 0 0 0 0 0 0 0 0 0 0 0 0 0 0 0 0 0 0 0 0 0 0 0 0 0 0 0 0 0 0 0 0 0 0 0 0 0 0 0 0 0 0 0 707 714 721 721 721 721 728 735 743 743 728 735 782 799 758 766 766 782 782 791 791 808 808 836 855 876 886 886 886 931 897 919 919 919 919 897 886 876 865 817 836 836 845 826 836 855 897 886 968 968 931 943 955 968 955 955 968 955 955 968 981 994 1008 0 0 0 0 0 0 0 0 0 0 0 0 0 0 0 0 0 0 0 0 0 0 0 0 0 0 0 0 0 0 0 0 0 0 0 0 0 0 0 0 0 0 0 0 0 0 0 0 0 0 0 0 0 0 0 0 0 0 0 0 0 0 0 0 0 0 0 0 0 0 0 0 1036 1082 1051 1051 1051 1022 1008 1008 994 981 968 955 955 955 994 968 943 955 919 897 886 876 865 855 855 855 845 845 845 845 826 826 826 791 774 743 721 694 694 694 694 694 675 687 681 675 681 681 663 663 663 681 645 651 651 623 623 618 598 593 593 584 579 574 570 570 566 561 553 545 537 537 533 533 525 525 525 521 514 514 500 497 493 493 490 490 487 487 487 481 477 474 465 459 457 454 448 443 440 438 430 425 411 406 399 399 402 397 399 399 397 0 0 0 0 0
    0 0 0 0 0 0 0 0 0 0 0 0 0 0 0 0 0 0 0 0 0 0 0 0 0 0 0 0 0 0 0 0 0 0 0 0 0 0 0 0 0 0 0 0 0 0 0 0 0 0 0 0 0 0 0 0 0 0 0 0 0 0 0 0 0 0 0 0 0 707 714 721 721 721 721 728 735 728 721 714 728 766 782 735 758 758 774 782 791 791 799 808 836 845 865 876 886 886 931 897 931 876 908 908 876 855 799 799 791 817 836 845 836 845 865 897 886 955 931 919 931 943 955 943 955 955 943 955 968 981 994 0 0 0 0 0 0 0 0 0 0 0 0 0 0 0 0 0 0 0 0 0 0 0 0 0 0 0 0 0 0 0 0 0 0 0 0 0 0 0 0 0 0 0 0 0 0 0 0 0 0 0 0 0 0 0 0 0 0 0 0 0 0 0 0 0 0 0 0 0 0 0 0 0 0 1098 1051 1036 1036 968 981 981 968 955 943 919 931 931 968 931 908 908 897 886 876 865 855 845 845 845 845 845 845 845 836 845 836 799 791 750 721 700 694 700 694 694 669 681 675 675 675 675 657 663 657 681 645 651 651 618 618 618 598 593 588 579 570 566 566 561 557 557 553 545 537 537 533 533 525 525 529 525 518 521 507 500 497 497 493 490 487 487 484 481 474 474 465 462 457 457 448 446 443 438 432 430 413 406 402 402 404 402 402 402 402 0 0 0 0 0</data></depth>
</opencv_storage>
