<?xml version="1.0"?>
<opencv_storage>
<gps_time_stamp>280872</gps_time_stamp>
<gps_x>-1.3983169555664063e+001</gps_x>
<gps_y>1.1292303085327148e+001</gps_y>
<gps_z>-2.3107416629791260e+000</gps_z>
<image_time_stamp>271761</image_time_stamp>
<depth type_id="opencv-matrix">
  <rows>84</rows>
  <cols>320</cols>
  <dt>s</dt>
  <data>
    0 0 0 0 0 0 0 0 0 0 0 0 0 0 0 0 0 0 0 0 0 0 0 0 0 0 0 0 0 0 0 0 0 0 0 0 0 0 0 0 0 0 0 0 0 0 0 0 0 0 0 0 0 0 0 0 0 0 0 0 0 0 0 0 0 0 0 0 0 2537 2453 2537 2725 2725 2943 2830 3199 3199 3066 2943 2725 2628 2725 2725 2725 2453 2374 2453 2299 2453 1989 2230 2230 2102 2230 2299 2374 2299 2230 2628 2299 2230 2537 2164 2044 2044 2164 2164 2299 1839 0 0 2230 0 1989 1936 2164 2299 2537 2164 2299 2164 2164 2164 2102 2164 1989 2164 2230 2164 2164 2230 2230 2299 2230 2725 2230 2230 2628 2102 2044 2102 1989 2164 2102 2102 2102 1989 2230 2299 2230 2230 2164 2044 2164 2164 2299 2102 2102 2102 2299 2230 2628 2230 2164 2374 2044 2230 1989 1672 1752 1752 1839 1839 1839 1887 1839 1839 2044 2044 2102 2102 2102 2102 2230 2102 2374 2102 1989 1936 2102 2102 2164 2299 1887 2044 1989 1887 1839 1752 1711 1672 1599 1599 1471 1443 1471 1471 1415 1338 1362 1338 1314 1314 1268 1247 1247 1247 0 1268 1268 1247 1291 1314 1314 1314 1314 1291 1291 1291 1291 1268 1247 1187 1168 1187 1187 1187 1168 1168 1168 1168 1206 1226 1187 1187 1206 1206 1247 1226 1247 1247 1268 1268 1291 1268 1268 1187 1226 1066 1149 1115 1132 1168 1187 1226 1268 1291 1362 1388 1443 1501 1501 1565 1565 1565 1565 1599 1533 1314 1362 1314 1338 1362 1338 1314 1338 1338 1362 1338 1362 1338 1338 1388 1443 1388 1752 0 0 0 0 0 0 0 0 0 0 0 0 0 0 0 0 0 0 0 0 0 0 0
    0 0 0 0 0 0 0 0 0 0 0 0 0 0 0 0 0 0 0 0 0 0 0 0 0 0 0 0 0 0 0 0 0 0 0 0 0 0 0 0 0 0 0 0 0 0 0 0 0 0 0 0 0 0 0 0 0 0 0 0 0 0 0 0 0 0 0 0 0 2628 2537 2537 2725 2628 2830 2830 3199 3066 2943 2943 2628 2628 2725 2628 2725 2453 2453 2537 2453 2628 2044 2299 2299 2164 2299 2299 2374 2299 2230 2537 2230 2230 2453 2164 2044 2044 2164 2102 1936 1795 0 0 0 0 0 1752 2164 2374 2537 2299 2299 2102 2164 2164 2102 2164 1989 2164 2230 2164 2230 2230 2230 2374 2230 2725 2299 2374 2725 2230 2102 2164 2044 2164 2102 2102 2102 1989 2230 2299 2230 2230 2164 2044 2230 2230 2299 2102 2164 2102 2230 2230 2537 2230 2164 2299 1989 2102 1989 1635 1711 1711 1795 1839 1839 1839 1795 1839 2102 2102 2164 2164 2102 2164 2230 2230 2453 2164 2044 1989 2164 2230 2299 2230 1887 1989 1936 1887 1839 1711 1711 1672 1599 1635 1471 1443 1471 1501 1443 1338 1362 1362 1338 1314 1268 1247 1247 1247 0 1247 1268 1226 1268 1291 1291 1291 1314 1291 1291 1291 1291 1291 1268 1206 1187 1206 1206 1187 1168 1168 1168 1149 1187 1206 1168 1149 1168 1168 1206 1187 1206 1247 1247 1268 1291 1247 1291 1206 1226 1066 1168 1115 1132 1168 1187 1226 1268 1291 1362 1388 1443 1471 1501 1565 1599 1599 1565 1599 1599 1314 1338 1291 1314 1338 1314 1314 1338 1314 1362 1314 1338 1338 1314 1338 1388 0 0 0 0 0 0 0 0 0 0 0 0 0 0 0 0 0 0 0 0 0 0 0 0 0
    0 0 0 0 0 0 0 0 0 0 0 0 0 0 0 0 0 0 0 0 0 0 0 0 0 0 0 0 0 0 0 0 0 0 0 0 0 0 0 0 0 0 0 0 0 0 0 0 0 0 0 0 0 0 0 0 0 0 0 0 0 0 0 0 0 0 0 0 0 2830 2628 2628 2725 2628 2830 2830 3199 3199 2943 2943 2725 2628 2725 2628 2725 2537 2537 2628 2628 0 2102 2374 2374 2230 2374 2299 2453 2299 2230 2628 2230 2164 2453 2164 1989 1989 2102 2044 1887 1795 1752 1711 1839 1711 1752 1795 2102 2299 2374 2230 2374 2102 2164 2230 2164 2164 2044 2230 2230 2164 2230 2230 2164 2299 2230 2628 2299 2299 2628 2164 2102 2164 2102 2164 2102 2102 2044 1989 2230 2299 2230 2230 2230 2102 2230 2230 2299 2102 2164 2102 2230 2230 2537 2164 2164 2230 1989 2102 1936 1635 1711 1672 1795 1839 1839 1839 1795 1839 2164 2164 2299 2299 2102 2164 2164 2230 2453 2102 2044 1989 2164 2299 2299 2102 1887 1989 1936 1887 1839 1752 1711 1711 1635 1635 1501 1471 1501 1501 1443 1338 1362 1362 1338 1314 1268 1247 1247 1247 0 1247 1268 1226 1268 1291 1291 1314 1314 1291 1291 1291 1291 1291 1268 1206 1187 1206 1206 1206 1187 1187 1168 1168 1187 1206 1149 1149 1149 1149 1187 1168 1206 1247 1268 1268 1268 1247 1268 1187 1226 1066 1168 1132 1149 1168 1187 1226 1268 1291 1362 1388 1415 1471 1501 1533 1599 1565 1565 1599 1599 1314 1314 1268 1291 1314 1314 1291 1314 1314 1338 1314 1314 1314 1291 1314 1338 0 0 0 0 0 0 0 0 0 0 0 0 0 0 0 0 0 0 0 0 0 0 0 0 0
    0 0 0 0 0 0 0 0 0 0 0 0 0 0 0 0 0 0 0 0 0 0 0 0 0 0 0 0 0 0 0 0 0 0 0 0 0 0 0 0 0 0 0 0 0 0 0 0 0 0 0 0 0 0 0 0 0 0 0 0 0 0 0 0 0 0 0 0 0 2943 2725 2725 2725 2628 2830 2943 3345 3199 2943 2943 2725 2725 2725 2725 2725 2537 2628 2725 0 0 2230 2453 2453 2299 2374 2374 2537 2299 2230 2628 2230 2164 2453 2102 1936 1936 1989 1989 1887 1887 1839 1752 1887 1795 1795 1887 2044 2299 2299 2230 2374 2044 2102 2230 2164 2164 1989 2164 2230 2164 2230 2230 2164 2164 2164 2628 2164 2164 2374 2102 2044 2164 2164 2164 2102 2102 2044 2044 2230 2299 2299 2230 2230 2164 2230 2299 2299 2164 2164 2102 2164 2230 2453 2102 2044 2102 1936 2044 1936 1599 1711 1672 1795 1839 1839 1887 1839 1887 2299 2299 2453 2537 2230 2299 2164 2230 2374 2044 2102 2044 2299 2453 2453 2102 1936 1989 1936 1936 1887 1795 1752 1752 1672 1672 1501 1471 1471 1501 1471 1362 1388 1362 1338 1338 1291 1268 1247 1247 0 1268 1268 1226 1268 1291 1291 1314 1314 1291 1291 1291 1314 1291 1268 1206 1187 1206 1206 1206 1206 1187 1187 1187 1206 1226 1187 1187 1187 1168 1226 1206 1226 1268 1268 1268 1268 1247 1268 1187 1226 1066 1168 1149 1168 1149 1187 1206 1268 1291 1362 1388 1415 1443 1501 1533 1599 1565 1533 1635 1635 1314 1291 1268 1268 1291 1291 1268 1291 1291 1338 1314 1314 1314 1291 1314 1314 0 0 0 0 0 0 0 0 0 0 0 0 0 0 0 0 0 0 0 0 0 0 0 0 0
    0 0 0 0 0 0 0 0 0 0 0 0 0 0 0 0 0 0 0 0 0 0 0 0 0 0 0 0 0 0 0 0 0 0 0 0 0 0 0 0 0 0 0 0 0 0 0 0 0 0 0 0 0 0 0 0 0 0 0 0 0 0 0 0 0 0 0 0 0 0 2725 0 2725 2628 2830 2943 3345 3199 0 2943 2725 2725 2725 2725 2725 2537 2628 2830 2830 0 2374 2537 2537 2374 2453 2453 2537 2299 2299 2628 2299 2230 2537 2102 1887 1887 1936 1936 1887 1887 1887 1795 2044 1936 1839 1989 2164 2374 2374 2374 2374 2044 2102 2230 2230 2164 1936 2164 2164 2164 2230 2164 2102 2102 2102 2537 2164 2164 2230 2044 2102 2230 2230 0 2164 2164 2102 2102 2299 2299 2299 2299 2230 2164 2230 2374 2374 2230 2230 2102 2102 2230 2374 1989 1936 1936 1936 1936 1887 1565 1672 1672 1795 1839 1839 1839 1839 1887 2299 2299 2537 2537 2164 2164 2230 2299 2453 2102 2230 2164 2537 2628 2725 2164 1989 2044 1989 1989 1936 0 1795 1795 1672 1672 1501 1501 1471 1501 1471 1362 1388 1388 1362 1338 1291 1268 1247 1268 0 1268 1268 1247 1268 1291 1291 1291 1291 1291 1268 1268 1291 1291 1268 1187 1168 1206 1206 1226 1206 1206 1206 1187 1226 1247 1206 1187 1187 1187 0 0 1247 1291 1291 1291 1268 1247 1268 1187 1226 1066 1168 1168 1168 1149 1187 1206 1268 1291 1362 1388 1415 1443 1533 1533 1599 1565 1565 1635 1711 0 1314 1268 1247 1268 1268 1268 1291 1291 1314 1291 1291 1314 1314 1314 1314 1226 0 0 0 0 0 0 0 0 0 0 0 0 0 0 0 0 0 0 0 0 0 0 0 0
    0 0 0 0 0 0 0 0 0 0 0 0 0 0 0 0 0 0 0 0 0 0 0 0 0 0 0 0 0 0 0 0 0 0 0 0 0 0 0 0 0 0 0 0 0 0 0 0 0 0 0 0 0 0 0 0 0 0 0 0 0 0 0 0 0 0 0 0 0 0 2725 0 2725 2628 2830 2943 3345 3199 0 2943 2725 2725 2725 2725 2725 2537 2628 2830 2830 0 2374 2537 2537 2374 2453 2453 2537 2299 2299 2725 2299 2230 2628 2102 1839 1887 1887 1839 1752 1752 1795 1752 1887 0 1752 1936 2164 2299 2299 2299 2299 1989 2102 2299 2299 2230 1989 2230 2230 2230 2299 2299 2164 2164 2102 2628 2299 2299 2230 2102 2164 2299 2299 2230 2164 2164 2044 2164 2299 2299 2299 2299 2230 2164 2299 2374 2299 2230 2164 2044 2044 2164 2164 1887 1887 1839 1887 1839 1839 1533 1672 1672 1795 1839 1839 1795 1839 1887 2299 2299 2537 2537 2164 2164 2299 2374 2537 2230 2453 2374 2830 2830 2830 2102 2102 2044 2044 1989 1936 1795 1795 1795 1711 1672 1501 1501 1471 1501 1501 1388 1415 1415 1362 1362 1314 1268 1268 1268 0 1268 1268 1247 1268 1291 1291 1314 1314 1291 1268 1268 1268 1268 1247 1168 1168 1206 1206 1226 1206 1226 1206 1206 1226 1268 1206 1206 1187 1206 0 0 0 1415 1314 1314 1291 1247 1291 0 1226 1066 1168 1168 1168 1149 1187 1206 1268 1291 1362 1388 1415 1443 1533 1565 1635 1565 1565 1672 1711 0 1291 1268 1226 1247 1247 1247 1291 1291 1314 1291 1291 1314 1314 1338 1338 1226 0 0 0 0 0 0 0 0 0 0 0 0 0 0 0 0 0 0 0 0 0 0 0 0
    0 0 0 0 0 0 0 0 0 0 0 0 0 0 0 0 0 0 0 0 0 0 0 0 0 0 0 0 0 0 0 0 0 0 0 0 0 0 0 0 0 0 0 0 0 0 0 0 0 0 0 0 0 0 0 0 0 0 0 0 0 0 0 0 0 0 0 0 0 0 2830 2830 2725 2628 2725 2943 3345 3199 0 2943 2725 2830 2830 2725 2725 2628 2725 2943 2943 2943 2374 2537 2537 2453 2453 2453 2537 2299 2299 2830 2374 2299 0 2230 1887 1936 1887 1887 1795 1711 1839 1752 0 0 1672 1936 2102 2230 2230 2164 2164 1989 2102 2374 2299 2230 1989 2230 2230 2230 2299 2299 2164 2164 2102 2628 2230 2299 2164 2102 2164 2230 2299 0 2164 2164 2044 2164 2230 2230 2299 2299 2230 2230 2299 2374 2230 2230 2164 2044 2044 2164 2044 1839 1839 1839 1887 1752 1839 1533 1672 1635 1795 1839 1839 1795 1839 1936 2299 2299 2628 2453 2164 2230 2374 2453 2537 2537 2830 2725 3066 3066 2725 1989 2044 1989 1989 1936 1887 1752 1752 1752 0 1672 1501 1501 1471 1501 1501 1388 1415 1415 1362 1362 1314 1291 1268 1268 0 1268 1268 1247 1268 1291 1291 1314 1314 1291 1268 1268 1268 1268 1268 1187 1168 1206 1206 1226 1226 1226 1226 1226 1247 1291 1247 0 0 1247 0 0 0 1501 1362 1314 1291 1247 0 0 1226 1066 1168 1168 1168 1149 1187 1206 1268 1268 1362 1388 1388 1415 1533 1565 1635 1565 1565 1635 1752 0 1291 1268 1226 1247 1247 1247 1291 1291 1291 1291 1291 1291 1291 1314 1314 1226 0 0 0 0 0 0 0 0 0 0 0 0 0 0 0 0 0 0 0 0 0 0 0 0
    0 0 0 0 0 0 0 0 0 0 0 0 0 0 0 0 0 0 0 0 0 0 0 0 0 0 0 0 0 0 0 0 0 0 0 0 0 0 0 0 0 0 0 0 0 0 0 0 0 0 0 0 0 0 0 0 0 0 0 0 0 0 0 0 0 0 0 0 0 0 2830 2943 2725 2628 2725 2943 3199 3199 2830 2830 2725 2830 2830 2725 2830 2725 2725 2943 2943 2943 2374 2628 2628 2453 2537 2453 2537 2374 2374 2830 2537 2453 0 2453 1989 1989 1936 1887 1795 1752 1936 1795 1795 1752 1711 1936 2164 2230 2164 2164 2102 2044 2164 2374 2299 2230 1989 2230 2230 2299 2299 2230 2164 2164 2102 2628 2230 2230 2102 2102 2164 2230 2230 2164 2164 2102 2044 2230 2230 2230 2299 2299 2230 2230 2299 2374 2230 2299 2164 2044 2102 2164 1989 1839 1839 1795 1887 1635 1839 1533 1672 1635 1795 1839 1839 1795 1839 1936 2299 2299 2725 2453 2230 2299 2374 2453 0 2725 2830 2628 2943 3066 2537 1887 1989 1936 1887 1887 1839 1711 1711 1711 0 1635 1501 1501 1471 1471 1501 1388 1415 1415 1362 1362 1338 1291 1268 1268 0 1268 1268 1247 1247 1268 1268 1291 1291 1268 1247 1247 1247 1247 1247 1168 1149 1206 1206 1226 1226 1247 1226 1226 1247 0 1268 0 0 0 0 0 0 1635 1415 1388 1314 1268 0 0 1226 1066 1168 1168 1168 1149 1187 1206 1247 1268 1362 1362 1388 1415 1565 1599 1672 1565 1599 1672 1795 1501 1338 1314 1247 1247 1247 1268 1314 1291 1291 1291 1268 1268 1268 1268 1268 1187 0 0 0 0 0 0 0 0 0 0 0 0 0 0 0 0 0 0 0 0 0 0 0 0
    0 0 0 0 0 0 0 0 0 0 0 0 0 0 0 0 0 0 0 0 0 0 0 0 0 0 0 0 0 0 0 0 0 0 0 0 0 0 0 0 0 0 0 0 0 0 0 0 0 0 0 0 0 0 0 0 0 0 0 0 0 0 0 0 0 0 0 0 0 0 0 0 2725 2537 2628 2830 2943 2943 2725 2830 2725 2725 2830 2725 2725 2725 2725 2943 2943 2830 2374 2628 2628 2453 2537 2453 2537 2374 2374 2943 2628 2628 3345 2628 2044 2044 2044 1936 1795 1887 0 1936 1887 1839 1795 1989 2164 2230 2164 2102 2044 2044 2164 2374 2299 2230 1989 2230 2230 2299 2299 2230 2164 2102 2102 2628 2164 2164 2044 2102 2230 2230 2230 2102 2164 2102 2102 2299 2299 2230 2299 2299 2299 2299 2374 2374 2230 2299 2164 2044 2102 2164 1887 1795 1795 1795 1839 1599 1795 1533 1672 1635 1795 1795 1839 1795 1887 1936 2299 2299 2830 2374 2230 2453 2453 2374 0 2537 2537 2453 2725 2830 2164 1839 1936 1887 0 1839 1795 1711 0 0 0 1635 1501 1501 1443 1471 1501 1388 1415 1388 1362 1362 1338 1291 1268 1268 0 1247 1247 1247 1226 1226 1226 1268 1291 1268 1226 1226 1206 1247 1247 1168 1149 1206 1226 1247 1226 1247 1226 1226 1247 1291 1247 0 1226 1206 0 0 0 1501 1362 1314 1291 1268 0 0 1206 1066 1168 1168 1168 1132 1187 1206 1247 1247 1338 1362 1362 1415 1599 1672 1672 1635 1635 1711 1839 1711 1752 1362 1247 1268 1291 1291 1314 1314 1291 1268 1247 1247 1247 1226 1206 1149 1051 0 0 0 0 0 0 0 0 0 0 0 0 0 0 0 0 0 0 0 0 0 0 0
    0 0 0 0 0 0 0 0 0 0 0 0 0 0 0 0 0 0 0 0 0 0 0 0 0 0 0 0 0 0 0 0 0 0 0 0 0 0 0 0 0 0 0 0 0 0 0 0 0 0 0 0 0 0 0 0 0 0 0 0 0 0 0 0 0 0 0 0 0 0 0 0 2725 2453 2537 2830 2725 2725 2628 2725 2628 2725 2725 2628 2628 2628 2725 2830 2830 2830 2374 2537 2628 2453 2537 2537 2537 2453 2453 2943 2830 2725 4906 2830 2230 2102 2164 2102 1887 2102 0 0 1936 1839 1839 2044 2164 2164 2102 2044 1989 2044 2230 2374 2230 2164 1989 2230 2230 2299 2299 2164 2164 2102 2164 2628 2102 2102 1989 2044 2230 2230 2230 2102 2230 2164 2164 2299 2299 2230 2299 2230 2299 2299 2299 2299 2230 2230 2102 2044 2102 2044 1839 1795 1795 1752 1839 1565 1839 1599 1672 1672 1839 1839 1839 1839 1936 1989 2299 2299 2830 2299 2164 2374 2374 2230 2374 2299 2374 2299 2628 2725 1989 1887 1989 1887 0 1887 1795 1711 0 1672 0 1635 1501 1501 1443 1471 1471 1388 1415 1388 1362 1362 1338 1291 1291 1291 0 1247 1226 1226 1187 1187 1206 1247 0 0 0 0 0 0 1247 1168 1149 1206 1206 1247 1226 1226 1226 1226 1247 1291 1247 0 1226 1226 0 0 0 1415 1338 1268 1268 1247 0 0 1187 1051 1168 1168 1168 1132 1187 1206 1247 1247 1338 1362 1362 1415 1635 1711 1711 1635 1672 1711 1839 1752 1752 1443 1291 1226 1291 1314 1338 1314 1291 1268 1247 1268 1268 1247 1206 1115 0 0 0 0 0 0 0 0 0 0 0 0 0 0 0 0 0 0 0 0 0 0 0 0
    0 0 0 0 0 0 0 0 0 0 0 0 0 0 0 0 0 0 0 0 0 0 0 0 0 0 0 0 0 0 0 0 0 0 0 0 0 0 0 0 0 0 0 0 0 0 0 0 0 0 0 0 0 0 0 0 0 0 0 0 0 0 0 0 0 0 0 0 0 0 0 0 2725 2537 2628 2830 2725 2830 2628 2725 2628 2725 2725 2628 2628 2628 2725 2830 2830 2830 2374 2537 2628 2453 2537 2537 2537 2453 2453 2943 2943 2830 5256 3199 2453 2374 2299 2374 2164 2374 0 0 2164 1989 1887 2102 2164 2164 2102 2044 1936 2044 2230 2374 2230 2164 1989 2230 2230 2299 2299 2164 2164 2102 2164 2628 2102 2044 1989 2102 2230 2164 2230 2102 2164 2102 2164 2299 2230 2299 2299 2230 2299 2299 2299 2299 2164 2230 2044 1989 2102 1989 1752 1711 1711 1711 1795 1565 1839 1635 1711 1711 1887 1887 1887 1887 1989 1989 2299 2299 2830 2299 2230 2537 2453 2299 2537 2453 2628 2453 2725 2725 1989 1887 2044 1936 0 1887 1839 1752 1752 1711 0 1635 1533 1501 1443 1443 1471 1362 1388 1388 1362 1362 1362 1338 1314 1314 1362 1268 1247 1247 1149 0 1226 0 529 514 514 521 0 0 0 1149 1149 1187 1187 1226 1226 1226 1226 1226 1247 1268 1247 0 1268 1268 1314 1338 0 1388 1314 1268 1268 1247 1247 0 1168 1051 1149 1168 1168 1132 1187 1206 1247 1247 1362 1362 1362 1415 1672 1711 1711 1635 1635 1711 1795 1711 1672 1443 1268 1149 1226 1314 1314 1314 1291 1268 1247 1268 1291 1268 1206 1132 0 0 0 0 0 0 0 0 0 0 0 0 0 0 0 0 0 0 0 0 0 0 0 0
    0 0 0 0 0 0 0 0 0 0 0 0 0 0 0 0 0 0 0 0 0 0 0 0 0 0 0 0 0 0 0 0 0 0 0 0 0 0 0 0 0 0 0 0 0 0 0 0 0 0 0 0 0 0 0 0 0 0 0 0 0 0 0 0 0 0 0 0 0 3066 0 0 0 2537 2628 2830 2725 2725 2628 2628 2537 2628 2725 2453 2537 2453 2628 2830 2830 2830 2299 2537 2628 2453 2537 2537 2537 2453 2453 2943 2830 2830 4906 3504 2628 2374 2299 2299 2044 2453 0 0 2164 2164 1989 2164 2230 2164 2164 2044 2044 2102 2230 2299 2230 2230 1989 2230 2299 2299 2299 2164 2164 2164 2230 2628 2230 2044 2044 2164 2230 2164 2164 2044 2164 2102 2164 2230 2164 2230 2230 2164 2230 2230 2299 2230 2164 2164 1989 1989 2044 1887 1752 1672 1672 1672 1752 1599 1839 1672 1752 1752 1887 1887 1887 1887 1989 1989 2299 2230 2725 2230 2164 2453 2453 2299 2830 2628 2628 2537 2830 2830 1936 0 2044 1936 0 1936 1839 1752 1752 1752 0 1635 1533 1501 1443 1443 1471 1362 1388 1362 1338 1362 1388 1338 1338 1338 1443 1268 1247 0 0 0 1226 0 529 514 514 521 0 0 1226 1132 1132 1168 1187 1206 1206 1206 1206 1226 1247 1268 1247 1268 1247 1247 1268 1314 1291 1338 1314 1247 1268 1268 1247 0 1149 1051 1149 1168 1168 1132 1187 1206 1247 1247 1338 1338 1362 1415 1672 1711 1711 1599 1635 1672 1752 1672 1565 1443 1268 1098 1226 1338 1338 1338 1291 1291 1268 1268 1314 1291 1226 0 0 0 0 0 0 0 0 0 0 0 0 0 0 0 0 0 0 0 0 0 0 0 0 0
    0 0 0 0 0 0 0 0 0 0 0 0 0 0 0 0 0 0 0 0 0 0 0 0 0 0 0 0 0 0 0 0 0 0 0 0 0 0 0 0 0 0 0 0 0 0 0 0 0 0 0 0 0 0 0 0 0 0 0 0 0 0 0 0 0 0 0 0 0 2943 0 0 0 0 0 2830 2725 2725 2628 2628 2453 2537 2628 2374 2453 2453 2537 2725 2725 2725 2299 2537 2628 2453 2537 2537 2453 2453 2453 2943 2725 2725 3679 3345 2628 2230 0 0 0 2725 0 0 2164 2164 2044 2102 2164 2102 2102 2044 2044 2102 2164 2230 2230 2164 1989 2164 2230 2230 2164 2102 2102 2102 2164 2725 2230 2044 2102 2230 2230 2164 2164 2044 2102 2044 2102 2230 2164 2230 2230 2164 2230 2230 2299 2230 2164 2164 1989 1989 2044 1887 1752 1711 1672 1672 1752 1635 1839 1711 1752 1752 1887 1936 1936 1936 2044 2044 2299 2230 2725 2164 2102 2374 2374 2374 2725 2537 2537 2453 2725 2830 1887 0 0 0 0 1936 1887 1795 1795 1752 1711 1635 1533 1471 1415 1415 1415 1338 1362 1362 1338 1338 1362 1338 1338 1338 1471 1291 1268 0 0 0 1247 0 529 518 518 521 0 0 0 1115 1115 1149 1187 1206 1206 1206 1226 1226 1247 1268 1268 1268 1247 1247 1268 1338 1291 1338 1314 1268 1291 1291 0 0 1132 1036 1149 1168 1168 1132 1187 1226 1247 1247 1338 1338 1338 1415 1672 1752 1711 1635 1635 1672 1752 1635 1533 1565 1291 1051 1247 1362 1362 1362 1291 1291 1291 1268 1314 1291 1247 0 0 0 0 0 0 0 0 0 0 0 0 0 0 0 0 0 0 0 0 0 0 0 0 0
    0 0 0 0 0 0 0 0 0 0 0 0 0 0 0 0 0 0 0 0 0 0 0 0 0 0 0 0 0 0 0 0 0 0 0 0 0 0 0 0 0 0 0 0 0 0 0 0 0 0 0 0 0 0 0 0 0 0 0 0 0 0 0 0 0 0 0 0 0 2830 0 0 0 0 0 0 2725 2628 2628 2628 2453 2537 2628 2230 2453 2374 2537 2628 2628 2628 2230 2453 2628 2374 2537 2537 2453 2374 2453 2830 2628 2628 2943 2943 2628 2299 0 0 0 0 0 0 2044 2164 2044 2102 2164 2102 2102 2044 2044 2164 2164 2230 2230 2230 1989 2164 2230 2230 2102 0 0 2102 2164 2628 2164 2044 2102 2299 2299 2230 2164 2044 2102 2044 2164 2230 2164 2230 2164 2102 2230 2230 2299 2164 2164 2102 1989 2044 2102 1887 1752 1672 1672 1672 1795 1635 1887 1752 1795 1795 1936 1936 1936 1989 2102 2102 2299 2230 2725 2164 2102 2299 2164 2299 2537 2299 2299 2374 2453 2628 1887 1989 2044 1936 1936 1936 1887 1795 1795 1752 1711 1635 1533 1471 1415 1415 1388 1314 1338 1338 1314 1338 1362 1338 1338 1338 1443 1291 1268 0 0 0 1226 0 529 514 514 521 0 0 0 1149 1149 1168 1187 1206 1206 1226 1226 1226 1247 1268 1268 1268 1247 1268 1291 1338 1338 1362 1338 1314 1338 1388 0 0 1132 1036 1168 1187 1187 1149 1206 1226 1247 1247 1338 1338 1338 1415 1711 1752 1752 1672 1635 1599 1635 1599 1533 1599 1362 1098 0 1415 1415 1388 1291 1314 1291 1291 1362 1314 1268 0 0 0 0 0 0 0 0 0 0 0 0 0 0 0 0 0 0 0 0 0 0 0 0 0
    0 0 0 0 0 0 0 0 0 0 0 0 0 0 0 0 0 0 0 0 0 0 0 0 0 0 0 0 0 0 0 0 0 0 0 0 0 0 0 0 0 0 0 0 0 0 0 0 0 0 0 0 0 0 0 0 0 0 0 0 0 0 0 0 0 0 0 0 0 0 0 0 0 0 0 0 0 0 2628 2628 2453 2453 2537 2164 2374 2374 2537 2628 2628 2628 2230 2453 2628 2374 2537 2537 2374 2374 2374 2830 2537 2537 2943 2943 2628 2453 2453 0 0 2830 0 2725 2044 2230 2164 2102 2164 2164 2164 2044 2044 2230 2164 2230 2230 2230 2044 2164 2230 2164 2102 2102 2102 2102 2164 2628 2164 2102 2164 2374 2374 2299 2299 2044 2164 2044 2230 2230 2164 2230 2164 2102 2230 2230 2299 2164 2164 2102 1989 2044 2164 1839 1711 1599 1672 1672 1752 1635 1887 1795 1839 1839 1989 1989 1989 2044 2164 2164 2374 2230 2725 2164 2164 2374 2230 2374 2537 2374 2299 2374 2453 2537 1887 2044 2044 1936 1936 1936 1887 1839 1795 1795 1711 1599 1533 1443 1388 1362 1338 1268 1314 1314 1314 1314 1362 1338 1338 1338 1471 1314 1268 0 0 1187 1226 0 529 518 0 521 0 0 0 1168 1149 1168 1206 1206 1226 1226 1226 1226 1247 1247 1268 1268 1247 1268 1268 1338 1314 1314 1314 1314 1314 1338 1291 0 1149 1036 1168 1187 1187 1168 1206 1226 1247 1247 1338 1314 1338 1388 1711 1752 1711 1599 1471 1501 1533 1565 1599 1672 1533 0 1635 1599 0 0 1268 1268 1268 1291 1362 1314 0 0 0 0 0 0 0 0 0 0 0 0 0 0 0 0 0 0 0 0 0 0 0 0 0 0
    0 0 0 0 0 0 0 0 0 0 0 0 0 0 0 0 0 0 0 0 0 0 0 0 0 0 0 0 0 0 0 0 0 0 0 0 0 0 0 0 0 0 0 0 0 0 0 0 0 0 0 0 0 0 0 0 0 0 0 0 0 0 0 0 0 0 0 0 0 0 0 0 0 0 0 0 0 0 2628 2537 2453 2453 2537 2164 2374 2374 2453 2537 2537 2537 2230 2453 2628 2374 2453 2537 2374 2374 2374 2725 2453 2453 2725 2830 2537 2374 2374 0 0 2628 0 2628 2044 2230 2230 2102 2230 2164 2164 2044 2102 2230 2164 2164 2230 2230 1989 2230 2230 2164 2102 2102 2102 2102 2164 2537 2164 2164 2230 2374 2453 2374 2299 2102 2164 2044 2299 2230 2230 2230 2164 2102 2230 2164 2299 2102 2164 2044 1989 1989 2102 1795 1672 1565 1635 1672 1752 1672 1887 1839 1887 1887 2044 2044 2044 2102 2230 2164 2374 2230 2830 2230 2299 2453 2230 2453 2628 2374 2374 2374 2453 2453 1887 2102 2044 1989 1989 1989 1936 1887 1839 1887 1711 1635 1533 1415 1362 1362 1314 1226 1291 1314 1291 1291 1362 1338 1338 1338 1443 1314 1268 1268 1168 1206 1226 1206 0 0 0 0 0 0 0 1132 1149 1168 1206 1206 1206 1206 1206 1226 1247 1247 1247 1247 1247 1268 1268 1314 1314 1338 1338 1362 1338 1362 1291 1268 1132 1036 1168 1206 1187 1168 1206 1226 1247 1247 1338 1314 1314 1388 1672 1672 1635 1533 1443 1501 1501 1565 1635 1635 1635 1565 1672 1711 0 0 0 1226 1247 1268 1338 1291 1247 0 0 0 0 0 0 0 0 0 0 0 0 0 0 0 0 0 0 0 0 0 0 0 0 0
    0 0 0 0 0 0 0 0 0 0 0 0 0 0 0 0 0 0 0 0 0 0 0 0 0 0 0 0 0 0 0 0 0 0 0 0 0 0 0 0 0 0 0 0 0 0 0 0 0 0 0 0 0 0 0 0 0 0 0 0 0 0 0 0 0 0 0 0 0 0 0 0 0 0 0 0 0 0 0 2537 2374 2453 2537 2102 2374 2299 2453 2537 2537 2537 2230 2453 2628 2374 2453 2537 2299 2299 2374 2725 2374 2374 2628 2725 2453 2453 2374 0 0 2628 0 2628 2044 2299 2299 2164 2230 2164 2164 2044 2102 2230 2102 2164 2230 2230 2044 2230 2230 2164 2102 2102 2102 2102 2164 2537 2102 2164 2299 2374 2537 2374 2299 2102 2164 2044 2299 2230 2230 2230 2164 2044 2230 2164 2230 2102 2102 1989 1936 1989 2102 1795 1672 1533 1635 1672 1752 1711 1887 1839 1936 1887 2044 2044 2102 2164 2230 2230 2374 2230 2725 2164 2299 2299 2164 2374 2453 2299 2374 2374 2453 2299 1839 2102 2102 2044 2044 2044 1989 1936 1936 2102 1752 1672 1565 1415 1362 1338 1291 1206 1268 1291 1291 1291 1338 1338 1338 1338 1471 1314 1268 1268 1168 1187 1206 1206 0 0 0 0 0 0 0 1149 1168 1168 1206 1206 1206 1206 1206 1206 1226 1247 1247 1247 1247 1268 1247 1291 1291 1314 1314 1314 1314 1338 1291 1268 1115 1022 1168 1206 1187 1187 1226 1247 1247 1268 1338 1314 1314 1388 1599 1533 1565 1501 1443 1501 1471 1533 1565 1565 1599 1471 1565 1672 0 0 0 1187 1206 0 1362 1338 0 0 0 0 0 0 0 0 0 0 0 0 0 0 0 0 0 0 0 0 0 0 0 0 0 0
    0 0 0 0 0 0 0 0 0 0 0 0 0 0 0 0 0 0 0 0 0 0 0 0 0 0 0 0 0 0 0 0 0 0 0 0 0 0 0 0 0 0 0 0 0 0 0 0 0 0 0 0 0 0 0 0 0 0 0 0 0 0 0 0 0 0 0 0 0 0 0 0 0 0 0 0 0 0 0 2537 2374 2374 2537 2102 2374 2299 2453 2537 2537 2537 2230 2453 2628 2374 2453 2537 2299 2299 2299 2628 2299 2374 2537 2628 2453 2374 2164 0 0 0 0 2537 2044 2374 2374 2230 2299 2230 2164 2102 2164 2299 2102 2102 2230 2230 2044 2299 2230 2102 2102 2102 2102 2102 2102 2453 2044 2164 2299 2453 2537 2374 2299 2102 2164 2044 2299 2164 2164 2164 2102 2044 2164 2102 2164 2044 2044 1989 1936 1989 1989 1752 1599 1443 1565 1635 1711 1752 1887 1887 1989 1936 2102 2102 2164 2230 2299 2299 2453 2299 2725 2164 2299 2164 2102 2453 2374 2299 2453 2453 2537 2164 1839 2102 2102 2044 2102 2044 1989 1989 1989 2374 1795 1752 1565 0 1362 1314 1268 1168 1247 1291 1291 1291 1338 1338 1338 1338 1471 1338 1291 1268 1226 1206 1247 0 0 0 0 0 0 0 0 1149 1168 1149 1187 1187 1206 1206 1206 1206 1226 1247 1268 1247 1268 1268 1268 1314 1314 1314 1338 1338 1338 1338 1268 1247 1132 1036 1187 1226 1187 1187 1226 1247 1247 1268 1314 1291 1291 1362 1501 1443 1501 1471 1415 1471 1443 1501 1533 1533 1565 1443 1501 1635 1501 0 0 1187 1206 1314 1388 1362 0 0 0 0 750 0 0 0 0 0 0 0 0 0 0 0 0 0 0 0 0 0 0 0 0 0
    0 0 0 0 0 0 0 0 0 0 0 0 0 0 0 0 0 0 0 0 0 0 0 0 0 0 0 0 0 0 0 0 0 0 0 0 0 0 0 0 0 0 0 0 0 0 0 0 0 0 0 0 0 0 0 0 0 0 0 0 0 0 0 0 0 0 0 0 0 0 0 0 0 0 0 0 0 0 0 2537 2374 2374 2453 2102 2374 2230 2374 2537 2537 2537 2230 2453 2628 2374 2453 2453 2299 2299 2299 2628 2299 2299 2453 2628 2453 2374 2044 0 2230 2230 0 2453 1989 2299 2299 2164 2230 2230 2102 2102 2164 2299 2102 2164 2230 2230 2044 2299 2164 2102 2102 2102 2102 2102 2102 2453 1989 2164 2374 2453 2725 2537 2374 2164 2230 2102 2299 2230 2164 2164 2044 2044 2102 2102 2102 2044 1936 1936 1839 1887 1795 1533 1443 1362 1501 1599 1711 1839 1936 1887 2044 1989 2164 2164 2230 2299 2374 2374 2537 2299 2830 2164 2299 1989 1936 2374 2230 2299 2537 2537 2628 2044 1795 2044 2044 1989 2044 1989 1989 1989 2044 2453 1887 1839 1599 0 1314 1268 1226 1132 1247 1268 1268 1268 1338 1338 1338 1338 1443 1362 1291 1268 1226 1206 1247 0 0 0 0 0 0 0 0 1132 1149 1149 1187 1168 1187 1206 1206 1206 1226 1247 1268 1247 1268 1268 1268 1338 1338 1338 1314 1362 1338 1338 1268 1247 1168 1051 1206 1226 1206 1206 1226 1247 1247 1268 1314 1291 1291 1362 1471 1388 1471 1443 1415 1443 1443 1501 1533 1501 1565 1471 1501 1635 1471 0 0 1226 1206 1291 1338 1362 1471 0 0 0 0 0 0 0 0 0 0 0 0 0 0 0 0 0 0 0 0 0 0 0 0 0
    0 0 0 0 0 0 0 0 0 0 0 0 0 0 0 0 0 0 0 0 0 0 0 0 0 0 0 0 0 0 0 0 0 0 0 0 0 0 0 0 0 0 0 0 0 0 0 0 0 0 0 0 0 0 0 0 0 0 0 0 0 0 0 0 0 0 0 0 0 2943 0 0 0 0 0 0 207 0 0 2537 2374 2453 2453 2164 2374 2299 2453 2453 2537 2537 2230 2453 2628 2374 2453 2537 2299 2299 2299 2628 2299 2230 2453 2537 2230 2102 1936 1839 1989 1989 2102 2230 1936 2230 2230 2164 2230 2164 2044 2102 2164 2299 2102 2164 2230 2230 2102 2374 2164 2102 2102 2102 2102 2102 2044 2374 1989 2299 2299 2453 2830 2628 2537 2374 2374 2230 2453 2374 2230 2230 2044 2044 2102 2102 2102 2044 1936 1989 1887 0 1752 0 1338 1314 1415 1565 1711 1839 1936 1887 2044 1989 2164 2164 2230 2299 2374 2374 2628 2374 2830 2102 2102 1839 1795 1936 1989 2102 2299 2453 2628 1989 1839 2044 2044 1989 1989 1989 1936 1936 2044 2453 1887 1839 1565 0 1291 1268 1226 1132 1226 1247 1268 1268 1314 1314 1314 1314 1415 1338 1291 1247 1168 1149 1187 1149 1187 1187 1206 1206 1206 1206 1206 1098 1132 1132 1187 1168 1187 1206 1206 1206 1226 1247 1268 1226 1247 1268 1247 1338 1362 1314 1314 1362 1338 1362 1314 1291 1247 1066 1226 1247 1226 1226 1247 1268 1268 1268 1338 1314 1314 1388 1471 1388 1471 1415 1415 1443 1415 1471 1501 1471 1565 1443 1501 1599 1471 1443 1291 1247 1247 1291 1338 1388 1565 0 2044 0 0 0 0 0 0 0 0 0 0 0 0 0 0 0 0 0 0 0 0 0 0 0
    0 0 0 0 0 0 0 0 0 0 0 0 0 0 0 0 0 0 0 0 0 0 0 0 0 0 0 0 0 0 0 0 0 0 0 0 0 0 0 0 0 0 0 0 0 0 0 0 0 0 0 0 0 0 0 0 0 0 0 0 0 0 0 0 0 0 0 0 0 2830 0 0 0 0 0 0 207 0 2537 2453 2299 2453 2453 2230 2374 2299 2453 2453 2537 2537 2230 2453 2628 2453 2453 2537 2299 2299 2299 2628 2299 2299 2374 2453 2164 1989 1936 1839 1989 1887 2044 2102 1936 2230 2230 2164 2230 2164 2044 2102 2164 2230 2044 2102 2164 2230 2102 2374 2164 2102 2164 2164 2164 2164 2102 2374 1989 2537 2299 2374 2943 2725 2830 2830 2830 2725 2830 2943 2830 2943 2453 2299 2537 2374 0 0 2164 2374 2044 0 0 0 1471 1362 1443 1565 1672 1839 1887 1887 2102 2044 2230 2230 2299 2453 2453 2453 2725 2453 2943 2164 2164 1839 1839 1936 1989 2164 2299 2453 2628 1989 1839 2044 1989 1936 1936 1936 1887 1936 2044 2374 1887 1839 1501 0 1291 1247 1206 1115 1226 1247 1247 1247 1314 1291 1291 1291 1362 1291 1268 1206 1168 1132 1149 1115 1149 1168 1187 1206 1187 1187 1187 1082 1132 1132 1187 1168 1187 1206 1206 1206 1226 1247 1268 1226 1268 1268 1247 1314 1388 1314 1314 1362 1338 1362 1314 1314 1268 1082 1226 1247 1226 1226 1268 1268 1268 1268 1362 1338 1338 1415 1533 1415 1471 1415 1388 1443 1415 1471 1501 1471 1533 1443 1471 1599 1443 1415 1291 1247 1247 1268 1291 1338 1471 1533 1936 1936 0 0 0 0 0 0 0 0 0 0 0 0 0 0 0 0 0 0 0 0 0 0
    0 0 0 0 0 0 0 0 0 0 0 0 0 0 0 0 0 0 0 0 0 0 0 0 0 0 0 0 0 0 0 0 0 0 0 0 0 0 0 0 0 0 0 0 0 0 0 0 0 0 0 0 0 0 0 0 0 0 0 0 0 0 0 0 0 0 0 0 0 2725 0 0 0 0 0 0 0 0 2537 2453 2299 2453 2374 2230 2374 2299 2453 2453 2537 2537 2230 2453 2628 2453 2453 2537 2299 2374 2299 2628 2299 2299 2453 2453 2164 2044 1936 1887 1936 1887 1989 2044 1936 2230 2230 2230 2299 2164 2044 2102 2230 2230 2044 2102 2164 2299 2102 2374 2164 2164 2230 2230 2230 2230 2164 2453 2102 2830 2537 2725 6133 6690 6133 5661 4599 4329 4088 4329 4088 4329 3504 0 0 0 0 0 0 0 0 0 0 0 1471 1338 1443 1599 1672 1887 1936 1887 2102 2044 2230 2230 2299 2453 2374 2453 2725 2537 2943 2374 2537 1936 1936 2044 2164 2299 2374 2537 2628 1936 1887 2044 1989 1936 1887 1887 1887 1936 2044 2374 1887 1839 0 0 0 1247 1226 1132 1226 1226 1247 1226 1291 1268 1268 1268 1338 1268 1226 1187 1168 1115 1149 1098 1149 1149 1149 1149 1149 1168 1168 1098 1132 1132 1187 1168 1187 1206 1206 1206 1226 1226 1247 1226 1247 1247 1206 1268 1314 1291 1291 1314 1338 1388 1388 1362 1314 1168 1247 1268 1247 1247 1268 1268 1268 1268 1362 1338 1338 1415 1533 1415 1471 1443 1415 1443 1415 1471 1501 1471 1533 1443 1471 1599 1415 1362 1268 1247 1247 1268 1291 1338 1443 1635 0 0 0 0 0 0 0 0 0 0 0 0 0 0 0 0 0 0 0 0 0 0 0 0
    0 0 0 0 0 0 0 0 0 0 0 0 0 0 0 0 0 0 0 0 0 0 0 0 0 0 0 0 0 0 0 0 0 0 0 0 0 0 0 0 0 0 0 0 0 0 0 0 0 0 0 0 0 0 0 0 0 0 0 0 0 0 0 0 0 0 0 0 0 2628 0 2725 2537 0 2537 0 0 2374 2537 2453 2299 2453 2374 2230 2374 2299 2453 2453 2537 2537 2230 2453 2628 2453 2453 2537 2374 2374 2374 2725 2374 2374 2453 2453 2230 2044 1936 1887 1936 1839 1887 1989 1936 2164 2164 2230 2230 2044 2044 2164 2164 2164 2044 2102 2102 2299 2164 2453 2164 2230 2230 2299 2299 2299 2164 2537 2102 2830 2537 0 8177 0 5661 4599 0 4088 4088 4599 4088 4599 3873 0 0 420 420 0 0 0 0 0 3504 0 0 0 1672 1711 1795 1989 1989 1887 2164 2102 2230 2230 2299 2453 2374 2374 2830 2628 2943 2453 2628 1989 1989 2044 2164 2374 2374 2537 2628 1936 1887 1989 1989 1887 1887 1887 1887 1887 2044 2230 1936 1887 0 0 1268 1247 1206 1115 1226 1226 1247 1247 1291 1291 1291 1268 1338 1268 1247 1206 1206 1168 1187 1149 1168 1115 1098 1082 1082 1098 1082 1051 1082 1098 1187 1149 1187 1206 1206 1206 1226 1226 1247 1206 1226 1206 1132 1187 1149 1187 1206 1206 1247 0 1362 1338 1314 1226 1291 1291 1268 1268 1291 1291 1291 1291 1388 1362 1338 1388 1501 1388 1443 1415 1388 1443 1415 1471 1501 1471 1501 1415 1443 1565 1388 1362 1268 1247 1226 1268 1268 1268 0 0 0 0 0 0 0 0 0 0 0 0 0 0 0 0 0 0 0 0 0 0 0 0 0 0
    0 0 0 0 0 0 0 0 0 0 0 0 0 0 0 0 0 0 0 0 0 0 0 0 0 0 0 0 0 0 0 0 0 0 0 0 0 0 0 0 0 0 0 0 0 0 0 0 0 0 0 0 0 0 0 0 0 0 0 0 0 0 0 0 0 0 0 0 0 2537 2537 2628 2453 2628 2537 2628 2628 2374 2453 2374 2299 2453 2299 2164 2374 2230 2374 2453 2453 2537 2164 2453 2537 2453 2453 2537 2374 2374 2374 2725 2374 2374 2453 2374 2164 1989 1887 1887 1887 1752 1795 1936 1936 2164 2164 2164 2164 1989 2044 2230 2230 2164 2044 2102 2164 2299 2164 2453 2164 2299 2299 2299 2299 2299 2164 2537 2164 2830 2374 0 0 0 0 0 0 5256 0 0 4906 5661 4088 0 0 413 420 0 0 3873 0 0 4088 0 0 0 0 0 0 2230 2102 1936 2230 2164 2299 2299 2299 2537 2374 2453 2830 2628 2830 2374 2453 2044 1989 1989 2044 2230 2299 2374 2537 1936 1887 1936 1989 1887 1887 1887 1887 1887 1989 2102 1887 1839 1471 0 1268 1247 1206 1115 1226 1226 1247 1226 1291 1268 1268 1247 1314 1226 1226 1187 1187 1168 1168 1149 1132 1098 1098 1066 1066 1082 1066 1051 1066 1082 1149 1115 1149 1187 1187 1187 1206 1206 1226 1206 1247 1187 1098 1132 1149 1168 1206 1268 1314 0 1501 1443 1388 1268 1314 1338 1291 1291 1314 1314 1338 1338 1443 1415 1388 1443 1533 1443 1471 1415 1388 1443 1415 1471 1471 1443 1471 1415 1443 1501 1388 1362 1291 1291 1268 1291 1291 0 0 0 0 0 0 0 0 0 0 0 0 0 0 0 0 0 0 0 0 0 0 0 0 0 0 0
    0 0 0 0 0 0 0 0 0 0 0 0 0 0 0 0 0 0 0 0 0 0 0 0 0 0 0 0 0 0 0 0 0 0 0 0 0 0 0 0 0 0 0 0 0 0 0 0 0 0 0 0 0 0 0 0 0 0 0 0 0 0 0 0 0 0 0 0 0 2537 2537 2628 2453 2628 2537 2628 2628 2299 2374 2374 2299 2453 2299 2164 2299 2230 2374 2374 2453 2453 2164 2374 2537 2453 2453 2537 2374 2374 2374 2725 2453 2453 2453 2299 2164 1936 1839 1839 1795 1672 1672 1839 1936 2164 2164 2164 2102 1936 2044 2230 2164 2164 2044 2164 2164 2374 2230 2453 2164 2299 2299 2374 2374 2374 2230 2537 2164 2830 2374 0 0 0 0 0 0 0 0 0 0 0 0 0 0 0 420 0 3504 4088 3873 5661 5256 5661 5661 5256 5256 3345 0 2374 2230 1936 2230 2164 2299 2299 2374 2537 2374 2453 2943 2628 2725 2230 2102 2044 1936 1936 1989 2102 2102 2164 2453 1887 1936 1936 1936 1887 1887 1887 1887 1887 1989 1989 1839 1839 1471 0 1268 1247 1226 1115 1226 1226 1247 1226 1291 1268 1247 1226 1268 1187 1206 1149 1115 1098 1082 1066 1082 1051 1036 1022 1022 1036 1036 1036 1051 1082 1132 1098 1132 1187 1168 1187 1206 1206 1226 1206 1226 1168 1066 1082 1082 1066 1051 1206 1268 0 1599 1533 1443 1338 1388 1415 1338 1314 1338 1338 1362 1362 1415 1388 1388 1415 1471 1415 1415 1388 1388 1415 1415 1443 1443 1415 1443 1415 1443 1501 1388 1388 1338 1338 1314 1338 1415 1471 0 0 0 0 0 0 0 0 0 0 0 0 0 0 0 0 0 0 0 0 0 0 0 0 0 0
    0 0 0 0 0 0 0 0 0 0 0 0 0 0 0 0 0 0 0 0 0 0 0 0 0 0 0 0 0 0 0 0 0 0 0 0 0 0 0 0 0 0 0 0 0 0 0 0 0 0 0 0 0 0 0 0 0 0 0 0 0 0 0 0 0 0 0 0 0 2537 2537 2628 2453 2537 2453 2537 2537 2299 2374 2374 2230 2453 2230 2164 2230 2230 2299 2374 2453 2453 2164 2453 2537 2453 2453 2628 2453 2453 2453 2830 2537 2537 2537 2374 2164 1936 1795 1752 1672 1599 1635 1752 1839 2044 2044 2102 1989 1936 2102 2230 2164 2102 2044 2102 2164 2374 2230 2453 2164 2374 2374 2374 2374 2374 2230 2537 2230 2830 2537 0 0 0 0 0 0 0 0 608 0 0 0 0 0 0 0 0 3345 3873 0 5661 5256 0 0 4906 5256 3345 0 2374 2230 1936 2230 2230 2299 2374 2374 2537 2374 2374 2943 2628 2628 2230 2044 2044 1989 1989 2044 2102 2044 2102 2374 1887 1936 1989 1989 1887 1887 1887 1887 1887 2044 1936 1795 1711 1443 0 1291 1268 1268 1149 1247 1247 1268 1247 1291 1247 1226 1187 1247 1168 1149 1066 1051 1051 1051 1036 1036 1022 1008 981 994 1022 1008 1022 1036 1051 1098 1082 1098 1187 1187 1187 1206 1206 1226 1206 1187 1132 1051 1051 1051 1036 1022 1168 1268 0 0 1672 1565 1388 1471 1501 1388 1338 1362 1362 1388 1388 1443 1415 1388 1388 1443 1388 1388 1362 1362 1388 1362 1388 1415 1388 1388 1362 1388 1443 1362 1362 1338 1362 1338 1388 1599 1635 0 0 0 0 0 0 0 0 0 0 0 0 0 0 0 0 0 0 0 0 0 0 0 0 0 0
    0 0 0 0 0 0 0 0 0 0 0 0 0 0 0 0 0 0 0 0 0 0 0 0 0 0 0 0 0 0 0 0 0 0 0 0 0 0 0 0 0 0 0 0 0 0 0 0 0 0 0 0 0 0 0 0 0 0 0 0 0 0 0 0 0 0 0 0 0 2453 2453 2537 2374 2537 2453 2537 2537 2299 2299 2299 2230 2374 2230 2164 2230 2230 2299 2453 2453 2453 2230 2453 2537 2537 2537 2725 2628 2537 2537 2830 2628 2628 2537 2374 2164 1936 1839 0 1711 0 1711 1795 1887 2044 2044 2102 1936 1989 2102 2164 2164 2102 2044 2102 2164 2453 2299 2453 2164 2374 2374 2374 2453 2374 2299 2537 2299 2830 2453 0 0 0 0 0 0 0 0 0 0 0 0 0 0 0 0 0 3066 0 0 4088 4599 0 0 3873 4088 3199 1989 2374 2230 1887 2230 2230 2230 2299 2299 2453 2374 2374 2943 2628 2537 2299 2102 2102 2044 2044 2102 2164 2102 2102 2230 1887 1989 1989 1989 1887 1887 1936 1887 1887 2044 1887 1711 1672 1415 0 1291 1291 1268 1187 1268 1247 1268 1247 1268 1206 1168 1132 1168 1082 1066 1022 1022 1022 1022 1008 1008 981 981 943 955 981 981 994 1008 1036 1082 1051 1066 1187 1168 1168 1187 1187 0 0 1132 1098 1066 1051 1051 1036 1036 1268 0 0 1711 1711 1672 1599 1672 1672 1501 1415 1415 1415 1443 1415 1443 1443 1388 1388 1443 1388 1338 1314 1314 1362 1338 1338 1338 1338 1338 1362 1362 1388 1338 1338 1338 1362 1362 1415 1672 1672 0 0 0 0 0 0 0 0 0 0 0 0 0 0 0 0 0 0 0 0 0 0 0 0 0 0
    0 0 0 0 0 0 0 0 0 0 0 0 0 0 0 0 0 0 0 0 0 0 0 0 0 0 0 0 0 0 0 0 0 0 0 0 0 0 0 0 0 0 0 0 0 0 0 0 0 0 0 0 0 0 0 0 0 0 0 0 0 0 0 0 0 0 0 0 0 2453 2374 2453 2230 2453 2374 2453 2453 2230 2164 2299 2230 2374 2164 2164 2230 2230 2230 2453 2374 2453 2230 2453 2537 2537 2537 2725 2628 2628 2628 2830 2628 2628 2628 2374 2164 1989 0 0 0 0 0 1887 1989 2102 2164 2164 1989 1989 2230 2164 2164 2102 2102 2164 2164 2537 2299 2453 2230 2453 2453 2453 2453 2453 2299 2628 2374 2830 2537 0 0 0 1887 1839 0 1635 1415 0 0 0 0 0 0 0 0 0 0 0 0 3873 0 0 0 4599 4329 3199 1989 2299 2164 1887 2164 2164 2164 2230 2230 2453 2299 2374 2830 2537 2537 2374 2230 2164 2164 2102 2164 2164 2102 2102 2102 1887 1989 1989 1989 1887 1887 1936 1887 1936 2044 1839 1672 1635 1415 0 1291 1268 1247 1187 1247 1226 1247 1226 1247 1149 1082 1066 1082 1051 1051 1008 1008 1008 994 994 994 968 968 931 931 943 955 981 994 1022 1051 1022 1051 1226 1187 1149 1168 1149 0 0 1115 1098 1066 1066 1066 1066 1132 1268 1314 1672 1711 1752 1752 1752 1795 1795 1711 1599 1501 1443 1471 1415 1388 1338 1338 1268 1314 1268 1247 1247 1206 1247 1268 1268 1314 1291 1291 1314 1314 1362 1338 1338 1314 1362 1338 1388 1672 1752 0 0 0 0 0 0 0 0 0 0 0 0 0 0 0 0 0 0 0 0 0 0 0 0 0 0
    0 0 0 0 0 0 0 0 0 0 0 0 0 0 0 0 0 0 0 0 0 0 0 0 0 0 0 0 0 0 0 0 0 0 0 0 0 0 0 0 0 0 0 0 0 0 0 0 0 0 0 0 0 0 0 0 0 0 0 0 0 0 0 0 0 0 0 0 0 2299 2299 2299 2102 2299 2230 2299 2299 2102 2102 2299 2230 2374 2164 2164 2164 2230 2230 2453 2374 2374 2230 2453 2537 2537 2537 2725 2628 2628 2628 2830 2628 2725 2628 2374 2230 2044 0 0 0 0 0 1989 2102 2230 2230 2230 1989 2044 2299 2164 2164 2102 2102 2164 2230 2628 2374 2453 2230 2453 2453 2453 2453 2453 2299 2628 2374 2830 2537 2830 0 2628 1887 0 1795 1711 1501 0 0 0 0 0 0 0 0 0 0 0 0 0 0 0 0 6133 4906 3345 2044 2230 2164 1887 2164 2164 2164 2164 2164 2374 2299 2374 2830 2537 2537 2453 2230 2230 2230 2164 2230 2230 2102 2102 2164 1887 2044 1989 1989 1936 1936 1936 1936 1936 2164 1839 1672 1533 1362 1314 1268 1247 1226 1149 1206 1206 1206 1187 1206 1066 1036 1022 1036 1022 1022 994 994 994 994 994 994 968 968 931 943 943 955 981 981 994 1036 994 955 0 0 1098 1098 1082 1066 0 1115 1098 1066 1082 1082 1098 1187 1247 1291 1565 1672 1711 1752 1795 1839 1795 1752 1672 1533 1415 1415 1362 1338 1247 1187 1082 1168 1149 1132 1149 1115 1168 1226 1247 1268 1268 1291 1291 1314 1338 1314 1314 1314 1338 1338 1388 1565 1565 1752 1839 0 0 0 0 0 0 0 0 0 0 0 0 0 0 0 0 0 0 0 0 0 0 0 0
    0 0 0 0 0 0 0 0 0 0 0 0 0 0 0 0 0 0 0 0 0 0 0 0 0 0 0 0 0 0 0 0 0 0 0 0 0 0 0 0 0 0 0 0 0 0 0 0 0 0 0 0 0 0 0 0 0 0 0 0 0 0 0 0 0 0 0 0 0 2299 2230 2164 2044 2164 2164 2164 2164 1989 1989 2230 2230 2299 2164 2164 2102 2164 2164 2453 2299 2374 2230 2453 2537 2537 2537 2725 2725 2628 2628 2830 2725 2725 2628 2453 2299 2044 0 0 0 0 1989 2102 2164 2299 2299 2164 1989 2044 2299 2164 2164 2102 2102 2164 2299 2725 2374 2537 2299 2453 2453 2453 2453 2374 2230 2537 2299 2830 2230 2725 0 1989 1795 1752 1752 1635 1471 1635 0 0 0 0 0 0 0 0 0 353 0 0 336 330 325 0 6133 3199 1989 2044 2044 1839 2164 2102 2102 2164 2164 2374 2299 2299 2830 2453 2453 2453 2299 2230 2230 2230 2299 2230 2164 2102 2164 1887 2044 2044 2044 1936 1989 1989 1989 1989 2164 1795 1501 1388 1314 1268 1247 1206 1168 1115 1168 1187 1187 1132 1115 1022 1008 994 1008 994 1008 981 994 994 994 994 994 968 968 931 955 955 955 981 968 994 1022 931 817 0 0 1008 1051 1051 0 0 1082 1066 1051 1082 1082 1115 1168 1247 1268 1501 1635 1711 1795 1795 1839 1795 1752 1672 1471 1362 1314 1314 1268 1187 1051 1066 1098 1098 1098 1132 1115 1149 1187 1226 1247 1226 1247 1268 1268 1291 1268 1268 1268 1314 1362 1415 1565 1599 1795 1887 2102 0 0 0 0 0 0 0 0 0 0 0 0 0 0 0 0 0 0 0 0 0 0 0
    0 0 0 0 0 0 0 0 0 0 0 0 0 0 0 0 0 0 0 0 0 0 0 0 0 0 0 0 0 0 0 0 0 0 0 0 0 0 0 0 0 0 0 0 0 0 0 0 0 0 0 0 0 0 0 0 0 0 0 0 0 0 0 0 0 0 0 0 0 2299 2164 2164 2044 2102 2102 2164 2102 1989 1989 2230 2230 2230 2164 2164 2102 2164 2164 2453 2299 2299 2230 2374 2453 2537 2537 2725 2725 2628 2628 2725 2725 2830 2628 2453 2299 2102 0 0 0 0 2044 2164 2230 2374 2374 2164 1989 2102 2374 2164 2164 2102 2164 2164 2453 2830 2453 2537 2374 2537 2453 2453 2453 2374 2230 2453 2164 2725 2044 2299 0 1839 1752 1711 1752 1599 1471 1599 0 0 0 0 0 0 0 0 359 353 0 0 336 331 328 0 6690 0 1936 0 1936 1839 2102 2102 2102 2102 2164 2299 2299 2299 2725 2374 2374 2374 2230 2230 2230 2230 2299 2230 2044 1887 1936 1839 1989 1989 1989 1936 1989 2044 2044 2044 2299 1795 1415 1291 1268 1206 1206 1168 1132 1098 1115 1132 1098 1051 1051 1008 981 981 981 968 981 955 981 981 968 981 968 943 955 931 943 908 908 943 897 943 994 836 743 0 0 0 0 0 0 0 1082 1066 1066 1098 1098 1098 1132 1247 1268 1338 1471 1565 1711 1711 1795 1711 1599 1533 1415 1362 1291 1268 1247 1168 1036 1036 1051 1066 1051 1082 1082 1098 1132 1206 1226 1187 1206 1247 1247 1268 1226 1226 1226 1268 1338 1415 1599 1599 1839 1989 2102 0 0 0 0 0 0 0 0 0 0 0 0 0 0 0 0 0 0 0 0 0 0 0
    0 0 0 0 0 0 0 0 0 0 0 0 0 0 0 0 0 0 0 0 0 0 0 0 0 0 0 0 0 0 0 0 0 0 0 0 0 0 0 0 0 0 0 0 0 0 0 0 0 0 0 0 0 0 0 0 0 0 0 0 0 0 0 0 0 0 0 0 0 2230 2102 2102 2044 2044 1989 2102 2044 1989 1936 2230 2230 2230 2230 2299 2102 2230 2164 2537 2299 2299 2299 2374 2453 2537 2537 2725 2725 2725 2725 2725 2830 2943 2725 2453 2299 2102 0 0 0 0 2164 2299 2374 2537 2537 2164 2044 2164 2374 2164 2164 2102 2102 2164 2537 2830 2453 2537 2374 2537 2453 2453 2453 2374 2164 2453 2102 2628 1989 2164 0 1795 1711 1672 1711 0 0 0 0 0 0 529 533 0 0 0 0 350 0 0 334 328 325 322 4599 2830 1936 0 1887 1839 2102 2102 2044 2102 2102 2230 2299 2299 2628 2299 2299 2230 2164 2164 2164 2164 2230 2164 1936 1795 1839 1795 1839 1936 1887 1839 1887 1887 1936 1887 1989 1711 1314 1247 1226 1168 1168 1168 1115 1082 1082 1098 1051 1036 1036 994 981 968 981 968 981 955 968 955 955 955 931 931 955 919 943 897 886 931 836 931 943 826 714 0 0 0 0 0 0 0 1066 1066 1066 1098 1132 1132 1149 1247 1268 1314 1388 1443 1635 1711 1752 1565 1362 1314 1314 1291 1226 1187 1149 1115 1036 1022 1051 1051 1036 1051 1051 1082 1082 1149 1187 1132 1149 1206 1206 1226 1206 1206 1187 1226 1291 1362 1501 1471 1752 1887 1795 0 0 0 0 1247 1362 1338 1314 0 0 0 0 0 0 0 0 0 0 0 0 0 0 0
    0 0 0 0 0 0 0 0 0 0 0 0 0 0 0 0 0 0 0 0 0 0 0 0 0 0 0 0 0 0 0 0 0 0 0 0 0 0 0 0 0 0 0 0 0 0 0 0 0 0 0 0 0 0 0 0 0 0 0 0 0 0 0 0 0 0 0 0 0 2102 2044 2102 1989 1936 1887 2044 2044 1989 1936 2230 2299 2230 2230 2374 2164 2299 2230 2537 2374 2374 2374 2374 2453 2628 2628 2725 2830 2725 2725 2725 2943 2943 2830 2628 2453 2299 2230 2453 2164 1989 2299 2374 2453 2537 2537 2164 2102 2230 2374 2102 2164 2102 2102 2102 2628 2943 2374 2537 2374 2537 2453 2453 2453 2374 2164 2453 2102 2537 1989 2164 2299 1887 1752 1752 1752 1672 1565 0 0 0 0 0 0 0 0 0 0 348 0 0 334 327 324 322 0 2725 1989 0 1839 1795 2044 2044 2044 2044 2044 2164 2230 2230 2628 2230 2230 2164 2230 2230 2164 2164 2164 2164 1887 1672 1752 1599 1565 1839 1795 1795 1839 1795 1839 1795 1887 1672 1291 1226 1206 1168 1149 1149 1098 1066 1066 1066 1036 1008 1008 981 955 955 968 943 955 943 955 943 931 943 897 886 908 897 931 865 836 855 774 0 0 0 0 0 1051 1051 1066 1066 1051 1051 1051 1051 1066 1098 1115 1115 1149 1206 1226 1268 0 1291 1443 1565 1533 1443 1362 1291 1291 1226 1098 1066 1051 1051 1008 1008 1022 1036 1022 1051 1051 1066 1066 1115 1168 1098 1098 1149 1132 1168 1115 1115 1098 1132 1247 1291 1338 0 0 1936 1795 0 1008 1022 1036 1082 1226 1247 1206 1149 0 0 0 0 0 0 0 0 0 0 0 0 0 0
    0 0 0 0 0 0 0 0 0 0 0 0 0 0 0 0 0 0 0 0 0 0 0 0 0 0 0 0 0 0 0 0 0 0 0 0 0 0 0 0 0 0 0 0 0 0 0 0 0 0 0 0 0 0 0 0 0 0 0 0 0 0 0 0 0 0 0 0 0 2102 2044 2102 1989 1989 1887 2044 2044 1989 1989 2299 2299 2299 2299 2453 2230 2299 2299 2628 2374 2374 2453 2374 2453 2628 2628 2725 2943 2830 2943 2830 3066 3199 2943 2943 2830 2830 2830 2725 2299 2102 2374 2374 2453 2537 2453 2102 2102 2299 2299 2102 2164 2102 2102 2102 0 3066 0 2628 2453 2537 2537 2453 2453 2299 2164 2453 2044 2453 1936 2164 2453 2044 1752 1795 1752 1711 0 0 0 0 0 0 0 0 0 0 0 352 0 340 334 328 324 321 0 2628 1989 0 1839 1795 2044 2044 2044 1989 2044 2102 2164 2164 2628 2102 2102 2164 2299 2299 2299 2230 2299 2230 1936 1711 1795 1565 1443 1795 1711 1711 1752 1711 1752 1672 1795 1533 1268 1206 1168 1132 1115 1132 1082 1066 1051 1051 1008 981 981 968 931 943 955 931 943 931 943 931 931 943 886 886 908 908 981 0 0 0 0 0 0 0 0 0 1051 1051 1066 1051 1036 1036 1051 1066 1082 1115 1115 1115 1149 1206 1206 1247 0 0 0 0 0 0 0 0 0 0 1098 1066 1051 1036 981 981 1008 1022 1022 1036 1036 1051 1051 1098 1132 1082 1082 1115 1082 1082 1066 1066 1066 1066 1168 1206 1226 0 0 1936 1752 0 1036 1036 1051 1098 1149 1132 1132 1098 1115 0 0 0 0 0 0 0 0 0 0 0 0 0
    0 0 0 0 0 0 0 0 0 0 0 0 0 0 0 0 0 0 0 0 0 0 0 0 0 0 0 0 0 0 0 0 0 0 0 0 0 0 0 0 0 0 0 0 0 0 0 0 0 0 0 0 0 0 0 0 0 0 0 0 0 0 0 0 0 0 0 0 0 2044 2044 2102 1989 1936 1887 2044 2044 1989 2044 2299 2299 2299 2299 2537 2374 2374 2453 2628 2299 2374 2453 2299 2453 2537 2537 2725 2830 2830 2830 2943 3066 3199 3199 3199 2943 2943 2943 2830 2374 2164 2374 2374 2374 2537 2374 2102 2164 2299 2299 2102 2164 2102 2102 2164 0 3066 2453 2628 2537 2537 2453 2453 2453 2299 2102 2374 1989 2299 1887 2044 2044 0 1752 1752 1711 1672 0 0 0 0 0 0 0 0 0 359 360 352 342 343 336 328 322 0 0 0 1936 0 1887 1839 2044 2102 2044 2044 2044 2102 2164 2102 2537 2044 2044 2102 2230 2230 2299 2230 2299 2299 1936 1672 1839 1533 1338 1711 1672 1672 1672 1635 1711 1599 1752 1471 1268 1187 1132 1098 1098 1098 1066 1051 1036 1036 1008 981 981 981 943 968 968 955 968 955 981 955 955 981 955 931 955 0 1599 1795 1795 1795 1887 1795 1443 1115 994 1036 1022 1036 1051 0 0 1036 1051 1051 1066 1098 1082 1098 1132 1187 1168 1206 0 0 0 0 0 0 0 0 0 0 0 0 1036 1022 968 981 994 1008 1008 1022 1022 1036 1036 1082 1115 1066 1066 1115 1082 1066 1036 1036 1036 1036 1098 1098 1022 994 1036 0 1226 1066 1022 1036 1051 1098 1115 1115 1082 1066 1066 0 0 0 0 0 0 0 0 0 0 0 0 0
    0 0 0 0 0 0 0 0 0 0 0 0 0 0 0 0 0 0 0 0 0 0 0 0 0 0 0 0 0 0 0 0 0 0 0 0 0 0 0 0 0 0 0 0 0 0 0 0 0 0 0 0 0 0 0 0 0 0 0 0 0 0 0 0 0 0 0 0 0 2102 2044 2230 2044 1989 1936 2044 2044 1989 2102 2374 2374 2374 2374 2537 2374 2374 2453 2725 2299 2374 2299 2102 2299 2299 2453 2628 2830 2725 2830 2943 3199 3199 3199 3199 2943 3066 2943 2943 2537 2374 2453 2453 2453 2537 2230 2164 2230 2299 2299 2164 2164 2102 2102 2230 0 3066 2453 2628 2453 2537 2453 2453 2453 2230 2044 2230 1936 2102 1839 1887 1795 0 0 0 0 0 0 0 0 0 0 0 0 0 362 0 0 353 0 0 337 0 0 0 0 0 1936 0 1936 1839 2102 2102 2044 2044 2044 2102 2102 2102 2453 1936 1936 1989 1936 2102 2164 2164 2230 2164 1936 1635 1839 1501 1291 1599 1599 1565 1599 1501 1533 1415 1635 1415 1247 1168 1098 1082 1082 1082 1051 1036 1036 1022 994 981 981 981 955 981 994 981 994 994 1008 994 981 994 1008 994 0 1839 1839 1887 1936 2044 1989 1936 1635 1206 0 1022 994 1036 1036 1051 0 0 1036 1036 1051 1098 1082 1082 1098 1149 1098 0 0 0 0 0 0 0 0 0 0 0 0 0 0 994 955 968 981 994 994 1008 1022 1022 1036 1082 1098 1051 1051 1082 1066 1051 1036 1022 1022 1022 1066 1066 1008 994 1008 1051 1051 1051 1036 1036 1066 1098 1115 1115 1098 1082 1082 0 0 0 0 0 0 0 0 0 0 0 0 0
    0 0 0 0 0 0 0 0 0 0 0 0 0 0 0 0 0 0 0 0 0 0 0 0 0 0 0 0 0 0 0 0 0 0 0 0 0 0 0 0 0 0 0 0 0 0 0 0 0 0 0 0 0 0 0 0 0 0 0 0 0 0 0 0 0 0 0 0 0 2102 2102 2299 2102 2044 1989 2102 2102 1989 2102 2299 2299 2299 2374 2537 2374 2374 2537 2628 2299 2299 2164 1989 2164 2164 2374 2537 2725 2725 2725 2943 3066 3199 3199 3066 2943 3066 2943 2943 2537 2453 2537 2537 2537 2628 2230 2164 2230 2299 2230 2164 2164 2102 2102 2230 2725 2830 2374 2537 2374 2374 2453 2453 0 2164 1936 2102 1887 1936 1795 1795 1711 1711 0 0 0 0 0 0 0 0 0 0 0 0 0 0 0 0 0 0 0 0 0 0 0 0 0 0 1989 1887 2102 2102 2044 2044 2044 2102 2102 2044 2374 1887 1887 1936 1795 2044 2102 2102 2164 2230 1936 1565 1795 1443 1268 1338 1443 1415 1443 1388 1338 1314 1388 1388 1247 1168 1098 1082 1066 1066 1051 1022 1022 1008 981 968 968 968 968 994 1008 1008 1008 1008 1022 1008 994 994 1008 994 0 1839 1887 1936 1936 2102 2044 0 0 1115 981 968 897 994 981 1022 1008 994 1022 1022 1036 1098 1115 1132 1149 1168 1098 0 0 0 0 0 0 0 0 0 0 0 0 0 981 981 968 968 981 994 994 1008 1008 1022 1022 1051 1066 1051 1036 1066 1051 1022 1008 1022 1022 1008 1036 1036 994 994 1051 1051 1066 1051 1036 1036 1066 1098 1098 1082 1082 1082 1066 1291 0 0 0 0 0 0 0 0 0 0 0 0
    0 0 0 0 0 0 0 0 0 0 0 0 0 0 0 0 0 0 0 0 0 0 0 0 0 0 0 0 0 0 0 0 0 0 0 0 0 0 0 0 0 0 0 0 0 0 0 0 0 0 0 0 0 0 0 0 0 0 0 0 0 0 0 0 0 0 0 0 0 2102 2164 2299 2102 2102 1989 2102 2102 1989 2164 2299 2299 2374 2374 2537 2374 2374 2628 2628 2164 2230 2102 1989 2102 2164 2374 2453 2725 2725 2725 2943 3199 3199 3199 3066 2943 3066 2943 2830 2537 2537 2537 2537 2628 2537 2164 2164 2299 2299 2164 2102 2164 2102 2102 2164 2628 2725 2299 2453 2299 2299 2374 2453 0 2102 1887 1989 1839 1887 1795 1795 1672 0 0 0 0 0 0 0 0 0 0 0 0 0 0 0 0 0 0 0 0 0 0 0 0 0 1936 2044 2044 1887 2164 2164 2044 2044 2044 2164 2044 2044 2374 1839 1839 1839 1711 0 0 0 0 0 0 0 1711 1388 1247 1226 1314 1314 1338 1314 1291 1268 1291 1362 1226 1168 1115 1082 1082 1066 1051 1022 1022 1008 968 955 981 981 981 994 1008 1008 1008 1008 1022 1008 1008 1008 1008 1008 0 1839 1887 1936 1936 2102 1936 0 0 1036 955 943 886 955 955 981 981 981 981 1008 1022 1098 1187 1149 1187 1187 1082 0 0 0 0 0 0 0 0 0 0 246 0 0 968 968 968 955 981 981 981 994 1008 1022 1022 1036 1036 1022 1008 1036 1022 994 981 994 994 1008 1022 1022 994 994 1036 1066 1066 1051 1036 1051 1066 1082 1098 1082 1066 1066 1066 1291 0 0 0 0 0 0 0 0 0 0 0 0
    0 0 0 0 0 0 0 0 0 0 0 0 0 0 0 0 0 0 0 0 0 0 0 0 0 0 0 0 0 0 0 0 0 0 0 0 0 0 0 0 0 0 0 0 0 0 0 0 0 0 0 0 0 0 0 0 0 0 0 0 0 0 0 0 0 0 0 0 0 2164 2164 2374 2164 2164 2044 2102 2102 1989 2102 2374 2374 2374 2374 2537 2453 2453 2628 2628 2102 2164 2044 1936 2102 2102 2374 2453 2628 2628 2725 2830 3066 3199 3066 2943 2943 2943 2830 2628 2453 2537 2537 2453 2537 2374 2164 2164 2374 2374 2164 2164 2164 2102 2102 2164 2537 2537 2230 2299 2230 2230 2374 2537 0 2044 1887 1989 1936 1989 1887 1887 1711 0 0 0 0 0 2628 2374 2453 2299 2230 2164 2230 0 2537 2102 0 0 0 0 2453 2374 2374 2537 2725 2628 1989 2164 2164 1936 2164 2230 2102 2102 2102 2164 2102 2044 2374 1839 1795 1795 1635 0 0 0 0 0 0 0 1471 1338 1226 1115 1206 1247 1291 1268 1226 1226 1226 1314 1247 1187 1132 1082 1082 1082 1051 1022 1022 1008 955 955 968 981 981 1008 1008 1022 1022 1022 1022 1008 1008 1008 1008 994 0 1887 1887 1989 1989 2230 1936 0 0 1022 931 897 886 931 931 955 968 981 981 994 1022 1066 0 1098 1206 1132 0 931 0 0 0 0 0 0 0 0 0 247 0 0 919 931 943 908 931 955 955 955 981 994 1008 994 1022 994 955 1022 1022 981 968 968 981 994 1022 1036 1008 1008 1051 1051 1051 1051 1036 1036 1051 1082 1082 1066 1066 1066 1051 1247 0 0 0 0 0 0 0 0 0 0 0 0
    0 0 0 0 0 0 0 0 0 0 0 0 0 0 0 0 0 0 0 0 0 0 0 0 0 0 0 0 0 0 0 0 0 0 0 0 0 0 0 0 0 0 0 0 0 0 0 0 0 0 0 0 0 0 0 0 0 0 0 0 0 0 0 0 0 0 0 0 0 2164 2164 2374 2164 2102 2044 2044 2044 1989 2102 2299 2299 2374 2374 2537 2537 2453 2725 2725 2299 2299 2102 1989 2102 2102 2299 2374 2628 2628 2725 2943 2830 3066 3066 2943 2943 2943 2830 2725 2453 2725 2628 2537 2537 2299 2230 2164 2299 2299 2102 2164 2102 2102 2102 2230 2453 2537 2230 2230 2164 2164 2299 2453 0 1989 1839 1936 1989 1989 1989 1936 1752 0 0 3199 2453 1989 2537 2374 2453 2453 2374 2299 2374 2453 2628 2374 0 0 0 0 2453 2374 2374 2453 2725 2628 2044 2299 2453 2044 2374 2374 2230 2164 2164 2299 2102 2044 2374 1795 1635 1533 1362 1082 955 865 886 886 897 897 0 1338 1168 1115 1149 1206 1247 1247 1187 1206 1206 1268 1226 1187 1115 1082 1098 1082 1051 1022 1008 1008 943 968 981 981 981 1008 1022 1022 1008 1022 1022 1008 1008 1008 1008 994 0 1887 1936 1989 2044 2164 1989 0 0 994 931 886 897 919 919 943 955 968 968 981 1008 1022 0 1082 0 0 0 855 0 0 0 0 0 0 0 0 0 0 0 931 897 919 919 919 919 955 943 943 955 994 994 981 994 955 886 943 968 919 943 955 968 994 1022 1036 1022 1022 1051 1051 1051 1051 1036 1036 1051 1082 1066 1066 1051 1051 1051 1226 0 0 0 0 0 0 0 0 0 0 0 0
    0 0 0 0 0 0 0 0 0 0 0 0 0 0 0 0 0 0 0 0 0 0 0 0 0 0 0 0 0 0 0 0 0 0 0 0 0 0 0 0 0 0 0 0 0 0 0 0 0 0 0 0 0 0 0 0 0 0 0 0 0 0 0 0 0 0 0 0 0 2230 2230 2374 2164 2164 2044 2044 2102 1989 2102 2299 2299 2374 2374 2453 2537 2453 2725 2725 2374 0 0 0 38 2044 2299 2299 2537 2628 2628 2943 2725 2943 3066 2943 2943 2830 2830 2830 2628 2830 2725 2628 2537 2374 2299 2230 2299 2299 2164 2164 2102 2164 2164 2299 2537 2628 2299 2230 2102 2164 2230 2374 0 1936 1795 1839 2044 2044 1989 1936 1752 0 0 3066 2537 1989 2453 2374 2453 2453 2453 2374 2374 2453 2725 2453 2725 0 0 0 0 2537 2628 2830 2830 2725 2102 2453 2537 2164 2453 2453 2299 2299 2230 2453 2164 2102 2374 1752 0 1291 1132 1022 968 908 897 886 886 886 908 931 931 994 0 0 1226 1206 1149 1168 1206 1247 1226 1132 1082 1066 1066 1051 1022 994 968 943 876 943 943 968 955 1008 1008 1008 1008 1008 1008 1008 994 1008 1008 994 0 1887 1887 1936 1989 1936 0 0 0 981 943 897 919 919 919 943 955 968 955 968 994 994 0 1051 0 0 0 0 0 0 0 0 0 0 0 0 0 0 0 931 897 908 919 908 908 919 919 908 919 968 955 943 968 919 876 886 955 865 897 943 955 981 1022 1008 1008 1008 1051 1051 1051 1051 1036 1036 1051 1066 1066 1051 1051 1051 1036 1187 0 0 0 0 0 0 0 0 0 0 0 0
    0 0 0 0 0 0 0 0 0 0 0 0 0 0 0 0 0 0 0 0 0 0 0 0 0 0 0 0 0 0 0 0 0 0 0 0 0 0 0 0 0 0 0 0 0 0 0 0 0 0 0 0 0 0 0 0 0 0 0 0 0 0 0 0 0 0 0 0 0 2299 2230 2374 2164 2230 2102 2044 2102 2044 2044 2230 2230 2299 2299 2453 2453 2453 2725 2725 2374 2453 2230 2164 2164 2044 2299 2374 2537 2628 2537 2943 2628 2943 3066 2943 2943 2943 2830 2830 2628 2725 2725 2537 2374 2299 2230 2164 2230 2164 2044 2044 2044 2102 2102 2299 2453 2537 2299 2230 2102 2102 2230 2374 2044 1887 1752 1752 2102 2044 2044 1936 1752 0 3199 3345 2725 2044 2537 2374 2453 2453 2453 2453 2374 2453 2725 2453 2725 2628 0 0 0 2830 3066 3066 2943 2725 2102 2537 2628 2299 2537 0 0 2374 2374 2537 2299 2164 0 1711 1268 1226 1036 1008 955 919 908 897 897 908 908 908 855 0 0 0 0 0 0 0 0 0 1226 1098 1036 1022 1008 1008 1008 981 955 931 876 943 968 994 981 1022 1022 1022 1008 1022 1022 1022 1008 1008 1008 994 0 1887 1887 1936 1989 1936 0 0 0 968 931 897 919 919 908 931 943 955 943 955 981 981 0 0 0 0 0 0 0 0 0 1036 1051 0 0 1036 1022 955 943 919 897 908 908 897 897 908 908 897 897 943 908 919 955 897 876 931 0 886 955 994 1022 1036 1066 1036 1022 1022 1051 1051 1051 1051 1036 1036 1051 1066 1066 1051 1036 1036 1036 1115 0 0 0 0 0 0 0 0 0 0 0 0
    0 0 0 0 0 0 0 0 0 0 0 0 0 0 0 0 0 0 0 0 0 0 0 0 0 0 0 0 0 0 0 0 0 0 0 0 0 0 0 0 0 0 0 0 0 0 0 0 0 0 0 0 0 0 0 0 0 0 0 0 0 0 0 0 0 0 0 0 0 2299 2230 2299 2164 2230 2102 2102 2164 2044 2044 2164 2230 2299 2230 2374 2453 2374 2628 2725 2374 2453 2299 2230 2230 2164 2453 2299 2537 2628 2374 2725 2453 2628 2943 2830 2830 2830 2830 2725 2628 2725 2725 2537 2453 2374 2230 2230 2230 2164 2102 2102 2102 2102 2102 2299 2453 2537 2299 2164 2044 2044 2230 2374 0 1839 1752 1711 2164 2044 2044 1887 1752 0 3066 3345 2725 2102 2537 2374 2453 2537 2537 2453 2374 2453 2725 2453 2725 2537 0 0 0 2628 3066 3066 2943 2725 2164 2537 2725 2374 0 0 0 0 0 2725 2628 2453 2537 1795 0 1187 1008 994 943 931 931 919 919 931 908 0 0 0 0 0 0 0 0 994 1022 1051 1115 0 0 1051 1036 1022 1008 1008 994 968 897 955 968 994 1008 1036 1036 1036 1022 1036 1036 1036 1022 1022 1008 994 0 1887 1887 1936 1989 1936 0 0 0 968 943 897 919 919 908 931 943 955 943 955 981 981 0 0 0 0 0 0 0 0 1066 1066 1051 1022 1036 1036 1022 955 931 919 897 908 908 897 897 897 908 897 897 931 919 955 981 943 955 1036 1082 1036 1022 1036 1066 1082 1098 1051 1036 1036 1051 1051 1051 1051 1036 1036 1051 1066 1066 1066 1066 1051 1051 1098 1206 0 0 0 0 0 0 0 0 0 0 0
    0 0 0 0 0 0 0 0 0 0 0 0 0 0 0 0 0 0 0 0 0 0 0 0 0 0 0 0 0 0 0 0 0 0 0 0 0 0 0 0 0 0 0 0 0 0 0 0 0 0 0 0 0 0 0 0 0 0 0 0 0 0 0 0 0 0 0 0 0 2299 2164 2230 2164 2230 2102 2044 2164 2044 1989 2102 2164 2230 2164 2299 2453 2299 2628 2725 2374 2453 2230 2230 2230 2102 2374 2164 2299 2374 2164 2537 2164 2299 2725 2537 2628 2725 2830 2628 2628 2725 2725 2537 2453 2374 2230 2164 2230 2102 2044 2044 2044 2044 2044 2164 2374 2537 2299 2164 2044 2102 2299 2453 0 1839 1752 1711 2230 2102 2044 1887 1752 0 0 3199 2628 2102 2537 2374 2453 2537 2537 2453 2374 2453 2725 2453 2725 2453 2102 0 0 2628 2943 2943 2830 2725 2230 2537 2830 2537 0 0 0 0 0 0 0 2725 0 1635 1226 1132 981 968 931 931 931 931 931 943 931 955 943 1008 1008 1008 994 1022 1008 1008 1036 1036 1066 1066 1051 1187 1168 1149 1098 1066 1051 1008 897 968 955 955 981 1022 1022 1022 1008 1022 1036 1036 1022 1008 1008 994 981 1839 1839 1887 1936 1752 0 0 865 943 931 897 919 919 908 931 943 955 943 943 981 981 0 0 0 0 0 0 0 0 1082 1066 1051 1036 1022 1022 981 897 908 908 886 897 897 897 897 897 908 908 897 943 943 955 968 931 968 1022 1066 1036 1036 1082 1115 1149 1149 1115 1066 1066 1082 1066 1066 1066 1051 1051 1051 1066 1066 1066 1082 1066 1051 1082 1132 0 0 0 0 0 0 0 0 0 0 0
    0 0 0 0 0 0 0 0 0 0 0 0 0 0 0 0 0 0 0 0 0 0 0 0 0 0 0 0 0 0 0 0 0 0 0 0 0 0 0 0 0 0 0 0 0 0 0 0 0 0 0 0 0 0 0 0 0 0 0 0 0 0 0 0 0 0 0 0 0 2299 2164 2164 2164 2230 2102 2044 2164 2044 1989 2102 2164 2164 2164 2299 2453 2299 2725 2725 2374 2453 2299 2230 2164 2102 2299 2044 2102 2164 1989 2299 2102 2102 2537 2453 2628 2628 2725 2628 2628 2725 2725 2537 2453 2374 2230 2164 2230 2102 2044 2044 2044 2044 2044 2164 2374 2537 2299 2164 2044 2164 2299 2537 0 1887 1752 1711 2374 2164 2102 1936 1795 2830 2830 3199 2537 2044 2453 2299 2453 2537 2453 2453 2374 2453 2725 2453 2725 2453 2102 0 2102 2537 2830 2830 2830 2628 2230 2453 2725 2374 0 0 0 0 0 0 0 0 0 1291 1149 0 968 943 931 931 931 919 931 943 931 943 931 968 968 955 981 1022 1008 1008 1022 1036 1051 1051 1082 1206 1226 1206 1168 1132 1098 1022 897 968 955 943 943 994 1008 994 994 1022 1022 1022 1022 1008 981 955 943 0 0 799 0 0 758 735 855 919 919 897 919 919 919 931 931 955 943 943 981 968 0 0 2453 0 2374 0 0 0 0 1066 1022 1022 994 981 908 876 886 886 876 886 876 876 876 886 886 886 886 919 908 931 931 908 931 981 1022 1022 1022 1082 1168 1187 1206 1206 1168 1149 1132 1098 1082 1066 1066 1051 1051 1051 1051 1051 1051 1051 1036 1051 1082 1187 0 0 0 0 0 0 0 0 0 0
    0 0 0 0 0 0 0 0 0 0 0 0 0 0 0 0 0 0 0 0 0 0 0 0 0 0 0 0 0 0 0 0 0 0 0 0 0 0 0 0 0 0 0 0 0 0 0 0 0 0 0 0 0 0 0 0 0 0 0 0 0 0 0 0 0 0 0 0 0 2299 2164 2164 2102 2164 2102 2044 2164 2044 1936 2102 2164 2230 2164 2299 2453 2374 2628 2725 2374 2537 2374 2299 2230 2164 2299 2102 2164 2164 1989 2164 2044 2044 2537 2537 2628 2628 2830 2537 2628 2628 2725 2453 2374 2299 2230 2102 2164 2102 2044 1989 1989 2044 2044 2102 2453 2628 2374 2230 2164 2299 2453 2628 0 1936 1752 1752 2537 2374 2374 2102 1936 2830 2943 3066 2628 2102 2453 2299 2453 2537 2537 2453 2374 2453 2725 2453 0 2453 2102 1989 2044 2453 2725 2725 2628 2537 2230 2230 2299 0 0 0 0 0 0 0 0 1206 1168 1247 0 0 0 943 931 931 919 919 919 943 931 943 931 931 908 931 943 994 994 994 1022 1036 1082 1098 1168 1291 1268 1291 1268 1247 1226 1051 931 981 968 968 943 981 994 994 981 1008 1008 1008 1008 1022 994 968 955 0 0 791 782 791 799 826 855 919 919 897 931 919 919 931 943 955 943 943 981 955 0 0 2943 0 0 0 799 0 0 1036 955 968 931 908 876 865 865 865 855 865 865 855 865 865 865 865 876 897 897 908 919 919 955 981 1008 1022 1051 1115 1187 1206 1206 1226 1206 1187 1168 1132 1098 1082 1066 1051 1051 1051 1051 1051 1036 1036 1022 1036 1051 1066 0 0 0 0 0 0 0 0 0 0
    0 0 0 0 0 0 0 0 0 0 0 0 0 0 0 0 0 0 0 0 0 0 0 0 0 0 0 0 0 0 0 0 0 0 0 0 0 0 0 0 0 0 0 0 0 0 0 0 0 0 0 0 0 0 0 0 0 0 0 0 0 0 0 0 0 0 0 0 0 2299 2164 2164 2164 2230 2102 2044 2230 2102 1936 2102 2102 2164 2164 2299 2453 2299 2537 2725 2453 2628 2453 2374 2299 2230 2374 2164 2164 2102 1936 2102 1989 1936 2374 2628 2628 2537 2725 2628 2537 2628 2725 2453 2299 2299 2299 2102 2164 2102 2044 2044 2044 2044 2102 2164 2537 2725 2453 2453 2299 2453 2725 0 0 1989 1752 1752 2537 2453 2453 2164 0 0 0 3199 2725 2102 2453 2299 2453 2537 2537 2453 2374 2374 2725 2453 0 2537 2102 0 0 0 0 0 2628 2537 2164 2044 1989 0 0 0 0 0 1206 1206 1206 1187 1149 1226 1115 0 0 955 931 919 919 931 931 943 943 943 919 897 886 897 908 955 981 981 1022 1051 1115 1132 1206 1314 1291 1268 1247 1226 1226 1051 955 981 981 968 943 981 994 981 981 1008 1008 1008 1008 1022 981 931 897 845 808 766 758 791 817 845 876 919 931 897 943 931 931 931 943 955 943 943 968 943 0 0 0 0 0 0 799 791 0 0 955 955 886 865 855 855 855 855 845 865 855 855 855 865 855 865 865 886 865 876 897 908 968 994 1036 1051 1082 1132 1187 1187 1187 1206 1187 1149 1168 1115 1115 1066 1066 1051 1036 1036 1036 1036 1036 1022 1008 1022 1022 1036 0 0 0 0 0 0 0 0 0 0
    0 0 0 0 0 0 0 0 0 0 0 0 0 0 0 0 0 0 0 0 0 0 0 0 0 0 0 0 0 0 0 0 0 0 0 0 0 0 0 0 0 0 0 0 0 0 0 0 0 0 0 0 0 0 0 0 0 0 0 0 0 0 0 0 0 0 0 0 0 2164 2164 2102 2164 2230 2102 2044 2230 2102 1989 2044 2102 2164 2102 2230 2453 2230 2537 2628 2537 2628 2537 2453 2374 2299 2453 2230 2230 2102 1936 2102 1936 1936 2453 2830 2725 2830 2943 2830 2725 2725 2830 2537 2374 2374 2230 2102 2102 2044 2044 1989 2044 2044 2044 2164 2628 2830 2537 2628 2537 2628 2943 3066 0 2044 1752 1711 0 0 0 0 0 0 0 0 2725 2102 2453 2299 2374 2453 2453 2374 2299 2299 2628 2299 0 0 0 0 0 0 0 0 2725 2537 2044 0 1711 0 1187 1226 1149 1168 1187 1187 1168 1149 1132 1226 1098 0 0 0 931 931 943 943 955 968 943 943 931 931 908 897 919 968 981 994 1036 1051 1082 1115 1206 1268 1268 1226 1206 1187 1168 1051 981 994 981 968 955 981 981 981 981 1008 994 994 994 1008 981 919 886 808 750 728 728 791 0 855 886 931 943 919 955 943 943 943 943 955 943 931 955 919 943 0 0 0 0 0 0 0 0 1066 968 955 865 855 845 855 845 845 845 855 855 845 845 845 855 855 855 855 855 865 876 908 968 1008 1051 1066 1098 1132 1149 1149 1149 1149 1149 1098 1098 1082 1066 1066 1051 1051 1036 1036 1022 1022 1022 1022 1008 1022 1008 1008 1008 0 0 0 0 0 0 0 0 0
    0 0 0 0 0 0 0 0 0 0 0 0 0 0 0 0 0 0 0 0 0 0 0 0 0 0 0 0 0 0 0 0 0 0 0 0 0 0 0 0 0 0 0 0 0 0 0 0 0 0 0 0 0 0 0 0 0 0 0 0 0 0 0 0 0 0 0 0 0 2102 2164 2102 2102 2374 2102 2164 2374 2164 1989 1989 2044 2102 1989 2102 2164 2044 2299 2537 2374 2628 2537 2374 2374 2230 2374 2230 2164 2102 0 0 0 0 0 2943 2830 3199 3066 2725 2830 2628 2725 2453 2299 2374 2164 2044 2164 1989 2044 1989 1989 1989 1936 2044 2725 2725 2537 0 2725 2830 3066 3066 3066 2164 1752 0 0 0 0 0 0 0 0 0 2725 2102 2453 2230 2374 2374 2374 2374 2230 2299 0 0 0 0 0 0 0 0 0 0 2628 2299 1887 0 1415 1338 1149 1206 1168 1168 1168 1187 1187 1149 1132 1187 1115 1115 1051 1022 994 0 1008 981 981 968 955 955 943 919 897 897 919 955 994 1008 1036 1066 1098 1098 1149 1247 1247 1206 1168 1149 1115 1051 1008 1008 994 981 968 981 994 981 981 994 994 994 981 994 981 931 865 782 0 721 0 0 0 865 908 943 955 943 955 955 955 955 943 955 931 931 943 908 919 0 0 0 0 0 0 0 0 1066 968 931 845 836 826 836 836 836 836 836 836 836 836 836 836 836 836 836 845 855 876 919 981 1022 1051 1082 1098 1132 1149 1115 1115 1115 1098 1082 1051 1051 1036 1036 1051 1036 1022 1022 1022 1022 1022 1022 1008 1008 1008 1008 1008 0 0 0 0 0 0 0 0 0
    0 0 0 0 0 0 0 0 0 0 0 0 0 0 0 0 0 0 0 0 0 0 0 0 0 0 0 0 0 0 0 0 0 0 0 0 0 0 0 0 0 0 0 0 0 0 0 0 0 0 0 0 0 0 0 0 0 0 0 0 0 0 0 0 0 0 0 0 0 2044 2102 2102 2102 2299 2102 2164 2374 2164 1989 1936 2044 2044 1936 2044 1989 1989 1989 0 0 0 0 0 0 0 0 0 0 0 0 0 0 0 0 0 0 3679 3199 2102 2537 2230 2453 2230 2230 2230 2044 1989 2044 1887 0 0 0 1839 1839 1936 2537 2628 0 0 2830 2943 2943 3066 2943 2299 0 0 0 0 0 0 0 0 0 0 0 0 2537 2299 2453 2453 2453 2374 2230 0 0 0 0 0 0 0 0 0 0 0 0 0 0 0 1362 1314 1149 1187 1187 1187 1168 1168 1168 1132 1132 1168 1115 1098 1082 1066 1036 1051 1051 994 981 981 968 968 943 943 897 919 931 968 981 981 1008 1036 1082 1082 1115 1226 1226 1206 1149 1098 1098 1066 1022 1022 1008 994 981 994 1008 994 981 1008 994 994 994 1008 968 908 0 728 675 0 0 0 0 0 919 955 968 943 955 955 968 955 931 955 931 919 931 908 908 919 0 0 0 468 0 0 0 1066 955 955 845 836 808 817 826 826 826 826 836 836 826 836 845 845 836 845 865 876 897 943 981 1008 1036 1051 1082 1132 1132 1115 1098 1115 1098 1082 1066 1051 1051 1051 1051 1022 1022 1022 1008 1008 1008 1008 994 994 994 1008 994 0 0 0 0 0 0 0 0 0
    0 0 0 0 0 0 0 0 0 0 0 0 0 0 0 0 0 0 0 0 0 0 0 0 0 0 0 0 0 0 0 0 0 0 0 0 0 0 0 0 0 0 0 0 0 0 0 0 0 0 0 0 0 0 0 0 0 0 0 0 0 0 0 0 0 0 0 0 0 1989 2044 2044 2102 2230 2102 2044 2453 2102 2044 1839 1989 1795 1752 0 0 0 0 0 0 0 0 0 0 0 0 0 0 0 0 0 0 0 0 0 0 0 0 2044 2453 2230 2453 2299 2374 2374 2102 2044 2164 1989 0 0 0 1887 0 0 0 0 75 0 0 2943 0 0 0 0 0 0 0 0 0 0 0 0 0 0 0 0 0 0 0 0 0 0 0 0 0 0 0 0 0 0 0 0 0 0 0 0 0 0 1338 1314 1149 1168 1187 1187 1149 1149 1168 1115 1115 1149 1115 1082 1066 1066 1051 1066 1082 1022 981 994 981 968 943 943 897 919 919 968 981 981 994 1022 1066 1098 1115 1247 1206 1168 1132 1082 1066 1036 1022 1008 1008 994 981 994 1022 994 981 994 981 994 994 0 968 0 0 0 629 629 0 0 0 0 0 0 981 955 968 968 994 981 955 968 955 943 943 943 931 931 0 0 0 471 0 0 481 0 0 0 836 836 808 826 826 826 826 826 836 836 836 845 855 845 845 855 886 897 919 955 968 994 1036 1051 1066 1115 1132 1098 1098 1098 1098 1098 1082 1066 1066 1051 1051 1022 1008 1008 994 994 994 994 981 994 994 994 981 994 0 0 0 0 0 0 0 0
    0 0 0 0 0 0 0 0 0 0 0 0 0 0 0 0 0 0 0 0 0 0 0 0 0 0 0 0 0 0 0 0 0 0 0 0 0 0 0 0 0 0 0 0 0 0 0 0 0 0 0 0 0 0 0 0 0 0 0 0 0 0 0 0 0 0 0 0 0 0 0 0 0 0 0 0 0 0 0 0 0 0 0 0 0 0 0 0 0 0 0 0 0 0 0 0 0 0 0 0 0 0 0 0 0 0 0 0 0 0 0 0 0 0 0 0 0 0 0 0 0 0 0 0 0 0 0 0 0 0 0 0 0 0 0 0 0 0 0 0 0 0 0 0 0 0 0 0 0 0 0 0 0 0 0 0 0 0 0 0 0 0 0 0 0 0 0 0 1338 1314 1168 1149 1187 1187 1149 1149 1168 1098 1098 1115 1098 1051 1036 1022 1036 1036 1051 1022 1008 1008 1008 994 968 968 931 955 968 994 1008 1008 1022 1051 1066 1082 1098 1187 1115 1098 1098 1051 1066 1051 1036 1022 1022 1008 1008 1008 1036 994 981 994 968 981 994 0 0 0 0 0 623 623 0 0 0 0 0 0 981 968 981 994 1008 994 968 981 968 955 955 955 943 943 0 955 0 0 0 0 481 0 0 0 0 836 817 826 826 826 826 826 836 836 845 855 855 855 865 876 897 908 919 943 955 981 1008 1022 1051 1098 1115 1098 1098 1098 1098 1082 1066 1066 1051 1036 1022 1008 994 981 931 943 968 968 955 968 968 968 968 994 0 0 0 0 0 0 0 0
    0 0 0 0 0 0 0 0 0 0 0 0 0 0 0 0 0 0 0 0 0 0 0 0 0 0 0 0 0 0 0 0 0 0 0 0 0 0 0 0 0 0 0 0 0 0 0 0 0 0 0 0 0 0 0 0 0 0 0 0 0 0 0 0 0 0 0 0 0 0 0 0 0 0 0 0 0 0 0 0 0 0 0 0 0 0 0 0 0 0 0 0 0 0 0 0 0 0 0 0 0 0 0 0 0 0 0 0 0 0 0 0 0 0 0 0 0 0 0 0 0 0 0 0 0 0 0 0 0 0 0 0 0 0 0 0 0 0 0 0 0 0 0 0 0 0 0 0 0 0 0 0 0 0 0 0 0 0 0 0 0 0 0 0 0 0 0 0 1338 1314 1187 1149 1187 1187 1149 1149 1168 1115 1082 1098 1082 1051 1036 1022 1036 1036 1036 1008 1008 1008 1008 994 981 955 931 955 968 994 994 1008 1022 1036 1051 1082 1082 1132 1066 1066 1066 1022 1051 1051 1036 1036 1036 1036 1022 1036 1098 994 994 981 955 943 968 0 0 0 0 657 629 0 0 0 0 0 0 981 981 981 994 1022 1036 1022 994 994 981 968 955 955 943 943 931 955 0 0 0 0 481 0 0 0 0 0 808 826 836 826 826 826 836 845 845 855 876 865 897 897 908 931 931 955 955 968 994 1008 1036 1051 1082 1082 1082 1082 1082 1066 1051 1036 1022 1008 981 968 968 943 876 908 931 931 931 955 943 931 943 0 0 0 0 0 0 0 0 0
    0 0 0 0 0 0 0 0 0 0 0 0 0 0 0 0 0 0 0 0 0 0 0 0 0 0 0 0 0 0 0 0 0 0 0 0 0 0 0 0 0 0 0 0 0 0 0 0 0 0 0 0 0 0 0 0 0 0 0 0 0 0 0 0 0 0 0 0 0 0 0 0 0 0 0 0 0 0 0 0 0 0 0 0 0 0 0 0 0 0 0 0 0 0 0 0 0 0 0 0 0 0 0 0 0 0 0 0 0 0 0 0 0 0 0 0 0 0 0 0 0 0 0 0 0 0 0 0 0 0 0 0 0 0 0 0 0 0 0 0 0 0 0 0 0 0 0 0 0 0 0 0 0 0 0 0 0 0 0 0 0 0 0 0 0 0 0 0 1338 1314 1206 1149 1187 1187 1149 1149 1168 1115 1098 1098 1082 1051 1051 1022 1036 1036 1036 1008 1008 1008 994 994 968 955 943 955 981 994 1008 1008 1022 1036 1051 1066 1066 1115 1051 1051 1051 1008 1051 1051 1051 1036 1036 1051 1051 1051 1168 1008 981 943 897 0 0 0 0 0 0 651 623 618 0 0 0 0 0 994 1008 994 994 1036 1036 1022 0 981 968 955 955 955 943 955 943 968 0 0 0 0 484 0 0 0 0 0 836 845 845 836 836 836 855 865 865 876 897 876 908 908 919 931 931 955 955 968 994 994 1022 1036 1051 1066 1051 1066 1051 1036 1022 1008 1008 994 955 943 919 908 855 865 908 897 908 919 919 908 943 994 0 0 0 0 0 0 0 0
    0 0 0 0 0 0 0 0 0 0 0 0 0 0 0 0 0 0 0 0 0 0 0 0 0 0 0 0 0 0 0 0 0 0 0 0 0 0 0 0 0 0 0 0 0 0 0 0 0 0 0 0 0 0 0 0 0 0 0 0 0 0 0 0 0 0 0 0 0 0 0 0 0 0 0 0 0 0 0 0 0 0 0 0 0 0 0 0 0 0 0 0 0 0 0 0 0 0 0 0 0 0 0 0 0 0 0 0 0 0 0 0 0 0 0 0 0 0 0 0 0 0 0 0 0 0 0 0 0 0 0 0 0 0 0 0 0 0 0 0 0 0 0 0 0 0 0 0 0 0 0 0 0 0 0 0 0 0 0 0 0 0 0 0 0 0 0 0 0 1291 1168 1115 1168 1149 1132 1149 1168 1115 1098 1098 1098 1051 1051 1022 1036 1022 1036 1008 994 994 981 981 968 955 943 968 981 1008 1008 1022 1022 1036 1051 1066 1051 1098 1008 1008 1022 994 1036 1022 1022 1008 1008 1036 1036 1036 1168 1008 968 897 876 0 0 0 0 675 0 639 629 623 0 0 629 0 0 981 1008 994 994 1036 1022 1022 981 981 968 955 955 955 955 955 955 981 0 0 0 0 493 0 0 0 484 0 845 865 865 855 855 865 876 886 886 897 919 897 931 919 919 931 931 943 955 955 994 994 1008 1036 1036 1036 1051 1051 1036 1022 1008 994 981 981 943 908 897 886 845 845 876 876 876 897 897 897 931 981 0 0 0 0 0 0 0 0
    0 0 0 0 0 0 0 0 0 0 0 0 0 0 0 0 0 0 0 0 0 0 0 0 0 0 0 0 0 0 0 0 0 0 0 0 0 0 0 0 0 0 0 0 0 0 0 0 0 0 0 0 0 0 0 0 0 0 0 0 0 0 0 0 0 0 0 0 0 0 0 0 0 0 0 0 0 0 0 0 0 0 0 0 0 0 0 0 0 0 0 0 0 0 0 0 0 0 0 0 0 0 0 0 0 0 0 0 0 0 0 0 0 0 0 0 0 0 0 0 0 0 0 0 0 0 0 0 0 0 0 0 0 0 0 0 0 0 0 0 0 0 0 0 0 0 0 0 0 0 0 0 0 0 0 0 0 0 0 0 0 0 0 0 0 0 0 0 1082 1206 1149 1082 1149 1149 1115 1132 1168 1115 1098 1098 1098 1051 1051 1036 1022 1022 1022 994 981 994 968 968 968 968 955 968 994 1008 1008 1036 1036 1051 1066 1082 1082 1149 1008 1022 1022 994 1008 1008 1008 1008 1008 1022 1008 1008 1098 1008 897 845 876 0 0 0 0 0 0 0 0 629 0 0 645 0 0 968 1008 981 994 1036 1022 1008 981 981 968 955 955 955 955 968 955 981 0 0 0 0 511 0 0 0 490 0 845 876 886 876 865 886 897 908 897 919 919 908 931 931 931 943 931 943 943 955 981 981 994 1008 1022 1022 1022 1036 1036 1022 1008 994 981 968 931 886 886 876 836 836 855 865 876 908 908 897 931 0 0 0 0 0 0 0 0 0
    0 0 0 0 0 0 0 0 0 0 0 0 0 0 0 0 0 0 0 0 0 0 0 0 0 0 0 0 0 0 0 0 0 0 0 0 0 0 0 0 0 0 0 0 0 0 0 0 0 0 0 0 0 0 0 0 0 0 0 0 0 0 0 0 0 0 0 0 0 0 0 0 0 0 0 0 0 0 0 0 0 0 0 0 0 0 0 0 0 0 0 0 0 0 0 0 0 0 0 0 0 0 0 0 0 0 0 0 0 0 0 0 0 0 0 0 0 0 0 0 0 0 0 0 0 0 0 0 0 0 0 0 0 0 0 0 0 0 0 0 0 0 0 0 0 0 0 0 0 0 0 0 0 0 0 0 0 0 0 0 0 0 0 0 0 0 0 0 1082 1149 1168 1066 1132 1149 1115 1115 1168 1115 1098 1098 1115 1066 1051 1036 1036 1022 1008 981 981 981 968 981 981 968 955 968 994 1008 1008 1022 1036 1036 1066 1066 1066 1132 1008 1022 1022 994 1008 1008 1008 1008 1008 1022 1008 1008 1066 1008 886 0 0 0 0 0 0 0 0 0 0 0 0 0 0 0 0 0 0 981 994 1036 1036 1022 968 981 968 968 968 968 955 968 955 981 0 0 0 0 518 0 0 0 0 0 855 886 908 897 876 897 897 908 897 919 919 908 931 943 931 943 931 955 943 943 955 968 981 994 994 1008 1008 1022 1022 1022 1008 994 981 955 919 886 886 876 845 836 855 865 876 908 919 897 931 0 0 0 0 0 0 0 0 0
    0 0 0 0 0 0 0 0 0 0 0 0 0 0 0 0 0 0 0 0 0 0 0 0 0 0 0 0 0 0 0 0 0 0 0 0 0 0 0 0 0 0 0 0 0 0 0 0 0 0 0 0 0 0 0 0 0 0 0 0 0 0 0 0 0 0 0 0 0 0 0 0 0 0 0 0 0 0 0 0 0 0 0 0 0 0 0 0 0 0 0 0 0 0 0 0 0 0 0 0 0 0 0 0 0 0 0 0 0 0 0 0 0 0 0 0 0 0 0 0 0 0 0 0 0 0 0 0 0 0 0 0 0 0 0 0 0 0 0 0 0 0 0 0 0 0 0 0 0 0 0 0 0 0 0 0 0 0 0 0 0 0 0 0 0 0 0 1051 1082 1115 1132 1066 1115 1149 1098 1115 1168 1115 1115 1115 1115 1066 1051 1036 1036 1022 1008 994 981 994 981 994 981 981 968 968 994 1008 1008 1022 1022 1022 1036 1051 1051 1082 1008 1008 1008 981 994 994 994 994 994 1022 1008 994 1022 1008 897 0 994 0 0 0 0 0 0 0 0 0 0 0 0 0 0 0 0 981 994 1036 1036 1022 968 981 968 968 968 968 968 968 955 994 0 0 0 0 0 0 0 0 0 0 865 919 931 908 886 897 897 919 897 919 919 908 931 943 931 955 931 955 931 955 955 955 968 981 981 994 994 1008 1008 1008 1008 994 968 955 908 886 886 886 845 836 845 855 865 876 886 876 886 2102 2044 1936 0 0 0 0 0 0
    0 0 0 0 0 0 0 0 0 0 0 0 0 0 0 0 0 0 0 0 0 0 0 0 0 0 0 0 0 0 0 0 0 0 0 0 0 0 0 0 0 0 0 0 0 0 0 0 0 0 0 0 0 0 0 0 0 0 0 0 0 0 0 0 0 0 0 0 0 0 0 0 0 0 0 0 0 0 0 0 0 0 0 0 0 0 0 0 0 0 0 0 0 0 0 0 0 0 0 0 0 0 0 0 0 0 0 0 0 0 0 0 0 0 0 0 0 0 0 0 0 0 0 0 0 0 0 0 0 0 0 0 0 0 0 0 0 0 0 0 0 0 0 0 0 0 0 0 0 0 0 0 0 0 0 0 0 0 0 0 0 0 0 0 0 0 1098 1082 1082 1115 1115 1082 1115 1149 1115 1132 1168 1149 1115 1115 1132 1066 1051 1022 1036 1022 1008 994 994 994 981 994 994 981 968 968 994 1008 1008 1022 1022 1022 1036 1036 1051 1066 994 994 994 981 981 981 981 981 994 1022 1008 1008 1008 1008 931 1022 994 955 0 0 0 0 0 0 0 0 0 0 0 0 0 0 0 955 981 1036 1036 1022 981 981 981 981 981 981 968 968 968 0 0 0 0 0 0 0 0 0 0 908 876 931 943 919 897 908 908 931 908 931 919 919 931 943 931 955 931 955 931 955 943 955 955 968 968 981 981 994 981 994 981 981 968 943 908 876 886 886 845 836 845 845 855 876 897 886 908 2164 2044 1887 2044 0 0 0 0 0
    0 0 0 0 0 0 0 0 0 0 0 0 0 0 0 0 0 0 0 0 0 0 0 0 0 0 0 0 0 0 0 0 0 0 0 0 0 0 0 0 0 0 0 0 0 0 0 0 0 0 0 0 0 0 0 0 0 0 0 0 0 0 0 0 0 0 0 0 0 0 0 0 0 0 0 0 0 0 0 0 0 0 0 0 0 0 0 0 0 0 0 0 0 0 0 0 0 0 0 0 0 0 0 0 0 0 0 0 0 0 0 0 0 0 0 0 0 0 0 0 0 0 0 0 0 0 0 0 0 0 0 0 0 0 0 0 0 0 0 0 0 0 0 0 0 0 0 0 0 0 0 0 0 0 0 0 0 0 0 0 0 0 0 0 0 0 1115 1098 1082 1098 1115 1082 1098 1168 1115 1132 1187 1168 1149 1149 1149 1098 1066 1036 1036 1022 1008 994 994 994 981 994 994 994 994 994 1008 1022 1022 1036 1051 1036 1036 1036 1051 1066 1008 994 1008 981 981 994 994 981 994 1022 1008 1008 1008 1008 943 1022 994 955 0 0 0 0 0 0 0 0 0 0 0 0 0 0 0 943 994 1036 1051 1022 981 994 981 981 981 981 968 968 968 0 0 0 0 0 0 0 0 0 0 919 886 943 943 919 897 919 908 931 908 931 931 919 931 943 931 955 931 943 931 943 931 955 955 955 955 968 968 981 968 994 968 968 955 931 897 876 886 908 855 845 845 845 865 897 919 897 0 0 2299 0 0 0 0 0 0 0
    0 0 0 0 0 0 0 0 0 0 0 0 0 0 0 0 0 0 0 0 0 0 0 0 0 0 0 0 0 0 0 0 0 0 0 0 0 0 0 0 0 0 0 0 0 0 0 0 0 0 0 0 0 0 0 0 0 0 0 0 0 0 0 0 0 0 0 0 0 0 0 0 0 0 0 0 0 0 0 0 0 0 0 0 0 0 0 0 0 0 0 0 0 0 0 0 0 0 0 0 0 0 0 0 0 0 0 0 0 0 0 0 0 0 0 0 0 0 0 0 0 0 0 0 0 0 0 0 0 0 0 0 0 0 0 0 0 0 0 0 0 0 0 0 0 0 0 0 0 0 0 0 0 0 0 0 0 0 0 0 0 0 0 0 0 0 1115 1098 1082 1098 1098 1098 1082 1168 1132 1149 1206 1226 1226 1226 1226 1187 1149 1066 1066 1036 1022 994 994 994 981 994 994 981 981 981 994 994 1008 1022 1022 1022 1036 1022 1051 1051 994 994 994 981 981 981 981 981 981 1008 994 994 994 1008 943 994 981 943 943 0 0 0 0 0 0 0 0 0 0 0 0 0 0 931 0 1022 0 1022 968 981 981 968 981 968 968 968 968 0 0 0 0 0 0 968 943 908 897 931 897 955 955 931 897 931 908 931 919 943 931 931 931 943 931 955 943 955 919 931 919 943 943 943 943 955 955 968 955 981 955 968 955 931 897 865 876 908 865 855 855 865 886 931 943 931 0 0 0 0 0 0 0 0 0 0
    0 0 0 0 0 0 0 0 0 0 0 0 0 0 0 0 0 0 0 0 0 0 0 0 0 0 0 0 0 0 0 0 0 0 0 0 0 0 0 0 0 0 0 0 0 0 0 0 0 0 0 0 0 0 0 0 0 0 0 0 0 0 0 0 0 0 0 0 0 0 0 0 0 0 0 0 0 0 0 0 0 0 0 0 0 0 0 0 0 0 0 0 0 0 0 0 0 0 0 0 0 0 0 0 0 0 0 0 0 0 0 0 0 0 0 0 0 0 0 0 0 0 0 0 0 0 0 0 0 0 0 0 0 0 0 0 0 0 0 0 0 0 0 0 0 0 0 0 0 0 0 0 0 0 0 0 0 0 0 0 0 0 0 0 0 0 1132 1132 1115 1098 1115 1115 1115 1206 1168 1206 1226 1268 1291 1314 1314 1247 1206 1098 1082 1051 1022 1008 1008 1008 981 994 994 994 994 994 1008 1008 1022 1036 1036 1036 1036 1022 1051 1051 994 994 994 981 955 968 968 968 981 1008 981 981 981 1008 955 1008 981 955 943 955 0 0 0 0 0 0 0 0 0 0 0 0 0 0 0 0 0 0 0 0 968 968 981 968 968 981 0 0 0 0 0 0 0 0 0 897 897 931 897 955 955 931 908 931 908 919 908 943 919 931 943 955 931 955 943 955 908 931 908 931 919 931 931 943 943 968 955 981 955 968 955 943 919 876 886 931 886 886 876 886 931 968 968 955 981 981 0 0 0 0 0 0 0 0
    0 0 0 0 0 0 0 0 0 0 0 0 0 0 0 0 0 0 0 0 0 0 0 0 0 0 0 0 0 0 0 0 0 0 0 0 0 0 0 0 0 0 0 0 0 0 0 0 0 0 0 0 0 0 0 0 0 0 0 0 0 0 0 0 0 0 0 0 0 0 0 0 0 0 0 0 0 0 0 0 0 0 0 0 0 0 0 0 0 0 0 0 0 0 0 0 0 0 0 0 0 0 0 0 0 0 0 0 0 0 0 0 0 0 0 0 0 0 0 0 0 0 0 0 0 0 0 0 0 0 0 0 0 0 0 0 0 0 0 0 0 0 0 0 0 0 0 0 0 0 0 0 0 0 0 0 0 0 0 0 0 0 0 0 0 0 1132 1132 1115 1132 1149 1168 1168 1291 1268 1291 1291 1314 1314 1338 1314 1226 1206 1098 1082 1051 1022 1008 1008 1008 994 1008 1008 1008 1008 994 1008 1008 1022 1022 1036 1036 1036 1022 1051 1036 1008 994 994 981 955 955 968 968 968 994 968 968 968 1022 1008 1036 1022 0 0 0 0 1388 1314 0 0 0 0 0 0 0 0 0 0 0 0 0 0 0 0 0 0 0 0 0 981 0 0 0 0 0 0 0 0 0 0 886 897 919 897 955 943 919 897 919 886 919 908 943 919 943 943 955 943 955 943 943 897 919 886 919 897 919 919 919 931 955 943 968 955 981 968 943 931 876 919 981 943 931 908 943 994 1008 994 968 968 0 0 0 0 0 0 0 0 0
    0 0 0 0 0 0 0 0 0 0 0 0 0 0 0 0 0 0 0 0 0 0 0 0 0 0 0 0 0 0 0 0 0 0 0 0 0 0 0 0 0 0 0 0 0 0 0 0 0 0 0 0 0 0 0 0 0 0 0 0 0 0 0 0 0 0 0 0 0 0 0 0 0 0 0 0 0 0 0 0 0 0 0 0 0 0 0 0 0 0 0 0 0 0 0 0 0 0 0 0 0 0 0 0 0 0 0 0 0 0 0 0 0 0 0 0 0 0 0 0 0 0 0 0 0 0 0 0 0 0 0 0 0 0 0 0 0 0 0 0 0 0 0 0 0 0 0 0 0 0 0 0 0 0 0 0 0 0 0 0 0 0 0 0 0 0 1132 1168 1168 1168 1187 1206 1206 1362 1388 1338 1314 1338 1338 1338 1338 1291 1247 1115 1115 1066 1036 1022 1022 1022 1022 1036 1022 1008 1022 994 1008 1008 1022 1022 1036 1036 1036 1022 1051 1036 1008 1008 994 981 968 968 981 981 981 1008 994 994 994 1036 1022 1051 1066 0 0 0 0 1388 1314 1314 1314 0 0 0 0 0 865 0 0 865 876 876 0 0 0 0 0 0 1098 1022 981 0 0 0 0 0 0 0 0 0 0 908 908 919 919 968 955 919 908 908 886 908 908 943 931 943 943 955 943 955 943 955 908 919 886 908 897 908 908 908 908 943 931 968 955 981 981 943 943 897 994 1008 994 994 994 1008 1036 1036 1008 981 994 0 0 0 0 0 0 0 0 0
    0 0 0 0 0 0 0 0 0 0 0 0 0 0 0 0 0 0 0 0 0 0 0 0 0 0 0 0 0 0 0 0 0 0 0 0 0 0 0 0 0 0 0 0 0 0 0 0 0 0 0 0 0 0 0 0 0 0 0 0 0 0 0 0 0 0 0 0 0 0 0 0 0 0 0 0 0 0 0 0 0 0 0 0 0 0 0 0 0 0 0 0 0 0 0 0 0 0 0 0 0 0 0 0 0 0 0 0 0 0 0 0 0 0 0 0 0 0 0 0 0 0 0 0 0 0 0 0 0 0 0 0 0 0 0 0 0 0 0 0 0 0 0 0 0 0 0 0 0 0 0 0 0 0 0 0 0 0 0 0 0 0 0 0 0 0 1168 1187 1187 1206 1226 1226 1226 1415 1501 1362 1314 1362 1338 1362 1362 1314 1314 1149 1168 1082 1051 1051 1051 1051 1051 1051 1051 1036 1051 1008 1022 1008 1022 1008 1022 1008 1008 1008 1022 1008 994 981 981 968 981 981 981 994 994 1008 1008 1036 1022 1082 1066 1082 1132 1132 1066 1149 1168 1268 1268 1247 1268 1206 1168 1149 1008 968 931 908 908 886 886 886 931 968 931 0 1168 1268 1226 1082 0 0 0 0 0 0 0 2628 0 0 0 0 943 943 943 994 968 919 908 897 876 908 908 943 931 955 955 955 943 955 943 955 908 919 886 908 897 908 908 897 897 931 919 968 955 981 994 981 1008 1008 1022 1036 1036 1022 1022 1036 1036 1022 1008 994 994 981 0 0 0 0 0 0 0 0
    0 0 0 0 0 0 0 0 0 0 0 0 0 0 0 0 0 0 0 0 0 0 0 0 0 0 0 0 0 0 0 0 0 0 0 0 0 0 0 0 0 0 0 0 0 0 0 0 0 0 0 0 0 0 0 0 0 0 0 0 0 0 0 0 0 0 0 0 0 0 0 0 0 0 0 0 0 0 0 0 0 0 0 0 0 0 0 0 0 0 0 0 0 0 0 0 0 0 0 0 0 0 0 0 0 0 0 0 0 0 0 0 0 0 0 0 0 0 0 0 0 0 0 0 0 0 0 0 0 0 0 0 0 0 0 0 0 0 0 0 0 0 0 0 0 0 0 0 0 0 0 0 0 0 0 0 0 0 0 0 0 0 0 0 0 0 1168 1187 1187 1206 1226 1247 1247 1415 1533 1415 1338 1362 1338 1338 1362 1338 1314 1149 1132 1082 1066 1066 1082 1066 1082 1066 1066 1082 1115 1036 1036 1022 1036 1022 1022 1008 1008 994 1008 994 994 968 968 968 981 994 994 994 1008 1022 1036 1115 1082 1082 1066 1066 1051 1051 1008 1036 0 0 1206 1187 1206 1149 1149 1149 994 981 943 919 908 897 886 0 0 0 0 0 0 0 1268 1132 0 0 0 0 1839 0 2830 2299 2044 0 0 0 0 994 994 1022 994 955 908 886 876 897 919 955 955 968 968 968 943 955 955 943 897 908 886 897 886 897 897 886 886 919 908 955 943 981 994 994 1022 1036 1051 1082 1098 1066 1082 1082 1036 1022 1008 994 994 981 1008 981 981 0 0 0 0 0
    0 0 0 0 0 0 0 0 0 0 0 0 0 0 0 0 0 0 0 0 0 0 0 0 0 0 0 0 0 0 0 0 0 0 0 0 0 0 0 0 0 0 0 0 0 0 0 0 0 0 0 0 0 0 0 0 0 0 0 0 0 0 0 0 0 0 0 0 0 0 0 0 0 0 0 0 0 0 0 0 0 0 0 0 0 0 0 0 0 0 0 0 0 0 0 0 0 0 0 0 0 0 0 0 0 0 0 0 0 0 0 0 0 0 0 0 0 0 0 0 0 0 0 0 0 0 0 0 0 0 0 0 0 0 0 0 0 0 0 0 0 0 0 0 0 0 0 0 0 0 0 0 0 0 0 0 0 0 0 0 0 0 0 0 0 0 1168 1206 1206 1226 1247 1268 1268 1415 1533 1443 1388 1415 1362 1362 1415 1338 1362 1187 1115 1066 1066 1082 1098 1098 1098 1082 1051 1098 1149 1051 1051 1036 1051 1036 1022 1036 1022 1008 1022 1008 994 955 943 968 981 994 1008 1008 1022 1036 1082 1168 1115 1098 1066 1022 994 994 955 955 981 0 1008 1036 0 1036 1022 1008 968 968 943 908 897 897 908 943 968 981 968 0 0 0 1187 1082 0 0 0 0 0 0 0 1989 1752 1565 0 0 0 1036 1022 1066 1008 968 931 919 897 908 955 981 981 994 994 981 955 955 968 943 897 897 876 886 876 886 886 876 876 919 908 943 943 981 1008 1008 1022 1022 1036 1098 1149 1132 1115 1098 1036 1022 1008 981 994 981 994 981 981 0 0 0 0 0
    0 0 0 0 0 0 0 0 0 0 0 0 0 0 0 0 0 0 0 0 0 0 0 0 0 0 0 0 0 0 0 0 0 0 0 0 0 0 0 0 0 0 0 0 0 0 0 0 0 0 0 0 0 0 0 0 0 0 0 0 0 0 0 0 0 0 0 0 0 0 0 0 0 0 0 0 0 0 0 0 0 0 0 0 0 0 0 0 0 0 0 0 0 0 0 0 0 0 0 0 0 0 0 0 0 0 0 0 0 0 0 0 0 0 0 0 0 0 0 0 0 0 0 0 0 0 0 0 0 0 0 0 0 0 0 0 0 0 0 0 0 0 0 0 0 0 0 0 0 0 0 0 0 0 0 0 0 0 0 0 0 0 0 0 0 0 0 1226 1226 1268 1291 1291 1291 1415 1533 1501 1443 1471 1388 1388 1501 1471 1599 1314 1314 1149 1132 1187 1206 1168 1168 1149 1168 1247 1268 1168 1132 1098 1098 1082 1066 1066 1036 1022 1022 994 981 955 943 981 994 1008 1008 1022 1051 1051 1082 1149 1098 1098 1066 1036 994 981 955 955 981 968 994 1008 981 1008 1008 981 955 943 943 908 897 908 919 943 968 981 968 968 0 1098 1098 1036 0 0 0 0 0 1226 0 0 1635 1471 0 0 0 0 0 0 0 955 908 0 886 876 955 981 994 1008 1022 1008 968 955 968 955 908 886 876 876 865 886 876 855 865 908 908 931 943 994 1082 1098 1226 1051 1149 1187 1226 1206 1187 1132 1036 1008 1008 994 994 994 1008 981 981 0 0 0 0 0
    0 0 0 0 0 0 0 0 0 0 0 0 0 0 0 0 0 0 0 0 0 0 0 0 0 0 0 0 0 0 0 0 0 0 0 0 0 0 0 0 0 0 0 0 0 0 0 0 0 0 0 0 0 0 0 0 0 0 0 0 0 0 0 0 0 0 0 0 0 0 0 0 0 0 0 0 0 0 0 0 0 0 0 0 0 0 0 0 0 0 0 0 0 0 0 0 0 0 0 0 0 0 0 0 0 0 0 0 0 0 0 0 0 0 0 0 0 0 0 0 0 0 0 0 0 0 0 0 0 0 0 0 0 0 0 0 0 0 0 0 0 0 0 0 0 0 0 0 0 0 0 0 0 0 0 0 0 0 0 0 0 0 0 0 0 0 0 0 1291 1338 1362 1362 1362 1415 1533 1533 1501 1501 1388 1388 1599 1672 0 0 1711 1362 1314 1314 1314 1247 1226 1206 1226 1247 1247 1168 1115 1098 1082 1051 1036 1022 1008 994 981 968 943 931 931 981 994 1008 1022 1051 1066 1066 1082 1168 1082 1082 1051 1036 1008 981 943 943 981 955 981 1008 994 1008 1008 994 968 968 968 931 908 919 931 943 968 981 968 968 1008 1022 1051 1022 0 0 0 0 0 1168 1168 0 1291 1268 1206 1132 1149 1098 0 1149 994 931 886 0 0 0 908 955 968 994 1022 1022 981 968 968 955 908 897 886 876 855 886 876 855 865 908 908 919 955 0 0 0 0 0 1226 1206 1226 1206 1187 1132 1051 1022 1008 1008 1051 1008 1051 994 994 0 0 0 0 0
    0 0 0 0 0 0 0 0 0 0 0 0 0 0 0 0 0 0 0 0 0 0 0 0 0 0 0 0 0 0 0 0 0 0 0 0 0 0 0 0 0 0 0 0 0 0 0 0 0 0 0 0 0 0 0 0 0 0 0 0 0 0 0 0 0 0 0 0 0 0 0 0 0 0 0 0 0 0 0 0 0 0 0 0 0 0 0 0 0 0 0 0 0 0 0 0 0 0 0 0 0 0 0 0 0 0 0 0 0 0 0 0 0 0 0 0 0 0 0 0 0 0 0 0 0 0 0 0 0 0 0 0 0 0 0 0 0 0 0 0 0 0 0 0 0 0 0 0 0 0 0 0 0 0 0 0 0 0 0 0 0 0 0 0 0 0 0 0 0 0 0 1471 1443 1415 1533 1533 1501 1501 1415 1362 1635 0 6690 0 9199 1936 1672 1501 1362 1291 1247 1247 1268 1291 1291 1115 1132 1132 1115 1082 1066 1051 1036 1022 0 981 919 908 908 981 1008 1022 1036 1051 1051 1066 1066 1132 1066 1066 1036 1022 1008 994 943 943 994 955 981 994 994 1008 1008 1008 981 968 981 955 931 931 931 919 943 943 931 931 955 1008 1022 994 981 0 0 0 0 0 1051 1226 1149 1066 1036 981 968 0 0 0 908 0 0 799 0 808 876 919 994 1008 1066 1036 994 968 968 955 908 897 876 865 855 876 876 855 865 919 897 919 955 0 0 0 0 0 0 1291 1291 1268 1206 1187 1082 1051 1082 1206 1247 1226 1168 1066 1051 0 0 0 0 0
    0 0 0 0 0 0 0 0 0 0 0 0 0 0 0 0 0 0 0 0 0 0 0 0 0 0 0 0 0 0 0 0 0 0 0 0 0 0 0 0 0 0 0 0 0 0 0 0 0 0 0 0 0 0 0 0 0 0 0 0 0 0 0 0 0 0 0 0 0 0 0 0 0 0 0 0 0 0 0 0 0 0 0 0 0 0 0 0 0 0 0 0 0 0 0 0 0 0 0 0 0 0 0 0 0 0 0 0 0 0 0 0 0 0 0 0 0 0 0 0 0 0 0 0 0 0 0 0 0 0 0 0 0 0 0 0 0 0 0 0 0 0 0 0 0 0 0 0 0 0 0 0 0 0 0 0 0 0 0 0 0 0 0 0 0 0 0 0 0 0 0 0 0 0 1501 1501 1501 1501 1415 1362 1635 6133 5661 0 0 6133 0 0 1338 1168 1115 1115 1132 1187 1187 1098 1098 1132 1115 1098 1066 1051 1022 0 0 981 931 908 919 994 1022 1036 1051 1051 1036 1051 1051 1098 1051 1051 1022 1008 994 994 955 931 968 919 955 968 968 994 1008 994 968 968 981 955 919 897 897 886 897 897 886 886 897 955 981 955 931 931 968 0 0 994 968 981 1008 981 994 897 886 0 0 865 0 0 0 799 0 826 876 876 994 981 1066 1051 1008 981 968 955 919 876 855 845 845 855 865 836 826 855 876 908 897 865 817 0 0 0 0 0 0 0 1247 1247 1168 1115 1226 0 0 1291 1206 0 0 0 0 0 0 0
    0 0 0 0 0 0 0 0 0 0 0 0 0 0 0 0 0 0 0 0 0 0 0 0 0 0 0 0 0 0 0 0 0 0 0 0 0 0 0 0 0 0 0 0 0 0 0 0 0 0 0 0 0 0 0 0 0 0 0 0 0 0 0 0 0 0 0 0 0 0 0 0 0 0 0 0 0 0 0 0 0 0 0 0 0 0 0 0 0 0 0 0 0 0 0 0 0 0 0 0 0 0 0 0 0 0 0 0 0 0 0 0 0 0 0 0 0 0 0 0 0 0 0 0 0 0 0 0 0 0 0 0 0 0 0 0 0 0 0 0 0 0 0 0 0 0 0 0 0 0 0 0 0 0 0 0 0 0 0 0 0 0 0 0 0 0 0 0 0 0 0 0 0 0 0 0 0 0 0 1362 1635 6133 5661 0 0 0 0 0 0 0 1036 1008 994 1036 1051 1036 1036 1098 1098 1066 0 0 175 0 0 0 0 0 0 1022 1036 1051 1051 1051 1036 1036 1036 1066 1036 1036 1008 1008 994 994 968 955 955 919 943 955 955 981 994 981 968 955 968 955 908 886 886 876 886 886 886 886 897 943 968 955 943 931 955 943 943 955 943 955 994 981 981 897 886 865 855 855 845 836 826 808 826 836 886 886 955 955 1022 1051 1008 981 981 981 943 919 876 865 855 855 865 845 817 836 865 897 836 836 817 0 0 0 0 0 1362 0 1226 1206 1098 1066 1187 0 0 0 0 0 0 0 0 0 0 0
    0 0 0 0 0 0 0 0 0 0 0 0 0 0 0 0 0 0 0 0 0 0 0 0 0 0 0 0 0 0 0 0 0 0 0 0 0 0 0 0 0 0 0 0 0 0 0 0 0 0 0 0 0 0 0 0 0 0 0 0 0 0 0 0 0 0 0 0 0 0 0 0 0 0 0 0 0 0 0 0 0 0 0 0 0 0 0 0 0 0 0 0 0 0 0 0 0 0 0 0 0 0 0 0 0 0 0 0 0 0 0 0 0 0 0 0 0 0 0 0 0 0 0 0 0 0 0 0 0 0 0 0 0 0 0 0 0 0 0 0 0 0 0 0 0 0 0 0 0 0 0 0 0 0 0 0 0 0 0 0 0 0 0 0 0 0 0 0 0 0 0 0 0 0 0 0 0 0 0 0 0 0 0 0 0 0 3873 0 0 1036 1008 0 0 0 0 0 0 0 0 0 0 0 0 0 0 0 0 0 0 0 0 1082 1051 1051 1036 1022 1022 1036 1022 1022 1008 994 981 981 955 955 943 897 919 931 931 968 981 981 955 955 968 943 897 876 886 876 886 886 886 886 908 931 968 955 943 919 931 931 931 943 943 955 981 968 955 886 886 855 845 845 845 826 826 817 826 836 876 886 897 897 955 1022 981 994 994 968 919 876 836 855 836 826 826 826 817 836 865 886 0 0 808 0 0 0 0 0 0 0 0 1082 1022 1008 1051 0 1268 1149 0 0 0 0 0 0 0 0
    0 0 0 0 0 0 0 0 0 0 0 0 0 0 0 0 0 0 0 0 0 0 0 0 0 0 0 0 0 0 0 0 0 0 0 0 0 0 0 0 0 0 0 0 0 0 0 0 0 0 0 0 0 0 0 0 0 0 0 0 0 0 0 0 0 0 0 0 0 0 0 0 0 0 0 0 0 0 0 0 0 0 0 0 0 0 0 0 0 0 0 0 0 0 0 0 0 0 0 0 0 0 0 0 0 0 0 0 0 0 0 0 0 0 0 0 0 0 0 0 0 0 0 0 0 0 0 0 0 0 0 0 0 0 0 0 0 0 0 0 0 0 0 0 0 0 0 0 0 0 0 0 0 0 0 0 0 0 0 0 0 0 0 0 0 0 0 0 0 0 0 0 0 0 0 0 0 0 0 0 0 0 0 0 0 0 0 0 0 0 0 0 0 0 0 0 0 0 0 0 0 0 0 0 0 0 0 0 0 0 0 0 0 1036 1036 1022 1022 1022 1008 1008 994 981 968 968 943 943 931 897 908 908 908 931 943 955 943 943 955 943 886 876 876 865 886 886 897 886 897 931 955 943 943 919 919 931 919 943 943 955 981 955 955 886 876 855 836 836 826 817 817 808 817 826 855 865 876 886 886 994 968 994 1022 968 919 0 0 836 817 808 808 817 817 826 855 0 0 0 808 0 0 0 0 0 0 0 0 981 968 968 981 0 1268 1082 0 0 0 0 0 0 0 0
    0 0 0 0 0 0 0 0 0 0 0 0 0 0 0 0 0 0 0 0 0 0 0 0 0 0 0 0 0 0 0 0 0 0 0 0 0 0 0 0 0 0 0 0 0 0 0 0 0 0 0 0 0 0 0 0 0 0 0 0 0 0 0 0 0 0 0 0 0 0 0 0 0 0 0 0 0 0 0 0 0 0 0 0 0 0 0 0 0 0 0 0 0 0 0 0 0 0 0 0 0 0 0 0 0 0 0 0 0 0 0 0 0 0 0 0 0 0 0 0 0 0 0 0 0 0 0 0 0 0 0 0 0 0 0 0 0 0 0 0 0 0 0 0 0 0 0 0 0 0 0 0 0 0 0 0 0 0 0 0 0 0 0 0 0 0 0 0 0 0 0 0 0 0 0 0 0 0 0 0 0 0 0 0 0 0 0 0 0 0 0 0 0 0 0 0 0 0 0 0 0 0 0 0 0 0 0 0 0 0 0 0 0 0 1022 1008 1008 1008 1008 994 994 981 981 968 955 943 919 897 897 886 886 897 908 919 919 908 931 908 876 865 876 865 876 865 876 876 886 908 931 931 919 919 919 919 919 931 931 955 968 955 931 876 865 845 826 826 817 808 808 808 817 817 845 845 855 876 876 0 994 1022 1066 0 0 0 0 0 836 817 808 817 808 826 845 845 0 0 0 0 0 0 0 0 0 0 0 919 865 943 943 0 0 0 0 0 0 0 0 0 0 0
    0 0 0 0 0 0 0 0 0 0 0 0 0 0 0 0 0 0 0 0 0 0 0 0 0 0 0 0 0 0 0 0 0 0 0 0 0 0 0 0 0 0 0 0 0 0 0 0 0 0 0 0 0 0 0 0 0 0 0 0 0 0 0 0 0 0 0 0 0 0 0 0 0 0 0 0 0 0 0 0 0 0 0 0 0 0 0 0 0 0 0 0 0 0 0 0 0 0 0 0 0 0 0 0 0 0 0 0 0 0 0 0 0 0 0 0 0 0 0 0 0 0 0 0 0 0 0 0 0 0 0 0 0 0 0 0 0 0 0 0 0 0 0 0 0 0 0 0 0 0 0 0 0 0 0 0 0 0 0 0 0 0 0 0 0 0 0 0 0 0 0 0 0 0 0 0 0 0 0 0 0 0 0 0 0 0 0 0 0 0 0 0 0 0 0 0 0 0 0 0 0 0 0 0 0 0 0 0 0 0 0 0 0 0 0 981 994 994 994 981 994 994 981 981 968 968 955 908 897 886 886 886 897 908 897 897 919 897 865 855 855 845 845 845 845 845 845 865 876 886 886 886 897 908 897 908 908 919 943 931 908 865 865 845 826 826 817 808 808 808 817 817 845 845 865 919 994 1036 0 1036 1098 0 0 0 0 0 0 0 0 817 817 817 836 836 0 817 0 0 0 0 0 0 817 826 826 0 0 669 0 0 0 0 0 0 0 0 0 0 0 0
    0 0 0 0 0 0 0 0 0 0 0 0 0 0 0 0 0 0 0 0 0 0 0 0 0 0 0 0 0 0 0 0 0 0 0 0 0 0 0 0 0 0 0 0 0 0 0 0 0 0 0 0 0 0 0 0 0 0 0 0 0 0 0 0 0 0 0 0 0 0 0 0 0 0 0 0 0 0 0 0 0 0 0 0 0 0 0 0 0 0 0 0 0 0 0 0 0 0 0 0 0 0 0 0 0 0 0 0 0 0 0 0 0 0 0 0 0 0 0 0 0 0 0 0 0 0 0 0 0 0 0 0 0 0 0 0 0 0 0 0 0 0 0 0 0 0 0 0 0 0 0 0 0 0 0 0 0 0 0 0 0 0 0 0 0 0 0 0 0 0 0 0 0 0 0 0 0 0 0 0 0 0 0 0 0 0 0 0 0 0 0 0 0 0 0 0 0 0 0 0 0 0 0 0 0 0 0 0 0 0 0 0 0 0 0 0 968 981 981 981 981 981 994 994 981 968 955 931 908 897 886 886 897 908 897 886 886 886 855 845 836 826 817 817 817 826 826 836 836 845 855 855 876 886 876 886 876 897 908 897 886 855 855 845 826 826 817 808 808 808 817 826 855 865 955 0 1051 1051 1036 1051 1168 0 0 0 0 0 0 0 0 826 0 0 836 845 0 826 0 0 0 0 845 836 808 0 0 0 0 0 0 0 339 328 0 0 0 0 0 0 0 0
    0 0 0 0 0 0 0 0 0 0 0 0 0 0 0 0 0 0 0 0 0 0 0 0 0 0 0 0 0 0 0 0 0 0 0 0 0 0 0 0 0 0 0 0 0 0 0 0 0 0 0 0 0 0 0 0 0 0 0 0 0 0 0 0 0 0 0 0 0 0 0 0 0 0 0 0 0 0 0 0 0 0 0 0 0 0 0 0 0 0 0 0 0 0 0 0 0 0 0 0 0 0 0 0 0 0 0 0 0 0 0 0 0 0 0 0 0 0 0 0 0 0 0 0 0 0 0 0 0 0 0 0 0 0 0 0 0 0 0 0 0 0 0 0 0 0 0 0 0 0 0 0 0 0 0 0 0 0 0 0 0 0 0 0 0 0 0 0 0 0 0 0 0 0 0 0 0 0 0 0 0 0 0 0 0 0 0 0 0 0 0 0 0 0 0 0 0 0 0 0 0 0 0 0 0 0 0 0 0 0 0 0 0 0 0 0 0 968 981 968 968 981 981 981 981 968 955 931 908 897 886 876 886 886 876 855 865 865 845 836 826 808 808 808 808 817 808 817 826 826 836 836 845 865 855 865 865 876 886 876 865 836 836 826 808 817 808 799 799 808 826 836 876 908 981 1036 1066 1051 1066 0 0 0 0 0 0 0 0 0 0 0 0 817 0 0 0 0 808 0 0 0 0 0 0 0 0 0 0 0 0 0 0 0 281 277 271 0 0 0 0 0
    0 0 0 0 0 0 0 0 0 0 0 0 0 0 0 0 0 0 0 0 0 0 0 0 0 0 0 0 0 0 0 0 0 0 0 0 0 0 0 0 0 0 0 0 0 0 0 0 0 0 0 0 0 0 0 0 0 0 0 0 0 0 0 0 0 0 0 0 0 0 0 0 0 0 0 0 0 0 0 0 0 0 0 0 0 0 0 0 0 0 0 0 0 0 0 0 0 0 0 0 0 0 0 0 0 0 0 0 0 0 0 0 0 0 0 0 0 0 0 0 0 0 0 0 0 0 0 0 0 0 0 0 0 0 0 0 0 0 0 0 0 0 0 0 0 0 0 0 0 0 0 0 0 0 0 0 0 0 0 0 0 0 0 0 0 0 0 0 0 0 0 0 0 0 0 0 0 0 0 0 0 0 0 0 0 0 0 0 0 0 0 0 0 0 0 0 0 0 0 0 0 0 0 0 0 0 0 0 0 0 0 0 0 0 0 0 0 0 981 968 968 981 968 968 968 968 955 931 908 897 886 876 876 865 845 836 845 845 836 826 826 799 808 808 808 817 808 817 817 817 826 826 836 845 845 865 855 865 886 865 855 826 826 817 799 808 799 799 799 817 826 836 865 897 943 981 1036 1008 0 0 0 0 0 0 0 0 0 0 0 808 799 799 808 817 0 0 0 0 0 0 0 0 0 0 242 238 0 0 0 0 0 0 272 268 263 0 0 0 0 0
    0 0 0 0 0 0 0 0 0 0 0 0 0 0 0 0 0 0 0 0 0 0 0 0 0 0 0 0 0 0 0 0 0 0 0 0 0 0 0 0 0 0 0 0 0 0 0 0 0 0 0 0 0 0 0 0 0 0 0 0 0 0 0 0 0 0 0 0 0 0 0 0 0 0 0 0 0 0 0 0 0 0 0 0 0 0 0 0 0 0 0 0 0 0 0 0 0 0 0 0 0 0 0 0 0 0 0 0 0 0 0 0 0 0 0 0 0 0 0 0 0 0 0 0 0 0 0 0 0 0 0 0 0 0 0 0 0 0 0 0 0 0 0 0 0 0 0 0 0 0 0 0 0 0 0 0 0 0 0 0 0 0 0 0 0 0 0 0 0 0 0 0 0 0 0 0 0 0 0 0 0 0 0 0 0 0 0 0 0 0 0 0 0 0 0 0 0 0 0 0 0 0 0 0 0 0 0 0 0 0 0 0 0 0 0 0 0 0 0 968 968 981 981 968 968 981 968 943 931 919 897 886 876 865 845 826 836 836 826 826 817 799 808 799 808 808 808 817 808 808 817 808 817 817 817 855 855 876 886 876 845 817 826 808 791 799 791 799 799 817 826 826 845 865 865 0 0 0 0 0 0 0 4088 0 0 0 0 0 721 782 0 0 0 0 0 0 0 0 0 0 0 0 249 245 242 237 238 242 243 242 244 0 0 266 263 0 0 0 0 0
    0 0 0 0 0 0 0 0 0 0 0 0 0 0 0 0 0 0 0 0 0 0 0 0 0 0 0 0 0 0 0 0 0 0 0 0 0 0 0 0 0 0 0 0 0 0 0 0 0 0 0 0 0 0 0 0 0 0 0 0 0 0 0 0 0 0 0 0 0 0 0 0 0 0 0 0 0 0 0 0 0 0 0 0 0 0 0 0 0 0 0 0 0 0 0 0 0 0 0 0 0 0 0 0 0 0 0 0 0 0 0 0 0 0 0 0 0 0 0 0 0 0 0 0 0 0 0 0 0 0 0 0 0 0 0 0 0 0 0 0 0 0 0 0 0 0 0 0 0 0 0 0 0 0 0 0 0 0 0 0 0 0 0 0 0 0 0 0 0 0 0 0 0 0 0 0 0 0 0 0 0 0 0 0 0 0 0 0 0 0 0 0 0 0 0 0 0 0 0 0 0 0 0 0 0 0 0 0 0 0 0 0 0 0 0 0 0 0 0 0 968 981 968 968 955 968 968 955 943 931 919 886 886 876 855 826 826 836 817 817 808 782 791 782 791 799 791 799 791 799 799 799 799 791 782 817 826 845 845 836 791 799 808 791 782 791 782 791 799 817 826 826 826 826 808 799 743 758 735 735 0 0 0 0 0 0 728 728 0 0 0 0 0 0 362 0 0 0 0 0 246 0 245 0 238 235 235 238 238 238 241 0 0 265 264 0 0 0 0 0
    0 0 0 0 0 0 0 0 0 0 0 0 0 0 0 0 0 0 0 0 0 0 0 0 0 0 0 0 0 0 0 0 0 0 0 0 0 0 0 0 0 0 0 0 0 0 0 0 0 0 0 0 0 0 0 0 0 0 0 0 0 0 0 0 0 0 0 0 0 0 0 0 0 0 0 0 0 0 0 0 0 0 0 0 0 0 0 0 0 0 0 0 0 0 0 0 0 0 0 0 0 0 0 0 0 0 0 0 0 0 0 0 0 0 0 0 0 0 0 0 0 0 0 0 0 0 0 0 0 0 0 0 0 0 0 0 0 0 0 0 0 0 0 0 0 0 0 0 0 0 0 0 0 0 0 0 0 0 0 0 0 0 0 0 0 0 0 0 0 0 0 0 0 0 0 0 0 0 0 0 0 0 0 0 0 0 0 0 0 0 0 0 0 0 0 0 0 0 0 0 0 0 0 0 0 0 0 0 0 0 0 0 0 0 0 0 0 0 0 0 0 968 968 968 968 968 968 955 955 943 919 897 886 876 865 836 826 826 817 817 791 766 774 766 774 791 782 782 782 782 791 782 791 782 766 782 766 791 766 766 750 766 782 766 766 782 774 782 782 808 808 808 799 774 735 750 721 735 728 735 0 0 0 0 0 0 0 0 0 0 0 0 0 0 0 0 0 0 0 0 0 243 241 238 238 235 236 238 240 238 242 0 254 260 260 0 0 0 0 0
    0 0 0 0 0 0 0 0 0 0 0 0 0 0 0 0 0 0 0 0 0 0 0 0 0 0 0 0 0 0 0 0 0 0 0 0 0 0 0 0 0 0 0 0 0 0 0 0 0 0 0 0 0 0 0 0 0 0 0 0 0 0 0 0 0 0 0 0 0 0 0 0 0 0 0 0 0 0 0 0 0 0 0 0 0 0 0 0 0 0 0 0 0 0 0 0 0 0 0 0 0 0 0 0 0 0 0 0 0 0 0 0 0 0 0 0 0 0 0 0 0 0 0 0 0 0 0 0 0 0 0 0 0 0 0 0 0 0 0 0 0 0 0 0 0 0 0 0 0 0 0 0 0 0 0 0 0 0 0 0 0 0 0 0 0 0 0 0 0 0 0 0 0 0 0 0 0 0 0 0 0 0 0 0 0 0 0 0 0 0 0 0 0 0 0 0 0 0 0 0 0 0 0 0 0 0 0 0 0 0 0 0 0 0 0 0 0 0 0 0 0 0 955 955 955 968 968 955 955 943 943 919 897 886 865 845 836 826 817 799 774 758 766 758 766 782 774 774 774 782 782 782 791 782 774 782 758 782 758 758 758 766 774 766 766 782 782 791 791 817 817 826 799 750 728 735 721 728 735 735 721 0 0 0 0 0 0 0 0 0 0 0 0 0 0 0 0 0 0 0 242 239 237 0 237 235 235 238 238 237 239 245 247 248 252 0 0 0 0 0
    0 0 0 0 0 0 0 0 0 0 0 0 0 0 0 0 0 0 0 0 0 0 0 0 0 0 0 0 0 0 0 0 0 0 0 0 0 0 0 0 0 0 0 0 0 0 0 0 0 0 0 0 0 0 0 0 0 0 0 0 0 0 0 0 0 0 0 0 0 0 0 0 0 0 0 0 0 0 0 0 0 0 0 0 0 0 0 0 0 0 0 0 0 0 0 0 0 0 0 0 0 0 0 0 0 0 0 0 0 0 0 0 0 0 0 0 0 0 0 0 0 0 0 0 0 0 0 0 0 0 0 0 0 0 0 0 0 0 0 0 0 0 0 0 0 0 0 0 0 0 0 0 0 0 0 0 0 0 0 0 0 0 0 0 0 0 0 0 0 0 0 0 0 0 0 0 0 0 0 0 0 0 0 0 0 0 0 0 0 0 0 0 0 0 0 0 0 0 0 0 0 0 0 0 0 0 0 0 0 0 0 0 0 0 0 0 0 0 0 0 0 0 0 955 955 968 968 955 968 955 943 931 919 908 876 855 845 836 826 808 766 743 758 750 758 774 766 766 766 774 782 774 782 782 774 791 782 799 782 791 774 782 791 782 791 799 799 808 817 836 836 855 817 774 735 735 728 735 735 728 0 0 0 0 0 0 0 0 0 0 0 0 0 0 0 0 0 0 0 0 242 240 239 236 237 235 236 237 237 237 238 238 242 242 0 0 0 0 0 0</data></depth>
</opencv_storage>
