<?xml version="1.0"?>
<opencv_storage>
<gps_time_stamp>286572</gps_time_stamp>
<gps_x>-1.2399797439575195e+001</gps_x>
<gps_y>1.1126317977905273e+001</gps_y>
<gps_z>-2.2223100662231445e+000</gps_z>
<image_time_stamp>277457</image_time_stamp>
<depth type_id="opencv-matrix">
  <rows>80</rows>
  <cols>320</cols>
  <dt>s</dt>
  <data>
    0 0 0 0 0 0 0 0 0 0 0 0 0 0 0 0 0 0 0 0 0 0 0 0 0 0 0 0 0 0 0 0 0 0 0 0 0 0 0 0 0 0 0 0 0 0 0 0 0 0 0 0 0 0 0 0 0 0 0 0 0 0 0 0 0 0 0 0 0 0 0 0 0 0 0 0 0 1599 1471 1599 1635 0 0 0 0 0 0 0 0 0 0 0 0 0 0 0 0 0 0 0 0 0 0 0 0 0 1533 1471 1501 1533 1599 1565 1533 1565 1533 1565 1599 1565 1565 1471 1471 0 0 0 1443 0 1415 1415 1501 1533 1443 1635 1635 1599 1599 1501 1501 1443 1443 1471 1471 1443 1415 1388 1415 1388 0 0 0 1415 1415 1443 1501 1501 1471 1443 1471 1533 1635 1635 1672 1672 1672 1672 1711 1599 1565 1533 1533 1501 1533 1471 1471 1471 1501 1501 1443 1471 1471 1471 1471 1471 1443 1471 1415 1471 1388 1415 1415 1415 1443 1443 1471 1501 1471 1471 1471 1443 1471 1388 1362 1314 1314 1314 1314 1338 1314 1338 1338 1443 1415 1415 1415 1415 1362 1362 0 1415 1533 1599 1635 1443 1443 1533 1533 1565 1471 1362 1362 1338 1362 1314 1268 1268 1247 1291 1247 1247 0 0 0 0 0 0 0 0 0 0 0 0 0 0 2725 0 0 0 0 0 0 0 0 0 0 876 817 1388 1362 1338 1388 1388 1388 1415 1415 1443 1388 1415 1501 1415 1415 1362 1291 1291 1247 1247 1247 1226 1247 1247 1247 1268 1226 1247 1226 1168 1206 1187 1149 1149 1132 1149 1149 1115 1168 1132 1115 1132 1132 1132 1168 1132 1187 1098 1115 1132 1132 0 0 0 0 0
    0 0 0 0 0 0 0 0 0 0 0 0 0 0 0 0 0 0 0 0 0 0 0 0 0 0 0 0 0 0 0 0 0 0 0 0 0 0 0 0 0 0 0 0 0 0 0 0 0 0 0 0 0 0 0 0 0 0 0 0 0 0 0 0 0 0 0 0 0 0 0 0 0 0 0 0 0 1635 0 1599 0 0 0 0 0 0 0 0 0 0 0 0 0 0 0 0 0 0 0 0 0 0 0 0 0 0 0 1443 1501 1533 1599 1533 1533 1533 1501 1565 1599 1599 1565 1471 1471 0 0 0 0 0 0 0 1443 1443 1443 1599 1635 1565 1599 1471 1501 1443 1443 1471 1471 1471 1443 1415 1471 1415 1471 1471 1471 1443 1443 1471 1501 1501 1565 1501 1533 1565 1635 1635 1672 1672 1635 1635 1635 1565 1533 1471 1501 1471 1501 1471 1471 1471 1501 1501 1471 1471 1471 1471 1471 1471 1471 1471 1415 1443 1388 1415 1415 1388 1443 1443 1471 1533 1501 1471 1471 1471 1471 1415 1338 1314 1291 1291 1291 1314 1291 1338 1338 1443 1471 1471 1471 1471 1388 1415 0 1501 1599 1635 1599 1443 1471 1533 1501 1565 1443 1362 1362 1338 1362 1291 1247 1226 1247 1291 1247 1226 0 0 0 0 0 0 0 0 0 0 0 0 0 0 2830 0 0 0 0 0 0 0 0 0 0 865 808 1388 1362 1338 1388 1388 1388 1388 1415 1415 1362 1388 1501 1415 1415 1362 1314 1314 1247 1268 1268 1247 1247 1268 1268 1268 1226 1247 1226 1168 1226 1187 1132 1132 1132 1149 1149 1115 1149 1115 1115 1115 1115 1132 1149 1115 1187 1098 1115 1115 1149 0 0 0 0 0
    0 0 0 0 0 0 0 0 0 0 0 0 0 0 0 0 0 0 0 0 0 0 0 0 0 0 0 0 0 0 0 0 0 0 0 0 0 0 0 0 0 0 0 0 0 0 0 0 0 0 0 0 0 0 0 0 0 0 0 0 0 0 0 0 0 0 0 0 0 0 0 0 0 0 0 0 0 1635 0 1635 0 0 0 0 0 0 0 0 0 0 0 0 0 0 0 0 0 0 0 0 0 0 0 0 0 0 0 1443 1471 1501 1565 1501 1533 1501 1501 1565 1635 1635 1599 1565 1501 0 0 0 0 0 0 0 1415 1443 1443 1635 1672 1599 1599 1533 1533 1443 1443 1471 1471 1471 1471 1443 1471 1415 1501 1533 1501 1501 1471 1501 1501 1501 1565 1501 1533 1533 1599 1635 1635 1672 1635 1599 1599 1533 1501 1471 1533 1501 1533 1501 1471 1533 1565 1565 1533 1533 1533 1501 1533 1565 1501 1533 1471 1471 1415 1471 1443 1388 1415 1443 1443 1501 1501 1471 1415 1415 1415 1388 1314 1314 1291 1291 1291 1338 1291 1338 1362 1443 1443 1471 1501 1471 1415 1533 1471 1599 1672 1711 1635 1471 1533 1533 1501 1533 1415 1362 1362 1362 1362 1291 1247 1247 1268 1314 0 0 0 0 0 0 0 0 0 0 0 0 0 3345 0 0 0 0 0 0 0 0 0 0 0 0 0 855 799 1415 1388 1338 1388 1388 1388 1388 1415 1415 1338 1388 1471 1415 1388 1362 1314 1314 1268 1268 1268 1247 1247 1268 1268 1268 1247 1247 1247 1168 1206 1187 1132 1132 1115 1149 1149 1115 1168 1115 1115 1115 1115 1115 1149 1115 1187 1098 1132 1149 1206 0 0 0 0 0
    0 0 0 0 0 0 0 0 0 0 0 0 0 0 0 0 0 0 0 0 0 0 0 0 0 0 0 0 0 0 0 0 0 0 0 0 0 0 0 0 0 0 0 0 0 0 0 0 0 0 0 0 0 0 0 0 0 0 0 0 0 0 0 0 0 0 0 0 0 0 0 0 0 0 0 0 0 1635 0 1599 1635 0 0 1752 0 0 0 0 0 0 0 0 0 0 0 0 0 0 0 0 0 0 0 0 0 0 1501 1415 1443 1443 1501 1471 1501 1443 1443 1501 1635 1635 1635 1635 0 0 0 0 0 0 0 0 1415 1501 1501 1752 1711 1672 1672 1565 1565 1471 1501 1501 1501 1501 1471 1443 1471 1415 1501 1533 1501 1471 1471 1501 1501 1533 1565 1533 1533 1565 1599 1599 1599 1672 1635 1599 1599 1565 1533 1501 1565 1533 1565 1533 1501 1599 1599 1599 1599 1565 1533 1533 1565 1599 1533 1565 1501 1501 1471 1533 1501 1415 1443 1443 1415 1471 1533 1501 1388 1388 1362 1338 1291 1314 1291 1291 1291 1338 1314 1338 1388 1501 1471 1565 1599 1565 1501 1635 1599 1672 1711 1711 1635 1471 1533 1533 1471 1501 1415 1362 1362 1362 1362 1268 1247 1247 0 1672 0 0 0 0 0 0 0 0 0 0 0 0 0 0 0 0 0 0 0 0 0 0 0 0 0 0 0 817 766 1415 1415 1338 1388 1388 1388 1388 1415 1415 1338 1388 1471 1415 1388 1362 1314 1314 1268 1268 1268 1247 1247 1268 1268 1268 1247 1247 1247 1168 1206 1187 1132 1115 1115 1149 1149 1115 1168 1115 1115 1115 1115 1115 1132 1098 1149 1082 1115 1132 1206 0 0 0 0 0
    0 0 0 0 0 0 0 0 0 0 0 0 0 0 0 0 0 0 0 0 0 0 0 0 0 0 0 0 0 0 0 0 0 0 0 0 0 0 0 0 0 0 0 0 0 0 0 0 0 0 0 0 0 0 0 0 0 0 0 0 0 0 0 0 0 0 0 0 0 0 0 0 0 0 0 0 0 0 0 0 1635 0 0 0 0 0 0 0 0 0 1635 1599 1635 1711 0 1672 1672 1711 0 0 0 0 0 0 0 0 1501 1415 1415 1415 1471 1471 1471 1388 1415 1471 1599 1635 1635 1635 0 0 0 0 0 0 0 0 1415 1471 1443 1635 1599 1599 1565 1533 1565 1471 1501 1533 1533 1533 1533 1501 1533 1471 1501 1565 1533 1501 1533 1533 1533 1565 1599 1599 1565 1565 1599 1599 1599 1635 1635 1635 1635 1565 1533 1501 1565 1533 1565 1533 1501 1635 1635 1672 1635 1599 1565 1565 1599 1599 1565 1533 1501 1471 1471 1533 1501 1443 1533 1501 1471 1565 1635 1599 1443 1471 1415 1388 1314 1338 1291 1314 1338 1362 1338 1362 1415 1565 1533 1599 1635 1635 1533 1635 1635 1672 1672 1672 1565 1471 1533 1565 1471 1501 1388 1362 1362 1388 1362 1247 1226 1226 0 1752 1936 1989 0 0 1711 0 0 0 0 0 0 0 0 0 0 0 0 0 0 0 0 0 0 0 0 0 0 0 782 1443 1415 1338 1388 1388 1415 1415 1415 1415 1338 1388 1501 1443 1415 1388 1338 1314 1268 1268 1247 1247 1247 1268 1268 1268 1247 1247 1247 1168 1206 1187 1132 1115 1115 1149 1149 1132 1168 1115 1115 1115 1132 1132 1132 1115 1149 1066 1115 1168 0 0 0 0 0 0
    0 0 0 0 0 0 0 0 0 0 0 0 0 0 0 0 0 0 0 0 0 0 0 0 0 0 0 0 0 0 0 0 0 0 0 0 0 0 0 0 0 0 0 0 0 0 0 0 0 0 0 0 0 0 0 0 0 0 0 0 0 0 0 0 0 0 0 0 0 0 0 0 0 0 0 0 0 0 0 0 0 0 0 0 0 0 0 0 0 1565 1533 1533 1599 1711 0 0 0 0 0 0 0 0 0 0 0 0 0 1415 1415 1443 1533 1471 1443 1314 1362 1443 1599 1672 1672 1635 1599 0 0 0 0 0 0 0 1443 1471 1533 1599 1565 1533 1565 1565 1565 1501 0 1533 1565 1565 1565 1565 1533 1471 1471 1533 1533 1501 1565 1565 1565 1599 1635 1635 1599 1599 1599 1565 1599 1635 1599 1565 1565 1533 1501 1471 1533 1599 1599 1533 1471 1599 1635 1672 1635 1599 1565 1565 1599 1599 1565 1533 1501 1471 1501 1533 1501 1471 1599 1533 1533 1599 1672 1635 1471 1533 1471 1415 1338 1338 1314 1338 1338 1388 1338 1388 1443 1599 1565 1635 1672 1635 1501 1635 1635 1672 1672 1672 1533 1471 1533 1599 1471 1471 1388 1388 1362 1388 1362 1247 1187 1187 0 1711 0 0 0 0 1672 0 0 0 0 0 0 0 0 3066 2943 0 0 0 0 0 0 0 0 0 1291 0 0 0 0 1443 1415 1338 1415 1415 1415 1415 1415 1443 1338 1388 1471 1415 1415 1362 1314 1314 1291 1247 1247 1247 1247 1268 1268 1247 1247 1226 1247 1168 1206 1187 1132 1115 1115 1149 1149 1132 1168 1115 1115 1132 1149 1132 1132 1132 1149 1115 1247 1314 0 0 0 0 0 0
    0 0 0 0 0 0 0 0 0 0 0 0 0 0 0 0 0 0 0 0 0 0 0 0 0 0 0 0 0 0 0 0 0 0 0 0 0 0 0 0 0 0 0 0 0 0 0 0 0 0 0 0 0 0 0 0 0 0 0 0 0 0 0 0 0 0 0 0 0 1795 1752 0 0 0 0 0 0 0 0 0 0 0 0 0 0 0 0 0 0 0 1533 1501 1599 0 0 0 0 0 0 0 0 0 0 0 0 1599 0 0 1471 1471 1565 1443 1388 1268 0 1388 1533 1599 1599 1599 1565 0 0 0 0 0 0 0 1471 1533 1635 1672 1635 1599 1635 1635 1635 0 0 1565 1565 1599 1599 1565 1533 1443 1443 1501 1501 1501 1565 1565 1565 1599 1635 1635 1599 1599 1635 1565 1565 1599 1533 1471 1471 1443 1443 1415 1471 1599 1565 1533 1501 1565 1635 1635 1635 1565 1565 1565 1599 1565 1565 1533 1501 1471 1501 1533 1501 1471 1599 1533 1533 1599 1672 1635 1471 1533 1501 1443 1338 1362 1338 1362 1362 1415 1362 1415 1443 1599 1565 1635 1635 1635 1501 1635 1635 1635 1635 1599 1533 1501 1533 1635 1471 1443 1388 1388 1388 1415 1362 1247 1149 1149 0 1599 0 0 0 0 1599 1635 0 0 0 0 0 0 0 3199 3066 0 0 0 0 0 0 0 0 1291 0 0 0 0 0 1443 1443 1362 1415 1415 1415 1415 1415 1443 1338 1388 1443 1415 1388 1362 1314 1314 1291 1247 1247 1247 1247 1247 1268 1247 1247 1226 1247 1187 1206 1187 1132 1115 1132 1149 1149 1149 1168 1132 1115 1132 1149 1149 1132 1149 1098 1168 1268 0 0 0 0 0 0 0
    0 0 0 0 0 0 0 0 0 0 0 0 0 0 0 0 0 0 0 0 0 0 0 0 0 0 0 0 0 0 0 0 0 0 0 0 0 0 0 0 0 0 0 0 0 0 0 0 0 0 0 0 0 0 0 0 0 0 0 0 0 0 0 0 0 0 0 0 0 1752 1711 1711 0 0 0 0 0 0 0 0 0 0 0 0 0 0 0 0 0 0 1533 0 0 0 0 0 0 0 0 0 0 0 1752 1635 1711 1672 1635 1635 1672 1672 1711 1533 1471 1268 0 0 1501 1501 1501 1565 1501 0 0 0 0 0 0 0 1501 1599 1672 1672 1672 1635 1672 1711 1672 1635 0 1565 1599 1599 1599 1533 1471 1415 1415 1471 1471 1471 1565 1565 1565 1565 1635 1635 1599 1565 1599 1533 1533 1565 1533 1471 1443 1443 1443 1415 1443 1565 1533 1565 1501 1533 1635 1635 1635 1565 1565 1565 1565 1533 1599 1501 1501 1471 1501 1533 1471 1443 1565 1501 1501 1565 1672 1599 1471 1565 1501 1471 1388 1415 1388 1415 1415 1471 1415 1443 1501 1599 1599 1635 1599 1599 1501 1599 1599 1599 1565 1565 1471 1501 1501 1599 1471 1443 1388 1415 1415 1471 1388 1247 1149 1168 0 0 0 0 0 0 1471 1565 0 0 0 1635 1565 0 0 0 0 0 0 0 0 0 0 0 0 1268 0 0 0 0 0 1471 1471 1362 1415 1415 1415 1443 1415 1443 1338 1362 1443 1388 1388 1362 1314 1314 1291 1247 1247 1247 1247 1247 1268 1247 1247 1226 1268 1187 1206 1187 1132 1115 1132 1149 1168 1149 1187 1132 1132 1149 1168 1149 1149 1168 1051 1206 0 0 0 0 0 0 0 0
    0 0 0 0 0 0 0 0 0 0 0 0 0 0 0 0 0 0 0 0 0 0 0 0 0 0 0 0 0 0 0 0 0 0 0 0 0 0 0 0 0 0 0 0 0 0 0 0 0 0 0 0 0 0 0 0 0 0 0 0 0 0 0 0 0 0 0 0 0 1711 1711 1711 1672 0 0 0 0 0 0 0 0 0 0 0 0 0 0 0 0 0 0 0 0 0 0 0 0 0 0 0 0 0 1672 1599 1672 1672 1672 0 0 0 1795 1711 1672 1338 0 1388 1501 1443 1443 1533 1501 0 0 0 0 0 0 1533 1565 1635 1672 1672 1672 1672 1672 1711 1711 1635 1635 1565 1565 1599 1565 1501 1443 1415 1415 1443 1471 1443 1565 1565 1565 1565 1635 1635 1599 1565 1599 1565 1565 1565 1565 1501 1471 1501 1501 1471 1471 1533 1533 1533 1501 1471 1635 1599 1599 1565 1565 1565 1565 1501 1599 1471 1471 1443 1501 1501 1471 1443 1533 1443 1443 1501 1635 1565 1443 1533 1501 1471 1388 1415 1388 1415 1415 1471 1415 1443 1501 1599 1599 1599 1599 1565 1501 1565 1599 1565 1565 1533 1471 1501 1533 1599 1533 1443 1415 1443 1443 1599 1415 1226 1082 0 0 0 0 0 0 0 0 0 0 0 0 0 0 0 0 0 0 0 0 0 0 0 574 0 0 1247 0 0 0 0 0 1501 1501 1388 1443 1443 1443 1443 1443 1443 1338 1362 1415 1388 1362 1338 1314 1314 1314 1247 1247 1247 1226 1247 1247 1247 1226 1206 1268 1187 1206 1206 1132 1115 1132 1149 1168 1149 1187 1149 1149 1149 1187 1149 1168 1132 0 0 0 0 0 0 0 0 0 0
    0 0 0 0 0 0 0 0 0 0 0 0 0 0 0 0 0 0 0 0 0 0 0 0 0 0 0 0 0 0 0 0 0 0 0 0 0 0 0 0 0 0 0 0 0 0 0 0 0 0 0 0 0 0 0 0 0 0 0 0 0 0 0 0 0 0 0 0 0 1752 1711 1711 1672 1672 1565 0 0 0 0 0 0 0 0 0 0 0 0 0 1501 1565 1565 0 1533 0 0 0 0 0 0 1635 0 0 1672 1635 1672 1672 1635 1711 1795 0 1752 1672 1672 1388 1388 1415 1471 1415 1388 0 0 0 0 106 106 1247 1291 1443 1533 1599 1635 1635 1635 1635 1672 1711 1711 1635 1635 1533 1533 1565 1565 1471 1415 1388 1388 1443 1471 1471 1565 1565 1599 1565 1635 1635 1599 1599 1635 1599 1599 1565 1599 1533 1501 1533 1533 1471 1471 1443 1471 1501 1533 1443 1635 1635 1599 1565 1565 1565 1565 1471 1599 1471 1471 1415 1471 1471 1443 1415 1501 1415 1415 1415 1565 1471 1388 1471 1471 1443 1388 1415 1415 1415 1415 1443 1415 1415 1471 1565 1565 1565 1565 1533 1471 1533 1565 1565 1533 1533 1471 1501 1533 1599 1599 1443 1443 1471 1501 0 0 0 0 0 0 0 0 0 0 0 0 0 0 0 0 0 0 0 0 0 0 0 0 0 0 0 570 0 0 1247 1206 0 0 0 0 1533 1533 1388 1443 1443 1443 1443 1415 1443 1338 1362 1388 1362 1362 1338 1314 1314 1314 1247 1247 1247 1226 1247 1247 1247 1226 1187 1247 1168 1206 1206 1132 1115 1132 1149 1187 1168 1206 1168 1168 1168 1187 1187 1187 1168 0 0 0 0 0 0 0 0 0 0
    0 0 0 0 0 0 0 0 0 0 0 0 0 0 0 0 0 0 0 0 0 0 0 0 0 0 0 0 0 0 0 0 0 0 0 0 0 0 0 0 0 0 0 0 0 0 0 0 0 0 0 0 0 0 0 0 0 0 0 0 0 0 0 0 0 0 0 0 0 1795 1711 1711 1672 1672 1565 1565 0 0 0 0 0 0 1795 0 0 1599 0 0 1471 1471 1501 1388 1501 0 0 0 0 0 1795 1635 1672 1711 1672 1599 1635 1635 1599 1672 1711 1672 1711 1635 1635 0 1415 1388 1415 1338 0 0 0 0 0 106 106 0 1388 1501 1565 1599 1635 1599 1599 1599 1672 1711 1711 1672 1635 1565 1565 1599 1599 1533 1443 1415 1415 1471 1471 1443 1565 1533 1533 1533 1599 1599 1533 1533 1599 1533 1565 1533 1565 1533 1533 1533 1565 1533 1565 1533 1599 1672 1711 1443 1672 1635 1635 1565 1599 1565 1565 1471 1635 1471 1471 1443 1501 1471 1443 1443 1501 1415 1415 1415 1533 1415 1388 1443 1443 1443 1388 1415 1415 1415 1415 1443 1415 1415 1501 1565 1533 1533 1533 1471 1471 1471 1533 1501 1501 1501 1471 1501 1533 1599 1635 1471 1471 1501 1565 0 0 0 0 0 0 0 0 0 0 0 0 0 0 0 0 0 0 0 0 0 0 0 0 0 579 0 570 0 1168 1206 1187 0 0 0 0 1533 1533 1388 1443 1443 1443 1443 1443 1443 1338 1362 1362 1338 1338 1314 1291 1291 1314 1226 1247 1247 1226 1247 1247 1247 1226 1187 1268 1168 1187 1206 1132 1115 1132 1149 1187 1168 1206 1187 1168 1187 1206 1206 1226 1247 0 0 0 0 0 0 0 0 0 0
    0 0 0 0 0 0 0 0 0 0 0 0 0 0 0 0 0 0 0 0 0 0 0 0 0 0 0 0 0 0 0 0 0 0 0 0 0 0 0 0 0 0 0 0 0 0 0 0 0 0 0 0 0 0 0 0 0 0 0 0 0 0 0 0 0 0 0 0 0 1839 1711 1752 1711 1672 1599 0 0 0 0 0 0 0 0 0 0 0 0 0 1471 0 0 0 0 0 0 0 0 0 1711 1599 1635 1672 1635 1565 1599 1599 1565 1635 1711 1672 1711 1635 1635 1415 1415 1388 1388 1338 0 0 0 0 0 0 0 0 1471 1599 1599 1635 1635 0 0 1599 1635 1711 1711 1672 1635 1599 1599 1599 1635 1599 1533 1471 1443 1471 1471 1443 1533 1501 1533 1501 1565 1565 1501 1533 1565 1501 1533 1501 1565 1533 1501 1565 1565 1533 1565 1501 1635 1752 1795 1415 1635 1635 1599 1565 1565 1565 1565 1443 1635 1501 1471 1443 1533 1471 1443 1443 1501 1388 1388 1415 1501 1415 1388 1471 1471 1443 1415 1443 1415 1415 1443 1443 1415 1415 1471 1533 1471 1533 1471 1443 1443 1443 1501 1501 1471 1471 1443 1501 1533 1565 1672 1471 1471 1533 1635 0 0 0 0 0 0 0 0 0 0 0 0 0 0 0 0 0 0 0 0 0 0 0 0 0 0 0 0 0 0 0 0 0 0 0 0 1501 1533 1388 1443 1443 1443 1415 1415 1443 1338 1338 1362 1314 1291 1291 1268 1291 1291 1206 1247 1247 1226 1247 1247 1247 1226 1187 1268 1168 1187 1206 1149 1115 1132 1149 1187 1168 1206 1187 1168 1187 1206 1226 1226 1247 0 0 0 0 0 0 0 0 0 0
    0 0 0 0 0 0 0 0 0 0 0 0 0 0 0 0 0 0 0 0 0 0 0 0 0 0 0 0 0 0 0 0 0 0 0 0 0 0 0 0 0 0 0 0 0 0 0 0 0 0 0 0 0 0 0 0 0 0 0 0 0 0 0 0 0 0 0 0 0 1839 1711 1752 1711 1711 1635 1533 1565 0 0 0 0 1752 1752 0 1672 1599 0 0 1533 0 0 0 0 0 0 0 0 0 1599 1501 1565 1635 1599 1533 1533 1565 1533 1672 1752 1752 1752 1672 0 0 0 1388 1362 1291 0 0 0 0 1443 0 0 1415 1471 1565 1599 1635 1635 1635 1599 1565 1599 1711 1672 1672 1599 1565 1565 1599 1599 1599 1565 1501 1501 1501 1533 1501 1565 1533 1565 1501 1565 1565 1533 1533 1565 1501 1533 1501 1565 1533 1501 1533 1533 1471 1501 0 0 0 1795 1388 1635 1635 1599 1565 1565 1565 1565 1443 1635 1501 1471 1443 1533 1471 1443 1443 1501 1415 1415 1443 1565 1443 1415 1565 1565 1565 1471 1501 1501 1471 1471 1471 1415 1415 1471 1501 1443 1471 1443 1443 1443 1415 1501 1471 1471 1471 1443 1501 1533 1565 1672 1471 1471 1565 1672 0 0 0 0 0 0 0 0 0 0 0 0 0 0 0 0 1565 0 0 0 0 0 0 0 0 0 549 0 0 0 0 0 0 0 0 0 1471 1501 1362 1415 1415 1415 1415 1415 1415 1338 1338 1338 1291 1291 1268 1268 1268 1291 1206 1247 1247 1226 1247 1247 1247 1226 1187 1268 1187 1187 1206 1149 1132 1149 1149 1187 1149 1206 1187 1168 1168 1206 1226 1226 1247 0 0 0 0 0 0 0 0 0 0
    0 0 0 0 0 0 0 0 0 0 0 0 0 0 0 0 0 0 0 0 0 0 0 0 0 0 0 0 0 0 0 0 0 0 0 0 0 0 0 0 0 0 0 0 0 0 0 0 0 0 0 0 0 0 0 0 0 0 0 0 0 0 0 0 0 0 0 0 0 1795 1711 1711 1711 1711 1672 1565 1533 1599 1635 1752 1752 1711 1711 1565 1672 1599 1599 1533 1533 1501 0 0 0 0 0 0 0 0 1501 1471 1533 1565 1565 1501 1501 1533 1501 1635 1711 1711 1711 1672 0 0 0 1415 1338 1226 0 1314 1388 1443 1471 1471 1501 1471 1501 1599 1635 1672 1711 1672 1635 1635 1672 1752 1711 1672 1635 1565 1599 1599 1599 1565 1533 1471 1501 1501 1533 1533 1565 1565 1599 1533 1599 1599 1565 1533 1565 1501 1533 1501 1533 1533 1501 1533 1533 1471 0 0 0 0 1839 1388 1635 1635 1565 1565 1565 1565 1533 1443 1599 1533 1501 1443 1533 1471 1443 1471 1501 1415 1415 1443 1565 1415 1443 1599 1565 1565 1501 1533 1533 1471 1471 1443 1415 1415 1443 1443 1415 1443 1415 1443 1443 1415 1471 1471 1471 1471 1443 1533 1501 1533 1711 1471 1471 1565 1752 0 0 0 0 0 0 0 0 0 0 0 669 669 0 0 0 0 0 0 0 0 0 0 0 0 0 549 557 0 0 0 0 0 0 0 0 1471 1501 1362 1415 1415 1415 1415 1415 1415 1338 1314 1338 1291 1268 1268 1268 1268 1268 1206 1268 1268 1247 1247 1247 1247 1247 1206 1268 1187 1187 1226 1168 1132 1149 1168 1187 1149 1187 1168 1168 1168 1206 1226 1226 1226 0 0 0 0 0 0 0 0 0 0
    0 0 0 0 0 0 0 0 0 0 0 0 0 0 0 0 0 0 0 0 0 0 0 0 0 0 0 0 0 0 0 0 0 0 0 0 0 0 0 0 0 0 0 0 0 0 0 0 0 0 0 0 0 0 0 0 0 0 0 0 0 0 0 0 0 0 0 0 0 1839 1711 1711 1711 1752 1711 1565 1565 1565 1635 1711 1711 1635 1635 1533 1672 1599 1635 1599 1599 1565 0 0 0 0 0 0 0 0 1388 1388 1471 1501 1533 1471 1471 1533 1501 1635 1752 1711 1711 1635 1711 1471 0 1443 1338 1226 0 1338 1388 1443 1471 1471 1471 1471 1501 1599 1635 1672 1672 1672 1635 1635 1672 1752 1711 1672 1635 1565 1565 1599 1565 1533 1501 1471 1501 1501 1565 1565 1565 1599 1635 1565 1635 1635 1599 1565 1599 1501 1565 1501 1565 1565 1533 1533 1565 1501 0 82 0 0 1839 1415 1635 1599 1565 1565 1565 1533 1533 1443 1599 1533 1501 1443 1501 1471 1471 1471 1501 1415 1415 1443 1565 1415 1415 1533 1533 1501 1471 1501 1471 1443 1443 1415 1415 1415 1443 1443 1388 1443 1388 1443 1443 1388 1471 1471 1471 1471 1443 1533 1501 1501 1711 1471 1471 1599 1795 2164 0 0 0 0 0 0 0 0 0 0 675 669 0 0 0 0 0 0 0 0 0 0 0 561 553 553 561 570 0 574 0 0 0 0 0 1471 1471 1362 1415 1415 1415 1415 1388 1415 1338 1314 1314 1268 1268 1247 1247 1268 1268 1206 1268 1291 1247 1268 1268 1268 1247 1206 1268 1206 1187 1226 1187 1149 1149 1168 1187 1168 1206 1187 1168 1168 1187 1226 1206 1226 0 0 0 0 0 0 0 0 0 0
    0 0 0 0 0 0 0 0 0 0 0 0 0 0 0 0 0 0 0 0 0 0 0 0 0 0 0 0 0 0 0 0 0 0 0 0 0 0 0 0 0 0 0 0 0 0 0 0 0 0 0 0 0 0 0 0 0 0 0 0 0 0 0 0 0 0 0 0 0 1936 1711 1672 1672 1752 1711 1565 1565 1565 1635 1711 1711 1599 1599 1533 1635 1599 1599 1565 1565 1565 1565 1443 1443 0 0 1501 1415 0 1388 1388 1443 1471 1533 1471 1471 1501 1471 1635 1711 1711 1672 1565 1599 1501 1533 1471 1362 1247 0 1338 1415 1501 1501 1501 1533 1501 1533 1599 1672 1672 1635 1672 1599 1599 1599 1672 1635 1599 1565 1565 1533 1599 1565 1533 1501 1471 1501 1533 1565 1599 1599 1599 1672 1599 1672 1672 1635 1599 1635 1565 1599 1565 1599 1599 1565 1565 1565 1533 0 0 0 0 1795 1443 1599 1565 1565 1565 1565 1565 1533 1471 1599 1533 1501 1471 1501 1501 1471 1501 1471 1415 1415 1443 1533 1415 1415 1501 1471 1471 1443 1471 1471 1415 1443 1415 1415 1415 1443 1443 1415 1443 1388 1443 1471 1388 1471 1471 1471 1471 1443 1533 1501 1501 1711 1471 1471 1635 1989 2102 0 0 0 0 0 0 0 0 0 0 681 675 0 0 0 0 0 0 0 0 0 0 561 561 553 553 566 579 579 579 0 0 0 0 0 1471 1471 1362 1415 1415 1415 1415 1388 1388 1338 1314 1314 1268 1268 1247 1247 1268 1268 1226 1291 1291 1268 1268 1268 1268 1268 1226 1291 1206 1187 1226 1187 1168 1168 1168 1206 1168 1206 1187 1168 1168 1206 1226 1206 1226 0 0 0 1388 0 0 0 0 0 0
    0 0 0 0 0 0 0 0 0 0 0 0 0 0 0 0 0 0 0 0 0 0 0 0 0 0 0 0 0 0 0 0 0 0 0 0 0 0 0 0 0 0 0 0 0 0 0 0 0 0 0 0 0 0 0 0 0 0 0 0 0 0 0 0 0 0 0 0 0 1989 1711 1635 1672 1752 1711 1599 1565 1599 1672 1752 1711 1635 1599 1533 1599 1565 1565 1565 1533 1533 1565 1471 1501 1415 1471 1533 1443 1501 1415 1415 1443 1443 1501 1471 1443 1501 1443 1599 1672 1672 1635 1533 1501 1533 1533 1501 1415 1362 1415 1388 1471 1565 1533 1565 1599 1599 1599 1672 1711 1711 1672 1711 1635 1565 1599 1635 1599 1599 1565 1599 1533 1599 1599 1599 1565 1501 1533 1533 1565 1599 1565 1565 1599 1565 1635 1635 1635 1599 1599 1565 1635 1565 1635 1635 1565 1599 1599 1565 1565 1501 0 0 1635 1471 1565 1533 1533 1565 1565 1565 1533 1471 1565 1533 1501 1471 1471 1501 1471 1501 1443 1388 1388 1415 1471 1388 1388 1443 1443 1415 1415 1443 1443 1415 1415 1388 1388 1388 1415 1388 1388 1443 1388 1443 1471 1388 1501 1471 1471 1471 1471 1565 1533 1501 1711 1501 1471 1672 2299 2044 0 0 0 0 0 0 0 0 1388 1635 0 681 0 0 0 0 0 0 0 0 0 566 557 561 557 557 574 584 588 584 0 0 0 0 0 1443 1443 1362 1388 1388 1415 1415 1388 1388 1362 1338 1338 1291 1291 1268 1268 1291 1291 1226 1314 1314 1291 1291 1291 1291 1268 1226 1291 1206 1168 1226 1206 1168 1168 1168 1206 1168 1206 1187 1168 1168 1206 1226 1226 1247 0 0 1388 1388 1388 0 0 0 0 0
    0 0 0 0 0 0 0 0 0 0 0 0 0 0 0 0 0 0 0 0 0 0 0 0 0 0 0 0 0 0 0 0 0 0 0 0 0 0 0 0 0 0 0 0 0 0 0 0 0 0 0 0 0 0 0 0 0 0 0 0 0 0 0 0 0 0 0 0 0 2102 1711 1635 1635 1752 1752 1635 1565 1565 1635 1711 1711 1635 1565 1501 1565 1565 1565 1533 1471 1471 1533 1471 1501 1443 1501 1533 1471 1565 1443 1443 1471 1443 1501 1471 1415 1471 1415 1599 1635 1635 1672 1565 1471 1565 1533 1501 1443 1443 1471 1443 1501 1599 1565 1599 1635 1635 1635 1672 1752 1752 1711 1752 1672 1599 1599 1635 1599 1599 1565 1599 1565 1635 1635 1599 1599 1533 1565 1533 1533 1565 1533 1533 1565 1565 1599 1599 1599 1599 1565 1565 1635 1565 1599 1635 1565 1565 1565 1533 1565 1501 1471 1501 1599 1533 1565 1533 1565 1565 1533 1565 1501 1471 1533 1501 1501 1501 1501 1501 1501 1565 1501 1443 1415 1471 1501 1415 1415 1471 1443 1415 1415 1443 1443 1388 1388 1362 1388 1388 1415 1362 1415 1471 1388 1471 1501 1415 1501 1501 1501 1471 1471 1565 1533 1501 1711 1501 1471 1711 2628 0 0 0 0 0 0 0 1362 1314 1362 1565 0 669 0 0 0 0 0 0 0 0 0 561 557 557 557 557 574 584 0 0 0 0 0 0 347 1415 1415 1362 1388 1388 1415 1415 1388 1415 1362 1338 1338 1291 1291 1268 1268 1291 1291 1247 1338 1314 1314 1314 1291 1291 1268 1247 1268 1226 1168 1226 1206 1168 1168 1168 1187 1168 1187 1187 1168 1149 1187 1226 1206 1268 0 0 1415 1415 1388 0 0 0 0 0
    0 0 0 0 0 0 0 0 0 0 0 0 0 0 0 0 0 0 0 0 0 0 0 0 0 0 0 0 0 0 0 0 0 0 0 0 0 0 0 0 0 0 0 0 0 0 0 0 0 0 0 0 0 0 0 0 0 0 0 0 0 0 0 0 0 0 0 0 0 2164 1752 1635 1635 1752 1752 1635 1565 1533 1635 1672 1672 1599 1533 1471 1533 1533 1565 1501 1443 1443 1501 1443 1471 1443 1471 1533 1471 1533 1443 1415 1443 1388 0 1415 1362 1415 1362 1599 1501 1635 1672 1565 1415 1565 1533 1533 1501 1533 1533 1501 1565 1672 1635 1672 1672 1711 1711 1752 1795 1839 1795 1839 1752 1711 1672 1672 1635 1599 1565 1599 1533 1599 1635 1565 1599 1501 1565 1533 1533 1599 1565 1533 1599 1565 1599 1565 1565 1599 1533 1501 1599 1565 1565 1599 1599 1565 1565 1565 1565 1599 1471 1533 1599 1565 1565 1533 1565 1599 1533 1599 1501 1471 1501 1501 1501 1501 1471 1501 1501 1565 1471 1443 1443 1471 1443 1388 1415 1471 1415 1388 1388 1415 1388 1362 1388 1362 1388 1388 1415 1388 1443 1533 1388 1501 1501 1415 1501 1501 1501 1501 1471 1599 1501 1501 1711 1471 1471 1711 3345 0 0 0 0 0 0 0 1338 1291 1314 1501 0 0 0 0 0 0 0 0 0 0 0 0 0 557 553 557 0 0 0 0 0 0 0 0 347 0 1388 1338 1388 1362 1415 1415 1388 1415 1362 1338 1338 1291 1291 1268 1268 1291 1291 1268 1338 1314 1314 1314 1291 1291 1291 1247 1268 1226 1168 1226 1206 1168 1149 1168 1187 1149 1187 1168 1149 1132 1168 1226 1187 1268 0 0 1443 0 1388 0 0 0 0 0
    0 0 0 0 0 0 0 0 0 0 0 0 0 0 0 0 0 0 0 0 0 0 0 0 0 0 0 0 0 0 0 0 0 0 0 0 0 0 0 0 0 0 0 0 0 0 0 0 0 0 0 0 0 0 0 0 0 0 0 0 0 0 0 0 0 0 0 0 0 2164 1752 1672 1672 0 1795 1672 1635 1599 1635 1672 1635 1565 1533 1471 1501 1533 1565 1533 1471 1501 1565 1501 1533 1501 1501 1501 1471 1565 1443 1415 1443 1415 0 1443 1362 1415 1338 1599 1362 1599 1711 1599 1388 1565 1533 1533 1533 1565 1565 1565 1599 1711 1635 1711 1752 1752 1752 1795 1839 1887 1839 1887 1839 1752 1711 1711 1635 1599 1565 1599 1501 1533 1599 1501 1565 1471 1565 1565 1565 1599 1599 1565 1635 1565 1635 1599 1599 1599 1533 1501 1599 1565 1599 1635 1599 1599 1599 1565 1599 1599 1501 1533 1599 1565 1565 1565 1565 1599 1501 1599 1533 1471 1501 1501 1501 1471 1471 1501 1501 1565 1533 1501 1501 1471 1471 1415 1388 1415 1388 1362 1338 1362 1362 1338 1362 1362 1388 1388 1443 1415 1501 1565 1415 1533 1533 1443 1533 1533 1533 1501 1501 1635 1501 1501 1711 1471 1471 0 3679 0 0 0 0 0 0 0 1338 1291 1338 1501 0 0 0 0 0 0 0 0 0 0 0 0 0 0 0 0 0 0 0 0 0 0 0 0 0 0 1362 1338 1388 1362 1415 1415 1388 1388 1362 1338 1338 1291 1291 1268 1268 1291 1291 1268 1314 1314 1291 1291 1291 1291 1268 1247 1268 1226 1168 1226 1206 1168 1149 1187 1187 1149 1187 1168 1149 1132 1168 1206 1168 1247 0 0 0 0 0 0 0 0 0 0
    0 0 0 0 0 0 0 0 0 0 0 0 0 0 0 0 0 0 0 0 0 0 0 0 0 0 0 0 0 0 0 0 0 0 0 0 0 0 0 0 0 0 0 0 0 0 0 0 0 0 0 0 0 0 0 0 0 0 0 0 0 0 0 0 0 0 0 0 0 2164 1752 1635 1672 0 1887 0 1711 1635 1711 1711 1672 1635 1565 1501 1533 1533 1565 1533 1471 1501 1565 1501 1533 1501 1471 1471 1443 0 1443 1415 1471 0 0 0 0 1443 1338 1599 1338 1565 1711 1599 1388 1565 1565 1533 1533 1599 1599 1599 1599 1711 1672 1752 1795 1839 1795 1839 1887 1887 1839 1887 1839 1795 1711 1752 1672 1599 1565 1599 1501 1533 1599 1471 1565 1471 1565 1565 1565 1635 1635 1565 1672 1599 1672 1599 1635 1635 1533 1533 1635 1565 1635 1672 1635 1599 1599 1565 1599 1635 1501 1501 1565 1565 1599 1565 1599 1599 1533 1599 1565 1501 1533 1471 1501 1471 1501 1533 1533 1599 1599 1599 1635 1599 1599 1471 1415 1415 1388 1338 1338 1338 1338 1338 1362 1362 1388 1443 1471 1415 1533 1565 1415 1565 1565 1443 1533 1533 1501 1501 1501 1635 1501 1501 1711 1533 1533 0 3504 0 0 0 0 0 1501 0 1362 1314 1338 1443 0 0 1247 0 0 0 0 0 0 0 0 0 0 0 0 0 0 0 0 0 0 0 0 0 0 0 1388 1338 1388 1362 1443 1415 1388 1388 1362 1338 1362 1291 1291 1268 1268 1268 1291 1268 1291 1291 1291 1291 1268 1268 1268 1226 1247 1226 1168 1226 1206 1168 1168 1187 1187 1149 1187 1168 1149 1132 1168 1206 1168 1247 0 0 0 0 0 0 0 0 0 0
    0 0 0 0 0 0 0 0 0 0 0 0 0 0 0 0 0 0 0 0 0 0 0 0 0 0 0 0 0 0 0 0 0 0 0 0 0 0 0 0 0 0 0 0 0 0 0 0 0 0 0 0 0 0 0 0 0 0 0 0 0 0 0 0 0 0 0 0 0 2164 1752 1635 1635 1795 1839 0 1752 1672 1752 1752 1672 1635 1565 1501 1501 1533 1565 1533 1443 1471 1533 1471 1501 1443 1388 1415 1415 0 0 1471 1565 0 0 0 0 1471 1362 1635 1362 1471 1711 1635 1443 1635 1599 1599 1599 1635 1672 1635 1672 1752 1672 1795 1887 1936 1839 1887 1936 1887 1839 1887 1795 1795 1752 1752 1711 1635 1599 1635 1501 1533 1599 1471 1565 1443 1533 1565 1565 1635 1635 1565 1672 1599 1672 1635 1635 1635 1565 1533 1672 1599 1635 1711 1635 1635 1599 1533 1599 1635 1501 1501 1565 1565 1599 1565 1599 1599 1501 1599 1599 1501 1565 1471 1501 1471 1501 1533 1533 1565 1565 1565 1635 1599 1565 1471 1415 1388 1362 1338 1314 1314 1314 1314 1338 1362 1388 1415 1471 1415 1565 1599 1415 1565 1565 1443 1533 1533 1501 1501 1501 1599 1501 1501 1711 1533 1533 0 3504 0 0 0 0 0 1599 0 1415 1362 1388 1501 0 0 1247 0 0 0 0 0 0 0 0 0 0 0 0 0 0 0 2453 0 0 0 2374 0 0 0 1415 1362 1415 1362 1443 1443 1388 1388 1362 1338 1338 1291 1291 1268 1247 1268 1268 1268 1268 1268 1268 1268 1268 1247 1247 1226 1226 1226 1168 1226 1206 1168 1168 1187 1187 1168 1187 1187 1149 1149 1168 1206 1168 1247 0 0 0 0 0 0 0 0 0 0
    0 0 0 0 0 0 0 0 0 0 0 0 0 0 0 0 0 0 0 0 0 0 0 0 0 0 0 0 0 0 0 0 0 0 0 0 0 0 0 0 0 0 0 0 0 0 0 0 0 0 0 0 0 0 0 0 0 0 0 0 0 0 0 0 0 0 0 0 0 2299 1752 1635 1635 1795 1795 0 1711 1672 1711 1711 1635 1599 1533 1501 1471 1533 1533 1533 1443 1471 1533 1471 1501 1471 1415 1443 1471 1635 1565 1533 1635 1501 0 1565 0 0 0 0 0 0 0 1635 1501 1635 1635 1599 1599 1672 1711 1672 1711 1795 1711 1795 1936 1989 1887 1989 1936 1887 1839 1887 1795 1795 1711 1711 1672 1599 1565 1672 1501 1565 1672 1501 1599 1471 1533 1565 1533 1635 1635 1565 1672 1599 1635 1599 1635 1672 1599 1599 1711 1635 1672 1752 1672 1672 1635 1565 1599 1599 1501 1501 1565 1565 1565 1565 1599 1565 1501 1565 1599 1501 1565 1471 1471 1443 1471 1533 1501 1533 1501 1471 1565 1501 1471 1443 1388 1362 1338 1291 1268 1268 1268 1291 1314 1338 1362 1388 1471 1415 1599 1599 1415 1565 1533 1443 1501 1501 1501 1471 1471 1599 1471 1501 1711 1533 1533 0 0 0 1362 0 1338 0 1795 1672 1565 1565 1533 0 0 0 0 0 0 0 0 0 0 0 0 0 0 0 0 0 0 0 2374 0 2628 0 2374 0 0 0 1415 0 1388 1362 1443 1443 1388 1388 1362 1338 1338 1291 1291 1247 1247 1247 1268 1268 1247 1268 1247 1247 1247 1247 1247 1206 1226 1226 1168 1226 1206 1168 1149 1187 1187 1168 1187 1187 1149 1149 1187 1206 1187 1247 0 0 0 0 0 0 0 0 0 0
    0 0 0 0 0 0 0 0 0 0 0 0 0 0 0 0 0 0 0 0 0 0 0 0 0 0 0 0 0 0 0 0 0 0 0 0 0 0 0 0 0 0 0 0 0 0 0 0 0 0 0 0 0 0 0 0 0 0 0 0 0 0 0 0 0 0 0 0 0 2299 1752 1672 1672 1795 1795 0 1711 1672 1672 1711 1599 1565 1565 1501 1443 1501 1501 1471 1388 1471 1533 1501 1533 1533 1501 1599 1635 1711 1672 1635 1711 1533 0 1565 0 0 0 0 0 1415 1635 1635 1501 1672 1635 1599 1635 1672 1711 1711 1752 1795 1752 1989 2164 2230 2044 2102 2044 1936 1887 1936 1839 1795 1711 1752 1711 1635 1635 1711 1565 1672 1711 1533 1635 1501 1565 1565 1533 1635 1635 1565 1672 1599 1635 1565 1599 1672 1565 1599 1711 1672 1711 1795 1711 1672 1635 1565 1565 1599 1501 1471 1565 1533 1565 1565 1565 1565 1501 1565 1635 1501 1565 1471 1443 1415 1443 1501 1471 1471 1471 1443 1533 1471 1443 1415 1338 1291 1268 1247 1187 1206 1206 1226 1226 1338 1362 1388 1471 1415 1599 1599 1415 1565 1533 1415 1501 1471 1471 1471 1471 1599 1443 1471 1672 1533 1533 1936 0 0 1415 1291 1362 0 1989 1752 1752 1839 1752 0 0 0 0 0 0 0 0 0 0 0 0 0 0 0 0 0 0 0 2374 0 0 0 0 0 0 0 0 0 1362 1338 1443 1443 1388 1362 1338 1338 1338 1291 1291 1247 1247 1247 1268 1268 1206 1247 1226 1226 1247 1226 1226 1187 1206 1247 1168 1226 1206 1149 1149 1168 1187 1168 1187 1187 1168 1168 1187 1226 1187 1268 0 0 0 0 0 0 0 0 0 0
    0 0 0 0 0 0 0 0 0 0 0 0 0 0 0 0 0 0 0 0 0 0 0 0 0 0 0 0 0 0 0 0 0 0 0 0 0 0 0 0 0 0 0 0 0 0 0 0 0 0 0 0 0 0 0 0 0 0 0 0 0 0 0 0 0 0 0 0 0 0 1752 1672 1672 1795 1795 0 1711 1711 1635 1672 1565 1533 1565 1501 1443 1471 1443 1415 1362 1415 1471 1443 1533 1533 1501 1599 1752 0 1752 1711 1795 1501 0 0 0 1471 0 0 1471 1415 1635 1635 1533 1672 1635 1599 1635 1672 1752 1711 1752 1795 1795 2374 2453 2374 2102 2230 2102 1936 1936 1936 1839 1795 1752 1795 1752 1672 1672 1752 1599 1711 1752 1565 1672 1533 1599 1599 1565 1635 1599 1533 1635 1533 1565 1471 1471 1599 1501 1565 1711 1672 1711 1795 1711 1672 1635 1565 1565 1599 1501 1471 1565 1533 1565 1565 1599 1565 1501 1565 1672 1533 1599 1501 1443 1443 1443 1501 1471 1471 1501 1471 1533 1443 1415 1415 1362 1291 1291 1247 1187 1226 1226 1226 1226 1362 1338 1388 1471 1388 1599 1599 1415 1565 1501 1415 1471 1471 1443 1443 1443 1565 1415 1443 1672 1501 1533 1795 1501 1415 1388 1291 1338 0 1936 1599 0 1887 1752 0 0 0 0 0 0 0 0 0 0 0 0 0 0 0 0 0 0 0 2164 2374 2299 0 2044 0 0 0 1388 0 1362 1338 1443 1415 1388 1362 1338 1314 1314 1291 1291 1247 1226 1247 1268 1268 1187 1226 1226 1226 1226 1226 1206 1187 1206 1247 1168 1226 1206 1149 1149 1168 1187 1168 1187 1187 1168 1168 1187 1226 1187 1268 0 0 0 0 0 0 0 0 0 0
    0 0 0 0 0 0 0 0 0 0 0 0 0 0 0 0 0 0 0 0 0 0 0 0 0 0 0 0 0 0 0 0 0 0 0 0 0 0 0 0 0 0 0 0 0 0 0 0 0 0 0 0 0 0 0 0 0 0 0 0 0 0 0 0 0 0 0 0 0 0 1752 1635 1672 1795 1795 1795 1711 1672 1565 1635 1533 1501 1565 1471 1415 1443 1415 1388 1314 1388 1443 1415 1471 0 0 1443 0 0 0 1635 1672 1362 0 0 0 1415 0 0 1443 1415 1635 1635 1533 1635 1635 1599 1635 1672 1752 1711 1752 1795 0 2830 2725 2537 2299 2374 2102 1887 1936 1887 1839 1839 1795 1795 1752 1711 1672 1752 1635 1795 1839 1565 1672 1533 1599 1635 1599 1672 1672 1599 1672 0 0 0 0 1635 1565 1565 1672 1672 1711 1752 1711 1672 1635 1533 1599 1635 1565 1443 1565 1565 1565 1599 1599 1565 1533 1565 1672 1533 1635 1565 1501 1501 1533 1599 1565 1565 1599 1565 1599 1471 1471 1443 1362 1314 1291 1247 1187 1226 1206 1206 1247 1338 1314 1362 1471 1388 1599 1599 1415 1565 1501 1415 1443 1443 1415 1415 1443 0 1388 1415 1635 1501 1501 1752 1443 1388 1415 1338 1314 0 1711 1415 1635 0 1635 0 0 1672 0 0 0 0 0 0 0 0 0 0 0 0 0 0 0 1936 2044 2230 2164 0 1989 0 0 0 0 0 1362 1338 1415 1415 1362 1338 1314 1291 1291 1268 1268 1226 1226 1226 1268 1268 1168 1226 1206 1206 1226 1206 1206 1168 1187 1247 1187 1226 1206 1149 1149 1187 1206 1168 1187 1206 1168 1168 1187 1226 1187 1268 0 0 0 0 0 0 0 0 0 0
    0 0 0 0 0 0 0 0 0 0 0 0 0 0 0 0 0 0 0 0 0 0 0 0 0 0 0 0 0 0 0 0 0 0 0 0 0 0 0 0 0 0 0 0 0 0 0 0 0 0 0 0 0 0 0 0 0 0 0 0 0 0 0 0 0 0 0 0 0 0 1752 1672 1672 1795 1839 1795 1711 1672 1599 1635 1501 1471 1471 1443 1415 1415 1388 1362 1314 1388 1443 1415 1443 0 1338 1415 0 0 0 1565 1599 1388 1415 1388 1471 1443 1471 1471 1443 1415 1599 1599 1533 1635 1635 1599 1635 1672 1752 1711 1752 1839 1839 2943 2830 2725 2453 2628 2230 1936 1936 1887 1795 1795 1795 1795 1752 1752 1711 1752 1635 1795 1839 1565 1672 1565 1635 1672 1672 1711 1752 1635 1711 0 0 0 0 0 1635 1599 1752 1752 1752 1795 1752 1711 1635 1471 1672 1672 1635 1443 1565 1565 1565 1599 1635 1565 1533 1565 1711 1565 1672 0 1565 1565 0 0 1599 1599 1635 1565 1635 1501 1501 1443 1388 1338 1314 1268 1206 1247 1247 1247 1314 1338 1314 1362 1471 1415 1599 1599 1415 1565 1471 1388 1443 1415 1415 1415 1415 0 0 0 1599 1471 1501 1752 1388 1362 1388 1338 1338 1443 1839 1635 0 1887 1752 1672 1672 1711 0 0 0 0 0 0 0 0 0 0 0 0 0 0 0 0 0 0 0 0 0 0 0 0 0 0 1338 1338 1415 1415 1362 1314 1314 1291 1291 1268 1247 1226 1226 1206 1247 1268 1149 1206 1187 1187 1206 1206 1206 1168 1187 1247 1187 1226 1206 1149 1149 1187 1206 1187 1187 1206 1187 1206 1206 1247 1226 1268 0 0 0 0 0 0 0 0 0 0
    0 0 0 0 0 0 0 0 0 0 0 0 0 0 0 0 0 0 0 0 0 0 0 0 0 0 0 0 0 0 0 0 0 0 0 0 0 0 0 0 0 0 0 0 0 0 0 0 0 0 0 0 0 0 0 0 0 0 0 0 0 0 0 0 0 0 0 0 0 0 1752 1672 1672 1795 1936 1839 1795 1752 1711 1672 1565 1533 1533 1471 1415 1443 1415 1362 1314 1415 1471 1443 1501 1565 1471 0 0 0 1599 1599 1635 1443 1501 1443 1599 1471 1533 1471 1471 1415 1599 1599 1501 1635 1635 1599 1635 1635 0 1711 1752 1839 1795 0 2943 2943 2830 2943 2537 1936 1887 1887 1752 1752 1752 1752 1711 1752 1711 1795 0 2164 2044 1795 1839 1711 1711 1752 1795 0 0 0 0 0 0 0 0 0 0 1752 1936 1989 1887 1936 1752 1752 1599 1388 1672 1711 1711 1388 1565 1565 1565 1599 1635 1565 1533 1533 1711 1599 1672 1672 0 0 0 0 1635 1599 1635 1565 1635 1501 1501 1443 1388 1362 1338 1291 1226 1247 1268 1268 1314 1338 1314 1362 1415 1415 1565 1533 1388 1533 1471 1388 1415 1415 1388 1415 1415 0 0 0 1599 1471 1471 1752 1388 1388 1415 1415 1388 1599 1887 1795 1989 1989 1887 1752 1711 1752 0 0 0 0 0 0 0 0 0 0 0 0 0 0 0 0 0 0 0 0 0 0 0 0 0 0 1338 1338 1388 1388 1362 1314 1314 1268 1268 1268 1247 1226 1226 1206 1268 1268 1132 1206 1187 1187 1206 1187 1206 1168 1187 1247 1187 1206 1206 1149 1149 1187 1206 1187 1206 1226 1206 1206 1226 1268 1226 0 0 0 0 0 0 0 0 0 0 0
    0 0 0 0 0 0 0 0 0 0 0 0 0 0 0 0 0 0 0 0 0 0 0 0 0 0 0 0 0 0 0 0 0 0 0 0 0 0 0 0 0 0 0 0 0 0 0 0 0 0 0 0 0 0 0 0 0 0 0 0 0 0 0 0 0 0 0 0 0 2102 1752 1635 1635 1795 2044 1989 1839 1839 1752 1672 1599 1533 0 1501 1443 1471 1415 1388 1314 1388 1443 1443 1471 1533 1533 1565 1635 1599 1599 1565 1599 1443 1501 1415 1635 1533 1635 1501 1533 1415 1599 1599 1533 1599 1635 1565 1635 1635 0 1711 1752 1839 1839 0 3199 3504 3504 3873 3066 1839 1752 1795 1672 1711 1752 1752 1711 1752 1752 1839 1795 2299 2299 2164 2102 1936 0 1936 3504 3504 0 0 0 0 0 0 0 0 0 0 0 2830 2628 2102 1795 1839 1565 1338 1752 1752 1752 1388 1565 1565 1565 1599 1635 1565 1533 1533 1711 1599 1672 1711 0 0 0 0 1635 1565 1565 1501 1533 1443 1471 1443 1388 1362 1338 1314 1226 1268 1314 1314 1362 1388 0 1362 1415 1388 1533 1501 1388 1533 1443 1362 1388 1388 1388 1388 1388 0 0 0 1565 1471 1471 1711 1362 1362 1388 1415 1362 0 1936 0 1989 1989 1887 1672 0 0 0 0 0 0 0 0 0 0 0 0 1565 0 0 0 0 0 0 0 0 0 0 0 0 0 0 0 1338 1338 1388 1388 1362 1314 1314 1268 1268 1268 1247 1247 1226 1226 1268 1268 1149 1206 1187 1187 1206 1187 1187 1149 1168 1268 1187 1206 1206 1149 1149 1187 1206 1187 1206 1226 1206 1206 1226 1268 1226 0 0 0 0 0 0 0 0 0 0 0
    0 0 0 0 0 0 0 0 0 0 0 0 0 0 0 0 0 0 0 0 0 0 0 0 0 0 0 0 0 0 0 0 0 0 0 0 0 0 0 0 0 0 0 0 0 0 0 0 0 0 0 0 0 0 0 0 0 0 0 0 0 0 0 0 0 0 0 0 0 0 1711 1635 1635 1795 2102 2044 1839 0 0 1672 1599 1533 1533 1501 1443 1471 1415 1338 1291 1338 1362 1388 1443 1443 1471 1565 1599 1565 1599 1533 1533 1443 1501 1443 1672 1635 1711 1565 1565 1443 1599 1599 1533 1599 1599 1565 1635 1635 1752 1711 1711 1795 1795 2628 3345 4906 5256 5661 3504 0 1672 1752 1565 1672 1672 1711 1672 1711 1711 1752 1711 1989 2044 0 0 0 0 0 0 3873 0 0 0 0 0 0 0 0 0 0 0 0 3504 0 0 0 0 0 1887 1887 1839 1388 1599 1599 1565 1599 1635 1565 1533 1533 1711 1565 1672 1752 0 0 0 0 1599 1533 1533 1443 1443 1388 1388 1388 1362 1338 1314 1314 1206 1268 1362 1338 1415 1415 0 0 0 1388 1533 1501 1362 1501 1415 1362 1388 1388 1362 1388 1388 0 0 0 1533 1443 1471 1711 1362 1362 1338 1415 0 0 0 0 0 0 0 0 0 0 0 270 0 0 0 0 0 0 0 0 1599 0 0 0 0 0 0 0 0 0 427 0 0 0 0 0 1338 1338 1362 1388 1362 1314 1314 1291 1291 1268 1268 1247 1247 1247 1268 1291 1149 1206 1187 1187 1206 1187 1187 1168 1168 1268 1187 1206 1206 1168 1149 1187 1206 1187 1187 1226 1206 1226 1226 1268 1206 0 0 0 0 0 0 0 0 0 0 0
    0 0 0 0 0 0 0 0 0 0 0 0 0 0 0 0 0 0 0 0 0 0 0 0 0 0 0 0 0 0 0 0 0 0 0 0 0 0 0 0 0 0 0 0 0 0 0 0 0 0 0 0 0 0 0 0 0 0 0 0 0 0 0 0 0 0 0 0 0 0 1711 1635 1635 1795 1989 1839 1752 1839 1752 1635 1599 1533 1565 1501 1443 0 0 1291 1268 0 0 1533 1565 0 1565 1635 1635 1599 1635 1565 1565 1471 1565 1471 1672 1711 1752 1599 1599 1443 1599 1599 1501 1599 1599 1565 1599 1635 1752 1672 1711 1795 1795 1936 3345 6133 6690 6133 3504 0 1635 1752 1471 1635 1599 1635 1635 1635 1635 1672 1635 1795 0 0 0 0 0 0 0 0 0 1388 1501 0 1565 0 1565 1635 1635 1672 0 0 0 0 0 0 0 0 2102 2044 1887 1388 1635 1635 1565 1599 1635 1565 1533 1533 1711 1599 1635 1752 0 0 0 0 1635 1533 1533 1443 1415 1362 1362 1338 1338 1314 1291 1291 1132 0 0 0 0 0 208 209 0 0 1533 1533 1362 1501 1415 1362 1388 1388 1362 1388 1388 0 0 0 1533 1471 1471 1711 1388 1362 1388 1501 0 0 0 0 0 0 0 0 0 0 0 269 0 0 0 0 0 0 0 0 0 0 0 0 0 0 0 0 0 0 0 0 0 0 0 0 1338 1338 1362 1388 1362 1314 1314 1291 1291 1291 1268 1247 1247 1247 1291 1291 1132 1206 1187 1187 1206 1187 1187 1168 1187 1268 1187 1206 1226 1168 1149 1187 1206 1187 1187 1226 1206 1226 1226 1268 1206 1268 0 0 0 0 0 0 0 0 0 0
    0 0 0 0 0 0 0 0 0 0 0 0 0 0 0 0 0 0 0 0 0 0 0 0 0 0 0 0 0 0 0 0 0 0 0 0 0 0 0 0 0 0 0 0 0 0 0 0 0 0 0 0 0 0 0 0 0 0 0 0 0 0 0 0 0 0 0 0 0 1887 1711 1635 1635 1795 1936 1839 1752 1795 1795 1672 1711 1635 0 0 0 0 0 0 0 0 0 0 0 0 0 0 1672 1672 1711 1635 1599 1565 1672 1599 1752 1752 1795 1672 1635 1443 1599 1599 1501 1599 1599 1533 1599 1635 1711 1672 1672 1839 1839 2102 3345 7359 7359 5661 3345 0 0 1711 1415 1599 1599 1599 1599 1599 1599 1599 1565 1795 0 0 8177 0 0 0 0 0 1338 1388 1471 1501 1533 1533 1533 1599 1599 1635 1711 1533 0 0 0 0 0 994 2374 2299 1887 1415 1635 1672 1599 1635 1635 1565 1533 1533 1711 1599 1635 1752 1795 1672 0 0 1635 1599 1565 1471 1443 1362 1362 1338 1362 1338 1338 1338 0 0 0 1415 1533 0 0 0 0 0 1533 1533 1362 1443 1415 1338 1388 1388 1362 1388 1388 1415 1362 1388 1565 1471 1471 1711 1388 1388 1565 1565 0 0 0 0 0 0 0 0 0 0 0 269 0 0 369 0 0 0 0 0 0 0 0 0 0 0 0 0 0 0 0 0 0 0 0 1338 1362 1362 1362 1388 1362 1314 1314 1291 1291 1291 1268 1268 1247 1247 1291 1291 1132 1206 1206 1187 1206 1206 1206 1168 1187 1268 1187 1206 1226 1168 1149 1187 1187 1187 1168 1206 1206 1206 1206 1247 1168 1247 0 0 0 0 0 0 0 0 0 0
    0 0 0 0 0 0 0 0 0 0 0 0 0 0 0 0 0 0 0 0 0 0 0 0 0 0 0 0 0 0 0 0 0 0 0 0 0 0 0 0 0 0 0 0 0 0 0 0 0 0 0 0 0 0 0 0 0 0 0 0 0 0 0 0 0 0 0 0 0 1839 1711 1635 1635 1795 1936 1887 1839 1839 1839 1795 1839 1795 1936 0 0 0 0 0 0 0 0 0 0 0 1565 1672 1635 1635 1672 1635 1635 1599 1711 1672 1795 1795 1839 1711 1635 1443 1599 1599 1501 1599 1565 1533 1599 1635 1752 1672 1711 1936 1936 2374 3345 6690 6133 4906 0 0 1388 1635 1388 1565 1565 1565 1565 1565 1599 1565 1533 0 0 0 6690 0 0 0 0 0 0 1388 1471 1471 1533 1533 1533 1565 1565 1599 1672 1443 0 0 0 0 1008 994 2453 2453 1936 1471 1672 1672 1635 1635 1672 1599 1533 1533 1711 1599 1599 1711 0 1672 1672 0 1635 1599 1565 1471 1443 1388 1362 1338 1388 1388 1388 1362 0 0 1533 1471 1533 1415 0 0 0 0 1533 1533 1362 1415 1388 1338 1388 1388 1362 1388 1388 1443 1388 1415 1565 1471 1471 1711 1415 1533 0 0 817 782 735 0 0 0 0 0 0 0 0 0 0 0 0 0 0 0 0 0 0 1008 0 0 0 0 0 0 0 0 0 0 0 0 1362 1362 1362 1362 1362 1388 1362 1338 1338 1314 1314 1291 1268 1268 1268 1247 1268 1268 1149 1206 1206 1187 1206 1206 1206 1187 1187 1268 1187 1206 1226 1149 1132 1168 1187 1168 1149 1206 1187 1187 1187 1226 1115 1247 0 0 0 836 855 0 0 0 0 0
    0 0 0 0 0 0 0 0 0 0 0 0 0 0 0 0 0 0 0 0 0 0 0 0 0 0 0 0 0 0 0 0 0 0 0 0 0 0 0 0 0 0 0 0 0 0 0 0 0 0 0 0 0 0 0 0 0 0 0 0 0 0 0 0 0 0 0 0 0 1795 1711 1635 1635 1795 1989 1989 1887 1936 1936 1887 1887 1887 1936 1936 0 0 0 0 0 0 0 0 0 0 1565 1672 1635 1635 1711 1635 1635 1599 1711 1672 1795 1839 1839 1752 1672 1443 1599 1599 1501 1599 1565 1533 1599 1635 1752 1711 1711 2102 2044 2628 3504 5661 5256 4329 981 0 0 1565 1388 1565 1565 1565 1565 1533 1599 1565 1533 0 0 0 6133 0 0 0 0 0 1388 1415 1533 1501 1565 1565 1565 1599 1565 1599 1672 1443 0 0 0 0 1008 981 2537 2537 1989 1501 1711 1711 1672 1672 1672 1599 1533 1533 1711 1565 1599 1672 1752 1635 1635 1672 1672 1672 1635 1471 1471 1362 1338 1314 1415 1388 1415 1362 0 0 0 1471 1501 1388 0 0 0 0 1533 1533 1362 1388 1388 1338 1388 1388 1362 1388 1388 1443 1415 1443 1599 1471 1471 1711 1471 0 0 0 826 791 750 782 0 0 0 0 0 0 0 0 0 0 364 0 0 0 0 0 0 0 0 0 0 0 0 0 0 0 0 0 0 0 1362 1362 1388 1362 1388 1388 1362 1338 1338 1314 1314 1291 1291 1268 1268 1247 1291 1247 1149 1206 1206 1187 1206 1206 1206 1187 1187 1268 1187 1187 1206 1149 1115 1168 1168 1168 1149 1206 1187 1206 1187 1226 1115 1247 0 0 0 845 855 0 0 0 0 0
    0 0 0 0 0 0 0 0 0 0 0 0 0 0 0 0 0 0 0 0 0 0 0 0 0 0 0 0 0 0 0 0 0 0 0 0 0 0 0 0 0 0 0 0 0 0 0 0 0 0 0 0 0 0 0 0 0 0 0 0 0 0 0 0 0 0 0 0 0 1795 1672 1635 1635 1795 1989 1989 1887 1989 1936 1887 1887 1887 1936 0 0 0 0 0 0 0 0 0 0 1672 1599 1672 1672 1711 1711 1672 1711 1672 1795 1752 1839 1887 1887 1795 1635 1443 1599 1599 1501 1565 1565 1533 1565 1635 1752 1711 1752 2299 2230 2725 3504 5256 4599 3873 968 0 0 1599 1388 1599 1565 1565 1565 1533 1599 1565 1533 1752 0 5256 5256 0 0 0 955 0 1415 1443 1565 1533 1599 1599 1599 1635 1599 1635 1672 1501 0 0 0 0 994 981 2628 2628 1989 1533 1711 1711 1672 1672 1672 1599 1533 1533 1711 1565 1565 1635 1672 1533 1533 1533 1565 1501 1471 1415 1415 1314 1268 1187 1338 1291 1362 1362 0 0 0 0 1533 1443 0 0 0 0 1565 1565 1362 1388 1388 1338 1388 1388 1362 1415 1388 1443 1443 1443 1599 1471 1471 1711 1443 1599 0 0 0 782 743 750 750 0 0 0 0 0 0 0 0 0 0 0 0 0 0 0 0 0 0 0 0 0 0 0 0 0 0 0 0 0 0 1362 0 1362 1362 1388 1362 1314 1338 1314 1314 1314 1291 1291 1268 1247 1291 1247 1168 1206 1206 1187 1206 1206 1206 1187 1187 1268 1168 1187 1206 1132 1098 1149 1149 1149 1132 1206 1168 1187 1168 1206 1098 1226 0 0 0 845 845 0 0 0 0 0
    0 0 0 0 0 0 0 0 0 0 0 0 0 0 0 0 0 0 0 0 0 0 0 0 0 0 0 0 0 0 0 0 0 0 0 0 0 0 0 0 0 0 0 0 0 0 0 0 0 0 0 0 0 0 0 0 0 0 0 0 0 0 0 0 0 0 0 0 0 1752 1672 1635 1599 1795 1989 2044 1936 1989 1936 1887 1887 1839 1887 0 0 0 0 0 0 0 0 0 0 1672 1599 1711 1672 1711 1752 1711 1752 1752 1839 1839 1839 1936 1887 1795 1635 1443 1599 1599 1471 1565 1565 1533 1565 1635 1752 1711 1752 2453 2374 2725 3873 5661 4599 3679 968 0 1501 1635 1388 1599 1565 1565 1565 1533 1599 1565 1533 1752 0 4329 4088 0 0 0 968 0 1443 1443 1599 1565 1599 1599 1599 1635 1599 1635 1711 1501 0 0 0 0 994 981 2628 2628 1989 1565 1711 1711 1711 1672 1711 1599 1565 1565 1752 1635 1599 1672 1672 1533 1501 1471 1443 1388 1362 1338 1338 1268 1226 1098 1187 1168 0 0 0 313 0 0 1565 1501 0 0 0 0 1599 1565 1362 1362 1362 1338 1388 1388 1388 1415 1415 1443 1471 1471 1635 1471 1471 1711 1443 1635 0 0 0 791 758 766 766 0 0 0 0 0 0 0 0 0 0 0 0 0 0 0 0 0 0 0 0 0 0 0 0 0 721 714 714 714 707 694 681 0 1338 1362 1362 1314 1338 1314 1314 1314 1291 1291 1268 1268 1291 1247 1168 1206 1206 1187 1206 1206 1226 1206 1187 1268 1187 1187 1206 1132 1098 1149 1132 1149 1115 1187 1132 1149 1132 1187 1066 1168 0 0 0 855 855 0 0 0 0 0
    0 0 0 0 0 0 0 0 0 0 0 0 0 0 0 0 0 0 0 0 0 0 0 0 0 0 0 0 0 0 0 0 0 0 0 0 0 0 0 0 0 0 0 0 0 0 0 0 0 0 0 0 0 0 0 0 0 0 0 0 0 0 0 0 0 0 0 0 0 1752 1599 1599 1565 1752 1989 1989 1887 1936 1839 1795 1839 1887 1839 0 0 0 0 0 367 366 366 0 0 1599 1533 1635 1672 1672 1711 1711 1752 1752 1887 1839 1887 1989 1936 1839 1672 1443 1599 1599 1471 1565 1565 1533 1599 1672 1752 1752 0 2453 2453 2725 0 5256 4599 3679 968 0 1501 1635 1388 1599 1599 1565 1565 1565 1599 1565 1565 1795 0 3679 3679 0 0 0 0 0 1443 1471 1599 1565 1635 1635 1635 1635 1599 1635 1711 1533 0 0 0 0 1008 994 2628 2628 2044 1599 1752 1752 1711 1711 1711 1635 1533 1565 1752 1635 1599 1672 1672 1533 1501 1471 1415 0 1362 1338 1338 1268 1206 1098 0 0 0 0 313 311 0 0 0 0 0 0 0 0 1635 1599 1388 1338 1362 1338 1415 1415 1388 1415 1415 1471 1501 1471 1635 1501 1501 1711 1471 1672 0 0 0 799 774 774 766 0 0 0 0 0 0 0 0 0 0 362 0 0 0 0 0 0 669 675 669 681 675 675 0 681 687 687 694 700 700 694 681 645 0 1362 1338 1314 1338 1314 1314 1314 1314 1291 1268 1268 1291 1247 1168 1206 1206 1187 1206 1206 1226 1206 1206 1268 1187 1187 1226 1132 1098 1132 1132 1132 1098 1149 1098 1115 1115 1149 1051 1115 0 0 0 876 886 0 0 0 0 0
    0 0 0 0 0 0 0 0 0 0 0 0 0 0 0 0 0 0 0 0 0 0 0 0 0 0 0 0 0 0 0 0 0 0 0 0 0 0 0 0 0 0 0 0 0 0 0 0 0 0 0 0 0 0 0 0 0 0 0 0 0 0 0 0 0 0 0 0 0 1711 1599 1599 1565 1752 1795 1795 1752 1795 1795 1752 1752 1936 1839 0 0 0 0 0 0 0 366 0 0 0 1533 1635 1672 1711 1752 1795 1839 1795 1936 1936 1936 2044 1936 1839 1672 1443 1599 1599 1501 1599 1565 1565 1599 1672 1795 0 0 2537 2537 2725 0 5256 4906 3679 0 0 1501 1635 1388 1599 1599 1565 1565 1565 1599 1565 1565 0 0 3679 0 0 0 0 0 0 1443 1471 1599 1599 1635 1635 1635 1635 1635 1672 1711 1565 0 1501 0 0 1051 0 2453 2537 2044 1635 1752 1752 1711 1711 1711 1599 1533 1533 1711 1599 1565 1635 1599 1471 1471 1443 1388 1338 1362 0 1314 1226 1168 1082 0 1132 0 0 0 314 0 0 0 0 0 0 0 0 1672 1672 1415 1338 1388 1338 1415 1415 1388 1415 1415 1471 1533 1501 1635 1501 1501 1711 1501 1672 0 6690 0 0 0 766 0 0 0 0 0 0 0 0 0 0 0 362 0 0 0 687 687 651 669 675 669 675 675 669 669 669 681 675 675 687 687 681 663 639 0 1362 1338 1291 1314 1314 1314 1314 1314 1291 1268 1247 1291 1247 1149 1206 1206 1187 1206 1206 1226 1206 1206 1291 1187 1187 1206 1132 1098 1132 1115 1115 1082 1132 1082 1098 1082 1115 1022 0 0 955 908 897 908 0 0 0 0 0
    0 0 0 0 0 0 0 0 0 0 0 0 0 0 0 0 0 0 0 0 0 0 0 0 0 0 0 0 0 0 0 0 0 0 0 0 0 0 0 0 0 0 0 0 0 0 0 0 0 0 0 0 0 0 0 0 0 0 0 0 0 0 0 0 0 0 0 0 0 1711 1599 1599 1565 1752 1795 1752 1672 1672 1635 1565 1533 1795 1752 0 0 0 0 0 0 0 0 0 0 0 0 0 0 0 1887 2102 2044 1989 2230 2044 1989 2102 1936 1839 1635 1415 1599 1599 1501 1599 1565 1565 1599 1711 1795 0 0 2628 2628 2725 0 5256 4906 0 0 0 1565 1672 1415 1599 1565 1565 1565 1565 1599 1565 1565 0 0 3873 0 0 0 0 0 1672 1501 1533 1635 1599 1672 1672 1672 1672 1672 1711 1752 1711 1795 1752 1795 0 0 0 2453 2537 2044 1711 1752 1795 1711 1711 1711 1599 1533 1533 1711 1565 1533 1599 1533 1443 1471 1415 1388 1314 1362 1314 1338 1291 0 1132 0 0 0 0 0 0 0 0 0 1501 1599 1533 1635 1501 1635 1635 1443 1314 1388 1338 1415 1415 1388 1443 1415 1471 1565 1501 1672 1501 1501 1711 1501 1635 0 8177 0 0 0 0 0 0 0 0 0 0 0 0 0 0 0 362 0 0 707 687 687 657 675 681 675 675 675 675 675 669 681 669 669 681 675 669 657 639 657 1338 1314 1247 1314 1314 1314 1314 1314 1291 1268 1247 1268 1226 1149 1206 1206 1187 1206 1206 1226 1226 1206 1291 1187 1187 1206 1098 1066 1098 1098 1098 1066 1098 1051 1066 1051 1066 1008 0 1008 981 931 919 931 0 0 0 0 0
    0 0 0 0 0 0 0 0 0 0 0 0 0 0 0 0 0 0 0 0 0 0 0 0 0 0 0 0 0 0 0 0 0 0 0 0 0 0 0 0 0 0 0 0 0 0 0 0 0 0 0 0 0 0 0 0 0 0 0 0 0 0 0 0 0 0 0 0 0 1752 1599 1599 1565 1752 1795 1795 1711 1599 1599 1471 1471 1752 1635 0 0 0 0 0 0 0 373 371 0 0 0 0 0 0 1989 2374 2102 2102 2453 2299 2164 2299 1989 0 1599 1415 1635 1599 1501 1599 1599 1599 1635 1711 1795 1795 1989 2725 2628 2830 0 4599 4599 3679 0 0 0 0 1443 1635 1599 1565 1565 1565 1635 1599 1565 1795 0 3679 0 0 3199 2374 1887 1795 1672 1599 1672 1635 1711 1672 1672 1711 1711 1752 1795 1795 1989 1936 2044 2453 3066 1887 2374 2453 2044 1711 1752 1752 1711 1711 1711 1599 1533 1533 1711 1565 1501 1635 1501 1443 1443 1388 1338 1268 1314 1291 1314 0 1247 1149 0 0 0 0 0 0 0 0 1635 1599 1635 1565 1599 1501 1599 1599 1415 1314 1388 1338 1415 1443 1388 1443 1443 1471 1565 1533 1672 1533 1533 1752 1501 1599 0 0 0 0 0 0 0 0 0 774 0 0 0 0 0 0 0 0 0 0 687 681 687 645 675 675 669 675 669 675 669 663 681 663 669 681 669 663 651 645 663 0 1268 1132 1291 1291 1291 1314 1314 1291 1268 1247 1268 1226 1187 1226 1226 1206 1206 1226 1247 1226 1226 1268 1168 1168 1206 1036 1036 1051 1066 1066 1036 1036 994 0 0 0 0 0 994 981 943 943 0 0 0 0 0 0
    0 0 0 0 0 0 0 0 0 0 0 0 0 0 0 0 0 0 0 0 0 0 0 0 0 0 0 0 0 0 0 0 0 0 0 0 0 0 0 0 0 0 0 0 0 0 0 0 0 0 0 0 0 0 0 0 0 0 0 0 0 0 0 0 0 0 0 0 0 1711 1565 1565 1533 1752 0 0 0 0 0 0 0 0 1533 0 0 377 373 369 364 375 0 0 0 0 0 0 0 0 2044 2725 2537 0 2725 0 0 0 0 142 1533 1415 1635 1599 1533 1599 1599 1599 1635 0 1839 1839 2164 2830 2725 2830 3345 4329 4088 3679 3199 0 1936 1839 1533 1672 1635 1599 1599 1599 1635 1599 1565 0 0 3873 3345 3066 3066 2299 1936 1839 1752 1672 1711 1672 1711 1711 1672 1711 1752 1795 1839 1887 2453 2374 2453 2943 3066 1936 2299 2374 1989 1672 1752 1752 1672 1672 1672 1599 1533 1533 1711 1533 1501 1672 1388 1388 1362 1314 1268 1206 1247 1247 1268 1268 1247 1149 0 1098 0 0 0 0 0 0 0 0 1672 1599 1599 1533 1599 1565 1388 1314 1362 1338 1443 1443 1415 1443 1443 1471 1565 1533 1672 1533 1533 1752 1599 1672 0 7359 0 0 0 0 0 0 750 0 0 0 0 0 0 0 0 0 0 0 700 694 694 651 675 675 669 669 669 669 663 657 681 663 669 681 669 657 651 651 669 681 0 0 1226 1291 1291 1314 1314 1314 1291 1247 1291 1247 1206 1247 1226 1206 1226 1226 1247 1247 1247 1291 1187 1187 0 955 855 0 0 0 0 0 0 0 0 0 0 0 0 0 0 0 2044 0 0 0 0 0
    0 0 0 0 0 0 0 0 0 0 0 0 0 0 0 0 0 0 0 0 0 0 0 0 0 0 0 0 0 0 0 0 0 0 0 0 0 0 0 0 0 0 0 0 0 0 0 0 0 0 0 0 0 0 0 0 0 0 0 0 0 0 0 0 0 0 0 0 0 1711 1565 1533 1533 0 0 0 0 0 0 0 0 0 0 0 0 375 0 366 362 371 0 0 0 207 0 0 0 2453 2725 3066 0 0 0 0 0 0 0 0 1501 1388 1599 1565 1533 1599 1599 1599 1635 0 0 0 0 0 2943 2943 3345 4088 4088 3504 3066 0 2164 1839 1599 1711 1635 1599 1599 1599 1635 1599 1565 1795 0 4088 3345 2830 2943 2299 1936 1887 1795 1752 1752 1711 0 1752 1711 1795 1839 1936 1989 2102 2628 2628 2628 3066 3066 1989 2164 2299 1936 1635 1711 1711 1672 1635 1635 1635 1533 1533 1711 1565 1533 1711 1415 1415 1388 1291 1291 1226 1291 1291 1291 1268 1247 1168 1098 1098 0 0 0 0 0 0 0 0 1711 1672 1672 1599 1635 1635 1388 1314 1388 1338 1443 1443 1415 1443 1443 1501 1599 1533 1672 1533 1533 1752 1565 1635 0 0 0 0 0 0 0 0 0 0 0 0 0 0 0 0 0 0 735 714 707 700 707 663 681 675 669 669 669 669 657 657 675 663 669 681 669 657 651 657 675 681 687 0 0 0 1291 1338 1338 1338 1314 1291 1362 1291 1247 1291 1226 1226 1247 1268 1291 1291 1268 1314 1206 0 0 0 836 0 0 0 0 0 0 0 0 0 0 0 0 0 0 0 1989 0 0 0 0 0
    0 0 0 0 0 0 0 0 0 0 0 0 0 0 0 0 0 0 0 0 0 0 0 0 0 0 0 0 0 0 0 0 0 0 0 0 0 0 0 0 0 0 0 0 0 0 0 0 0 0 0 0 0 0 0 0 0 0 0 0 0 0 0 0 0 0 0 0 0 1711 1533 1533 1533 1752 0 1247 1268 1338 1415 0 0 0 0 0 0 0 0 0 359 364 0 0 0 0 0 207 0 0 3066 3199 3199 3066 2830 0 0 0 0 0 1471 1362 1599 1565 1533 1599 1599 1599 1635 0 0 0 0 0 2943 2943 3199 3679 3873 3504 3066 2725 2374 1887 1672 1752 1672 1599 1599 1635 1672 1599 1565 1795 0 4329 3345 2725 2943 2374 0 0 0 1839 1795 0 0 1795 1752 1839 1936 2102 2044 2230 2628 2628 2628 2830 3066 2044 2102 2164 1936 1635 1711 1711 1635 1635 1635 1635 1533 1533 1752 1599 1565 1795 1533 0 0 0 1268 1206 1268 1268 1268 0 1247 1187 1115 1098 0 0 0 0 0 0 0 0 0 1672 1635 1635 1672 1635 1388 1338 1388 1362 1443 1443 1415 1443 1443 1501 1599 1533 1672 1565 1533 1752 1565 1635 0 0 0 0 0 0 0 0 0 0 0 0 0 0 0 0 0 735 728 714 714 707 707 675 681 675 675 675 669 669 663 657 681 669 675 681 675 663 651 657 675 675 681 681 663 0 0 1362 1362 1388 1338 1415 1565 1565 0 0 1268 0 0 0 0 1388 1291 1314 0 0 0 0 0 0 0 0 0 0 0 0 0 0 0 0 0 2725 0 0 0 0 0 0 0 0
    0 0 0 0 0 0 0 0 0 0 0 0 0 0 0 0 0 0 0 0 0 0 0 0 0 0 0 0 0 0 0 0 0 0 0 0 0 0 0 0 0 0 0 0 0 0 0 0 0 0 0 0 0 0 0 0 0 0 0 0 0 0 0 0 0 0 0 0 0 1711 1533 1533 1533 1752 1471 1268 1314 1338 1388 0 0 0 0 0 0 0 0 0 357 0 0 0 0 0 0 0 0 0 3199 3199 3199 3066 2725 0 0 0 1635 1443 1471 1362 1635 1565 1565 1635 1599 1635 1672 0 0 0 2299 0 3066 2943 3066 3504 3873 3504 3066 2830 2537 1989 1752 1752 1711 1635 1635 1672 1672 1599 1565 0 4329 4329 3345 2830 2943 2537 0 0 0 1887 1795 0 0 1795 1795 1887 1989 2164 2102 2230 2628 2537 2537 2725 2943 2044 1989 2044 1887 1599 1672 1672 1599 1599 1599 1635 1533 1533 1752 1599 1599 1936 0 0 0 0 1268 1206 1268 1247 1268 0 1291 1226 0 0 0 0 0 0 0 0 0 0 0 1565 1565 1599 1599 1565 1362 1338 1388 1362 1443 1443 1415 1471 1443 1533 1599 1533 1711 1565 1565 1795 1635 1672 0 0 0 0 0 0 0 0 0 1388 1388 0 0 0 0 694 721 735 721 714 714 707 707 675 681 681 675 675 675 675 663 657 681 669 675 681 669 651 634 639 663 663 663 657 651 639 657 1443 1415 1533 1533 1711 0 0 0 0 0 0 0 0 0 0 0 0 0 0 0 0 0 422 420 0 0 0 0 0 0 0 0 0 0 0 0 0 0 0 0 0 0 0
    0 0 0 0 0 0 0 0 0 0 0 0 0 0 0 0 0 0 0 0 0 0 0 0 0 0 0 0 0 0 0 0 0 0 0 0 0 0 0 0 0 0 0 0 0 0 0 0 0 0 0 0 0 0 0 0 0 0 0 0 0 0 0 0 0 0 0 0 0 1711 1533 1533 1533 1711 1415 1268 1268 1314 1338 0 0 0 0 0 0 0 0 360 0 0 1533 1599 0 0 0 0 0 0 3199 3345 3345 3345 3066 0 0 0 1635 1415 1501 1362 1635 1565 1599 1635 1599 1635 1672 0 0 0 2299 2725 3066 2830 3066 3345 3679 3345 3066 2830 2628 2044 0 1795 1711 1635 1635 1672 1672 1599 1565 2102 4088 4329 3345 2725 2830 2537 0 0 0 1887 1839 1795 0 1795 1795 1887 1989 2230 2164 2299 2628 2453 2537 2628 2943 2044 1887 1936 1839 1599 1672 1672 1599 1599 1565 1635 1501 1533 1752 1565 1565 0 0 0 0 0 1314 1226 1291 1291 0 0 1338 0 0 0 0 371 0 0 0 0 0 0 1635 1565 1533 1599 1565 1533 1362 1338 1388 1362 1443 1443 1415 1471 1471 1533 1565 1533 1711 1565 1565 1795 1672 1672 0 0 0 0 0 0 0 0 0 1314 1314 1247 0 0 0 681 707 728 721 714 714 714 707 675 681 681 675 675 675 675 663 657 681 675 675 687 675 639 623 634 651 651 645 645 639 634 645 0 0 0 0 0 0 0 0 0 0 0 0 0 0 0 1247 0 0 0 0 0 0 0 0 0 0 0 0 0 0 0 0 0 0 0 0 0 0 0 0 0 0 0
    0 0 0 0 0 0 0 0 0 0 0 0 0 0 0 0 0 0 0 0 0 0 0 0 0 0 0 0 0 0 0 0 0 0 0 0 0 0 0 0 0 0 0 0 0 0 0 0 0 0 0 0 0 0 0 0 0 0 0 0 0 0 0 0 0 0 0 0 0 1752 1599 1599 1599 1752 1471 1268 1314 1362 1415 1362 0 0 0 0 0 0 0 0 0 0 1635 1672 1711 0 0 0 2102 0 2943 2943 3199 3199 0 0 0 0 0 0 1471 0 1672 1565 1599 1635 1565 1599 1672 84 84 0 2374 0 3199 2943 3066 3345 3679 3345 3066 2830 2628 2044 0 1795 1711 1635 1635 1672 1635 1565 1533 1887 3873 4088 3199 2537 2830 2453 0 0 0 0 1839 0 0 1795 0 1887 1989 2230 2164 2299 2628 2453 2537 2628 2830 2044 1839 1839 1795 1565 1635 1635 1565 1565 1565 1635 1533 1533 1752 1565 1565 0 0 0 0 0 1314 1268 1291 1314 1314 0 1362 0 0 0 0 0 0 0 0 0 0 1672 1635 1599 1565 1635 1599 1599 1362 1388 1415 1362 1471 1443 1415 1471 1471 1565 1565 1565 1711 1599 1565 1795 1711 1672 0 0 0 0 0 0 0 0 0 0 0 0 0 675 721 707 721 728 728 721 714 714 714 681 687 687 681 675 681 681 675 669 687 681 681 687 681 651 629 639 657 657 645 639 639 634 645 0 0 0 0 0 0 0 0 0 0 0 0 0 0 0 0 0 0 0 0 0 0 0 0 0 0 0 0 0 0 0 0 0 0 0 0 0 0 0 0 0 0 0
    0 0 0 0 0 0 0 0 0 0 0 0 0 0 0 0 0 0 0 0 0 0 0 0 0 0 0 0 0 0 0 0 0 0 0 0 0 0 0 0 0 0 0 0 0 0 0 0 0 0 0 0 0 0 0 0 0 0 0 0 0 0 0 0 0 0 0 0 0 1752 1599 1635 1635 1752 1533 1291 1362 1388 1471 1443 0 0 0 0 0 0 0 0 0 0 1533 1599 1635 0 0 0 2044 0 2830 2830 0 3199 0 0 0 0 0 1388 1471 1066 1672 1533 1565 1599 1533 0 0 84 84 0 2374 0 3199 2830 2943 3199 3504 3345 2943 2830 2628 2044 0 1795 1711 1635 1635 1672 1672 1565 1565 1989 3504 3873 3199 2537 2830 2453 0 0 0 0 0 0 0 0 0 1887 2044 2230 2230 2374 2628 2537 2537 2628 2830 2044 1795 1795 1752 1533 1635 1599 1565 1565 1533 1635 1533 1533 1752 1599 1599 0 0 0 0 0 1338 1268 1314 1338 1314 1388 1388 1291 0 0 0 377 0 0 0 0 0 1599 1501 1565 1565 1599 1565 1565 1338 1388 1415 1362 1471 1471 1415 1471 1471 1565 1565 1565 1711 1599 1565 1795 1752 1672 1565 1314 1338 1268 1247 0 0 0 0 0 0 0 714 707 735 721 721 728 728 721 714 714 707 681 694 687 681 681 681 687 675 675 694 687 687 694 687 657 629 639 657 651 639 634 634 629 639 0 0 0 0 0 0 0 0 0 0 0 0 0 0 0 0 0 0 0 0 0 0 0 0 0 0 0 0 0 0 0 0 0 0 0 0 0 0 0 0 0 0 0
    0 0 0 0 0 0 0 0 0 0 0 0 0 0 0 0 0 0 0 0 0 0 0 0 0 0 0 0 0 0 0 0 0 0 0 0 0 0 0 0 0 0 0 0 0 0 0 0 0 0 0 0 0 0 0 0 0 0 0 0 0 0 0 0 0 0 0 0 0 1752 1635 1635 1635 1752 1533 1291 1388 1388 1533 1501 0 0 0 0 0 0 0 0 0 0 1599 1635 1672 0 0 0 1887 0 2299 2102 0 0 0 0 0 0 0 1362 1501 0 1672 1501 1533 1599 1501 0 0 84 84 84 2299 0 3199 2943 2943 3066 3345 3199 2830 2725 2537 2044 0 1795 1711 1635 1672 1711 1672 1599 1599 2044 2943 3504 3066 2453 2725 2453 0 0 0 1936 1839 0 0 0 0 1936 2044 2230 2230 2374 2725 2537 2537 2628 2830 1989 1672 1752 1711 1501 1599 1599 1533 1533 1533 1635 1533 1533 1752 1599 1599 0 0 0 0 0 0 1247 1226 1268 0 0 1314 1206 0 0 0 0 0 0 0 0 0 0 1501 1565 1565 1565 1565 1533 1338 1415 1415 1362 1471 1471 1415 1471 1471 1599 1565 1565 1711 1599 1565 1795 1752 1672 1565 1314 1314 1268 1247 0 0 0 0 0 766 758 758 743 758 735 735 743 728 721 714 714 707 675 687 687 675 681 681 681 675 675 694 687 687 700 694 663 629 645 657 645 629 623 629 623 629 0 0 0 0 0 0 0 0 0 0 0 0 0 0 0 0 0 0 0 0 0 0 0 0 0 0 0 0 0 0 0 0 0 0 0 0 0 0 0 0 0 0 0
    0 0 0 0 0 0 0 0 0 0 0 0 0 0 0 0 0 0 0 0 0 0 0 0 0 0 0 0 0 0 0 0 0 0 0 0 0 0 0 0 0 0 0 0 0 0 0 0 0 0 0 0 0 0 0 0 0 0 0 0 0 0 0 0 0 0 0 0 0 1752 1599 1635 1635 1752 1565 1314 1501 1501 1711 1672 0 0 0 120 0 0 0 0 0 0 1711 1752 1752 1752 1795 1839 1887 1839 1936 1839 1711 0 1533 0 1501 1415 1388 1362 1471 0 1635 1471 1501 1565 1471 0 0 84 84 84 2230 0 3199 2830 2830 2943 3199 3199 2725 2725 2453 1989 1795 1795 1752 1635 1672 1711 1711 1599 1635 2102 2830 3345 3066 2299 2628 2374 2164 2164 1989 1936 1887 1839 1936 1839 0 1936 2044 0 0 2374 2725 2537 2537 2537 2725 1936 1599 1711 1672 1471 1565 1565 1533 1533 1533 1635 1565 1565 1795 1752 1752 2299 2453 0 0 0 0 1226 1206 1247 0 1268 0 0 0 0 0 0 0 0 0 0 1599 1471 1443 1471 1533 1533 1565 1501 1338 1443 1443 1388 1501 1471 1415 1501 1471 1599 1565 1565 1711 1565 1565 1795 1752 1672 1599 1338 1338 1291 1268 0 0 0 0 743 774 766 766 750 766 758 750 750 735 721 721 714 707 687 694 694 681 681 687 687 681 681 694 687 687 700 694 663 634 639 645 639 623 623 623 618 629 0 0 0 0 0 0 0 0 0 0 0 0 0 0 0 0 0 0 0 0 0 0 0 0 0 0 0 0 0 0 0 0 0 0 0 0 0 0 0 0 0 0 0
    0 0 0 0 0 0 0 0 0 0 0 0 0 0 0 0 0 0 0 0 0 0 0 0 0 0 0 0 0 0 0 0 0 0 0 0 0 0 0 0 0 0 0 0 0 0 0 0 0 0 0 0 0 0 0 0 0 0 0 0 0 0 0 0 0 0 0 0 0 1752 1635 1672 1672 0 1599 1443 1635 1565 1711 1672 0 0 0 121 0 0 0 0 0 0 1711 1752 1752 1752 1795 1795 1839 1795 1839 1711 1672 0 0 0 0 1501 1443 1362 1501 1226 1635 1443 1501 1533 1471 0 0 84 84 84 2102 0 3199 2830 2725 2830 3199 3066 2537 2628 2453 1936 1795 1752 1711 1635 1711 1752 1711 1635 1672 2102 2453 3199 2830 2164 2537 2374 2164 2230 1989 1989 1887 1887 1989 1887 0 1989 2044 2230 2230 2299 2628 2453 2374 2374 2628 1887 1599 1752 1711 1443 1599 1565 1533 1533 1565 1635 1565 1599 1887 1887 1887 2299 2374 2453 0 0 1362 1268 1268 1338 0 0 0 0 0 0 395 0 0 1415 1443 1471 1565 1443 1415 1443 1471 1501 1533 1501 1338 1443 1471 1388 1501 1501 1443 1501 1501 1599 1533 1565 1711 1565 1565 1795 1635 1635 1471 1291 1247 1247 1187 0 0 675 735 766 782 782 782 758 766 758 750 750 735 721 721 714 714 694 700 700 687 687 687 687 687 687 694 687 681 694 687 663 645 639 634 639 629 629 634 629 657 0 0 0 728 0 0 0 0 0 0 0 0 0 0 290 0 0 0 0 0 0 0 0 0 0 0 0 0 0 0 0 0 0 0 0 0 0 0 0 0 0 0 0
    0 0 0 0 0 0 0 0 0 0 0 0 0 0 0 0 0 0 0 0 0 0 0 0 0 0 0 0 0 0 0 0 0 0 0 0 0 0 0 0 0 0 0 0 0 0 0 0 0 0 0 0 0 0 0 0 0 0 0 0 0 0 0 0 0 0 0 0 0 1752 1635 1672 1672 0 0 1533 1672 1599 1635 1599 0 0 0 0 0 0 0 0 0 0 0 0 1711 0 0 1711 0 0 0 1635 1635 1635 0 0 0 1599 1565 0 1565 1268 1635 1443 1501 1533 1471 0 0 84 84 0 1936 0 2830 2628 2537 2628 2943 2943 2299 2453 2299 1936 1795 1752 1752 1672 1752 1752 1711 1672 1711 2102 2374 2943 2725 2102 2374 2299 2102 2164 1989 1936 1887 1839 1989 1887 0 1936 2044 2164 2230 2299 2537 2299 2230 2230 2453 1887 1635 1752 1711 1443 1599 1565 1533 1533 1565 1635 1565 1599 1887 1887 1936 2299 2299 2102 0 0 1362 1291 0 0 0 0 0 391 391 393 393 387 0 1471 1471 1501 1565 1443 1388 1443 1443 1443 1501 1443 1338 1471 1501 1415 1501 1501 1443 1501 1501 1599 1533 1533 1711 1565 1565 1752 1599 1565 1388 1226 1098 1132 1082 0 0 758 782 791 791 791 782 774 774 766 758 758 743 728 714 707 707 694 700 700 687 687 694 687 694 687 694 687 681 694 687 663 657 645 639 651 645 645 651 651 669 687 694 694 707 707 707 707 694 681 675 657 0 0 0 0 0 0 0 285 0 0 0 0 0 0 0 0 0 0 0 0 0 0 0 634 0 0 0 0 0 0 0 0
    0 0 0 0 0 0 0 0 0 0 0 0 0 0 0 0 0 0 0 0 0 0 0 0 0 0 0 0 0 0 0 0 0 0 0 0 0 0 0 0 0 0 0 0 0 0 0 0 0 0 0 0 0 0 0 0 0 0 0 0 0 0 0 0 0 0 0 0 0 1752 1672 1711 1711 0 0 0 1752 1635 1752 1533 0 0 0 0 0 0 0 88 0 0 0 0 0 1635 1672 1599 0 0 1599 1565 1565 1565 0 0 0 1635 1635 0 1599 0 1635 1443 1501 1533 1471 0 0 0 0 0 1887 1936 2299 2453 2164 2164 2537 2044 1936 2102 2102 1887 1752 1752 1752 1711 1795 1795 1711 1672 1752 2102 2164 2537 2374 1989 2164 2102 1989 1989 1936 1839 1795 1795 0 1795 0 0 0 0 2102 2230 2537 2230 2102 2102 2164 1839 1672 1752 1711 1415 1599 1599 1565 1565 1599 1635 1565 1565 1839 1795 1839 1936 1839 1565 1388 0 1338 1291 1247 1314 0 0 0 393 393 0 0 387 0 1443 1415 1471 1533 1415 1388 1443 1471 1471 1533 1471 1338 1471 1501 1415 1501 1501 1443 1501 1501 1599 1533 1533 1711 1565 1565 1752 1599 1533 1338 1168 1008 0 0 0 826 782 791 799 799 791 774 766 774 774 766 758 743 728 714 707 707 694 700 700 681 681 687 687 694 687 687 681 681 694 687 669 675 663 657 669 669 669 669 669 681 681 687 694 700 700 700 694 681 681 681 669 663 0 0 0 0 0 0 0 0 0 0 0 0 0 0 0 0 0 0 634 645 0 651 645 651 0 0 0 0 0 0 0
    0 0 0 0 0 0 0 0 0 0 0 0 0 0 0 0 0 0 0 0 0 0 0 0 0 0 0 0 0 0 0 0 0 0 0 0 0 0 0 0 0 0 0 0 0 0 0 0 0 0 0 0 0 0 0 0 0 0 0 0 0 0 0 0 0 0 0 0 0 1795 1752 1752 0 0 0 0 1752 1599 1752 1501 0 0 0 0 0 0 0 0 0 0 0 0 0 1635 1635 1565 0 1533 1565 1565 1565 1533 0 0 0 0 1635 0 1635 0 1672 1443 1501 1533 1501 0 0 0 0 0 1795 1839 1887 2044 1887 1839 1887 1795 1795 1887 1839 1795 1752 1711 1752 1752 1795 1752 1711 1672 1752 1936 1989 2044 1989 1839 1936 1887 1887 1887 1839 1752 1752 1711 0 1711 1711 1752 0 0 1989 2102 2453 2230 2044 2044 1989 1795 1635 1752 1711 1415 1599 1599 1565 1599 1599 1635 1565 1565 1795 1752 1752 1795 1635 1362 1338 1291 1291 1291 1226 1291 1268 0 0 0 0 0 0 0 0 1501 1443 1533 1565 1443 1415 1471 1501 1471 1565 1501 1338 1501 1533 1415 1501 1501 1443 1501 1501 1599 1565 1565 1711 1565 1565 1752 1471 1388 0 1115 981 0 0 808 826 799 799 808 799 791 791 774 782 774 766 750 728 721 714 700 707 700 700 700 687 687 694 687 687 687 687 681 675 687 687 675 681 675 669 675 675 675 675 675 681 681 687 694 700 694 700 694 687 687 681 681 0 0 0 0 0 0 0 0 0 0 0 0 0 0 0 0 0 645 657 645 657 657 657 651 657 669 681 0 0 0 0 0
    0 0 0 0 0 0 0 0 0 0 0 0 0 0 0 0 0 0 0 0 0 0 0 0 0 0 0 0 0 0 0 0 0 0 0 0 0 0 0 0 0 0 0 0 0 0 0 0 0 0 0 0 0 0 0 0 0 0 0 0 0 0 0 0 0 0 0 0 0 1795 0 0 0 0 0 0 0 1599 1752 1672 0 0 0 0 0 0 0 0 0 0 0 0 0 1672 1672 1599 0 1565 1599 1565 1533 1501 0 0 0 1565 1599 1471 1672 0 1711 1471 1565 1565 1533 0 0 0 0 1501 1752 1752 1711 1795 1752 1711 1752 1711 1711 1752 1752 1752 1711 1672 1795 1752 1795 1752 1752 1752 1795 1887 1936 1887 1887 1795 1839 1795 1795 1795 1795 1711 1711 1635 1752 1672 1672 1752 1752 1752 1936 2044 2299 2230 1989 1989 1936 1839 1672 1752 1711 1388 1565 1565 1565 1565 1599 1635 1565 1565 1795 1711 1752 1711 1533 1314 1314 1268 1268 1268 1206 1268 1247 0 0 0 0 0 0 0 0 1599 1471 1533 1565 1443 1415 1471 1501 1471 1533 1471 1338 1501 1533 1415 1501 1501 1443 1501 1533 1599 1533 1533 1672 1533 1501 1711 1338 0 0 1036 931 836 855 836 836 799 799 808 799 799 791 782 782 774 766 750 728 721 714 707 707 700 707 707 687 687 694 687 687 681 681 675 675 687 687 675 681 675 669 675 675 675 675 675 681 681 0 0 0 0 0 0 0 0 0 0 0 0 0 0 657 0 0 0 0 0 0 0 0 0 0 0 645 645 657 645 657 651 651 645 651 663 669 0 0 0 0 0
    0 0 0 0 0 0 0 0 0 0 0 0 0 0 0 0 0 0 0 0 0 0 0 0 0 0 0 0 0 0 0 0 0 0 0 0 0 0 0 0 0 0 0 0 0 0 0 0 0 0 0 0 0 0 0 0 0 0 0 0 0 0 0 0 0 0 0 0 0 0 0 0 0 0 0 0 0 0 0 0 0 0 0 0 0 0 0 0 0 0 0 0 0 1711 1752 1672 0 1635 1635 1635 1599 1471 1533 1533 1533 1565 1565 1471 1672 1443 1752 1501 0 0 0 84 0 0 1635 1471 1752 1672 1565 1635 1672 1599 1672 1672 1672 1711 1711 1711 1711 1672 1839 1839 1839 1839 1839 1839 1887 1936 1989 1887 1839 1795 1795 1752 1752 1752 1711 1672 1672 1635 1711 1672 1672 1711 1599 1362 0 0 0 2299 1989 1887 1936 1887 0 1795 1752 1362 1565 1565 1565 1565 1599 1599 1565 1565 1795 1711 1752 0 1599 1291 1314 1247 1247 1247 1187 1268 1247 0 0 0 0 0 0 0 0 1599 1533 1599 1599 1471 1443 1501 1501 1471 1565 1415 1338 1471 1501 1415 1501 1501 1443 1501 1501 1599 1533 1533 1672 1471 1443 0 1268 1008 994 981 908 865 876 865 855 808 808 808 808 799 799 782 766 758 758 743 721 714 714 707 707 707 707 707 694 687 694 687 687 681 681 675 675 687 687 675 681 675 675 675 675 675 675 675 681 681 0 0 0 0 0 0 0 0 0 0 0 669 0 657 657 663 0 0 0 0 0 0 0 0 0 0 651 645 657 645 651 645 645 645 651 657 669 0 0 0 0 0
    0 0 0 0 0 0 0 0 0 0 0 0 0 0 0 0 0 0 0 0 0 0 0 0 0 0 0 0 0 0 0 0 0 0 0 0 0 0 0 0 0 0 0 0 0 0 0 0 0 0 0 0 0 0 0 0 0 0 0 0 0 0 0 0 0 0 0 0 0 0 0 0 0 0 0 0 0 0 0 0 0 0 0 0 0 0 0 0 0 0 1752 0 1839 1795 1839 1795 1795 1711 1711 1711 1672 1501 1565 1533 1501 1533 1533 1443 1672 0 1795 1533 0 0 0 84 84 0 1672 1533 1752 1635 1565 1565 1635 1565 1635 1672 1672 1711 1711 1711 1711 1672 1795 1795 1795 1795 1795 0 1887 1936 1989 1936 1887 1795 1839 1795 1795 1795 1752 1711 1711 1672 1752 1672 0 0 0 0 0 0 0 0 0 0 0 1936 1936 1839 1795 1388 1599 1599 1599 1565 1565 1599 1599 1565 1795 1752 1795 0 0 0 1268 1206 1226 1206 1168 1226 1226 0 0 0 0 0 0 0 0 1711 1672 1711 1711 1635 1565 1635 1599 1565 1635 1388 1338 1471 1501 1415 1501 1501 1443 1501 1501 1599 1533 1533 1635 1415 1388 0 1187 981 955 943 908 876 876 876 845 808 808 817 808 799 799 782 766 766 766 743 728 721 721 707 714 707 707 707 694 694 694 687 687 681 681 675 681 687 687 675 681 675 675 675 675 675 675 675 675 681 0 0 0 0 0 0 0 0 0 0 675 669 669 657 657 663 0 0 0 0 0 0 0 0 0 0 657 651 657 645 651 645 645 639 645 651 663 0 0 0 0 0
    0 0 0 0 0 0 0 0 0 0 0 0 0 0 0 0 0 0 0 0 0 0 0 0 0 0 0 0 0 0 0 0 0 0 0 0 0 0 0 0 0 0 0 0 0 0 0 0 0 0 0 0 0 0 0 0 0 0 0 0 0 0 0 0 0 0 0 0 0 0 0 0 0 0 0 0 0 0 0 0 0 0 0 0 0 0 0 0 0 0 0 0 1752 1752 1795 1795 1795 1752 1711 1711 1711 1565 1599 1565 1471 1471 1471 1415 1635 0 1795 1565 0 0 0 84 84 0 1672 1599 1795 1711 1599 1599 1635 1533 1599 1635 1635 1672 1672 1711 1711 1672 1795 1752 1752 0 0 0 0 0 1989 1936 1887 1839 1839 1795 1795 1839 1795 1752 1711 1635 1752 1672 0 0 1226 0 0 0 0 0 0 0 1989 1989 1936 1795 1752 1415 1599 1599 1599 1565 1565 1565 1599 1565 1795 1752 1752 1752 1752 1443 1362 1314 1291 1268 1206 1314 1291 0 0 0 0 0 0 0 0 1795 1711 1752 1795 1839 1752 1795 1711 1672 1711 1415 1362 1471 1501 1388 1501 1501 1443 1501 1501 1565 1501 1501 1599 1338 1338 0 1082 968 943 931 908 876 886 876 845 817 808 808 808 791 791 774 758 758 758 743 728 728 721 714 714 714 714 707 694 694 694 687 687 681 681 675 681 687 687 675 681 675 669 675 675 675 675 675 675 675 0 0 0 0 0 0 0 0 0 0 675 663 663 657 657 663 663 0 0 0 0 0 0 0 0 0 657 651 657 645 651 645 645 639 645 651 657 0 0 0 0 0
    0 0 0 0 0 0 0 0 0 0 0 0 0 0 0 0 0 0 0 0 0 0 0 0 0 0 0 0 0 0 0 0 0 0 0 0 0 0 0 0 0 0 0 0 0 0 0 0 0 0 0 0 0 0 0 0 0 0 0 0 0 0 0 0 0 0 0 0 0 1795 1752 1752 0 0 0 0 0 0 0 0 0 0 0 0 0 0 0 0 0 0 0 0 1711 1711 1711 1752 1752 1711 1672 1672 1635 1501 1501 1533 1443 1443 1501 1443 1565 1795 1795 1599 1672 0 0 84 84 0 1672 1599 1795 1752 1635 1599 1635 1501 1565 1635 1635 1672 1635 1672 1711 1672 1752 1752 1752 0 0 0 0 0 0 1887 1887 1795 1839 0 1711 1752 1711 1672 1599 1471 1599 1501 1565 1362 1314 0 0 0 0 0 0 0 1989 1989 1887 1672 1711 1415 1599 1599 1565 1533 1565 1533 1599 1533 1752 1599 1599 1599 1635 1443 1501 1362 1362 1338 1291 1362 1338 1672 0 0 0 0 0 0 2102 1887 1839 1887 1839 1936 1839 1839 1839 1752 1752 1501 1362 1501 1501 1388 1501 1501 1443 1471 1501 1565 1471 1471 1565 1291 0 0 1051 968 943 931 908 876 886 876 845 826 817 817 808 791 791 774 758 766 758 743 728 728 728 714 721 721 714 714 700 700 694 687 687 687 681 681 681 687 681 675 681 675 669 675 675 669 675 675 675 675 675 0 0 0 0 0 0 0 0 675 675 663 663 657 657 663 663 669 0 0 0 0 0 0 0 0 651 645 651 645 645 639 639 639 645 651 651 0 0 0 0 0
    0 0 0 0 0 0 0 0 0 0 0 0 0 0 0 0 0 0 0 0 0 0 0 0 0 0 0 0 0 0 0 0 0 0 0 0 0 0 0 0 0 0 0 0 0 0 0 0 0 0 0 0 0 0 0 0 0 0 0 0 0 0 0 0 0 0 0 0 0 1795 1752 1752 0 0 0 0 0 0 0 0 0 0 99 0 0 0 0 0 0 0 0 0 0 1711 1635 1672 1711 1635 1599 1599 1565 1533 1471 1533 1471 1415 1501 1471 1565 1839 1795 1672 1711 0 0 84 84 85 1672 1565 1795 1752 1672 1635 1635 1501 1565 1599 1599 1635 1599 1599 1635 1599 1672 1672 1672 1672 1672 1752 1839 1752 1795 1795 1795 1711 1752 1599 1635 1599 1599 1565 1533 1415 1533 1471 1533 1388 1362 1362 1291 1314 1599 0 0 0 1989 1989 1887 0 1711 1388 1565 1599 1565 1501 1533 1501 1565 1533 1672 1533 1533 1501 1599 1471 1533 1415 1415 1415 1291 1338 1338 1501 1672 0 0 0 1936 1936 2299 1989 0 2044 1887 1989 1887 1887 1887 1795 1752 1565 1388 1501 1501 1388 1501 1501 1443 1471 1471 1533 1443 1443 0 1268 0 0 1036 968 943 919 919 886 908 886 855 836 836 826 826 808 808 791 774 782 766 750 728 728 728 721 721 721 714 714 707 700 700 687 687 687 681 681 681 687 687 675 681 675 675 675 675 669 675 675 675 675 675 0 0 0 0 681 681 681 681 675 675 663 663 663 663 669 669 675 669 669 0 0 663 0 0 651 651 645 651 645 645 639 639 639 639 645 645 0 0 0 0 0
    0 0 0 0 0 0 0 0 0 0 0 0 0 0 0 0 0 0 0 0 0 0 0 0 0 0 0 0 0 0 0 0 0 0 0 0 0 0 0 0 0 0 0 0 0 0 0 0 0 0 0 0 0 0 0 0 0 0 0 0 0 0 0 0 0 0 0 0 0 1795 1795 1752 0 0 0 0 0 0 0 0 0 0 0 0 0 0 0 0 0 0 0 0 0 1711 1599 1635 1672 1565 1565 1533 1501 1501 1443 1501 1471 1388 1501 1471 1565 1795 1795 1672 0 0 0 84 84 85 1672 1501 1752 1752 1672 1672 1635 1471 1533 1565 1565 1599 1533 1533 1533 1533 1599 1599 1635 1599 1599 1711 1795 1672 1711 1672 1672 1635 1672 1533 1565 1533 1533 1501 1501 1388 1471 1443 1471 1388 1338 1362 1291 1314 1501 1247 0 0 1936 1989 1839 0 1672 1362 1565 1565 1533 1471 1471 1443 1565 1501 1635 1533 1533 1501 1565 1501 1565 1443 1443 1443 1314 1362 1362 1388 1471 1752 0 0 1887 1936 2299 2044 0 0 0 2044 1936 1936 1887 1839 1711 1565 1388 1501 1501 1362 1471 1471 1443 1471 1471 1501 1443 1443 0 1247 0 0 1022 955 943 919 919 886 897 876 855 836 836 836 836 817 817 799 782 791 782 758 735 735 735 721 728 721 714 714 707 707 700 687 687 687 681 681 681 687 687 675 681 675 675 675 669 669 669 675 669 669 669 675 681 681 687 681 681 681 681 675 681 669 669 663 669 669 675 675 675 675 675 675 669 669 657 651 651 645 645 639 639 639 634 634 634 639 639 0 0 0 0 0
    0 0 0 0 0 0 0 0 0 0 0 0 0 0 0 0 0 0 0 0 0 0 0 0 0 0 0 0 0 0 0 0 0 0 0 0 0 0 0 0 0 0 0 0 0 0 0 0 0 0 0 0 0 0 0 0 0 0 0 0 0 0 0 0 0 0 0 0 0 1795 1795 1752 0 0 0 0 0 0 1501 0 0 0 0 0 0 0 0 0 0 0 0 0 0 1711 1599 1635 1672 1565 1565 1533 1533 1533 1471 1471 1501 1415 1501 1501 1565 1795 1795 1711 0 0 85 84 84 85 1635 1443 1711 1711 1635 1635 1635 1471 1501 1533 1565 1565 1501 1501 1501 1533 1565 1565 1599 1565 1565 1711 1795 1635 1672 1635 1672 1599 1635 1501 1533 1501 1533 1471 1471 1388 1471 1443 1501 1415 1388 1415 1388 1362 1565 1291 1291 0 1887 1936 1711 0 1565 1362 1533 1533 1501 1443 1471 1443 1533 1501 1599 1501 1471 1501 1565 1501 1565 1471 1471 1501 1362 1443 1415 1415 1565 1635 1752 0 0 1887 2102 1989 0 0 0 2044 1989 1989 1887 1839 1672 1533 1415 1471 1471 1362 1471 1471 1443 1471 1443 1501 1415 1415 0 1226 0 0 1008 955 943 919 919 897 897 886 865 836 836 826 826 817 817 799 782 791 782 766 743 743 743 728 728 728 721 721 707 707 700 687 687 687 681 681 681 681 681 675 681 675 675 675 669 669 669 669 663 669 669 675 681 681 681 681 681 681 681 675 681 669 669 663 669 669 675 675 675 669 669 675 669 669 657 651 651 645 645 639 639 639 634 634 634 639 639 0 0 0 0 0
    0 0 0 0 0 0 0 0 0 0 0 0 0 0 0 0 0 0 0 0 0 0 0 0 0 0 0 0 0 0 0 0 0 0 0 0 0 0 0 0 0 0 0 0 0 0 0 0 0 0 0 0 0 0 0 0 0 0 0 0 0 0 0 0 0 0 0 0 0 1795 1752 1711 0 0 0 1501 0 0 0 0 0 0 0 0 0 0 0 0 0 0 0 0 0 0 1599 1565 1635 1533 1565 1533 1471 1533 1471 1471 1501 1415 1533 1533 1565 1752 1752 1672 1711 0 0 84 84 84 1565 1415 1672 1672 1635 1635 1635 1415 1443 1471 1533 1501 1443 1443 1443 1501 1501 1533 1565 1565 1565 1711 1795 1599 1635 1635 1635 1599 1599 1471 1501 1501 1501 1415 1443 1362 1443 1415 1471 1415 1388 1415 1415 1415 1599 1314 1362 0 1887 1936 1672 0 1533 1362 1533 1533 1501 1443 1443 1443 1501 1501 1599 1471 1471 1471 1565 1501 1565 1501 1471 1533 1443 1533 1443 1471 1599 1635 1635 1752 1672 0 0 0 0 0 0 2044 1989 2044 1936 1887 1635 1565 1415 1471 1471 1362 1471 1471 1415 1471 1443 1471 1388 1362 0 1187 1022 1008 1008 955 943 919 919 897 897 886 865 845 836 826 826 817 808 791 782 782 782 774 750 750 743 728 728 728 721 721 707 707 700 687 687 687 681 675 681 681 681 669 675 675 669 675 669 669 669 669 657 663 663 669 675 681 675 681 675 681 681 669 681 663 663 663 669 669 675 675 675 669 675 675 669 669 657 657 651 645 645 639 639 639 634 634 634 639 639 0 0 0 0 0
    0 0 0 0 0 0 0 0 0 0 0 0 0 0 0 0 0 0 0 0 0 0 0 0 0 0 0 0 0 0 0 0 0 0 0 0 0 0 0 0 0 0 0 0 0 0 0 0 0 0 0 0 0 0 0 0 0 0 0 0 0 0 0 0 0 0 0 0 0 1795 1752 1711 0 1711 1565 1533 1533 0 0 0 0 0 0 0 0 0 0 1533 0 0 0 0 0 0 1565 1533 1599 1533 1533 1533 1471 1501 1471 1471 1471 1415 1501 1501 1533 1672 1711 1635 1635 1672 1752 84 84 84 1533 1362 1635 1672 1635 1635 1635 1388 1415 1443 1501 1443 1415 1443 1443 1471 1501 1533 1565 1533 1565 1711 1752 1565 1635 1565 1599 1565 1533 1415 1471 1471 1471 1415 1443 1362 1415 1415 1471 1415 1415 1443 1443 1415 1565 1362 1388 1338 1795 1887 1635 1443 1565 1388 1533 1533 1533 1443 1471 1471 1501 1501 1599 1471 1471 1501 1565 1533 1565 1533 1501 1533 1471 1533 1443 1388 1415 1415 1443 1415 0 0 0 0 0 0 0 0 1936 1989 1887 1839 1565 1533 1415 1443 1415 1338 1443 1443 1415 1443 1388 1415 1338 1338 1338 1149 1008 1008 994 955 943 919 919 897 897 886 865 855 845 836 826 817 808 791 782 791 791 782 758 758 750 735 728 728 721 721 707 707 700 687 687 687 681 681 681 681 681 669 675 675 669 675 669 669 663 669 657 663 657 663 669 681 675 675 669 681 681 669 681 663 663 663 669 675 675 675 675 669 669 675 669 669 657 657 651 645 645 639 639 639 639 639 634 639 639 0 0 0 0 0
    0 0 0 0 0 0 0 0 0 0 0 0 0 0 0 0 0 0 0 0 0 0 0 0 0 0 0 0 0 0 0 0 0 0 0 0 0 0 0 0 0 0 0 0 0 0 0 0 0 0 0 0 0 0 0 0 0 0 0 0 0 0 0 0 0 0 0 0 0 1795 1752 1752 1795 1752 1599 1565 1565 1501 0 0 0 0 0 0 0 0 0 1471 0 1599 0 0 0 0 1533 1533 1565 1501 1533 1533 1443 1471 1471 1443 1443 1388 1471 1471 1501 1635 1672 1599 1565 1599 1711 0 84 0 1471 1338 1533 1672 1635 1672 1599 1415 1415 1415 1501 1415 1415 1415 1415 1443 1471 1533 1533 1501 1565 1672 1711 1501 1599 1501 1533 1533 1471 1388 1443 1415 1443 1388 1415 1362 1415 1415 1471 1415 1415 1443 1443 1443 1565 1362 1388 1362 1635 0 1533 1471 1533 1388 1533 1533 1533 1471 1501 1471 1501 1501 1599 1471 1471 1501 1565 1533 1565 1565 1501 1533 1533 1533 1443 1362 1388 1388 1415 1388 0 0 0 0 0 0 1565 0 1887 1936 1795 1752 1443 1471 1415 1388 1362 1314 1415 1388 1362 1388 1362 1362 1314 1314 1291 1098 1008 994 994 955 931 919 919 897 897 886 876 855 855 845 836 826 817 799 799 799 799 791 774 766 766 735 735 728 721 714 707 700 700 687 687 687 681 681 681 681 681 669 675 675 669 675 669 669 663 663 657 663 663 663 669 681 675 675 669 681 681 669 681 669 669 669 669 675 675 669 675 669 663 669 663 663 651 651 651 645 645 645 645 645 639 645 639 645 639 0 0 0 0 0
    0 0 0 0 0 0 0 0 0 0 0 0 0 0 0 0 0 0 0 0 0 0 0 0 0 0 0 0 0 0 0 0 0 0 0 0 0 0 0 0 0 0 0 0 0 0 0 0 0 0 0 0 0 0 0 0 0 0 0 0 0 0 0 0 0 0 0 0 0 1795 1752 1752 1752 1752 0 1533 1565 1501 0 0 0 0 0 0 0 0 0 1471 0 1565 0 0 0 0 1471 1501 1533 1471 1501 1471 1443 1443 1443 1443 1443 1415 1471 1501 1501 1635 1672 1565 1533 1565 1635 0 0 0 1443 1338 1471 1635 1599 1672 1565 1388 1388 1415 1471 1388 1388 1415 1415 1415 1471 1501 1501 1471 1565 1635 1672 1471 1565 1501 1533 1501 1471 1388 1415 1415 1415 1388 1415 1338 1415 1415 1471 1415 1415 1471 1443 1443 1565 1388 1415 1388 1565 1711 1471 1501 1533 1388 1533 1533 1501 1471 1501 1471 1471 1501 1565 1471 1471 1501 1533 1501 1533 1565 1501 1565 1533 1565 1501 1415 1415 1443 1443 1415 1471 0 0 0 1533 0 1362 1388 1599 1672 1635 1599 1415 1471 1388 1362 1314 1314 1362 1362 1338 1362 1314 1314 1268 1268 1226 1066 1008 994 994 943 931 919 919 908 908 897 886 865 865 855 845 826 817 808 799 799 799 791 774 766 758 735 735 728 714 714 707 700 700 687 687 687 681 681 681 681 687 669 681 675 669 675 669 669 663 663 657 663 663 663 669 681 669 675 669 681 681 669 687 669 669 669 669 675 675 669 675 663 657 663 657 657 651 651 651 645 651 645 645 651 645 651 645 651 645 0 0 0 0 0
    0 0 0 0 0 0 0 0 0 0 0 0 0 0 0 0 0 0 0 0 0 0 0 0 0 0 0 0 0 0 0 0 0 0 0 0 0 0 0 0 0 0 0 0 0 0 0 0 0 0 0 0 0 0 0 0 0 0 0 0 0 0 0 0 0 0 0 0 0 1795 1752 1752 1752 0 0 1599 1565 1501 0 0 0 0 0 0 0 0 0 0 0 0 0 0 0 0 1443 1443 1501 1471 1471 1471 1415 1443 1443 1443 1471 1415 1501 1501 1501 1635 1672 1565 1533 1533 1599 1533 0 0 1415 1338 1533 1635 1599 1672 1565 1415 1388 1415 1471 1388 1388 1415 1415 1415 1443 1501 1501 1471 1533 1635 1635 1443 1565 1501 1501 1533 1443 1388 1415 1388 1388 1388 1415 1338 1388 1415 1471 1415 1415 1471 1443 1443 1599 1415 1443 1443 1565 1672 1415 1501 1533 1388 1501 1533 1471 1471 1471 1501 1471 1501 1533 1471 1471 1501 1533 1501 1533 1565 1501 1565 1533 1565 1533 1415 1415 1443 1443 1415 1443 1388 1338 0 1362 1268 1314 1338 1415 1443 1501 1471 1388 1443 1388 1338 1291 1291 1338 1338 1314 1314 1268 1268 1247 1226 1168 1066 1008 994 981 943 931 919 919 908 897 897 886 876 876 865 855 845 836 826 817 808 808 799 782 766 758 735 743 728 714 714 707 700 700 687 687 687 681 681 681 681 687 669 681 681 675 675 669 675 669 669 651 663 663 663 669 681 669 675 669 687 687 675 687 675 669 675 675 675 675 669 675 663 657 663 651 651 645 651 645 645 651 651 651 651 651 657 645 657 657 0 0 0 0 0
    0 0 0 0 0 0 0 0 0 0 0 0 0 0 0 0 0 0 0 0 0 0 0 0 0 0 0 0 0 0 0 0 0 0 0 0 0 0 0 0 0 0 0 0 0 0 0 0 0 0 0 0 0 0 0 0 0 0 0 0 0 0 0 0 0 0 0 0 0 0 0 0 0 0 1711 1635 1599 1501 1415 1388 1362 0 0 0 0 0 0 1415 1415 1533 0 0 0 0 1471 1471 1565 1501 1471 1471 1443 1443 1471 1443 1471 1443 1533 1533 1501 1635 1672 1565 1565 1565 1565 1501 0 0 1415 1362 1599 1599 1599 1635 1599 1415 1388 1415 1471 1415 1388 1443 1415 1443 1471 1501 1501 1471 1533 1635 1635 1471 1599 1501 1533 1533 1471 1415 1415 1388 1415 1388 1415 1338 1388 1415 1443 1415 1415 1501 1443 1443 1599 1471 1471 1471 1533 1599 1388 1501 1533 1388 1501 1533 1471 1471 1501 1501 1471 1501 1533 1443 1471 1501 1533 1501 1533 1533 1501 1565 1533 1565 1565 1415 1443 1471 1471 1443 1471 0 0 0 1338 1247 1291 1314 1362 1388 1471 1388 1388 1415 1362 1338 1291 1268 1314 1314 1291 1291 1247 1247 1206 1149 1098 1051 994 981 968 943 931 919 919 908 897 897 897 886 886 876 865 855 845 836 817 817 808 799 782 766 750 735 735 728 714 714 707 700 700 687 687 687 681 681 681 681 687 669 681 681 675 681 675 675 669 669 657 663 663 663 669 681 675 681 675 687 694 681 694 681 675 675 675 681 675 669 675 663 657 663 651 651 645 651 645 645 651 651 651 657 657 663 657 663 663 0 0 0 0 0
    0 0 0 0 0 0 0 0 0 0 0 0 0 0 0 0 0 0 0 0 0 0 0 0 0 0 0 0 0 0 0 0 0 0 0 0 0 0 0 0 0 0 0 0 0 0 0 0 0 0 0 0 0 0 0 0 0 0 0 0 0 0 0 0 0 0 0 0 0 0 0 0 0 1795 1711 1672 1599 1501 1443 1388 1362 1314 1291 1291 1268 1268 1362 1415 1415 1565 1599 1635 1599 1599 1533 1533 1599 1533 1471 1471 1443 1415 1501 1471 1471 1471 1533 1565 1533 1635 1672 1533 1565 1565 1565 1501 0 0 1443 1415 1672 1599 1599 1635 1599 1443 1415 1443 1533 1443 1415 1471 1501 1471 1501 1533 1533 1501 1533 1672 1599 1443 1599 1501 1533 1533 1471 1415 1415 1415 1415 1388 1415 1362 1388 1415 1443 1415 1443 1501 1471 1443 1599 1471 1471 1501 1533 1533 1362 1501 1501 1388 1501 1533 1471 1471 1501 1533 1471 1471 1533 1471 1471 1501 1501 1501 1533 1533 1501 1565 1565 1599 1599 1471 1501 1533 1565 1565 0 0 0 0 0 0 1338 1314 1388 1388 1471 1388 1362 1388 1338 1314 1247 1247 1291 1268 1268 1247 1206 1187 1115 1082 1051 1036 994 981 968 943 919 919 919 919 886 908 897 886 886 876 865 855 845 845 817 808 808 799 782 766 750 735 735 728 714 714 700 694 700 687 687 687 681 675 681 681 687 669 681 675 675 681 675 675 675 669 657 669 663 663 669 681 675 681 675 694 694 681 694 681 675 675 675 681 675 669 675 663 651 663 645 657 645 651 651 651 657 657 657 663 663 669 663 663 669 0 0 0 0 0
    0 0 0 0 0 0 0 0 0 0 0 0 0 0 0 0 0 0 0 0 0 0 0 0 0 0 0 0 0 0 0 0 0 0 0 0 0 0 0 0 0 0 0 0 0 0 0 0 0 0 0 0 0 0 0 0 0 0 0 0 0 0 0 0 0 0 0 0 0 0 0 1752 0 1795 1635 1635 1533 1443 1415 1362 1362 1314 1268 1268 1268 1247 1338 1388 1388 1471 1533 1599 1635 1635 1599 1565 1672 1599 1501 1501 1471 1415 1501 1471 1501 1471 1565 1565 1533 1635 1672 1533 1565 1565 1565 1533 1565 0 1471 1443 1711 1635 1635 1672 1635 1471 1443 1471 1533 1471 1443 1501 1533 1471 1471 1533 1533 1533 1533 1635 1599 1415 1599 1533 1533 1533 1471 1415 1415 1415 1415 1388 1415 1362 1415 1415 1471 1443 1443 1533 1471 1471 1635 1501 1533 1533 1533 1533 1362 1501 1501 1388 1501 1501 1443 1501 1533 1533 1471 1471 1533 1471 1471 1533 1501 1471 1533 1533 1533 1565 1599 1672 1599 1565 1599 1635 1672 0 0 3199 3199 0 0 0 1599 1415 1471 1501 1471 1362 1338 1338 1291 1268 1226 1226 1226 1226 1206 1187 1149 1115 1066 1051 1022 1022 994 981 981 955 931 931 919 931 897 908 908 897 897 886 876 865 855 855 817 808 808 791 782 766 750 735 735 728 714 707 700 694 694 687 687 687 681 675 675 675 681 669 675 675 675 675 675 675 675 669 663 669 663 663 669 675 675 681 675 694 694 675 687 681 675 675 675 675 669 663 669 657 645 657 645 651 645 651 657 657 663 663 663 669 663 669 663 669 669 0 0 0 0 0
    0 0 0 0 0 0 0 0 0 0 0 0 0 0 0 0 0 0 0 0 0 0 0 0 0 0 0 0 0 0 0 0 0 0 0 0 0 0 0 0 0 0 0 0 0 0 0 0 0 0 0 0 0 0 0 0 0 0 0 0 0 0 0 0 0 0 0 0 0 1795 1752 1752 0 0 1599 1565 1471 1388 1362 1314 1338 1268 1226 1226 1226 1206 1268 1338 1314 0 1471 1533 1635 1672 1711 0 0 1711 1471 1533 1471 1415 1471 1501 1471 1501 1565 1599 1501 1599 1635 1533 1565 1565 1565 1533 1565 1672 1501 1501 1795 1711 1672 1672 1635 1501 1443 1501 1533 1471 1443 1501 1533 1443 1471 1533 1533 1533 1533 1599 1599 1415 1599 1533 1533 1501 1471 1415 1415 1415 1415 1415 1443 1362 1415 1443 1471 1471 1471 1565 1471 1471 1635 1533 1565 1565 1599 1565 1388 1501 1471 1388 1501 1501 1443 1471 1533 1533 1471 1501 1565 1471 1471 1533 1501 1471 1501 1533 1533 1565 1599 1672 1635 1599 1599 1635 1672 0 0 3345 3345 0 0 0 1672 1533 1565 1471 1415 1314 1314 1291 1247 1226 1187 1187 1187 1168 1168 1132 1098 1082 1051 1051 1022 1022 1008 994 994 968 955 943 931 943 897 919 919 897 897 897 886 865 855 865 817 808 799 791 782 766 750 735 728 721 714 707 700 694 694 687 687 687 681 675 675 675 681 663 675 675 669 675 675 675 669 669 663 669 669 663 675 675 681 681 681 687 694 675 687 681 681 675 681 681 669 663 663 657 645 657 645 657 645 651 657 657 663 669 663 669 663 669 663 669 663 0 0 0 0 0
    0 0 0 0 0 0 0 0 0 0 0 0 0 0 0 0 0 0 0 0 0 0 0 0 0 0 0 0 0 0 0 0 0 0 0 0 0 0 0 0 0 0 0 0 0 0 0 0 0 0 0 0 0 0 0 0 0 0 0 0 0 0 0 0 0 0 0 0 0 1795 1795 1752 0 0 0 1533 1443 1362 1338 1314 1338 1268 1247 1247 1247 1226 1291 1338 0 0 0 1533 1635 1672 1711 0 0 0 0 1533 1501 1388 1501 1501 1471 1501 1533 1599 1501 1599 1635 1533 1565 1599 1599 1599 1635 0 1599 1599 1795 1711 1672 1672 1672 1565 1471 1533 1533 1471 1471 1501 1533 1471 1501 1533 1533 1533 1533 1599 1599 1388 1599 1501 1501 1501 1471 1443 1415 1415 1443 1443 1471 1388 1443 1471 1501 1471 1471 1599 1471 1471 1599 1565 1565 1565 1599 1533 1388 1471 1443 1362 1471 1471 1415 1471 1501 1533 1501 1501 1565 1471 1471 1533 1501 1471 1501 1501 1501 1565 1565 1672 1635 1565 1565 1599 1672 0 0 3345 3199 0 0 0 0 1711 1672 1471 1362 1291 1291 1268 1226 1206 1168 1168 1168 1149 1132 1098 1082 1066 1051 1051 1036 1036 1022 1008 1008 981 968 955 943 943 908 931 919 897 897 897 886 876 865 876 817 808 799 791 774 758 743 728 735 721 707 700 694 687 694 681 687 687 681 675 675 681 687 669 669 675 669 675 675 675 669 669 663 675 669 669 675 675 681 675 681 687 687 675 687 681 681 675 681 675 669 663 657 657 645 651 645 651 645 651 657 657 663 663 663 669 663 669 663 663 663 0 0 0 0 0
    0 0 0 0 0 0 0 0 0 0 0 0 0 0 0 0 0 0 0 0 0 0 0 0 0 0 0 0 0 0 0 0 0 0 0 0 0 0 0 0 0 0 0 0 0 0 0 0 0 0 0 0 0 0 0 0 0 0 0 0 0 0 0 0 0 0 0 0 0 1795 1795 1752 0 0 1599 1533 1443 1362 1338 1314 1338 1268 1268 1247 1247 1206 0 0 0 0 0 1501 1599 1565 1635 0 0 0 0 1471 1533 1388 1501 1533 1533 1533 1533 1635 1533 1599 1672 1533 1599 1635 1635 1635 0 0 0 1672 1887 1752 1711 1711 1711 1599 1471 1565 1533 1501 1471 1471 1565 1471 1501 1533 1533 1533 1533 1565 1599 1388 1599 1533 1533 1533 1471 1443 1443 1443 1471 1443 1471 1415 1443 1471 1501 1501 1471 1635 1471 1501 1635 1565 1599 1599 1599 1565 1415 1443 1415 1362 1471 1471 1415 1443 1471 1501 1501 1501 1565 1471 1471 1501 1471 1471 1501 1471 1501 1533 1533 1672 1672 1635 1599 1635 1672 0 0 3199 0 0 0 2044 1887 0 1752 1415 1362 1314 1314 1268 1226 1206 1187 1187 1168 1149 1132 1098 1098 1066 1082 1051 1036 1036 1022 1022 1022 994 981 955 955 968 908 943 931 908 897 897 886 876 865 886 817 799 799 791 774 758 750 728 735 721 707 707 700 687 694 681 687 681 675 675 675 675 681 669 669 669 663 669 675 669 669 669 669 675 669 669 669 675 675 675 675 681 687 675 681 681 681 675 681 675 663 663 651 651 639 651 645 651 645 651 651 657 657 663 657 663 657 663 657 657 657 0 0 0 0 0
    0 0 0 0 0 0 0 0 0 0 0 0 0 0 0 0 0 0 0 0 0 0 0 0 0 0 0 0 0 0 0 0 0 0 0 0 0 0 0 0 0 0 0 0 0 0 0 0 0 0 0 0 0 0 0 0 0 0 0 0 0 0 0 0 0 0 0 0 0 1795 1752 1752 1795 0 1599 1501 1415 1338 1338 1314 1338 1268 1291 1268 1268 0 0 0 0 0 0 0 1533 1471 0 0 0 0 0 1443 1501 1415 1501 1565 1565 1565 1565 1672 1565 1599 1672 1533 1635 1635 1635 1672 0 85 0 0 1936 1795 1752 1711 1711 1565 1443 1533 1533 1501 1443 1443 1533 1471 1471 1533 1501 1501 1501 1565 1599 1362 1565 1533 1533 1533 1501 1471 1471 1443 1501 1471 1501 1443 1471 1501 1501 1501 1501 1635 1501 1533 1635 1599 1599 1635 1635 1599 1415 1415 1415 1338 1443 1443 1415 1443 1471 1501 1501 1471 1565 1471 1443 1501 1471 1443 1471 1443 1471 1533 1501 1672 1672 1711 1672 1711 1752 0 0 2374 2102 0 0 1887 1795 1752 1752 1388 1388 1338 1338 1291 1268 1226 1206 1206 1187 1168 1115 1098 1098 1066 1082 1066 1036 1036 1036 1036 1022 1008 994 968 968 968 919 943 931 908 908 897 897 876 865 897 817 799 799 791 774 758 743 728 735 721 714 714 700 687 694 681 687 681 675 669 675 675 681 663 663 663 663 669 675 669 669 675 669 675 675 675 669 669 675 669 675 675 681 675 681 681 681 675 681 669 663 663 645 651 639 651 645 651 645 651 657 657 657 657 657 663 657 663 651 651 651 0 0 0 0 0
    0 0 0 0 0 0 0 0 0 0 0 0 0 0 0 0 0 0 0 0 0 0 0 0 0 0 0 0 0 0 0 0 0 0 0 0 0 0 0 0 0 0 0 0 0 0 0 0 0 0 0 0 0 0 0 0 0 0 0 0 0 0 0 0 0 0 0 0 0 1795 1795 1752 1795 1752 1565 1533 1443 1362 1362 1362 1388 1314 1362 1338 0 0 0 0 0 0 0 0 1443 1443 0 0 0 0 0 1443 1533 1443 1501 1565 1565 1599 1565 1672 1565 1635 1635 1565 1672 1672 1672 1711 85 85 0 0 1989 1795 1752 1711 1752 1599 1471 1565 1533 1533 1471 1443 1565 1501 1501 1565 1533 1533 1501 1565 1599 1362 1533 1533 1533 1533 1501 1471 1471 1471 1533 1501 1501 1443 1471 1501 1501 1533 1533 1672 1533 1565 1635 1635 1635 1672 1635 1565 1443 1415 1415 1338 1443 1443 1415 1443 1471 1471 1533 1501 1599 1501 1471 1533 1533 1471 1501 1415 1471 1501 1533 1711 1635 1752 1711 1887 0 2299 0 2628 2453 2102 1936 1989 1936 1887 1795 1362 1415 1362 1338 1314 1291 1247 1247 1226 1206 1168 1115 1082 1098 1066 1098 1066 1036 1051 1036 1036 1036 1008 994 968 968 981 919 943 931 908 908 908 897 876 865 908 817 799 799 791 774 766 750 735 743 721 714 721 707 687 694 681 681 675 669 669 669 669 675 657 657 663 657 669 669 663 669 669 669 681 675 675 663 669 669 669 669 669 675 675 675 675 681 675 681 669 663 657 645 651 645 657 645 651 645 651 657 657 657 657 657 663 657 663 657 651 657 0 0 0 0 0
    0 0 0 0 0 0 0 0 0 0 0 0 0 0 0 0 0 0 0 0 0 0 0 0 0 0 0 0 0 0 0 0 0 0 0 0 0 0 0 0 0 0 0 0 0 0 0 0 0 0 0 0 0 0 0 0 0 0 0 0 0 0 0 0 0 0 0 0 0 1839 1795 1752 0 1752 1501 1471 1415 1388 1362 1388 1388 1362 1415 1415 0 0 0 0 0 0 0 0 1443 1415 0 0 0 0 0 1443 1533 1443 1533 1565 1565 1565 1565 1672 1599 1635 1672 1565 1672 1711 1711 1711 85 85 85 0 1989 1752 1711 1711 1752 1635 1533 1599 1565 1565 1471 1443 1565 1533 1533 1565 1565 1533 1533 1565 1599 1362 1533 1565 1565 1533 1565 1533 1533 1501 1565 1565 1533 1471 1501 1533 1533 1533 1565 1672 1565 1565 1635 1672 1635 1672 1635 1565 1443 1388 1415 1362 1443 1443 1415 1415 1471 1501 1565 1501 1599 1471 1471 1533 1533 1471 1471 1415 1443 1471 1533 0 0 1752 1672 0 0 2164 1752 2374 2164 1989 1839 2102 1936 1887 1752 1362 1415 1362 1362 1314 1291 1268 1268 1247 1247 1187 1115 1082 1098 1066 1098 1066 1036 1036 1036 1036 1036 1008 1008 968 968 981 919 955 943 897 897 897 897 865 865 897 817 791 791 791 758 766 750 728 735 721 714 721 707 687 687 675 681 669 669 663 669 663 675 657 657 657 657 663 663 657 663 669 669 675 669 675 663 663 657 657 663 663 669 669 675 669 675 669 675 663 663 657 651 657 651 657 651 657 651 651 657 657 657 657 657 663 657 663 663 657 663 0 0 0 0 0
    0 0 0 0 0 0 0 0 0 0 0 0 0 0 0 0 0 0 0 0 0 0 0 0 0 0 0 0 0 0 0 0 0 0 0 0 0 0 0 0 0 0 0 0 0 0 0 0 0 0 0 0 0 0 0 0 0 0 0 0 0 0 0 0 0 0 0 0 0 1887 1839 1795 0 1711 1443 1415 1388 1362 1388 1415 1415 1415 1471 1471 1362 0 0 0 0 0 1415 1362 1388 0 0 0 0 0 0 1471 1501 1443 1533 1599 1565 1533 1533 1635 1565 1599 1635 1565 1672 1711 1752 1752 85 85 84 84 1989 1752 1711 1672 1795 1635 1565 1635 1599 1565 1501 1471 1599 1565 1533 1565 1565 1533 1533 1565 1599 1362 1533 1533 1565 1565 1599 1565 1565 1533 1599 1565 1565 1501 1501 1533 1533 1533 1599 1672 1599 1599 1672 1672 1672 1711 1672 1565 1471 0 1415 1362 1443 1471 1415 1415 1471 1501 1565 1501 1635 1501 1471 1533 1599 1501 1471 1415 1471 1443 1599 0 0 1711 1599 0 1711 1752 1672 1887 1839 1839 1752 1989 1839 1839 1635 1388 1415 1362 1338 1314 1314 1268 1268 1268 1247 1187 1115 1098 1098 1066 1098 1066 1036 1036 1036 1036 1036 1022 1008 981 968 994 919 955 943 897 897 886 886 855 855 0 808 782 791 791 766 774 766 735 743 728 714 721 707 681 681 675 681 669 663 663 669 663 675 663 657 663 657 663 663 657 663 663 663 675 663 669 657 663 657 657 663 663 669 669 675 669 675 675 681 669 669 663 651 657 657 663 657 657 651 651 657 657 657 657 657 657 657 663 657 657 663 0 0 0 0 0
    0 0 0 0 0 0 0 0 0 0 0 0 0 0 0 0 0 0 0 0 0 0 0 0 0 0 0 0 0 0 0 0 0 0 0 0 0 0 0 0 0 0 0 0 0 0 0 0 0 0 0 0 0 0 0 0 0 0 0 0 0 0 0 0 0 0 0 0 0 1936 1887 1839 0 0 1471 1415 1388 1362 1415 1443 1443 1443 1471 0 0 0 0 0 0 1471 1443 0 1443 0 0 0 0 0 0 1501 1533 1471 1501 1599 1565 1471 1501 1635 1533 1599 1599 1565 1711 1752 1795 0 85 84 84 84 2102 1752 1672 1599 1752 1635 1533 1599 1565 1565 1443 1443 1565 1533 1501 1565 1533 1533 1533 1599 1565 1415 1533 1533 1565 1599 1599 1599 1565 1533 1635 1599 1599 1501 1501 1533 1501 1533 1635 1635 1565 1599 1635 1711 1711 1752 1672 1565 1501 0 1415 1362 1443 1443 1415 1415 1471 1501 1565 1533 1635 1501 1501 1565 1635 1533 1443 1415 1443 1471 0 0 1443 1711 1565 0 1672 1711 1635 1635 1672 1711 1672 1839 1795 1795 1533 1388 1415 1388 1362 1338 1314 1291 1291 1291 1268 1187 1115 1098 1098 1066 1115 1066 1051 1051 1036 1036 1036 1022 1022 981 968 994 931 968 943 886 886 886 886 855 855 0 808 791 791 791 774 782 766 735 750 735 728 728 714 687 681 675 681 669 669 663 669 669 675 669 657 663 657 663 663 657 657 663 657 669 657 0 651 663 651 663 663 663 669 669 675 669 681 675 681 669 669 669 657 663 657 663 657 657 651 651 651 651 651 651 651 657 651 657 657 657 663 0 0 0 0 0
    0 0 0 0 0 0 0 0 0 0 0 0 0 0 0 0 0 0 0 0 0 0 0 0 0 0 0 0 0 0 0 0 0 0 0 0 0 0 0 0 0 0 0 0 0 0 0 0 0 0 0 0 0 0 0 0 0 0 0 0 0 0 0 0 0 0 0 0 0 1989 1936 1936 2374 0 1599 1533 1501 1415 1471 1471 1415 1443 0 0 0 0 0 0 0 1501 1443 0 1415 0 0 0 0 0 1388 1501 1501 1471 1533 1599 1565 1471 1501 1635 1565 1599 1599 1599 1795 1795 1887 1887 85 84 84 84 2230 1752 1599 1565 1752 1635 1533 1599 1599 1565 1415 1471 1565 1565 1565 1565 1533 1533 1565 1635 1533 1443 1565 1533 1599 1599 1635 1599 1565 1565 1635 1599 1635 1565 1471 1501 1501 1533 1635 1599 1533 1565 1599 1711 1711 1795 1711 1565 1501 0 1415 1362 1471 1471 1443 1443 1501 1501 1599 1533 1672 1501 1501 1565 1672 1565 1443 1415 1415 1471 0 0 0 1635 1471 0 1635 1672 1599 1565 1599 1672 1635 1752 1752 1795 1471 1388 1443 1388 1388 1362 0 0 0 0 1268 1206 1115 1098 1115 1066 1115 1082 1051 1051 1036 1051 1036 1022 0 981 981 1008 943 968 943 886 886 886 876 855 855 0 808 782 791 791 766 782 766 735 750 735 728 728 714 687 681 675 681 669 669 663 669 669 675 669 657 663 657 663 663 657 663 669 657 669 657 0 651 657 651 657 663 663 675 669 675 669 675 675 681 669 669 669 657 663 663 663 663 657 657 651 651 651 651 651 651 651 651 657 657 657 663 0 0 0 0 0
    0 0 0 0 0 0 0 0 0 0 0 0 0 0 0 0 0 0 0 0 0 0 0 0 0 0 0 0 0 0 0 0 0 0 0 0 0 0 0 0 0 0 0 0 0 0 0 0 0 0 0 0 0 0 0 0 0 0 0 0 0 0 0 0 0 0 0 0 0 1989 1989 1936 2299 1839 1672 1635 1565 1471 1501 1501 1415 0 0 0 0 0 0 0 0 1599 1533 1471 1471 1388 0 0 0 0 1415 1501 1501 1471 1565 1599 1501 1471 1533 1635 1565 1599 1635 1599 1839 1887 1936 1936 85 84 84 84 0 1711 1565 1533 1672 1635 1635 1635 1635 1565 1415 1471 1565 1599 1565 1565 1565 1533 1565 1672 1533 1471 1565 1533 1599 1635 1635 1635 1565 1599 1599 1599 1599 1533 1471 1471 1471 1501 1565 1565 1501 1533 1565 1711 1711 1839 1752 1533 1533 1338 1443 1388 1471 1471 1443 1443 1501 1501 1599 1533 1635 1471 1501 1599 1635 1565 1443 1415 1415 1501 0 0 0 1565 1471 1635 1672 1672 1635 1635 1635 1672 1672 1752 1752 1752 1443 1415 1471 1415 1443 1415 0 0 0 0 0 1206 1115 1115 1115 1066 1132 1082 1051 1036 1036 1051 1036 1022 0 981 968 1008 943 968 943 886 886 886 876 855 855 0 808 791 791 791 774 791 766 728 750 735 735 735 714 694 681 681 687 669 669 663 669 669 675 675 657 669 663 669 669 669 669 675 669 675 663 0 657 663 651 663 663 663 675 669 675 669 675 675 675 669 669 669 663 663 663 663 663 657 651 651 651 651 645 651 645 651 651 651 657 651 663 0 0 0 0 0
    0 0 0 0 0 0 0 0 0 0 0 0 0 0 0 0 0 0 0 0 0 0 0 0 0 0 0 0 0 0 0 0 0 0 0 0 0 0 0 0 0 0 0 0 0 0 0 0 0 0 0 0 0 0 0 0 0 0 0 0 0 0 0 0 0 0 0 0 0 1936 1936 1936 2230 1887 1672 1672 1672 1599 1672 1565 1443 0 0 0 0 0 0 0 0 1711 1635 1565 1565 1471 0 0 0 1443 1501 1533 1533 1471 1565 1599 1471 1471 1533 1599 1533 1533 1599 1565 1795 1839 1936 0 85 84 84 84 0 1711 1501 1501 1565 1599 1672 1635 1672 1501 1415 1533 1599 1599 1565 1565 1533 1501 1599 1635 1501 1501 1533 1533 1599 1599 1635 1599 1565 1599 1599 1599 1599 1533 1471 1471 1471 1533 1599 1501 1501 1565 1565 1752 1752 1839 1752 1533 1565 1362 1471 1388 1501 1501 1443 1471 1501 1501 1599 1533 1635 1471 1533 1635 1672 1533 1443 1415 1415 1565 0 0 0 0 1471 1635 1672 1672 1635 1635 1635 1635 1672 1752 1752 1752 1415 1415 1501 1443 1471 1443 1388 0 0 0 0 1226 1115 1115 1132 1082 1132 1082 1051 1036 1036 1051 1036 0 0 981 968 1008 931 968 943 886 897 886 0 855 855 0 808 791 799 791 774 791 774 735 750 735 735 735 721 694 681 681 687 669 669 663 669 663 675 681 657 669 663 669 669 669 675 675 669 675 0 0 0 0 657 663 663 663 675 669 675 669 675 675 675 669 669 669 663 663 663 663 663 657 657 651 651 651 651 657 651 651 651 657 663 657 663 0 0 0 0 0</data></depth>
</opencv_storage>
