<?xml version="1.0"?>
<opencv_storage>
<gps_time_stamp>276473</gps_time_stamp>
<gps_x>-1.3978125572204590e+001</gps_x>
<gps_y>1.1276265144348145e+001</gps_y>
<gps_z>-2.2240166664123535e+000</gps_z>
<image_time_stamp>267358</image_time_stamp>
<depth type_id="opencv-matrix">
  <rows>76</rows>
  <cols>320</cols>
  <dt>s</dt>
  <data>
    0 0 0 0 0 0 0 0 0 0 0 0 0 0 0 0 0 0 0 0 0 0 0 0 0 0 0 0 0 0 0 0 0 0 0 0 0 0 0 0 0 0 0 0 0 0 0 0 0 0 0 0 0 0 0 0 0 0 0 0 0 0 0 0 0 0 0 0 0 1752 1795 1839 1936 1887 1936 1989 2299 2299 2299 2374 2230 2374 2374 2453 2628 2453 2628 2725 2943 3199 3199 3199 3066 3199 3345 3345 3345 3066 2943 3066 2943 3066 2453 2628 2453 2537 2628 2830 2725 3066 3066 3679 3504 3679 3679 3873 3345 3679 3066 2725 2830 2725 2725 2628 2537 2628 2537 2537 2537 2628 2725 2725 2830 0 0 3345 3504 0 0 0 0 2830 2725 2537 2374 2299 2453 2725 2537 2830 2537 2628 2830 2943 2943 2943 2830 2943 2943 2943 3066 3066 3066 3199 2102 2628 0 2830 2830 2830 2830 2830 2830 3199 3504 3199 2943 3066 2830 2725 2830 2725 2628 2628 2537 2628 2628 2830 2943 2537 3066 3066 2830 2943 2943 2725 2943 2830 2830 2628 2628 2628 2299 2453 2537 2453 2537 2537 2628 2628 2537 2943 2725 2725 2537 2230 2164 1989 1887 1989 1989 1989 1887 1839 1795 1936 2164 2299 1936 2102 2230 2299 2230 2299 2374 2299 2299 2537 2628 2374 2299 2628 2374 2044 1989 1989 0 0 0 1989 1672 1936 0 0 0 0 0 0 0 0 0 0 0 1887 2044 2102 1936 2102 2164 2102 2102 2044 2102 1936 1936 1936 1887 1887 1887 1887 1936 1839 1989 1936 1989 2102 1936 1936 2164 1795 0 0 1565 1599 1501 1471 1471 1501 1533 1501 1565 1501 1501 1501 1533 1501 1471 1362 1388 1388 1291 1226 1187 1168 1168 0 0 0 0 0
    0 0 0 0 0 0 0 0 0 0 0 0 0 0 0 0 0 0 0 0 0 0 0 0 0 0 0 0 0 0 0 0 0 0 0 0 0 0 0 0 0 0 0 0 0 0 0 0 0 0 0 0 0 0 0 0 0 0 0 0 0 0 0 0 0 0 0 0 0 1752 1839 1887 1936 1887 1936 1989 2230 2164 2230 2299 2102 2299 2299 2453 2537 2453 2628 2628 2830 3066 3199 3199 3066 3199 3345 3345 3345 3066 2943 3066 2943 3066 2537 2628 2537 2537 2628 2830 2830 3199 3199 3679 3679 3873 3873 3873 3504 3679 2943 2725 2830 2725 2830 2725 2628 2628 2537 2537 2628 2628 2725 2725 2830 0 0 3345 3504 0 0 0 0 0 0 2537 2374 2299 2537 2725 2537 2830 2537 2537 2725 2830 2830 2830 2725 2725 2830 2830 2830 2725 2628 3066 1989 2628 0 0 2943 2943 2943 2943 2943 3345 3679 3066 2830 2943 2725 2725 2725 2725 2725 2725 2628 2725 2725 2943 2943 2628 3066 2943 2725 2830 2830 2725 2830 2830 2830 2628 2628 2725 2230 2453 2537 2453 2537 2537 2628 2628 2537 2943 2830 2725 2537 2164 2044 1887 1795 1887 1887 1839 1839 1752 1711 1936 2164 2230 1936 2044 2230 2299 2230 2299 2299 2299 2299 2537 2628 2299 2374 2628 2374 2044 2044 1989 0 0 0 2102 0 0 0 0 0 0 0 0 0 0 0 0 0 0 2102 2164 1989 2102 2230 2164 2164 2044 2164 1936 1989 1989 1887 1887 1887 1887 1936 1839 1989 1936 1989 2102 1936 1936 2164 1839 0 0 1565 1599 1501 1471 1471 1501 1533 1501 1533 1501 1501 1501 1501 1471 1443 1362 1362 1362 1268 1206 1149 1149 1187 0 0 0 0 0
    0 0 0 0 0 0 0 0 0 0 0 0 0 0 0 0 0 0 0 0 0 0 0 0 0 0 0 0 0 0 0 0 0 0 0 0 0 0 0 0 0 0 0 0 0 0 0 0 0 0 0 0 0 0 0 0 0 0 0 0 0 0 0 0 0 0 0 0 0 1752 1795 1839 1887 1839 1936 1989 2164 2164 2230 2299 2102 2299 2374 2374 2453 2453 2628 2628 2830 3066 3199 3199 3066 3199 3345 3345 3345 3066 2943 3066 2943 2943 2628 2725 2628 2628 2725 2943 2943 3345 3504 3873 3679 3873 3873 4088 3504 3873 3066 0 2830 2830 2830 2725 2628 2725 2537 2537 2628 2628 2725 2725 2830 0 0 0 3345 0 0 0 0 0 0 2537 2374 2374 2628 2725 2537 2830 2453 2374 2725 2725 2628 2725 2628 2628 2725 2830 2725 2628 2537 2943 2102 2725 3066 3066 3066 3066 3066 3066 3199 3504 4329 3199 2830 2943 2725 2725 2725 2725 2725 2725 2628 2830 2725 2943 2943 2628 2830 2830 2628 2830 2830 2725 2830 2830 2830 2725 2725 2830 2299 2537 2537 2453 2537 2537 2628 2537 2537 3066 3066 2943 2725 2102 1936 1839 1752 1839 1752 1795 1565 1599 1599 1887 2230 2230 1887 2044 2299 2299 2230 2299 2299 2299 2299 2537 2628 2299 2374 2725 2537 2044 2164 2164 0 0 0 0 0 0 0 0 6133 9199 0 0 6133 0 0 0 0 0 2164 2164 1989 2164 2299 2230 2230 2102 2164 1936 1989 1989 1839 1887 1887 1887 1936 1839 1989 1936 1989 2102 1887 1936 2164 1839 0 0 1533 1565 1471 1471 1471 1501 1533 1501 1533 1501 1501 1501 1501 1471 1415 1338 1362 1338 1268 1206 1168 1168 1206 0 0 0 0 0
    0 0 0 0 0 0 0 0 0 0 0 0 0 0 0 0 0 0 0 0 0 0 0 0 0 0 0 0 0 0 0 0 0 0 0 0 0 0 0 0 0 0 0 0 0 0 0 0 0 0 0 0 0 0 0 0 0 0 0 0 0 0 0 0 0 0 0 0 0 1752 1795 1839 1887 1839 1936 1989 2164 2164 2230 2374 2102 2230 2299 2374 2374 2453 2537 2537 2725 3066 3066 3199 3066 3199 3345 3345 3345 2943 2943 2943 2830 2943 2725 2725 2628 2628 2725 3066 2943 3345 3504 3873 3679 3873 3873 3873 3504 3873 3066 0 2830 2830 2830 2725 2725 2725 2628 2537 2628 2628 2628 2628 2830 2830 0 0 3345 0 0 0 0 0 123 2628 2453 2374 2725 2628 2537 2725 2453 2374 2830 2830 2830 2830 2628 2830 2943 2830 2830 2628 2537 2943 2044 2830 3199 3199 3345 3199 3345 3345 3504 3679 4906 3345 2943 3066 2830 2725 2725 2725 2725 2725 2725 2830 2830 2943 2943 2628 2830 2725 2628 2725 2830 2725 2830 2830 2943 2830 2830 2943 2374 2537 2628 2537 2537 2628 2628 2537 2453 3345 3199 3873 0 2044 1839 1795 1711 1887 0 1839 0 0 0 1989 2299 2230 1887 2044 2299 2299 2230 2299 2299 2299 2299 2537 2628 2299 2374 2725 2725 0 2230 2230 0 0 0 0 0 0 0 0 0 0 0 0 7359 0 0 0 0 0 2230 2230 1989 2230 2299 2230 2230 2102 2230 1936 1989 1989 1839 1887 1887 1887 1936 1839 1989 1936 1989 2102 1936 1936 2164 1887 0 0 1501 1533 1443 1443 1471 1471 1533 1501 1533 1501 1471 1471 1471 1443 1388 1338 1338 1314 1268 1206 1187 1187 1206 0 0 0 0 0
    0 0 0 0 0 0 0 0 0 0 0 0 0 0 0 0 0 0 0 0 0 0 0 0 0 0 0 0 0 0 0 0 0 0 0 0 0 0 0 0 0 0 0 0 0 0 0 0 0 0 0 0 0 0 0 0 0 0 0 0 0 0 0 0 0 0 0 0 0 1795 1839 1887 1936 1887 1989 2044 2230 2230 2374 2453 2164 2374 2453 2453 2453 2537 2537 2537 2628 3066 2943 3199 2943 3066 3199 3199 3199 2943 2830 2943 2830 2725 2725 2725 2537 2628 2725 2943 2943 3345 3504 3679 3679 3873 3873 3873 3504 3873 3066 0 2830 2830 2830 2830 2725 2725 2628 2537 2628 2628 2628 2628 2725 2830 0 3345 3345 0 0 0 0 0 0 2628 2453 2374 2725 2725 2628 2830 2628 2453 2830 2830 0 0 0 3199 0 2943 2943 2628 2537 2830 0 2830 3504 3504 3504 3345 3504 3679 3873 3873 5256 3345 3066 3066 2830 2725 2725 2725 2725 2725 2725 2943 2830 3199 2943 2628 2830 2725 2628 2725 2725 2725 2830 2830 2943 2943 2943 3066 2453 2628 2628 2537 2628 2628 2628 2453 2453 3199 3066 3066 2830 2230 1936 1887 1795 2102 0 1936 0 0 0 1989 2299 2230 1887 2044 2299 2230 2230 2299 2299 2299 2299 2537 2628 2299 2453 2725 3066 0 0 0 0 0 0 0 0 0 0 0 0 0 0 0 5661 0 0 0 0 0 2164 2164 1989 2230 2299 2230 2230 2102 2164 1936 1989 1989 1887 1887 1887 1887 1936 1839 1989 1936 1989 2102 1936 1936 2230 1936 0 0 1501 1565 1471 1443 1471 1471 1533 1501 1533 1471 1471 1471 1471 1415 1388 1314 1314 1291 1247 1206 1206 1187 1206 0 0 0 0 0
    0 0 0 0 0 0 0 0 0 0 0 0 0 0 0 0 0 0 0 0 0 0 0 0 0 0 0 0 0 0 0 0 0 0 0 0 0 0 0 0 0 0 0 0 0 0 0 0 0 0 0 0 0 0 0 0 0 0 0 0 0 0 0 0 0 0 0 0 0 1795 1887 1936 2044 1936 1989 2102 2230 2164 2374 2453 2164 2374 2453 2453 2299 2453 2537 2537 2537 2943 2830 3066 2943 2943 3066 3066 3066 2943 2830 2830 2830 2725 2725 2725 2537 2628 2725 2943 2830 3199 3504 3504 3504 3679 3679 3679 3345 3679 3066 2830 2943 2943 2830 2830 2725 2725 2628 2628 2628 2628 2628 2628 2725 2830 0 3345 3345 0 0 0 0 0 0 2628 2453 2453 2830 2725 2725 2830 2628 2537 2725 0 0 0 0 3679 0 3066 2943 2725 2628 2628 0 2830 3504 3504 3504 3345 3679 3679 4088 4088 5256 3345 3066 3066 2830 2830 2725 2830 2830 2830 2725 2943 2943 3345 3066 2830 2830 2725 2725 2725 2725 2725 2830 2830 2943 2943 3066 3066 2453 2628 2628 2537 2537 2628 2537 2453 2453 3066 3066 3199 3199 2830 2453 2628 2453 2725 2453 2299 2164 0 2044 2102 2299 2299 1887 2044 2299 2230 2230 2299 2299 2299 2299 2537 2628 2299 2453 2628 3679 0 0 0 0 0 0 0 0 0 0 0 0 0 0 0 5661 0 0 0 0 0 2164 2164 1989 2230 2230 2230 2230 2102 2164 1936 1989 1989 1887 1887 1887 1887 1936 1887 1989 1936 1989 2044 1936 1989 2299 1989 0 1291 1533 1599 1501 1471 1501 1501 1533 1501 1565 1471 1443 1471 1471 1415 1362 1314 1314 1291 1247 1206 1206 1206 1206 0 0 0 0 0
    0 0 0 0 0 0 0 0 0 0 0 0 0 0 0 0 0 0 0 0 0 0 0 0 0 0 0 0 0 0 0 0 0 0 0 0 0 0 0 0 0 0 0 0 0 0 0 0 0 0 0 0 0 0 0 0 0 0 0 0 0 0 0 0 0 0 0 0 0 1887 1936 1989 2044 1989 1989 2102 2164 2164 2374 2453 2164 2299 2453 2453 2230 2453 2537 2453 2453 2830 2830 2943 2943 2943 2943 2943 2943 2830 2725 2830 2830 2628 2725 2725 2537 2537 2725 2830 2830 3199 3345 3345 3345 3679 3679 3679 3345 3679 3066 2830 2943 2943 2830 2830 2725 2725 2628 2628 2725 2628 2628 2628 2725 2830 3199 3345 3345 0 0 0 0 0 0 2628 2537 2453 2943 2725 2725 2943 2628 2453 2374 2453 2453 0 0 3199 3066 2943 2943 2725 2628 2628 0 2943 3504 3504 3504 3504 3679 3873 4329 4088 5256 3504 3199 3199 2943 2943 2830 2830 2830 2830 2830 3066 3066 3504 3066 2943 2830 2628 2725 2725 2725 2628 2725 2725 2830 2830 3066 3066 2453 2628 2628 2537 2537 2537 2537 2374 2374 2943 2943 2943 3066 2830 2537 2725 2628 2725 2628 2453 2374 2299 2164 2164 2374 2299 1887 2044 2230 2230 2230 2299 2299 2299 2299 2537 2628 2299 2537 2628 6690 0 0 0 931 0 886 0 0 0 0 0 0 0 0 0 3873 4088 0 0 0 0 2164 2164 1989 2164 2230 2230 2164 2102 2164 1936 1989 2044 1887 1887 1887 1887 1936 1887 1989 1936 1989 2044 1936 1936 2102 1795 1533 1338 1533 1599 1533 1501 1501 1533 1565 1533 1565 1501 1443 1471 1443 1415 1362 1314 1314 1268 1247 1206 1206 1206 1226 0 0 0 0 0
    0 0 0 0 0 0 0 0 0 0 0 0 0 0 0 0 0 0 0 0 0 0 0 0 0 0 0 0 0 0 0 0 0 0 0 0 0 0 0 0 0 0 0 0 0 0 0 0 0 0 0 0 0 0 0 0 0 0 0 0 0 0 0 0 0 0 0 0 0 1936 1989 2044 2102 2044 2044 2164 2164 2102 2299 2374 2164 2299 2374 2453 2230 2453 2537 2453 2453 2830 2830 2943 2943 2943 2943 3066 3066 2830 2830 2943 2943 2628 2830 2725 2628 2628 2725 2830 2830 3066 3345 3199 3199 3504 3679 3504 3345 3679 3066 2943 2943 2943 2830 2830 2830 2725 2725 2725 2830 2725 2830 2725 0 2943 3345 3504 3345 2830 0 0 0 0 0 2628 2537 2537 2943 2830 2725 2830 2453 2230 2164 2164 2102 2164 2537 2830 2830 2830 2830 2725 2628 2628 0 2943 3504 3504 3679 3504 3679 3873 4329 4088 5661 3504 3199 3199 2943 2943 2830 2830 2943 2830 2830 3066 3066 3679 3199 3066 2830 2725 2725 2725 2725 2628 2725 2725 2725 2830 3199 3066 2453 2628 2628 2537 2537 2537 2537 2374 2374 2943 2725 2725 2943 2830 2453 0 2725 2725 2725 2628 2628 2374 2102 2164 2299 2299 1887 2044 2230 2164 2230 2299 2299 2299 2299 2537 2628 2299 2725 2725 7359 7359 0 0 908 0 0 886 0 0 0 0 0 0 0 0 3199 0 0 0 0 0 2164 2102 1936 2164 2230 2164 2102 2044 2102 1936 1989 1989 1887 1887 1887 1887 1936 1887 1989 1936 1989 1989 1887 1887 1936 1672 1501 1388 1501 1599 1533 1533 1533 1533 1565 1533 1565 1501 1443 1443 1443 1415 1362 1338 1314 1268 1247 1206 1226 1226 1226 0 0 0 0 0
    0 0 0 0 0 0 0 0 0 0 0 0 0 0 0 0 0 0 0 0 0 0 0 0 0 0 0 0 0 0 0 0 0 0 0 0 0 0 0 0 0 0 0 0 0 0 0 0 0 0 0 0 0 0 0 0 0 0 0 0 0 0 0 0 0 0 0 0 0 1936 2044 2044 2102 2044 2044 2164 2164 2102 2374 2374 2164 2299 2374 2453 2230 2453 2537 2374 2374 2830 2830 3066 2943 3066 3066 3199 3066 2943 2943 2943 2943 2725 2943 2943 2725 2725 2830 2943 2830 3066 3199 3066 3066 3345 3504 3345 3199 3679 3066 3066 3066 3066 2943 2943 2943 2830 2830 2725 2943 2830 2830 2830 0 2943 3504 3504 3345 2725 2830 2830 2830 0 2830 2628 2537 2537 2943 2830 2628 2830 2164 2044 2044 2044 2044 2102 2299 2725 2725 2830 2725 2725 2725 2628 0 3066 3679 3679 3679 3504 3873 4088 4599 4088 5661 3679 3345 3199 3066 2943 2830 2943 2943 2943 2943 3199 3199 3679 3066 3066 2830 2628 2725 2725 2725 2628 2628 2725 2725 2943 3345 3199 2453 2628 2628 2537 2537 2628 2537 2374 2374 2943 2830 2725 2943 0 0 0 2830 2628 2725 2628 2830 2628 2230 2230 2299 2164 1887 1989 2230 2164 2230 2230 2299 2230 2299 2453 2628 2299 2725 2725 6690 6690 6690 0 897 0 0 0 0 0 0 0 0 0 0 0 3345 0 0 0 0 0 2164 2102 1936 2164 2164 2164 2102 2044 2102 1936 1989 1989 1887 1887 1887 1887 1936 1936 1989 1936 1989 1936 1839 1839 1887 1599 1501 1388 1471 1565 1533 1501 1501 1533 1565 1533 1565 1533 1443 1443 1443 1415 1362 1314 1314 1268 1226 1206 1226 1226 1226 0 0 0 0 0
    0 0 0 0 0 0 0 0 0 0 0 0 0 0 0 0 0 0 0 0 0 0 0 0 0 0 0 0 0 0 0 0 0 0 0 0 0 0 0 0 0 0 0 0 0 0 0 0 0 0 0 0 0 0 0 0 0 0 0 0 0 0 0 0 0 0 0 0 0 1989 2102 2044 2102 2044 2102 2230 2299 2164 2453 2453 2299 2299 2374 2453 2230 2453 2537 2299 2299 2830 2830 3066 3066 3066 3066 3199 3066 2943 2943 2943 2943 2830 3066 2943 2830 2725 2943 0 2830 3066 3066 2943 0 3199 3199 3199 3066 3679 3066 3066 3066 3199 2943 3066 3066 2943 2830 2830 2943 2943 3066 2830 2943 2943 3504 3504 3345 2628 2830 2725 2830 2830 2830 2628 2537 2537 2943 2830 2725 2725 2044 2044 2102 2102 2164 2230 2374 2725 2725 2830 2830 2830 2830 2725 0 3066 3679 3679 3679 3679 3873 4088 4599 4088 5661 3679 3345 3345 3066 3066 2943 2943 2943 2943 2943 3199 3199 3679 3066 3066 2830 2725 2725 2725 2628 2628 2628 2830 2725 2830 3199 3066 2374 2628 2628 2537 2537 2537 2537 2374 2374 2943 2830 2830 2943 0 0 3345 2830 2537 2628 2537 2725 2537 2230 2230 2299 2102 1936 1989 2230 2164 2230 2230 2299 2230 2299 2453 2628 2299 2725 2725 5661 6133 6133 0 0 0 0 0 0 0 0 0 0 0 0 0 3066 0 0 0 0 0 2164 2044 1936 2102 2164 2102 2044 2044 2044 1887 1936 1989 1887 1887 1887 1887 1936 1936 1989 1887 1936 1887 1795 1795 1839 1565 1501 1415 1443 1565 1533 1501 1501 1565 1565 1533 1565 1565 1443 1471 1471 1415 1362 1314 1291 1247 1206 1168 1168 1187 1187 0 0 0 0 0
    0 0 0 0 0 0 0 0 0 0 0 0 0 0 0 0 0 0 0 0 0 0 0 0 0 0 0 0 0 0 0 0 0 0 0 0 0 0 0 0 0 0 0 0 0 0 0 0 0 0 0 0 0 0 0 0 0 0 0 0 0 0 0 0 0 0 0 0 0 2044 2164 2102 2164 2102 2102 2299 2374 2230 2453 2453 2374 2374 2453 2537 2299 2453 2628 2299 2230 2725 2725 3199 3066 2943 3066 3199 3066 2830 2943 2943 2943 2830 3066 3066 2830 2830 3066 0 2830 2943 2943 2830 0 0 3066 2943 2943 3679 3066 3066 3199 3199 3066 3199 3199 2943 2943 2943 3066 2943 3066 2830 2725 2830 3504 3504 3199 2537 2725 2725 2725 0 0 2628 2537 2537 3066 2943 2830 2830 2102 2164 2230 2230 2299 2374 2537 2725 2725 2725 2830 2830 2830 2725 0 3066 3504 3504 3679 3504 3679 3873 4329 3873 5256 3679 3504 3345 3199 3199 2943 2943 2943 2830 2943 3199 3345 3679 3066 3066 2943 2725 2830 2725 2725 2628 2628 2830 2725 2725 3066 3066 2299 2537 2537 2537 2537 2537 2537 2299 2374 2943 2830 2830 2943 0 2374 3199 2830 2537 2628 2537 2628 2537 2374 2374 2299 2044 1989 1989 2230 2164 2230 2230 2230 2230 2299 2453 2628 2230 2725 2537 4329 4599 5256 3873 0 0 2943 0 2725 0 0 0 0 0 0 0 3199 0 0 0 0 0 2102 2044 1936 2102 2102 2102 2044 2044 2044 1887 1936 1936 1887 1936 1887 1887 1887 1936 1989 1887 1936 1795 1795 1752 1795 1533 1501 1443 1443 1565 1533 1501 1533 1565 1565 1533 1565 1599 1443 1471 1471 1415 1362 1314 1268 1187 1168 1115 1115 1115 1098 0 0 0 0 0
    0 0 0 0 0 0 0 0 0 0 0 0 0 0 0 0 0 0 0 0 0 0 0 0 0 0 0 0 0 0 0 0 0 0 0 0 0 0 0 0 0 0 0 0 0 0 0 0 0 0 0 0 0 0 0 0 0 0 0 0 0 0 0 0 0 0 0 0 0 2044 2230 2164 2164 2164 2102 2374 2374 2230 2537 2453 2374 2374 2374 2628 2299 2374 2537 2044 1989 2453 2299 3066 2830 2537 2830 3066 2830 2725 2830 2830 2830 2943 3066 3066 2830 2830 3066 0 2725 2943 2830 2725 0 0 0 2830 2830 3345 3066 3066 3199 3066 3066 3199 3199 2943 2943 3066 3199 2943 3199 2830 2537 2628 3504 3504 3199 2453 2725 2628 0 0 0 2628 2537 2537 3066 3066 2943 2943 2453 2453 2453 2453 2537 2628 2830 2830 2830 2830 2943 0 0 2725 0 3066 3504 3504 3504 3345 3504 3504 3873 3504 4599 3345 3199 3199 3199 3066 2943 2943 2943 2830 0 3345 3504 3679 3199 3199 2943 2725 2830 2830 2725 2628 2628 2725 2628 2628 2943 2830 2299 2537 2537 2453 2537 2537 2537 2299 2374 2943 2943 2943 0 0 0 3199 2830 2725 2725 2628 2628 2537 2453 2453 2374 2044 2044 2044 2230 2164 2230 2230 2230 2230 2299 2374 2628 2230 2725 2230 0 0 5661 3679 0 0 2628 0 0 0 0 0 0 0 0 0 0 0 0 0 1936 1887 2164 2044 1936 2102 2102 2102 2044 2044 2044 1887 1989 1936 1936 1936 1936 1887 1887 1887 1936 1839 1887 1795 1752 1711 1711 1501 1501 1443 1443 1565 1533 1533 1533 1565 1565 1533 1565 1599 1443 1471 1471 1443 1362 1314 1268 1149 1132 1098 1082 1098 1082 0 0 0 0 0
    0 0 0 0 0 0 0 0 0 0 0 0 0 0 0 0 0 0 0 0 0 0 0 0 0 0 0 0 0 0 0 0 0 0 0 0 0 0 0 0 0 0 0 0 0 0 0 0 0 0 0 0 0 0 0 0 0 0 0 0 0 0 0 0 0 0 0 0 0 2044 2230 2164 2164 2164 2102 2374 2453 2230 2537 2453 2453 2453 2453 2725 2453 2453 2725 2164 1989 2299 2374 2830 2374 0 0 3345 2830 2628 2943 2943 2830 3066 3066 3066 2830 2830 3066 3066 2725 2830 2830 2628 0 0 0 2725 2628 3199 2943 2943 3199 3066 3066 3199 3199 3066 3199 4088 3679 3199 3345 2943 2537 0 3873 3679 3066 2453 2725 2725 0 0 0 2628 2537 2537 3066 2943 2943 3066 2230 2299 2453 2537 0 2628 2830 2830 0 0 2943 2943 2830 2628 0 2830 3199 3199 3199 3066 0 3199 3504 3345 3873 3066 2943 3066 3066 2943 2943 2943 2943 2830 2943 3345 3679 3873 3199 3199 3066 2830 2830 2830 2725 2628 2537 2725 2537 2537 2830 2725 2299 2537 2537 2453 2453 2537 2537 2299 2453 3066 3066 4329 0 0 0 3345 2725 2628 2537 2628 2628 2537 2374 2537 2453 2044 2102 2044 2230 2164 2230 2230 2230 2230 2374 2374 2628 2299 2830 2164 0 0 6133 3504 0 0 2537 0 0 0 0 0 0 0 0 0 0 0 1989 1989 1989 1887 2164 2044 1989 2102 2102 2044 2044 2044 1989 1887 1989 1936 1936 1936 1936 1887 1887 1936 1936 1839 1839 1752 1711 1672 1672 1471 1501 1471 1443 1565 1533 1533 1533 1565 1565 1533 1533 1599 1443 1443 1471 1415 1362 1338 1247 1115 1115 1082 1066 1098 1082 0 0 0 0 0
    0 0 0 0 0 0 0 0 0 0 0 0 0 0 0 0 0 0 0 0 0 0 0 0 0 0 0 0 0 0 0 0 0 0 0 0 0 0 0 0 0 0 0 0 0 0 0 0 0 0 0 0 0 0 0 0 0 0 0 0 0 0 0 0 0 0 0 0 0 2044 2230 2164 2164 2230 2164 2374 2453 2230 2537 2453 2374 2374 2374 2725 2374 2299 2725 2102 1839 2230 0 0 0 0 0 4906 3066 2725 0 2943 2830 3345 3199 3066 2943 2943 3199 3066 0 2830 2725 2537 2628 2725 2725 2628 2537 2943 2943 2943 3345 3199 3066 3504 3679 3345 4329 5661 5256 3679 3504 3066 2830 0 4329 3679 3199 2628 2830 2725 0 0 0 2725 2537 2628 2943 2943 2830 2830 1989 2230 2374 0 2830 2725 2830 2830 0 0 2830 2830 2628 2453 0 2628 0 2943 2943 2943 0 0 3199 3066 3504 3066 2943 3066 3066 3066 2943 2943 3066 2943 3066 3504 3873 3873 3345 3345 3066 2830 2943 2830 2725 2628 2537 2725 2537 2453 2830 2628 2374 2628 2537 2537 2628 2537 2628 2453 2628 3199 3199 0 0 0 0 0 2537 2453 2374 2453 2453 2453 2374 2537 2453 2044 2164 2044 2230 2164 2230 2230 2299 2230 2374 2374 2725 2374 2943 2374 3066 0 6690 3345 0 0 0 0 0 0 0 0 0 0 0 0 2830 2374 1989 1989 2102 1989 2164 2044 1989 2102 2102 2044 2044 2044 1989 1936 1989 1936 1936 1936 1936 1887 1887 1936 1936 1839 1839 1752 1711 1672 1635 1471 1533 1501 1443 1565 1533 1533 1533 1565 1565 1533 1533 1599 1388 1415 1388 1362 1314 1268 1206 1082 1098 1082 1051 1082 1066 0 0 0 0 0
    0 0 0 0 0 0 0 0 0 0 0 0 0 0 0 0 0 0 0 0 0 0 0 0 0 0 0 0 0 0 0 0 0 0 0 0 0 0 0 0 0 0 0 0 0 0 0 0 0 0 0 0 0 0 0 0 0 0 0 0 0 0 0 0 0 0 0 0 0 2102 2230 2230 2230 2230 2230 2453 2453 2299 2628 2537 2453 2453 2453 2830 2453 2453 2830 2299 0 0 0 0 0 0 0 0 0 2453 0 2830 2725 3345 3345 3199 3066 3066 3345 3199 0 2943 2725 2537 2628 2725 2830 2628 2628 2943 2943 2943 3199 2943 2943 3199 3504 3199 3679 5256 4906 3345 3345 0 0 0 4088 3504 3066 2725 2830 2830 0 0 0 2725 2537 2628 2943 2830 2830 2725 1989 2230 2374 0 2830 2628 2725 2725 2725 2725 2830 0 2628 2299 0 2453 2830 2830 2830 2725 2725 2830 2943 2943 3199 2943 2943 2943 3066 3199 3066 3199 3199 3066 3199 3345 3679 3679 3199 3199 3066 2943 2943 2830 2725 2628 2628 2830 2628 2537 2830 2628 2453 2628 2628 2628 2628 2628 2725 2628 2830 3199 3199 0 0 0 0 0 2374 2230 2230 2374 2374 2453 2374 2537 2453 1989 2230 2044 2299 2164 2299 2230 2299 2299 2453 2374 2725 2374 2943 2453 3066 0 5256 3199 2830 0 0 0 0 0 0 0 0 0 0 2628 2537 2164 1989 1989 2102 2044 2164 2044 2044 2164 2102 2102 2044 2044 1989 1936 1989 1936 1936 1936 1936 1887 1887 1936 1936 1839 1839 1752 1711 1672 1635 1501 1533 1533 1443 1565 1533 1533 1533 1565 1565 1533 1533 1599 1362 1388 1338 1291 1247 1206 1168 1082 1098 1098 1051 1082 1082 0 0 0 0 0
    0 0 0 0 0 0 0 0 0 0 0 0 0 0 0 0 0 0 0 0 0 0 0 0 0 0 0 0 0 0 0 0 0 0 0 0 0 0 0 0 0 0 0 0 0 0 0 0 0 0 0 0 0 0 0 0 0 0 0 0 0 0 0 0 0 0 0 0 0 2102 2230 2230 2230 2230 2299 2453 2537 2453 2725 2725 2628 2628 2628 2943 2628 2628 0 2537 0 0 0 0 0 0 0 0 2628 2374 2628 2830 2628 3504 3345 3199 3066 3066 3345 3199 91 0 2725 2537 2725 2725 2830 2628 2628 2943 2830 2830 3199 2943 2943 3199 3504 3199 3504 4599 3679 3345 3066 2830 0 0 3873 3504 3066 2830 0 0 0 0 0 2725 2628 2725 2830 2725 2830 2628 1989 2299 2453 2628 2830 2628 0 0 0 0 0 0 2725 2164 0 2299 2537 2628 2628 2537 2628 2628 2725 2830 2943 2830 2830 2943 3066 3066 3066 3199 3199 3066 3345 3504 3679 3504 3066 3199 3199 3066 3066 3066 2830 2725 2725 2943 2628 2453 2725 2537 2537 2725 2725 2725 2725 2725 2830 0 2943 3504 3504 7359 0 0 0 0 2453 2230 2164 2374 2299 2453 2374 2453 2453 1989 2299 2044 2299 2164 2299 2230 2299 2299 2453 2374 2725 2374 2943 2537 3199 0 4599 3345 3066 0 0 0 0 0 0 2453 2628 2537 2374 2374 2299 2102 2044 1989 2164 2102 2164 2044 2102 2164 2164 2102 2102 2044 1989 1887 1989 1936 1936 1936 1936 1887 1887 1936 1936 1839 1839 1752 1711 1711 1672 1533 1565 1565 1443 1565 1533 1533 1533 1565 1565 1533 1533 1565 1362 1362 1314 1268 1226 1187 1132 1066 1098 1098 1051 1082 1082 0 0 0 0 0
    0 0 0 0 0 0 0 0 0 0 0 0 0 0 0 0 0 0 0 0 0 0 0 0 0 0 0 0 0 0 0 0 0 0 0 0 0 0 0 0 0 0 0 0 0 0 0 0 0 0 0 0 0 0 0 0 0 0 0 0 0 0 0 0 0 0 0 0 0 2102 2230 2230 2230 2230 2374 2537 2628 2537 2943 2830 2830 2830 2830 3066 2830 2830 3504 0 0 0 0 0 0 0 0 0 0 0 2537 2725 2453 3345 3199 3066 3066 0 0 0 91 91 2725 2537 2725 2725 0 2628 2628 2943 2830 2830 3199 2943 2943 3199 4599 3345 3679 3873 3199 2943 2943 2725 0 0 3873 3504 3066 0 0 0 0 0 0 2725 2628 2830 2830 2830 0 2725 2299 2453 2537 2725 2943 0 0 0 0 0 0 0 2830 2102 0 2164 2299 2453 2453 2374 2374 2453 2628 2628 2830 2830 2725 2830 2943 2943 2943 2943 2943 2943 3066 3345 3345 3345 3066 3066 3066 3066 3066 2943 2830 2725 2628 2830 2628 2374 2628 2374 2537 2725 2628 2725 2725 2725 2830 2830 3504 3679 3679 6690 4906 3873 3066 3066 2453 2230 2164 2230 2164 2374 2374 2453 2374 1989 2374 2102 2299 2230 2299 2299 2299 2299 2453 2299 2725 2374 2943 2628 6133 0 0 3504 3345 0 0 0 0 0 2725 2299 2374 2374 2230 2230 2230 2102 2102 1989 2230 2164 2164 2044 2164 2164 2164 2102 2164 2102 1989 1936 2044 1936 1936 1989 1936 1887 1887 1936 1936 1839 1795 1752 1711 1711 1672 1565 1599 1533 1415 1565 1501 1533 1533 1565 1533 1501 1533 1565 1362 1362 1314 1247 1226 1168 1132 1066 1082 1098 1051 1066 1082 0 0 0 0 0
    0 0 0 0 0 0 0 0 0 0 0 0 0 0 0 0 0 0 0 0 0 0 0 0 0 0 0 0 0 0 0 0 0 0 0 0 0 0 0 0 0 0 0 0 0 0 0 0 0 0 0 0 0 0 0 0 0 0 0 0 0 0 0 0 0 0 0 0 0 2102 2230 2230 2230 2230 2374 2537 2628 2628 2943 2943 2943 2943 3066 3199 2943 2943 0 2537 0 0 0 0 0 0 0 2299 0 0 2453 2628 2299 3199 3199 2943 0 0 0 0 91 91 2725 2628 2830 0 127 0 2628 2943 0 2830 3345 2943 2943 3199 5256 3873 4088 3679 3199 2943 2725 0 0 0 0 3504 0 0 0 0 0 0 0 2830 2725 2943 2943 2830 0 2830 2628 2628 2537 0 0 0 0 0 0 0 0 3066 2628 2044 2044 2102 2102 2299 2299 2164 2230 2299 2453 2453 2628 2725 2628 2725 2830 2943 2830 2943 2830 2830 2943 3066 3199 3345 3199 3199 3199 3066 3066 2943 2830 2725 2628 2628 2453 2230 2537 2230 2537 2628 2628 2628 2725 2725 2830 2830 4088 3873 3873 6690 5661 4088 3066 2830 2299 2164 2102 2164 2102 2230 2299 2374 2230 1989 2374 2102 2299 2230 2299 2299 2299 2299 2537 2299 2725 2374 0 0 0 0 0 0 0 0 0 0 0 0 2537 2164 2299 2299 2164 2230 2230 2164 2164 2044 2230 2164 2102 2044 2164 2164 2164 2102 2230 2102 1989 1936 2044 1936 1989 1989 1936 1887 1887 1936 1989 1839 1795 1752 1672 1711 1635 1565 1565 1501 1415 1565 1501 1501 1533 1533 1533 1501 1533 1565 1362 1362 1314 1268 1226 1168 1132 1066 1082 1098 1036 1066 1082 0 0 0 0 0
    0 0 0 0 0 0 0 0 0 0 0 0 0 0 0 0 0 0 0 0 0 0 0 0 0 0 0 0 0 0 0 0 0 0 0 0 0 0 0 0 0 0 0 0 0 0 0 0 0 0 0 0 0 0 0 0 0 0 0 0 0 0 0 0 0 0 0 0 0 2102 2230 2230 2230 2230 2453 2628 2628 2725 3199 3199 3199 3199 0 0 0 0 0 2374 1752 0 0 0 0 0 0 2299 0 0 2537 2725 2299 3066 3066 2830 0 2943 3199 3199 0 0 2830 2628 0 127 127 0 0 0 0 0 3199 2943 2830 2830 4329 3345 4088 3199 2830 2725 2537 0 0 0 0 3504 0 0 0 122 0 0 0 0 2725 3066 2830 2830 0 2725 2299 2299 2230 0 0 0 0 0 0 0 2830 2943 2628 2044 2164 2044 2044 2164 2164 2102 2164 2164 2299 2299 2453 2628 2537 2628 2830 2725 2725 2830 2725 2725 2830 2943 2943 3066 3345 3199 3345 3199 3199 2943 2830 2725 2725 2537 2374 2230 2537 2230 2537 2628 2628 2628 2725 2725 2943 2830 5256 3873 4088 6690 4906 3873 2943 2537 2230 2164 2164 2164 2102 2299 2374 2374 2164 2044 2374 2102 2299 2230 2299 2230 2299 2299 2453 2230 2628 2230 0 0 0 0 0 0 0 0 0 0 0 0 2453 2164 2230 2230 2164 2230 2230 2164 2230 2044 2299 2230 2164 2044 2164 2164 2230 2164 2299 2164 1989 1936 2102 1989 1989 1989 1936 1936 1887 1936 1989 1839 1795 1752 1711 1752 1635 1565 1599 1501 1443 1565 1501 1533 1533 1533 1533 1533 1565 1565 1362 1388 1314 1268 1247 1187 1149 1082 1082 1098 1036 1066 1082 0 0 0 0 0
    0 0 0 0 0 0 0 0 0 0 0 0 0 0 0 0 0 0 0 0 0 0 0 0 0 0 0 0 0 0 0 0 0 0 0 0 0 0 0 0 0 0 0 0 0 0 0 0 0 0 0 0 0 0 0 0 0 0 0 0 0 0 0 0 0 0 0 0 0 2102 2230 2230 2230 2230 2537 2725 2725 2830 3345 3345 3345 3345 0 0 0 0 0 2164 1672 0 0 0 0 0 0 2299 0 0 2628 2725 2453 3066 3066 2830 0 2943 3199 3066 2830 2943 2725 2628 2830 128 127 0 0 0 0 0 3345 2943 2830 2725 4906 3873 5256 3504 0 0 0 0 0 0 0 0 0 0 0 121 0 0 0 0 0 3199 2943 2830 0 2725 2044 2044 1989 0 0 0 0 0 0 2628 2830 2830 2628 2102 2299 2102 2102 2164 2102 2044 2102 2164 2230 2230 2453 2537 2374 2453 2628 2537 2628 2628 2537 2628 2830 2830 2830 2830 2943 2830 2830 2830 2725 2628 2537 2537 2537 2453 2230 2230 2537 2164 2537 2628 2628 2628 2725 2725 2943 2830 5661 3873 3873 5661 3345 0 2725 2299 2164 2044 2102 2102 2164 2299 2374 2374 2102 2044 2374 2102 2299 2230 2299 2230 2299 2299 2374 2230 2628 2164 2830 0 0 0 0 0 0 0 0 0 0 0 2453 2164 2299 2299 2164 2230 2299 2164 2230 2044 2299 2230 2164 2102 2164 2164 2299 2164 2299 2164 1989 1936 2102 1989 1989 1989 1936 1936 1887 1936 1989 1795 1795 1752 1711 1752 1635 1599 1599 1471 1443 1599 1501 1533 1533 1533 1565 1533 1565 1565 1388 1388 1338 1291 1247 1187 1149 1082 1098 1115 1036 1066 1082 0 0 0 0 0
    0 0 0 0 0 0 0 0 0 0 0 0 0 0 0 0 0 0 0 0 0 0 0 0 0 0 0 0 0 0 0 0 0 0 0 0 0 0 0 0 0 0 0 0 0 0 0 0 0 0 0 0 0 0 0 0 0 0 0 0 0 0 0 0 0 0 0 0 0 2102 2230 2230 2230 2230 2537 2725 2725 2943 3345 3345 3345 3345 0 0 0 0 0 0 0 0 0 0 0 0 2230 2230 0 0 2725 2830 2628 3199 3066 0 0 2943 3199 3066 2725 2830 2725 2537 2725 0 127 0 0 0 2725 2725 3199 2943 2830 2537 4599 3345 4906 3504 0 0 0 0 0 0 0 0 0 122 122 121 0 0 154 153 0 0 2830 2725 0 2453 0 0 0 0 0 0 0 0 0 2537 2725 2830 2628 2164 2299 2102 2102 2164 2102 2044 2102 2102 2230 2102 2453 2453 2230 2453 2453 2453 2537 2537 2537 2628 2725 2830 2628 2725 2628 2628 2537 2725 2537 2453 2374 2537 2453 2453 2230 2374 2453 2102 2537 2628 2628 2725 2725 2725 2830 2830 4906 3199 3199 0 2537 2537 2628 2374 2102 1989 2102 2044 2164 2299 2374 2230 1989 2044 2299 2044 2299 2164 2230 2230 2230 2299 2374 2164 2628 2102 2725 1795 0 0 0 0 0 0 0 0 0 0 2374 2164 2299 2299 2164 2230 2230 2164 2299 2044 2299 2230 2164 2102 2230 2230 2299 2164 2299 2164 1989 1936 2102 1989 1989 1989 1936 1936 1887 1936 1989 1839 1839 1752 1752 1752 1672 1635 1599 1443 1443 1599 1501 1533 1533 1533 1565 1533 1565 1565 1388 1415 1338 1291 1268 1206 1168 1098 1098 1132 1036 1066 1082 0 0 0 0 0
    0 0 0 0 0 0 0 0 0 0 0 0 0 0 0 0 0 0 0 0 0 0 0 0 0 0 0 0 0 0 0 0 0 0 0 0 0 0 0 0 0 0 0 0 0 0 0 0 0 0 0 0 0 0 0 0 0 0 0 0 0 0 0 0 0 0 0 0 0 2044 2230 2230 2230 2164 2537 2725 2725 2830 3345 3345 3345 3345 0 0 0 0 0 0 0 0 0 0 0 0 0 0 0 402 0 2830 2830 0 0 0 0 2943 3066 3066 2725 2830 2628 2537 2725 2628 0 2537 2537 2830 2537 2628 3066 2830 2725 2230 4088 0 4088 0 0 0 0 0 0 0 0 0 0 121 121 121 121 154 154 153 0 0 2725 2628 0 2299 0 0 1887 0 1989 0 0 0 0 2628 2725 2830 2725 2164 2374 2102 2102 2230 2102 2102 2102 2102 2230 2102 2453 2453 2230 2453 2453 2453 2453 2537 2453 2537 2628 2725 2453 2628 2453 2537 2453 2628 2453 2374 2374 2537 2537 2628 2299 2537 2628 2164 2628 2628 2628 2628 2628 2725 2725 2725 3345 2830 2725 2725 2537 2628 2628 2537 2230 2102 2164 2102 2230 2374 2453 2164 1936 2044 2230 1989 2164 2102 2164 2164 2164 2299 2230 2102 2628 2044 2537 1752 0 1443 0 0 0 0 0 0 0 2102 2374 2164 2299 2299 2164 2230 2230 2164 2299 2102 2299 2230 2164 2164 2230 2164 2299 2164 2230 2164 1989 1936 2102 1936 1989 1936 1936 1936 1887 1936 1989 1795 1839 1752 1752 1752 1672 1635 1635 1443 1443 1565 1501 1501 1501 1533 1565 1533 1599 1565 1415 1443 1388 1314 1291 1226 1187 1132 1115 1149 1051 1066 1098 0 0 0 0 0
    0 0 0 0 0 0 0 0 0 0 0 0 0 0 0 0 0 0 0 0 0 0 0 0 0 0 0 0 0 0 0 0 0 0 0 0 0 0 0 0 0 0 0 0 0 0 0 0 0 0 0 0 0 0 0 0 0 0 0 0 0 0 0 0 0 0 0 0 0 2044 2164 2164 2230 2164 2628 2830 2830 2943 3504 3504 3504 3504 4088 2943 0 3504 0 0 0 0 1989 0 0 0 0 0 425 404 0 3066 3066 3345 3199 0 3066 3066 3199 3066 2830 2830 2725 2628 2830 2830 0 2628 2725 2943 2943 2830 3504 2943 2830 0 4088 3199 3199 0 0 0 0 0 0 0 0 0 0 121 0 0 0 0 153 0 0 0 2628 2537 2943 2230 1936 1887 1936 1989 2044 2230 0 0 0 2725 2830 2943 2830 2299 2453 2230 2230 2299 2164 2164 2164 2164 2299 2102 2374 2374 2102 2374 2299 2374 2453 2453 2374 2537 2537 2628 2453 2628 2374 2453 2374 2537 2453 2374 2453 2537 2537 2725 2164 2537 2628 2164 2537 2453 2453 2537 2453 2537 2628 2537 2943 2628 2725 2725 2628 2725 2628 2537 2453 2164 2164 2102 2299 2374 2453 2102 1887 2044 2164 1989 2102 2044 2102 2102 2102 2164 2102 1989 2453 1887 2044 1711 1635 1471 0 0 0 0 0 0 0 2044 2299 2102 2299 2299 2164 2230 2230 2164 2299 2102 2299 2230 2164 2164 2164 2164 2299 2102 2230 2102 1989 1936 2044 1936 1936 1936 1887 1887 1887 1887 1887 1795 1795 1752 1752 1752 1711 1672 1672 1415 1471 1599 1501 1501 1533 1533 1565 1565 1599 1599 1443 1501 1443 1388 1338 1247 1226 1168 1149 1168 1051 1066 1115 0 0 0 0 0
    0 0 0 0 0 0 0 0 0 0 0 0 0 0 0 0 0 0 0 0 0 0 0 0 0 0 0 0 0 0 0 0 0 0 0 0 0 0 0 0 0 0 0 0 0 0 0 0 0 0 0 0 0 0 0 0 0 0 0 0 0 0 0 0 0 0 0 0 0 1989 2102 2102 2164 2164 2628 2830 2725 2943 3345 3345 3345 3504 3873 2943 2943 3345 3345 2725 2044 1887 2453 2830 2628 0 0 0 0 0 4599 3199 3345 3504 3199 3066 3066 3066 3199 3066 2943 2830 2830 2725 2830 0 0 2725 2725 3066 3199 3066 3679 2943 2830 2943 3873 3345 3066 2537 0 0 0 0 0 0 0 0 0 121 121 121 0 0 153 0 2725 3066 2628 2537 2943 2299 1936 1795 1839 1795 1989 2230 0 0 0 2830 2943 2943 2830 2374 2537 2299 2299 2374 2230 2230 2230 2164 2374 2102 2299 2374 2044 2374 2230 2299 2453 2374 2299 2453 2537 2628 2537 2628 2374 2453 2299 2453 2374 2299 2374 2453 2374 2628 2044 2453 2537 2044 2453 2374 2374 2374 2299 2453 2537 2374 2725 2537 2537 2628 2453 2725 2537 2453 2537 2164 2102 2102 2299 2299 2374 1989 1887 2044 2044 1936 2044 1989 2044 2044 2044 2102 1989 1936 2164 1795 1839 1672 1635 1471 0 0 0 0 0 0 2044 1989 2299 2102 2230 2230 2164 2230 2230 2164 2299 2102 2230 2230 2164 2164 2164 2164 2299 2044 2164 2102 1936 1936 2044 1936 1936 1936 1887 1887 1839 1839 1839 1752 1752 1711 1711 1711 1711 1711 1672 1415 1471 1599 1501 1501 1533 1565 1599 1565 1635 1599 1533 1599 1565 1533 1443 1291 1291 1226 1187 1187 1051 1051 1132 0 0 0 0 0
    0 0 0 0 0 0 0 0 0 0 0 0 0 0 0 0 0 0 0 0 0 0 0 0 0 0 0 0 0 0 0 0 0 0 0 0 0 0 0 0 0 0 0 0 0 0 0 0 0 0 0 0 0 0 0 0 0 0 0 0 0 0 0 0 0 0 0 0 0 1936 2044 2044 2044 2044 2453 2725 2628 2830 3066 3066 3066 3345 3345 2943 2943 3345 3504 3199 3345 3504 3345 3504 3066 0 0 0 0 0 4906 3199 3504 0 0 3199 3066 3066 3199 3199 2943 2830 2830 2830 2943 0 0 2830 2830 3066 3199 3066 3345 2943 2943 3066 3873 3345 3345 3066 2830 0 0 0 0 0 0 0 0 121 121 121 0 0 0 2830 2725 3066 2628 2537 3199 2453 1839 1672 1752 1752 1936 2164 0 0 2628 2830 2943 2830 2830 2453 2628 2374 2374 2453 2374 2299 2299 2230 2453 2164 2374 2299 2044 2374 2164 2299 2374 2374 2299 2453 2537 2628 2453 2628 2299 2374 2230 2453 2374 2230 2374 2374 2230 2537 2044 2453 2453 2044 2374 2299 2299 2299 2230 2374 2453 2299 2628 2453 2537 2537 2453 2725 2537 2453 2537 2164 2164 2102 2374 2299 2453 1936 1839 1989 1989 1887 1989 1936 1936 1936 1936 1989 1887 1839 1989 1752 1795 1672 1635 1501 1599 0 0 0 0 0 1989 1989 2230 2102 2164 2230 2102 2230 2299 2230 2374 2164 2299 2299 2230 2164 2164 2164 2299 2044 2164 2102 1936 1936 1989 1887 1887 1887 1839 1839 1795 1795 1795 1711 1711 1711 1672 1711 1711 1752 1711 1471 1533 1635 1501 1533 1533 1565 1599 1565 1635 1635 1565 1635 1635 1672 1635 1415 1533 0 0 0 0 0 1168 0 0 0 0 0
    0 0 0 0 0 0 0 0 0 0 0 0 0 0 0 0 0 0 0 0 0 0 0 0 0 0 0 0 0 0 0 0 0 0 0 0 0 0 0 0 0 0 0 0 0 0 0 0 0 0 0 0 0 0 0 0 0 0 0 0 0 0 0 0 0 0 0 0 0 1936 2044 1989 1989 2044 2374 2628 2537 2628 2830 2830 2830 3066 3066 2943 2943 3345 3504 3504 3679 4088 3679 4088 3504 3679 4088 0 0 6133 5256 3345 3873 3873 3679 3504 3199 3199 3199 3199 3066 2943 2943 2830 2943 0 0 2943 2830 3066 3199 3066 3066 2830 2830 2830 3345 3066 3199 2943 2943 0 0 0 0 0 0 0 0 0 121 121 0 0 0 2830 2725 3066 2628 2537 3345 0 1752 1635 1711 1672 1989 2628 2299 2537 2628 2725 2830 2830 2725 2453 2628 2374 2453 2453 2374 2374 2374 2299 2453 2164 2453 2299 2044 2374 2164 2374 2453 2374 2299 2453 2537 2725 2537 2725 2299 2453 2299 2453 2374 2230 2374 2374 2230 2537 2044 2453 2453 2044 2374 2299 2299 2299 2230 2374 2374 2299 2628 2374 2453 2453 2453 2628 2453 2374 2453 2044 2102 2044 2374 2299 2299 1887 1839 1989 1887 1839 1887 1839 1839 1839 1839 1839 1752 1795 1795 1672 1752 1672 1672 1565 1672 1711 1635 0 0 1752 0 1936 2164 2044 2164 2230 2164 2299 2374 2374 2537 2299 2374 2374 2299 2230 2230 2230 2374 2102 2164 2164 1936 1887 1989 1887 1839 1839 1795 1795 1752 1752 1752 1672 1711 1711 1711 1711 1752 1795 1795 1635 1635 1672 1533 1565 1565 1565 1599 1565 1635 1635 1599 1672 1672 1711 1711 1533 1711 0 0 0 0 0 0 0 0 0 0 0
    0 0 0 0 0 0 0 0 0 0 0 0 0 0 0 0 0 0 0 0 0 0 0 0 0 0 0 0 0 0 0 0 0 0 0 0 0 0 0 0 0 0 0 0 0 0 0 0 0 0 0 0 0 0 0 0 0 0 0 0 0 0 0 0 0 0 0 0 0 1887 1936 1936 1936 1989 2230 2537 2374 2453 2725 2725 2628 2943 2943 3066 3066 3345 3504 3679 3679 4329 3873 4599 3873 4088 4088 5256 0 6133 5256 3504 4329 4329 4088 3679 3504 3504 3345 3345 3345 2943 3066 3066 3066 3199 3199 3066 2943 2943 3066 2943 2943 2725 2830 2830 0 2943 3199 3066 0 0 0 0 0 0 0 4088 0 0 0 0 0 2943 3066 2943 2830 3199 2628 2628 3504 2943 0 0 1711 0 2299 0 2453 2725 2725 2830 2830 2725 2725 2537 2628 2374 2453 2453 2374 2374 2374 2374 2453 2230 2537 2374 2102 2453 2299 2453 2453 2453 2374 2537 2628 2725 2628 2725 2299 2453 2374 2453 2374 2230 2374 2374 2230 2628 2044 2537 2453 2044 2374 2230 2299 2299 2230 2453 2374 2299 2628 2374 2453 2453 2374 2628 2453 2453 2453 2044 2044 2044 2453 2164 2102 1887 1839 1936 1839 1795 1839 1752 1752 1752 1752 1752 1711 1711 1711 1635 1711 1635 1672 1635 1711 1752 1752 1752 1839 1839 0 0 2044 1887 0 0 2102 2299 2628 2453 2725 2453 2374 2453 2374 2299 2299 2299 2453 2102 2164 2164 1936 1839 1887 1839 1795 1752 1752 1752 1711 1711 1752 1672 1711 1752 1752 1752 1795 1839 1839 1711 1711 1711 1599 1599 1565 1565 1599 1599 1635 1635 1599 1672 1672 1711 1711 1565 1711 1672 0 0 0 0 0 0 0 0 0 0
    0 0 0 0 0 0 0 0 0 0 0 0 0 0 0 0 0 0 0 0 0 0 0 0 0 0 0 0 0 0 0 0 0 0 0 0 0 0 0 0 0 0 0 0 0 0 0 0 0 0 0 0 0 0 0 0 0 0 0 0 0 0 0 0 0 0 0 0 0 1887 1936 1936 1936 1936 2164 2374 2299 2299 2628 2537 2537 2943 2943 3066 3066 3345 3504 3873 3873 4599 4088 4906 4088 4329 4599 5661 0 6133 0 3504 4329 4329 4329 3873 3504 3679 3345 3504 3504 3066 3066 3066 3199 3199 3345 3199 2943 2830 2943 2830 0 2725 2830 2943 0 3066 3345 3199 3345 3345 0 0 0 0 0 4329 0 3679 0 0 0 2943 3066 2943 2830 3345 2725 2725 4088 0 0 0 2537 0 2725 3066 2830 2943 2830 2830 2943 2725 2628 2537 2628 2374 2453 2453 2374 2453 2453 2453 2537 2299 2725 2453 2102 2537 2299 2453 2537 2453 2374 2628 2628 2830 2628 2830 2374 2537 2453 2537 2453 2299 2374 2374 2299 2628 1989 2537 2374 1989 2299 2164 2230 2374 2230 2453 2374 2374 2628 2453 2537 2453 2374 2628 2453 2537 2537 2164 2102 2102 2374 2102 2102 1936 1839 1887 1795 1795 1795 1711 1711 1711 1711 1711 1672 1672 1672 1565 1672 1635 1635 1599 1711 1752 1752 1795 1839 1752 0 0 0 0 0 0 0 0 0 0 0 0 0 2453 2374 2299 2453 2299 2453 2164 2102 2044 1839 1711 1839 1795 1711 1752 1752 1711 1672 1711 1752 1711 1752 1752 1752 1752 1795 1887 1887 1795 1752 1711 1599 1599 1565 1565 1635 1599 1635 1635 1599 1672 1711 1711 1711 1565 1711 1711 0 0 0 0 0 0 0 0 0 0
    0 0 0 0 0 0 0 0 0 0 0 0 0 0 0 0 0 0 0 0 0 0 0 0 0 0 0 0 0 0 0 0 0 0 0 0 0 0 0 0 0 0 0 0 0 0 0 0 0 0 0 0 0 0 0 0 0 0 0 0 0 0 0 0 0 0 0 0 0 1839 1936 1936 1936 1989 2164 2230 2164 2230 2537 2453 2453 2725 2830 3066 3199 3345 3504 3873 3873 4599 4329 4906 4329 4329 4599 5661 0 5661 4329 3345 4329 4329 4088 3679 3504 3679 3345 3504 3679 3199 3199 3199 3345 3345 3345 3345 2943 2725 2830 2725 2830 2725 2725 2943 0 2943 3199 3199 3504 3345 3199 0 3679 3679 5661 4088 3679 3679 0 0 0 2830 2943 2830 2830 3345 2725 2830 3873 3873 3504 3504 3199 3199 2943 3066 2943 3066 2943 2943 2943 2628 2628 2537 2725 2299 2453 2453 2374 2453 2453 2453 2537 2453 2830 2628 2164 2537 2374 2537 2537 2537 2453 2628 2725 2830 2725 2830 2453 2628 2453 2537 2453 2299 2374 2374 2299 2628 1989 2374 2230 1936 2164 2102 2164 2299 2230 2453 2299 2374 2628 2453 2628 2537 2453 2628 2453 2537 2537 2230 2164 2230 2230 2044 2044 1936 1887 1887 1795 1752 1795 1672 1672 1672 1672 1672 1635 1635 1599 1533 1672 1599 1599 1565 1672 1672 1635 1672 1672 1635 1635 1752 1635 0 0 0 0 0 0 0 0 0 1168 1206 0 0 0 0 0 2044 1936 1887 1711 1533 1752 1711 1635 1711 1711 1711 1711 1711 1752 1711 1752 1795 1752 1795 1795 1887 1839 1795 1752 1711 1635 1635 1599 1565 1599 1599 1635 1635 1599 1672 1711 1711 1752 1599 1752 1752 0 0 0 0 0 0 0 0 0 0
    0 0 0 0 0 0 0 0 0 0 0 0 0 0 0 0 0 0 0 0 0 0 0 0 0 0 0 0 0 0 0 0 0 0 0 0 0 0 0 0 0 0 0 0 0 0 0 0 0 0 0 0 0 0 0 0 0 0 0 0 0 0 0 0 0 0 0 0 0 1839 1989 1989 1936 1989 2164 2230 2164 2164 2537 2374 2374 2725 2830 3066 3199 3199 3504 3873 3873 4599 4088 4599 4088 4329 4599 5256 4329 5256 4088 3345 4088 4088 3873 3504 3345 3504 3199 3345 3679 3199 3199 3199 3504 3504 3345 3345 3066 2725 2830 2830 2943 2830 2830 2943 3066 2943 3199 3199 3345 3199 3199 0 3504 3679 4906 4088 3679 3679 0 0 0 2830 2830 2830 2830 3345 2725 3199 3679 3873 3504 3504 3199 3199 3066 3066 2943 3066 3066 3066 3066 2725 2725 2628 2725 2299 2453 2453 2453 2453 2537 2537 2537 2453 2830 2725 2230 2628 2453 2537 2537 2537 2374 2537 2628 2830 2725 2725 2537 2628 2537 2628 2537 2374 2374 2374 2374 2537 1936 2230 2044 1839 2044 1989 2102 2164 2164 2374 2230 2299 2628 2453 2628 2537 2374 2628 2453 2537 2453 2044 1989 2102 2044 1989 1989 1936 1887 1839 1752 1752 1752 1635 1672 1635 1635 1635 1599 1635 1565 1533 1672 1565 1565 1565 1635 1599 1599 1635 1635 1599 1635 1672 1599 1635 1565 1415 0 0 0 0 0 0 1206 1226 1187 0 0 0 0 0 0 0 0 1443 1635 1672 1565 1672 1711 1711 1711 1752 1752 1752 1752 1839 1795 1795 1839 1887 1887 1839 1795 1752 1635 1635 1599 1565 1599 1565 1635 1635 1599 1672 1672 1711 1752 1635 1752 0 0 0 0 0 0 0 0 0 0 0
    0 0 0 0 0 0 0 0 0 0 0 0 0 0 0 0 0 0 0 0 0 0 0 0 0 0 0 0 0 0 0 0 0 0 0 0 0 0 0 0 0 0 0 0 0 0 0 0 0 0 0 0 0 0 0 0 0 0 0 0 0 0 0 0 0 0 0 0 0 1839 1989 1989 1936 1989 2102 2102 2102 2102 2374 2230 2230 2725 2830 3199 3199 3199 3345 3873 3873 4329 3873 4329 4088 4088 4329 5256 4088 4906 4088 3504 4088 4088 3679 3345 3345 3345 3199 3345 3504 3066 3066 3199 3504 3504 3345 3504 3199 2830 2943 2830 2943 2830 2830 2943 0 2943 3199 3066 3345 3199 3066 3345 3345 3679 4906 3873 3504 3504 0 0 2943 2830 2830 2725 2725 3504 2830 3504 3873 3873 3679 3504 3199 3199 3199 3066 2943 3066 3066 3066 3066 2830 2830 2725 2830 2374 2537 2453 2453 2537 2537 2537 2537 2453 2943 2830 2374 2725 2537 2628 2628 2628 2453 2628 2725 2830 2725 2725 2537 2628 2537 2628 2537 2374 2374 2299 2374 2453 1936 2102 1936 1839 1989 1936 2044 2164 2102 2299 2230 2374 2628 2453 2628 2453 2299 2453 2374 2374 2230 1989 1936 2044 1989 1936 1989 1936 1839 1839 1711 1752 1752 1635 1635 1635 1599 1599 1599 1635 1533 1533 1672 1565 1565 1599 1599 1599 1599 1635 1635 1635 1672 1635 1565 1635 1599 1415 1388 0 0 0 0 0 1168 1226 1149 0 0 0 0 0 0 1471 0 1388 1501 1599 1501 1635 1672 1672 1672 1711 1752 1752 1795 1839 1795 1795 1839 1887 1887 1887 1795 1752 1672 1672 1599 1599 1599 1599 1635 1635 1599 1672 1672 1711 1752 1635 0 0 0 0 0 0 0 0 0 0 0 0
    0 0 0 0 0 0 0 0 0 0 0 0 0 0 0 0 0 0 0 0 0 0 0 0 0 0 0 0 0 0 0 0 0 0 0 0 0 0 0 0 0 0 0 0 0 0 0 0 0 0 0 0 0 0 0 0 0 0 0 0 0 0 0 0 0 0 0 0 0 1887 1989 1989 1936 1936 2044 1989 1989 1989 2164 2044 2102 2537 2725 3066 3066 3066 3345 3873 3679 4329 3873 4088 3873 3873 4088 4906 3873 4329 3679 3345 4088 3873 3679 3345 3199 3345 3066 3199 3345 0 0 3066 3345 3345 3345 3679 3199 2830 2830 2943 2943 2830 2943 3066 0 2830 3199 3066 3345 3199 3199 3345 3504 3679 4906 3873 3345 3345 0 0 2943 2725 2725 2725 2725 3504 2830 3504 3679 3504 3504 3345 3199 3066 3066 3066 2943 3066 3066 3066 2943 2725 2725 2725 2830 2299 2453 2453 2374 2537 2537 2537 2537 2537 2943 2725 2453 2830 2628 2628 2628 2537 2453 2537 2725 2830 2725 2725 2628 2725 2628 2628 2628 2453 2453 2374 2453 2453 1989 2044 1887 1839 1936 1936 2044 2102 2102 2230 2230 2374 2537 2453 2628 2374 2230 2374 2299 2299 2044 1989 2044 2102 2044 1936 1989 1936 1839 1839 1672 1752 1752 1599 1635 1599 1599 1599 1565 1635 1533 1533 1672 1533 1565 1599 1599 1599 1635 1635 1635 1635 1711 1635 1565 1635 1599 1471 1443 1362 1338 0 0 1268 1226 1247 1168 1388 1565 1599 1752 1795 0 1443 0 1415 1501 1635 1533 1635 1672 1672 1711 1752 1752 1795 1795 1887 1795 1839 1839 1887 1887 1839 1795 1752 1672 1672 1635 1599 1635 1599 1635 1635 1599 1672 1672 1672 1752 1635 0 0 0 0 0 0 0 0 0 0 0 0
    0 0 0 0 0 0 0 0 0 0 0 0 0 0 0 0 0 0 0 0 0 0 0 0 0 0 0 0 0 0 0 0 0 0 0 0 0 0 0 0 0 0 0 0 0 0 0 0 0 0 0 0 0 0 0 0 0 0 0 0 0 0 0 0 0 0 0 0 0 1887 1989 1989 1936 1936 1989 1936 1936 1936 2102 1989 1989 2299 2628 2830 2943 2943 3199 3873 3679 4329 3873 3873 3679 3679 3873 4329 3679 4329 3679 3345 4088 4088 3679 3345 3345 3345 0 0 0 0 0 0 0 3199 3199 3504 3345 2830 2943 3066 3066 3066 3066 3199 3199 2830 3199 3199 3345 3199 3066 3199 3199 3504 4329 3679 3199 3199 0 0 2943 2725 2725 2725 2725 3504 2830 3345 3345 3345 3345 3199 3066 2943 2943 3066 2943 3066 3066 2943 2628 2628 2628 2725 2725 2230 2453 2453 2374 2537 2537 2537 2537 2537 3066 2725 2537 2830 2628 2537 2537 2453 2453 2453 2725 2725 2628 2628 2628 2628 2628 2628 2628 2453 2374 2453 2453 2374 1989 1989 1887 1839 1936 1887 2044 2102 2102 2299 2299 2537 2628 2537 2725 2374 2299 2299 2374 2374 2044 2102 2230 2299 2102 1989 1989 1936 1887 1839 1672 1752 1752 1599 1635 1599 1599 1599 1565 1599 1533 1533 1672 1533 1565 1635 1599 1635 1635 1635 1599 1635 1672 1635 1565 1599 1599 1533 1471 1415 1388 1388 1415 1314 1314 1314 1291 1443 1635 1672 1752 1795 0 1471 1443 1415 1501 1635 1565 1635 1672 1711 1752 1752 1795 1795 1795 1887 1839 1839 1839 1887 1839 1839 1795 1752 1672 1672 1635 1599 1599 1565 1599 1635 1599 1635 1635 1635 1711 1565 0 0 0 0 0 0 0 0 0 0 0 0
    0 0 0 0 0 0 0 0 0 0 0 0 0 0 0 0 0 0 0 0 0 0 0 0 0 0 0 0 0 0 0 0 0 0 0 0 0 0 0 0 0 0 0 0 0 0 0 0 0 0 0 0 0 0 0 0 0 0 0 0 0 0 0 0 0 0 0 0 0 1887 2044 2044 1989 0 0 0 0 1887 2044 1936 1989 2230 2628 2725 2830 2943 3199 3679 3345 3679 3504 3504 3504 3345 3504 3873 3345 4088 3504 3199 4088 3873 3679 3345 0 0 0 127 128 127 127 0 0 3066 3066 3504 3345 0 0 3199 3345 3199 3199 3345 3199 2943 3199 3199 3345 3066 3066 2943 2943 3199 3873 3345 2943 3066 0 0 2943 2830 2830 2830 2830 3679 2830 3504 3199 3504 3345 3199 3066 2830 2830 2943 2943 3066 2943 2943 2628 2628 2725 2725 2725 2164 2374 2374 2374 2537 2537 2537 2453 2453 3066 2537 2537 2725 2628 2537 2537 2453 2453 2537 2725 2725 2628 2537 2628 2628 2725 2628 2628 2453 2453 2537 2537 2374 1989 1936 1839 1839 1887 1887 2044 2102 2164 2299 2374 2628 2725 2725 2725 2374 2299 2299 2453 2453 1989 2164 2299 2374 2102 1989 2044 1936 1887 1839 1711 1752 1752 1635 1635 1599 1599 1599 1533 1599 1533 1533 1672 1533 1565 1599 1565 1599 1599 1599 1599 1599 1672 1599 1565 1599 1599 1533 1471 1415 1388 1388 1415 1338 1338 1314 1314 1501 1711 1711 1752 1839 0 1443 1443 1443 1533 1635 1565 1672 1672 1711 1752 1795 1795 1795 1839 1936 1839 1839 1839 1839 1839 1839 1795 1752 1672 1672 1635 1599 1599 1565 1599 1599 1565 1635 1599 1635 1672 1533 0 0 0 0 0 0 0 0 0 0 0 0
    0 0 0 0 0 0 0 0 0 0 0 0 0 0 0 0 0 0 0 0 0 0 0 0 0 0 0 0 0 0 0 0 0 0 0 0 0 0 0 0 0 0 0 0 0 0 0 0 0 0 0 0 0 0 0 0 0 0 0 0 0 0 0 0 0 0 0 0 0 1839 1989 1989 0 0 0 0 0 1887 2044 1936 1989 2299 2628 2628 2725 2830 3066 3345 3066 3199 3066 3199 3199 3066 3066 3199 3066 3504 3345 3066 3873 3679 3345 0 126 126 126 127 128 127 127 0 0 3066 3066 3345 3345 0 0 3199 3504 3199 3199 3345 3345 2943 3345 3199 3345 3066 3066 2943 2943 3066 3345 3066 2830 2943 0 121 0 2830 2830 2830 2830 3504 2830 3345 0 3199 3066 2943 2830 2628 2628 2830 2830 2943 2830 2830 2628 2628 2725 2830 2725 2164 2374 2374 2453 2537 2537 2453 2453 2453 3066 2628 2537 2725 0 2537 2537 2453 2453 2537 2725 2725 2537 2537 2628 2628 2628 2628 2628 2453 2453 2537 2537 2374 1989 1887 1795 1839 1887 1887 2044 2102 2102 2299 2453 2725 0 0 2830 2453 2299 2453 2628 2537 1989 2230 2374 2299 2164 1989 2044 1989 1936 1887 1795 1795 1795 1672 1672 1635 1599 1599 1565 1599 1533 1533 1672 1565 1565 1635 1565 1635 1599 1599 1599 1599 1672 1599 1565 1565 1599 1533 1471 1443 1415 1415 1471 1362 1362 1338 1338 1501 1711 1711 1752 1795 0 1415 1415 1443 1501 1635 1565 1672 1672 1711 1795 1839 1839 1839 1839 1936 1839 1839 1839 1839 1839 1839 1795 1752 1711 1711 1635 1599 1599 1565 1599 1599 1565 1635 1599 1635 1672 1533 0 0 0 0 0 0 0 0 0 0 0 0
    0 0 0 0 0 0 0 0 0 0 0 0 0 0 0 0 0 0 0 0 0 0 0 0 0 0 0 0 0 0 0 0 0 0 0 0 0 0 0 0 0 0 0 0 0 0 0 0 0 0 0 0 0 0 0 0 0 0 0 0 0 0 0 0 0 0 0 0 0 1887 1989 1989 1936 0 0 1839 1839 1839 2044 1887 1989 2299 2537 2628 2628 2830 3066 3199 2830 2943 2943 2943 2943 2943 2943 2943 2943 3066 3066 2725 3504 3345 0 126 0 126 126 127 128 0 0 2830 0 3066 3199 3345 3345 3199 3345 3504 3504 3345 3345 3504 3345 2943 3199 3199 3345 3066 3066 2943 2830 2943 3199 2943 2830 2943 2943 0 0 2943 2943 2943 2943 3345 2628 3199 0 3199 2830 2725 2628 2537 2628 2830 2830 2943 2830 2725 2628 2628 2725 2725 2628 2102 2374 2374 2453 2453 2453 2374 2374 2453 2943 2453 2537 2628 0 2453 2537 2374 2374 2453 2628 2628 2537 2537 2628 2537 2628 2628 2628 2453 2453 2537 2537 2299 2044 1839 1795 1839 1887 1887 2044 2102 2044 2230 2453 2725 0 0 2830 2453 2374 2628 2830 2725 2102 2374 2537 2230 2230 2044 2102 1989 1936 1887 1839 1839 1839 1672 1672 1635 1635 1635 1565 1599 1533 1533 1672 1565 1599 1635 1599 1635 1599 1635 1599 1599 1635 1565 1565 1565 1565 1533 1501 1471 1443 1415 1533 1388 1415 1388 1362 1443 1599 1672 1635 1672 0 1388 1415 1471 1501 1635 1599 1672 1711 1752 1795 1839 1839 1839 1887 1936 1839 1887 1839 1839 1839 1839 1795 1752 1711 1711 1672 1599 1599 1565 1599 1635 1599 1635 1599 1635 1711 1635 3679 0 0 0 0 0 0 0 0 0 0 0
    0 0 0 0 0 0 0 0 0 0 0 0 0 0 0 0 0 0 0 0 0 0 0 0 0 0 0 0 0 0 0 0 0 0 0 0 0 0 0 0 0 0 0 0 0 0 0 0 0 0 0 0 0 0 0 0 0 0 0 0 0 0 0 0 0 0 0 0 0 0 1936 1936 1887 0 1989 1839 1839 1839 2044 1936 2044 2374 2537 2537 2628 2725 2943 3066 2725 2725 2725 2725 2830 2830 2830 2830 2830 3066 3066 2628 3345 3199 0 0 126 126 0 0 128 2830 2725 2830 0 3199 3345 3504 3679 3504 3504 3679 3679 3345 3345 3345 3345 2943 3199 3199 3199 3066 3066 2830 2830 2830 2943 2830 2725 2943 2943 0 120 3066 3066 3066 3066 3199 2628 3345 0 0 2537 2374 2374 2453 2628 2830 2943 3199 3066 2830 2725 2725 2830 2830 2725 2102 2374 2374 2453 2453 2453 2299 2374 2374 2830 2374 2537 2537 2453 2453 2453 2374 2374 2537 2628 2537 2453 2537 2537 2537 2537 2537 2537 2453 2453 2537 2537 2230 2044 1839 1795 1887 1887 1936 2044 2044 2044 2164 2453 2725 2725 0 2830 0 0 2725 3199 3066 2453 2628 2628 2164 2299 2044 2102 1989 1936 1887 1839 1839 1839 1672 1672 1635 1635 1635 1565 1635 1533 1565 1672 1599 1599 1672 1599 1635 1635 1635 1599 1565 1635 1533 1533 1533 1565 1501 1501 1471 1471 1443 1533 1388 1415 1338 1291 1388 1501 1635 1501 0 0 1362 1415 1471 1471 1599 1599 1672 1711 1752 1839 1887 1887 1839 1887 1936 1887 1887 1839 1795 1795 1839 1795 1795 1711 1711 1672 1599 1599 1599 1635 1635 1599 1635 1599 1635 1752 1672 0 0 0 0 0 0 0 0 0 0 0 0
    0 0 0 0 0 0 0 0 0 0 0 0 0 0 0 0 0 0 0 0 0 0 0 0 0 0 0 0 0 0 0 0 0 0 0 0 0 0 0 0 0 0 0 0 0 0 0 0 0 0 0 0 0 0 0 0 0 0 0 0 0 0 0 0 0 0 0 0 0 0 0 0 0 0 1936 1795 1795 1839 1989 1936 2044 2537 2537 2628 2628 2830 2943 2943 2725 2725 2725 2725 2830 2830 2830 2830 2943 3066 3066 2725 3199 3066 0 0 126 0 0 0 0 0 0 0 3199 3345 3679 3679 3873 3679 3873 3873 3873 3345 3345 3504 3345 2943 3199 3199 3199 3066 3066 2725 2725 2830 2943 2725 2725 2943 2943 0 120 3199 3199 3199 3345 3199 2725 3679 0 0 2044 1887 1989 2164 2537 2830 3066 3345 3199 3066 2943 2943 2943 3066 2943 2164 2453 2374 2453 2453 2374 2374 2374 2374 2725 2299 2537 2453 2374 2453 2453 2374 2374 2537 2537 2453 2453 2537 2537 2453 2537 2537 2537 2453 2537 2628 2628 2453 2164 1887 1839 1989 1936 1989 2102 2102 2102 2230 2453 2725 2628 0 2830 0 0 0 3504 3199 2725 2725 2628 2044 2299 2044 2102 1989 1936 1887 1839 1839 1839 1672 1672 1635 1635 1635 1599 1635 1565 1565 1711 1635 1635 1711 1635 1672 1635 1635 1599 1565 1635 1501 1533 1501 1533 1501 1501 1471 1471 1443 1533 1388 1415 1314 1247 0 0 0 0 0 0 1362 1443 1471 1471 1599 1565 1672 1672 1711 1839 1839 1839 1839 1887 1936 1887 1887 1839 1795 1795 1795 1795 1795 1711 1752 1672 1635 1635 1599 1635 1635 1599 1635 1599 1635 1711 1565 0 0 0 0 0 0 0 0 0 0 0 0
    0 0 0 0 0 0 0 0 0 0 0 0 0 0 0 0 0 0 0 0 0 0 0 0 0 0 0 0 0 0 0 0 0 0 0 0 0 0 0 0 0 0 0 0 0 0 0 0 0 0 0 0 0 0 0 0 0 0 0 0 0 0 0 0 0 0 0 0 0 0 0 0 0 0 1887 1795 1795 0 2044 1989 2102 2725 2537 2628 2628 2830 2943 2943 2725 2725 2725 2725 2830 2830 2725 2725 2830 2943 3066 2628 3066 2943 0 2830 0 0 0 0 0 0 3066 3199 3504 3679 3873 3873 3873 3873 4329 4088 4088 3345 3345 3504 3345 2943 3199 0 3199 0 0 2725 2725 2830 2943 2725 2830 2943 3066 0 120 3199 3199 3345 3504 3199 2725 3679 0 0 1887 1752 1839 1936 2453 2725 2943 3345 3199 2943 2830 2943 2943 3066 2830 2164 2453 2453 2537 2453 2374 2374 2374 2374 2628 2374 2537 2453 2453 2453 2453 2374 2453 2537 2628 2453 2453 2537 2537 2453 2537 2628 2628 2537 2628 2725 2725 2628 2230 1936 1887 2044 1989 2102 2164 2164 2164 2299 2537 2725 2628 0 2830 0 0 3345 3873 3345 3066 2943 2628 2164 2299 2102 2102 1989 1936 1887 1839 1839 1839 1711 1711 1672 1635 1635 1599 1635 1565 1599 1711 1672 1672 1752 1711 1711 1672 1635 1599 1565 1635 1501 1533 1501 1533 1501 1501 1471 1471 1443 1533 1388 1415 1268 1149 1098 0 0 0 0 865 0 1443 1501 1471 1599 1565 1672 1672 1711 1839 1887 1887 1887 1887 1887 1887 1887 1839 1795 1795 1795 1795 1752 1752 1752 1672 1635 1635 1599 1635 1635 1599 1599 1599 1599 1635 1415 0 0 0 0 0 0 0 0 0 0 0 0
    0 0 0 0 0 0 0 0 0 0 0 0 0 0 0 0 0 0 0 0 0 0 0 0 0 0 0 0 0 0 0 0 0 0 0 0 0 0 0 0 0 0 0 0 0 0 0 0 0 0 0 0 0 0 0 0 0 0 0 0 0 0 0 0 0 0 0 0 0 1672 1752 0 0 0 1936 1839 1839 0 2044 2102 2230 2830 2537 2628 2725 2830 3066 3066 2725 2725 2725 2725 2830 2830 2725 2628 2725 2943 2830 2537 2830 2725 0 2725 0 0 0 0 3345 3199 3345 3504 3679 3873 4329 3873 4088 4088 4599 4088 4088 3345 3345 3345 3199 2943 0 271 0 0 0 2725 2725 2830 2943 2725 2943 3066 3066 120 120 3345 3345 3345 3679 3066 2628 0 0 0 1887 1752 1839 1936 2453 2628 2943 3199 3066 2830 2830 2830 2943 2943 2725 2164 2374 2453 2537 2453 2374 2453 2453 2537 2725 2453 2537 2374 2374 2453 2453 2299 2453 2537 2537 2453 2453 2537 2537 2453 2537 2537 2628 2537 2725 2830 2725 2725 2374 1936 1887 2102 1989 2102 2230 2164 2164 2374 2537 2830 2725 3199 2943 0 0 4088 4329 3679 3345 3199 2537 2230 2374 2102 2102 2044 1989 1887 1887 1887 1887 1711 1711 1672 1672 1672 1635 1635 1599 1599 1711 1711 1711 1752 1752 1795 1711 1672 1635 1565 1635 1471 1533 1471 1501 1501 1471 1471 1501 1471 1599 1415 1471 0 0 0 0 0 0 886 876 0 1471 1533 1501 1599 1565 1672 1711 1752 1887 1887 1887 1887 1887 1887 1887 1887 1839 1795 1795 1795 1795 1752 1752 1752 1711 1672 1635 1599 1635 1635 1599 1599 1565 1599 1599 1362 0 0 0 0 0 0 0 0 0 0 0 0
    0 0 0 0 0 0 0 0 0 0 0 0 0 0 0 0 0 0 0 0 0 0 0 0 0 0 0 0 0 0 0 0 0 0 0 0 0 0 0 0 0 0 0 0 0 0 0 0 0 0 0 0 0 0 0 0 0 0 0 0 0 0 0 0 0 0 0 0 0 1711 1795 0 0 1887 1936 1887 1887 0 2102 2164 2230 2830 2537 2628 2725 2830 2943 2943 2725 2830 2725 2830 2830 2830 2725 2628 2725 2830 2830 2453 2725 2628 2537 2628 0 0 0 3199 3679 3345 3679 3679 4088 4088 4906 4088 4088 4088 4599 3873 3873 3066 3199 3199 3066 2943 0 0 0 0 0 0 2830 2830 2943 2830 3066 3199 3199 0 120 3345 3345 3345 3873 2943 2628 0 0 0 1839 1711 1752 1839 2453 2628 2943 3199 2943 2725 2830 2830 2830 2943 2628 2230 2374 2537 2628 2537 2453 2537 2537 2628 2725 2628 2628 2374 2374 2537 2453 2299 2453 2537 2537 2453 2453 2537 2453 2453 2537 2537 2537 2537 2725 2830 2725 2830 2374 1936 1887 2044 1989 2164 2230 2164 2164 2374 2537 2830 2725 3345 2943 2943 3504 4906 4599 4088 3679 3345 2537 2299 2374 2102 2102 2044 1989 1936 1887 1936 1887 1752 1711 1711 1672 1672 1672 1672 1635 1635 1752 1795 1752 1795 1839 1887 1795 1752 1672 1533 1565 1443 1501 1443 1471 1471 1443 1471 1501 1471 1635 1443 1565 0 0 0 0 0 908 876 876 0 1471 1533 1533 1565 1565 1672 1711 1752 1887 1887 1887 1887 1936 1936 1887 1887 1839 1795 1839 1795 1839 1795 1752 1752 1672 1635 1635 1599 1599 1635 1565 1599 1565 1599 1565 1338 0 0 0 0 0 0 0 0 0 0 0 0
    0 0 0 0 0 0 0 0 0 0 0 0 0 0 0 0 0 0 0 0 0 0 0 0 0 0 0 0 0 0 0 0 0 0 0 0 0 0 0 0 0 0 0 0 0 0 0 0 0 0 0 0 0 0 0 0 0 0 0 0 0 0 0 0 0 0 0 0 0 1752 1795 0 0 1936 1989 1936 1936 0 2102 2230 2299 2830 2537 2628 2725 2830 2943 0 2725 2830 2725 2830 2943 2830 2725 2628 2725 2830 2725 2453 2725 2537 2453 2537 0 0 0 3199 3504 3345 3873 3873 4088 4329 5256 4088 4088 4088 4599 3504 3504 2943 2943 2943 2943 2830 0 0 78 78 0 0 2943 2943 3066 2943 3345 0 3345 0 120 3504 3504 3504 4329 2943 2725 3345 0 0 0 1672 1711 1839 2628 2628 2943 3199 2830 2725 2943 2830 2943 2943 2537 2299 2453 2537 2628 2537 2537 2628 2537 2725 2725 2725 2628 2374 2374 2537 2374 2299 2374 2628 2537 2453 2453 2537 2453 2453 2537 2628 2537 2537 2725 2943 2830 2943 2453 2102 1936 2164 2044 2164 2230 2230 2230 2374 2537 2725 2628 3345 2943 3066 3873 4599 4599 4088 3873 3345 2453 2299 2374 2102 2102 2044 1989 1936 1936 1936 1887 1752 1752 1711 1711 1672 1711 1711 1672 1672 1795 1936 1887 1887 1936 0 0 0 0 0 1565 1415 1471 1415 1443 1443 1443 1443 1471 1443 1599 1443 1599 0 0 0 0 0 0 865 865 0 1471 1533 1533 1533 1533 1672 1711 1752 1936 1936 1887 1887 1936 1936 1887 1936 1887 1839 1887 1839 1839 1795 1795 1752 1672 1672 1672 1599 1635 1635 1599 1599 1565 1599 1533 1314 0 0 0 0 0 0 0 0 0 0 0 0
    0 0 0 0 0 0 0 0 0 0 0 0 0 0 0 0 0 0 0 0 0 0 0 0 0 0 0 0 0 0 0 0 0 0 0 0 0 0 0 0 0 0 0 0 0 0 0 0 0 0 0 0 0 0 0 0 0 0 0 0 0 0 0 0 0 0 0 0 0 1839 1839 1839 0 1936 1989 1887 1887 0 2102 2164 2230 2725 2453 2628 2725 2830 2943 2943 2830 2943 2725 2943 2943 2943 2830 2628 2725 2830 2725 2537 2725 2537 2453 2537 0 0 0 3066 3504 3345 3873 3873 4329 4329 5661 4088 4088 3873 4329 0 3199 2725 2830 2725 2725 2628 0 0 78 78 0 0 0 3066 3199 3066 3504 0 3504 0 0 3679 3504 3679 4329 2943 2725 3199 0 2299 2102 0 1839 2164 2628 2628 2943 3066 2830 2725 2830 2725 2943 2943 2453 2299 2453 2628 2725 2537 2628 2628 2628 2830 2830 2830 2628 2374 2374 2537 2374 2374 2374 2628 2537 2453 2537 2537 2453 2537 2537 2628 2537 2628 2830 2943 2943 2943 2628 2299 2044 2230 2044 2230 2299 2230 2230 2453 2537 2725 2628 3199 2943 3199 4088 4906 4599 4329 4088 3345 2374 2299 2374 2102 2102 2044 2044 1936 1936 1989 1887 1752 1752 1711 1711 1672 1711 1711 1672 1711 1795 1989 1989 1989 2044 2044 0 0 0 0 1599 1415 1471 1415 1443 1443 1443 1443 1501 1471 1599 1471 1599 0 0 0 0 0 0 0 0 0 1471 1501 1533 1533 1533 1672 1711 1752 1936 1936 1936 1936 1936 1989 1936 1989 1887 1887 1887 1887 1839 1795 1795 1752 1672 1672 1672 1599 1635 1635 1599 1599 1565 1565 1471 1291 0 0 0 0 0 0 0 0 0 0 0 0
    0 0 0 0 0 0 0 0 0 0 0 0 0 0 0 0 0 0 0 0 0 0 0 0 0 0 0 0 0 0 0 0 0 0 0 0 0 0 0 0 0 0 0 0 0 0 0 0 0 0 0 0 0 0 0 0 0 0 0 0 0 0 0 0 0 0 0 0 0 1887 1887 1887 0 1936 1936 1887 1887 0 1989 2044 2102 2628 2453 2628 2725 2830 2830 2943 2830 2943 2725 2943 3066 2943 2830 2628 2830 2830 2725 2725 2725 2537 2628 2628 89 0 0 3199 3345 3199 3873 3873 4329 4329 5661 4088 4088 3873 4329 0 0 2725 2725 2725 2725 2628 2830 0 78 78 0 0 3199 3345 3504 3199 3679 4088 3504 3679 4329 3679 3679 3679 4599 3066 2830 3199 2943 2628 2628 1989 1887 2537 2725 2725 3066 3066 2830 2725 2830 2830 2943 2943 2453 2374 2537 2725 2725 2628 2725 2725 2628 2830 2830 2830 2628 2299 2453 2453 2299 2374 2374 2628 2537 2374 2537 2537 2453 2537 2537 2628 2537 2628 2943 2943 2943 3066 2628 2453 2102 2299 2102 2299 2299 2299 2299 2453 2537 2725 2628 3199 2943 3199 4329 4599 4088 4088 4088 3345 2374 2374 2374 2164 2102 2102 2044 1989 1989 2044 1887 1795 1752 1711 1711 1672 1711 1672 1672 1752 1795 2044 1989 1936 2044 2044 0 0 0 0 0 1415 1501 1415 1443 1443 1471 1471 1501 1501 1599 1501 1635 0 0 0 0 908 0 0 0 0 1471 1501 1533 1501 1533 1711 1711 1752 1936 1887 1887 1936 1936 1989 1936 1989 1936 1887 1936 1887 1839 1795 1795 1752 1635 1672 1672 1599 1635 1635 1565 1565 1533 1533 1388 1268 0 0 0 0 0 0 0 0 0 0 0 0
    0 0 0 0 0 0 0 0 0 0 0 0 0 0 0 0 0 0 0 0 0 0 0 0 0 0 0 0 0 0 0 0 0 0 0 0 0 0 0 0 0 0 0 0 0 0 0 0 0 0 0 0 0 0 0 0 0 0 0 0 0 0 0 0 0 0 0 0 0 1936 1936 1936 1839 1989 1936 1887 1887 1989 1989 1989 2102 2537 2374 2537 2628 2725 2830 2830 2830 2943 2725 2943 3066 2943 2830 2628 2830 2830 2830 2943 2830 2725 2725 2725 89 0 0 0 3199 3199 3679 3679 4088 4088 5661 4088 4088 3873 4329 3066 2943 2628 2628 2537 2537 2537 2725 0 0 78 0 0 3199 3345 3504 3345 3679 4088 3504 3679 4599 3679 3504 3504 4599 2943 2830 2943 2830 2453 2537 2164 2044 2537 2725 2725 3066 2830 2725 2725 2830 2830 3066 3066 2453 2453 2628 2830 2830 2725 2830 2725 2628 2943 2830 2830 2628 2374 2453 2537 2299 2374 2453 2725 2537 2374 2628 2537 2453 2537 2537 2628 2537 2628 2943 3066 3199 3199 2725 2537 2102 2374 2164 2374 2374 2374 2374 2537 2537 2830 2725 3199 2830 3345 4329 4599 4088 4088 3679 3199 2230 2374 2374 2164 2102 2102 2044 1989 1989 2044 1839 1795 1752 1711 1672 1635 1711 1672 1672 1752 1752 1989 1989 1936 1989 0 0 0 728 0 1533 1415 1501 1415 1471 1471 1471 1471 1501 1501 1599 1501 1599 1501 0 1314 0 0 0 0 0 0 1501 1533 1533 1501 1533 1672 1711 1752 1887 1887 1887 1887 1989 1989 1887 1989 1936 1887 1936 1887 1839 1795 1795 1752 1672 1752 1752 1635 1635 1635 1599 1599 1533 1501 1338 1268 1206 0 0 0 0 0 0 0 0 0 0 0
    0 0 0 0 0 0 0 0 0 0 0 0 0 0 0 0 0 0 0 0 0 0 0 0 0 0 0 0 0 0 0 0 0 0 0 0 0 0 0 0 0 0 0 0 0 0 0 0 0 0 0 0 0 0 0 0 0 0 0 0 0 0 0 0 0 0 0 0 0 1989 1989 1989 1887 2044 1936 1936 1936 2044 1989 1989 2044 2453 2299 2537 2628 2628 2725 2725 2830 2943 2725 2943 3066 2943 2943 2725 2830 2830 2830 3066 2943 2943 2943 0 89 0 3199 3345 3199 3199 3504 3504 3873 3873 5256 3873 3679 3504 3873 2830 2830 2537 2537 2453 2453 2453 2537 2628 0 0 0 0 3199 3345 3504 3345 3679 4088 3679 3679 4599 3504 3504 3504 4329 2943 2725 2725 2628 2164 2374 2299 2164 2537 2725 2628 2830 2453 2537 2725 2725 2725 2943 2943 2453 2537 2628 2943 2830 0 2830 2725 2628 2943 2943 2943 2628 2374 2537 2537 2299 2299 2453 2725 2628 2453 2628 2537 2537 2628 2628 2628 2628 2725 2943 3066 3199 3066 2628 2628 2102 2374 2164 2453 2453 2374 2453 2537 2537 2830 2725 3199 2830 3199 3873 4088 3873 3873 3345 3066 2230 2374 2374 2102 2102 2102 2044 2044 2044 2102 1839 1795 1752 1711 1672 1635 1711 1635 1635 1711 1752 1887 1887 1839 0 0 0 0 0 721 1565 1415 1501 1415 1471 1471 1471 1471 1501 1501 1565 1501 1599 1501 0 1388 0 0 0 0 0 0 1471 1501 1501 1501 1533 1672 1711 1752 1887 1887 1887 1936 1989 1989 1887 1989 1936 1887 1936 1936 1839 1795 1795 1752 1599 1711 1752 1599 1565 1599 1533 1565 1533 1471 1338 1247 0 0 0 0 955 1022 0 0 0 0 0 0
    0 0 0 0 0 0 0 0 0 0 0 0 0 0 0 0 0 0 0 0 0 0 0 0 0 0 0 0 0 0 0 0 0 0 0 0 0 0 0 0 0 0 0 0 0 0 0 0 0 0 0 0 0 0 0 0 0 0 0 0 0 0 0 0 0 0 0 0 0 2102 2102 2044 1936 2102 1887 1887 1887 1989 1936 1936 1989 2299 2164 2453 2537 2537 2725 2628 2830 2943 2628 2830 3066 2943 2943 2725 2943 2943 2830 3199 3066 2943 0 0 0 2943 3199 3345 3199 3066 3345 3345 3873 3679 4906 3873 3345 3345 3504 2725 2725 2453 2453 2453 2374 2374 2453 2628 2725 2830 0 2943 3199 3345 3504 3345 3679 4088 3679 3679 4599 3345 3345 3345 4088 2830 2537 2537 2453 2044 2164 2374 2299 2537 2725 2628 2628 2299 2453 2628 2537 2537 2725 2830 2374 2628 2628 2943 2830 0 2943 2725 2725 2943 2943 3066 2628 2374 2628 2628 2453 2628 0 3066 3066 2830 2943 2628 2628 2725 2628 2628 2725 2725 2830 2943 2943 2830 2453 2537 2102 2374 2230 2453 2453 2453 2537 2628 2537 2830 2830 3199 2830 3199 3679 3679 3679 3679 3345 2830 2230 2453 2374 2102 2102 2102 2044 2044 2102 2102 1839 1839 1795 1752 1711 1635 1672 1599 1599 1711 1672 1795 1795 1752 0 0 0 0 0 0 1599 1415 1501 1415 1471 1471 1471 1501 1501 1501 1565 1501 1635 1501 0 0 1362 0 0 0 0 1314 1471 1471 1471 1471 1533 1672 1711 1752 1887 1887 1887 1936 2044 2044 1936 2044 1989 1936 1936 1936 1839 1752 1752 1711 1443 1599 1672 1501 1471 1501 1471 1565 1565 1533 1362 1268 0 0 0 0 897 0 0 0 0 0 0 0
    0 0 0 0 0 0 0 0 0 0 0 0 0 0 0 0 0 0 0 0 0 0 0 0 0 0 0 0 0 0 0 0 0 0 0 0 0 0 0 0 0 0 0 0 0 0 0 0 0 0 0 0 0 0 0 0 0 0 0 0 0 0 0 0 0 0 0 0 0 2164 2164 2102 1936 2102 1887 1887 1887 1936 1887 1887 1936 2230 2102 2374 2537 2537 2628 2628 2830 2943 2725 2830 3066 2943 3066 2830 2943 2943 2943 3345 3199 3066 0 0 3066 2943 3066 3199 3066 2943 3066 3199 3679 3504 4329 3873 3066 2943 3066 2628 2628 2453 2453 2374 2374 2453 2453 2628 2725 2830 2943 2943 3345 3345 3504 3345 3679 4329 3679 3873 4906 3345 3345 3345 4329 2830 2537 2453 2374 1936 1989 2164 2230 2537 2628 2628 2453 2299 2537 2537 2537 2453 2628 2725 2374 2628 2628 2943 2943 0 0 2725 2725 2943 2830 0 2537 0 0 0 0 0 0 0 0 0 0 0 0 2725 2628 2537 2537 2628 2628 2628 2725 2537 2374 2453 2044 2299 2230 2453 2453 2453 2537 2628 2537 2943 2943 3345 2943 3345 3504 3504 3504 3504 3199 2628 2299 2453 2374 2164 2164 2164 2102 2102 2164 2102 1839 1839 1795 1752 1711 1635 1635 1533 1565 1672 1599 1672 1565 1635 1795 1752 1752 1795 1795 1635 1533 1415 1471 1415 1471 1471 1471 1471 1471 1471 1565 1501 1599 1501 0 0 0 0 1711 1533 1533 1314 1471 1501 1471 1471 1565 1672 1711 1752 1887 1887 1887 1936 2044 2044 1936 2044 1989 1887 1887 1936 1795 1711 1672 1635 1338 1388 1415 1314 1362 1362 1388 1635 1565 1599 1388 1291 0 0 0 0 0 0 0 0 0 0 0 0
    0 0 0 0 0 0 0 0 0 0 0 0 0 0 0 0 0 0 0 0 0 0 0 0 0 0 0 0 0 0 0 0 0 0 0 0 0 0 0 0 0 0 0 0 0 0 0 0 0 0 0 0 0 0 0 0 0 0 0 0 0 0 0 0 0 0 0 0 0 2230 2230 2164 1989 2102 1887 1839 1887 1936 1887 1887 1936 2102 2044 2374 2453 2537 2628 2628 2830 3066 2830 2943 3199 3066 3066 2943 3199 3066 3066 3345 3199 3199 3066 0 3066 2943 2943 3199 2943 2830 2943 2943 3345 3345 3679 3504 2830 2725 2830 2537 2628 2453 2374 2453 2374 2453 2453 2628 2725 2830 2943 3066 3345 3345 3504 3504 3679 4329 3873 3873 4906 3504 3504 3504 4906 3066 2628 2453 2374 1936 1936 2102 2164 2374 2537 2453 2164 2230 2537 2537 2453 2453 2537 2725 2374 2725 2725 2943 2943 0 2943 2725 2725 3066 2830 0 2537 0 0 0 0 0 0 0 0 0 0 0 0 4906 2943 2725 3066 2830 2725 2725 2725 2453 2374 2453 2044 2299 2299 2453 2453 2537 2537 2628 2628 3066 3066 3504 3066 3345 3345 3504 3504 3345 3199 2374 2299 2374 2374 2102 2164 2102 2102 2102 2230 2044 1839 1839 1795 1752 1672 1599 1599 1501 1501 1635 1501 1565 1362 1388 1533 1415 1501 1471 1443 1443 1415 1388 1471 1415 1501 1471 1471 1501 1501 1501 1565 1501 1635 1533 0 0 0 0 1752 0 1672 1314 1501 1501 1501 1471 1599 1711 1711 1711 1887 1887 1887 1936 2102 2044 1887 1989 1989 1887 1887 1887 1752 1672 1599 1565 1314 1338 1314 1268 1291 1268 0 1635 1471 1599 1415 1338 0 0 0 0 0 0 0 0 0 0 0 0
    0 0 0 0 0 0 0 0 0 0 0 0 0 0 0 0 0 0 0 0 0 0 0 0 0 0 0 0 0 0 0 0 0 0 0 0 0 0 0 0 0 0 0 0 0 0 0 0 0 0 0 0 0 0 0 0 0 0 0 0 0 0 0 0 0 0 0 0 0 2230 2230 2164 1989 2044 1839 1839 1839 1887 1839 1887 1887 2044 2044 2299 2374 2537 2628 2537 2943 3066 2943 2943 3345 3199 3199 3066 3199 3066 3066 3504 3345 3199 3199 2830 2943 2830 2830 3066 2943 2830 2830 2830 3199 3066 3345 3199 2725 2628 2628 2537 2628 2537 2453 2453 2453 2453 2453 2628 2725 2725 2830 2943 3345 3345 3504 3504 3679 4329 3873 3873 5256 3504 3504 3504 4599 3066 2725 2374 2374 1936 1936 2164 2230 2374 2453 2374 2164 2299 2628 2537 2453 2453 2628 2725 2453 2830 2725 2943 2830 2830 2943 2830 2725 3066 2830 0 2453 0 0 0 0 0 0 0 0 0 0 0 7359 7359 0 0 3504 2830 2628 2374 2537 2164 2299 2453 2044 2374 2299 2453 2537 2537 2628 2628 2628 3345 3345 3679 3199 3504 3345 3345 3345 3199 3066 2230 2374 2374 2299 2102 2164 2102 2102 2102 2299 2044 1839 1839 0 1752 1635 1565 1599 1443 1443 1599 1388 1415 1338 1338 1362 1338 1388 1362 1362 1415 1415 1388 1471 1415 1501 1471 1471 1501 1501 1501 1599 1533 1672 0 0 0 0 2044 2102 2102 1752 1338 1501 1501 1471 1471 1599 1711 1711 1711 1839 1839 1839 1936 2102 2044 1887 1936 1936 1839 1839 1839 1711 1599 1565 1533 1314 1314 1291 1247 1226 1206 1226 0 0 0 0 0 0 0 0 0 0 1471 0 0 0 0 0 0
    0 0 0 0 0 0 0 0 0 0 0 0 0 0 0 0 0 0 0 0 0 0 0 0 0 0 0 0 0 0 0 0 0 0 0 0 0 0 0 0 0 0 0 0 0 0 0 0 0 0 0 0 0 0 0 0 0 0 0 0 0 0 0 0 0 0 0 0 0 2230 2230 2164 1989 2044 1795 1839 1795 1839 1839 1839 1887 1989 1989 2164 2230 2453 2628 2453 3066 3066 2943 2830 3199 3066 3066 3066 3199 3199 3199 3504 3504 3345 3345 0 2943 2830 2830 3066 2943 2830 2725 2725 3199 3066 3199 3199 2725 2628 2628 2537 2628 2628 2374 2537 2537 2453 2299 2725 2725 2725 2725 2943 3199 3199 3345 3345 3504 4088 3679 3679 4906 3199 3199 3199 3679 2943 2537 2164 2374 1989 1936 2164 2230 2299 2374 2230 2164 2230 2537 2453 2453 2374 2537 2628 2453 2725 2725 2943 2830 2830 2943 2830 2725 3066 2725 2943 2453 0 0 0 0 0 0 0 0 0 0 0 0 9199 0 0 0 0 2164 2044 2299 2044 2230 2374 1989 2299 2299 2453 2453 2537 2628 2628 2628 3345 3345 3679 3199 3345 3066 3199 3199 3066 2943 2102 2374 2374 2299 2102 2164 2164 2102 2102 2299 2044 1887 1839 1839 1711 1599 1533 1533 1415 1388 1443 1314 1314 1268 1247 1247 1187 1268 1291 1314 1362 1362 1338 1388 1388 1443 1443 1443 1471 1471 1501 1599 1565 1711 0 0 0 3066 2830 2830 2830 1936 1415 1635 1635 1565 1501 1635 1711 1711 1711 1839 1839 1839 1887 2164 1989 1839 1839 1887 1795 1711 1752 1635 1533 1501 1501 1338 1338 1291 1247 1226 1168 1187 0 1115 0 0 0 0 5661 0 0 0 0 0 0 0 0 0 0
    0 0 0 0 0 0 0 0 0 0 0 0 0 0 0 0 0 0 0 0 0 0 0 0 0 0 0 0 0 0 0 0 0 0 0 0 0 0 0 0 0 0 0 0 0 0 0 0 0 0 0 0 0 0 0 0 0 0 0 0 0 0 0 0 0 0 0 0 0 2299 2230 2164 2044 2102 1839 1887 1839 1887 1887 1887 1936 1989 1989 2164 2102 2374 2537 2299 2943 2830 2830 2725 3066 3066 3066 3066 3199 3199 3199 3504 3504 3504 3345 0 2943 2943 2830 3066 2943 2830 2725 2725 3199 3199 3066 3066 2725 2725 2725 2537 2628 2628 2374 2537 2537 2537 2299 2725 2725 2628 2628 2830 3066 3066 3199 3199 3199 3504 3504 3504 4088 2943 2943 2943 3199 2943 2537 2102 2299 1989 1936 2164 2299 2374 2453 2164 2230 2299 2453 2453 2374 2299 2453 2537 2453 2725 2725 2830 2830 2830 2943 2830 2725 3066 2725 2943 2453 0 0 0 0 0 0 0 0 0 0 0 0 6690 0 0 0 2299 2164 2044 2230 1989 2230 2299 1989 2299 2299 2374 2453 2453 2537 2453 2537 3199 3199 3199 3066 3066 2943 2943 2943 2943 2725 2044 2374 2374 2299 2102 2164 2164 2102 2164 2374 2044 1887 1887 1887 1752 1635 1565 1533 1388 1362 1388 1291 1291 1247 1226 1206 1115 1115 1226 1268 1314 1314 1291 1338 1338 1415 1388 1415 1443 1471 1501 1599 1599 1752 0 0 0 3066 2830 2628 2299 1839 1533 1635 1635 1599 1533 1672 1711 1711 1752 1839 1839 1839 1887 2102 1989 1839 1795 1839 1795 1672 1672 1635 1533 1471 1501 1362 1388 1314 1268 1247 1187 1206 0 0 0 0 0 0 4906 0 0 0 0 0 0 0 0 0 0
    0 0 0 0 0 0 0 0 0 0 0 0 0 0 0 0 0 0 0 0 0 0 0 0 0 0 0 0 0 0 0 0 0 0 0 0 0 0 0 0 0 0 0 0 0 0 0 0 0 0 0 0 0 0 0 0 0 0 0 0 0 0 0 0 0 0 0 0 0 2230 2164 2164 2044 2102 1887 1936 1887 1887 1887 1887 1936 1989 1989 2164 2102 2230 2453 2164 2628 2453 2537 2628 2943 3066 2943 3066 3066 3199 3199 3345 3504 3504 3345 2725 2830 2830 2830 3066 2943 2830 2725 2725 3345 3199 3066 3066 2725 2725 2725 2537 2628 2628 2374 2537 2537 2453 2230 2628 2628 2453 2537 2725 2830 2830 2943 2943 2943 3066 3199 3199 3345 2943 2830 2830 3345 3199 2830 2374 2628 2044 1936 2299 2374 2374 2453 2102 2230 2374 2453 2453 2374 2299 2453 2537 2453 2725 2628 2725 2830 2830 2943 2830 2725 3199 2628 0 0 0 0 0 0 0 0 0 0 0 0 0 0 0 0 0 0 2102 0 2044 2164 1936 2230 2230 1936 2230 2230 2299 2374 2374 2537 2453 2453 3066 3066 3199 3199 3066 2830 2943 2943 2830 2537 2044 2374 2299 2230 2102 2164 2164 2102 2164 2453 1936 1887 1839 1839 1711 1565 1533 1501 1388 1362 1362 1268 1268 1226 1206 1187 1132 1149 1247 1268 1291 1291 1268 1314 1314 1362 1362 1388 1415 1415 1443 1533 1599 1752 0 0 2943 2943 3066 2830 2537 1887 1635 1672 1711 1672 1635 1711 1711 1752 1752 1887 1887 1887 1936 2102 1936 1887 1839 1839 1752 1635 1635 1599 1501 1501 1501 1388 1415 1362 1291 1268 1187 0 0 955 845 845 0 0 0 0 0 0 0 1672 0 0 0 0 0
    0 0 0 0 0 0 0 0 0 0 0 0 0 0 0 0 0 0 0 0 0 0 0 0 0 0 0 0 0 0 0 0 0 0 0 0 0 0 0 0 0 0 0 0 0 0 0 0 0 0 0 0 0 0 0 0 0 0 0 0 0 0 0 0 0 0 0 0 0 2230 2102 2164 2044 2102 1887 1936 1887 1887 1936 1936 1936 1989 1989 2164 2044 2299 2537 2453 2830 2537 2725 2725 2943 3066 2943 2943 2943 3066 3199 3066 3345 3345 3199 2537 2725 2830 2725 2943 2943 2830 2725 2725 3345 3066 3066 3066 2725 2725 2725 2537 2628 2628 2374 2628 2628 2453 2374 2628 2628 2453 2453 2628 2725 2830 2943 2830 2725 2943 3066 3066 3199 2943 2943 2943 3679 3873 3345 0 3504 2628 2102 2537 2537 2374 2537 2230 2453 2537 2537 2453 2453 2299 2453 2537 2453 2628 2537 2725 2725 2725 2943 2830 2725 3345 2628 0 0 0 0 0 0 0 0 0 0 0 0 0 0 0 0 0 0 2102 0 1936 2102 1936 2230 2230 1936 2230 2230 2230 2299 2374 2537 2374 2453 3066 2943 3066 3504 3199 2943 3066 3199 2830 2453 2044 2374 2299 2230 2102 2164 2102 2044 2164 2374 1839 1795 1752 1752 1635 1533 1501 1501 1415 1388 1338 1268 1268 1226 1226 1226 1226 1268 1291 1291 1314 1314 1291 1314 1291 1338 1314 1338 1362 1388 1415 1501 1635 0 2453 2830 2943 3066 2943 2943 2628 1989 1752 1711 1752 1711 1635 1711 1711 1752 1752 1839 1839 1839 1887 2044 1936 1887 1795 1795 1711 1635 1635 1599 1533 1501 1501 1415 1415 1362 1268 1226 1115 0 1036 908 826 808 0 0 0 0 0 0 0 0 0 0 0 0 0
    0 0 0 0 0 0 0 0 0 0 0 0 0 0 0 0 0 0 0 0 0 0 0 0 0 0 0 0 0 0 0 0 0 0 0 0 0 0 0 0 0 0 0 0 0 0 0 0 0 0 0 0 0 0 0 0 0 0 0 0 0 0 0 0 0 0 0 0 0 2102 2044 2044 1989 1989 1839 1887 1839 1839 1887 1887 1887 1887 1887 2044 1989 2374 2537 2628 2943 2628 2830 2725 2725 2830 2725 2628 2537 2830 2943 2628 2943 2943 2943 2230 2628 2628 2453 2537 2725 2725 2628 2628 3199 3066 3066 2943 2830 2830 2725 2628 2725 2725 2453 2628 2628 2453 2374 2628 2725 2537 2453 2628 2628 2725 2943 2830 2374 2830 3066 2943 3066 3066 3066 3199 3873 4088 4088 3873 4088 3199 2537 2725 2628 2453 2374 2299 2453 2537 2453 2374 2374 2230 2374 2453 2374 2537 2453 2628 2628 2628 2943 2830 2830 3345 2628 2943 0 0 0 0 0 0 0 0 487 471 448 446 451 0 0 0 0 2230 0 1936 2102 1936 2230 2230 1936 2230 2230 2230 2299 2374 2537 2374 2453 3066 3066 2943 3873 3504 3066 3199 3199 2943 2299 1989 2299 2230 2164 2044 2044 2044 1989 2044 2164 1752 1599 1635 1635 1565 1471 1471 1471 1415 1443 1415 1314 1314 1268 1291 1314 1291 1338 1338 1338 1338 1338 1291 1291 1268 1314 1291 1291 1314 1362 1362 1501 0 2164 3066 3066 3199 3199 3066 2943 2453 1989 1795 1752 1752 1672 1672 1711 1711 1711 1752 1795 1795 1795 1839 1887 1887 1887 1795 1795 1711 1635 1635 1599 1533 1501 1501 1443 1415 1362 1268 1187 0 0 0 865 808 735 0 0 0 0 808 817 0 0 0 0 0 0 0
    0 0 0 0 0 0 0 0 0 0 0 0 0 0 0 0 0 0 0 0 0 0 0 0 0 0 0 0 0 0 0 0 0 0 0 0 0 0 0 0 0 0 0 0 0 0 0 0 0 0 0 0 0 0 0 0 0 0 0 0 0 0 0 0 0 0 0 0 0 2044 1936 1936 1887 1989 1936 1887 1839 1887 1936 1936 1936 1887 1887 1989 1936 2628 2628 3066 3199 2830 2943 2725 2725 2725 2628 2374 2164 2725 2830 2374 2725 2725 2830 2230 2628 2628 2453 2453 2628 2628 2537 2628 3199 3066 2830 2830 2830 2830 2725 2628 2628 2628 2374 2628 2537 2374 2453 2537 2628 2537 2537 2725 2628 2628 2943 2725 2230 2628 2830 2830 2943 3066 3199 3345 3679 4088 4088 4088 4088 3504 3066 2943 2943 2725 2453 2374 2453 2537 2453 2374 2374 2164 2374 2453 2299 2453 2374 2537 2537 2628 2943 2830 2830 3679 2830 3066 0 0 0 0 0 0 0 0 0 0 0 448 446 0 0 0 0 2230 2044 1989 2164 1887 2164 2164 1936 2230 2230 2230 2299 2374 2537 2374 2453 3066 3066 3066 3873 3504 2943 3345 3066 2830 2164 1989 2230 2164 2044 1936 1936 1936 1887 1936 1887 1565 1388 1443 1501 1471 1415 1415 1415 1415 1471 1443 1362 1314 1291 1291 1314 1291 1338 1338 1314 1338 1314 1268 1291 1268 1291 1268 1268 1291 1314 1314 1415 0 2628 3066 3066 3199 3066 3066 2830 2299 1936 1795 1752 1672 1635 1565 1635 1635 1672 1672 1711 1752 1752 1752 1839 1839 1839 1795 1795 1672 1565 1565 1533 1471 1471 1443 1388 1388 1362 1268 1168 1082 0 0 836 750 687 0 0 0 0 0 0 0 0 0 0 0 0 0
    0 0 0 0 0 0 0 0 0 0 0 0 0 0 0 0 0 0 0 0 0 0 0 0 0 0 0 0 0 0 0 0 0 0 0 0 0 0 0 0 0 0 0 0 0 0 0 0 0 0 0 0 0 0 0 0 0 0 0 0 0 0 0 0 0 0 0 0 0 1936 1839 1839 1839 1936 1936 1936 1887 1887 1936 1989 1989 1936 1936 2044 1936 2725 2830 3066 3199 2725 2943 2725 2830 2725 2628 2164 1989 2725 2943 2164 2628 2725 2725 2299 2628 2628 2537 2453 2725 2628 2537 2628 3066 2943 2725 2830 2830 2830 2830 2628 2628 2537 2299 2537 2537 2374 2374 2537 2628 2537 2628 2830 2628 2628 2830 2725 2230 2628 2725 2725 2830 2943 3066 3199 3504 3679 3873 3679 3679 3504 3345 3199 3066 2943 2725 2537 2628 2628 2537 2453 2453 2230 2374 2453 2299 2374 2374 2453 2537 2537 2943 2943 2830 4906 3199 0 0 0 0 0 0 0 0 0 0 0 0 451 446 0 0 0 0 2537 2374 2044 2044 1887 2102 2102 1887 2164 2164 2230 2299 2374 2537 2374 2453 3066 3066 3066 3679 3345 2830 3066 2943 2725 2044 1936 2102 2044 1936 1839 1887 1839 1839 1839 1752 1415 1338 1362 1443 1415 1388 1388 1415 1415 1501 1471 1443 1338 1314 1314 1338 1268 1314 1314 1291 1314 1291 1226 1247 1247 1268 1268 1291 1291 1314 1338 0 0 2830 3066 2943 2943 2943 2943 2725 2044 1795 1752 1711 1565 1565 1533 1565 1565 1599 1635 1672 1635 1711 1711 1752 1752 1795 1672 1635 1501 1471 1415 1388 1362 1362 1338 1314 1362 1362 1268 1082 0 0 0 0 0 629 570 529 0 0 0 0 0 0 0 0 0 0 0
    0 0 0 0 0 0 0 0 0 0 0 0 0 0 0 0 0 0 0 0 0 0 0 0 0 0 0 0 0 0 0 0 0 0 0 0 0 0 0 0 0 0 0 0 0 0 0 0 0 0 0 0 0 0 0 0 0 0 0 0 0 0 0 0 0 0 0 0 0 1887 1839 1795 1795 1887 1887 1936 1887 1887 1936 1989 1989 1936 1989 2044 1887 2374 2830 2943 3066 2628 2725 2628 2628 2628 2453 1989 1839 0 2943 2044 2537 2628 2628 2374 2628 2628 2537 2453 2725 2628 2537 2537 2943 2725 2537 2725 2830 2830 2830 2725 2725 2453 2299 2628 2628 2374 2299 2453 2537 2537 2628 2725 2537 2537 2725 2725 2374 2628 2725 2725 2830 2943 3066 3199 3504 3679 3679 3679 3504 3679 3504 3504 3199 3066 2830 2725 2725 2725 2537 2453 2453 2299 2537 2537 2374 2453 2453 2453 2537 2628 2943 2830 2830 5661 5256 4329 0 0 0 1936 0 0 0 0 0 0 0 451 0 0 0 0 3199 2453 2299 1936 1839 1795 1989 1989 1887 2102 2102 2102 2299 2374 2453 2374 2453 2943 2943 0 3345 0 2725 2943 2943 2725 2044 1936 2044 2044 1936 1795 1839 1795 1795 1752 1672 1362 1338 1362 1415 1415 1388 1388 1415 1415 1501 1471 1443 1362 1314 1362 1388 1338 1362 1443 1388 1415 1362 1268 1268 1268 1314 1314 1291 1291 1338 1338 1415 0 0 0 2725 2830 2943 2830 2628 1989 1711 1711 1635 1471 1471 1443 1471 1471 1533 1599 1599 1565 1635 1635 1672 1711 1711 1599 1471 1388 1388 1362 1291 0 1066 1051 994 0 0 1187 0 0 0 0 0 0 0 549 507 490 0 0 0 0 579 0 0 0 0 0
    0 0 0 0 0 0 0 0 0 0 0 0 0 0 0 0 0 0 0 0 0 0 0 0 0 0 0 0 0 0 0 0 0 0 0 0 0 0 0 0 0 0 0 0 0 0 0 0 0 0 0 0 0 0 0 0 0 0 0 0 0 0 0 0 0 0 0 0 0 1839 1839 1711 1752 1839 1887 1936 1887 1887 1936 1989 2044 1989 1989 1989 1936 2230 2830 2830 2725 2537 2628 2537 2628 2537 2374 1936 1752 0 2830 1989 2537 2628 2537 2374 2628 2628 2537 2453 2725 2628 2537 2537 2830 2537 2299 2628 2628 2830 2725 2628 2628 2374 2299 2537 2537 2374 2374 2453 2537 2537 2628 2830 2537 2537 2725 2628 2453 2725 2830 2830 2943 3066 3066 3199 3679 4088 3873 4088 3504 3873 3873 3679 3504 3066 2943 2830 2725 2725 2537 2453 2374 2299 2537 2537 2374 2453 2453 2537 2537 2628 2830 2830 2725 6133 6133 5661 0 0 1936 1989 1936 1839 0 0 0 0 0 0 0 0 2628 0 3066 2453 2299 1887 1672 1711 1887 1887 1839 2044 2044 2044 2230 2374 2453 2299 2374 2943 2830 2830 0 0 2628 2943 2830 2628 1989 1887 1989 1989 1887 1752 1752 1711 1711 1672 1599 1338 1314 1338 1388 1388 1388 1388 1388 1415 1471 1471 1501 1388 1362 1388 1533 1362 1672 1711 1565 1533 1443 1291 1314 1314 1338 1362 1338 1338 1362 1388 1415 0 0 0 2374 2453 0 2830 2628 1887 1635 1672 1599 1443 1415 1443 1443 1443 1471 1533 1533 1501 1533 1565 1599 1635 1635 1501 1362 1314 1314 1314 1115 994 968 955 931 908 0 0 0 0 588 549 0 0 623 574 525 0 0 0 0 566 574 0 0 0 0 0
    0 0 0 0 0 0 0 0 0 0 0 0 0 0 0 0 0 0 0 0 0 0 0 0 0 0 0 0 0 0 0 0 0 0 0 0 0 0 0 0 0 0 0 0 0 0 0 0 0 0 0 0 0 0 0 0 0 0 0 0 0 0 0 0 0 0 0 0 0 1887 1839 1752 1752 1839 1936 1936 1936 1887 1936 2102 2044 1989 2044 2102 2102 2374 2830 2628 2628 2628 2725 2628 2628 2453 2299 1887 1672 0 2830 1936 2374 2537 2537 2374 2628 2628 2537 2453 2725 2628 2453 2537 2830 2299 2164 2537 2537 2725 2725 2537 2537 2374 2299 2537 2537 2374 2374 2374 2453 2537 2725 2830 2537 2537 2725 2628 2374 2725 2830 2830 3066 3199 3199 3345 4088 4599 4329 4088 3679 3873 3873 3873 3504 3199 3066 2943 2830 2830 2628 2537 2537 2374 2628 2628 2453 2453 2453 2537 2537 2628 2830 2725 2628 6133 8177 7359 0 0 2044 2044 2044 1936 1989 2044 2102 2164 2164 2164 2230 2374 2830 2830 3199 2725 2537 1887 1533 1565 1795 1795 1752 1989 1989 1989 2230 2374 2374 2299 2453 2943 2830 2830 3066 0 2725 0 2943 2628 1936 1887 1887 1936 1839 1672 1672 1635 1565 1565 1471 1314 1314 1338 1388 1388 1388 1388 1415 1415 1501 1533 1672 1533 1471 1471 1711 1635 1795 1752 1672 1599 1565 1471 1415 1443 1501 1443 1388 1388 1388 1415 1443 0 0 0 3066 2537 0 0 0 1443 1362 1443 1415 1362 1362 1415 1415 1415 1443 1501 1501 1471 1501 1533 1565 1599 1599 1443 1338 1291 1226 1247 1036 968 931 919 886 876 0 0 0 629 598 574 557 0 613 584 549 0 579 561 553 553 561 0 0 0 0 0
    0 0 0 0 0 0 0 0 0 0 0 0 0 0 0 0 0 0 0 0 0 0 0 0 0 0 0 0 0 0 0 0 0 0 0 0 0 0 0 0 0 0 0 0 0 0 0 0 0 0 0 0 0 0 0 0 0 0 0 0 0 0 0 0 0 0 0 0 0 1795 1752 1752 1795 1839 1936 1936 1936 1887 1936 2102 1989 1989 2102 2102 2044 2299 2628 2453 2453 2537 2628 2453 2725 2537 2299 1839 0 0 3066 1989 2453 2537 2453 2374 2628 2628 2453 2453 2725 2628 2453 2537 2725 2102 2044 2374 2374 2628 2725 2628 2628 2374 2299 2537 2628 2374 2374 2374 2453 2537 2725 2830 2537 2453 2725 2537 2453 2725 2943 2943 3066 3199 3345 3504 4329 4906 4599 4329 3679 3679 3873 3679 3345 3066 2943 2943 2830 2830 2725 2537 2537 2537 2628 2725 2453 2537 2537 2537 2628 2725 2830 2628 2537 6133 8177 6133 0 0 2102 1989 2102 2044 2044 2102 2102 2230 2230 2230 2374 2374 2628 2725 2830 2628 2374 1989 1795 1752 1839 1795 1752 1936 1936 1989 2164 2299 2374 2299 2453 3066 2943 3066 3679 0 0 3066 2943 2628 1936 1839 1839 1839 1795 1635 1635 1565 1471 1443 1415 1291 1314 1314 1388 1388 1388 1388 1388 1415 1471 1471 1635 1415 1388 1388 1672 1599 1839 1752 1599 1533 1471 1388 1415 1415 1443 1415 1388 1362 1388 1388 0 0 0 0 0 0 0 0 1268 1247 1247 1314 1314 1314 1338 1362 1388 1388 1415 1471 1471 1443 1471 1501 1501 1501 1533 1415 1314 1247 1098 1132 1008 943 886 886 876 865 0 0 0 0 593 574 561 598 598 570 553 553 574 553 545 545 549 0 0 0 0 0
    0 0 0 0 0 0 0 0 0 0 0 0 0 0 0 0 0 0 0 0 0 0 0 0 0 0 0 0 0 0 0 0 0 0 0 0 0 0 0 0 0 0 0 0 0 0 0 0 0 0 0 0 0 0 0 0 0 0 0 0 0 0 0 0 0 0 0 0 0 1711 1711 1752 1795 1887 1936 1936 1936 1936 1936 2044 1989 1989 2102 2102 1989 2164 2453 2453 2299 2537 2453 2299 2628 2374 2044 1711 1443 0 0 1936 2453 2374 2374 2374 2725 2725 2537 2453 2830 2628 2628 2628 2725 2164 2044 2453 2453 2725 2725 2725 2628 2374 2299 2537 2725 2453 2453 2453 2453 2537 2830 2830 2537 2453 2725 2628 2537 3066 3066 3066 3199 3345 3504 3504 4088 4329 4088 3873 3504 3679 3679 3504 3199 3066 2830 2830 2830 2725 2628 2537 2453 2537 2628 2725 2374 2537 2537 2537 2628 2725 2725 2628 2537 4906 6690 4599 0 2628 2299 2044 2230 2102 2102 2164 2164 2299 2299 2230 2453 2374 2628 2725 2830 2725 2374 1989 1839 1795 1795 1795 1752 1887 1887 1887 2102 2230 2299 2299 2453 2943 2830 0 0 1187 1132 0 0 1839 1752 1599 1711 1711 1711 1533 1599 1533 1443 1415 1415 1291 1314 1314 1388 1388 1388 1388 1388 1415 1443 1443 1565 1362 1338 1362 1672 1533 1711 1635 1443 1471 1415 1362 1362 1362 1415 1388 1388 1362 1362 0 0 0 0 0 0 0 1132 1187 1115 1132 1149 1226 1247 1247 1247 1314 1338 1362 1388 1443 1443 1415 1443 1471 1471 1471 1471 1388 1291 1149 1051 1066 1008 931 876 876 855 855 0 0 0 603 588 570 557 579 584 561 549 549 557 549 541 541 545 0 0 0 0 0
    0 0 0 0 0 0 0 0 0 0 0 0 0 0 0 0 0 0 0 0 0 0 0 0 0 0 0 0 0 0 0 0 0 0 0 0 0 0 0 0 0 0 0 0 0 0 0 0 0 0 0 0 0 0 0 0 0 0 0 0 0 0 0 0 0 0 0 0 0 1711 1752 1752 1752 1839 1887 1936 1936 1887 1936 1936 1887 1989 1989 1989 1887 2044 2164 2164 2102 2537 2230 2164 2537 2230 1887 1752 1443 0 0 0 2230 2230 2299 2374 2725 2725 2537 2453 2830 2725 2628 2725 2628 2299 2299 2725 2628 2725 2725 2725 2628 2374 2299 2537 2628 2537 2453 2453 2374 2628 2943 2943 2537 2453 2628 2628 2628 3066 3066 3066 3199 3345 3345 3345 3873 4088 3679 3679 3345 3504 3504 3345 3199 3066 2830 2830 2725 2725 2628 2453 2453 2537 2628 2830 2453 2628 2725 2628 2725 2830 2830 2628 2537 4599 5661 3873 2725 2725 2374 2044 2299 2164 2164 2230 2230 2299 2299 2230 2453 2299 2537 2725 2830 2725 2453 2044 1936 1887 1887 1839 1839 1887 1887 1887 2102 2230 2230 2230 2453 2830 2230 0 1226 1187 1115 1008 1291 1415 1501 1415 1533 1565 1565 1443 1533 1471 1415 1388 1415 1314 1291 1314 1388 1388 1388 1362 1388 1388 1415 1443 1565 1362 1338 1362 1599 1388 1565 1533 1362 1415 1362 1338 1338 1338 1388 1362 1362 1388 1338 0 1471 1388 1268 1115 0 0 0 0 1098 1098 0 0 1206 1226 1226 1291 1314 1338 1362 1415 1415 1388 1415 1443 1415 1443 1415 1362 1247 1082 1022 1022 981 908 865 855 845 845 0 0 657 603 584 570 561 574 574 557 549 545 549 545 537 537 537 0 0 0 0 0
    0 0 0 0 0 0 0 0 0 0 0 0 0 0 0 0 0 0 0 0 0 0 0 0 0 0 0 0 0 0 0 0 0 0 0 0 0 0 0 0 0 0 0 0 0 0 0 0 0 0 0 0 0 0 0 0 0 0 0 0 0 0 0 0 0 0 0 0 0 1711 1752 1795 1752 1839 1887 1936 1936 1887 1887 1887 1887 1936 1989 1936 1887 1936 1989 1936 1936 2164 1936 1936 2164 1989 1711 1635 1362 1415 1599 1599 1936 1936 1989 2374 2725 2725 2628 2628 2943 2943 2830 2943 2725 2537 2537 2725 2537 2725 2725 2725 2628 2299 2299 2537 2725 2830 2537 2453 2374 2725 3199 3066 2628 2374 2537 2537 2725 3066 3066 3066 3199 3345 3345 3199 3679 3873 3504 3504 3345 3345 3504 3345 3199 3066 2830 2830 2725 2725 2628 2537 2453 2628 2725 2830 2537 2725 2725 2725 2830 2830 2830 2628 2537 8177 0 6133 0 2830 2537 2044 2299 2230 2164 2299 2230 2299 2299 2299 2537 2374 2537 2725 2725 2830 2537 2102 1989 1887 1887 1839 1839 1839 1839 1839 1887 1989 2044 1989 2102 0 1672 1115 1226 1187 1115 1051 1206 1362 1415 1415 1471 1533 1501 1415 1565 1565 1501 1415 1471 1415 1362 1338 1443 1415 1388 1388 1388 1362 1388 1388 1533 1291 1291 1314 1443 1314 0 1415 1338 1362 1338 1314 1314 1314 1362 1362 1362 1362 1314 1362 0 0 0 0 598 553 0 0 0 549 533 490 0 1132 1149 1247 1268 1314 1338 1362 1362 1362 1388 1388 1388 1362 1338 1338 1206 1036 1008 994 968 876 845 845 845 836 0 0 669 608 593 584 570 574 574 561 549 545 545 0 529 529 533 0 0 0 0 0
    0 0 0 0 0 0 0 0 0 0 0 0 0 0 0 0 0 0 0 0 0 0 0 0 0 0 0 0 0 0 0 0 0 0 0 0 0 0 0 0 0 0 0 0 0 0 0 0 0 0 0 0 0 0 0 0 0 0 0 0 0 0 0 0 0 0 0 0 0 1752 1795 1839 1839 1887 1887 1936 1936 1839 1839 1839 1839 1887 1936 1887 1839 1839 1839 1839 1839 1936 1795 1795 1839 1839 1672 1672 1388 1471 1565 1565 1795 1839 1839 2102 2537 2725 2537 2537 3066 2943 2943 3066 2628 2299 2453 2830 2537 2628 2628 2830 2725 2453 2453 0 2943 3199 2725 2537 2164 0 3345 3345 2628 2453 2537 2628 2943 3199 3199 3066 3345 3679 3504 3199 4329 3873 3345 3504 3345 3345 3345 3345 3199 3066 2943 2830 2725 2725 2628 2537 2537 2725 2830 2943 2628 2725 2830 2830 2830 2943 2725 2537 2453 8177 0 7359 0 3066 2628 2044 2374 2299 2230 2374 2374 2374 2374 2374 2628 2453 2628 2725 2725 2830 2628 2164 2044 1936 1839 1839 1795 1752 1752 1752 1752 1752 1752 1752 1752 1752 1291 1132 1206 1168 1098 1082 1168 1291 1338 1388 1415 1443 1501 1471 1635 1711 1635 1471 1533 1501 1443 1388 1471 1443 1415 1388 1415 1362 1362 1362 1471 1291 1226 1247 1415 1362 0 1415 1338 1362 1338 1314 1291 1268 1314 1314 1314 1314 1268 0 0 0 0 0 593 545 0 0 0 0 0 0 0 0 1066 1149 1187 1291 1314 1338 1338 1314 1314 1338 1314 1314 1268 1226 1066 981 955 981 955 865 826 826 817 826 817 758 663 608 593 588 579 574 579 566 553 545 549 0 533 529 533 0 0 0 0 0
    0 0 0 0 0 0 0 0 0 0 0 0 0 0 0 0 0 0 0 0 0 0 0 0 0 0 0 0 0 0 0 0 0 0 0 0 0 0 0 0 0 0 0 0 0 0 0 0 0 0 0 0 0 0 0 0 0 0 0 0 0 0 0 0 0 0 0 0 0 1752 1795 1839 1839 1887 1887 1887 1887 1839 1839 1839 1795 1839 1839 1839 1795 1795 1795 1795 1795 0 0 0 18 1752 1635 1635 1415 1471 1533 1533 1635 1711 1752 1839 1989 2453 2299 2299 2725 2453 2164 2164 1989 1887 1887 2453 2299 1936 2102 2537 2725 2537 2830 0 3199 3345 2830 2299 0 0 3345 0 2537 2299 2299 2725 3199 3504 3345 3345 3679 4329 4088 3504 6690 6133 3679 3873 3345 3345 3504 3345 3199 3066 2830 2830 2725 2725 2628 2537 2453 2725 2830 2943 2725 2830 2943 2943 2943 2943 2725 2453 2374 0 6690 3873 2453 3199 2943 2102 2537 2374 2374 2453 2453 2453 2453 2453 2628 2537 2628 2725 2725 2830 2453 2044 1989 1887 1795 1795 1752 1711 1672 1672 1672 1635 1565 1599 1471 1471 1291 1268 1187 1187 1132 1115 1187 1291 1314 1362 1415 1533 1599 1599 1711 1752 1672 1565 1599 1599 1501 1415 1471 1471 1443 1415 1415 1362 1338 1338 1362 1268 1168 1149 1268 0 1051 0 0 1314 1314 1291 1268 1247 1268 1291 1314 1314 1268 0 0 0 0 669 598 545 533 533 0 0 0 481 443 0 0 0 0 0 1247 1291 1268 1226 1149 1226 1149 1115 1098 1022 0 865 845 876 919 845 808 758 750 728 728 0 639 608 598 598 588 593 598 593 579 0 0 0 0 533 533 0 0 0 0 0
    0 0 0 0 0 0 0 0 0 0 0 0 0 0 0 0 0 0 0 0 0 0 0 0 0 0 0 0 0 0 0 0 0 0 0 0 0 0 0 0 0 0 0 0 0 0 0 0 0 0 0 0 0 0 0 0 0 0 0 0 0 0 0 0 0 0 0 0 0 1752 1795 1839 1839 1887 1839 1887 1887 1839 1795 1795 1795 1795 1795 1795 1752 1752 1752 1752 1752 1752 1711 1711 1711 1711 1599 1635 1415 1443 1471 1443 1471 1565 1599 1672 1635 1936 1887 1839 1839 1839 1711 1599 1752 1839 1887 2102 1887 1711 1599 0 1989 1936 1989 1989 2164 2628 2453 2374 1795 0 0 3199 0 0 0 0 0 0 3504 0 0 6133 0 3345 0 0 5661 4329 3679 3345 3504 3345 3066 3066 2830 2830 2725 2628 2537 2537 2453 2725 2725 2830 2628 2830 2943 2943 2943 2943 2725 2374 2299 2943 0 3345 0 0 2943 2102 2537 2453 2453 2537 2453 2537 2453 2453 2628 2537 2628 2725 2725 2830 2374 2044 2044 1887 1752 1752 1672 1672 1599 1599 1599 1501 1471 1501 1362 1362 1314 1268 1226 1206 1168 1149 1206 1314 1314 1362 1443 1533 1635 1635 1672 1711 1635 1533 1599 1599 1533 1415 1471 1443 1443 1415 1415 1338 1314 1291 1314 1206 1036 1051 1098 1132 0 0 0 0 1291 1247 1226 1187 1187 1247 1291 1291 1149 0 0 0 735 634 584 537 511 507 0 0 0 474 0 0 0 0 0 0 0 0 0 0 0 0 0 855 0 817 774 758 735 743 782 750 714 700 0 0 0 0 608 598 593 598 588 598 598 598 0 0 0 0 0 529 529 0 0 0 0 0
    0 0 0 0 0 0 0 0 0 0 0 0 0 0 0 0 0 0 0 0 0 0 0 0 0 0 0 0 0 0 0 0 0 0 0 0 0 0 0 0 0 0 0 0 0 0 0 0 0 0 0 0 0 0 0 0 0 0 0 0 0 0 0 0 0 0 0 0 0 1711 1752 1839 1795 1839 1795 1839 1839 1795 1752 1752 1711 1752 1752 1752 1711 1711 1711 1711 1711 1711 1711 1672 1672 1711 1599 1635 1415 1443 1471 1443 1443 1471 1533 1599 1501 1839 1795 1752 1635 1533 1443 1314 1338 0 0 0 0 0 0 0 0 0 0 0 0 0 0 0 0 0 0 0 0 0 0 0 0 0 0 0 0 0 0 0 0 0 8177 3504 3504 3066 3199 3066 2830 2943 2725 2628 2628 2628 2537 2537 2453 2725 2628 2830 2628 2725 2943 2943 2943 2943 2725 2374 2299 0 0 0 0 3199 3066 2102 2537 2453 2453 2537 2453 2537 2453 2374 2628 2537 2628 2725 2725 2943 2374 2044 2102 1887 1711 1752 1672 1635 1533 1533 1533 1415 1388 1415 1314 1291 1291 1247 1247 1226 1226 1226 1291 1362 1362 1415 1471 1501 1599 1635 1635 1672 1565 1471 1533 1533 1533 1388 1443 1415 1415 1388 1388 1314 1291 1268 1247 1149 1008 1008 0 0 931 876 865 0 1149 1132 1132 1098 1082 1187 1226 1226 1051 0 0 0 728 634 588 537 521 529 0 0 0 471 0 0 0 721 728 714 758 782 735 714 728 707 700 700 700 675 634 613 618 623 629 634 634 639 629 634 0 0 603 593 588 593 584 593 588 0 0 0 0 0 0 525 518 0 0 0 0 0
    0 0 0 0 0 0 0 0 0 0 0 0 0 0 0 0 0 0 0 0 0 0 0 0 0 0 0 0 0 0 0 0 0 0 0 0 0 0 0 0 0 0 0 0 0 0 0 0 0 0 0 0 0 0 0 0 0 0 0 0 0 0 0 0 0 0 0 0 0 1672 1672 1752 1711 1795 1711 1795 1795 1752 1752 1752 1711 1711 1711 1752 1635 1635 1635 1711 1672 1672 1672 1635 1672 1711 1599 1599 1388 1443 1471 1443 1471 1471 1533 1672 1672 2102 0 0 0 0 1443 1268 0 0 0 0 0 0 0 0 0 0 0 0 0 0 0 0 0 0 0 0 0 0 0 0 0 0 0 0 0 0 0 0 0 0 0 0 2230 2943 2830 2943 2453 2628 2299 2453 2453 2453 2374 2374 2230 2537 2537 3066 2453 2725 3066 2943 3066 2830 2725 2374 0 0 0 0 0 0 3066 2102 2628 2374 2374 2537 2453 2453 2374 2299 2537 2374 2537 2725 2725 2943 2374 1989 2102 1887 1752 1752 1672 1635 1533 1501 1501 1415 1388 1388 1314 1291 1291 1247 1247 1226 1247 1268 1314 1362 1388 1443 1471 1501 1599 1599 1635 1635 1501 1443 1471 1471 1471 1388 1362 1338 1338 1338 1314 1247 1168 1115 1115 1082 994 955 943 876 826 0 826 0 1051 0 1082 1066 1066 1132 1168 0 0 808 0 0 735 639 584 537 518 514 493 0 0 471 0 681 0 728 735 714 758 782 774 758 743 700 687 681 687 651 629 618 618 613 618 618 623 629 623 623 0 0 598 588 584 588 584 0 0 0 0 397 0 0 0 0 500 0 0 0 0 0
    0 0 0 0 0 0 0 0 0 0 0 0 0 0 0 0 0 0 0 0 0 0 0 0 0 0 0 0 0 0 0 0 0 0 0 0 0 0 0 0 0 0 0 0 0 0 0 0 0 0 0 0 0 0 0 0 0 0 0 0 0 0 0 0 0 0 0 0 0 1599 1635 1672 1635 1672 1565 1672 1711 1672 1672 1672 1672 1672 1672 1711 1599 1599 1599 1635 1635 1635 1635 1635 1672 1711 1599 1635 1443 1501 1565 1565 1533 1501 1565 1672 1599 1936 0 0 0 0 1599 1268 0 0 0 0 0 0 0 0 0 0 0 0 0 0 0 0 0 0 0 0 0 0 0 0 0 0 0 0 0 0 0 0 0 0 0 0 0 0 0 0 0 0 0 2299 2299 2230 2102 2164 2164 2164 2299 3066 1887 2725 3066 3066 3066 0 0 0 0 0 0 0 0 0 0 0 2725 2453 2453 2537 2537 2628 2453 2374 2628 2374 0 0 2830 3066 2374 1887 1989 1887 1672 1752 1635 1599 1501 1501 1533 1443 1388 1388 1314 1291 1291 1268 1268 1268 1268 1314 1338 1388 1415 1443 1501 1501 1565 1599 1635 1635 1471 1443 1471 1443 1443 1388 1338 1314 1291 1338 1247 1115 1051 1051 1051 1036 943 845 0 817 774 0 0 0 0 0 0 1082 1082 1168 1187 1168 0 782 0 0 0 0 570 529 507 493 481 474 481 465 0 681 0 721 735 721 758 799 826 836 826 774 721 700 694 675 634 608 613 608 603 603 608 613 608 603 603 603 598 0 588 0 0 0 0 385 389 395 383 0 0 0 0 0 0 0 0 0
    0 0 0 0 0 0 0 0 0 0 0 0 0 0 0 0 0 0 0 0 0 0 0 0 0 0 0 0 0 0 0 0 0 0 0 0 0 0 0 0 0 0 0 0 0 0 0 0 0 0 0 0 0 0 0 0 0 0 0 0 0 0 0 0 0 0 0 0 0 1565 1533 1599 1533 1565 1471 1565 1565 1565 1599 1635 1599 1599 1599 1635 1533 1533 1565 1599 1599 1599 1635 1635 1672 1711 1672 1672 1415 1533 1599 1599 1501 1471 1533 1599 1501 1752 1291 1247 1247 0 1599 1268 0 0 0 0 0 0 0 0 0 0 0 0 0 0 0 0 0 0 0 0 0 0 0 0 0 0 0 0 0 0 0 0 0 0 0 0 0 0 0 0 0 0 0 0 0 0 0 0 0 0 0 0 0 0 0 0 0 0 0 0 0 0 0 0 0 0 0 0 0 0 0 0 0 0 0 0 0 0 0 0 0 0 2537 1839 1936 1839 1635 1711 1599 1533 1471 1443 1471 1415 1388 1388 1314 1291 1314 1291 1291 1291 1291 1338 1338 1388 1443 1443 1471 1501 1533 1599 1599 1599 1443 1443 1443 1415 1415 1388 1314 1314 1291 1314 1132 1008 931 0 0 0 0 782 0 0 0 0 0 0 0 0 0 0 0 0 0 0 0 0 0 0 0 0 541 525 493 484 471 465 465 457 0 645 681 700 707 707 721 782 836 826 799 750 728 721 700 694 645 618 613 613 613 608 608 608 598 598 598 603 598 588 579 588 0 0 0 0 391 397 371 0 0 0 0 0 0 0 0 0
    0 0 0 0 0 0 0 0 0 0 0 0 0 0 0 0 0 0 0 0 0 0 0 0 0 0 0 0 0 0 0 0 0 0 0 0 0 0 0 0 0 0 0 0 0 0 0 0 0 0 0 0 0 0 0 0 0 0 0 0 0 0 0 0 0 0 0 0 0 1501 1443 1501 1443 1471 1415 1471 1471 1471 1533 1599 1565 1533 1501 1565 1471 1471 1471 1501 1443 1443 1533 1565 1565 1599 1565 1565 1388 1471 1533 1533 1443 1415 1443 1443 1362 1533 1268 1206 1206 1226 0 1268 0 0 0 0 0 0 0 0 0 0 0 0 0 0 0 0 0 0 0 0 0 0 0 0 0 0 0 0 0 0 0 0 0 0 0 0 0 0 0 0 0 0 0 0 0 0 0 0 0 0 0 0 0 0 0 0 0 0 0 0 0 0 0 0 0 0 0 0 0 0 0 0 0 0 0 0 0 0 0 0 0 0 0 1565 1711 1635 1471 1635 1501 1471 1443 1415 1415 1388 1388 1362 1314 1291 1314 1291 1291 1268 1291 1314 1362 1415 1443 1443 1501 1501 1533 1565 1565 1565 1415 1415 1415 1388 1388 1362 1314 1268 1247 1268 1051 943 836 799 728 0 0 743 0 0 0 462 459 0 0 0 0 0 0 0 0 0 0 0 0 0 0 504 518 514 497 490 481 481 477 0 700 707 714 714 721 728 758 817 826 817 799 766 743 750 721 700 657 618 618 608 608 603 593 593 570 574 584 584 584 566 549 549 561 0 0 0 0 399 381 373 0 391 385 0 0 0 0 0
    0 0 0 0 0 0 0 0 0 0 0 0 0 0 0 0 0 0 0 0 0 0 0 0 0 0 0 0 0 0 0 0 0 0 0 0 0 0 0 0 0 0 0 0 0 0 0 0 0 0 0 0 0 0 0 0 0 0 0 0 0 0 0 0 0 0 0 0 0 0 1415 1471 1415 1443 1388 1415 1415 1415 1471 1501 1471 1415 1388 1415 1362 1362 1362 1388 1362 1362 1415 1471 1443 1501 1533 1533 1388 1443 1533 1533 1415 1388 1443 1362 1291 1291 1226 1149 1149 1168 1268 1226 0 0 0 0 0 0 0 0 0 0 0 0 0 0 0 0 0 0 0 0 0 0 0 0 0 0 0 0 0 0 0 0 0 0 0 0 0 0 0 0 0 0 0 0 0 0 0 0 0 0 0 0 0 0 0 0 0 0 0 0 0 0 0 0 0 0 0 0 0 0 0 0 0 0 0 0 0 0 0 0 0 0 0 0 1635 1635 1443 1565 1471 1443 1415 1388 1415 1388 1362 1362 1291 1268 1314 1291 1291 1268 1291 1338 1362 1415 1415 1415 1471 1471 1501 1533 1533 1533 1362 1415 1388 1338 1338 1338 1268 1226 1206 1226 1008 865 808 774 721 0 0 0 675 0 0 457 0 0 0 0 0 0 0 0 0 0 0 0 0 0 0 0 0 0 0 474 462 446 454 0 714 721 728 735 735 743 782 817 836 836 817 799 774 791 758 728 694 663 634 608 608 598 579 566 553 561 570 574 561 549 0 0 549 0 0 0 402 397 391 389 385 391 385 0 0 0 0 0
    0 0 0 0 0 0 0 0 0 0 0 0 0 0 0 0 0 0 0 0 0 0 0 0 0 0 0 0 0 0 0 0 0 0 0 0 0 0 0 0 0 0 0 0 0 0 0 0 0 0 0 0 0 0 0 0 0 0 0 0 0 0 0 0 0 0 0 0 0 0 1362 1388 1338 1362 1362 1362 1362 1362 1388 1388 1362 1362 1314 1314 1291 1314 1314 1314 1314 1314 1338 1388 1388 1415 1443 1443 1338 1388 1471 1471 1362 1291 1388 1291 1206 1206 1187 1115 1115 1132 1226 1206 0 0 0 0 0 0 0 0 0 0 0 0 0 0 0 0 0 0 0 0 0 0 0 0 0 0 0 0 0 0 0 0 0 0 0 0 0 0 0 0 0 0 0 0 0 0 0 0 0 0 0 0 0 0 0 0 0 0 0 0 0 0 0 0 0 0 0 0 0 0 0 0 0 0 0 0 0 0 0 0 0 0 0 1443 1565 1565 1443 1565 1471 1415 1415 1388 1388 1362 1338 1338 1291 1268 1314 1291 1291 1268 1314 1338 1362 1415 1415 1415 1471 1471 1471 1471 1501 1471 1338 1388 1362 1338 1314 1314 1206 1132 1149 0 994 836 774 743 714 687 0 700 651 0 0 448 0 0 0 0 0 0 0 0 0 0 0 0 0 681 681 0 0 0 0 0 451 446 454 451 714 728 758 774 766 774 782 817 845 826 808 799 782 791 774 735 700 687 669 645 613 593 570 561 545 545 545 545 537 529 518 500 497 0 0 422 411 406 411 404 399 399 393 0 0 0 0 0
    0 0 0 0 0 0 0 0 0 0 0 0 0 0 0 0 0 0 0 0 0 0 0 0 0 0 0 0 0 0 0 0 0 0 0 0 0 0 0 0 0 0 0 0 0 0 0 0 0 0 0 0 0 0 0 0 0 0 0 0 0 0 0 0 0 0 0 0 0 0 1314 1314 1291 1314 1338 1338 1314 1314 1338 1338 1338 1314 1291 1268 1268 1291 1291 1291 1291 1291 1291 1338 1338 1338 1388 1388 1291 0 1443 1501 1362 0 1388 1268 1187 1187 1168 1082 1082 1098 1187 0 0 0 0 0 0 0 0 0 0 0 0 0 0 0 0 0 0 0 0 0 0 0 0 0 0 0 0 0 0 0 0 0 0 0 0 0 0 0 0 0 0 0 0 0 0 0 0 0 0 0 0 0 0 0 0 0 0 0 0 0 0 0 0 0 0 0 0 0 0 0 0 0 0 0 0 0 0 0 0 0 0 0 0 1599 1672 1672 1533 1599 1533 1443 1415 1362 1362 1338 1314 1314 1268 1247 1314 1291 1314 1291 1338 1362 1388 1415 1443 1443 1471 1443 0 0 0 0 293 0 1338 1314 1314 1291 1168 1066 1082 1115 955 826 758 735 707 681 694 681 634 598 0 0 0 0 0 0 782 743 758 750 782 700 681 663 645 0 0 0 0 0 0 0 0 0 0 0 0 766 782 799 774 782 782 817 836 808 782 766 758 758 728 700 681 657 657 629 598 574 561 549 533 525 525 529 521 511 500 487 484 471 446 430 420 425 425 418 418 411 399 0 0 0 0 0
    0 0 0 0 0 0 0 0 0 0 0 0 0 0 0 0 0 0 0 0 0 0 0 0 0 0 0 0 0 0 0 0 0 0 0 0 0 0 0 0 0 0 0 0 0 0 0 0 0 0 0 0 0 0 0 0 0 0 0 0 0 0 0 0 0 0 0 0 0 1268 1268 1268 1247 1268 1314 1314 1268 1291 1314 1291 1291 1291 1247 1247 1247 1247 1268 1268 1268 1268 1268 1291 1314 1268 1338 1338 1268 0 0 1565 1388 1226 1415 0 1206 1206 1168 1066 1066 1082 0 0 0 0 0 0 0 0 0 0 0 0 0 0 0 0 0 0 0 0 0 0 0 0 0 0 0 0 0 0 0 0 0 0 0 0 0 0 0 0 0 0 0 0 0 0 0 0 0 0 0 0 0 0 0 0 0 0 0 0 0 0 0 0 0 0 0 0 0 0 0 0 0 0 0 0 0 0 0 0 0 0 0 0 0 1711 1711 1752 1672 1672 1635 1533 1533 1415 1415 1362 1338 1314 1268 1247 1314 1314 1338 1314 1388 1388 1415 1471 1501 1471 1501 0 0 0 0 294 289 0 1338 1268 1268 1268 1132 1036 1036 1051 908 817 750 735 707 681 707 700 681 634 700 0 0 845 836 0 0 359 362 359 355 0 0 0 0 675 0 0 0 0 0 0 0 0 0 0 0 0 817 836 799 791 791 808 826 782 743 735 728 728 707 694 681 669 675 669 598 574 557 541 511 504 504 500 493 487 484 477 474 465 448 435 430 432 427 425 432 427 0 0 0 0 0 0</data></depth>
</opencv_storage>
