<?xml version="1.0"?>
<opencv_storage>
<gps_time_stamp>310390</gps_time_stamp>
<gps_x>-1.2418799400329590e+001</gps_x>
<gps_y>1.0964160919189453e+001</gps_y>
<gps_z>-2.0321431159973145e+000</gps_z>
<image_time_stamp>301259</image_time_stamp>
<depth type_id="opencv-matrix">
  <rows>86</rows>
  <cols>320</cols>
  <dt>s</dt>
  <data>
    0 0 0 0 0 0 0 0 0 0 0 0 0 0 0 0 0 0 0 0 0 0 0 0 0 0 0 0 0 0 0 0 0 0 0 0 0 0 0 0 0 0 0 0 0 0 0 0 0 0 0 0 0 0 0 0 0 0 0 0 0 0 0 0 0 0 0 0 0 1362 1362 1388 1415 1471 1415 1443 1533 1533 1565 1795 1887 1887 2102 2230 2164 2230 2299 2164 2374 2044 2102 2102 2044 2044 1989 1989 2044 1989 2299 2453 2453 2453 2537 2628 2628 2628 2725 2830 2628 2453 2628 2628 2537 2537 2537 2453 2453 2453 2453 2374 2374 2374 2374 2453 2628 2537 2628 2830 2943 3345 3345 3504 3504 3679 3679 3504 5256 5661 5661 6690 6690 5661 6133 6690 6690 6133 6133 6690 6690 6133 7359 7359 7359 8177 8177 8177 7359 7359 8177 8177 8177 8177 8177 8177 8177 8177 0 0 7359 6133 6133 5661 5661 5661 3345 2725 2628 2164 0 2230 2230 2299 2230 2164 2164 2044 2044 1795 1795 1711 1672 1672 1672 1599 1501 1501 1672 1443 1362 1247 1268 1187 175 1149 1187 1187 1149 1149 1187 1149 0 1149 1187 1115 1132 1149 1149 1132 1082 0 0 0 0 897 0 876 865 855 0 817 817 799 782 782 728 728 728 0 707 0 0 0 700 0 0 0 0 0 0 106 0 0 639 0 212 211 0 294 0 0 0 0 0 0 549 553 549 0 537 0 0 0 514 514 507 500 504 504 521 490 0 0 0 0 0 446 454 443 451 446 0 443 443 443 0 0 0 0 0 0 0 0 0 0 0 0 0 0 0 0 0 0 0 0 0 0 0 0 0 0
    0 0 0 0 0 0 0 0 0 0 0 0 0 0 0 0 0 0 0 0 0 0 0 0 0 0 0 0 0 0 0 0 0 0 0 0 0 0 0 0 0 0 0 0 0 0 0 0 0 0 0 0 0 0 0 0 0 0 0 0 0 0 0 0 0 0 0 0 0 1362 1362 1388 1415 1443 1388 1443 1533 1533 1533 1795 1887 1887 2102 2230 2164 2230 2299 2230 2374 2044 2102 2102 2044 2102 2044 2044 2102 2044 2299 2537 2453 2453 2537 2628 2628 2628 2725 2943 2830 2628 2830 2725 2628 2628 2628 2537 2537 2453 2537 2453 2374 2453 2453 2537 2628 2628 2725 2830 2830 3199 3199 3504 3504 3679 4088 3504 4906 6133 5661 6133 6133 5256 6133 6133 6690 6133 6133 6690 7359 6690 8177 7359 7359 8177 8177 8177 7359 7359 8177 8177 0 0 8177 8177 0 0 0 0 7359 6690 6690 6690 6690 6690 3504 2725 2725 2164 2299 2164 2230 2230 2164 2102 2102 2044 2044 1752 1752 1672 1635 1635 1635 1533 1443 1443 1672 1443 1362 1226 1268 1187 0 1149 1187 1168 1149 1149 1187 1149 0 1149 1187 1115 1132 1168 1168 1132 1098 0 0 0 0 897 0 865 865 855 0 817 808 791 782 782 728 728 728 721 707 0 0 0 700 0 0 0 0 0 0 106 106 0 0 0 212 212 210 0 0 0 0 0 0 0 545 549 549 0 537 0 0 0 514 514 511 500 507 504 525 490 0 0 0 0 0 443 454 443 454 0 0 443 443 446 0 0 0 0 0 0 0 0 0 0 0 0 0 0 0 0 0 0 0 0 180 0 0 0 0 0
    0 0 0 0 0 0 0 0 0 0 0 0 0 0 0 0 0 0 0 0 0 0 0 0 0 0 0 0 0 0 0 0 0 0 0 0 0 0 0 0 0 0 0 0 0 0 0 0 0 0 0 0 0 0 0 0 0 0 0 0 0 0 0 0 0 0 0 0 0 1388 1362 1388 1415 1443 1388 1415 1501 1501 1533 1795 1887 1887 2102 2230 2164 2230 2230 2230 2453 1989 2102 2102 2102 2102 2044 2102 2164 2102 2374 2537 2537 2453 2537 2628 2628 2628 2628 3066 2830 2725 2830 2830 2725 2725 2725 2628 2628 2537 2628 2628 2537 2537 2537 2628 2725 2628 2830 2943 2943 3199 3345 3504 3504 3679 4599 3504 4599 6133 6133 6690 6690 5661 6133 6133 6690 6133 6133 6690 6690 6133 7359 7359 7359 8177 8177 0 8177 8177 8177 0 0 0 8177 0 0 0 0 0 8177 8177 7359 7359 7359 6690 3066 2628 2628 2102 2230 2102 2230 2230 2164 2102 2164 2044 2044 1795 1752 1711 1672 1635 1635 1533 1443 1443 1672 1443 1362 1206 1247 1187 0 1149 1187 1187 1149 1149 1206 1168 0 1149 1187 1115 1132 1168 1168 1149 1098 0 0 0 0 897 0 865 855 845 0 808 808 791 782 782 728 728 728 721 714 0 0 0 707 0 0 0 0 0 0 0 0 0 0 0 212 212 210 0 0 0 0 0 0 0 545 549 549 0 537 0 0 0 511 518 511 500 507 504 525 490 493 0 0 0 0 443 454 446 454 0 0 0 443 446 0 0 0 0 0 0 0 0 0 0 0 0 0 0 347 345 0 0 0 0 181 0 0 0 0 0
    0 0 0 0 0 0 0 0 0 0 0 0 0 0 0 0 0 0 0 0 0 0 0 0 0 0 0 0 0 0 0 0 0 0 0 0 0 0 0 0 0 0 0 0 0 0 0 0 0 0 0 0 0 0 0 0 0 0 0 0 0 0 0 0 0 0 0 0 0 1388 1388 1388 1415 1443 1388 1415 1501 1501 1501 1752 1839 1887 2102 2164 2164 2164 2230 2230 2453 1989 2102 2102 2102 2164 2044 2164 2164 2102 2374 2537 2537 2453 2537 2628 2628 2628 2725 3066 2943 2830 2943 2943 2943 2830 2830 2830 2725 2725 2725 2830 2725 2725 2725 2725 2830 2725 2830 3066 2943 3199 3345 3345 3504 3345 4088 3345 4088 6133 6133 7359 7359 6133 6133 6133 7359 6690 6133 6690 6690 6133 7359 7359 7359 8177 8177 0 8177 8177 0 0 0 0 8177 0 0 0 0 0 0 8177 8177 0 8177 7359 3066 2537 2628 2102 2230 2102 2230 2230 2164 2102 2164 2102 2102 1795 1795 1711 1672 1672 1672 1533 1443 1443 1672 1443 1362 1206 1247 1187 0 1168 1206 1187 1149 1149 1206 1168 0 1149 1187 1115 1132 1168 1187 1149 1115 0 0 0 0 886 0 855 845 845 0 808 808 791 774 782 735 728 728 728 714 0 0 707 707 0 0 0 0 714 707 0 0 0 629 0 212 212 210 0 0 0 0 0 0 0 549 549 549 0 0 0 86 0 511 518 511 500 507 504 525 493 490 0 468 0 432 440 451 446 0 0 0 0 443 446 0 0 0 0 0 0 0 0 0 0 0 0 0 347 348 347 0 0 0 0 181 0 0 0 0 0
    0 0 0 0 0 0 0 0 0 0 0 0 0 0 0 0 0 0 0 0 0 0 0 0 0 0 0 0 0 0 0 0 0 0 0 0 0 0 0 0 0 0 0 0 0 0 0 0 0 0 0 0 0 0 0 0 0 0 0 0 0 0 0 0 0 0 0 0 0 1415 1388 1388 1415 1443 1415 1415 1501 1501 1471 1711 1839 1839 2044 2164 2164 2164 2164 2230 2537 1989 2164 2164 2102 2164 2102 2164 2164 2102 2374 2537 2537 2453 2537 2537 2628 2628 2628 3066 3066 2943 3066 3066 3066 3066 3066 3066 2943 3066 2943 2943 2943 2830 2830 2725 2943 2943 2943 3345 3345 3679 3679 3679 3679 3504 4088 3345 4088 6133 6690 8177 8177 6690 6690 6690 7359 6690 6133 6690 6690 6133 7359 7359 7359 8177 8177 0 8177 7359 0 0 0 0 8177 0 0 0 0 0 8177 8177 7359 8177 8177 6690 3199 2628 2725 2164 2299 2102 2230 2230 2164 2102 2230 2102 2102 1839 1795 1711 1711 1672 1711 1533 1443 1443 1672 1443 1362 1206 1247 1206 0 1168 1206 1187 1149 1149 1206 1187 0 0 1187 1098 1132 1168 1187 1149 1115 0 0 0 0 886 0 845 836 836 0 808 808 791 774 791 735 728 728 728 714 0 0 0 0 0 0 0 0 700 700 675 675 645 629 212 212 211 210 0 0 0 0 0 0 0 549 549 549 0 0 0 87 0 507 514 511 500 507 504 525 493 490 0 471 0 420 440 448 446 0 0 0 443 443 446 0 0 0 0 0 0 0 0 0 0 0 0 0 350 352 352 0 0 0 0 0 0 0 0 0 0
    0 0 0 0 0 0 0 0 0 0 0 0 0 0 0 0 0 0 0 0 0 0 0 0 0 0 0 0 0 0 0 0 0 0 0 0 0 0 0 0 0 0 0 0 0 0 0 0 0 0 0 0 0 0 0 0 0 0 0 0 0 0 0 0 0 0 0 0 0 1415 1388 1388 1415 1443 1388 1415 1471 1501 1471 1711 1839 1839 2044 2102 2102 2164 2164 2164 2453 1989 2164 2164 2102 2164 2102 2102 2164 2102 2374 2537 2537 2453 2537 2453 2537 2628 2628 3199 3066 3066 3199 3199 3199 3199 3345 3345 2943 3199 0 3066 0 0 3066 0 4088 3679 3873 5256 5661 5661 4906 4329 4088 3873 4599 3504 4329 6690 7359 0 8177 7359 6690 6690 7359 6690 6690 6690 7359 6690 7359 7359 7359 8177 8177 0 8177 8177 0 0 0 0 0 0 0 0 0 0 8177 8177 7359 8177 7359 6690 3199 2725 2725 2230 2374 2102 2230 2230 2164 2102 2230 2102 2102 1839 1839 1752 1711 1672 1711 1533 1443 1443 1672 1471 1362 1206 1247 1206 0 1168 1206 1187 1149 0 1206 1187 0 561 1187 1098 1132 1168 1187 1149 1098 0 0 0 0 0 0 845 836 836 0 808 808 791 774 791 735 728 728 728 0 0 0 0 700 0 694 694 687 694 694 669 669 639 629 211 211 211 210 0 0 0 0 0 0 0 549 553 549 0 0 0 87 0 507 514 507 500 507 504 525 497 493 0 471 435 406 438 446 443 0 0 0 0 443 446 0 0 0 0 0 0 0 0 0 0 0 0 0 355 357 0 0 0 0 0 0 0 0 0 0 0
    0 0 0 0 0 0 0 0 0 0 0 0 0 0 0 0 0 0 0 0 0 0 0 0 0 0 0 0 0 0 0 0 0 0 0 0 0 0 0 0 0 0 0 0 0 0 0 0 0 0 0 0 0 0 0 0 0 0 0 0 0 0 0 0 0 0 0 0 0 1415 1388 1362 1388 1415 1388 1415 1443 1501 1471 1672 1839 1839 2044 2102 2102 2230 2164 2230 2453 1989 2164 2164 2102 2164 2044 2102 2164 2102 2374 2453 2453 2374 2537 2453 2537 2628 2628 3066 3066 3066 3199 3199 3345 3345 3504 0 3199 3345 3345 3345 3679 0 3679 0 8177 6133 6133 7359 8177 7359 6133 5661 4906 4906 5661 4088 5256 7359 8177 8177 8177 7359 6690 6690 7359 6690 6133 6690 6690 6690 7359 7359 7359 8177 8177 0 8177 8177 8177 0 0 0 8177 0 8177 8177 0 8177 8177 7359 7359 7359 7359 6690 3345 2830 2830 2230 2374 2102 2230 2230 2164 2102 2230 2102 2102 1839 1887 1752 1711 1672 1711 1533 1443 1443 1672 1471 1362 1206 1247 1206 0 1168 1206 1187 1149 0 1206 1187 0 561 1187 1098 1132 1149 1168 1149 1098 0 0 0 0 0 0 0 0 836 0 799 808 791 774 791 735 728 728 728 0 0 0 0 694 0 687 687 681 694 687 669 663 639 634 211 210 210 210 0 0 0 0 0 0 0 553 557 553 0 0 0 87 0 507 514 507 500 507 504 521 500 490 0 471 432 399 430 443 443 0 446 0 0 443 446 0 0 0 0 0 0 0 0 0 0 0 0 0 359 360 0 0 0 0 0 0 0 0 0 0 0
    0 0 0 0 0 0 0 0 0 0 0 0 0 0 0 0 0 0 0 0 0 0 0 0 0 0 0 0 0 0 0 0 0 0 0 0 0 0 0 0 0 0 0 0 0 0 0 0 0 0 0 0 0 0 0 0 0 0 0 0 0 0 0 0 0 0 0 0 0 1415 1388 1362 1388 1415 1388 1415 1443 1533 1471 1672 1839 1795 2044 2102 2102 2230 2164 2230 2453 1989 2164 2164 2102 2164 2102 2102 2164 2102 2374 2453 2453 2374 2537 2453 2537 2628 2628 3066 3066 3066 3066 3066 3345 3345 3504 4088 3679 0 4599 3873 4906 0 7359 0 0 0 0 0 0 0 7359 7359 6133 6690 7359 6133 6690 8177 0 8177 8177 7359 6690 6690 6690 6690 6133 6133 6133 6690 6690 6690 6690 8177 8177 0 9199 8177 8177 0 0 0 8177 8177 8177 8177 0 8177 8177 7359 7359 8177 7359 6690 3679 2943 2943 2299 2453 2102 2299 2299 2230 2164 2299 2164 2164 1887 1936 1795 1752 1711 1711 1565 1471 1443 1711 1501 1362 1206 1247 1226 1206 1149 1187 1168 1132 1132 1206 1168 0 561 1168 1082 1115 1132 1149 1132 1082 0 0 0 0 0 0 0 826 826 0 808 808 791 774 791 735 728 728 728 0 0 0 0 687 0 687 681 681 694 687 669 663 639 634 210 210 210 209 0 0 0 0 0 0 0 557 561 553 0 0 0 87 86 504 511 504 497 504 500 518 500 490 0 471 430 397 415 440 443 0 446 0 0 0 446 0 0 0 0 0 0 0 0 0 0 0 0 0 0 364 0 0 0 0 0 0 0 0 0 0 0
    0 0 0 0 0 0 0 0 0 0 0 0 0 0 0 0 0 0 0 0 0 0 0 0 0 0 0 0 0 0 0 0 0 0 0 0 0 0 0 0 0 0 0 0 0 0 0 0 0 0 0 0 0 0 0 0 0 0 0 0 0 0 0 0 0 0 0 0 0 1415 1388 1362 1388 1415 1415 1415 1443 1533 1501 1672 1795 1795 2044 2102 2102 2164 2164 2230 2374 2044 2164 2164 2102 2164 2102 2102 2164 2164 2453 2537 2537 2453 2628 2453 2537 2628 2628 2943 3066 3066 3066 3066 3345 3504 3679 4906 4906 0 7359 5256 7359 0 0 0 0 0 0 0 0 0 0 0 6690 0 0 0 0 0 0 8177 8177 7359 7359 6690 6690 6690 6133 6133 6133 6690 6133 6690 6690 7359 7359 8177 8177 8177 8177 8177 0 0 8177 8177 8177 8177 0 8177 8177 7359 7359 7359 7359 6690 3873 0 2943 2453 2537 2164 2299 2299 2299 2164 2299 2230 2230 1936 2044 1839 1839 1795 1752 1599 1501 1501 1752 1565 1362 1206 0 0 1206 1149 1168 1168 1132 1132 1206 1168 0 561 1168 1082 1115 1132 1132 1115 1082 0 0 0 0 0 0 0 826 826 0 808 808 799 782 791 735 728 728 728 687 0 0 669 681 675 681 675 675 687 681 663 663 639 639 210 210 209 209 0 0 0 0 0 0 0 561 561 0 0 0 0 86 86 504 507 500 493 500 497 514 500 490 0 471 432 402 427 440 446 0 0 0 0 0 446 0 0 0 0 0 0 0 0 0 0 0 0 0 0 0 0 0 0 0 0 0 0 0 0 0 0
    0 0 0 0 0 0 0 0 0 0 0 0 0 0 0 0 0 0 0 0 0 0 0 0 0 0 0 0 0 0 0 0 0 0 0 0 0 0 0 0 0 0 0 0 0 0 0 0 0 0 0 0 0 0 0 0 0 0 0 0 0 0 0 0 0 0 0 0 0 1415 1388 1362 1388 1388 1415 1415 1443 1533 1501 1635 1795 1795 2044 2102 2102 2164 2164 2164 2374 2044 2102 2164 2102 2102 2102 2102 2164 2164 2453 2628 2537 2453 2628 2537 2628 2628 2628 2943 2943 3066 3066 3066 3345 3504 3873 5256 6133 6690 0 7359 0 0 0 0 0 0 0 0 0 0 0 0 8177 0 0 0 0 0 0 0 8177 7359 7359 6690 6690 6690 6133 6133 5661 6133 6133 6690 6690 6690 7359 7359 8177 8177 7359 8177 8177 0 8177 8177 8177 8177 0 8177 8177 7359 6690 7359 6690 6133 3873 0 0 2537 2537 2164 2299 2299 2299 2164 2374 2230 2299 1936 2102 1887 1887 1839 1839 1635 1533 1565 1795 1635 1362 1226 0 174 1206 1168 1168 1168 1132 0 1206 1168 0 561 1149 1082 1098 1115 1115 1115 1066 0 0 0 0 0 0 0 826 826 817 808 808 799 782 799 735 728 735 728 687 0 0 663 675 669 675 669 663 681 675 657 657 639 639 0 210 209 209 0 0 0 0 0 0 0 566 566 0 0 0 0 86 86 504 504 500 493 497 497 507 497 484 487 465 438 420 438 440 446 0 0 0 0 0 446 0 0 0 0 0 0 0 0 0 0 0 0 0 0 0 0 0 0 0 0 0 0 0 0 0 0
    0 0 0 0 0 0 0 0 0 0 0 0 0 0 0 0 0 0 0 0 0 0 0 0 0 0 0 0 0 0 0 0 0 0 0 0 0 0 0 0 0 0 0 0 0 0 0 0 0 0 0 0 0 0 0 0 0 0 0 0 0 0 0 0 0 0 0 0 0 1388 1388 1362 1388 1388 1415 1415 1443 1533 1501 1635 1752 1752 1989 2102 2102 2164 2164 2164 2299 2044 2102 2164 2102 2102 2102 2102 2164 2164 2374 2628 2537 2453 2628 2537 2628 2628 2628 2830 2943 3066 3066 2943 3345 3345 3679 4906 6133 7359 0 8177 0 0 0 0 0 0 0 0 0 0 0 0 8177 0 0 0 0 0 0 0 0 8177 7359 6690 7359 6690 6690 6133 5661 6133 6133 6133 6690 6690 7359 7359 8177 8177 7359 8177 8177 0 8177 8177 8177 8177 0 8177 8177 7359 6690 7359 6690 6133 0 0 0 0 2628 2230 2299 2299 2299 2164 2374 2230 2299 1989 2164 1936 1936 1887 1887 1672 1635 1635 1839 1672 1388 1226 177 175 1206 0 1168 1168 1132 0 1206 1168 0 566 1149 1082 1098 0 1098 1115 1066 0 0 0 359 360 362 0 817 826 817 808 808 799 782 799 743 728 735 728 687 0 675 663 675 663 675 663 657 675 663 651 651 634 639 0 210 209 0 0 0 0 0 0 0 0 570 566 557 0 0 0 0 86 504 500 497 490 493 493 500 497 481 477 465 443 435 438 440 446 0 446 0 0 0 0 0 0 0 0 0 0 0 0 0 0 0 0 0 0 0 0 0 0 0 0 0 0 0 0 0 0
    0 0 0 0 0 0 0 0 0 0 0 0 0 0 0 0 0 0 0 0 0 0 0 0 0 0 0 0 0 0 0 0 0 0 0 0 0 0 0 0 0 0 0 0 0 0 0 0 0 0 0 0 0 0 0 0 0 0 0 0 0 0 0 0 0 0 0 0 0 1388 1388 1338 1388 1388 1415 1415 1443 1533 1533 1635 1752 1752 1989 2044 2102 2164 2164 2164 2299 2044 2044 2164 2102 2102 2102 2102 2164 2164 2374 2537 2537 2453 2628 2537 2628 2628 2628 2830 2943 2943 2943 2943 3199 3345 3679 4599 5661 6690 0 8177 0 0 0 0 0 0 0 0 0 0 0 0 8177 0 0 8177 0 8177 0 0 8177 8177 7359 6690 7359 6690 6690 6133 5661 6133 6133 6133 6690 6690 7359 6690 7359 8177 7359 8177 8177 0 8177 8177 8177 8177 0 8177 7359 6690 6690 6690 6690 6690 4088 0 0 0 0 2164 2299 2299 2299 2164 2374 2230 2299 1989 2230 1989 1936 1936 1936 1711 1672 1711 1887 1711 1362 1226 177 175 1206 1187 1149 1168 1132 0 1206 1168 0 566 1149 0 0 0 1098 1115 1066 0 0 347 357 360 360 817 817 817 808 808 808 799 782 799 743 728 735 728 687 0 681 657 669 657 669 657 657 669 657 645 645 634 645 0 210 209 0 0 0 0 0 0 0 0 570 566 557 0 0 0 0 0 507 500 497 490 0 493 497 497 481 0 465 448 440 440 443 448 446 448 0 0 0 0 0 0 0 0 0 0 0 0 0 0 0 0 0 0 0 0 0 0 0 93 0 0 0 0 0 0
    0 0 0 0 0 0 0 0 0 0 0 0 0 0 0 0 0 0 0 0 0 0 0 0 0 0 0 0 0 0 0 0 0 0 0 0 0 0 0 0 0 0 0 0 0 0 0 0 0 0 0 0 0 0 0 0 0 0 0 0 0 0 0 0 0 0 0 0 0 1388 1362 1338 1362 1362 1415 1388 1443 1533 1533 1635 1752 1752 1989 2102 2102 2164 2164 2164 2230 2044 2044 2102 2044 2044 2102 2102 2164 2164 2374 2537 2453 2374 2628 2453 2537 2628 2628 2725 2830 2943 2943 2943 3199 3345 3504 4088 4906 5661 7359 6690 0 0 0 0 0 0 0 0 0 0 0 0 8177 8177 0 8177 0 8177 0 8177 7359 6690 6690 6690 6690 6133 6690 6133 5661 6133 6133 6133 6690 6690 7359 6690 7359 7359 7359 8177 8177 8177 8177 7359 8177 8177 0 8177 7359 6690 6690 6690 6690 6690 4088 0 0 0 0 2164 2299 2299 2230 2102 2374 2230 2374 1989 2230 1989 1989 1936 1936 1752 1711 1752 1887 1711 1362 1226 177 175 1187 1187 1149 1168 1132 0 1206 1168 1115 566 1132 0 0 0 1082 1098 0 0 0 348 357 360 360 0 817 817 808 808 808 799 791 808 750 728 735 728 0 0 681 657 669 657 669 657 651 669 657 645 651 639 645 104 210 210 0 0 0 0 0 0 0 0 570 566 557 0 0 0 0 0 0 0 497 490 0 490 497 500 0 0 468 454 443 443 446 448 446 448 0 0 0 0 0 0 0 0 0 0 0 0 0 0 0 0 0 0 0 0 0 0 93 93 93 0 0 0 0 0
    0 0 0 0 0 0 0 0 0 0 0 0 0 0 0 0 0 0 0 0 0 0 0 0 0 0 0 0 0 0 0 0 0 0 0 0 0 0 0 0 0 0 0 0 0 0 0 0 0 0 0 0 0 0 0 0 0 0 0 0 0 0 0 0 0 0 0 0 0 1362 1338 1338 1362 1362 1388 1388 1443 1533 1533 1672 1752 1752 1989 2102 2102 2164 2164 2164 2230 2044 2044 2102 2102 2044 2102 2102 2164 2164 2374 2537 2374 2374 2537 2453 2537 2628 2628 2628 2830 2943 2943 2943 3199 3345 3345 3873 4329 5256 6690 6133 8177 0 0 0 0 0 0 0 0 0 0 0 8177 7359 8177 8177 8177 8177 8177 7359 6690 6690 6690 6133 6690 6133 6133 6133 5661 6133 6133 6133 6690 6690 7359 6690 7359 7359 7359 7359 8177 8177 8177 8177 8177 8177 0 8177 7359 6690 6690 6690 6690 6690 4088 0 0 86 0 2164 2299 2299 2230 2102 2374 2230 2374 1989 2230 1989 1936 1936 1936 1752 1711 1752 1839 1711 1362 1226 177 175 1187 1187 1149 1168 1149 1168 1206 1168 1115 0 0 0 0 0 1082 1098 0 0 353 350 359 360 360 0 817 826 817 808 808 808 791 817 758 735 743 735 0 0 681 657 669 657 669 657 657 669 657 651 651 645 651 104 0 210 0 104 0 0 0 0 0 0 566 561 553 0 0 0 0 0 514 500 497 493 75 493 493 500 0 0 471 462 451 446 446 451 448 448 0 0 0 0 0 0 0 0 0 0 0 0 0 0 0 0 0 0 0 0 0 0 93 93 93 0 0 0 0 0
    0 0 0 0 0 0 0 0 0 0 0 0 0 0 0 0 0 0 0 0 0 0 0 0 0 0 0 0 0 0 0 0 0 0 0 0 0 0 0 0 0 0 0 0 0 0 0 0 0 0 0 0 0 0 0 0 0 0 0 0 0 0 0 0 0 0 0 0 0 1362 1338 1338 1362 1362 1388 1388 1443 1533 1565 1672 1752 1795 2044 2102 2102 2164 2164 2230 2230 2044 2044 2164 2102 2044 2164 2164 2230 2230 2374 2537 2374 2374 2537 2453 2537 2537 2537 2628 2830 2830 2943 2943 3199 3199 3345 3679 3873 4599 5661 5661 7359 8177 8177 0 0 0 0 8177 0 8177 8177 8177 7359 7359 8177 8177 8177 8177 8177 7359 6690 6690 6690 6133 6690 6133 6690 6690 6133 6133 6690 6133 7359 6690 7359 6690 7359 8177 8177 8177 8177 8177 8177 7359 8177 8177 0 8177 7359 6690 6690 6690 6690 6690 4088 0 0 0 2537 2164 2230 2230 2230 2102 2374 2164 2374 1989 2164 1936 1936 1936 1936 1752 1752 1752 1795 1752 1362 1247 177 175 1206 1206 1149 1187 1168 1187 1206 1168 1115 0 0 0 0 0 1082 1098 0 0 353 350 0 360 360 0 826 826 817 817 0 0 799 817 766 735 750 735 0 0 687 657 675 657 669 663 657 675 657 651 651 645 657 104 104 210 0 104 0 104 0 104 106 0 566 557 0 0 0 0 4088 0 518 500 497 493 75 0 493 500 2628 0 0 0 0 451 448 454 448 448 0 0 0 0 0 0 0 0 0 0 0 0 0 0 0 0 0 0 0 0 0 0 0 0 0 0 0 0 0 0
    0 0 0 0 0 0 0 0 0 0 0 0 0 0 0 0 0 0 0 0 0 0 0 0 0 0 0 0 0 0 0 0 0 0 0 0 0 0 0 0 0 0 0 0 0 0 0 0 0 0 0 0 0 0 0 0 0 0 0 0 0 0 0 0 0 0 0 0 0 1388 1338 1338 1362 1362 1415 1388 1471 1599 1635 1752 1795 1839 2044 2102 2044 2102 2164 2230 2230 1989 2044 2164 2102 2044 2230 2230 2230 2230 2374 2537 2374 2374 2537 2453 2453 2537 2537 2628 2725 2830 2943 2943 3066 3199 3345 3504 3679 4599 5256 5661 6690 7359 7359 8177 8177 8177 7359 7359 7359 7359 7359 7359 7359 6690 7359 7359 8177 8177 8177 7359 7359 6690 7359 6690 6690 6690 6690 6690 6133 6133 6690 6133 7359 6690 7359 7359 7359 8177 8177 8177 8177 8177 8177 8177 0 0 0 8177 8177 6690 6690 6690 6690 6133 3679 2830 2830 2374 2537 2164 2230 2230 2230 2102 2299 2102 2299 1989 2102 1936 1936 1887 1936 1795 1752 1752 1795 1752 1388 1268 0 175 1226 1226 1168 1187 1187 1187 1206 1187 1115 0 0 0 0 0 1082 1082 355 350 353 350 0 360 360 0 826 836 826 826 0 0 808 826 774 743 758 743 0 86 0 0 675 663 675 663 657 675 657 657 657 651 663 104 104 0 0 104 104 104 0 104 106 0 561 557 549 0 0 0 3873 0 518 500 493 493 75 0 0 0 0 0 0 0 462 454 451 454 451 451 448 448 0 0 0 0 0 0 0 0 0 0 0 0 0 0 0 0 0 0 0 369 369 0 0 0 0 0 0 0
    0 0 0 0 0 0 0 0 0 0 0 0 0 0 0 0 0 0 0 0 0 0 0 0 0 0 0 0 0 0 0 0 0 0 0 0 0 0 0 0 0 0 0 0 0 0 0 0 0 0 0 0 0 0 0 0 0 0 0 0 0 0 0 0 0 0 0 0 0 1415 1338 1338 1362 1362 1415 1415 1533 1635 1711 1752 1839 1839 1989 2044 2044 2044 2164 2164 2164 1989 2044 2164 2102 2044 2230 2230 2299 2299 2374 2453 2374 2374 2537 2453 2453 2537 2537 2537 2725 2725 2830 2943 3066 3066 3199 3345 3504 4329 4906 5256 6133 6690 6690 6690 6690 7359 6133 6133 6133 6133 6133 6690 6690 6690 7359 7359 8177 8177 9199 8177 7359 7359 7359 6690 7359 6690 6690 6690 6133 6690 7359 6690 7359 7359 7359 7359 8177 8177 8177 8177 8177 8177 0 8177 0 0 0 8177 8177 6690 6133 6133 6133 5661 3504 2628 2830 0 2453 2164 2164 2164 2164 2102 2230 2102 2230 1936 1989 1887 1887 1839 1887 1752 1752 1711 1752 1752 1388 1268 0 175 1226 1247 1168 1206 1206 1206 1226 1187 1132 0 0 0 0 0 1066 1082 0 0 353 350 0 360 360 0 836 836 826 826 0 106 0 826 782 743 758 743 0 86 0 0 675 663 675 663 657 675 657 657 657 651 663 104 104 0 0 104 104 0 0 104 106 0 557 553 549 0 0 533 0 0 518 500 493 493 75 75 0 147 0 0 0 0 465 454 454 457 451 451 448 446 0 0 0 0 0 0 0 0 0 0 0 0 0 0 0 0 0 0 0 367 367 366 362 0 0 0 0 0
    0 0 0 0 0 0 0 0 0 0 0 0 0 0 0 0 0 0 0 0 0 0 0 0 0 0 0 0 0 0 0 0 0 0 0 0 0 0 0 0 0 0 0 0 0 0 0 0 0 0 0 0 0 0 0 0 0 0 0 0 0 0 0 0 0 0 0 0 0 1443 1362 1362 1388 1362 1443 1415 1599 1672 1752 1839 1839 1887 1989 2044 1989 2044 2164 2164 2164 1989 2044 2164 2102 2044 2230 2230 2299 2299 2374 2453 2299 2374 2537 2453 2453 2453 2453 2537 2628 2725 2830 2830 2943 3066 3199 3199 3345 3873 4599 4906 5661 6133 6133 5661 6133 6133 5661 5661 5661 5661 5661 6133 6690 6690 7359 6690 7359 8177 8177 7359 6690 6690 6690 6690 7359 6690 6690 6690 6690 6690 7359 6690 7359 7359 8177 7359 8177 8177 0 8177 0 8177 0 8177 8177 0 8177 8177 7359 6690 6133 6133 6133 5661 3504 2453 2725 2230 2374 2164 2164 2164 2164 2102 2230 2044 2230 1936 1887 1839 1795 1795 1839 1752 1711 1672 1672 1795 1388 1291 0 0 1247 1247 1187 1226 1206 1206 1206 1187 1132 0 0 0 0 0 0 0 0 0 353 348 0 0 0 836 836 845 836 836 0 106 0 836 791 743 758 743 0 0 687 663 675 663 675 663 657 675 657 657 657 651 663 104 104 104 104 104 103 0 0 104 106 0 0 549 545 0 537 533 0 0 518 500 493 497 75 75 0 0 0 0 0 0 465 457 454 457 454 451 0 446 0 0 0 0 0 0 0 0 0 422 0 0 0 0 0 0 371 367 364 367 367 366 364 0 0 0 0 0
    0 0 0 0 0 0 0 0 0 0 0 0 0 0 0 0 0 0 0 0 0 0 0 0 0 0 0 0 0 0 0 0 0 0 0 0 0 0 0 0 0 0 0 0 0 0 0 0 0 0 0 0 0 0 0 0 0 0 0 0 0 0 0 0 0 0 0 0 0 1471 1388 1388 1388 1388 1501 1471 1711 1752 1839 1887 1887 1887 1989 2044 1989 1989 2102 2164 2164 1989 2102 2164 2164 2044 2230 2299 2299 2299 2374 2453 2299 2299 2453 2374 2453 2453 2453 2453 2628 2725 2725 2830 2943 2943 3066 3199 3345 3873 4329 4906 5256 5661 6133 5661 5661 6133 5661 5661 5661 5661 5661 6133 6690 6133 6690 6133 6690 7359 7359 7359 6133 6133 6133 6690 7359 7359 6690 6690 6690 6690 7359 7359 7359 7359 8177 7359 8177 8177 0 8177 0 8177 0 8177 8177 8177 8177 7359 7359 6690 6690 6133 6133 6133 3345 2230 2628 2164 2374 2230 2164 2164 2164 2102 2230 2044 2164 1887 1839 1795 1752 1752 1752 1711 1672 1635 1635 1752 1388 1291 0 0 1226 1247 1187 1226 1206 1206 1206 1187 1132 0 0 0 0 0 0 0 0 0 353 348 0 0 0 845 845 855 845 836 836 0 0 836 791 743 758 735 0 0 687 663 675 663 675 669 663 675 663 663 663 651 669 104 104 104 104 104 103 104 104 104 106 0 0 549 545 0 533 533 521 525 521 500 497 497 75 0 0 0 0 0 0 0 468 462 457 459 454 451 0 0 0 0 0 432 425 0 415 418 420 422 415 0 0 0 0 0 371 366 364 367 367 367 364 0 0 0 0 0
    0 0 0 0 0 0 0 0 0 0 0 0 0 0 0 0 0 0 0 0 0 0 0 0 0 0 0 0 0 0 0 0 0 0 0 0 0 0 0 0 0 0 0 0 0 0 0 0 0 0 0 0 0 0 0 0 0 0 0 0 0 0 0 0 0 0 0 0 0 1501 1415 1415 1443 1415 1599 1599 1839 1839 1887 1936 1936 1936 1989 2044 1989 1989 2102 2164 2164 1989 2102 2164 2164 2044 2299 2299 2299 2299 2374 2374 2299 2299 2453 2374 2374 2453 2453 2453 2537 2628 2628 2830 2830 2943 3066 3066 3345 3679 4088 4599 4906 5661 5661 5256 5661 6133 5661 5661 5661 5661 5661 6133 6690 6690 6690 6133 6690 6690 6690 6690 6133 5661 6133 6690 6690 6690 6690 6690 6690 6133 7359 6690 7359 7359 7359 7359 7359 8177 8177 8177 8177 8177 8177 8177 8177 8177 8177 7359 7359 6690 6690 6133 6133 6133 3345 2164 2537 2164 2374 2230 2102 2164 2164 2102 2164 2044 2164 1887 1795 1795 1711 1672 1711 1711 1635 1565 1565 1752 1415 1314 1362 1338 1226 1247 1168 1206 1206 1187 1187 1187 1132 557 0 0 0 0 0 0 0 0 352 347 0 0 0 855 855 855 855 845 845 0 826 836 799 743 758 735 0 0 687 663 675 663 675 669 663 681 663 669 669 657 675 104 104 104 104 104 103 104 104 104 106 0 0 549 545 0 533 529 518 521 521 504 497 500 0 0 0 497 0 0 0 474 471 462 459 459 454 448 0 0 0 0 435 430 425 420 420 422 425 425 420 0 0 0 0 0 371 367 366 367 369 369 367 0 0 0 0 0
    0 0 0 0 0 0 0 0 0 0 0 0 0 0 0 0 0 0 0 0 0 0 0 0 0 0 0 0 0 0 0 0 0 0 0 0 0 0 0 0 0 0 0 0 0 0 0 0 0 0 0 0 0 0 0 0 0 0 0 0 0 0 0 0 0 0 0 0 0 1501 1471 1471 1501 1471 1635 1672 1839 1839 1936 1936 1936 1936 1989 2044 1989 1989 2102 2164 2164 1989 2102 2164 2164 2044 2299 2299 2299 2299 2374 2374 2299 2374 2453 2374 2374 2374 2374 2374 2537 2628 2537 2830 2830 2943 2943 2943 3199 3679 4088 4329 4599 5256 5661 5256 5661 6133 5661 5661 5661 5661 6133 6133 6690 6690 7359 6690 7359 7359 7359 7359 6133 5661 6133 6690 6690 6690 7359 6690 6690 6690 7359 6690 7359 7359 7359 6690 6690 7359 8177 7359 8177 7359 8177 8177 7359 8177 8177 7359 7359 6690 6133 5661 5661 6133 3345 2299 2628 2164 2374 2299 2102 2230 2230 2102 2164 2044 2102 1887 1752 1752 1672 1635 1672 1672 1599 1565 1533 1752 1471 1338 1362 1338 1206 1226 1168 1206 1187 1187 1187 1187 1132 0 0 0 0 0 0 0 0 0 0 345 0 0 0 865 865 865 865 845 845 845 836 836 799 750 758 743 158 159 694 669 681 0 0 675 669 681 669 669 669 663 675 0 0 104 104 104 103 104 104 104 0 0 0 545 545 0 533 529 518 521 521 504 500 500 0 0 0 500 0 0 0 474 471 462 457 457 451 0 0 0 432 432 435 430 425 422 422 425 427 427 422 406 0 0 0 0 371 367 366 369 369 371 371 0 0 0 0 0
    0 0 0 0 0 0 0 0 0 0 0 0 0 0 0 0 0 0 0 0 0 0 0 0 0 0 0 0 0 0 0 0 0 0 0 0 0 0 0 0 0 0 0 0 0 0 0 0 0 0 0 0 0 0 0 0 0 0 0 0 0 0 0 0 0 0 0 0 0 1533 1501 1533 1565 1565 1672 1752 1839 1839 1936 1936 1936 1936 1989 2044 1989 1989 2102 2102 2164 1989 2102 2230 2164 2044 2299 2299 2299 2299 2374 2374 2299 2374 2453 2374 2374 2374 2453 2374 2537 2628 2537 2725 2725 2830 2943 2943 3199 3504 3873 4088 4088 4906 5256 5256 5256 6133 5661 6133 5661 6133 6133 7359 7359 7359 8177 7359 7359 7359 7359 7359 6133 6133 6690 6690 6690 6690 7359 6690 6690 6690 7359 6690 7359 7359 7359 7359 6690 7359 8177 8177 8177 7359 8177 7359 7359 8177 8177 7359 7359 6690 6690 5661 5661 6133 3345 2299 2628 2230 2374 2299 2102 2230 2230 2102 2164 1989 2102 1887 1711 1752 1672 1635 1635 1672 1565 1533 1501 1711 1501 1362 1338 1314 1206 1226 1168 1206 1187 1168 1168 1187 1132 0 0 1098 1036 1051 0 1036 0 0 0 0 0 0 0 876 876 876 876 855 855 845 836 836 799 750 758 743 0 0 0 0 0 0 0 681 675 687 675 669 669 657 675 0 0 0 0 104 103 104 103 104 0 0 0 549 545 0 533 529 514 521 521 504 500 500 0 493 493 500 484 0 0 474 471 459 457 454 448 440 0 430 432 432 435 432 427 425 425 427 430 430 425 408 0 0 0 0 373 367 369 373 373 375 379 0 0 0 0 0
    0 0 0 0 0 0 0 0 0 0 0 0 0 0 0 0 0 0 0 0 0 0 0 0 0 0 0 0 0 0 0 0 0 0 0 0 0 0 0 0 0 0 0 0 0 0 0 0 0 0 0 0 0 0 0 0 0 0 0 0 0 0 0 0 0 0 0 0 0 1599 1533 1565 1599 1635 1711 1795 1839 1839 1936 1936 1989 1936 1989 1989 1989 1989 2102 2102 2164 1936 2102 2230 2164 2044 2299 2299 2299 2299 2453 2453 2299 2374 2453 2374 2374 2374 2374 2374 2453 2537 2453 2725 2725 2725 2830 2830 3066 3345 3504 4088 3873 4599 4906 4906 5256 6133 5661 6133 5661 6133 6690 7359 7359 8177 8177 7359 7359 7359 7359 7359 6133 6133 6690 6690 6690 6690 7359 6690 6690 6690 6690 6133 6690 6690 6690 6690 6133 6690 7359 7359 8177 7359 8177 7359 7359 8177 8177 7359 7359 6690 6690 5661 5256 5661 3345 2299 2725 2230 2453 2453 2164 2299 2299 2164 2164 2044 2102 1887 1711 1752 1672 1599 1599 1672 1565 1533 1501 1711 1501 1362 1314 1314 1206 1226 1149 1206 1187 1168 1168 1187 1132 0 0 1098 1036 1051 0 1036 0 0 0 0 931 0 865 876 876 886 876 855 845 845 826 826 799 750 750 743 0 0 0 0 0 76 681 681 681 687 675 669 669 651 669 0 623 0 0 103 0 104 103 104 0 0 0 549 545 545 533 533 511 521 521 507 504 504 0 493 493 504 484 477 0 474 471 459 457 454 446 438 0 425 430 430 435 432 430 427 427 430 432 430 427 411 0 0 0 0 373 371 373 379 377 383 387 0 0 0 0 0
    0 0 0 0 0 0 0 0 0 0 0 0 0 0 0 0 0 0 0 0 0 0 0 0 0 0 0 0 0 0 0 0 0 0 0 0 0 0 0 0 0 0 0 0 0 0 0 0 0 0 0 0 0 0 0 0 0 0 0 0 0 0 0 0 0 0 0 0 0 1635 1565 1599 1635 1672 1752 1839 1839 1839 1936 1936 1936 1936 1989 1989 1936 1989 2102 2044 2102 1936 2102 2230 2164 2044 2299 2299 2299 2299 2453 2453 2374 2374 2453 2374 2374 2374 2374 2374 2453 2537 2453 2725 2725 2725 2830 2830 3066 3345 3504 3873 3873 4329 4906 4906 5256 6133 5661 6133 6133 6690 6690 7359 8177 8177 8177 7359 7359 7359 7359 7359 6690 6133 6690 6690 6690 6690 6690 6690 6133 6133 6690 6133 6133 6133 6690 6133 6133 6690 6690 7359 8177 7359 8177 8177 8177 8177 8177 8177 7359 6690 6690 6133 5256 5661 3345 2453 2830 2374 2537 2537 2230 2374 2374 2230 2299 2102 2164 1887 1752 1752 1672 1635 1599 1672 1565 1501 1471 1672 1471 1362 1314 0 1187 1226 1149 1187 1187 1149 1149 1187 1115 0 1098 1098 1036 1051 0 0 0 0 0 0 931 955 876 876 876 886 876 855 845 836 826 826 808 743 750 735 0 0 0 0 0 76 0 687 681 687 675 675 669 645 657 0 618 210 207 103 0 103 103 103 0 0 579 553 549 545 537 533 511 521 521 507 507 504 0 497 497 507 487 481 477 477 474 465 459 454 443 432 0 418 427 430 435 435 430 430 430 430 432 430 427 411 0 0 0 0 373 371 373 381 379 383 389 0 0 0 0 0
    0 0 0 0 0 0 0 0 0 0 0 0 0 0 0 0 0 0 0 0 0 0 0 0 0 0 0 0 0 0 0 0 0 0 0 0 0 0 0 0 0 0 0 0 0 0 0 0 0 0 0 0 0 0 0 0 0 0 0 0 0 0 0 0 0 0 0 0 0 1635 1565 1599 1672 1711 1795 1839 1839 1839 1936 1936 1989 1936 1936 1989 1936 1989 2102 2044 2102 1936 2044 2230 2164 2044 2299 2374 2374 2374 2453 2453 2374 2374 2453 2374 2374 2374 2374 2299 2453 2537 2453 2725 2725 2725 2725 2725 2943 3199 3345 3873 3679 3873 4906 4906 5256 6133 6133 6133 6133 6690 7359 8177 8177 0 0 8177 8177 8177 8177 8177 7359 6690 6690 6690 7359 6690 6690 6690 6133 6133 6133 5661 5661 5661 5661 5661 5256 6133 6690 7359 7359 7359 8177 8177 8177 0 8177 8177 7359 6690 6690 6133 5661 6133 3504 2537 3066 2453 2628 2725 2374 2537 2537 2374 2374 2230 2299 1936 1795 1795 1711 1635 1599 1672 1565 1471 1443 1672 1471 1362 0 0 1187 1206 1149 1187 1187 1149 1149 1187 1132 0 1098 1098 1036 1051 0 0 0 0 0 0 943 955 876 876 876 876 876 845 836 836 817 817 808 743 743 735 0 0 0 0 0 0 0 687 681 687 681 675 675 645 651 0 608 210 207 103 0 103 103 103 0 0 588 557 553 549 537 537 511 521 525 511 511 507 0 500 500 518 493 484 0 0 0 481 0 459 0 0 0 0 425 430 0 435 432 430 430 430 432 430 427 413 0 0 0 0 0 375 375 383 383 383 389 0 0 0 0 0
    0 0 0 0 0 0 0 0 0 0 0 0 0 0 0 0 0 0 0 0 0 0 0 0 0 0 0 0 0 0 0 0 0 0 0 0 0 0 0 0 0 0 0 0 0 0 0 0 0 0 0 0 0 0 0 0 0 0 0 0 0 0 0 0 0 0 0 0 0 1635 1599 1599 1672 1711 1795 1839 1839 1839 1936 1936 1989 1936 1936 1989 1936 1989 2102 2102 2164 1936 2102 2230 2164 2044 2374 2374 2374 2374 2453 2453 2374 2374 2453 2374 2374 2374 2374 2299 2453 2453 2374 2725 2628 2725 2725 2725 2943 3066 3199 3679 3504 3873 4906 5256 5256 6133 6690 6690 6133 6690 7359 8177 8177 0 0 8177 7359 8177 0 8177 8177 6690 7359 7359 7359 6690 7359 6133 5661 6133 5661 5256 5661 5661 5256 5256 4906 5661 5661 7359 7359 7359 8177 8177 8177 0 8177 0 7359 6690 7359 6133 5661 5661 3679 3066 3199 2830 2943 2943 2628 2628 2628 2537 2453 2299 2374 1989 1795 1795 1711 1635 1599 1635 1565 1471 1443 1635 1471 1388 1291 1291 1187 1206 1149 1187 1187 1149 1149 1187 1132 0 1098 1098 1036 1051 0 0 0 0 0 968 943 955 876 865 865 876 865 845 836 826 817 808 799 743 743 735 0 0 0 0 0 0 0 687 681 687 681 675 675 645 645 634 608 210 207 0 0 103 103 0 0 0 0 561 553 549 541 537 511 521 525 514 514 507 0 507 507 521 500 487 0 0 0 0 360 0 0 721 721 743 0 0 0 0 432 430 430 430 432 430 427 415 0 0 159 0 375 377 379 385 385 383 387 0 0 0 0 0
    0 0 0 0 0 0 0 0 0 0 0 0 0 0 0 0 0 0 0 0 0 0 0 0 0 0 0 0 0 0 0 0 0 0 0 0 0 0 0 0 0 0 0 0 0 0 0 0 0 0 0 0 0 0 0 0 0 0 0 0 0 0 0 0 0 0 0 0 0 1635 1599 1599 1672 1711 1752 1839 0 0 1936 1936 1936 1936 1936 1989 1936 1989 2164 2102 2164 1989 2044 2230 2164 2044 2374 2374 2374 2374 2453 2537 2453 2374 2453 2374 2374 2374 2374 2299 2453 2453 2453 2725 2725 2725 2725 2725 2943 3066 3199 3679 3504 3679 4906 5256 4906 6133 6690 6690 5661 5661 7359 6690 7359 8177 8177 7359 7359 8177 0 8177 8177 7359 7359 7359 7359 6690 7359 6133 5661 6133 5661 5256 5256 5256 5256 5256 4906 5661 5661 6690 7359 7359 8177 8177 8177 0 8177 0 8177 6690 6690 5661 5661 5661 3873 3199 3504 3066 3066 3066 2725 2725 2725 2628 2537 2299 2374 1989 1795 1795 1672 1635 1565 1635 1565 1501 1471 1635 1501 1388 1291 1291 1206 1226 1149 1187 1187 1149 1149 1206 1149 0 1115 1115 1051 1051 0 0 0 0 0 968 931 955 876 865 855 865 865 836 826 817 808 808 799 743 735 735 728 0 0 0 0 0 0 687 681 687 687 675 675 645 639 634 603 210 207 206 0 103 103 0 0 0 0 570 557 557 545 541 511 521 525 514 518 511 500 507 507 521 504 487 0 0 0 0 359 0 758 728 735 743 0 0 0 0 432 430 430 430 432 427 427 418 404 0 159 0 375 381 383 387 385 383 387 0 0 0 0 0
    0 0 0 0 0 0 0 0 0 0 0 0 0 0 0 0 0 0 0 0 0 0 0 0 0 0 0 0 0 0 0 0 0 0 0 0 0 0 0 0 0 0 0 0 0 0 0 0 0 0 0 0 0 0 0 0 0 0 0 0 0 0 0 0 0 0 0 0 0 1672 1635 1635 1711 1711 1752 1795 0 0 1887 1887 1936 1887 1936 1936 1936 1989 2102 2102 2164 1989 2044 2230 2164 2044 2374 2374 2374 2374 2453 2537 2453 2374 2453 2374 2299 2374 2453 2299 2453 2374 2453 2725 2725 2725 2725 2725 2943 2943 3199 3679 3504 3504 4599 4906 4906 5256 5256 5661 4329 4599 6690 6690 7359 8177 0 8177 8177 0 0 0 0 8177 8177 8177 7359 7359 7359 6133 5661 6133 5256 5256 5256 5256 5256 5256 4906 5661 5661 6690 7359 7359 7359 8177 8177 0 0 0 8177 6690 6690 5661 5661 4906 3679 3345 3504 3199 3345 3199 2830 2830 2830 2725 2537 2374 2299 1989 1795 1795 1711 1635 1599 1635 1565 1471 1471 1635 1501 1388 1291 1291 1206 1247 1168 1206 1187 1149 1149 1206 1149 0 0 1115 1036 1051 0 0 0 0 0 968 931 968 876 855 855 855 855 836 826 817 808 799 799 743 735 735 728 0 0 0 0 694 681 687 681 681 681 675 669 645 634 639 603 210 207 206 0 0 0 0 0 0 608 579 566 566 553 545 511 521 525 514 518 511 500 504 507 518 504 490 0 0 0 0 0 0 774 735 743 750 774 0 0 0 0 430 430 427 0 427 425 420 406 0 0 381 375 385 385 389 387 383 387 0 0 0 0 0
    0 0 0 0 0 0 0 0 0 0 0 0 0 0 0 0 0 0 0 0 0 0 0 0 0 0 0 0 0 0 0 0 0 0 0 0 0 0 0 0 0 0 0 0 0 0 0 0 0 0 0 0 0 0 0 0 0 0 0 0 0 0 0 0 0 0 0 0 0 1672 1599 1635 1711 1711 1752 1795 0 0 1887 1887 1936 1887 1936 1936 1936 1989 2102 2102 2164 1989 2044 2230 2164 2044 2374 2374 2374 2374 2453 2537 2453 2374 2453 2374 2299 2374 2453 2374 2453 2374 2453 2725 2725 2725 2725 2628 2830 2830 3066 3504 3345 3345 4088 4599 4329 4599 4599 5256 3873 4329 6690 6133 6690 7359 8177 8177 8177 0 0 0 0 0 8177 8177 8177 7359 7359 6690 6133 6133 5256 5661 5256 5256 5256 5256 4906 5661 5661 6690 7359 7359 8177 8177 8177 0 0 0 8177 6133 6690 5256 5256 4329 3873 3504 3679 3345 3504 3199 2830 2830 2830 2725 2537 2453 2374 2044 1839 1839 1711 1672 1599 1635 1565 1471 1443 1635 1501 1388 1314 1314 1247 1268 1206 1226 1206 1168 1168 1206 1168 0 1132 1115 1051 1051 1051 0 0 994 0 968 931 968 876 855 855 855 855 836 817 817 808 799 799 743 735 735 728 714 0 0 687 687 675 681 675 675 681 669 663 639 629 634 598 210 208 207 0 0 0 0 0 0 608 584 570 574 557 549 514 518 525 511 518 511 497 504 504 514 507 487 0 0 0 0 0 0 782 743 750 758 782 0 0 0 0 432 432 427 0 427 425 422 406 0 0 383 375 385 387 389 387 381 385 0 0 0 0 0
    0 0 0 0 0 0 0 0 0 0 0 0 0 0 0 0 0 0 0 0 0 0 0 0 0 0 0 0 0 0 0 0 0 0 0 0 0 0 0 0 0 0 0 0 0 0 0 0 0 0 0 0 0 0 0 0 0 0 0 0 0 0 0 0 0 0 0 0 0 1672 1599 1635 1752 1752 1795 1839 0 0 1887 1887 1887 1887 1936 1936 1936 1936 2102 2102 2102 1989 2044 2230 2230 2044 2374 2453 2453 2453 2453 2537 2453 2374 2537 2374 2299 2299 2453 2374 2453 2374 2537 2725 2725 2725 2725 2628 2830 2830 2943 3345 3199 3066 3679 4329 3873 4088 3873 4329 3504 3679 5661 5256 6133 6690 7359 8177 7359 0 0 0 0 0 0 0 8177 7359 8177 6690 6133 6133 5256 5661 5661 5256 5256 5256 4906 5661 5661 6690 7359 7359 8177 8177 8177 0 0 0 8177 5256 5661 4329 4088 3679 3345 3345 3504 3345 3679 3199 2943 2943 2943 2830 2537 2453 2374 2102 1887 1887 1711 1672 1599 1635 1565 1471 1443 1599 1501 1388 1314 1314 1247 1268 1226 1226 1206 1168 1168 1226 1168 0 1132 1115 1051 1051 1051 1051 1022 994 994 968 931 968 876 855 855 855 855 836 826 817 808 799 799 743 735 735 728 707 0 0 681 687 669 681 675 675 681 669 657 639 629 639 0 209 208 207 0 0 0 0 0 0 603 584 574 579 561 557 518 518 525 511 514 507 497 500 504 507 504 487 0 0 0 0 0 0 791 750 758 758 782 0 0 0 0 432 432 427 427 425 422 422 406 0 0 385 377 387 389 391 389 383 385 0 0 0 0 0
    0 0 0 0 0 0 0 0 0 0 0 0 0 0 0 0 0 0 0 0 0 0 0 0 0 0 0 0 0 0 0 0 0 0 0 0 0 0 0 0 0 0 0 0 0 0 0 0 0 0 0 0 0 0 0 0 0 0 0 0 0 0 0 0 0 0 0 0 0 1672 1635 1635 1752 1795 1839 1839 0 0 1887 1887 1887 1887 1936 1936 1936 1936 2102 2102 2164 1989 2044 2230 2230 2102 2374 2453 2453 2453 2453 2628 2537 2374 2537 2453 2299 2299 2374 2374 2453 2374 2537 2725 2725 2725 2725 2628 2830 2725 2830 3199 3066 2943 3345 3679 3504 3504 3345 3345 3066 3066 4088 3679 4599 5256 6133 7359 6690 0 0 0 0 0 0 0 0 8177 8177 7359 6690 6690 5661 5661 5661 5256 5661 5661 5256 5661 5661 6690 7359 7359 8177 8177 0 0 0 0 7359 4906 5256 4088 3873 3504 3345 3345 3504 3345 3504 3199 2943 2943 2943 2830 2537 2453 2374 2164 1936 1936 1752 1711 1635 1635 1599 1501 1471 1599 1533 1415 1314 1314 1268 1268 1226 1226 1206 1187 1187 1226 1187 1187 1168 1132 1066 1066 1066 1051 1022 994 994 968 919 968 876 855 855 855 855 836 826 817 808 808 799 743 743 743 735 700 0 0 675 681 669 675 669 669 681 663 657 645 634 639 0 210 209 207 0 0 0 593 0 0 593 579 574 579 561 561 521 0 0 0 514 507 497 497 500 504 504 487 855 0 0 0 0 0 791 750 758 758 782 0 0 0 0 432 432 427 427 425 422 425 408 404 0 389 381 389 389 391 391 383 385 0 0 0 0 0
    0 0 0 0 0 0 0 0 0 0 0 0 0 0 0 0 0 0 0 0 0 0 0 0 0 0 0 0 0 0 0 0 0 0 0 0 0 0 0 0 0 0 0 0 0 0 0 0 0 0 0 0 0 0 0 0 0 0 0 0 0 0 0 0 0 0 0 0 0 1565 1599 1599 1711 1752 1795 1839 0 1795 1887 1887 1839 1839 1887 1936 1887 1936 2102 2102 2164 1989 2044 2299 2230 2102 2374 2453 2453 2453 2453 2628 2537 2453 2537 2453 2299 2299 2374 2374 2453 2374 2537 2628 2628 2725 2725 2628 2725 2725 2830 3066 3066 2830 3066 3199 3199 3199 3199 3066 2943 2830 3504 3345 3679 4088 5256 6690 6690 0 0 0 0 8177 0 0 0 8177 8177 8177 6690 6690 6133 6133 6133 5661 5661 5661 5661 6133 5661 6690 7359 7359 8177 8177 0 0 0 0 7359 4599 4599 3679 3679 3504 3345 3345 3504 3199 3345 3066 2943 2830 2830 2830 2537 2453 2374 2164 1989 1936 1795 1752 1672 1672 1635 1565 1501 1599 1565 1415 1314 1314 1268 1247 1226 1226 1206 1187 1187 1226 1187 1168 1149 1115 1066 1066 1051 1036 1008 994 994 968 931 968 865 855 845 845 845 836 826 817 808 808 808 743 743 743 735 700 687 687 669 681 663 675 663 663 675 663 657 651 639 645 0 0 0 0 0 0 0 579 0 0 0 570 570 579 566 574 0 0 0 0 514 507 497 493 497 500 504 0 855 0 0 0 0 0 0 0 758 750 782 0 0 0 0 432 432 430 427 427 425 427 411 408 0 0 387 391 391 393 391 383 385 0 0 0 0 0
    0 0 0 0 0 0 0 0 0 0 0 0 0 0 0 0 0 0 0 0 0 0 0 0 0 0 0 0 0 0 0 0 0 0 0 0 0 0 0 0 0 0 0 0 0 0 0 0 0 0 0 0 0 0 0 0 0 0 0 0 0 0 0 0 0 0 0 0 0 1338 1443 1471 1672 1672 1752 1795 1795 1795 1839 1839 1795 1839 1887 1936 1936 1936 2102 2102 2164 2044 2044 2299 2230 2102 2374 2453 2453 2453 2453 2628 2537 2374 2537 2453 2299 2299 2453 2453 2453 2374 2537 2628 2628 2725 2725 2628 2725 2725 2830 2943 2943 2725 2830 2830 2830 2830 2830 2830 2725 2628 3066 3066 3199 3199 3873 6133 6133 0 8177 8177 0 8177 0 0 0 0 0 8177 7359 7359 6133 6133 6133 6133 5661 5661 5256 5661 5661 6690 7359 7359 8177 8177 0 0 0 8177 7359 4599 4329 3504 3504 3345 3199 3345 3504 3066 3199 2943 2830 2830 2725 2725 2453 2374 2299 2164 1989 1936 1795 1752 1672 1672 1635 1599 1565 1635 1635 1443 1314 1338 1291 1268 1226 1226 1206 1187 1187 1226 1187 1149 1149 1098 1066 1051 1036 1008 994 981 994 968 943 968 865 845 845 845 845 826 817 817 808 808 799 750 743 750 735 694 687 681 663 675 663 675 663 663 675 663 651 657 639 645 608 0 0 0 0 0 0 574 0 0 566 566 570 579 570 584 0 0 0 0 0 507 497 493 497 497 504 0 855 0 0 2299 0 0 0 0 0 750 782 0 0 0 0 435 432 430 427 427 425 430 415 411 0 0 393 395 395 395 393 385 385 0 0 0 0 0
    0 0 0 0 0 0 0 0 0 0 0 0 0 0 0 0 0 0 0 0 0 0 0 0 0 0 0 0 0 0 0 0 0 0 0 0 0 0 0 0 0 0 0 0 0 0 0 0 0 0 0 0 0 0 0 0 0 0 0 0 0 0 0 0 0 0 0 0 0 1268 1338 1362 1565 1565 1672 1752 1752 1752 1795 1795 1795 1795 1839 1936 1936 1887 2164 2164 2164 2044 2044 2230 2230 2102 2374 2374 2374 2374 2453 2628 2628 2453 2537 2453 2374 2374 2453 2453 2537 2374 2537 2628 2628 2725 2725 2628 2725 2725 2830 2943 2943 2725 2725 2628 2537 2537 2453 2537 2628 2537 2830 2943 2943 2943 3345 5256 5256 8177 7359 8177 0 0 0 0 0 0 0 0 8177 8177 7359 6690 6690 6133 6133 5661 5661 5661 5661 6133 7359 7359 7359 8177 8177 0 0 7359 7359 4329 4088 3504 3345 3199 3199 3345 3345 3066 3066 2830 2725 2725 2725 2628 2453 2374 2299 2164 1989 1887 1752 1711 1672 1672 1635 1635 1599 1635 1672 1443 1314 1338 1291 1247 1247 1206 1206 1187 1187 1226 1168 1149 1168 1098 1066 1051 1022 1008 994 968 981 968 931 968 876 855 845 845 845 826 817 817 808 808 799 758 743 750 735 694 687 681 663 675 0 675 663 663 675 657 645 651 634 639 608 0 0 0 588 0 0 574 566 0 566 566 574 579 570 584 0 0 0 0 0 507 497 493 497 493 500 0 0 0 0 0 0 0 0 468 474 0 774 0 0 0 443 435 435 430 427 427 425 430 422 418 0 408 404 404 404 399 397 387 387 0 0 0 0 0
    0 0 0 0 0 0 0 0 0 0 0 0 0 0 0 0 0 0 0 0 0 0 0 0 0 0 0 0 0 0 0 0 0 0 0 0 0 0 0 0 0 0 0 0 0 0 0 0 0 0 0 0 0 0 0 0 0 0 0 0 0 0 0 0 0 0 0 0 0 1268 1338 1362 1501 1501 1599 1711 1711 1752 1795 1795 1752 1752 1839 1887 1936 1887 2102 2164 2164 2044 2044 2230 2230 2164 2374 2374 2374 2374 2453 2628 2628 2453 2628 2453 2374 2374 2453 2453 2537 2374 2537 2537 2628 2725 2725 2628 2725 2628 2830 2943 2943 2725 2537 2537 2453 2453 2374 2374 2537 2453 2537 2830 2628 2725 2943 3679 4599 8177 6690 7359 0 0 0 0 0 0 0 0 0 0 8177 6690 6690 6690 6690 6133 5661 6133 6133 6133 7359 7359 8177 8177 0 0 0 7359 6690 4329 3873 3345 3199 3066 3066 3199 3199 2943 2943 2725 2725 2725 2725 2628 2453 2374 2299 2230 2044 1887 1752 1752 1711 1672 1672 1672 1635 1635 1711 1471 1314 1362 1314 1247 1247 1226 1206 1206 1206 1226 1187 1149 1168 1098 1082 1051 1022 1008 994 968 968 968 943 968 876 865 845 845 845 826 817 817 808 808 799 758 743 750 735 700 694 687 663 675 663 675 663 663 675 651 645 651 634 634 613 603 0 593 593 593 0 574 566 0 570 570 584 579 574 588 0 0 0 0 0 507 500 497 497 493 497 0 0 0 0 0 0 474 477 468 474 468 0 0 0 446 443 435 435 430 427 430 427 430 422 420 420 415 413 408 411 406 399 393 391 0 0 0 0 0
    0 0 0 0 0 0 0 0 0 0 0 0 0 0 0 0 0 0 0 0 0 0 0 0 0 0 0 0 0 0 0 0 0 0 0 0 0 0 0 0 0 0 0 0 0 0 0 0 0 0 0 0 0 0 0 0 0 0 0 0 0 0 0 0 0 0 0 0 0 1291 1362 1388 1533 1533 1635 1711 1711 1752 1795 1795 1752 1752 1839 1887 1936 1887 2102 2164 2164 2044 2044 2230 2230 2164 2374 2374 2374 2374 2537 2725 2628 2453 2628 2453 2374 2374 2453 2453 2453 2299 2453 2453 2537 2628 2628 2537 2537 2628 2725 2830 2830 2628 2299 2374 2299 2299 2230 2299 2453 2374 2453 2725 2537 2537 2725 2943 4088 8177 6690 6690 0 0 0 0 0 0 0 0 0 0 0 7359 7359 6690 6690 6133 6133 6133 6133 6133 8177 8177 8177 8177 0 0 8177 6133 6133 4088 3679 3345 3199 3066 3066 3199 3199 2830 2830 2725 2725 2830 2725 2628 2537 2453 2374 2299 2164 1989 1795 1795 1752 1711 1672 1672 1635 1599 1672 1471 1314 1388 1338 1268 1247 1226 1226 1226 1206 1226 1187 1149 1206 1132 1149 1066 1022 1022 1022 994 994 994 981 981 876 865 855 845 845 826 817 817 808 808 799 766 750 758 743 700 694 687 669 681 669 675 669 663 675 645 645 645 639 639 618 608 608 598 598 593 588 579 566 574 574 574 588 579 579 588 0 0 0 0 0 0 500 497 497 493 497 487 0 477 0 477 0 474 474 468 474 468 471 459 448 448 446 438 438 432 430 430 427 430 420 420 420 413 413 408 408 404 399 395 393 0 0 0 0 0
    0 0 0 0 0 0 0 0 0 0 0 0 0 0 0 0 0 0 0 0 0 0 0 0 0 0 0 0 0 0 0 0 0 0 0 0 0 0 0 0 0 0 0 0 0 0 0 0 0 0 0 0 0 0 0 0 0 0 0 0 0 0 0 0 0 0 0 0 0 1338 1388 1415 1565 1565 1635 1711 1752 1752 1795 1839 1795 1795 1839 1936 1936 1887 2102 2164 2164 2044 1989 2230 2230 2164 2374 2374 2374 2374 2537 2725 2628 2453 2537 2453 2453 2453 2453 2537 2374 2299 2374 2374 2537 2537 2537 2537 2537 2725 2725 2725 2725 2537 2164 2299 2164 2299 2230 2164 2453 2374 2453 2628 2453 2537 2628 2830 3504 5661 5661 5256 8177 0 0 0 0 0 0 0 0 0 0 6690 7359 6690 7359 6690 6133 6133 6690 6133 8177 8177 8177 7359 8177 8177 6690 4906 4906 4088 3679 3199 3199 3066 3066 3199 3199 2943 2830 2725 2830 2830 2725 2628 2537 2537 2453 2299 2230 1989 1839 1839 1752 1752 1711 1711 1635 1599 1672 1471 1338 1415 1338 1268 1268 1226 1247 1226 1226 1226 1187 1149 1226 1149 1187 1098 1036 1051 1082 1022 1051 1036 1008 994 886 886 865 865 855 826 817 817 817 808 799 774 750 766 743 707 707 694 681 687 681 681 675 669 681 651 645 645 639 639 618 608 608 0 603 0 588 579 566 574 579 579 593 584 584 588 566 0 0 0 0 511 504 500 497 493 497 487 0 477 484 477 477 474 474 468 474 468 474 459 448 448 446 440 440 432 430 430 427 430 420 420 418 411 413 406 406 402 397 395 395 0 0 0 0 0
    0 0 0 0 0 0 0 0 0 0 0 0 0 0 0 0 0 0 0 0 0 0 0 0 0 0 0 0 0 0 0 0 0 0 0 0 0 0 0 0 0 0 0 0 0 0 0 0 0 0 0 0 0 0 0 0 0 0 0 0 0 0 0 0 0 0 0 0 0 1338 1388 1415 1501 1501 1599 1672 1672 1711 1752 1795 1752 1752 1795 1887 1936 1887 2102 2164 2164 2044 1989 2230 2230 2230 2374 2299 2299 2374 2537 2830 2725 2537 2537 2537 2537 2537 2537 2537 2299 2299 2374 2453 2453 2453 2537 2537 2537 2725 2725 2830 2725 2628 2230 2299 2164 2299 2230 2164 2374 2299 2374 2537 2299 2453 2537 2628 3345 4329 4599 4906 8177 0 0 0 0 0 0 0 0 0 8177 6133 6690 6133 6690 6133 6133 6133 6690 6133 8177 8177 8177 7359 8177 6690 5661 4599 4329 4329 3679 3345 3199 3199 3199 3345 3345 3066 2943 2830 2943 2943 2725 2628 2628 2453 2374 2299 2230 2044 1887 1887 1795 1752 1752 1752 1711 1599 1672 1471 1314 1388 1338 1226 1247 1226 1226 1226 1226 1226 1187 1149 1226 1149 1187 1098 1036 1051 1098 1036 1066 1036 1008 1008 908 897 876 876 855 826 817 817 808 808 791 774 750 766 750 714 714 700 687 694 687 687 681 675 681 651 645 645 639 639 623 608 608 0 603 0 588 579 566 574 579 579 593 584 579 584 566 0 0 0 0 511 507 500 497 497 497 487 487 477 484 477 477 474 474 468 474 468 474 457 448 448 443 443 443 435 432 432 430 430 420 420 418 0 0 406 0 399 397 395 395 0 0 0 0 0
    0 0 0 0 0 0 0 0 0 0 0 0 0 0 0 0 0 0 0 0 0 0 0 0 0 0 0 0 0 0 0 0 0 0 0 0 0 0 0 0 0 0 0 0 0 0 0 0 0 0 0 0 0 0 0 0 0 0 0 0 0 0 0 0 0 0 0 0 0 1314 1362 1362 1443 1443 1501 1599 1599 1672 1711 1752 1752 1752 1839 1887 1936 1887 2044 2102 2102 2044 1989 2230 2230 2230 2374 2299 2230 2299 2537 2830 2725 2537 2537 2537 2537 2628 2537 2453 2230 2230 2374 2453 2453 2374 2537 2537 2537 2725 2830 2830 2725 2628 2230 2230 2164 2230 2230 2164 2374 2299 2374 2537 2374 2453 2453 2628 2943 3345 3679 3873 6133 8177 0 8177 8177 7359 7359 8177 8177 8177 7359 5661 6133 5661 6133 6133 6133 5661 6133 5661 7359 7359 7359 6133 6690 5661 5256 4329 4088 4599 4088 3679 3504 3504 3504 3504 3504 3199 3066 2943 2943 2943 2628 2628 2628 2453 2374 2230 2230 2044 1887 1887 1795 1795 1752 1752 1711 1599 1672 1443 1291 1362 1314 1226 1247 1206 1226 1226 1206 1226 1187 1149 1226 1149 1187 1098 1051 1051 1098 1022 1051 1022 994 994 919 897 876 865 855 826 817 808 808 799 791 782 750 758 743 714 714 707 694 694 687 694 687 681 687 657 651 645 639 634 623 608 0 0 0 0 0 579 566 574 579 579 593 579 579 579 561 0 0 0 0 511 507 500 497 497 497 487 487 481 484 477 477 474 474 465 471 468 471 451 446 446 443 443 443 438 435 0 432 430 0 420 418 0 0 406 0 399 397 395 395 0 0 0 0 0
    0 0 0 0 0 0 0 0 0 0 0 0 0 0 0 0 0 0 0 0 0 0 0 0 0 0 0 0 0 0 0 0 0 0 0 0 0 0 0 0 0 0 0 0 0 0 0 0 0 0 0 0 0 0 0 0 0 0 0 0 0 0 0 0 0 0 0 0 0 1314 1362 1362 1415 1415 1443 1565 1533 1635 1635 1711 1711 1711 1839 1887 1936 1887 2044 2102 2044 2044 1989 2164 2230 2230 2299 2230 2230 2299 2453 2725 2725 2453 2453 2537 2537 2537 2537 2453 2164 2164 2299 2374 2374 2230 2453 2453 2453 2725 2830 2725 2628 2628 2164 2164 2164 2230 2230 2164 2374 2299 2374 2537 2374 2453 2453 2537 2943 2943 3345 3199 4329 7359 8177 6690 6690 5661 6133 6133 6690 6133 7359 5256 6133 5661 6133 5661 5661 5661 5661 5256 6690 6690 6690 5256 6133 4599 4599 4329 3873 4329 4088 3873 3679 3679 3873 3679 3679 3504 3199 2943 2943 2943 2628 2537 2537 2453 2453 2230 2230 2044 1887 1887 1795 1752 1752 1752 1711 1599 1635 1415 1291 1362 0 1226 1247 1206 1206 1226 1206 1206 1168 1132 1206 1132 1168 1082 1051 1051 1098 1008 1036 1008 994 981 931 886 855 855 845 817 808 808 808 799 791 791 750 758 743 714 714 707 700 694 694 700 694 687 694 669 669 645 645 634 618 603 0 0 0 0 0 584 574 584 588 584 593 584 579 579 561 0 0 0 525 511 507 500 497 497 497 487 487 481 484 477 477 474 474 462 468 462 465 448 443 443 443 443 443 438 0 0 0 427 0 418 413 408 411 406 0 0 397 395 395 0 0 0 0 0
    0 0 0 0 0 0 0 0 0 0 0 0 0 0 0 0 0 0 0 0 0 0 0 0 0 0 0 0 0 0 0 0 0 0 0 0 0 0 0 0 0 0 0 0 0 0 0 0 0 0 0 0 0 0 0 0 0 0 0 0 0 0 0 0 0 0 0 0 0 1338 1362 1388 1415 1388 1415 1471 1443 1533 1599 1672 1672 1672 1839 1887 1936 1936 2044 2044 2044 2044 1989 2164 2299 2299 2374 2230 2230 2299 2537 2725 2725 2537 2453 2537 2537 2537 2453 2453 2230 2164 2230 2299 2230 2164 2299 2374 2299 2628 2830 2628 2537 2628 2044 2164 2164 2230 2230 2102 2299 2299 2374 2537 2453 2453 2453 2537 2830 2830 3066 2830 2943 6133 6690 5661 4599 3199 4599 3679 4906 4906 6690 4906 5661 5256 6133 5256 5661 5256 5256 5256 6690 6133 6133 4906 5661 4329 4329 4329 3873 4329 4329 4088 3679 3679 3873 3679 3679 3504 3199 3066 2943 3066 2628 2537 2537 2453 2453 2230 2164 2044 1887 1887 1752 1752 1711 1672 1672 1565 1565 1415 1314 1362 1314 1226 1247 1206 1226 1226 1206 1206 1168 1149 1226 1168 1206 1098 1066 1098 1206 1051 1036 1008 981 981 931 908 865 865 855 817 808 808 808 791 791 791 750 758 750 721 721 707 707 700 700 707 700 694 700 675 669 634 634 623 618 603 603 598 0 0 0 588 584 593 598 593 598 584 579 574 566 0 0 0 525 507 507 500 497 497 493 487 487 477 484 477 474 474 471 459 465 459 462 446 443 446 443 443 446 0 0 0 0 0 0 413 411 406 408 404 0 0 397 395 395 0 0 0 0 0
    0 0 0 0 0 0 0 0 0 0 0 0 0 0 0 0 0 0 0 0 0 0 0 0 0 0 0 0 0 0 0 0 0 0 0 0 0 0 0 0 0 0 0 0 0 0 0 0 0 0 0 0 0 0 0 0 0 0 0 0 0 0 0 0 0 0 0 0 0 1362 1388 1415 1443 1388 1388 1443 1415 1443 1501 1635 1635 1635 1839 1839 1936 1936 1989 2044 2044 2044 1989 2102 2299 2299 2374 2299 2230 2374 2537 2725 2725 2628 2537 2628 2628 2537 2453 2453 2164 2164 2230 2230 2164 2164 2299 2374 2299 2628 2725 2628 2537 2628 2044 2164 2230 2299 2230 2102 2299 2299 2374 2537 2537 2537 2453 2537 2943 2830 3199 2830 3066 4906 5256 4329 3504 3066 3679 3199 3873 3873 6133 4599 5661 5256 5661 5256 5661 5256 5256 4906 6690 5661 5661 4329 5256 4088 4329 4329 3679 4329 4329 4088 3679 3679 3873 3873 3679 3504 3199 3066 2943 2943 2537 2537 2537 2453 2453 2230 2164 2102 1887 1936 1752 1711 1672 1672 1635 1565 1533 1415 1314 1338 1314 1226 1247 1187 1226 1226 1206 1226 1187 1168 1247 1187 1268 1149 1115 1168 1247 1036 1008 981 955 943 919 931 897 897 876 826 817 817 808 791 799 791 758 758 750 728 728 714 714 707 707 707 700 700 707 681 681 639 639 623 618 608 603 603 608 603 0 593 584 593 593 593 598 579 574 570 566 561 0 0 525 511 511 500 497 497 490 484 484 477 481 477 474 474 471 459 462 457 459 443 443 446 443 443 446 0 0 0 0 0 0 413 413 406 408 406 402 0 397 395 395 0 0 0 0 0
    0 0 0 0 0 0 0 0 0 0 0 0 0 0 0 0 0 0 0 0 0 0 0 0 0 0 0 0 0 0 0 0 0 0 0 0 0 0 0 0 0 0 0 0 0 0 0 0 0 0 0 0 0 0 0 0 0 0 0 0 0 0 0 0 0 0 0 0 0 1415 1415 1415 1443 1388 1388 1443 1388 1415 1443 1599 1599 1599 1839 1839 1936 1936 1989 2044 2044 2044 1989 2102 2374 2299 2374 2374 2299 2374 2537 2725 2725 2628 2453 2628 2628 2537 2374 2374 2102 2164 2230 2230 2164 2102 2299 2299 2299 2628 2628 2537 2537 2628 2044 2164 2230 2230 2230 2164 2299 2299 2374 2537 2537 2537 2453 2537 2943 2830 3199 2830 3066 3504 3504 3345 3066 2725 3199 2943 3345 3345 5661 4599 5661 5256 6133 5661 5661 5256 5256 4906 6690 5256 5256 4088 5256 3873 4088 4088 3679 4088 4329 4088 3873 3873 4088 3873 3873 3679 3345 3199 2943 2943 2537 2453 2453 2374 2374 2230 2164 2102 1936 1989 1795 1752 1672 1672 1635 1533 1501 1415 1314 1338 1291 1206 1226 1206 1226 1226 1206 1226 1206 1187 1268 1226 1291 1206 1149 1149 1187 1036 1022 994 968 955 919 955 943 943 897 836 826 826 817 791 799 791 774 766 758 735 735 728 721 714 714 714 707 707 714 694 694 669 663 634 618 608 603 598 608 598 593 588 579 588 593 593 598 579 579 579 574 570 0 533 525 511 511 500 497 497 490 484 481 474 481 474 471 474 468 457 457 451 451 440 443 443 440 0 0 0 0 0 0 0 0 413 411 406 408 404 402 0 0 0 395 0 0 0 0 0
    0 0 0 0 0 0 0 0 0 0 0 0 0 0 0 0 0 0 0 0 0 0 0 0 0 0 0 0 0 0 0 0 0 0 0 0 0 0 0 0 0 0 0 0 0 0 0 0 0 0 0 0 0 0 0 0 0 0 0 0 0 0 0 0 0 0 0 0 0 1388 1388 1388 1388 1362 1362 1388 1388 1388 1388 1565 1533 1599 1887 1839 1936 1936 1989 2044 2044 2044 1989 2102 2374 2299 2374 2374 2230 2374 2537 2725 2725 2628 2453 2628 2537 2537 2453 2374 2102 2164 2230 2299 2164 2164 2299 2299 2299 2628 2628 2453 2537 2628 2102 2164 2230 2299 2230 2102 2299 2230 2299 2537 2537 2453 2453 2537 2943 2830 3345 2943 3066 3199 3066 3066 2943 2725 3066 2830 3066 3345 4599 4599 5256 4906 5661 5256 5661 5256 5256 4906 6133 4906 4599 3679 4906 3873 3873 3873 3679 4088 4088 4088 3873 3873 4088 3873 3679 3679 3345 3199 2943 2943 2453 2453 2374 2299 2299 2164 2102 2102 1936 1989 1795 1752 1635 1599 1599 1533 1471 1415 1314 1314 1291 1206 1226 1206 1226 1226 1206 1247 1226 1206 1268 1247 1291 1247 1206 1187 1187 1036 1036 1008 981 968 968 981 981 981 919 836 817 817 808 782 799 799 774 774 774 750 743 735 735 714 714 714 714 714 721 707 707 694 681 645 623 613 608 598 603 593 584 579 574 584 588 593 598 574 574 574 570 561 533 525 518 507 504 500 497 500 493 484 484 474 481 474 471 474 468 454 451 448 448 440 443 443 440 0 0 0 0 0 0 0 0 411 408 404 406 404 0 397 0 0 395 0 0 0 0 0
    0 0 0 0 0 0 0 0 0 0 0 0 0 0 0 0 0 0 0 0 0 0 0 0 0 0 0 0 0 0 0 0 0 0 0 0 0 0 0 0 0 0 0 0 0 0 0 0 0 0 0 0 0 0 0 0 0 0 0 0 0 0 0 0 0 0 0 0 0 1338 1338 1338 1338 1338 1314 1338 1338 1338 1362 1501 1471 1599 1887 1839 1936 1936 1936 1989 1989 2044 1989 2102 2374 2230 2299 2374 2230 2299 2453 2628 2725 2537 2453 2628 2537 2537 2453 2453 2102 2230 2299 2299 2164 2164 2299 2374 2299 2628 2628 2537 2628 2830 2164 2164 2299 2374 2299 2102 2299 2230 2299 2537 2537 2453 2453 2537 2943 2830 3345 2830 2725 3066 2830 2830 2725 2628 2830 2830 3066 3345 3873 4329 4906 4599 5661 4906 5256 4599 4906 4329 5256 4599 4088 3873 4906 3679 4088 4088 3504 4088 4088 4088 3679 3679 4088 3679 3504 3504 3066 3066 2725 2725 2374 2374 2299 2230 2230 2164 2102 2102 1936 1989 1795 1752 1672 1599 1599 1501 1471 1415 1314 1314 1268 1187 1226 1206 1206 1226 1206 1247 1247 1226 1291 1226 1291 1226 1168 1168 1115 1022 1022 981 955 968 968 981 981 968 919 836 817 826 817 782 799 799 782 774 774 758 750 743 743 721 714 721 721 721 721 714 714 714 700 669 629 608 598 588 593 584 574 570 570 574 584 584 593 566 553 549 0 0 0 518 511 507 500 497 497 500 497 484 481 474 474 474 471 471 462 448 446 446 443 438 440 440 440 440 443 443 0 0 0 422 406 408 408 404 404 402 0 397 395 395 395 0 0 0 0 0
    0 0 0 0 0 0 0 0 0 0 0 0 0 0 0 0 0 0 0 0 0 0 0 0 0 0 0 0 0 0 0 0 0 0 0 0 0 0 0 0 0 0 0 0 0 0 0 0 0 0 0 0 0 0 0 0 0 0 0 0 0 0 0 0 0 0 0 0 0 1291 1291 1291 1314 1291 1291 1314 1314 1314 0 1471 1471 1635 1887 1839 1887 1887 1887 1989 1989 1989 1936 2044 2299 2230 2230 2299 2164 2230 2374 2628 2628 2537 2453 2628 2537 2537 2453 2453 2164 2299 2299 2374 2164 2102 2299 2299 2230 2537 2537 2374 2628 2725 2230 2164 2374 2374 2299 2164 2299 2164 2299 2537 2537 2453 2453 2537 2943 2830 3345 2725 2453 2537 2628 2628 2628 2537 2725 2725 2943 3199 3504 4329 4599 4329 5256 4329 5256 4329 4088 4088 4599 4599 3873 3873 4906 3679 4599 4599 3679 4329 4329 4599 3679 3873 4088 3504 3345 3345 2943 2943 2628 2628 2299 2299 2230 2230 2230 2164 2102 2044 1936 1936 1752 1752 1672 1599 1599 1533 1501 1443 1314 1291 1268 1187 1226 1187 1206 1226 1206 1247 1247 1247 1291 1226 1291 1226 1168 1168 1082 1022 1022 981 931 943 955 968 955 955 897 836 826 826 817 782 808 799 791 782 782 774 750 750 750 714 707 714 714 714 707 721 721 728 714 681 663 618 603 588 598 588 574 566 570 570 579 574 579 549 537 533 0 521 521 511 0 504 497 0 490 500 0 0 0 474 471 474 474 471 459 443 443 440 440 435 440 440 440 440 443 443 438 0 0 422 406 408 408 404 404 404 399 397 397 395 393 0 0 0 0 0
    0 0 0 0 0 0 0 0 0 0 0 0 0 0 0 0 0 0 0 0 0 0 0 0 0 0 0 0 0 0 0 0 0 0 0 0 0 0 0 0 0 0 0 0 0 0 0 0 0 0 0 0 0 0 0 0 0 0 0 0 0 0 0 0 0 0 0 0 0 1268 1268 1291 1291 1268 1268 1291 1314 1314 1338 1415 1443 1635 1839 1795 1839 1887 1887 1989 1989 1989 1936 2044 2299 2164 2230 2299 2164 2230 2374 2537 2628 2453 2453 2628 2628 2453 2374 2453 2230 2299 2299 2299 2164 2102 2230 2230 2164 2453 2453 2299 2628 2628 2230 2230 2374 2374 2230 2102 2299 2164 2299 2537 2628 2453 2537 2628 2943 2830 3345 2725 2102 2299 2299 2453 2453 2374 2453 2537 2725 2943 3066 5256 5256 4599 4906 4088 5256 3679 3345 3504 3504 3679 3345 3504 4329 3504 4599 4599 3679 4329 4329 4329 3679 3679 3679 3345 3199 3066 2830 2725 2537 2537 2299 2299 2230 2230 2230 2164 2102 2044 1936 1936 1795 1752 1672 1599 1599 1565 1533 1471 1314 1291 1268 1187 1247 1206 1226 1226 1206 1247 1268 1268 1291 1226 1268 1168 1132 1132 1066 1036 1036 994 955 931 943 968 955 919 876 826 817 826 826 782 808 808 799 791 791 782 766 750 774 714 707 707 714 707 707 707 714 714 700 669 657 629 608 593 603 593 574 570 574 579 584 584 593 557 545 0 0 0 0 518 0 507 500 500 490 500 500 487 481 477 471 474 471 471 454 440 440 438 438 435 438 438 438 438 440 440 0 0 0 420 404 406 408 404 404 404 399 397 397 395 395 0 0 0 0 0
    0 0 0 0 0 0 0 0 0 0 0 0 0 0 0 0 0 0 0 0 0 0 0 0 0 0 0 0 0 0 0 0 0 0 0 0 0 0 0 0 0 0 0 0 0 0 0 0 0 0 0 0 0 0 0 0 0 0 0 0 0 0 0 0 0 0 0 0 0 1268 1268 1268 1268 1268 1268 1291 1291 1314 1314 1362 1415 1599 1795 1795 1839 1839 1887 1936 1936 1936 1936 2044 2230 2164 2164 2230 2164 2230 2374 2537 2537 2299 2374 2628 2537 2374 2299 2374 2164 2299 2299 2299 2164 2102 2164 2164 2102 2374 2299 2299 2537 2628 2164 2164 2374 2299 2230 2164 2299 2164 2299 2537 2628 2537 2628 2725 3066 2943 3345 2537 1989 2044 2102 2230 2230 2230 2374 2453 2628 2725 2830 7359 6133 4599 4906 3679 6133 0 0 0 0 0 0 0 0 0 4906 4599 3504 4088 4329 3873 3199 3199 3199 2943 2943 2943 2628 2725 2537 2453 2299 2299 2230 2230 2230 2230 2102 2044 1936 1989 1795 1752 1672 1599 1565 1565 1533 1471 1338 1268 1268 1206 1247 1226 1247 1247 1226 1268 1291 1291 1314 1247 1247 1149 1115 1115 1051 1036 1036 1008 981 968 994 994 994 943 865 808 791 808 808 774 799 799 791 782 791 791 766 758 782 714 707 707 707 700 700 700 700 707 694 657 623 608 603 593 598 588 579 574 579 579 584 584 598 574 603 0 714 728 728 0 0 0 511 518 493 504 504 484 477 477 471 474 474 474 457 443 440 438 435 435 435 432 432 432 435 432 432 430 427 418 404 406 408 404 404 402 399 397 397 395 395 0 0 0 0 0
    0 0 0 0 0 0 0 0 0 0 0 0 0 0 0 0 0 0 0 0 0 0 0 0 0 0 0 0 0 0 0 0 0 0 0 0 0 0 0 0 0 0 0 0 0 0 0 0 0 0 0 0 0 0 0 0 0 0 0 0 0 0 0 0 0 0 0 0 0 1247 1247 1268 1268 1268 1268 1291 1291 1291 1314 1338 1388 1565 1752 1795 1839 1839 1887 1936 1989 1936 1936 2044 2230 2102 2102 2164 2102 2230 2299 2537 2453 2299 2299 2537 2453 2374 2230 2299 2164 2299 2299 2230 2164 2102 2164 2164 2102 2374 2230 2230 2537 2537 2230 2164 2374 2374 2230 2164 2299 2164 2299 2537 2628 2537 2537 2628 2830 2628 2830 2044 1795 1887 1936 2044 2102 2230 2299 2453 2537 2725 0 0 0 0 0 0 0 0 0 0 0 0 0 0 0 0 0 0 0 0 0 0 0 0 0 2044 2374 2628 2299 2537 2453 2374 2299 2374 2230 2230 2230 2230 2102 2044 1936 1936 1795 1752 1672 1599 1565 1565 1533 1501 1362 1268 1268 1206 1268 1268 1268 1268 1247 1291 1338 1314 1338 1247 1226 1132 1115 1115 1066 1066 1051 1022 1008 994 1036 1036 1036 994 897 826 782 808 799 766 799 799 791 791 791 791 766 758 782 714 707 700 700 694 694 694 687 694 681 651 629 618 608 593 598 593 579 574 574 574 579 584 598 574 598 0 714 714 714 0 0 0 521 525 504 514 507 487 477 477 471 474 477 477 462 446 443 438 438 435 432 432 430 430 432 430 430 430 422 418 408 408 408 404 404 402 397 397 395 395 393 0 0 0 0 0
    0 0 0 0 0 0 0 0 0 0 0 0 0 0 0 0 0 0 0 0 0 0 0 0 0 0 0 0 0 0 0 0 0 0 0 0 0 0 0 0 0 0 0 0 0 0 0 0 0 0 0 0 0 0 0 0 0 0 0 0 0 0 0 0 0 0 0 0 0 1226 1226 1247 1247 1247 1247 1268 1268 1291 1291 1338 1388 1565 1752 1752 1795 1795 1839 1936 1989 1936 1887 2044 2230 2102 2102 2164 2102 2164 2299 2537 2374 2164 2164 2299 2299 2299 2230 2230 2102 2299 2299 2299 2230 2164 2230 2164 2164 2453 2230 2299 2537 2537 2299 2230 2374 2299 2230 2230 2299 2164 2230 2453 2537 2374 2374 2374 2230 1989 1989 1795 1752 1839 1936 2044 2102 2230 2374 2453 0 0 0 0 0 0 0 0 0 0 0 0 0 0 0 0 0 0 0 0 0 0 0 0 0 0 0 0 2230 2453 2230 2453 2453 2299 2230 2299 2164 2164 2164 2164 2102 2044 1989 1989 1887 1795 1711 1635 1565 1533 1533 1501 1338 1247 1247 1206 1291 1291 1291 1291 1268 1291 1362 1362 1362 1247 1206 1132 1132 1132 1082 1066 1051 1022 1008 994 1051 1036 1022 994 908 826 774 808 799 766 791 791 791 791 782 791 774 758 791 721 707 700 700 694 700 694 694 700 687 675 645 639 623 608 608 598 588 584 579 570 574 579 593 570 593 0 0 0 0 0 0 0 0 537 529 529 529 500 487 484 477 477 481 477 462 446 443 438 432 432 430 427 425 422 427 427 427 427 418 415 408 408 411 404 402 399 397 395 395 395 393 0 0 0 0 0
    0 0 0 0 0 0 0 0 0 0 0 0 0 0 0 0 0 0 0 0 0 0 0 0 0 0 0 0 0 0 0 0 0 0 0 0 0 0 0 0 0 0 0 0 0 0 0 0 0 0 0 0 0 0 0 0 0 0 0 0 0 0 0 0 0 0 0 0 0 1187 1187 1206 1226 1226 1226 1247 1268 1268 1291 1314 1415 1565 1711 1711 1752 1752 1839 1936 1936 1936 1887 1989 2164 2044 2102 2164 2044 2102 2230 2453 2164 2044 2044 2044 2102 2164 2102 2102 2044 2230 2164 2230 2299 2044 2164 2102 2164 2374 2230 2230 2537 2537 2453 2374 2453 2299 2164 2299 2299 2044 2102 2230 2102 1989 1989 1989 1795 1752 1752 1635 1711 1795 1936 1936 1989 2102 2230 2374 0 0 0 0 0 0 0 0 0 0 0 0 0 0 0 0 0 0 0 0 0 0 0 0 0 0 0 0 0 2230 2230 2453 2537 2299 2374 2374 2164 2230 2230 2230 2102 2044 2044 2044 1936 1839 1752 1672 1565 1533 1501 1471 1362 1226 1247 1226 1314 1314 1314 1291 1291 1291 1362 1362 1362 1247 1206 1132 1132 1149 1082 1066 1051 1022 1008 994 1008 1008 981 968 876 826 782 799 791 758 782 782 782 791 782 791 766 766 799 721 714 707 700 694 700 700 700 700 694 675 651 651 639 623 618 603 603 603 598 593 598 598 618 598 634 0 714 707 707 0 0 0 0 537 533 533 533 511 497 487 481 481 481 481 465 446 443 435 432 432 427 422 422 420 425 425 427 425 413 411 406 406 406 399 397 395 393 393 393 393 393 0 0 0 0 0
    0 0 0 0 0 0 0 0 0 0 0 0 0 0 0 0 0 0 0 0 0 0 0 0 0 0 0 0 0 0 0 0 0 0 0 0 0 0 0 0 0 0 0 0 0 0 0 0 0 0 0 0 0 0 0 0 0 0 0 0 0 0 0 0 0 0 0 0 0 1149 1168 1187 1206 1206 1206 1226 1247 1268 1268 1314 1415 1599 1672 1711 1711 1711 1795 1887 1936 1887 1887 1989 2164 2044 2044 2102 1989 2044 2102 2299 2044 1936 1887 1887 1936 1989 1989 1989 2044 2102 2044 2164 2374 2044 2102 2044 2102 2299 2299 2374 2537 2537 2725 2628 2725 2374 2374 2299 2044 1936 1839 1795 1635 1599 1599 1672 1599 1565 1565 1565 1711 1795 1887 1887 1936 2044 2230 0 0 0 0 0 0 0 0 0 0 0 0 0 0 0 0 0 0 0 0 0 0 0 0 0 0 0 0 0 0 0 2102 2374 2537 2230 2374 2299 2102 2230 2230 2230 2102 2044 2044 2044 1989 1887 1795 1711 1599 1533 1533 1501 1362 1247 1268 1247 1314 1314 1314 1291 1268 1268 1338 1338 1314 1247 1168 1132 1132 1149 1098 1066 1051 1022 994 981 1008 994 955 931 876 836 799 808 799 766 782 782 782 782 782 782 766 758 791 721 714 700 700 694 700 694 694 694 694 681 663 669 669 657 645 623 618 618 608 603 0 603 613 593 593 0 0 0 0 0 549 0 529 537 525 529 529 511 497 487 481 481 484 481 468 451 446 438 435 435 427 422 420 418 425 422 425 422 411 406 406 402 402 397 395 393 391 389 391 393 393 0 0 0 0 0
    0 0 0 0 0 0 0 0 0 0 0 0 0 0 0 0 0 0 0 0 0 0 0 0 0 0 0 0 0 0 0 0 0 0 0 0 0 0 0 0 0 0 0 0 0 0 0 0 0 0 0 0 0 0 0 0 0 0 0 0 0 0 0 0 0 0 0 0 0 1132 1168 1168 1187 1187 1206 1226 1247 1268 1291 1314 1471 1672 1672 1672 1672 1672 1752 1887 1936 1887 1839 1989 2102 1989 2044 1989 1936 1936 1989 2044 1887 1887 1795 1795 1936 1887 1936 1936 1989 1989 1936 2044 2230 1936 2164 2044 2164 2374 2374 2453 2537 2453 2725 2374 2628 2044 0 2299 2164 2102 1839 1795 1711 1672 1599 1672 1599 1533 1565 1599 1711 1795 1795 1839 1839 1936 0 0 0 0 0 0 0 0 0 0 0 0 0 0 0 0 0 0 0 0 0 0 0 0 0 0 0 0 0 0 0 0 0 0 2374 2230 2374 2374 2164 2299 2374 2299 2164 2102 2102 2044 1989 1887 1839 1752 1635 1533 1565 1501 1362 1226 1247 1247 1291 1291 1291 1268 1247 1247 1314 1291 1268 1226 1149 1115 1115 1149 1098 1082 1051 1022 994 981 994 994 943 908 876 845 817 817 808 774 791 791 791 791 782 782 766 758 782 721 714 700 700 694 700 694 687 687 687 675 639 634 634 629 634 618 613 608 603 598 603 593 603 588 598 0 0 0 0 603 598 553 0 541 533 529 525 511 497 487 481 481 481 481 468 451 448 440 435 435 430 425 422 420 427 425 425 425 413 408 406 404 402 397 393 391 389 387 389 391 391 0 0 0 0 0
    0 0 0 0 0 0 0 0 0 0 0 0 0 0 0 0 0 0 0 0 0 0 0 0 0 0 0 0 0 0 0 0 0 0 0 0 0 0 0 0 0 0 0 0 0 0 0 0 0 0 0 0 0 0 0 0 0 0 0 0 0 0 0 0 0 0 0 0 0 1132 1187 1187 1187 1206 1226 1247 1268 1291 1314 1314 1565 1672 1635 1635 1565 1533 1501 1635 1795 1752 1711 1887 2044 1936 1989 1887 1839 1839 1887 1839 0 1839 1795 1752 1887 1839 1839 1839 1936 1839 1839 1887 1989 1839 1989 2044 2164 2374 2299 2374 2453 2374 2537 2164 2230 1887 0 0 1839 1839 1672 1635 1599 1533 1533 1599 1565 1501 1565 1599 1672 1711 1752 1752 1752 0 0 0 0 0 0 0 0 0 0 0 0 0 0 0 0 0 0 0 0 0 0 0 0 0 0 0 0 0 0 0 0 0 0 0 0 2628 2628 2725 2299 2537 2537 2299 2164 1989 1936 1887 1839 1752 1711 1672 1565 1533 1501 1471 1388 1226 1247 1247 1268 1268 1268 1268 1226 1226 1291 1268 1247 1226 1149 1098 1098 1115 1082 1066 1036 1008 994 981 994 981 943 897 876 855 826 817 808 774 791 782 791 791 774 774 758 758 774 714 714 700 700 694 707 694 687 687 687 675 623 618 608 608 608 608 603 603 598 593 598 593 603 598 603 613 618 623 629 623 618 603 608 570 545 533 529 514 507 493 487 481 484 481 468 454 448 440 438 438 430 425 425 422 427 425 427 427 415 413 411 411 406 397 393 391 385 381 385 389 389 0 0 0 0 0
    0 0 0 0 0 0 0 0 0 0 0 0 0 0 0 0 0 0 0 0 0 0 0 0 0 0 0 0 0 0 0 0 0 0 0 0 0 0 0 0 0 0 0 0 0 0 0 0 0 0 0 0 0 0 0 0 0 0 0 0 0 0 0 0 0 0 0 0 0 1132 1206 1206 1206 1226 1247 1268 1291 1291 1314 1314 1599 1635 1565 1599 1501 1471 1471 1471 1635 1599 1565 1752 1887 1795 1887 1711 1672 1672 1752 1672 0 1887 1839 1795 1936 1887 1887 1839 1887 1795 1795 1839 1887 1795 1989 2044 2164 2374 2299 2374 2299 2299 2374 2102 2102 1887 1752 0 1599 1711 1635 1599 1565 1533 1501 1565 1565 1533 1565 1599 1635 1672 1672 1672 0 0 0 0 0 0 0 0 0 0 0 0 0 0 0 0 0 0 0 0 0 0 0 0 0 0 0 0 0 0 0 0 0 0 0 0 0 0 0 0 0 0 2299 1989 1936 1887 1752 1752 1752 1672 1635 1599 1565 1471 1471 1471 1362 1226 1247 1247 1247 1268 1247 1247 1226 1206 1268 1247 1226 1226 1149 1098 1098 1115 1082 1051 1022 994 981 981 981 981 943 897 865 855 817 817 799 774 782 774 782 782 766 766 750 750 758 707 707 694 694 687 707 700 694 694 694 687 634 618 603 598 598 593 588 588 584 574 593 574 598 588 598 0 618 623 629 623 618 603 603 561 545 533 529 518 511 497 487 481 481 477 471 457 451 443 438 438 430 425 422 420 425 425 425 427 415 413 413 411 408 397 393 393 385 381 383 389 391 0 0 0 0 0
    0 0 0 0 0 0 0 0 0 0 0 0 0 0 0 0 0 0 0 0 0 0 0 0 0 0 0 0 0 0 0 0 0 0 0 0 0 0 0 0 0 0 0 0 0 0 0 0 0 0 0 0 0 0 0 0 0 0 0 0 0 0 0 0 0 0 0 0 0 1115 1206 1206 1226 1247 1247 1291 1291 1291 1291 1291 1471 1599 1533 1565 1501 1471 1533 1471 1599 1565 1471 1672 1752 1635 1752 1501 1501 1533 1565 1599 0 1936 1887 1839 1936 1887 1887 1839 1887 1795 1752 1795 1887 1795 2044 2044 2230 2453 2374 2374 2164 2230 2164 1989 1936 1795 1599 1362 1533 1635 1565 1533 1533 1501 1471 1565 1565 1533 1599 1599 1635 1635 1672 0 0 0 0 0 0 0 0 0 0 0 0 0 0 0 0 0 0 0 0 0 0 0 0 0 0 0 0 0 0 0 0 0 0 0 0 0 0 0 0 0 0 0 0 0 1795 1795 1672 1635 1711 1635 1599 1599 1533 1443 1443 1415 1362 1226 1247 1247 1226 1247 1247 1226 1206 1187 1247 1226 1206 1226 1149 1098 1115 1115 1066 1036 1008 994 981 968 981 968 943 908 886 865 826 817 799 774 774 766 774 774 758 758 743 743 743 707 700 694 694 694 714 714 714 714 714 707 0 0 0 0 598 593 584 579 570 553 566 549 557 553 570 557 584 0 623 613 618 598 603 584 566 557 0 0 533 518 497 481 477 477 468 459 459 443 438 440 432 425 422 420 425 425 427 427 418 415 411 411 408 397 395 395 389 383 385 391 393 0 0 0 0 0
    0 0 0 0 0 0 0 0 0 0 0 0 0 0 0 0 0 0 0 0 0 0 0 0 0 0 0 0 0 0 0 0 0 0 0 0 0 0 0 0 0 0 0 0 0 0 0 0 0 0 0 0 0 0 0 0 0 0 0 0 0 0 0 0 0 0 0 0 0 1098 1187 1226 1226 1247 1268 1291 1291 1291 1338 1338 1471 1599 1501 1501 1471 1471 1471 1415 1533 0 0 0 0 1471 1533 1415 1415 1415 1443 1443 1443 1887 1839 1839 1887 1887 1839 1839 1839 1795 1752 1795 1839 1752 1936 1989 2102 2164 2044 2102 1839 0 0 0 1752 1635 1415 1338 1443 1501 1501 1471 1471 1443 1443 1565 1565 1599 1599 1635 1635 1635 0 0 0 0 0 0 0 0 0 0 0 0 0 0 0 0 0 0 0 0 0 0 0 0 0 0 0 0 0 0 0 0 0 0 0 0 0 0 0 0 0 0 0 0 0 0 1635 1672 1599 1565 1599 1533 1501 1533 1471 1388 1415 1388 1338 1247 1268 1247 1226 1247 1247 1206 1187 1187 1226 1206 1206 1206 1132 1115 1115 1098 1066 1022 994 981 968 968 968 955 931 908 886 876 845 826 808 782 774 766 774 766 758 750 743 750 735 707 707 694 707 700 743 750 758 758 808 799 766 799 0 0 0 613 598 593 584 566 579 557 561 553 553 549 557 553 598 593 603 584 603 593 579 570 0 541 529 521 0 490 481 481 474 477 487 457 454 448 435 432 430 425 427 430 430 430 420 418 415 413 413 399 397 395 389 385 387 393 393 0 0 0 0 0
    0 0 0 0 0 0 0 0 0 0 0 0 0 0 0 0 0 0 0 0 0 0 0 0 0 0 0 0 0 0 0 0 0 0 0 0 0 0 0 0 0 0 0 0 0 0 0 0 0 0 0 0 0 0 0 0 0 0 0 0 0 0 0 0 0 0 0 0 0 1098 1168 1206 1206 1226 1247 1291 1291 1291 1388 1415 1635 1635 1501 1471 1415 1388 1415 1362 1362 1388 1362 1565 1565 1415 1415 1362 1362 1362 1338 1338 1247 0 1672 1672 1795 1795 1795 1795 1795 1752 1711 1752 1795 1711 1887 1887 1989 1936 1795 0 1533 1443 1599 1565 1599 1443 1443 1362 1415 1443 1443 1443 1443 1415 1443 1533 1565 1599 1599 1635 0 0 0 0 0 0 0 0 0 0 0 0 0 0 0 0 0 0 0 0 0 0 0 0 0 0 0 0 0 0 0 0 0 0 0 0 0 0 0 0 0 0 0 0 0 0 0 0 0 1565 1501 1533 1501 1443 1443 1471 1443 1388 1388 1388 1338 1247 1268 1247 1226 1226 1226 1206 1168 1168 1206 1187 1187 1206 1132 1115 1098 1098 1051 1008 981 955 955 943 943 943 919 897 886 886 855 836 808 791 774 774 774 766 758 750 743 743 721 700 700 687 700 694 707 714 743 774 808 817 817 845 826 836 791 714 629 0 603 593 598 566 574 553 0 0 557 541 0 0 593 0 0 574 557 549 579 545 533 0 0 0 0 0 477 481 487 465 462 454 440 440 435 432 430 432 432 432 427 425 420 415 413 402 397 395 389 383 387 391 391 0 0 0 0 0
    0 0 0 0 0 0 0 0 0 0 0 0 0 0 0 0 0 0 0 0 0 0 0 0 0 0 0 0 0 0 0 0 0 0 0 0 0 0 0 0 0 0 0 0 0 0 0 0 0 0 0 0 0 0 0 0 0 0 0 0 0 0 0 0 0 0 0 0 0 1132 1206 1226 1226 1247 1268 1314 1314 1291 1471 1471 1672 1635 1471 1471 1388 1362 1388 1338 1338 1388 1388 1599 1599 1471 1443 1338 1338 1338 1314 1291 1132 0 0 1501 1635 1672 1672 1672 1672 1672 1711 1795 1839 1795 1936 1936 2102 1989 0 1635 1471 1388 1415 1362 1388 1388 1388 1338 1362 1362 1388 1388 1415 1415 1471 1501 1533 1565 1599 0 0 0 0 0 0 0 0 0 0 0 0 0 0 0 0 0 0 0 0 0 0 0 0 0 0 0 0 0 0 0 0 0 0 0 0 0 0 0 0 0 0 0 0 0 0 0 0 0 0 1471 1443 1471 1443 1388 1388 1443 1415 1362 1388 1362 1314 1247 1268 1247 1206 1226 1226 1187 1168 1149 1206 1168 1168 1187 1132 1098 1082 1066 1022 981 955 931 931 931 931 943 919 897 876 886 865 836 808 791 774 766 766 758 750 735 735 728 700 694 687 675 687 687 694 694 694 707 721 782 799 826 826 845 791 735 0 0 629 618 613 593 598 574 0 0 0 0 0 0 0 0 0 0 537 525 0 533 518 521 0 507 0 0 477 481 487 474 474 468 468 471 471 454 451 446 443 440 435 435 430 427 418 408 0 397 391 385 387 393 393 0 0 0 0 0
    0 0 0 0 0 0 0 0 0 0 0 0 0 0 0 0 0 0 0 0 0 0 0 0 0 0 0 0 0 0 0 0 0 0 0 0 0 0 0 0 0 0 0 0 0 0 0 0 0 0 0 0 0 0 0 0 0 0 0 0 0 0 0 0 0 0 0 0 0 1226 1268 1268 1247 1268 1268 1338 1338 1338 1533 1471 1635 1635 1443 1415 1362 1338 1388 1362 1388 1415 1443 1635 1599 1501 1443 1338 1338 1314 1314 1247 1051 931 0 0 1565 1599 1599 1599 1565 1565 1672 1839 1839 1795 1936 1936 2044 1989 1752 1672 1599 1443 1415 1362 1362 1362 1362 1338 1338 1338 1338 1362 1415 1443 1471 1501 1565 1599 0 0 0 0 0 0 0 0 0 0 0 0 0 0 0 0 0 0 0 0 0 0 0 0 0 0 0 0 0 0 0 0 0 0 0 0 0 0 0 0 0 0 0 0 0 0 0 0 0 0 0 1443 1415 1443 1415 1362 1362 1415 1415 1338 1362 1338 1314 1268 1268 1247 1206 1206 1206 1187 1168 1149 1187 1168 1168 1187 1115 1066 1051 1036 1008 968 955 931 919 919 919 931 919 897 876 886 865 855 817 799 782 774 766 758 743 728 728 721 694 687 675 669 681 675 675 675 681 687 694 700 721 714 728 774 743 714 694 657 657 639 629 618 618 593 593 0 0 0 0 0 0 0 0 493 507 504 0 511 497 497 0 477 471 471 471 471 481 471 471 465 465 468 477 471 477 454 457 451 477 474 471 457 0 0 0 427 397 389 391 395 397 0 0 0 0 0
    0 0 0 0 0 0 0 0 0 0 0 0 0 0 0 0 0 0 0 0 0 0 0 0 0 0 0 0 0 0 0 0 0 0 0 0 0 0 0 0 0 0 0 0 0 0 0 0 0 0 0 0 0 0 0 0 0 0 0 0 0 0 0 0 0 0 0 0 0 1268 1314 1291 1268 1291 1291 1362 1362 1388 1501 1443 1533 1565 1388 1388 1338 1338 1388 1388 1415 1443 1471 1599 1599 1501 1443 1362 1338 1314 1291 1206 1051 955 0 0 1443 1471 1501 1533 1471 1471 1672 1795 1795 1752 1887 1887 1989 1936 1752 1635 1635 1471 1415 1362 1388 1362 1362 1338 1338 1314 1338 1362 1388 1415 1443 1501 0 0 0 0 0 0 0 0 0 0 0 0 0 0 0 0 0 0 0 0 0 0 0 0 0 0 0 0 0 0 0 0 0 0 0 0 0 0 0 0 0 0 0 0 0 0 0 0 0 0 0 0 0 1443 1388 1415 1388 1362 1362 1388 1388 1338 1338 1314 1291 1268 1268 1247 1206 1206 1206 1187 1187 1149 1187 1149 1149 1168 1115 1066 1036 1022 981 968 955 931 908 908 908 919 908 886 876 876 865 855 826 808 791 774 766 758 743 735 728 721 694 687 675 663 675 669 663 663 663 675 675 681 687 645 0 0 782 707 707 669 707 687 694 700 639 608 0 629 0 0 0 0 0 0 0 0 0 0 0 0 477 0 451 451 451 454 454 457 0 462 462 457 454 459 471 471 0 451 0 0 0 490 490 471 0 0 0 425 399 395 395 397 408 0 0 0 0 0
    0 0 0 0 0 0 0 0 0 0 0 0 0 0 0 0 0 0 0 0 0 0 0 0 0 0 0 0 0 0 0 0 0 0 0 0 0 0 0 0 0 0 0 0 0 0 0 0 0 0 0 0 0 0 0 0 0 0 0 0 0 0 0 0 0 0 0 0 0 1291 1291 1291 1291 1291 1314 1362 1338 1338 1388 1338 1362 1362 1291 1314 1291 1314 1362 1388 1388 1415 1443 1565 1533 1471 1415 1338 1314 1291 1291 1132 1022 943 955 0 1314 0 0 1443 1471 1443 1672 1839 1839 1795 0 1887 1936 1936 1752 1672 1672 1533 1443 1388 1388 1362 1362 1338 1338 1314 1338 1338 1362 1362 1415 0 0 0 0 0 0 0 0 0 0 0 0 0 0 0 0 0 0 0 0 0 0 0 0 0 0 0 0 0 0 0 0 0 0 0 0 0 0 0 0 0 0 0 0 0 0 0 0 0 0 0 0 0 0 1443 1415 1415 1388 1338 1362 1388 1362 1314 1291 1268 1268 1247 1247 1226 1187 1187 1187 1149 1168 1149 1168 1132 1132 1115 1082 1051 1022 1008 968 955 943 919 908 897 897 919 908 886 876 876 865 845 826 799 782 774 766 758 743 743 728 721 700 687 675 663 675 669 663 663 663 669 669 669 675 634 0 0 0 0 651 629 714 700 707 700 645 613 608 0 0 0 0 0 0 886 0 0 0 0 0 0 474 459 459 457 459 457 459 457 0 457 459 451 448 451 459 459 468 448 0 0 497 490 490 474 0 0 0 0 0 0 0 422 457 0 0 0 0 0
    0 0 0 0 0 0 0 0 0 0 0 0 0 0 0 0 0 0 0 0 0 0 0 0 0 0 0 0 0 0 0 0 0 0 0 0 0 0 0 0 0 0 0 0 0 0 0 0 0 0 0 0 0 0 0 0 0 0 0 0 0 0 0 0 0 0 0 0 0 1268 1268 1268 1268 1268 1291 1314 1291 1268 1291 1291 1291 1247 1247 1247 1226 1226 1338 1362 1314 1362 1388 1501 1443 1415 1388 1314 1291 1247 1206 1051 981 931 943 981 994 0 0 0 1443 1415 1752 1887 1887 1887 0 1887 1936 1887 1672 1599 1599 1471 1415 1388 1388 1362 1362 1338 1314 1314 1338 1338 1362 1388 0 0 0 0 0 0 0 0 0 0 0 0 0 0 0 0 0 0 0 0 0 0 0 0 0 0 0 0 0 0 0 0 0 0 0 0 0 0 0 0 0 0 0 0 0 0 0 0 0 0 0 0 0 0 0 1471 1415 1443 1362 1314 1338 1362 1338 1268 1268 1226 1226 1226 1226 1206 1168 1168 1168 1132 1132 1132 1132 1115 1115 1082 1082 1051 1022 994 981 955 931 908 908 886 897 919 897 886 876 886 865 855 826 808 791 774 766 766 750 750 743 728 707 700 687 675 681 669 663 663 663 669 669 669 669 629 0 0 0 0 0 603 629 629 675 675 639 613 613 608 0 0 0 0 0 0 0 0 0 0 0 0 0 0 497 0 481 474 471 462 0 459 459 448 446 446 448 446 446 438 430 427 0 459 0 448 430 0 0 425 0 0 0 408 0 0 0 0 0 0
    0 0 0 0 0 0 0 0 0 0 0 0 0 0 0 0 0 0 0 0 0 0 0 0 0 0 0 0 0 0 0 0 0 0 0 0 0 0 0 0 0 0 0 0 0 0 0 0 0 0 0 0 0 0 0 0 0 0 0 0 0 0 0 0 0 0 0 0 0 1268 1247 1247 1247 1247 1268 1268 1247 1226 1226 1268 1268 1206 1206 1168 1149 1132 1187 1247 1206 1206 0 1443 1362 1362 1338 1291 1206 1168 1098 1036 981 955 968 994 1008 1008 0 0 1415 1415 1752 1936 1887 1887 0 1887 1936 0 1533 1415 1471 1388 1362 1338 1338 1338 1338 1314 1314 1291 1291 1314 1314 0 0 0 0 0 0 0 0 0 0 0 0 0 0 0 0 0 0 0 0 0 0 0 0 0 0 0 0 0 0 0 0 0 0 0 0 0 0 0 0 0 0 0 0 0 0 0 0 0 0 0 0 0 0 0 0 1501 1471 1443 1362 1291 1314 1338 1314 1247 1226 1206 1206 1226 1226 1187 1168 1149 1168 1132 1115 1132 1098 1098 1082 1051 1051 1036 981 981 968 955 931 908 908 886 886 919 886 886 876 886 876 865 836 817 799 782 774 774 758 758 743 735 714 714 700 687 687 681 675 669 663 669 669 663 663 618 623 0 0 0 603 593 0 0 0 0 629 608 603 0 0 0 0 0 0 0 0 0 0 634 593 0 0 0 525 504 490 0 477 468 471 462 459 451 448 446 448 446 446 435 430 427 0 451 0 446 430 0 0 427 0 408 395 402 0 0 0 0 0 0
    0 0 0 0 0 0 0 0 0 0 0 0 0 0 0 0 0 0 0 0 0 0 0 0 0 0 0 0 0 0 0 0 0 0 0 0 0 0 0 0 0 0 0 0 0 0 0 0 0 0 0 0 0 0 0 0 0 0 0 0 0 0 0 0 0 0 0 0 0 1247 1247 1247 1247 1247 1247 1291 1268 1247 1206 1247 1268 1206 1187 1168 1132 1132 1132 1168 1132 1066 1036 0 0 0 1226 1022 1036 1022 1008 994 968 955 968 981 1008 1022 1022 1268 1388 1362 1752 1887 1887 0 0 0 0 0 1443 1388 1471 1362 1338 1338 1338 1338 1362 1338 1291 1268 1268 1268 0 0 0 0 0 0 0 0 0 0 0 0 0 0 0 0 0 0 0 0 0 0 0 0 0 0 0 0 0 0 0 0 0 0 0 0 0 0 0 0 0 0 0 0 0 0 0 0 0 0 0 0 0 0 0 0 0 0 1501 1443 1338 1247 1291 1314 1314 1247 1206 1206 1187 1206 1226 1187 1187 1149 1149 1149 1132 1132 1082 1082 1066 1036 1036 1022 968 968 955 955 919 897 908 876 876 908 865 865 855 876 865 845 826 808 799 791 774 774 766 766 743 735 721 721 707 694 694 687 681 675 669 669 669 669 657 618 618 608 598 598 598 588 593 588 0 0 623 613 0 0 0 0 0 0 0 0 0 561 0 629 584 0 0 0 529 518 0 0 0 0 474 465 459 451 448 448 451 448 446 435 0 0 0 451 0 440 0 0 440 0 0 415 395 397 0 0 0 0 0 0
    0 0 0 0 0 0 0 0 0 0 0 0 0 0 0 0 0 0 0 0 0 0 0 0 0 0 0 0 0 0 0 0 0 0 0 0 0 0 0 0 0 0 0 0 0 0 0 0 0 0 0 0 0 0 0 0 0 0 0 0 0 0 0 0 0 0 0 0 0 1247 1247 1226 1247 1226 1226 1247 1226 1168 1115 1149 1226 1149 1149 1115 1082 1082 1098 1098 1066 1022 0 0 0 0 994 968 981 994 981 968 955 955 968 994 1022 1066 1115 1291 1362 1338 1752 1887 1887 1887 1936 1839 0 0 1599 1501 1565 1388 1338 1338 1338 1338 1388 1362 1291 1268 1247 0 0 0 0 0 0 0 0 0 0 0 0 0 0 0 0 0 0 0 0 0 0 0 0 0 0 0 0 0 0 0 0 0 0 0 0 0 0 0 0 0 0 0 0 0 0 0 0 0 0 0 0 0 0 0 0 0 0 0 1471 1415 1338 1247 1291 1314 1314 1247 1206 1187 1168 1206 1206 1168 1149 1115 1132 1132 1115 1115 1066 1066 1066 1036 1036 1008 955 968 955 955 931 897 908 886 876 908 855 855 845 865 855 836 826 808 799 791 782 791 774 766 750 735 721 721 707 694 694 687 681 675 669 669 663 663 657 618 618 613 603 598 593 579 570 566 566 584 603 579 561 561 549 537 533 533 529 0 0 0 0 623 584 557 0 0 533 0 0 0 0 0 474 465 457 451 448 448 451 446 443 435 427 427 432 0 432 0 0 0 432 432 430 418 387 0 0 0 0 0 0 0
    0 0 0 0 0 0 0 0 0 0 0 0 0 0 0 0 0 0 0 0 0 0 0 0 0 0 0 0 0 0 0 0 0 0 0 0 0 0 0 0 0 0 0 0 0 0 0 0 0 0 0 0 0 0 0 0 0 0 0 0 0 0 0 0 0 0 0 0 0 1247 1247 1206 1226 1187 1187 1206 1168 1115 1098 1098 1168 1115 1115 1082 1066 1051 1066 1051 1022 1008 994 968 943 943 955 931 955 968 955 955 955 968 968 994 1022 1066 1115 1226 1314 1291 0 0 0 0 0 0 0 0 1672 1565 1635 1415 1338 1314 1338 1362 1362 1362 1291 0 0 0 0 0 0 0 0 0 0 0 0 0 0 0 0 0 0 0 0 0 0 0 0 0 0 0 0 0 0 0 0 0 0 0 0 0 0 0 0 0 0 0 0 0 0 0 0 0 0 0 0 0 0 0 0 0 0 0 0 0 0 0 1226 1168 1226 1314 1291 1226 1187 1168 1132 1187 1168 1149 1115 1082 1098 1082 1066 1051 1022 1022 1036 1022 1008 1008 943 955 955 955 931 908 908 897 876 919 855 855 845 865 855 845 826 817 808 799 791 799 774 774 758 743 728 721 714 700 694 687 681 681 675 669 669 663 663 629 629 623 608 608 598 584 570 557 557 570 593 561 553 553 545 541 537 537 529 529 0 0 0 0 574 0 0 0 525 0 0 0 0 0 0 471 462 454 451 451 457 451 0 0 0 0 0 0 0 0 0 425 432 430 427 418 393 0 0 0 0 0 0 0
    0 0 0 0 0 0 0 0 0 0 0 0 0 0 0 0 0 0 0 0 0 0 0 0 0 0 0 0 0 0 0 0 0 0 0 0 0 0 0 0 0 0 0 0 0 0 0 0 0 0 0 0 0 0 0 0 0 0 0 0 0 0 0 0 0 0 0 0 0 1226 1226 1187 1206 1187 1149 1168 1115 1115 1098 1098 1115 1098 1098 1066 1051 1036 1036 1022 994 981 981 943 931 931 943 931 955 968 955 955 955 968 981 994 1036 1036 1051 1098 1226 0 0 0 0 0 0 0 0 0 0 0 0 0 1362 1338 0 0 0 0 0 0 0 0 0 0 0 0 0 0 0 0 0 0 0 0 0 0 0 0 0 0 0 0 0 0 0 0 0 0 0 0 0 0 0 0 0 0 0 0 0 0 0 0 0 0 0 0 0 0 0 0 0 0 0 0 0 0 0 0 0 0 0 0 0 0 0 1338 1314 1247 1168 1149 1115 1168 1132 1115 1098 1082 1066 1066 1036 1022 994 994 1008 981 981 981 943 955 955 955 931 908 919 897 886 931 855 855 855 865 865 855 836 817 817 817 799 808 791 791 774 750 735 728 721 707 700 694 687 681 681 675 675 669 663 634 634 634 613 613 598 593 574 561 561 579 598 570 553 553 549 553 553 561 0 537 529 545 0 608 557 541 525 525 521 514 0 497 493 0 0 474 465 459 459 462 465 459 459 0 0 0 446 443 0 432 430 427 432 430 427 420 404 408 406 0 0 0 0 0
    0 0 0 0 0 0 0 0 0 0 0 0 0 0 0 0 0 0 0 0 0 0 0 0 0 0 0 0 0 0 0 0 0 0 0 0 0 0 0 0 0 0 0 0 0 0 0 0 0 0 0 0 0 0 0 0 0 0 0 0 0 0 0 0 0 0 0 0 0 1168 1149 1132 1168 1132 1082 1098 1082 1098 1098 1082 1082 1082 1082 1066 1036 1022 1022 1008 968 955 955 931 919 919 931 919 931 943 955 943 955 968 981 981 1008 1008 1008 0 0 0 0 0 0 0 0 0 0 0 0 0 0 0 0 0 0 0 0 0 0 0 0 0 0 0 0 0 0 0 0 0 0 0 0 0 0 0 0 0 0 0 0 0 0 0 0 0 0 0 0 0 0 0 0 0 0 0 0 0 0 0 0 0 0 0 0 0 0 0 0 0 0 0 0 0 0 0 0 0 0 0 0 0 0 0 0 0 1338 1226 1132 1115 1098 1132 1098 1098 1098 1082 1066 1051 1022 1008 981 968 981 955 968 968 931 943 955 943 931 908 919 897 886 955 865 865 865 876 865 845 836 826 817 817 808 808 799 799 791 766 743 735 721 714 707 700 694 687 687 681 681 675 657 639 639 634 613 608 593 579 566 557 557 570 584 557 549 549 545 545 537 545 533 533 529 537 0 613 0 533 529 525 521 511 504 500 497 490 484 477 471 468 468 471 474 471 471 465 0 0 0 459 448 435 430 425 430 427 427 420 411 415 415 0 0 0 0 0
    0 0 0 0 0 0 0 0 0 0 0 0 0 0 0 0 0 0 0 0 0 0 0 0 0 0 0 0 0 0 0 0 0 0 0 0 0 0 0 0 0 0 0 0 0 0 0 0 0 0 0 0 0 0 0 0 0 0 0 0 0 0 0 0 0 0 0 0 0 1098 1098 1098 1098 1098 1051 1066 1082 1082 1066 1051 1051 1051 1066 1051 1022 1022 1008 968 919 919 931 908 897 908 908 897 919 931 943 931 943 968 955 955 981 968 0 0 0 0 0 0 0 0 0 0 0 0 0 0 0 0 0 0 0 0 0 0 0 0 0 0 0 0 0 0 0 0 0 0 0 0 0 0 0 0 0 0 0 0 0 0 0 0 0 0 0 0 0 0 0 0 0 0 0 0 0 0 0 0 0 0 0 0 0 0 0 0 0 0 0 0 0 0 0 0 0 0 0 0 0 0 0 0 0 0 0 1187 1098 1098 1082 1115 1098 1098 1066 1066 1036 1022 1008 994 968 955 955 931 943 943 908 919 931 919 908 886 919 897 897 968 865 876 876 876 876 855 836 826 817 817 808 817 808 808 791 774 750 743 728 721 714 707 707 700 694 694 687 687 669 657 651 634 613 608 593 584 570 561 566 574 588 570 553 545 541 537 533 533 525 525 525 529 529 0 533 529 529 525 525 514 507 504 497 490 484 477 471 471 471 471 474 471 474 471 471 468 468 465 462 446 438 427 432 425 425 418 411 413 411 0 0 0 0 0
    0 0 0 0 0 0 0 0 0 0 0 0 0 0 0 0 0 0 0 0 0 0 0 0 0 0 0 0 0 0 0 0 0 0 0 0 0 0 0 0 0 0 0 0 0 0 0 0 0 0 0 0 0 0 0 0 0 0 0 0 0 0 0 0 0 0 0 0 0 0 0 0 0 1066 1036 1066 1066 1066 1051 1036 1022 1036 1036 1036 994 955 931 919 865 876 886 886 876 886 886 886 908 931 931 931 943 968 955 968 0 0 0 0 0 0 0 0 0 0 0 0 0 0 0 0 0 0 0 0 0 0 0 0 0 0 0 0 0 0 0 0 0 0 0 0 0 0 0 0 0 0 0 0 0 0 0 0 0 0 0 0 0 0 0 0 0 0 0 0 0 0 0 0 0 0 0 0 0 0 0 0 0 0 0 0 0 0 0 0 0 0 0 0 0 0 0 0 0 0 0 0 0 0 1082 1098 1082 1132 1098 1098 1066 1051 1036 1022 1008 968 955 931 943 919 919 931 897 908 919 897 897 876 897 897 886 943 865 886 876 876 886 865 836 826 817 817 817 817 808 808 791 774 750 743 728 721 714 707 707 700 694 694 687 681 663 651 639 623 613 608 603 593 584 574 579 584 593 579 561 549 545 541 533 529 521 521 521 525 525 529 533 533 529 529 529 518 511 504 497 487 484 481 477 474 474 471 0 474 474 471 471 468 468 468 465 448 440 432 435 422 420 411 406 406 404 0 0 0 0 0
    0 0 0 0 0 0 0 0 0 0 0 0 0 0 0 0 0 0 0 0 0 0 0 0 0 0 0 0 0 0 0 0 0 0 0 0 0 0 0 0 0 0 0 0 0 0 0 0 0 0 0 0 0 0 0 0 0 0 0 0 0 0 0 0 0 0 0 0 0 0 0 0 0 1051 1036 1051 1051 1051 1036 1022 1008 1022 1022 1008 943 855 845 855 836 836 845 845 845 865 865 876 897 908 931 931 943 968 0 0 0 0 0 0 0 0 0 0 0 0 0 0 0 0 0 0 0 0 0 0 0 0 0 0 0 0 0 0 0 0 0 0 0 0 0 0 0 0 0 0 0 0 0 0 0 0 0 0 0 0 0 0 0 0 0 0 0 0 0 0 0 0 0 0 0 0 0 0 0 0 0 0 0 0 0 0 0 0 0 0 0 0 0 0 0 0 0 0 0 0 0 0 0 0 0 1082 1082 1132 1098 1082 1066 1051 1022 1008 994 955 931 908 919 897 897 908 886 897 897 897 886 876 876 886 876 919 855 865 865 855 855 855 826 817 808 808 817 817 808 808 791 774 743 735 721 714 707 700 700 694 687 687 675 663 645 634 629 623 608 608 598 588 588 570 574 584 588 579 566 557 553 549 537 533 525 521 518 521 521 521 525 529 525 529 525 514 507 500 493 487 484 481 481 477 477 474 0 474 474 468 468 468 468 468 465 448 440 432 435 420 413 406 404 404 402 0 0 0 0 0
    0 0 0 0 0 0 0 0 0 0 0 0 0 0 0 0 0 0 0 0 0 0 0 0 0 0 0 0 0 0 0 0 0 0 0 0 0 0 0 0 0 0 0 0 0 0 0 0 0 0 0 0 0 0 0 0 0 0 0 0 0 0 0 0 0 0 0 0 0 1022 0 1051 0 1036 1022 1036 1036 1036 1022 994 943 968 876 865 865 826 826 836 826 826 836 845 855 865 865 876 897 897 919 908 931 0 0 0 0 0 0 0 0 0 0 0 0 0 0 0 0 0 0 0 0 0 0 0 0 0 0 0 0 0 0 0 0 0 0 0 0 0 0 0 0 0 0 0 0 0 0 0 0 0 0 0 0 0 0 0 0 0 0 0 0 0 0 0 0 0 0 0 0 0 0 0 0 0 0 0 0 0 0 0 0 0 0 0 0 0 0 0 0 0 0 0 0 0 0 0 0 0 0 0 1051 1082 1051 1051 1022 1008 981 955 968 897 897 886 897 886 886 897 886 886 897 886 886 876 865 876 876 897 845 855 855 836 855 845 817 817 808 808 817 817 817 808 791 774 743 735 714 707 700 694 694 687 681 687 663 651 634 623 623 618 608 608 603 593 593 579 579 588 588 584 574 566 557 553 549 541 529 521 521 521 518 521 525 525 521 525 521 511 504 497 490 487 487 481 481 477 477 477 0 477 477 471 471 471 471 471 468 454 443 432 435 420 415 0 0 408 0 0 0 0 0 0
    0 0 0 0 0 0 0 0 0 0 0 0 0 0 0 0 0 0 0 0 0 0 0 0 0 0 0 0 0 0 0 0 0 0 0 0 0 0 0 0 0 0 0 0 0 0 0 0 0 0 0 0 0 0 0 0 0 0 0 0 0 0 0 0 0 0 0 0 0 0 0 1051 0 0 1008 1022 1022 1022 994 955 865 855 826 826 836 817 817 826 817 817 826 836 845 855 855 876 886 897 919 919 0 0 0 0 0 0 0 0 0 0 0 0 0 0 0 0 0 0 0 0 0 0 0 0 0 0 0 0 0 0 0 0 0 0 0 0 0 0 0 0 0 0 0 0 0 0 0 0 0 0 0 0 0 0 0 0 0 0 0 0 0 0 0 0 0 0 0 0 0 0 0 0 0 0 0 0 0 0 0 0 0 0 0 0 0 0 0 0 0 0 0 0 0 0 0 0 0 0 0 0 0 1036 1022 1008 968 968 919 897 908 865 876 865 876 876 876 876 876 876 886 876 876 865 855 865 865 876 855 855 855 845 865 865 836 836 826 826 826 836 826 817 808 791 750 735 707 700 694 694 687 687 675 681 651 645 629 623 623 618 613 613 603 598 603 588 588 588 588 584 574 566 561 553 549 541 529 525 521 525 521 521 525 525 525 529 525 511 500 497 490 487 484 484 481 481 477 477 477 474 474 471 468 465 465 468 468 462 451 446 438 422 415 0 0 0 0 0 0 0 0 0
    0 0 0 0 0 0 0 0 0 0 0 0 0 0 0 0 0 0 0 0 0 0 0 0 0 0 0 0 0 0 0 0 0 0 0 0 0 0 0 0 0 0 0 0 0 0 0 0 0 0 0 0 0 0 0 0 0 0 0 0 0 0 0 0 0 0 0 0 0 0 0 1022 994 994 994 1008 1008 1022 981 919 855 836 826 826 826 817 808 808 808 817 817 826 836 845 845 865 865 876 0 0 0 0 0 0 0 0 0 0 0 0 0 0 0 0 0 0 0 0 0 0 0 0 0 0 0 0 0 0 0 0 0 0 0 0 0 0 0 0 0 0 0 0 0 0 0 0 0 0 0 0 0 0 0 0 0 0 0 0 0 0 0 0 0 0 0 0 0 0 0 0 0 0 0 0 0 0 0 0 0 0 0 0 0 0 0 0 0 0 0 0 0 0 0 0 0 0 0 0 0 0 0 1051 1022 1008 981 981 931 908 897 865 865 865 865 865 865 865 865 865 865 855 865 855 845 865 865 865 855 855 845 845 876 865 845 836 826 826 836 845 836 826 817 799 758 743 714 707 700 694 694 687 681 681 651 645 629 623 623 623 613 613 608 608 608 598 598 593 593 588 584 574 570 557 553 545 529 521 521 521 518 518 521 521 518 521 521 507 497 490 484 481 477 477 477 477 477 474 474 477 477 474 471 468 468 471 471 468 462 0 0 0 0 0 0 415 0 0 0 0 0 0
    0 0 0 0 0 0 0 0 0 0 0 0 0 0 0 0 0 0 0 0 0 0 0 0 0 0 0 0 0 0 0 0 0 0 0 0 0 0 0 0 0 0 0 0 0 0 0 0 0 0 0 0 0 0 0 0 0 0 0 0 0 0 0 0 0 0 0 0 0 0 0 994 955 968 955 955 981 919 865 845 826 817 817 817 817 808 799 808 808 808 808 817 826 836 836 855 865 0 0 0 0 0 0 0 0 0 0 0 0 0 0 0 0 0 0 0 0 0 0 0 0 0 0 0 0 0 0 0 0 0 0 0 0 0 0 0 0 0 0 0 0 0 0 0 0 0 0 0 0 0 0 0 0 0 0 0 0 0 0 0 0 0 0 0 0 0 0 0 0 0 0 0 0 0 0 0 0 0 0 0 0 0 0 0 0 0 0 0 0 0 0 0 0 0 0 0 0 0 0 0 0 0 1022 1036 994 994 931 897 886 855 865 855 855 855 855 845 855 845 855 845 845 836 836 836 845 836 836 826 826 826 845 836 826 826 817 817 826 836 826 826 808 799 758 750 714 707 700 694 694 694 681 681 651 0 629 623 623 618 613 618 613 613 618 613 608 603 598 598 584 574 570 553 545 0 529 521 521 521 518 518 518 518 518 521 518 511 497 490 484 481 477 474 474 474 471 471 471 471 471 474 468 465 468 471 471 468 465 481 477 0 521 0 0 0 0 0 0 0 0 0
    0 0 0 0 0 0 0 0 0 0 0 0 0 0 0 0 0 0 0 0 0 0 0 0 0 0 0 0 0 0 0 0 0 0 0 0 0 0 0 0 0 0 0 0 0 0 0 0 0 0 0 0 0 0 0 0 0 0 0 0 0 0 0 0 0 0 0 0 0 0 968 968 943 943 943 886 908 836 826 817 808 808 817 817 817 808 808 817 808 808 817 817 817 817 817 0 0 0 0 0 0 0 0 0 0 0 0 0 0 0 0 0 0 0 0 0 0 0 0 0 0 0 0 0 0 0 0 0 0 0 0 0 0 0 0 0 0 0 0 0 0 0 0 0 0 0 0 0 0 0 0 0 0 0 0 0 0 0 0 0 0 0 0 0 0 0 0 0 0 0 0 0 0 0 0 0 0 0 0 0 0 0 0 0 0 0 0 0 0 0 0 0 0 0 0 0 0 0 0 0 0 0 0 955 908 943 886 865 865 845 845 845 845 845 845 836 836 836 836 836 836 826 826 826 836 836 826 817 817 817 826 817 808 808 808 817 826 826 826 826 808 799 766 766 721 714 700 700 700 694 681 0 651 0 623 623 623 618 613 618 618 618 623 613 608 603 593 588 579 561 553 545 541 533 525 521 525 521 521 518 521 518 521 521 514 504 490 484 477 477 474 468 468 468 465 462 465 465 465 468 468 462 465 468 471 468 462 474 474 0 507 497 0 0 0 0 0 0 0 0
    0 0 0 0 0 0 0 0 0 0 0 0 0 0 0 0 0 0 0 0 0 0 0 0 0 0 0 0 0 0 0 0 0 0 0 0 0 0 0 0 0 0 0 0 0 0 0 0 0 0 0 0 0 0 0 0 0 0 0 0 0 0 0 0 0 0 0 0 0 0 955 955 931 931 908 855 855 817 808 808 808 799 808 808 808 808 808 808 808 808 808 808 808 0 0 0 0 0 0 0 0 0 0 0 0 0 0 0 0 0 0 0 0 0 0 0 0 0 0 0 0 0 0 0 0 0 0 0 0 0 0 0 0 0 0 0 0 0 0 0 0 0 0 0 0 0 0 0 0 0 0 0 0 0 0 0 0 0 0 0 0 0 0 0 0 0 0 0 0 0 0 0 0 0 0 0 0 0 0 0 0 0 0 0 0 0 0 0 0 0 0 0 0 0 0 0 0 0 0 0 0 0 0 0 855 855 845 845 845 826 826 826 836 836 836 826 836 826 826 826 836 826 836 836 855 836 836 826 817 817 817 808 791 791 791 808 817 826 817 817 808 799 766 766 728 714 700 700 700 694 681 0 651 0 0 0 623 618 613 618 618 623 623 618 613 608 603 593 584 566 553 545 541 529 521 521 525 521 521 521 525 521 525 529 521 511 493 487 477 477 471 465 465 465 459 454 454 454 454 459 459 451 454 459 465 462 457 468 465 465 500 493 0 0 0 0 0 0 0 0
    0 0 0 0 0 0 0 0 0 0 0 0 0 0 0 0 0 0 0 0 0 0 0 0 0 0 0 0 0 0 0 0 0 0 0 0 0 0 0 0 0 0 0 0 0 0 0 0 0 0 0 0 0 0 0 0 0 0 0 0 0 0 0 0 0 0 0 0 0 897 919 919 897 886 865 836 836 817 808 799 791 791 799 808 808 808 799 808 808 808 808 808 0 0 0 0 0 0 0 0 0 0 0 0 0 0 0 0 0 0 0 0 0 0 0 0 0 0 0 0 0 0 0 0 0 0 0 0 0 0 0 0 0 0 0 0 0 0 0 0 0 0 0 0 0 0 0 0 0 0 0 0 0 0 0 0 0 0 0 0 0 0 0 0 0 0 0 0 0 0 0 0 0 0 0 0 0 0 0 0 0 0 0 0 0 0 0 0 0 0 0 0 0 0 0 0 0 0 0 0 0 0 0 0 836 799 817 808 808 799 799 808 817 826 826 826 836 826 826 836 836 826 826 836 845 836 826 817 817 808 808 799 782 791 782 799 808 817 817 817 808 799 766 766 728 714 707 700 0 694 681 0 645 0 0 0 623 618 618 618 618 623 623 623 613 608 598 584 574 566 557 549 545 533 521 521 529 525 525 529 529 525 529 533 525 514 493 487 477 481 474 468 468 468 462 454 451 451 448 454 457 448 451 454 457 457 448 454 448 0 0 0 0 0 0 0 0 0 0 0
    0 0 0 0 0 0 0 0 0 0 0 0 0 0 0 0 0 0 0 0 0 0 0 0 0 0 0 0 0 0 0 0 0 0 0 0 0 0 0 0 0 0 0 0 0 0 0 0 0 0 0 0 0 0 0 0 0 0 0 0 0 0 0 0 0 0 0 0 0 865 886 876 855 845 836 817 817 799 791 782 782 782 799 799 799 799 808 817 817 808 0 0 0 0 0 0 0 0 0 0 0 0 0 0 0 0 0 0 0 0 0 0 0 0 0 0 0 0 0 0 0 0 0 0 0 0 0 0 0 0 0 0 0 0 0 0 0 0 0 0 0 0 0 0 0 0 0 0 0 0 0 0 0 0 0 0 0 0 0 0 0 0 0 0 0 0 0 0 0 0 0 0 0 0 0 0 0 0 0 0 0 0 0 0 0 0 0 0 0 0 0 0 0 0 0 0 0 0 0 0 0 0 0 0 0 799 799 791 791 791 791 799 808 826 826 817 836 826 836 836 826 826 826 826 826 826 817 808 799 799 791 782 774 782 766 791 799 808 808 808 799 791 750 766 735 714 707 0 0 0 687 0 657 639 629 629 629 629 623 629 623 623 629 623 613 603 593 584 574 566 561 553 545 537 525 525 529 529 533 533 529 529 529 529 525 514 493 487 477 481 474 465 462 462 457 451 448 448 448 451 454 448 448 448 451 451 446 448 448 443 0 0 0 0 0 0 0 0 0 0
    0 0 0 0 0 0 0 0 0 0 0 0 0 0 0 0 0 0 0 0 0 0 0 0 0 0 0 0 0 0 0 0 0 0 0 0 0 0 0 0 0 0 0 0 0 0 0 0 0 0 0 0 0 0 0 0 0 0 0 0 0 0 0 0 0 0 0 0 0 0 845 845 836 826 808 799 791 782 766 774 774 774 791 791 799 808 808 817 0 0 0 0 0 0 0 0 0 0 0 0 0 0 0 0 0 0 0 0 0 0 0 0 0 0 0 0 0 0 0 0 0 0 0 0 0 0 0 0 0 0 0 0 0 0 0 0 0 0 0 0 0 0 0 0 0 0 0 0 0 0 0 0 0 0 0 0 0 0 0 0 0 0 0 0 0 0 0 0 0 0 0 0 0 0 0 0 0 0 0 0 0 0 0 0 0 0 0 0 0 0 0 0 0 0 0 0 0 0 0 0 0 0 0 0 0 791 791 782 782 774 774 791 799 808 808 817 826 826 826 836 826 817 817 817 817 817 799 799 791 799 791 782 782 791 774 791 782 799 791 782 774 766 735 743 735 728 714 714 707 700 694 0 681 669 657 657 657 651 645 651 639 639 639 639 623 608 598 579 570 561 557 553 549 541 529 529 537 533 537 537 533 529 529 529 518 507 487 481 474 474 468 459 457 459 454 451 448 448 448 451 454 451 448 451 451 451 448 454 454 457 0 490 0 0 0 0 0 0 0 0
    0 0 0 0 0 0 0 0 0 0 0 0 0 0 0 0 0 0 0 0 0 0 0 0 0 0 0 0 0 0 0 0 0 0 0 0 0 0 0 0 0 0 0 0 0 0 0 0 0 0 0 0 0 0 0 0 0 0 0 0 0 0 0 0 0 0 0 0 0 700 728 743 758 774 782 766 766 774 758 774 774 774 791 791 799 808 808 0 0 0 0 0 0 0 0 0 0 0 0 0 0 0 0 0 0 0 0 0 0 0 0 0 0 0 0 0 0 0 0 0 0 0 0 0 0 0 0 0 0 0 0 0 0 0 0 0 0 0 0 0 0 0 0 0 0 0 0 0 0 0 0 0 0 0 0 0 0 0 0 0 0 0 0 0 0 0 0 0 0 0 0 0 0 0 0 0 0 0 0 0 0 0 0 0 0 0 0 0 0 0 0 0 0 0 0 0 0 0 0 0 0 0 0 0 0 0 0 791 791 766 791 782 791 791 799 808 817 817 826 817 808 808 817 817 817 808 799 799 799 799 791 791 791 799 774 791 782 782 782 766 750 743 728 728 735 721 714 721 714 700 700 0 687 681 675 675 675 669 663 663 651 651 645 639 623 608 598 570 566 561 557 553 549 541 533 533 537 533 529 529 529 525 521 518 504 497 484 474 471 468 465 459 454 457 457 451 451 448 448 451 454 451 448 448 451 451 448 454 454 457 0 0 0 477 0 0 0 0 0 0
    0 0 0 0 0 0 0 0 0 0 0 0 0 0 0 0 0 0 0 0 0 0 0 0 0 0 0 0 0 0 0 0 0 0 0 0 0 0 0 0 0 0 0 0 0 0 0 0 0 0 0 0 0 0 0 0 0 0 0 0 0 0 0 0 0 0 0 0 0 694 707 714 721 735 735 735 743 758 750 766 766 782 782 782 799 0 0 0 0 0 0 0 0 0 0 0 0 0 0 0 0 0 0 0 0 0 0 0 0 0 0 0 0 0 0 0 0 0 0 0 0 0 0 0 0 0 0 0 0 0 0 0 0 0 0 0 0 0 0 0 0 0 0 0 0 0 0 0 0 0 0 0 0 0 0 0 0 0 0 0 0 0 0 0 0 0 0 0 0 0 0 0 0 0 0 0 0 0 0 0 0 0 0 0 0 0 0 0 0 0 0 0 0 0 0 0 0 0 0 0 0 0 0 0 0 0 0 0 799 817 817 799 808 791 799 808 808 817 817 799 791 791 799 799 799 799 782 782 791 791 782 774 774 782 758 774 766 758 743 735 728 728 728 721 728 721 714 728 728 714 707 700 700 687 687 687 681 675 669 663 651 645 639 629 618 603 598 579 579 574 566 561 553 545 533 537 537 533 533 529 525 521 518 511 497 490 481 471 468 468 468 465 459 462 462 459 462 459 457 457 454 451 454 451 448 448 443 443 448 451 451 446 438 438 435 0 0 0 0 0
    0 0 0 0 0 0 0 0 0 0 0 0 0 0 0 0 0 0 0 0 0 0 0 0 0 0 0 0 0 0 0 0 0 0 0 0 0 0 0 0 0 0 0 0 0 0 0 0 0 0 0 0 0 0 0 0 0 0 0 0 0 0 0 0 0 0 0 0 0 687 700 707 707 714 721 728 735 743 743 758 766 774 774 774 0 0 0 0 0 0 0 0 0 0 0 0 0 0 0 0 0 0 0 0 0 0 0 0 0 0 0 0 0 0 0 0 0 0 0 0 0 0 0 0 0 0 0 0 0 0 0 0 0 0 0 0 0 0 0 0 0 0 0 0 0 0 0 0 0 0 0 0 0 0 0 0 0 0 0 0 0 0 0 0 0 0 0 0 0 0 0 0 0 0 0 0 0 0 0 0 0 0 0 0 0 0 0 0 0 0 0 0 0 0 0 0 0 0 0 0 0 0 0 0 0 0 0 0 0 0 0 0 836 817 826 826 817 817 817 799 782 791 799 782 782 791 766 774 782 774 750 758 758 750 735 735 728 728 721 721 721 721 721 721 721 714 707 728 728 707 700 694 694 681 681 675 675 663 663 651 639 634 639 629 618 608 603 588 579 574 561 561 553 549 537 537 541 537 537 537 533 529 525 518 500 493 484 477 474 474 474 471 471 474 471 468 471 465 457 451 448 446 446 443 440 440 438 435 440 443 440 435 432 435 435 0 0 0 0 0
    0 0 0 0 0 0 0 0 0 0 0 0 0 0 0 0 0 0 0 0 0 0 0 0 0 0 0 0 0 0 0 0 0 0 0 0 0 0 0 0 0 0 0 0 0 0 0 0 0 0 0 0 0 0 0 0 0 0 0 0 0 0 0 0 0 0 0 0 0 681 687 694 694 707 714 721 728 743 743 758 758 766 0 0 0 0 0 0 0 0 0 0 0 0 0 0 0 0 0 0 0 0 0 0 0 0 0 0 0 0 0 0 0 0 0 0 0 0 0 0 0 0 0 0 0 0 0 0 0 0 0 0 0 0 0 0 0 0 0 0 0 0 0 0 0 0 0 0 0 0 0 0 0 0 0 0 0 0 0 0 0 0 0 0 0 0 0 0 0 0 0 0 0 0 0 0 0 0 0 0 0 0 0 0 0 0 0 0 0 0 0 0 0 0 0 0 0 0 0 0 0 0 0 0 0 0 0 0 0 0 0 0 0 845 845 836 826 826 826 791 782 791 782 758 766 774 758 766 774 750 743 750 758 750 743 743 728 728 728 714 721 721 728 721 721 714 714 728 735 700 700 694 694 681 0 0 657 645 645 645 639 634 639 639 623 608 608 588 579 574 561 561 553 553 545 545 541 541 541 541 541 537 533 521 504 493 487 481 477 477 477 477 474 477 477 474 474 465 454 448 446 440 440 440 438 435 435 432 432 435 432 427 425 427 427 0 0 0 0 0
    0 0 0 0 0 0 0 0 0 0 0 0 0 0 0 0 0 0 0 0 0 0 0 0 0 0 0 0 0 0 0 0 0 0 0 0 0 0 0 0 0 0 0 0 0 0 0 0 0 0 0 0 0 0 0 0 0 0 0 0 0 0 0 0 0 0 0 0 0 681 687 687 694 707 714 721 728 735 743 750 750 0 0 0 0 0 0 0 0 0 0 0 0 0 0 0 0 0 0 0 0 0 0 0 0 0 0 0 0 0 0 0 0 0 0 0 0 0 0 0 0 0 0 0 0 0 0 0 0 0 0 0 0 0 0 0 0 0 0 0 0 0 0 0 0 0 0 0 0 0 0 0 0 0 0 0 0 0 0 0 0 0 0 0 0 0 0 0 0 0 0 0 0 0 0 0 0 0 0 0 0 0 0 0 0 0 0 0 0 0 0 0 0 0 0 0 0 0 0 0 0 0 0 0 0 0 0 0 0 0 0 0 0 0 886 886 836 836 826 791 774 782 758 735 735 743 735 743 750 735 728 735 758 743 728 721 721 714 707 707 721 721 721 721 728 721 721 743 743 707 694 687 687 675 669 651 657 651 651 645 639 639 645 634 623 608 608 593 584 579 561 561 553 557 553 549 541 541 537 541 541 537 533 525 511 504 493 484 481 481 481 481 481 484 481 477 474 465 451 446 443 440 440 443 438 438 432 432 432 435 432 427 427 427 427 0 0 0 0 0</data></depth>
</opencv_storage>
