<?xml version="1.0"?>
<opencv_storage>
<gps_time_stamp>292105</gps_time_stamp>
<gps_x>-1.2359052658081055e+001</gps_x>
<gps_y>1.1130402565002441e+001</gps_y>
<gps_z>-2.2093594074249268e+000</gps_z>
<image_time_stamp>282958</image_time_stamp>
<depth type_id="opencv-matrix">
  <rows>92</rows>
  <cols>320</cols>
  <dt>s</dt>
  <data>
    0 0 0 0 0 0 0 0 0 0 0 0 0 0 0 0 0 0 0 0 0 0 0 0 0 0 0 0 0 0 0 0 0 0 0 0 0 0 0 0 0 0 0 0 0 0 0 0 0 0 0 0 0 0 0 0 0 0 0 0 0 0 0 0 0 0 0 0 0 0 0 0 0 0 0 0 0 0 0 0 0 0 0 0 0 0 0 0 0 0 0 0 0 0 0 0 0 0 0 0 0 0 0 0 0 0 0 0 0 0 0 0 0 0 0 0 0 0 0 0 0 0 0 0 0 0 0 0 0 0 0 0 0 0 0 0 0 0 0 0 0 0 0 0 0 0 0 0 0 0 0 0 0 0 0 0 0 0 0 0 0 0 0 0 0 0 0 0 0 0 0 0 0 0 0 0 0 0 0 0 0 0 0 0 0 0 0 0 0 0 0 0 0 0 0 0 0 0 0 0 0 0 0 0 0 0 0 0 0 0 0 0 0 0 0 0 0 0 0 0 0 0 0 0 0 0 0 0 0 0 0 0 0 0 0 0 0 0 0 0 0 0 0 0 0 0 0 0 0 0 0 0 0 0 0 0 0 0 0 0 0 0 0 0 0 0 0 0 0 0 0 0 0 0 0 0 0 0 0 0 0 0 0 0 0 0 0 0 0 0 0 0 0 0 0 0 0 0 0 0 0 0 0 0 0 0 0 0 0 0 0 0 0 0 0 0 0 0 0 0
    0 0 0 0 0 0 0 0 0 0 0 0 0 0 0 0 0 0 0 0 0 0 0 0 0 0 0 0 0 0 0 0 0 0 0 0 0 0 0 0 0 0 0 0 0 0 0 0 0 0 0 0 0 0 0 0 0 0 0 0 0 0 0 0 0 0 0 0 0 0 0 0 0 0 0 0 0 0 0 0 0 149 148 0 0 0 0 0 0 0 0 0 0 0 0 0 0 0 0 0 886 865 908 908 886 876 886 886 897 876 919 886 897 919 943 919 919 919 981 919 994 1022 1022 1051 1066 1132 0 0 0 0 0 0 0 0 0 0 0 0 0 908 876 836 886 876 876 886 897 0 0 0 981 919 943 0 0 0 0 0 0 0 0 0 0 0 0 0 0 0 0 0 0 0 919 919 855 908 908 897 908 908 931 919 919 994 931 931 1226 1206 1226 0 0 0 0 0 0 0 0 0 0 0 0 0 0 0 0 0 0 0 0 0 0 0 750 782 782 774 774 799 774 774 774 826 817 817 0 808 782 0 0 0 0 0 0 0 0 0 0 0 0 0 758 0 0 0 0 0 0 179 0 0 0 0 0 0 0 0 0 845 826 817 826 826 836 817 826 808 808 0 0 0 0 0 0 0 0 0 0 0 0 721 694 0 694 714 0 750 808 0 0 743 743 728 735 743 735 758 758 735 758 758 766 750 766 774 758 758 808 766 758 758 0 0 0 0 0 0 0 0 0 0
    0 0 0 0 0 0 0 0 0 0 0 0 0 0 0 0 0 0 0 0 0 0 0 0 0 0 0 0 0 0 0 0 0 0 0 0 0 0 0 0 0 0 0 0 0 0 0 0 0 0 0 0 0 0 0 0 0 0 0 0 0 0 0 0 0 0 0 0 0 0 0 0 0 0 0 0 0 0 0 0 0 0 0 0 0 0 0 0 0 0 0 0 0 0 0 0 0 0 0 0 886 865 908 908 886 876 897 897 897 876 919 886 897 919 943 919 919 919 981 931 994 1022 1022 1066 1132 1226 0 2299 0 0 0 0 0 0 721 714 0 0 0 897 876 836 876 876 876 886 897 0 0 0 968 908 943 0 0 0 0 0 0 0 0 0 379 0 0 0 0 0 0 0 0 0 919 908 855 908 908 897 908 908 931 919 919 994 943 943 1247 1226 1247 1247 1226 0 0 0 0 0 0 0 0 0 0 0 0 0 0 0 845 836 0 0 0 0 750 782 782 774 774 799 774 774 774 826 817 817 0 799 782 799 0 0 0 0 0 0 0 0 0 0 758 758 758 0 0 0 0 0 181 179 0 0 0 0 0 0 0 0 0 845 826 817 826 826 826 817 817 808 808 0 0 0 0 0 0 0 0 0 0 0 0 721 694 714 694 721 714 743 791 0 0 743 743 735 735 743 735 758 758 735 758 758 766 750 766 774 758 758 808 774 758 758 0 0 0 0 0 0 0 0 0 0
    0 0 0 0 0 0 0 0 0 0 0 0 0 0 0 0 0 0 0 0 0 0 0 0 0 0 0 0 0 0 0 0 0 0 0 0 0 0 0 0 0 0 0 0 0 0 0 0 0 0 0 0 0 0 0 0 0 0 0 0 0 0 0 0 0 0 0 0 0 0 0 0 0 0 0 0 0 0 0 0 0 0 0 0 0 0 0 0 0 0 0 0 0 0 0 0 0 0 0 0 908 865 919 919 897 886 897 897 908 876 931 886 897 919 943 919 919 919 981 943 0 1036 1082 1115 1226 1247 0 0 0 0 0 0 0 0 743 728 0 0 0 908 876 836 876 876 876 886 897 0 0 0 968 908 931 0 0 0 0 0 0 0 0 0 0 0 0 0 0 0 0 0 0 0 919 919 855 919 919 897 919 919 931 919 919 994 943 943 1187 1206 1206 1206 0 0 0 0 0 0 0 0 0 0 0 0 0 0 0 0 845 836 0 0 0 0 750 782 782 774 774 799 774 782 782 826 826 817 0 799 774 791 0 0 0 0 0 0 0 0 0 0 0 0 758 750 0 0 0 0 0 0 0 0 0 0 0 808 0 0 0 845 836 817 826 826 826 817 826 808 808 0 0 0 0 0 0 0 411 411 0 0 0 0 700 721 694 721 728 750 791 782 0 743 743 743 735 743 735 758 758 743 758 758 766 758 758 774 758 758 808 774 766 766 799 0 0 0 0 0 0 0 0 0
    0 0 0 0 0 0 0 0 0 0 0 0 0 0 0 0 0 0 0 0 0 0 0 0 0 0 0 0 0 0 0 0 0 0 0 0 0 0 0 0 0 0 0 0 0 0 0 0 0 0 0 0 0 0 0 0 0 0 0 0 0 0 0 0 0 0 0 0 0 0 0 0 0 0 0 0 0 0 0 0 0 0 0 0 0 0 0 0 0 0 0 0 0 0 0 0 968 981 0 0 908 876 919 919 897 886 908 908 908 876 931 886 897 919 943 919 919 919 981 943 0 1082 1132 1149 1206 1206 1206 0 0 0 0 0 0 808 791 0 0 0 0 897 876 836 876 876 876 886 886 0 0 0 981 908 943 0 0 0 0 0 0 0 0 0 0 0 0 0 0 0 0 0 0 0 919 919 855 919 919 897 919 919 931 919 919 994 943 943 1168 1187 1187 1206 1206 0 0 0 0 0 0 0 0 0 0 0 0 0 0 0 845 836 0 0 0 0 750 782 782 774 774 799 774 782 782 826 826 826 0 799 782 0 0 0 0 0 0 0 0 0 0 0 0 766 750 743 750 0 0 0 0 0 0 0 0 799 817 817 0 0 0 855 855 836 845 845 0 0 0 817 808 0 0 0 955 0 0 0 411 411 0 0 0 0 700 728 694 728 714 735 758 758 0 735 743 743 735 750 743 766 766 743 758 766 766 758 758 774 758 758 799 782 774 766 0 0 0 0 0 0 0 0 0 0
    0 0 0 0 0 0 0 0 0 0 0 0 0 0 0 0 0 0 0 0 0 0 0 0 0 0 0 0 0 0 0 0 0 0 0 0 0 0 0 0 0 0 0 0 0 0 0 0 0 0 0 0 0 0 0 0 0 0 0 0 0 0 0 0 0 0 0 0 0 0 0 0 0 0 0 0 0 0 0 0 0 0 0 0 0 0 0 0 0 0 0 0 0 0 0 0 981 981 968 876 919 876 931 931 908 886 908 908 919 886 931 886 908 919 943 919 919 919 994 943 0 1187 1206 1187 1226 1226 1226 0 0 0 0 0 0 817 808 774 766 0 0 886 865 836 876 876 876 876 886 0 0 0 981 908 931 0 0 0 0 0 0 0 0 0 0 0 0 0 0 0 0 0 0 0 919 919 855 919 919 897 919 919 931 919 919 994 943 943 1206 1226 1206 1206 1206 0 0 0 0 0 0 0 0 0 0 0 0 0 0 0 855 836 0 0 0 0 750 782 782 774 774 799 774 774 774 826 826 826 0 799 774 0 0 0 0 0 0 0 0 0 0 0 0 758 750 743 0 0 0 0 0 0 0 0 0 808 817 817 808 0 0 845 0 0 855 0 0 0 0 0 0 0 1036 1036 968 943 0 0 0 0 0 0 0 0 0 735 700 728 714 728 743 758 0 735 750 750 728 750 743 766 766 743 758 766 766 758 758 774 758 758 799 782 766 766 0 0 0 0 0 0 0 0 0 0
    0 0 0 0 0 0 0 0 0 0 0 0 0 0 0 0 0 0 0 0 0 0 0 0 0 0 0 0 0 0 0 0 0 0 0 0 0 0 0 0 0 0 0 0 0 0 0 0 0 0 0 0 0 0 0 0 0 0 0 0 0 0 0 0 0 0 0 0 0 0 0 0 0 0 0 0 0 0 0 0 0 0 0 0 0 0 0 0 0 0 0 0 0 0 0 0 968 981 968 886 943 876 931 931 908 897 919 919 919 886 943 897 908 919 943 919 919 919 994 943 0 0 1268 1247 0 1268 0 0 0 0 0 0 0 808 808 782 782 799 845 886 865 836 876 876 876 876 886 0 0 0 968 897 919 0 0 0 0 0 0 0 0 0 0 0 0 0 0 0 0 0 0 0 908 908 855 919 919 897 908 908 931 908 908 981 931 919 0 0 1168 1168 0 0 0 0 0 0 0 0 0 0 0 0 0 0 0 0 0 0 0 0 0 0 750 782 782 774 766 799 774 774 774 826 817 817 0 791 782 0 0 0 0 0 0 0 0 0 0 0 0 0 758 743 0 0 0 0 0 0 774 782 791 782 799 808 799 808 817 0 0 0 845 0 0 0 0 0 836 0 955 943 908 886 876 845 0 0 0 0 0 0 0 735 0 721 714 728 743 766 728 743 750 758 735 750 743 766 766 743 758 766 766 766 758 774 758 758 799 791 774 766 791 0 0 0 0 0 0 0 0 0
    0 0 0 0 0 0 0 0 0 0 0 0 0 0 0 0 0 0 0 0 0 0 0 0 0 0 0 0 0 0 0 0 0 0 0 0 0 0 0 0 0 0 0 0 0 0 0 0 0 0 0 0 0 0 0 0 0 0 0 0 0 0 0 0 0 0 0 0 0 0 0 0 0 0 0 0 0 0 0 0 0 0 0 0 0 0 0 0 0 0 0 0 0 0 0 0 955 981 968 886 955 876 943 943 908 908 919 919 931 886 943 897 908 931 943 919 919 919 994 943 0 0 1268 0 0 0 0 0 0 1989 0 0 0 799 799 782 799 817 845 886 865 836 876 865 865 876 886 0 0 0 968 886 908 0 0 0 0 0 0 0 0 0 0 0 0 0 0 0 0 0 0 836 897 897 855 908 908 897 908 908 931 908 908 981 919 919 0 0 0 0 0 0 0 0 0 0 0 0 0 0 0 0 0 0 0 0 0 0 0 0 0 0 750 782 782 766 766 799 774 774 774 826 817 808 0 782 774 791 0 0 0 0 0 0 0 0 117 0 0 0 0 0 0 0 0 0 0 774 766 766 766 750 766 0 791 799 799 0 0 817 826 808 817 0 0 817 808 799 826 845 865 836 836 0 0 0 0 0 0 0 0 0 0 714 700 714 728 743 728 743 758 766 735 758 743 766 766 743 758 758 758 758 758 774 758 758 791 791 766 766 791 0 0 0 0 0 0 0 0 0
    0 0 0 0 0 0 0 0 0 0 0 0 0 0 0 0 0 0 0 0 0 0 0 0 0 0 0 0 0 0 0 0 0 0 0 0 0 0 0 0 0 0 0 0 0 0 0 0 0 0 0 0 0 0 0 0 0 0 0 0 0 0 0 0 0 0 0 0 0 0 0 0 0 0 0 0 0 0 0 0 0 0 0 0 0 0 0 0 0 0 0 0 0 0 0 955 943 968 955 876 955 876 943 943 919 908 931 931 931 886 943 897 908 931 943 919 919 919 994 943 0 0 0 0 0 0 0 0 2299 2164 0 0 0 0 799 782 791 791 0 876 855 826 865 865 865 876 876 0 0 0 968 886 908 0 0 0 0 0 0 0 0 0 0 0 0 0 0 0 0 0 0 836 897 897 855 908 908 897 908 908 919 908 908 981 908 908 152 0 0 0 0 0 0 0 0 0 0 2537 2230 0 0 2102 0 0 0 0 0 0 0 0 0 0 750 782 782 766 766 799 774 774 774 817 808 808 0 774 766 0 0 0 0 0 0 0 0 0 116 0 0 0 0 0 0 0 0 791 0 0 774 758 766 750 766 791 799 799 799 0 0 791 808 782 791 799 782 808 799 799 826 836 855 826 0 0 0 0 0 0 0 0 0 0 0 0 694 700 707 707 721 743 750 750 735 758 743 766 766 743 750 758 758 758 750 774 758 758 791 791 766 766 782 0 0 0 0 0 0 0 0 0
    0 0 0 0 0 0 0 0 0 0 0 0 0 0 0 0 0 0 0 0 0 0 0 0 0 0 0 0 0 0 0 0 0 0 0 0 0 0 0 0 0 0 0 0 0 0 0 0 0 0 0 0 0 0 0 0 0 0 0 0 0 0 0 0 0 0 0 0 0 0 0 0 0 0 0 0 0 0 0 0 0 0 1066 1051 1008 1008 981 0 955 0 0 0 0 0 0 919 919 943 931 865 943 876 943 931 919 908 919 931 931 886 943 897 908 931 943 919 919 919 994 943 0 0 0 0 0 0 0 0 2725 0 0 0 0 0 799 791 799 799 836 865 855 826 865 865 865 876 0 0 0 0 968 886 908 0 0 0 0 0 0 0 0 0 0 0 0 0 0 0 0 0 0 826 897 897 855 908 908 886 908 908 919 908 908 968 897 897 0 0 0 0 0 0 0 0 0 865 886 0 0 0 0 0 0 0 0 0 897 845 0 0 0 0 750 782 782 766 766 799 774 774 774 817 808 808 0 774 766 0 0 0 0 0 0 0 0 0 0 0 0 0 0 0 0 0 0 0 0 0 758 743 758 750 774 791 799 799 799 0 0 782 0 750 774 774 758 808 799 791 817 836 876 0 0 0 0 0 0 0 0 0 0 0 0 0 0 0 707 0 0 735 743 750 735 758 735 758 766 743 743 758 758 758 750 774 750 758 782 791 766 766 782 0 0 0 0 0 0 0 0 0
    0 0 0 0 0 0 0 0 0 0 0 0 0 0 0 0 0 0 0 0 0 0 0 0 0 0 0 0 0 0 0 0 0 0 0 0 0 0 0 0 0 0 0 0 0 0 0 0 0 0 0 0 0 0 0 0 0 0 0 0 0 0 0 0 0 0 0 0 0 0 0 0 0 0 0 0 0 0 0 0 0 0 0 1066 1022 1008 981 0 0 0 0 0 0 0 0 0 919 919 919 855 943 876 931 931 908 908 919 931 931 886 943 897 908 931 943 919 919 919 994 943 0 0 0 0 0 0 0 0 0 0 0 0 0 0 0 791 808 808 845 876 855 826 865 865 865 0 0 0 0 0 968 886 919 0 0 0 187 180 0 0 0 0 0 0 0 0 0 0 0 0 799 817 897 897 845 908 908 886 897 908 919 908 908 968 897 886 0 0 0 0 0 0 0 876 897 886 919 0 0 0 0 0 908 0 0 845 897 845 0 0 0 0 750 782 782 766 766 799 774 774 774 817 799 799 0 782 782 0 0 0 0 0 0 0 0 0 117 0 0 0 0 0 0 0 0 0 0 758 758 750 758 758 774 791 791 791 791 0 0 0 0 743 758 750 743 782 782 782 0 0 908 0 766 750 681 0 0 0 0 0 0 0 0 0 0 0 0 0 714 743 750 750 735 758 735 758 758 743 743 750 750 758 743 766 750 758 782 799 766 766 782 0 0 0 0 0 0 0 0 0
    0 0 0 0 0 0 0 0 0 0 0 0 0 0 0 0 0 0 0 0 0 0 0 0 0 0 0 0 0 0 0 0 0 0 0 0 0 0 0 0 0 0 0 0 0 0 0 0 0 0 0 0 0 0 0 0 0 0 0 0 0 0 0 0 0 0 0 0 0 0 0 0 0 0 0 0 0 0 0 0 0 0 0 0 1022 1008 981 0 981 0 0 0 0 0 0 0 931 908 908 855 943 876 931 931 908 897 919 919 931 886 943 897 908 931 943 919 919 919 994 943 0 0 0 0 0 0 0 0 0 0 0 0 0 817 0 0 845 826 855 876 865 826 865 865 865 0 0 0 0 0 981 886 931 0 191 189 188 180 0 0 0 0 0 0 0 0 0 1098 0 0 799 817 886 897 845 908 908 886 897 908 919 908 908 968 897 886 0 0 0 826 0 0 0 855 876 865 908 908 0 0 886 0 919 0 0 855 908 845 0 0 0 0 750 782 782 766 766 799 774 774 774 817 808 808 0 0 0 0 0 0 0 0 0 0 0 0 117 0 118 0 0 0 0 0 0 791 766 774 766 782 774 774 791 791 791 791 0 0 0 0 0 735 758 750 743 766 766 774 0 0 981 955 0 0 0 0 0 0 0 0 0 0 0 0 0 0 714 0 721 750 758 758 743 766 735 758 758 743 735 750 750 750 743 766 750 758 782 799 766 766 782 0 0 0 0 0 0 0 0 0
    0 0 0 0 0 0 0 0 0 0 0 0 0 0 0 0 0 0 0 0 0 0 0 0 0 0 0 0 0 0 0 0 0 0 0 0 0 0 0 0 0 0 0 0 0 0 0 0 0 0 0 0 0 0 0 0 0 0 0 0 0 0 0 0 0 0 0 0 0 0 0 0 0 0 0 0 0 0 0 0 0 0 0 0 1051 1051 1008 1036 981 0 0 0 0 0 0 0 0 908 908 845 931 876 931 931 908 908 919 919 931 886 943 908 908 931 943 919 919 919 994 931 0 0 0 0 0 0 0 0 0 0 0 0 799 799 0 791 0 817 855 876 855 826 865 865 865 0 0 0 0 0 981 897 931 0 193 0 188 180 0 0 0 0 0 0 0 0 0 1051 0 968 808 826 886 886 845 908 908 886 897 908 919 908 908 968 897 886 968 0 826 826 0 0 0 855 886 876 908 919 0 0 0 0 955 0 0 0 908 855 0 0 0 0 750 782 782 766 766 799 774 774 774 817 808 808 0 0 0 0 0 0 0 0 0 0 0 0 117 117 118 0 0 0 0 0 0 799 774 782 782 799 791 791 799 791 782 0 0 0 0 0 0 721 750 743 750 774 766 766 0 0 994 0 0 0 0 0 0 0 0 0 0 0 0 0 0 0 0 0 728 758 758 758 743 766 735 750 758 743 728 750 750 750 735 766 750 758 774 799 766 766 782 0 0 0 0 0 0 0 0 0
    0 0 0 0 0 0 0 0 0 0 0 0 0 0 0 0 0 0 0 0 0 0 0 0 0 0 0 0 0 0 0 0 0 0 0 0 0 0 0 0 0 0 0 0 0 0 0 0 0 0 0 0 0 0 0 0 0 0 0 0 0 0 0 0 0 0 0 0 0 0 0 0 865 0 0 0 0 0 0 0 0 0 0 1082 1082 1066 1022 0 981 0 0 0 0 0 0 0 0 0 0 0 943 876 931 931 908 908 919 931 943 886 943 908 919 931 943 919 919 919 994 919 0 0 0 0 0 0 0 0 0 0 0 0 0 0 0 0 0 808 865 876 855 826 865 865 855 0 0 0 0 0 981 897 931 0 0 0 187 180 0 0 0 0 0 0 0 0 0 0 1036 981 836 836 876 886 845 908 908 886 897 908 919 908 908 968 897 897 968 0 826 826 0 0 0 855 876 876 919 931 0 0 0 0 1008 1008 919 865 919 855 0 0 0 117 750 782 782 766 766 799 774 774 774 826 817 808 0 0 0 0 0 0 0 0 0 0 117 117 117 0 0 0 0 0 0 0 0 799 774 0 0 791 791 791 791 782 782 0 0 0 0 0 0 714 743 743 750 774 758 758 808 817 968 994 0 0 0 0 0 0 0 0 0 0 0 0 0 0 714 0 728 750 758 758 743 766 735 743 750 735 728 743 743 750 735 758 750 750 774 799 766 766 782 0 0 0 0 0 0 0 0 0
    0 0 0 0 0 0 0 0 0 0 0 0 0 0 0 0 0 0 0 0 0 0 0 0 0 0 0 0 0 0 0 0 0 0 0 0 0 0 0 0 0 0 0 0 0 0 0 0 0 0 0 0 0 0 0 0 0 0 0 0 0 0 0 0 0 0 0 0 0 0 0 0 0 0 0 0 0 0 0 0 0 0 0 0 0 1051 994 0 968 0 0 0 0 0 0 0 0 0 0 0 931 865 919 919 908 908 919 931 943 886 955 908 919 931 943 908 908 908 981 908 0 0 0 0 0 0 0 504 0 0 0 0 0 0 0 0 0 817 865 876 855 826 865 865 855 0 0 0 0 0 981 886 931 0 0 0 0 0 0 0 0 0 0 0 0 0 981 981 994 981 865 845 886 886 845 908 908 886 897 908 919 919 908 968 897 897 968 845 817 817 0 0 0 855 876 876 919 943 981 0 0 0 1036 1022 931 886 931 855 0 0 0 0 758 782 782 766 774 799 782 782 782 826 826 817 0 0 0 0 0 0 0 0 0 0 117 117 117 117 0 0 0 0 0 766 0 799 0 0 0 782 774 791 791 782 774 0 0 0 0 0 0 721 743 750 758 774 758 750 808 817 943 994 897 0 0 0 0 0 0 0 0 357 352 0 0 0 707 707 728 743 750 750 735 758 735 743 743 728 721 743 743 743 735 758 750 750 766 799 766 766 782 0 0 0 0 0 0 0 0 0
    0 0 0 0 0 0 0 0 0 0 0 0 0 0 0 0 0 0 0 0 0 0 0 0 0 0 0 0 0 0 0 0 0 0 0 0 0 0 0 0 0 0 0 0 0 0 0 0 0 0 0 0 0 0 0 0 0 0 0 0 0 0 0 0 0 0 0 0 0 0 0 0 0 886 0 865 0 886 0 0 0 0 0 1082 0 1051 968 0 968 968 0 0 0 0 0 0 0 0 0 0 931 865 919 919 897 897 919 919 943 886 955 908 919 931 943 908 908 908 981 908 0 0 0 0 0 0 0 0 0 855 855 865 0 0 0 0 836 836 876 886 855 826 865 855 855 0 0 0 0 0 981 876 0 0 0 0 0 0 0 0 0 0 0 0 0 994 1008 994 994 981 886 855 897 897 845 908 908 886 908 908 919 919 919 981 908 897 981 836 817 808 0 0 0 0 876 897 981 994 1036 1098 1036 1022 1022 1022 908 876 919 845 0 0 0 0 758 782 782 766 774 799 782 782 782 826 826 826 0 0 0 0 0 0 0 0 0 0 0 0 0 0 0 0 0 0 774 766 0 808 774 782 766 782 782 791 791 791 774 0 0 0 0 0 0 728 743 758 766 782 766 750 799 0 968 0 0 0 0 0 0 0 0 0 0 357 352 0 0 0 707 707 728 743 743 743 728 750 728 735 735 728 714 735 735 743 728 758 758 750 766 808 766 766 782 0 0 0 0 0 0 0 0 0
    0 0 0 0 0 0 0 0 0 0 0 0 0 0 0 0 0 0 0 0 0 0 0 0 0 0 0 0 0 0 0 0 0 0 0 0 0 0 0 0 0 0 0 0 0 0 0 0 0 0 0 0 0 0 0 0 0 0 0 0 0 0 0 0 0 0 0 0 0 0 0 0 931 919 919 886 0 0 0 0 0 0 0 1115 0 1066 0 0 0 0 0 0 0 0 0 0 0 0 0 0 919 865 919 919 897 897 919 919 943 886 943 908 908 931 931 908 908 908 981 897 0 0 0 0 0 0 0 0 0 886 886 876 865 865 876 817 817 826 876 876 855 826 855 855 855 0 0 0 0 0 968 855 0 1388 0 0 0 0 0 0 0 919 931 981 0 981 981 981 981 981 897 865 908 908 845 908 908 886 908 908 919 908 908 981 908 897 0 826 817 808 0 0 0 0 0 886 981 994 1051 1115 1008 994 994 981 876 865 886 845 782 817 0 0 758 791 791 774 782 799 782 782 782 826 826 826 0 0 0 0 0 0 0 0 0 0 0 0 0 0 0 0 0 0 774 774 791 799 766 782 782 791 791 799 799 799 782 0 0 0 0 0 0 721 743 750 766 774 774 758 0 0 968 0 0 0 0 0 0 0 766 735 0 0 0 0 0 0 707 714 728 735 735 735 728 750 728 728 735 721 714 735 735 743 728 750 758 758 766 808 774 774 782 0 0 0 0 0 0 0 0 0
    0 0 0 0 0 0 0 0 0 0 0 0 0 0 0 0 0 0 0 0 0 0 0 0 0 0 0 0 0 0 0 0 0 0 0 0 0 0 0 0 0 0 0 0 0 0 0 0 0 0 0 0 0 0 0 0 0 0 0 0 0 0 0 0 0 0 0 0 0 0 0 0 943 919 919 886 0 0 0 0 0 0 0 1132 0 0 0 0 0 0 0 0 0 0 0 0 0 0 0 0 919 865 919 919 897 897 919 919 943 886 943 908 908 931 931 897 897 908 981 897 0 0 0 0 0 0 0 0 0 897 886 876 865 855 865 817 817 826 886 886 855 836 855 855 845 0 0 0 0 0 0 855 0 1362 0 0 0 0 0 0 908 886 908 955 955 968 968 968 968 968 908 876 908 908 845 908 908 886 897 908 908 908 897 968 876 876 981 826 817 808 808 0 0 0 0 0 955 968 0 1066 981 919 943 897 855 855 876 845 808 817 817 817 766 791 791 782 782 799 782 782 782 836 845 845 908 0 0 845 845 0 0 791 0 0 0 0 0 0 0 0 0 766 758 758 774 799 758 782 0 791 782 799 782 791 0 0 0 0 0 0 0 714 735 743 758 774 766 758 0 0 0 0 0 865 0 0 845 817 791 766 774 750 0 0 0 0 714 714 728 735 735 735 728 750 728 728 728 721 714 735 735 743 728 750 758 758 766 808 774 774 774 0 0 0 0 0 0 0 0 0
    0 0 0 0 0 0 0 0 0 0 0 0 0 0 0 0 0 0 0 0 0 0 0 0 0 0 0 0 0 0 0 0 0 0 0 0 0 0 0 0 0 0 0 0 0 0 0 0 0 0 0 0 0 0 0 0 0 0 0 0 0 0 0 0 0 0 0 0 0 0 0 0 0 0 0 0 0 0 0 0 0 0 0 1132 0 0 0 0 0 0 0 0 0 0 0 0 0 0 0 0 919 855 919 919 897 897 919 919 943 886 943 908 908 931 931 897 897 897 994 908 0 0 0 0 0 0 0 0 0 886 886 876 865 845 876 817 817 826 886 886 855 836 855 845 0 0 0 0 0 0 943 845 0 1291 1226 1082 0 0 886 845 886 876 886 931 919 955 931 968 955 955 897 876 897 886 845 897 897 876 886 897 908 897 897 968 865 865 981 826 817 817 817 808 0 0 0 845 955 968 1008 1051 981 931 955 897 865 865 876 845 836 836 826 836 774 799 791 782 791 799 782 782 782 826 836 836 876 0 0 0 0 0 0 0 0 0 0 0 0 0 0 0 0 766 750 758 774 791 758 0 0 0 0 0 0 0 0 0 0 0 0 0 714 721 743 750 766 766 766 758 782 0 0 0 0 845 0 855 845 826 808 799 799 782 0 774 0 0 0 721 735 735 743 735 728 750 728 728 728 721 714 735 735 743 728 750 766 758 766 808 774 774 774 0 0 0 0 0 0 0 0 0
    0 0 0 0 0 0 0 0 0 0 0 0 0 0 0 0 0 0 0 0 0 0 0 0 0 0 0 0 0 0 0 0 0 0 0 0 0 0 0 0 0 0 0 0 0 0 0 0 0 0 0 0 0 0 0 0 0 0 0 0 0 0 0 0 0 0 0 0 0 0 0 0 0 0 0 0 0 0 0 0 0 0 1115 1132 0 0 0 0 0 0 0 0 0 0 0 0 0 0 0 0 908 855 908 908 886 897 919 919 931 886 943 908 908 931 931 897 897 897 994 897 0 0 0 0 0 0 0 0 0 886 886 865 855 845 865 817 826 836 886 886 855 836 855 845 0 0 0 0 0 0 943 855 0 1226 1247 1082 0 0 908 855 886 865 865 886 897 931 886 943 943 943 897 876 897 876 845 897 886 876 886 886 897 886 897 968 855 865 994 826 817 817 817 808 0 0 817 826 886 855 0 1051 981 919 968 897 865 865 865 845 836 845 836 836 774 799 799 791 791 799 782 782 782 826 826 826 0 0 0 0 0 0 0 0 0 0 0 0 0 0 0 0 0 0 758 0 0 791 766 0 0 799 0 0 0 0 0 0 0 0 0 0 721 721 0 766 774 782 774 766 782 0 826 817 817 836 0 845 836 826 817 808 799 791 0 791 0 0 0 721 735 735 735 735 728 750 728 721 728 721 714 735 743 743 728 750 766 758 766 808 766 766 774 0 0 0 0 0 0 0 0 0
    0 0 0 0 0 0 0 0 0 0 0 0 0 0 0 0 0 0 0 0 0 0 0 0 0 0 0 0 0 0 0 0 0 0 0 0 0 0 0 0 0 0 0 0 0 0 0 0 0 0 0 0 0 0 0 0 0 0 0 0 0 0 0 0 0 0 0 0 0 0 0 0 0 0 0 0 0 0 0 0 0 1036 1098 1132 0 0 0 0 0 0 0 0 0 0 0 0 0 202 0 0 897 855 897 908 886 897 919 919 931 886 943 908 908 931 931 897 897 897 981 897 0 0 0 0 0 0 0 0 0 897 0 0 0 0 876 826 836 836 897 897 855 836 845 845 0 0 0 0 0 0 919 855 0 1206 1247 1082 1008 1036 919 876 908 865 865 886 908 955 919 981 968 968 931 886 908 886 845 897 886 876 886 886 886 886 886 955 845 865 994 826 826 817 817 808 0 0 817 817 0 0 0 0 955 876 931 865 855 865 865 845 845 845 845 845 782 808 799 791 791 791 774 774 774 817 808 808 817 817 808 799 0 0 0 0 0 0 0 0 99 0 0 0 0 0 750 0 0 782 758 0 0 0 0 0 0 0 0 0 0 0 728 735 721 0 0 774 782 782 782 774 782 0 817 808 808 817 808 836 836 836 817 817 808 791 0 0 0 0 0 707 721 714 721 721 721 743 728 721 728 721 714 743 743 743 728 750 766 758 766 808 766 766 766 0 0 0 0 0 0 0 0 0
    0 0 0 0 0 0 0 0 0 0 0 0 0 0 0 0 0 0 0 0 0 0 0 0 0 0 0 0 0 0 0 0 0 0 0 0 0 0 0 0 0 0 0 0 0 0 0 0 0 0 0 0 0 0 0 0 0 0 0 0 0 0 0 0 0 0 0 0 0 0 0 0 0 0 0 0 0 0 0 0 0 981 0 0 0 0 0 0 0 0 0 0 0 0 0 0 0 202 0 0 886 855 897 897 886 897 919 919 931 886 943 908 908 931 931 897 897 897 981 886 0 0 0 0 0 0 0 968 0 908 897 0 897 897 908 855 855 836 897 897 855 836 845 845 845 0 0 0 0 0 0 0 0 1206 1247 1082 1036 1036 943 931 955 919 897 897 908 955 943 994 968 968 931 886 919 876 845 897 886 876 876 886 886 876 886 943 845 876 994 0 836 817 817 808 826 808 808 808 808 808 808 0 845 845 836 836 836 855 855 845 855 855 855 845 791 808 808 799 791 791 774 774 774 817 808 808 808 817 808 808 817 799 0 0 0 0 0 0 0 0 0 0 0 743 750 750 0 758 735 0 0 0 0 0 0 0 0 0 0 0 743 750 728 728 758 774 782 782 782 766 766 799 808 799 799 817 799 817 826 836 817 808 799 774 0 0 0 700 681 700 707 707 707 714 721 735 728 721 728 728 714 743 743 743 735 750 766 758 758 808 766 758 758 817 0 0 0 0 0 0 0 0
    0 0 0 0 0 0 0 0 0 0 0 0 0 0 0 0 0 0 0 0 0 0 0 0 0 0 0 0 0 0 0 0 0 0 0 0 0 0 0 0 0 0 0 0 0 0 0 0 0 0 0 0 0 0 0 0 0 0 0 0 0 0 0 0 0 0 0 0 0 0 0 0 0 0 0 0 0 0 0 0 0 968 994 0 0 0 0 0 0 0 0 0 0 0 0 0 0 0 0 0 876 855 897 897 886 886 908 908 931 886 943 908 908 931 931 897 897 897 981 908 0 0 0 0 0 0 0 968 955 919 908 919 908 908 908 865 876 845 897 897 855 845 855 855 845 0 0 0 0 0 0 0 0 1149 1247 1082 1051 1051 968 968 981 955 919 897 0 955 931 994 968 943 908 876 919 876 855 897 876 876 876 886 886 876 886 943 855 919 994 845 845 0 817 799 808 799 799 791 799 799 799 0 836 836 826 836 826 845 845 845 865 865 865 845 799 808 808 799 791 782 774 766 774 817 799 799 799 817 808 799 0 799 0 0 0 0 0 0 0 0 0 0 0 758 758 750 0 750 721 0 84 0 0 0 0 0 0 0 0 0 743 750 735 735 758 774 782 782 791 774 774 799 808 808 808 826 808 817 826 826 808 799 791 758 743 728 0 694 681 700 707 707 707 714 721 743 728 721 728 728 714 743 743 743 735 750 766 758 758 808 766 758 758 817 0 0 0 0 0 0 0 0
    0 0 0 0 0 0 0 0 0 0 0 0 0 0 0 0 0 0 0 0 0 0 0 0 0 0 0 0 0 0 0 0 0 0 0 0 0 0 0 0 0 0 0 0 0 0 0 0 0 0 0 0 0 0 0 0 0 0 0 0 0 0 0 0 0 0 0 0 0 0 0 0 0 0 0 0 0 0 0 0 968 943 968 0 955 0 0 0 0 0 0 0 0 0 0 0 0 0 0 0 876 855 897 897 876 886 908 908 919 886 943 908 908 931 943 908 908 908 994 931 0 0 0 0 0 0 0 994 981 943 919 931 886 886 886 865 865 845 886 897 855 855 855 855 855 855 0 0 0 0 886 0 1268 1149 1247 1115 1051 1051 981 968 981 955 897 876 876 931 908 981 955 943 886 876 919 865 855 897 876 876 876 876 886 876 886 943 855 0 1022 0 0 0 0 782 808 808 799 799 808 808 808 808 826 836 826 836 826 845 845 845 865 865 876 855 799 817 808 799 791 782 766 766 766 808 791 791 791 817 808 799 817 0 0 799 0 0 0 0 0 0 0 0 0 758 758 758 0 0 0 0 0 0 0 0 0 0 0 0 0 0 0 774 766 0 0 0 791 791 799 782 782 799 808 799 799 799 782 791 799 808 791 782 782 758 750 0 0 0 694 707 714 714 721 721 728 743 728 721 735 728 714 743 743 743 735 750 766 758 758 808 758 758 758 808 0 0 0 0 0 0 0 0
    0 0 0 0 0 0 0 0 0 0 0 0 0 0 0 0 0 0 0 0 0 0 0 0 0 0 0 0 0 0 0 0 0 0 0 0 0 0 0 0 0 0 0 0 0 0 0 0 0 0 0 0 0 0 0 0 0 0 0 0 0 0 0 0 0 0 0 0 0 0 0 0 0 0 0 0 0 0 0 0 968 955 955 943 943 0 0 0 0 0 0 0 0 0 0 0 0 0 0 0 876 855 886 886 876 886 908 908 919 886 931 908 908 931 943 908 908 908 994 968 0 0 0 1022 0 0 1036 994 981 943 908 0 855 865 865 855 865 845 876 886 855 855 855 855 855 855 865 855 855 886 886 0 1226 1206 1268 1206 1132 1082 968 955 955 931 876 855 855 897 886 955 955 943 886 865 908 865 855 886 865 865 876 876 886 876 886 931 855 0 1051 0 0 0 817 766 799 799 799 799 808 808 808 808 826 845 845 836 826 836 845 845 855 865 865 845 791 808 808 799 791 774 774 766 766 808 791 791 799 0 0 808 817 817 826 808 808 0 0 758 0 774 0 750 0 750 750 750 0 0 0 0 0 0 0 0 0 0 0 0 0 0 0 0 0 0 0 0 808 799 799 791 782 799 799 791 791 782 758 774 782 808 791 774 782 750 735 707 694 707 700 714 721 714 721 721 735 750 735 714 735 728 714 743 750 743 735 750 766 750 758 799 758 750 750 799 0 0 0 0 0 0 0 0
    0 0 0 0 0 0 0 0 0 0 0 0 0 0 0 0 0 0 0 0 0 0 0 0 0 0 0 0 0 0 0 0 0 0 0 0 0 0 0 0 0 0 0 0 0 0 0 0 0 0 0 0 0 0 0 0 0 0 0 0 0 0 0 0 0 0 0 0 0 0 0 0 0 0 0 0 0 0 0 0 955 943 931 919 908 908 908 0 0 0 0 0 0 0 0 0 0 0 0 845 876 855 886 886 876 876 897 897 908 886 931 919 919 943 955 919 919 919 994 981 994 0 968 0 0 0 1008 981 0 0 897 0 865 876 865 876 897 845 876 876 855 865 855 865 865 865 865 865 865 908 908 0 1168 1149 1291 1291 0 1115 981 955 0 955 876 855 845 876 876 943 955 943 897 865 919 865 855 886 865 865 0 876 876 865 897 919 855 0 1082 0 0 0 743 750 774 791 799 799 817 817 817 817 836 855 865 845 836 845 845 845 855 865 865 845 782 808 799 799 782 774 766 766 766 808 791 799 799 0 0 817 0 0 826 817 817 0 0 766 774 774 782 758 750 750 750 743 758 728 721 714 0 0 0 0 0 0 0 0 0 0 0 0 0 0 0 0 0 808 0 799 799 808 799 791 791 782 743 735 766 791 774 750 743 0 721 694 707 707 707 721 721 721 728 721 743 750 735 714 735 735 714 743 743 743 735 743 766 750 750 799 750 750 743 799 0 0 0 0 0 0 0 0
    0 0 0 0 0 0 0 0 0 0 0 0 0 0 0 0 0 0 0 0 0 0 0 0 0 0 0 0 0 0 0 0 0 0 0 0 0 0 0 0 0 0 0 0 0 0 0 0 0 0 0 0 0 0 0 0 0 0 0 0 0 0 0 0 0 0 0 0 0 0 0 0 0 0 0 0 0 0 0 981 943 943 931 919 908 897 897 0 0 0 0 0 0 0 0 0 0 0 876 855 876 855 876 876 865 876 897 897 908 886 931 919 919 943 968 931 931 931 994 994 994 0 968 0 0 0 0 0 0 0 0 0 865 865 855 865 886 845 865 876 855 865 865 865 865 865 876 876 876 931 919 0 1066 0 1268 1338 0 1066 981 955 981 955 897 865 855 886 886 931 931 943 908 865 919 865 865 886 865 876 0 876 886 876 897 919 876 0 1066 0 0 0 0 735 750 782 799 799 817 817 817 826 836 855 865 855 836 845 845 845 855 855 855 845 782 808 799 791 782 774 766 766 766 808 791 799 799 0 0 836 836 0 826 826 817 0 799 766 766 774 782 766 758 750 743 743 750 721 728 714 0 0 0 0 0 0 0 0 0 0 0 0 0 0 0 0 0 0 0 799 799 817 799 799 799 791 750 721 791 817 808 0 0 0 0 0 714 714 714 728 728 728 728 728 743 750 743 714 735 735 721 743 743 743 735 743 766 750 750 799 750 743 743 791 0 0 0 0 0 0 0 0
    0 0 0 0 0 0 0 0 0 0 0 0 0 0 0 0 0 0 0 0 0 0 0 0 0 0 0 0 0 0 0 0 0 0 0 0 0 0 0 0 0 0 0 0 0 0 0 0 0 0 0 0 0 0 0 0 0 0 0 0 0 0 0 0 0 0 0 0 0 0 0 0 0 0 0 0 0 0 0 981 931 931 919 919 908 886 876 0 0 0 0 0 0 0 0 0 0 855 865 855 865 865 876 876 865 876 897 897 908 897 931 919 919 943 968 943 943 943 994 981 955 994 931 0 0 0 0 0 4906 3873 0 0 0 0 836 855 876 845 855 865 855 876 865 876 876 876 886 886 886 931 908 0 0 0 0 0 0 0 0 0 968 981 931 897 876 886 886 876 886 908 886 855 908 855 865 876 855 876 876 876 886 865 908 908 876 0 0 0 0 0 735 750 735 774 791 791 799 799 799 799 817 845 845 836 836 845 845 845 845 855 855 836 774 799 791 791 774 766 766 766 766 817 791 799 799 855 865 855 845 836 826 836 817 808 799 766 774 782 791 774 766 750 750 743 758 721 728 714 0 0 0 728 0 0 0 0 0 0 0 0 0 0 0 791 799 799 0 782 799 808 808 799 0 0 735 700 774 808 799 0 0 0 0 0 0 714 721 728 728 728 728 728 743 750 743 714 735 735 721 743 743 735 728 743 758 743 743 791 743 735 735 782 0 0 0 0 0 0 0 0
    0 0 0 0 0 0 0 0 0 0 0 0 0 0 0 0 0 0 0 0 0 0 0 0 0 0 0 0 0 0 0 0 0 0 0 0 0 0 0 0 0 0 0 0 0 0 0 0 0 0 0 0 0 0 0 0 0 0 0 0 0 0 0 0 0 0 0 0 0 955 0 0 0 0 0 0 0 0 0 943 886 897 897 886 886 876 865 0 0 0 0 0 0 0 0 0 876 865 876 865 865 876 886 886 876 876 897 897 908 908 931 919 931 955 981 943 943 943 981 968 931 931 886 0 0 0 0 5661 5661 4329 0 0 0 0 865 886 908 845 865 865 855 886 865 886 886 886 897 897 897 943 897 0 931 0 0 0 0 0 968 931 968 981 955 943 919 897 876 865 865 865 865 845 886 855 855 865 855 865 865 865 876 865 897 897 876 0 855 817 0 791 791 782 766 782 791 791 799 799 808 808 817 836 845 836 826 836 836 836 845 845 845 836 766 799 791 782 774 766 766 766 766 817 799 808 808 865 897 876 865 855 836 845 826 817 808 782 782 791 799 791 782 758 758 743 750 714 728 0 0 0 0 721 0 0 0 0 0 0 782 0 735 0 750 774 782 782 782 774 791 808 808 808 0 0 0 0 0 0 0 0 0 0 0 0 0 714 721 728 728 721 721 728 743 750 743 714 735 735 721 743 743 735 728 735 758 743 743 791 735 735 735 766 0 0 0 0 0 0 0 0
    0 0 0 0 0 0 0 0 0 0 0 0 0 0 0 0 0 0 0 0 0 0 0 0 0 0 0 0 0 0 0 0 0 0 0 0 0 0 0 0 0 0 0 0 0 0 0 0 0 0 0 0 0 0 0 0 0 0 0 0 0 0 0 0 0 0 0 0 0 968 1022 1022 1022 1051 0 0 0 0 994 955 886 897 908 908 897 886 865 0 0 0 0 0 0 0 0 0 0 886 897 876 876 886 886 886 876 876 897 897 908 919 919 919 919 955 968 931 919 919 955 943 897 908 886 876 876 0 0 0 0 0 855 0 897 919 943 955 955 855 865 876 865 886 876 886 886 886 897 897 897 931 897 981 886 897 0 0 0 0 931 865 908 931 908 897 886 865 855 855 855 855 855 845 865 845 845 865 855 865 865 855 865 855 876 886 865 0 845 817 826 791 799 791 782 791 799 799 817 808 817 817 817 836 836 826 817 826 826 826 836 836 836 826 766 799 791 782 766 766 766 766 766 817 799 817 817 886 919 897 908 897 865 876 845 836 826 799 799 799 799 791 791 766 774 743 750 714 735 721 0 0 735 728 743 0 0 0 0 0 0 0 743 0 758 774 782 791 791 782 791 799 799 799 0 0 0 0 0 0 735 0 0 0 0 0 0 721 735 735 743 728 728 735 743 750 743 707 728 728 721 735 735 735 728 735 750 735 735 791 728 728 728 758 0 0 0 0 0 0 0 0
    0 0 0 0 0 0 0 0 0 0 0 0 0 0 0 0 0 0 0 0 0 0 0 0 0 0 0 0 0 0 0 0 0 0 0 0 0 0 0 0 0 0 0 0 0 0 0 0 0 0 0 0 0 0 0 0 0 0 0 0 0 0 0 0 0 0 0 0 0 968 1022 1008 1008 1036 0 0 0 1066 0 955 876 886 897 0 908 897 865 0 0 0 0 0 0 0 0 0 0 0 943 897 876 897 897 897 876 886 897 897 908 931 908 919 919 943 968 908 908 908 919 919 886 897 886 886 876 876 876 886 855 865 855 845 876 855 886 919 931 865 865 876 865 886 876 886 886 886 897 897 897 931 897 955 886 886 919 931 855 855 865 836 845 865 855 855 855 845 836 845 845 845 845 845 855 845 845 855 845 855 855 855 865 855 876 876 865 0 845 0 826 791 799 799 791 799 808 799 817 799 817 817 817 826 826 817 817 817 826 826 826 826 826 817 758 791 782 782 766 766 766 766 766 817 799 808 808 865 897 897 908 908 886 897 865 855 836 808 808 808 799 799 791 774 774 750 758 728 743 735 0 0 766 758 782 0 0 0 0 0 743 0 743 0 758 782 782 791 791 799 799 808 808 799 0 0 0 0 0 0 714 0 0 0 0 0 0 728 743 750 750 735 735 743 750 750 743 707 735 735 721 735 735 735 728 728 750 735 735 782 721 721 721 743 0 0 0 0 0 0 0 0
    0 0 0 0 0 0 0 0 0 0 0 0 0 0 0 0 0 0 0 0 0 0 0 0 0 0 0 0 0 0 0 0 0 0 0 0 0 0 0 0 0 0 0 0 0 0 0 0 0 0 0 0 0 0 0 0 0 0 0 0 0 0 0 0 0 0 0 0 0 931 968 981 968 968 955 955 943 0 981 955 897 908 931 0 943 931 876 0 0 0 0 0 0 0 0 0 0 0 955 908 876 897 897 897 876 886 908 908 919 931 908 919 919 955 955 897 897 897 897 919 876 886 876 876 876 876 876 886 865 876 855 865 876 855 865 886 886 855 865 876 865 886 886 886 886 886 897 897 897 931 897 943 886 886 886 886 845 836 836 808 817 826 826 826 826 826 826 826 845 845 845 845 845 836 836 845 845 855 845 845 855 855 865 876 865 855 845 826 826 791 799 799 799 799 808 808 817 799 817 817 817 826 826 817 808 817 826 817 826 817 817 808 750 791 782 782 766 766 774 766 766 817 791 799 808 855 886 908 897 897 865 897 855 836 826 799 791 799 782 782 774 735 750 735 750 735 758 0 0 0 808 808 826 0 0 0 0 0 750 0 735 728 750 774 774 782 774 0 0 0 799 766 0 687 681 687 694 714 714 0 0 0 0 0 750 743 750 758 750 735 735 750 750 758 750 714 735 735 721 735 735 735 728 728 750 728 728 774 721 714 714 728 0 0 0 0 0 0 0 0
    0 0 0 0 0 0 0 0 0 0 0 0 0 0 0 0 0 0 0 0 0 0 0 0 0 0 0 0 0 0 0 0 0 0 0 0 0 0 0 0 0 0 0 0 0 0 0 0 0 0 0 0 0 0 0 0 0 0 0 0 0 0 0 0 0 0 0 0 0 876 886 943 943 943 931 931 931 0 968 943 876 886 931 0 0 0 0 0 0 0 0 0 0 0 0 0 0 0 943 897 876 908 908 908 876 897 908 908 919 943 908 919 919 955 943 897 886 876 876 897 865 876 876 865 876 876 876 886 876 886 865 876 876 845 855 865 865 855 865 876 865 886 886 886 886 886 886 897 897 919 886 919 897 886 876 886 855 836 845 817 817 817 817 817 817 808 808 808 826 826 845 836 836 836 836 845 845 845 845 845 845 845 855 865 855 845 836 826 826 799 808 799 799 808 817 808 817 808 817 817 817 817 817 817 808 817 817 817 817 817 817 799 750 791 782 782 766 774 774 766 766 817 791 791 799 865 897 919 897 0 876 919 865 845 826 808 782 791 766 766 758 728 735 728 743 735 758 774 0 0 808 0 836 0 0 0 0 782 758 0 728 721 743 766 766 774 758 0 758 0 782 750 694 681 675 681 687 714 714 0 0 826 0 0 766 750 758 758 750 728 735 750 758 758 750 714 743 743 721 735 735 735 728 728 743 728 728 766 714 714 714 721 0 700 0 0 0 0 0 0
    0 0 0 0 0 0 0 0 0 0 0 0 0 0 0 0 0 0 0 0 0 0 0 0 0 0 0 0 0 0 0 0 0 0 0 0 0 0 0 0 0 0 0 0 0 0 0 0 0 0 0 0 0 0 0 0 0 0 0 0 0 0 0 0 0 0 0 0 0 876 876 897 908 908 908 897 897 0 931 908 845 0 0 0 0 0 0 0 0 0 0 0 0 0 0 0 0 943 931 886 876 908 908 908 876 897 908 908 908 943 886 897 908 955 931 886 876 865 865 876 855 865 865 865 876 876 876 897 876 886 865 876 876 855 855 865 865 865 865 876 865 876 886 886 876 876 886 886 886 897 876 897 886 876 876 876 855 845 845 826 826 817 817 817 817 808 808 808 826 826 836 836 836 836 826 845 836 845 845 836 845 845 855 865 855 845 836 826 826 799 808 799 799 808 817 808 826 808 817 817 817 817 817 817 808 817 817 817 808 808 808 799 750 782 774 782 766 774 774 766 766 808 782 782 791 845 886 886 0 0 865 919 865 855 826 808 791 791 766 766 758 735 743 735 750 743 758 782 0 0 799 0 817 0 0 0 0 0 750 0 721 721 743 766 750 758 750 0 758 0 774 743 707 687 694 694 707 721 735 766 0 0 0 0 782 774 774 766 758 735 743 766 774 766 750 714 743 743 721 735 735 728 728 728 743 721 721 758 714 707 714 714 0 0 0 0 0 0 0 0
    0 0 0 0 0 0 0 0 0 0 0 0 0 0 0 0 0 0 0 0 0 0 0 0 0 0 0 0 0 0 0 0 0 0 0 0 0 0 0 0 0 0 0 0 0 0 0 0 0 0 0 0 0 0 0 0 0 0 0 0 0 0 0 0 0 0 0 0 0 865 876 886 897 897 908 897 908 943 886 886 845 0 0 0 0 0 0 0 0 0 0 0 0 0 0 0 0 955 943 897 876 919 919 908 886 908 908 908 919 943 886 897 908 955 919 886 876 865 855 876 845 865 865 865 865 865 865 876 865 876 855 865 865 855 865 865 876 865 876 876 865 886 886 876 876 876 886 886 886 897 865 886 876 876 865 876 855 845 845 826 826 826 817 817 817 817 808 808 826 826 836 836 836 836 826 836 836 836 836 836 845 845 845 855 855 845 836 826 826 799 808 808 808 808 817 817 826 808 817 817 817 817 817 808 808 808 817 808 808 808 808 791 743 782 774 774 766 774 766 758 766 808 766 774 782 826 876 886 897 886 876 943 908 886 836 826 799 799 774 774 766 743 758 750 766 774 774 799 0 0 799 0 808 758 0 0 743 735 735 0 714 714 735 743 735 735 735 728 743 758 766 728 707 687 694 0 0 707 728 774 836 836 0 0 791 782 774 766 750 735 743 766 774 774 758 714 750 750 728 735 728 728 728 721 743 721 721 750 707 707 707 707 0 0 0 0 0 0 0 0
    0 0 0 0 0 0 0 0 0 0 0 0 0 0 0 0 0 0 0 0 0 0 0 0 0 0 0 0 0 0 0 0 0 0 0 0 0 0 0 0 0 0 0 0 0 0 0 0 0 0 0 0 0 0 0 0 0 0 0 0 0 0 0 0 0 0 0 0 0 876 886 897 908 908 919 931 931 943 886 876 845 826 0 0 0 0 0 0 1036 0 0 0 0 0 0 0 0 0 955 897 876 919 919 908 897 908 908 908 919 943 886 897 919 943 908 886 876 865 855 865 845 865 855 855 865 865 865 876 855 865 855 865 865 855 865 876 876 876 876 886 865 886 886 876 876 876 876 886 886 886 865 876 876 876 865 876 855 836 845 826 826 817 817 817 817 817 808 808 826 826 836 836 826 826 817 836 836 836 836 826 836 836 845 855 855 845 836 826 826 799 808 808 808 808 817 817 826 808 826 817 817 817 817 808 808 808 808 808 799 799 808 791 743 774 774 774 766 774 766 758 758 808 766 766 774 817 836 845 876 865 876 908 886 865 836 826 799 799 766 774 766 758 766 758 766 782 782 817 0 0 799 799 808 766 774 766 758 743 743 0 721 721 750 750 743 743 743 743 766 766 774 728 714 694 707 0 0 700 714 758 836 836 0 791 791 782 774 774 743 735 743 774 782 774 758 721 750 758 728 728 728 728 728 721 735 721 721 743 707 707 707 707 0 0 0 0 0 0 0 0
    0 0 0 0 0 0 0 0 0 0 0 0 0 0 0 0 0 0 0 0 0 0 0 0 0 0 0 0 0 0 0 0 0 0 0 0 0 0 0 0 0 0 0 0 0 0 0 0 0 0 0 0 0 0 0 0 0 0 0 0 0 0 0 0 0 0 0 0 0 897 897 919 931 931 955 955 968 968 897 886 855 836 919 0 0 955 968 1022 1036 0 0 0 0 0 0 0 0 0 955 908 876 919 919 897 897 908 919 908 919 943 886 897 919 943 897 886 876 855 845 865 845 865 865 855 855 865 865 876 855 865 855 865 865 855 865 876 876 876 876 886 876 886 886 876 876 876 876 876 886 886 865 876 876 876 865 876 855 836 845 826 817 817 817 817 817 817 817 817 836 826 845 845 826 826 808 826 826 836 836 826 836 836 845 865 855 845 845 826 826 799 808 808 808 808 817 817 826 808 826 817 817 817 817 808 808 808 808 808 791 799 799 791 743 774 774 782 766 774 766 758 758 808 758 758 766 808 808 808 0 0 0 0 0 0 0 836 791 791 758 766 766 750 758 750 750 774 766 791 791 791 808 808 808 782 782 0 782 0 0 0 735 735 766 766 758 758 766 774 791 782 791 750 728 700 714 694 0 700 0 743 0 836 0 782 782 782 774 774 743 743 750 782 782 774 758 721 750 758 728 728 728 728 728 721 735 714 714 735 714 707 707 714 0 0 0 0 0 0 0 0
    0 0 0 0 0 0 0 0 0 0 0 0 0 0 0 0 0 0 0 0 0 0 0 0 0 0 0 0 0 0 0 0 0 0 0 0 0 0 0 0 0 0 0 0 0 0 0 0 0 0 0 0 0 0 0 0 0 0 0 0 0 0 0 0 0 0 0 0 0 897 908 931 931 943 955 968 968 968 908 897 876 876 0 0 0 981 994 1022 1036 1036 0 0 0 0 0 0 0 0 968 908 876 919 931 897 897 919 919 908 919 943 886 897 931 931 876 876 886 845 845 865 845 865 865 865 865 865 865 876 855 865 845 855 865 855 855 865 865 876 876 876 876 876 886 876 876 876 876 876 886 876 865 865 876 876 865 876 855 836 845 817 817 808 808 808 808 808 808 808 836 826 845 845 826 826 808 826 826 836 836 826 836 836 845 865 855 845 845 836 836 808 817 808 817 817 826 817 836 817 826 826 817 817 817 808 808 808 808 808 782 799 799 791 735 774 774 774 766 774 766 758 758 799 758 758 758 799 782 782 0 0 0 0 0 0 0 836 791 791 766 766 766 750 758 750 758 774 758 774 774 774 799 0 0 0 0 0 0 0 0 0 728 743 766 0 758 0 766 774 791 782 791 766 750 721 728 0 721 707 721 750 0 836 782 791 791 782 782 782 750 750 766 791 791 782 766 721 758 766 728 728 728 728 728 721 735 714 714 728 714 707 714 714 0 0 0 0 0 0 0 0
    0 0 0 0 0 0 0 0 0 0 0 0 0 0 0 0 0 0 0 0 0 0 0 0 0 0 0 0 0 0 0 0 0 0 0 0 0 0 0 0 0 0 0 0 0 0 0 0 0 0 0 0 0 0 0 0 0 0 0 0 0 0 0 0 0 0 0 0 0 897 908 919 931 931 943 955 955 943 886 886 865 876 931 955 968 968 981 1022 1036 1036 1051 0 0 0 0 0 968 968 968 908 876 919 931 897 897 919 919 908 919 943 886 897 943 931 886 897 908 855 845 876 855 865 865 865 865 865 876 876 865 865 855 855 855 845 855 855 865 865 865 876 865 876 886 876 865 876 865 876 876 876 855 865 876 886 865 876 855 836 845 817 808 808 799 799 799 791 799 799 826 817 845 845 836 826 817 826 836 836 836 836 836 836 845 865 855 855 855 855 836 817 826 817 826 826 836 836 845 826 836 826 817 817 817 817 808 808 817 817 791 799 808 799 735 774 774 774 766 774 766 758 758 799 758 758 758 791 774 774 782 766 0 0 0 0 774 817 782 791 766 774 766 758 766 758 758 774 758 791 0 0 0 0 0 0 0 0 0 0 0 0 0 750 0 758 750 0 758 782 791 799 0 782 0 766 782 743 817 0 0 0 845 845 808 808 808 799 799 791 766 766 774 799 791 782 774 721 766 774 728 728 728 728 728 721 735 714 714 728 721 714 714 721 0 0 0 0 0 0 0 0
    0 0 0 0 0 0 0 0 0 0 0 0 0 0 0 0 0 0 0 0 0 0 0 0 0 0 0 0 0 0 0 0 0 0 0 0 0 0 0 0 0 0 0 0 0 0 0 0 0 0 0 0 0 0 0 0 0 0 0 0 0 0 0 0 0 0 0 0 0 897 897 908 908 919 955 968 968 943 886 897 886 908 968 981 981 981 994 1036 1022 0 1051 0 0 0 0 994 968 968 943 897 876 919 919 886 908 919 908 908 919 943 897 897 968 943 908 919 943 876 855 876 855 876 865 876 876 876 876 886 865 865 855 865 855 855 855 855 855 865 865 865 865 876 876 865 865 865 865 865 876 865 855 865 876 876 865 865 855 836 845 826 817 808 799 799 799 782 799 791 826 817 845 855 845 836 826 836 836 836 836 826 0 836 845 855 855 855 855 855 845 826 836 836 845 836 855 855 855 845 845 836 826 817 826 826 817 817 826 826 791 817 817 808 735 782 782 774 758 774 758 750 750 791 743 743 743 782 743 750 758 743 0 0 750 743 735 766 735 750 735 743 743 743 758 750 758 774 766 782 0 0 0 0 0 0 0 0 0 0 0 0 714 743 0 758 743 750 766 791 799 799 0 0 782 758 791 0 0 0 0 865 865 855 836 817 817 808 808 799 774 774 782 799 791 782 774 721 766 774 728 728 728 728 728 721 735 714 714 728 735 714 721 728 0 0 0 0 0 0 0 0
    0 0 0 0 0 0 0 0 0 0 0 0 0 0 0 0 0 0 0 0 0 0 0 0 0 0 0 0 0 0 0 0 0 0 0 0 0 0 0 0 0 0 0 0 0 0 0 0 0 0 0 0 0 0 0 0 0 0 0 0 0 0 0 0 0 0 0 0 0 897 897 897 897 908 955 955 955 919 876 876 876 908 0 0 0 0 1008 1036 1022 0 0 0 0 0 0 0 968 0 931 897 865 919 919 886 908 908 908 908 919 943 897 897 968 931 919 931 968 886 865 865 855 876 865 876 876 876 897 886 865 876 855 865 845 845 845 845 855 865 855 865 855 865 865 855 855 865 855 865 865 855 845 855 876 876 865 865 855 845 845 836 826 817 808 799 791 782 799 782 836 817 865 876 876 845 826 0 0 0 0 799 0 799 826 836 836 855 845 845 845 817 836 826 855 845 845 845 876 886 876 865 836 817 836 836 826 0 0 0 758 826 836 826 735 782 782 774 758 774 750 750 750 791 735 728 735 782 735 743 750 750 750 766 743 728 721 735 728 728 721 735 728 735 750 743 743 758 743 735 714 714 0 0 0 687 0 0 743 0 750 728 714 758 0 758 750 758 766 799 799 799 0 0 0 0 799 808 855 865 886 876 865 855 836 817 817 808 808 799 774 782 791 799 782 766 766 721 766 774 728 721 728 728 728 721 735 714 714 728 743 721 721 728 0 0 0 0 0 0 0 0
    0 0 0 0 0 0 0 0 0 0 0 0 0 0 0 0 0 0 0 0 0 0 0 0 0 0 0 0 0 0 0 0 0 0 0 0 0 0 0 0 0 0 0 0 0 0 0 0 0 0 0 0 0 0 0 0 0 0 0 0 0 0 0 0 0 0 0 0 0 908 919 919 897 919 955 968 955 0 0 865 865 897 919 931 931 955 981 1008 994 0 0 0 0 0 0 0 0 0 908 886 865 908 908 876 908 908 908 897 908 943 897 897 968 897 897 919 994 931 908 886 876 897 876 886 865 876 876 876 855 855 845 855 836 845 836 836 845 855 845 845 845 855 845 845 845 845 845 845 845 836 817 836 845 845 836 0 0 799 817 808 808 799 782 766 791 817 0 0 876 0 0 0 0 0 0 0 0 0 694 714 0 721 782 774 799 817 808 826 808 782 774 791 808 808 799 791 0 0 0 0 0 0 0 0 817 0 0 0 735 817 826 826 728 782 791 782 758 774 758 750 750 799 735 728 735 774 728 735 735 728 728 743 721 707 700 714 707 714 707 721 721 728 750 735 743 743 721 0 681 687 694 687 694 681 669 714 728 735 735 735 714 766 774 758 758 766 782 808 799 799 0 0 0 0 0 0 0 0 0 0 845 845 817 817 817 808 808 791 774 782 791 791 774 766 766 721 766 774 728 721 728 728 728 721 735 714 714 728 750 728 728 735 0 0 0 0 0 0 0 0
    0 0 0 0 0 0 0 0 0 0 0 0 0 0 0 0 0 0 0 0 0 0 0 0 0 0 0 0 0 0 0 0 0 0 0 0 0 0 0 0 0 0 0 0 0 0 0 0 0 0 0 0 0 0 0 0 0 0 0 0 0 0 0 0 0 0 0 0 0 0 0 0 0 0 0 955 919 0 0 845 836 845 855 865 876 897 968 994 0 0 0 0 0 0 0 0 0 0 0 865 855 897 908 876 919 919 919 908 908 943 897 897 968 865 865 876 0 0 0 0 981 994 908 908 876 855 845 845 836 817 817 808 799 799 791 791 791 799 808 826 836 836 817 0 845 0 865 855 0 0 0 0 0 0 735 0 694 694 0 714 0 721 721 700 0 0 0 897 0 0 0 0 0 0 0 0 0 694 687 700 694 700 700 707 743 743 750 817 774 758 728 735 728 728 714 700 681 669 657 629 0 0 0 0 0 0 0 0 735 817 836 826 735 791 791 782 766 782 766 750 750 799 728 721 728 758 707 714 700 700 687 694 694 687 687 687 681 694 687 707 707 714 735 721 728 721 707 694 675 681 681 681 687 681 681 714 728 750 743 743 721 766 766 758 766 774 782 808 799 0 0 0 0 0 0 0 0 0 0 0 0 0 799 808 808 799 799 782 774 782 791 791 774 766 766 721 766 766 728 721 728 728 728 721 735 714 714 728 758 735 735 743 0 0 0 0 0 0 0 0
    0 0 0 0 0 0 0 0 0 0 0 0 0 0 0 0 0 0 0 0 0 0 0 0 0 0 0 0 0 0 0 0 0 0 0 0 0 0 0 0 0 0 0 0 0 0 0 0 0 0 0 0 0 0 0 0 0 0 0 0 0 0 0 0 0 0 0 0 0 0 0 0 0 0 0 0 0 0 0 799 808 799 0 808 817 808 0 0 0 0 0 0 0 0 0 0 0 0 0 845 845 886 897 865 908 908 919 897 908 931 886 886 943 845 845 855 0 0 0 0 981 1022 931 908 886 855 845 845 817 808 774 774 758 735 728 743 728 728 735 766 799 0 799 0 0 0 0 845 808 0 0 663 629 629 0 663 645 663 669 694 694 714 707 700 728 808 0 0 0 0 0 0 0 0 0 0 0 694 694 700 694 700 700 700 728 728 735 808 758 743 721 721 714 707 694 669 634 639 639 629 0 0 0 645 669 675 0 0 743 808 836 826 735 791 799 791 774 782 774 750 750 791 721 714 721 0 707 707 687 687 675 687 681 681 681 681 675 687 681 700 687 694 714 707 707 700 681 675 669 675 681 681 687 681 687 721 735 774 766 766 743 782 782 774 782 791 791 817 808 0 0 0 0 0 0 0 0 0 0 0 0 0 774 791 799 791 791 774 782 791 791 791 774 766 766 721 766 766 728 721 728 728 728 721 743 721 721 735 766 735 743 743 0 0 0 0 0 0 0 0
    0 0 0 0 0 0 0 0 0 0 0 0 0 0 0 0 0 0 0 0 0 0 0 0 0 0 0 0 0 0 0 0 0 0 0 0 0 0 0 0 0 0 0 0 0 0 0 0 0 0 0 0 0 0 0 0 0 0 0 0 0 0 0 0 0 0 0 0 0 0 0 0 0 0 0 0 0 0 743 750 782 758 774 782 799 791 826 817 836 0 817 0 0 0 0 0 808 799 799 836 845 886 886 865 908 908 908 897 897 919 876 876 931 845 845 845 943 0 0 955 968 1036 919 897 876 0 0 0 782 774 743 743 735 721 721 728 721 714 721 721 743 766 782 0 791 0 817 826 808 0 0 663 623 634 0 651 639 663 675 694 694 707 700 700 721 743 687 0 663 618 651 657 645 675 687 681 687 694 687 694 694 700 700 694 707 707 707 782 721 714 700 707 707 694 681 657 634 639 639 629 623 629 634 645 657 669 0 0 721 766 826 817 735 791 799 791 774 782 774 758 750 799 721 714 721 0 700 700 675 681 669 681 681 675 681 675 675 687 681 694 675 675 694 687 675 687 669 669 675 681 681 675 681 681 681 714 735 791 774 774 743 782 782 774 782 791 782 808 799 799 774 0 0 0 0 774 0 0 0 700 0 743 782 791 799 799 791 774 791 791 791 791 774 766 766 721 766 766 728 721 728 728 728 721 743 721 721 735 774 735 743 743 0 0 0 0 0 0 0 0
    0 0 0 0 0 0 0 0 0 0 0 0 0 0 0 0 0 0 0 0 0 0 0 0 0 0 0 0 0 0 0 0 0 0 0 0 0 0 0 0 0 0 0 0 0 0 0 0 0 0 0 0 0 0 0 0 0 0 0 0 0 0 0 0 0 0 0 0 0 0 0 0 0 700 0 0 0 714 721 735 758 735 758 758 766 766 791 782 799 791 808 808 817 826 836 808 817 817 817 845 845 886 886 865 897 897 908 897 897 908 865 865 919 845 845 845 897 876 0 931 968 1036 931 908 0 0 0 0 758 750 728 735 728 714 714 721 721 714 714 714 728 735 766 774 782 799 808 817 799 0 0 675 629 645 634 657 645 663 681 694 694 707 707 721 735 758 0 694 675 623 657 657 645 669 675 675 681 681 681 687 687 694 694 687 700 694 694 735 707 707 700 700 700 694 681 657 639 639 634 623 618 623 623 634 645 651 645 0 0 0 817 817 743 791 799 791 782 782 782 758 758 799 721 714 721 0 700 700 675 681 669 681 681 675 681 675 675 687 681 694 675 675 681 675 675 675 669 669 669 675 675 681 681 675 681 714 735 0 782 774 743 791 782 782 791 799 774 799 791 799 766 0 750 750 766 766 0 735 707 700 743 774 799 799 808 808 799 782 791 799 799 791 782 774 774 728 774 766 728 721 728 728 728 721 743 721 721 735 774 735 735 743 0 0 0 0 0 0 0 0
    0 0 0 0 0 0 0 0 0 0 0 0 0 0 0 0 0 0 0 0 0 0 0 0 0 0 0 0 0 0 0 0 0 0 0 0 0 0 0 0 0 0 0 0 0 0 0 0 0 0 0 0 0 0 0 0 0 0 0 0 0 0 0 0 0 0 0 0 0 0 675 0 694 687 669 0 0 707 714 721 743 721 743 750 750 750 766 774 782 782 808 799 799 826 836 808 817 826 817 836 845 876 876 865 897 897 897 897 886 908 865 865 908 836 826 836 836 0 0 0 0 1082 0 0 0 0 0 707 743 735 721 721 721 707 714 714 714 707 707 700 707 0 743 743 743 782 782 0 808 750 0 687 657 663 645 663 651 669 687 700 700 714 721 743 758 766 0 700 687 634 669 669 657 669 681 675 681 681 681 681 681 687 687 681 694 687 687 728 700 700 700 700 700 694 675 645 634 634 629 618 613 618 618 634 645 651 657 0 728 0 826 817 750 799 799 791 782 791 782 758 758 799 714 714 721 0 700 700 675 681 669 675 675 669 675 669 669 687 675 687 675 675 669 675 663 669 663 663 669 675 675 681 681 681 687 714 735 0 782 782 750 791 791 791 808 817 791 808 799 799 766 758 750 743 750 750 728 728 714 707 743 774 799 799 808 808 799 774 799 799 799 791 782 774 774 728 774 758 728 721 728 728 735 728 743 721 721 735 774 735 735 743 0 0 0 0 0 0 0 0
    0 0 0 0 0 0 0 0 0 0 0 0 0 0 0 0 0 0 0 0 0 0 0 0 0 0 0 0 0 0 0 0 0 0 0 0 0 0 0 0 0 0 0 0 0 0 0 0 0 0 0 0 0 0 0 0 0 0 0 0 0 0 0 0 0 0 0 0 0 0 0 0 700 694 675 0 0 707 714 0 728 714 743 743 743 750 758 766 774 774 799 791 799 817 826 808 817 817 817 836 845 876 876 855 897 897 897 897 886 897 865 855 886 826 808 808 799 808 0 0 0 0 694 0 0 687 687 694 714 714 707 714 707 700 707 714 707 700 700 700 707 714 735 728 735 774 774 808 791 758 714 694 669 669 651 663 657 669 687 700 700 728 750 774 791 791 758 735 700 645 675 675 669 675 681 675 681 687 687 687 687 687 687 687 700 687 687 721 707 700 700 700 700 694 675 651 645 639 634 623 618 629 623 651 663 669 669 663 766 0 826 826 758 799 799 799 791 791 791 758 758 799 714 714 714 707 700 707 681 687 675 675 675 669 675 669 669 681 675 681 675 669 663 669 663 663 663 663 669 675 681 681 681 687 694 714 743 799 799 791 766 799 799 799 826 826 808 808 817 808 782 774 750 743 750 743 728 728 721 714 743 766 791 791 799 799 782 774 799 799 799 791 782 774 774 728 774 758 728 714 728 728 735 728 743 721 728 735 774 735 735 735 0 0 0 0 0 0 0 0
    0 0 0 0 0 0 0 0 0 0 0 0 0 0 0 0 0 0 0 0 0 0 0 0 0 0 0 0 0 0 0 0 0 0 0 0 0 0 0 0 0 0 0 0 0 0 0 0 0 0 0 0 0 0 0 0 0 0 0 0 0 0 0 0 0 0 0 0 0 0 0 0 714 707 694 0 714 721 714 714 728 714 743 743 743 743 750 766 774 774 799 791 799 817 826 808 817 817 808 836 836 865 865 855 897 897 897 897 876 886 855 855 876 817 791 791 782 791 735 721 714 0 700 0 694 687 681 687 700 700 700 700 700 694 700 707 694 700 694 700 707 714 728 728 743 782 782 817 799 774 714 700 675 669 651 663 657 663 687 700 714 750 799 808 808 808 782 750 714 651 681 675 675 681 687 681 687 687 687 687 694 694 694 687 700 700 694 735 707 707 707 700 700 694 681 669 669 663 651 634 629 645 645 675 675 675 675 669 758 0 817 817 766 799 799 799 799 799 799 774 758 799 728 721 721 714 714 707 687 687 681 675 675 669 675 669 669 681 675 681 675 669 669 669 663 663 669 663 669 675 681 687 687 694 707 743 766 799 808 799 791 808 799 799 826 826 817 817 826 808 791 791 758 750 750 743 735 735 728 714 735 758 782 782 799 799 774 774 791 791 791 782 782 782 774 728 774 750 728 714 735 735 728 728 743 728 728 735 774 728 728 735 0 0 0 0 0 0 0 0
    0 0 0 0 0 0 0 0 0 0 0 0 0 0 0 0 0 0 0 0 0 0 0 0 0 0 0 0 0 0 0 0 0 0 0 0 0 0 0 0 0 0 0 0 0 0 0 0 0 0 0 0 0 0 0 0 0 0 0 0 0 0 0 0 0 0 0 0 0 0 714 707 721 721 700 0 728 721 721 714 728 714 735 735 735 743 743 750 758 774 799 791 799 817 826 817 817 817 817 836 836 865 865 845 886 897 897 886 876 886 855 855 865 817 774 782 766 782 735 721 721 714 700 0 694 687 675 681 687 694 694 694 694 694 700 700 694 700 694 700 707 714 728 735 750 782 782 817 799 774 0 707 675 669 645 657 651 657 694 714 766 799 826 826 826 817 799 766 721 663 687 675 675 681 687 687 687 687 687 687 694 694 700 694 700 700 700 743 714 714 714 707 707 700 687 681 687 687 681 657 663 675 687 694 694 694 681 681 743 0 808 808 758 791 799 791 799 799 799 774 766 808 743 735 728 721 721 714 694 694 681 681 675 675 675 669 669 681 669 681 675 675 675 675 669 669 669 675 675 681 687 700 694 707 735 758 774 799 808 799 799 799 799 808 836 826 826 817 836 817 808 799 774 758 750 743 743 735 728 721 743 774 791 791 799 799 774 774 799 791 782 782 782 782 774 728 766 750 735 714 735 735 728 728 743 721 721 735 774 728 721 721 791 0 639 0 0 0 0 0
    0 0 0 0 0 0 0 0 0 0 0 0 0 0 0 0 0 0 0 0 0 0 0 0 0 0 0 0 0 0 0 0 0 0 0 0 0 0 0 0 0 0 0 0 0 0 0 0 0 0 0 0 0 0 0 0 0 0 0 0 0 0 0 0 0 0 0 0 0 721 728 721 728 728 714 0 728 728 721 714 728 714 735 735 735 743 743 750 758 774 799 791 799 808 817 817 817 817 817 826 826 855 865 845 897 897 897 886 876 886 865 855 876 817 782 791 766 782 735 721 714 714 700 707 687 687 675 681 687 694 694 694 694 694 700 700 694 694 694 700 707 721 735 743 758 791 791 826 808 782 0 707 681 663 645 645 645 651 721 799 826 826 836 836 826 826 808 774 728 669 694 675 675 675 687 681 681 687 687 687 694 694 700 694 700 707 707 743 721 721 714 714 714 707 694 700 700 700 707 694 694 694 707 707 700 700 687 687 735 735 799 799 750 791 791 791 791 791 799 766 766 808 750 743 735 721 728 721 700 694 681 681 681 675 675 669 669 681 669 675 675 669 669 675 669 669 675 681 681 687 700 714 707 728 766 766 782 799 808 799 808 808 808 808 845 836 836 826 845 826 817 817 799 774 774 758 758 758 735 728 750 782 799 799 808 799 766 774 799 791 774 774 774 774 766 728 758 743 728 714 735 735 735 728 743 721 721 728 774 714 714 714 758 700 608 0 0 0 0 0
    0 0 0 0 0 0 0 0 0 0 0 0 0 0 0 0 0 0 0 0 0 0 0 0 0 0 0 0 0 0 0 0 0 0 0 0 0 0 0 0 0 0 0 0 0 0 0 0 0 0 0 0 0 0 0 0 0 0 0 0 0 0 0 0 0 0 0 0 0 735 743 728 728 735 714 714 721 721 714 714 721 721 735 735 735 743 743 750 766 774 799 799 808 817 826 817 817 826 826 845 836 865 876 855 897 897 897 886 876 886 865 865 897 826 799 799 782 791 743 728 721 714 707 707 694 681 675 675 681 681 687 687 687 687 694 694 687 694 694 700 707 721 743 750 766 799 799 817 808 791 0 721 694 675 645 639 645 645 0 836 845 845 845 845 836 836 808 782 728 675 694 675 675 675 687 681 687 687 687 687 694 700 700 694 700 707 707 743 721 721 721 721 721 721 714 714 721 721 728 721 721 714 728 728 721 714 707 707 743 735 791 791 750 782 791 791 791 791 799 766 766 808 766 750 735 735 735 728 707 700 687 687 681 675 675 669 663 681 669 675 675 669 669 675 669 669 681 681 687 694 714 728 721 758 782 782 782 799 817 808 808 808 808 817 836 836 836 826 845 836 826 817 799 782 774 758 766 758 735 735 758 782 799 799 808 791 766 774 799 782 766 766 766 774 766 728 758 743 728 714 735 735 735 728 743 728 728 728 774 714 707 707 735 694 608 0 0 0 0 0
    0 0 0 0 0 0 0 0 0 0 0 0 0 0 0 0 0 0 0 0 0 0 0 0 0 0 0 0 0 0 0 0 0 0 0 0 0 0 0 0 0 0 0 0 0 0 0 0 0 0 0 0 0 0 0 0 0 0 0 0 0 0 0 0 0 0 0 0 0 758 782 766 758 750 735 728 721 728 721 714 721 714 735 735 735 743 750 758 766 782 808 808 826 836 836 836 836 845 855 865 845 876 886 855 897 897 897 897 886 897 876 876 919 836 799 808 782 782 743 721 714 714 707 707 694 681 675 675 681 681 687 687 687 687 694 694 687 694 700 700 707 721 735 750 774 799 799 817 808 791 0 735 707 681 651 639 651 634 0 845 855 855 855 855 836 0 817 791 735 675 0 663 669 669 681 681 681 687 687 687 694 700 700 694 707 714 714 743 728 735 728 728 735 743 721 728 743 743 743 728 735 728 735 735 728 721 721 714 750 735 791 791 750 782 791 791 791 782 791 774 774 808 782 758 743 743 750 735 707 700 694 687 681 675 675 663 663 681 663 669 675 669 669 675 675 675 681 687 694 700 728 743 743 782 791 799 791 799 817 808 808 808 808 817 826 826 826 826 836 826 826 817 799 782 774 766 766 758 750 743 766 791 799 799 799 782 766 774 791 774 766 766 766 774 774 728 750 750 735 714 735 735 735 728 743 728 728 735 774 714 707 707 728 694 608 0 0 0 0 0
    0 0 0 0 0 0 0 0 0 0 0 0 0 0 0 0 0 0 0 0 0 0 0 0 0 0 0 0 0 0 0 0 0 0 0 0 0 0 0 0 0 0 0 0 0 0 0 0 0 0 0 0 0 0 0 0 0 0 0 0 0 0 0 0 0 0 0 0 0 0 836 808 799 782 782 750 728 735 728 721 728 714 735 735 735 743 750 766 774 791 817 817 836 845 855 845 845 855 865 876 855 886 886 855 908 908 908 897 886 908 886 876 931 836 808 808 782 782 743 721 721 721 714 714 700 687 681 681 687 681 687 687 687 687 694 694 687 694 700 700 700 721 735 743 774 791 791 817 808 799 766 758 735 700 669 634 0 0 855 876 865 876 865 865 845 865 817 0 743 0 96 0 0 675 687 681 681 687 687 687 700 700 707 700 714 728 728 750 743 750 743 750 750 758 728 743 750 743 743 735 728 728 728 735 728 721 721 714 750 735 791 791 750 782 791 791 791 782 791 774 774 808 782 766 750 750 758 743 714 707 700 687 687 681 675 663 663 675 663 663 675 669 669 675 675 675 687 694 700 700 735 750 758 782 799 808 799 791 808 791 808 808 799 808 826 826 826 826 836 826 826 826 799 782 774 766 774 758 750 743 766 782 799 799 799 782 766 774 791 774 758 766 766 774 774 728 750 750 735 714 735 735 735 728 743 728 721 728 782 714 707 707 0 687 603 0 0 0 0 0
    0 0 0 0 0 0 0 0 0 0 0 0 0 0 0 0 0 0 0 0 0 0 0 0 0 0 0 0 0 0 0 0 0 0 0 0 0 0 0 0 0 0 0 0 0 0 0 0 0 0 0 0 0 0 0 0 0 0 0 0 0 0 0 0 0 0 0 0 0 855 845 826 808 799 791 758 735 735 735 728 728 721 735 735 735 743 750 766 774 791 826 826 845 855 865 855 845 855 865 886 865 886 886 855 908 908 919 897 886 908 886 876 931 836 799 808 782 782 743 721 721 721 721 728 707 694 687 687 687 681 687 687 681 681 687 687 681 687 694 694 700 714 728 735 774 791 791 817 808 799 774 782 774 0 700 0 836 865 876 886 886 886 865 876 855 886 826 808 758 0 95 95 0 0 0 687 687 694 694 694 707 714 714 707 721 743 743 766 758 774 750 766 766 774 743 750 758 750 743 735 735 728 728 735 735 728 728 721 750 735 782 791 750 782 791 791 791 782 799 774 774 808 782 758 750 758 758 743 721 714 707 694 687 681 675 669 669 675 663 663 675 669 669 675 675 675 687 694 700 700 743 750 758 782 799 817 808 791 799 782 799 808 799 808 817 817 826 826 836 826 826 817 799 782 782 766 774 766 758 750 774 782 791 791 799 766 766 774 791 766 758 758 758 766 774 728 750 750 735 714 735 735 728 721 735 721 714 721 782 707 707 700 0 687 603 0 0 0 0 0
    0 0 0 0 0 0 0 0 0 0 0 0 0 0 0 0 0 0 0 0 0 0 0 0 0 0 0 0 0 0 0 0 0 0 0 0 0 0 0 0 0 0 0 0 0 0 0 0 0 0 0 0 0 0 0 0 0 0 0 0 0 0 0 0 0 0 0 0 0 908 876 845 817 808 799 766 735 743 743 743 743 728 735 743 743 750 758 766 782 791 826 836 845 855 865 865 865 865 876 897 865 886 886 855 908 908 908 886 876 908 886 886 931 836 808 808 791 791 743 728 728 728 721 735 721 714 700 694 687 681 687 681 681 681 687 687 681 694 700 707 707 728 743 750 782 799 799 808 808 799 782 791 791 0 0 0 845 876 876 897 886 886 876 876 865 897 836 817 774 707 0 0 0 675 687 687 687 694 694 694 707 721 721 714 728 743 750 766 758 774 758 774 774 774 750 758 766 750 743 743 728 728 728 735 728 728 728 721 743 728 782 782 750 782 791 791 791 791 799 782 782 808 782 758 750 758 758 743 721 721 707 694 687 687 675 669 675 675 663 669 681 669 675 675 675 681 694 700 707 714 758 758 766 791 808 826 817 799 808 791 808 817 808 808 817 817 826 826 836 826 826 817 808 791 791 782 782 774 766 758 782 791 799 791 799 774 766 782 791 766 758 758 758 766 782 728 750 758 735 714 735 735 728 721 735 721 714 714 766 700 700 700 721 687 603 0 0 0 0 0
    0 0 0 0 0 0 0 0 0 0 0 0 0 0 0 0 0 0 0 0 0 0 0 0 0 0 0 0 0 0 0 0 0 0 0 0 0 0 0 0 0 0 0 0 0 0 0 0 0 0 0 0 0 0 0 0 0 0 0 0 0 0 0 0 0 0 0 0 0 943 897 855 817 817 808 766 735 743 750 750 743 735 735 735 743 750 758 766 782 791 826 845 865 865 865 865 865 876 886 897 865 876 886 855 908 908 908 886 876 908 886 886 943 836 817 817 799 791 750 735 735 735 728 750 735 735 707 0 700 687 694 694 694 687 687 687 687 694 707 707 714 735 750 758 782 799 799 808 799 0 0 799 799 0 0 0 845 886 886 897 886 886 876 876 865 908 836 826 774 700 687 651 669 669 681 681 681 687 694 700 714 721 728 721 735 758 766 766 766 774 758 774 774 782 758 758 766 750 743 735 728 728 721 735 728 721 721 714 743 721 774 782 743 782 791 791 791 791 799 791 782 808 782 758 758 766 766 743 721 721 707 694 694 687 675 669 675 681 669 675 681 675 681 681 681 687 714 721 728 728 774 766 766 791 799 817 817 799 808 791 808 808 808 808 799 799 808 817 826 817 826 808 0 791 799 782 791 791 782 774 791 799 808 799 808 774 774 782 791 766 758 766 766 774 791 728 750 758 735 721 735 728 728 721 728 714 714 714 0 700 694 694 721 687 603 0 0 0 0 0
    0 0 0 0 0 0 0 0 0 0 0 0 0 0 0 0 0 0 0 0 0 0 0 0 0 0 0 0 0 0 0 0 0 0 0 0 0 0 0 0 0 0 0 0 0 0 0 0 0 0 0 0 0 0 0 0 0 0 0 0 0 0 0 0 0 0 0 0 0 955 908 855 817 817 808 774 743 743 743 743 743 735 735 735 743 750 758 766 782 791 817 836 865 865 865 865 876 886 897 908 865 886 897 865 908 908 908 886 876 908 886 886 943 845 836 836 826 808 758 735 743 743 735 774 758 774 714 0 707 687 700 700 700 694 694 694 694 700 707 714 714 743 758 766 782 799 799 808 799 799 791 799 808 0 808 845 845 876 886 886 886 876 865 865 855 897 836 817 782 707 694 657 669 669 681 675 681 687 687 700 707 721 728 728 735 758 766 766 766 782 758 782 782 791 766 766 774 750 750 743 728 728 721 735 728 721 728 721 743 721 774 774 750 782 791 799 791 791 808 791 791 808 782 758 766 766 758 735 721 714 707 694 687 681 675 675 681 687 675 681 687 687 681 687 700 707 728 735 750 750 782 774 774 791 799 808 808 799 808 799 817 817 808 808 791 791 799 808 808 799 791 782 0 782 799 782 791 791 791 791 808 808 808 799 808 782 782 791 791 766 758 766 758 766 791 721 743 758 735 721 735 728 728 721 728 714 707 714 0 694 681 687 714 681 603 0 0 0 0 0
    0 0 0 0 0 0 0 0 0 0 0 0 0 0 0 0 0 0 0 0 0 0 0 0 0 0 0 0 0 0 0 0 0 0 0 0 0 0 0 0 0 0 0 0 0 0 0 0 0 0 0 0 0 0 0 0 0 0 0 0 0 0 0 0 0 0 0 0 0 981 919 0 0 808 799 774 743 743 743 743 750 750 743 735 743 758 766 774 782 791 808 826 855 865 865 865 876 876 886 897 865 876 886 865 897 897 897 876 876 897 886 886 955 855 845 845 855 826 799 774 774 782 766 826 817 836 728 0 714 687 700 700 700 694 694 694 694 700 714 707 714 750 758 766 782 799 808 808 808 799 791 799 808 808 0 836 836 865 876 876 876 865 855 865 855 886 836 817 782 700 687 669 669 675 681 675 681 687 694 700 714 735 728 735 750 758 774 774 774 791 766 782 791 799 766 774 774 758 750 743 728 728 721 735 728 721 728 728 766 721 774 782 750 791 799 799 791 791 808 799 791 808 774 758 758 766 758 735 714 714 700 694 687 681 675 675 681 687 687 687 700 694 694 714 721 721 0 0 0 0 0 791 782 799 808 826 826 817 817 817 817 826 808 808 791 791 791 791 782 782 774 774 758 774 799 791 791 799 799 791 808 808 808 799 799 782 782 791 791 758 758 766 758 766 791 721 743 758 735 721 728 728 721 721 721 714 700 700 743 694 675 694 0 687 0 0 0 0 0 0
    0 0 0 0 0 0 0 0 0 0 0 0 0 0 0 0 0 0 0 0 0 0 0 0 0 0 0 0 0 0 0 0 0 0 0 0 0 0 0 0 0 0 0 0 0 0 0 0 0 0 0 0 0 0 0 0 0 0 0 0 0 0 0 0 0 0 0 0 0 994 931 0 0 826 817 782 758 743 750 750 750 750 750 743 750 758 766 774 782 791 817 826 855 865 865 876 865 876 876 886 865 865 876 855 886 886 897 876 876 897 886 886 943 855 845 845 876 836 826 799 808 826 817 845 836 836 743 0 721 687 694 700 700 694 694 694 694 700 714 714 721 750 758 774 782 799 799 808 808 808 799 808 808 817 0 826 836 855 865 876 865 865 855 855 855 897 845 826 774 700 681 675 669 681 681 681 694 694 700 714 721 743 735 750 758 766 782 791 791 799 774 791 799 799 774 774 782 758 750 743 728 728 721 728 721 714 728 735 782 728 782 791 766 799 808 808 799 791 808 799 791 808 774 758 750 758 750 728 721 714 700 694 687 681 675 675 687 694 687 694 721 700 721 750 750 750 0 0 0 0 0 0 0 808 0 836 836 817 817 817 817 826 808 808 782 782 774 782 766 758 743 743 728 750 774 774 782 799 799 799 808 808 808 799 799 782 782 791 791 766 766 774 766 782 799 714 743 758 728 714 728 721 721 714 721 707 694 694 728 681 657 694 0 687 623 0 0 0 0 0
    0 0 0 0 0 0 0 0 0 0 0 0 0 0 0 0 0 0 0 0 0 0 0 0 0 0 0 0 0 0 0 0 0 0 0 0 0 0 0 0 0 0 0 0 0 0 0 0 0 0 0 0 0 0 0 0 0 0 0 0 0 0 0 0 0 0 0 0 0 1008 943 0 0 836 826 799 774 758 758 758 758 750 750 743 750 766 766 774 782 791 808 817 845 855 845 865 865 865 865 865 855 855 855 855 886 886 886 876 876 897 886 876 943 845 845 845 865 836 836 808 817 845 845 865 855 845 774 750 735 700 707 714 707 700 707 707 707 714 721 721 721 750 758 766 774 791 799 799 808 808 791 808 808 826 826 826 836 845 855 865 865 865 855 855 855 897 855 845 791 694 675 675 663 675 681 681 687 687 700 714 721 743 735 750 766 774 791 799 799 808 791 808 808 799 782 774 782 766 743 743 721 714 700 714 700 694 714 714 782 721 791 799 774 817 817 817 799 799 817 799 791 808 774 758 750 758 743 728 721 714 700 694 687 681 681 681 694 694 694 700 728 743 766 782 774 0 0 0 0 0 0 0 0 0 0 0 0 0 817 0 826 0 817 808 782 774 774 0 758 743 735 735 728 743 774 766 774 799 799 799 817 808 817 799 799 791 791 791 791 774 774 782 782 791 799 714 743 758 728 714 721 721 714 714 714 694 687 681 700 651 613 669 0 657 623 0 0 0 0 0
    0 0 0 0 0 0 0 0 0 0 0 0 0 0 0 0 0 0 0 0 0 0 0 0 0 0 0 0 0 0 0 0 0 0 0 0 0 0 0 0 0 0 0 0 0 0 0 0 0 0 0 0 0 0 0 0 0 0 0 0 0 0 0 0 0 0 0 0 0 1022 981 0 0 0 826 817 791 774 766 766 766 758 750 750 758 766 766 774 782 791 808 817 836 845 836 855 855 865 855 865 855 845 855 845 876 876 876 865 876 897 886 876 943 836 836 836 865 845 845 817 826 855 865 876 855 845 799 791 774 721 728 728 714 714 714 721 714 721 728 728 728 758 758 766 774 791 799 799 808 817 799 808 817 826 836 826 836 845 855 865 855 865 855 855 855 886 865 855 808 721 694 694 681 687 687 694 700 694 707 721 728 750 743 766 774 782 799 817 808 817 808 808 808 799 782 782 782 774 750 750 707 700 687 700 694 687 714 721 782 735 799 808 782 826 826 826 808 808 817 808 791 808 774 758 750 758 743 721 721 714 700 700 687 681 687 687 707 700 700 721 782 817 799 808 0 0 0 0 0 0 0 0 0 0 0 0 0 0 0 0 0 0 0 791 0 750 758 766 750 0 0 735 0 0 0 758 774 799 808 808 817 808 817 799 799 791 791 791 791 774 774 774 782 791 782 700 735 750 721 714 714 707 707 700 694 681 669 657 675 618 603 618 634 608 613 0 0 0 0 0
    0 0 0 0 0 0 0 0 0 0 0 0 0 0 0 0 0 0 0 0 0 0 0 0 0 0 0 0 0 0 0 0 0 0 0 0 0 0 0 0 0 0 0 0 0 0 0 0 0 0 0 0 0 0 0 0 0 0 0 0 0 0 0 0 0 0 0 0 0 981 0 0 0 0 836 836 817 791 766 766 766 766 750 750 758 766 766 774 774 791 799 808 826 836 826 845 855 855 855 855 845 855 845 845 876 876 876 865 876 897 886 886 943 845 845 845 876 855 845 0 0 865 865 876 855 845 817 0 791 735 735 735 721 721 721 728 721 728 735 735 735 766 766 774 782 791 799 799 808 817 799 817 817 826 826 817 817 836 836 845 836 845 836 845 845 865 855 845 817 735 707 700 694 694 694 700 707 700 707 728 735 758 750 782 782 791 808 817 817 826 817 808 808 799 791 791 791 782 758 766 721 707 700 714 707 707 735 750 791 758 808 808 791 836 836 836 817 817 826 817 799 817 774 758 758 758 743 721 721 714 700 700 694 687 694 700 721 721 735 774 826 845 817 0 0 0 0 0 0 0 0 0 0 0 0 0 0 0 0 0 0 0 0 791 0 758 750 758 0 0 0 728 0 0 0 0 0 791 799 808 817 808 817 791 799 799 791 791 782 774 766 766 774 782 721 681 0 728 714 707 707 700 694 687 681 669 645 639 639 603 588 598 603 588 584 0 0 0 0 0
    0 0 0 0 0 0 0 0 0 0 0 0 0 0 0 0 0 0 0 0 0 0 0 0 0 0 0 0 0 0 0 0 0 0 0 0 0 0 0 0 0 0 0 0 0 0 0 0 0 0 0 0 0 0 0 0 0 0 0 0 0 0 0 0 0 0 0 0 0 0 0 0 0 0 836 845 836 808 782 774 774 774 766 758 766 774 774 782 782 791 799 808 817 836 836 845 845 855 845 855 855 855 855 845 876 876 876 876 886 897 897 886 955 855 855 855 897 876 855 0 0 897 919 919 876 865 826 0 799 750 743 750 728 728 728 735 735 743 750 743 743 766 774 782 782 791 799 799 808 817 808 817 817 826 817 808 808 826 836 836 826 836 836 836 845 855 836 836 808 743 714 707 700 700 700 707 714 707 714 728 743 766 766 791 791 791 808 826 826 826 836 826 817 817 799 799 799 799 774 766 728 714 707 707 707 0 0 758 782 774 808 808 799 836 836 836 826 826 826 826 808 817 782 766 758 766 743 721 721 714 700 707 700 694 700 707 735 743 774 808 845 876 826 0 0 0 0 0 0 0 0 0 0 0 0 0 0 0 0 836 0 817 791 791 766 766 758 758 0 728 0 721 700 714 0 0 0 782 799 808 817 808 817 791 791 799 799 791 774 766 758 750 758 766 694 657 645 700 700 707 707 700 694 687 675 657 634 634 618 598 579 584 557 0 0 0 0 0 0 0
    0 0 0 0 0 0 0 0 0 0 0 0 0 0 0 0 0 0 0 0 0 0 0 0 0 0 0 0 0 0 0 0 0 0 0 0 0 0 0 0 0 0 0 0 0 0 0 0 0 0 0 0 0 0 0 0 0 0 0 0 0 0 0 0 0 0 0 0 0 0 0 0 0 0 836 845 855 817 782 774 766 766 774 758 766 766 774 782 791 799 799 799 826 836 836 845 845 845 845 855 855 855 855 845 876 886 886 876 886 908 897 897 968 865 865 865 931 886 876 886 0 931 968 968 931 897 855 0 0 0 750 750 735 735 728 735 735 743 750 750 743 766 766 782 782 791 799 799 808 817 817 826 826 845 826 817 817 836 836 836 826 836 836 836 845 855 836 817 799 766 735 728 714 721 714 721 721 721 721 735 750 774 774 799 791 791 808 836 845 845 865 845 845 836 817 817 808 799 791 774 743 728 735 728 714 0 750 766 782 791 817 817 799 845 845 845 826 836 836 836 817 826 791 774 766 766 743 728 721 721 707 714 707 707 721 728 743 766 782 817 855 886 836 845 0 0 0 0 0 817 808 817 799 836 845 0 0 0 0 836 0 808 782 782 766 766 750 750 0 0 0 0 0 0 0 0 0 766 791 799 808 808 817 791 791 799 791 782 758 743 743 735 743 0 687 645 634 651 639 675 669 657 651 645 634 623 613 613 603 584 557 553 533 525 518 0 0 0 0 0
    0 0 0 0 0 0 0 0 0 0 0 0 0 0 0 0 0 0 0 0 0 0 0 0 0 0 0 0 0 0 0 0 0 0 0 0 0 0 0 0 0 0 0 0 0 0 0 0 0 0 0 0 0 0 0 0 0 0 0 0 0 0 0 0 0 0 0 0 0 0 0 0 0 0 0 836 836 817 799 774 766 766 774 766 774 774 774 791 799 808 808 808 817 836 836 845 845 845 845 855 855 865 855 845 876 886 897 876 897 908 908 897 968 876 876 876 943 886 886 886 0 931 968 968 943 919 876 876 0 0 758 750 735 735 735 735 735 743 750 750 743 766 774 782 782 791 799 808 808 826 826 836 845 855 845 826 826 845 845 836 826 836 836 836 845 855 826 808 799 782 774 766 735 735 721 735 735 735 728 743 750 774 774 799 791 791 799 836 855 865 865 845 845 845 817 817 808 799 791 791 766 758 766 758 735 728 766 782 791 808 817 826 817 855 855 855 836 855 845 836 826 836 799 782 766 766 750 735 728 728 714 721 714 721 735 735 758 774 799 826 855 886 0 855 0 0 0 0 0 808 808 817 799 836 855 0 0 0 0 0 799 799 774 774 758 758 750 0 0 0 0 0 0 0 0 0 0 758 782 791 791 799 808 782 782 799 791 766 743 735 728 721 728 700 675 639 639 645 629 634 623 618 618 613 613 598 593 603 593 574 557 553 545 541 533 0 0 0 0 0
    0 0 0 0 0 0 0 0 0 0 0 0 0 0 0 0 0 0 0 0 0 0 0 0 0 0 0 0 0 0 0 0 0 0 0 0 0 0 0 0 0 0 0 0 0 0 0 0 0 0 0 0 0 0 0 0 0 0 0 0 0 0 0 0 0 0 0 0 0 0 0 0 0 0 0 0 845 817 817 791 766 766 774 774 774 782 782 791 799 817 817 817 826 836 836 845 845 845 845 855 855 855 855 845 876 886 908 876 908 908 908 908 981 886 886 886 955 897 897 897 0 0 955 968 919 897 865 865 0 0 774 758 743 750 743 743 743 750 766 766 758 766 782 791 791 799 808 808 826 845 845 855 855 865 845 836 836 855 845 845 836 836 836 845 845 855 826 808 808 799 799 791 750 750 728 743 750 750 728 743 750 774 774 799 791 791 791 836 855 855 845 836 836 836 817 817 817 808 799 808 791 791 799 799 758 750 782 0 799 0 836 836 826 865 865 865 855 876 855 836 836 855 808 782 774 774 758 743 743 728 721 728 721 735 743 750 774 782 808 826 855 897 0 855 845 0 0 817 0 808 808 808 791 826 0 0 0 0 0 0 0 0 774 758 750 750 743 0 0 0 0 0 728 728 728 0 728 758 782 782 774 782 799 782 782 799 791 758 735 721 714 714 714 687 669 639 639 645 629 634 618 613 613 608 598 584 579 584 570 557 553 545 541 541 533 0 0 0 0 0
    0 0 0 0 0 0 0 0 0 0 0 0 0 0 0 0 0 0 0 0 0 0 0 0 0 0 0 0 0 0 0 0 0 0 0 0 0 0 0 0 0 0 0 0 0 0 0 0 0 0 0 0 0 0 0 0 0 0 0 0 0 0 0 0 0 0 0 0 0 0 0 0 0 0 0 0 0 0 826 799 782 758 774 782 799 799 817 817 826 836 845 836 845 845 845 855 855 845 855 855 865 865 855 845 886 886 919 886 908 908 908 908 981 886 886 886 955 908 897 886 0 0 0 0 897 886 865 865 845 0 808 799 782 782 774 766 766 774 782 782 774 774 791 799 799 808 817 817 826 855 865 855 865 865 855 845 836 865 855 845 836 845 836 845 845 845 817 808 817 808 808 808 774 774 743 758 766 766 735 743 758 782 774 799 791 791 791 836 845 836 836 826 817 817 808 808 808 808 799 808 799 799 808 808 774 758 791 0 799 845 845 845 836 876 876 876 865 897 855 845 845 865 808 782 774 782 766 750 758 735 735 735 735 750 758 766 782 791 808 836 876 908 845 855 845 817 808 808 799 791 799 791 782 799 0 0 0 0 0 0 0 0 0 750 743 743 735 0 0 0 0 0 735 743 743 0 735 766 782 782 774 782 791 774 782 791 791 750 728 721 714 707 707 681 657 639 639 651 634 639 623 618 613 613 593 574 570 574 566 557 553 549 541 541 533 0 0 0 0 0
    0 0 0 0 0 0 0 0 0 0 0 0 0 0 0 0 0 0 0 0 0 0 0 0 0 0 0 0 0 0 0 0 0 0 0 0 0 0 0 0 0 0 0 0 0 0 0 0 0 0 0 0 0 0 0 0 0 0 0 0 0 0 0 0 0 0 0 0 0 0 0 0 0 0 0 0 0 0 0 791 799 774 782 791 817 817 826 826 836 836 845 845 845 845 855 855 855 855 865 865 865 865 865 845 886 897 919 886 908 908 908 908 968 886 876 876 943 886 0 0 0 0 0 0 865 865 845 855 845 836 826 808 799 817 808 791 782 782 799 791 782 782 791 791 799 808 817 817 826 845 855 855 865 865 855 845 836 865 855 855 845 845 845 845 845 855 817 808 817 808 808 808 791 782 766 774 782 782 750 758 766 791 791 808 799 791 799 845 845 836 826 817 817 817 808 799 808 808 799 808 808 808 808 0 799 782 791 808 808 845 855 845 836 876 886 897 876 919 865 845 855 886 817 799 799 791 782 774 774 743 743 743 743 758 766 774 791 799 817 836 886 897 836 855 836 817 808 799 791 782 791 791 774 791 808 0 0 0 0 0 0 0 0 758 758 750 743 0 0 0 0 0 0 0 0 0 0 774 791 774 766 766 774 758 782 791 791 750 728 728 714 714 707 681 651 639 645 651 639 634 623 618 618 608 584 570 570 561 557 553 549 545 541 541 533 0 0 0 0 0
    0 0 0 0 0 0 0 0 0 0 0 0 0 0 0 0 0 0 0 0 0 0 0 0 0 0 0 0 0 0 0 0 0 0 0 0 0 0 0 0 0 0 0 0 0 0 0 0 0 0 0 0 0 0 0 0 0 0 0 0 0 0 0 0 0 0 0 0 0 0 0 0 0 0 0 0 0 0 0 782 799 791 791 808 836 836 836 845 845 845 855 855 855 855 865 876 855 855 865 876 876 876 876 855 886 908 931 886 908 908 908 908 968 886 876 876 0 0 0 0 0 0 0 0 845 845 826 836 836 836 817 817 808 826 826 799 791 791 799 808 799 791 799 808 817 826 826 826 836 845 855 865 855 855 836 836 836 865 855 845 836 845 845 845 845 845 817 799 808 808 808 808 799 799 791 799 799 808 774 774 782 799 799 808 799 799 799 845 845 826 826 817 817 808 808 799 799 799 799 817 826 0 0 0 0 799 799 817 808 845 855 855 845 886 886 908 886 931 865 855 855 876 817 791 791 791 782 782 774 750 750 758 758 782 782 791 799 808 817 845 876 865 826 845 826 808 808 799 791 782 791 0 782 0 808 0 0 0 0 0 0 0 758 743 743 735 728 0 0 0 0 0 0 0 0 0 782 791 791 782 774 774 774 758 782 791 791 750 728 728 714 714 700 675 645 639 645 651 639 639 623 618 618 608 598 584 579 570 561 553 549 545 541 541 533 0 0 0 0 0
    0 0 0 0 0 0 0 0 0 0 0 0 0 0 0 0 0 0 0 0 0 0 0 0 0 0 0 0 0 0 0 0 0 0 0 0 0 0 0 0 0 0 0 0 0 0 0 0 0 0 0 0 0 0 0 0 0 0 0 0 0 0 0 0 0 0 0 0 0 0 0 0 0 0 0 0 0 0 0 0 782 782 791 836 845 836 836 855 855 855 855 865 865 865 876 886 865 855 876 876 886 897 886 855 897 919 943 886 908 908 908 908 968 897 886 886 0 0 0 0 0 0 0 886 865 845 836 845 836 836 817 817 808 836 836 817 808 799 808 817 808 799 799 808 817 826 826 826 826 836 845 855 855 855 0 836 826 865 855 0 836 845 845 845 845 845 808 799 808 808 817 817 808 808 808 808 817 817 791 791 791 808 799 808 799 799 791 845 845 817 808 808 817 808 808 799 799 808 808 826 836 0 0 0 0 808 799 826 808 855 855 855 845 886 897 908 897 931 865 855 855 865 808 782 782 791 782 782 774 758 758 766 774 791 791 791 799 808 817 845 865 865 826 845 836 817 817 799 782 782 782 791 782 782 791 0 0 0 0 0 0 0 758 743 743 735 0 0 0 0 0 0 0 0 0 0 0 799 799 791 782 782 774 766 782 791 782 750 735 728 714 721 700 675 645 645 645 645 639 634 618 618 613 603 598 588 584 574 566 561 553 545 541 537 529 0 0 0 0 0
    0 0 0 0 0 0 0 0 0 0 0 0 0 0 0 0 0 0 0 0 0 0 0 0 0 0 0 0 0 0 0 0 0 0 0 0 0 0 0 0 0 0 0 0 0 0 0 0 0 0 0 0 0 0 0 0 0 0 0 0 0 0 0 0 0 0 0 0 0 0 0 0 0 0 0 0 0 0 0 0 0 0 774 845 855 845 845 855 865 865 865 876 865 865 886 897 876 855 876 886 886 886 886 855 897 908 943 886 908 908 908 908 968 908 886 886 0 0 0 0 0 0 865 908 886 865 845 855 845 845 826 826 808 845 845 836 817 817 817 826 826 817 817 808 817 826 826 826 836 836 845 845 845 845 0 836 836 876 865 855 845 855 845 845 845 855 808 791 817 808 808 817 808 817 808 817 817 817 791 799 799 808 799 799 799 791 791 836 826 808 799 808 817 808 799 799 799 808 808 817 826 817 0 0 0 0 791 817 808 855 855 855 845 886 897 908 897 931 865 855 855 865 808 782 782 791 782 791 782 766 766 774 782 799 791 791 799 808 817 836 865 845 826 845 845 817 817 799 791 791 782 791 782 774 791 766 0 0 0 0 0 750 758 743 750 735 0 0 0 0 0 0 0 0 0 0 0 817 808 799 791 782 766 766 782 782 774 750 735 728 721 728 700 669 639 645 645 645 639 634 613 613 613 603 598 588 584 574 566 566 553 545 541 537 533 0 0 0 0 0
    0 0 0 0 0 0 0 0 0 0 0 0 0 0 0 0 0 0 0 0 0 0 0 0 0 0 0 0 0 0 0 0 0 0 0 0 0 0 0 0 0 0 0 0 0 0 0 0 0 0 0 0 0 0 0 0 0 0 0 0 0 0 0 0 0 0 0 0 0 0 0 0 0 0 0 0 0 799 0 782 766 766 758 845 865 845 845 855 865 865 865 876 876 865 876 897 876 865 876 876 886 886 886 855 886 897 931 886 908 897 897 908 968 886 876 865 0 0 0 0 0 0 855 897 876 855 855 865 855 855 836 845 826 855 855 845 836 826 826 836 836 826 817 817 817 826 826 826 836 836 836 845 845 845 0 836 826 865 855 855 845 855 845 855 845 855 817 799 817 817 817 817 817 817 817 817 826 817 799 799 799 808 799 799 791 791 791 826 817 808 799 799 817 808 799 799 799 808 808 808 826 817 808 826 0 0 782 817 817 855 855 865 845 886 897 908 897 931 865 855 855 865 808 782 782 791 791 791 791 782 782 782 791 799 799 791 799 808 817 826 855 836 817 836 845 817 817 799 791 791 782 791 782 774 791 0 0 0 0 774 766 766 774 758 758 750 743 0 0 0 0 0 0 0 0 0 0 836 817 808 799 774 758 766 782 774 774 758 743 743 735 743 707 669 634 651 645 639 639 629 613 613 608 603 598 593 588 579 566 570 553 545 541 537 533 0 0 0 0 0
    0 0 0 0 0 0 0 0 0 0 0 0 0 0 0 0 0 0 0 0 0 0 0 0 0 0 0 0 0 0 0 0 0 0 0 0 0 0 0 0 0 0 0 0 0 0 0 0 0 0 0 0 0 0 0 0 0 0 0 0 0 0 0 0 0 0 0 0 0 931 886 0 845 836 0 0 0 808 799 791 0 791 782 855 876 855 855 865 865 865 876 886 876 876 886 897 876 865 876 876 876 865 865 845 876 886 908 886 897 886 886 897 968 876 865 865 0 0 0 0 0 0 855 886 876 855 845 865 865 865 855 865 845 865 876 865 845 845 845 845 845 836 826 826 826 826 826 836 836 836 845 855 836 845 826 826 826 865 855 855 845 855 845 855 855 865 817 808 826 817 817 826 817 826 826 826 826 826 808 808 808 808 808 808 799 791 799 826 826 808 799 808 808 808 799 799 791 799 799 808 817 808 808 817 817 799 782 817 817 855 855 865 845 886 886 908 897 931 865 855 855 855 808 782 782 791 791 791 791 782 791 782 799 799 799 799 808 808 817 826 855 826 817 836 845 817 817 799 791 782 782 0 774 774 0 0 0 0 0 782 782 774 774 774 774 750 743 750 0 0 0 0 0 0 0 0 0 836 817 808 799 766 750 774 782 774 774 766 750 750 750 774 735 663 623 651 639 634 639 629 608 613 608 603 598 593 588 579 570 574 557 549 541 541 537 0 0 0 0 0
    0 0 0 0 0 0 0 0 0 0 0 0 0 0 0 0 0 0 0 0 0 0 0 0 0 0 0 0 0 0 0 0 0 0 0 0 0 0 0 0 0 0 0 0 0 0 0 0 0 0 0 0 0 0 0 0 0 0 0 0 0 0 0 0 0 0 0 0 0 908 865 865 855 845 876 865 0 0 0 808 0 0 799 855 876 855 855 865 865 865 876 886 876 876 897 897 876 876 876 876 876 865 855 836 865 876 886 876 886 876 876 876 955 865 855 855 0 0 0 0 0 865 855 886 865 855 845 855 865 876 865 897 865 886 897 897 876 855 855 855 855 855 845 836 836 836 836 845 845 845 845 855 845 845 836 836 826 865 855 845 845 855 855 855 855 865 817 808 826 826 817 826 826 826 826 836 836 826 817 817 817 817 808 817 808 808 808 836 826 808 799 799 808 808 799 799 791 799 799 799 817 808 808 808 808 808 782 826 826 845 855 855 845 886 886 908 897 931 865 855 855 855 808 782 782 791 791 791 791 791 791 791 808 808 799 799 808 808 817 826 845 826 817 836 845 0 817 808 791 791 782 0 774 774 0 0 0 0 0 0 799 782 782 782 782 758 750 743 750 0 0 0 0 0 0 0 799 817 808 799 791 750 750 774 782 782 782 774 766 766 782 799 799 669 613 645 629 629 639 629 608 613 608 603 598 598 593 584 570 579 557 549 541 541 537 0 0 0 0 0
    0 0 0 0 0 0 0 0 0 0 0 0 0 0 0 0 0 0 0 0 0 0 0 0 0 0 0 0 0 0 0 0 0 0 0 0 0 0 0 0 0 0 0 0 0 0 0 0 0 0 0 0 0 0 0 0 0 0 0 0 0 0 0 0 0 0 0 0 0 897 876 897 886 876 908 897 886 855 0 0 0 0 836 865 876 855 865 876 865 865 876 886 876 876 897 897 886 886 886 886 876 876 865 836 865 876 876 865 876 865 865 865 943 855 845 845 0 0 0 0 0 0 855 876 865 845 836 836 836 845 845 886 855 886 897 908 886 865 865 865 865 865 845 836 836 836 836 845 836 836 836 845 836 845 826 826 817 855 845 845 845 855 845 845 855 865 826 817 836 826 817 826 826 836 836 836 845 826 817 817 826 826 817 817 817 817 817 836 826 799 799 799 808 799 791 791 782 791 791 791 808 799 799 799 799 799 782 826 826 836 845 845 845 876 886 897 886 919 865 865 855 855 808 782 791 791 791 799 791 799 799 791 808 808 799 799 808 808 808 826 845 826 817 836 845 0 826 808 799 791 791 0 774 774 791 774 0 0 0 791 791 782 774 774 774 766 758 750 758 743 782 0 0 0 0 0 791 817 808 799 791 735 750 774 782 782 782 782 782 791 808 817 855 0 0 675 623 629 639 629 608 613 608 608 603 598 593 584 574 584 557 553 541 541 537 0 0 0 0 0
    0 0 0 0 0 0 0 0 0 0 0 0 0 0 0 0 0 0 0 0 0 0 0 0 0 0 0 0 0 0 0 0 0 0 0 0 0 0 0 0 0 0 0 0 0 0 0 0 0 0 0 0 0 0 0 0 0 0 0 0 0 0 0 0 0 0 0 0 0 0 919 968 955 955 943 943 919 876 855 845 836 836 836 865 865 855 855 865 865 865 876 876 876 876 886 897 886 886 886 886 886 876 865 845 865 865 876 865 865 865 865 865 931 855 845 836 0 0 0 0 0 0 845 876 865 836 826 817 817 817 817 855 845 865 886 897 886 876 865 865 865 865 845 836 836 836 836 845 836 826 826 836 836 845 826 826 808 845 845 836 836 845 836 845 845 865 826 817 836 826 826 826 826 836 836 836 845 836 826 826 826 836 826 826 826 826 826 845 836 817 808 808 817 817 799 791 782 782 791 791 808 799 791 791 799 799 791 826 826 836 836 836 836 876 876 886 876 908 876 876 855 865 808 791 799 791 799 799 799 799 799 791 799 799 799 799 808 799 799 817 0 826 817 845 845 0 0 817 799 799 791 791 774 774 791 782 799 0 791 791 791 782 774 774 766 774 758 766 782 774 791 0 0 0 0 0 782 808 808 799 791 735 758 782 782 782 791 791 791 799 817 826 865 845 0 721 629 629 645 629 613 618 613 608 603 603 598 584 574 584 561 549 541 541 537 0 0 0 0 0
    0 0 0 0 0 0 0 0 0 0 0 0 0 0 0 0 0 0 0 0 0 0 0 0 0 0 0 0 0 0 0 0 0 0 0 0 0 0 0 0 0 0 0 0 0 0 0 0 0 0 0 0 0 0 0 0 0 0 0 0 0 0 0 0 0 0 0 0 0 0 981 1008 1008 1008 981 981 981 931 897 876 855 845 845 876 865 855 865 876 865 876 876 876 876 876 886 886 897 897 886 886 886 886 876 845 865 865 865 865 855 855 855 865 931 855 845 845 865 0 0 0 0 0 865 897 886 855 836 826 826 817 817 855 855 865 876 897 897 876 865 876 876 876 855 845 845 845 845 865 845 836 826 836 836 845 817 826 817 845 845 826 836 845 836 845 845 855 826 817 845 836 826 826 826 836 845 845 845 836 826 836 836 845 836 836 826 836 836 855 845 826 808 817 826 826 808 799 791 782 791 791 799 791 782 782 791 799 791 826 826 0 826 836 836 865 876 886 876 897 876 876 855 865 808 791 791 782 791 799 799 808 799 791 799 799 808 799 808 799 799 817 0 0 0 0 0 0 0 0 0 0 791 782 774 782 791 782 799 817 799 799 799 782 766 766 750 750 743 743 774 743 758 0 0 0 0 0 791 0 817 808 799 750 774 791 782 774 782 791 791 799 817 0 865 845 0 728 634 629 645 634 613 618 613 608 608 603 598 588 574 588 561 549 541 541 537 0 0 0 0 0
    0 0 0 0 0 0 0 0 0 0 0 0 0 0 0 0 0 0 0 0 0 0 0 0 0 0 0 0 0 0 0 0 0 0 0 0 0 0 0 0 0 0 0 0 0 0 0 0 0 0 0 0 0 0 0 0 0 0 0 0 0 0 0 0 0 0 0 0 0 0 968 994 994 994 981 981 981 943 919 919 876 855 855 876 865 855 865 865 865 876 886 886 876 886 886 886 897 908 886 886 886 886 876 845 865 855 865 865 855 855 855 855 943 865 855 855 876 0 84 0 0 0 876 908 897 865 855 836 845 826 817 855 855 865 876 897 897 876 876 876 876 876 865 855 855 855 855 865 855 836 836 845 845 855 836 826 826 845 836 826 836 836 836 845 845 855 826 826 855 845 826 836 826 836 836 836 836 826 826 836 836 845 836 836 836 836 845 845 836 817 808 817 817 826 817 817 808 791 799 799 791 782 782 774 791 791 791 826 826 817 826 826 826 865 865 876 865 886 886 876 855 865 817 799 799 791 799 799 799 808 808 799 799 799 808 808 808 799 799 817 0 0 0 0 0 0 0 0 0 0 0 0 774 782 791 791 808 0 808 808 808 799 791 782 766 774 766 766 782 750 758 750 750 0 0 758 774 774 799 808 791 750 774 782 774 766 774 782 782 791 817 826 836 826 799 728 645 623 645 629 613 613 608 608 603 603 598 584 574 588 561 553 541 537 537 0 0 0 0 0
    0 0 0 0 0 0 0 0 0 0 0 0 0 0 0 0 0 0 0 0 0 0 0 0 0 0 0 0 0 0 0 0 0 0 0 0 0 0 0 0 0 0 0 0 0 0 0 0 0 0 0 0 0 0 0 0 0 0 0 0 0 0 0 0 0 0 0 0 0 931 919 943 955 955 955 943 943 919 897 908 876 865 865 876 855 855 876 865 855 876 886 876 876 886 876 876 897 908 876 876 886 886 876 845 855 855 855 865 845 845 845 845 931 865 855 855 865 0 0 0 0 0 865 886 876 855 845 836 845 836 826 855 865 865 876 908 897 876 876 886 886 876 865 855 855 855 855 865 845 836 836 845 855 855 845 836 826 845 845 826 836 836 836 836 845 855 826 836 865 855 826 826 817 826 836 826 836 826 826 826 826 845 836 836 836 836 845 845 845 826 817 817 817 817 808 808 799 782 791 782 782 758 774 766 782 791 791 817 817 799 817 817 817 855 855 865 855 876 897 886 865 876 817 808 808 799 799 799 808 808 808 799 799 799 799 799 799 791 808 826 0 0 0 0 0 0 0 0 0 0 0 0 766 782 791 791 0 0 817 826 826 808 799 791 774 782 782 774 782 758 766 774 774 0 0 774 782 782 799 808 774 750 774 791 774 766 774 774 782 791 817 817 817 791 782 728 645 623 645 629 608 613 608 608 603 603 598 584 574 588 557 549 537 537 537 0 0 0 0 0
    0 0 0 0 0 0 0 0 0 0 0 0 0 0 0 0 0 0 0 0 0 0 0 0 0 0 0 0 0 0 0 0 0 0 0 0 0 0 0 0 0 0 0 0 0 0 0 0 0 0 0 0 0 0 0 0 0 0 0 0 0 0 0 0 0 0 0 0 0 931 897 931 943 955 955 943 955 919 908 919 886 865 865 876 855 855 876 876 865 876 886 876 876 897 876 876 897 908 876 876 886 886 865 845 855 845 855 855 845 836 845 845 908 855 855 855 865 0 0 0 0 0 855 886 865 836 836 826 845 845 836 855 876 876 897 919 908 876 876 886 897 876 865 865 865 865 865 865 855 845 855 865 855 865 855 836 836 845 836 817 826 836 836 836 845 855 836 845 876 886 836 845 836 836 845 845 0 845 836 836 836 845 845 836 836 845 845 845 845 826 817 817 817 817 808 799 791 782 782 774 774 743 774 758 791 799 799 817 817 791 817 808 808 845 855 855 855 876 908 886 865 0 0 86 86 0 799 799 808 808 799 791 791 799 799 799 799 791 808 0 0 0 0 0 0 0 0 0 0 0 0 0 766 782 791 791 0 0 0 0 826 808 799 791 774 791 774 766 766 743 743 758 750 743 743 774 774 782 791 799 758 758 782 791 774 766 774 774 782 808 826 826 817 799 782 728 651 0 645 629 608 613 608 608 603 603 598 584 574 588 561 553 537 537 537 0 0 0 0 0
    0 0 0 0 0 0 0 0 0 0 0 0 0 0 0 0 0 0 0 0 0 0 0 0 0 0 0 0 0 0 0 0 0 0 0 0 0 0 0 0 0 0 0 0 0 0 0 0 0 0 0 0 0 0 0 0 0 0 0 0 0 0 0 0 0 0 0 0 0 0 876 919 943 968 968 968 968 943 931 943 897 876 876 865 865 865 876 876 865 886 886 876 897 897 876 876 897 908 876 876 897 886 865 845 855 845 855 855 845 845 845 845 897 855 855 855 865 0 0 0 865 876 865 897 876 845 845 845 855 855 845 865 886 897 919 943 931 886 886 908 908 886 876 876 876 876 886 876 865 855 855 865 865 865 855 836 845 845 845 826 826 836 836 836 845 845 836 855 897 931 855 855 836 836 0 0 0 845 836 836 836 855 845 845 845 845 845 845 855 836 817 817 808 808 808 799 799 782 791 791 782 750 791 758 799 808 799 817 817 791 808 808 808 845 845 855 845 865 908 886 865 86 86 86 86 0 799 799 808 808 799 799 791 799 799 799 791 782 808 0 0 0 0 0 0 0 0 0 0 0 0 0 0 0 0 0 0 0 0 0 0 808 791 782 766 766 758 743 750 735 728 743 735 728 743 766 766 774 782 791 758 766 791 791 782 782 782 791 791 817 845 836 817 774 728 714 639 0 645 629 608 613 603 603 603 598 598 584 574 588 561 557 541 541 541 0 0 0 0 0
    0 0 0 0 0 0 0 0 0 0 0 0 0 0 0 0 0 0 0 0 0 0 0 0 0 0 0 0 0 0 0 0 0 0 0 0 0 0 0 0 0 0 0 0 0 0 0 0 0 0 0 0 0 0 0 0 0 0 0 0 0 0 0 0 0 0 0 0 0 0 876 0 0 955 981 981 968 955 955 955 908 886 886 865 865 865 886 876 876 886 886 876 897 897 876 886 897 897 876 865 886 886 876 855 865 855 855 865 845 845 855 855 908 865 865 865 865 0 0 0 855 865 865 897 876 836 836 845 855 855 845 865 886 897 919 943 919 886 897 897 908 886 876 876 876 865 886 876 865 845 855 865 865 865 865 836 855 855 845 836 836 845 845 836 855 845 845 855 897 919 836 826 817 836 0 0 0 0 0 836 836 865 855 845 855 865 855 865 865 845 836 826 826 817 817 808 808 791 799 808 782 750 799 766 808 808 808 817 817 782 808 799 799 836 836 845 845 855 908 886 865 86 86 86 86 0 799 808 808 808 799 799 799 799 799 799 791 782 808 0 0 0 0 0 0 0 0 0 0 0 0 0 0 0 0 799 799 0 808 0 0 826 799 791 782 782 766 750 750 743 735 750 743 743 758 774 774 782 791 799 774 782 799 799 791 791 791 799 799 817 0 0 799 758 714 714 634 0 639 623 603 608 603 603 603 598 598 584 574 588 561 553 541 541 541 0 0 0 0 0
    0 0 0 0 0 0 0 0 0 0 0 0 0 0 0 0 0 0 0 0 0 0 0 0 0 0 0 0 0 0 0 0 0 0 0 0 0 0 0 0 0 0 0 0 0 0 0 0 0 0 0 0 0 0 0 0 0 0 0 0 0 0 0 0 0 0 0 0 0 931 886 931 0 968 981 994 968 955 955 0 919 897 897 876 865 876 886 886 886 897 897 876 908 897 865 886 897 886 876 865 886 876 865 855 865 855 865 865 855 855 855 865 919 876 865 865 876 0 0 0 845 0 0 0 876 836 845 855 865 855 855 865 897 908 919 943 919 886 897 908 919 886 876 876 876 865 886 865 865 845 855 865 865 865 865 836 855 845 845 826 836 836 845 836 855 845 845 865 886 886 836 826 791 826 0 0 0 0 836 836 836 876 865 855 865 876 865 876 876 855 845 845 836 836 826 826 826 808 817 817 782 750 799 774 808 808 799 817 808 774 799 791 799 836 836 845 845 845 897 876 855 86 0 0 791 791 799 808 808 808 799 799 799 808 799 799 791 799 817 0 0 0 0 0 876 0 0 0 0 0 0 0 0 0 0 799 799 0 0 0 0 826 808 799 799 808 799 799 774 774 758 782 0 766 782 791 791 799 799 799 782 799 808 799 791 791 791 791 799 817 0 0 766 750 721 714 639 0 639 623 603 608 603 603 603 598 598 584 574 584 557 0 541 541 541 0 0 0 0 0
    0 0 0 0 0 0 0 0 0 0 0 0 0 0 0 0 0 0 0 0 0 0 0 0 0 0 0 0 0 0 0 0 0 0 0 0 0 0 0 0 0 0 0 0 0 0 0 0 0 0 0 0 0 0 0 0 0 0 0 0 0 0 0 0 0 0 0 0 0 897 865 908 931 955 968 981 955 931 943 0 919 897 897 876 865 886 897 886 886 897 886 886 919 897 876 886 897 876 865 865 886 876 865 855 865 865 876 865 865 855 865 886 931 886 876 876 886 919 886 865 855 855 865 886 876 855 865 876 886 876 876 876 908 908 919 931 908 876 897 908 919 886 876 876 876 876 897 865 855 845 855 876 865 865 865 836 855 845 845 836 836 845 845 845 855 845 845 855 886 865 836 826 791 826 0 0 0 0 826 826 826 865 855 845 855 876 865 886 886 876 855 855 845 845 836 836 836 817 826 826 782 758 791 766 799 799 791 808 799 766 791 791 791 826 826 836 836 845 886 865 855 86 817 791 791 791 799 799 799 808 799 799 799 808 799 799 791 808 826 0 0 0 0 855 0 0 0 0 0 408 0 0 0 0 0 0 0 0 0 0 0 836 817 817 826 836 826 826 791 791 782 0 774 774 791 799 799 799 799 799 782 799 808 791 782 782 791 791 799 817 0 0 766 743 707 714 0 0 639 623 603 608 603 603 598 598 598 584 574 588 561 0 545 545 545 0 0 0 0 0
    0 0 0 0 0 0 0 0 0 0 0 0 0 0 0 0 0 0 0 0 0 0 0 0 0 0 0 0 0 0 0 0 0 0 0 0 0 0 0 0 0 0 0 0 0 0 0 0 0 0 0 0 0 0 0 0 0 0 0 0 0 0 0 0 0 0 0 0 0 865 845 865 876 897 943 931 919 897 897 0 908 897 886 865 876 886 897 886 897 897 886 886 919 897 876 886 908 876 876 865 876 876 865 855 865 865 876 876 876 865 865 886 931 886 876 876 886 931 886 876 855 876 876 886 886 865 876 897 908 897 886 886 919 919 931 919 897 876 897 908 908 886 876 876 876 876 897 865 855 855 865 876 865 865 865 845 865 855 855 845 845 855 855 855 865 845 855 855 876 855 836 836 808 826 826 0 0 0 826 817 817 845 836 836 845 876 865 886 897 876 855 855 855 855 845 845 845 826 826 826 791 774 791 774 799 799 782 799 799 758 791 782 782 817 826 836 836 836 886 865 855 86 817 791 791 791 799 799 799 799 799 799 808 808 799 791 791 808 826 826 0 0 0 845 0 0 0 0 0 406 0 0 0 0 0 0 0 0 0 0 855 845 836 826 836 836 817 817 782 782 782 799 782 774 791 799 791 799 799 791 774 799 799 791 782 782 782 791 808 817 0 0 721 721 707 707 0 391 634 623 598 603 598 598 598 598 598 584 574 588 561 0 545 545 545 0 0 0 0 0
    0 0 0 0 0 0 0 0 0 0 0 0 0 0 0 0 0 0 0 0 0 0 0 0 0 0 0 0 0 0 0 0 0 0 0 0 0 0 0 0 0 0 0 0 0 0 0 0 0 0 0 0 0 0 0 0 0 0 0 0 0 0 0 0 0 0 0 0 0 855 836 845 0 0 0 0 876 865 0 865 897 886 876 865 876 886 897 886 908 897 886 897 919 897 876 886 897 865 865 855 876 865 865 855 865 865 886 876 876 876 876 897 931 886 876 876 876 919 886 865 855 876 876 886 876 865 876 908 908 897 886 886 908 919 931 908 886 876 897 908 908 886 876 876 876 876 897 865 865 855 876 886 876 876 865 845 865 855 865 855 845 855 855 865 865 855 865 865 865 845 836 836 808 826 826 0 0 0 826 817 817 826 817 817 826 865 865 876 897 876 855 855 855 855 845 845 845 836 836 836 799 782 799 782 799 799 774 799 799 750 782 782 782 817 817 826 826 826 876 865 855 86 817 791 791 791 799 799 799 799 799 799 808 808 799 791 791 808 817 817 808 826 817 0 0 0 0 0 0 402 0 0 0 0 0 0 0 0 0 0 855 845 836 826 836 836 817 808 774 782 774 782 774 774 782 791 791 799 791 774 774 791 799 791 782 782 782 791 817 0 0 0 700 707 694 0 0 0 629 618 593 603 598 598 598 598 598 584 579 593 566 0 0 549 545 0 0 0 0 0
    0 0 0 0 0 0 0 0 0 0 0 0 0 0 0 0 0 0 0 0 0 0 0 0 0 0 0 0 0 0 0 0 0 0 0 0 0 0 0 0 0 0 0 0 0 0 0 0 0 0 0 0 0 0 0 0 0 0 0 0 0 0 0 0 0 0 0 0 0 865 845 855 865 0 0 0 876 0 0 865 886 886 865 855 876 876 886 886 897 886 876 897 919 886 876 886 897 865 876 855 865 855 855 855 865 865 886 876 886 876 876 897 908 865 865 865 865 897 865 855 855 876 876 886 886 865 876 908 908 897 886 897 908 919 931 897 886 876 897 908 908 886 876 876 876 876 908 876 865 855 876 897 876 876 855 845 865 855 865 855 845 855 855 865 865 855 865 855 855 836 836 836 808 826 0 0 0 0 826 817 817 836 817 817 836 897 886 897 919 897 865 865 855 855 836 836 836 826 826 826 799 791 799 799 808 799 774 799 791 743 782 774 774 808 817 826 826 826 865 855 845 86 0 0 791 799 799 799 799 799 799 799 808 808 799 791 791 799 808 799 791 808 808 826 0 0 0 0 0 0 0 0 0 0 0 0 0 817 808 0 845 836 836 826 836 836 817 817 782 782 782 782 782 782 791 791 791 799 782 766 774 799 799 782 782 782 782 791 0 0 0 0 669 687 687 0 0 0 629 618 598 608 603 603 598 598 603 584 579 0 566 0 0 549 545 0 0 0 0 0
    0 0 0 0 0 0 0 0 0 0 0 0 0 0 0 0 0 0 0 0 0 0 0 0 0 0 0 0 0 0 0 0 0 0 0 0 0 0 0 0 0 0 0 0 0 0 0 0 0 0 0 0 0 0 0 0 0 0 0 0 0 0 0 0 0 0 0 0 0 865 0 0 865 0 0 0 0 0 0 876 897 876 865 855 876 876 886 897 908 886 886 908 919 886 886 886 897 855 876 845 865 855 855 855 865 865 886 865 886 876 876 897 897 855 845 845 855 876 845 845 855 865 886 897 919 876 897 931 931 919 908 919 931 931 943 897 886 876 908 908 897 876 876 876 876 886 908 865 876 865 876 897 876 876 845 845 855 845 855 845 845 845 845 865 865 855 865 855 845 836 845 845 817 836 0 0 0 0 826 817 817 845 826 826 836 908 897 908 908 897 865 865 855 855 836 836 826 826 826 826 799 791 799 799 808 799 774 791 791 743 782 774 766 799 808 817 817 817 855 845 845 86 86 86 0 799 808 808 799 799 799 808 808 817 808 791 799 808 799 791 791 799 799 808 799 799 0 0 0 0 0 0 0 0 0 0 0 808 799 0 0 0 0 808 0 836 808 808 791 791 791 782 782 782 791 799 791 799 782 766 782 799 799 782 782 782 774 791 0 0 0 0 0 669 0 0 0 0 629 618 598 608 603 603 598 598 598 584 579 593 570 0 549 549 549 0 0 0 0 0
    0 0 0 0 0 0 0 0 0 0 0 0 0 0 0 0 0 0 0 0 0 0 0 0 0 0 0 0 0 0 0 0 0 0 0 0 0 0 0 0 0 0 0 0 0 0 0 0 0 0 0 0 0 0 0 0 0 0 0 0 0 0 0 0 0 0 0 0 0 876 0 0 865 0 0 0 0 0 0 865 886 865 855 855 876 876 897 897 908 886 886 919 919 897 897 897 897 855 876 845 855 855 845 845 865 865 886 865 886 876 876 897 897 845 845 845 855 865 855 845 855 865 886 908 919 886 931 955 955 943 943 943 943 943 943 897 876 876 897 897 897 876 876 886 876 886 897 865 865 855 865 876 876 865 845 845 865 855 865 855 855 855 855 876 865 855 876 855 845 836 845 845 826 0 0 0 826 826 836 826 826 845 836 836 836 931 897 908 908 886 876 865 865 865 845 845 836 836 826 826 799 799 799 799 799 799 766 791 791 735 774 774 758 791 799 808 808 808 845 836 836 86 86 0 0 799 799 799 799 799 799 808 808 817 808 799 808 0 799 799 791 799 799 808 799 791 799 0 0 0 0 0 0 0 0 0 0 0 808 0 0 0 0 0 0 836 808 808 791 791 799 782 791 791 791 799 799 799 782 758 791 799 799 791 782 782 774 791 0 0 0 0 0 669 0 0 0 0 629 618 598 608 603 603 598 598 603 588 579 593 570 0 553 549 549 0 0 0 0 0
    0 0 0 0 0 0 0 0 0 0 0 0 0 0 0 0 0 0 0 0 0 0 0 0 0 0 0 0 0 0 0 0 0 0 0 0 0 0 0 0 0 0 0 0 0 0 0 0 0 0 0 0 0 0 0 0 0 0 0 0 0 0 0 0 0 0 0 0 0 897 865 876 876 0 0 0 0 0 0 855 876 855 855 855 865 865 886 897 908 876 897 919 919 897 897 897 897 855 876 836 855 845 845 845 865 865 886 855 886 876 876 897 886 845 845 845 855 855 845 836 845 865 886 908 919 897 955 981 981 968 943 955 943 943 931 876 876 876 897 897 897 876 876 886 876 886 886 855 855 845 865 865 865 855 845 855 865 855 865 855 855 855 855 865 855 845 876 855 836 836 845 0 0 0 0 0 826 826 836 826 826 855 845 845 836 931 908 886 886 876 865 865 865 876 845 845 826 826 817 0 791 791 791 791 791 791 766 791 782 735 774 774 758 791 799 808 799 799 836 826 826 86 0 0 791 799 799 791 791 791 791 799 808 817 808 799 808 817 799 791 782 791 791 791 782 782 791 791 791 0 808 0 0 0 0 0 0 0 808 0 0 0 0 0 0 855 817 817 808 799 808 782 791 791 799 799 799 799 782 758 791 799 791 774 774 766 758 766 0 0 0 0 0 675 0 0 0 391 629 623 598 613 608 603 603 603 603 588 584 0 570 0 0 545 545 0 0 0 0 0
    0 0 0 0 0 0 0 0 0 0 0 0 0 0 0 0 0 0 0 0 0 0 0 0 0 0 0 0 0 0 0 0 0 0 0 0 0 0 0 0 0 0 0 0 0 0 0 0 0 0 0 0 0 0 0 0 0 0 0 0 0 0 0 0 0 0 0 0 0 919 886 908 886 897 886 855 0 0 0 855 865 845 845 855 865 865 886 897 897 876 908 931 919 897 908 897 886 855 876 836 845 845 845 845 855 855 876 845 886 876 865 886 865 836 836 836 845 845 836 836 845 865 886 897 919 919 968 981 968 968 955 955 943 943 919 876 876 876 897 897 897 886 886 886 876 886 886 855 855 845 865 865 855 855 845 855 855 855 865 855 845 855 855 865 845 855 876 845 836 836 845 0 0 0 0 0 0 826 845 836 0 0 0 845 817 908 876 865 855 855 845 855 855 876 836 826 817 817 808 808 791 791 782 791 782 791 774 782 782 735 774 774 750 782 791 799 791 799 826 817 817 86 0 0 791 799 799 791 791 791 799 799 808 808 808 799 808 0 791 791 774 782 782 782 766 774 782 782 782 799 791 791 0 0 0 0 0 0 0 0 0 0 0 0 0 855 817 817 799 791 817 774 791 799 799 808 808 799 782 758 791 791 774 766 766 758 750 766 0 0 0 0 0 0 0 0 0 0 634 623 603 613 608 608 608 603 603 588 584 0 570 0 0 0 0 0 0 0 0 0</data></depth>
</opencv_storage>
