<?xml version="1.0"?>
<opencv_storage>
<gps_time_stamp>303286</gps_time_stamp>
<gps_x>-1.2412158012390137e+001</gps_x>
<gps_y>1.0969760894775391e+001</gps_y>
<gps_z>-2.0267133712768555e+000</gps_z>
<image_time_stamp>294160</image_time_stamp>
<depth type_id="opencv-matrix">
  <rows>85</rows>
  <cols>320</cols>
  <dt>s</dt>
  <data>
    0 0 0 0 0 0 0 0 0 0 0 0 0 0 0 0 0 0 0 0 0 0 0 0 0 0 0 0 0 0 0 0 0 0 0 0 0 0 0 0 0 0 0 0 0 0 0 0 0 0 0 0 0 0 0 0 0 0 0 0 0 0 0 0 0 0 0 0 0 1268 1247 1268 1338 1388 1388 1388 1388 1443 1388 1471 1471 1501 1501 1501 1471 1471 1471 1565 1415 1501 1533 1533 1533 1599 1599 1635 1672 1752 1795 1795 1839 1887 1887 1989 2044 1989 1989 2044 2164 2230 2230 2299 2299 2299 2164 2374 2453 2164 2374 2299 2230 2299 2374 2453 2453 2537 2725 2725 2830 3066 3199 3345 3873 3679 3679 3345 3345 3504 3679 3504 3345 3199 3199 3199 3199 3066 3066 3066 3066 3345 3504 4088 6133 6690 0 0 0 0 0 0 0 0 0 0 8177 7359 7359 6690 7359 6690 6690 5661 6690 6133 6690 6690 7359 7359 7359 0 0 0 0 0 5256 4599 4329 3504 3345 2830 2943 2628 2725 2628 2374 2453 2374 2299 2453 2299 2374 2164 2102 2230 1989 1989 1672 1672 1672 1672 1635 1599 1565 1471 1471 1599 1415 1471 1471 1471 1388 1314 1314 1291 1206 1226 1132 1168 1149 0 1115 1115 1132 1168 1098 1187 1082 1149 1187 1187 1132 1098 1098 1115 1066 1098 994 931 897 865 826 836 826 836 0 0 791 817 0 0 808 782 774 766 750 799 735 714 675 687 0 0 0 89 645 645 645 657 639 639 645 639 657 651 634 629 623 4329 3679 0 0 104 104 104 144 144 145 0 0 0 0 0 0 0 0 0 0 504 504 500 908 0 0 0 0 0 0 0 0 0
    0 0 0 0 0 0 0 0 0 0 0 0 0 0 0 0 0 0 0 0 0 0 0 0 0 0 0 0 0 0 0 0 0 0 0 0 0 0 0 0 0 0 0 0 0 0 0 0 0 0 0 0 0 0 0 0 0 0 0 0 0 0 0 0 0 0 0 0 0 1268 1268 1268 1362 1388 1388 1388 1388 1443 1388 1501 1471 1471 1471 1501 1471 1471 1471 1533 1415 1471 1501 1471 1533 1565 1565 1565 1672 1752 1752 1795 1795 1839 1839 1936 2044 1989 1989 1989 2102 2230 2230 2299 2230 2299 2102 2374 2453 2164 2374 2299 2164 2374 2374 2453 2453 2537 2725 2725 2725 3066 3199 3199 3873 3504 3504 3345 3504 3345 3679 3345 3504 3345 3199 3199 3199 3199 3066 3066 3199 3345 3345 3873 5256 5661 7359 0 0 0 0 0 0 0 0 8177 7359 7359 7359 6690 7359 6690 6690 6133 6690 6690 6690 7359 7359 7359 6690 8177 0 8177 0 0 5256 4599 4329 3504 3345 2830 2830 2537 2725 2725 2453 2537 2374 2374 2453 0 2453 2164 2102 2230 1989 1989 1672 1711 1711 1711 1672 1635 1565 1501 1501 1635 1415 1443 1443 1471 1388 1268 1268 1268 1168 1187 1115 1149 1132 143 1132 1115 1132 1187 1098 1187 1098 1149 1187 1168 1132 1098 1098 1115 1066 1098 994 955 931 876 836 845 826 836 836 0 791 826 0 0 808 791 774 774 750 799 750 714 669 687 0 0 0 0 645 639 645 657 634 634 639 634 651 651 0 634 0 0 0 0 0 0 104 104 144 144 145 0 0 0 0 0 178 0 0 0 0 0 0 500 0 0 0 0 0 0 0 0 0 0
    0 0 0 0 0 0 0 0 0 0 0 0 0 0 0 0 0 0 0 0 0 0 0 0 0 0 0 0 0 0 0 0 0 0 0 0 0 0 0 0 0 0 0 0 0 0 0 0 0 0 0 0 0 0 0 0 0 0 0 0 0 0 0 0 0 0 0 0 0 1268 1268 1268 1338 1362 1388 1388 1415 1471 1415 1501 1443 1471 1471 1471 1443 1443 1443 1471 1415 1443 1471 1443 1501 1533 1533 1533 1672 1711 1752 1752 1795 1839 1839 1936 2044 1989 1989 1989 2102 2230 2299 2299 2230 2299 2102 2453 2628 2164 2374 2299 2164 2374 2374 2374 2374 2453 2725 2628 2725 2943 3066 3199 3873 3504 3504 3504 3504 3504 3679 3504 3504 3504 3504 3345 3345 3345 3345 3345 3345 3504 3504 3873 5661 6690 8177 0 0 0 0 0 0 0 0 8177 7359 7359 7359 6690 7359 7359 6690 6133 6690 6690 7359 7359 8177 8177 7359 8177 0 8177 8177 8177 4329 3873 3873 3504 3345 2725 2830 2537 2725 2725 2537 2537 2453 2374 2537 0 2453 2164 2102 2299 2044 2044 1752 1752 1752 1752 1752 1672 1565 1533 1533 1672 1443 1443 1443 1443 1362 1226 1247 1247 1132 1187 1115 1149 1132 143 1132 1132 1149 1187 1115 1187 1098 1168 1187 1168 1132 1098 1098 1115 1066 1098 1008 968 943 897 845 855 845 845 845 0 799 826 0 0 808 791 0 782 758 799 758 714 675 687 687 663 0 0 645 639 639 651 634 634 634 634 639 651 0 634 0 0 0 0 0 0 0 0 144 144 145 0 0 0 0 0 178 0 0 0 0 0 0 0 0 0 257 0 0 0 0 0 0 0
    0 0 0 0 0 0 0 0 0 0 0 0 0 0 0 0 0 0 0 0 0 0 0 0 0 0 0 0 0 0 0 0 0 0 0 0 0 0 0 0 0 0 0 0 0 0 0 0 0 0 0 0 0 0 0 0 0 0 0 0 0 0 0 0 0 0 0 0 0 1268 1268 1268 1338 1362 1415 1415 1415 1471 1443 1501 1443 1471 1471 1443 1443 1443 1415 1443 1388 1415 1415 1415 1471 1501 1501 1501 1635 1711 1752 1752 1752 1839 1839 1936 2044 1989 1989 1989 2102 2230 2230 2299 2230 2299 2044 2453 2628 2164 2453 2299 2164 2374 2374 2374 2374 2453 2628 2628 2725 2943 3066 3066 3679 3345 3504 3504 3504 3504 3873 3504 3504 3679 3679 3504 3504 3345 3345 3345 3504 3504 3504 3679 5256 6133 8177 0 0 0 0 0 0 0 0 8177 7359 7359 7359 6690 7359 7359 6690 6690 7359 6690 7359 7359 8177 8177 8177 8177 8177 8177 8177 6690 4088 3679 3679 3345 3345 2725 2830 2537 2725 2725 2537 2628 2453 2374 2537 2374 2453 2164 2102 2299 1989 2044 1752 1795 1795 1795 1795 1711 1599 1565 1565 1711 1471 1415 1415 1415 1362 1206 1226 1226 1132 1168 1115 1149 1132 143 1149 1132 0 0 0 1206 1115 1168 1206 1168 1132 1098 1098 1132 1066 1098 994 968 955 897 855 865 845 845 845 836 799 826 0 0 808 799 0 782 766 791 758 714 669 687 687 663 669 0 639 639 639 651 629 629 629 629 634 651 0 0 0 0 0 0 0 0 0 0 0 0 0 0 0 0 0 0 178 0 0 0 0 0 0 500 0 0 0 0 0 0 0 0 0 0
    0 0 0 0 0 0 0 0 0 0 0 0 0 0 0 0 0 0 0 0 0 0 0 0 0 0 0 0 0 0 0 0 0 0 0 0 0 0 0 0 0 0 0 0 0 0 0 0 0 0 0 0 0 0 0 0 0 0 0 0 0 0 0 0 0 0 0 0 0 1268 1247 1268 1314 1362 1388 1415 1415 1443 1443 1443 1388 1443 1443 1415 1415 1415 1388 1415 1388 1415 1388 1388 1471 1471 1471 1471 1635 1672 1711 1752 1752 1839 1839 1887 1989 1989 1989 1989 2102 2230 2230 2299 2230 2299 2044 2453 2628 2102 2453 2374 2164 2374 2374 2374 2374 2374 2628 2537 2628 2943 3066 3066 3679 3345 3679 3679 3679 3679 4088 3679 3873 4088 4088 3504 3679 3504 3504 3504 3504 3504 3504 3504 4599 5661 7359 0 0 0 0 8177 0 0 0 0 8177 7359 7359 6690 7359 7359 6690 6133 7359 6690 7359 7359 8177 8177 7359 7359 8177 8177 7359 6133 4329 3873 3873 3679 3504 2943 3066 2725 2830 2830 2628 2628 2453 2374 2537 2374 2537 2230 2164 2299 1989 2044 1795 1887 1887 1887 1839 1752 1635 1635 1635 1752 1501 1388 1388 1388 1362 1187 1226 1206 1115 1168 1098 1149 1132 143 1149 1132 1168 0 0 1206 1115 1168 1206 1168 1132 1082 1098 1132 1066 1098 994 955 955 897 845 855 845 836 845 836 808 826 0 0 808 799 791 791 766 782 758 707 663 681 681 657 669 651 639 634 634 645 629 623 0 623 629 651 0 0 0 0 0 0 0 0 103 103 0 0 0 0 0 0 0 0 178 0 0 0 0 504 0 500 493 0 0 0 0 0 0 0 0 0
    0 0 0 0 0 0 0 0 0 0 0 0 0 0 0 0 0 0 0 0 0 0 0 0 0 0 0 0 0 0 0 0 0 0 0 0 0 0 0 0 0 0 0 0 0 0 0 0 0 0 0 0 0 0 0 0 0 0 0 0 0 0 0 0 0 0 0 0 0 1247 1226 1247 1291 1338 1362 1388 1388 1415 1415 1388 1338 1388 1388 1362 1362 1388 1362 1362 1388 1415 1362 1362 1471 1471 1471 1443 1635 1672 1711 1711 1752 1795 1839 1887 1989 1989 2044 1989 2102 2230 2299 2374 2299 2374 2044 2453 2628 2102 2453 2374 2164 2374 2374 2374 2374 2374 0 2537 2628 2830 3066 3066 3679 3504 3873 4088 3873 3873 4329 3679 4329 4329 4329 3679 3679 3504 3873 3679 3679 3504 3345 3504 4088 5256 6133 7359 8177 8177 0 8177 0 0 0 0 8177 7359 7359 7359 7359 7359 6690 6133 7359 6690 7359 7359 8177 8177 7359 7359 8177 7359 7359 5661 4599 3873 3873 3504 3345 2830 2943 2628 2725 2725 2628 2628 2453 2374 2537 2374 2537 2164 2164 2299 1989 2044 1839 1936 1936 1989 1887 1795 1672 1672 1672 1795 1533 1362 1362 1362 1338 1168 1206 1187 1115 1168 1098 1149 1132 143 1149 1149 1168 0 0 1206 1115 1168 1206 1168 1132 1082 1082 1115 1066 1098 994 955 943 886 845 855 845 836 836 836 808 826 0 0 808 799 791 791 758 782 750 707 663 681 681 657 669 657 639 634 634 645 629 623 0 623 629 651 0 0 0 0 0 0 0 0 0 0 0 0 0 0 0 0 0 0 0 0 0 0 0 507 0 500 493 0 0 0 0 0 0 0 0 0
    0 0 0 0 0 0 0 0 0 0 0 0 0 0 0 0 0 0 0 0 0 0 0 0 0 0 0 0 0 0 0 0 0 0 0 0 0 0 0 0 0 0 0 0 0 0 0 0 0 0 0 0 0 0 0 0 0 0 0 0 0 0 0 0 0 0 0 0 0 1247 1226 1247 1291 1314 1362 1362 1362 1415 1415 1362 1338 1362 1362 1338 1338 1362 1362 1362 1362 1443 1388 1362 1471 1501 1501 1443 1635 1672 1672 1711 1752 1752 1795 1839 1989 1989 2044 1989 2102 2230 2230 2374 2299 2374 2102 2374 2725 2102 2453 2374 2164 2374 2374 2299 2374 2374 0 2537 2628 2830 3066 3066 3679 3504 3873 4088 4088 3873 4599 3873 4599 4599 5256 3873 4088 3873 4329 4088 4088 3679 3504 3504 4329 5256 6133 7359 7359 8177 0 8177 0 0 0 0 8177 7359 7359 7359 7359 7359 6690 6690 7359 6690 7359 7359 8177 8177 7359 7359 7359 7359 7359 5256 4329 3679 3679 3345 3345 2725 2830 2537 2725 2725 2628 2628 2453 2299 2537 0 2453 2102 2164 2230 1936 1989 1887 2044 2044 2044 1989 1839 1711 1752 1711 1795 1533 1338 1338 1338 1314 1168 1206 1187 1115 1149 1098 1149 1132 143 1168 1149 1187 0 0 1226 1115 0 1226 0 1132 1082 1082 1115 1066 1115 994 955 955 886 845 865 845 845 845 836 808 826 0 826 808 799 791 791 766 774 758 707 657 681 681 657 669 657 639 634 634 651 629 629 0 623 629 651 0 0 0 0 0 0 0 0 0 0 0 0 0 0 0 0 0 0 0 0 0 0 511 511 0 504 497 0 0 0 0 0 0 0 0 0
    0 0 0 0 0 0 0 0 0 0 0 0 0 0 0 0 0 0 0 0 0 0 0 0 0 0 0 0 0 0 0 0 0 0 0 0 0 0 0 0 0 0 0 0 0 0 0 0 0 0 0 0 0 0 0 0 0 0 0 0 0 0 0 0 0 0 0 0 0 1226 1206 1226 1291 1291 1338 1338 1338 1415 1415 1388 1338 1362 1362 1338 1338 1362 1362 1362 1362 1443 1388 1362 1501 1533 1533 1443 1599 1672 1672 1672 1711 1752 1752 1795 1989 1989 2102 1989 2102 2230 2230 2299 2299 2299 2164 2299 2725 2102 2453 2374 2164 2374 2374 2299 2374 2374 2537 2537 2628 2830 0 0 3679 3504 4088 4329 4088 3873 4599 3873 4906 4906 5661 4088 4329 4329 5256 4906 4599 4088 3873 3873 4906 6133 6690 7359 8177 8177 0 8177 0 0 0 8177 8177 7359 8177 7359 7359 7359 6690 6690 6690 6690 7359 7359 7359 8177 7359 7359 7359 7359 7359 5661 4599 3873 3679 3504 3345 2725 2830 2537 2725 2725 2537 2628 2453 2230 2453 2230 2453 2044 2102 2164 1887 1936 1887 2102 2102 2102 2102 1936 1795 1795 1795 1839 1565 1338 1338 1338 1314 1168 1206 1187 1115 1149 1098 1149 1132 143 1168 1168 1187 0 0 0 0 0 0 0 1132 1082 1082 1115 1066 1115 1008 968 968 908 855 876 855 855 855 845 826 826 826 826 817 808 791 791 766 766 758 707 657 681 681 657 669 651 639 639 639 651 629 629 0 623 629 651 0 0 0 0 0 0 0 0 0 0 0 0 0 0 0 0 0 0 0 0 0 0 514 0 0 504 497 0 484 0 0 0 0 0 0 0
    0 0 0 0 0 0 0 0 0 0 0 0 0 0 0 0 0 0 0 0 0 0 0 0 0 0 0 0 0 0 0 0 0 0 0 0 0 0 0 0 0 0 0 0 0 0 0 0 0 0 0 0 0 0 0 0 0 0 0 0 0 0 0 0 0 0 0 0 0 1206 1206 1226 1291 1291 1338 1362 1362 1415 1471 1388 1338 1362 1362 1338 1338 1362 1362 1362 1362 1443 1388 1362 1501 1533 1533 1443 1599 1672 1672 1672 1752 1752 1752 1795 1989 1989 2102 1989 2164 2230 2230 2299 2299 2230 2164 2230 2628 2102 2374 2374 2230 2374 2453 2299 2374 2374 2537 2537 2628 2830 0 0 3679 3504 4088 4329 4088 3873 4599 3873 5256 5256 6133 4599 4599 4906 5661 5256 4906 4599 4599 4329 5661 6690 7359 8177 8177 8177 9199 8177 0 0 0 8177 8177 8177 8177 8177 7359 7359 7359 7359 6690 7359 7359 7359 7359 8177 7359 7359 7359 7359 6690 5661 4599 3873 3873 3679 3345 2830 2830 2537 2628 2628 2537 2537 2374 2164 0 0 2374 1936 2044 2102 1839 1887 1936 2164 2164 2230 2164 1989 1839 1839 1839 1887 1599 1338 1338 1338 1314 1168 1206 1187 1115 1149 1115 1149 144 143 1168 0 0 0 0 0 0 0 0 0 1132 1082 1082 1115 1082 1115 1008 981 981 919 865 886 876 865 876 855 836 836 826 826 817 808 791 799 766 758 750 700 651 675 675 651 663 651 639 639 639 651 629 629 197 623 629 651 0 0 0 0 0 0 0 0 0 0 0 0 0 0 0 0 0 0 0 0 0 0 514 0 0 504 497 0 484 0 0 0 0 0 0 0
    0 0 0 0 0 0 0 0 0 0 0 0 0 0 0 0 0 0 0 0 0 0 0 0 0 0 0 0 0 0 0 0 0 0 0 0 0 0 0 0 0 0 0 0 0 0 0 0 0 0 0 0 0 0 0 0 0 0 0 0 0 0 0 0 0 0 0 0 0 1206 1187 1206 1268 1291 1338 1338 1362 1415 1443 1388 1338 1362 1388 1338 1362 1362 1388 1388 1388 1471 1388 1362 1533 1533 1533 1443 1599 1672 1672 1672 1752 1752 1795 1795 1989 1989 2164 2044 2164 2230 2230 2230 2299 2230 2230 2230 2537 2102 2374 2374 2230 2299 2453 2230 2374 2299 2537 2537 2628 2725 0 0 3504 3504 4088 4599 4088 3873 4599 4088 5256 5256 6690 5256 4906 5256 6133 6133 5661 5256 5661 4906 6133 8177 0 0 0 0 0 0 0 0 0 8177 0 8177 0 8177 8177 7359 7359 7359 7359 7359 7359 7359 7359 8177 7359 7359 6690 7359 6690 5661 4329 3873 3873 3679 3345 2830 2830 2453 2628 2628 2453 2537 2374 2164 0 0 2299 1936 2044 2102 1839 1887 1989 2230 2230 2299 2299 1989 1887 1887 1887 1887 1599 1362 1362 1362 1338 1187 1206 1187 1115 1168 1115 1149 144 143 1168 0 0 0 0 0 0 0 0 0 1132 1082 1082 1115 1082 1132 1022 994 994 943 876 908 886 886 897 876 845 845 836 836 817 808 791 799 766 750 750 700 651 675 675 651 663 651 639 639 639 657 634 629 197 629 634 651 0 0 0 0 0 0 0 0 0 0 0 0 0 0 0 0 0 0 0 0 0 0 518 0 507 504 497 0 487 0 0 0 0 0 0 0
    0 0 0 0 0 0 0 0 0 0 0 0 0 0 0 0 0 0 0 0 0 0 0 0 0 0 0 0 0 0 0 0 0 0 0 0 0 0 0 0 0 0 0 0 0 0 0 0 0 0 0 0 0 0 0 0 0 0 0 0 0 0 0 0 0 0 0 0 0 1187 1168 1187 1247 1268 1314 1338 1362 1388 1415 1362 1338 1388 1388 1362 1362 1388 1388 1388 1388 1471 1415 1362 1533 1533 1533 1471 1565 1672 1672 1672 1752 1795 1795 1795 1989 2044 2164 2044 2230 2230 2299 2230 2299 2230 2230 2164 2537 2102 2374 2299 2230 2299 2453 2230 2374 2299 2537 2537 2628 2725 0 0 3504 3345 4088 4329 3873 3873 4599 4088 5256 5256 6133 5661 5256 5661 6133 6133 6133 6133 6690 6133 6690 0 0 0 0 0 0 0 0 0 0 0 0 0 0 8177 8177 8177 7359 8177 7359 7359 7359 7359 8177 0 8177 7359 7359 7359 6690 5661 4599 3873 3873 3679 3345 2943 2830 2537 2628 2628 2453 2453 2299 2102 2230 0 2230 1887 1989 2044 1795 1795 1989 2299 2299 2299 2299 2044 1887 1887 1887 1839 1599 1388 1388 1388 1338 1187 1226 1206 1115 1168 1115 1149 144 143 1168 0 0 0 0 0 0 0 0 0 1132 1082 1082 1115 1082 1132 0 1008 994 943 886 908 897 897 908 886 855 845 845 836 817 817 799 799 774 750 750 700 645 675 675 651 663 651 645 645 645 663 639 634 197 634 634 651 0 0 0 0 0 0 0 0 0 0 0 0 0 0 0 0 549 0 0 0 0 0 518 0 507 504 497 497 487 0 0 0 0 0 0 0
    0 0 0 0 0 0 0 0 0 0 0 0 0 0 0 0 0 0 0 0 0 0 0 0 0 0 0 0 0 0 0 0 0 0 0 0 0 0 0 0 0 0 0 0 0 0 0 0 0 0 0 0 0 0 0 0 0 0 0 0 0 0 0 0 0 0 0 0 0 1168 1168 1187 1247 1268 1338 1362 1362 1415 1443 1362 1362 1388 1415 1362 1388 1388 1388 1388 1415 1501 1443 1362 1565 1565 1565 1471 1565 1635 1635 1635 1752 1752 1795 1795 1936 2044 2164 2044 2299 2230 2230 2230 2299 2230 2230 2164 2453 2164 2374 2299 2230 2299 2453 2230 2374 2374 2537 2628 2628 2725 2943 2943 3504 3345 3873 4088 3873 3873 4329 3873 5661 4906 6133 5661 5256 5661 6133 6690 6133 6133 7359 6690 7359 0 0 0 0 0 0 0 0 0 0 0 0 0 0 0 8177 8177 8177 8177 7359 8177 7359 7359 8177 0 8177 7359 7359 7359 6690 5661 4329 4088 3873 3679 3504 2943 2943 2628 2725 2725 2374 2453 2299 2044 2164 0 2102 1839 1936 2044 1795 1795 1989 2299 2299 2299 2299 1989 1887 1887 1887 1795 1599 1388 1388 1388 1338 1187 1226 1206 1115 1168 1115 1132 144 143 1168 0 0 0 1168 0 0 0 0 0 1115 1082 1082 1115 1082 1115 0 1008 994 931 886 919 897 897 908 886 855 855 845 845 826 817 799 799 774 750 750 700 645 675 675 651 663 657 645 645 645 663 639 639 197 639 639 657 0 0 0 0 0 0 0 0 0 0 0 579 0 570 553 553 553 0 0 0 0 0 521 0 0 507 500 0 490 0 0 0 0 0 0 0
    0 0 0 0 0 0 0 0 0 0 0 0 0 0 0 0 0 0 0 0 0 0 0 0 0 0 0 0 0 0 0 0 0 0 0 0 0 0 0 0 0 0 0 0 0 0 0 0 0 0 0 0 0 0 0 0 0 0 0 0 0 0 0 0 0 0 0 0 0 1168 1168 1187 1268 1291 1362 1362 1388 1415 1443 1362 1362 1388 1415 1388 1388 1415 1415 1415 1443 1533 1471 1388 1565 1565 1565 1471 1565 1635 1635 1635 1752 1752 1752 1795 1936 2044 2164 2044 2299 2164 2230 2164 2299 2230 2230 2164 2453 2164 2374 2299 2299 2299 2453 2230 2453 2374 2628 2725 2725 2830 3066 2943 3504 3504 3873 3873 3679 3873 4088 3873 5256 4599 6133 5661 5661 6133 6133 6690 6133 6133 7359 7359 8177 0 0 0 0 0 0 0 0 0 0 0 0 0 0 0 8177 8177 7359 8177 7359 8177 7359 8177 8177 0 8177 7359 7359 7359 6690 6133 4329 4088 4088 3679 3504 3066 2943 2628 2725 2725 2374 2453 2299 2044 2102 0 2044 1839 1936 1989 1795 1752 1989 2230 2230 2230 2299 1989 1887 1839 1839 1795 1599 1362 1362 1362 1338 1187 1206 1206 1115 1168 1115 1132 144 143 1168 0 0 0 1149 0 0 0 0 0 1115 1082 1082 1098 1082 1115 1036 0 994 943 897 919 908 919 919 897 865 855 855 855 826 817 799 808 774 750 750 694 645 669 669 651 663 657 645 651 651 669 645 645 0 645 645 0 0 0 0 0 0 0 0 0 0 0 0 584 593 574 557 557 561 0 0 0 0 0 525 0 0 507 500 0 490 0 0 0 0 0 0 0
    0 0 0 0 0 0 0 0 0 0 0 0 0 0 0 0 0 0 0 0 0 0 0 0 0 0 0 0 0 0 0 0 0 0 0 0 0 0 0 0 0 0 0 0 0 0 0 0 0 0 0 0 0 0 0 0 0 0 0 0 0 0 0 0 0 0 0 0 0 1168 1168 1187 1268 1291 1362 1362 1415 1443 1471 1362 1362 1415 1415 1388 1415 1415 1415 1415 1471 1565 1501 1388 1599 1565 1599 1471 1565 1635 1635 1635 1752 1752 1795 1795 1989 2102 2164 1989 2374 2164 2230 2164 2299 2164 2299 2164 2453 2164 2374 2299 2299 2299 2453 2299 2453 2374 2725 2725 2725 2830 3066 3066 3504 3345 3679 3679 3679 3679 3873 3679 4906 4329 5661 5661 5661 5661 6133 6690 6133 6690 7359 8177 0 0 0 0 0 0 0 0 0 0 0 8177 8177 8177 8177 8177 8177 8177 7359 7359 7359 8177 7359 8177 8177 0 0 7359 7359 7359 6690 6133 4329 3873 4088 3504 3345 3066 2943 2537 2725 2725 2299 2374 2299 2044 2102 0 2044 1839 1936 1989 1795 1795 1989 2164 2164 2230 2230 1936 1839 1839 1795 1752 1599 1362 1362 1362 1338 1187 1206 1206 1132 1168 1132 1132 143 143 1168 0 0 0 0 0 0 0 0 0 1115 1082 1082 1098 1082 1115 1051 1022 1022 968 908 943 931 931 931 908 876 865 865 865 826 826 808 808 774 0 750 694 645 669 669 651 663 657 651 657 657 669 651 651 663 645 645 0 0 0 0 0 0 0 0 0 0 0 0 0 593 579 561 561 566 0 0 0 0 0 0 0 0 511 504 0 490 0 0 0 0 0 0 0
    0 0 0 0 0 0 0 0 0 0 0 0 0 0 0 0 0 0 0 0 0 0 0 0 0 0 0 0 0 0 0 0 0 0 0 0 0 0 0 0 0 0 0 0 0 0 0 0 0 0 0 0 0 0 0 0 0 0 0 0 0 0 0 0 0 0 0 0 0 1187 1187 1206 1268 1291 1362 1362 1443 1471 1533 1388 1388 1415 1443 1388 1415 1415 1415 1415 1471 1533 1471 1388 1565 1565 1565 1471 1533 1635 1635 1635 1752 1795 1795 1795 1989 2102 2164 1989 2374 2164 2230 2164 2299 2164 2299 2164 2453 2230 2374 2374 2374 2374 2453 2299 2537 2374 2725 2830 2830 2943 3066 3066 3345 3345 3679 3504 3504 3504 3504 3679 4599 4088 5256 5661 5256 5256 6133 6133 6133 6133 7359 8177 0 0 0 0 0 0 0 0 0 0 0 8177 8177 8177 8177 8177 8177 7359 7359 7359 7359 8177 7359 7359 8177 0 0 7359 7359 7359 7359 6690 4088 3873 3873 3504 3345 3066 2943 2537 2628 2725 2299 2374 2299 2044 2164 0 2102 1839 1936 2044 1795 1795 1989 2102 2102 2102 2164 1887 1795 1795 1752 1672 1599 1362 1362 1362 1338 1187 1206 1206 1132 1168 1132 1115 143 142 1168 0 0 0 0 0 0 0 0 0 1115 1082 1082 1098 1082 1115 1066 1036 1036 981 931 955 943 955 955 931 886 876 876 865 836 826 808 808 774 0 750 694 645 669 669 651 663 663 651 657 657 675 657 651 0 651 651 0 0 0 0 0 0 289 0 0 294 0 0 0 598 584 566 561 570 561 0 545 0 0 0 533 0 514 504 507 493 0 0 0 0 0 0 0
    0 0 0 0 0 0 0 0 0 0 0 0 0 0 0 0 0 0 0 0 0 0 0 0 0 0 0 0 0 0 0 0 0 0 0 0 0 0 0 0 0 0 0 0 0 0 0 0 0 0 0 0 0 0 0 0 0 0 0 0 0 0 0 0 0 0 0 0 0 1187 1187 1206 1268 1291 1362 1362 1501 1533 1599 1415 1388 1443 1443 1415 1443 1415 1415 1415 1471 1565 1471 1388 1565 1565 1565 1471 1533 1635 1635 1635 1795 1795 1795 1795 1989 2102 2102 1989 0 2102 2164 2102 2230 2164 2299 2230 2453 2230 2374 2374 2453 2374 2537 2374 2537 2453 2830 2830 2943 2943 3066 3066 3345 3345 3504 3345 3504 3345 3504 3504 4329 3873 4906 5256 5256 5256 5661 6133 6133 6133 6690 7359 8177 0 0 0 0 0 0 0 0 0 0 0 8177 8177 8177 8177 7359 7359 7359 7359 6690 7359 7359 8177 8177 0 0 8177 7359 7359 7359 7359 4329 4088 4088 3504 3345 3066 2943 2537 2725 2725 2299 2374 2299 2044 2164 0 2102 1887 1936 2044 1839 1839 1989 2044 2044 2044 2044 1839 1752 1711 1711 1599 1599 1362 1362 1362 1338 1187 1206 1206 1149 1187 1132 1115 143 142 1168 0 0 0 1149 0 0 0 0 0 1115 1066 1066 1098 1082 1115 1066 1036 1051 994 943 968 955 955 955 943 897 876 876 876 836 826 808 808 774 0 743 694 639 669 669 651 663 663 651 657 657 675 657 657 0 657 657 0 0 0 0 0 0 290 0 0 294 0 0 0 598 584 570 561 566 566 0 549 0 0 0 533 0 518 507 507 493 487 0 0 0 0 0 0
    0 0 0 0 0 0 0 0 0 0 0 0 0 0 0 0 0 0 0 0 0 0 0 0 0 0 0 0 0 0 0 0 0 0 0 0 0 0 0 0 0 0 0 0 0 0 0 0 0 0 0 0 0 0 0 0 0 0 0 0 0 0 0 0 0 0 0 0 0 1168 1187 1187 1268 1291 1338 1338 1501 1565 1635 1443 1415 1471 1443 1415 1443 1443 1415 1415 1471 1599 1471 0 1565 1565 1565 0 1501 1635 1635 1635 1795 1795 1795 1795 1936 2102 2102 1989 0 2102 2164 2102 2230 2164 2299 2230 2453 2299 2374 2374 2453 2374 2537 2453 2628 2453 2830 2943 3066 3066 3199 3066 3345 3345 3504 3345 3504 3345 3345 3504 4329 3873 4599 5256 5661 5256 5661 6133 5661 6133 6690 6690 8177 8177 0 0 0 0 0 0 0 0 0 9199 8177 8177 7359 7359 7359 7359 7359 7359 6690 7359 7359 8177 8177 0 0 8177 7359 7359 7359 6690 4329 4088 4088 3504 3345 3066 2943 2537 2725 2725 2299 2374 2299 2044 2164 0 2164 1887 1989 2102 1839 1839 1989 1936 1936 1936 1989 1795 1672 1672 1635 1565 1599 1362 1362 1362 1338 1187 1226 1206 1168 1187 1149 1098 143 142 1149 0 0 0 1132 0 0 0 0 0 1115 1066 1066 1098 1098 1132 1082 1036 1051 1008 943 968 955 968 968 955 897 876 865 876 826 817 808 799 766 0 743 694 639 669 669 651 663 669 657 657 657 675 657 657 0 663 657 0 0 0 0 0 0 0 0 288 295 0 0 0 598 588 574 566 570 570 0 549 545 541 533 533 525 518 511 511 497 487 0 0 0 0 0 0
    0 0 0 0 0 0 0 0 0 0 0 0 0 0 0 0 0 0 0 0 0 0 0 0 0 0 0 0 0 0 0 0 0 0 0 0 0 0 0 0 0 0 0 0 0 0 0 0 0 0 0 0 0 0 0 0 0 0 0 0 0 0 0 0 0 0 0 0 0 1168 1168 1187 1247 1268 1291 1291 1443 1533 1599 1415 1388 1443 1443 1415 1443 1415 1415 1415 1471 1599 1443 1362 1565 1533 1565 0 1501 1599 1635 1635 1795 1795 1795 1795 1936 2102 2044 1989 0 2102 2164 2102 2299 2230 2299 2299 2453 2299 2374 2374 2537 2374 2628 2537 2628 2453 2943 2943 3066 3199 3199 3199 3345 3345 3504 3199 3504 3199 3345 3345 4088 3873 4329 5661 5661 5256 5661 5661 5661 5661 6133 6133 6690 7359 0 0 0 0 0 0 0 0 0 8177 8177 7359 6690 7359 6690 6690 6690 7359 6690 7359 7359 8177 0 0 0 8177 7359 7359 7359 7359 4329 4088 3873 3504 3345 3066 2943 2537 2725 2725 2299 2374 2299 2044 2230 0 2164 1887 1989 2102 1887 1887 2044 1887 1887 1887 1936 1752 1635 1599 1599 1501 1599 1338 1362 1362 1338 1187 1226 1206 1168 1187 1149 1098 143 142 1149 0 0 0 1132 0 0 1168 0 0 1115 1082 1066 1098 1082 1132 1066 1036 1051 994 931 955 955 955 955 955 897 876 855 865 826 817 808 799 758 0 735 694 639 669 669 657 663 669 657 663 663 675 657 657 0 0 0 0 0 0 0 0 288 0 289 288 0 0 0 0 603 593 584 574 574 574 553 553 549 541 533 533 525 521 511 511 497 490 0 0 0 0 0 0
    0 0 0 0 0 0 0 0 0 0 0 0 0 0 0 0 0 0 0 0 0 0 0 0 0 0 0 0 0 0 0 0 0 0 0 0 0 0 0 0 0 0 0 0 0 0 0 0 0 0 0 0 0 0 0 0 0 0 0 0 0 0 0 0 0 0 0 0 0 1149 1168 1187 1247 1268 1291 1291 1415 1533 1565 1415 1362 1415 1415 1415 1415 1388 1388 1388 1443 1565 1415 1338 1533 1533 1533 0 1471 1599 1599 1599 1752 1752 1752 1795 1936 2102 2044 1989 0 2102 2164 2102 2299 2230 2299 2299 2453 2299 2374 2453 2537 2453 2628 2628 2725 2537 2943 2943 3199 3199 3345 3199 3345 3345 3504 3199 3504 3199 3199 3345 4088 3679 4088 5256 5661 4906 5256 5661 6133 6133 6133 6690 6690 7359 0 8177 0 0 8177 0 0 0 8177 8177 8177 6690 6133 6690 6133 6133 6690 6690 6690 7359 7359 8177 0 0 0 8177 8177 8177 7359 7359 4329 4088 3873 3504 3345 3066 2943 2537 2725 2725 2299 2374 2299 2044 2230 2044 2230 1936 1989 2164 1887 1936 2044 1887 1887 1887 1887 1711 1599 1565 1565 1471 1599 1338 1362 1362 1338 1187 1226 1206 1187 1187 1149 1082 0 0 1149 0 0 0 0 0 0 1187 0 0 1132 1082 1082 1115 1098 1149 1082 1036 1051 994 931 955 943 955 955 943 886 865 845 855 817 808 799 791 750 0 743 694 639 669 669 657 663 669 657 663 663 681 657 663 0 199 201 0 0 0 0 0 289 0 289 288 0 0 0 0 608 593 588 579 579 584 557 557 553 541 533 533 525 521 514 511 500 490 0 0 0 0 0 0
    0 0 0 0 0 0 0 0 0 0 0 0 0 0 0 0 0 0 0 0 0 0 0 0 0 0 0 0 0 0 0 0 0 0 0 0 0 0 0 0 0 0 0 0 0 0 0 0 0 0 0 0 0 0 0 0 0 0 0 0 0 0 0 0 0 0 0 0 0 1149 1168 1187 1247 1268 1268 1291 1362 1501 1533 1415 1362 1415 1388 1388 1388 1388 1388 1362 1415 1565 1362 1314 1533 1533 1533 0 1471 1599 1599 1599 1752 1752 1752 1752 1887 2102 2044 1989 2299 2102 2102 2102 2299 2230 2299 2299 2453 2374 2374 2453 2628 2537 2725 2725 2830 2628 3066 3066 3345 3345 3345 3199 3345 3345 3504 3199 3504 3199 3199 3199 3873 3679 4088 5256 5661 5256 5661 6133 6690 6690 6690 6690 7359 7359 8177 8177 8177 8177 8177 8177 8177 8177 7359 7359 7359 6133 5661 6133 5661 6133 6133 6133 6133 6690 7359 8177 8177 0 0 8177 8177 8177 8177 7359 4088 4088 3873 3504 3345 3066 2943 0 2725 2725 2299 2374 2299 2044 2230 2102 2230 1936 2044 2164 1936 1989 2044 1839 1839 1839 1839 1672 1533 1533 1533 1443 1599 1338 1362 1362 1338 1168 1226 1226 1187 1187 1149 0 0 0 1132 0 0 0 0 0 0 1187 0 0 1132 1082 1082 1115 1098 1168 1082 1051 1066 1008 931 955 943 943 955 943 886 855 836 845 817 799 791 782 750 0 743 694 639 669 669 663 663 675 663 663 663 681 663 663 0 0 201 0 0 0 0 0 289 0 0 0 0 0 0 0 608 598 588 584 579 588 561 561 557 545 537 533 529 521 514 507 500 0 0 0 0 0 0 0
    0 0 0 0 0 0 0 0 0 0 0 0 0 0 0 0 0 0 0 0 0 0 0 0 0 0 0 0 0 0 0 0 0 0 0 0 0 0 0 0 0 0 0 0 0 0 0 0 0 0 0 0 0 0 0 0 0 0 0 0 0 0 0 0 0 0 0 0 0 1168 1187 1206 1247 1247 1247 1268 1338 1471 1501 1388 1362 1415 1388 1388 1388 1388 1362 1362 1415 1565 1314 1291 1533 1533 1533 0 1471 1599 1599 1635 1752 1752 1752 1752 1887 2164 2044 1989 2230 2102 2102 2102 2230 2230 2299 2299 2453 2374 2453 2537 2725 2628 2830 2830 2830 2628 3066 3066 3345 3345 3345 3199 3345 3345 3504 3199 3504 3066 3066 3199 4088 3873 4329 5661 6133 5661 6133 6690 6690 6690 6690 7359 7359 8177 8177 7359 8177 8177 8177 7359 7359 7359 7359 6690 6690 5661 5256 5661 5661 5256 5256 5661 5661 6133 7359 7359 8177 0 0 0 8177 8177 8177 7359 4088 4088 3873 3504 3345 3066 3066 0 2725 2725 2299 2374 2374 2102 2299 2102 2299 1989 2102 2230 1989 2044 2102 1795 1795 1795 1795 1672 1533 1501 1501 1443 1599 1362 1362 1362 1338 1187 1226 1226 1206 1187 1149 0 0 0 1132 0 0 0 0 0 0 1187 0 0 1132 1098 1082 1132 1115 1187 1115 1051 1066 1008 943 955 943 943 943 943 876 845 826 836 808 791 782 774 750 0 0 694 639 669 669 663 669 675 663 669 669 681 663 669 0 0 201 0 0 0 0 0 290 0 0 0 0 0 0 0 608 598 588 584 574 593 566 561 557 545 537 537 529 521 514 507 497 0 0 0 0 0 0 0
    0 0 0 0 0 0 0 0 0 0 0 0 0 0 0 0 0 0 0 0 0 0 0 0 0 0 0 0 0 0 0 0 0 0 0 0 0 0 0 0 0 0 0 0 0 0 0 0 0 0 0 0 0 0 0 0 0 0 0 0 0 0 0 0 0 0 0 0 0 1187 1206 1206 1247 1247 1247 1268 1338 1443 1471 1388 1362 1415 1388 1388 1388 1388 1362 1362 1388 1565 1291 1187 1501 1501 0 0 1443 1599 1599 1635 1752 1752 1752 1752 0 2164 2044 1989 2230 2102 2102 2102 2230 2230 2299 2299 2453 2374 2453 2537 2725 2628 2830 2830 2943 2628 2943 2943 3345 3345 3345 3199 3199 3199 3345 3345 3679 3066 3066 3199 4088 4088 4329 5661 6133 5661 6133 6133 6690 6690 6690 7359 7359 8177 8177 7359 8177 8177 7359 7359 7359 7359 6133 6133 6133 5256 5256 5256 5256 5256 5256 5661 5661 6133 6690 7359 8177 0 0 0 8177 0 0 8177 4088 4088 4088 3504 3345 3066 3066 0 2725 2725 2299 2374 2374 2102 2299 2164 2374 2044 2102 2299 2044 2044 2102 1752 1795 1795 1795 1635 1501 1471 1471 1415 1599 1362 1362 1362 1338 1206 1226 1226 1226 1187 1149 0 0 0 1132 0 0 0 0 0 0 1187 0 0 1132 1098 1082 1132 1115 1206 1115 1051 1066 1008 943 955 943 931 943 931 876 845 826 826 799 782 782 774 750 0 0 694 645 675 675 669 669 675 663 669 669 681 669 669 0 0 201 0 0 0 0 0 0 0 90 0 0 865 0 0 603 593 584 579 566 584 561 561 557 549 537 537 529 521 514 504 497 487 0 0 0 0 0 0
    0 0 0 0 0 0 0 0 0 0 0 0 0 0 0 0 0 0 0 0 0 0 0 0 0 0 0 0 0 0 0 0 0 0 0 0 0 0 0 0 0 0 0 0 0 0 0 0 0 0 0 0 0 0 0 0 0 0 0 0 0 0 0 0 0 0 0 0 0 1187 1206 1206 1247 1247 1268 1268 1314 1443 1471 1388 1362 1415 1388 1388 1388 1388 1362 1362 1388 1565 1268 1132 1501 1501 0 0 0 1599 1599 1635 1752 1752 1752 1752 0 2102 2044 1989 2164 2044 2102 2102 2230 2230 2230 2299 2374 2374 2453 2537 2725 2628 2725 2830 2830 2628 2943 2943 3345 3345 3345 3199 3199 3199 3504 3345 3679 3066 3066 3199 3873 4088 4329 5661 6133 5661 6690 6133 6690 6690 6690 6690 7359 7359 7359 6690 8177 8177 7359 7359 7359 7359 6690 6133 6133 5256 5256 5256 5256 5256 5256 6133 6133 6133 7359 7359 8177 0 0 0 8177 0 0 8177 4329 4329 4088 3504 3345 2943 2943 0 2628 2628 2230 2374 2374 2102 2374 2164 2374 2044 2102 2299 2044 2102 2102 1752 1752 1752 1752 1635 1501 1471 1471 1415 1599 1388 1388 1388 1338 1226 1247 1247 1226 1187 1149 0 0 0 1132 0 0 0 0 0 0 1187 0 0 1132 1098 1082 1132 1115 1206 1115 1036 1051 994 931 955 931 931 931 919 865 836 817 826 799 782 774 766 743 0 0 700 651 675 675 675 669 681 663 669 669 681 669 669 0 200 202 204 0 0 0 205 0 0 90 0 0 886 0 0 598 588 579 570 557 574 553 553 553 545 533 533 529 521 514 504 500 487 0 0 0 0 0 0
    0 0 0 0 0 0 0 0 0 0 0 0 0 0 0 0 0 0 0 0 0 0 0 0 0 0 0 0 0 0 0 0 0 0 0 0 0 0 0 0 0 0 0 0 0 0 0 0 0 0 0 0 0 0 0 0 0 0 0 0 0 0 0 0 0 0 0 0 0 1187 1206 1206 1247 1247 1268 1268 1314 1415 1443 1388 1362 1415 1388 1388 1388 1388 1362 1362 1415 1565 1268 1132 1501 1471 0 0 0 1565 1599 1635 1752 1752 1752 1795 1887 2102 2044 1989 2102 2044 2102 2102 2164 2230 2230 2230 2299 2299 2453 2453 2628 2537 2628 2725 2830 2628 2943 2943 3345 3345 3345 3199 3345 3345 3504 3345 3679 3066 3066 3199 3679 3873 4088 5256 6133 6133 6690 5661 6133 6133 6690 6690 7359 7359 6690 6690 8177 8177 7359 6690 6690 6690 6133 6133 6133 5256 5256 5256 5661 5256 5256 6133 6133 6690 7359 7359 8177 0 0 0 0 0 0 0 4599 4329 4088 3345 3199 2830 2830 2453 2628 2628 2230 2374 2374 2102 2299 2164 2374 2044 2102 2230 1989 2044 2044 1711 1711 1711 1711 1635 1533 1471 1471 1415 1599 1388 1388 1388 1362 1226 1247 1247 1247 1187 1149 0 0 0 1132 0 0 0 0 0 0 1187 1247 0 1149 1098 1098 0 1115 1226 1132 1036 1022 994 931 943 919 908 919 908 865 826 817 817 791 774 766 766 743 0 766 700 0 0 0 0 669 675 663 669 663 681 669 663 663 201 0 205 206 206 206 206 0 0 90 0 0 897 0 0 0 588 574 566 553 561 549 545 545 0 533 533 529 521 514 504 500 490 0 0 0 0 0 0
    0 0 0 0 0 0 0 0 0 0 0 0 0 0 0 0 0 0 0 0 0 0 0 0 0 0 0 0 0 0 0 0 0 0 0 0 0 0 0 0 0 0 0 0 0 0 0 0 0 0 0 0 0 0 0 0 0 0 0 0 0 0 0 0 0 0 0 0 0 1206 1206 1206 1247 1268 1268 1291 1314 1388 1415 1362 1362 1415 1388 1388 1388 1388 1388 1388 1415 1501 1268 1132 1443 1443 0 0 0 1565 1599 1635 1752 1752 1752 1795 1887 2164 2044 1989 2102 2044 2102 2102 2164 2230 2164 2230 2299 2299 2453 2453 2628 2537 2628 2725 2725 2537 2943 2943 3345 3345 3345 3345 3345 3345 3504 3345 3679 3199 3199 3345 3679 3679 4088 4906 5661 5661 6133 5661 6133 6133 6690 6690 6690 7359 6690 6133 7359 8177 7359 6690 6690 6690 6133 6690 6133 5661 5661 5661 5661 5661 5661 6133 6133 6690 7359 7359 8177 0 0 0 0 0 0 0 5661 4599 4088 3345 3199 2725 2830 2453 2628 2628 2230 2374 2374 2164 2374 2164 2374 2044 2102 2230 1989 1989 1989 1672 1711 1711 1711 1599 1533 1471 1471 1415 1599 1415 1415 1415 1362 1247 1268 1268 1247 1187 1149 1082 0 0 1149 0 0 0 0 0 1168 1187 1247 1226 1149 1098 1098 0 1115 1206 1115 1022 1008 981 919 931 908 897 897 897 855 817 808 817 791 766 766 758 743 728 774 700 0 0 0 0 663 675 663 663 663 675 669 663 663 0 0 205 206 206 206 206 0 0 90 0 0 919 0 0 0 588 574 561 553 561 545 537 537 0 529 533 529 521 518 504 504 490 0 0 0 0 0 0
    0 0 0 0 0 0 0 0 0 0 0 0 0 0 0 0 0 0 0 0 0 0 0 0 0 0 0 0 0 0 0 0 0 0 0 0 0 0 0 0 0 0 0 0 0 0 0 0 0 0 0 0 0 0 0 0 0 0 0 0 0 0 0 0 0 0 0 0 0 1206 1226 1226 1268 1268 1268 1291 1314 1388 1388 1362 1362 1388 1388 1388 1388 1388 1388 1388 1415 1443 1268 1149 1388 1388 0 0 0 1565 1599 1635 1752 1752 1752 1752 1887 2102 2044 1989 2102 2044 2102 2102 2164 2230 2164 2230 2299 2230 2374 2453 2537 2453 2453 2628 2725 2537 2943 2943 3199 3345 3345 3345 3345 3504 3679 3504 3873 3345 3345 3345 3873 3679 4088 4906 5661 5661 6133 5256 5661 5256 5661 6133 6690 6690 6133 5661 7359 7359 7359 6133 6690 6133 6133 6133 5661 5256 5661 5661 5661 5661 5661 6133 6133 6690 7359 7359 0 0 0 0 0 0 0 0 7359 5256 4088 3199 3199 2628 2725 2374 2537 2537 2230 2374 2374 2164 2374 2230 2374 2102 2102 2230 1936 1989 1989 1672 1711 1711 1711 1635 1565 1533 1501 1443 1635 1443 1443 1443 1362 1247 0 1268 1247 1187 1149 1082 1098 0 1149 0 0 0 0 0 1168 1187 1247 1226 1149 1115 1098 0 1098 1187 1098 1022 994 981 919 919 897 886 886 886 845 808 808 808 791 766 758 758 750 735 774 707 0 0 0 0 663 675 663 663 663 669 669 663 663 0 0 205 206 207 207 206 0 0 90 0 0 931 0 0 0 588 570 561 549 557 541 0 537 0 529 533 529 521 518 507 507 493 0 0 0 0 0 0
    0 0 0 0 0 0 0 0 0 0 0 0 0 0 0 0 0 0 0 0 0 0 0 0 0 0 0 0 0 0 0 0 0 0 0 0 0 0 0 0 0 0 0 0 0 0 0 0 0 0 0 0 0 0 0 0 0 0 0 0 0 0 0 0 0 0 0 0 0 1226 1226 1226 1268 1268 1268 1291 1291 1362 1388 1362 1362 1388 1388 1362 1388 1388 1388 1388 1415 1415 1268 1149 1362 1362 0 0 1388 1533 1599 1635 1711 1752 1752 1752 0 2102 2044 1936 2102 2044 2102 2102 2164 2230 2164 2164 2299 2230 2374 2374 2537 2374 2374 2628 2725 2537 2943 2943 3199 3345 3504 3345 3504 3504 3873 3504 3873 3504 3345 3504 3873 3679 4088 4329 5256 5256 6133 4906 4906 4906 5256 5256 6133 5661 5256 5256 6690 7359 6690 6133 6133 5661 6133 5661 5256 5256 5661 5661 5661 5661 5661 5661 6690 6690 7359 7359 0 0 0 0 0 0 0 0 8177 5661 4088 3199 3066 2628 2628 2374 2453 2537 2230 2374 2374 2164 2374 2299 2299 2102 2102 2230 1989 1989 1989 1672 1711 1711 1711 1635 1599 1565 1565 1443 1672 1443 1415 1415 1362 1226 1268 1268 1247 1187 1149 1098 1115 1082 1149 1149 1187 1187 0 0 1168 1187 1226 1226 1149 1115 1098 0 1115 1168 1098 1036 1008 994 931 919 908 886 886 876 845 799 799 808 791 766 758 758 750 735 782 707 0 0 0 0 663 675 663 663 657 669 669 657 657 0 675 205 206 207 207 206 206 0 90 0 0 943 0 0 1051 588 570 557 549 557 0 0 0 0 0 0 0 521 518 507 507 490 490 0 0 0 0 0
    0 0 0 0 0 0 0 0 0 0 0 0 0 0 0 0 0 0 0 0 0 0 0 0 0 0 0 0 0 0 0 0 0 0 0 0 0 0 0 0 0 0 0 0 0 0 0 0 0 0 0 0 0 0 0 0 0 0 0 0 0 0 0 0 0 0 0 0 0 1226 1226 1226 1268 1268 1268 1291 1291 1362 1388 1362 1362 1388 1388 1362 1388 1388 1388 1388 1415 0 1268 1168 1362 1362 1362 1338 1388 1565 1599 1635 1752 1752 1752 1752 0 2044 1989 1936 2044 1989 2102 2102 2164 2230 2164 2164 2299 2230 2374 2299 2453 2299 2299 2537 2628 2453 2943 2943 3199 3345 3504 3504 3504 3504 3873 3504 3873 3504 3504 3504 3873 3679 4329 4088 4906 4599 5256 3873 4088 4088 4088 4329 5256 4599 4906 5256 6690 7359 6690 6133 5661 5661 5661 5256 5256 5256 5661 5256 5661 5661 5661 6133 6690 6690 7359 7359 0 0 0 0 0 0 0 0 0 6133 4088 3199 3066 2628 2628 2453 2537 2537 2299 2374 2453 2230 2374 2299 2299 2164 2102 2299 1989 2044 1989 1711 1752 1752 1752 1672 1635 1599 1599 1501 1672 1501 1415 1415 1362 1247 1268 1247 1247 1187 1168 1115 1115 1082 1168 1149 1187 1187 1149 1149 1187 1187 1226 1226 1149 1132 1115 1168 1132 1168 1115 1051 1022 994 931 931 919 886 886 876 845 791 799 808 791 766 758 758 750 735 782 714 694 0 0 0 663 675 657 657 651 663 663 651 651 0 669 0 206 207 207 206 206 0 0 0 0 955 0 0 1036 588 570 557 545 553 0 0 0 0 0 0 0 521 518 507 507 490 487 0 0 0 0 0
    0 0 0 0 0 0 0 0 0 0 0 0 0 0 0 0 0 0 0 0 0 0 0 0 0 0 0 0 0 0 0 0 0 0 0 0 0 0 0 0 0 0 0 0 0 0 0 0 0 0 0 0 0 0 0 0 0 0 0 0 0 0 0 0 0 0 0 0 0 1226 1226 1247 1268 1291 1291 1291 1291 1362 1388 1362 1362 1388 1388 1388 1388 1415 1388 1388 1415 0 1268 1149 0 1314 0 1314 1362 1565 1599 1672 1752 1752 1752 1752 0 2044 1989 1936 2044 1989 2164 2102 2164 2230 2164 2164 2230 2164 2299 2230 2374 2230 2230 2453 2537 2453 2830 2943 3199 3199 3345 3504 3504 3504 3873 3679 3873 3504 3504 3504 3873 3679 4088 3873 4329 4088 4088 3345 3504 3504 3679 3679 4088 3873 4088 4599 5661 6690 6690 6133 5661 5661 6133 5256 5256 5256 5256 5256 5661 5661 5661 5661 6690 6690 7359 7359 0 0 0 0 0 0 0 0 0 6690 4088 3199 3066 2628 2628 2537 2537 2628 2299 2453 2453 2164 2374 2299 2299 2164 2102 2299 1989 2044 2044 1752 1752 1795 1795 1672 1672 1635 1635 1533 1672 1565 1443 1443 1388 1247 1268 1268 1268 1187 1187 1115 1132 1098 1168 1149 1187 1168 1168 1149 1187 1187 1226 1206 1149 1132 1115 1168 1132 1168 1115 1051 1022 994 931 919 897 876 876 855 836 791 799 799 791 766 758 758 750 735 782 714 694 0 0 0 0 669 657 651 645 651 657 639 639 0 663 0 205 207 207 206 207 0 0 0 0 955 0 0 1036 588 566 553 0 0 0 0 0 0 0 0 0 521 518 507 507 490 487 0 0 0 0 0
    0 0 0 0 0 0 0 0 0 0 0 0 0 0 0 0 0 0 0 0 0 0 0 0 0 0 0 0 0 0 0 0 0 0 0 0 0 0 0 0 0 0 0 0 0 0 0 0 0 0 0 0 0 0 0 0 0 0 0 0 0 0 0 0 0 0 0 0 0 1247 1247 1268 1291 1314 1314 1314 1314 1362 1415 1362 1362 1388 1388 1388 1388 1415 1415 1388 1415 0 1268 1168 1226 1291 1291 1291 1338 1533 1599 1672 1752 1752 1752 1795 0 2044 1989 1936 2044 1989 2164 2102 2164 2230 2164 2164 2230 2164 2230 2164 2299 2164 2164 2374 2537 2453 2725 2943 3066 3199 3345 3345 3504 3504 3873 3679 3873 3504 3504 3504 3679 3504 3873 3504 3679 3679 3873 3199 3345 3345 3504 3504 3679 3504 3679 4088 4906 6133 6690 6133 5661 5661 5661 5256 5661 5661 5661 5256 5661 5661 5661 6133 6690 7359 7359 7359 0 0 0 0 0 0 0 0 0 8177 3873 3199 3066 2725 2628 2537 2537 2628 2299 2453 2453 2164 2299 2299 2230 2102 2102 2230 1936 1989 2044 1752 1752 1795 1795 1672 1672 1635 1635 1565 1672 1599 1471 1471 1388 1268 1291 1268 1268 1206 1187 1149 1149 1115 1187 1149 1168 1168 1168 1132 1187 1187 1226 1206 1149 1115 1115 1149 1115 1149 1098 1051 1008 994 908 897 876 855 855 845 836 782 799 799 791 766 758 758 750 735 774 707 700 0 0 681 657 669 651 651 645 645 651 634 634 0 657 0 205 207 207 206 0 0 0 0 0 955 0 0 1036 588 566 553 0 0 0 0 537 0 0 0 0 521 518 507 507 490 487 0 0 0 0 0
    0 0 0 0 0 0 0 0 0 0 0 0 0 0 0 0 0 0 0 0 0 0 0 0 0 0 0 0 0 0 0 0 0 0 0 0 0 0 0 0 0 0 0 0 0 0 0 0 0 0 0 0 0 0 0 0 0 0 0 0 0 0 0 0 0 0 0 0 0 1247 1226 1268 1291 1338 1338 1338 1314 1362 1443 1362 1388 1415 1388 1415 1415 1415 1443 1415 1415 1415 1268 1168 0 1268 1268 1268 1338 1501 1599 1672 1711 1752 1752 1795 1839 1989 1936 1936 2044 1989 2164 2102 2164 2230 2164 2164 2230 2164 2230 2164 2230 2102 2102 2230 2453 2374 2628 2830 2943 3066 3199 3345 3504 3504 3873 3679 3873 3504 3679 3504 3679 3504 3873 3504 3679 3679 3873 3199 3199 3345 3504 3504 3504 3504 3679 3873 4599 5256 6690 6133 5661 6133 6133 5661 5661 5661 5661 5661 5661 5661 5661 5661 6690 7359 7359 7359 0 0 0 0 0 0 0 0 0 8177 3679 3066 2943 2725 2628 2628 2628 2628 2374 2453 2374 2164 2299 2230 2164 2102 2044 2230 1936 1936 1936 1752 1711 1752 1752 1672 1672 1672 1672 1599 1672 1672 1501 1501 1415 1291 1291 1291 1291 1206 1206 1168 1168 1132 1187 1168 1187 1168 1168 1132 1187 1187 1226 1206 1149 1132 1132 1168 1132 1149 1098 1051 1008 1008 0 0 876 845 845 836 826 774 791 791 791 766 758 758 750 735 774 707 707 0 0 681 651 663 651 645 639 639 651 629 629 0 645 0 205 207 207 206 0 0 0 0 0 955 0 0 1036 588 566 549 0 0 0 0 533 0 529 529 533 521 518 507 507 490 487 0 0 0 0 0
    0 0 0 0 0 0 0 0 0 0 0 0 0 0 0 0 0 0 0 0 0 0 0 0 0 0 0 0 0 0 0 0 0 0 0 0 0 0 0 0 0 0 0 0 0 0 0 0 0 0 0 0 0 0 0 0 0 0 0 0 0 0 0 0 0 0 0 0 0 1247 1247 1291 1314 1362 1338 1362 1362 1388 1471 1362 1388 1443 1415 1443 1443 1443 1443 1415 1443 1471 1268 1187 1168 1268 1268 1268 1314 1471 1565 1672 1711 1752 1752 1752 1839 1989 1936 1936 2044 1989 2164 2102 2164 2230 2164 2102 2230 2102 2164 2102 2164 2044 2044 2164 2374 2299 2537 2725 2830 2943 3066 3199 3504 3504 4088 3679 3679 3504 3679 3504 3504 3504 3679 3345 3504 3504 3679 3199 3199 3345 3504 3504 3504 3345 3504 3679 4088 4906 6133 5256 4599 5661 6133 5256 5256 5256 5256 5256 5661 5661 5661 5661 6690 7359 7359 7359 0 0 0 0 0 0 0 0 0 7359 3679 3345 3066 2943 2830 2830 2725 2725 2453 2537 2374 2164 2299 2299 2164 2164 2044 2230 1936 1989 1936 1795 1711 1752 1752 1672 1711 1672 1711 1635 1711 1711 1565 1565 1471 1314 1314 1291 1291 1226 1226 1187 1187 1168 1206 1187 1187 1187 1187 1149 1187 1187 1226 1226 1168 1168 1149 1168 1149 1149 1098 1051 1022 1008 0 0 865 836 836 826 817 766 791 791 791 766 758 758 750 735 774 707 700 651 0 675 651 663 651 639 639 639 645 629 629 0 639 0 205 207 207 207 0 0 0 0 0 968 0 0 1036 584 566 549 0 553 0 0 537 0 529 529 533 518 518 504 504 490 0 0 0 0 0 0
    0 0 0 0 0 0 0 0 0 0 0 0 0 0 0 0 0 0 0 0 0 0 0 0 0 0 0 0 0 0 0 0 0 0 0 0 0 0 0 0 0 0 0 0 0 0 0 0 0 0 0 0 0 0 0 0 0 0 0 0 0 0 0 0 0 0 0 0 0 1268 1268 1314 1338 1362 1338 1388 1362 1415 1533 1388 1415 1471 1443 1471 1443 1471 1471 1443 1443 1443 1268 1187 1149 1268 1268 1268 1314 1443 1565 1672 1711 1752 1752 1795 1839 0 1936 1936 2044 1989 2102 2102 2164 2230 2164 2102 2230 2102 2102 2102 2102 2044 1989 2102 2299 2230 2453 2725 2725 2830 2943 3199 3504 3345 4088 3679 3873 3679 3873 3504 3504 3504 3679 3345 3345 3345 3679 3199 3199 3345 3504 3504 3345 3199 3345 3504 3679 4329 5661 4329 3873 5661 6133 5256 4906 5256 4906 4906 5256 5661 5256 5256 6133 6690 7359 7359 0 0 0 0 0 0 0 0 0 6690 3679 3345 3199 3066 2943 2943 2725 2830 2537 2537 2453 2230 2299 2299 2164 2230 2102 2299 2044 2102 1989 1839 1752 1795 1752 1672 1672 1672 1711 1672 1672 1752 1599 1565 1501 1314 1314 1291 1291 1226 1247 1206 1187 1168 1206 1187 1187 1168 1168 1132 1187 1206 1247 1247 1206 1187 1168 1206 1168 1132 1066 1036 1008 1008 876 0 855 826 826 817 808 758 791 782 791 766 766 758 758 735 766 700 700 651 675 675 651 663 651 639 634 634 645 629 629 0 629 639 0 0 0 0 0 0 0 0 0 994 0 0 0 588 574 553 549 553 541 0 533 0 529 525 529 518 514 504 500 490 0 0 0 0 0 0
    0 0 0 0 0 0 0 0 0 0 0 0 0 0 0 0 0 0 0 0 0 0 0 0 0 0 0 0 0 0 0 0 0 0 0 0 0 0 0 0 0 0 0 0 0 0 0 0 0 0 0 0 0 0 0 0 0 0 0 0 0 0 0 0 0 0 0 0 0 1268 1268 1314 1338 1362 1338 1388 1362 1443 1565 1415 1415 1471 1471 1471 1471 1501 1471 1443 1443 1443 1268 1168 1149 1268 1268 1268 1314 1415 1565 1672 1752 1752 1752 1795 1839 0 1936 1936 2044 1989 2102 2102 2164 2230 2164 2164 2230 2164 2102 2164 2164 2044 2044 2164 2299 2299 2453 2830 2725 2830 2943 3199 3345 3345 4088 3679 3679 3679 3873 3504 3504 3504 3679 3345 3345 3504 3679 3199 3345 3199 3504 3345 3345 3199 3199 3345 3504 3679 5256 3679 3679 5661 5661 4906 4906 5256 4599 4599 4906 5661 5256 5256 6133 6690 6690 7359 0 0 0 0 0 0 0 0 6690 5661 3504 3345 3199 3066 2943 2943 2725 2725 2537 2537 2374 2164 2299 2230 2102 2164 2102 2299 2102 2164 2044 1936 1839 1839 1795 1672 1711 1672 1711 1711 1672 1752 1565 1533 1471 1314 1291 1291 1291 1226 1247 1226 1206 1187 1187 1187 1168 1168 1168 1132 1187 1206 1226 1247 1206 1187 1168 1168 1098 1066 1022 1008 981 981 865 845 836 817 817 808 808 758 782 782 791 774 774 766 758 743 774 707 700 651 675 675 651 663 651 639 634 634 639 623 623 0 629 629 645 0 0 0 0 0 0 0 0 0 0 0 0 593 579 553 545 553 541 533 533 0 525 521 525 514 511 500 0 487 0 0 0 0 0 0
    0 0 0 0 0 0 0 0 0 0 0 0 0 0 0 0 0 0 0 0 0 0 0 0 0 0 0 0 0 0 0 0 0 0 0 0 0 0 0 0 0 0 0 0 0 0 0 0 0 0 0 0 0 0 0 0 0 0 0 0 0 0 0 0 0 0 0 0 0 1247 1247 1291 1314 1362 1338 1388 1388 1443 1565 1471 1443 1501 1471 1501 1471 1501 1471 1443 0 1443 1247 1168 1187 1291 1291 1291 1338 1443 1599 1672 1752 1795 1795 1795 1839 0 1936 1936 2044 1989 2102 2102 2164 2164 2164 2164 2230 2164 2102 2164 2102 2044 2044 2102 2299 2299 2453 2830 2725 2830 2943 3199 3345 3345 3873 3504 3504 3504 3873 3345 3345 3504 3504 3345 3345 3345 3873 3199 3345 3199 3679 3504 3345 3199 3199 3345 3504 3679 5256 3504 3679 5661 5661 5256 4906 5256 4906 4599 4906 5661 5256 5256 6133 7359 6690 8177 0 0 0 0 0 8177 8177 8177 5256 5256 3345 3504 3345 3066 2943 2943 2725 2725 2537 2537 2374 2164 2299 2164 2102 2164 2102 2230 2102 2164 2102 1936 1887 1839 1795 1672 1672 1672 1711 1672 1672 1752 1565 1501 1471 1314 1314 1291 1268 1247 1247 1226 1206 1187 1206 1187 1187 1187 1187 1132 1206 1226 1247 1291 1268 1226 1226 1168 1098 1051 994 981 931 919 855 836 836 808 817 808 808 758 782 782 791 774 774 766 758 743 774 714 707 657 681 681 657 663 651 639 634 634 639 623 623 0 623 623 634 634 645 657 639 651 657 608 0 0 608 593 588 588 570 553 545 549 541 533 533 0 521 521 525 514 507 500 0 0 0 0 0 0 0 0
    0 0 0 0 0 0 0 0 0 0 0 0 0 0 0 0 0 0 0 0 0 0 0 0 0 0 0 0 0 0 0 0 0 0 0 0 0 0 0 0 0 0 0 0 0 0 0 0 0 0 0 0 0 0 0 0 0 0 0 0 0 0 0 0 0 0 0 0 0 1268 1268 1291 0 1388 1362 1415 1443 1471 1565 1501 1443 1501 1501 1533 1501 1533 1501 1471 1471 1415 1247 1168 0 1291 1291 1291 1338 1443 1599 1672 1752 1795 1795 1795 1839 0 1936 1936 2044 2044 2044 2102 2164 2164 2102 2102 2164 2102 2044 2102 2102 2044 2044 2102 2230 2230 2374 2725 2725 2725 2830 2943 3199 3199 3679 3345 3345 3345 3679 3199 3199 3345 3345 3345 3345 3345 3679 3199 3345 3345 3679 3504 3345 3199 3199 3345 3504 3679 5256 3345 3504 5661 5661 5256 4599 4906 4599 4599 4906 5661 5256 5661 5661 6690 6690 7359 0 0 0 8177 7359 7359 7359 7359 4599 4906 3504 3679 3345 3199 2943 3066 2830 2830 2628 2628 2374 2230 2299 2164 2102 2164 2102 2230 2102 2164 2102 1989 1887 1839 1795 1672 1672 1672 1672 1672 1672 1752 1599 1533 1471 1362 1338 1314 1291 1268 1268 1247 1226 1226 1206 1187 1187 1206 1206 1168 1226 1268 1291 1388 1388 1314 1314 1132 1051 1022 955 908 876 876 845 817 826 799 808 799 791 750 774 774 782 766 766 758 750 743 774 714 707 657 681 681 663 663 657 639 634 634 639 623 623 629 623 618 629 623 634 634 623 623 623 603 0 0 598 588 588 584 566 549 545 545 537 529 529 521 521 518 521 511 507 497 0 487 0 0 0 0 0 0
    0 0 0 0 0 0 0 0 0 0 0 0 0 0 0 0 0 0 0 0 0 0 0 0 0 0 0 0 0 0 0 0 0 0 0 0 0 0 0 0 0 0 0 0 0 0 0 0 0 0 0 0 0 0 0 0 0 0 0 0 0 0 0 0 0 0 0 0 0 1268 1268 1314 0 1362 1362 1415 1443 1443 1533 1471 1471 1533 1533 1565 1533 1565 1533 1501 1501 1443 1247 1168 0 1291 1291 1291 1338 1415 1565 1672 1795 1795 1795 1839 1887 1989 1989 1936 2102 2044 2044 2102 2102 2102 2102 2102 2102 2102 2044 2102 2102 2044 2044 2102 2230 2230 2299 2628 2628 2628 2830 2943 3066 3066 3345 3199 3199 3199 3504 3199 3199 3345 3345 3345 3345 3345 3679 3199 3199 3199 3679 3504 3345 3199 3199 3345 3504 3679 4329 2943 3066 4906 5256 5256 4329 4906 4599 4599 5256 5661 5256 5661 5256 6690 6133 7359 8177 8177 7359 6690 5661 6690 6133 6690 3873 4088 3504 3504 3345 3066 2943 2943 2830 2830 2725 2628 2299 2230 2230 2044 2102 2102 2102 2164 2044 2164 2044 1989 1887 1795 1752 1672 1672 1672 1711 1672 1672 1795 1711 1635 1501 1415 1388 1362 1314 1314 1291 1268 1247 1247 1226 1206 1187 1206 1206 1149 1187 1247 1268 0 0 0 1149 1066 1008 1022 955 897 876 865 836 808 817 791 799 791 774 750 774 774 782 766 766 750 750 743 766 714 707 663 687 687 669 669 663 645 639 639 651 629 629 629 623 618 629 623 629 629 0 0 0 598 0 0 593 579 584 584 561 549 545 541 533 529 529 518 518 518 521 507 504 497 0 0 0 0 0 0 0 0
    0 0 0 0 0 0 0 0 0 0 0 0 0 0 0 0 0 0 0 0 0 0 0 0 0 0 0 0 0 0 0 0 0 0 0 0 0 0 0 0 0 0 0 0 0 0 0 0 0 0 0 0 0 0 0 0 0 0 0 0 0 0 0 0 0 0 0 0 0 1268 1268 1291 1291 1338 1362 1415 1443 1415 1501 1471 1471 1501 1533 1533 1533 1565 1533 1501 1501 1415 1226 1168 0 1291 1291 1291 1362 1415 1565 1635 1795 1839 1839 1839 1936 1989 1989 1989 2164 2102 2102 2102 2102 2102 2102 2102 2164 2164 2044 2164 2102 2102 2102 2164 2230 2230 2299 2628 2628 2628 2830 2943 3066 3066 3345 3066 3199 3066 3504 3199 3199 3345 3345 3345 3345 3345 3504 3199 3199 3345 3679 3345 3199 3066 3066 3199 3199 3199 3066 2725 2628 3504 4088 4906 3873 4599 4329 4599 5256 5661 5661 5661 4906 6690 6133 7359 8177 8177 7359 6133 4906 5661 5661 6690 3873 4088 3504 3504 3199 3066 2943 2943 2725 2830 2628 2628 2299 2230 2230 2044 2044 2102 2044 2102 1989 2044 1989 1936 1887 1752 1711 1672 1672 1711 1711 1672 1672 1795 1795 1672 1471 1415 1388 1362 1314 1314 1291 1291 1268 1268 1226 1206 1206 1226 1206 1149 1132 1226 1226 1247 0 1187 1082 1066 981 994 931 865 865 865 836 817 826 799 808 791 774 750 766 766 774 766 774 758 758 750 774 728 714 681 687 687 675 675 669 651 645 645 651 639 629 629 629 623 629 623 629 0 0 0 0 593 0 0 588 574 584 579 561 545 545 541 533 525 525 514 518 514 518 507 500 0 0 0 0 0 0 0 0 0
    0 0 0 0 0 0 0 0 0 0 0 0 0 0 0 0 0 0 0 0 0 0 0 0 0 0 0 0 0 0 0 0 0 0 0 0 0 0 0 0 0 0 0 0 0 0 0 0 0 0 0 0 0 0 0 0 0 0 0 0 0 0 0 0 0 0 0 0 0 1247 1247 1268 1268 1314 1338 1388 1415 1415 1471 1443 1443 1501 1501 1533 1501 1533 1501 1471 1471 1388 1226 1168 0 1314 0 0 1388 1443 1565 1635 1795 1839 1839 1839 1936 1989 2044 1989 2164 2102 2044 2102 2102 2102 2102 2102 2164 2164 2044 2164 2102 2102 2102 2164 2230 2164 2299 2628 2537 2628 2830 2943 2943 2943 3345 2943 3066 3066 3199 3066 3066 3199 3199 3199 3199 3199 3504 3199 3199 3345 3679 3504 3345 3199 3066 3066 3066 3066 2943 2537 2230 2830 3345 3873 3345 4329 4329 4329 5256 5661 5661 5661 5256 7359 6133 7359 0 0 8177 6690 4329 5256 5661 6690 3873 4088 3679 3504 3199 0 0 2943 2725 2725 2628 2537 2230 2230 2230 2044 2044 2044 2044 2044 1989 2044 1989 1936 1936 1752 1752 1711 1711 1711 1711 1711 1711 1839 1839 1711 1443 1415 1388 1362 1314 1314 1291 1291 1268 1268 1226 1206 1206 1226 1206 1168 1149 1206 1206 1226 0 1149 1066 1051 994 968 897 855 855 865 836 826 826 808 808 799 782 758 766 774 774 766 774 750 758 750 766 735 721 694 694 694 681 681 675 663 651 651 663 651 634 634 629 623 629 623 629 0 0 0 0 593 593 598 579 570 579 574 557 545 545 541 533 525 525 514 514 511 514 504 0 0 0 0 0 0 0 0 0 0
    0 0 0 0 0 0 0 0 0 0 0 0 0 0 0 0 0 0 0 0 0 0 0 0 0 0 0 0 0 0 0 0 0 0 0 0 0 0 0 0 0 0 0 0 0 0 0 0 0 0 0 0 0 0 0 0 0 0 0 0 0 0 0 0 0 0 0 0 0 1247 1247 1247 1247 1314 1314 1362 1388 1388 1443 1415 1443 1471 1471 1501 1471 1501 1471 1443 1443 1338 1206 1168 0 1314 0 0 1388 1443 1565 1635 1795 1839 1839 1887 1936 1989 2044 1989 2230 2102 2044 2102 2102 2102 2044 2102 2102 2102 2044 2164 2102 2102 2102 2164 2164 2164 2299 2628 2537 2725 2830 2943 2943 2943 3345 2943 2943 3066 3066 3066 2943 3066 3066 3066 3066 3066 3199 3199 3066 3199 3679 3345 3199 3066 2943 2943 2830 2943 2725 2453 2299 2725 3199 3504 3345 4329 4088 4329 5256 6133 6133 5661 5661 7359 6133 7359 0 0 8177 7359 4329 4906 6133 7359 4329 4088 3679 3504 3199 0 2830 2830 2628 2725 2628 2537 2230 2230 2230 1936 1989 1989 1989 1989 1936 1989 1936 1936 1989 1795 1752 1752 1711 1752 1711 1711 1711 1795 1839 1672 1415 1415 1415 1338 1314 1291 1291 1291 1268 1268 1226 1206 1206 1226 1206 1168 1132 1187 1187 1206 1206 1115 1051 1036 981 955 886 845 845 855 836 817 817 799 799 791 774 758 766 774 766 758 774 758 758 758 766 735 721 700 700 694 687 687 675 669 663 663 675 663 645 639 634 629 634 629 629 0 0 0 0 593 0 598 579 566 574 574 557 549 545 537 529 525 525 514 514 511 514 0 0 0 0 0 0 0 0 0 0 0
    0 0 0 0 0 0 0 0 0 0 0 0 0 0 0 0 0 0 0 0 0 0 0 0 0 0 0 0 0 0 0 0 0 0 0 0 0 0 0 0 0 0 0 0 0 0 0 0 0 0 0 0 0 0 0 0 0 0 0 0 0 0 0 0 0 0 0 0 0 1226 1226 1206 1226 1291 1314 1338 1362 1362 1415 1415 1415 1443 1471 1471 1471 1471 1471 1443 1443 1362 1206 1168 0 1314 1291 0 1388 1443 1565 1635 1795 1839 1839 1887 1989 1989 2044 2044 2230 2164 2044 2044 2102 2102 2044 2102 2102 2102 2044 2164 2102 2164 2102 2164 2230 2164 2299 2628 2537 2725 2830 2943 2943 2943 3345 2943 2943 3066 3199 3066 3066 3066 3066 3066 3066 3066 3199 3199 3199 3199 3504 3199 3066 2943 2830 2830 2628 2628 2453 2230 2230 2537 2943 3199 3199 4088 4088 4599 5256 6690 6133 5661 5661 7359 5661 8177 0 0 0 7359 4599 4906 5661 7359 4329 3679 3504 3345 3066 2830 2725 2725 2537 2628 2537 2453 2164 2164 2164 1936 1989 1989 1989 1989 1936 1989 1936 1936 1989 1795 1752 1711 1672 1672 1672 1672 1672 1711 1752 1565 1388 1362 1362 1338 1268 1291 1291 1291 1268 1268 1226 1206 1206 1247 1187 1168 1132 1168 1168 1187 1149 1051 1036 1036 968 943 876 845 845 855 826 817 817 799 808 791 766 758 766 774 774 758 774 758 766 766 766 743 728 707 700 694 694 687 681 681 669 669 681 675 663 639 0 0 0 0 0 0 0 0 0 598 593 593 574 566 574 574 557 545 541 537 529 525 525 514 514 511 514 0 0 0 0 0 0 0 0 0 0 0
    0 0 0 0 0 0 0 0 0 0 0 0 0 0 0 0 0 0 0 0 0 0 0 0 0 0 0 0 0 0 0 0 0 0 0 0 0 0 0 0 0 0 0 0 0 0 0 0 0 0 0 0 0 0 0 0 0 0 0 0 0 0 0 0 0 0 0 0 0 1226 1206 1206 1206 1291 1338 1338 1362 1362 1415 1415 1415 1443 1471 1471 1471 1471 1471 1443 1443 1362 1226 1187 1187 1314 1314 1314 1415 1443 1565 1635 1795 1839 1839 1887 1989 1989 2102 2044 2299 2164 2102 2044 2102 2102 2044 2102 2102 2102 2044 2164 2102 2164 2102 2164 2164 2164 2299 2628 2537 2725 2943 2943 2943 2943 3199 2830 2830 3066 3066 3066 3066 3066 3066 3199 3066 3066 3199 3199 3199 3199 3345 2943 2943 2943 2830 2725 2453 2453 2230 2102 2230 2374 2725 2943 2943 3504 3873 4906 6690 8177 8177 6690 0 0 0 0 0 0 8177 6690 4599 4906 4906 6690 4599 3345 3345 3345 3066 2628 2628 2725 2453 2537 2537 2453 2230 2230 2102 1936 1936 1936 1936 1936 1887 1887 1887 1887 1936 1795 1752 1711 1711 1672 1672 1672 1672 1672 1711 1565 1388 1362 1362 1338 1291 1291 1291 1291 1291 1314 1268 1226 1226 1268 1226 1187 1149 1132 1132 1149 1115 1022 1022 1022 955 908 865 855 855 865 836 817 817 808 808 799 774 766 774 774 774 758 774 766 766 766 766 750 735 714 707 700 700 694 687 687 681 681 694 694 681 651 657 634 634 639 634 623 608 603 603 593 588 584 566 561 566 566 553 541 541 537 533 529 525 514 514 511 511 500 0 0 0 0 0 0 0 0 0 0
    0 0 0 0 0 0 0 0 0 0 0 0 0 0 0 0 0 0 0 0 0 0 0 0 0 0 0 0 0 0 0 0 0 0 0 0 0 0 0 0 0 0 0 0 0 0 0 0 0 0 0 0 0 0 0 0 0 0 0 0 0 0 0 0 0 0 0 0 0 1226 1206 1206 1206 1291 1314 1362 1362 1362 1415 1415 1415 1443 1471 1471 1471 1471 1501 1443 1443 1415 1247 1226 1247 1338 1314 1338 1415 1443 1533 1635 1795 1839 1839 1936 1989 2044 2102 2102 2299 2164 2102 2044 2044 2102 2044 2044 2044 2044 1989 2102 2044 2102 2102 2102 2102 2102 2164 2453 2374 2628 2725 2725 2725 2725 2943 2725 2725 2943 2725 2725 2943 2830 2943 2943 2830 2725 2830 3066 2943 3066 3199 3066 3066 2943 2830 2628 2230 2164 1989 1887 1989 2230 2374 2537 2537 2725 2943 0 0 0 0 0 0 0 0 0 0 0 0 0 0 0 0 0 0 4088 4906 3504 2943 2537 2537 2725 2453 2628 2537 2374 2230 2164 2102 1936 1936 1887 1887 1887 1839 1839 1839 1839 1887 1752 1752 1711 1711 1711 1672 1672 1635 1672 1711 1635 1443 1415 1415 1388 1338 1338 1338 1314 1338 1338 1291 1247 1247 1291 1226 1206 1149 1149 1132 1149 1149 1036 1051 1036 994 981 931 897 897 876 855 836 845 826 826 817 774 766 774 774 766 743 766 766 766 766 766 750 735 721 721 700 700 700 700 700 694 700 714 728 714 694 700 669 645 651 639 623 608 603 598 588 584 579 557 557 557 557 549 541 541 541 533 533 529 518 518 514 511 500 493 0 0 0 0 0 0 0 0 0
    0 0 0 0 0 0 0 0 0 0 0 0 0 0 0 0 0 0 0 0 0 0 0 0 0 0 0 0 0 0 0 0 0 0 0 0 0 0 0 0 0 0 0 0 0 0 0 0 0 0 0 0 0 0 0 0 0 0 0 0 0 0 0 0 0 0 0 0 0 1206 1187 1206 1206 1268 1314 1338 1362 1338 1415 1388 1388 1415 1443 1443 1443 1443 1471 1443 1443 1415 1268 1247 0 1338 1338 1338 1415 1415 1533 1635 1795 1887 1887 1936 2044 2044 2164 2102 2299 2164 2102 2044 2044 2102 2044 2044 1989 2044 1989 2044 2044 2102 2044 2102 2102 2102 2102 2299 2230 2537 2453 2453 2374 2537 2725 2537 2537 2725 2453 2453 2628 2628 2628 2628 2537 2374 2628 2943 2943 2943 3199 2943 2943 2943 2830 2628 2230 2164 1989 1887 1989 2102 2164 2230 2230 2374 0 0 0 0 0 0 0 0 0 0 0 0 0 0 0 0 0 0 0 0 0 3504 2830 2628 2628 2830 2537 2725 2537 2374 2230 2164 1989 1887 1887 1839 1839 1839 1795 1795 1795 1795 1839 1711 1752 1711 1672 1672 1672 1635 1635 1599 1635 1599 1471 1443 1415 1415 1362 1362 1362 1338 1338 1338 1291 1247 1226 1226 1187 1168 1098 1115 1098 1098 1098 1022 1022 1036 1008 981 943 931 931 886 886 855 855 845 845 836 766 766 782 774 774 750 766 766 774 774 766 750 743 728 728 707 707 707 707 714 707 714 743 758 766 817 750 714 694 687 669 629 613 603 598 588 579 570 557 553 553 553 549 541 541 541 537 537 529 525 521 514 507 500 490 0 0 0 0 0 0 0 0 0
    0 0 0 0 0 0 0 0 0 0 0 0 0 0 0 0 0 0 0 0 0 0 0 0 0 0 0 0 0 0 0 0 0 0 0 0 0 0 0 0 0 0 0 0 0 0 0 0 0 0 0 0 0 0 0 0 0 0 0 0 0 0 0 0 0 0 0 0 0 1187 1187 1187 1206 1247 1291 1314 1338 1314 1415 1388 1388 1415 1443 1443 1443 1443 1471 1443 1443 1415 1291 1268 0 1362 1338 1362 1415 1415 1501 1635 1795 1887 1887 1989 2044 2044 2102 2102 2299 2102 2102 2044 2102 2102 2044 2044 1989 2044 1989 2044 1989 2044 1989 2102 2044 2044 2044 2164 2102 2374 2230 2164 2102 2299 2537 2230 2230 2374 2102 2102 2230 2453 2374 2374 2374 2230 2453 2830 2830 2943 3066 2830 2830 2830 2725 2537 2230 2102 1936 1887 1936 1989 2044 2102 2102 0 0 0 0 0 0 0 0 0 0 0 0 0 0 0 0 0 0 0 0 0 0 0 0 0 2628 2830 2453 2628 2374 2299 2164 2044 1989 1887 1887 1839 1839 1795 1795 1752 1795 1795 1795 1711 1752 1711 1672 1672 1672 1635 1635 1599 1635 1565 1471 1443 1415 1388 1388 1338 1338 1314 1291 1268 1247 1206 1187 1168 1149 1132 1082 1098 1082 1098 1082 1008 1008 1022 1008 994 955 943 943 897 908 886 876 855 855 845 817 782 799 791 791 758 782 782 782 782 774 750 750 735 743 714 707 714 714 721 721 728 750 774 791 845 799 766 721 714 694 657 629 603 598 588 574 566 553 553 553 553 549 545 545 549 545 541 533 529 521 518 504 500 490 481 0 474 474 0 0 0 0 0
    0 0 0 0 0 0 0 0 0 0 0 0 0 0 0 0 0 0 0 0 0 0 0 0 0 0 0 0 0 0 0 0 0 0 0 0 0 0 0 0 0 0 0 0 0 0 0 0 0 0 0 0 0 0 0 0 0 0 0 0 0 0 0 0 0 0 0 0 0 1187 1187 1187 1206 1247 1268 1314 1338 1314 1415 1415 1388 1388 1415 1415 1415 1388 1443 1415 1388 1415 1314 1291 1314 1362 1338 1362 1415 1415 1471 1599 1752 1839 1839 1936 1989 2044 2102 2102 2164 2102 2044 2044 2102 2102 2044 1989 1936 1989 1936 1936 1936 1936 1936 1989 1989 1989 2044 2102 2102 2299 2164 2102 2044 2230 2164 1989 1936 1936 1839 1795 1795 1989 1936 2044 2102 2044 2299 2830 2943 2943 3066 2830 2830 2725 2628 2453 2164 2102 1936 1839 1839 1936 1989 0 0 0 0 0 0 0 0 0 0 0 0 0 0 0 0 0 0 0 0 0 0 0 0 0 0 0 0 2830 2230 2453 2164 2102 2102 2044 1936 1887 1839 1795 1795 1795 1795 1752 1795 1795 1795 1711 1752 1752 1711 1672 1672 1635 1599 1565 1565 1533 1471 1388 1362 1362 1338 1291 1291 1268 1226 1206 1187 1149 1132 1115 1098 1115 1098 1132 1115 1149 1132 1022 1022 1036 1008 994 943 919 908 886 897 876 865 855 845 845 836 791 808 799 799 766 782 782 782 782 782 758 750 743 743 707 700 707 707 714 714 721 735 774 799 855 808 782 750 728 707 675 0 0 593 588 570 566 553 557 553 553 553 549 549 557 553 549 537 537 533 525 500 500 487 477 477 471 474 0 0 0 0 0
    0 0 0 0 0 0 0 0 0 0 0 0 0 0 0 0 0 0 0 0 0 0 0 0 0 0 0 0 0 0 0 0 0 0 0 0 0 0 0 0 0 0 0 0 0 0 0 0 0 0 0 0 0 0 0 0 0 0 0 0 0 0 0 0 0 0 0 0 0 1187 1206 1206 1206 1226 1268 1314 1314 1314 1415 1388 1388 1362 1388 1388 1388 1388 1415 1388 1388 1415 1338 1314 1314 1362 1362 1362 1388 1415 1443 1599 1711 1839 1839 1887 1989 1989 2044 2044 2102 2044 2044 2044 2102 2044 1989 1936 1839 1839 1839 1839 1839 1839 1887 1887 1936 1936 1989 2044 2044 2299 2044 2044 1936 1989 1936 1839 1795 1752 1711 1635 1672 1795 1795 1887 1936 1887 2044 2830 2943 2943 3066 2830 2725 2628 2537 2453 2102 2102 1936 1795 1795 1936 0 0 0 0 0 0 0 0 0 0 0 0 0 0 0 0 0 0 0 0 0 0 0 0 0 0 0 0 0 2628 2044 2299 2164 2044 2044 2044 1936 1887 1839 1752 1752 1795 1795 1752 1752 1752 1795 1711 1752 1752 1672 1672 1635 1599 1599 1501 1533 1471 1443 1388 1362 1362 1338 1291 1268 1247 1187 1187 1149 1132 1115 1098 1098 1115 1115 1149 1115 1149 1132 1036 1036 1036 1008 994 981 955 931 876 886 865 865 855 845 836 836 782 808 808 799 758 782 782 782 782 782 750 743 743 766 714 707 714 714 721 721 735 750 774 799 855 817 791 750 721 700 663 0 0 593 588 570 566 553 557 553 557 553 549 549 566 561 557 545 545 541 533 504 504 484 477 474 471 471 0 0 0 0 0
    0 0 0 0 0 0 0 0 0 0 0 0 0 0 0 0 0 0 0 0 0 0 0 0 0 0 0 0 0 0 0 0 0 0 0 0 0 0 0 0 0 0 0 0 0 0 0 0 0 0 0 0 0 0 0 0 0 0 0 0 0 0 0 0 0 0 0 0 0 1187 1226 1206 1206 1247 1268 1314 1338 1338 1388 1388 1388 1362 1388 1388 1388 1388 1415 1415 1415 1415 1362 1314 1338 1388 1362 1362 1388 1415 1443 1599 1711 1839 1795 1839 1989 1989 1989 1989 2044 1989 1989 1989 2044 1936 1887 1839 1795 1795 1752 1711 1752 1752 1795 1795 1839 1887 1936 1989 1989 2102 1887 1887 1752 1795 1752 1672 1635 1635 1599 1565 1635 1795 1752 1839 1887 1839 1936 2725 0 0 3199 2830 2725 2628 2537 2453 2230 2102 1936 1795 1752 0 0 0 0 0 0 0 0 0 0 0 0 0 0 0 0 0 0 0 0 0 0 0 0 0 0 0 0 0 0 0 1989 2230 2164 2102 2102 2102 1989 1887 1839 1752 1752 1752 1752 1711 1711 1752 1752 1711 1795 1752 1672 1672 1672 1635 1599 1501 1501 1471 1443 1415 1362 1362 1338 1291 1268 1226 1149 1149 1132 1098 1098 1082 1082 1098 1098 1115 1098 1098 1098 1008 1008 1008 981 994 994 981 968 908 931 908 897 876 855 845 836 766 808 808 799 766 782 791 791 791 791 750 750 743 766 714 694 707 700 707 707 721 735 750 791 865 808 782 743 714 694 651 0 598 593 588 574 566 553 557 553 557 557 553 553 570 566 561 545 545 545 541 514 511 484 474 474 471 471 0 0 0 0 0
    0 0 0 0 0 0 0 0 0 0 0 0 0 0 0 0 0 0 0 0 0 0 0 0 0 0 0 0 0 0 0 0 0 0 0 0 0 0 0 0 0 0 0 0 0 0 0 0 0 0 0 0 0 0 0 0 0 0 0 0 0 0 0 0 0 0 0 0 0 1187 1226 1206 1206 1226 1247 1291 1338 1338 1388 1388 1388 1362 1388 1388 1388 1388 1415 1415 1415 1415 1388 1338 1362 1415 1362 1388 1388 1443 1443 1565 1672 1795 1752 1839 1936 1989 1989 1936 1989 1936 1936 1936 1989 1936 1839 1752 1752 1752 1711 1711 1752 1711 1711 1795 1839 1839 1887 1936 1936 1887 1795 1711 1635 1635 1635 1599 1533 1533 1533 1533 1599 1711 1711 1752 1752 1752 1795 0 0 0 0 0 2453 2374 2537 2374 2164 2044 1936 0 0 0 0 0 0 0 0 0 0 0 0 0 0 0 0 0 0 0 0 0 0 0 0 0 0 0 0 0 0 0 0 0 2044 2453 2299 2102 2230 2164 2044 1989 1936 1795 1795 1795 1795 1711 1711 1752 1752 1711 1795 1752 1672 1672 1672 1635 1599 1501 1501 1443 1415 1388 1362 1338 1314 1291 1268 1226 1149 1149 1115 1098 1082 1082 1082 1098 1098 1115 1098 1115 1115 1036 1008 1022 994 1022 1022 1008 994 968 955 943 931 919 886 865 836 758 808 799 799 766 782 791 791 791 799 758 750 743 766 714 694 707 707 707 707 714 728 735 774 855 799 707 700 700 687 651 613 598 593 588 574 566 557 557 557 561 557 553 553 574 570 561 545 545 545 541 511 504 484 474 474 471 471 0 0 0 0 0
    0 0 0 0 0 0 0 0 0 0 0 0 0 0 0 0 0 0 0 0 0 0 0 0 0 0 0 0 0 0 0 0 0 0 0 0 0 0 0 0 0 0 0 0 0 0 0 0 0 0 0 0 0 0 0 0 0 0 0 0 0 0 0 0 0 0 0 0 0 1187 1247 1226 1206 1226 1206 1247 1291 1314 1362 1388 1388 1362 1388 1388 1388 1388 1388 1415 1388 1388 1415 1362 1388 1443 1388 1388 1388 1415 1415 1533 1599 1752 1752 1795 1936 1989 1936 1936 1936 1887 1887 1887 1887 1839 1752 1635 1672 1672 1599 1599 1635 1599 1635 1711 1752 1752 1752 1839 1795 1711 1752 1672 1565 1599 1565 1533 1471 1501 1501 1501 1565 1635 1635 1672 1672 1711 0 0 0 0 0 0 0 0 0 0 0 0 0 0 0 0 0 0 0 0 0 0 0 0 0 0 0 0 0 0 0 0 0 0 0 0 0 0 0 0 0 0 0 0 0 0 0 0 2374 2164 2230 2164 1989 1936 1887 1711 1752 1752 1752 1672 1711 1752 1752 1711 1795 1795 1711 1711 1672 1635 1599 1501 1471 1443 1415 1362 1338 1338 1338 1291 1291 1247 1149 1149 1098 1082 1082 1082 1082 1098 1082 1098 1098 1115 1115 1036 1008 1022 994 1022 1022 1008 994 981 968 968 968 955 931 908 845 766 808 799 799 774 782 782 782 791 799 758 750 758 782 728 700 721 721 728 743 743 750 750 782 865 766 669 669 669 669 634 618 603 598 584 0 574 557 557 553 557 557 553 553 570 566 561 541 545 541 533 504 500 484 471 471 471 471 0 0 0 0 0
    0 0 0 0 0 0 0 0 0 0 0 0 0 0 0 0 0 0 0 0 0 0 0 0 0 0 0 0 0 0 0 0 0 0 0 0 0 0 0 0 0 0 0 0 0 0 0 0 0 0 0 0 0 0 0 0 0 0 0 0 0 0 0 0 0 0 0 0 0 1187 1247 1206 1206 1206 1187 1206 1268 1291 1338 1388 1388 1362 1388 1388 1388 1388 1388 1415 1388 1388 1443 1388 1388 1443 1388 1388 1388 1443 1415 1501 1599 1711 1711 1795 1887 1936 1887 1887 1887 1839 1795 1839 1795 1752 1672 1501 1565 1565 1471 1471 1565 1533 1599 1672 1795 1752 1752 1795 1752 1672 1711 1635 1533 1533 1501 1501 1471 1471 1471 1471 1501 1501 1533 1565 1565 0 0 0 0 0 0 0 0 0 0 0 0 0 0 0 0 0 0 0 0 0 0 0 0 0 0 0 0 0 0 0 0 0 0 0 0 0 0 0 0 0 0 0 0 0 0 0 0 0 0 0 0 1936 1839 1887 1839 1599 1672 1711 1711 1711 1752 1795 1795 1752 1936 1839 1752 1752 1711 1672 1672 1533 1501 1471 1415 1388 1338 1338 1314 1291 1268 1226 1149 1132 1098 1082 1082 1082 1066 1082 1066 1082 1082 1082 1082 1022 1008 1008 994 1022 1022 994 994 981 968 955 955 955 931 919 845 791 817 799 799 774 782 782 782 782 799 750 750 758 782 743 700 721 721 735 758 758 758 750 766 968 0 0 0 0 0 0 0 0 0 0 0 0 0 0 0 566 566 566 566 574 570 557 545 545 541 533 507 504 484 471 471 471 471 0 0 0 0 0
    0 0 0 0 0 0 0 0 0 0 0 0 0 0 0 0 0 0 0 0 0 0 0 0 0 0 0 0 0 0 0 0 0 0 0 0 0 0 0 0 0 0 0 0 0 0 0 0 0 0 0 0 0 0 0 0 0 0 0 0 0 0 0 0 0 0 0 0 0 1206 1247 1206 1206 1206 1187 1206 1268 1314 1338 1388 1415 1362 1415 1388 1388 1388 1388 1415 1388 1388 1443 1388 1415 1471 1415 1388 1388 1443 1443 1533 1599 1711 1711 1752 1839 1839 1839 1839 1839 1795 1795 1795 1752 1672 1599 1443 1501 1501 1443 1443 1501 1471 1565 1672 1795 1752 1672 1711 1711 1635 1672 1635 1533 1533 1501 1501 1471 1443 1471 1471 1471 1501 1533 0 0 0 0 0 0 0 0 0 0 0 0 0 0 0 0 0 0 0 0 0 0 0 0 0 0 0 0 0 0 0 0 0 0 0 0 0 0 0 0 0 0 0 0 0 0 0 0 0 0 0 0 0 0 0 0 0 0 1415 1565 1672 1711 1752 1795 1839 1887 1795 1887 1795 1711 1711 1672 1672 1672 1533 1533 1471 1415 1362 1338 1314 1291 1268 1247 1226 1132 1115 1098 1066 1082 1098 1082 1082 1066 1082 1082 1082 1082 1008 994 994 981 1008 994 981 968 968 955 943 943 943 931 908 845 799 817 799 799 774 782 782 782 782 799 750 750 758 782 735 700 714 714 721 728 728 728 728 728 0 0 0 0 0 0 0 0 0 0 955 897 836 799 758 714 687 613 598 588 588 579 557 545 545 541 537 511 507 487 477 474 474 474 0 0 0 0 0
    0 0 0 0 0 0 0 0 0 0 0 0 0 0 0 0 0 0 0 0 0 0 0 0 0 0 0 0 0 0 0 0 0 0 0 0 0 0 0 0 0 0 0 0 0 0 0 0 0 0 0 0 0 0 0 0 0 0 0 0 0 0 0 0 0 0 0 0 0 1206 1247 1206 1206 1206 1187 1226 1291 1338 1362 1388 1415 1362 1415 1388 1388 1388 1415 1415 1388 1388 1471 1388 1443 1471 1415 1388 1388 1443 1471 1533 1599 1635 1635 1711 1795 1795 1752 1752 1752 1711 1711 1711 1672 1599 1533 1415 1501 1501 1443 1443 1471 1471 1565 1672 1752 1672 1599 1672 1635 1599 1599 1565 1471 1501 1471 1471 1443 1443 1443 1471 1443 1471 0 0 0 0 0 0 0 0 0 0 0 0 0 0 0 0 0 0 0 0 0 0 0 0 0 0 0 0 0 0 0 0 0 0 0 0 0 0 0 0 0 0 0 0 0 0 0 0 0 0 0 0 0 0 0 0 0 0 0 0 0 0 1887 1887 1887 1839 1887 1752 1795 1752 1711 1672 1672 1635 1672 1533 1533 1471 1388 1338 1314 1291 1268 1247 1226 1206 1132 1132 1115 1082 1115 1098 1082 1082 1066 1082 1082 1082 1098 1008 1008 1008 981 0 994 955 943 955 943 943 931 931 919 897 845 0 817 799 799 782 782 782 782 782 799 758 750 758 782 728 694 707 700 700 700 700 707 700 694 0 0 0 0 584 0 0 0 0 0 908 865 836 791 774 728 714 681 618 608 608 593 557 545 541 537 529 504 511 487 481 477 477 0 0 0 0 0 0
    0 0 0 0 0 0 0 0 0 0 0 0 0 0 0 0 0 0 0 0 0 0 0 0 0 0 0 0 0 0 0 0 0 0 0 0 0 0 0 0 0 0 0 0 0 0 0 0 0 0 0 0 0 0 0 0 0 0 0 0 0 0 0 0 0 0 0 0 0 1226 1247 1226 1206 1226 1206 1247 1291 1338 1362 1388 1415 1362 1415 1388 1388 1388 1415 1415 1415 0 0 0 0 1501 1415 1362 1415 1471 1501 1501 1599 1565 1565 1635 1752 1711 1711 1711 1711 1711 1711 1711 1635 1565 1471 1388 1471 1501 1415 1443 1471 1471 1565 1635 1711 1599 1533 1599 1565 1501 1533 1501 1443 1471 1443 1471 1471 1443 1471 1501 0 0 0 0 0 0 0 0 0 0 0 0 0 0 0 0 0 0 0 0 0 0 0 0 0 0 0 0 0 0 0 0 0 0 0 0 0 0 0 0 0 0 0 0 0 0 0 0 0 0 0 0 0 0 0 0 0 0 0 0 0 0 0 0 0 0 0 1752 1839 1635 1711 1711 1672 1672 1635 1599 1672 1533 1533 1471 1388 1338 1291 1268 1247 1247 1226 1187 1149 1149 1149 1098 1132 1115 1098 1098 1082 1098 1082 1082 1115 1036 1022 1022 994 0 1008 968 943 943 943 931 919 908 919 886 855 0 817 808 799 782 791 782 774 782 791 758 750 750 782 728 700 700 700 707 700 700 700 694 687 0 0 608 613 588 598 584 598 0 0 0 0 836 774 782 743 750 714 687 0 0 588 541 537 0 537 525 504 518 493 487 481 0 0 0 0 0 0 0
    0 0 0 0 0 0 0 0 0 0 0 0 0 0 0 0 0 0 0 0 0 0 0 0 0 0 0 0 0 0 0 0 0 0 0 0 0 0 0 0 0 0 0 0 0 0 0 0 0 0 0 0 0 0 0 0 0 0 0 0 0 0 0 0 0 0 0 0 0 1226 1247 1226 1206 1226 1206 1226 1268 1314 1338 1388 1415 1362 1415 1415 1388 1415 1415 1415 1415 1388 1471 1388 1443 1501 1415 1362 1388 1471 1471 1471 1533 1501 1533 1635 1711 1672 1672 1672 1672 1672 1672 1672 1599 1501 1443 1362 1443 1471 1443 1471 1471 1471 1565 1635 1711 1533 1471 1471 1471 1443 1471 1415 1415 1415 1443 1443 1443 1443 1471 0 0 0 0 0 0 0 0 0 0 0 0 0 0 0 0 0 0 0 0 0 0 0 0 0 0 0 0 0 0 0 0 0 0 0 0 0 0 0 0 0 0 0 0 0 0 0 0 0 0 0 0 0 0 0 0 0 0 0 0 0 0 0 0 0 0 0 0 0 1672 1501 1635 1533 1533 1501 1533 1471 1533 1443 1388 1388 1338 1291 1291 1268 1247 1247 1226 1206 1168 1168 1168 1098 1132 1132 1098 1098 1082 1098 1082 1066 1082 1022 1008 1008 994 1008 1008 968 955 943 943 931 919 908 908 886 855 826 826 808 799 782 782 774 766 774 782 750 743 750 774 728 707 707 707 707 714 707 700 700 694 0 663 613 623 608 613 598 0 0 0 0 0 0 0 0 0 0 721 0 0 0 0 0 545 549 541 537 553 561 566 553 549 529 0 0 0 0 0 0
    0 0 0 0 0 0 0 0 0 0 0 0 0 0 0 0 0 0 0 0 0 0 0 0 0 0 0 0 0 0 0 0 0 0 0 0 0 0 0 0 0 0 0 0 0 0 0 0 0 0 0 0 0 0 0 0 0 0 0 0 0 0 0 0 0 0 0 0 0 1226 1226 1206 1187 1206 1187 1206 1226 1291 1338 1415 1443 1388 1443 1415 1415 1415 1415 1415 1388 1362 1415 1338 1362 1388 1338 1314 1314 1362 1362 1362 1362 1415 1415 1533 1672 1599 1635 1599 1599 1635 1635 1635 1533 1443 1415 1362 1443 1471 1415 1443 1443 1415 1501 1565 1635 1471 1415 1415 1415 1415 1471 1415 1415 1443 1443 1443 1471 0 0 0 0 0 0 0 0 0 0 0 0 0 0 0 0 0 0 0 0 0 0 0 0 0 0 0 0 0 0 0 0 0 0 0 0 0 0 0 0 0 0 0 0 0 0 0 0 0 0 0 0 0 0 0 0 0 0 0 0 0 0 0 0 0 0 0 0 0 0 0 0 1388 1471 1415 1388 1362 1314 1291 1388 1338 1338 1338 1291 1268 1268 1268 1268 1247 1247 1206 1168 1187 1187 1115 1132 1115 1098 1098 1082 1098 1082 1066 1082 1022 1022 1022 994 1008 994 955 943 943 943 931 919 908 908 886 865 836 826 817 808 791 791 774 766 766 774 743 743 743 758 728 707 714 714 714 721 721 707 707 694 0 669 623 634 618 618 608 608 593 0 0 0 0 0 0 0 0 774 799 791 774 728 0 0 0 574 570 579 584 579 579 570 570 566 0 0 0 0 0
    0 0 0 0 0 0 0 0 0 0 0 0 0 0 0 0 0 0 0 0 0 0 0 0 0 0 0 0 0 0 0 0 0 0 0 0 0 0 0 0 0 0 0 0 0 0 0 0 0 0 0 0 0 0 0 0 0 0 0 0 0 0 0 0 0 0 0 0 0 1226 1226 1187 1187 1187 1168 1187 1206 1247 1338 1415 1443 1388 1443 1415 1415 1415 1388 1388 1362 1362 1388 1314 1338 1314 1314 1291 1291 1291 1268 1291 1314 1362 1362 1443 1565 1533 1599 1565 1533 1599 1565 1599 1471 1443 1415 1362 1415 1443 1388 1388 1362 1362 1415 1443 1533 1388 1388 1388 1415 1415 1443 1443 1443 1471 1471 1471 0 0 0 0 0 0 0 0 0 0 0 0 0 0 0 0 0 0 0 0 0 0 0 0 0 0 0 0 0 0 0 0 0 0 0 0 0 0 0 0 0 0 0 0 0 0 0 0 0 0 0 0 0 0 0 0 0 0 0 0 0 0 0 0 0 0 0 0 0 0 0 0 0 0 1388 1338 1338 1338 1291 1268 1291 1291 1291 1291 1247 1226 1226 1226 1247 1247 1247 1247 1206 1226 1226 1168 1168 1149 1098 1098 1098 1098 1098 1082 1098 1066 1051 1051 1008 1008 981 931 919 919 919 908 897 886 886 886 865 845 836 817 808 791 791 774 758 758 766 743 735 743 758 728 714 714 714 721 721 721 714 707 700 743 687 663 663 651 639 0 0 0 0 0 0 0 0 0 0 0 0 0 817 808 758 0 0 0 0 0 561 574 566 566 553 557 553 0 0 0 0 0
    0 0 0 0 0 0 0 0 0 0 0 0 0 0 0 0 0 0 0 0 0 0 0 0 0 0 0 0 0 0 0 0 0 0 0 0 0 0 0 0 0 0 0 0 0 0 0 0 0 0 0 0 0 0 0 0 0 0 0 0 0 0 0 0 0 0 0 0 0 1226 1206 1187 1168 1168 1149 1187 1187 1226 1291 1388 1443 1388 1443 1415 1415 1388 1388 1362 1338 1338 1338 1291 1291 1291 1291 1268 1268 1268 1226 1247 1268 1338 1338 1415 1501 1471 1599 1565 1501 1565 1533 1565 1471 1443 1415 1362 1388 1388 1338 1314 1314 1291 1314 1338 1338 1314 1338 1362 1388 1415 1443 1443 1443 1471 0 0 0 0 0 0 0 0 0 0 0 0 0 0 0 0 0 0 0 0 0 0 0 0 0 0 0 0 0 0 0 0 0 0 0 0 0 0 0 0 0 0 0 0 0 0 0 0 0 0 0 0 0 0 0 0 0 0 0 0 0 0 0 0 0 0 0 0 0 0 0 0 0 0 0 0 0 1314 1314 1314 1268 1268 1268 1268 1247 1247 1226 1206 1187 1206 1206 1226 1206 1226 1206 1226 1226 1187 1187 1149 1115 1115 1098 1098 1098 1082 1098 1066 1082 1051 1008 994 968 908 886 897 897 886 876 876 876 876 865 855 845 826 817 799 791 774 758 758 758 743 735 735 750 728 714 707 707 707 707 707 700 700 694 707 687 675 675 669 0 0 0 0 0 0 0 0 0 0 0 0 808 0 0 0 0 0 0 0 0 0 0 0 561 557 545 545 545 0 0 0 0 0
    0 0 0 0 0 0 0 0 0 0 0 0 0 0 0 0 0 0 0 0 0 0 0 0 0 0 0 0 0 0 0 0 0 0 0 0 0 0 0 0 0 0 0 0 0 0 0 0 0 0 0 0 0 0 0 0 0 0 0 0 0 0 0 0 0 0 0 0 0 1226 1206 1187 1149 1168 1149 1187 1187 1226 1314 1362 1415 1388 1415 1388 1388 1362 1362 1338 1314 1291 1314 1268 1268 1247 1247 1226 1226 1206 1206 1226 1268 1338 1338 1388 1443 1415 1565 1533 1443 1533 1501 1533 1471 1443 1415 1362 1338 1338 1291 1291 1268 1247 1268 1268 1291 1291 1338 1362 1388 1415 1443 1443 1443 0 0 0 0 0 0 0 0 0 0 0 0 0 0 0 0 0 0 0 0 0 0 0 0 0 0 0 0 0 0 0 0 0 0 0 0 0 0 0 0 0 0 0 0 0 0 0 0 0 0 0 0 0 0 0 0 0 0 0 0 0 0 0 0 0 0 0 0 0 0 0 0 0 0 0 0 0 0 1314 1291 1268 1226 1247 1247 1247 1226 1206 1206 1187 1149 1187 1187 1187 1168 1206 1206 1206 1226 1206 1206 1149 1149 1115 1098 1115 1098 1082 1098 1066 1082 1051 994 981 955 897 876 876 886 876 865 865 865 865 855 855 845 826 826 799 791 774 766 766 758 750 743 735 750 728 714 700 700 700 700 700 700 700 694 707 700 694 700 700 681 0 0 0 0 0 0 0 0 0 0 0 0 0 0 0 0 0 0 0 0 0 0 0 0 0 0 0 0 0 0 0 0 0
    0 0 0 0 0 0 0 0 0 0 0 0 0 0 0 0 0 0 0 0 0 0 0 0 0 0 0 0 0 0 0 0 0 0 0 0 0 0 0 0 0 0 0 0 0 0 0 0 0 0 0 0 0 0 0 0 0 0 0 0 0 0 0 0 0 0 0 0 0 1226 1206 1187 1149 1187 1168 1206 1206 1247 1314 1338 1362 1362 1388 1362 1362 1338 1338 1291 1268 1247 1247 1226 1226 1206 1226 1206 1187 1168 1187 1226 1247 1291 1291 1362 1388 0 1501 1501 1388 1471 1415 1471 1415 1388 1388 1314 1314 1291 1247 1226 1206 1206 1206 1247 1268 1291 1338 1388 1388 1443 1501 1501 0 0 0 0 0 0 0 0 0 0 0 0 0 0 0 0 0 0 0 0 0 0 0 0 0 0 0 0 0 0 0 0 0 0 0 0 0 0 0 0 0 0 0 0 0 0 0 0 0 0 0 0 0 0 0 0 0 0 0 0 0 0 0 0 0 0 0 0 0 0 0 0 0 0 0 0 0 0 0 1314 1291 1268 1206 1226 1226 1247 1206 1187 1168 1168 1149 1168 1187 1168 1168 1187 1206 1206 1226 1226 1206 1168 1168 1149 1115 1115 1098 1082 1098 1066 1066 1051 994 981 968 908 876 876 876 876 865 855 855 855 855 855 845 826 826 799 799 782 766 766 766 750 743 735 750 728 714 700 694 687 687 694 694 687 687 694 694 694 707 707 694 0 669 669 681 687 0 0 0 0 0 0 0 0 0 0 0 0 0 0 0 0 0 0 0 0 0 0 0 0 0 0 0 0
    0 0 0 0 0 0 0 0 0 0 0 0 0 0 0 0 0 0 0 0 0 0 0 0 0 0 0 0 0 0 0 0 0 0 0 0 0 0 0 0 0 0 0 0 0 0 0 0 0 0 0 0 0 0 0 0 0 0 0 0 0 0 0 0 0 0 0 0 0 1226 1187 1168 1132 1187 1168 1226 1226 1247 1291 1314 1338 1314 1314 1314 1291 1268 1268 1206 1206 1187 1187 1187 1206 1168 1187 1168 1187 1149 1149 1187 1206 1247 1268 0 0 0 1443 1471 1362 1415 1362 1415 1338 1338 1338 1268 1226 1226 1168 1132 1132 1132 1187 1226 1247 1291 1314 1338 1362 1388 0 0 0 0 0 0 0 0 0 0 0 0 0 0 0 0 0 0 0 0 0 0 0 0 0 0 0 0 0 0 0 0 0 0 0 0 0 0 0 0 0 0 0 0 0 0 0 0 0 0 0 0 0 0 0 0 0 0 0 0 0 0 0 0 0 0 0 0 0 0 0 0 0 0 0 0 0 0 0 0 0 0 1268 1226 1168 1187 1187 1226 1187 1149 1149 1132 1115 1149 1168 1149 1132 1168 1187 1206 1206 1226 1206 1132 1149 1132 1115 1115 1082 1066 1082 1082 1082 1051 1022 1008 994 955 908 886 886 876 865 865 855 855 855 855 845 836 826 799 791 774 766 758 758 743 743 735 743 728 714 700 694 681 687 681 687 681 681 681 687 681 700 700 694 0 681 681 681 687 681 0 0 0 743 0 826 0 0 0 0 0 0 0 0 0 0 0 0 0 500 490 490 0 0 0 0 0
    0 0 0 0 0 0 0 0 0 0 0 0 0 0 0 0 0 0 0 0 0 0 0 0 0 0 0 0 0 0 0 0 0 0 0 0 0 0 0 0 0 0 0 0 0 0 0 0 0 0 0 0 0 0 0 0 0 0 0 0 0 0 0 0 0 0 0 0 0 1206 1168 1149 1115 1168 1149 1226 1226 1247 1291 1291 1314 1291 1291 1291 1247 1206 1226 1168 1187 1149 1149 1168 1187 1149 1187 1149 1168 1115 1115 1149 1168 1187 0 0 0 0 1388 1443 1362 1388 1314 1314 1247 1149 1098 1082 1066 1066 1051 1051 1066 1082 1132 1206 1247 1268 1291 1314 1338 0 0 0 0 0 0 0 0 0 0 0 0 0 0 0 0 0 0 0 0 0 0 0 0 0 0 0 0 0 0 0 0 0 0 0 0 0 0 0 0 0 0 0 0 0 0 0 0 0 0 0 0 0 0 0 0 0 0 0 0 0 0 0 0 0 0 0 0 0 0 0 0 0 0 0 0 0 0 0 0 0 0 0 0 1149 1098 1149 1132 1206 1168 1132 1115 1132 1098 1132 1168 1132 1115 1132 1149 1206 1187 1226 1168 1082 1115 1115 1115 1115 1066 1051 1066 1066 1066 1051 1022 1008 1008 968 931 908 908 897 886 876 876 865 865 865 855 836 836 799 791 774 758 758 750 743 743 735 743 728 721 694 687 675 681 681 681 675 675 681 681 681 694 687 694 0 669 657 657 663 657 0 0 0 0 0 707 0 0 0 0 0 0 0 0 0 0 0 533 521 507 493 493 0 0 0 0 0
    0 0 0 0 0 0 0 0 0 0 0 0 0 0 0 0 0 0 0 0 0 0 0 0 0 0 0 0 0 0 0 0 0 0 0 0 0 0 0 0 0 0 0 0 0 0 0 0 0 0 0 0 0 0 0 0 0 0 0 0 0 0 0 0 0 0 0 0 0 1206 1149 1149 1115 1187 1149 1226 1247 1247 1314 1291 1338 1291 1291 1291 1226 1187 1206 1168 1187 1149 1149 1168 1187 1168 1187 1168 1168 1115 1115 1132 1149 1149 1226 0 0 1226 1314 1388 1314 1314 1247 1098 1066 1022 994 1008 1008 1008 1008 1008 1051 1066 1115 1187 1206 1247 1268 0 0 0 0 0 0 0 0 0 0 0 0 0 0 0 0 0 0 0 0 0 0 0 0 0 0 0 0 0 0 0 0 0 0 0 0 0 0 0 0 0 0 0 0 0 0 0 0 0 0 0 0 0 0 0 0 0 0 0 0 0 0 0 0 0 0 0 0 0 0 0 0 0 0 0 0 0 0 0 0 0 0 0 0 0 0 0 0 1132 1115 1187 1132 1115 1115 1115 1098 1132 1149 1132 1115 1115 1132 1168 1168 1187 1098 1051 1082 1082 1098 1098 1066 1051 1051 1066 1066 1036 1008 994 994 981 931 908 908 897 886 876 876 876 865 876 855 845 836 808 791 774 766 758 758 743 743 735 743 728 714 687 675 663 675 669 669 669 669 675 681 675 687 675 687 669 657 634 634 634 634 657 669 669 663 663 681 663 0 0 639 618 613 0 0 0 0 0 0 525 511 493 490 0 0 0 0 0
    0 0 0 0 0 0 0 0 0 0 0 0 0 0 0 0 0 0 0 0 0 0 0 0 0 0 0 0 0 0 0 0 0 0 0 0 0 0 0 0 0 0 0 0 0 0 0 0 0 0 0 0 0 0 0 0 0 0 0 0 0 0 0 0 0 0 0 0 0 1187 1115 1132 1115 1187 1168 1268 1268 1268 1291 1291 1314 1268 1268 1268 1206 1149 1168 1132 1168 1149 1149 1168 1187 1149 1168 1149 1149 1098 1098 1098 1132 1132 1187 1168 1226 1206 1291 1338 1247 1187 1082 1008 994 994 981 981 981 981 994 1008 1036 1066 1115 1132 1149 1206 0 0 0 0 0 0 0 0 0 0 0 0 0 0 0 0 0 0 0 0 0 0 0 0 0 0 0 0 0 0 0 0 0 0 0 0 0 0 0 0 0 0 0 0 0 0 0 0 0 0 0 0 0 0 0 0 0 0 0 0 0 0 0 0 0 0 0 0 0 0 0 0 0 0 0 0 0 0 0 0 0 0 0 0 0 0 0 0 0 1168 1115 1168 1132 1098 1098 1098 1066 1115 1115 1098 1098 1082 1098 1115 1098 1132 1066 1036 1051 1036 1051 1066 1051 1036 1051 1051 1051 1036 1008 994 1008 981 931 919 919 897 886 886 876 876 865 876 855 845 836 817 799 782 774 766 758 750 750 735 735 721 687 675 669 657 669 663 669 669 669 675 681 681 687 681 687 681 681 669 663 681 675 687 0 707 694 681 694 675 657 669 639 613 603 603 584 553 541 541 537 525 514 497 487 0 0 0 0 0
    0 0 0 0 0 0 0 0 0 0 0 0 0 0 0 0 0 0 0 0 0 0 0 0 0 0 0 0 0 0 0 0 0 0 0 0 0 0 0 0 0 0 0 0 0 0 0 0 0 0 0 0 0 0 0 0 0 0 0 0 0 0 0 0 0 0 0 0 0 1149 1098 1115 1082 1187 1187 1268 1268 1268 1291 1291 1291 1268 1247 1247 1149 1082 1098 1098 1132 1115 1132 1149 1168 1149 1168 1132 1149 1082 1082 1098 1115 1132 1168 1149 1187 1168 1268 1268 1168 1036 994 981 981 968 955 968 968 981 994 1008 1036 1051 1082 1098 1132 0 0 0 0 0 0 0 0 0 0 0 0 0 0 0 0 0 0 0 0 0 0 0 0 0 0 0 0 0 0 0 0 0 0 0 0 0 0 0 0 0 0 0 0 0 0 0 0 0 0 0 0 0 0 0 0 0 0 0 0 0 0 0 0 0 0 0 0 0 0 0 0 0 0 0 0 0 0 0 0 0 0 0 0 0 0 0 0 0 0 0 1098 1226 1149 1115 1115 1115 1082 1115 1115 1098 1082 1066 1066 1082 1066 1082 1036 1036 1051 1022 1051 1066 1051 1051 1051 1051 1051 1022 1022 1008 1008 981 943 919 919 897 886 876 876 876 865 865 855 836 826 808 791 782 774 766 766 750 766 735 735 714 675 663 657 657 663 657 663 663 663 675 675 681 687 675 687 675 687 681 675 681 669 681 0 0 675 657 651 634 618 623 623 608 598 598 579 557 0 0 0 533 525 0 0 0 0 0 0 0
    0 0 0 0 0 0 0 0 0 0 0 0 0 0 0 0 0 0 0 0 0 0 0 0 0 0 0 0 0 0 0 0 0 0 0 0 0 0 0 0 0 0 0 0 0 0 0 0 0 0 0 0 0 0 0 0 0 0 0 0 0 0 0 0 0 0 0 0 0 1082 1066 1066 1022 1206 1206 1314 1314 1291 1314 1291 1291 1247 1206 1168 1036 1022 1022 1036 1066 1051 1082 1115 1132 1132 1132 1115 1168 1098 1098 1098 1098 1115 1115 1115 1132 1098 1115 1115 1036 968 931 931 931 943 919 943 955 968 981 1008 1008 1036 1051 1082 0 0 0 0 0 0 0 0 0 0 0 0 0 0 0 0 0 0 0 0 0 0 0 0 0 0 0 0 0 0 0 0 0 0 0 0 0 0 0 0 0 0 0 0 0 0 0 0 0 0 0 0 0 0 0 0 0 0 0 0 0 0 0 0 0 0 0 0 0 0 0 0 0 0 0 0 0 0 0 0 0 0 0 0 0 0 0 0 0 0 0 0 0 1247 1149 1115 1098 1115 1082 1115 1098 1082 1066 1051 1036 1051 1036 1051 1022 1008 1022 1008 1022 1051 1036 1036 1036 1036 1036 1008 1008 1008 1008 981 943 931 931 908 897 886 876 876 865 876 855 826 826 799 791 782 774 774 774 758 774 743 735 714 681 669 663 657 669 663 669 663 669 681 675 681 681 675 675 657 669 663 651 663 651 651 663 681 663 639 629 623 613 629 623 608 603 603 593 588 0 618 588 0 537 521 0 0 0 0 0 0
    0 0 0 0 0 0 0 0 0 0 0 0 0 0 0 0 0 0 0 0 0 0 0 0 0 0 0 0 0 0 0 0 0 0 0 0 0 0 0 0 0 0 0 0 0 0 0 0 0 0 0 0 0 0 0 0 0 0 0 0 0 0 0 0 0 0 0 0 0 1066 1051 1051 1008 1226 1206 1314 1314 1314 1338 1291 1291 1206 1098 1051 981 968 943 994 1008 1022 1051 1098 1132 1132 1149 1132 1187 1115 1115 1115 1098 1098 1115 1098 1098 1051 1022 1022 955 908 886 876 897 897 908 931 955 968 981 981 994 1008 0 0 0 0 0 0 0 0 0 0 0 0 0 0 0 0 0 0 0 0 0 0 0 0 0 0 0 0 0 0 0 0 0 0 0 0 0 0 0 0 0 0 0 0 0 0 0 0 0 0 0 0 0 0 0 0 0 0 0 0 0 0 0 0 0 0 0 0 0 0 0 0 0 0 0 0 0 0 0 0 0 0 0 0 0 0 0 0 0 0 0 0 0 0 0 0 0 1132 1082 1098 1082 1115 1098 1066 1066 1036 1022 1036 1022 1022 1008 1008 1008 994 1008 1008 1008 994 994 1008 994 981 994 994 994 968 955 931 931 919 908 897 886 876 876 865 855 836 817 799 791 782 774 766 766 758 766 743 743 721 687 675 669 663 669 663 669 669 669 681 675 675 681 669 669 645 657 645 634 634 634 629 651 657 651 634 634 629 623 639 629 613 608 603 598 598 608 613 598 593 549 533 0 0 0 0 0 0
    0 0 0 0 0 0 0 0 0 0 0 0 0 0 0 0 0 0 0 0 0 0 0 0 0 0 0 0 0 0 0 0 0 0 0 0 0 0 0 0 0 0 0 0 0 0 0 0 0 0 0 0 0 0 0 0 0 0 0 0 0 0 0 0 0 0 0 0 0 1051 1036 1022 1008 1226 1168 0 0 0 1338 1268 1247 1115 0 1008 968 955 931 981 994 1022 1051 1115 1168 1168 1168 1149 1168 1115 1098 1098 1066 1082 1082 1036 1051 1022 897 886 876 855 855 845 865 886 897 919 943 955 968 968 981 0 0 0 0 0 0 0 0 0 0 0 0 0 0 0 0 0 0 0 0 0 0 0 0 0 0 0 0 0 0 0 0 0 0 0 0 0 0 0 0 0 0 0 0 0 0 0 0 0 0 0 0 0 0 0 0 0 0 0 0 0 0 0 0 0 0 0 0 0 0 0 0 0 0 0 0 0 0 0 0 0 0 0 0 0 0 0 0 0 0 0 0 0 0 0 0 0 0 0 0 1036 1051 1066 1066 1051 1036 1022 981 1008 994 994 994 981 981 981 994 981 968 968 981 955 931 931 955 955 981 968 943 931 931 931 931 908 897 886 876 876 865 836 826 808 791 782 766 766 766 750 766 750 743 728 687 675 669 663 675 663 669 669 669 681 675 675 675 669 669 645 651 639 629 623 629 629 639 634 634 629 623 618 618 629 618 608 603 603 598 603 618 613 603 598 574 541 0 0 0 0 0 0
    0 0 0 0 0 0 0 0 0 0 0 0 0 0 0 0 0 0 0 0 0 0 0 0 0 0 0 0 0 0 0 0 0 0 0 0 0 0 0 0 0 0 0 0 0 0 0 0 0 0 0 0 0 0 0 0 0 0 0 0 0 0 0 0 0 0 0 0 0 1036 1036 1008 0 0 0 0 0 0 0 0 0 1098 0 981 955 943 919 968 981 1008 1008 1098 1115 1132 1149 1098 1098 1082 1051 1051 1036 1036 1022 981 994 955 865 855 845 845 845 836 865 886 886 919 919 943 955 0 0 0 0 0 0 0 0 0 0 0 0 0 0 0 0 0 0 0 0 0 0 0 0 0 0 0 0 0 0 0 0 0 0 0 0 0 0 0 0 0 0 0 0 0 0 0 0 0 0 0 0 0 0 0 0 0 0 0 0 0 0 0 0 0 0 0 0 0 0 0 0 0 0 0 0 0 0 0 0 0 0 0 0 0 0 0 0 0 0 0 0 0 0 0 0 0 0 0 0 0 0 0 0 0 1036 0 1022 981 968 981 968 968 981 981 968 968 981 968 955 955 968 897 886 886 908 931 955 955 943 931 943 931 943 931 908 897 897 897 876 845 826 808 791 782 766 766 766 750 774 758 750 728 694 681 675 669 675 669 669 669 669 681 675 675 675 669 669 657 657 639 629 623 629 629 634 623 618 618 608 608 608 608 608 593 593 588 579 584 598 598 584 574 557 545 0 0 0 0 0 0
    0 0 0 0 0 0 0 0 0 0 0 0 0 0 0 0 0 0 0 0 0 0 0 0 0 0 0 0 0 0 0 0 0 0 0 0 0 0 0 0 0 0 0 0 0 0 0 0 0 0 0 0 0 0 0 0 0 0 0 0 0 0 0 0 0 0 0 0 0 1036 1022 1008 0 0 0 0 0 0 0 0 0 1036 943 943 919 931 897 943 931 943 968 1051 0 1082 1098 1066 1022 1051 1008 1022 981 968 955 897 855 836 817 817 817 817 836 826 855 876 886 897 919 931 0 0 0 0 0 0 0 0 0 0 0 0 0 0 0 0 0 0 0 0 0 0 0 0 0 0 0 0 0 0 0 0 0 0 0 0 0 0 0 0 0 0 0 0 0 0 0 0 0 0 0 0 0 0 0 0 0 0 0 0 0 0 0 0 0 0 0 0 0 0 0 0 0 0 0 0 0 0 0 0 0 0 0 0 0 0 0 0 0 0 0 0 0 0 0 0 0 0 0 0 0 0 0 0 0 0 0 0 1022 955 955 968 955 955 968 968 968 955 968 943 908 908 897 845 855 855 865 886 919 931 931 931 955 931 943 943 931 908 908 908 876 855 836 826 808 791 774 774 766 758 774 766 750 728 694 681 675 669 675 669 669 663 669 675 675 669 669 663 663 651 651 634 629 618 623 618 629 608 603 603 588 588 588 588 584 566 561 566 553 561 574 584 566 557 545 537 0 0 0 0 0 0
    0 0 0 0 0 0 0 0 0 0 0 0 0 0 0 0 0 0 0 0 0 0 0 0 0 0 0 0 0 0 0 0 0 0 0 0 0 0 0 0 0 0 0 0 0 0 0 0 0 0 0 0 0 0 0 0 0 0 0 0 0 0 0 0 0 0 0 0 0 1022 1008 994 981 0 0 931 0 886 886 876 845 865 876 876 886 919 886 919 908 897 931 968 0 994 0 0 0 0 981 955 886 845 845 836 817 799 791 791 799 808 826 826 845 865 876 886 908 0 0 0 0 0 0 0 0 0 0 0 0 0 0 0 0 0 0 0 0 0 0 0 0 0 0 0 0 0 0 0 0 0 0 0 0 0 0 0 0 0 0 0 0 0 0 0 0 0 0 0 0 0 0 0 0 0 0 0 0 0 0 0 0 0 0 0 0 0 0 0 0 0 0 0 0 0 0 0 0 0 0 0 0 0 0 0 0 0 0 0 0 0 0 0 0 0 0 0 0 0 0 0 0 0 0 0 0 0 1036 955 968 968 968 955 968 968 968 943 955 908 876 886 865 826 836 836 845 855 886 908 908 919 943 931 931 943 931 908 897 908 876 865 836 836 808 799 782 774 774 758 774 766 750 728 694 687 681 675 675 669 669 669 669 675 675 669 663 657 657 645 651 634 623 618 618 618 623 608 603 598 566 557 553 561 561 553 545 553 545 549 561 566 553 549 541 537 529 0 0 0 0 0
    0 0 0 0 0 0 0 0 0 0 0 0 0 0 0 0 0 0 0 0 0 0 0 0 0 0 0 0 0 0 0 0 0 0 0 0 0 0 0 0 0 0 0 0 0 0 0 0 0 0 0 0 0 0 0 0 0 0 0 0 0 0 0 0 0 0 0 0 0 994 968 955 943 919 897 876 836 836 836 836 826 836 845 845 876 908 886 908 897 897 919 955 968 968 981 0 0 0 908 0 0 799 799 808 791 782 774 774 791 808 826 826 836 845 855 876 0 0 0 0 0 0 0 0 0 0 0 0 0 0 0 0 0 0 0 0 0 0 0 0 0 0 0 0 0 0 0 0 0 0 0 0 0 0 0 0 0 0 0 0 0 0 0 0 0 0 0 0 0 0 0 0 0 0 0 0 0 0 0 0 0 0 0 0 0 0 0 0 0 0 0 0 0 0 0 0 0 0 0 0 0 0 0 0 0 0 0 0 0 0 0 0 0 0 0 0 0 0 0 0 0 0 0 0 0 0 1036 931 968 968 943 931 968 968 943 919 919 876 855 855 836 808 808 808 826 845 865 886 897 897 931 919 931 943 931 908 897 897 876 865 836 836 808 799 782 766 774 758 774 766 750 728 700 694 687 687 681 681 675 675 675 681 681 669 663 663 657 645 651 639 629 623 618 618 618 603 593 588 553 549 545 549 549 545 541 549 541 549 553 553 541 545 537 533 533 0 0 0 0 0
    0 0 0 0 0 0 0 0 0 0 0 0 0 0 0 0 0 0 0 0 0 0 0 0 0 0 0 0 0 0 0 0 0 0 0 0 0 0 0 0 0 0 0 0 0 0 0 0 0 0 0 0 0 0 0 0 0 0 0 0 0 0 0 0 0 0 0 0 0 968 931 919 886 876 865 855 826 826 826 826 826 826 836 836 855 886 876 886 876 886 908 0 931 931 943 0 0 0 0 799 774 782 774 782 774 766 766 766 791 799 817 817 817 836 0 0 0 0 0 0 0 0 0 0 0 0 0 0 0 0 0 0 0 0 0 0 0 0 0 0 0 0 0 0 0 0 0 0 0 0 0 0 0 0 0 0 0 0 0 0 0 0 0 0 0 0 0 0 0 0 0 0 0 0 0 0 0 0 0 0 0 0 0 0 0 0 0 0 0 0 0 0 0 0 0 0 0 0 0 0 0 0 0 0 0 0 0 0 0 0 0 0 0 0 0 0 0 0 0 0 0 0 0 0 0 0 0 931 981 968 943 919 955 968 943 908 908 855 845 836 826 799 799 799 817 817 845 855 865 865 897 886 897 908 897 886 908 886 876 865 845 845 817 808 791 774 782 774 782 782 766 743 714 707 700 694 687 687 681 675 675 681 681 669 663 663 657 645 645 634 629 618 618 613 613 598 593 579 549 549 545 549 545 541 537 541 537 545 549 549 541 541 537 537 537 0 0 0 0 0
    0 0 0 0 0 0 0 0 0 0 0 0 0 0 0 0 0 0 0 0 0 0 0 0 0 0 0 0 0 0 0 0 0 0 0 0 0 0 0 0 0 0 0 0 0 0 0 0 0 0 0 0 0 0 0 0 0 0 0 0 0 0 0 0 0 0 0 0 0 931 908 886 865 845 836 836 808 799 808 817 826 826 836 826 845 865 865 0 0 0 0 0 876 865 836 0 0 758 782 774 766 774 766 766 766 766 758 766 782 791 799 799 808 0 0 0 0 0 0 0 0 0 0 0 0 0 0 0 0 0 0 0 0 0 0 0 0 0 0 0 0 0 0 0 0 0 0 0 0 0 0 0 0 0 0 0 0 0 0 0 0 0 0 0 0 0 0 0 0 0 0 0 0 0 0 0 0 0 0 0 0 0 0 0 0 0 0 0 0 0 0 0 0 0 0 0 0 0 0 0 0 0 0 0 0 0 0 0 0 0 0 0 0 0 0 0 0 0 0 0 0 0 0 0 0 0 0 0 994 955 943 897 955 955 931 897 886 855 836 836 826 808 808 799 817 817 836 845 845 845 855 855 855 855 865 865 897 886 876 876 876 876 836 817 808 791 791 774 782 782 766 743 721 714 707 700 694 694 687 681 681 681 681 669 663 663 657 639 639 629 623 618 618 618 618 608 598 593 557 553 549 553 549 541 537 541 537 545 545 545 537 537 537 537 537 0 0 0 0 0
    0 0 0 0 0 0 0 0 0 0 0 0 0 0 0 0 0 0 0 0 0 0 0 0 0 0 0 0 0 0 0 0 0 0 0 0 0 0 0 0 0 0 0 0 0 0 0 0 0 0 0 0 0 0 0 0 0 0 0 0 0 0 0 0 0 0 0 0 0 897 886 865 845 836 826 826 808 791 808 817 826 836 845 826 855 865 865 0 0 0 855 817 845 826 791 700 700 735 743 758 750 758 758 766 774 774 766 774 774 782 799 799 0 0 0 0 0 0 0 0 0 0 0 0 0 0 0 0 0 0 0 0 0 0 0 0 0 0 0 0 0 0 0 0 0 0 0 0 0 0 0 0 0 0 0 0 0 0 0 0 0 0 0 0 0 0 0 0 0 0 0 0 0 0 0 0 0 0 0 0 0 0 0 0 0 0 0 0 0 0 0 0 0 0 0 0 0 0 0 0 0 0 0 0 0 0 0 0 0 0 0 0 0 0 0 0 0 0 0 0 0 0 0 0 0 0 0 0 0 968 955 886 955 955 931 897 886 855 836 836 826 808 808 808 817 817 826 836 836 836 836 836 836 836 845 826 845 836 836 855 845 855 826 817 808 799 791 774 782 791 766 750 728 721 707 700 694 687 687 681 681 681 681 669 669 663 663 651 651 639 634 629 629 623 629 608 603 598 566 557 553 553 549 541 533 537 537 545 541 541 533 533 533 529 529 0 0 0 0 0
    0 0 0 0 0 0 0 0 0 0 0 0 0 0 0 0 0 0 0 0 0 0 0 0 0 0 0 0 0 0 0 0 0 0 0 0 0 0 0 0 0 0 0 0 0 0 0 0 0 0 0 0 0 0 0 0 0 0 0 0 0 0 0 0 0 0 0 0 0 876 865 855 845 836 836 826 817 808 817 817 826 826 836 817 826 826 826 836 826 0 826 799 817 799 782 728 721 750 750 750 750 758 766 766 766 766 758 758 758 766 0 0 0 0 0 0 0 0 0 0 0 0 0 0 0 0 0 0 0 0 0 0 0 0 0 0 0 0 0 0 0 0 0 0 0 0 0 0 0 0 0 0 0 0 0 0 0 0 0 0 0 0 0 0 0 0 0 0 0 0 0 0 0 0 0 0 0 0 0 0 0 0 0 0 0 0 0 0 0 0 0 0 0 0 0 0 0 0 0 0 0 0 0 0 0 0 0 0 0 0 0 0 0 0 0 0 0 0 0 0 0 0 0 0 0 0 0 0 0 0 0 865 943 943 908 876 876 845 836 836 826 808 799 808 817 808 826 826 817 826 817 817 817 808 808 799 817 826 826 855 855 855 845 836 826 817 808 791 791 799 774 750 721 721 707 694 694 687 681 675 675 681 681 669 669 663 663 657 657 651 651 634 634 623 623 608 598 598 574 561 557 553 545 541 533 533 533 541 541 541 529 529 529 525 525 0 0 0 0 0
    0 0 0 0 0 0 0 0 0 0 0 0 0 0 0 0 0 0 0 0 0 0 0 0 0 0 0 0 0 0 0 0 0 0 0 0 0 0 0 0 0 0 0 0 0 0 0 0 0 0 0 0 0 0 0 0 0 0 0 0 0 0 0 0 0 0 0 0 0 865 855 855 845 845 836 826 817 808 808 817 817 826 826 799 799 808 817 826 817 817 817 791 799 791 774 735 728 743 735 743 743 750 758 750 766 766 758 766 766 0 0 0 0 0 0 0 0 0 0 0 0 0 0 0 0 0 0 0 0 0 0 0 0 0 0 0 0 0 0 0 0 0 0 0 0 0 0 0 0 0 0 0 0 0 0 0 0 0 0 0 0 0 0 0 0 0 0 0 0 0 0 0 0 0 0 0 0 0 0 0 0 0 0 0 0 0 0 0 0 0 0 0 0 0 0 0 0 0 0 0 0 0 0 0 0 0 0 0 0 0 0 0 0 0 0 0 0 0 0 0 0 0 0 0 0 0 0 0 0 0 0 0 955 955 908 865 855 836 817 817 817 799 799 799 808 799 817 817 817 817 808 808 799 799 799 782 799 791 808 836 836 836 836 836 836 826 817 791 791 791 766 743 721 721 714 700 694 681 681 669 675 675 675 669 663 663 663 657 663 663 663 645 645 629 629 613 603 598 584 570 557 553 545 537 529 529 525 533 533 537 525 525 521 521 525 0 0 0 0 0
    0 0 0 0 0 0 0 0 0 0 0 0 0 0 0 0 0 0 0 0 0 0 0 0 0 0 0 0 0 0 0 0 0 0 0 0 0 0 0 0 0 0 0 0 0 0 0 0 0 0 0 0 0 0 0 0 0 0 0 0 0 0 0 0 0 0 0 0 0 855 845 845 845 836 836 817 817 808 808 826 826 836 836 808 808 808 817 826 808 799 799 766 774 774 750 728 721 728 728 735 735 743 743 750 750 750 750 750 0 0 0 0 0 0 0 0 0 0 0 0 0 0 0 0 0 0 0 0 0 0 0 0 0 0 0 0 0 0 0 0 0 0 0 0 0 0 0 0 0 0 0 0 0 0 0 0 0 0 0 0 0 0 0 0 0 0 0 0 0 0 0 0 0 0 0 0 0 0 0 0 0 0 0 0 0 0 0 0 0 0 0 0 0 0 0 0 0 0 0 0 0 0 0 0 0 0 0 0 0 0 0 0 0 0 0 0 0 0 0 0 0 0 0 0 0 0 0 0 0 0 0 0 0 994 908 855 865 826 817 817 817 799 799 799 799 782 808 791 799 799 791 791 782 791 782 766 791 766 774 817 817 817 817 817 826 817 808 799 782 782 758 743 721 728 721 707 700 694 687 681 681 681 681 675 669 669 669 663 663 669 669 657 651 634 629 618 608 608 598 584 566 557 549 541 529 525 525 533 533 537 525 521 525 521 525 0 0 0 0 0
    0 0 0 0 0 0 0 0 0 0 0 0 0 0 0 0 0 0 0 0 0 0 0 0 0 0 0 0 0 0 0 0 0 0 0 0 0 0 0 0 0 0 0 0 0 0 0 0 0 0 0 0 0 0 0 0 0 0 0 0 0 0 0 0 0 0 0 0 0 845 836 836 836 836 826 817 808 799 799 817 826 826 817 791 782 791 799 808 782 758 774 750 758 758 750 728 728 735 735 735 735 750 750 750 750 758 0 0 0 0 0 0 0 0 0 0 0 0 0 0 0 0 0 0 0 0 0 0 0 0 0 0 0 0 0 0 0 0 0 0 0 0 0 0 0 0 0 0 0 0 0 0 0 0 0 0 0 0 0 0 0 0 0 0 0 0 0 0 0 0 0 0 0 0 0 0 0 0 0 0 0 0 0 0 0 0 0 0 0 0 0 0 0 0 0 0 0 0 0 0 0 0 0 0 0 0 0 0 0 0 0 0 0 0 0 0 0 0 0 0 0 0 0 0 0 0 0 0 0 0 0 0 0 1022 943 865 865 826 826 826 826 808 799 799 799 791 808 782 791 791 774 782 782 774 766 750 774 750 758 799 791 791 799 808 817 808 791 799 791 782 766 743 728 728 728 714 707 700 694 694 694 694 694 687 681 681 681 669 669 681 681 669 657 645 634 623 613 618 608 593 579 574 557 545 537 529 533 533 533 541 525 521 521 518 525 0 0 0 0 0
    0 0 0 0 0 0 0 0 0 0 0 0 0 0 0 0 0 0 0 0 0 0 0 0 0 0 0 0 0 0 0 0 0 0 0 0 0 0 0 0 0 0 0 0 0 0 0 0 0 0 0 0 0 0 0 0 0 0 0 0 0 0 0 0 0 0 0 0 0 836 826 826 817 817 817 808 799 791 774 799 808 808 799 743 735 758 782 774 735 728 750 743 750 750 743 728 735 750 743 743 750 750 750 743 750 0 0 0 0 0 0 0 0 0 0 0 0 0 0 0 0 0 0 0 0 0 0 0 0 0 0 0 0 0 0 0 0 0 0 0 0 0 0 0 0 0 0 0 0 0 0 0 0 0 0 0 0 0 0 0 0 0 0 0 0 0 0 0 0 0 0 0 0 0 0 0 0 0 0 0 0 0 0 0 0 0 0 0 0 0 0 0 0 0 0 0 0 0 0 0 0 0 0 0 0 0 0 0 0 0 0 0 0 0 0 0 0 0 0 0 0 0 0 0 0 0 0 0 0 0 0 0 0 0 981 865 876 836 826 826 826 808 808 808 808 791 808 774 791 782 758 774 766 766 758 743 766 743 750 782 774 766 774 791 799 799 782 799 791 782 782 758 728 728 728 714 714 707 700 707 700 707 700 700 694 694 687 681 675 681 681 663 657 639 634 618 608 618 608 603 598 593 570 549 537 529 537 525 521 529 521 518 518 514 525 0 0 0 0 0
    0 0 0 0 0 0 0 0 0 0 0 0 0 0 0 0 0 0 0 0 0 0 0 0 0 0 0 0 0 0 0 0 0 0 0 0 0 0 0 0 0 0 0 0 0 0 0 0 0 0 0 0 0 0 0 0 0 0 0 0 0 0 0 0 0 0 0 0 0 817 817 817 817 808 808 799 799 791 774 0 791 774 774 728 714 735 750 735 721 721 743 735 735 743 735 728 735 750 743 750 758 758 766 758 0 0 0 0 0 0 0 0 0 0 0 0 0 0 0 0 0 0 0 0 0 0 0 0 0 0 0 0 0 0 0 0 0 0 0 0 0 0 0 0 0 0 0 0 0 0 0 0 0 0 0 0 0 0 0 0 0 0 0 0 0 0 0 0 0 0 0 0 0 0 0 0 0 0 0 0 0 0 0 0 0 0 0 0 0 0 0 0 0 0 0 0 0 0 0 0 0 0 0 0 0 0 0 0 0 0 0 0 0 0 0 0 0 0 0 0 0 0 0 0 0 0 0 0 0 0 0 0 0 0 0 994 968 919 855 855 845 836 826 826 817 808 808 782 782 774 743 758 758 750 743 735 750 743 743 782 766 758 766 782 782 782 766 791 774 766 782 758 721 728 721 714 714 714 707 707 707 707 707 714 700 700 694 687 681 687 675 657 639 629 623 613 603 608 603 598 598 593 584 557 541 529 541 514 504 511 511 497 0 0 0 0 0 0 0 0
    0 0 0 0 0 0 0 0 0 0 0 0 0 0 0 0 0 0 0 0 0 0 0 0 0 0 0 0 0 0 0 0 0 0 0 0 0 0 0 0 0 0 0 0 0 0 0 0 0 0 0 0 0 0 0 0 0 0 0 0 0 0 0 0 0 0 0 0 0 799 799 808 808 799 799 782 782 766 743 758 758 728 721 714 700 721 735 728 721 721 735 728 728 735 735 728 735 750 750 743 758 766 0 0 0 0 0 0 0 0 0 0 0 0 0 0 0 0 0 0 0 0 0 0 0 0 0 0 0 0 0 0 0 0 0 0 0 0 0 0 0 0 0 0 0 0 0 0 0 0 0 0 0 0 0 0 0 0 0 0 0 0 0 0 0 0 0 0 0 0 0 0 0 0 0 0 0 0 0 0 0 0 0 0 0 0 0 0 0 0 0 0 0 0 0 0 0 0 0 0 0 0 0 0 0 0 0 0 0 0 0 0 0 0 0 0 0 0 0 0 0 0 0 0 0 0 0 0 0 0 0 0 0 0 0 0 0 1008 865 897 865 845 845 845 836 817 817 791 782 766 735 750 750 743 735 735 743 735 743 774 750 743 743 750 743 735 728 735 728 728 735 728 714 728 735 735 721 714 714 714 707 707 707 707 700 700 694 687 681 687 681 657 639 629 623 613 603 608 603 598 598 593 584 561 545 537 0 507 500 500 504 0 0 0 0 0 0 0 0 0
    0 0 0 0 0 0 0 0 0 0 0 0 0 0 0 0 0 0 0 0 0 0 0 0 0 0 0 0 0 0 0 0 0 0 0 0 0 0 0 0 0 0 0 0 0 0 0 0 0 0 0 0 0 0 0 0 0 0 0 0 0 0 0 0 0 0 0 0 0 782 782 791 791 774 774 750 0 735 714 721 728 707 707 707 694 714 721 714 714 714 721 721 721 728 728 721 735 743 743 743 758 0 0 0 0 0 0 0 0 0 0 0 0 0 0 0 0 0 0 0 0 0 0 0 0 0 0 0 0 0 0 0 0 0 0 0 0 0 0 0 0 0 0 0 0 0 0 0 0 0 0 0 0 0 0 0 0 0 0 0 0 0 0 0 0 0 0 0 0 0 0 0 0 0 0 0 0 0 0 0 0 0 0 0 0 0 0 0 0 0 0 0 0 0 0 0 0 0 0 0 0 0 0 0 0 0 0 0 0 0 0 0 0 0 0 0 0 0 0 0 0 0 0 0 0 0 0 0 0 0 0 0 0 0 0 0 0 0 886 908 876 855 845 855 836 826 817 791 782 766 735 750 743 743 735 735 735 728 735 766 735 728 728 735 728 721 714 728 721 721 735 728 728 735 766 791 728 735 728 735 721 721 714 714 707 700 694 687 675 681 669 639 0 0 618 613 603 0 603 598 593 588 574 553 545 537 533 507 504 518 521 0 0 0 0 0 0 0 0 0
    0 0 0 0 0 0 0 0 0 0 0 0 0 0 0 0 0 0 0 0 0 0 0 0 0 0 0 0 0 0 0 0 0 0 0 0 0 0 0 0 0 0 0 0 0 0 0 0 0 0 0 0 0 0 0 0 0 0 0 0 0 0 0 0 0 0 0 0 0 799 808 799 791 774 782 750 0 728 700 707 714 700 694 694 687 700 707 700 700 700 707 707 714 721 728 735 743 750 758 0 0 0 0 0 0 0 0 0 0 0 0 0 0 0 0 0 0 0 0 0 0 0 0 0 0 0 0 0 0 0 0 0 0 0 0 0 0 0 0 0 0 0 0 0 0 0 0 0 0 0 0 0 0 0 0 0 0 0 0 0 0 0 0 0 0 0 0 0 0 0 0 0 0 0 0 0 0 0 0 0 0 0 0 0 0 0 0 0 0 0 0 0 0 0 0 0 0 0 0 0 0 0 0 0 0 0 0 0 0 0 0 0 0 0 0 0 0 0 0 0 0 0 0 0 0 0 0 0 0 0 0 0 0 0 0 0 0 0 0 897 897 865 865 855 836 836 808 782 774 750 728 743 735 735 721 728 728 721 728 743 728 721 728 728 728 714 714 721 721 728 735 728 735 735 774 808 750 743 721 728 721 721 721 714 707 700 694 681 663 663 639 623 618 618 613 608 598 608 603 598 598 584 566 549 541 525 518 500 504 518 529 0 0 0 0 0 0 0 0 0
    0 0 0 0 0 0 0 0 0 0 0 0 0 0 0 0 0 0 0 0 0 0 0 0 0 0 0 0 0 0 0 0 0 0 0 0 0 0 0 0 0 0 0 0 0 0 0 0 0 0 0 0 0 0 0 0 0 0 0 0 0 0 0 0 0 0 0 0 0 799 799 0 0 0 0 721 0 707 687 687 694 681 675 675 669 681 687 687 687 687 700 700 707 721 721 721 735 743 0 0 0 0 0 0 0 0 0 0 0 0 0 0 0 0 0 0 0 0 0 0 0 0 0 0 0 0 0 0 0 0 0 0 0 0 0 0 0 0 0 0 0 0 0 0 0 0 0 0 0 0 0 0 0 0 0 0 0 0 0 0 0 0 0 0 0 0 0 0 0 0 0 0 0 0 0 0 0 0 0 0 0 0 0 0 0 0 0 0 0 0 0 0 0 0 0 0 0 0 0 0 0 0 0 0 0 0 0 0 0 0 0 0 0 0 0 0 0 0 0 0 0 0 0 0 0 0 0 0 0 0 0 0 0 0 0 0 0 0 0 0 931 955 968 897 836 855 826 791 782 750 728 735 728 735 721 728 721 721 721 735 721 721 721 721 721 714 707 721 714 714 721 714 721 721 735 782 728 728 728 735 728 721 721 714 700 700 694 681 657 657 634 623 618 613 613 603 598 603 603 598 598 579 561 545 0 541 533 514 514 521 0 0 0 0 0 0 0 0 0 0</data></depth>
</opencv_storage>
