<?xml version="1.0"?>
<opencv_storage>
<gps_time_stamp>279071</gps_time_stamp>
<gps_x>-1.3950132369995117e+001</gps_x>
<gps_y>1.1268563270568848e+001</gps_y>
<gps_z>-2.2886161804199219e+000</gps_z>
<image_time_stamp>269960</image_time_stamp>
<depth type_id="opencv-matrix">
  <rows>77</rows>
  <cols>320</cols>
  <dt>s</dt>
  <data>
    0 0 0 0 0 0 0 0 0 0 0 0 0 0 0 0 0 0 0 0 0 0 0 0 0 0 0 0 0 0 0 0 0 0 0 0 0 0 0 0 0 0 0 0 0 0 0 0 0 0 0 0 0 0 0 0 0 0 0 0 0 0 0 0 0 0 0 0 0 2830 3066 3066 2830 2943 0 2830 2830 2830 2537 2537 2374 2537 2299 2453 2537 2453 2537 2830 2725 2453 2628 2628 2725 2628 2628 2628 2725 2537 2830 2725 2830 2628 2628 2725 2830 0 0 0 3679 3345 0 0 0 0 109 109 0 2453 2453 2943 2725 2830 2537 1936 2374 1887 1989 1989 2830 3199 0 2943 2537 2374 2453 2628 2628 2453 2374 2453 0 2044 2374 2453 2374 2299 2374 2374 2374 2537 2830 2628 2537 2374 2830 2044 2453 2299 2374 2374 2374 2374 2537 2537 2943 2725 2943 2164 2537 2374 2537 2628 2537 2628 2725 2725 3199 2830 3199 2943 2830 2044 2374 2299 2299 2374 2537 2453 2374 2453 2943 2725 2943 2830 2628 2537 2453 2628 2537 0 0 0 0 0 2164 2044 2299 2299 1887 2044 2299 2299 2164 2230 2299 2230 2230 2453 2537 2164 2164 2725 2102 1795 1672 1599 1533 1533 1501 1635 0 0 0 0 0 0 0 0 0 0 0 0 297 0 0 1989 2044 1989 1936 2044 2044 2044 1936 1936 1936 1839 1936 1989 1839 1839 1887 1936 1887 1839 1989 1839 1839 1936 1936 1795 1752 1887 1711 1471 1388 1338 1388 1362 1388 1471 1443 1443 1471 1501 1533 1443 1501 1501 1415 1415 1415 1362 1362 1338 1362 1291 1268 1132 1022 981 919 981 1008 1008 1022 1022 1022 1022 1022 994 981 968 955 943 919 0 0 0 0 0
    0 0 0 0 0 0 0 0 0 0 0 0 0 0 0 0 0 0 0 0 0 0 0 0 0 0 0 0 0 0 0 0 0 0 0 0 0 0 0 0 0 0 0 0 0 0 0 0 0 0 0 0 0 0 0 0 0 0 0 0 0 0 0 0 0 0 0 0 0 2725 3066 3066 2830 2830 0 2830 2830 2830 2537 2537 2374 2537 2374 2453 2628 2537 2628 2830 2725 2537 2628 2628 2725 2725 2628 2628 2725 2537 2830 2725 2830 2628 2725 2725 2725 2830 0 0 3345 3199 0 0 0 0 109 109 2628 2453 2537 2943 2725 2830 2537 1887 2102 1839 1839 1795 0 2830 2374 2537 2374 2299 2299 2374 2374 2299 2164 2164 1887 1989 2299 2299 2299 2230 2299 2299 2374 2537 2943 2943 2830 2628 2943 2230 2537 2453 2453 2453 2374 2453 2537 2537 3066 2943 3066 2374 2628 2537 2628 2628 2628 2628 2628 2725 3199 2830 3066 2830 2725 2044 2374 2299 2299 2374 2453 2453 2374 2374 2943 2725 2943 2725 2453 2453 2374 2628 2628 0 0 0 0 0 2164 2102 2299 2230 1887 2044 2299 2299 2164 2230 2230 2230 2230 2453 2537 2164 2164 2628 1989 1795 1711 1635 1599 1565 1533 1711 0 0 0 0 0 0 0 0 0 0 0 0 295 0 0 1936 1989 1936 1936 1989 1989 1989 1936 1936 1936 1839 1936 1989 1887 1887 1936 1936 1887 1887 1989 1839 1839 1887 1887 1752 1711 1795 1672 1443 1388 1338 1388 1362 1388 1471 1443 1443 1471 1471 1533 1443 1501 1501 1415 1415 1415 1388 1362 1362 1388 1291 1226 1066 1008 994 955 994 1008 1008 1008 1022 1008 1008 1008 968 955 955 943 931 908 0 0 0 0 0
    0 0 0 0 0 0 0 0 0 0 0 0 0 0 0 0 0 0 0 0 0 0 0 0 0 0 0 0 0 0 0 0 0 0 0 0 0 0 0 0 0 0 0 0 0 0 0 0 0 0 0 0 0 0 0 0 0 0 0 0 0 0 0 0 0 0 0 0 0 2628 3066 3066 2830 2830 2830 2830 2830 2725 2628 2537 2453 2537 2374 2453 2537 2537 2628 2830 2725 2537 2628 2725 2725 2725 2725 2628 2725 2537 2943 2725 2830 2628 2725 2725 2725 2830 0 3199 3345 3199 0 0 0 0 0 108 2628 2453 2537 2943 2830 2830 2628 2044 2102 1887 1887 1839 1887 0 2628 2725 2537 2537 2537 2628 2537 2299 2164 2044 1887 1936 2164 2164 2164 2102 2164 2230 2374 2537 2943 3066 3066 2943 3066 2453 2628 2537 2537 2537 2453 2453 2628 2628 3199 3066 3066 2537 2725 2537 2628 2628 2628 2628 2628 2725 3345 2725 2943 2725 2537 1989 2299 2230 2230 2299 2453 2374 2374 2374 2830 2537 2943 2725 2299 2299 2299 2725 2830 0 0 0 0 2102 2164 2164 2299 2230 1887 2044 2299 2299 2164 2230 2230 2230 2230 2453 2537 2164 2164 2725 1887 1795 1752 1711 1672 1635 1635 1839 0 0 0 0 0 0 0 0 0 0 0 0 0 0 1752 1936 1989 1936 1887 1989 1989 1989 1936 1936 1936 1839 1989 1989 1887 1887 1936 1936 1887 1887 1989 1839 1839 1887 1839 1752 1711 1795 1635 1471 1415 1338 1415 1388 1362 1471 1443 1443 1471 1471 1533 1443 1501 1533 1443 1443 1443 1415 1388 1362 1388 1268 1098 1051 1022 1008 981 1008 1008 1008 1008 1008 1008 994 994 955 943 943 931 919 897 0 0 0 0 0
    0 0 0 0 0 0 0 0 0 0 0 0 0 0 0 0 0 0 0 0 0 0 0 0 0 0 0 0 0 0 0 0 0 0 0 0 0 0 0 0 0 0 0 0 0 0 0 0 0 0 0 0 0 0 0 0 0 0 0 0 0 0 0 0 0 0 0 0 0 2537 2943 2943 2725 2725 2725 2725 2725 2628 2628 2537 2453 2537 2453 2453 2537 2537 2628 2830 2725 2453 2725 2725 2725 2725 2725 2628 2725 2628 2943 2725 2830 2628 2725 2725 2725 2830 2943 3199 3345 3066 0 2830 2830 0 0 108 2537 2374 2453 2943 2725 2830 2628 1989 2044 1887 2044 1936 2943 3066 3066 3066 2830 2830 2830 2830 2830 0 0 1989 0 1887 2102 2102 2102 2044 2102 2164 2374 2537 3066 3199 3066 3066 3199 2453 2628 2537 2453 2453 2374 2453 2537 2628 3199 3066 3066 2628 2725 2628 2725 2725 2725 2628 2628 2725 3345 2628 2943 2628 2374 1936 2230 2164 2164 2230 2374 2374 2374 2374 2830 2537 2830 2725 2374 2230 2299 2628 2725 0 2628 0 2299 2044 2230 2164 2299 2164 1887 2044 2230 2299 2164 2230 2230 2230 2230 2453 2537 2164 2164 2725 1795 1795 1752 1752 1672 1672 1672 1936 2164 2830 2725 0 0 0 0 0 0 0 0 0 0 0 1711 1887 1936 1887 1887 1989 1989 1989 1936 1936 1936 1839 1989 1989 1887 1936 1936 1936 1936 1887 1989 1839 1839 1887 1839 1752 1711 1752 1635 1501 1443 1338 1415 1388 1362 1471 1471 1443 1471 1471 1533 1443 1501 1565 1443 1443 1443 1388 1388 1338 1362 1226 1051 1051 1022 1008 1008 1008 1022 1008 1008 1022 1008 981 994 955 943 943 931 919 897 0 0 0 0 0
    0 0 0 0 0 0 0 0 0 0 0 0 0 0 0 0 0 0 0 0 0 0 0 0 0 0 0 0 0 0 0 0 0 0 0 0 0 0 0 0 0 0 0 0 0 0 0 0 0 0 0 0 0 0 0 0 0 0 0 0 0 0 0 0 0 0 0 0 0 2453 2830 2830 2628 2628 2628 2628 2628 2537 2628 2537 2374 2537 2453 2453 2537 2453 2628 2725 2725 2537 2725 2725 2725 2725 2725 2628 2725 2628 2943 2725 2943 2628 2725 2725 2725 2830 2943 3199 3199 3066 2725 2725 2725 0 0 0 2453 2299 2453 2830 2628 2725 2537 1887 1839 1795 1989 1989 0 3199 3345 3345 3066 3066 3345 3066 0 0 0 1936 0 1795 1989 2044 1989 1989 2044 2102 2374 2537 3066 3199 3066 3066 3199 2453 2628 2453 2453 2453 2374 2453 2537 2628 3345 3199 3199 2725 2830 2725 2830 2725 2725 2725 2725 2830 3345 2628 2830 2537 2230 1936 2164 2102 2102 2164 2374 2374 2374 2374 2830 2537 2943 2830 2537 2299 2374 2628 2725 2830 2628 2537 2299 2102 2453 2299 2374 2164 1887 2044 2230 2299 2164 2230 2230 2230 2230 2453 2537 2102 2102 2725 1795 1795 1752 1752 1635 1635 1599 1887 2164 2725 2725 2943 3066 3066 0 0 0 0 0 0 0 0 1752 1887 1936 1887 1887 1989 1989 1989 1936 1936 1936 1839 1989 1989 1887 1936 1989 1989 1936 1936 2044 1839 1839 1839 1795 1711 1672 1711 1599 1533 1501 1362 1443 1415 1362 1471 1471 1443 1471 1471 1533 1471 1501 1565 1415 1415 1443 1388 1362 1338 1314 1187 1036 1051 1036 1022 1022 1022 1022 1008 1008 1036 1008 981 994 955 943 955 931 931 908 0 0 0 0 0
    0 0 0 0 0 0 0 0 0 0 0 0 0 0 0 0 0 0 0 0 0 0 0 0 0 0 0 0 0 0 0 0 0 0 0 0 0 0 0 0 0 0 0 0 0 0 0 0 0 0 0 0 0 0 0 0 0 0 0 0 0 0 0 0 0 0 0 0 0 2453 2830 2830 2628 2628 2628 2628 2628 2537 2628 2537 2453 2628 2537 2628 2628 2628 2830 2830 2725 2537 2725 2725 2725 2725 2725 2628 2725 2628 2943 2725 2830 2628 2725 2725 2725 2725 2943 3199 3199 2943 2628 2725 2628 0 0 0 2453 2230 2453 2943 2725 2830 2628 1936 1795 1752 0 2453 3345 3504 3345 3504 3345 3199 3504 0 0 0 0 1839 0 1752 1887 1936 1887 1887 1936 1989 2164 2374 3066 3199 3066 3066 3199 2537 2628 2537 2537 2537 2453 2374 2537 2628 3504 3199 3345 2830 2943 2830 2943 2943 2830 2830 2830 2830 3345 2453 2537 2374 2164 1936 2164 2102 2164 2164 2374 2453 2374 2374 2830 2537 2943 2943 2537 2299 2537 2628 2830 2943 2725 2628 2537 2453 2725 2628 2628 2230 1936 2044 2230 2299 2164 2230 2230 2230 2230 2374 2537 2102 2102 2725 1795 1795 1795 1752 0 1672 1635 1839 1936 2537 2725 3066 3199 3199 0 0 0 0 0 0 0 0 1795 1887 1936 1887 1936 1989 1989 1989 1936 1989 1936 1887 2044 2044 1936 1936 1989 1989 1936 1936 2044 1795 1795 1839 1752 1672 1672 1711 1599 1599 1565 1415 1501 1471 1362 1501 1501 1471 1471 1471 1501 1471 1471 1565 1415 1415 1443 1388 1362 1314 1314 1168 1036 1051 1036 1022 1022 1022 1022 1022 1008 1036 1008 981 994 955 931 943 931 931 908 0 0 0 0 0
    0 0 0 0 0 0 0 0 0 0 0 0 0 0 0 0 0 0 0 0 0 0 0 0 0 0 0 0 0 0 0 0 0 0 0 0 0 0 0 0 0 0 0 0 0 0 0 0 0 0 0 0 0 0 0 0 0 0 0 0 0 0 0 0 0 0 0 0 0 2453 2725 2725 2537 2628 2628 2628 2628 2537 2628 2537 2537 2628 2628 2725 2725 2725 2830 2830 2725 2628 2725 2725 2725 2725 2725 2725 2725 2537 2830 2628 2830 2537 2537 2537 2628 2628 2830 3199 3199 2830 2537 2628 2628 0 0 0 2453 2230 2537 2943 2725 2830 2725 1989 1839 1752 0 0 3679 3873 3504 3679 3199 2943 3345 0 0 0 0 0 0 1711 1839 1839 1839 1839 1839 1887 1989 2164 2943 3199 3199 3199 3199 2537 2628 2453 2453 2453 2374 2299 2453 2628 3504 3199 3199 2830 2943 2830 2943 2943 2830 2725 2830 2725 3345 2230 2164 2164 2044 1936 2164 2164 2164 2230 2374 2537 2453 2453 2830 2299 2830 2830 2299 2102 2453 2628 2725 2943 2628 2537 2374 2374 2537 2537 2537 2164 1989 2044 2230 2299 2164 2230 2230 2164 2230 2374 2537 2102 2102 2628 1795 1795 1795 1752 0 1672 1635 1795 1711 0 1989 2628 3066 3199 0 0 0 0 2725 0 0 1795 1839 1887 1936 1887 1936 1989 1989 1989 1936 1989 1989 1887 2044 2044 1989 1989 2044 1989 1936 1936 2044 1795 1795 1795 1752 1672 1672 1711 1635 1599 1599 1471 1565 1533 1362 1533 1501 1471 1471 1471 1501 1471 1471 1565 1415 1415 1443 1388 1388 1338 1314 1187 1051 1051 1036 1022 1022 1022 1022 1022 1008 1036 994 981 981 943 931 943 931 931 908 0 0 0 0 0
    0 0 0 0 0 0 0 0 0 0 0 0 0 0 0 0 0 0 0 0 0 0 0 0 0 0 0 0 0 0 0 0 0 0 0 0 0 0 0 0 0 0 0 0 0 0 0 0 0 0 0 0 0 0 0 0 0 0 0 0 0 0 0 0 0 0 0 0 0 2537 2830 2830 2537 2628 2628 2628 2628 2453 2725 2628 2628 2725 2725 2725 2725 2725 2943 2725 2725 2537 2725 2628 2830 2725 2725 2628 2725 2537 2830 2628 2725 2453 2537 2453 2537 2628 2725 3066 3066 0 2374 2537 2537 0 0 0 2453 2299 2628 2943 2725 2943 2830 2164 1936 1839 0 0 3873 3873 3679 3679 3199 2830 3066 0 0 0 0 0 260 1711 0 1839 1839 1839 1839 1839 0 0 3066 3345 3345 3345 3345 2628 2628 2453 2374 2453 2299 2164 2299 2453 3345 3066 3199 2830 2943 2943 2943 2943 2830 2725 2830 2725 3199 2164 2102 2102 2044 1936 2230 2164 2230 2230 2453 2628 2537 2537 2725 2164 2725 2725 1989 1887 2102 2453 2537 2830 2453 2537 2374 2299 2537 2537 2453 2102 2044 2044 2230 2299 2164 2230 2230 2164 2299 2374 2537 2102 2102 2628 1795 1795 1795 1752 0 1635 1599 1672 1635 1711 1711 1795 2374 3066 0 0 0 0 2230 2164 1795 1839 1839 1936 1936 1887 1989 1989 1989 1989 1989 1989 1989 1887 2102 2044 1989 1989 2044 1989 1936 1936 2044 1795 1795 1795 1711 1672 1672 1711 1635 1599 1635 1565 1635 1599 1362 1533 1501 1471 1501 1471 1471 1471 1471 1565 1415 1415 1443 1388 1388 1338 1338 1226 1051 1051 1036 1022 1022 1022 1022 1022 1008 1036 994 968 981 943 931 943 931 931 919 0 0 0 0 0
    0 0 0 0 0 0 0 0 0 0 0 0 0 0 0 0 0 0 0 0 0 0 0 0 0 0 0 0 0 0 0 0 0 0 0 0 0 0 0 0 0 0 0 0 0 0 0 0 0 0 0 0 0 0 0 0 0 0 0 0 0 0 0 0 0 0 0 0 0 2725 2830 2830 2628 2725 2725 2725 2628 2537 2725 2628 2628 2725 2725 2725 2725 2725 2943 2725 2628 2537 2628 2628 2830 2725 2628 2628 2725 2453 2725 2537 2725 2299 2453 2374 2453 2453 2537 2943 0 0 0 0 0 0 0 0 2453 2299 2725 2830 2725 2830 2830 2230 0 0 0 0 4329 0 0 4088 3504 2943 3199 0 0 0 0 0 0 1752 0 1839 1839 1839 1839 1887 0 0 3066 3504 3345 3679 3504 2830 2725 2537 2537 2537 2374 2230 2299 2537 3345 3199 3199 2943 3066 0 3066 2943 2943 2830 2830 2830 3345 2102 2044 2102 1989 1936 2299 2230 2230 2230 2453 2628 2628 2628 2830 2164 2628 2628 2102 1887 1989 2230 2299 2628 2374 2453 2299 2299 2537 2628 2537 2102 2102 2102 2299 2299 2164 2230 2230 2230 2299 2299 2537 2102 2102 2628 1839 1839 1795 0 0 0 1599 1672 1635 1672 1672 1839 2044 2374 0 0 0 2374 2299 2299 2102 1989 1989 1989 1989 1936 1989 2044 1989 2044 2044 2044 1989 1936 2102 2044 1989 1989 2044 1989 1936 1936 1989 1795 1795 1795 1711 1672 1672 1711 1635 1599 1635 1565 1635 1599 1362 1533 1501 1471 1501 1471 1471 1471 1471 1565 1443 1443 1471 1415 1415 1362 1338 1247 1051 1051 1036 1022 1022 1022 1022 1022 1008 1051 994 968 981 943 931 955 943 931 919 0 0 0 0 0
    0 0 0 0 0 0 0 0 0 0 0 0 0 0 0 0 0 0 0 0 0 0 0 0 0 0 0 0 0 0 0 0 0 0 0 0 0 0 0 0 0 0 0 0 0 0 0 0 0 0 0 0 0 0 0 0 0 0 0 0 0 0 0 0 0 0 0 0 0 2943 3066 3066 2830 2830 2830 2830 2725 2537 2725 2628 2628 0 2725 2830 2725 2725 3199 2830 2725 2725 2830 2725 2830 2725 2537 2453 2537 2230 2374 2102 0 2102 2230 2230 2453 2453 2453 0 0 0 0 0 0 0 0 0 2453 2230 2628 2725 2537 2830 2725 1989 0 0 0 4329 4329 0 0 0 3504 2943 0 0 0 0 0 1936 0 1752 0 1887 1887 1887 1887 1887 0 2102 2830 3199 3199 3345 3199 2830 2725 2628 2628 2628 2374 2299 2299 2453 3345 3199 3199 2943 3199 3066 3199 3199 3199 2830 0 2725 3199 1989 1989 2044 2044 1936 2374 2299 2299 2299 2537 2725 2725 2725 2830 2230 2628 2725 2537 2044 2044 2164 2102 2374 2230 2374 2230 2230 2453 2537 2453 2102 2164 2102 2299 2299 2164 2230 2230 2230 2299 2299 2537 2102 2102 2725 1936 1887 0 0 0 0 1501 1599 1599 1635 1711 1887 2044 2102 2299 2299 2164 2299 2299 2299 2164 2044 2164 2102 1989 1936 2044 2044 2044 2044 2044 2044 2044 1936 2102 2044 1989 2044 2044 1989 1887 1887 1989 1795 1795 1752 1672 1672 1672 1711 1635 1599 1635 1565 1635 1599 1362 1533 1501 1443 1501 1471 1471 1471 1471 1565 1443 1443 1471 1415 1415 1362 1314 1226 1051 1051 1036 1022 1022 1022 1008 1008 1008 1036 994 968 981 955 931 955 943 943 919 0 0 0 0 0
    0 0 0 0 0 0 0 0 0 0 0 0 0 0 0 0 0 0 0 0 0 0 0 0 0 0 0 0 0 0 0 0 0 0 0 0 0 0 0 0 0 0 0 0 0 0 0 0 0 0 0 0 0 0 0 0 0 0 0 0 0 0 0 0 0 0 0 0 0 3066 3199 3066 0 0 0 0 2830 2628 2725 2628 2537 448 0 2725 112 111 0 2830 2830 2830 2943 3066 3199 0 0 0 0 0 0 1672 0 1936 1936 0 2374 2537 2230 0 0 108 0 108 108 108 108 108 2537 2230 2725 2725 2537 2830 2830 0 0 0 0 0 0 0 0 0 3504 3066 0 0 0 0 0 1989 0 0 0 1887 1887 1887 1887 1936 0 2102 2725 2830 2830 2830 2943 2628 2628 2628 2628 2628 2453 2299 2230 2230 0 2830 0 2830 3066 0 3066 3345 3345 2943 0 0 0 1887 1989 2102 2102 2044 2453 2374 2374 2374 2628 2830 2830 2830 2830 2374 2628 2725 2725 2453 2230 2164 2164 2299 2230 2374 2230 2230 2374 2453 2453 2044 2164 2044 2230 2299 2164 2230 2230 2230 2374 2299 2537 2102 2164 2725 2044 1989 1795 0 0 0 1533 1672 1599 1635 1711 1936 2044 2102 2230 2230 2102 2230 2230 2299 2164 2102 2230 2164 2044 1989 2044 2044 2102 2102 2102 2102 2102 1936 2102 1989 1989 1989 1989 1936 1887 1887 1936 1795 1795 1752 1672 1672 1672 1711 1635 1565 1599 1533 1635 1599 1338 1501 1471 1443 1471 1443 1471 1471 1471 1565 1443 1443 1471 1415 1415 1362 1314 1247 1066 1066 1036 1022 1022 1022 1022 1008 1008 1051 994 968 981 968 955 981 955 955 919 0 0 0 0 0
    0 0 0 0 0 0 0 0 0 0 0 0 0 0 0 0 0 0 0 0 0 0 0 0 0 0 0 0 0 0 0 0 0 0 0 0 0 0 0 0 0 0 0 0 0 0 0 0 0 0 0 0 0 0 0 0 0 0 0 0 0 0 0 0 0 0 0 0 0 3345 3345 3199 3066 0 0 0 2943 2628 2628 2537 2537 0 0 0 0 111 0 0 0 0 2943 0 0 0 0 0 0 0 0 0 0 0 0 0 2230 2453 2164 0 0 108 108 0 0 108 108 0 2537 2230 2725 2628 2374 2830 0 0 0 0 0 0 0 0 0 0 0 0 0 0 0 0 0 1989 0 1795 1887 1887 1887 1887 1936 1936 1936 2044 2537 2628 2537 2628 2725 2453 2537 2628 2628 0 2374 2299 2164 0 0 0 0 2725 2830 2725 2943 3199 3199 3066 0 0 0 1989 2044 2164 2164 2164 2628 2537 2537 2537 2830 2943 3066 3066 2830 2453 2628 2830 2725 2453 2230 2164 2102 2230 2230 2374 2299 2299 2453 2453 2453 2044 2230 2044 2299 2299 2164 2230 2230 2230 2374 2230 2537 2102 2044 2628 1887 1795 1711 1752 1672 1635 1635 1711 1635 1672 1752 1989 2044 2102 2164 2164 2102 2230 2230 2299 2164 2102 2230 2164 2044 1989 2044 2044 2102 2164 2164 2164 2164 1989 2102 1989 1989 1989 1989 1936 1839 1839 1887 1795 1752 1672 1635 1672 1635 1711 1599 1533 1565 1501 1599 1533 1338 1471 1471 1415 1471 1443 1443 1471 1471 1565 1443 1443 1501 1443 1443 1388 1314 1268 1098 1066 1036 1036 1036 1036 1022 1008 1008 1066 994 981 994 994 981 1008 994 981 955 0 0 0 0 0
    0 0 0 0 0 0 0 0 0 0 0 0 0 0 0 0 0 0 0 0 0 0 0 0 0 0 0 0 0 0 0 0 0 0 0 0 0 0 0 0 0 0 0 0 0 0 0 0 0 0 0 0 0 0 0 0 0 0 0 0 0 0 0 0 0 0 0 0 0 3504 3504 3345 3066 0 0 0 3066 2725 2628 2537 2537 0 2725 0 0 111 0 0 0 0 3066 2943 0 0 0 0 0 0 0 0 0 0 0 2044 2230 2453 2102 0 0 108 109 0 0 108 108 0 2537 2299 2725 2453 2299 0 0 0 0 0 0 0 0 0 0 0 0 0 0 0 0 2299 2044 1989 0 1839 1887 1936 1887 1887 1936 1936 1936 2044 2537 2725 2537 2628 2725 2537 2537 2628 2628 0 2453 2453 2230 0 0 0 0 2725 2830 0 2943 3345 3345 3199 5661 2725 0 2044 2044 2230 2230 2374 2725 2725 2725 2725 2943 3199 3199 3679 2943 2628 2830 3066 3066 2830 2537 2453 2230 2374 2299 2453 2299 2299 2453 2453 2453 1989 2299 2102 2299 2299 2164 2230 2230 2230 2374 2164 2537 2044 1989 2453 1795 1752 1711 1711 1672 1599 0 0 1711 1711 1752 1989 2044 2102 2164 2164 2102 2230 2230 2299 2164 2102 2230 2164 2102 1989 2044 2044 2164 2164 2164 2164 2164 1989 2044 1989 1989 1936 1936 1887 1795 1839 1839 1795 1711 1672 1635 1635 1635 1711 1565 1501 1533 1533 1599 1533 1338 1471 1443 1415 1443 1443 1443 1471 1471 1565 1471 1471 1501 1443 1471 1443 1338 1338 1187 1098 1036 1036 1022 1036 1008 1022 1008 1082 994 981 0 1022 1022 1066 1051 1051 1022 0 0 0 0 0
    0 0 0 0 0 0 0 0 0 0 0 0 0 0 0 0 0 0 0 0 0 0 0 0 0 0 0 0 0 0 0 0 0 0 0 0 0 0 0 0 0 0 0 0 0 0 0 0 0 0 0 0 0 0 0 0 0 0 0 0 0 0 0 0 0 0 0 0 0 3679 3679 3345 3199 3199 144 0 3066 2830 2628 2537 2628 2725 2725 112 112 111 0 0 0 0 2943 2725 2628 2628 0 0 0 0 0 0 0 0 0 0 2102 2299 0 0 109 108 109 0 0 108 108 0 2628 2374 2830 2537 2453 0 0 0 0 0 0 0 0 0 0 0 0 0 0 2537 2453 2453 2102 1989 1887 1839 1887 1936 1936 1936 1989 1989 1989 2102 2537 2943 2830 2830 2830 2628 2628 2725 2725 2628 2537 2537 2374 0 0 0 0 2725 2725 2725 2725 3066 2943 2725 3066 2453 2102 1989 2044 2230 2230 2628 2830 2830 2830 2830 3066 3345 3345 4329 2943 2830 2943 3199 3199 3199 2830 2725 2453 2453 2374 2453 2299 2299 2374 2453 2453 1989 2299 2102 2299 2299 2230 2299 2230 2230 2453 2230 2537 2102 1989 2299 1795 1752 1672 1672 1672 1635 0 0 1711 1711 1752 1989 2044 2044 2164 2164 2102 2230 2230 2299 2230 2102 2230 2164 2102 2044 2102 2102 2230 2164 2164 2164 2164 1989 1989 1989 1936 1936 1936 1887 1795 1795 1795 1795 1711 1672 1635 1635 1635 1672 1533 1471 1501 1533 1599 1501 1338 1443 1443 1388 1443 1443 1443 1471 1471 1565 1501 1471 1533 1471 1501 1501 1388 1443 1291 1206 1036 1066 1036 1051 994 1036 0 0 0 0 0 0 0 0 0 0 1098 0 0 0 0 0
    0 0 0 0 0 0 0 0 0 0 0 0 0 0 0 0 0 0 0 0 0 0 0 0 0 0 0 0 0 0 0 0 0 0 0 0 0 0 0 0 0 0 0 0 0 0 0 0 0 0 0 0 0 0 0 0 0 0 0 0 0 0 0 0 0 0 0 0 0 3679 3504 3345 3199 3199 144 0 3199 2830 2628 2537 2537 2628 2628 112 112 112 0 0 0 0 2830 2628 2628 0 0 0 0 0 0 0 0 0 0 0 0 0 0 0 0 108 109 0 0 108 108 0 2628 2374 2830 2537 2453 0 0 0 0 0 0 0 0 0 0 0 0 0 2537 2628 2537 2725 2299 2044 1936 1887 1936 1989 1989 1989 2044 2044 2230 2299 2628 3066 2943 2943 2830 2628 2628 2628 2628 2537 2537 2453 2453 2299 2537 2453 2453 2628 2628 2628 2628 2725 2830 2537 2628 2537 2230 1989 2044 2230 2164 2830 2943 2943 0 2943 3066 3345 3345 4599 2943 2725 2943 3066 0 0 2725 2628 2164 2230 2102 2164 2102 2102 2230 2299 2299 1936 2299 2102 2299 2374 2230 2299 2230 2230 2453 2164 2453 2044 1887 2044 1752 1711 1635 1599 1599 1533 1599 0 1711 1672 1711 1936 1989 2044 2164 2164 2102 2230 2230 2230 2230 2102 2299 2164 2102 2044 2102 2102 2299 2230 2164 2164 2164 1989 1989 1936 1936 1887 1887 1887 1795 1795 1752 1795 1635 1635 1599 1599 1599 1635 1533 1471 1471 1533 1565 1443 1338 1415 1415 1388 1443 1443 1443 1471 1471 1533 1501 1501 1533 1501 1501 1533 1415 1565 1635 1565 0 0 0 0 0 0 0 0 0 0 0 0 0 0 623 0 0 0 0 0 0 0
    0 0 0 0 0 0 0 0 0 0 0 0 0 0 0 0 0 0 0 0 0 0 0 0 0 0 0 0 0 0 0 0 0 0 0 0 0 0 0 0 0 0 0 0 0 0 0 0 0 0 0 0 0 0 0 0 0 0 0 0 0 0 0 0 0 0 0 0 0 3504 3504 3199 3066 3066 144 3199 3066 2830 2628 2453 2537 2628 2628 112 112 112 112 0 0 0 0 0 2374 0 0 0 0 0 0 0 0 0 0 0 0 0 0 0 0 107 109 0 0 108 0 136 2628 2374 2943 2453 2453 0 0 0 0 0 0 4088 0 0 0 0 0 0 2537 2725 2537 2725 2453 2102 2044 1936 1989 2102 2044 2044 2164 2164 2374 2374 2628 2943 2830 2725 2725 2453 2537 2537 2537 2453 2453 2453 2453 2230 2374 2374 2299 2453 2453 2453 2453 2537 2628 2537 2628 2725 2628 2230 2102 2374 2230 2830 2943 2830 2830 2830 2830 3066 3066 3199 2725 2453 2628 2725 0 0 2628 2628 2374 2230 2102 2044 2044 2102 2164 2230 2164 1887 2299 2102 2299 2374 2164 2230 2230 2230 2453 2102 2299 1936 1839 1936 1752 1711 1599 1565 1501 1471 1565 0 1752 1672 1711 0 1989 2044 2164 2164 2102 2230 2299 2299 2299 2164 2374 2164 2164 2102 2102 2102 2299 2230 2164 2102 2164 1989 1936 1936 1887 1887 1887 1839 1752 1752 1752 1752 1565 1565 1533 1533 1533 1565 1471 1443 1415 1501 1471 1362 1314 1388 1388 1362 1415 1443 1443 1471 1443 1533 1501 1471 1533 1501 1501 1533 1415 1599 1711 0 0 0 0 0 0 0 0 0 0 0 0 0 0 0 629 0 0 0 0 0 0 0
    0 0 0 0 0 0 0 0 0 0 0 0 0 0 0 0 0 0 0 0 0 0 0 0 0 0 0 0 0 0 0 0 0 0 0 0 0 0 0 0 0 0 0 0 0 0 0 0 0 0 0 0 0 0 0 0 0 0 0 0 0 0 0 0 0 0 0 0 0 3199 3199 3066 2943 2943 0 3066 3066 2725 2628 2453 2537 2628 2628 112 0 0 0 111 0 0 0 0 2230 0 0 0 0 0 0 0 0 0 0 0 0 0 0 0 0 107 108 0 0 0 0 136 2628 2299 2830 2374 2374 0 0 0 0 0 0 3679 0 0 0 0 0 0 2374 2628 2537 2628 2453 2102 2164 2044 1989 2164 2102 2102 2230 2230 2453 2374 2628 2830 2725 2537 2628 2374 2453 2453 2537 2453 2453 2453 2453 2299 2374 2374 2230 2374 2299 2453 2374 2374 2537 2537 2537 2628 2537 2299 2044 2299 2102 2628 2830 2725 2628 2628 2628 2725 2725 2830 2628 2453 2537 2628 2537 2725 2628 2725 2628 2299 1989 1839 1887 1936 1989 1936 1989 1887 2299 2102 2299 2299 2164 2230 2164 2164 2374 2044 2164 1839 1752 1839 1711 1672 1635 1599 1533 1533 1635 0 1887 0 1752 0 1989 1989 2102 2164 2102 2164 2299 2299 2299 2230 2453 2230 2164 2164 2102 2102 2374 2164 2102 2102 2164 1989 1936 1936 1887 1887 1887 1839 1711 1711 1711 1711 1501 1471 1501 1501 1501 1533 1443 1415 1415 1565 1533 1388 1268 1362 1388 1362 1415 1443 1443 1471 1443 1501 1501 1471 1533 1501 1501 1533 1443 1599 1795 1887 0 1887 0 0 0 0 0 0 0 0 0 0 0 0 623 0 0 0 0 0 0 0
    0 0 0 0 0 0 0 0 0 0 0 0 0 0 0 0 0 0 0 0 0 0 0 0 0 0 0 0 0 0 0 0 0 0 0 0 0 0 0 0 0 0 0 0 0 0 0 0 0 0 0 0 0 0 0 0 0 0 0 0 0 0 0 0 0 0 0 0 0 3066 3066 2830 2830 2830 2943 3066 3066 2830 2628 2537 2537 2628 2628 0 2537 2453 0 0 0 0 0 0 2537 0 0 4599 0 0 0 0 0 0 0 0 0 0 0 0 0 106 0 0 0 0 0 136 2537 2299 2830 2374 2374 0 0 0 0 0 0 0 0 0 0 0 0 0 2299 2453 2537 2628 2453 2164 2230 2102 2044 2164 2102 2102 2230 2299 2453 2374 2537 2830 2628 2453 2537 2299 2374 2374 2374 2374 2374 2374 2537 2299 2374 2374 2230 2374 2299 2453 2299 2374 2453 2453 2374 2628 2453 2230 2044 2230 2044 2537 2628 2537 2453 2537 2537 2628 2537 2725 2537 2453 2537 2628 2453 2725 2628 2830 2830 2299 1936 1752 1752 1711 1752 1711 1752 1795 2164 1989 2230 2230 2044 2102 2044 2044 2102 1887 1887 1795 1672 1752 1672 1635 1635 1672 1599 1565 1635 0 1887 1752 1795 0 1936 1989 2044 2102 2044 2164 2230 2230 2164 2164 2374 2230 2164 2164 2102 2044 2299 2164 2102 2102 2164 1989 1936 1936 1887 1887 1839 1795 1711 1672 1635 1635 1443 1443 1471 1501 1501 1533 1471 1471 1533 1672 1711 1635 1314 1362 1388 1362 1415 1443 1415 1471 1443 1501 1501 1471 1533 1471 1471 1533 1415 1565 1711 1752 0 0 0 0 0 0 0 0 0 0 0 0 0 623 629 0 0 0 0 0 0 0
    0 0 0 0 0 0 0 0 0 0 0 0 0 0 0 0 0 0 0 0 0 0 0 0 0 0 0 0 0 0 0 0 0 0 0 0 0 0 0 0 0 0 0 0 0 0 0 0 0 0 0 0 0 0 0 0 0 0 0 0 0 0 0 0 0 0 0 0 0 2725 2830 2725 2725 2725 2830 2943 2943 2725 2628 2537 2628 2628 2628 0 2537 2453 0 0 0 0 0 0 0 0 0 3873 0 0 0 0 0 0 0 0 0 0 0 0 0 106 0 0 0 0 0 136 0 2299 2830 2537 2453 0 0 0 0 0 0 0 0 0 0 0 0 0 0 2537 2628 2725 2537 2164 2299 2230 2044 2230 2164 2164 2230 2299 2537 2299 2453 2725 2537 2230 2453 2164 2230 2299 2299 2299 2374 2374 2537 2299 2374 2453 2230 2374 2374 2453 2299 2299 2453 2453 2374 2628 2453 2230 2044 2164 1989 2453 2537 2453 2374 2453 2453 2537 2453 2628 2453 2453 2453 2537 2374 2725 2628 0 0 0 1752 1599 1599 1635 1635 1599 1635 1672 2044 1936 2044 2044 1936 1989 1936 1887 1887 1752 1752 1711 1635 1711 1599 1599 1635 1672 1635 1599 1672 0 1887 0 1752 0 1936 1989 1989 2044 2044 2102 2164 2230 2102 2102 2299 2164 2102 2164 2102 1989 2230 2164 2164 2102 2230 1989 1936 1936 1887 1887 1795 1711 1635 1565 1533 1533 1415 1415 1443 1501 1501 1533 1533 1565 1635 1711 1752 1752 1362 1388 1415 1362 1415 1415 1415 1471 1443 1471 1501 1471 1533 1501 1471 1533 1443 1565 1672 1711 0 0 0 0 0 0 0 0 0 0 0 0 0 0 0 0 0 0 0 0 0 0
    0 0 0 0 0 0 0 0 0 0 0 0 0 0 0 0 0 0 0 0 0 0 0 0 0 0 0 0 0 0 0 0 0 0 0 0 0 0 0 0 0 0 0 0 0 0 0 0 0 0 0 0 0 0 0 0 0 0 0 0 0 0 0 0 0 0 0 0 0 2628 2830 2628 2628 2628 2725 2830 2943 2725 2628 2537 2628 2628 2628 0 2537 2453 0 0 0 0 0 2299 2164 2230 0 3345 2943 0 0 0 0 0 2628 2230 0 0 0 0 0 106 0 0 0 0 0 136 0 0 2830 2628 2628 0 0 3679 3066 3345 0 0 0 165 0 0 427 415 0 2453 2537 2628 2537 2164 2374 2299 2044 2230 2164 2164 2230 2299 2537 2299 2299 2725 2299 2044 2299 2102 2102 2164 2230 2230 2299 2374 2537 2299 2374 2537 2230 2453 2374 2453 2374 2374 2453 2453 2374 2628 2374 2230 2044 2102 1936 2299 2374 2374 2299 2453 2374 2537 2453 2628 2453 2453 2453 2537 2374 2725 2628 0 5256 0 0 1471 1501 1565 1599 1565 1565 1599 1936 1839 1887 1887 1795 1839 1795 1752 1752 1672 1672 1635 1565 1635 1565 1565 1635 1672 1599 1565 1635 1752 1795 1752 1635 0 0 0 0 0 1989 1887 2044 2044 1989 0 2453 0 0 0 2102 0 0 0 2102 2102 2299 1989 1887 1887 1839 1839 1672 1599 1533 1443 1415 1415 1388 1388 1415 1471 1501 1501 1565 1599 1672 1752 1795 1795 1415 1388 1471 1362 1415 1415 1415 1443 1443 1471 1501 1471 1533 1501 1501 1565 1471 1599 1711 1711 0 0 0 0 0 0 0 0 0 0 0 0 0 0 0 0 0 0 0 0 0 0
    0 0 0 0 0 0 0 0 0 0 0 0 0 0 0 0 0 0 0 0 0 0 0 0 0 0 0 0 0 0 0 0 0 0 0 0 0 0 0 0 0 0 0 0 0 0 0 0 0 0 0 0 0 0 0 0 0 0 0 0 0 0 0 0 0 0 0 0 0 2725 2830 2628 2628 2725 2628 2830 2830 2628 2628 2537 2537 2628 2537 2628 2453 2374 0 0 0 0 0 0 0 0 0 0 2830 0 0 0 0 3345 2628 2230 0 0 0 0 0 106 0 0 0 0 0 0 0 2453 2830 2725 2725 0 0 3679 3199 3345 0 0 0 165 0 0 432 0 0 2374 2537 2537 2537 2164 2453 2374 2102 2299 2230 2230 2299 2299 2537 2299 2299 2628 2230 2044 2299 2102 2102 2230 2230 2299 2374 2374 2628 2374 2374 2537 2230 2453 2374 2374 2374 2299 2374 2453 2299 2537 2299 2164 2044 2044 1887 2164 2230 2230 2164 2299 2230 2453 2374 2537 2374 2374 2453 2537 2374 2725 2537 0 6133 0 0 1443 1501 1599 1635 1599 1533 1599 1839 1795 1795 1711 1672 1711 1672 1635 1635 1599 1565 1565 1565 1599 1533 1565 1635 1635 1565 1533 1599 1711 1672 1599 1471 1599 1635 0 0 0 0 0 1599 1795 0 0 0 0 0 0 0 0 0 0 0 1338 1752 1839 1672 1711 1672 1599 1443 1388 1388 1362 1362 1362 1362 1362 1415 1501 1501 1533 1599 1635 1711 1752 1795 1795 1471 1415 1471 1388 1415 1415 1415 1443 1443 1471 1501 1471 1533 1501 1501 1565 1501 1599 1672 1711 1635 1711 0 0 0 0 0 0 0 0 0 0 0 0 0 0 0 0 0 0 0 0
    0 0 0 0 0 0 0 0 0 0 0 0 0 0 0 0 0 0 0 0 0 0 0 0 0 0 0 0 0 0 0 0 0 0 0 0 0 0 0 0 0 0 0 0 0 0 0 0 0 0 0 0 0 0 0 0 0 0 0 0 0 0 0 0 0 0 0 0 0 2830 2943 2628 2725 2725 2725 2830 2830 2628 2628 2537 2537 2628 2537 2628 2453 2374 0 0 0 0 0 0 0 0 0 0 2943 3066 3199 3199 3199 3345 2943 2830 0 0 2628 4088 3345 105 0 0 0 0 0 0 2628 2453 2943 2725 2725 3504 2943 3679 3199 3199 3066 3345 0 0 0 0 0 0 2537 2453 2537 2537 2628 2230 2453 2453 2164 2299 2299 2299 2374 2374 2537 2299 2299 2628 2299 2102 2299 2102 2102 2230 2230 2299 2374 2299 2537 2374 2374 2537 2299 2453 2374 2374 2374 2299 2299 2374 2299 2453 2230 2102 1989 1936 1839 2102 2102 2102 2102 2230 2164 2374 2299 2453 2299 2374 2374 2453 2230 2628 2299 0 0 0 0 1501 1565 0 1672 1565 1599 1635 1752 1711 1672 1599 1565 1599 1599 1533 1565 1533 1501 1501 1501 1533 1471 1533 1635 1635 1533 1501 1565 1672 1501 1443 1362 1415 1471 1388 1415 1338 1362 1415 1415 1471 0 0 0 0 0 0 0 0 0 0 0 0 0 1443 0 1362 1338 0 0 0 1314 1314 1314 1338 1338 1362 1388 1471 1533 1565 1635 1635 1711 1752 1795 1752 1501 1388 1501 1415 1415 1443 1415 1471 1443 1471 1501 1471 1533 1501 1501 1565 1501 1599 1672 1711 1672 0 0 0 0 808 817 0 855 855 0 0 0 0 0 0 968 0 0 0 0 0
    0 0 0 0 0 0 0 0 0 0 0 0 0 0 0 0 0 0 0 0 0 0 0 0 0 0 0 0 0 0 0 0 0 0 0 0 0 0 0 0 0 0 0 0 0 0 0 0 0 0 0 0 0 0 0 0 0 0 0 0 0 0 0 0 0 0 0 0 0 2830 2830 2628 2628 2628 2537 2830 2725 2628 2537 2537 2537 2537 2537 2628 2453 2453 2830 2628 2537 0 2943 0 0 0 0 3345 2943 3199 3504 3504 3504 3679 3504 3504 3504 3199 0 4329 3504 0 0 0 0 0 0 0 2628 2453 2830 2628 2537 2943 2628 3345 2943 3066 2725 0 0 0 0 0 0 0 2374 2374 2537 2537 2537 2299 2537 2453 2164 2374 2299 2299 2374 2374 2537 2299 2299 2628 2299 2102 2230 2102 2164 2230 2230 2299 2299 2299 2537 2374 2299 2453 2164 2374 2299 2374 2374 2230 2299 2374 2230 2453 2164 2102 1936 1839 1795 2044 1989 1989 2044 2164 2164 2299 2230 2453 2299 2299 2374 2374 2230 2453 2230 0 0 0 0 0 0 0 1795 1711 1752 1711 1711 1672 1672 1565 1533 1565 1533 1443 1471 1501 1471 1471 1501 1501 1471 1501 1635 1599 1471 1443 1471 1533 1443 1443 1415 1443 1501 1443 1501 1415 1443 1443 1415 1443 1415 1338 1338 0 0 1149 1115 0 0 0 0 0 0 1388 0 0 1314 1206 0 0 1291 1291 1314 1338 1338 1338 1388 1471 1533 1565 1635 1635 1711 1752 1795 1752 1565 1415 1533 1443 1443 1443 1443 1471 1471 1471 1533 1471 1501 1501 1501 1565 1501 1565 1635 1711 0 1887 0 0 0 0 0 0 0 0 0 0 0 0 0 0 0 0 0 0 0 0
    0 0 0 0 0 0 0 0 0 0 0 0 0 0 0 0 0 0 0 0 0 0 0 0 0 0 0 0 0 0 0 0 0 0 0 0 0 0 0 0 0 0 0 0 0 0 0 0 0 0 0 0 0 0 0 0 0 0 0 0 0 0 0 0 0 0 0 0 0 2943 2943 2725 2628 2453 2453 2725 2628 2628 2537 2537 2537 2537 2628 2628 2453 2537 2830 2830 2628 2943 2943 0 0 3066 2830 3199 2943 3345 3679 3679 3873 3679 3873 4088 3873 3345 0 4088 3504 0 106 0 0 0 0 2725 2628 2453 2830 2537 2453 2830 2537 3066 2830 2537 2230 2102 0 0 0 0 0 2230 2374 2374 2537 2537 2537 2299 2537 2453 2164 2374 2299 2374 2374 2453 2537 2299 2299 2628 2299 2164 2230 2164 2164 2230 2299 2299 2299 2299 2453 2374 2299 2453 2102 2299 2230 2299 2299 2230 2230 2299 2230 2453 2102 2044 1887 1795 1752 1989 1936 1936 2044 2102 2102 2299 2230 2374 2230 2299 2374 2299 2102 2374 2102 0 0 0 0 0 0 3066 2044 1936 1887 1839 1752 1672 1672 1565 1565 1599 1533 1443 1471 1501 1501 1471 1533 1501 1471 1501 1635 1599 1471 1443 1471 1443 1443 1443 1415 1443 1471 1443 1471 1388 1443 1443 1388 1388 1388 1338 1388 1314 0 1187 1149 0 1226 0 0 1268 0 0 0 0 1291 1187 0 0 1291 1268 1314 1338 1362 1338 1388 1471 1565 1565 1672 1672 1752 1752 1795 1752 1635 1471 1565 1471 1443 1443 1443 1471 1471 1501 1533 1471 1533 1501 1501 1565 1501 1533 1599 0 0 1936 0 1711 0 0 0 0 0 0 0 0 0 0 0 0 943 0 0 0 0 0
    0 0 0 0 0 0 0 0 0 0 0 0 0 0 0 0 0 0 0 0 0 0 0 0 0 0 0 0 0 0 0 0 0 0 0 0 0 0 0 0 0 0 0 0 0 0 0 0 0 0 0 0 0 0 0 0 0 0 0 0 0 0 0 0 0 0 0 0 0 3199 3066 2943 2725 2537 2537 2725 2628 2537 2537 2537 2537 2628 2628 2628 2453 2725 2943 2943 2725 2830 2830 2830 0 0 2943 3199 3066 3504 4088 3873 4088 3873 3873 4329 3873 3504 4088 4088 3504 0 0 106 0 0 0 2725 2628 2537 2830 2628 2453 2830 2453 2453 2537 2164 1989 0 0 0 0 0 0 2299 2537 2453 2537 2537 2537 2299 2537 2453 2164 2374 2374 2374 2453 2453 2537 2374 2374 2628 2374 2230 2230 2230 2230 2299 2374 2374 2299 2299 2537 2453 2299 2453 2102 2299 2299 2374 2299 2230 2299 2299 2230 2453 2044 1989 1887 1795 1752 1989 1936 1936 2044 2102 2102 2299 2164 2374 2230 2299 2374 2299 2102 2230 1989 0 0 0 0 0 3873 0 2044 2044 1936 1839 1752 1672 1672 1565 1599 1599 1533 1443 1471 1501 1501 1471 1533 1501 1471 1501 1635 1635 1471 1443 1443 1415 1415 1443 1415 1415 1443 1471 1471 1388 1443 1443 1362 1362 1362 1314 1314 1291 0 1168 1149 1226 1206 1206 0 1268 1291 1314 1338 1314 1291 1168 1314 0 1291 1268 1314 1338 1362 1362 1388 1471 1565 1599 1672 1672 1752 1752 1795 1752 1672 1471 1599 1501 1471 1443 1443 1471 1471 1501 1533 1471 1533 1501 1501 1565 1501 1501 1533 0 0 0 0 1672 0 0 0 0 0 0 0 0 0 0 0 931 943 0 0 0 0 0
    0 0 0 0 0 0 0 0 0 0 0 0 0 0 0 0 0 0 0 0 0 0 0 0 0 0 0 0 0 0 0 0 0 0 0 0 0 0 0 0 0 0 0 0 0 0 0 0 0 0 0 0 0 0 0 0 0 0 0 0 0 0 0 0 0 0 0 0 0 3504 3345 3066 2943 2830 2725 2830 2628 2628 2537 2537 2537 2628 2628 2628 2537 2830 3066 3066 2830 2943 2830 2943 0 3066 2943 3199 3066 3504 4088 3873 4088 3679 3873 4329 3873 3504 4329 4088 3504 0 0 0 0 0 0 2725 2537 2537 2943 2628 2453 2830 2374 2164 2374 2044 1936 0 0 0 0 0 0 2537 2725 2537 2628 2537 2537 2299 2453 2453 2164 2374 2374 2374 2453 2453 2628 2374 2453 2725 2537 2374 2299 2299 2299 2374 2374 2453 2374 2374 2537 2537 2453 2537 2164 2453 2374 2374 2374 2230 2299 2299 2230 2453 1989 1989 1839 1795 1752 1936 1936 1936 2044 2102 2102 2299 2230 2453 2230 2230 2374 2164 2044 2102 1936 2044 1711 1599 0 0 3873 3066 2044 2164 1989 1887 1795 1711 1711 1565 1635 1635 1565 1443 1471 1501 1501 1471 1565 1471 1471 1501 1635 1599 1471 1443 1443 1415 1415 1443 1415 1415 1443 1443 1443 1362 1443 1415 1338 1362 1338 1314 1338 1314 1362 1226 1226 0 1247 0 0 1314 1314 1338 1338 1314 1291 1187 1314 1247 1314 1291 1338 1338 1362 1362 1415 1471 1599 1599 1672 1672 1711 1711 1752 1752 1711 1501 1599 1533 1471 1443 1443 1471 1471 1471 1533 1471 1501 1501 1501 1533 1471 1471 1471 0 0 0 0 1635 0 0 0 0 0 0 0 0 0 0 0 943 943 0 0 0 0 0
    0 0 0 0 0 0 0 0 0 0 0 0 0 0 0 0 0 0 0 0 0 0 0 0 0 0 0 0 0 0 0 0 0 0 0 0 0 0 0 0 0 0 0 0 0 0 0 0 0 0 0 0 0 0 0 0 0 0 0 0 0 0 0 0 0 0 0 0 0 3873 3679 3504 3199 3066 2943 2943 2725 2628 2537 2537 2628 2628 2628 2628 2628 3066 3199 3199 2943 2943 2943 2943 0 3066 2943 3199 2943 3345 3873 3679 3679 3504 3679 3873 3679 3345 4599 4088 3504 0 3199 3066 0 0 0 2628 2537 2453 2830 2537 2374 2725 2299 2044 2374 2044 1936 0 0 0 0 0 0 2725 2830 2628 2628 2453 2453 2374 2537 2453 2164 2374 2374 2453 2537 2537 2628 2453 2453 2725 2537 2299 2299 2374 2299 2374 2453 2453 2299 2374 2537 2537 2453 2453 2230 2374 2299 2374 2374 2299 2299 2299 2230 2453 1989 1936 1795 1795 1752 1936 1936 1936 2044 2102 2164 2299 2230 2453 2230 2230 2374 2102 1989 2044 1936 1887 1711 0 0 4599 3679 3066 2299 2230 2044 1887 1839 1752 1752 1599 1672 1672 1565 1443 1471 1501 1471 1471 1533 1443 1443 1471 1599 1533 1443 1443 1443 1415 1415 1415 1415 1415 1443 1443 1443 1362 1415 1415 1362 1362 1362 1314 1338 1338 1443 1268 1268 1314 1291 0 0 1362 1362 1415 1388 1362 1338 1226 1338 1291 1338 1314 1338 1362 1388 1362 1415 1471 1599 1599 1672 1672 1711 1711 1752 1752 1711 1533 1599 1565 1471 1471 1443 1471 1471 1501 1533 1501 1501 1501 1471 1533 1471 1471 1533 0 0 0 0 1672 0 0 0 0 0 0 0 0 0 0 0 0 0 0 0 0 0 0
    0 0 0 0 0 0 0 0 0 0 0 0 0 0 0 0 0 0 0 0 0 0 0 0 0 0 0 0 0 0 0 0 0 0 0 0 0 0 0 0 0 0 0 0 0 0 0 0 0 0 0 0 0 0 0 0 0 0 0 0 0 0 0 0 0 0 0 0 0 4329 3873 3679 3345 3199 3066 3066 2725 2628 2537 2537 2628 2725 2725 2725 2725 3199 3199 3345 3066 2943 2943 2943 0 3066 2943 3199 3066 3345 3679 3679 3679 3504 3504 3873 3504 3345 4599 4088 3679 0 3199 3066 0 0 0 2628 2453 2453 2830 2453 2299 2628 2230 2044 2299 2102 2044 0 0 0 2299 2102 2374 2628 2830 2537 2628 2230 2374 2374 2453 2453 2164 2374 2453 2453 2628 2628 2725 2537 2537 2725 2537 2230 2299 2374 2299 2374 2453 2453 2299 2374 2537 2537 2374 2453 2230 2374 2299 2374 2374 2299 2299 2299 2299 2453 1989 1989 1795 1795 1752 1989 1936 1887 2044 2102 2102 2230 2164 2453 2164 2164 2374 2044 1989 1989 2044 2044 0 0 3066 3679 3345 2943 2374 2230 2044 1936 1887 1839 1839 1672 1711 1672 1599 1471 1501 1501 1471 1471 1533 1443 1443 1471 1565 1501 1415 1443 1415 1415 1415 1415 1415 1415 1443 1443 1443 1388 1443 1415 1388 1362 1388 1338 1362 1338 1471 1268 1291 1314 1291 1314 1362 1362 1362 1415 1388 1362 1362 1268 1338 1291 1338 1314 1338 1362 1388 1362 1443 1471 1599 1599 1672 1672 1672 1711 1752 1752 1752 1565 1635 1599 1501 1501 1471 1501 1501 1501 1533 1501 1533 1501 1471 1565 1501 1471 1565 0 0 2453 0 0 0 0 0 0 0 0 0 0 0 0 0 0 0 0 0 0 0 0
    0 0 0 0 0 0 0 0 0 0 0 0 0 0 0 0 0 0 0 0 0 0 0 0 0 0 0 0 0 0 0 0 0 0 0 0 0 0 0 0 0 0 0 0 0 0 0 0 0 0 0 0 0 0 0 0 0 0 0 0 0 0 0 0 0 0 0 0 0 4329 4088 3873 3345 3199 3199 3066 2830 2725 2628 2628 2725 2830 2830 2830 2830 3345 3199 3345 3066 2943 2943 2943 0 3066 2943 3345 3066 3345 3679 3679 3504 3504 3504 3679 3504 3504 4906 4088 3679 3199 3345 3066 0 0 0 2537 2453 2453 2830 2453 2299 2537 2102 1989 2164 2044 2044 1989 0 2230 2230 2164 2374 2628 2725 2628 2628 2230 2374 2374 2453 2453 2230 2453 2537 2537 2725 2725 2725 2628 2628 2725 2537 2230 2299 2374 2374 2374 2453 2453 2299 2374 2453 2453 2374 2374 2299 2374 2299 2374 2374 2374 2299 2299 2374 2453 1989 1989 1795 1839 1795 1989 1989 1936 2044 2044 2102 2164 2102 2374 2044 2102 2299 1936 1936 1887 2102 2299 0 2299 3066 3679 3345 2628 2299 2230 2102 1989 1936 1887 1887 1711 1752 1711 1635 1501 1533 1501 1501 1471 1533 1443 1443 1471 1565 1471 1415 1443 1415 1415 1415 1415 1415 1415 1443 1443 1471 1388 1443 1443 1415 1388 1388 1362 1388 1338 1471 1291 1314 1314 1291 1314 1338 1362 1362 1388 1362 1338 1338 1247 1338 1291 1338 1314 1362 1362 1388 1388 1443 1471 1599 1599 1672 1672 1672 1711 1752 1752 1752 1599 1635 1635 1565 1533 1501 1501 1533 1501 1565 1501 1501 1501 1471 1533 1501 1443 1501 0 0 0 0 0 0 0 0 0 0 0 0 0 0 0 0 0 0 0 0 0 0 0
    0 0 0 0 0 0 0 0 0 0 0 0 0 0 0 0 0 0 0 0 0 0 0 0 0 0 0 0 0 0 0 0 0 0 0 0 0 0 0 0 0 0 0 0 0 0 0 0 0 0 0 0 0 0 0 0 0 0 0 0 0 0 0 0 0 0 0 0 0 4329 3873 3679 3199 3199 3199 3066 2943 2830 2725 2725 2830 2943 2943 2943 2943 3345 3345 3345 3066 2943 2943 2943 3066 3066 3066 3345 3199 3345 3679 3504 3504 3504 3504 3679 3504 3504 4906 4329 3679 3199 3345 3066 0 0 0 2537 2374 2374 2830 2374 2230 2453 1989 1887 2102 2044 2102 1989 2044 2230 2102 2230 2537 2628 2725 2725 2537 2299 2374 2453 2537 2374 2299 2537 2537 2628 2830 0 2830 2725 2725 2830 2537 2164 2299 2299 2299 2299 2453 2374 2299 2299 2453 2453 2374 2299 2299 2299 2299 2374 2453 2374 2374 2299 2537 2628 2044 2102 1795 1936 1839 2044 1989 1989 2102 2102 2102 2230 2102 2374 2044 2102 2374 1887 0 0 2453 2943 0 2830 3199 3679 3199 2537 2230 2230 2102 1989 1989 1936 1887 1795 1795 1752 1672 1501 1533 1533 1501 1471 1533 1443 1443 1471 1565 1471 1415 1415 1415 1415 1415 1415 1415 1415 1471 1471 1501 1415 1471 1443 1415 1388 1388 1362 1388 1338 1443 1291 1291 1291 1291 1314 1338 1338 1338 1362 1362 1338 1314 1226 1338 1314 1338 1338 1362 1388 1388 1388 1471 1471 1599 1599 1672 1672 1672 1711 1711 1752 1752 1599 1672 1672 1599 1565 1501 1533 1533 1533 1565 1501 1533 1501 1443 1501 1471 1415 1501 0 0 0 0 0 0 0 0 0 0 0 0 0 0 0 0 0 0 0 0 0 0 0
    0 0 0 0 0 0 0 0 0 0 0 0 0 0 0 0 0 0 0 0 0 0 0 0 0 0 0 0 0 0 0 0 0 0 0 0 0 0 0 0 0 0 0 0 0 0 0 0 0 0 0 0 0 0 0 0 0 0 0 0 0 0 0 0 0 0 0 0 0 4329 3873 3679 3199 3066 3066 3066 2943 2830 2725 2725 2830 3066 3066 3066 3199 3345 3345 3345 3066 2943 2830 2943 2943 3066 3066 3345 3199 3199 3504 3504 3504 3345 3504 3504 3345 3345 4599 4088 3679 3199 3199 0 0 0 0 2537 2374 2374 2830 2374 2230 2453 1989 1887 2044 1989 2102 1989 2102 2299 2044 2299 2628 2628 2725 2725 2453 2299 2374 2537 2537 2374 2374 2628 2628 2725 0 0 0 2830 2943 2830 2299 2102 2299 2374 2299 2299 2453 2374 2299 2299 2453 2453 2374 2230 2299 2299 2299 2374 2453 2374 2374 2374 2628 2725 2230 2299 1795 1989 1887 2102 2044 1989 2102 2164 2164 2230 2102 2374 2102 2164 2374 0 0 0 0 2830 0 2628 2830 3199 2943 2453 2164 2230 2164 2044 2044 1989 1936 1839 1795 1752 1672 1501 1565 1533 1501 1471 1533 1415 1415 1443 1565 1443 1388 1415 1415 1415 1415 1415 1443 1415 1471 1471 1501 1415 1471 1443 1415 1388 1388 1362 1362 1338 1443 1291 1338 1338 1314 1338 1338 1338 1338 1338 1362 1314 1291 1206 1362 1314 1362 1338 1362 1388 1388 1388 1471 1471 1599 1599 1672 1672 1672 1711 1711 1711 1752 1635 1672 1672 1599 1565 1501 1533 1533 1533 1565 1533 1533 1533 1471 1533 1533 1415 0 0 0 2299 1887 0 0 0 0 0 0 0 0 0 0 0 0 0 0 0 0 0 0 0
    0 0 0 0 0 0 0 0 0 0 0 0 0 0 0 0 0 0 0 0 0 0 0 0 0 0 0 0 0 0 0 0 0 0 0 0 0 0 0 0 0 0 0 0 0 0 0 0 0 0 0 0 0 0 0 0 0 0 0 0 0 0 0 0 0 0 0 0 0 4329 4088 3679 3199 3199 3199 3066 3199 2830 2830 2830 3066 3345 3199 3199 3345 3345 3345 3345 3199 2943 2830 2943 0 3066 3066 3345 3066 3199 3345 3345 3345 3199 3199 3345 3199 3199 4329 3873 3504 3066 0 0 0 0 0 2537 2374 2374 2830 2374 2230 2453 1989 1936 2102 2044 2230 2164 2374 2537 2102 2453 2628 2725 2725 2628 2374 2299 2374 2537 2453 2299 2453 2725 0 0 0 0 0 2943 3199 2830 2164 2102 2374 2374 2230 2299 2374 2299 2299 2374 2453 2453 2299 2299 2299 2299 2299 2374 2453 2453 2374 2453 2725 2725 2299 2537 1887 2102 1936 2164 2044 2044 2164 2164 2164 2299 2164 2374 2102 2230 2299 0 0 0 0 2453 2943 2537 2725 3066 2628 2374 2164 2230 2164 2044 2044 1989 1936 1839 1795 1752 1672 1533 1565 1533 1501 1471 1565 1415 1415 1443 1565 1443 1388 1415 1415 1415 1415 1415 1415 1415 1443 1471 1471 1388 1471 1443 1443 1415 1415 1362 1388 1362 1533 1338 1388 1388 1338 1338 1362 1338 1291 1314 1314 1291 1268 1187 1362 1338 1362 1338 1362 1388 1388 1415 1501 1471 1599 1599 1672 1672 1672 1711 1711 1711 1711 1599 1672 1672 1565 1533 1471 1501 1533 1501 1565 1501 1501 1533 1471 1533 1635 1471 0 0 3066 2044 0 0 0 0 0 0 0 0 0 0 0 0 0 0 0 0 0 0 0 0
    0 0 0 0 0 0 0 0 0 0 0 0 0 0 0 0 0 0 0 0 0 0 0 0 0 0 0 0 0 0 0 0 0 0 0 0 0 0 0 0 0 0 0 0 0 0 0 0 0 0 0 0 0 0 0 0 0 0 0 0 0 0 0 0 0 0 0 0 0 4599 4088 3679 3345 3345 3345 3199 3345 2943 2943 2943 3199 3504 3345 3199 3504 3345 3199 3345 3199 2943 2830 2943 0 2943 3066 3199 3066 3066 3066 3199 3066 3066 3066 3066 2943 3066 3873 3504 3345 2830 0 0 0 0 2628 2453 2299 2299 2830 2299 2164 2374 1936 1887 2044 2044 2299 2164 2537 2628 2164 2537 2725 2725 2725 2628 2299 2299 2453 2537 2453 2299 2628 2725 0 0 3199 0 0 3066 3345 2830 2102 2164 2374 2374 2230 2299 2453 2299 2299 2374 2453 2374 2299 2299 2299 2299 2374 2299 2453 2453 2374 2453 2725 2725 2374 2725 1936 2164 1989 2164 2102 2102 2164 2230 2164 2299 2164 2374 2102 2374 2299 0 0 0 2943 0 3199 2830 2830 3066 2537 2453 2164 2230 2102 2044 2044 1989 1936 0 1795 1752 1672 1533 1565 1501 1471 1471 1565 1415 1415 1443 1533 1415 1388 1388 1415 1388 1415 1415 1415 1415 1471 1471 1501 1388 1471 1443 1471 1443 1443 1388 1415 1388 1635 1415 1501 1471 1415 1415 1443 1388 0 1314 1291 0 1268 1206 1388 1362 1388 1362 1362 1388 1388 1415 1533 1471 1599 1599 1672 1672 1672 1672 1672 1711 1711 1599 1635 1672 1533 1533 1471 1471 1501 1501 1533 1501 1501 1533 1471 1599 1711 1711 0 2830 2164 1989 0 0 0 0 0 0 0 0 0 0 0 0 0 0 0 0 0 0 0 0
    0 0 0 0 0 0 0 0 0 0 0 0 0 0 0 0 0 0 0 0 0 0 0 0 0 0 0 0 0 0 0 0 0 0 0 0 0 0 0 0 0 0 0 0 0 0 0 0 0 0 0 0 0 0 0 0 0 0 0 0 0 0 0 0 0 0 0 0 0 4599 4088 3679 3345 3345 3345 3199 3679 3066 3066 3066 3345 3679 3504 3345 3679 3345 3345 3345 3345 3199 2943 2943 0 0 0 0 2943 2830 2830 0 2943 2830 2943 2830 2725 0 0 3345 3199 2628 0 0 0 0 2628 2453 2374 2374 2830 2374 2299 2374 1936 1887 2102 2102 2374 2299 2725 2725 2374 2537 2725 2725 2725 2453 2299 2299 2453 2537 2453 2230 2628 2725 0 135 0 0 3066 3066 3504 2830 2102 2164 2453 2374 2230 2299 2453 2299 2299 2374 2453 2374 2299 2299 2374 2299 2374 2374 2453 2453 2374 2537 2830 2628 2453 2725 1989 2230 2044 2230 2102 2164 2230 2230 2164 2299 2164 2374 2102 0 0 0 0 0 2943 3066 3066 2830 2830 3066 2374 2453 2230 2230 2164 2044 2044 1989 1936 0 1795 1752 1672 1501 1565 1501 1471 1471 1533 1415 1415 1415 1533 1415 1388 1388 1388 1415 1415 1388 1415 1415 1443 1415 1471 1388 1443 1443 1471 1443 1471 1443 1471 1443 1672 1533 1672 1599 1565 1533 1599 1501 0 0 1338 0 0 1247 1415 1415 1415 1362 1362 1415 1415 1443 1565 1501 1599 1635 1672 1711 1672 1711 1672 1711 1672 1565 1635 1672 1533 1533 1443 1443 1501 1501 1533 1501 1501 1533 1501 1635 1752 0 0 2102 1887 1839 1752 0 0 0 0 0 0 0 0 0 0 0 0 0 0 0 0 0 0 0
    0 0 0 0 0 0 0 0 0 0 0 0 0 0 0 0 0 0 0 0 0 0 0 0 0 0 0 0 0 0 0 0 0 0 0 0 0 0 0 0 0 0 0 0 0 0 0 0 0 0 0 0 0 0 0 0 0 0 0 0 0 0 0 0 0 0 0 0 0 4599 4088 3679 0 3199 3345 3199 3679 3199 3199 3199 3345 0 3679 3504 4088 3345 3345 3345 3345 3345 2943 0 0 2830 0 2943 2943 2725 2725 2830 2830 2830 0 2725 2628 2725 0 3199 3066 0 0 0 0 0 2537 2453 2374 2374 2943 2537 2537 2537 2044 1989 2164 2164 2453 2453 2830 2830 2537 2537 2725 2725 2725 2453 2299 2374 2453 2537 2453 2230 2725 2830 0 135 0 0 3066 3066 3679 2725 2102 2230 2453 2299 2164 2299 2374 2230 2299 2374 2374 2299 2230 2299 2299 2230 2299 2299 2453 2374 2299 2537 2830 2628 2453 2725 2044 2374 2102 2374 2164 2230 2299 2299 2230 2299 2164 2374 0 0 0 0 0 0 2943 2943 3066 2830 2830 3066 2230 2374 2230 2230 2164 2044 2044 2044 1989 1887 1795 1752 1672 1501 1565 1501 1471 1443 1533 1415 1415 1415 1501 1388 1362 1362 1362 1362 1388 1362 1388 1388 1415 1388 1443 1362 1443 1443 1471 1471 1501 1443 1471 1415 1672 1443 1599 1471 1443 1415 1471 0 0 0 0 0 1314 1268 1443 1443 1415 1362 1338 1388 1388 1415 1599 1533 1565 1672 1711 1711 1711 1711 1711 1711 1635 1599 1635 1672 1565 1533 1471 1443 1501 1501 1533 1501 1533 1565 1533 1672 1795 1795 2725 1936 1839 1795 1711 0 0 0 0 0 0 0 0 0 0 0 0 0 0 0 0 0 0 0
    0 0 0 0 0 0 0 0 0 0 0 0 0 0 0 0 0 0 0 0 0 0 0 0 0 0 0 0 0 0 0 0 0 0 0 0 0 0 0 0 0 0 0 0 0 0 0 0 0 0 0 0 0 0 0 0 0 0 0 0 0 0 0 0 0 0 0 0 0 4329 3873 3504 0 0 0 0 3873 3199 0 0 0 3873 3873 3679 4329 3345 3345 3345 3345 3504 2943 3066 0 0 0 0 2943 2725 2628 2830 0 0 0 2830 2628 2725 0 3066 0 0 0 0 0 0 2537 2453 2453 2453 2943 2725 2725 2628 2164 2102 2230 2230 2537 2453 2537 2725 2537 2453 2537 2628 2628 2299 2299 2453 2453 2453 2453 2299 2725 2830 0 0 134 0 3199 3199 3873 2628 2102 2374 2453 2299 2230 2374 2374 2299 2374 2374 2374 2299 2230 2299 2299 2299 2374 2374 2453 2374 2374 2628 2830 2628 2537 2725 2102 2374 2164 2374 2164 2299 2299 2299 2230 2299 2164 2374 2044 0 0 0 0 0 2943 2725 2943 2725 2725 2830 2102 2374 2164 2230 2164 2044 2044 2044 1989 1887 1795 1752 1711 1501 1565 1501 1471 1471 1533 1415 1415 1415 1533 1388 1362 1362 1362 1338 1362 1338 1362 1388 1388 1388 1415 1338 1415 1415 1443 1443 1471 1443 1471 1415 1635 1415 1565 1443 1388 1362 0 0 0 0 0 0 1291 1247 1443 1443 1388 1362 1338 1362 1362 1415 1599 1533 1533 1672 1752 1711 1711 1711 1711 1711 1635 1635 1672 1752 1599 1565 1501 1471 1533 1533 1501 1471 1501 1533 1565 1672 1795 1752 0 0 0 1752 0 0 0 0 0 0 0 0 0 0 0 0 0 0 0 0 0 0 0 0
    0 0 0 0 0 0 0 0 0 0 0 0 0 0 0 0 0 0 0 0 0 0 0 0 0 0 0 0 0 0 0 0 0 0 0 0 0 0 0 0 0 0 0 0 0 0 0 0 0 0 0 0 0 0 0 0 0 0 0 0 0 0 0 0 0 0 0 0 0 4088 3873 0 0 0 92 92 4088 3345 3345 3345 0 3873 4088 3679 4329 3199 3345 3199 3504 3873 3199 3199 3066 0 0 0 2943 2725 2628 2830 0 0 0 2830 2628 0 2830 2943 0 2299 0 2537 0 0 2537 2453 2453 2453 3066 2943 2830 0 0 1887 2044 2164 2628 2230 2164 2725 2537 2453 2453 2537 2537 2299 2299 2453 2374 2453 2453 2374 2725 2830 2943 3345 0 0 3199 3199 3679 2628 2230 2453 2453 2374 2230 2374 2374 2299 2374 2374 2374 2299 2230 2374 2299 2299 2374 2374 2453 2299 2453 2628 2725 2628 2537 2830 2102 2453 2164 2453 2230 2374 2374 2299 2230 2374 2230 2374 2102 2537 1989 1936 2102 2374 2537 2299 2725 2725 2628 2628 1989 2299 2164 2230 2164 2044 2044 2044 1989 1936 1795 1752 1711 1501 1565 1501 1471 1471 1533 1415 1415 1415 1533 1388 1338 1314 1338 1314 1314 0 1362 1362 1362 1362 1415 1314 1415 1388 1415 1443 1443 1415 1443 1415 1635 1415 1599 1501 1388 0 0 0 0 0 0 0 1226 1226 1415 1443 1388 1362 1338 1362 1362 1388 1599 1501 1533 1711 1795 1752 1752 1752 1711 1711 1635 1635 1672 1752 1635 1565 0 1471 1533 1565 1501 1471 1471 1533 1533 1635 1711 1635 0 0 0 1711 0 0 0 0 0 0 0 0 0 0 0 0 0 0 0 0 0 0 0 0
    0 0 0 0 0 0 0 0 0 0 0 0 0 0 0 0 0 0 0 0 0 0 0 0 0 0 0 0 0 0 0 0 0 0 0 0 0 0 0 0 0 0 0 0 0 0 0 0 0 0 0 0 0 0 0 0 0 0 0 0 0 0 0 0 0 0 0 0 0 3873 0 0 0 0 92 92 4088 3345 3504 3504 0 3873 3873 3679 4088 3066 3199 3199 3679 4088 3504 3679 3199 2830 0 0 2830 2725 2628 0 0 0 0 2725 0 0 2725 2725 2725 2230 2453 2537 2453 2537 2537 2453 2453 2374 2943 2830 2830 0 0 1711 0 0 2299 1936 1936 2725 2537 2453 2537 2628 2537 2299 2374 2453 2374 2453 2453 2299 2628 2725 2943 3199 0 3066 3066 3066 3679 2725 2453 2628 2537 2453 2299 2453 2453 2299 2453 2374 2374 2299 2230 2374 2299 2299 2374 2374 2453 2299 2453 2628 2725 2628 2537 2725 2164 2453 2164 2453 2230 2374 2374 2374 2299 2374 2299 2453 2164 2628 1989 1989 2102 2102 1989 1795 2453 2628 2537 2299 1936 2299 2164 2164 2164 2044 2044 2044 1989 1936 1795 1752 1711 1471 1533 1471 1471 1443 1501 1415 1388 1388 1533 1338 1291 1268 1314 1291 1291 0 1362 1362 1362 1338 1388 1314 1388 1388 1388 1415 1415 1415 1443 1415 1599 1443 1565 1533 1471 1415 0 0 0 0 0 0 1206 1226 1415 1443 1388 1338 1338 1362 1362 1388 1565 1471 1501 1711 1795 1752 1752 1752 1711 1711 1635 1635 1672 1752 1635 1565 0 0 0 1635 1565 1533 1533 1599 1599 1711 1752 1672 0 0 0 1711 1672 0 0 0 0 0 0 0 0 0 0 0 0 0 0 0 0 0 0 0
    0 0 0 0 0 0 0 0 0 0 0 0 0 0 0 0 0 0 0 0 0 0 0 0 0 0 0 0 0 0 0 0 0 0 0 0 0 0 0 0 0 0 0 0 0 0 0 0 0 0 0 0 0 0 0 0 0 0 0 0 0 0 0 0 0 0 0 0 0 3679 0 0 0 0 92 92 3873 3345 3345 3504 0 0 0 0 3873 3066 3345 3345 3873 4088 3504 3679 3345 0 0 0 2830 2628 2628 0 0 0 246 0 2453 0 2725 2628 2628 2164 2453 2537 2374 2537 2628 2453 2453 2374 2943 2830 2830 0 0 1711 1839 0 2230 2044 1989 2628 2628 2453 2453 2628 2453 2299 2374 2453 2374 2374 2453 2230 2537 2628 2943 3066 0 3066 3066 3066 3679 2830 2628 2628 2537 2453 2299 2453 2374 2230 2374 2374 2374 2299 2230 2374 2230 2230 2374 2374 2374 2299 2453 2725 2628 2628 2537 2628 2164 2453 2164 2453 2230 2374 2374 2299 2299 2374 2299 2453 2164 2628 1989 1989 2102 1936 1795 1752 2044 2374 2299 2044 1936 2299 2164 2164 2164 2102 2044 2044 1989 1936 1752 1752 1711 1471 1501 1471 1471 1443 1501 1388 1388 1388 1501 1338 1291 1291 1338 1314 0 0 1362 1362 1388 1362 1415 1314 1388 1388 1388 1415 1415 1415 1443 1415 1565 1443 1533 1565 1471 1443 1471 0 0 0 0 0 0 1226 1415 1415 1388 1338 1338 1362 1362 1388 1533 1443 1471 1672 1839 1752 1752 1752 1752 1752 1635 1672 1672 1752 1672 1635 0 0 0 1635 1533 1565 1565 1635 1635 1752 1752 1752 0 0 0 1711 1672 0 0 0 0 0 0 0 0 0 0 0 0 0 0 0 0 0 0 0
    0 0 0 0 0 0 0 0 0 0 0 0 0 0 0 0 0 0 0 0 0 0 0 0 0 0 0 0 0 0 0 0 0 0 0 0 0 0 0 0 0 0 0 0 0 0 0 0 0 0 0 0 0 0 0 0 0 0 0 0 0 0 0 0 0 0 0 0 0 3679 0 0 0 0 0 0 3679 3345 3345 3345 0 0 0 0 0 3066 3345 3345 3679 4088 3504 3679 3345 0 0 2830 2830 2628 2628 2830 0 0 246 0 2537 2453 2725 2628 2537 2164 2453 2537 2374 2537 2628 2453 2453 2453 3066 2943 2943 0 0 1711 1795 0 2102 2102 2044 2725 2725 2453 2537 2628 2453 2299 2374 2453 2374 2374 2453 2230 2453 2628 2943 2943 0 2943 2943 2943 3504 2830 2830 2628 2537 2453 2299 2537 2453 2299 2453 2453 2374 2299 2230 2374 2299 2299 2374 2374 2374 2299 2537 2725 2537 2537 2537 2628 2164 2453 2164 2453 2230 2374 2374 2299 2299 2374 2230 2374 2102 2537 1989 1989 2044 1795 1752 1752 1989 2299 2299 1989 1989 2299 2230 2164 2164 2102 2044 2044 1989 1887 1752 1752 1711 1471 1501 1471 1443 1443 1471 1388 1388 1388 1501 1362 1291 1291 1338 1314 0 0 0 0 1415 1388 1443 1338 1388 1388 1388 1415 1415 1388 1415 1388 1533 1388 1501 1565 1415 1443 1471 0 0 0 598 0 0 1268 1388 1415 1388 1338 1338 1362 1362 1362 1501 1415 1443 1672 1839 1752 1752 1711 1711 1711 1635 1672 1672 1711 1672 1672 1711 1599 1599 1672 1565 1599 1599 1635 1599 1711 1711 1711 1752 0 0 0 0 0 0 0 0 0 0 0 0 0 0 0 0 0 0 0 0 0 0 0
    0 0 0 0 0 0 0 0 0 0 0 0 0 0 0 0 0 0 0 0 0 0 0 0 0 0 0 0 0 0 0 0 0 0 0 0 0 0 0 0 0 0 0 0 0 0 0 0 0 0 0 0 0 0 0 0 0 0 0 0 0 0 0 0 0 0 0 0 0 0 0 0 0 2830 0 0 0 0 3199 0 0 0 0 0 0 3066 3199 3345 3679 4088 0 3504 3199 0 0 2830 2830 2537 2628 2830 0 0 0 2725 2537 2453 2725 2628 2628 2230 2453 2537 2374 2537 2628 2453 2453 2453 3066 2943 2943 0 0 0 0 0 2374 2374 2102 2725 2830 2453 2537 2628 2374 2299 2453 2453 2374 2299 2453 2164 2453 2628 2943 2943 2943 2830 2830 2943 3504 2830 2943 2725 2628 2537 2453 2537 2453 2374 2537 2537 2453 2299 2299 2453 2230 2299 2374 2453 2299 2299 2537 2725 2628 2628 2628 2628 2230 2453 2164 2453 2230 2374 2299 2299 2299 2374 2230 2374 2102 2453 1989 1989 1989 1795 1752 1795 2044 2164 2230 1936 2044 2230 2230 2164 2164 2102 2044 2044 2044 1887 1795 1752 1711 1501 1471 1471 1443 1443 1443 1388 1388 1388 1501 1362 1314 1314 1362 1338 0 0 0 0 1415 1362 1415 1314 1362 1362 1362 1388 1388 1362 1388 1362 1471 1362 1415 1533 1388 1501 0 0 0 0 0 0 0 1291 1388 1388 1362 1338 1338 1338 1362 1362 1501 1415 1443 1635 1839 1752 1752 1711 1711 1711 1635 1672 1672 1752 1711 1711 1752 1672 1672 1752 1635 1635 1635 1672 1635 1672 1672 1635 1635 1635 0 0 0 0 0 0 0 0 0 0 0 0 0 0 0 0 0 0 0 0 0 0
    0 0 0 0 0 0 0 0 0 0 0 0 0 0 0 0 0 0 0 0 0 0 0 0 0 0 0 0 0 0 0 0 0 0 0 0 0 0 0 0 0 0 0 0 0 0 0 0 0 0 0 0 0 0 0 0 0 0 0 0 0 0 0 0 0 0 0 0 0 0 0 0 2830 2628 0 0 147 0 0 0 0 0 0 0 0 3066 3199 3199 3504 3679 0 3199 3066 0 0 2725 2725 2453 2628 2725 2628 2537 0 2725 2628 2453 2830 2725 2725 2299 2537 2537 2374 2537 2628 2453 2453 2453 2943 2830 2830 0 0 1839 0 0 2374 2299 2102 2725 2830 2453 2537 2628 2374 2374 2453 2453 2299 2299 2453 2164 2453 2537 2830 2830 2830 2830 2830 2830 3345 2943 3199 2725 2537 2537 2453 2628 2453 2453 2537 2537 2537 2299 2374 2453 2299 2374 2374 2453 2230 2374 2725 2725 2725 2628 2628 2628 2230 2453 2164 2453 2230 2374 2374 2299 2299 2374 2299 2453 2164 2453 2044 1989 1989 1752 1752 1752 1936 1936 2044 1887 2044 2230 2230 2164 2164 2102 2044 2044 2044 1887 1795 1795 1711 1501 1471 1443 1415 1415 1443 1388 1362 1388 1471 1362 1314 1314 1362 1338 0 0 0 0 1362 1338 1362 1291 1338 1338 1314 1362 1338 1338 1362 1338 1415 1338 1388 1533 1415 1533 1565 0 0 0 0 0 0 1268 1362 1362 1338 1338 1338 1338 1362 1362 1471 1415 1443 1635 1839 1795 1752 1711 1752 1711 1672 1711 1672 1752 1752 1711 1795 1711 1711 1752 1635 1635 1635 1635 1599 1599 1599 1533 1533 1565 0 0 0 0 0 0 0 0 0 0 0 0 0 0 0 0 0 0 0 0 0 0
    0 0 0 0 0 0 0 0 0 0 0 0 0 0 0 0 0 0 0 0 0 0 0 0 0 0 0 0 0 0 0 0 0 0 0 0 0 0 0 0 0 0 0 0 0 0 0 0 0 0 0 0 0 0 0 0 0 0 0 0 0 0 0 0 0 0 0 0 0 0 0 0 2725 2537 0 0 147 0 0 2830 0 0 0 0 0 2943 3066 3066 3345 3345 0 0 2943 2725 0 0 2725 2453 2628 2725 2628 2628 0 2830 2725 0 0 2725 2725 2374 2537 2628 2374 2537 2628 2453 2453 2453 2943 2725 2725 2725 2164 1887 1839 1887 2044 2102 2044 2725 2725 2453 2453 2537 2374 2374 2453 2453 2299 2299 2453 2164 2453 2537 2830 2830 2830 2830 2830 2830 3345 2943 3345 2628 2453 2537 2374 2537 2374 2453 2628 2628 2628 2299 2453 2453 2299 2453 2374 2453 2299 2453 2830 2725 2830 2830 2725 2725 2230 2374 2102 2453 2230 2374 2299 2299 2299 2374 2299 2453 2164 2453 2102 2044 2044 1795 1752 1752 1887 1887 1989 1839 2044 2164 2230 2164 2164 2102 2044 2102 2102 1839 1795 1795 1711 1501 1443 1443 1415 1415 1415 1362 1362 1362 1471 1388 1338 1338 1338 1338 1338 0 1388 1362 1415 1362 1415 1314 1362 1338 1314 1338 1338 1338 1338 1338 1388 1338 1362 1443 1362 1471 1443 0 0 1206 0 0 0 1247 1338 1338 1338 1338 1338 1338 1362 1362 1471 1443 1443 1635 1839 1839 1795 1711 1752 1711 1711 1711 1711 1795 1752 1752 1839 1795 1752 1752 1672 1635 1599 1599 1533 1501 1501 1471 1443 1565 0 0 0 0 0 0 0 0 0 0 0 0 0 0 0 0 0 0 0 0 0 0
    0 0 0 0 0 0 0 0 0 0 0 0 0 0 0 0 0 0 0 0 0 0 0 0 0 0 0 0 0 0 0 0 0 0 0 0 0 0 0 0 0 0 0 0 0 0 0 0 0 0 0 0 0 0 0 0 0 0 0 0 0 0 0 0 0 0 0 0 0 0 0 2628 2628 2374 0 0 0 0 0 2725 2725 2725 0 2725 2943 2830 2943 2830 3066 3066 2830 2830 2830 2725 2725 2628 2725 2453 2628 2725 2628 2628 0 0 0 0 0 2725 2830 2453 2628 2628 2453 2537 2628 2453 2453 2453 2830 2537 2537 2725 2044 1839 1839 1839 1936 1936 1936 2453 2628 2374 2453 2453 2299 2374 2453 2453 2299 2299 2374 2164 2453 2453 2725 2725 2725 2830 2830 2830 3199 3066 3504 2628 2453 2537 2299 2537 2299 2374 2725 2628 2628 2374 2537 2537 2299 2453 2453 2453 2374 2537 2943 2830 3199 3066 2830 2830 2102 2299 1989 2299 2164 2299 2299 2230 2299 2374 2299 2537 2164 2453 2164 2102 1989 1795 1752 1752 1839 1839 1989 1839 2102 2164 2230 2102 2102 2102 2102 2102 2164 1839 1795 1795 1711 1501 1415 1415 1415 1388 1415 1362 1362 1362 1443 1388 1314 1314 1338 1314 1314 1362 1443 1415 1501 1415 1443 1338 1362 1338 1314 1338 1338 1338 1338 1338 1388 1338 1362 1471 1362 1501 0 0 0 1226 0 1314 1268 1291 1338 1338 1338 1314 1362 1362 1362 1362 1471 1443 1471 1635 1887 1839 1795 1711 1752 1711 1672 1711 1752 1795 1795 1752 1839 1795 1795 1795 1752 1635 1635 1599 1533 1471 1501 1533 1471 0 0 0 0 0 0 0 0 0 0 0 0 0 0 0 0 0 0 0 0 0 0 0
    0 0 0 0 0 0 0 0 0 0 0 0 0 0 0 0 0 0 0 0 0 0 0 0 0 0 0 0 0 0 0 0 0 0 0 0 0 0 0 0 0 0 0 0 0 0 0 0 0 0 0 0 0 0 0 0 0 0 0 0 0 0 0 0 0 0 0 0 0 2830 2628 2628 2628 2374 2374 2299 2725 2628 2628 2537 2537 2537 0 2628 2830 2725 2830 2725 2943 2943 2725 2830 2725 2628 2725 2628 2725 2453 2725 2725 2628 2725 0 0 2830 2628 2830 2725 2830 2537 2628 2628 2453 2537 2725 2537 2453 2453 2830 2453 2453 2628 1936 1795 1839 1839 1887 1936 1989 2453 2537 2453 2537 2374 2299 2453 2453 2374 2230 2299 2374 2102 2374 2374 2628 2628 2725 2725 2725 2725 3199 3066 4088 2725 2537 0 0 0 0 0 0 0 2725 2453 2725 2628 2374 2453 2299 2230 2230 2537 2830 2628 3199 3066 2830 2830 2044 2299 1936 2299 2164 2230 2230 2230 2299 2453 2299 2537 2164 2374 2102 2102 1936 1752 1752 1752 1795 1795 1989 1839 2102 2164 2230 2102 2102 2102 2044 2102 2164 1795 1795 1795 1672 1471 1415 1415 1388 1388 1388 1362 1338 1338 1443 1388 1314 1291 1314 1314 1314 1338 1415 1388 1443 1388 1443 1338 1362 1338 1314 1338 1338 1338 1338 1338 1388 1338 1362 1471 1388 1565 0 0 0 1226 0 1291 1268 1291 1314 1314 1314 1314 1362 1362 1388 1362 1471 1471 1471 1635 1887 1839 1839 1711 1752 1672 1635 1672 1711 1752 1752 1752 1795 1795 1795 1839 1795 1711 1672 1672 1599 1533 1565 1599 1599 0 0 0 0 0 0 0 0 0 0 0 0 0 0 0 0 0 0 0 0 0 0 0
    0 0 0 0 0 0 0 0 0 0 0 0 0 0 0 0 0 0 0 0 0 0 0 0 0 0 0 0 0 0 0 0 0 0 0 0 0 0 0 0 0 0 0 0 0 0 0 0 0 0 0 0 0 0 0 0 0 0 0 0 0 0 0 0 0 0 0 0 0 2725 2628 2628 2628 2374 2374 2230 2628 2453 2537 2453 2374 2374 2537 2537 2725 2628 2830 2725 2943 2830 2628 2725 2725 2628 2628 2628 2725 2453 2628 2725 2628 2628 2830 0 0 2537 2830 2725 2830 2537 2725 2628 2453 2537 2725 2537 2537 2537 2830 2453 2453 2628 1989 1795 1839 1839 1989 2044 2164 2628 2725 2725 2830 2374 2299 2453 2453 2374 2230 2299 2299 2102 2374 2374 2537 2628 2628 2725 2725 2725 3199 3199 5256 2725 0 0 0 0 0 0 0 0 0 2725 2943 2537 2299 2230 2102 1936 0 0 0 2453 2943 2725 2628 2628 1989 2230 1936 2230 2164 2164 2230 2230 2299 2453 2299 2628 2164 2299 2164 2102 1936 1752 1795 1795 1795 1795 1989 1795 2164 2164 2230 2102 2044 2102 2044 2044 2164 1752 1752 1752 1635 1443 1388 1388 1388 1388 1388 1338 1338 1338 1443 1415 1338 1338 1338 1314 1291 1268 1314 1291 1338 1338 1362 1314 1314 1338 1314 1338 1314 1314 1338 1314 1362 1338 1362 1501 1415 1599 0 0 0 0 1533 1362 1338 1314 1314 1314 1314 1314 1362 1362 1388 1362 1471 1471 1471 1599 1839 1887 1839 1672 1711 1635 1599 1672 1672 1711 1711 1672 1752 1711 1752 1839 1795 1711 1672 1711 1599 1501 1565 1672 1672 0 1443 0 0 0 0 0 0 0 0 0 0 0 0 0 0 0 0 0 0 0 0 0
    0 0 0 0 0 0 0 0 0 0 0 0 0 0 0 0 0 0 0 0 0 0 0 0 0 0 0 0 0 0 0 0 0 0 0 0 0 0 0 0 0 0 0 0 0 0 0 0 0 0 0 0 0 0 0 0 0 0 0 0 0 0 0 0 0 0 0 0 0 0 0 2725 2628 2374 2374 2230 2537 2299 2374 2230 2164 2230 2453 2453 2725 2628 2725 2628 2830 2725 2537 2628 2628 2537 2628 2537 2628 2453 2628 2628 2537 2537 2725 2830 2830 2537 2830 2725 2830 2628 2725 2725 2453 2537 2725 2628 2628 2628 2830 2453 2537 2725 2102 1795 1887 1887 2044 2164 2374 2725 2725 2725 2725 2374 2374 2537 2374 2299 2164 2299 2299 2102 2374 2299 2537 2628 2628 2725 2725 2725 3199 3199 5256 2725 0 0 0 0 0 0 0 0 0 0 0 2453 2164 2230 2044 0 0 0 0 2299 2628 2537 2453 2299 1887 2102 1887 2164 2102 2164 2164 2230 2230 2374 2299 2628 2230 2299 2230 2164 1936 1795 1839 1887 1839 1839 1936 1752 2102 2164 2164 2102 2044 2044 2044 2044 2164 1752 1752 1752 1635 1443 1388 1388 1388 1362 1388 1338 1338 1338 1415 1388 1338 1338 1314 1291 1268 1247 1247 1206 1268 1268 1314 1291 1314 1314 1291 1314 1291 1314 1314 1291 1314 1291 1314 1388 1338 1501 0 0 0 0 0 1599 1711 1388 1388 1388 1362 1338 1388 1388 1388 1362 1443 1471 1471 1599 1795 1795 1795 1711 1711 1635 1599 1635 1672 1711 1711 1672 1711 1711 1711 1795 1752 1672 1599 1635 1599 1471 1565 1672 1635 1752 1362 0 0 0 0 1226 0 0 0 0 0 0 0 0 0 0 0 0 0 0 0 0
    0 0 0 0 0 0 0 0 0 0 0 0 0 0 0 0 0 0 0 0 0 0 0 0 0 0 0 0 0 0 0 0 0 0 0 0 0 0 0 0 0 0 0 0 0 0 0 0 0 0 0 0 0 0 0 0 0 0 0 0 0 0 0 0 0 0 0 0 0 0 0 2725 2725 2453 2374 2230 2453 2230 2299 2164 2164 2164 2453 2374 2628 2537 2628 2453 2628 2537 2453 2537 2537 2537 2537 2537 2628 2453 2537 2628 2537 2537 2628 2830 2830 2537 2725 2830 2830 2725 2830 2725 2537 2628 2830 2725 2725 2725 2725 2453 2537 2725 1989 1752 1752 1711 1839 2044 2453 2725 2830 2943 2725 2374 2453 2537 2374 2230 2164 2299 2299 2164 2374 2299 2453 2537 2628 2725 2725 2725 3066 3199 5256 2725 0 0 0 0 0 0 0 0 0 0 0 0 0 0 0 0 897 0 0 2164 0 0 2102 1989 1795 1989 1839 2164 2164 2164 2164 2230 2299 2374 2299 2725 2230 2164 2230 2164 1989 1839 1887 1936 1887 1887 1936 1711 2102 2102 2164 2044 2044 2044 2044 2044 2230 1752 1752 1752 1635 1443 1388 1388 1362 1362 1362 1314 1314 1314 1388 1338 1291 1247 1226 1206 1187 1168 1115 1082 1149 1187 1268 1247 1268 1268 1247 1268 1268 1268 1291 1268 1291 1291 1291 1362 1338 1471 1362 0 0 0 1936 1635 1711 1415 1415 1471 1443 1388 1415 1415 1443 1415 1533 1565 1501 1565 1752 1752 1795 1672 1711 1635 1599 1672 1672 1711 1672 1635 1711 1672 1711 1752 1672 1635 1565 1635 1599 1471 1599 1672 1672 1839 1388 0 0 0 0 0 0 0 0 0 0 0 0 0 0 0 0 0 0 0 0 0
    0 0 0 0 0 0 0 0 0 0 0 0 0 0 0 0 0 0 0 0 0 0 0 0 0 0 0 0 0 0 0 0 0 0 0 0 0 0 0 0 0 0 0 0 0 0 0 0 0 0 0 0 0 0 0 0 0 0 0 0 0 0 0 0 0 0 0 0 0 2943 2830 2830 2725 2453 2453 2299 2453 2230 2374 2230 2164 2299 2453 2453 2628 2453 2453 2374 2628 2453 2374 2537 2537 2537 2537 2537 2628 2453 2537 2628 2453 2453 2537 2830 2830 2537 2725 2830 2830 2725 2830 2725 2537 2628 2830 2725 2725 2725 2830 2453 2537 2725 2044 1752 1711 1635 1795 2044 2374 2725 2725 2830 2537 2299 2453 2453 2374 2230 2102 2299 2299 2164 2374 2230 2453 2537 2628 2725 2725 2725 3066 3199 4906 2725 0 0 0 0 0 0 0 1936 0 0 0 0 0 0 0 0 0 0 0 0 0 0 0 0 1711 1936 1839 2102 2164 2164 2230 2299 2374 2453 2374 2830 2374 2164 2230 2102 1936 1795 1936 1936 1887 1887 1887 1711 2044 2102 2102 2044 2044 2044 2044 2102 2299 1752 1752 1752 1635 1443 1388 1362 1338 1338 1338 1291 1291 1268 1314 1247 1226 1149 1132 1115 1098 1082 1051 1066 1098 1115 1206 1206 1206 1226 1206 1226 1206 1226 1247 1226 1247 1268 1268 1338 1314 1501 1415 0 0 0 0 0 1839 1533 1501 1599 1501 1415 1443 1471 1501 1471 1599 1599 1533 1599 1711 1752 1795 1672 1711 1635 1599 1672 1672 1711 1672 1635 1711 1672 1711 1752 1672 1635 1565 1635 1599 1501 1635 1635 1672 1887 0 0 0 0 0 0 0 0 0 0 0 0 0 0 0 0 0 0 0 0 0 0
    0 0 0 0 0 0 0 0 0 0 0 0 0 0 0 0 0 0 0 0 0 0 0 0 0 0 0 0 0 0 0 0 0 0 0 0 0 0 0 0 0 0 0 0 0 0 0 0 0 0 0 0 0 0 0 0 0 0 0 0 0 0 0 0 0 0 0 0 0 2943 2830 2830 2628 2453 2453 2299 2453 2299 2374 2230 2230 2453 2453 2453 2628 2453 2374 2299 2453 2299 2299 2537 2537 2628 2537 2537 2628 2537 2537 2628 2537 2537 2537 2830 2830 2537 2725 2830 2830 2725 2830 2830 2628 2628 2943 2830 2830 2830 2830 2537 2628 2628 1989 1711 1672 1635 0 2230 2628 2725 2830 2830 2299 2299 2453 2453 2374 2230 2102 2299 2299 2164 2374 2230 2453 2537 2628 2725 2628 2725 2943 3066 4088 2725 0 0 0 1501 1533 1501 1672 1752 1711 0 0 0 0 0 0 0 0 0 0 0 0 0 0 0 1635 1936 1795 2164 2230 2230 2299 2374 2374 2537 2374 2830 2453 2102 2164 2102 1989 1887 1936 1936 1887 1887 1887 1711 2044 2044 2102 1989 2044 2044 2044 2102 2299 1752 1711 1711 1599 1388 1338 1338 1314 1314 1314 1226 1206 1206 1268 1187 1187 1066 1066 1082 1082 1066 1036 1051 1082 1098 1206 1206 1206 1226 1187 1206 1168 1187 1206 1187 1206 1226 1247 1291 1268 1443 1362 0 0 0 2453 0 1936 1672 1711 1752 1672 1471 1533 1565 1565 1501 1599 1599 1533 1565 1672 1672 1672 1635 1711 1599 1599 1672 1672 1672 1672 1635 1672 1672 1711 1795 1635 1635 1533 1635 1635 1599 1752 1672 1795 1989 0 0 0 0 0 0 0 0 0 0 0 0 0 0 0 0 0 0 0 0 0 0
    0 0 0 0 0 0 0 0 0 0 0 0 0 0 0 0 0 0 0 0 0 0 0 0 0 0 0 0 0 0 0 0 0 0 0 0 0 0 0 0 0 0 0 0 0 0 0 0 0 0 0 0 0 0 0 0 0 0 0 0 0 0 0 0 0 0 0 0 0 2943 2943 2830 2628 2537 2453 2299 2453 2299 2374 2230 2230 2537 2453 2453 2628 2453 2299 2230 2374 2299 2299 2537 2537 2725 2537 2628 2725 2628 2453 2628 2537 2453 2453 2725 2725 2453 2628 2830 2830 2830 2943 2830 2725 2725 2943 2943 2943 2943 2830 2725 2830 2830 2374 1795 1711 1672 1839 2230 2453 2537 2628 2537 2230 2299 2453 2453 2299 2230 2102 2299 2299 2164 2374 2164 2453 2453 2537 2725 2628 2628 2943 2943 3679 2725 0 0 1635 1415 1471 1443 1533 1635 1635 0 0 0 0 0 0 0 0 0 0 0 0 0 1989 0 1672 1989 1839 2164 2230 2230 2299 2299 2299 2453 2374 2830 2299 2044 2102 2102 2044 1936 1989 1989 1936 1887 1887 1711 1989 1989 2044 1989 1989 1989 1989 2044 2164 1672 1599 1565 1443 1338 1314 1291 1268 1268 1268 1187 1149 1168 1206 1098 1132 1051 1066 1066 1082 1066 1036 1066 1082 1115 1226 1206 1206 1206 1187 1187 1115 1132 1132 1115 1132 1149 1187 1206 1206 1388 1314 0 0 0 2725 0 2230 1795 1839 1795 1711 1565 1599 1599 1599 1533 1599 1533 1533 1533 1635 1599 1635 1599 1635 1533 1599 1635 1635 1672 1635 1599 1635 1635 1711 1795 1672 1672 1599 1711 1711 1752 1795 1752 1936 2102 0 0 0 1149 0 0 0 0 0 0 0 0 0 0 0 0 0 0 0 0 0 0
    0 0 0 0 0 0 0 0 0 0 0 0 0 0 0 0 0 0 0 0 0 0 0 0 0 0 0 0 0 0 0 0 0 0 0 0 0 0 0 0 0 0 0 0 0 0 0 0 0 0 0 0 0 0 0 0 0 0 0 0 0 0 0 0 0 0 0 0 0 2943 2943 2943 2725 2628 2537 2453 2453 2374 2537 2374 2299 2628 2537 2537 2628 2453 2230 2230 2374 2299 2299 2628 2628 2830 2628 2725 2830 2725 2299 2537 2453 2374 2299 2628 2628 2374 2628 2830 2830 2830 2943 2943 2725 2725 3066 2943 2943 3066 2830 2830 2830 2830 2537 1989 1752 1839 1936 2299 2374 2374 2374 2299 2164 2299 2453 2374 2299 2230 2102 2299 2374 2164 2374 2230 2453 2453 2537 2725 2628 2628 2943 2943 3679 2725 0 0 1635 1443 1471 1443 1565 0 0 0 0 0 0 0 0 0 0 0 0 0 0 2164 1936 0 1752 1989 1839 2164 2299 2299 2230 2299 2299 2453 2299 2830 2230 1989 1989 2102 2102 1989 2044 2044 2044 1989 1887 1672 1936 1936 1936 1936 1936 1936 1887 1887 1989 1565 1443 1415 1362 1314 1268 1247 1226 1226 1226 1149 1115 1149 1149 1098 1098 1051 1066 1082 1082 1082 1051 1082 1098 1115 1206 1187 1187 1168 1132 1115 1066 1082 1098 1082 1098 1098 1132 1149 1168 1415 1338 1635 1989 2230 2299 2299 2537 1989 1887 1795 1752 1599 1533 1471 1443 1388 1415 1415 1415 1415 1443 1471 1533 1565 1635 1501 1533 1599 1635 1635 1599 1565 1599 1599 1672 1711 1635 1635 1565 1672 1711 1752 1795 1752 2044 2164 0 0 0 0 0 0 0 0 0 0 0 0 0 0 0 0 0 0 0 0 0 0
    0 0 0 0 0 0 0 0 0 0 0 0 0 0 0 0 0 0 0 0 0 0 0 0 0 0 0 0 0 0 0 0 0 0 0 0 0 0 0 0 0 0 0 0 0 0 0 0 0 0 0 0 0 0 0 0 0 0 0 0 0 0 0 0 0 0 0 0 0 3066 3066 3066 2830 2725 2628 2537 2537 2453 2628 2453 2453 2725 2537 2537 2628 2453 2299 2299 2374 2374 2299 2725 2830 2943 2628 2725 2830 2830 2164 2537 2374 2299 2299 2537 2537 2374 2537 2943 2830 2943 2943 2943 2830 2830 3199 2943 3066 3066 2943 2830 2943 2943 2628 2230 1839 1936 2044 2374 2453 2374 2453 2230 2230 2374 2453 2374 2299 2230 2102 2299 2374 2230 2374 2230 2453 2453 2537 2725 2628 2628 2943 2943 3679 2725 0 0 1711 0 1672 1533 0 0 0 0 0 0 0 0 0 1989 0 2230 2230 0 0 0 0 0 0 2044 1887 2230 2374 2299 2230 2299 2299 2453 2299 2725 2102 1936 1989 2102 2102 2102 2164 2230 2230 2230 1936 1635 1887 1887 1887 1839 1839 1795 1795 1752 1795 1415 1338 1338 1291 1268 1226 1206 1187 1187 1187 1115 1082 1132 1115 1115 1098 1051 1066 1098 1115 1098 1051 1098 1098 1098 1168 1149 1149 1115 1082 1066 1051 1051 1066 1066 1066 1082 1115 1115 1132 1443 1362 1672 1936 1887 2044 1989 2628 2164 1887 1752 1752 1599 1471 1388 1362 1338 1338 1362 1362 1362 1388 1415 1443 1501 1565 1501 1501 1533 1565 1565 1565 1565 1565 1565 1635 1635 1599 1635 1565 1635 1672 1752 1795 1795 2044 2164 0 0 0 0 0 0 0 0 0 0 0 0 0 0 0 0 0 0 0 0 0 0
    0 0 0 0 0 0 0 0 0 0 0 0 0 0 0 0 0 0 0 0 0 0 0 0 0 0 0 0 0 0 0 0 0 0 0 0 0 0 0 0 0 0 0 0 0 0 0 0 0 0 0 0 0 0 0 0 0 0 0 0 0 0 0 0 0 0 0 0 0 3066 3066 3066 2830 2830 2725 2628 2628 2537 2628 2537 2537 2725 2537 2537 2537 2453 2374 2299 2453 2374 2230 2725 2830 2943 2537 2725 2725 2725 2102 2453 2299 2230 2230 2453 2453 2299 2453 2943 2830 2943 3066 3066 2943 2943 3345 3066 3199 3345 3199 3066 3199 3066 2943 2453 1839 1936 2102 2453 2453 2453 2453 2164 2230 2453 2453 2374 2299 2230 2102 2299 2374 2230 2299 2230 2374 2453 2537 2725 2628 2628 2943 2943 3504 2537 0 0 1711 0 1795 1711 2164 2374 3199 0 0 0 0 0 0 2102 2164 2299 2230 0 0 0 0 0 0 2044 1887 2230 2453 2374 2299 2299 2299 2453 2299 2725 2044 1887 1936 2044 2044 2102 2374 2725 2725 2830 1989 1672 1839 1887 1887 1839 1839 1752 1752 1672 1752 1388 1338 1314 1291 1247 1206 1168 1132 1149 1115 1082 1066 1098 1098 1132 1115 1082 1051 1098 1115 1098 1082 1149 1115 1098 1149 1149 1149 1098 1066 1066 1051 1051 1082 1082 1082 1082 1132 1132 1168 1388 1415 1672 1887 1839 1989 1936 3066 2230 1887 1711 1672 1565 1443 1338 1291 1291 1291 1314 1314 1314 1338 1338 1388 1415 1471 1443 1501 1471 1501 1533 1501 1533 1565 1565 1635 1635 1635 1672 1672 1711 1795 1887 1839 1887 2102 2164 0 0 0 0 0 0 1168 1168 1149 0 0 0 0 0 0 0 0 0 0 0 0 0
    0 0 0 0 0 0 0 0 0 0 0 0 0 0 0 0 0 0 0 0 0 0 0 0 0 0 0 0 0 0 0 0 0 0 0 0 0 0 0 0 0 0 0 0 0 0 0 0 0 0 0 0 0 0 0 0 0 0 0 0 0 0 0 0 0 0 0 0 0 3066 2943 2943 2725 2830 2830 2628 2628 2628 2628 2628 2628 2725 2453 2453 2453 2374 2374 2299 2374 2374 2164 2628 2830 2943 2537 2628 2725 2628 2044 2453 2299 2164 2164 2374 2374 2230 2374 2943 2725 2830 2943 3066 2943 3066 3345 3066 3199 3345 3199 3066 3066 3066 2943 2628 2102 2044 2102 2374 2374 2299 2299 2102 2230 2453 2453 2374 2374 2299 2102 2299 2453 2230 2299 2230 2374 2374 2537 2725 2628 2628 2943 2830 3199 2230 0 0 1711 0 1795 1711 2164 2537 3504 3345 0 0 0 0 0 2230 2230 2374 2230 0 0 0 0 0 0 2044 1887 2299 2537 2374 2230 2299 2299 2453 2230 2628 1989 1795 1839 1989 1936 2044 2453 2830 0 3066 2044 1711 1887 1936 1839 1795 1795 1672 1672 1599 1672 1338 1291 1291 1247 1206 1168 1168 1098 1115 1098 1082 1066 1082 1082 1098 1082 1082 1036 1051 1098 1082 1115 1149 1115 1098 1206 1226 1206 1082 1098 1098 1082 1098 1098 1098 1115 1132 1168 1168 1168 1338 1314 1443 1711 1795 1887 1839 2230 1989 1839 1711 1635 1533 1415 1314 1268 1268 1268 1268 1291 1291 1291 1291 1314 1362 1388 1388 1443 1443 1471 1471 1471 1501 1565 1599 1635 1635 1635 1635 1599 1599 1672 1752 1752 1795 1839 1839 0 0 0 0 0 0 1206 1206 1187 0 0 0 0 0 0 0 0 0 0 0 0 0
    0 0 0 0 0 0 0 0 0 0 0 0 0 0 0 0 0 0 0 0 0 0 0 0 0 0 0 0 0 0 0 0 0 0 0 0 0 0 0 0 0 0 0 0 0 0 0 0 0 0 0 0 0 0 0 0 0 0 0 0 0 0 0 0 0 0 0 0 0 2725 2830 2830 2537 2725 2725 2628 2628 2628 2628 2628 2628 2725 2453 2453 2453 2374 2374 2374 2453 2453 2230 2725 2830 2943 2537 2628 2628 2537 2044 2453 2299 2164 2164 2374 2230 2164 2374 2943 2628 2537 2725 2943 2943 2943 3199 2943 3066 3199 3199 3066 3066 3066 2943 2725 2299 2164 2102 2374 2299 2299 2164 2102 2230 2453 2374 2374 2374 2299 2102 2374 2453 2230 2299 2299 2453 2374 2453 2725 2537 2537 2943 2725 2943 2102 0 0 1672 1672 1711 1635 2102 0 3679 3345 0 0 0 0 0 2374 2230 2299 2164 0 0 0 0 1989 0 2102 1887 2374 2537 2374 2230 2299 2230 2453 2230 2537 1936 1752 1752 1936 1887 1936 2164 2725 0 3066 2044 1711 1839 1887 1795 1711 1711 1599 1565 1471 1533 1291 1268 1268 1226 1168 1149 1149 1098 1115 1098 1098 1082 1066 1082 1082 1066 1082 1022 1008 1022 1036 1247 1247 1187 0 1471 1362 1291 1206 1187 1187 1132 1149 1149 1132 1132 1168 1187 1206 1187 1443 1672 1599 1672 1711 1795 1752 1795 1795 1711 1565 1443 1388 1362 1291 1247 1247 1268 1268 1268 1268 1291 1291 1291 1314 1338 1362 1415 1415 1443 1443 1443 1471 1565 1599 1672 1635 1635 1635 1501 1443 1471 1501 1565 1599 1711 1672 0 0 0 0 0 1226 0 1268 0 0 1268 0 1388 0 0 0 0 0 0 0 0 0
    0 0 0 0 0 0 0 0 0 0 0 0 0 0 0 0 0 0 0 0 0 0 0 0 0 0 0 0 0 0 0 0 0 0 0 0 0 0 0 0 0 0 0 0 0 0 0 0 0 0 0 0 0 0 0 0 0 0 0 0 0 0 0 0 0 0 0 0 0 2453 2537 2537 2230 2725 2725 2628 2628 2725 2628 2628 2628 2725 2453 2453 2453 2453 2374 2374 2453 0 0 0 0 2943 2537 2628 2628 2453 2102 2453 2299 2164 2164 2299 2164 2102 2230 2943 2628 2230 2628 3066 3199 3199 3199 3066 3066 3199 3345 3345 3199 3199 3066 2830 2628 2453 2299 2453 2374 2374 2164 2164 2299 2453 2374 2299 2374 2299 2102 2374 2453 2164 2299 2299 2453 2374 2453 2725 2537 2537 2943 2725 2830 2044 0 0 1635 1599 1672 1565 0 0 3873 0 0 0 0 0 2453 2230 2164 0 0 0 2230 2230 1936 0 0 2044 1887 2299 2537 2299 2230 2230 2230 2374 2164 2453 1936 1752 1752 1887 1839 1936 2164 0 3066 3066 2102 1752 1795 1887 1752 1672 1672 1565 1471 1415 1415 1291 1247 1226 1206 1132 1132 1149 1115 1132 1132 1115 1098 1098 1115 1132 1098 1132 1051 1022 1051 1149 1635 1533 1565 1887 1795 1795 1711 0 0 1268 1226 1226 1206 1168 1132 1149 1168 1149 1149 0 0 1672 1795 1711 1795 1752 0 1839 1672 1443 1338 1314 1314 1247 1226 1226 1247 1247 1247 1268 1268 1268 1291 1314 1338 1338 1388 1415 1415 1443 1415 1443 1501 1565 1672 1599 1672 1672 1443 1338 1338 1362 1362 1314 1338 1291 1247 0 0 0 1247 1226 0 0 0 0 0 0 1388 0 0 0 0 0 0 0 0 0
    0 0 0 0 0 0 0 0 0 0 0 0 0 0 0 0 0 0 0 0 0 0 0 0 0 0 0 0 0 0 0 0 0 0 0 0 0 0 0 0 0 0 0 0 0 0 0 0 0 0 0 0 0 0 0 0 0 0 0 0 0 0 0 0 0 0 0 0 0 2299 2374 2374 2164 2628 2628 2628 2628 2725 2628 2628 2628 2725 2374 2374 2299 2374 2374 2299 2374 2374 2230 2628 2628 2830 2453 2628 2628 2374 2102 2453 2230 2164 2164 2299 2102 2102 2230 2943 2453 2164 2537 2943 3066 3199 3199 2943 3066 3199 3345 3345 3066 3066 2943 2830 2537 2453 2374 2453 2374 2453 2164 2164 2374 2453 2299 2299 2299 2299 2102 2453 2537 2164 2374 2374 2453 2374 2453 2725 2537 2537 2830 2453 2453 1936 1795 1752 1672 0 1711 1565 0 0 0 0 0 0 0 0 2299 2044 2044 2044 1989 1936 2044 2044 1936 0 0 1989 1887 2164 2453 2164 2102 2102 2102 2299 2102 2374 1887 1752 1752 1887 1839 2044 2374 0 7359 3199 2164 1752 1795 1887 1711 1635 1599 1471 1415 1362 1362 1268 1226 1206 1168 1115 1115 1132 1115 1132 1149 1149 1115 1132 1187 1226 1206 1226 1132 1132 1247 1415 1635 1599 1635 1839 1795 1887 1887 2537 2374 0 0 0 1247 1168 1115 1132 1168 1149 1149 1206 0 1388 1415 1415 1599 1565 0 0 1443 1338 1268 1268 1268 1206 1168 1187 1226 1226 1226 1247 1247 1268 1291 1314 1338 1338 1388 1388 1388 1388 1388 1388 1388 1443 1501 1443 1501 1471 1362 1247 1291 1338 1314 1291 1291 1268 1226 1226 0 0 0 0 0 0 0 0 0 0 0 0 0 0 0 0 0 0 0 0
    0 0 0 0 0 0 0 0 0 0 0 0 0 0 0 0 0 0 0 0 0 0 0 0 0 0 0 0 0 0 0 0 0 0 0 0 0 0 0 0 0 0 0 0 0 0 0 0 0 0 0 0 0 0 0 0 0 0 0 0 0 0 0 0 0 0 0 0 0 2453 2453 2374 2230 2628 2628 2628 2628 2725 2537 2537 2537 2628 2230 2230 2164 2299 2299 2299 2374 2374 2299 2628 2628 2830 2537 2628 2628 2374 2102 2453 2299 2230 2164 2299 2164 2102 2299 2830 2164 2044 2537 2943 3066 3199 3066 2943 3066 3199 3199 3199 2943 3066 2943 2830 2453 2453 2374 2453 2374 2374 2230 2164 2374 2453 2374 2374 2374 2299 2164 2453 2537 2164 2374 2374 2453 2453 2453 2725 2537 2453 2943 2164 2164 1936 1795 0 0 0 1711 0 0 0 0 3504 2537 2830 0 0 2299 1989 2044 2044 2044 1989 1989 1989 0 0 1226 0 1839 2044 2230 2044 2044 2044 2044 2164 2044 2230 1839 1711 1672 1839 1711 0 0 6690 0 3504 2374 1795 1795 1839 1711 1599 1533 1443 1388 1338 1338 1247 1206 1187 1168 1098 1115 1132 1115 1149 1168 1187 1168 1168 1226 1226 1206 1247 1168 1168 1247 1362 1599 1635 1672 1795 1795 1887 1839 2830 0 0 0 0 1247 1168 1098 1115 1187 1168 1168 1149 1187 1362 1443 1443 1599 1565 0 0 0 0 1168 1187 1206 1132 1115 1132 1187 1187 1206 1226 1247 1247 1268 1291 1338 1338 1362 1362 1362 1362 1338 1362 1338 1314 1314 1291 1291 1314 1291 1226 1247 1291 1291 1291 1291 1247 1206 1226 0 0 0 0 0 0 0 0 0 0 0 0 0 0 0 0 0 0 0 0
    0 0 0 0 0 0 0 0 0 0 0 0 0 0 0 0 0 0 0 0 0 0 0 0 0 0 0 0 0 0 0 0 0 0 0 0 0 0 0 0 0 0 0 0 0 0 0 0 0 0 0 0 0 0 0 0 0 0 0 0 0 0 0 0 0 0 0 0 0 2537 2537 2374 2374 2628 2628 2628 2628 2725 2453 2453 2537 2537 2164 2164 2102 2230 2230 2299 2374 2374 2374 2537 2628 2830 2537 2628 2628 2453 2164 2453 2374 2299 2164 2299 2102 2102 2230 2725 1989 1936 2230 2725 2830 2943 2830 2830 2943 2943 3066 2943 2943 2943 2830 2725 2299 2374 2453 2453 2374 2299 2230 2230 2374 2453 2299 2230 2230 2230 2164 2453 2537 2102 2374 2453 2453 2453 2537 2725 2537 2453 0 0 1989 1936 1795 0 0 0 1839 0 2374 2374 2725 2725 2299 2374 2230 0 2299 2164 2164 2044 2044 1989 1936 1936 1936 0 1291 1635 1711 1936 2044 1989 1936 1936 1989 2044 1936 2102 1795 1635 1533 1672 1291 0 0 0 0 4088 2628 1752 1752 1839 1672 1533 1471 1388 1362 1314 1314 1247 1206 1187 1168 1098 1098 1149 1115 1168 1187 1206 1206 1187 1247 1268 1247 1268 1226 1206 1268 1415 1672 1711 1672 1795 1795 1887 1839 0 0 1247 1226 1226 1206 1149 1098 1132 1168 1187 1168 1098 1132 1314 1388 1388 1565 1565 1443 0 1314 1115 1149 1149 1168 1115 1098 1115 1168 1168 1206 1226 1226 1247 1268 1268 1314 1314 1338 1338 1338 1338 1338 1338 1314 1291 1314 1338 1314 1338 1314 1226 1247 1291 1291 1268 1247 1226 1206 1187 0 0 0 0 0 0 0 0 0 0 0 0 0 0 0 0 0 0 0 0
    0 0 0 0 0 0 0 0 0 0 0 0 0 0 0 0 0 0 0 0 0 0 0 0 0 0 0 0 0 0 0 0 0 0 0 0 0 0 0 0 0 0 0 0 0 0 0 0 0 0 0 0 0 0 0 0 0 0 0 0 0 0 0 0 0 0 0 0 0 2628 2537 2374 2299 2537 2537 2537 2537 2628 2299 2374 2537 2453 2164 2164 2044 2230 2230 2299 2374 2453 2453 2537 2537 2830 2537 2537 2628 2374 2164 2453 2374 2299 2164 2299 2164 2102 2164 2537 1989 1887 2102 2628 2725 2830 2830 2830 2943 2943 3066 2943 2943 3066 2725 2725 2374 2453 2453 2453 2453 2374 2299 2374 2374 2453 2299 2230 2230 2230 2230 2453 2453 2164 2453 2453 2453 2537 2537 2725 2537 2453 0 0 1989 1936 1752 1711 1839 1711 1839 1936 2230 2230 2453 2537 2230 2230 2164 2537 2299 2299 2374 2102 2164 2299 2044 1989 1989 1936 0 1711 1672 1839 1936 1936 1887 1887 1887 1936 1887 1936 1752 1533 1362 1362 1206 1115 0 0 0 5661 3066 0 0 1936 1635 1471 1415 1362 1338 1314 1291 1268 1226 1206 1187 1082 1115 1149 1098 1168 1206 1206 1187 1187 1247 1247 1226 1247 1226 1187 1247 1388 1635 1672 1635 1795 1795 1795 0 0 1226 1206 1206 1187 1187 1149 1115 1168 1168 1206 1187 1149 1168 1268 1338 1314 1443 1501 1388 1362 1291 1132 1168 1115 1149 1115 1098 1132 1149 1168 1206 1206 1226 1226 1226 1247 1268 1291 1291 1291 1314 1314 1338 1314 1291 1268 1291 1291 1291 1314 1268 1206 1226 1268 1268 1247 1247 1226 1187 1187 0 0 0 0 0 0 0 0 0 0 0 0 408 404 399 0 0 0 0 0
    0 0 0 0 0 0 0 0 0 0 0 0 0 0 0 0 0 0 0 0 0 0 0 0 0 0 0 0 0 0 0 0 0 0 0 0 0 0 0 0 0 0 0 0 0 0 0 0 0 0 0 0 0 0 0 0 0 0 0 0 0 0 0 0 0 0 0 0 0 2725 2628 2453 2374 2537 2453 2453 2453 2453 2164 2164 2299 2299 2102 2164 2044 2230 2230 2299 2299 2374 2453 2453 2374 2628 2453 2453 2537 2374 2230 2374 2299 2299 2230 2230 2164 2102 2164 2453 1989 1887 1989 2628 2628 2725 2725 2830 2943 2943 2943 2943 2830 2943 2725 2628 2374 2453 2537 2537 2537 2453 2374 2453 2453 2537 2374 2299 2230 2299 2230 2537 2537 2230 2453 2453 2537 2537 2537 2725 2537 2453 0 0 1989 1936 1752 1672 1839 1752 1795 1989 2164 2102 2299 2374 2230 2164 2164 2537 2299 2374 2537 2230 2374 2537 2299 2044 1989 1936 1672 1795 1672 1752 1839 1839 1839 1839 1839 1887 1839 1839 1711 1388 1268 1268 1168 1066 0 0 0 6133 3679 0 3345 2102 1635 1443 1388 1362 1338 1291 1291 1268 1247 1226 1206 1098 1149 1168 1132 1168 1206 1206 1187 1187 1226 1226 1206 1247 1226 1149 1247 1362 1565 1635 1599 1752 1795 1711 1268 1247 1187 1187 1168 1168 1168 1132 1115 1187 1149 1206 1187 1168 1168 1268 1338 1291 1388 1415 1338 1314 1206 1115 1168 1082 1132 1115 1082 1115 1149 1132 1168 1168 1206 1187 1168 1187 1187 1187 1268 1268 1268 1291 1314 1291 1291 1268 1291 1291 1291 1291 1291 1226 1247 1268 1291 1268 1247 1226 1206 1206 0 0 0 0 0 0 0 0 0 0 0 0 404 389 387 0 0 0 0 0
    0 0 0 0 0 0 0 0 0 0 0 0 0 0 0 0 0 0 0 0 0 0 0 0 0 0 0 0 0 0 0 0 0 0 0 0 0 0 0 0 0 0 0 0 0 0 0 0 0 0 0 0 0 0 0 0 0 0 0 0 0 0 0 0 0 0 0 0 0 2725 2628 2453 2374 2537 2453 2453 2374 2453 2102 2164 2230 2230 2102 2164 2044 2230 2230 2299 2299 2374 2453 2453 2374 2537 2453 2453 2537 2374 2230 2374 2299 2374 2230 2230 2164 2102 2164 2299 1936 1887 1887 2453 2537 2628 2453 2725 2830 2830 2830 2830 2725 2830 2628 2628 2299 2453 2537 2628 2537 2537 2453 2537 2537 2628 2453 2374 2299 2374 2299 2628 2537 2299 2537 2537 2537 2628 2628 2725 2537 2453 2943 2230 2164 2044 1752 1672 1887 1752 1839 2044 2102 2102 2230 2299 2230 2164 2164 2537 2299 2453 2537 2230 2374 2628 2453 2044 1989 1936 1752 1752 1672 1672 1752 1752 0 1752 1752 1752 1752 1752 1672 1362 1247 1268 1149 1051 1051 1098 1082 1115 1115 1149 1168 1247 1247 1247 1268 1314 1268 1226 1247 1226 1226 1226 1187 1115 1168 1206 1168 1187 1226 1206 1187 1187 1226 1206 1187 1226 1206 1132 1226 1362 1533 1635 1565 1711 1795 1672 1247 1226 1168 1168 1149 1149 1149 1115 1098 1149 1132 1187 1168 1168 1132 1226 1291 1268 1362 1415 1338 1314 1206 1098 1132 1066 1098 1098 1082 1082 1115 1115 1149 1132 1187 1149 1149 1149 1132 1115 1206 1247 1247 1268 1291 1268 1247 1268 1268 1268 1268 1268 1247 1206 1226 1268 1268 1247 1247 1226 1206 1187 0 0 0 0 0 0 0 0 0 393 373 0 395 377 375 0 0 0 0 0
    0 0 0 0 0 0 0 0 0 0 0 0 0 0 0 0 0 0 0 0 0 0 0 0 0 0 0 0 0 0 0 0 0 0 0 0 0 0 0 0 0 0 0 0 0 0 0 0 0 0 0 0 0 0 0 0 0 0 0 0 0 0 0 0 0 0 0 0 0 2725 2628 2453 2299 2453 2374 2374 2299 2374 2102 2102 2164 2230 2164 2230 2102 2299 2230 2299 2299 2374 2453 2453 2374 2537 2537 2453 2537 2453 2299 2374 2299 2374 2230 2230 2230 2102 2164 2230 1989 1887 1839 2537 2537 2628 2453 2725 2830 2830 2725 2725 2725 2725 2537 2628 2230 2453 2537 2628 2628 2537 2453 2537 2537 2628 2453 2453 2374 2374 2374 2628 2628 2299 2537 2537 2628 2628 2628 2725 2537 2453 2943 2725 2830 2537 1936 0 2102 1839 1887 2102 2102 2102 2164 2230 2230 2164 2164 2453 2230 2374 2537 2230 2453 0 2628 2044 1989 1936 1795 1752 1711 1635 1672 1672 1672 1711 1599 1635 1501 1599 1635 1314 1187 1226 1115 1082 1082 1149 1132 1206 1168 1115 1187 1247 1247 1247 1268 1291 1268 1226 1268 1247 1247 1226 1187 1168 1187 1206 1206 1187 1226 1226 1187 1206 1206 1206 1187 1206 1226 1132 1226 1415 1533 1599 1501 1533 1711 1501 1247 1226 1149 1149 1132 1149 1149 1115 1098 1149 1115 1187 1168 1187 1149 1268 0 1314 1362 1415 1362 1314 1226 1082 1115 1066 1082 1082 1051 1066 1082 1082 1115 1098 1132 1098 1098 1149 1098 1066 1149 1226 1247 1314 1314 1291 1268 1247 1291 1291 1291 1268 1268 1206 1226 1268 1268 1247 1226 1187 1168 1132 0 0 0 0 0 0 0 435 404 391 371 0 387 387 387 0 0 0 0 0
    0 0 0 0 0 0 0 0 0 0 0 0 0 0 0 0 0 0 0 0 0 0 0 0 0 0 0 0 0 0 0 0 0 0 0 0 0 0 0 0 0 0 0 0 0 0 0 0 0 0 0 0 0 0 0 0 0 0 0 0 0 0 0 0 0 0 0 0 0 2830 2725 2537 2374 2537 2374 2374 2299 2299 2044 2102 2164 2164 2164 2230 2102 2299 2230 2299 2299 2374 2453 2453 2374 2537 2537 2453 2537 2453 2374 2374 2299 2374 2230 2164 2230 2102 2164 2230 1989 1887 1839 2725 2628 2725 2537 2830 2830 2725 2725 2830 2725 2725 2537 2628 2230 2453 2537 2628 2628 2537 2453 2537 2537 2628 2537 2453 2374 2374 2374 2628 2628 2374 2628 2628 2628 2725 2628 2725 2537 2453 2943 2725 2943 2628 2044 0 2299 2044 1936 2164 2164 2164 2230 2230 2230 2164 2164 2453 2230 2374 2628 2299 2537 0 2725 2044 1989 1887 1795 1672 1565 1388 1388 1362 0 1362 1268 1291 1206 1247 1247 1247 1098 1149 1115 1132 1115 1206 1187 1268 1206 1115 1168 1206 1187 1206 1206 1226 1226 1206 1291 1291 1268 1268 1149 1206 1206 1226 1226 1187 1226 1226 1187 1206 1206 1206 1206 1206 1247 1168 1247 1471 1565 1599 1443 1388 1471 1338 1206 1206 1132 1149 1115 1132 1132 1115 1098 1149 1115 1187 1168 1206 1149 1247 0 1268 1338 1388 1362 1314 1206 1082 1098 1066 1066 1051 1036 1051 1051 1066 1082 1066 1082 1036 1051 0 0 0 1115 1187 1247 1362 1362 1314 1247 1226 1291 1291 1291 1291 1268 1226 1226 1268 1268 1226 1206 1149 1115 1082 1115 0 0 0 0 0 481 438 406 393 383 387 399 399 399 0 0 0 0 0
    0 0 0 0 0 0 0 0 0 0 0 0 0 0 0 0 0 0 0 0 0 0 0 0 0 0 0 0 0 0 0 0 0 0 0 0 0 0 0 0 0 0 0 0 0 0 0 0 0 0 0 0 0 0 0 0 0 0 0 0 0 0 0 0 0 0 0 0 0 2943 2830 2537 2453 2537 2374 2374 2299 2230 2044 2044 2164 2102 2164 2164 2102 2230 2164 2230 2230 2374 2537 2453 2299 2537 2628 2453 2537 2537 2453 2453 2374 2453 2299 2230 2374 2164 2164 2164 2044 2044 1936 2725 2628 2628 2453 2725 2830 2628 2537 2537 2537 2537 2453 2537 2164 2374 2537 2537 2628 2537 2537 2537 2537 2628 2537 2453 2453 2453 2453 2628 2628 2374 2628 2628 2628 2725 2725 2725 2537 2453 2943 2628 2830 2537 2102 0 2453 2230 1989 2299 2299 2230 2299 2299 2299 2299 2299 2537 2299 2453 2725 2374 2628 0 2725 2044 1936 1839 0 1565 1388 1314 1291 1268 1268 1247 1206 1206 1115 1187 1115 0 0 0 1132 1168 1149 1206 1168 1206 1149 1098 1115 1168 1168 1226 1226 1268 1268 1268 1388 1388 1388 1314 1168 1206 1206 1206 1187 1149 1206 1187 1187 1206 1206 1206 1206 1226 1268 1226 1314 1443 1471 1471 1388 1314 1314 1268 1149 1149 1098 1115 1098 1115 1115 1115 1098 1149 1115 1187 1168 1247 1187 1268 1314 1314 1362 1388 1362 1314 1187 1082 1098 1066 1066 1051 1036 1051 1036 1051 1066 1036 1051 1022 1036 1098 1036 1066 1132 1187 1268 1388 1388 1338 1291 1268 1291 1291 1291 1268 1268 1247 1226 1247 1226 1206 1168 1115 1082 1051 1051 0 0 0 0 0 481 438 418 402 395 397 402 402 402 0 0 0 0 0
    0 0 0 0 0 0 0 0 0 0 0 0 0 0 0 0 0 0 0 0 0 0 0 0 0 0 0 0 0 0 0 0 0 0 0 0 0 0 0 0 0 0 0 0 0 0 0 0 0 0 0 0 0 0 0 0 0 0 0 0 0 0 0 0 0 0 0 0 0 3066 2830 2537 2537 2628 2299 2299 2230 2164 1989 2044 2164 2044 2164 2230 2164 2299 2230 2299 2230 2374 2537 2453 2299 2537 2628 2453 2537 2628 2537 2453 2453 2537 2374 2230 2374 2164 2164 2164 2164 2299 1887 2725 2628 2628 2537 2830 2830 2537 2453 2537 2537 2537 2299 2537 2102 2374 2537 2628 2628 2537 2537 2628 2537 2725 2628 2537 2453 2537 2537 2725 2725 2453 2628 2628 2725 2725 2725 2725 2537 2453 2943 2725 2943 2830 2453 0 2537 2374 2044 2374 2299 2230 2374 2374 2374 2299 2299 2628 2374 2537 2830 2453 2725 0 2830 2044 1887 0 0 1471 1338 1268 1247 1226 1206 1206 1168 1149 1098 1168 1082 0 0 1132 1149 1168 1115 1132 1115 1115 1098 1051 1082 1115 1115 1187 1268 1291 1291 1314 1443 1443 1415 1338 1206 1226 1206 1206 1168 1132 1187 1168 1168 1206 1187 1187 1206 1226 1268 1226 1291 1471 1501 1471 1362 1247 1226 1226 1098 1132 1082 1098 1082 1115 1115 1115 1098 1149 1115 1187 1168 1247 1187 1291 1314 1314 1388 1388 1338 1314 1168 1066 1082 1051 1051 1036 1022 1036 1036 1036 1036 1036 1051 1036 1051 1098 1051 1066 1115 1206 1291 1415 1443 1388 1338 1338 1338 1314 1291 1291 1291 1268 1226 1206 1168 1132 1098 1066 1051 1008 981 876 0 0 0 533 481 440 425 404 395 395 399 402 402 0 0 0 0 0
    0 0 0 0 0 0 0 0 0 0 0 0 0 0 0 0 0 0 0 0 0 0 0 0 0 0 0 0 0 0 0 0 0 0 0 0 0 0 0 0 0 0 0 0 0 0 0 0 0 0 0 0 0 0 0 0 0 0 0 0 0 0 0 0 0 0 0 0 0 3199 2943 2628 2628 2725 2453 2453 2453 2230 2102 2230 2299 2044 2230 2299 2230 2299 2230 2230 2164 2299 2453 2374 2164 2299 2453 2299 2453 2537 2453 2374 2299 2453 2374 2164 2374 2102 2044 2044 2299 2537 1936 2537 2537 2628 2628 2830 2725 2453 2453 2537 2628 2537 2102 2374 2102 2299 2537 2628 2628 2537 2537 2628 2628 2725 2628 2537 2453 2537 2537 2725 2725 2537 2725 2725 2725 2725 2725 2725 2537 2453 3066 0 3066 3066 2628 0 2537 2374 1989 2299 2230 2164 2299 2299 2374 2230 2299 2537 2374 2537 2830 2453 0 0 2943 1989 0 0 0 1443 0 1247 1206 1168 1168 1168 1149 1149 1115 1187 1115 1168 1206 1206 1187 1187 1115 1132 1098 1082 1082 1036 1066 1115 1132 1206 1268 1314 1314 1314 1415 1415 1362 1314 1226 1226 1206 1187 1187 1132 1187 1187 1168 1206 1206 1206 1226 1226 1291 1268 1471 1672 1672 1672 1415 1268 1206 1226 1098 1149 1082 1098 1082 1115 1115 1115 1115 1149 1115 1168 1132 1226 1132 1247 1247 1268 1338 1338 1314 1268 1149 1082 1066 1051 1036 1022 1022 1022 1022 1022 1022 1022 1036 1022 1036 1082 1066 1082 1149 1247 1314 1415 1443 1415 1362 1362 1362 1314 1291 1314 1314 1314 1247 1168 1115 1098 1066 1051 1022 994 943 865 0 0 0 533 0 440 427 406 397 395 399 399 399 0 0 0 0 0
    0 0 0 0 0 0 0 0 0 0 0 0 0 0 0 0 0 0 0 0 0 0 0 0 0 0 0 0 0 0 0 0 0 0 0 0 0 0 0 0 0 0 0 0 0 0 0 0 0 0 0 0 0 0 0 0 0 0 0 0 0 0 0 0 0 0 0 0 0 3345 3066 2830 2725 2725 2453 2453 2374 2164 2102 2230 2299 2102 2299 2374 2299 2299 2299 2164 2044 2230 2299 2230 2044 2102 2299 2164 2299 2453 2374 2230 2164 2453 2374 2164 2374 2102 2102 2102 2628 3199 2628 2830 2830 2943 2830 3066 2830 2628 2537 2453 2537 2453 2164 2299 2102 2299 2628 2628 2725 2725 2628 2628 2628 2725 2725 2628 2628 2628 2628 2725 2830 2628 2725 2725 2725 2725 2628 2725 2453 2374 0 0 0 0 0 0 2453 2299 1989 2299 2230 2164 2299 2299 2374 2230 2230 2628 2299 2537 2830 2374 0 0 3066 1989 0 0 0 0 0 1247 1226 1168 1168 1187 1168 1168 1149 1226 1187 1206 1247 1247 1226 1206 1149 1168 1098 1098 1115 1066 1082 1132 1168 1187 1226 1268 1314 1314 1388 1388 1338 1314 1247 1247 1226 1206 1187 1115 1187 1168 1168 1206 1168 1168 1187 1187 1268 1226 0 0 1711 1672 1501 1338 0 1247 1115 1149 1098 1115 1082 1115 1098 1115 1098 1132 1098 1132 1115 1226 1098 1247 0 0 0 0 0 1206 1066 1066 1051 1036 1036 1022 1022 1022 1022 1022 1022 1008 1022 1008 1022 1066 1066 1115 1187 1268 1314 1415 1443 1415 1362 1362 1362 1314 0 0 0 0 0 1149 0 1098 1066 1051 0 0 0 0 0 0 0 0 0 448 430 411 397 395 397 399 399 0 0 0 0 0
    0 0 0 0 0 0 0 0 0 0 0 0 0 0 0 0 0 0 0 0 0 0 0 0 0 0 0 0 0 0 0 0 0 0 0 0 0 0 0 0 0 0 0 0 0 0 0 0 0 0 0 0 0 0 0 0 0 0 0 0 0 0 0 0 0 0 0 0 0 3679 3199 3504 3199 3199 2628 2628 2299 2230 2164 2299 2102 2102 2230 2374 2230 2230 2230 2164 1989 2164 2230 2230 2102 2102 2299 2164 2164 2374 2299 2230 2164 2374 2453 2102 0 0 0 0 0 0 0 0 0 0 0 0 0 0 0 0 2299 2299 2453 2164 2102 0 2628 2725 2725 2830 2725 2725 2725 2830 2830 2725 2725 2725 2537 2830 2943 2537 2725 2725 2725 2628 2628 2725 2374 0 0 0 0 0 0 0 0 0 1989 2230 2164 2164 2230 2230 2374 2230 2299 2628 2299 0 0 0 0 3199 3066 1936 84 84 84 0 0 1268 1247 1168 1187 1187 1168 1206 1187 1247 1206 1206 1247 1247 1206 1226 1168 1168 1098 1098 1115 1098 1098 1168 1187 1206 1226 1291 1291 1291 1314 1362 1291 1291 1247 1247 1226 1226 1206 1149 1187 1206 1187 1206 1168 1168 1168 1187 1268 0 3066 0 0 0 1565 0 0 0 1187 1168 1098 1115 1066 1098 1082 1098 1098 1115 1098 1132 1115 1226 1082 1268 0 0 0 0 0 1066 1022 1036 1036 1022 1022 1008 1008 1008 1008 1008 1008 994 1008 1008 1022 1051 1051 1082 1168 1226 1291 1362 1362 1362 1338 1362 1314 1291 0 0 79 0 0 0 0 0 0 0 0 0 0 0 0 0 0 533 487 454 432 415 399 397 399 404 404 0 0 0 0 0
    0 0 0 0 0 0 0 0 0 0 0 0 0 0 0 0 0 0 0 0 0 0 0 0 0 0 0 0 0 0 0 0 0 0 0 0 0 0 0 0 0 0 0 0 0 0 0 0 0 0 0 0 0 0 0 0 0 0 0 0 0 0 0 0 0 0 0 0 0 1752 1752 0 0 0 0 0 0 0 0 0 0 0 0 0 0 2164 2453 2374 2102 2374 2299 2299 2299 2164 2453 2164 2102 2374 0 0 0 0 0 0 0 0 0 0 0 0 0 0 0 0 0 0 0 0 0 0 0 0 0 2725 1936 2299 2537 2628 2830 2830 2725 2725 2830 2943 2943 2830 2830 2725 2537 2943 2830 2453 2725 2725 2725 2628 2628 2725 0 0 0 0 0 0 0 0 0 0 0 2299 2164 2230 2299 2299 2453 2299 2374 219 0 0 0 0 0 0 0 1936 0 0 0 0 1051 1247 1247 1168 1206 1206 1187 1226 1226 1268 1226 1206 1268 1226 1187 1226 1168 1168 1098 1115 1115 1115 1115 1187 1168 1187 1206 1247 1247 1247 1268 1291 1247 1268 1247 1247 1226 1226 1226 1187 1206 1226 1206 1226 1149 1149 1132 1149 0 0 4599 4088 0 0 0 0 0 0 1247 1226 1149 1149 1066 1115 1098 1115 1098 1115 1115 1149 1132 1247 1168 1314 0 0 0 0 0 897 931 1022 1022 1022 1008 1008 994 1008 1008 1008 994 981 994 994 1008 1022 1051 1082 1149 1226 1268 1338 1362 1338 1268 1268 1187 0 0 0 0 0 0 0 0 0 0 0 0 0 0 0 0 0 0 529 487 462 435 422 404 404 408 415 413 0 0 0 0 0
    0 0 0 0 0 0 0 0 0 0 0 0 0 0 0 0 0 0 0 0 0 0 0 0 0 0 0 0 0 0 0 0 0 0 0 0 0 0 0 0 0 0 0 0 0 0 0 0 0 0 0 0 0 0 0 0 0 0 0 0 0 0 0 0 0 0 0 0 0 1635 1533 1533 0 0 0 0 0 0 0 0 0 0 0 0 0 0 0 0 0 0 0 0 0 0 0 0 0 0 0 0 0 0 0 0 0 0 0 0 0 0 0 0 0 0 0 0 0 0 0 0 0 0 0 0 0 0 0 2628 0 2830 2628 2725 2725 2830 2725 2725 2830 2628 0 0 2943 2537 0 0 0 0 0 0 0 0 0 0 0 0 0 0 0 0 0 0 0 0 0 0 0 0 0 0 0 0 0 0 0 0 0 0 0 0 0 0 1022 1168 1226 1149 1206 1206 1187 1226 1226 1268 1226 1206 1247 1226 1187 1226 1187 1187 1115 1115 1132 1132 1132 1187 1187 1187 1206 1247 1247 1247 1247 1291 1226 1247 1226 1226 1226 1226 1226 1187 1206 1247 1247 1247 1168 1132 1115 1149 0 0 4599 0 0 0 0 0 0 0 1268 1247 1187 1187 1082 1132 1115 1149 1132 1149 1149 1168 1168 1268 0 1338 1362 0 0 0 0 876 897 994 1022 1022 1008 994 994 1008 1008 1008 994 981 994 994 1008 1022 1036 1066 1149 1226 1268 1338 1362 1314 1206 1082 0 0 0 0 0 0 0 0 430 413 399 391 0 0 0 0 0 0 0 525 490 468 440 430 413 413 420 427 425 0 0 0 0 0
    0 0 0 0 0 0 0 0 0 0 0 0 0 0 0 0 0 0 0 0 0 0 0 0 0 0 0 0 0 0 0 0 0 0 0 0 0 0 0 0 0 0 0 0 0 0 0 0 0 0 0 0 0 0 0 0 0 0 0 0 0 0 0 0 0 0 0 0 0 1443 1362 1362 1338 0 0 0 0 0 0 0 0 0 0 0 0 0 0 0 0 0 0 0 0 0 0 0 0 0 0 0 0 0 0 0 0 0 0 0 0 0 0 0 0 0 0 0 0 0 0 0 0 0 0 0 0 0 0 0 0 0 0 0 0 0 0 0 0 0 0 0 0 0 0 0 0 0 0 0 0 0 0 0 0 0 0 0 0 0 0 0 0 0 0 0 0 0 0 0 0 0 0 0 0 0 0 0 0 0 0 968 1008 1132 1187 1132 1187 1187 1187 1226 1226 1247 1226 1206 1247 1226 1226 1247 1206 1206 1168 1149 1149 1168 1149 1187 1187 1206 1226 1247 1268 1247 1247 1268 1247 1226 1226 1206 1206 1206 1226 1206 1206 1226 1268 1268 1149 1132 1066 0 0 0 0 0 0 0 0 0 0 0 1388 1338 0 1247 1115 1168 1132 1149 1149 1168 1187 1187 1187 1268 1268 1338 1362 0 0 897 855 886 897 1008 1022 1022 1008 994 1008 1008 1008 1008 981 968 994 1008 1008 1022 1036 1066 1149 1206 1247 1314 1314 1247 1082 981 0 0 0 0 0 0 462 0 432 422 406 397 391 0 0 0 0 0 0 521 493 477 446 432 425 425 432 435 432 0 0 0 0 0
    0 0 0 0 0 0 0 0 0 0 0 0 0 0 0 0 0 0 0 0 0 0 0 0 0 0 0 0 0 0 0 0 0 0 0 0 0 0 0 0 0 0 0 0 0 0 0 0 0 0 0 0 0 0 0 0 0 0 0 0 0 0 0 0 0 0 0 0 0 1338 1291 1291 1268 1247 0 0 0 0 0 0 0 0 0 0 0 0 0 0 0 0 0 0 0 0 0 0 0 0 0 0 0 0 0 0 0 0 0 0 0 0 0 0 0 0 0 0 0 0 0 0 0 0 0 0 0 0 0 0 0 0 0 0 0 0 0 0 0 0 0 0 0 0 0 0 0 0 0 0 0 0 0 0 0 0 0 0 0 0 0 0 0 0 0 0 0 0 0 0 0 0 0 0 0 0 0 0 0 0 0 968 994 1098 1206 1115 1187 1187 1206 1247 1247 1247 1226 1226 1268 1226 1226 1247 1206 1206 1168 1149 1149 1168 1168 1206 1206 1226 1247 1268 1291 1268 1268 1268 1247 1206 1226 1206 1206 1206 1226 1187 1187 1226 1291 1082 0 0 0 0 743 0 0 0 0 0 0 0 1599 1672 1533 1415 0 1314 1132 1187 1132 1149 1149 1149 1168 1187 1187 1247 1247 0 1388 0 0 0 826 845 876 1022 1022 1022 1008 994 1008 1008 1022 1008 981 968 994 1008 1022 1022 1036 1051 1098 1168 1206 1226 1226 1132 1022 886 0 0 0 0 0 0 0 443 438 430 415 402 395 0 0 0 0 0 0 518 497 481 454 438 432 430 440 443 440 0 0 0 0 0
    0 0 0 0 0 0 0 0 0 0 0 0 0 0 0 0 0 0 0 0 0 0 0 0 0 0 0 0 0 0 0 0 0 0 0 0 0 0 0 0 0 0 0 0 0 0 0 0 0 0 0 0 0 0 0 0 0 0 0 0 0 0 0 0 0 0 0 0 0 1291 1291 1268 1268 1247 1226 0 0 0 0 0 0 0 0 0 0 0 0 0 0 0 0 0 0 0 0 0 0 0 0 0 0 0 0 0 0 0 0 0 0 0 0 0 0 0 0 0 0 0 0 0 0 0 0 0 0 0 0 0 0 0 0 0 0 0 0 0 0 0 0 0 0 0 0 0 0 0 0 0 0 0 0 0 0 0 0 0 0 0 0 0 0 0 0 0 0 0 0 0 0 0 0 0 0 0 0 0 0 0 0 994 1022 1115 1247 1132 1226 1206 1226 1268 1247 1268 1247 1226 1268 1226 1226 1247 1206 1187 1187 1149 1149 1168 1187 1206 1206 1226 1247 1247 1268 1247 1247 1247 1206 1187 1226 1206 1206 1206 1206 1187 1187 1206 1291 1008 826 707 735 728 766 735 0 766 0 0 0 0 1565 1635 1565 1443 0 1314 1168 1206 1149 1168 1168 1149 1168 1187 1168 1247 1206 1247 0 0 0 836 0 0 836 886 1022 1008 981 994 1008 1022 1022 1022 981 955 981 1008 1008 1008 1022 1036 1051 1066 1082 1066 0 0 0 0 0 0 0 0 0 0 0 0 440 432 422 406 0 0 0 0 0 0 0 525 514 487 468 446 438 438 451 457 448 0 0 0 0 0
    0 0 0 0 0 0 0 0 0 0 0 0 0 0 0 0 0 0 0 0 0 0 0 0 0 0 0 0 0 0 0 0 0 0 0 0 0 0 0 0 0 0 0 0 0 0 0 0 0 0 0 0 0 0 0 0 0 0 0 0 0 0 0 0 0 0 0 0 0 1268 1268 1247 1268 1268 1247 0 0 0 0 0 0 0 0 0 0 0 0 0 0 0 0 0 0 0 0 0 0 0 0 0 0 0 0 0 0 0 0 0 0 0 0 0 0 0 0 0 0 0 0 0 0 0 0 0 0 0 0 0 0 0 0 0 0 0 0 0 0 0 0 0 0 0 0 0 0 0 0 0 0 0 0 0 0 0 0 0 0 0 0 0 0 0 0 0 0 0 0 0 0 0 0 0 0 0 0 0 0 0 968 1022 1036 1168 1268 1168 1247 1247 1226 1268 1268 1268 1247 1247 1268 1226 1226 1247 1206 1206 1206 1187 1168 1206 1206 1226 1226 1226 1226 1247 1247 1226 1226 1247 1187 1187 1206 1206 1206 1206 1226 1206 1187 1206 1291 1008 826 0 845 799 799 774 0 791 0 0 0 0 1415 1471 1501 1415 0 1338 1187 1226 1168 1187 1187 1168 0 1206 1187 1226 1132 0 0 0 0 0 0 438 0 0 0 0 0 994 1008 1022 1022 1022 981 943 955 981 968 931 0 0 0 0 0 0 0 360 357 352 347 347 345 0 0 0 0 0 0 0 430 425 0 0 0 0 0 0 0 518 525 497 481 465 451 454 468 462 451 0 0 0 0 0
    0 0 0 0 0 0 0 0 0 0 0 0 0 0 0 0 0 0 0 0 0 0 0 0 0 0 0 0 0 0 0 0 0 0 0 0 0 0 0 0 0 0 0 0 0 0 0 0 0 0 0 0 0 0 0 0 0 0 0 0 0 0 0 0 0 0 0 0 0 1206 1247 1226 1247 1268 1226 1291 0 0 0 0 0 0 0 0 0 0 0 0 0 0 0 0 0 0 0 0 0 0 0 0 0 0 0 0 0 0 0 0 0 0 0 0 0 0 0 0 0 0 0 0 0 0 0 0 0 0 0 0 0 0 0 0 0 0 0 0 0 0 0 0 0 0 0 0 0 0 0 0 0 0 0 0 0 0 0 0 0 0 0 0 0 0 0 0 0 0 0 0 0 0 0 0 0 0 0 0 0 1051 1022 1051 1066 1247 1314 1206 1291 1268 1247 1291 1268 1268 1247 1247 1247 1226 1226 1247 1206 1206 1206 1206 1187 1206 1206 1226 1226 1226 1226 1226 1226 1206 1206 1226 1187 1168 1206 1187 1187 1206 1226 1226 1187 1206 1291 1008 826 0 865 817 808 791 0 808 0 0 0 0 1388 1415 1501 0 0 1362 0 1247 1187 1187 1168 0 0 342 0 0 0 0 267 0 0 0 435 430 0 0 0 0 968 981 994 994 1008 1008 955 897 908 0 0 0 0 0 0 0 359 350 350 357 357 352 348 350 350 357 0 0 0 0 459 446 451 468 0 0 0 0 0 0 0 500 511 500 487 474 471 462 468 459 448 0 0 0 0 0</data></depth>
</opencv_storage>
