<?xml version="1.0"?>
<opencv_storage>
<gps_time_stamp>318972</gps_time_stamp>
<gps_x>-1.2432971954345703e+001</gps_x>
<gps_y>1.0954022407531738e+001</gps_y>
<gps_z>-1.9832361936569214e+000</gps_z>
<image_time_stamp>309857</image_time_stamp>
<depth type_id="opencv-matrix">
  <rows>91</rows>
  <cols>320</cols>
  <dt>s</dt>
  <data>
    0 0 0 0 0 0 0 0 0 0 0 0 0 0 0 0 0 0 0 0 0 0 0 0 0 0 0 0 0 0 0 0 0 0 0 0 0 0 0 0 0 0 0 0 0 0 0 0 0 0 0 0 0 0 0 0 0 0 0 0 0 0 0 0 0 0 0 0 0 1388 1314 1362 1443 1711 1752 1752 1672 1599 1533 1672 1711 1501 1565 1565 1635 1599 1635 1711 1672 1672 1795 1795 1795 1752 0 1795 1887 1887 1989 1989 1936 0 0 1989 0 0 0 0 0 8177 6690 6690 6133 5661 4906 4599 4599 4329 4088 4329 4088 4088 4329 3679 4088 4088 4088 4088 4329 4599 5256 5256 6133 5661 6690 6690 6690 6690 7359 7359 7359 7359 7359 6690 6690 7359 6690 6690 6133 6133 5661 6133 6133 5256 5661 5256 5256 4906 4906 4599 3873 3679 3679 3345 3504 3345 3679 3345 3679 4088 4088 4329 4599 4906 4906 4906 5661 5661 5661 6133 6133 6133 5661 6690 6133 6133 6133 6133 5661 6133 6133 6690 6690 7359 4906 3199 3199 3066 2725 2537 2453 2164 2102 2102 2102 1672 1672 1672 1635 1471 1388 1338 1314 1314 1314 1226 1168 1168 1168 1206 1168 1187 1082 0 0 0 0 0 931 919 919 886 919 876 845 845 0 817 817 817 817 791 782 799 766 758 0 0 0 0 0 0 0 0 694 675 669 663 669 669 669 645 675 608 598 593 588 584 570 557 0 537 0 525 0 518 514 507 507 504 500 490 0 481 481 477 477 474 474 471 471 477 462 454 454 451 448 448 443 443 438 427 415 415 415 411 402 395 397 395 395 395 383 381 383 0 0 0 0 0
    0 0 0 0 0 0 0 0 0 0 0 0 0 0 0 0 0 0 0 0 0 0 0 0 0 0 0 0 0 0 0 0 0 0 0 0 0 0 0 0 0 0 0 0 0 0 0 0 0 0 0 0 0 0 0 0 0 0 0 0 0 0 0 0 0 0 0 0 0 1338 1291 0 1443 1711 1752 1711 1635 1565 1501 1672 1672 1501 1533 1565 1599 1599 1635 1711 1672 1672 1752 1795 1795 1752 1795 1752 1887 1887 1989 1989 1936 0 0 1989 0 0 0 0 0 8177 6690 7359 0 6690 6133 5661 5256 5256 4906 5256 4599 4329 4329 3873 4329 4329 4088 4329 4906 5256 5661 5661 6133 6133 6690 6690 6133 6690 6690 7359 7359 7359 6690 6690 6690 7359 6690 6690 6133 6133 6133 6133 6133 5256 5661 5256 5256 4599 4906 4088 3679 3679 3504 3345 3504 3345 3504 3345 3504 3679 4088 4088 4599 4599 4599 4906 5256 5661 5661 6133 6133 6133 6133 6690 6690 6133 6133 6133 5661 6133 6133 6690 6690 6690 4906 3345 3199 3066 2725 2628 2453 2164 2044 2044 2044 1635 1635 1599 1565 1443 1362 1338 1314 1291 1291 1226 1149 1168 1168 1187 1149 1168 1082 0 0 0 0 0 931 919 919 886 908 865 0 845 0 817 808 808 808 791 791 808 766 758 0 240 239 0 0 0 0 0 0 675 669 663 663 663 663 645 675 608 598 593 598 593 579 561 0 533 533 521 518 518 514 507 507 504 500 490 487 481 484 481 481 477 477 474 471 477 462 457 457 451 451 451 446 448 438 427 413 413 413 408 402 391 395 395 395 393 383 379 381 0 0 0 0 0
    0 0 0 0 0 0 0 0 0 0 0 0 0 0 0 0 0 0 0 0 0 0 0 0 0 0 0 0 0 0 0 0 0 0 0 0 0 0 0 0 0 0 0 0 0 0 0 0 0 0 0 0 0 0 0 0 0 0 0 0 0 0 0 0 0 0 0 0 0 1533 0 0 1471 1752 1711 1711 1635 1565 1501 1635 1635 1471 1533 1533 1599 1565 1599 1711 1672 1672 1752 1795 1795 1752 1795 1752 1887 1887 1989 1989 1936 1936 1989 1989 2230 0 0 0 0 0 0 0 0 0 6133 5256 5661 5256 4906 5256 4599 4599 4329 4088 4599 4599 4329 4906 5256 5661 6133 6133 6133 6690 6690 7359 6133 6690 6690 7359 7359 7359 7359 6690 6690 7359 6690 7359 6690 6690 6133 6690 6133 5256 5661 5256 4906 4329 4599 3873 3679 3504 3504 3199 3345 3199 3504 3199 3504 3504 3873 3873 4329 4599 4599 4906 5256 5661 5661 6133 6690 6133 6690 7359 7359 6690 6690 6133 6133 6133 6133 6690 6690 6690 5256 3504 3345 3066 2725 2628 2374 2102 1989 1989 1936 1599 1599 1565 1533 1415 1362 1338 1314 1291 1291 1226 1132 1149 1149 1168 1132 1149 1066 0 0 0 0 0 943 931 919 886 886 865 0 845 0 817 808 808 808 799 791 808 766 758 0 0 239 0 0 0 0 0 0 675 669 663 657 657 657 634 657 608 603 598 608 0 593 566 0 537 533 521 518 514 514 507 507 507 500 493 490 484 487 481 481 481 477 477 474 477 465 457 457 454 454 454 448 451 440 432 411 411 408 406 399 387 393 393 393 393 385 377 381 0 0 0 0 0
    0 0 0 0 0 0 0 0 0 0 0 0 0 0 0 0 0 0 0 0 0 0 0 0 0 0 0 0 0 0 0 0 0 0 0 0 0 0 0 0 0 0 0 0 0 0 0 0 0 0 0 0 0 0 0 0 0 0 0 0 0 0 0 0 0 0 0 0 0 1672 0 1415 1471 1672 1711 1672 1599 1533 1471 1565 1565 1443 1471 1501 1533 1501 1565 1672 1635 1672 1752 1795 1795 1752 1795 1795 1887 1887 1989 1989 1936 1936 1989 1989 2230 1989 0 0 0 0 0 0 0 6133 5661 4599 4906 5256 4906 5256 4906 4329 4329 4088 4599 4599 4599 4906 5661 5661 6690 6133 6133 6690 6690 6690 6133 6690 6690 6690 7359 7359 6690 6690 6690 7359 6690 7359 6690 6690 6690 6690 6133 5256 5661 5256 4906 4088 4329 3679 3504 3504 3504 3199 3199 3199 3345 3199 3345 3504 3679 3873 4329 4329 4329 4906 5256 5661 5661 6133 6690 6133 6690 7359 7359 6690 6690 6133 6133 6133 6133 6690 6690 6690 5256 3679 3345 3066 2725 2537 2299 1989 1887 1887 1887 1565 1565 1501 1471 1388 1362 1338 1314 1291 1291 1226 1132 1132 1132 1132 1115 1132 1066 0 0 0 0 0 943 931 919 886 876 855 0 845 0 808 808 808 808 799 791 808 766 758 0 0 238 238 0 0 0 0 0 669 657 657 651 651 651 629 639 613 608 608 618 0 603 584 0 0 537 525 521 514 514 511 511 511 500 493 490 484 490 484 484 484 481 481 477 481 468 457 459 457 454 457 448 451 443 435 408 408 406 404 399 383 393 393 393 391 385 377 381 0 0 0 0 0
    0 0 0 0 0 0 0 0 0 0 0 0 0 0 0 0 0 0 0 0 0 0 0 0 0 0 0 0 0 0 0 0 0 0 0 0 0 0 0 0 0 0 0 0 0 0 0 0 0 0 0 0 0 0 0 0 0 0 0 0 0 0 0 0 0 0 0 0 0 1533 1338 1388 0 1599 1635 1635 1501 1471 1443 1501 1471 1415 1415 1443 1471 1471 1533 1672 1635 1635 1752 1795 1795 1752 1795 1795 1887 1936 1989 1989 1936 1989 2044 2044 2299 2044 3199 3679 0 0 0 0 0 5661 4599 4088 4088 4906 4599 4906 4599 4329 4329 4088 4599 4599 4599 4906 5256 5661 6690 6133 6690 6690 7359 7359 6690 6690 6690 7359 7359 7359 6690 6690 6690 7359 7359 7359 6690 6133 6690 6690 6690 5661 6133 5661 4906 4088 4329 3679 3504 3504 3345 3066 3199 3199 3345 3066 3345 3504 3679 3873 4329 4329 4329 4906 5256 5661 6133 6133 6690 6690 6133 7359 6690 6690 6690 6133 6133 6133 5661 6690 6690 6690 5256 3679 3504 3199 2830 2628 2299 1989 1887 1887 1887 1599 1565 1471 1443 1388 1338 1338 1314 1291 1291 1226 1168 1149 1115 1115 1098 1098 1051 955 0 955 0 897 943 919 919 886 876 845 0 845 0 808 799 799 799 799 791 799 758 750 721 0 238 0 0 0 687 0 0 663 651 645 639 639 645 623 0 613 608 613 618 0 608 0 0 0 545 529 521 518 518 514 511 514 500 493 490 487 493 487 487 484 484 481 481 481 468 457 459 457 457 459 448 448 443 435 411 406 404 404 399 381 391 391 391 391 385 377 381 0 0 0 0 0
    0 0 0 0 0 0 0 0 0 0 0 0 0 0 0 0 0 0 0 0 0 0 0 0 0 0 0 0 0 0 0 0 0 0 0 0 0 0 0 0 0 0 0 0 0 0 0 0 0 0 0 0 0 0 0 0 0 0 0 0 0 0 0 0 0 0 0 0 0 1415 1338 1362 1443 1565 1565 1501 1415 1415 1388 1415 1415 1362 1362 1388 1415 1415 1471 1599 1599 1635 1752 1795 1795 1752 1795 1795 1887 1887 1989 1989 1936 1936 2044 2044 2299 2102 3066 3679 0 0 0 0 0 0 0 0 0 0 3679 3873 3679 3873 3679 3679 4088 4088 4088 4599 5256 5661 6690 6133 6690 7359 8177 8177 7359 7359 7359 7359 8177 7359 7359 6690 6690 7359 7359 7359 6690 6133 6690 6690 6690 5661 6133 5661 4906 4088 4329 3679 3504 3504 3345 3199 3199 3199 3345 3199 3345 3504 3679 3679 4329 4329 4329 4599 4906 5661 5661 6133 6133 6133 5661 6690 6690 6133 6690 6133 6133 6133 5661 6690 6133 6690 4906 3504 3345 3066 2830 2537 2230 1989 1887 1887 1887 1599 1565 1443 1471 1415 1362 1362 1338 1314 1314 1268 1206 1187 1149 1115 1098 1098 1051 968 955 955 955 897 943 931 919 886 0 0 826 836 0 799 791 791 791 799 782 799 750 750 721 0 0 0 0 0 0 0 0 657 639 639 634 634 639 0 0 0 608 613 618 0 613 593 0 0 553 533 529 525 525 521 518 518 504 497 490 487 493 487 487 487 484 484 487 484 471 462 465 462 462 462 451 451 443 435 411 404 404 402 397 379 391 391 391 391 387 377 383 0 0 0 0 0
    0 0 0 0 0 0 0 0 0 0 0 0 0 0 0 0 0 0 0 0 0 0 0 0 0 0 0 0 0 0 0 0 0 0 0 0 0 0 0 0 0 0 0 0 0 0 0 0 0 0 0 0 0 0 0 0 0 0 0 0 0 0 0 0 0 0 0 0 0 1415 0 1338 0 1533 1471 1415 1362 1362 1338 1338 1362 1314 1314 1338 1388 1388 1415 1565 1565 1599 1711 1752 1752 1711 1752 1752 1839 1839 1936 1936 1936 1936 1936 1989 2230 1989 3345 3679 0 0 0 0 1187 1206 1187 1206 1268 1338 0 0 3345 3504 3504 3504 3873 4088 4088 4599 4906 5661 6690 6133 7359 7359 8177 0 7359 7359 7359 7359 8177 7359 7359 6690 6690 7359 7359 7359 6690 6690 7359 6690 7359 6133 6690 5661 5256 4329 4329 3679 3679 3679 3504 3345 3345 3199 3504 3345 3345 3504 3679 3679 4088 4329 4329 4599 4906 5256 6133 5661 6133 6133 5661 6690 6690 6133 6690 6133 5661 6133 5661 6690 6133 6133 4906 3345 3199 2943 2830 2537 2230 1989 1887 1887 1887 1635 1533 1415 1443 1388 1362 1338 1314 1291 1291 1268 1226 1206 1168 1132 1098 1082 1051 968 943 955 955 897 943 931 919 886 865 855 836 845 0 808 791 799 791 808 791 791 750 750 721 721 721 714 707 0 0 0 0 651 634 634 629 634 634 0 0 0 608 613 618 0 613 593 574 570 561 0 533 529 529 525 525 521 507 497 493 490 497 490 490 487 487 487 490 487 474 471 471 471 471 465 457 454 443 432 406 402 399 399 397 379 391 391 391 391 387 377 383 0 0 0 0 0
    0 0 0 0 0 0 0 0 0 0 0 0 0 0 0 0 0 0 0 0 0 0 0 0 0 0 0 0 0 0 0 0 0 0 0 0 0 0 0 0 0 0 0 0 0 0 0 0 0 0 0 0 0 0 0 0 0 0 0 0 0 0 0 0 0 0 0 0 0 1635 0 0 0 1415 1388 1338 1314 1314 1291 1291 1314 1291 1291 1314 1338 1362 1388 1501 1471 1533 1672 1711 1672 1672 1752 1711 1752 1795 1839 1839 1839 1839 1839 1887 1989 1795 0 0 1415 1247 0 1168 1187 1187 1149 1168 1268 1314 1533 1711 2453 3199 3345 3345 3504 3679 3873 4329 4599 5256 6690 5661 7359 7359 8177 0 8177 7359 7359 8177 8177 7359 7359 6690 6690 7359 6690 7359 6690 6690 7359 6690 7359 6690 7359 5661 5256 4329 4599 4088 3873 3873 3873 3504 3679 3345 3679 3345 3504 3504 3873 3679 4088 4329 4599 4599 4906 5256 6133 6133 6133 6690 6133 6690 6690 6690 6690 6133 5661 6133 5661 6690 6133 6133 4906 3345 3066 2943 2830 2537 2230 1989 1887 1887 1887 1672 1533 1362 1388 1362 1338 1338 1314 1291 1291 1268 1268 1226 1187 1149 1115 1082 1036 981 943 955 955 897 943 919 919 886 865 855 836 845 0 808 791 791 791 808 791 791 750 750 721 728 721 714 700 669 681 0 0 645 629 634 629 629 634 618 0 0 613 613 618 0 608 588 579 574 570 0 0 533 533 533 529 525 511 500 497 490 497 490 490 490 487 490 497 487 477 471 471 468 468 462 457 451 435 425 404 402 399 399 397 379 391 391 391 391 389 377 383 0 0 0 0 0
    0 0 0 0 0 0 0 0 0 0 0 0 0 0 0 0 0 0 0 0 0 0 0 0 0 0 0 0 0 0 0 0 0 0 0 0 0 0 0 0 0 0 0 0 0 0 0 0 0 0 0 0 0 0 0 0 0 0 0 0 0 0 0 0 0 0 0 0 0 1599 0 0 0 0 1338 1291 1247 1247 1247 1247 1268 1268 1268 1268 1291 1314 1338 1415 1415 1471 1599 1599 1599 1599 1672 1635 1672 1711 1711 1711 1752 1752 1752 1752 1839 1752 1672 0 1362 1226 1036 1149 1168 1168 1115 1132 1247 1291 1388 1599 1711 0 3066 3066 3199 3504 3679 4088 4599 5256 6690 6133 7359 8177 0 0 8177 8177 7359 8177 8177 7359 7359 6690 6690 6690 6690 7359 6690 6690 7359 7359 8177 7359 8177 6133 5661 4329 4906 4329 4329 4088 4088 3679 3873 3504 3679 3504 3679 3504 3679 3679 4088 4329 4599 4906 5256 5256 6133 6133 6690 6690 6133 6690 6690 6690 7359 6133 6133 6133 5661 6690 6133 6133 4906 3345 3199 3066 2943 2628 2299 1989 1887 1887 1887 1711 1501 1338 1362 1338 1314 1338 1314 1291 1291 1268 1291 1268 1226 1168 1132 1082 1036 981 931 955 955 897 943 919 908 886 865 865 836 845 0 808 791 791 791 808 791 782 758 743 721 721 714 707 694 657 675 645 651 639 629 629 623 623 629 618 0 0 613 613 618 0 608 584 579 574 570 0 541 537 537 533 533 529 514 504 500 497 500 490 490 490 490 493 497 487 477 471 471 468 465 462 454 448 432 420 404 402 402 399 397 379 391 391 391 391 389 377 385 0 0 0 0 0
    0 0 0 0 0 0 0 0 0 0 0 0 0 0 0 0 0 0 0 0 0 0 0 0 0 0 0 0 0 0 0 0 0 0 0 0 0 0 0 0 0 0 0 0 0 0 0 0 0 0 0 0 0 0 0 0 0 0 0 0 0 0 0 0 0 0 0 0 0 1338 0 0 0 0 1268 1226 1226 1226 1206 1226 1226 1226 1247 1247 1268 1268 1291 1338 1338 1388 1533 1501 1471 1471 1599 1501 1533 1565 1533 1599 1672 1672 1672 1672 1711 1672 1635 1565 1338 1247 1051 1168 1187 1168 1115 1132 1206 1268 1314 1501 1599 1711 2299 2725 2943 3199 3345 3679 4088 4599 6690 5661 7359 8177 0 0 8177 8177 7359 8177 8177 7359 7359 6133 6690 6690 6690 7359 6690 7359 8177 7359 0 8177 8177 6690 6133 4599 5256 4329 4599 4088 4088 3679 3873 3504 3679 3504 3679 3504 3873 3679 4088 4599 4906 5256 5256 5256 6133 6690 6133 6690 6133 6690 6690 6690 7359 6133 6133 6690 6133 6690 6690 6690 5256 3504 3345 3345 3199 2830 2453 2044 1936 1887 1887 1752 1533 1338 1338 1338 1314 1338 1338 1314 1291 1268 1388 1314 1268 1187 1115 1051 1022 981 919 955 955 897 931 919 908 886 865 865 836 845 0 808 791 799 791 808 791 782 758 735 714 714 700 694 681 651 675 645 645 634 623 629 618 623 623 613 0 0 608 613 618 0 603 574 570 570 566 0 0 537 537 533 533 529 511 504 500 497 500 493 493 493 490 493 500 490 477 471 474 474 468 465 459 451 432 422 404 399 399 399 397 379 391 391 391 391 391 379 385 0 0 0 0 0
    0 0 0 0 0 0 0 0 0 0 0 0 0 0 0 0 0 0 0 0 0 0 0 0 0 0 0 0 0 0 0 0 0 0 0 0 0 0 0 0 0 0 0 0 0 0 0 0 0 0 0 0 0 0 0 0 0 0 0 0 0 0 0 0 0 0 0 0 0 1268 1115 1226 1098 1187 1187 1187 1206 1206 1206 1206 1206 1206 1226 1226 1226 1226 1247 1268 1268 1291 1338 1338 1362 1362 1443 1415 1471 1443 1471 1501 1599 1599 1565 1533 1599 1565 1599 1471 1338 1314 1066 1187 1206 1149 1132 1168 1206 1247 1291 1415 1471 1533 1672 2230 0 3345 3345 3873 4329 4906 6690 5661 7359 8177 0 0 0 8177 8177 8177 8177 7359 7359 6133 6133 6690 6133 6690 6690 6690 7359 7359 8177 8177 8177 6690 6690 5256 5661 4599 4599 4088 4329 3873 4088 3679 3873 3504 3873 3679 3873 3873 4329 4906 4906 5256 5661 5661 6690 6690 6133 6690 6133 6690 6690 6690 7359 6133 6133 6690 6133 6690 6690 6690 4906 3345 3504 3504 3199 2725 2453 2102 1989 1936 1887 1752 1565 1362 1362 1362 1338 1338 1338 1314 1291 1291 1415 1362 1314 1226 1115 1051 1022 981 908 955 955 897 931 919 908 886 865 865 836 836 0 808 799 799 791 808 791 774 758 728 700 700 681 675 663 634 657 634 639 629 618 623 618 618 623 613 0 0 608 613 613 608 598 570 570 566 561 0 0 537 537 533 533 525 511 500 500 493 497 493 490 490 490 490 497 487 477 468 468 468 462 462 454 440 430 425 406 399 399 399 397 381 391 393 393 393 393 381 387 0 0 0 0 0
    0 0 0 0 0 0 0 0 0 0 0 0 0 0 0 0 0 0 0 0 0 0 0 0 0 0 0 0 0 0 0 0 0 0 0 0 0 0 0 0 0 0 0 0 0 0 0 0 0 0 0 0 0 0 0 0 0 0 0 0 0 0 0 0 0 0 0 0 0 1226 1168 1206 1149 1168 1187 1187 1187 1206 1206 1206 1206 1226 1226 1226 1247 1247 1247 1268 1268 1268 1268 1291 1338 1314 1362 1388 1443 1415 1443 1471 1533 1533 1501 1501 1565 1501 1533 1443 1415 1338 1082 1206 1206 1168 1149 1187 1226 1247 1268 1362 1388 1443 1471 0 0 0 0 3873 4599 5256 6690 5661 8177 8177 0 0 0 8177 8177 8177 8177 7359 7359 6690 6133 6133 5661 6133 6690 6690 7359 7359 8177 8177 9199 7359 6690 6133 6133 4906 4906 4329 4599 4088 4329 3873 3873 3679 3873 3873 4088 4088 4329 4906 5256 5661 5661 5256 6690 6690 6133 6690 6133 6690 6133 6133 7359 5661 5256 6133 5256 6133 5661 5661 4088 3066 3345 3199 3066 2725 2537 2374 2164 2102 1989 1795 1599 1388 1388 1362 1338 1338 1338 1314 1291 1291 1415 1362 1314 1247 1098 1051 1008 981 897 955 955 897 931 919 908 886 876 876 845 836 0 817 799 799 799 808 791 774 766 728 700 700 675 663 645 623 634 623 629 623 613 618 613 618 618 608 603 603 603 608 603 603 593 566 570 561 561 549 545 541 537 533 529 521 511 500 497 493 493 493 490 490 487 487 500 484 477 471 471 471 465 471 451 438 432 427 408 399 402 402 399 383 393 395 393 393 395 385 389 0 0 0 0 0
    0 0 0 0 0 0 0 0 0 0 0 0 0 0 0 0 0 0 0 0 0 0 0 0 0 0 0 0 0 0 0 0 0 0 0 0 0 0 0 0 0 0 0 0 0 0 0 0 0 0 0 0 0 0 0 0 0 0 0 0 0 0 0 0 0 0 0 0 0 1206 1168 1187 1132 1149 1187 1168 1187 1206 1187 1187 1187 1206 1226 1226 1247 1247 1268 1268 1291 1268 1291 1314 1338 1314 1362 1362 1415 1388 1415 1443 1471 1471 1443 1443 1471 1415 1415 1388 1362 1314 1098 1206 1187 1149 1149 1187 1226 1226 1247 1338 1362 1388 1388 0 0 0 0 3873 4329 5256 6690 5661 7359 8177 0 0 0 8177 8177 8177 8177 7359 8177 6133 6133 6133 5661 5661 6133 6690 6690 6690 7359 8177 8177 7359 7359 7359 6690 5256 5661 4599 4599 4088 4599 3873 4088 3679 4329 3873 4599 4599 4599 5256 5256 5661 6133 5661 6690 7359 6133 6690 6133 6690 6690 6133 6690 5661 4906 6133 5256 6133 5256 4599 3504 2725 3199 3066 3066 2725 2725 2628 2453 2374 2374 1887 1635 1415 1415 1362 1338 1338 1338 1314 1268 1268 1415 1362 1338 1291 1115 1066 1022 1008 897 968 968 897 931 931 908 897 876 886 855 845 855 826 817 817 808 808 799 782 791 750 728 728 700 0 675 639 651 634 639 623 613 618 608 613 613 603 603 598 598 603 598 598 588 561 570 561 561 549 545 541 537 529 529 518 504 497 497 493 490 490 487 487 487 487 500 484 481 481 481 481 474 474 459 443 432 427 408 399 404 402 399 387 395 395 395 395 397 387 391 0 0 0 0 0
    0 0 0 0 0 0 0 0 0 0 0 0 0 0 0 0 0 0 0 0 0 0 0 0 0 0 0 0 0 0 0 0 0 0 0 0 0 0 0 0 0 0 0 0 0 0 0 0 0 0 0 0 0 0 0 0 0 0 0 0 0 0 0 0 0 0 0 0 0 1187 1168 1168 1115 1149 1168 1168 1168 1206 1187 1187 1187 1206 1206 1226 1247 1247 1268 1268 1291 1268 1314 1314 1338 1314 1362 1362 1415 1388 1388 1388 1415 1415 1415 1415 1415 1362 1338 1314 1314 1314 1098 1206 1168 1149 1149 1168 1206 1187 1226 1291 1314 1338 1362 0 0 0 0 0 4088 4906 6133 5661 6690 7359 8177 8177 8177 8177 8177 7359 7359 6690 8177 6133 6133 6133 5256 5661 6133 6133 6133 6133 7359 8177 8177 7359 7359 7359 7359 5661 5661 4599 4599 4329 4599 4088 4088 4088 4599 4088 5256 4906 4906 5256 5661 5661 6133 5661 6690 7359 6133 7359 6133 6690 6690 6133 6690 5661 4906 6133 5661 6133 5256 4088 3199 2453 2830 2830 2830 2628 2537 2537 2374 2299 2102 1839 1599 1415 1415 1362 1338 1338 1338 1314 1291 1291 1415 1388 1415 1314 1132 1098 1051 1022 908 968 981 908 931 931 908 897 876 897 855 845 855 826 826 826 808 817 808 799 808 782 750 750 721 728 700 687 681 669 669 629 613 618 608 613 608 603 598 593 593 598 593 593 584 561 570 561 557 549 545 541 537 525 525 511 500 497 497 490 490 487 487 487 487 487 497 481 474 474 468 474 471 474 468 459 435 430 408 399 404 402 399 389 397 397 397 397 397 391 391 0 0 0 0 0
    0 0 0 0 0 0 0 0 0 0 0 0 0 0 0 0 0 0 0 0 0 0 0 0 0 0 0 0 0 0 0 0 0 0 0 0 0 0 0 0 0 0 0 0 0 0 0 0 0 0 0 0 0 0 0 0 0 0 0 0 0 0 0 0 0 0 0 0 0 1168 1149 1149 1132 1149 1168 1168 1168 1206 1187 1168 1187 1206 1226 1226 1247 1247 1247 1291 1268 1268 1291 1268 1314 1314 1362 1388 1415 1388 1388 1388 1388 1388 1388 1388 1362 1338 1314 1291 1291 1268 1115 1206 1149 1168 1149 1168 1187 1187 1206 1268 1291 1338 1338 1314 1388 0 0 3873 4329 4906 5661 5661 6690 6690 7359 7359 8177 7359 7359 6690 6690 6690 7359 5661 5661 5661 4906 5256 5661 6133 6133 6133 7359 7359 7359 7359 7359 7359 7359 5661 5661 4329 4599 4329 4329 4329 4329 4088 4906 4088 5256 4599 4906 5256 5661 5661 6133 6133 8177 8177 7359 8177 8177 7359 7359 6690 7359 5661 4906 6133 5661 5661 5661 3679 2830 2453 2830 2830 2725 2628 2628 2537 2374 2299 1936 1795 1599 1415 1388 1338 1338 1338 1338 1314 1268 1268 1415 1443 1415 1338 1098 1051 1022 1008 908 968 968 908 919 919 897 886 876 897 855 845 855 836 836 836 817 817 817 799 808 791 766 758 728 735 714 700 694 681 681 634 618 618 608 613 608 603 598 593 593 593 588 588 574 557 561 557 553 545 541 533 529 518 518 504 497 493 497 490 490 487 487 487 487 487 493 477 465 462 457 465 457 468 465 462 443 432 411 402 406 404 402 391 399 399 399 397 399 393 393 0 0 0 0 0
    0 0 0 0 0 0 0 0 0 0 0 0 0 0 0 0 0 0 0 0 0 0 0 0 0 0 0 0 0 0 0 0 0 0 0 0 0 0 0 0 0 0 0 0 0 0 0 0 0 0 0 0 0 0 0 0 0 0 0 0 0 0 0 0 0 0 0 0 0 1149 1149 1149 1115 1132 1149 1149 1168 1206 1187 1168 1187 1226 1226 1247 1247 1247 1247 1268 1268 1226 0 1206 1314 1338 1388 1415 1415 1388 1388 1362 1388 1362 1388 1362 1338 1314 1291 1291 1291 1268 1132 1187 1149 1168 1149 1168 1187 1168 1206 1268 1268 1314 1314 1291 1362 1501 0 3873 4329 4599 5661 6133 6133 6690 6690 6690 7359 7359 7359 6690 6133 6133 7359 5661 5661 5661 4906 5256 5661 6133 6133 6133 6690 7359 6690 7359 7359 7359 6690 5256 5661 3873 4599 4088 4329 4329 4329 4088 4599 4088 5661 4599 4906 5256 5661 6133 6133 6133 7359 8177 7359 8177 8177 8177 6690 6690 6690 5661 4906 5661 5256 5256 4906 3504 2453 2537 2830 2830 2725 2628 2628 2628 2453 2299 1795 1752 1599 1443 1415 1362 1362 1362 1362 1362 1291 1291 1471 1471 1443 1338 1082 1022 1008 1008 908 955 968 908 908 908 886 886 876 886 855 845 855 845 836 845 817 808 817 808 808 799 774 766 735 743 714 700 687 681 681 639 618 618 608 608 608 603 598 593 593 593 588 588 574 557 553 549 545 537 533 525 518 511 511 497 493 490 493 490 487 487 487 487 487 487 490 474 462 459 454 462 451 468 459 462 446 438 411 399 408 406 404 395 402 399 399 399 399 395 395 0 0 0 0 0
    0 0 0 0 0 0 0 0 0 0 0 0 0 0 0 0 0 0 0 0 0 0 0 0 0 0 0 0 0 0 0 0 0 0 0 0 0 0 0 0 0 0 0 0 0 0 0 0 0 0 0 0 0 0 0 0 0 0 0 0 0 0 0 0 0 0 0 0 0 1132 1132 1132 1098 1132 1149 1149 1168 1226 1187 1187 1187 1226 1226 1226 1247 1247 1226 1247 1226 0 0 1098 0 1314 1388 1443 1415 1388 1362 1338 1338 1338 1338 1338 1291 1268 1268 1268 1247 1226 1149 1187 1132 1168 1168 1168 1168 1187 1206 1247 1247 1291 1291 1268 1314 1388 0 3873 4088 4329 5256 6133 6133 6133 6133 6133 6690 6690 6690 5661 5256 5661 6690 5661 5661 5661 4906 5256 5661 6133 6133 5661 6690 6690 6133 7359 6690 6690 6133 4599 5256 3679 4329 3873 4088 4088 4088 4088 4599 4088 5661 4329 4906 4906 5256 5661 5661 5661 6133 6690 6690 7359 7359 6133 5661 5661 5661 6133 4906 5661 5661 5256 5256 3504 2374 2628 2830 2725 2537 2453 2453 2537 2374 2299 1752 1752 1599 1471 1443 1388 1388 1388 1388 1415 1314 1291 1443 1443 1415 1314 1066 994 994 994 919 955 968 919 908 908 886 886 886 897 865 855 865 876 865 897 826 826 826 826 836 817 791 774 735 758 714 694 681 675 675 639 618 618 608 608 603 598 593 593 588 593 588 588 574 557 549 541 537 525 521 511 504 504 504 493 493 490 493 490 487 484 484 484 487 484 484 474 474 474 474 474 465 468 462 465 451 443 422 402 411 408 404 399 402 402 402 399 402 395 395 0 0 0 0 0
    0 0 0 0 0 0 0 0 0 0 0 0 0 0 0 0 0 0 0 0 0 0 0 0 0 0 0 0 0 0 0 0 0 0 0 0 0 0 0 0 0 0 0 0 0 0 0 0 0 0 0 0 0 0 0 0 0 0 0 0 0 0 0 0 0 0 0 0 0 1132 1132 1115 1098 1132 1149 1149 1168 1226 1187 1168 1206 1226 1226 1247 1268 1247 1247 1291 1268 0 0 0 1752 1443 1533 1533 1471 1415 1362 1338 1338 1314 1314 1314 1291 1268 1247 1247 1226 1206 1149 1187 1132 1168 1168 1187 1187 1206 1226 1247 1268 1314 1291 1268 1314 1338 1501 0 3679 3873 4599 5256 5661 5661 5661 5661 6133 5661 6133 5256 4906 5256 6133 4906 4599 4906 4329 4599 5256 5661 5256 5256 6133 6133 6133 6690 6133 6690 5661 4599 4906 3679 4329 3873 4088 4088 4088 4088 4329 4088 5661 4088 4906 4599 4906 5256 4906 5256 5256 6133 6133 6690 7359 6133 5256 5661 5256 6133 5256 5256 5256 4906 4599 3504 2299 2537 2628 2537 2230 2102 2164 2164 2102 2102 1711 1672 1599 1501 1501 1415 1415 1415 1415 1471 1362 1388 1471 1501 1415 1314 1051 981 994 981 908 955 955 908 897 908 886 886 886 908 865 855 876 897 897 968 897 897 886 931 981 897 836 817 766 791 766 707 675 675 669 639 623 618 608 608 603 598 593 593 588 593 584 588 574 557 549 537 537 521 521 514 504 504 504 493 493 490 490 484 481 481 481 481 484 481 481 474 481 477 474 474 468 462 457 454 451 443 430 404 411 408 406 399 402 402 402 399 399 395 395 0 0 0 0 0
    0 0 0 0 0 0 0 0 0 0 0 0 0 0 0 0 0 0 0 0 0 0 0 0 0 0 0 0 0 0 0 0 0 0 0 0 0 0 0 0 0 0 0 0 0 0 0 0 0 0 0 0 0 0 0 0 0 0 0 0 0 0 0 0 0 0 0 0 0 1115 1115 1115 1098 1115 1149 1149 1168 1226 1187 1168 1206 1247 1268 1268 1291 1268 1268 1388 1443 0 1936 1887 1887 1672 1795 1635 1533 0 1362 1291 1314 1268 1291 1291 1268 1247 1226 1206 1206 1206 1149 1168 1115 1149 1168 1168 1187 1187 1206 1247 1247 1314 1314 1291 1314 1338 1415 0 3679 3679 4088 4906 5256 5256 4906 5256 5256 5256 5661 4599 4329 4599 5256 4599 4088 4329 3873 3873 4088 4329 4088 4329 4599 5256 5256 6133 5661 6690 4906 4599 4906 3679 4088 3873 3873 4088 4088 4088 4329 3873 5256 4088 4599 4088 4599 4906 4599 4906 4906 5661 5661 5661 6690 6133 5256 6133 5661 6690 6133 6133 6133 5256 4599 3504 2230 2537 2537 2374 2102 1989 1989 2044 1989 2044 1711 1672 1635 1565 1533 1471 1443 1471 1443 1501 1415 1415 1471 1501 1415 1338 1051 968 981 981 908 943 955 908 897 908 886 886 886 908 876 855 886 919 908 994 955 931 919 943 994 931 826 799 735 735 714 694 657 651 645 629 618 618 613 608 603 598 593 593 588 588 584 584 574 557 549 529 537 521 529 525 511 511 511 493 493 490 490 484 481 481 477 481 481 481 481 477 484 481 481 477 471 465 457 451 448 443 432 404 406 406 404 399 399 399 399 395 395 395 393 0 0 0 0 0
    0 0 0 0 0 0 0 0 0 0 0 0 0 0 0 0 0 0 0 0 0 0 0 0 0 0 0 0 0 0 0 0 0 0 0 0 0 0 0 0 0 0 0 0 0 0 0 0 0 0 0 0 0 0 0 0 0 0 0 0 0 0 0 0 0 0 0 0 0 1098 1098 1098 1098 1132 1149 1149 1168 1226 1168 1132 1168 1226 1247 1226 1291 1247 0 1565 1795 2164 2102 2102 2044 1839 1936 1795 1635 0 0 1247 1268 1226 1247 1268 1226 1206 1206 1187 1187 1187 1168 1149 1115 1149 1187 1187 1206 1206 1226 1247 1291 1362 1338 1314 1314 1338 1388 1501 0 3199 3873 4906 5256 4906 4599 4906 4906 4906 5256 4329 3873 4088 4599 4088 3873 4088 3679 3873 3873 4088 3873 4088 4329 4599 4599 5661 4906 5661 4329 4599 4906 3504 4088 3679 3873 3873 3873 4088 3873 3873 4906 3873 4329 3873 4088 4599 4088 4329 4088 4906 4329 4599 5256 4906 4329 5256 5256 6690 5661 6690 6133 5661 4906 3504 2453 2537 2537 2374 2164 2044 2102 2044 1989 2164 1752 1672 1672 1599 1533 1501 1443 1471 1471 1471 1443 1415 1443 1501 1388 1314 1051 955 981 981 908 943 955 919 897 908 886 886 886 908 876 865 897 931 931 1008 981 968 955 955 968 919 826 808 774 782 750 707 687 663 651 634 613 618 613 603 598 588 593 593 588 588 584 579 579 0 566 0 549 0 541 541 525 518 518 497 493 490 490 484 481 477 477 481 484 484 484 481 487 484 484 481 474 468 457 451 446 443 435 404 404 404 404 399 397 397 397 393 393 393 389 0 0 0 0 0
    0 0 0 0 0 0 0 0 0 0 0 0 0 0 0 0 0 0 0 0 0 0 0 0 0 0 0 0 0 0 0 0 0 0 0 0 0 0 0 0 0 0 0 0 0 0 0 0 0 0 0 0 0 0 0 0 0 0 0 0 0 0 0 0 0 0 0 0 0 1082 1098 1098 1082 1115 1149 1149 1149 1226 1115 1066 1082 1082 1051 1051 1008 1036 994 0 0 2453 2299 2164 2044 1936 2044 1887 0 0 0 1226 1247 1206 1226 1206 1149 1132 1115 1132 1115 1132 1132 1115 1098 1149 1168 1187 1187 1206 1226 1247 1291 1362 1338 1338 1362 1362 1388 1471 1599 0 3504 4599 5256 4906 4599 4599 4599 4599 4906 4329 3679 3679 3873 3679 3679 3873 3504 3679 3679 3679 3679 3679 4088 4088 3873 4906 3873 4329 3873 4088 4599 3504 3873 3679 3873 3873 3873 3873 3873 3679 4599 3504 3873 3504 3679 3873 3679 3504 3504 4088 3873 4088 4329 4329 4088 4906 4906 6133 5661 6690 5661 5256 4599 3679 2725 2628 2537 2453 2164 2044 2044 2044 1936 1936 1711 1599 1635 1565 1501 1471 1443 1471 1471 1443 1443 1388 1415 1501 1362 1314 1051 943 981 981 919 943 955 919 897 908 886 886 886 919 886 876 897 943 931 1022 1008 981 955 955 943 931 845 826 799 817 791 0 0 0 1098 0 0 0 0 0 0 0 0 639 0 629 608 588 0 0 0 0 0 0 549 553 537 525 521 493 490 487 487 481 481 477 477 484 487 487 487 481 487 484 481 481 474 462 457 451 446 446 438 404 402 402 399 397 391 395 393 391 391 389 387 0 0 0 0 0
    0 0 0 0 0 0 0 0 0 0 0 0 0 0 0 0 0 0 0 0 0 0 0 0 0 0 0 0 0 0 0 0 0 0 0 0 0 0 0 0 0 0 0 0 0 0 0 0 0 0 0 0 0 0 0 0 0 0 0 0 0 0 0 0 0 0 0 0 0 1066 1082 1082 1082 1115 1115 1132 1149 1206 1098 1051 1051 1008 1022 1022 981 1008 981 0 0 2537 2299 2102 1989 1839 1989 1839 0 0 0 1187 1206 1132 1149 1132 1082 1066 1066 1098 1082 1098 1132 1098 1098 1149 1149 1187 1187 1206 1226 1226 1291 1362 1338 1362 1362 1388 1388 1415 1533 1599 0 4329 5256 4906 4599 4599 4599 4599 4906 4329 3679 3679 3679 3504 3504 3679 3345 3504 3504 3504 3504 3679 3873 3873 3873 4088 3504 3873 3504 3679 4088 3504 3873 3679 3679 4088 3873 4088 3873 3679 4329 3345 3679 3504 3504 3504 3345 3199 3345 3873 3504 3873 3873 3873 3873 4599 4599 5661 4906 6690 5256 4906 4599 3679 2943 2725 2628 2537 2230 2102 2102 1989 1887 1795 1672 1565 1565 1533 1471 1471 1443 1471 1443 1443 1415 1388 1388 1471 1314 1314 1051 943 981 968 919 943 955 931 897 908 886 897 897 919 886 876 897 955 931 1008 968 943 908 919 919 897 845 826 808 836 791 0 0 0 1066 1066 0 1082 0 0 0 0 0 675 645 651 623 598 0 0 0 0 0 0 0 0 549 0 529 490 490 487 487 484 481 481 481 484 487 487 487 481 484 484 481 477 471 454 448 446 443 443 435 0 0 402 399 395 389 393 393 389 389 387 383 0 0 0 0 0
    0 0 0 0 0 0 0 0 0 0 0 0 0 0 0 0 0 0 0 0 0 0 0 0 0 0 0 0 0 0 0 0 0 0 0 0 0 0 0 0 0 0 0 0 0 0 0 0 0 0 0 0 0 0 0 0 0 0 0 0 0 0 0 0 0 0 0 0 0 1066 1066 1082 1066 1082 1082 1115 1098 1115 1051 1008 0 981 994 994 968 994 968 0 0 0 2102 1989 1887 0 0 1565 0 1168 1115 1082 1115 1082 1098 1066 1051 1066 1051 1098 1082 1098 1132 1098 1115 1132 1149 1187 1168 1226 1247 1206 1291 1362 1338 1362 1362 1362 1362 1388 1471 1501 1443 0 5256 5256 4599 4329 4329 4329 4599 4329 3679 3504 3504 3345 3504 3504 3199 3345 3345 3345 3504 3504 3873 3679 3679 3873 3199 3679 3345 3679 3873 3345 3873 3679 3679 4088 3873 3873 3679 3504 3873 3199 3504 3504 3504 3504 3199 3066 3199 3679 3504 3679 3873 3873 3873 4329 4329 5256 4906 6133 4599 4329 4329 3679 2943 2830 2628 2537 2299 2164 2102 2044 1839 1752 1672 1565 1565 1533 1471 1471 1443 1443 1443 1415 1415 1388 1362 1415 1268 1291 1051 943 981 968 908 943 943 931 886 908 897 897 897 919 886 886 897 955 931 1008 955 897 897 908 876 865 845 836 826 836 826 728 0 0 0 0 0 0 0 0 0 0 782 0 0 657 623 598 0 0 0 0 0 0 0 0 0 0 521 490 490 487 487 484 484 481 481 484 487 487 487 484 487 484 484 0 471 446 443 440 0 443 0 0 0 402 399 397 387 393 391 387 387 387 383 0 0 0 0 0
    0 0 0 0 0 0 0 0 0 0 0 0 0 0 0 0 0 0 0 0 0 0 0 0 0 0 0 0 0 0 0 0 0 0 0 0 0 0 0 0 0 0 0 0 0 0 0 0 0 0 0 0 0 0 0 0 0 0 0 0 0 0 0 0 0 0 0 0 0 1066 1098 1098 1082 1098 1066 1082 1051 0 0 968 0 919 994 1022 981 0 994 955 0 0 0 0 0 865 994 994 1036 1008 994 1008 1008 1008 1051 1022 1022 1022 1022 1066 1051 1066 1115 1082 1098 1115 1132 1168 1149 1206 1226 1187 1291 1362 1314 1362 1362 1362 1362 1388 1501 1533 1471 0 5661 5256 4906 4599 4329 4088 4329 4329 3504 3345 3345 3345 3345 3345 3199 3199 3199 3345 3345 3504 3679 3679 3679 3873 3199 3679 3345 3679 3873 3345 3873 3504 3679 3873 3679 3873 3504 3345 3679 3199 3345 3345 3199 3199 2943 2830 3066 3504 3345 3679 3679 3679 3679 4329 4329 5661 4906 6133 4599 4329 4088 3679 3066 2830 2628 2537 2299 2164 2164 2044 1839 1752 1672 1533 1533 1501 1443 1471 1443 1443 1443 1388 1388 1362 1362 1388 1268 1268 1051 955 981 968 919 943 955 931 897 919 897 908 908 931 897 886 897 943 908 994 855 836 855 897 865 865 845 855 855 855 855 0 0 0 0 0 0 0 0 0 0 0 0 0 0 0 0 570 588 598 0 0 0 0 0 0 0 0 521 493 493 490 487 484 481 481 477 487 487 487 487 484 487 487 484 0 0 0 0 0 0 0 0 0 0 0 397 397 385 391 389 385 387 385 381 0 0 0 0 0
    0 0 0 0 0 0 0 0 0 0 0 0 0 0 0 0 0 0 0 0 0 0 0 0 0 0 0 0 0 0 0 0 0 0 0 0 0 0 0 0 0 0 0 0 0 0 0 0 0 0 0 0 0 0 0 0 0 0 0 0 0 0 0 0 0 0 0 0 0 1066 1115 1098 1082 1098 1149 1082 1051 0 1036 994 1008 931 1022 1022 994 1036 1022 994 0 955 1098 0 1008 931 994 994 1008 994 994 994 981 994 1022 994 1008 1008 1008 1051 1051 1066 1098 1082 1098 1115 1115 1149 1149 1206 1206 1187 1291 1338 1338 1388 1388 1388 1388 1415 1501 1565 1533 3504 4599 4906 4329 4599 4329 4088 4329 4088 3504 3199 3199 3199 3199 3199 3066 3066 3066 3199 3345 3504 3679 3504 3679 3679 3199 3504 3199 3679 3873 3345 3679 3504 3504 3873 3504 3679 3345 3199 3345 3066 3199 3199 2943 3066 2628 2628 2943 3345 3345 3504 3679 3679 3679 4088 4329 5661 4906 6690 4906 4329 4088 3679 3066 2725 2628 2537 2374 2230 2164 2102 1839 1711 1711 1533 1501 1501 1443 1443 1415 1443 1443 1388 1388 1362 1338 1388 1247 1247 1051 968 981 981 919 955 955 943 897 919 908 908 908 931 897 886 886 943 897 981 845 826 826 876 865 876 865 855 855 855 865 845 782 0 0 0 0 0 0 0 0 0 0 0 0 0 0 545 557 570 570 0 0 0 0 0 0 0 497 490 493 490 487 481 481 481 477 487 487 487 487 484 487 487 484 0 0 0 0 0 0 100 0 0 0 0 0 397 385 391 387 383 387 385 381 0 0 0 0 0
    0 0 0 0 0 0 0 0 0 0 0 0 0 0 0 0 0 0 0 0 0 0 0 0 0 0 0 0 0 0 0 0 0 0 0 0 0 0 0 0 0 0 0 0 0 0 0 0 0 0 0 0 0 0 0 0 0 0 0 0 0 0 0 0 0 0 0 0 0 1051 1098 1115 1082 1082 1115 1082 1036 1036 994 994 994 943 994 1022 994 1022 994 994 981 886 994 981 968 968 994 1008 1008 1008 1022 1008 994 994 994 968 968 968 968 1022 1022 1051 1082 1066 1098 1098 1098 1132 1149 1206 1206 1187 1291 1362 1338 1415 1415 1415 1415 1415 1501 1565 1565 3504 4088 4329 4088 4329 4599 3873 4088 3873 3345 3199 3066 3199 3066 2943 2943 2943 2943 3066 3199 3199 3504 3504 3679 3679 3066 3345 3199 3504 3679 3345 3504 3345 3345 3504 3345 3345 3199 3066 3066 2943 2943 3066 2830 2943 2537 2453 2943 3345 3199 3504 3504 3679 3679 4088 4329 5256 4906 6690 4599 3873 3873 3504 3066 2628 2628 2537 2374 2230 2230 2164 1887 1711 1711 1501 1471 1471 1415 1443 1415 1415 1443 1362 1362 1362 1338 1362 1247 1226 1051 981 994 981 919 943 955 943 897 931 908 908 908 931 897 886 886 931 886 955 836 826 826 865 855 876 865 865 855 855 855 826 743 694 0 0 700 700 700 0 0 908 0 0 0 511 507 529 529 545 0 533 525 533 0 0 0 0 497 497 500 490 487 484 484 484 481 487 487 487 487 487 487 487 484 0 0 0 0 0 0 0 0 0 0 0 0 395 383 389 385 381 385 385 381 0 0 0 0 0
    0 0 0 0 0 0 0 0 0 0 0 0 0 0 0 0 0 0 0 0 0 0 0 0 0 0 0 0 0 0 0 0 0 0 0 0 0 0 0 0 0 0 0 0 0 0 0 0 0 0 0 0 0 0 0 0 0 0 0 0 0 0 0 0 0 0 0 0 0 1051 1082 1132 1066 1066 1036 1051 1008 955 919 981 994 968 994 1008 994 1036 1036 1022 968 931 981 981 955 955 981 981 981 994 994 981 968 981 981 955 943 955 955 1008 1022 1036 1066 1051 1098 1098 1098 1115 1132 1168 1187 1149 1268 1314 1314 1415 1415 1415 1415 1443 1501 1565 1565 3345 3873 4329 4088 4329 4599 3873 4088 3873 3199 2943 2943 3066 2943 2830 2830 2943 2943 3066 3199 3199 3345 3504 3679 3679 3066 3345 3066 3199 3345 3199 3345 3199 3066 3345 3066 3066 3066 2943 2830 2943 2830 3066 2943 2943 2628 2453 2830 3199 3199 3345 3504 3504 3504 4088 4329 5256 4906 6690 4329 3679 3504 3345 2943 2537 2537 2453 2374 2374 2453 2299 1887 1711 1711 1501 1471 1443 1415 1415 1388 1415 1415 1338 1362 1338 1314 1338 1247 1226 1066 0 994 981 931 943 955 943 897 931 908 908 919 919 897 886 886 919 876 931 836 826 826 876 865 908 876 865 855 855 855 826 791 714 721 707 700 700 700 694 0 0 0 943 0 0 497 525 0 0 0 525 525 521 0 0 0 0 497 497 0 0 487 487 487 487 484 487 487 487 487 490 490 487 487 0 0 0 0 0 0 0 0 0 0 0 0 397 385 389 383 381 387 385 383 0 0 0 0 0
    0 0 0 0 0 0 0 0 0 0 0 0 0 0 0 0 0 0 0 0 0 0 0 0 0 0 0 0 0 0 0 0 0 0 0 0 0 0 0 0 0 0 0 0 0 0 0 0 0 0 0 0 0 0 0 0 0 0 0 0 0 0 0 0 0 0 0 0 0 1051 1098 1168 1066 1066 1066 1066 1022 943 931 994 994 981 994 1008 994 1036 1066 1036 981 955 981 981 968 981 981 968 981 994 994 981 981 981 968 943 955 955 955 1008 1022 1036 1066 1051 1098 1098 1098 1132 1149 1187 1187 1168 1268 1268 1247 1388 1388 1388 1415 1415 1443 1501 1533 0 3504 4088 4088 4599 5256 3873 3873 3873 3199 2943 2943 2830 2628 2628 2537 2725 2830 2943 3066 3066 3345 3504 3679 3873 3066 3345 3199 3199 3345 3199 3345 3066 2943 3345 2943 3066 3066 2943 2830 2830 2725 2830 2628 2628 2453 2102 2628 3066 3066 3504 3504 3504 3504 3873 4088 4906 4599 6133 3679 3345 3345 3199 2830 2537 2453 2453 2374 2453 2537 2537 1887 1672 1672 1501 1471 1443 1388 1388 1388 1388 1415 1338 1338 1314 1291 0 1226 1206 1066 0 1008 994 943 943 955 943 897 931 908 908 908 919 908 886 886 919 876 919 845 845 845 886 876 931 886 865 865 865 865 845 826 799 782 728 721 707 700 0 0 886 931 931 897 0 0 0 0 561 0 0 0 0 0 0 0 0 497 0 0 0 0 490 490 487 484 487 487 487 487 490 487 484 484 0 0 0 0 0 0 0 0 0 0 0 0 402 393 393 385 385 391 387 385 0 0 0 0 0
    0 0 0 0 0 0 0 0 0 0 0 0 0 0 0 0 0 0 0 0 0 0 0 0 0 0 0 0 0 0 0 0 0 0 0 0 0 0 0 0 0 0 0 0 0 0 0 0 0 0 0 0 0 0 0 0 0 0 0 0 0 0 0 0 0 0 0 0 0 1051 1115 1206 1098 1082 1149 1132 1051 994 994 1036 1036 1008 1022 1008 1008 1066 1082 1036 981 955 981 968 968 981 981 968 994 994 994 981 981 981 968 943 955 955 955 1008 1022 1036 1066 1051 1098 1098 1098 1132 1149 1168 1187 1149 1247 1226 1226 1415 1415 1415 1415 1443 1471 1501 1599 1795 0 0 3345 4329 4906 3679 3679 4088 3199 2830 2628 2374 2044 2299 2044 2164 2374 2299 2628 2830 3199 3504 3873 3873 3066 3345 3199 3066 3199 3199 3345 3066 2830 3679 2830 2830 3066 2725 2453 2453 2230 2453 1989 1936 1936 1936 2374 3066 3066 3504 3504 3504 3504 3679 3873 4599 4329 5256 3504 3066 3066 3066 2830 2537 2299 2230 2230 2230 2453 2299 1839 1599 1672 1471 1471 1443 1388 1388 1388 1388 1415 1314 1314 1291 1268 0 1226 1187 1082 0 1022 1008 955 943 955 943 886 931 908 908 908 908 908 886 886 919 876 908 855 845 855 886 865 919 855 855 845 845 865 845 836 836 817 799 758 728 721 728 799 836 855 855 845 0 0 0 0 584 0 557 0 0 968 0 0 0 497 0 0 0 0 487 487 487 481 487 487 487 487 490 487 484 484 0 0 0 0 0 0 0 0 0 0 0 0 404 399 399 389 391 393 389 389 0 0 0 0 0
    0 0 0 0 0 0 0 0 0 0 0 0 0 0 0 0 0 0 0 0 0 0 0 0 0 0 0 0 0 0 0 0 0 0 0 0 0 0 0 0 0 0 0 0 0 0 0 0 0 0 0 0 0 0 0 0 0 0 0 0 0 0 0 0 0 0 0 0 0 1051 1115 1206 1115 1098 1168 1168 1082 1022 1036 1066 1066 1051 1051 1036 1036 1082 1082 1036 981 968 981 981 981 981 981 968 981 994 994 981 981 968 955 943 955 955 955 1022 1022 1036 1066 1051 1098 1098 1098 1132 1149 1168 1187 1149 1247 1206 1226 1388 1388 1388 1415 1443 1443 1471 1635 1795 1533 0 2374 0 5256 3066 0 0 3504 2628 1989 1795 1752 1936 1839 1887 1887 1839 1936 2299 2628 0 0 3873 3066 3345 3066 2943 3199 3345 3345 2943 2628 3199 2453 0 0 0 0 0 0 0 0 0 0 0 1989 0 3066 3345 3345 3345 3504 3679 3679 4329 4329 4906 3345 2628 2830 2725 2453 2374 2164 2102 2044 2044 2164 1989 1795 1599 1635 1501 1471 1443 1388 1388 1388 1388 1388 1314 1291 1268 1247 1247 1206 1187 1115 0 1036 1022 968 931 943 931 886 919 897 897 897 908 897 886 876 908 876 897 855 845 845 876 865 886 836 836 826 826 836 836 826 836 817 808 791 774 782 791 826 836 826 817 0 0 598 584 598 584 579 557 557 0 0 0 514 511 504 0 0 0 0 487 484 484 477 487 487 484 484 490 487 487 487 0 0 0 0 0 0 435 432 432 430 418 408 408 406 402 395 399 397 393 391 0 0 0 0 0
    0 0 0 0 0 0 0 0 0 0 0 0 0 0 0 0 0 0 0 0 0 0 0 0 0 0 0 0 0 0 0 0 0 0 0 0 0 0 0 0 0 0 0 0 0 0 0 0 0 0 0 0 0 0 0 0 0 0 0 0 0 0 0 0 0 0 0 0 0 1051 1115 1206 1115 1098 1132 1115 1066 1022 1022 1051 1051 1051 1051 1036 1036 1098 1098 1051 994 968 994 981 981 994 981 981 981 994 994 981 981 968 955 931 955 943 955 1022 1036 1036 1066 1036 1098 1098 1098 1132 1168 1187 1187 1168 1268 1247 1268 1415 1415 1415 1415 1443 1443 1471 1599 1795 1533 1711 1936 1795 0 2230 1795 1752 1936 1839 1635 1599 1599 1839 1752 1752 1752 1752 1795 1989 0 0 0 0 0 0 0 0 0 0 0 0 0 0 0 0 0 0 0 0 0 0 0 0 0 0 0 0 0 0 0 0 0 0 0 0 0 0 0 0 2453 2374 2164 2102 2102 2044 2044 2044 2102 1989 1839 1635 1672 1533 1501 1443 1388 1388 1362 1362 1362 1291 1268 1247 1226 1226 1206 1187 1132 0 1066 1036 981 931 943 919 876 908 897 897 897 897 897 886 876 908 865 886 855 836 845 876 855 886 836 836 817 817 826 817 799 799 782 782 750 743 750 750 808 826 817 817 728 0 613 598 608 598 593 566 570 0 0 0 525 518 511 0 0 0 0 484 484 484 477 487 487 484 484 490 487 484 484 0 0 0 0 0 446 438 438 438 432 425 415 415 411 406 399 402 402 397 395 0 0 0 0 0
    0 0 0 0 0 0 0 0 0 0 0 0 0 0 0 0 0 0 0 0 0 0 0 0 0 0 0 0 0 0 0 0 0 0 0 0 0 0 0 0 0 0 0 0 0 0 0 0 0 0 0 0 0 0 0 0 0 0 0 0 0 0 0 0 0 0 0 0 0 1051 1082 1168 1082 1082 1098 1082 1051 1022 1036 1051 1051 1036 1051 1051 1036 1098 1098 1051 994 968 994 981 981 981 981 968 981 994 994 981 968 955 955 919 943 919 919 1008 1022 1036 1051 1036 1098 1098 1098 1132 1168 1187 1187 1187 1268 1268 1291 1415 1443 1415 1415 1415 1443 1471 1635 1795 1711 1752 1936 1795 1887 2102 1839 1795 1839 1752 1635 1565 1565 1795 1752 1711 1711 1711 1795 1989 0 0 0 0 0 0 0 0 0 0 0 0 0 0 0 0 0 0 0 0 0 0 0 0 0 0 0 0 0 0 0 0 0 0 0 0 0 0 0 0 0 1989 1936 1989 1936 1989 1989 1989 2044 1887 1752 1501 1599 1501 1471 1443 1388 1388 1362 1362 1362 1268 1268 1226 1226 1226 1206 1187 1132 1082 1082 1051 994 943 943 919 876 908 886 886 897 897 897 886 876 0 865 876 845 836 836 855 855 876 826 836 799 791 799 791 750 750 735 728 721 714 707 700 700 735 0 0 687 0 623 608 618 603 598 579 588 0 0 0 0 0 0 514 518 490 468 481 481 481 474 484 487 484 487 490 487 487 487 0 477 465 457 454 448 440 438 435 432 427 0 418 415 408 402 404 402 399 397 0 0 0 0 0
    0 0 0 0 0 0 0 0 0 0 0 0 0 0 0 0 0 0 0 0 0 0 0 0 0 0 0 0 0 0 0 0 0 0 0 0 0 0 0 0 0 0 0 0 0 0 0 0 0 0 0 0 0 0 0 0 0 0 0 0 0 0 0 0 0 0 0 0 0 1036 1051 1115 1036 1051 1066 1066 1036 1008 1036 1066 1066 1066 1066 1066 1066 1132 1115 1066 1008 981 994 981 981 994 981 968 981 981 981 968 968 968 943 919 943 919 919 1022 1036 1066 1066 1036 1098 1115 1098 1149 1187 1187 1187 1187 1268 1268 1291 1443 1415 1415 1388 1415 1443 1443 1599 1752 1565 1672 1795 1752 1752 1936 1795 1752 1752 1711 1599 1565 1565 1752 1711 1711 1711 1752 1795 1989 0 0 0 0 0 0 0 0 0 0 0 0 0 0 0 0 0 0 0 0 0 0 0 0 0 0 0 0 0 0 0 0 0 0 0 0 0 0 0 0 0 1989 1936 1989 1887 1936 1936 1936 1989 1752 1672 1443 1533 1471 1471 1443 1388 1388 1362 1362 1362 1291 1268 1226 1226 1226 1206 1206 1149 1098 1115 1066 1022 955 955 931 876 908 886 886 886 897 908 886 876 0 865 876 855 836 836 845 845 855 826 808 774 735 743 750 721 728 714 700 700 694 694 687 681 687 675 669 663 623 629 618 623 608 603 593 608 0 0 0 0 0 0 521 525 493 474 484 481 481 477 484 487 484 487 493 490 487 490 500 481 474 468 459 451 440 438 432 430 425 415 415 413 406 402 404 402 399 399 0 0 0 0 0
    0 0 0 0 0 0 0 0 0 0 0 0 0 0 0 0 0 0 0 0 0 0 0 0 0 0 0 0 0 0 0 0 0 0 0 0 0 0 0 0 0 0 0 0 0 0 0 0 0 0 0 0 0 0 0 0 0 0 0 0 0 0 0 0 0 0 0 0 0 1022 1036 1082 1022 1022 1022 1036 1022 1008 1022 1051 1051 1066 1066 1082 1066 1149 1132 1066 1008 981 981 981 981 994 981 955 968 981 968 955 968 968 943 931 955 931 931 1051 1066 1066 1066 1036 1098 1115 1098 1168 1187 1187 1187 1187 1247 1247 1268 1415 1388 1388 1388 1388 1415 1415 1599 1711 1501 1635 1752 1711 1711 1795 1752 1672 1672 1711 1599 1599 1599 1711 1672 1672 1711 1711 1752 1839 0 0 0 0 0 0 0 0 0 0 0 0 0 0 0 0 0 0 0 0 0 0 0 0 0 0 0 0 0 0 0 0 0 0 0 0 0 0 0 0 0 0 1936 1989 1887 1887 1887 1887 1887 1672 1599 1443 1471 1443 1471 1443 1388 1388 1362 1338 1362 1268 1247 1226 1226 1226 1206 1206 1149 1115 1115 1066 1022 955 955 931 865 908 886 876 886 886 908 886 876 908 865 876 855 836 845 845 845 845 817 799 758 721 721 728 707 721 700 694 694 687 687 681 675 675 669 669 663 634 639 634 634 623 618 613 618 598 588 553 541 533 533 533 533 500 484 487 487 484 481 487 487 487 487 497 490 490 490 497 481 0 468 462 454 446 443 438 432 430 422 420 415 408 404 404 402 402 399 0 0 0 0 0
    0 0 0 0 0 0 0 0 0 0 0 0 0 0 0 0 0 0 0 0 0 0 0 0 0 0 0 0 0 0 0 0 0 0 0 0 0 0 0 0 0 0 0 0 0 0 0 0 0 0 0 0 0 0 0 0 0 0 0 0 0 0 0 0 0 0 0 0 0 1022 1036 1066 1022 1008 1008 1008 1008 994 1022 1036 1036 1051 1066 1051 1051 1132 1115 1066 1022 1008 994 981 981 981 968 931 943 955 931 931 943 943 931 931 955 943 943 1051 1082 1082 1082 1051 1098 1115 1115 1187 1187 1168 1187 1187 1226 1247 1268 1362 1362 1362 1362 1388 1415 1415 1599 1635 1443 1565 1711 1711 1711 1711 1711 1599 1635 1635 1565 1565 1533 1599 1599 1635 1635 1672 1711 0 0 0 0 0 0 0 0 0 0 0 0 0 0 0 0 0 0 0 0 0 0 0 0 0 0 0 0 0 0 0 0 0 0 0 0 0 0 0 0 0 0 0 1936 1989 1795 1711 1839 1752 1752 1501 1443 1388 1415 1415 1443 1415 1388 1388 1362 1338 1362 1268 1247 1206 1206 1206 1206 1187 1149 1115 1132 1082 1036 968 955 931 865 908 886 876 886 886 897 886 876 0 855 876 855 836 845 836 836 836 817 782 750 721 714 721 700 707 694 687 687 681 687 675 669 675 669 669 669 639 639 639 639 634 623 629 623 608 593 557 537 529 529 525 529 500 487 493 490 484 484 487 490 487 490 497 490 490 493 497 481 474 465 457 451 446 446 438 438 435 430 427 425 418 406 406 404 402 399 0 0 0 0 0
    0 0 0 0 0 0 0 0 0 0 0 0 0 0 0 0 0 0 0 0 0 0 0 0 0 0 0 0 0 0 0 0 0 0 0 0 0 0 0 0 0 0 0 0 0 0 0 0 0 0 0 0 0 0 0 0 0 0 0 0 0 0 0 0 0 0 0 0 0 1022 1036 1051 1022 1008 1008 1008 1008 1008 1022 1022 1022 1036 1051 1051 1051 1082 1066 1051 1022 0 0 0 3 981 968 931 955 955 943 931 955 955 943 943 968 955 931 1051 1066 1066 1066 1051 1098 1098 1098 1187 1168 1168 1168 1168 1226 1226 1247 1338 1338 1338 1338 1362 1415 1415 1672 1533 1471 1565 1672 1672 1672 1635 1635 1533 1599 1565 1501 1501 1501 1533 1565 1565 1599 1599 1635 0 0 0 0 0 0 0 0 0 0 0 0 0 0 0 0 0 0 0 0 0 0 0 0 0 0 0 0 0 0 0 0 0 0 0 0 0 0 0 0 0 0 0 0 0 1599 1388 1565 1501 1501 1415 1388 1362 1388 1388 1388 1388 1362 1362 1338 1314 1314 1247 1226 1206 1206 1206 1187 1187 1168 1115 1149 1098 1051 981 968 943 876 908 886 876 886 886 908 886 876 0 855 0 845 826 826 826 826 0 808 782 750 721 721 721 707 714 700 694 687 681 687 675 669 669 663 663 657 634 639 629 623 618 608 608 608 598 584 553 537 529 525 518 521 497 487 493 493 487 487 490 490 490 490 500 490 490 493 493 481 477 465 457 451 448 446 440 438 438 430 427 425 418 406 406 404 404 399 0 0 0 0 0
    0 0 0 0 0 0 0 0 0 0 0 0 0 0 0 0 0 0 0 0 0 0 0 0 0 0 0 0 0 0 0 0 0 0 0 0 0 0 0 0 0 0 0 0 0 0 0 0 0 0 0 0 0 0 0 0 0 0 0 0 0 0 0 0 0 0 0 0 0 1022 1036 1051 1022 1008 1008 994 1008 1008 1022 1036 1036 1036 1051 1051 1051 1082 1036 1051 1036 1008 1008 981 955 968 955 931 955 955 943 943 955 968 955 955 981 968 931 1036 1051 1051 1051 1036 1082 1082 1098 1168 1149 1149 1168 1168 1206 1226 1268 1314 1338 1338 1338 1362 1443 1471 1752 1443 1471 1565 1711 1672 1635 1565 1565 1501 1565 1533 1471 1471 1471 1501 1565 1599 1599 1599 0 0 0 0 0 0 0 0 0 0 0 0 0 0 0 0 0 0 0 0 0 0 0 0 0 0 0 0 0 0 0 0 0 0 0 0 0 0 0 0 0 0 0 0 0 0 0 1362 1415 1388 1388 1362 1388 1338 1388 1362 1362 1362 1362 1362 1338 1314 1314 1247 1226 1206 1206 1206 1206 1206 1168 1132 1149 1115 1066 981 981 955 886 919 897 886 886 886 908 876 865 0 0 0 826 817 817 817 808 817 799 774 743 721 721 721 707 714 700 687 687 681 681 669 663 663 651 651 645 629 634 634 629 629 608 613 608 593 574 553 537 533 529 525 529 504 490 500 497 490 490 493 493 493 493 504 493 493 500 497 484 477 465 457 448 446 448 440 440 440 430 427 425 420 406 406 404 404 402 0 0 0 0 0
    0 0 0 0 0 0 0 0 0 0 0 0 0 0 0 0 0 0 0 0 0 0 0 0 0 0 0 0 0 0 0 0 0 0 0 0 0 0 0 0 0 0 0 0 0 0 0 0 0 0 0 0 0 0 0 0 0 0 0 0 0 0 0 0 0 0 0 0 0 1008 1036 1036 1022 1008 994 994 994 1008 1022 1022 1022 1036 1066 1051 1066 1066 1036 1051 1036 1008 1008 981 955 968 955 931 943 955 943 931 955 968 955 955 981 955 943 1036 1051 1022 1036 1036 1051 1066 1098 1168 1132 1149 1168 1149 1187 1226 1247 1291 1291 1314 1314 1338 1388 1388 1565 1415 1443 1533 1672 1635 1533 1471 1471 1443 1443 1443 1415 1443 1443 1501 1565 1599 1599 0 0 0 0 0 0 0 0 0 0 0 0 0 0 0 0 0 0 0 0 0 0 0 0 0 0 0 0 0 0 0 0 0 0 0 0 0 0 0 0 0 0 0 0 0 0 0 0 0 1501 1362 1314 1338 1362 1338 1362 1362 1338 1338 1338 1338 1338 1314 1338 1268 1247 1226 1226 1206 1206 1206 1168 1115 1149 1115 1066 981 981 968 886 931 908 886 886 886 908 876 865 0 826 836 826 808 799 808 799 808 791 750 735 714 714 714 700 700 694 687 681 675 675 663 657 657 639 639 629 613 623 618 613 608 603 608 603 588 570 553 541 533 529 525 525 507 490 500 497 490 490 493 493 490 493 504 493 490 500 493 481 477 465 457 448 446 448 443 443 440 432 430 425 420 406 404 404 404 402 0 0 0 0 0
    0 0 0 0 0 0 0 0 0 0 0 0 0 0 0 0 0 0 0 0 0 0 0 0 0 0 0 0 0 0 0 0 0 0 0 0 0 0 0 0 0 0 0 0 0 0 0 0 0 0 0 0 0 0 0 0 0 0 0 0 0 0 0 0 0 0 0 0 0 1008 1036 1036 1022 1008 994 981 981 994 1008 1008 1008 1022 1051 1051 1066 1066 1036 1036 1022 1008 1008 955 943 955 943 931 943 943 943 931 955 968 955 968 981 955 955 1036 1036 1022 1022 1022 1036 1066 1082 1149 1115 1149 1149 1149 1168 1226 1247 1291 1291 1314 1338 1362 1443 1388 1314 1388 1415 1501 1533 1443 1388 1362 1388 1362 1362 1388 1388 1388 1415 1471 1565 1599 0 0 0 0 0 0 0 0 0 0 0 0 0 0 0 0 0 0 0 0 0 0 0 0 0 0 0 0 0 0 0 0 0 0 0 0 0 0 0 0 0 0 0 0 0 0 0 0 0 0 0 1338 1247 1291 1338 1314 1362 1338 1314 1314 1314 1338 1314 1314 1338 1268 1247 1206 1226 1206 1187 1206 1168 1115 1149 1115 1066 994 994 968 897 931 919 897 897 886 919 876 855 0 826 826 817 799 791 799 791 799 791 743 728 714 707 707 700 700 687 681 675 669 663 651 645 639 634 629 623 608 618 613 613 608 603 603 603 593 561 549 541 529 525 525 525 514 500 511 507 497 497 497 493 493 497 504 493 493 500 493 484 481 468 459 451 448 448 443 446 443 432 0 427 425 408 406 404 406 402 0 0 0 0 0
    0 0 0 0 0 0 0 0 0 0 0 0 0 0 0 0 0 0 0 0 0 0 0 0 0 0 0 0 0 0 0 0 0 0 0 0 0 0 0 0 0 0 0 0 0 0 0 0 0 0 0 0 0 0 0 0 0 0 0 0 0 0 0 0 0 0 0 0 0 1008 1036 1022 1008 994 994 981 981 994 1008 1008 1008 1022 1051 1051 1066 1066 1022 1022 1022 994 994 919 931 943 931 931 955 955 943 931 968 968 968 968 968 943 931 1008 1022 1008 994 1008 1022 1051 1066 1098 1082 1115 1132 1149 1168 1206 1226 1247 1268 1268 1291 1314 1501 1268 1338 1388 1388 1415 1362 1314 1291 1291 1291 1314 1314 1338 1338 1362 1415 1471 1565 0 0 0 0 0 0 0 0 0 0 0 0 0 0 0 0 0 0 0 0 0 0 0 0 0 0 0 0 0 0 0 0 0 0 0 0 0 0 0 0 0 0 0 0 0 0 0 0 0 0 0 0 1314 1226 1268 1314 1291 1338 1314 1291 1291 1268 1291 1268 1291 1291 1268 1247 1206 1206 1206 1206 1206 1168 1115 1132 1115 1082 994 994 968 897 943 931 908 897 897 919 886 865 876 826 817 817 799 791 791 791 791 791 750 735 721 714 721 707 707 687 681 675 663 663 645 634 634 623 618 618 603 608 608 608 603 598 603 603 588 553 545 537 529 525 529 529 521 507 518 514 500 500 500 497 493 497 504 493 493 504 497 487 484 468 459 451 448 446 440 443 443 432 0 427 422 408 406 404 406 402 0 0 0 0 0
    0 0 0 0 0 0 0 0 0 0 0 0 0 0 0 0 0 0 0 0 0 0 0 0 0 0 0 0 0 0 0 0 0 0 0 0 0 0 0 0 0 0 0 0 0 0 0 0 0 0 0 0 0 0 0 0 0 0 0 0 0 0 0 0 0 0 0 0 0 1008 1051 1036 1008 994 994 981 981 981 1008 1008 1008 1008 1051 1051 1051 1051 1022 1008 1008 994 994 931 931 943 943 943 955 955 955 943 968 968 968 968 968 943 919 1008 1008 994 981 1008 1022 1051 1066 1082 1082 1098 1115 1149 1149 1206 1206 1226 1226 1247 1268 1291 1314 1187 1268 1314 1338 1314 1268 1226 1226 1226 1247 1247 1268 1291 1291 1338 1388 1471 1599 0 0 0 0 0 0 0 0 0 0 0 0 0 0 0 0 0 0 0 0 0 0 0 0 0 0 0 0 0 0 0 0 0 0 0 0 0 0 0 0 0 0 0 0 0 0 0 0 0 0 0 0 0 1247 1268 1314 1291 1314 1291 1268 1247 1247 1247 1247 1247 1268 1247 1247 1206 1206 1206 1206 1226 1187 1115 1115 1098 1066 981 981 968 908 943 931 919 908 897 931 886 865 876 826 817 817 799 791 791 782 799 799 758 743 728 728 728 721 714 700 687 681 669 657 645 629 623 618 608 608 598 603 598 598 598 593 593 593 574 549 541 537 525 525 525 529 521 511 521 518 504 504 500 497 497 497 504 493 493 500 490 481 477 462 457 448 446 443 440 440 440 432 425 422 420 406 404 404 404 402 0 0 0 0 0
    0 0 0 0 0 0 0 0 0 0 0 0 0 0 0 0 0 0 0 0 0 0 0 0 0 0 0 0 0 0 0 0 0 0 0 0 0 0 0 0 0 0 0 0 0 0 0 0 0 0 0 0 0 0 0 0 0 0 0 0 0 0 0 0 0 0 0 0 0 1022 1066 1036 1022 994 994 981 981 981 994 994 994 994 1022 1036 1036 1036 1008 1008 1008 994 981 919 931 955 943 955 955 955 955 955 981 981 968 968 968 943 919 981 1008 981 981 994 1008 1036 1051 1066 1066 1098 1115 1149 1149 1187 1206 1168 1187 1187 1226 1206 1066 1082 1206 1268 1314 1247 1206 1168 1168 1187 1206 1226 1247 1247 1268 1314 1362 1443 0 0 0 0 0 0 0 0 0 0 0 0 0 0 0 0 0 0 0 0 0 0 0 0 0 0 0 0 0 0 0 0 0 0 0 0 0 0 0 0 0 0 0 0 0 0 0 0 0 0 0 0 0 0 0 1247 1247 1226 1268 1226 1206 1206 1168 1206 1187 1206 1226 1226 1226 1206 1187 1187 1168 1187 1168 1098 1098 1082 1066 981 981 968 908 943 931 919 908 897 931 886 855 865 817 808 808 791 782 782 782 799 799 766 750 743 743 743 735 728 707 700 687 681 663 645 629 623 613 608 603 593 598 593 593 593 588 588 579 561 553 545 541 533 529 525 529 525 518 525 521 507 507 504 500 497 497 504 490 490 500 490 481 477 459 457 448 446 443 440 440 440 432 427 425 422 408 406 406 406 402 0 0 0 0 0
    0 0 0 0 0 0 0 0 0 0 0 0 0 0 0 0 0 0 0 0 0 0 0 0 0 0 0 0 0 0 0 0 0 0 0 0 0 0 0 0 0 0 0 0 0 0 0 0 0 0 0 0 0 0 0 0 0 0 0 0 0 0 0 0 0 0 0 0 0 1022 1082 1051 1036 1008 994 981 981 981 994 994 994 981 1008 1022 1036 1022 1008 994 994 981 981 919 931 955 955 955 968 955 968 955 981 981 955 955 955 919 886 955 968 968 968 994 994 1022 1051 1051 1066 1082 1098 1132 1115 1168 1187 1115 1168 1168 1115 1098 1098 1187 1206 1268 1226 1187 1149 1132 1149 1149 1168 1206 1206 1226 1247 1268 1314 0 0 0 0 0 0 0 0 0 0 0 0 0 0 0 0 0 0 0 0 0 0 0 0 0 0 0 0 0 0 0 0 0 0 0 0 0 0 0 0 0 0 0 0 0 0 0 0 0 0 0 0 0 0 0 0 1268 1226 1206 1268 1168 1168 1168 1149 1187 1149 1187 1206 1187 1206 1168 1149 1168 1132 1149 1132 1066 1066 1051 1051 955 981 968 908 931 931 931 919 908 943 886 855 865 817 799 799 782 766 774 774 791 799 774 758 750 750 758 743 735 714 707 700 694 669 645 623 618 603 593 593 579 588 584 584 584 584 579 579 566 553 545 545 537 529 525 529 529 521 529 525 514 518 511 504 500 500 504 493 493 504 493 487 484 471 465 451 443 443 440 438 440 430 0 420 418 406 404 406 406 404 0 0 0 0 0
    0 0 0 0 0 0 0 0 0 0 0 0 0 0 0 0 0 0 0 0 0 0 0 0 0 0 0 0 0 0 0 0 0 0 0 0 0 0 0 0 0 0 0 0 0 0 0 0 0 0 0 0 0 0 0 0 0 0 0 0 0 0 0 0 0 0 0 0 0 1022 1082 1051 1051 1022 1008 981 981 968 1008 1008 1008 981 1008 1008 1036 1022 994 981 994 981 981 919 955 968 955 955 981 968 968 968 994 981 968 955 955 886 855 931 943 955 955 981 994 1022 1036 1036 1051 1066 1082 1115 1098 1149 1149 1082 1168 1115 1149 1149 1187 1268 1268 1247 1132 1098 1098 1098 1098 1115 1132 1149 1168 1187 1206 1226 0 0 0 0 0 0 0 0 0 0 0 0 0 0 0 0 0 0 0 0 0 0 0 0 0 0 0 0 0 0 0 0 0 0 0 0 0 0 0 0 0 0 0 0 0 0 0 0 0 0 0 0 0 0 0 0 0 0 0 0 0 1132 1168 1187 1149 1168 1149 1168 1187 1168 1187 1132 1132 1132 1115 1132 1115 1066 1051 1036 1036 955 968 968 897 931 931 931 908 908 943 886 855 876 808 799 799 774 766 774 774 791 791 766 758 750 758 766 758 743 728 714 707 700 669 639 618 603 593 584 584 574 584 579 579 579 574 574 570 561 557 549 545 541 533 529 533 529 525 529 533 521 525 518 514 507 507 511 497 497 507 497 487 487 477 471 465 446 440 435 430 430 418 0 411 408 404 402 404 404 402 0 0 0 0 0
    0 0 0 0 0 0 0 0 0 0 0 0 0 0 0 0 0 0 0 0 0 0 0 0 0 0 0 0 0 0 0 0 0 0 0 0 0 0 0 0 0 0 0 0 0 0 0 0 0 0 0 0 0 0 0 0 0 0 0 0 0 0 0 0 0 0 0 0 0 1022 1115 1066 1051 1051 1022 981 955 931 0 1022 0 981 1022 1008 1036 1036 994 981 981 981 981 897 968 968 968 968 981 981 981 981 1008 981 968 955 931 865 865 908 931 955 955 981 994 1022 1036 1036 1051 1066 1082 1115 1115 1168 1115 1051 1082 1082 1082 1115 1149 1206 1187 1132 1036 1036 1051 1051 1066 1082 1098 1098 1115 1149 1168 1206 0 0 0 0 0 0 0 0 0 0 0 0 0 0 0 0 0 0 0 0 0 0 0 0 0 0 0 0 0 0 0 0 0 0 0 0 0 0 0 0 0 0 0 0 0 0 0 0 0 0 0 0 0 0 0 0 0 0 0 0 0 0 1115 1132 1115 1132 1098 1098 1149 1132 1168 1098 1115 1098 1098 1115 1098 1051 1036 1022 1022 943 968 955 886 919 931 931 908 919 955 897 855 886 817 799 799 782 766 774 774 791 791 766 758 750 758 766 766 743 721 714 700 694 657 634 613 603 593 588 588 574 579 579 574 579 579 574 574 566 561 553 553 545 537 533 537 533 529 533 533 525 529 521 518 511 507 507 497 493 504 493 484 484 477 468 459 443 438 438 432 430 420 408 413 411 404 402 406 404 402 0 0 0 0 0
    0 0 0 0 0 0 0 0 0 0 0 0 0 0 0 0 0 0 0 0 0 0 0 0 0 0 0 0 0 0 0 0 0 0 0 0 0 0 0 0 0 0 0 0 0 0 0 0 0 0 0 0 0 0 0 0 0 0 0 0 0 0 0 0 0 0 0 0 0 1022 1187 1082 1036 1036 0 0 0 0 0 0 0 0 0 1098 1268 0 0 955 981 981 968 886 955 955 955 968 981 968 968 968 994 955 943 931 886 855 865 886 908 955 955 981 994 1022 1036 1036 1051 1066 1082 1132 1115 1187 1051 1036 1066 1066 1051 1066 1082 1115 1082 1051 1008 1008 1022 1036 1036 1066 1066 1082 1098 1149 1168 0 0 0 0 0 0 0 0 0 0 0 0 0 0 0 0 0 0 0 0 0 0 0 0 0 0 0 0 0 0 0 0 0 0 0 0 0 0 0 0 0 0 0 0 0 0 0 0 0 0 0 0 0 0 0 0 0 0 0 0 0 0 0 1066 1098 1082 1098 1082 1066 1115 1115 1132 1082 1098 1082 1066 1098 1098 1051 1036 1022 1022 955 968 968 897 919 931 931 919 919 955 897 865 897 817 808 799 782 774 774 774 791 791 766 758 758 766 782 774 758 721 707 700 687 657 634 613 608 593 588 579 570 570 570 570 574 570 574 570 566 561 553 553 545 537 533 537 533 533 533 537 529 533 525 525 511 511 507 504 500 504 497 487 487 481 474 465 448 438 438 432 430 422 408 413 411 406 402 406 406 404 0 0 0 0 0
    0 0 0 0 0 0 0 0 0 0 0 0 0 0 0 0 0 0 0 0 0 0 0 0 0 0 0 0 0 0 0 0 0 0 0 0 0 0 0 0 0 0 0 0 0 0 0 0 0 0 0 0 0 0 0 0 0 0 0 0 0 0 0 0 0 0 0 0 0 1036 1149 1022 981 943 955 0 0 0 0 0 0 0 0 0 1388 0 0 919 968 968 955 886 943 943 943 955 968 955 955 943 968 919 908 897 865 855 855 865 886 981 968 994 1008 1036 1036 1051 1066 1082 1066 1115 1115 1168 1022 1036 1051 1036 1036 1051 1066 1036 1036 1008 981 981 994 1022 1022 1036 1051 1051 1082 1132 0 0 0 0 0 0 0 0 0 0 0 0 0 0 0 0 0 0 0 0 0 0 0 0 0 0 0 0 0 0 0 0 0 0 0 0 0 0 0 0 0 0 0 0 0 0 0 0 0 0 0 0 0 0 0 0 0 0 0 0 0 0 0 0 1066 1082 1082 1082 1066 1051 1082 1082 1115 1066 1082 1082 1066 1082 1082 1051 1036 1008 1008 955 968 955 897 919 931 931 919 919 955 897 865 908 817 808 808 782 774 782 782 791 791 774 766 766 782 791 782 774 728 714 700 687 657 629 613 608 588 579 579 566 566 570 566 574 570 570 570 566 561 553 553 545 541 537 541 537 537 537 541 533 537 533 529 518 521 518 514 507 507 497 490 487 477 474 462 446 438 440 435 432 427 413 418 415 411 404 408 408 408 0 0 0 0 0
    0 0 0 0 0 0 0 0 0 0 0 0 0 0 0 0 0 0 0 0 0 0 0 0 0 0 0 0 0 0 0 0 0 0 0 0 0 0 0 0 0 0 0 0 0 0 0 0 0 0 0 0 0 0 0 0 0 0 0 0 0 0 0 0 0 0 0 0 0 1036 1082 1022 955 897 0 0 0 0 0 0 0 0 0 0 1443 0 0 897 955 955 943 886 943 931 955 968 968 943 919 919 931 865 855 855 855 845 836 865 876 994 981 994 994 1008 1022 1022 1051 1051 1051 1066 1082 1051 1022 1036 1051 1036 1022 1008 1036 1008 994 968 931 943 968 994 1008 1008 1022 1036 1066 0 0 0 0 0 0 0 0 0 0 0 0 0 0 0 0 0 0 0 0 0 0 0 0 0 0 0 0 0 0 0 0 0 0 0 0 0 0 0 0 0 0 0 0 0 0 0 0 0 0 0 0 0 0 0 0 0 0 0 0 0 0 0 0 0 0 1082 1082 1082 1082 1066 1066 1082 1098 1082 1082 1082 1066 1066 1082 1051 1022 994 1008 955 968 968 897 919 919 919 919 908 943 897 865 908 826 817 817 799 782 782 782 791 791 766 766 766 774 791 782 766 735 721 714 694 663 634 613 613 588 579 579 570 570 574 570 574 570 570 570 561 561 557 557 549 541 541 541 537 537 537 537 529 529 529 525 511 514 511 511 504 500 493 490 490 484 481 468 448 440 440 435 432 430 415 418 415 411 406 408 411 411 0 0 0 0 0
    0 0 0 0 0 0 0 0 0 0 0 0 0 0 0 0 0 0 0 0 0 0 0 0 0 0 0 0 0 0 0 0 0 0 0 0 0 0 0 0 0 0 0 0 0 0 0 0 0 0 0 0 0 0 0 0 0 0 0 0 0 0 0 0 0 0 0 0 0 1022 1051 1022 0 0 0 0 0 0 0 0 0 0 0 1415 1443 0 0 886 943 943 931 908 955 955 955 955 919 845 817 836 836 826 799 826 845 845 855 886 943 994 994 994 1008 1008 1022 1022 1149 1082 1066 1051 1066 1022 1022 1036 1051 1022 994 981 994 955 943 919 908 919 943 981 994 1008 1022 1036 1066 0 0 0 0 0 0 0 0 0 0 0 0 0 0 0 0 0 0 0 0 0 0 0 0 0 0 0 0 0 0 0 0 0 0 0 0 0 0 0 0 0 0 0 0 0 0 0 0 0 0 0 0 0 0 0 0 0 0 0 0 0 0 0 0 0 0 1066 1066 1082 1082 1051 1066 1066 1082 1051 1051 1051 1036 1036 1051 1022 1008 981 981 955 968 968 897 919 919 919 908 908 931 897 865 897 826 826 817 799 791 791 782 791 782 766 758 758 766 782 758 750 728 721 714 694 669 639 618 613 598 588 588 579 579 584 579 579 574 574 574 570 570 561 561 557 545 537 537 533 529 525 525 521 521 521 521 504 507 500 497 497 493 490 484 484 484 481 471 448 446 443 438 435 432 418 415 415 411 404 408 408 411 0 0 0 0 0
    0 0 0 0 0 0 0 0 0 0 0 0 0 0 0 0 0 0 0 0 0 0 0 0 0 0 0 0 0 0 0 0 0 0 0 0 0 0 0 0 0 0 0 0 0 0 0 0 0 0 0 0 0 0 0 0 0 0 0 0 0 0 0 0 0 0 0 0 0 981 0 0 0 0 0 0 0 0 0 0 0 0 0 0 1388 0 782 0 908 908 876 845 855 865 855 817 808 799 782 799 826 836 817 855 886 908 908 897 931 968 968 955 955 955 968 955 1247 1036 1022 968 1008 1008 1008 1008 1036 994 955 931 931 876 876 865 865 876 931 968 981 994 1008 1036 0 0 0 0 0 0 0 0 0 0 0 0 0 0 0 0 0 0 0 0 0 0 0 0 0 0 0 0 0 0 0 0 0 0 0 0 0 0 0 0 0 0 0 0 0 0 0 0 0 0 0 0 0 0 0 0 0 0 0 0 0 0 0 0 0 0 0 1066 1082 1066 1066 1051 1051 1066 1066 1051 1036 1036 1022 1036 1036 1008 994 981 981 955 968 968 897 919 919 919 908 908 919 886 865 886 826 826 817 799 791 782 782 782 774 758 750 758 758 774 750 743 721 714 714 687 669 645 629 618 603 598 593 588 584 588 584 584 579 584 579 579 579 574 566 561 549 541 541 533 533 525 521 518 521 518 518 500 504 493 490 490 490 487 484 487 487 481 474 459 459 451 440 438 432 422 415 413 411 404 408 408 411 0 0 0 0 0
    0 0 0 0 0 0 0 0 0 0 0 0 0 0 0 0 0 0 0 0 0 0 0 0 0 0 0 0 0 0 0 0 0 0 0 0 0 0 0 0 0 0 0 0 0 0 0 0 0 0 0 0 0 0 0 0 0 0 0 0 0 0 0 0 0 0 0 0 0 908 931 943 968 955 0 0 0 0 0 0 0 0 0 0 0 808 782 0 0 0 0 0 0 826 799 766 766 750 728 721 0 845 826 876 886 919 931 919 919 919 931 919 919 919 919 886 886 968 981 943 968 981 994 994 1008 968 919 897 886 855 855 855 855 886 919 943 968 981 994 0 0 0 0 0 0 0 0 0 0 0 0 0 0 0 0 0 0 0 0 0 0 0 0 0 0 0 0 0 0 0 0 0 0 0 0 0 0 0 0 0 0 0 0 0 0 0 0 0 0 0 0 0 0 0 0 0 0 0 0 0 0 0 0 0 0 0 0 1066 1082 1082 1051 1036 1051 1051 1066 1036 1036 1022 1022 1022 1022 994 994 968 968 943 955 955 897 919 919 908 897 897 919 886 865 886 826 826 808 799 782 782 774 782 774 750 750 758 750 766 743 735 714 707 707 681 675 657 629 623 603 598 593 593 584 593 584 588 584 588 584 584 584 584 570 566 553 549 545 537 529 525 521 518 521 514 514 497 500 490 487 487 484 484 481 484 487 481 468 454 454 446 438 435 427 415 413 413 411 406 408 406 411 0 0 0 0 0
    0 0 0 0 0 0 0 0 0 0 0 0 0 0 0 0 0 0 0 0 0 0 0 0 0 0 0 0 0 0 0 0 0 0 0 0 0 0 0 0 0 0 0 0 0 0 0 0 0 0 0 0 0 0 0 0 0 0 0 0 0 0 0 0 0 0 0 0 0 897 919 931 943 943 943 943 994 994 981 0 0 808 0 0 0 808 799 0 0 0 0 0 0 826 799 766 774 750 735 721 0 845 826 876 876 919 931 919 908 886 886 897 897 897 876 855 845 931 968 943 955 955 955 919 943 919 865 855 845 836 836 836 855 876 876 897 919 943 968 0 0 0 0 0 0 0 0 0 0 0 0 0 0 0 0 0 0 0 0 0 0 0 0 0 0 0 0 0 0 0 0 0 0 0 0 0 0 0 0 0 0 0 0 0 0 0 0 0 0 0 0 0 0 0 0 0 0 0 0 0 0 0 0 0 0 0 0 0 1082 1066 1051 1022 1036 1036 1051 1036 1036 1022 1022 1036 1036 1008 994 981 981 955 955 955 897 908 919 897 886 886 897 886 865 876 826 826 817 808 791 782 782 782 774 758 750 758 750 758 735 721 700 694 694 675 657 651 629 623 608 603 598 603 588 598 588 593 588 593 588 593 588 588 579 570 557 549 545 537 529 521 514 514 514 511 504 0 493 487 481 481 477 477 474 477 481 477 468 454 451 446 440 435 430 420 415 415 411 406 408 406 411 0 0 0 0 0
    0 0 0 0 0 0 0 0 0 0 0 0 0 0 0 0 0 0 0 0 0 0 0 0 0 0 0 0 0 0 0 0 0 0 0 0 0 0 0 0 0 0 0 0 0 0 0 0 0 0 0 0 0 0 0 0 0 0 0 0 0 0 0 0 0 0 0 0 0 897 919 919 943 931 931 943 981 955 968 0 0 0 0 0 808 826 826 845 855 0 0 817 808 817 791 766 782 758 750 728 0 845 826 865 876 919 943 919 908 865 876 886 886 876 855 836 826 886 943 919 931 897 886 876 876 876 836 836 826 817 826 836 845 855 865 876 897 931 0 0 0 0 0 0 0 0 0 0 0 0 0 0 0 0 0 0 0 0 0 0 0 0 0 0 0 0 0 0 0 0 0 0 0 0 0 0 0 0 0 0 0 0 0 0 0 0 0 0 0 0 0 0 0 0 0 0 0 0 0 0 0 0 0 0 0 0 0 0 1066 1066 1036 1022 1022 1036 1036 1022 1036 1022 1008 1022 1036 994 994 968 968 955 943 955 908 919 919 897 897 876 876 876 855 865 826 826 817 808 799 791 782 782 774 758 758 758 750 758 735 721 707 694 694 675 657 645 629 623 608 603 603 603 593 603 593 598 593 598 593 593 598 593 579 570 557 549 541 533 521 514 504 500 500 493 0 0 0 0 0 474 474 471 474 477 481 477 471 462 459 451 446 443 435 427 422 420 418 413 413 413 418 0 0 0 0 0
    0 0 0 0 0 0 0 0 0 0 0 0 0 0 0 0 0 0 0 0 0 0 0 0 0 0 0 0 0 0 0 0 0 0 0 0 0 0 0 0 0 0 0 0 0 0 0 0 0 0 0 0 0 0 0 0 0 0 0 0 0 0 0 0 0 0 0 0 0 897 908 919 931 931 919 943 955 908 943 0 0 0 0 0 799 826 836 0 855 0 826 808 808 808 782 766 774 758 758 743 0 836 817 865 886 931 955 931 919 876 876 886 876 855 817 817 808 836 855 855 855 836 817 836 836 836 817 817 808 808 817 826 836 845 845 855 876 0 0 0 0 0 0 0 0 0 0 0 0 0 0 0 0 0 0 0 0 0 0 0 0 0 0 0 0 0 0 0 0 0 0 0 0 0 0 0 0 0 0 0 0 0 0 0 0 0 0 0 0 0 0 0 0 0 0 0 0 0 0 0 0 0 0 0 0 0 0 0 1066 1066 1036 1022 1022 1036 1036 1022 1022 1008 1008 1022 1022 994 981 981 981 955 955 955 919 931 931 919 897 865 865 865 845 845 817 817 808 808 799 791 791 782 774 766 758 758 750 758 735 721 707 694 700 681 669 651 623 618 608 603 603 603 598 608 603 603 598 603 598 598 598 593 579 566 557 553 541 533 521 514 500 497 497 490 0 0 0 0 0 0 474 477 0 484 487 487 477 471 465 448 443 440 435 430 425 422 422 420 425 425 425 0 0 0 0 0
    0 0 0 0 0 0 0 0 0 0 0 0 0 0 0 0 0 0 0 0 0 0 0 0 0 0 0 0 0 0 0 0 0 0 0 0 0 0 0 0 0 0 0 0 0 0 0 0 0 0 0 0 0 0 0 0 0 0 0 0 0 0 0 0 0 0 0 0 0 897 897 919 931 919 919 943 943 886 908 0 0 774 750 0 766 782 0 0 0 0 0 808 808 817 799 782 791 782 791 799 845 845 836 865 897 931 943 931 908 865 865 876 865 845 808 817 808 836 836 845 826 817 808 817 808 817 799 799 799 808 817 826 826 826 826 0 0 0 0 0 0 0 0 0 0 0 0 0 0 0 0 0 0 0 0 0 0 0 0 0 0 0 0 0 0 0 0 0 0 0 0 0 0 0 0 0 0 0 0 0 0 0 0 0 0 0 0 0 0 0 0 0 0 0 0 0 0 0 0 0 0 0 0 0 0 0 0 0 0 1066 1036 1036 1008 1036 1036 1022 1022 1008 1008 1022 1022 981 968 968 968 919 908 908 886 897 897 886 865 845 855 845 845 836 817 817 808 808 799 791 791 782 774 758 750 758 743 750 728 714 707 687 694 681 663 645 623 618 613 613 608 613 613 618 618 613 613 608 603 603 603 598 579 566 557 549 537 529 521 514 500 500 493 490 487 477 474 481 468 471 471 474 477 481 481 481 471 465 465 451 440 440 435 432 0 0 0 422 425 427 425 0 0 0 0 0
    0 0 0 0 0 0 0 0 0 0 0 0 0 0 0 0 0 0 0 0 0 0 0 0 0 0 0 0 0 0 0 0 0 0 0 0 0 0 0 0 0 0 0 0 0 0 0 0 0 0 0 0 0 0 0 0 0 0 0 0 0 0 0 0 0 0 0 0 0 897 908 919 931 919 919 943 943 897 0 0 0 0 0 0 0 0 0 0 0 0 0 808 817 817 808 791 799 782 808 817 855 855 845 876 897 931 931 919 897 865 865 865 865 845 817 817 808 826 836 826 826 808 808 808 799 808 799 799 799 808 808 817 817 817 0 0 0 0 0 0 0 0 0 0 0 0 0 0 0 0 0 0 0 0 0 0 0 0 0 0 0 0 0 0 0 0 0 0 0 0 0 0 0 0 0 0 0 0 0 0 0 0 0 0 0 0 0 0 0 0 0 0 0 0 0 0 0 0 0 0 0 0 0 0 0 0 0 0 0 1051 1022 1036 1036 1066 1066 1051 1036 1008 1008 1022 1022 968 968 955 943 886 855 865 845 865 865 845 836 826 836 836 826 817 799 799 791 799 791 782 791 782 766 766 750 750 735 743 728 714 707 687 694 675 663 645 623 618 613 613 613 613 618 623 623 618 618 613 608 608 608 598 584 570 561 545 533 529 525 514 500 497 493 487 487 474 471 477 468 471 474 474 477 477 481 477 471 465 465 454 440 440 432 427 0 0 0 425 425 425 420 0 0 0 0 0
    0 0 0 0 0 0 0 0 0 0 0 0 0 0 0 0 0 0 0 0 0 0 0 0 0 0 0 0 0 0 0 0 0 0 0 0 0 0 0 0 0 0 0 0 0 0 0 0 0 0 0 0 0 0 0 0 0 0 0 0 0 0 0 0 0 0 0 0 0 897 908 908 931 931 919 955 955 908 0 0 0 0 0 0 0 0 0 0 0 0 0 808 808 808 799 782 791 782 808 817 876 865 865 886 897 931 931 919 908 876 855 855 855 836 817 808 808 808 799 808 808 799 791 799 791 799 791 799 799 808 817 817 826 0 0 0 0 0 0 0 0 0 0 0 0 0 0 0 0 0 0 0 0 0 0 0 0 0 0 0 0 0 0 0 0 0 0 0 0 0 0 0 0 0 0 0 0 0 0 0 0 0 0 0 0 0 0 0 0 0 0 0 0 0 0 0 0 0 0 0 0 0 0 0 0 0 0 0 0 0 1022 1036 1066 1115 1082 1022 1022 994 994 1008 1008 943 955 919 908 865 836 845 836 865 855 845 836 826 826 826 817 817 791 791 791 791 791 782 791 782 766 774 750 743 728 735 721 700 694 681 681 663 657 645 629 618 613 613 613 618 618 629 623 623 618 618 613 608 603 593 574 561 561 549 537 529 529 518 507 497 490 484 481 471 465 474 457 462 462 465 471 468 471 471 462 462 462 457 448 440 435 432 0 0 0 0 430 425 420 0 0 0 0 0
    0 0 0 0 0 0 0 0 0 0 0 0 0 0 0 0 0 0 0 0 0 0 0 0 0 0 0 0 0 0 0 0 0 0 0 0 0 0 0 0 0 0 0 0 0 0 0 0 0 0 0 0 0 0 0 0 0 0 0 0 0 0 0 0 0 0 0 0 0 897 897 908 919 919 919 955 955 0 0 0 0 0 0 0 0 0 0 0 0 0 0 817 817 817 799 791 799 799 836 0 0 0 0 876 886 908 919 897 886 865 845 836 836 826 799 799 791 782 791 799 799 791 791 791 791 799 799 791 799 799 808 817 0 0 0 0 0 0 0 0 0 0 0 0 0 0 0 0 0 0 0 0 0 0 0 0 0 0 0 0 0 0 0 0 0 0 0 0 0 0 0 0 0 0 0 0 0 0 0 0 0 0 0 0 0 0 0 0 0 0 0 0 0 0 0 0 0 0 0 0 0 0 0 0 0 0 0 0 0 0 0 0 1082 1187 1187 1115 1132 1066 1066 1066 1022 943 955 897 876 855 826 826 826 845 836 826 817 817 817 817 817 808 782 791 782 791 791 774 791 774 766 766 743 743 728 728 714 700 694 681 681 669 657 645 629 618 613 608 608 608 608 618 613 613 613 613 608 603 598 579 570 557 557 553 545 541 541 533 529 511 487 484 477 471 465 481 459 462 457 462 465 465 465 465 459 457 457 454 448 440 435 432 432 432 432 432 432 427 420 0 0 0 0 0
    0 0 0 0 0 0 0 0 0 0 0 0 0 0 0 0 0 0 0 0 0 0 0 0 0 0 0 0 0 0 0 0 0 0 0 0 0 0 0 0 0 0 0 0 0 0 0 0 0 0 0 0 0 0 0 0 0 0 0 0 0 0 0 0 0 0 0 0 0 886 886 897 908 919 908 943 931 865 0 0 0 0 0 0 0 0 0 0 0 0 0 817 826 817 799 0 799 0 0 0 0 0 0 0 876 886 886 876 865 845 826 826 817 808 799 791 791 782 791 791 791 782 782 791 791 791 799 782 791 791 791 0 0 0 0 0 0 0 0 0 0 0 0 0 0 0 0 0 0 0 0 0 0 0 0 0 0 0 0 0 0 0 0 0 0 0 0 0 0 0 0 0 0 0 0 0 0 0 0 0 0 0 0 0 0 0 0 0 0 0 0 0 0 0 0 0 0 0 0 0 0 0 0 0 0 0 0 0 0 0 0 0 0 0 0 1149 1149 1132 1132 1098 1036 968 981 908 855 845 808 808 817 826 826 817 808 808 799 808 808 799 774 782 782 782 791 774 791 774 766 782 743 743 728 728 714 700 694 687 681 675 663 645 629 613 613 608 608 608 608 613 613 613 613 608 603 593 588 570 561 557 553 549 545 541 541 537 533 518 497 487 484 474 474 484 471 471 462 462 468 465 462 462 454 451 454 451 448 443 438 435 438 435 435 435 435 430 425 0 0 0 0 0
    0 0 0 0 0 0 0 0 0 0 0 0 0 0 0 0 0 0 0 0 0 0 0 0 0 0 0 0 0 0 0 0 0 0 0 0 0 0 0 0 0 0 0 0 0 0 0 0 0 0 0 0 0 0 0 0 0 0 0 0 0 0 0 0 0 0 0 0 0 897 886 897 908 908 886 931 886 836 0 0 0 0 0 0 0 0 0 0 0 0 0 826 0 817 791 782 782 0 0 0 0 0 0 0 865 865 855 836 0 826 799 791 791 791 782 782 782 774 774 782 782 774 774 782 782 782 782 766 774 766 758 0 0 0 0 0 0 0 0 0 0 0 0 0 0 0 0 0 0 0 0 0 0 0 0 0 0 0 0 0 0 0 0 0 0 0 0 0 0 0 0 0 0 0 0 0 0 0 0 0 0 0 0 0 0 0 0 0 0 0 0 0 0 0 0 0 0 0 0 0 0 0 0 0 0 0 0 0 0 0 0 0 0 0 0 0 0 1115 1098 1066 1036 968 994 897 845 836 799 799 799 817 817 817 799 808 791 799 799 799 758 766 774 774 782 774 791 782 766 782 735 721 714 721 707 694 687 687 681 675 669 645 629 613 608 608 603 603 608 613 613 608 608 603 598 588 579 557 553 549 549 545 541 537 537 537 533 514 490 484 477 474 474 484 474 471 465 465 468 465 462 462 457 454 457 454 454 448 446 443 440 440 435 438 435 432 422 0 0 0 0 0
    0 0 0 0 0 0 0 0 0 0 0 0 0 0 0 0 0 0 0 0 0 0 0 0 0 0 0 0 0 0 0 0 0 0 0 0 0 0 0 0 0 0 0 0 0 0 0 0 0 0 0 0 0 0 0 0 0 0 0 0 0 0 0 0 0 0 0 0 0 886 886 876 897 897 876 908 845 808 0 0 0 0 0 0 0 0 0 0 0 0 0 836 836 817 799 782 782 0 0 0 0 0 0 0 855 0 0 0 0 808 791 782 766 758 758 766 766 766 766 766 766 766 774 782 782 774 774 758 766 750 0 0 714 0 0 0 0 0 0 0 0 0 0 0 0 0 0 0 0 0 0 0 0 0 0 0 0 0 0 0 0 0 0 0 0 0 0 0 0 0 0 0 0 0 0 0 0 0 0 0 0 0 0 0 0 0 0 0 0 0 0 0 0 0 0 0 0 0 0 0 0 0 0 0 0 0 0 0 0 0 0 0 0 0 0 0 0 0 1051 1036 1022 981 1008 886 836 826 799 782 791 808 808 808 791 791 774 774 791 782 750 750 758 750 758 758 774 758 743 750 707 700 694 700 694 687 681 681 681 681 675 651 634 618 613 608 608 608 608 618 613 608 608 603 598 0 566 549 549 545 545 545 541 537 541 541 537 521 487 481 477 477 484 487 481 481 474 471 471 468 465 462 454 457 459 457 457 451 448 443 440 443 438 440 438 435 425 0 0 0 0 0
    0 0 0 0 0 0 0 0 0 0 0 0 0 0 0 0 0 0 0 0 0 0 0 0 0 0 0 0 0 0 0 0 0 0 0 0 0 0 0 0 0 0 0 0 0 0 0 0 0 0 0 0 0 0 0 0 0 0 0 0 0 0 0 0 0 0 0 0 0 876 865 865 865 876 0 0 0 758 0 0 0 721 714 707 700 0 0 0 0 0 0 817 0 817 0 782 782 782 817 808 782 791 0 0 0 0 0 0 0 791 774 766 743 750 766 766 766 766 758 766 766 766 774 782 774 766 774 750 758 0 0 0 707 0 0 0 0 0 0 0 0 0 0 0 0 0 0 0 0 0 0 0 0 0 0 0 0 0 0 0 0 0 0 0 0 0 0 0 0 0 0 0 0 0 0 0 0 0 0 0 0 0 0 0 0 0 0 0 0 0 0 0 0 0 0 0 0 0 0 0 0 0 0 0 0 0 0 0 0 0 0 0 0 0 0 0 0 0 0 1022 1008 1008 1022 886 836 836 799 782 782 808 808 799 791 782 750 0 758 750 728 735 735 735 728 728 735 721 721 714 687 675 675 687 681 681 675 675 681 681 669 651 645 629 623 618 613 608 613 618 613 608 603 603 593 0 566 549 549 549 549 545 541 537 545 545 541 525 497 484 481 481 487 490 484 484 477 474 474 471 465 462 454 454 457 454 451 446 446 440 438 0 0 435 0 0 420 0 0 0 0 0
    0 0 0 0 0 0 0 0 0 0 0 0 0 0 0 0 0 0 0 0 0 0 0 0 0 0 0 0 0 0 0 0 0 0 0 0 0 0 0 0 0 0 0 0 0 0 0 0 0 0 0 0 0 0 0 0 0 0 0 0 0 0 0 0 0 0 0 0 0 0 855 845 845 865 0 0 0 0 714 714 700 714 714 714 714 721 0 0 0 0 0 799 0 0 0 774 774 766 817 782 750 758 0 0 0 0 0 766 782 782 766 743 735 750 766 758 758 758 758 758 766 774 774 774 782 774 774 0 0 0 0 0 707 0 0 0 0 0 0 0 0 0 0 0 0 0 0 0 0 0 0 0 0 0 0 0 0 0 0 0 0 0 0 0 0 0 0 0 0 0 0 0 0 0 0 0 0 0 0 0 0 0 0 0 0 0 0 0 0 0 0 0 0 0 0 0 0 0 0 0 0 0 0 0 0 0 0 0 0 0 0 0 0 0 0 0 0 0 0 0 1022 1051 1036 886 826 836 808 791 791 808 808 791 782 782 0 0 0 0 707 714 721 721 714 714 721 714 714 700 681 675 681 687 681 675 669 669 675 675 663 651 645 634 634 623 613 613 613 618 613 608 608 608 598 0 0 549 549 549 549 549 545 541 545 545 541 529 507 490 487 487 490 490 487 487 481 474 471 468 462 459 451 451 454 454 451 443 446 440 438 0 435 432 425 418 413 0 0 0 0 0
    0 0 0 0 0 0 0 0 0 0 0 0 0 0 0 0 0 0 0 0 0 0 0 0 0 0 0 0 0 0 0 0 0 0 0 0 0 0 0 0 0 0 0 0 0 0 0 0 0 0 0 0 0 0 0 0 0 0 0 0 0 0 0 0 0 0 0 0 0 0 0 845 0 855 0 0 0 728 714 714 707 714 714 721 728 0 743 766 750 728 743 758 766 774 743 0 707 0 0 694 687 694 675 0 0 634 0 735 750 743 728 728 728 743 758 750 750 750 750 766 774 774 774 774 782 774 0 0 0 0 0 0 707 0 0 0 0 0 0 0 0 0 0 0 0 0 0 0 0 0 0 0 0 0 0 0 0 0 0 0 0 0 0 0 0 0 0 0 0 0 0 0 0 0 0 0 0 0 0 0 0 0 0 0 0 0 0 0 0 0 0 0 0 0 0 0 0 0 0 0 0 0 0 0 0 0 0 0 0 0 0 0 0 0 0 0 0 0 0 0 0 1036 1022 886 826 836 817 817 808 817 0 791 0 0 0 0 0 687 687 694 700 700 700 700 700 700 700 694 681 675 675 675 675 669 669 669 681 681 669 663 651 639 645 629 618 613 618 623 613 608 603 598 0 0 0 545 549 545 549 549 545 541 545 545 545 533 507 493 490 487 487 487 487 487 481 474 471 465 462 459 451 454 454 454 454 448 451 448 446 446 0 438 427 418 413 0 0 0 0 0
    0 0 0 0 0 0 0 0 0 0 0 0 0 0 0 0 0 0 0 0 0 0 0 0 0 0 0 0 0 0 0 0 0 0 0 0 0 0 0 0 0 0 0 0 0 0 0 0 0 0 0 0 0 0 0 0 0 0 0 0 0 0 0 0 0 0 0 0 0 758 808 836 845 855 782 0 0 0 721 721 714 721 721 721 728 743 743 766 743 735 728 721 728 721 714 694 687 675 675 675 675 663 657 657 681 657 707 714 714 707 707 714 714 721 735 735 735 743 750 758 766 766 766 774 774 0 3504 3504 0 0 0 0 707 0 0 0 0 0 0 0 0 0 0 0 0 0 0 0 0 0 0 0 0 0 0 0 0 0 0 0 0 0 0 0 0 0 0 0 0 0 0 0 0 0 0 0 0 0 0 0 0 0 0 0 0 0 0 0 0 0 0 0 0 0 0 0 0 0 0 0 0 0 0 0 0 0 0 0 0 0 0 0 0 0 0 0 0 0 0 0 0 0 1022 897 855 865 845 943 943 994 1036 0 0 0 0 687 681 675 675 687 687 687 687 694 687 694 694 687 675 669 669 675 669 669 669 669 681 675 675 669 657 651 651 629 618 613 613 618 613 608 603 598 0 0 0 0 549 549 549 549 545 545 549 549 545 533 507 497 493 487 487 487 487 490 481 477 474 468 465 462 454 457 454 454 454 448 454 451 448 448 438 438 432 425 422 0 0 0 0 0
    0 0 0 0 0 0 0 0 0 0 0 0 0 0 0 0 0 0 0 0 0 0 0 0 0 0 0 0 0 0 0 0 0 0 0 0 0 0 0 0 0 0 0 0 0 0 0 0 0 0 0 0 0 0 0 0 0 0 0 0 0 0 0 0 0 0 0 0 0 750 0 845 865 845 799 782 0 758 721 721 714 721 721 721 721 721 728 743 728 0 0 700 0 0 0 0 675 669 0 669 669 645 651 645 675 657 700 700 694 694 700 700 707 714 721 728 728 743 750 758 766 766 766 774 0 3504 3504 3504 0 0 0 0 707 0 0 0 0 0 0 0 0 0 0 0 0 0 0 0 0 0 0 0 0 0 0 0 0 0 0 0 0 0 0 0 0 0 0 0 0 0 0 0 0 0 0 0 0 0 0 0 0 0 0 0 0 0 0 0 0 0 0 0 0 0 0 0 0 0 0 0 0 0 0 0 0 0 0 0 0 0 0 0 0 0 0 0 0 0 0 0 0 0 0 908 865 876 865 0 0 1036 1066 1132 1132 0 0 681 669 669 663 669 675 675 675 681 675 681 681 681 669 663 663 669 669 669 663 669 675 675 669 675 663 651 645 623 613 603 608 608 603 598 593 588 579 0 0 553 553 553 549 549 549 545 549 545 541 529 511 497 493 490 490 490 490 493 487 484 477 474 465 462 451 454 451 448 448 446 448 448 446 443 435 435 430 427 422 0 0 0 0 0
    0 0 0 0 0 0 0 0 0 0 0 0 0 0 0 0 0 0 0 0 0 0 0 0 0 0 0 0 0 0 0 0 0 0 0 0 0 0 0 0 0 0 0 0 0 0 0 0 0 0 0 0 0 0 0 0 0 0 0 0 0 0 0 0 0 0 0 0 0 0 0 865 886 0 826 808 791 782 728 728 721 721 721 721 721 728 721 735 714 714 700 687 694 694 694 0 681 0 0 0 669 645 639 634 651 634 675 663 681 687 687 694 700 707 714 721 735 750 750 758 766 774 774 0 3504 3504 3504 3504 0 0 0 0 707 0 0 0 0 0 0 0 0 0 0 0 0 0 0 0 0 0 0 0 0 0 0 0 0 0 0 0 0 0 0 0 0 0 0 0 0 0 0 0 0 0 0 0 0 0 0 0 0 0 0 0 0 0 0 0 0 0 0 0 0 0 0 0 0 0 0 0 0 0 0 0 0 0 0 0 0 0 0 0 0 0 0 0 0 0 0 0 0 0 0 0 1051 1022 1098 1082 1082 1082 1098 1168 1115 0 0 669 663 663 663 669 675 675 675 681 675 681 675 669 669 657 657 663 657 657 651 657 669 669 657 669 639 645 651 634 623 613 618 613 603 603 598 593 588 574 0 566 561 561 557 553 545 541 541 541 529 525 504 497 493 490 490 490 490 493 490 487 484 481 471 465 451 454 448 446 446 443 446 446 443 440 432 432 430 427 427 0 0 0 0 0
    0 0 0 0 0 0 0 0 0 0 0 0 0 0 0 0 0 0 0 0 0 0 0 0 0 0 0 0 0 0 0 0 0 0 0 0 0 0 0 0 0 0 0 0 0 0 0 0 0 0 0 0 0 0 0 0 0 0 0 0 0 0 0 0 0 0 0 0 0 0 0 865 0 0 0 791 728 728 707 714 707 714 721 721 721 721 721 728 714 714 700 681 687 0 687 0 675 669 663 663 663 639 634 634 645 629 651 657 669 675 681 687 687 700 714 721 735 743 750 766 774 0 0 0 0 0 0 0 0 0 0 0 0 0 0 0 0 0 0 0 0 0 0 0 0 0 0 0 0 0 0 0 0 0 0 0 0 0 0 0 0 0 0 0 0 0 0 0 0 0 0 0 0 0 0 0 0 0 0 0 0 0 0 0 0 0 0 0 0 0 0 0 0 0 0 0 0 0 0 0 0 0 0 0 0 0 0 0 0 0 0 0 0 0 0 0 0 0 0 0 0 0 0 0 0 1082 1132 1082 1082 1066 1082 1115 1082 0 0 675 669 669 663 663 669 663 663 675 669 675 669 663 657 651 651 657 657 657 651 657 663 669 645 663 645 645 657 639 634 623 623 629 613 608 603 598 593 588 0 574 570 566 561 553 545 541 541 541 533 529 511 504 497 497 493 493 493 497 493 490 487 487 474 468 451 451 446 443 443 440 443 443 440 0 430 430 427 427 427 0 0 0 0 0
    0 0 0 0 0 0 0 0 0 0 0 0 0 0 0 0 0 0 0 0 0 0 0 0 0 0 0 0 0 0 0 0 0 0 0 0 0 0 0 0 0 0 0 0 0 0 0 0 0 0 0 0 0 0 0 0 0 0 0 0 0 0 0 0 0 0 0 0 0 0 0 0 0 0 0 0 707 700 694 700 694 700 707 707 714 714 714 714 700 707 694 675 681 0 681 669 669 663 657 651 657 639 634 634 634 623 634 634 645 651 663 669 675 694 707 714 721 735 750 766 0 0 0 0 0 0 0 0 0 0 0 0 0 0 0 0 0 0 0 0 0 0 0 0 0 0 0 0 0 0 0 0 0 0 0 0 0 0 0 0 0 0 0 0 0 0 0 0 0 0 0 0 0 0 0 0 0 0 0 0 0 0 0 0 0 0 0 0 0 0 0 0 0 0 0 0 0 0 0 0 0 0 0 0 0 0 0 0 0 0 0 0 0 0 0 0 0 0 0 0 0 0 0 0 0 1051 1036 1051 1022 1022 1051 1082 1066 0 0 681 669 669 663 663 669 663 663 669 657 663 657 651 645 639 639 645 645 645 645 645 651 663 645 663 651 645 663 657 651 639 629 639 618 618 608 603 593 588 588 584 574 574 566 557 545 541 541 537 529 525 514 507 507 507 500 497 500 504 500 500 493 490 477 471 454 451 446 443 443 440 443 443 440 0 430 432 430 430 427 0 0 0 0 0
    0 0 0 0 0 0 0 0 0 0 0 0 0 0 0 0 0 0 0 0 0 0 0 0 0 0 0 0 0 0 0 0 0 0 0 0 0 0 0 0 0 0 0 0 0 0 0 0 0 0 0 0 0 0 0 0 0 0 0 0 0 0 0 0 0 0 0 0 0 0 0 0 0 0 0 0 707 700 694 681 687 681 694 700 700 700 707 700 694 694 0 675 681 681 681 669 0 0 657 645 651 634 629 623 623 618 623 623 629 629 639 651 663 687 700 707 714 728 750 0 0 0 0 0 0 0 0 0 0 0 0 0 0 0 0 0 0 0 0 0 0 0 0 0 0 0 0 0 0 0 0 0 0 0 0 0 0 0 0 0 0 0 0 0 0 0 0 0 0 0 0 0 0 0 0 0 0 0 0 0 0 0 0 0 0 0 0 0 0 0 0 0 0 0 0 0 0 0 0 0 0 0 0 0 0 0 0 0 0 0 0 0 0 0 0 0 0 0 0 0 0 0 0 0 0 0 1082 1051 1036 1036 1051 1066 1082 1082 0 0 0 663 663 663 663 657 657 663 657 657 645 639 639 634 634 639 634 639 639 639 639 651 645 657 634 639 645 645 639 634 623 629 613 613 608 598 584 579 579 584 574 579 570 557 549 545 541 537 529 525 514 507 507 507 500 497 497 504 500 497 490 487 471 468 454 451 446 446 443 440 440 440 438 435 430 430 430 430 427 0 0 0 0 0
    0 0 0 0 0 0 0 0 0 0 0 0 0 0 0 0 0 0 0 0 0 0 0 0 0 0 0 0 0 0 0 0 0 0 0 0 0 0 0 0 0 0 0 0 0 0 0 0 0 0 0 0 0 0 0 0 0 0 0 0 0 0 0 0 0 0 0 0 0 0 0 0 0 0 0 0 707 694 687 657 681 663 675 687 687 687 694 694 687 675 0 669 675 675 675 0 0 651 657 645 645 629 623 618 613 613 613 613 618 618 629 639 657 681 687 694 700 0 0 0 0 0 0 0 0 0 0 0 0 0 0 0 0 0 0 0 0 0 0 0 0 0 0 0 0 0 0 0 0 0 0 0 0 0 0 0 0 0 0 0 0 0 0 0 0 0 0 0 0 0 0 0 0 0 0 0 0 0 0 0 0 0 0 0 0 0 0 0 0 0 0 0 0 0 0 0 0 0 0 0 0 0 0 0 0 0 0 0 0 0 0 0 0 0 0 0 0 0 0 0 0 0 0 0 0 0 0 1082 1036 1036 1036 1051 1051 1051 0 0 0 663 663 657 663 651 657 663 657 657 645 639 639 634 634 639 639 645 639 639 639 645 639 651 634 634 634 634 634 634 623 623 608 608 603 593 570 570 574 574 570 574 570 557 545 545 537 533 529 525 514 511 511 511 507 504 500 504 497 493 487 484 468 465 454 451 446 446 446 440 440 440 438 432 430 432 430 430 430 0 0 0 0 0
    0 0 0 0 0 0 0 0 0 0 0 0 0 0 0 0 0 0 0 0 0 0 0 0 0 0 0 0 0 0 0 0 0 0 0 0 0 0 0 0 0 0 0 0 0 0 0 0 0 0 0 0 0 0 0 0 0 0 0 0 0 0 0 0 0 0 0 0 0 529 0 0 0 0 0 0 0 681 675 651 675 657 669 681 681 681 687 687 681 0 675 657 669 669 669 651 651 645 651 639 645 623 618 613 608 608 608 608 613 613 623 634 651 669 681 687 0 0 0 0 0 0 0 0 0 0 0 0 0 0 0 0 0 0 0 0 0 0 0 0 0 0 0 0 0 0 0 0 0 0 0 0 0 0 0 0 0 0 0 0 0 0 0 0 0 0 0 0 0 0 0 0 0 0 0 0 0 0 0 0 0 0 0 0 0 0 0 0 0 0 0 0 0 0 0 0 0 0 0 0 0 0 0 0 0 0 0 0 0 0 0 0 0 0 0 0 0 0 0 0 0 0 0 0 0 0 0 0 0 1051 1036 1022 1022 845 0 687 675 681 675 663 669 651 657 657 651 645 639 634 634 623 629 629 634 634 634 634 629 639 634 645 629 623 623 629 629 634 623 623 608 603 603 588 566 570 574 579 566 570 570 561 549 545 537 533 525 525 514 511 511 514 511 507 504 507 497 493 487 487 471 468 459 451 448 446 446 443 440 438 435 430 425 425 427 427 427 0 0 0 0 0
    0 0 0 0 0 0 0 0 0 0 0 0 0 0 0 0 0 0 0 0 0 0 0 0 0 0 0 0 0 0 0 0 0 0 0 0 0 0 0 0 0 0 0 0 0 0 0 0 0 0 0 0 0 0 0 0 0 0 0 0 0 0 0 0 0 0 0 0 0 533 529 0 0 0 0 0 0 634 645 634 663 645 663 675 675 675 687 681 675 0 663 645 651 651 657 645 639 634 645 634 634 613 608 603 603 598 603 603 603 608 618 623 634 651 669 0 0 0 0 0 0 0 0 0 0 0 0 0 0 0 0 0 0 0 0 0 0 0 0 0 0 0 0 0 0 0 0 0 0 0 0 0 0 0 0 0 0 0 0 0 0 0 0 0 0 0 0 0 0 0 0 0 0 0 0 0 0 0 0 0 0 0 0 0 0 0 0 0 0 0 0 0 0 0 0 0 0 0 0 0 0 0 0 0 0 0 0 0 0 0 0 0 0 0 0 0 0 0 0 0 0 0 0 0 0 0 0 0 0 0 1022 994 955 826 728 707 687 694 700 675 681 651 651 657 645 639 634 629 623 618 618 623 623 629 629 623 618 629 629 634 623 618 613 618 623 629 618 623 608 608 603 588 570 574 579 584 570 574 579 566 553 549 541 533 525 525 518 511 511 518 514 511 504 507 500 497 497 493 474 468 462 454 451 448 446 440 438 432 430 425 422 422 425 425 425 0 0 0 0 0
    0 0 0 0 0 0 0 0 0 0 0 0 0 0 0 0 0 0 0 0 0 0 0 0 0 0 0 0 0 0 0 0 0 0 0 0 0 0 0 0 0 0 0 0 0 0 0 0 0 0 0 0 0 0 0 0 0 0 0 0 0 0 0 0 0 0 0 0 0 0 0 0 0 0 0 0 0 623 634 623 657 639 657 669 669 669 681 675 669 0 0 629 634 639 645 634 634 629 634 623 618 603 598 593 588 588 593 593 598 603 608 613 623 639 0 0 0 0 0 0 0 0 0 0 0 0 0 0 0 0 0 0 0 0 0 0 0 0 0 0 0 0 0 0 0 0 0 0 0 0 0 0 0 0 0 0 0 0 0 0 0 0 0 0 0 0 0 0 0 0 0 0 0 0 0 0 0 0 0 0 0 0 0 0 0 0 0 0 0 0 0 0 0 0 0 0 0 0 0 0 0 0 0 0 0 0 0 0 0 0 0 0 0 0 0 0 0 0 0 0 0 0 0 0 0 0 0 0 0 0 0 1008 931 845 750 0 700 728 721 681 681 645 645 645 639 629 629 623 618 613 613 613 618 623 623 618 618 623 618 629 618 613 613 618 618 623 613 618 608 603 603 588 570 574 584 584 570 574 579 566 549 545 537 529 525 521 518 511 507 518 514 511 500 500 493 0 0 484 471 465 462 451 446 446 443 440 435 430 427 425 420 425 425 425 425 0 0 0 0 0
    0 0 0 0 0 0 0 0 0 0 0 0 0 0 0 0 0 0 0 0 0 0 0 0 0 0 0 0 0 0 0 0 0 0 0 0 0 0 0 0 0 0 0 0 0 0 0 0 0 0 0 0 0 0 0 0 0 0 0 0 0 0 0 0 0 0 0 0 0 0 0 0 0 0 0 0 0 613 623 618 645 634 651 663 657 657 675 663 663 0 0 0 0 0 0 0 623 618 623 618 613 593 588 579 579 579 579 588 593 598 603 608 608 0 0 0 0 0 0 0 0 0 0 0 0 0 0 0 0 0 0 0 0 0 0 0 0 0 0 0 0 0 0 0 0 0 0 0 0 0 0 0 0 0 0 0 0 0 0 0 0 0 0 0 0 0 0 0 0 0 0 0 0 0 0 0 0 0 0 0 0 0 0 0 0 0 0 0 0 0 0 0 0 0 0 0 0 0 0 0 0 0 0 0 0 0 0 0 0 0 0 0 0 0 0 0 0 0 0 0 0 0 0 0 0 0 0 0 0 0 0 0 908 836 714 675 707 735 735 700 700 645 651 657 639 629 629 618 613 613 608 613 613 618 618 608 608 618 613 618 613 613 613 618 623 623 613 618 608 603 598 584 566 570 584 588 570 570 579 566 549 545 537 533 521 521 518 514 511 518 511 507 500 497 490 484 0 0 471 468 465 457 454 451 451 443 438 432 430 425 422 425 425 425 425 0 0 0 0 0
    0 0 0 0 0 0 0 0 0 0 0 0 0 0 0 0 0 0 0 0 0 0 0 0 0 0 0 0 0 0 0 0 0 0 0 0 0 0 0 0 0 0 0 0 0 0 0 0 0 0 0 0 0 0 0 0 0 0 0 0 0 0 0 0 0 0 0 0 0 0 0 0 0 0 0 0 0 0 623 618 639 629 639 651 645 645 663 651 651 0 0 0 0 0 0 0 0 579 613 603 584 570 570 561 561 566 574 584 588 588 593 598 0 0 0 0 0 0 0 0 0 0 0 0 0 0 0 0 0 0 0 0 0 0 0 0 0 0 0 0 0 0 0 0 0 0 0 0 0 0 0 0 0 0 0 0 0 0 0 0 0 0 0 0 0 0 0 0 0 0 0 0 0 0 0 0 0 0 0 0 0 0 0 0 0 0 0 0 0 0 0 0 0 0 0 0 0 0 0 0 0 0 0 0 0 0 0 0 0 0 0 0 0 0 0 0 0 0 0 0 0 0 0 0 0 0 0 0 0 0 0 0 0 0 707 675 714 714 728 714 707 645 645 645 634 618 623 613 608 608 608 608 608 613 613 598 598 603 603 608 603 608 608 613 623 623 618 623 608 603 593 574 561 561 584 588 570 557 561 553 545 541 537 529 525 525 521 521 518 521 518 514 507 504 497 0 0 0 474 471 471 462 459 457 454 446 438 435 430 427 427 427 425 425 427 0 0 0 0 0
    0 0 0 0 0 0 0 0 0 0 0 0 0 0 0 0 0 0 0 0 0 0 0 0 0 0 0 0 0 0 0 0 0 0 0 0 0 0 0 0 0 0 0 0 0 0 0 0 0 0 0 0 0 0 0 0 0 0 0 0 0 0 0 0 0 0 0 0 0 0 0 0 0 0 0 0 0 0 0 0 634 623 639 651 651 645 663 645 639 0 0 549 533 529 533 537 537 553 561 570 549 553 557 553 553 557 570 574 584 588 588 0 0 0 0 0 0 0 0 0 0 0 0 0 0 0 0 0 0 0 0 0 0 0 0 0 0 0 0 0 0 0 0 0 0 0 0 0 0 0 0 0 0 0 0 0 0 0 0 0 0 0 0 0 0 0 0 0 0 0 0 0 0 0 0 0 0 0 0 0 0 0 0 0 0 0 0 0 0 0 0 0 0 0 0 0 0 0 0 0 0 0 0 0 0 0 0 0 0 0 0 0 0 0 0 0 0 0 0 0 0 0 0 0 0 0 0 0 0 0 0 0 0 0 0 0 707 707 714 714 707 645 651 657 639 623 623 618 608 608 608 608 603 613 608 598 593 598 598 593 593 598 593 603 613 608 603 603 603 593 584 570 557 557 579 579 570 561 557 553 545 541 533 525 518 518 514 518 514 521 514 514 511 514 507 497 0 0 477 477 474 471 471 465 465 451 440 438 432 430 430 430 430 427 430 0 0 0 0 0
    0 0 0 0 0 0 0 0 0 0 0 0 0 0 0 0 0 0 0 0 0 0 0 0 0 0 0 0 0 0 0 0 0 0 0 0 0 0 0 0 0 0 0 0 0 0 0 0 0 0 0 0 0 0 0 0 0 0 0 0 0 0 0 0 0 0 0 0 0 0 0 0 0 0 0 0 525 549 0 0 0 634 645 651 651 645 657 0 0 557 537 537 533 529 533 533 537 545 541 545 537 541 545 545 549 557 561 570 579 584 0 0 0 0 0 0 0 0 0 0 0 0 0 0 0 0 0 0 0 0 0 0 0 0 0 0 0 0 0 0 0 0 0 0 0 0 0 0 0 0 0 0 0 0 0 0 0 0 0 0 0 0 0 0 0 0 0 0 0 0 0 0 0 0 0 0 0 0 0 0 0 0 0 0 0 0 0 0 0 0 0 0 0 0 0 0 0 0 0 0 0 0 0 0 0 0 0 0 0 0 0 0 0 0 0 0 0 0 0 0 0 0 0 0 0 0 0 0 0 0 0 0 0 0 0 0 0 700 707 707 700 645 657 657 639 629 629 618 613 613 603 603 603 608 603 593 588 588 588 584 584 588 588 593 598 593 588 588 593 584 570 566 557 561 584 584 579 584 574 561 549 549 537 529 518 511 511 514 514 521 511 507 504 504 497 490 487 484 477 477 477 474 474 471 471 454 440 438 435 432 432 432 430 430 430 0 0 0 0 0
    0 0 0 0 0 0 0 0 0 0 0 0 0 0 0 0 0 0 0 0 0 0 0 0 0 0 0 0 0 0 0 0 0 0 0 0 0 0 0 0 0 0 0 0 0 0 0 0 0 0 0 0 0 0 0 0 0 0 0 0 0 0 0 0 0 0 0 0 0 0 0 0 0 0 0 0 0 557 0 0 0 629 634 634 634 623 0 0 0 541 529 533 533 529 525 533 533 537 533 533 529 533 537 545 549 553 557 566 579 0 0 0 0 0 0 0 0 0 0 0 0 0 0 0 0 0 0 0 0 0 0 0 0 0 0 0 0 0 0 0 0 0 0 0 0 0 0 0 0 0 0 0 0 0 0 0 0 0 0 0 0 0 0 0 0 0 0 0 0 0 0 0 0 0 0 0 0 0 0 0 0 0 0 0 0 0 0 0 0 0 0 0 0 0 0 0 0 0 0 0 0 0 0 0 0 0 0 0 0 0 0 0 0 0 0 0 0 0 0 0 0 0 0 0 0 0 0 0 0 0 0 0 0 0 0 0 0 707 721 714 707 657 669 663 639 629 639 629 608 613 603 603 603 603 598 588 579 584 579 570 570 574 574 570 574 566 561 574 579 574 566 566 566 574 598 598 603 618 608 588 561 549 541 529 521 518 514 518 514 521 511 504 504 504 497 490 487 487 481 481 481 477 474 474 474 451 438 438 435 435 435 432 432 430 430 0 0 0 0 0
    0 0 0 0 0 0 0 0 0 0 0 0 0 0 0 0 0 0 0 0 0 0 0 0 0 0 0 0 0 0 0 0 0 0 0 0 0 0 0 0 0 0 0 0 0 0 0 0 0 0 0 0 0 0 0 0 0 0 0 0 0 0 0 0 0 0 0 0 0 0 0 307 302 0 0 0 537 553 561 593 593 0 623 0 0 0 0 0 514 529 525 533 533 525 525 529 529 529 525 529 521 525 533 541 545 545 549 561 0 0 0 0 0 0 0 0 0 0 0 0 0 0 0 0 0 0 0 0 0 0 0 0 0 0 0 0 0 0 0 0 0 0 0 0 0 0 0 0 0 0 0 0 0 0 0 0 0 0 0 0 0 0 0 0 0 0 0 0 0 0 0 0 0 0 0 0 0 0 0 0 0 0 0 0 0 0 0 0 0 0 0 0 0 0 0 0 0 0 0 0 0 0 0 0 0 0 0 0 0 0 0 0 0 0 0 0 0 0 0 0 0 0 0 0 0 0 0 0 0 0 0 0 0 0 0 0 0 0 728 714 707 669 687 675 639 629 634 613 603 603 593 593 593 593 588 574 570 574 566 557 561 561 561 557 561 553 553 566 579 574 566 570 574 579 603 598 598 608 588 574 561 549 545 533 521 521 514 514 514 518 507 504 500 504 497 493 493 490 487 490 497 487 481 481 477 451 435 438 438 438 435 435 435 432 432 0 0 0 0 0
    0 0 0 0 0 0 0 0 0 0 0 0 0 0 0 0 0 0 0 0 0 0 0 0 0 0 0 0 0 0 0 0 0 0 0 0 0 0 0 0 0 0 0 0 0 0 0 0 0 0 0 0 0 0 0 0 0 0 0 0 0 0 0 0 0 0 0 0 0 0 0 307 305 300 301 0 0 553 557 588 574 0 0 0 0 0 0 529 518 525 521 525 525 521 521 521 521 521 518 521 514 521 529 533 537 541 541 0 0 0 0 0 0 0 0 0 0 0 0 0 0 0 0 0 0 0 0 0 0 0 0 0 0 0 0 0 0 0 0 0 0 0 0 0 0 0 0 0 0 0 0 0 0 0 0 0 0 0 0 0 0 0 0 0 0 0 0 0 0 0 0 0 0 0 0 0 0 0 0 0 0 0 0 0 0 0 0 0 0 0 0 0 0 0 0 0 0 0 0 0 0 0 0 0 0 0 0 0 0 0 0 0 0 0 0 0 0 0 0 0 0 0 0 0 0 0 0 0 0 0 0 0 0 0 0 0 0 0 743 721 714 681 694 675 639 634 639 618 598 603 588 593 588 584 579 566 566 570 561 557 553 557 553 549 553 549 549 557 574 566 561 566 574 574 598 593 598 603 584 570 579 553 549 533 525 521 518 518 514 518 504 500 500 500 493 490 490 490 487 487 497 487 477 481 477 454 440 440 440 440 440 440 440 0 438 0 0 0 0 0
    0 0 0 0 0 0 0 0 0 0 0 0 0 0 0 0 0 0 0 0 0 0 0 0 0 0 0 0 0 0 0 0 0 0 0 0 0 0 0 0 0 0 0 0 0 0 0 0 0 0 0 0 0 0 0 0 0 0 0 0 0 0 0 0 0 0 0 0 0 0 0 309 305 301 302 0 0 0 0 0 0 0 0 0 0 0 511 518 514 521 518 521 521 518 518 518 514 518 511 514 514 521 521 525 529 533 0 0 0 0 0 0 0 0 0 0 0 0 0 0 0 0 0 0 0 0 0 0 0 0 0 0 0 0 0 0 0 0 0 0 0 0 0 0 0 0 0 0 0 0 0 0 0 0 0 0 0 0 0 0 0 0 0 0 0 0 0 0 0 0 0 0 0 0 0 0 0 0 0 0 0 0 0 0 0 0 0 0 0 0 0 0 0 0 0 0 0 0 0 0 0 0 0 0 0 0 0 0 0 0 0 0 0 0 0 0 0 0 0 0 0 0 0 0 0 0 0 0 0 0 0 0 0 0 0 0 0 0 0 714 707 669 681 639 618 623 629 618 598 613 584 593 588 584 574 566 561 566 561 553 553 553 553 549 553 549 553 553 570 566 566 566 570 570 588 584 588 574 553 545 545 545 541 529 525 525 525 529 521 521 504 497 500 500 493 487 487 487 487 484 490 484 477 477 474 457 446 446 446 446 446 443 443 440 440 0 0 0 0 0
    0 0 0 0 0 0 0 0 0 0 0 0 0 0 0 0 0 0 0 0 0 0 0 0 0 0 0 0 0 0 0 0 0 0 0 0 0 0 0 0 0 0 0 0 0 0 0 0 0 0 0 0 0 0 0 0 0 0 0 0 0 0 0 0 0 0 0 0 0 0 0 307 304 301 302 0 0 0 0 0 0 0 0 0 500 507 507 511 511 514 511 518 518 511 511 511 507 507 507 511 511 514 518 521 525 0 0 0 0 0 0 0 0 0 0 0 0 0 0 0 0 0 0 0 0 0 0 0 0 0 0 0 0 0 0 0 0 0 0 0 0 0 0 0 0 0 0 0 0 0 0 0 0 0 0 0 0 0 0 0 0 0 0 0 0 0 0 0 0 0 0 0 0 0 0 0 0 0 0 0 0 0 0 0 0 0 0 0 0 0 0 0 0 0 0 0 0 0 0 0 0 0 0 0 0 0 0 0 0 0 0 0 0 0 0 0 0 0 0 0 0 0 0 0 0 0 0 0 0 0 0 0 0 0 0 0 0 0 0 0 687 651 651 639 629 629 639 634 608 618 584 593 584 574 574 561 557 561 557 549 553 553 549 545 545 545 549 549 561 557 561 561 561 566 579 574 579 561 545 541 541 541 537 529 529 529 529 537 529 529 518 511 514 514 500 493 493 493 490 490 490 487 477 481 481 462 446 446 446 446 446 446 443 440 440 0 0 0 0 0
    0 0 0 0 0 0 0 0 0 0 0 0 0 0 0 0 0 0 0 0 0 0 0 0 0 0 0 0 0 0 0 0 0 0 0 0 0 0 0 0 0 0 0 0 0 0 0 0 0 0 0 0 0 0 0 0 0 0 0 0 0 0 0 0 0 0 0 0 0 0 0 0 0 0 305 0 0 0 0 0 0 0 521 507 500 504 504 504 504 507 507 511 507 504 500 500 500 500 504 511 511 514 518 521 0 0 0 0 0 0 0 0 0 0 0 0 0 0 0 0 0 0 0 0 0 0 0 0 0 0 0 0 0 0 0 0 0 0 0 0 0 0 0 0 0 0 0 0 0 0 0 0 0 0 0 0 0 0 0 0 0 0 0 0 0 0 0 0 0 0 0 0 0 0 0 0 0 0 0 0 0 0 0 0 0 0 0 0 0 0 0 0 0 0 0 0 0 0 0 0 0 0 0 0 0 0 0 0 0 0 0 0 0 0 0 0 0 0 0 0 0 0 0 0 0 0 0 0 0 0 0 0 0 0 0 0 0 0 0 0 0 645 651 629 623 618 623 623 603 613 574 584 579 579 574 566 561 561 557 553 553 549 545 541 545 541 545 541 557 553 557 561 557 561 570 566 574 557 545 537 537 537 533 529 529 529 533 533 537 533 529 521 525 521 507 500 497 497 497 497 493 490 477 477 474 459 446 446 446 448 446 446 443 440 440 0 0 0 0 0
    0 0 0 0 0 0 0 0 0 0 0 0 0 0 0 0 0 0 0 0 0 0 0 0 0 0 0 0 0 0 0 0 0 0 0 0 0 0 0 0 0 0 0 0 0 0 0 0 0 0 0 0 0 0 0 0 0 0 0 0 0 0 0 0 0 0 0 0 0 0 0 0 0 0 0 0 0 0 0 0 0 529 521 507 500 504 500 497 500 500 504 504 500 497 493 493 497 497 504 504 507 511 518 0 0 0 0 0 0 0 0 0 0 0 0 0 0 0 0 0 0 0 0 0 0 0 0 0 0 0 0 0 0 0 0 0 0 0 0 0 0 0 0 0 0 0 0 0 0 0 0 0 0 0 0 0 0 0 0 0 0 0 0 0 0 0 0 0 0 0 0 0 0 0 0 0 0 0 0 0 0 0 0 0 0 0 0 0 0 0 0 0 0 0 0 0 0 0 0 0 0 0 0 0 0 0 0 0 0 0 0 0 0 0 0 0 0 0 0 0 0 0 0 0 0 0 0 0 0 0 0 0 0 0 0 0 0 0 0 0 0 0 663 645 629 629 639 623 608 613 570 579 584 579 570 566 561 561 557 549 549 545 541 533 537 537 537 533 545 545 549 557 553 557 566 561 570 553 541 533 533 537 529 525 525 525 529 533 529 525 525 514 511 514 504 493 497 497 497 497 493 497 481 481 474 465 451 448 448 448 448 448 443 440 438 0 0 0 0 0
    0 0 0 0 0 0 0 0 0 0 0 0 0 0 0 0 0 0 0 0 0 0 0 0 0 0 0 0 0 0 0 0 0 0 0 0 0 0 0 0 0 0 0 0 0 0 0 0 0 0 0 0 0 0 0 0 0 0 0 0 0 0 0 0 0 0 0 0 0 0 0 0 0 0 0 0 0 579 0 561 537 533 525 514 507 504 500 500 497 497 497 497 493 490 490 490 493 493 497 500 504 511 0 0 0 0 0 0 0 0 0 0 0 0 0 0 0 0 0 0 0 0 0 0 0 0 0 0 0 0 0 0 0 0 0 0 0 0 0 0 0 0 0 0 0 0 0 0 0 0 0 0 0 0 0 0 0 0 0 0 0 0 0 0 0 0 0 0 0 0 0 0 0 0 0 0 0 0 0 0 0 0 0 0 0 0 0 0 0 0 0 0 0 0 0 0 0 0 0 0 0 0 0 0 0 0 0 0 0 0 0 0 0 0 0 0 0 0 0 0 0 0 0 0 0 0 0 0 0 0 0 0 0 0 0 0 0 0 0 0 0 0 0 634 623 623 629 618 593 613 570 579 584 570 566 557 553 553 549 541 537 537 529 521 529 525 525 525 537 537 537 545 545 549 557 557 561 549 537 533 533 533 525 521 521 521 525 529 525 518 525 511 507 507 497 490 490 490 493 490 484 487 471 471 465 457 448 446 446 448 443 443 440 435 435 0 0 0 0 0
    0 0 0 0 0 0 0 0 0 0 0 0 0 0 0 0 0 0 0 0 0 0 0 0 0 0 0 0 0 0 0 0 0 0 0 0 0 0 0 0 0 0 0 0 0 0 0 0 0 0 0 0 0 0 0 0 0 0 0 0 0 0 0 0 0 0 0 0 0 0 0 0 0 0 0 0 0 0 553 549 537 533 525 514 504 500 500 497 493 493 493 490 490 490 490 490 490 490 493 500 504 0 0 0 0 0 0 0 0 0 0 0 0 0 0 0 0 0 0 0 0 0 0 0 0 0 0 0 0 0 0 0 0 0 0 0 0 0 0 0 0 0 0 0 0 0 0 0 0 0 0 0 0 0 0 0 0 0 0 0 0 0 0 0 0 0 0 0 0 0 0 0 0 0 0 0 0 0 0 0 0 0 0 0 0 0 0 0 0 0 0 0 0 0 0 0 0 0 0 0 0 0 0 0 0 0 0 0 0 0 0 0 0 0 0 0 0 0 0 0 0 0 0 0 0 0 0 0 0 0 0 0 0 0 0 0 0 0 0 0 0 0 0 0 629 634 629 618 598 613 593 593 598 584 566 553 549 549 545 533 529 529 521 518 521 514 518 511 529 529 529 533 537 537 545 545 549 541 529 529 529 525 521 514 518 518 521 529 525 521 529 521 514 514 504 497 497 493 493 490 484 484 468 468 462 454 446 446 443 446 440 440 438 432 432 0 0 0 0 0
    0 0 0 0 0 0 0 0 0 0 0 0 0 0 0 0 0 0 0 0 0 0 0 0 0 0 0 0 0 0 0 0 0 0 0 0 0 0 0 0 0 0 0 0 0 0 0 0 0 0 0 0 0 0 0 0 0 0 0 0 0 0 0 0 0 0 0 0 0 0 0 0 0 0 0 0 0 0 541 537 529 521 514 507 497 497 497 493 490 490 490 490 487 487 490 487 487 487 493 0 0 0 0 0 0 0 0 0 0 0 0 0 0 0 0 0 0 0 0 0 0 0 0 0 0 0 0 0 0 0 0 0 0 0 0 0 0 0 0 0 0 0 0 0 0 0 0 0 0 0 0 0 0 0 0 0 0 0 0 0 0 0 0 0 0 0 0 0 0 0 0 0 0 0 0 0 0 0 0 0 0 0 0 0 0 0 0 0 0 0 0 0 0 0 0 0 0 0 0 0 0 0 0 0 0 0 0 0 0 0 0 0 0 0 0 0 0 0 0 0 0 0 0 0 0 0 0 0 0 0 0 0 0 0 0 0 0 0 0 0 0 0 0 0 0 634 629 613 593 608 579 584 588 584 561 553 549 545 537 529 529 525 518 518 521 514 514 504 521 525 521 529 529 533 537 537 541 533 521 525 525 521 518 507 511 511 518 529 521 518 525 525 518 518 511 500 497 497 490 487 477 0 468 465 465 459 448 448 448 446 443 440 438 432 430 0 0 0 0 0
    0 0 0 0 0 0 0 0 0 0 0 0 0 0 0 0 0 0 0 0 0 0 0 0 0 0 0 0 0 0 0 0 0 0 0 0 0 0 0 0 0 0 0 0 0 0 0 0 0 0 0 0 0 0 0 0 0 0 0 0 0 0 0 0 0 0 0 0 0 0 0 0 0 0 0 0 0 0 529 525 518 507 504 497 493 493 493 490 490 487 487 487 487 487 487 484 484 484 0 0 0 0 0 0 0 0 0 0 0 0 0 0 0 0 0 0 0 0 0 0 0 0 0 0 0 0 0 0 0 0 0 0 0 0 0 0 0 0 0 0 0 0 0 0 0 0 0 0 0 0 0 0 0 0 0 0 0 0 0 0 0 0 0 0 0 0 0 0 0 0 0 0 0 0 0 0 0 0 0 0 0 0 0 0 0 0 0 0 0 0 0 0 0 0 0 0 0 0 0 0 0 0 0 0 0 0 0 0 0 0 0 0 0 0 0 0 0 0 0 0 0 0 0 0 0 0 0 0 0 0 0 0 0 0 0 0 0 0 0 0 0 0 0 0 0 0 629 618 608 613 593 593 598 593 574 557 553 545 537 529 529 521 514 514 518 507 511 500 514 521 518 525 521 521 529 529 537 529 514 521 521 518 514 500 507 511 518 525 518 514 518 514 518 507 0 0 0 0 0 0 474 0 468 465 465 459 451 448 448 448 446 438 435 430 427 0 0 0 0 0
    0 0 0 0 0 0 0 0 0 0 0 0 0 0 0 0 0 0 0 0 0 0 0 0 0 0 0 0 0 0 0 0 0 0 0 0 0 0 0 0 0 0 0 0 0 0 0 0 0 0 0 0 0 0 0 0 0 0 0 0 0 0 0 0 0 0 0 0 0 0 0 0 0 0 0 0 0 518 521 514 507 500 497 493 490 487 490 487 487 484 484 487 487 487 484 481 484 0 0 0 0 0 0 0 0 0 0 0 0 0 0 0 0 0 0 0 0 0 0 0 0 0 0 0 0 0 0 0 0 0 0 0 0 0 0 0 0 0 0 0 0 0 0 0 0 0 0 0 0 0 0 0 0 0 0 0 0 0 0 0 0 0 0 0 0 0 0 0 0 0 0 0 0 0 0 0 0 0 0 0 0 0 0 0 0 0 0 0 0 0 0 0 0 0 0 0 0 0 0 0 0 0 0 0 0 0 0 0 0 0 0 0 0 0 0 0 0 0 0 0 0 0 0 0 0 0 0 0 0 0 0 0 0 0 0 0 0 0 0 0 0 0 0 0 0 0 0 618 613 618 608 598 608 598 584 561 553 541 533 525 521 518 511 507 511 500 500 493 504 514 507 514 507 504 521 518 529 514 500 511 507 511 511 497 504 504 514 525 514 507 507 500 507 481 0 0 0 0 0 490 481 0 477 471 468 462 457 451 451 446 443 438 432 427 425 0 0 0 0 0
    0 0 0 0 0 0 0 0 0 0 0 0 0 0 0 0 0 0 0 0 0 0 0 0 0 0 0 0 0 0 0 0 0 0 0 0 0 0 0 0 0 0 0 0 0 0 0 0 0 0 0 0 0 0 0 0 0 0 0 0 0 0 0 0 0 0 0 0 0 0 0 0 0 0 0 0 493 504 511 507 497 490 487 487 484 484 484 481 481 481 481 484 484 484 484 481 0 0 0 0 0 0 0 0 0 0 0 0 0 0 0 0 0 0 0 0 0 0 0 0 0 0 0 0 0 0 0 0 0 0 0 0 0 0 0 0 0 0 0 0 0 0 0 0 0 0 0 0 0 0 0 0 0 0 0 0 0 0 0 0 0 0 0 0 0 0 0 0 0 0 0 0 0 0 0 0 0 0 0 0 0 0 0 0 0 0 0 0 0 0 0 0 0 0 0 0 0 0 0 0 0 0 0 0 0 0 0 0 0 0 0 0 0 0 0 0 0 0 0 0 0 0 0 0 0 0 0 0 0 0 0 0 0 0 0 0 0 0 0 0 0 0 0 0 0 0 0 0 613 613 603 584 603 588 574 549 545 533 525 521 514 504 504 500 500 493 493 490 497 504 500 500 500 493 511 511 521 507 493 500 504 504 511 493 497 497 504 514 500 493 487 481 481 477 474 474 474 477 481 497 490 493 481 477 474 468 459 451 448 446 440 435 430 425 422 0 0 0 0 0</data></depth>
</opencv_storage>
