<?xml version="1.0"?>
<opencv_storage>
<gps_time_stamp>300572</gps_time_stamp>
<gps_x>-1.2402313232421875e+001</gps_x>
<gps_y>1.0986121177673340e+001</gps_y>
<gps_z>-2.0416340827941895e+000</gps_z>
<image_time_stamp>291457</image_time_stamp>
<depth type_id="opencv-matrix">
  <rows>84</rows>
  <cols>320</cols>
  <dt>s</dt>
  <data>
    0 0 0 0 0 0 0 0 0 0 0 0 0 0 0 0 0 0 0 0 0 0 0 0 0 0 0 0 0 0 0 0 0 0 0 0 0 0 0 0 0 0 0 0 0 0 0 0 0 0 0 0 0 0 0 0 0 0 0 0 0 0 0 0 0 0 0 0 0 0 0 0 0 0 0 0 0 0 0 0 0 0 0 0 0 0 0 0 0 0 0 0 0 0 0 0 0 0 0 0 0 0 0 0 0 0 0 0 0 0 0 0 0 0 0 0 0 0 0 0 0 0 0 0 0 0 0 0 0 0 0 0 0 0 0 0 0 0 0 0 0 0 0 0 0 0 0 0 0 0 0 0 0 0 0 0 0 0 0 0 0 0 0 0 0 0 0 0 0 0 0 0 0 0 0 0 0 0 0 0 0 0 0 0 0 0 0 0 0 0 0 0 0 0 0 0 0 0 0 0 0 0 0 0 0 0 0 0 0 0 0 0 0 0 0 0 0 0 0 0 0 0 0 0 0 0 0 0 0 0 0 0 0 0 0 0 0 0 0 0 0 0 0 0 0 0 0 0 0 0 0 0 0 0 0 0 0 0 0 0 0 0 0 0 0 0 0 0 0 0 0 0 0 0 0 0 0 0 0 0 0 0 0 0 0 0 0 0 0 0 0 0 0 0 0 0 0 0 0 0 0 0 0 0 0 0 0 0 0 0 0 0 0 0 0 0 0 0 0 0
    0 0 0 0 0 0 0 0 0 0 0 0 0 0 0 0 0 0 0 0 0 0 0 0 0 0 0 0 0 0 0 0 0 0 0 0 0 0 0 0 0 0 0 0 0 0 0 0 0 0 0 0 0 0 0 0 0 0 0 0 0 0 0 0 0 0 0 0 0 0 0 0 0 0 0 0 0 0 0 0 0 0 0 0 0 0 0 0 0 0 0 0 0 0 0 0 0 0 0 0 0 0 0 0 0 0 0 0 0 0 0 0 0 0 0 0 0 0 0 0 0 0 0 0 0 0 0 0 0 0 0 0 0 0 0 0 0 0 0 0 0 0 0 0 0 0 0 0 0 0 0 0 0 0 0 0 0 0 0 0 0 0 0 0 0 0 0 0 0 0 0 0 0 0 0 0 0 0 0 0 0 0 0 0 0 0 0 0 0 0 0 0 0 0 0 0 0 0 0 0 0 0 0 0 0 0 0 0 0 0 0 0 0 0 0 0 0 0 0 0 0 0 0 0 0 0 0 0 0 0 0 0 0 0 0 0 0 0 0 0 0 0 0 0 0 0 0 0 0 0 0 0 0 0 0 0 0 0 0 0 0 0 0 0 0 0 0 0 0 0 0 0 0 0 0 0 0 0 0 0 0 0 0 0 0 0 0 0 0 0 0 0 0 0 0 0 0 0 0 0 0 0 0 0 0 0 0 0 0 0 0 0 0 0 0 0 0 0 0 0
    0 0 0 0 0 0 0 0 0 0 0 0 0 0 0 0 0 0 0 0 0 0 0 0 0 0 0 0 0 0 0 0 0 0 0 0 0 0 0 0 0 0 0 0 0 0 0 0 0 0 0 0 0 0 0 0 0 0 0 0 0 0 0 0 0 0 0 0 0 0 0 0 0 0 0 0 0 0 0 0 0 0 0 0 0 0 0 0 0 0 0 0 0 0 0 0 0 0 0 0 0 0 0 0 0 0 0 0 0 0 0 0 0 0 0 0 0 0 0 0 0 0 0 0 0 0 0 0 0 0 0 0 0 0 0 0 0 0 0 0 0 0 0 0 0 0 0 0 0 0 0 0 0 0 0 0 0 0 0 0 0 0 0 0 0 0 0 0 0 0 0 0 0 0 0 0 0 0 0 0 0 0 0 0 0 0 0 0 0 0 0 0 0 0 0 0 0 0 0 0 0 0 0 0 0 0 0 0 0 0 0 0 0 0 0 0 0 0 0 0 0 0 0 0 0 0 0 0 0 0 0 0 0 0 0 0 0 0 0 0 0 0 0 0 0 0 0 0 0 0 0 0 0 0 0 0 0 0 0 0 0 0 0 0 0 0 0 0 0 0 0 0 0 0 0 0 0 0 0 0 0 0 0 0 0 0 0 0 0 0 0 0 0 0 0 0 0 0 0 0 0 0 0 0 0 0 0 0 0 0 0 0 0 0 0 0 0 0 0 0
    0 0 0 0 0 0 0 0 0 0 0 0 0 0 0 0 0 0 0 0 0 0 0 0 0 0 0 0 0 0 0 0 0 0 0 0 0 0 0 0 0 0 0 0 0 0 0 0 0 0 0 0 0 0 0 0 0 0 0 0 0 0 0 0 0 0 0 0 0 0 0 0 0 0 0 0 0 0 0 0 0 0 0 0 0 0 0 0 0 0 0 0 0 0 0 0 0 0 0 0 0 0 0 0 0 0 0 0 0 0 0 0 0 0 0 0 0 0 0 0 0 0 0 0 0 0 0 0 0 0 0 0 0 0 0 0 0 0 0 0 0 0 0 0 0 0 0 0 0 0 0 0 0 0 0 0 0 0 0 0 0 0 0 0 0 0 0 0 0 0 0 0 0 0 0 0 0 0 0 0 0 0 0 0 0 0 0 0 0 0 0 0 0 0 0 0 0 0 0 0 0 0 0 0 0 0 0 0 0 0 0 0 0 0 0 0 0 0 0 0 0 0 0 0 0 0 0 0 0 0 0 0 0 0 0 0 0 0 0 0 0 0 0 0 0 0 0 0 0 0 0 0 0 0 0 0 0 0 0 0 0 0 0 0 0 0 0 0 0 0 0 0 0 0 0 0 0 0 0 0 0 0 0 0 0 0 0 0 0 0 0 0 0 0 0 0 0 0 0 0 0 0 0 0 0 0 0 0 0 0 0 0 0 0 0 0 0 0 0 0
    0 0 0 0 0 0 0 0 0 0 0 0 0 0 0 0 0 0 0 0 0 0 0 0 0 0 0 0 0 0 0 0 0 0 0 0 0 0 0 0 0 0 0 0 0 0 0 0 0 0 0 0 0 0 0 0 0 0 0 0 0 0 0 0 0 0 0 0 0 1098 1098 1115 1115 1115 1132 1132 1098 0 0 1314 1247 1314 1314 1314 1314 1338 1314 1338 1314 1471 1415 1443 1443 1415 1415 1443 1443 0 0 1565 1672 1635 1635 1635 1635 1672 1711 1711 1711 1672 1711 1711 1752 1795 1795 1795 1795 1887 2453 3199 3199 4599 5256 6690 8177 8177 8177 7359 8177 8177 7359 3504 4088 4088 3873 3679 3679 3504 3504 3504 4906 2943 2943 2628 0 90 89 0 0 0 0 0 0 0 0 0 0 0 0 0 0 3199 3199 3504 3679 4329 4906 6690 8177 0 0 0 0 919 908 919 897 0 0 0 0 0 0 0 0 0 0 0 0 0 0 0 0 0 0 758 766 0 0 0 0 0 0 0 0 0 574 584 570 0 0 0 0 0 0 0 0 1635 1565 1443 1501 1501 1565 1565 1533 1533 1471 1443 0 0 0 0 0 156 0 1247 1187 1168 1115 1082 1082 1082 1066 1036 1036 1036 1022 994 1008 994 981 981 994 919 943 943 968 931 943 919 919 931 955 897 886 876 865 826 826 826 808 799 799 791 791 782 782 766 750 735 735 728 721 714 687 687 687 681 663 657 645 651 645 651 645 651 657 669 669 669 629 618 613 608 588 566 579 584 584 579 574 574 574 584 588 0 0 0 0 0
    0 0 0 0 0 0 0 0 0 0 0 0 0 0 0 0 0 0 0 0 0 0 0 0 0 0 0 0 0 0 0 0 0 0 0 0 0 0 0 0 0 0 0 0 0 0 0 0 0 0 0 0 0 0 0 0 0 0 0 0 0 0 0 0 0 0 0 0 0 1098 1115 1149 1149 1149 1149 1168 1132 1168 0 1314 1226 1291 1291 1314 1314 1314 1314 1362 1338 1443 1388 1415 1443 1388 1415 1443 1415 0 1599 1565 1672 1635 1635 1635 1635 1672 1711 1711 1711 1672 1711 1711 1752 1795 1795 1795 1839 1936 2299 2943 3066 3679 3873 5256 6690 7359 7359 6690 7359 7359 6690 3504 4088 4088 3873 3679 3679 3504 3504 3504 4906 3066 2943 2628 2830 90 89 0 0 0 0 0 0 0 0 0 0 0 0 0 0 3199 3199 3345 3504 3873 0 6133 7359 0 0 0 0 886 865 865 865 0 0 0 0 0 0 0 0 0 0 0 0 0 0 0 0 0 0 0 0 0 0 0 0 0 0 0 0 0 574 579 570 0 598 0 0 0 0 0 0 1565 1501 1415 1471 1471 1565 1565 1501 1501 1471 1471 0 0 0 0 0 156 1291 1206 1187 1168 1132 1082 1082 1098 1082 1051 1051 1036 1022 994 1008 1008 994 981 994 931 943 955 968 931 931 919 919 919 943 897 886 886 876 836 836 826 808 799 799 791 791 782 782 766 750 743 735 728 721 714 687 687 687 681 657 657 645 651 645 657 645 651 657 669 669 675 634 618 618 608 593 566 579 584 584 579 574 574 574 579 588 0 0 0 0 0
    0 0 0 0 0 0 0 0 0 0 0 0 0 0 0 0 0 0 0 0 0 0 0 0 0 0 0 0 0 0 0 0 0 0 0 0 0 0 0 0 0 0 0 0 0 0 0 0 0 0 0 0 0 0 0 0 0 0 0 0 0 0 0 0 0 0 0 0 0 1115 1132 1149 1168 1149 1168 1168 1149 1149 1206 1268 1206 1268 1291 1291 1291 1314 1314 1362 1338 1443 1415 1443 1443 1415 1415 1443 1443 1635 1635 1635 1672 1635 1635 1635 1635 1711 1672 1672 1672 1672 1711 1711 1752 1795 1795 1839 1887 1936 2230 2725 3066 3345 3345 3679 4088 4599 4906 3873 5661 5661 5256 3504 4088 4088 3873 3679 3679 3504 3504 3679 4906 3199 3066 2725 2830 0 0 0 0 0 0 0 0 0 0 0 0 0 0 0 0 3066 3199 3504 3679 0 0 0 0 0 0 0 0 876 855 865 0 0 0 0 0 0 0 0 0 0 0 0 0 0 0 0 0 182 0 0 0 0 0 0 0 0 0 0 0 0 566 566 557 588 0 0 0 0 0 0 1443 1599 1501 1471 1501 1533 1565 1565 1501 1501 1443 1501 0 183 184 0 0 0 1268 1206 1206 1149 1132 1098 1082 1098 1082 1051 1051 1051 1036 1008 1022 1022 994 994 1008 943 955 955 968 931 931 919 908 908 943 886 876 876 865 836 836 826 817 808 799 791 799 791 782 766 743 743 735 728 721 714 687 687 687 681 651 651 645 651 651 657 645 651 657 675 669 675 629 613 613 608 593 566 579 579 579 579 574 574 574 579 588 0 0 0 0 0
    0 0 0 0 0 0 0 0 0 0 0 0 0 0 0 0 0 0 0 0 0 0 0 0 0 0 0 0 0 0 0 0 0 0 0 0 0 0 0 0 0 0 0 0 0 0 0 0 0 0 0 0 0 0 0 0 0 0 0 0 0 0 0 0 0 0 0 0 0 1115 1132 1149 1149 1149 1149 1149 1132 1132 1187 1247 1168 1268 1268 1291 1291 1314 1338 1362 1362 1471 1443 1443 1471 1443 1443 1501 1501 1672 1635 1635 1672 1672 1672 1635 1599 1672 1672 1672 1672 1711 1711 1711 1752 1839 1795 1887 1989 2164 2374 2830 3066 3345 3345 3504 3504 3679 3873 3345 4329 4329 4088 3504 3873 4088 4088 3873 3873 3504 3679 3873 5661 3504 3345 2943 3066 0 0 0 0 0 0 0 0 0 0 0 0 0 0 0 0 2830 3066 3345 3679 0 0 0 0 0 0 0 931 908 897 931 0 0 0 0 525 0 0 0 0 0 0 0 0 0 0 0 0 0 0 0 0 0 0 0 0 0 0 0 0 0 561 561 549 574 0 0 0 0 0 0 1533 1599 1533 1501 1533 1565 1599 1599 1533 1501 1471 0 0 183 0 0 0 0 1226 1206 1187 1132 1132 1098 1082 1098 1082 1066 1066 1051 1051 1022 1022 1036 1008 1008 1022 955 955 968 968 943 931 919 897 908 931 886 876 865 855 836 836 836 826 808 808 799 799 791 774 766 750 743 735 728 721 714 687 687 681 675 651 651 645 651 651 663 651 657 657 675 675 675 629 613 613 608 598 561 574 579 579 579 574 574 574 579 588 0 0 0 0 0
    0 0 0 0 0 0 0 0 0 0 0 0 0 0 0 0 0 0 0 0 0 0 0 0 0 0 0 0 0 0 0 0 0 0 0 0 0 0 0 0 0 0 0 0 0 0 0 0 0 0 0 0 0 0 0 0 0 0 0 0 0 0 0 0 0 0 0 0 0 1115 1132 1132 1149 1132 1132 1132 1132 1115 1168 1226 1168 1268 1268 1291 1291 1314 1338 1388 1362 1471 1443 1471 1471 1471 1501 1565 1533 1672 1635 1635 1672 1635 1672 1635 1599 1711 1672 1672 1711 1711 1752 1752 1795 1839 1839 1936 1989 2102 2299 2830 3066 3345 3345 3345 3345 3504 3679 3199 3873 3679 3679 3504 3679 3873 3873 3679 3873 3504 3679 3873 5256 3873 3345 3066 3199 3199 0 0 0 0 0 0 0 0 0 0 0 0 0 0 0 0 3066 3504 3873 0 0 0 0 0 0 0 955 931 908 0 0 0 0 0 0 0 0 0 0 0 0 0 0 0 0 0 0 0 0 0 0 0 0 0 0 0 0 0 0 0 0 0 0 0 0 0 0 0 0 0 1599 1565 1501 1533 1565 1599 1599 1599 1533 1501 1501 0 0 0 184 0 1338 1291 1247 1226 1206 1132 1132 1115 1082 1115 1098 1066 1066 1066 1066 1022 1036 1051 1008 1008 1022 955 968 968 968 943 931 908 897 897 931 876 865 865 855 836 836 836 826 817 808 808 808 791 774 766 750 743 735 728 721 714 687 681 681 675 645 651 645 651 651 663 651 657 657 675 675 681 629 613 608 603 598 561 570 579 579 579 574 574 574 579 588 0 0 0 0 0
    0 0 0 0 0 0 0 0 0 0 0 0 0 0 0 0 0 0 0 0 0 0 0 0 0 0 0 0 0 0 0 0 0 0 0 0 0 0 0 0 0 0 0 0 0 0 0 0 0 0 0 0 0 0 0 0 0 0 0 0 0 0 0 0 0 0 0 0 0 1115 1132 1132 1149 1115 1132 1132 1115 1115 1168 1226 1168 1247 1268 1291 1291 1291 1314 1388 1362 1471 1471 1471 1471 1501 1533 1565 1565 1672 1635 1635 1635 1635 1635 1635 1599 1672 1672 1672 1672 1711 1711 1752 1752 1795 1795 1887 1936 1989 2102 2725 3066 3199 3345 3345 3504 3504 3679 3199 3679 3504 3504 3345 3679 3679 3679 3679 3679 3504 3504 3679 4906 4088 3504 3345 3345 4088 0 0 0 0 0 0 0 0 0 0 0 0 0 0 0 0 3345 4599 6690 0 0 0 0 0 0 0 968 943 0 0 379 375 0 0 0 0 0 0 0 0 0 0 0 0 0 0 0 0 0 0 0 0 0 0 0 0 0 0 0 0 0 0 0 0 0 0 0 0 0 1711 1672 1599 1565 1565 1599 1635 1635 1635 1565 1471 1533 0 0 0 0 0 1338 1291 1247 1226 1206 1132 1149 1132 1082 1115 1115 1066 1066 1066 1082 1036 1051 1066 1022 1022 1022 968 981 981 968 955 931 897 897 897 919 876 855 855 845 836 836 836 826 817 817 808 799 782 774 766 750 743 735 728 721 714 687 681 675 669 645 651 639 657 657 669 657 657 657 675 669 681 629 608 608 608 598 561 570 579 579 579 574 574 574 579 588 0 0 0 0 0
    0 0 0 0 0 0 0 0 0 0 0 0 0 0 0 0 0 0 0 0 0 0 0 0 0 0 0 0 0 0 0 0 0 0 0 0 0 0 0 0 0 0 0 0 0 0 0 0 0 0 0 0 0 0 0 0 0 0 0 0 0 0 0 0 0 0 0 0 0 1132 1149 1149 1149 1132 1132 1132 1115 1115 1149 1206 1149 1247 1268 1268 1291 1291 1314 1362 1362 1471 1443 1443 1471 1501 1501 1565 1565 1635 1599 1599 1635 1635 1635 1635 1599 1672 1672 1711 1672 1711 1752 1752 1795 1795 1839 1887 1936 1989 2102 2628 2943 3199 3345 3345 3504 3504 3679 3199 3504 3345 3345 3345 3504 3504 3679 3504 3679 3504 3504 3679 4906 4599 3873 3679 3679 4088 5661 3679 0 0 0 0 0 0 0 0 0 0 0 3345 0 3199 3873 0 0 0 0 0 0 865 0 865 943 943 0 0 379 375 0 0 0 0 0 0 0 0 0 0 0 0 0 0 0 0 0 0 0 0 0 0 0 0 0 0 0 0 0 0 0 0 0 0 0 0 0 1672 1672 1599 1565 1565 1599 1635 1599 1599 1533 1501 1533 0 227 0 0 1362 1338 1291 1247 1226 1206 1132 1132 1132 1082 1115 1115 1066 1066 1066 1066 1036 1051 1066 1022 1022 1022 981 981 994 981 955 931 908 897 897 919 865 855 855 845 836 836 826 826 826 817 808 791 791 782 774 750 743 735 728 721 714 681 675 675 669 639 645 639 657 657 669 657 657 663 675 669 681 629 613 608 608 598 566 570 579 579 579 579 570 574 579 588 0 0 0 0 0
    0 0 0 0 0 0 0 0 0 0 0 0 0 0 0 0 0 0 0 0 0 0 0 0 0 0 0 0 0 0 0 0 0 0 0 0 0 0 0 0 0 0 0 0 0 0 0 0 0 0 0 0 0 0 0 0 0 0 0 0 0 0 0 0 0 0 0 0 0 1132 1149 1149 1168 1132 1132 1149 1132 1115 1149 1187 1149 1226 1247 1268 1268 1291 1314 1362 1362 1471 1443 1443 1443 1471 1471 1533 1501 1599 1599 1599 1599 1635 1635 1635 1635 1711 1711 1711 1711 1752 1752 1752 1795 1839 1839 1887 1936 1989 1989 2537 2830 3066 3199 3345 3504 3504 3504 3199 3345 3345 3345 3345 3345 3504 3504 3504 3679 3345 3504 3679 4599 4906 3873 3873 3873 3873 4906 3873 0 0 0 0 791 0 0 0 0 0 0 3345 2830 0 3679 0 0 0 897 886 886 855 886 836 0 0 0 0 0 0 0 0 0 0 0 0 0 0 0 0 0 0 0 0 0 0 0 0 0 0 0 0 0 0 0 0 0 0 0 0 0 0 0 0 0 0 1533 1635 1599 1599 1565 1599 1599 1635 1599 1599 1533 1533 1533 1501 0 1415 1388 1362 1338 1314 1268 1247 1226 1132 1149 1149 1082 1132 1115 1082 1066 1066 1082 1036 1051 1066 1022 1022 1022 981 994 994 981 968 943 908 908 897 919 865 855 855 845 836 836 826 836 826 826 808 791 791 782 774 750 750 743 735 721 714 687 675 675 669 639 651 645 663 663 669 663 657 663 681 675 687 629 613 608 608 603 570 566 579 579 579 579 570 574 579 588 0 0 0 0 0
    0 0 0 0 0 0 0 0 0 0 0 0 0 0 0 0 0 0 0 0 0 0 0 0 0 0 0 0 0 0 0 0 0 0 0 0 0 0 0 0 0 0 0 0 0 0 0 0 0 0 0 0 0 0 0 0 0 0 0 0 0 0 0 0 0 0 0 0 0 1132 1168 1149 1168 1132 1149 1168 1149 1115 1149 1206 1168 1247 1268 1268 1291 1291 1338 1388 1362 1471 1443 1443 1443 1471 1443 1533 1471 1565 1565 1565 1599 1599 1599 1635 1635 1711 1711 1711 1711 1752 1795 1795 1839 1839 1839 1887 1936 1989 2044 2453 2830 2943 3199 3345 3345 3345 3504 3066 3345 3345 3345 3345 3345 3504 3504 3504 3679 3345 3345 3504 4329 4906 3873 3873 3679 3679 4599 3873 0 0 1338 0 0 0 0 0 0 0 0 0 0 0 0 0 0 0 0 0 908 876 943 0 0 0 0 0 0 0 0 0 0 0 0 0 0 0 0 0 0 0 0 0 0 0 0 0 0 0 0 0 0 0 0 0 0 0 0 0 0 0 1066 0 1533 1599 1635 1635 1599 1599 1599 1599 1599 1599 1599 1565 1565 1565 1565 1501 0 1443 1388 1338 1338 1314 1268 1247 1247 1132 1168 1168 1098 1132 1115 1082 1066 1066 1082 1036 1036 1051 1008 1008 1008 994 1008 994 981 968 943 919 908 897 919 876 855 865 845 836 836 836 836 826 817 799 791 791 782 774 758 758 750 735 721 714 687 675 675 669 639 657 645 663 663 669 663 657 663 681 675 687 634 618 613 608 603 579 566 579 579 579 579 566 574 579 584 0 0 0 0 0
    0 0 0 0 0 0 0 0 0 0 0 0 0 0 0 0 0 0 0 0 0 0 0 0 0 0 0 0 0 0 0 0 0 0 0 0 0 0 0 0 0 0 0 0 0 0 0 0 0 0 0 0 0 0 0 0 0 0 0 0 0 0 0 0 0 0 0 0 0 1132 1168 1149 1187 1132 1149 1168 1168 1149 1187 1226 1187 1247 1268 1268 1291 1314 1338 1388 1362 1443 1443 1443 1443 1471 1443 1501 1471 1565 1533 1533 1565 1565 1565 1635 1599 1711 1711 1711 1711 1752 1795 1795 1839 1839 1839 1887 1936 1936 1989 2230 2628 2830 3066 3199 3199 3199 3345 3066 3345 3345 3345 3345 3345 3345 3504 3345 3679 3345 3345 3504 4088 5256 4329 4329 4599 4329 6133 6690 0 0 1314 0 0 0 0 0 766 0 0 0 0 0 0 0 0 0 0 0 897 886 968 0 0 0 0 0 0 0 0 0 0 0 0 0 0 0 0 0 0 0 0 0 0 0 0 0 0 0 0 0 0 0 0 0 0 0 0 0 0 1051 1066 0 1565 1599 1635 1599 1599 1599 1599 1635 1599 1635 1599 1565 1599 1565 1565 1471 1443 1443 1388 1362 1338 1314 1268 1268 1268 1149 1187 1168 1098 1115 1115 1082 1066 1051 1082 1022 1022 1036 1008 1008 1008 994 1008 994 981 981 955 931 919 897 931 876 855 855 836 836 826 836 836 817 808 799 791 791 782 774 766 758 758 743 728 714 687 675 675 669 639 663 645 663 663 669 663 657 663 681 669 687 634 618 608 608 603 579 561 579 579 579 579 566 574 574 579 0 0 0 0 0
    0 0 0 0 0 0 0 0 0 0 0 0 0 0 0 0 0 0 0 0 0 0 0 0 0 0 0 0 0 0 0 0 0 0 0 0 0 0 0 0 0 0 0 0 0 0 0 0 0 0 0 0 0 0 0 0 0 0 0 0 0 0 0 0 0 0 0 0 0 1132 1149 1132 1168 1115 1132 1149 1168 1168 1187 1226 1187 1247 1268 1291 1314 1314 1338 1415 1362 1471 1443 1443 1443 1471 1443 1501 1471 1533 1533 1533 1565 1565 1565 1635 1599 1672 1711 1711 1752 1795 1795 1839 1839 1839 1839 1887 1936 1936 1989 2230 2537 2830 3066 3199 3345 3345 3504 3066 3345 3345 3345 3345 3199 3345 3345 3345 3504 3345 3345 3504 4088 5661 4906 4906 5256 4599 6133 7359 0 0 0 0 0 0 0 0 0 0 0 0 0 0 0 0 0 0 0 0 0 919 981 0 0 0 0 0 0 0 0 0 0 0 0 0 0 0 0 0 0 0 0 0 0 0 0 0 0 0 0 0 0 0 0 0 0 0 0 0 0 1066 1066 0 1635 1635 1711 1635 1672 1635 1635 1672 1635 1672 1635 1599 1599 1565 1533 1443 1415 1415 1338 1338 1314 1291 1268 1268 1268 1149 1187 1187 1098 1098 1098 1066 1036 1051 1066 1022 1022 1022 1008 1008 1008 994 1008 994 994 981 955 931 908 908 931 876 845 845 826 826 826 826 826 817 817 808 799 791 782 774 774 766 766 743 721 714 681 663 669 663 639 657 645 663 663 669 663 651 657 675 669 687 634 618 608 608 603 584 557 579 579 579 579 561 574 574 579 0 0 0 0 0
    0 0 0 0 0 0 0 0 0 0 0 0 0 0 0 0 0 0 0 0 0 0 0 0 0 0 0 0 0 0 0 0 0 0 0 0 0 0 0 0 0 0 0 0 0 0 0 0 0 0 0 0 0 0 0 0 0 0 0 0 0 0 0 0 0 0 0 0 0 1115 1149 1098 1187 1098 1132 1149 1149 1149 1168 1206 1187 1247 1268 1268 1291 1314 1338 1388 1362 1443 1443 1443 1443 1471 1443 1501 1471 1533 1533 1533 1565 1565 1565 1635 1635 1711 1752 1752 1752 1795 1795 1839 1839 1887 1887 1887 1887 1936 1989 2164 2374 2628 3066 3199 3504 3679 3873 3199 3345 3345 3345 3199 3066 3345 3345 3345 3345 3345 3345 3345 3873 5661 4329 4329 4906 4088 4906 6690 0 0 0 0 0 0 0 0 0 0 0 0 0 0 0 0 0 0 0 0 0 0 0 0 0 0 377 0 0 0 0 0 0 0 0 0 0 629 0 0 0 0 0 0 0 0 0 0 0 0 0 0 0 0 0 0 0 0 0 0 0 0 0 1839 1752 1752 1752 1711 1711 1672 1672 1672 1635 1635 1599 1599 1599 1533 1471 1415 1415 1362 1338 1314 1314 1291 1268 1268 1268 1149 1187 1187 1098 1082 1082 1051 1036 1036 1051 1008 994 1008 1008 1008 1008 1008 1008 1008 994 994 968 931 919 919 931 876 855 845 845 836 836 836 826 817 817 808 799 791 791 782 774 774 766 743 721 714 681 651 663 663 645 657 645 657 657 663 663 645 651 669 663 681 639 623 608 608 603 588 553 579 579 574 579 561 574 574 579 0 0 0 0 0
    0 0 0 0 0 0 0 0 0 0 0 0 0 0 0 0 0 0 0 0 0 0 0 0 0 0 0 0 0 0 0 0 0 0 0 0 0 0 0 0 0 0 0 0 0 0 0 0 0 0 0 0 0 0 0 0 0 0 0 0 0 0 0 0 0 0 0 0 0 1115 1149 0 1247 1132 1187 1187 1168 1168 1187 1206 1187 1226 1247 1247 1268 1291 1314 1362 1362 1443 1415 1415 1443 1471 1415 1501 1471 1533 1533 1533 1565 1565 1533 1635 1635 1672 1752 1752 1795 1795 1839 1839 1839 1839 1887 1887 1887 1936 1989 2044 2164 2230 2725 2943 3345 3679 3873 3199 3345 3199 3199 3066 3066 3199 3199 3199 3345 3345 3345 3345 3679 5256 4088 4088 4599 4088 4088 0 0 0 0 0 0 0 0 0 0 0 0 0 0 0 0 0 0 0 0 518 0 0 0 0 0 373 375 0 0 0 0 0 0 0 0 0 0 0 0 0 0 0 0 0 0 0 0 0 0 0 0 0 0 0 0 0 6690 7359 0 0 0 0 0 1839 1752 1795 1752 1711 1711 1672 1672 1672 1635 1635 1599 1599 1565 1501 1415 1388 1362 1338 1314 1314 1291 1291 1268 1268 1268 1149 1206 1187 1098 1082 1066 1036 1022 1036 1036 1008 994 994 1008 1008 1008 1022 1022 1008 994 994 968 931 931 919 931 886 865 855 845 845 836 826 817 817 817 799 791 791 791 782 774 766 758 735 721 707 675 645 663 663 645 657 651 657 657 657 663 639 651 669 657 675 651 623 608 608 608 593 553 579 579 574 579 566 574 574 579 0 0 0 0 0
    0 0 0 0 0 0 0 0 0 0 0 0 0 0 0 0 0 0 0 0 0 0 0 0 0 0 0 0 0 0 0 0 0 0 0 0 0 0 0 0 0 0 0 0 0 0 0 0 0 0 0 0 0 0 0 0 0 0 0 0 0 0 0 0 0 0 0 0 0 1132 1187 0 1338 1247 1247 1226 1206 1206 1206 1226 1187 1226 1247 1247 1247 1268 1291 1338 1338 1415 1388 1415 1415 1443 1415 1471 1471 1501 1533 1533 1533 1565 1533 1599 1635 1672 1711 1795 1795 1795 1839 1839 1887 1887 1887 1887 1887 1936 1989 2044 2102 2102 2299 2537 2725 0 3679 3345 3199 3066 3066 3066 3066 3199 3199 3199 3345 3345 3345 3345 3504 4906 4329 4088 4599 4088 3679 0 0 0 0 0 0 0 0 0 0 0 0 0 0 0 0 0 0 0 0 0 0 0 0 0 0 0 377 0 0 0 0 0 0 0 0 0 0 0 0 0 0 0 0 0 0 0 0 0 0 0 0 0 0 0 0 0 5661 5256 0 0 0 0 1887 1795 1795 1839 1795 1795 1752 1711 1711 1672 1635 1635 1599 1599 1565 1471 1415 1388 1362 1338 1314 1291 1291 1291 1268 1268 1247 1149 1187 1187 1098 1066 1051 1036 1022 1036 1036 994 981 994 1008 1008 1008 1036 1022 1008 994 994 968 943 931 919 919 886 865 865 845 836 826 826 817 808 808 799 791 791 791 782 774 766 758 735 721 707 687 645 669 669 651 657 651 657 657 657 663 639 651 669 663 675 663 629 608 608 0 598 553 579 579 574 574 566 574 574 579 0 0 0 0 0
    0 0 0 0 0 0 0 0 0 0 0 0 0 0 0 0 0 0 0 0 0 0 0 0 0 0 0 0 0 0 0 0 0 0 0 0 0 0 0 0 0 0 0 0 0 0 0 0 0 0 0 0 0 0 0 0 0 0 0 0 0 0 0 0 0 0 0 0 0 1187 1226 0 1415 1338 1314 1291 1247 1247 1247 1247 1206 1226 1247 1226 1247 1268 1268 1338 1314 1388 1388 1415 1415 1443 1415 1471 1443 1501 1501 1533 1533 1565 1533 1599 1635 1672 1752 1795 1795 1839 1839 1887 1887 1887 1887 1936 1936 1936 1989 2044 2102 2102 2164 2374 2374 2628 2943 3066 3066 2943 3066 3066 3066 3199 3199 3199 3199 3199 3199 3199 3345 4329 4329 3873 4088 3873 3504 0 0 0 0 0 0 0 0 0 0 0 0 0 0 0 0 0 0 0 0 0 0 0 0 0 0 0 0 0 0 0 0 0 0 0 0 0 0 0 0 0 0 0 0 0 0 0 0 0 0 0 0 0 0 0 0 0 0 0 0 0 0 0 1887 1795 1839 1795 1752 1752 1752 1752 1711 1672 1635 1635 1599 1599 1533 1443 1388 1362 1338 1338 1314 1291 1268 1291 1268 1247 1247 1149 1187 1187 1098 1051 1051 1036 1022 1036 1036 994 968 981 1022 1022 1022 1036 1008 994 981 994 968 943 931 919 919 886 876 865 845 836 826 817 817 808 799 799 799 799 791 791 774 774 766 743 721 707 687 651 675 675 657 657 657 657 657 657 663 639 651 663 663 669 669 634 608 608 0 598 553 574 574 574 574 561 574 574 574 0 0 0 0 0
    0 0 0 0 0 0 0 0 0 0 0 0 0 0 0 0 0 0 0 0 0 0 0 0 0 0 0 0 0 0 0 0 0 0 0 0 0 0 0 0 0 0 0 0 0 0 0 0 0 0 0 0 0 0 0 0 0 0 0 0 0 0 0 0 0 0 0 0 0 1206 1247 0 1443 1338 1338 1314 1268 1268 1268 1268 1206 1247 1247 1247 1247 1268 1268 1338 1314 1388 1388 1415 1415 1443 1415 1471 1471 1501 1501 1533 1533 1565 1533 1635 1635 1672 1752 1795 1839 1839 1887 1887 1887 1887 1887 1936 1936 1936 1989 2044 2044 2102 2164 2230 2299 2453 2830 2943 2943 2830 3066 3066 2943 3066 3199 3199 3199 3199 3199 3199 3345 3873 4329 3873 4088 3873 3504 0 0 0 0 0 0 0 0 0 0 0 0 0 0 799 799 0 0 0 0 0 0 0 0 0 0 0 0 0 0 0 0 0 0 0 0 0 0 0 0 0 0 0 0 0 0 0 0 0 0 0 0 0 0 0 0 0 0 0 0 0 1887 1989 1936 1887 1887 1887 1795 1839 1795 1795 1752 1711 1672 1672 1599 1635 1501 1415 1362 1338 1338 1314 1291 1291 1268 1268 1247 1226 1226 1149 1187 1187 1115 1051 1051 1051 1022 1036 1036 994 955 981 1022 1022 1022 1036 1008 981 968 994 968 931 919 908 908 886 876 865 845 836 826 826 817 808 799 799 799 799 799 791 782 774 758 735 721 707 687 651 675 675 663 657 663 651 657 657 663 634 645 663 669 657 675 634 608 608 0 598 549 574 574 570 570 561 574 570 574 0 0 0 0 0
    0 0 0 0 0 0 0 0 0 0 0 0 0 0 0 0 0 0 0 0 0 0 0 0 0 0 0 0 0 0 0 0 0 0 0 0 0 0 0 0 0 0 0 0 0 0 0 0 0 0 0 0 0 0 0 0 0 0 0 0 0 0 0 0 0 0 0 0 0 1206 1247 0 1388 1338 1338 1314 1268 1268 1268 1268 1226 1247 1247 1247 1247 1268 1291 1338 1314 1388 1388 1415 1443 1471 1415 1471 1471 1533 1533 1533 1565 1565 1533 1635 1635 1672 1711 1752 1839 1839 1887 1887 1887 1887 1936 1936 1936 1936 1989 1989 2044 2044 2102 2164 2299 2374 2725 2830 2830 2725 2943 2943 2830 3066 3199 3066 3066 3066 3199 3066 3199 3679 4329 3873 4088 4088 3679 4329 0 0 0 0 0 0 0 0 0 0 0 791 782 791 791 799 0 0 0 0 0 0 0 0 0 0 0 0 0 0 0 0 0 0 0 0 0 0 0 0 0 0 0 0 3873 3345 0 0 0 0 0 0 0 0 0 0 0 0 0 0 1989 2102 1989 1989 1936 1887 1839 1839 1839 1795 1752 1711 1635 1635 1599 1599 1501 1415 1362 1362 1362 1338 1314 1291 1291 1268 1247 1226 1226 1132 1187 1187 1115 1051 1051 1051 1022 1036 1051 994 955 981 1022 1022 1022 1036 994 955 955 994 955 908 897 897 897 886 876 855 845 836 826 817 808 808 799 799 799 799 799 791 782 782 758 735 721 707 687 651 675 675 663 651 663 651 657 657 669 634 651 657 669 651 675 634 608 608 0 598 549 570 570 566 566 561 570 570 574 0 0 0 0 0
    0 0 0 0 0 0 0 0 0 0 0 0 0 0 0 0 0 0 0 0 0 0 0 0 0 0 0 0 0 0 0 0 0 0 0 0 0 0 0 0 0 0 0 0 0 0 0 0 0 0 0 0 0 0 0 0 0 0 0 0 0 0 0 0 0 0 0 0 0 1206 1247 0 1362 1338 1338 1314 1268 1268 1268 1268 1226 1247 1247 1247 1247 1268 1268 1338 1338 1388 1415 1415 1443 1471 1415 1501 1471 1533 1533 1533 1565 1565 1533 1635 1635 1672 1711 1711 1795 1795 1839 1839 1887 1887 1887 1936 1936 1936 1989 1989 2044 2044 2164 2230 2299 2453 2628 2725 2725 2537 2830 2830 2725 2943 3199 3066 3066 3066 3199 3199 3199 3679 4599 4088 4599 4329 4088 4906 0 0 0 0 0 0 0 0 0 0 0 0 766 782 782 791 782 758 0 0 0 0 0 0 0 0 0 0 0 0 0 309 0 0 0 0 0 0 0 0 0 0 0 0 3679 3066 0 0 0 0 0 2102 0 0 0 0 0 0 0 0 2164 2230 2102 2044 1936 1887 1839 1887 1839 1795 1752 1711 1672 1672 1635 1599 1501 1415 1362 1362 1338 1314 1314 1291 1291 1268 1247 1226 1226 1149 1187 1187 1115 1066 1066 1051 1036 1051 1051 1008 968 981 1022 1022 1022 1051 981 955 955 994 943 897 886 886 886 876 865 845 845 836 826 817 808 808 808 799 799 799 799 791 782 774 758 728 714 700 675 645 669 669 663 645 663 651 657 657 669 639 651 657 675 651 675 629 603 608 0 593 549 570 570 566 566 561 570 570 574 0 0 0 0 0
    0 0 0 0 0 0 0 0 0 0 0 0 0 0 0 0 0 0 0 0 0 0 0 0 0 0 0 0 0 0 0 0 0 0 0 0 0 0 0 0 0 0 0 0 0 0 0 0 0 0 0 0 0 0 0 0 0 0 0 0 0 0 0 0 0 0 0 0 0 1226 1247 1291 1338 1338 1338 1314 1268 1247 1247 1247 1187 1226 1226 1226 1226 1247 1268 1314 1314 1388 1388 1415 1415 1471 1443 1501 1501 1565 1533 1533 1565 1565 1565 1635 1635 1672 1672 1711 1752 1752 1839 1839 1887 1887 1887 1936 1936 1989 1989 1989 2044 2102 2164 2230 2230 2453 2537 2628 2628 2537 2725 2830 2725 2943 3199 3066 3199 3199 3345 3345 3345 3679 4329 4088 4599 4088 4329 4329 4599 0 0 0 0 0 0 0 0 0 0 0 750 774 766 766 758 735 0 0 0 0 0 0 0 0 0 0 0 0 306 304 0 0 0 0 0 0 0 0 0 0 0 0 3504 3066 0 0 0 0 0 0 0 0 0 0 0 0 0 0 2230 2299 2164 2044 1989 1936 1887 1936 1887 1839 1795 1752 1711 1711 1635 1599 1471 1415 1388 1362 1362 1338 1314 1314 1291 1268 1247 1226 1226 1149 1187 1187 1132 1082 1082 1082 1051 1066 1066 1022 994 994 1036 1036 1036 1051 981 955 955 981 919 886 886 886 876 865 855 845 845 836 826 817 808 808 808 799 799 791 791 791 774 766 750 728 721 700 687 639 669 669 663 639 663 651 663 663 675 639 651 657 675 645 669 629 598 603 0 593 553 566 570 566 566 561 570 570 574 0 0 0 0 0
    0 0 0 0 0 0 0 0 0 0 0 0 0 0 0 0 0 0 0 0 0 0 0 0 0 0 0 0 0 0 0 0 0 0 0 0 0 0 0 0 0 0 0 0 0 0 0 0 0 0 0 0 0 0 0 0 0 0 0 0 0 0 0 0 0 0 0 0 0 1226 1247 1291 1338 1338 1338 1338 1268 1226 1226 1226 1187 1206 1206 1226 1226 1247 1268 1314 1314 1362 1362 1388 1415 1471 1415 1501 1471 1565 1533 1533 1565 1565 1565 1635 1635 1635 1672 1672 1711 1752 1839 1887 1887 1887 1936 1936 1936 1989 2044 1989 2044 2102 2102 2230 2299 2374 2537 2537 2628 2537 2725 2725 2725 2830 3066 3066 3199 3199 3345 3345 3504 3679 4088 4088 4329 4088 4906 3873 3679 4599 0 0 0 0 0 0 0 0 0 0 735 743 735 743 728 721 0 0 0 0 0 0 0 0 0 0 0 0 309 305 0 0 0 0 0 0 0 0 0 0 0 3679 3504 3199 2537 0 0 0 0 1989 0 0 0 0 0 0 0 2453 2299 2374 2230 2044 1989 1989 1936 1936 1887 1795 1752 1752 1711 1711 1635 1599 1443 1388 1362 1362 1338 1314 1314 1314 1291 1268 1268 1247 1247 1168 1226 1206 1168 1115 1115 1098 1066 1082 1082 1022 1008 1008 1051 1036 1022 1036 981 943 955 981 908 886 886 886 876 865 855 855 845 836 826 817 808 808 799 799 791 782 782 766 750 743 735 721 721 707 700 639 669 669 669 639 663 657 663 663 675 645 657 657 681 645 663 623 598 603 0 593 553 566 566 566 566 561 566 570 574 0 0 0 0 0
    0 0 0 0 0 0 0 0 0 0 0 0 0 0 0 0 0 0 0 0 0 0 0 0 0 0 0 0 0 0 0 0 0 0 0 0 0 0 0 0 0 0 0 0 0 0 0 0 0 0 0 0 0 0 0 0 0 0 0 0 0 0 0 0 0 0 0 0 0 1226 1247 1268 1314 1338 1338 1338 1291 1226 1247 1247 1187 1206 1226 1226 1226 1247 1268 1314 1314 1362 1362 1388 1388 1443 1415 1471 1471 1565 1533 1533 1533 1565 1533 1635 1635 1635 1672 1672 1711 1752 1839 1887 1936 1936 1936 1936 1989 1989 2044 1989 2044 2044 2102 2230 2299 2374 2453 2537 2628 2537 2725 2830 2830 2830 3199 3066 3199 3199 3504 3504 3504 3679 4088 4088 4329 4599 5661 4599 4088 4906 0 0 0 0 0 0 0 0 0 0 0 0 0 735 721 721 0 0 0 0 0 0 0 0 0 0 0 0 0 313 0 0 0 0 0 0 0 0 0 0 0 3345 3199 2943 2102 0 0 0 0 0 0 0 0 0 0 0 0 2537 2453 2537 2230 2044 1989 1936 1887 1887 1839 1795 1711 1711 1711 1635 1599 1565 1471 1415 1388 1388 1362 1362 1338 1314 1291 1268 1268 1247 1268 1187 1226 1226 1206 1149 1149 1149 1082 1082 1098 1036 1008 1008 1051 1022 1022 1008 981 943 955 968 908 897 897 886 886 876 865 855 845 826 826 817 808 799 799 791 791 782 774 758 743 743 735 721 721 714 707 639 669 669 663 634 663 651 663 663 675 651 657 657 681 651 669 623 598 603 0 593 553 561 566 566 566 561 561 570 574 0 0 0 0 0
    0 0 0 0 0 0 0 0 0 0 0 0 0 0 0 0 0 0 0 0 0 0 0 0 0 0 0 0 0 0 0 0 0 0 0 0 0 0 0 0 0 0 0 0 0 0 0 0 0 0 0 0 0 0 0 0 0 0 0 0 0 0 0 0 0 0 0 0 0 1226 1226 1268 1291 1291 1314 1314 1291 1247 1226 1247 1187 1206 1226 1226 1226 1247 1268 1314 1314 1362 1362 1388 1388 1443 1415 1471 1471 1533 1501 1501 1533 1565 1533 1635 1635 1635 1672 1672 1711 1752 1839 1887 1887 1936 1936 1936 1989 1989 2044 2044 2044 2044 2102 2230 2230 2299 2374 2453 2537 2537 2725 2830 2830 2725 3066 3066 3066 3066 3345 3345 3345 3504 3873 3873 4088 4329 5661 5256 4599 5256 6133 0 0 0 0 0 0 0 0 0 0 0 0 743 735 735 0 0 0 0 0 0 0 0 0 0 0 0 0 0 0 0 0 0 0 0 0 0 0 0 0 3199 2830 2725 0 0 0 0 0 0 0 0 0 0 0 0 2453 2537 2453 2537 2299 2102 1989 1936 1887 1887 1795 1752 1711 1711 1672 1599 1599 1533 1443 1415 1415 1388 1388 1388 1388 1338 1314 1291 1268 1268 1291 1226 1247 1247 1226 1168 1187 1187 1098 1098 1098 1036 1008 1008 1036 1008 1008 994 968 931 955 955 919 897 908 897 886 876 865 855 836 826 826 817 808 799 799 799 791 782 766 750 743 735 735 721 721 714 707 645 669 669 663 634 657 651 657 657 675 651 657 657 681 657 669 629 603 603 0 593 553 557 566 566 561 561 561 570 574 0 0 0 0 0
    0 0 0 0 0 0 0 0 0 0 0 0 0 0 0 0 0 0 0 0 0 0 0 0 0 0 0 0 0 0 0 0 0 0 0 0 0 0 0 0 0 0 0 0 0 0 0 0 0 0 0 0 0 0 0 0 0 0 0 0 0 0 0 0 0 0 0 0 0 1226 1226 1247 1268 1268 1291 1268 1268 1226 1187 1226 1168 1187 1206 1206 1226 1247 1268 1314 1314 1362 1362 1388 1388 1443 1415 1471 1471 1533 1501 1501 1533 1599 1565 1635 1672 1672 1672 1711 1752 1795 1839 1887 1887 1936 1936 1936 1989 1989 2044 2044 2044 2044 2102 2230 2299 2374 2374 2453 2537 2537 2725 2830 2830 2830 3199 3066 3066 3066 3199 3345 3504 3504 3679 3679 3873 4329 5256 5256 4329 4599 5256 6690 8177 0 0 0 0 0 0 0 687 681 0 728 728 728 0 6690 0 0 0 0 0 0 0 0 0 0 0 0 0 0 0 0 0 0 0 0 0 0 0 0 0 0 0 0 0 0 0 0 0 0 0 0 0 0 2537 2628 2537 2537 2299 2102 1989 1989 1887 1839 1752 1711 1672 1635 1599 1533 1533 1471 1443 1415 1415 1388 1388 1388 1388 1338 1314 1291 1268 1268 1291 1226 1247 1268 1247 1187 1206 1187 1115 1098 1098 1036 1008 1008 1036 994 994 981 968 931 955 955 908 908 919 897 886 876 865 855 845 836 826 826 808 799 799 799 791 774 750 750 743 735 728 721 721 707 700 651 669 669 663 634 657 645 657 657 669 651 651 657 681 651 675 629 603 603 0 0 0 557 566 561 561 566 557 570 570 0 0 0 0 0
    0 0 0 0 0 0 0 0 0 0 0 0 0 0 0 0 0 0 0 0 0 0 0 0 0 0 0 0 0 0 0 0 0 0 0 0 0 0 0 0 0 0 0 0 0 0 0 0 0 0 0 0 0 0 0 0 0 0 0 0 0 0 0 0 0 0 0 0 0 1187 1187 1206 1226 1226 1247 1247 1226 1168 1098 1187 1149 1132 1187 1187 1206 1247 1268 1314 1314 1362 1362 1388 1388 1443 1415 1443 1471 1533 1501 1501 1533 1599 1565 1635 1672 1672 1672 1711 1752 1795 1795 1839 1887 1887 1936 1936 1936 1989 2044 2044 2044 2044 2102 2230 2230 2299 2374 2453 2537 2537 2725 2830 2830 2943 3066 3066 2943 3066 3199 3345 3504 3504 3679 3679 3873 4329 5256 5661 4329 4329 4906 6133 7359 0 8177 0 0 0 663 0 0 663 0 714 0 0 0 8177 0 0 0 0 0 0 0 0 0 0 0 0 0 0 0 0 0 0 0 0 0 0 0 0 0 0 0 0 0 0 0 0 0 0 0 0 0 0 2725 2725 2725 2537 2374 2102 1989 1989 1887 1795 1752 1711 1672 1635 1565 1501 1501 1443 1415 1415 1388 1388 1388 1388 1362 1314 1291 1268 1291 1291 1314 1247 1268 1268 1268 1206 1226 1206 1115 1098 1098 1036 1022 1022 1036 994 994 981 968 943 968 955 919 908 919 897 886 876 855 855 845 836 826 826 808 808 799 799 791 766 750 743 735 735 728 721 714 714 707 657 669 669 663 634 657 645 651 651 663 645 651 657 675 651 675 629 608 603 0 0 0 553 566 561 561 566 557 570 570 0 0 0 0 0
    0 0 0 0 0 0 0 0 0 0 0 0 0 0 0 0 0 0 0 0 0 0 0 0 0 0 0 0 0 0 0 0 0 0 0 0 0 0 0 0 0 0 0 0 0 0 0 0 0 0 0 0 0 0 0 0 0 0 0 0 0 0 0 0 0 0 0 0 0 1168 1132 1168 1187 1187 1226 1226 1226 1115 1051 1132 1115 1098 1132 1132 1168 1206 1268 1314 1314 1362 1362 1388 1388 1415 1415 1443 1443 1533 1501 1501 1533 1599 1565 1672 1672 1672 1672 1711 1711 1752 1795 1839 1839 1887 1936 1936 1936 1989 2044 2044 2044 2102 2102 2230 2230 2299 2374 2374 2453 2537 2628 2830 2830 2943 2943 3066 2943 3066 3199 3345 3504 3504 3504 3679 3873 4329 5256 6133 4599 4599 5256 6133 8177 0 0 0 0 0 0 0 0 0 0 0 0 0 0 0 0 0 0 0 0 0 0 0 0 0 0 0 0 0 0 0 0 0 0 0 0 0 0 0 0 0 0 0 457 0 0 0 0 0 0 0 0 2830 2725 2725 2628 2537 2374 2102 1989 1936 1839 1752 1711 1635 1635 1565 1471 1501 1471 1443 1443 1415 1415 1415 1388 1388 1362 1314 1291 1268 1291 1314 1314 1247 1268 1291 1291 1226 1247 1226 1132 1098 1115 1036 1022 1036 1036 994 981 981 981 955 981 955 919 919 931 908 886 876 855 855 855 845 836 826 808 808 799 799 782 758 743 735 728 728 721 714 714 714 707 669 669 669 663 629 657 645 651 651 663 651 651 651 675 651 675 629 603 598 0 0 0 549 566 561 561 566 557 570 570 0 0 0 0 0
    0 0 0 0 0 0 0 0 0 0 0 0 0 0 0 0 0 0 0 0 0 0 0 0 0 0 0 0 0 0 0 0 0 0 0 0 0 0 0 0 0 0 0 0 0 0 0 0 0 0 0 0 0 0 0 0 0 0 0 0 0 0 0 0 0 0 0 0 0 1149 1115 1149 1168 1168 1206 1206 1206 1098 1022 1082 1082 1066 1115 1098 1149 1187 1247 1314 1314 1362 1362 1362 1362 1415 1415 1415 1443 1501 1501 1533 1501 1599 1565 1672 1672 1672 1672 1711 1711 1752 1752 1839 1795 1887 1936 1936 1936 1989 2044 2044 2044 2102 2102 2230 2230 2299 2374 2374 2453 2537 2628 2830 2830 2943 3066 3066 2943 3066 3199 3504 3504 3504 3504 3504 3873 4329 5256 6133 4906 4599 4906 6133 0 0 0 0 0 0 0 0 0 0 0 0 0 0 0 0 0 0 0 0 0 0 0 0 0 0 0 0 0 0 0 0 0 0 0 0 0 0 0 0 0 0 0 0 443 0 0 0 0 0 0 227 227 2725 2628 2725 2453 2374 2299 2044 1989 1989 1839 1752 1711 1672 1635 1599 1471 1501 1471 1443 1443 1415 1415 1415 1388 1388 1338 1291 1268 1247 1268 1291 1314 1247 1268 1291 1291 1226 1247 1226 1132 1098 1115 1036 1036 1036 1036 981 981 981 981 955 981 955 931 931 943 919 886 876 865 865 855 845 836 826 817 817 799 799 782 750 735 728 721 721 714 707 714 714 707 669 669 669 669 629 657 639 645 645 657 645 645 651 675 645 669 623 603 593 0 0 0 549 566 566 566 570 557 570 566 0 0 0 0 0
    0 0 0 0 0 0 0 0 0 0 0 0 0 0 0 0 0 0 0 0 0 0 0 0 0 0 0 0 0 0 0 0 0 0 0 0 0 0 0 0 0 0 0 0 0 0 0 0 0 0 0 0 0 0 0 0 0 0 0 0 0 0 0 0 0 0 0 0 0 1149 1132 1149 1168 1132 1187 1168 1187 1066 1008 1051 1066 1051 1115 1115 1149 1187 1247 1314 1314 1362 1362 1362 1388 1415 1415 1443 1443 1533 1501 1533 1533 1635 1565 1672 1672 1672 1711 1711 1711 1752 1752 1839 1795 1887 1936 1989 1989 1989 2044 2044 2044 2102 2102 2230 2230 2299 2374 2374 2537 2537 2628 2830 2830 2943 2943 3066 2943 3066 3066 3345 3504 3504 3504 3504 3873 4088 5256 5661 4906 4329 4329 5661 0 0 0 0 0 0 0 0 0 0 0 0 0 0 0 0 0 0 0 0 0 0 0 0 0 0 0 0 0 0 0 0 0 0 0 0 0 0 0 0 0 0 0 0 435 0 0 0 0 0 228 229 0 2453 2537 2628 2299 2299 2230 2044 2044 1936 1839 1752 1711 1711 1635 1565 1443 1471 1443 1415 1415 1388 1415 1388 1388 1388 1314 1291 1268 1268 1291 1314 1314 1247 1268 0 1314 1226 1247 1226 1132 1098 1098 1036 1022 1022 1022 981 968 968 981 955 981 955 931 931 955 919 897 886 876 876 865 845 836 836 826 817 808 808 782 750 728 721 721 714 714 707 714 707 707 675 669 669 669 629 651 639 645 645 657 645 645 645 669 639 663 623 603 588 0 0 0 549 566 566 566 570 557 570 566 0 0 0 0 0
    0 0 0 0 0 0 0 0 0 0 0 0 0 0 0 0 0 0 0 0 0 0 0 0 0 0 0 0 0 0 0 0 0 0 0 0 0 0 0 0 0 0 0 0 0 0 0 0 0 0 0 0 0 0 0 0 0 0 0 0 0 0 0 0 0 0 0 0 0 1132 1132 0 0 1098 1168 1149 1187 1082 1036 1098 1098 1082 1187 1168 1187 1206 1268 1338 1314 1362 1362 1388 1388 1415 1415 1443 1443 1533 1501 1565 1565 1635 1565 1672 1672 1672 1711 1711 1711 1752 1752 1839 1752 1839 1936 1936 1936 1989 2044 2044 2044 2102 2102 2164 2230 2299 2374 2374 2537 2537 2628 2830 2830 2830 2830 2943 2725 2943 2943 3199 3345 3345 3504 3504 3679 4088 4906 6133 4906 4088 4329 5256 0 0 0 0 0 0 0 0 0 0 0 0 0 0 0 0 0 0 0 0 0 0 0 0 0 0 0 0 0 0 0 0 0 0 0 0 0 0 0 0 0 0 0 0 0 0 0 0 0 231 232 0 0 2230 2453 2374 2164 2164 2164 2044 2044 1936 1795 1711 1711 1711 1635 1565 1415 1471 1443 1388 1388 1388 1388 1362 1362 1362 1291 1268 1268 1268 1268 0 0 0 0 0 1291 1206 1226 1226 1132 1098 1098 1022 1008 1008 0 968 955 955 968 955 968 968 943 943 955 931 897 886 886 876 865 855 845 0 826 817 808 808 774 743 728 714 714 707 707 700 707 707 707 675 669 669 669 629 651 639 645 645 651 645 645 645 669 634 663 623 603 584 593 0 0 545 566 566 566 570 557 570 566 0 0 0 0 0
    0 0 0 0 0 0 0 0 0 0 0 0 0 0 0 0 0 0 0 0 0 0 0 0 0 0 0 0 0 0 0 0 0 0 0 0 0 0 0 0 0 0 0 0 0 0 0 0 0 0 0 0 0 0 0 0 0 0 0 0 0 0 0 0 0 0 0 0 0 1115 1098 0 0 0 1132 1168 1226 1149 1082 1187 1187 1168 1247 1206 1226 1226 1268 1338 1338 1388 1388 1388 1415 1443 1415 1471 1443 1533 1501 1565 1565 1635 1565 1672 1672 1672 1711 1711 1711 1752 1752 1795 1752 1795 1887 1936 1936 1989 2102 2044 2102 2102 2102 2230 2230 2299 2374 2374 2453 2537 2725 2830 2830 2830 2943 3066 2830 2943 2943 3066 3345 3345 3345 3345 3679 4088 4599 5661 5256 4088 3873 4329 0 0 0 0 0 0 0 0 0 0 0 0 0 0 0 0 0 0 0 0 0 0 0 0 0 0 0 0 0 0 0 0 0 0 0 0 0 0 0 0 0 0 0 0 0 0 0 0 0 0 0 0 1887 2102 2230 2164 2102 2102 2102 2044 2044 1887 1795 1711 1711 1711 1635 1533 1388 1471 1415 1388 1388 1388 1388 1388 1362 1388 1314 1291 1291 1268 0 0 0 0 0 0 0 1187 1226 1206 1132 1082 1082 1022 1008 1008 0 955 955 955 981 955 968 981 955 955 968 931 897 897 897 886 876 865 0 0 826 826 817 808 782 750 735 721 714 707 707 700 700 700 700 669 663 669 663 629 651 639 639 639 651 645 639 639 669 629 651 629 608 584 593 0 0 545 566 566 561 566 557 570 566 0 0 0 0 0
    0 0 0 0 0 0 0 0 0 0 0 0 0 0 0 0 0 0 0 0 0 0 0 0 0 0 0 0 0 0 0 0 0 0 0 0 0 0 0 0 0 0 0 0 0 0 0 0 0 0 0 0 0 0 0 0 0 0 0 0 0 0 0 0 0 0 0 0 0 1098 1082 0 0 0 1098 1168 1226 1168 1132 1226 1226 1206 1268 1226 1247 1247 1291 1338 1338 1388 1388 1388 1415 1443 1443 1471 1471 1533 1501 1565 1565 1635 1565 1672 1672 1672 1711 1711 1711 1752 1711 1795 1752 1795 1839 1936 1936 1989 2102 2044 2102 2102 2164 2230 2230 2299 2374 2374 2537 2628 2725 2830 2943 2943 2943 3066 2943 2943 2830 3066 3199 3345 3345 3345 3504 3873 4329 5661 5256 4329 3873 4088 0 0 0 0 0 0 0 0 0 0 0 0 0 0 0 0 0 0 0 0 0 0 0 0 0 0 0 0 0 0 0 0 0 0 0 0 0 0 0 0 0 0 0 0 0 0 0 0 0 0 0 0 1936 2102 2164 2102 2044 2044 2102 2102 2044 1936 1795 1752 1752 1711 1599 1501 1388 1471 1415 1362 1388 1388 1388 1362 1362 1362 1291 1314 0 1268 0 0 0 0 0 0 0 1149 1206 1206 1115 1082 1082 1022 0 1008 0 968 955 955 981 968 981 981 955 955 968 943 908 908 897 897 886 865 0 865 855 845 826 817 791 758 735 728 714 707 707 694 700 694 694 669 651 663 657 629 651 639 639 639 645 645 639 639 669 623 639 629 608 579 593 0 574 545 566 566 561 566 557 570 566 0 0 0 0 0
    0 0 0 0 0 0 0 0 0 0 0 0 0 0 0 0 0 0 0 0 0 0 0 0 0 0 0 0 0 0 0 0 0 0 0 0 0 0 0 0 0 0 0 0 0 0 0 0 0 0 0 0 0 0 0 0 0 0 0 0 0 0 0 0 0 0 0 0 0 1098 0 0 0 0 0 1132 1187 1149 1149 1226 1226 1206 1268 1247 1268 1268 1291 1362 1338 1388 1415 1388 1415 1443 1443 1471 1471 1533 1501 1565 1565 1635 1565 1711 1672 1711 1711 1752 1711 1752 1752 1795 1752 1795 1839 1887 1989 1989 2044 2044 2102 2102 2164 2230 2230 2230 2374 2374 2537 2628 2725 2943 2943 2943 3066 3066 2943 2943 2943 3066 3199 3345 3504 3345 3504 4088 4599 5661 5256 4329 3873 4088 0 0 0 0 0 0 0 0 0 0 0 0 0 0 0 0 0 0 0 0 0 0 0 0 0 0 0 0 0 0 0 0 0 0 0 0 0 0 0 0 0 0 0 0 0 0 0 0 0 0 0 0 1989 2164 2164 2102 2044 2044 2102 2102 2102 1936 1795 1752 1711 1672 1565 1533 1388 1501 1443 1388 1415 1415 1415 1388 1362 1388 1291 1338 0 1291 0 0 0 0 0 0 0 1115 1187 1206 1115 1066 1066 0 0 0 0 968 968 968 994 981 981 994 968 955 968 943 931 919 908 908 897 886 876 886 886 876 855 826 791 743 735 721 714 707 707 700 0 0 0 0 0 663 657 629 651 639 634 639 645 645 634 639 669 618 623 629 608 574 588 588 579 545 566 566 561 566 557 566 566 0 0 0 0 0
    0 0 0 0 0 0 0 0 0 0 0 0 0 0 0 0 0 0 0 0 0 0 0 0 0 0 0 0 0 0 0 0 0 0 0 0 0 0 0 0 0 0 0 0 0 0 0 0 0 0 0 0 0 0 0 0 0 0 0 0 0 0 0 0 0 0 0 0 0 1066 0 0 0 0 0 0 1187 1168 1187 1226 1247 1226 1268 1268 1291 1291 0 1388 1338 1388 1415 1388 1415 1443 1415 1471 1471 1533 1501 1565 1565 1635 1565 1672 1672 1711 1711 1752 1711 1752 1711 1795 1752 1795 1839 1887 1936 1989 2044 2044 2102 2164 2164 2230 2230 2230 2374 2374 2628 2628 2830 2943 3066 3066 3066 3199 2943 2943 2943 3066 3199 3345 3504 3345 3504 3873 4906 5661 5661 4599 4329 4088 0 0 0 0 0 0 0 0 0 0 0 0 0 0 0 0 0 0 0 0 0 0 0 0 0 0 0 0 0 0 0 0 0 0 0 0 0 0 0 0 0 0 0 0 0 0 0 0 0 0 0 0 2044 2164 2102 2102 2044 2102 2164 2164 2164 1989 1839 1752 1711 1711 1533 1565 1415 1501 1443 1388 1443 1415 1415 1388 1362 1388 1314 1338 1314 1291 0 0 0 0 0 0 0 1082 1187 1187 1115 1051 1051 0 215 0 0 981 968 968 1008 994 981 994 981 955 981 955 931 931 919 931 931 897 897 919 919 919 865 836 791 735 728 721 714 707 700 700 707 0 0 675 0 657 657 623 651 639 634 634 639 645 634 634 669 613 613 623 603 570 588 588 579 549 566 561 561 566 557 566 561 0 0 0 0 0
    0 0 0 0 0 0 0 0 0 0 0 0 0 0 0 0 0 0 0 0 0 0 0 0 0 0 0 0 0 0 0 0 0 0 0 0 0 0 0 0 0 0 0 0 0 0 0 0 0 0 0 0 0 0 0 0 0 0 0 0 0 0 0 0 0 0 0 0 0 1051 0 0 0 0 0 0 1226 1187 1226 1247 1247 1247 1268 1291 1291 1314 1314 1388 1338 1388 1415 1388 1415 1415 1415 1471 1443 1533 1501 1565 1565 1635 1565 1672 1672 1672 1711 1711 1711 1752 1711 1795 1752 1795 1795 1795 1887 1936 2102 2044 2102 2164 2164 2230 2230 2299 2374 2453 2628 2725 2830 2943 3066 3066 3066 3199 3066 2943 2943 3066 3199 3199 3345 3199 3345 3873 4906 5661 6133 4906 4329 4329 0 0 0 0 0 0 0 0 0 0 0 0 0 0 0 0 0 0 0 0 0 0 0 0 0 0 0 0 0 0 0 0 0 0 0 0 0 0 0 0 0 0 0 0 0 0 0 0 0 0 0 1989 2044 2102 2044 2044 1989 2044 2164 2102 2102 1887 1839 1711 1711 1672 1471 1565 1443 1501 1443 1415 1471 1443 1443 1415 1388 1388 0 1362 1338 0 0 0 0 0 0 0 0 1066 1132 1168 1098 1036 1036 216 215 0 0 968 968 968 994 981 981 994 981 968 981 968 943 955 943 943 931 908 897 931 931 931 886 855 808 774 758 743 721 714 700 700 707 700 700 669 634 651 651 623 651 645 634 639 645 651 634 634 669 608 608 618 603 570 588 588 584 549 561 561 561 561 557 561 561 0 0 0 0 0
    0 0 0 0 0 0 0 0 0 0 0 0 0 0 0 0 0 0 0 0 0 0 0 0 0 0 0 0 0 0 0 0 0 0 0 0 0 0 0 0 0 0 0 0 0 0 0 0 0 0 0 0 0 0 0 0 0 0 0 0 0 0 0 0 0 0 0 0 0 1066 1066 0 0 0 0 0 1247 1226 1247 1247 1268 1268 1291 1314 1338 1362 1338 1415 1362 1415 1415 1388 1415 1415 1415 1471 1443 1533 1501 1565 1533 1599 1533 1635 1635 1672 1711 1711 1711 1752 1711 1795 1752 1752 1795 1752 1839 1936 2044 2044 2164 2164 2230 2299 2299 2299 2453 2453 2628 2725 2830 2943 3066 3199 3199 3199 3066 3066 3066 3199 3345 3345 3345 3345 3345 4088 4906 5661 6133 5256 4599 4599 0 0 0 0 0 0 0 0 0 0 0 0 0 0 0 0 0 0 0 0 0 0 0 0 0 0 0 0 0 0 0 0 0 0 0 0 0 0 0 0 0 0 0 0 0 0 0 0 0 0 0 1989 2102 2044 2044 2044 2044 2044 2164 2102 2102 1936 1887 1795 1711 1752 1471 1599 1471 1501 1471 1415 1471 1443 1443 1415 1388 1388 1338 1362 1362 1314 0 0 0 0 1247 0 1168 1066 1098 1115 1082 1022 0 216 0 0 994 968 955 955 994 968 968 994 994 968 994 968 955 955 955 943 931 908 897 919 943 943 931 886 826 808 782 758 721 707 700 694 700 694 694 663 634 645 645 623 645 645 634 639 645 651 634 634 669 613 608 623 608 570 588 588 584 549 561 561 561 561 557 557 561 0 0 0 0 0
    0 0 0 0 0 0 0 0 0 0 0 0 0 0 0 0 0 0 0 0 0 0 0 0 0 0 0 0 0 0 0 0 0 0 0 0 0 0 0 0 0 0 0 0 0 0 0 0 0 0 0 0 0 0 0 0 0 0 0 0 0 0 0 0 0 0 0 0 0 1082 1082 1082 1115 0 0 1247 1226 1226 1268 1247 1268 1268 1291 1291 1338 1388 1338 1415 1362 1415 1415 1388 1415 1415 1415 1471 1443 1533 1501 1533 1533 1565 1533 1635 1635 1672 1711 1711 1711 1752 1711 1795 1752 1752 1752 1711 1795 1936 2044 2102 2164 2230 2230 2299 2299 2299 2453 2453 2628 2725 2830 2943 3066 3199 3345 3345 3066 3199 3199 3345 3345 3345 3504 3345 3345 4329 4599 6133 6133 5256 4906 4599 6133 0 0 0 0 0 0 0 0 0 0 0 0 0 0 0 0 0 0 0 0 0 0 0 0 0 0 0 0 0 0 0 0 0 0 0 0 0 0 0 0 0 0 0 0 0 0 0 0 0 0 2044 2102 2044 2044 2044 2044 2102 2230 2230 2230 1989 1936 1795 1711 1711 1415 1565 1471 1471 1501 1415 1443 1443 1415 1415 1362 1362 1314 1362 1338 1314 0 0 0 0 1247 0 0 1051 1066 1066 1066 1008 0 216 0 981 981 968 968 968 994 968 968 994 994 968 981 955 955 955 955 931 919 897 897 908 919 919 908 865 836 808 782 774 728 714 700 700 700 694 687 663 629 645 645 623 645 639 634 639 645 651 634 634 669 618 618 629 613 574 593 593 588 553 561 561 561 561 557 557 557 0 0 0 0 0
    0 0 0 0 0 0 0 0 0 0 0 0 0 0 0 0 0 0 0 0 0 0 0 0 0 0 0 0 0 0 0 0 0 0 0 0 0 0 0 0 0 0 0 0 0 0 0 0 0 0 0 0 0 0 0 0 0 0 0 0 0 0 0 0 0 0 0 0 0 1082 1082 1082 1098 1115 0 1268 1247 1247 1268 1268 1268 1268 1291 1291 1314 1388 1338 1415 1362 1415 1415 1388 1415 1415 1388 1471 1415 1501 1471 1533 1501 1565 1501 1635 1599 1672 1711 1711 1711 1752 1711 1795 1752 1752 1752 1711 1795 1936 1989 2102 2230 2230 2299 2299 2299 2299 2453 2453 2628 2628 2725 2943 3066 3199 3345 3345 3199 3199 3345 3504 3504 3504 3679 3504 3345 4906 4906 6690 6133 5661 5256 5256 6133 0 0 0 0 0 0 0 0 0 0 0 0 0 0 0 0 0 0 0 0 0 0 0 0 0 0 0 0 0 0 0 0 0 0 0 0 0 0 0 0 0 0 0 0 0 0 0 0 0 2044 2102 2102 2044 2044 2044 2102 2164 2230 2230 2164 1989 1887 1752 1711 1672 1415 1565 1471 1471 1501 1443 1443 1443 1443 1415 1362 1362 1338 1338 1338 1314 1291 0 0 1268 1226 0 1168 1082 1066 1066 1066 1008 0 216 0 981 981 981 968 968 994 968 968 981 994 955 968 943 955 968 943 931 931 908 897 919 908 919 919 897 865 836 808 799 758 728 707 707 707 700 694 669 623 645 645 623 645 639 634 639 645 657 639 639 663 629 629 634 613 574 593 593 588 553 557 561 557 557 557 553 557 0 0 0 0 0
    0 0 0 0 0 0 0 0 0 0 0 0 0 0 0 0 0 0 0 0 0 0 0 0 0 0 0 0 0 0 0 0 0 0 0 0 0 0 0 0 0 0 0 0 0 0 0 0 0 0 0 0 0 0 0 0 0 0 0 0 0 0 0 0 0 0 0 0 0 1082 1082 1098 1098 1149 0 0 1247 1268 1268 1268 1268 1268 1291 1291 1291 1415 1338 1415 1362 1388 1388 1388 1388 1388 1388 1443 1415 1501 1471 1501 1471 1533 1501 1635 1599 1672 1711 1711 1711 1752 1752 1795 1752 1795 1752 1752 1795 2044 1989 2164 2230 2299 2299 2374 2374 2299 2453 2453 2537 2628 2725 2943 3066 3199 3504 3345 3199 3345 3345 3679 3504 3504 3873 3504 3504 4906 4906 7359 6690 6133 5661 5661 6133 0 0 0 0 0 0 0 0 0 0 0 0 0 0 0 0 0 0 0 0 0 0 0 0 0 0 0 0 0 0 0 0 0 0 0 0 0 0 0 0 0 0 0 0 0 0 0 0 0 2044 2164 2102 2044 2102 2102 2102 2164 2230 2230 2102 1989 1887 1672 1599 1635 1415 1565 1501 1471 1533 1443 1471 1471 1443 1443 1388 1388 0 1338 1314 1291 1268 1268 1268 1268 1226 1226 1168 1098 1066 1066 1051 1008 0 217 215 0 994 994 981 981 1008 968 968 968 994 955 943 943 955 955 943 931 919 908 897 908 897 908 919 897 0 836 791 799 774 743 721 721 714 707 700 663 623 639 639 623 639 639 639 645 645 657 639 639 663 639 634 639 613 579 593 593 588 553 557 561 557 557 557 549 557 0 0 0 0 0
    0 0 0 0 0 0 0 0 0 0 0 0 0 0 0 0 0 0 0 0 0 0 0 0 0 0 0 0 0 0 0 0 0 0 0 0 0 0 0 0 0 0 0 0 0 0 0 0 0 0 0 0 0 0 0 0 0 0 0 0 0 0 0 0 0 0 0 0 0 1098 1115 1132 1115 1149 1168 1268 1206 1226 1247 1247 1268 1268 1268 1291 1291 1362 0 1415 1338 1388 1388 1388 1362 1362 1362 1415 1415 1471 1443 1501 1471 1533 1501 1635 1635 1672 1711 1711 1711 1795 1752 1795 1795 1795 1795 1795 1795 2102 1936 2164 2230 2299 2299 2374 2374 2299 2453 2453 2537 2628 2628 2943 3199 3199 3504 3504 3199 3345 3345 3679 3679 3679 3873 3679 3679 5256 5256 7359 7359 6690 6690 6690 6690 0 0 0 0 0 0 0 0 0 0 0 0 0 0 0 0 0 0 0 0 0 0 0 0 0 0 0 0 0 0 0 0 0 0 0 0 0 0 0 0 0 0 0 0 0 0 0 0 0 2102 2164 2102 2102 2102 2102 2164 2164 2164 2102 2044 1989 1839 1533 1533 1599 1443 1565 1533 1471 1533 1471 1501 1501 1471 1471 1362 1362 0 1338 1314 1291 1247 1247 1247 1247 1206 1206 1168 1098 1066 1066 1051 1008 0 217 216 0 994 1008 994 981 1008 968 955 955 981 943 943 931 955 943 931 919 908 897 876 876 876 886 886 0 0 0 0 782 758 743 728 735 728 714 707 669 0 645 639 623 639 639 639 645 651 657 645 645 663 645 645 645 613 579 593 593 588 553 553 557 557 557 557 549 557 0 0 0 0 0
    0 0 0 0 0 0 0 0 0 0 0 0 0 0 0 0 0 0 0 0 0 0 0 0 0 0 0 0 0 0 0 0 0 0 0 0 0 0 0 0 0 0 0 0 0 0 0 0 0 0 0 0 0 0 0 0 0 0 0 0 0 0 0 0 0 0 0 0 0 1098 1115 1132 1115 1132 1149 1226 1187 1187 1226 1226 1247 1247 1247 1268 1268 1314 1291 1388 1338 1388 1388 1388 1362 1362 1362 1415 1388 1471 1443 1501 1471 1565 1501 1635 1635 1672 1711 1711 1711 1795 1752 1839 1795 1839 1795 1795 1839 2102 1936 2164 2299 2299 2299 2374 2374 2374 2453 2453 2537 2537 2628 3066 3199 3199 3504 3504 3199 3504 3345 3679 3679 3679 3873 3873 3679 5661 5256 6690 7359 6690 6690 6690 6690 0 0 0 0 0 0 0 0 0 0 0 0 0 0 0 0 0 0 0 0 0 0 0 0 0 0 0 0 0 0 0 0 0 0 0 0 0 0 0 0 0 0 0 0 0 0 0 0 2102 2164 2164 2102 2102 2102 2102 2164 2164 2102 2044 1989 1936 1795 1565 1533 1599 1443 1565 1533 1471 1533 1501 1471 1501 1471 1471 1362 1362 1362 1338 1291 1268 1247 1226 1226 1247 1187 1187 1149 1115 1066 1066 1051 1022 0 0 216 0 994 1008 994 981 994 968 943 943 994 943 943 931 955 943 931 908 897 876 855 855 855 865 0 0 0 0 0 0 750 735 735 743 728 728 714 687 0 651 645 623 639 639 639 651 651 663 645 645 663 651 645 651 613 584 593 593 588 557 553 557 557 557 561 549 557 0 0 0 0 0
    0 0 0 0 0 0 0 0 0 0 0 0 0 0 0 0 0 0 0 0 0 0 0 0 0 0 0 0 0 0 0 0 0 0 0 0 0 0 0 0 0 0 0 0 0 0 0 0 0 0 0 0 0 0 0 0 0 0 0 0 0 0 0 0 0 0 0 0 0 1115 1132 1132 1115 1132 1149 1226 0 1206 1226 1226 1247 1247 1247 1268 1247 1291 1268 1388 1338 1388 1388 1388 1388 1362 1362 1415 1388 1471 1443 1501 1471 1565 1501 1599 1635 1672 1711 1711 1711 1795 1752 1839 1795 1839 1839 1795 1839 2044 1887 2164 2299 2374 2299 2374 2374 2374 2453 2453 2537 2537 2628 2943 3066 3199 3345 3345 3199 3504 3504 3679 3679 3679 4088 3873 3873 5661 5256 6690 7359 7359 7359 7359 7359 0 0 0 0 0 0 0 0 0 0 0 0 0 0 0 0 0 0 0 0 0 0 0 0 0 0 0 0 0 0 0 0 0 0 0 0 0 0 0 0 0 0 0 0 0 0 0 0 2102 2230 2164 2102 2102 2102 2164 2164 2102 2044 1936 1936 1887 1711 1565 1533 1599 1471 1565 1565 1471 1533 1501 1471 1501 1471 1471 1362 1362 1362 1314 1291 1268 1226 1206 1206 1226 1168 1187 1149 1115 1051 1066 1051 1022 1051 0 216 981 994 1008 994 968 994 955 931 931 994 943 931 919 943 931 919 897 876 855 836 826 836 0 0 0 0 0 0 0 743 735 728 735 721 721 700 687 623 657 651 629 639 645 645 651 651 663 651 651 663 657 651 657 618 584 593 593 593 557 553 561 557 557 561 549 557 0 0 0 0 0
    0 0 0 0 0 0 0 0 0 0 0 0 0 0 0 0 0 0 0 0 0 0 0 0 0 0 0 0 0 0 0 0 0 0 0 0 0 0 0 0 0 0 0 0 0 0 0 0 0 0 0 0 0 0 0 0 0 0 0 0 0 0 0 0 0 0 0 0 0 1132 1149 1149 1132 1132 1168 1226 0 1247 1226 1206 1226 1247 1247 1247 1268 1291 1268 1388 1338 1388 1388 1388 1388 1388 1362 1415 1388 1501 1443 1501 1471 1565 1501 1599 1635 1672 1711 1711 1711 1795 1752 1839 1795 1887 1839 1839 1839 2044 1887 2164 2102 2374 2164 2299 2374 2299 2453 2453 2453 2537 2453 2830 2943 3066 3345 3345 3199 3504 3504 3679 3679 3679 4088 4088 3873 5661 5256 6690 8177 7359 7359 7359 7359 0 0 0 0 0 0 0 0 0 0 0 0 0 0 0 0 0 0 0 0 0 0 0 0 0 0 0 0 0 0 0 0 0 0 0 0 0 0 0 0 0 0 0 0 0 0 0 2102 2164 2230 2164 2102 2102 2102 2164 2102 2044 1989 1936 1887 1839 1672 1599 1533 1599 1471 1565 1565 1471 1533 1501 1471 1533 1471 1471 1362 1362 1362 1314 1268 1268 1226 1206 1206 1226 1168 1187 1149 1115 1051 1066 1066 1036 1051 0 0 0 994 1008 994 968 981 955 919 919 981 931 919 908 931 897 886 855 836 836 817 817 826 826 0 0 0 0 774 758 750 728 728 743 721 721 694 675 623 657 651 629 639 645 645 651 657 663 651 651 663 663 657 669 618 588 593 598 593 561 549 561 561 557 561 549 557 0 0 0 0 0
    0 0 0 0 0 0 0 0 0 0 0 0 0 0 0 0 0 0 0 0 0 0 0 0 0 0 0 0 0 0 0 0 0 0 0 0 0 0 0 0 0 0 0 0 0 0 0 0 0 0 0 0 0 0 0 0 0 0 0 0 0 0 0 0 0 0 0 0 0 1168 1168 1168 1132 1149 1168 1206 1247 1247 1206 1206 1226 1226 1247 1247 1268 1291 1268 1388 1338 1388 1362 1388 1388 1388 1362 1415 1388 1501 1443 1501 1471 1565 1533 1635 1635 1672 1711 1711 1672 1752 1752 1839 1795 1887 1839 1839 1839 2044 1887 2102 2044 2230 2102 2164 2299 2230 2374 2453 2453 2453 2453 2830 2943 2943 3199 3199 3066 3504 3504 3679 3679 3679 4088 4088 4088 5661 5256 6133 8177 8177 8177 8177 8177 0 0 0 0 0 0 0 0 0 0 0 0 0 0 0 0 0 0 0 0 0 0 0 0 0 0 0 0 0 0 0 0 0 0 0 0 0 0 0 0 0 0 0 0 0 0 0 2102 2230 2230 2164 2102 2102 2164 2230 2102 2044 1989 1936 1887 1839 1711 1672 1533 1599 1501 1565 1565 1471 1565 1533 1471 1533 1471 1471 1362 1362 1338 1291 1268 1268 1226 1206 1206 1226 1168 1187 1149 1132 1066 1082 1082 1051 1066 1066 0 0 1008 1022 994 968 981 955 919 919 981 919 908 897 919 876 855 836 826 826 817 817 826 0 0 0 0 791 750 728 728 714 721 728 721 714 687 669 629 651 651 629 639 639 639 651 651 657 651 651 663 663 663 675 618 593 593 598 593 566 549 561 561 561 566 549 561 0 0 0 0 0
    0 0 0 0 0 0 0 0 0 0 0 0 0 0 0 0 0 0 0 0 0 0 0 0 0 0 0 0 0 0 0 0 0 0 0 0 0 0 0 0 0 0 0 0 0 0 0 0 0 0 0 0 0 0 0 0 0 0 0 0 0 0 0 0 0 0 0 0 0 1168 1187 1187 1149 1132 1149 1206 1226 1206 1168 1187 1206 1226 1247 1247 1268 1291 1268 1362 1338 1362 1362 1362 1362 1362 1362 1415 1415 1501 1443 1501 1471 1565 1533 1635 1635 1672 1711 1711 1672 1752 1752 1795 1795 1887 1839 1839 1839 1989 1887 2044 1989 2044 2044 2102 2230 2164 2299 2453 2374 2374 2453 2725 2943 2943 3066 3199 3066 3504 3504 3679 3679 3679 4088 4329 4088 6133 5256 6133 8177 0 0 0 0 0 0 0 0 0 0 0 0 0 0 0 0 0 0 0 0 0 0 0 0 0 0 0 0 0 0 0 0 0 0 0 0 0 0 0 0 0 0 0 0 0 0 0 0 0 0 0 2164 2299 2230 2164 2102 2102 2164 2230 2102 2044 1989 1936 1887 1839 1752 1672 1533 1599 1533 1533 1565 1471 1533 1533 1471 1533 1471 1471 1388 1362 1362 1291 1268 1268 1226 1187 1206 1226 1168 1187 1168 1149 1066 1115 1115 1066 1082 1082 1051 0 1008 1022 994 968 981 955 919 919 981 919 908 897 908 865 845 836 826 826 817 817 817 0 0 0 766 774 743 728 728 721 728 728 721 714 694 675 634 657 657 629 634 639 639 651 651 657 651 651 663 663 663 675 623 598 593 598 593 570 549 561 561 561 566 549 561 0 0 0 0 0
    0 0 0 0 0 0 0 0 0 0 0 0 0 0 0 0 0 0 0 0 0 0 0 0 0 0 0 0 0 0 0 0 0 0 0 0 0 0 0 0 0 0 0 0 0 0 0 0 0 0 0 0 0 0 0 0 0 0 0 0 0 0 0 0 0 0 0 0 0 1168 1187 1206 1149 1132 1149 1187 1226 1206 1168 1168 1206 1206 1226 1247 1291 1291 1268 1362 1314 1362 1338 1362 1362 1362 1362 1415 1415 1501 1443 1501 1471 1565 1533 1635 1635 1672 1711 1672 1672 1752 1752 1795 1839 1887 1839 1795 1839 1989 1887 1989 1989 1989 1989 2044 2230 2164 2299 2453 2453 2374 2374 2725 2830 2943 3066 3066 3066 3345 3504 3679 3679 3679 4088 4329 4088 6133 5256 6133 8177 0 0 0 0 0 0 0 0 0 0 0 0 0 0 0 0 0 0 0 0 0 0 0 0 0 0 0 0 0 0 0 0 0 0 0 0 0 0 0 0 0 0 0 0 0 0 0 0 0 0 2102 2230 2230 2230 2164 2102 2164 2230 2230 2044 2044 2044 1936 1887 1839 1795 1711 1565 1635 1565 1533 1565 1501 1533 1533 1471 1533 1471 1471 1415 1388 1388 1291 1268 1268 1247 1206 1206 1226 1187 1206 1187 1187 1098 1149 1149 1082 1098 1098 1051 0 0 1022 994 968 968 955 919 919 994 931 919 908 931 886 865 855 836 826 817 817 817 0 0 0 766 774 750 728 728 721 721 721 721 714 694 675 639 663 657 634 639 639 639 651 651 657 651 651 663 669 669 681 623 0 593 598 593 574 549 566 566 561 570 553 561 0 0 0 0 0
    0 0 0 0 0 0 0 0 0 0 0 0 0 0 0 0 0 0 0 0 0 0 0 0 0 0 0 0 0 0 0 0 0 0 0 0 0 0 0 0 0 0 0 0 0 0 0 0 0 0 0 0 0 0 0 0 0 0 0 0 0 0 0 0 0 0 0 0 0 1168 1187 1206 1132 1132 1132 1168 1206 1187 1149 1149 1187 1187 1226 1247 1291 1291 1247 1338 1314 1338 1338 1338 1362 1362 1362 1415 1415 1533 1443 1533 1501 1599 1533 1635 1635 1672 1672 1672 1672 1752 1752 1839 1839 0 1839 1839 1839 1989 1887 1989 1989 2044 2044 2044 2230 2164 2299 2453 2453 2374 2374 2628 2830 2830 2943 2943 2943 3345 3345 3504 3504 3679 4088 4329 4088 6133 5661 5661 8177 0 0 0 0 0 0 0 0 0 0 0 0 0 0 0 0 0 0 0 0 0 0 0 0 0 0 0 0 0 0 0 0 0 0 0 0 0 0 0 0 0 0 0 0 0 0 0 0 0 0 2164 2299 2164 2299 2164 2164 2164 2299 2230 2044 2044 2044 1936 1887 1839 1795 1711 1599 1672 1599 1533 1599 1501 1565 1533 1501 1533 1471 1471 1415 1388 1388 1291 1268 1268 1247 1206 1206 1247 1206 1206 1206 1206 1098 1168 1149 1082 1098 1082 1051 1022 1022 1022 981 968 968 968 931 931 994 931 919 897 919 876 845 845 826 817 808 808 808 799 782 799 758 766 750 728 721 714 721 721 714 714 694 681 657 663 663 639 639 645 639 657 657 657 651 651 663 669 669 681 623 0 593 598 593 579 549 566 566 566 570 553 566 0 0 0 0 0
    0 0 0 0 0 0 0 0 0 0 0 0 0 0 0 0 0 0 0 0 0 0 0 0 0 0 0 0 0 0 0 0 0 0 0 0 0 0 0 0 0 0 0 0 0 0 0 0 0 0 0 0 0 0 0 0 0 0 0 0 0 0 0 0 0 0 0 0 0 1168 1187 1187 1132 1115 1115 1149 1187 1168 1115 1115 1168 1187 1206 1226 1291 1314 1268 1338 1314 1338 1338 1362 1362 1362 1362 1415 1415 1533 1471 1565 1501 1599 1533 1635 1635 1635 1672 1672 1672 1752 1752 1839 1839 1887 1839 1839 1839 1989 1887 2044 1989 2044 2044 2044 2230 2164 2299 2453 2453 2453 2453 2628 2830 2830 2943 3066 3066 3345 3345 3504 3504 3679 4088 4329 4088 6133 5661 5661 8177 0 0 0 0 0 0 0 0 0 0 0 0 0 0 0 0 0 0 0 0 0 0 0 0 0 0 0 0 0 0 0 0 0 0 0 0 0 0 0 0 0 0 0 0 0 0 0 0 0 2102 2230 2299 2164 2230 2164 2230 2230 2299 2230 1989 2102 2044 1936 1887 1839 1795 1752 1635 1711 1635 1533 1599 1501 1565 1533 1501 1533 1471 1471 1443 1388 1415 1291 1291 1268 1247 1226 1226 1247 1206 1226 1226 1226 1098 1168 1149 1082 1082 1082 1051 1022 1022 1022 981 968 968 968 943 943 1008 955 919 897 919 886 855 836 817 808 808 799 808 799 774 782 743 758 743 735 728 714 721 714 714 707 694 681 663 657 663 645 645 651 645 657 657 657 657 651 663 669 669 687 629 0 588 598 593 579 549 566 566 566 570 553 566 0 0 0 0 0
    0 0 0 0 0 0 0 0 0 0 0 0 0 0 0 0 0 0 0 0 0 0 0 0 0 0 0 0 0 0 0 0 0 0 0 0 0 0 0 0 0 0 0 0 0 0 0 0 0 0 0 0 0 0 0 0 0 0 0 0 0 0 0 0 0 0 0 0 0 1168 1187 1187 1115 1098 1098 1132 1187 1149 1098 1098 1132 1149 1168 0 1314 1314 1291 0 1314 1338 1362 1362 1362 1388 1388 1443 1443 1565 1471 1599 1533 1599 1565 1635 1672 1672 1711 1711 1711 1752 1752 1839 1839 1839 1839 1795 1839 1936 1887 1989 1989 1989 2102 2044 2299 2164 2299 2453 2453 2453 2453 2628 2830 2830 2830 2943 2943 3345 3345 3345 3504 3679 3873 4599 4088 6133 5661 5661 8177 0 0 0 0 0 0 0 0 0 0 0 0 0 0 0 0 0 0 0 0 0 0 0 0 0 0 0 0 0 0 0 0 0 0 0 0 0 0 0 0 0 0 0 0 0 0 0 0 0 2164 2299 2230 2164 2230 2164 2230 2299 2299 2230 1989 2044 1989 1936 1887 1839 1795 1795 1711 1752 1672 1565 1635 1501 1565 1565 1501 1501 1471 1471 1471 1388 1415 1291 1291 1291 1268 1226 1226 1247 1206 1226 1226 1226 1082 1168 1149 1082 1066 1066 1051 1008 1022 0 981 968 968 981 955 955 1008 968 919 908 919 908 855 836 808 799 799 791 808 791 774 766 743 750 750 735 728 721 714 714 707 707 694 687 675 657 669 657 645 651 645 657 657 657 663 651 663 669 669 687 629 0 588 598 598 584 553 566 566 566 570 557 566 0 0 0 0 0
    0 0 0 0 0 0 0 0 0 0 0 0 0 0 0 0 0 0 0 0 0 0 0 0 0 0 0 0 0 0 0 0 0 0 0 0 0 0 0 0 0 0 0 0 0 0 0 0 0 0 0 0 0 0 0 0 0 0 0 0 0 0 0 0 0 0 0 0 0 1168 1187 1168 1115 1098 1098 1132 1187 1168 1115 1098 1149 1187 1187 0 1291 1268 1268 1338 1314 1338 1362 1362 1388 1388 1388 1443 1443 1533 1471 1565 1501 1599 1533 1635 1672 1672 1711 1711 1711 1752 1752 1795 1795 1839 1839 1795 1839 1936 1887 1989 1936 1989 2102 2044 2299 2230 2299 2453 2453 2453 2453 2537 2725 2725 2725 2943 2943 3199 3199 3199 3345 3679 3873 4329 4088 6133 6133 6133 8177 0 0 0 0 0 0 0 0 0 0 0 0 0 0 0 0 0 0 0 0 0 0 0 0 0 0 0 0 0 0 0 0 0 0 0 0 0 0 0 0 0 0 0 0 0 0 0 0 0 2230 2374 2164 2164 2230 2164 2230 2299 2230 2164 1936 1989 1936 1887 1839 1795 1795 1752 1711 1752 1711 1565 1635 1501 1565 1565 1501 1501 1471 1471 1501 1415 1415 1314 1314 1314 1291 1247 1226 1247 1206 1226 1226 1206 1066 1149 1149 1082 1051 1051 1036 1008 1022 0 994 0 968 994 981 968 1022 968 919 908 919 919 865 836 817 799 808 791 817 817 791 758 750 758 758 743 728 714 714 714 707 700 694 687 669 657 669 657 645 651 645 657 657 657 663 651 657 669 669 687 629 0 0 598 598 588 553 566 570 566 570 557 566 0 0 0 0 0
    0 0 0 0 0 0 0 0 0 0 0 0 0 0 0 0 0 0 0 0 0 0 0 0 0 0 0 0 0 0 0 0 0 0 0 0 0 0 0 0 0 0 0 0 0 0 0 0 0 0 0 0 0 0 0 0 0 0 0 0 0 0 0 0 0 0 0 0 0 1149 1168 1149 1098 1082 1082 1115 1187 1149 1132 1132 1168 1226 1226 1226 1268 1268 1268 1291 1291 1338 1338 1362 1362 1388 1388 1415 1443 1533 1501 1565 1501 1565 1533 1635 1672 1672 1711 1711 1711 1752 1752 1795 1795 1795 1795 1795 1795 1936 1887 1989 1989 1989 2102 2044 2374 2230 2374 2453 2453 2537 2537 2628 2725 2725 2830 2943 2943 3199 3199 3199 3345 3504 3679 4088 3873 6133 6133 6133 8177 0 0 0 0 0 0 0 0 0 0 0 0 0 0 0 0 0 0 0 0 0 0 0 0 0 0 0 0 0 0 0 0 0 0 0 0 0 0 0 0 0 0 0 0 0 0 0 0 2230 2299 2374 2164 2164 2164 2164 2230 2230 2230 2102 1936 1989 1936 1887 1887 1839 1795 1795 1752 1795 1711 1565 1635 1501 1565 1565 1471 1471 1443 1443 1501 1388 1415 1314 1314 1314 1291 1268 1247 1247 1206 1206 1187 1168 1066 1132 1132 1082 1036 1036 1036 1008 1036 0 994 0 0 1008 994 994 1066 981 931 919 919 943 865 845 836 817 836 808 836 0 791 735 743 750 750 735 728 721 714 714 714 707 694 687 675 663 669 657 645 651 639 657 651 657 663 645 651 669 669 687 629 0 0 593 598 588 553 566 570 566 570 557 566 0 0 0 0 0
    0 0 0 0 0 0 0 0 0 0 0 0 0 0 0 0 0 0 0 0 0 0 0 0 0 0 0 0 0 0 0 0 0 0 0 0 0 0 0 0 0 0 0 0 0 0 0 0 0 0 0 0 0 0 0 0 0 0 0 0 0 0 0 0 0 0 0 0 0 1149 1168 1149 1098 1082 1082 1115 1168 1149 1149 1149 1149 1206 1226 1226 1247 1247 1268 1268 1268 1338 1338 1362 1362 1388 1388 1415 1443 1533 1501 1533 1501 1565 1533 1635 1672 1672 1711 1711 1711 1752 1711 1795 1795 1795 1795 1795 1795 1936 1887 1989 1989 2044 2164 2102 2374 2299 2374 2453 2453 2537 2537 2628 2725 2725 2830 2943 2943 3199 3199 3199 3345 3679 3679 4088 4088 6133 6690 6133 8177 0 0 0 0 0 0 0 0 0 0 0 0 0 0 0 0 0 0 0 0 0 0 0 0 0 0 0 0 0 0 0 0 0 0 0 0 0 0 0 0 0 0 0 0 0 0 0 0 2374 2453 2453 2230 2230 2230 2230 2299 2230 2230 2102 1936 2044 1936 1887 1887 1839 1839 1795 1795 1839 1752 1599 1672 1533 1599 1565 1501 1471 1443 1443 1501 1415 1443 1314 1314 1314 1291 1268 1247 1247 1187 1187 1168 1149 1066 1132 1132 1082 1036 1036 1036 1008 1036 0 994 0 0 1022 1022 1022 1132 994 955 943 943 955 886 855 845 826 845 808 0 817 774 735 735 735 735 735 728 721 721 714 714 707 694 687 675 657 669 663 645 651 645 657 651 657 663 645 645 669 669 681 629 0 0 593 598 588 553 566 570 566 570 557 566 0 0 0 0 0
    0 0 0 0 0 0 0 0 0 0 0 0 0 0 0 0 0 0 0 0 0 0 0 0 0 0 0 0 0 0 0 0 0 0 0 0 0 0 0 0 0 0 0 0 0 0 0 0 0 0 0 0 0 0 0 0 0 0 0 0 0 0 0 0 0 0 0 0 0 1132 1149 1132 1082 1082 1082 1115 1187 1149 1168 1168 1132 1226 1226 1226 1247 1247 1268 1268 1268 1338 1338 1362 1362 1388 1388 1415 1443 1533 1501 1533 1501 1565 1533 1635 1672 1672 1711 1711 1711 1752 1752 1795 1795 1795 1795 1795 1795 1936 1887 1989 1989 2044 2230 2164 2453 2374 2374 2537 2453 2537 2628 2628 2725 2725 2830 2943 3066 3199 3345 3345 3345 3679 3873 4088 4088 6133 7359 6690 8177 0 0 0 0 0 0 0 0 0 0 0 0 0 0 0 0 0 0 0 0 0 0 0 0 0 0 0 0 0 0 0 0 0 0 0 0 0 0 0 0 0 0 0 0 0 0 0 2374 2453 2537 2453 2299 2299 2299 2299 2299 2230 2230 2044 1989 2044 1989 1936 1887 1887 1839 1839 1839 1887 1795 1599 1672 1533 1599 1565 1501 1471 1471 1443 1533 1415 1471 1338 1338 1338 1314 1268 1247 1226 1168 1168 1168 1149 1066 1115 1132 1082 1036 1036 1022 1008 1036 0 994 0 981 1036 1036 1051 1168 1008 981 968 968 981 919 886 876 855 855 808 808 808 791 743 735 735 743 735 728 728 721 714 707 700 694 687 681 657 669 669 651 657 645 657 651 657 669 639 645 669 669 681 634 0 0 593 598 588 553 566 566 566 566 557 561 0 0 0 0 0
    0 0 0 0 0 0 0 0 0 0 0 0 0 0 0 0 0 0 0 0 0 0 0 0 0 0 0 0 0 0 0 0 0 0 0 0 0 0 0 0 0 0 0 0 0 0 0 0 0 0 0 0 0 0 0 0 0 0 0 0 0 0 0 0 0 0 0 0 0 1115 1168 1132 1098 1082 1082 1132 1206 1149 1206 1187 1132 1226 1226 1226 1247 1247 1268 1291 1291 1338 1338 1362 1362 1388 1388 1415 1443 1501 1501 1533 1501 1565 1533 1635 1711 1672 1711 1752 1752 1795 1795 1839 1839 1795 1839 0 1839 1936 1887 1989 2044 2044 2164 2164 2453 2374 2374 2453 2453 2537 2628 2628 2725 2628 2830 2943 3066 3199 3199 3199 3345 3679 3873 4088 4329 6133 8177 7359 0 0 0 0 0 0 0 0 0 0 0 0 0 0 0 0 0 0 0 0 0 0 0 0 0 0 0 0 0 0 0 0 0 0 0 0 0 0 0 0 0 0 0 0 0 0 0 0 2628 2725 2725 2537 2453 2374 2374 2299 2299 2299 2230 2044 1989 2044 1989 1936 1936 1887 1887 1887 1887 1936 1839 1635 1711 1533 1599 1565 1501 1471 1471 1443 1501 1415 1471 1338 1362 1338 1314 1268 1268 1226 1168 1168 1168 1149 1051 1115 1132 1082 1036 1022 1022 1008 1036 1051 1008 994 994 1066 1066 1082 1206 1022 1008 994 981 981 931 897 886 855 855 817 817 817 782 743 743 743 743 743 728 721 721 721 707 700 694 687 681 663 675 669 657 657 651 657 657 657 669 639 639 669 669 675 639 0 0 598 598 588 553 561 566 566 566 557 557 0 0 0 0 0
    0 0 0 0 0 0 0 0 0 0 0 0 0 0 0 0 0 0 0 0 0 0 0 0 0 0 0 0 0 0 0 0 0 0 0 0 0 0 0 0 0 0 0 0 0 0 0 0 0 0 0 0 0 0 0 0 0 0 0 0 0 0 0 0 0 0 0 0 0 1115 1168 1149 1115 1115 1115 1168 1226 1168 1206 1206 1149 1226 1247 1226 1247 1247 1291 1291 1291 1362 1362 1362 1388 1388 1388 1415 1443 1501 1501 1533 1471 1565 1533 1635 1711 1672 1711 1752 1752 1795 1795 1839 1839 1839 1839 1839 1839 1989 1936 2044 2044 2044 2164 2102 2453 2374 2299 2453 2453 2453 2628 2628 2725 2628 2830 3066 3066 3066 3199 3199 3345 3679 3873 4088 4329 6133 8177 8177 0 0 0 0 0 0 0 0 0 0 0 0 0 0 0 0 0 0 0 0 0 0 0 0 0 0 0 0 0 0 0 0 0 0 0 0 0 0 0 0 0 0 0 0 0 0 0 2943 2725 2830 2830 2725 2537 2537 2453 2374 2374 2374 2230 2044 2044 2044 1989 1936 1936 1887 1887 1887 1936 1936 1839 1672 1711 1533 1635 1533 1501 1471 1443 1443 1501 1415 1471 1362 1362 1338 1314 1291 1268 1226 1168 1168 1168 1132 1051 1115 1132 1082 1022 1022 1022 1022 1051 1066 1008 1008 1008 1098 1082 1098 1226 1036 1022 994 994 994 919 886 876 845 845 817 808 791 774 750 743 743 743 743 728 728 721 721 707 700 700 694 687 669 681 675 663 657 657 657 657 657 669 639 639 663 675 675 651 0 0 598 598 588 553 561 561 561 561 553 553 0 0 0 0 0
    0 0 0 0 0 0 0 0 0 0 0 0 0 0 0 0 0 0 0 0 0 0 0 0 0 0 0 0 0 0 0 0 0 0 0 0 0 0 0 0 0 0 0 0 0 0 0 0 0 0 0 0 0 0 0 0 0 0 0 0 0 0 0 0 0 0 0 0 0 1132 1168 1149 1132 1132 1132 1187 1247 1168 1226 1226 1168 1226 1247 1247 1268 1268 1291 1314 1314 1388 1362 1388 1388 1388 1388 1415 1443 1501 1501 1533 1501 1565 1533 1635 1711 1672 1711 1752 1752 1795 1795 1839 1839 1839 1887 1887 1887 1989 1936 2044 2044 2044 2164 2102 2374 2374 2299 2453 2453 2453 2537 2537 2628 2628 2830 3066 3066 3199 3345 3199 3345 3679 3873 4088 4329 6133 0 0 0 0 0 0 0 0 0 0 0 0 0 0 0 0 0 0 0 0 0 0 0 0 0 0 0 0 0 0 0 0 0 0 0 0 0 0 0 0 0 0 0 0 0 0 0 0 0 2830 2725 2725 2830 2725 2537 2537 2537 2453 2374 2374 2299 2044 2044 2044 1989 1989 1936 1887 1887 1887 1936 1936 1839 1635 1672 1533 1599 1501 1443 1443 1443 1443 1501 1415 1443 1362 1388 1362 1314 1291 1268 1226 1168 1149 1149 1115 1051 1115 1115 1082 1022 1022 1022 1022 1051 1082 1008 1008 1008 1098 1098 1098 1247 1036 1036 1008 994 994 931 908 886 855 845 808 799 791 774 758 750 743 743 743 735 728 721 714 707 700 694 694 687 669 681 675 663 657 657 651 651 657 669 634 645 663 675 669 663 623 0 598 598 588 553 557 561 561 561 553 549 0 0 0 0 0
    0 0 0 0 0 0 0 0 0 0 0 0 0 0 0 0 0 0 0 0 0 0 0 0 0 0 0 0 0 0 0 0 0 0 0 0 0 0 0 0 0 0 0 0 0 0 0 0 0 0 0 0 0 0 0 0 0 0 0 0 0 0 0 0 0 0 0 0 0 1132 1168 1132 1132 1132 1132 1206 1247 1149 1226 1226 1168 1226 1247 1247 1268 1268 1314 1314 1314 1388 1388 1388 1388 1415 1388 1415 1443 1501 1533 1533 1501 1565 1565 1599 1711 1672 1711 1711 1752 1795 1795 1795 1839 1839 1887 1887 1887 1989 1936 1989 2044 2044 2164 2102 2374 2374 2299 2453 2374 2453 2537 2537 2628 2628 2830 2943 2943 2943 3199 3066 3066 3345 3679 3873 4329 6690 0 0 0 0 0 0 0 0 0 0 0 0 0 0 0 0 0 0 0 0 0 0 0 0 0 0 0 0 0 0 0 0 0 0 0 0 0 0 0 0 0 0 0 0 0 0 0 0 0 2943 2943 2830 2943 2830 2628 2628 2628 2453 2453 2299 2299 2102 2044 2044 1989 1989 1989 1887 1936 1936 1989 1989 1887 1672 1711 1565 1635 1501 1443 1443 1443 1443 1471 1388 1443 1388 1415 1388 1314 1291 1268 1226 1168 1132 1115 1098 1051 1115 1115 1082 1022 1036 1036 1022 1051 1082 1022 1022 1022 1098 1082 1098 1226 1036 1022 981 968 968 897 886 876 845 826 808 799 791 774 766 750 750 743 743 735 728 721 721 714 700 700 700 687 675 681 681 669 651 657 657 657 657 669 634 645 657 675 669 669 623 0 598 598 588 553 553 557 557 557 553 545 0 0 0 0 0
    0 0 0 0 0 0 0 0 0 0 0 0 0 0 0 0 0 0 0 0 0 0 0 0 0 0 0 0 0 0 0 0 0 0 0 0 0 0 0 0 0 0 0 0 0 0 0 0 0 0 0 0 0 0 0 0 0 0 0 0 0 0 0 0 0 0 0 0 0 1132 1168 1132 1132 1132 1132 1226 1268 1149 1226 1226 1187 1226 1247 1247 1268 1268 1314 1314 1338 1388 1388 1388 1388 1415 1415 1415 1471 1501 1533 1533 1501 1533 1533 1599 1711 1672 1711 1672 1711 1795 1795 1839 1887 1887 1887 1887 1887 1989 1936 1989 2044 2044 2102 2102 2299 2374 2299 2374 2374 2374 2537 2537 2628 2628 2830 2943 2943 2943 3066 3066 3066 3199 3504 3679 4329 0 0 0 0 0 0 0 0 0 0 0 0 0 0 0 0 0 0 0 0 0 0 0 0 0 0 0 0 0 0 0 0 0 0 0 0 0 0 0 0 0 0 0 0 0 0 0 0 0 3066 2943 2943 2943 2943 2830 2725 2725 2725 2537 2453 2299 2230 2044 2044 2102 2044 2044 1989 1887 1936 1936 2044 1989 1887 1635 1711 1565 1635 1471 1415 1443 1415 1415 1471 1388 1443 1388 1415 1388 1338 1314 1268 1247 1168 1132 1098 1098 1051 1115 1115 1082 1036 1051 1051 1036 1066 1082 1022 1022 1022 1098 1066 1066 1226 1022 994 943 943 943 876 876 855 836 826 808 799 791 774 766 750 750 743 743 728 728 721 721 714 707 700 700 694 681 687 681 669 651 657 657 657 657 663 634 645 651 675 663 669 623 0 598 598 588 553 553 557 557 557 553 541 0 0 0 0 0
    0 0 0 0 0 0 0 0 0 0 0 0 0 0 0 0 0 0 0 0 0 0 0 0 0 0 0 0 0 0 0 0 0 0 0 0 0 0 0 0 0 0 0 0 0 0 0 0 0 0 0 0 0 0 0 0 0 0 0 0 0 0 0 0 0 0 0 0 0 1132 1187 1132 1132 1132 1149 1226 1247 1149 1226 1226 1187 1226 1247 1268 1268 1268 1314 1338 1338 1388 1388 1388 1388 1415 1415 1415 1471 1501 1533 1533 1533 1533 1533 1599 1711 1635 1711 1672 1711 1795 1795 1839 1887 1887 1887 1936 1887 2044 1989 2044 2044 2044 2102 2102 2299 2374 2230 2374 2374 2299 2537 2537 2725 2628 2830 2943 3066 2943 3199 3066 3066 3199 3679 3873 4906 0 0 0 0 0 0 0 0 0 0 0 0 0 0 0 0 0 0 0 0 0 0 0 0 0 0 0 0 0 0 0 0 0 0 0 0 0 0 0 0 0 0 0 0 0 0 0 0 0 2943 2943 2943 2943 2943 2943 2830 2830 2830 2628 2374 2299 2230 2044 2102 2102 2102 2044 1989 1887 1989 2044 2230 2164 1887 1711 1752 1599 1635 1471 1415 1443 1415 1415 1471 1388 1415 1388 1415 1388 1338 1314 1291 1247 1168 1149 1132 1115 1051 1115 1115 1082 1036 1066 1051 1036 1051 1082 1022 1022 1022 1082 1051 1051 1149 1008 943 908 919 908 865 855 845 836 817 808 799 782 774 766 758 750 743 743 735 728 721 728 721 707 700 700 700 681 687 681 675 651 663 657 657 657 669 639 645 651 675 657 663 623 0 598 598 588 553 553 557 557 557 549 537 0 0 0 0 0
    0 0 0 0 0 0 0 0 0 0 0 0 0 0 0 0 0 0 0 0 0 0 0 0 0 0 0 0 0 0 0 0 0 0 0 0 0 0 0 0 0 0 0 0 0 0 0 0 0 0 0 0 0 0 0 0 0 0 0 0 0 0 0 0 0 0 0 0 0 1149 1187 1149 1168 1168 1168 1226 1247 1149 1226 1226 1187 1206 1247 1268 1268 1268 1338 1338 1338 1415 1388 1388 1388 1415 1415 1388 1471 1471 1533 1533 1533 1533 1533 1565 1711 1635 1672 1672 1711 1795 1839 1839 1887 1887 1887 1936 1887 2044 1936 2044 2044 2044 2102 2044 2299 2299 2230 2374 2374 2230 2453 2537 2628 2537 2830 2943 2943 2943 3199 3066 3066 3066 3679 3873 5256 0 0 0 0 0 0 0 0 0 0 0 0 0 0 0 0 0 0 0 0 0 0 0 0 0 0 0 0 0 0 0 0 0 0 0 0 0 0 0 0 0 0 0 0 0 0 0 0 0 3066 3199 3066 2943 2943 2943 2830 2725 2725 2537 2374 2299 2230 2044 2102 2164 2102 1989 1936 1839 1989 2102 2299 2164 1887 1711 1752 1635 1635 1471 1415 1443 1415 1415 1471 1388 1443 1415 1443 1415 1338 1314 1291 1247 1187 1168 1168 1149 1066 1115 1115 1082 1036 1066 1066 1051 1051 1066 1022 1022 1022 1066 1022 1022 1022 994 919 897 897 876 845 836 836 826 808 808 791 782 782 774 766 750 743 750 743 735 728 728 721 714 707 700 694 681 687 681 675 657 663 657 657 657 669 639 651 651 675 657 669 618 588 598 598 588 553 553 557 557 557 549 533 0 0 0 0 0
    0 0 0 0 0 0 0 0 0 0 0 0 0 0 0 0 0 0 0 0 0 0 0 0 0 0 0 0 0 0 0 0 0 0 0 0 0 0 0 0 0 0 0 0 0 0 0 0 0 0 0 0 0 0 0 0 0 0 0 0 0 0 0 0 0 0 0 0 0 1149 1187 1168 1187 1187 1168 1226 1226 1149 1226 1226 1187 1206 1247 1268 1268 1291 1338 1362 1362 1415 1415 1415 1415 1415 1415 1388 1471 1471 1533 1533 1533 1533 1533 1533 1672 1635 1635 1635 1672 1752 1839 1839 1887 1887 1936 1936 1936 2044 1989 2044 2044 2044 2044 2044 2230 2299 2230 2374 2299 2230 2453 2453 2628 2537 2725 2830 2943 2830 3066 2943 2943 2943 3679 3873 4906 0 0 0 0 0 0 0 0 0 0 0 0 0 0 0 0 0 0 0 0 0 0 0 0 0 0 0 0 0 0 0 0 0 0 0 0 0 0 0 0 0 0 0 0 0 0 0 0 225 3066 3066 3066 2830 2830 2943 2725 2628 2628 2453 2374 2299 2164 2044 2044 2164 2044 1989 1936 1839 1989 2164 2299 2230 1887 1752 1752 1635 1635 1471 1388 1443 1415 1415 1471 1388 1415 1415 1415 1415 1314 1314 1291 1247 1206 1187 1187 1149 1051 1098 1098 1066 1036 1066 1066 1051 1051 1066 1022 1022 0 1051 994 994 994 994 908 886 865 865 836 836 826 817 799 799 791 782 782 774 766 758 750 758 743 743 735 735 728 714 700 707 700 687 694 687 681 657 669 657 663 657 669 645 651 651 675 657 669 618 588 603 603 588 557 549 557 553 553 549 529 0 0 0 0 0
    0 0 0 0 0 0 0 0 0 0 0 0 0 0 0 0 0 0 0 0 0 0 0 0 0 0 0 0 0 0 0 0 0 0 0 0 0 0 0 0 0 0 0 0 0 0 0 0 0 0 0 0 0 0 0 0 0 0 0 0 0 0 0 0 0 0 0 0 0 1132 1168 1149 1187 1187 1149 1206 1206 1149 1206 1206 1187 1187 1247 1247 1268 1291 1338 1362 1362 1415 1443 1443 1443 1443 1443 1415 1471 1501 1533 1533 1501 1501 1533 1533 1635 1599 1599 1565 1635 1711 1795 1795 1887 1887 1936 1936 1936 2044 1989 2044 2102 2044 2102 2044 2230 2230 2230 2374 2299 2230 2453 2537 2725 2628 2830 2943 2943 2830 3066 2943 2943 2943 3504 3679 4599 0 0 0 0 0 0 0 0 0 0 0 0 0 0 0 0 0 0 0 0 0 0 0 0 0 0 0 0 0 0 0 0 0 0 0 0 0 0 0 0 0 0 0 0 0 0 0 0 225 3199 3199 3066 2830 2943 2943 2628 2628 2628 2453 2374 2299 2164 2044 2044 2164 1989 1989 1936 1839 2044 2102 2164 2102 1887 1795 1752 1672 1635 1501 1415 1443 1415 1415 1471 1388 1415 1415 1388 1415 1314 1338 1291 1247 1226 1187 1187 1149 1051 1082 1082 1066 1022 1066 1066 1051 0 1051 1022 1022 0 1022 981 968 968 968 876 876 865 865 836 826 817 817 799 808 791 782 782 774 774 766 750 758 743 743 735 743 728 721 707 707 700 694 694 687 681 657 669 663 663 663 669 645 651 651 675 657 663 618 588 598 598 593 557 549 557 553 553 549 529 0 0 0 0 0
    0 0 0 0 0 0 0 0 0 0 0 0 0 0 0 0 0 0 0 0 0 0 0 0 0 0 0 0 0 0 0 0 0 0 0 0 0 0 0 0 0 0 0 0 0 0 0 0 0 0 0 0 0 0 0 0 0 0 0 0 0 0 0 0 0 0 0 0 0 1132 1149 1149 1168 1168 1132 1206 1187 1132 1206 1206 1187 1187 1226 1247 1268 1291 1338 1362 1362 1443 1501 1533 1501 1501 1501 1415 1533 1501 1533 1533 1533 1501 1533 1533 1635 1599 1599 1565 1635 1672 1752 1795 1887 1887 1887 1936 1936 2044 1989 2102 2102 2044 2102 2102 2230 2230 2230 2374 2374 2230 2453 2537 2725 2628 2830 2943 2943 2830 2943 2943 2943 2830 3679 3873 4599 0 0 0 0 0 0 0 0 0 0 0 0 0 0 0 0 0 0 0 0 0 0 0 0 0 0 0 0 0 0 0 0 0 0 0 0 0 0 0 0 0 0 0 0 0 0 0 0 225 3199 3199 3066 2830 2830 2943 2537 2537 2537 2453 2374 2230 2164 2044 2044 2230 1989 1989 1936 1839 2044 2102 2102 2044 1887 1795 1752 1672 1599 1533 1415 1443 1415 1415 1471 1388 1388 1415 1388 1415 1338 1338 1291 1268 1226 1187 1187 1149 1051 1066 1066 1051 1036 1066 1082 1051 0 1036 1022 1022 106 0 968 943 931 968 876 876 865 865 836 826 817 808 799 799 782 782 782 774 774 766 750 758 750 758 743 743 728 721 700 707 700 687 694 687 681 657 669 663 663 663 669 651 651 651 669 657 669 618 588 598 598 593 561 549 557 557 557 553 533 0 0 0 0 0
    0 0 0 0 0 0 0 0 0 0 0 0 0 0 0 0 0 0 0 0 0 0 0 0 0 0 0 0 0 0 0 0 0 0 0 0 0 0 0 0 0 0 0 0 0 0 0 0 0 0 0 0 0 0 0 0 0 0 0 0 0 0 0 0 0 0 0 0 0 1132 1132 1132 1149 1168 1115 1187 1149 1115 1187 1187 1187 1149 1206 1226 1247 1268 1338 1338 1362 1415 1533 1565 1565 1599 1599 1471 1565 1533 1565 1533 1533 1501 1533 1533 1635 1599 1599 1599 1635 1672 1752 1795 1839 1887 1887 1936 1936 2044 1989 2102 2164 2102 2164 2102 2299 2299 2299 2374 2453 2299 2453 2537 2725 2725 2943 2943 2943 2943 3066 3066 3066 2943 0 4329 5256 0 0 0 0 0 0 0 0 0 0 0 0 0 0 0 0 0 0 0 0 0 0 0 0 0 0 0 0 0 0 0 0 0 0 0 0 0 0 0 0 0 0 0 0 0 0 0 0 0 3199 3199 3066 2830 2830 2830 2537 2537 2537 2453 2453 2230 2230 2102 2044 2299 1936 1989 1936 1887 2102 2102 2044 1989 1887 1795 1752 1672 1599 1533 1415 1443 1443 1415 1443 1362 1388 1415 1362 1415 1338 1338 1314 1268 1226 1168 1168 1132 1051 1066 1066 1051 1036 1082 1098 1051 0 1036 1022 1008 106 994 955 919 919 955 876 876 876 865 845 826 826 817 799 799 791 782 782 782 774 766 750 758 758 766 750 750 735 721 700 700 694 687 687 687 681 657 669 663 669 663 669 651 651 651 669 657 669 618 593 598 598 593 566 549 561 557 557 553 537 0 0 0 0 0
    0 0 0 0 0 0 0 0 0 0 0 0 0 0 0 0 0 0 0 0 0 0 0 0 0 0 0 0 0 0 0 0 0 0 0 0 0 0 0 0 0 0 0 0 0 0 0 0 0 0 0 0 0 0 0 0 0 0 0 0 0 0 0 0 0 0 0 0 0 1115 1132 1132 1149 1168 1115 1168 1149 1132 1187 1187 1187 1149 1187 1206 1226 1247 1314 1314 1338 1388 1565 1599 1635 1672 1672 1533 1599 1565 1565 1533 1565 1501 1533 1533 1635 1599 1635 1599 1672 1672 1752 1795 1839 1839 1887 1936 1936 2044 1989 2102 2164 2102 2164 2164 2299 2299 2299 2374 2453 2299 2453 2537 2725 2725 2943 2830 2943 2830 3066 3066 3066 2943 0 4599 6133 0 0 0 0 0 0 0 0 0 0 0 0 0 0 0 0 0 0 0 0 0 0 0 0 0 0 0 0 0 0 0 0 0 0 0 0 0 0 0 0 0 0 0 0 0 0 0 3345 3345 3345 3345 3066 2830 2830 2830 2453 2537 2537 2453 2374 2230 2230 2102 2044 2299 1936 1936 1936 1887 2102 2044 1989 1936 1887 1752 1752 1711 1599 1565 1443 1443 1443 1415 1471 1388 1388 1415 1362 1388 1338 1338 1314 1291 1226 1149 1168 1115 1051 1051 1066 1051 1036 1082 1098 1051 0 1022 1022 0 0 981 955 908 908 943 876 876 876 855 836 826 817 808 799 799 791 791 791 782 782 774 766 774 766 774 758 758 750 735 700 700 694 687 694 687 681 657 669 663 669 669 663 651 651 651 669 651 663 618 598 603 603 598 574 549 566 561 561 557 541 0 0 0 0 0
    0 0 0 0 0 0 0 0 0 0 0 0 0 0 0 0 0 0 0 0 0 0 0 0 0 0 0 0 0 0 0 0 0 0 0 0 0 0 0 0 0 0 0 0 0 0 0 0 0 0 0 0 0 0 0 0 0 0 0 0 0 0 0 0 0 0 0 0 0 1115 1115 1132 1149 1187 1115 1168 1149 1132 1187 1187 1187 1149 1187 1206 1206 1247 1291 1291 1314 1338 1565 1599 1635 1672 1672 1533 1599 1565 1565 1501 1533 1501 1533 1533 1635 1599 1635 1635 1672 1711 1752 1795 1839 1839 1839 1887 1936 2044 1989 2102 2164 2102 2164 2164 2299 2230 2299 2374 2453 2374 2453 2537 2725 2725 2943 2830 3066 3066 3199 3345 3345 3199 4906 5256 6133 0 0 0 0 0 0 0 0 0 0 0 0 0 0 0 0 0 0 0 0 0 0 0 0 0 0 0 0 0 0 0 0 0 0 0 0 0 0 0 0 0 0 0 0 0 0 3345 3345 3345 3345 3345 3066 2830 2830 2830 2374 2537 2537 2453 2374 2164 2230 2102 2044 2299 1887 1936 1936 1887 2102 2044 1936 1887 1839 1752 1752 1711 1599 1565 1471 1471 1471 1415 1443 1388 1362 1415 1338 1338 1338 1338 1314 1291 1226 1132 1168 1115 1066 1036 1066 1066 1051 1082 1098 1051 0 1022 1022 994 968 968 943 908 908 943 876 876 876 865 836 826 817 808 808 808 799 799 799 791 799 791 782 774 774 782 774 774 750 728 694 700 694 687 694 687 687 657 669 669 669 669 669 651 651 651 669 651 663 613 598 603 603 598 584 549 570 566 566 566 545 0 0 0 0 0
    0 0 0 0 0 0 0 0 0 0 0 0 0 0 0 0 0 0 0 0 0 0 0 0 0 0 0 0 0 0 0 0 0 0 0 0 0 0 0 0 0 0 0 0 0 0 0 0 0 0 0 0 0 0 0 0 0 0 0 0 0 0 0 0 0 0 0 0 0 1115 1115 1132 1149 1187 1132 1187 1168 1149 1206 1206 1187 1149 1187 1206 1206 1247 1268 1268 1291 1291 1533 1599 1599 1672 1672 1565 1599 1599 1565 1471 1533 1501 1533 1533 1635 1599 1635 1635 1711 1711 1795 1795 1839 1839 1839 1887 1936 2044 1989 2102 2164 2164 2230 2164 2299 2299 2374 2374 2453 2374 2453 2537 2725 2628 2943 2830 3066 3199 3345 3504 3504 3345 5256 5661 6133 0 0 0 0 0 0 0 0 0 0 0 0 0 0 0 0 0 0 0 0 0 0 0 0 0 0 0 0 0 0 0 0 0 0 0 0 0 0 0 0 0 0 0 0 0 0 3504 3679 3504 3345 3345 3066 2830 2830 2830 2374 2537 2537 2453 2453 2230 2299 2164 2102 2374 1887 1989 1989 1936 2164 1989 1936 1887 1839 1752 1752 1711 1565 1599 1471 1471 1443 1415 1443 1388 1362 1388 1314 1314 1338 1338 1338 1314 1247 1132 1168 1132 1066 1036 1066 1066 1051 1066 1082 1051 0 1008 0 981 968 968 943 908 908 943 886 876 876 865 836 826 817 808 808 808 799 799 799 799 799 791 791 774 782 791 782 774 743 714 694 700 694 687 694 687 687 663 675 669 675 675 669 657 651 651 675 657 669 618 603 603 603 603 588 553 574 570 570 570 549 0 0 0 0 0
    0 0 0 0 0 0 0 0 0 0 0 0 0 0 0 0 0 0 0 0 0 0 0 0 0 0 0 0 0 0 0 0 0 0 0 0 0 0 0 0 0 0 0 0 0 0 0 0 0 0 0 0 0 0 0 0 0 0 0 0 0 0 0 0 0 0 0 0 0 1098 1115 1132 1149 1187 1132 1187 1168 1168 1206 1206 1206 1149 1187 1206 1206 1247 1268 1247 1268 1291 1501 1565 1599 1635 1599 1565 1599 1599 1565 1471 1533 1501 1533 1533 1599 1599 1599 1635 1711 1711 1795 1839 1887 1887 1887 1887 1936 2044 1989 2102 2230 2164 2299 2230 2374 2299 2453 2374 2537 2453 2537 2537 2725 2725 3066 2830 3066 3199 3345 3504 3504 3504 4906 5661 5661 0 0 0 0 0 0 0 0 0 0 0 0 0 0 0 0 0 0 0 0 0 0 0 0 0 0 0 0 0 0 0 0 0 0 0 0 0 0 0 0 0 0 0 0 0 3504 3679 3873 3679 3504 3345 3066 2943 2830 2725 2299 2453 2453 2453 2453 2230 2299 2230 2164 2374 1989 2044 2044 1989 2164 1989 1936 1887 1839 1752 1711 1711 1565 1599 1501 1443 1443 1415 1443 1388 1362 1388 1314 1291 1362 1338 1338 1338 1268 1098 1149 1098 1066 1022 1066 1066 1051 1066 1066 1036 994 1008 0 968 955 955 943 908 908 955 886 876 876 865 836 826 817 808 799 808 799 799 808 799 799 799 799 782 791 799 782 766 728 714 0 700 694 694 694 694 694 669 681 675 675 675 675 657 651 651 675 663 675 618 608 603 603 603 593 553 574 574 574 570 553 0 0 0 0 0
    0 0 0 0 0 0 0 0 0 0 0 0 0 0 0 0 0 0 0 0 0 0 0 0 0 0 0 0 0 0 0 0 0 0 0 0 0 0 0 0 0 0 0 0 0 0 0 0 0 0 0 0 0 0 0 0 0 0 0 0 0 0 0 0 0 0 0 0 0 1082 1098 1115 1115 1187 1115 1187 1168 1168 1226 1206 1206 1149 1187 1206 1206 1247 1268 1247 1247 1268 1471 1565 1565 1599 1565 1599 1599 1599 1599 1471 1533 1533 1533 1533 1599 1599 1599 1635 1711 1711 1795 1839 1887 1887 1887 1936 1936 2044 2044 2164 2299 2230 2299 2230 2374 2299 2453 2374 2537 2453 2537 2537 2725 2725 3066 2830 3066 3199 3504 3679 3679 3504 4906 5661 5661 0 0 0 0 0 0 0 0 0 0 0 0 0 0 0 0 0 0 0 0 0 0 0 0 0 0 0 0 0 0 0 0 0 0 0 0 0 0 0 0 0 0 0 0 0 3679 4088 4088 3679 3504 3345 3199 2943 2943 2725 2299 2537 2453 2453 2453 2230 2374 2230 2230 2374 2044 2164 2102 2044 2230 1989 1936 1887 1839 1711 1711 1672 1565 1599 1533 1443 1443 1415 1443 1388 1362 1415 1314 1291 1388 1362 1338 1362 1268 1066 1115 1082 1051 1022 1066 1066 1051 1051 1066 1036 994 994 1008 968 943 943 943 908 908 955 876 876 886 865 845 826 826 817 808 808 808 808 808 808 808 808 808 782 782 782 758 743 728 714 694 707 700 700 700 700 700 675 681 681 681 681 675 663 657 657 681 669 675 623 613 603 608 608 598 553 574 574 574 574 557 0 0 0 0 0
    0 0 0 0 0 0 0 0 0 0 0 0 0 0 0 0 0 0 0 0 0 0 0 0 0 0 0 0 0 0 0 0 0 0 0 0 0 0 0 0 0 0 0 0 0 0 0 0 0 0 0 0 0 0 0 0 0 0 0 0 0 0 0 0 0 0 0 0 0 1082 1082 1115 1098 1168 1115 1187 1168 1168 1226 1226 1226 1168 1187 1206 1226 1247 1268 1247 1268 1268 1443 1533 1501 1565 1533 1565 1599 1599 1599 1471 1565 1533 1533 1565 1599 1599 1599 1635 1711 1752 1795 1839 1936 1936 1936 1989 1989 2102 2102 2164 2299 2230 2299 2230 2374 2299 2453 2374 2537 2453 2537 2628 2830 2725 3066 2830 3199 3199 3504 3679 3679 3679 4906 6133 6133 0 0 0 0 0 0 0 0 0 0 0 0 0 0 0 0 0 0 0 0 0 0 0 0 0 0 0 0 0 0 0 0 0 0 0 0 0 0 0 0 0 0 0 0 5661 4329 4906 4329 3873 3504 3199 3199 3066 2943 2725 2453 2537 2453 2537 2537 2230 2374 2299 2230 2374 2102 2230 2164 2102 2230 1936 1936 1887 1795 1672 1672 1635 1533 1599 1533 1443 1471 1415 1443 1388 1362 1415 1314 1314 1443 1388 1362 1388 1268 1066 1115 1082 1066 1022 1098 1082 1066 1051 1066 1036 994 1008 1008 968 943 943 955 919 908 955 876 876 886 865 845 836 826 817 817 826 817 808 808 817 817 817 817 766 766 774 750 735 728 714 700 714 700 0 707 707 707 681 687 0 687 687 681 669 657 657 687 675 675 618 613 603 603 608 598 557 579 574 574 579 557 0 0 0 0 0
    0 0 0 0 0 0 0 0 0 0 0 0 0 0 0 0 0 0 0 0 0 0 0 0 0 0 0 0 0 0 0 0 0 0 0 0 0 0 0 0 0 0 0 0 0 0 0 0 0 0 0 0 0 0 0 0 0 0 0 0 0 0 0 0 0 0 0 0 0 1082 1082 1115 1098 1168 1115 1187 1168 1168 1226 1247 1247 1187 1206 1226 1226 1247 1291 1247 1268 1291 1415 1501 1471 1565 1501 1565 1635 1599 1599 1471 1565 1565 1533 1565 1635 1599 1599 1635 1752 1752 1839 1887 1936 1936 1936 1989 1936 2044 2044 2102 2230 2164 2230 2164 2374 2299 2453 2374 2537 2537 2628 2628 2830 2725 2943 2830 3199 3345 3504 3679 3873 3679 4906 6133 5661 0 0 0 0 0 0 0 0 0 0 0 0 0 0 0 0 0 0 0 0 0 0 0 0 0 0 0 0 0 0 0 0 0 0 0 0 0 0 0 0 0 0 0 0 5661 4906 4906 4329 3679 3345 3066 3066 2943 2830 2628 2374 2537 2453 2537 2537 2230 2374 2299 2230 2374 2164 2299 2102 2102 2299 1989 1936 1936 1795 1635 1672 1672 1533 1599 1533 1443 1471 1443 1471 1415 1388 1443 1338 1338 1471 1362 1362 1388 1268 1082 1132 1098 1082 1036 1115 1115 1066 1051 1051 1036 994 1008 1008 968 943 943 955 919 919 955 886 886 897 876 845 836 826 817 817 817 817 808 808 817 808 817 808 758 766 766 750 735 728 721 707 714 0 0 0 0 0 0 0 0 0 700 694 675 663 663 687 675 675 623 613 603 603 608 603 557 579 579 579 579 561 0 0 0 0 0
    0 0 0 0 0 0 0 0 0 0 0 0 0 0 0 0 0 0 0 0 0 0 0 0 0 0 0 0 0 0 0 0 0 0 0 0 0 0 0 0 0 0 0 0 0 0 0 0 0 0 0 0 0 0 0 0 0 0 0 0 0 0 0 0 0 0 0 0 0 1082 1082 1098 1098 1168 1098 1168 1168 1168 1247 1247 1247 1206 1226 1226 1247 1247 1291 1268 1268 1291 1388 1443 1443 1533 1471 1533 1599 1565 1599 1471 1565 1565 1533 1565 1635 1599 1599 1635 1752 1795 1839 1887 1989 1936 1936 1989 1936 2044 2044 2102 2164 2102 2230 2164 2374 2299 2537 2374 2628 2537 2628 2628 2830 2725 2943 2830 3199 3345 3504 3679 3679 3504 4599 5661 5256 7359 8177 0 0 0 0 0 0 0 0 0 0 0 0 0 0 0 0 0 0 0 0 0 0 0 0 0 0 0 0 8177 8177 8177 8177 8177 7359 7359 8177 0 0 0 0 0 0 5661 0 4906 4088 3504 3199 2830 3066 2725 2628 2453 2374 2453 2374 2453 2537 2230 2374 2374 2230 2374 2164 2299 2102 2102 2299 1989 1936 1989 1795 1635 1711 1711 1533 1599 1565 1443 1471 1471 0 1415 1388 1471 1338 1362 1533 1362 1362 1388 1268 1082 1098 1082 1082 1036 1115 1115 1082 1051 1051 1022 994 994 994 955 931 931 955 919 931 955 897 897 919 876 865 855 826 826 817 817 826 808 817 817 799 817 799 750 766 766 743 735 721 721 707 714 0 0 0 0 0 0 0 0 0 735 700 687 669 669 694 681 669 623 613 598 603 603 603 557 579 579 579 579 561 0 0 0 0 0
    0 0 0 0 0 0 0 0 0 0 0 0 0 0 0 0 0 0 0 0 0 0 0 0 0 0 0 0 0 0 0 0 0 0 0 0 0 0 0 0 0 0 0 0 0 0 0 0 0 0 0 0 0 0 0 0 0 0 0 0 0 0 0 0 0 0 0 0 0 1066 1082 1098 1082 1168 1098 1187 1206 1206 1268 1268 1268 1226 1247 1247 1247 1268 1291 1291 1314 1314 1388 1443 1443 1501 1443 1533 1599 1565 1565 1471 1533 1533 1533 1565 1599 1599 1599 1635 1752 1795 1887 1936 1989 1989 1989 1989 1989 2044 2102 2102 2164 2102 2230 2164 2374 2299 2537 2453 2628 2537 2628 2628 2830 2830 2943 2830 3199 3345 3504 3679 3679 3504 4329 5256 4906 6133 7359 0 0 0 0 0 0 0 0 0 0 0 0 0 0 0 0 0 0 0 0 0 0 0 0 0 0 0 0 0 8177 8177 8177 8177 7359 7359 8177 0 0 0 0 0 0 5661 0 4906 4329 3504 3199 2725 2830 2628 2453 2374 2299 2453 2299 2374 2453 2164 2299 2299 2102 2299 2164 2299 2102 2102 2299 1989 1936 2044 1795 1635 1711 1752 1565 1635 1565 1471 1501 1501 0 1443 1415 1501 1362 1388 1565 1362 1362 1388 1268 1066 1082 1082 1066 1036 1115 1115 1082 1036 1036 1008 994 994 994 955 931 931 955 919 943 955 897 897 919 876 865 865 817 817 817 817 817 808 817 817 799 817 799 758 774 774 750 735 721 721 714 721 0 0 0 0 0 0 0 0 0 766 714 687 675 669 694 687 657 623 618 598 603 603 603 557 579 579 579 579 561 0 0 0 0 0
    0 0 0 0 0 0 0 0 0 0 0 0 0 0 0 0 0 0 0 0 0 0 0 0 0 0 0 0 0 0 0 0 0 0 0 0 0 0 0 0 0 0 0 0 0 0 0 0 0 0 0 0 0 0 0 0 0 0 0 0 0 0 0 0 0 0 0 0 0 1066 1066 1082 1082 1149 1098 1149 1206 1226 1268 1268 1268 1247 1247 1268 1268 1268 1314 1291 1338 1362 1415 1471 1443 1501 1443 1501 1565 1533 1533 1443 1533 1533 1501 1565 1599 1565 1599 1635 1752 1795 1839 1887 1989 1989 1989 1989 1989 2044 2102 2102 2230 2102 2230 2164 2374 2299 2628 2453 2628 2628 2725 2725 2830 2830 0 0 3199 3345 3504 3504 3679 3504 4088 4906 4329 4906 6133 8177 0 0 0 0 0 0 0 0 0 0 0 0 0 0 0 0 0 0 0 0 0 0 0 0 0 0 0 0 8177 8177 0 8177 8177 7359 8177 0 0 0 0 0 6690 0 0 4599 4088 3345 3199 2725 2830 2628 2374 2374 2374 2374 2299 2299 2453 2164 2299 2299 2164 2299 2230 2374 2164 2164 2299 2044 1989 2102 1795 1635 1711 1752 1565 1599 1565 1471 1533 1501 0 1471 1443 1533 1388 1415 1599 1388 1362 1362 1291 1098 1115 1098 1082 1036 1115 1115 1082 1036 1036 1008 994 994 994 955 931 931 968 931 955 968 919 931 931 919 886 886 826 836 826 817 817 808 808 808 799 817 791 758 774 791 758 735 721 0 0 721 0 0 0 0 0 0 0 0 0 0 721 687 675 675 694 687 657 629 618 598 603 603 603 557 579 574 574 579 561 0 0 0 0 0
    0 0 0 0 0 0 0 0 0 0 0 0 0 0 0 0 0 0 0 0 0 0 0 0 0 0 0 0 0 0 0 0 0 0 0 0 0 0 0 0 0 0 0 0 0 0 0 0 0 0 0 0 0 0 0 0 0 0 0 0 0 0 0 0 0 0 0 0 0 1066 1066 1066 1066 1132 1098 1132 1187 1226 1268 1268 1291 1247 1268 1268 1268 1291 1314 1314 1338 1362 1415 1471 1443 1501 1443 1501 1565 1533 1565 1443 1533 1533 1533 1565 1599 1599 1599 1635 1752 1795 1887 1936 1989 1989 1989 1989 1989 2102 2102 2102 2230 2102 2230 2164 2374 2374 2725 2537 2628 2628 2725 2725 2943 2943 0 0 3199 3504 3504 3504 3679 3504 3873 4906 4088 4599 5661 7359 8177 0 0 0 0 0 0 0 0 0 0 0 0 0 0 0 0 0 0 0 0 0 0 0 0 0 0 0 0 0 0 0 8177 8177 0 0 0 0 0 0 6133 0 0 4329 3679 3199 3066 2537 2725 2628 2374 2374 2374 2453 2299 2299 2453 2164 2299 2374 2164 2230 2230 2374 2230 2164 2299 2044 1989 2164 1839 1672 1711 1752 1565 1599 1565 1471 1533 1533 0 1501 1471 1565 1415 1443 1599 1362 1338 1338 1291 1168 1149 1132 1098 1036 1132 1132 1082 1036 1036 0 994 994 0 955 943 943 968 943 968 968 943 955 943 919 908 897 826 836 826 817 808 799 808 808 799 817 791 766 782 799 758 743 728 0 0 0 0 0 0 0 0 0 0 0 0 0 728 694 675 675 687 687 651 623 613 588 598 603 598 557 574 574 574 574 561 0 0 0 0 0
    0 0 0 0 0 0 0 0 0 0 0 0 0 0 0 0 0 0 0 0 0 0 0 0 0 0 0 0 0 0 0 0 0 0 0 0 0 0 0 0 0 0 0 0 0 0 0 0 0 0 0 0 0 0 0 0 0 0 0 0 0 0 0 0 0 0 0 0 0 1051 1066 1066 1066 1115 1115 1132 1206 1247 1268 1268 1268 1247 1268 1268 1268 1291 1314 1314 1362 1388 1443 1501 1471 1533 1443 1533 1565 1565 1565 1443 1533 1533 1533 1599 1599 1599 1599 1635 1752 1795 1839 1887 1989 1989 1989 1989 1989 2102 2102 2102 2230 2102 2164 2164 2299 2374 2628 2537 2628 2628 2725 2725 2943 2943 0 0 3345 3504 3504 3504 3679 3679 4088 4906 4329 4329 5256 6690 7359 0 7359 7359 7359 0 0 0 0 0 0 0 0 0 0 0 0 0 0 0 0 0 0 0 0 0 0 0 0 0 0 0 0 0 0 0 0 0 0 0 6133 0 0 3873 3504 3066 3066 2453 2725 2628 2299 2374 2453 2453 2299 2299 2453 2164 2230 2374 2164 2230 2230 2374 2230 2164 2230 2102 1989 2044 1839 1672 1672 1711 1533 1599 1565 1471 1565 1533 1565 1533 1471 1599 1443 1443 1599 1338 1338 1314 1291 1168 1168 1132 1132 1051 1132 1132 1098 1051 1051 0 0 0 0 968 943 955 968 943 968 955 943 955 955 931 919 908 836 836 826 817 808 808 808 808 799 817 791 766 791 808 766 750 0 0 0 0 0 0 0 0 0 0 0 0 0 0 728 694 675 669 675 687 634 618 613 579 598 598 598 557 570 570 570 570 561 0 0 0 0 0
    0 0 0 0 0 0 0 0 0 0 0 0 0 0 0 0 0 0 0 0 0 0 0 0 0 0 0 0 0 0 0 0 0 0 0 0 0 0 0 0 0 0 0 0 0 0 0 0 0 0 0 0 0 0 0 0 0 0 0 0 0 0 0 0 0 0 0 0 0 1051 1051 1066 1082 1115 1132 1132 1206 1247 1247 1268 1268 1247 1247 1268 1268 1291 1314 1338 1388 1415 1443 1501 1471 1533 1471 1533 1565 1565 1565 1471 1533 1533 1533 1599 1599 1599 1599 1635 1752 1752 1839 1887 1989 1989 1989 1989 1989 2102 2102 2102 2164 2102 2102 2102 2299 2299 2628 2537 2628 2628 2725 2725 2943 2943 0 2943 3345 3345 3504 3504 3679 3679 4088 5256 4599 4088 5256 6133 6690 7359 6690 6133 6133 0 0 0 0 0 0 0 0 0 0 0 0 0 0 0 0 0 0 0 0 0 0 0 0 0 0 0 0 0 0 0 0 0 0 6690 6690 0 0 3873 3504 3199 3199 2628 2943 2830 2453 2537 2453 2537 2374 2299 2453 2164 2164 2374 2102 2164 2164 2299 2164 2102 2164 2044 1936 1989 1795 1711 1672 1711 1533 1599 1565 1471 1565 1565 1565 1565 1501 1599 1471 1443 1599 1338 1314 1291 1268 1149 1132 1098 1098 1051 1115 1115 1082 1036 1051 0 0 0 0 968 955 968 968 955 981 955 943 955 955 931 919 919 845 836 826 817 817 808 817 808 799 817 791 758 0 817 774 0 0 0 0 0 0 0 0 0 0 0 0 0 0 0 728 687 669 663 669 687 623 613 608 574 593 593 593 557 570 570 570 570 561 0 0 0 0 0
    0 0 0 0 0 0 0 0 0 0 0 0 0 0 0 0 0 0 0 0 0 0 0 0 0 0 0 0 0 0 0 0 0 0 0 0 0 0 0 0 0 0 0 0 0 0 0 0 0 0 0 0 0 0 0 0 0 0 0 0 0 0 0 0 0 0 0 0 0 1066 1066 1066 1082 1115 1132 1149 1187 1226 1247 1247 1247 1247 1247 1268 1247 1268 1291 1362 1415 1443 1443 1501 1471 1533 1471 1565 1599 1565 1599 1471 1533 1533 1533 1599 1599 1599 1599 1635 1752 1752 1839 1887 1989 1989 1989 1936 1989 2044 2102 2102 2102 2102 2164 2102 2299 2374 2628 2537 2628 2628 2725 2725 2943 2943 2943 2943 3199 3345 3345 3345 3679 3679 4088 4906 4906 3873 4906 5661 6133 6690 5661 5661 5661 5661 0 0 0 0 0 0 0 0 0 0 0 0 0 0 0 0 0 0 0 0 0 0 0 0 0 0 0 0 0 0 0 0 7359 6133 6133 4088 4088 3679 3504 3199 3199 2725 2830 2725 2453 2537 2453 2537 2374 2299 2453 2230 2164 2453 2102 2102 2102 2164 2102 2102 2164 2044 1936 1936 1795 1752 1635 1711 1533 1599 1565 1471 1565 1565 1565 1565 1501 1599 1471 1443 1565 1314 1291 1268 1247 1149 1115 1098 1098 1051 1115 1115 1098 1051 1066 0 0 0 0 981 981 981 981 968 981 955 943 955 955 931 919 931 855 845 826 817 817 808 817 808 0 817 791 758 0 0 0 0 0 0 0 0 0 0 0 0 0 0 0 0 0 0 721 687 663 657 657 687 618 613 608 574 593 593 593 557 566 570 570 570 561 0 0 0 0 0
    0 0 0 0 0 0 0 0 0 0 0 0 0 0 0 0 0 0 0 0 0 0 0 0 0 0 0 0 0 0 0 0 0 0 0 0 0 0 0 0 0 0 0 0 0 0 0 0 0 0 0 0 0 0 0 0 0 0 0 0 0 0 0 0 0 0 0 0 0 1066 1082 1082 1082 1098 1132 1149 1168 1206 1226 1247 1226 1247 1247 1247 1247 1268 1291 1338 1415 1443 1443 1501 1471 1533 1443 1565 1599 1599 1599 1471 1533 1533 1533 1599 1599 1599 1635 1635 1752 1752 1839 1887 1989 1989 1989 1936 1936 2044 2164 2164 2164 2102 2164 2102 2299 2374 2628 2453 2628 2628 2725 2725 2943 2943 2943 2943 3199 3345 3504 3345 3679 3873 4329 4906 4906 3873 4599 5256 6133 6133 4906 4906 4906 4906 0 0 0 0 0 0 0 0 0 0 0 0 0 0 0 0 0 0 0 8177 0 0 0 0 0 8177 8177 8177 0 7359 7359 6690 5661 5661 5661 4088 4088 3873 3679 3345 3199 2830 2830 2725 2453 2537 2537 2537 2453 2374 2453 2299 2230 2537 2164 2102 2102 2164 2102 2102 2102 2044 1887 1887 1795 1795 1635 1711 1533 1599 1565 1471 1565 1565 1565 1565 1501 1599 1471 1443 1533 1291 1268 1247 1226 1149 1098 1098 1098 1066 1115 1115 1098 1051 1066 0 1051 1036 0 994 994 994 981 968 981 955 955 968 955 943 919 943 865 855 836 817 817 808 817 808 0 808 791 0 0 0 0 0 0 0 0 0 0 0 0 270 0 0 0 0 0 0 714 687 663 651 651 687 613 613 613 574 593 593 598 561 566 570 570 570 561 0 0 0 0 0
    0 0 0 0 0 0 0 0 0 0 0 0 0 0 0 0 0 0 0 0 0 0 0 0 0 0 0 0 0 0 0 0 0 0 0 0 0 0 0 0 0 0 0 0 0 0 0 0 0 0 0 0 0 0 0 0 0 0 0 0 0 0 0 0 0 0 0 0 0 1066 1066 1082 1082 1098 1132 1168 1149 1187 1226 1226 1226 1247 1247 1247 1247 1268 1268 1314 1388 1415 1388 1415 1415 1471 1415 1501 1533 1533 1565 1471 1533 1533 1533 1599 1599 1599 1635 1672 1752 1752 1839 1887 1989 1989 1989 1936 1936 2044 2164 2230 2230 2164 2230 2102 2374 2374 2628 2453 2628 2628 2725 2725 2943 2830 2943 2943 3199 3345 3504 3345 3504 3873 4329 4599 4906 3873 4599 5256 5661 6133 4599 4599 4599 4599 0 0 0 0 0 0 0 0 0 0 0 0 4906 6133 6133 8177 0 0 8177 7359 0 0 0 0 0 8177 8177 0 0 7359 7359 5661 5256 5256 5256 3873 4329 3873 3679 3504 3345 3066 2943 2830 2628 2628 2537 2537 2537 2453 2537 2374 2230 2537 2230 2102 2102 2102 2102 2044 2044 1989 1839 1839 1752 1752 1565 1672 1501 1565 1565 1471 1565 1565 1533 1565 1471 1565 1443 1415 1471 1291 1268 1247 1226 1132 1098 1098 1098 1066 1098 1098 1098 1051 1082 0 1051 1051 1051 0 0 1022 0 981 994 968 955 968 955 943 931 943 876 855 836 826 817 817 817 817 0 808 799 0 0 0 0 0 0 0 0 0 0 0 0 271 0 0 669 0 0 0 700 681 657 651 651 687 613 613 613 574 593 593 593 566 561 566 566 570 561 0 0 0 0 0
    0 0 0 0 0 0 0 0 0 0 0 0 0 0 0 0 0 0 0 0 0 0 0 0 0 0 0 0 0 0 0 0 0 0 0 0 0 0 0 0 0 0 0 0 0 0 0 0 0 0 0 0 0 0 0 0 0 0 0 0 0 0 0 0 0 0 0 0 0 1066 1066 1082 1082 1082 1132 1187 1132 1187 1226 1226 1226 1247 1247 1247 1247 1268 1268 1314 1388 1388 1362 1388 1388 1415 1388 1443 1471 1501 1533 1471 1533 1565 1533 1599 1599 1599 1635 1672 1752 1752 1839 1887 1989 1989 2044 1936 1936 2044 2230 2299 2299 2230 2299 2102 2374 2374 2628 2453 2628 2537 2628 2725 2943 2943 2943 2943 3199 3199 3504 3345 3504 4088 4329 4599 4906 4088 4906 5256 5661 6133 4599 4599 4599 4599 0 0 0 0 0 0 0 0 0 0 0 6690 5661 8177 8177 0 0 0 0 8177 0 0 0 0 0 8177 8177 0 0 8177 7359 5256 5256 6133 6133 4088 4329 3873 3873 3679 3504 3199 3066 3066 2830 2725 2628 2628 2628 2537 2537 2453 2299 2537 2374 2102 2102 2044 2102 2044 2044 1989 1839 1795 1752 1752 1501 1635 1501 1565 1533 1443 1565 1533 1501 1533 1471 1533 1415 1388 1443 1291 1268 1247 1226 1149 1098 1098 1098 1066 1098 1082 1082 1051 1082 1051 1066 1066 1066 0 1036 1036 0 994 1008 968 968 981 955 943 931 943 886 855 845 826 817 817 817 817 0 817 799 0 0 0 0 0 0 0 0 0 0 0 0 272 0 0 657 687 687 0 694 675 651 645 645 687 613 618 613 579 593 598 598 566 557 566 566 566 561 0 0 0 0 0
    0 0 0 0 0 0 0 0 0 0 0 0 0 0 0 0 0 0 0 0 0 0 0 0 0 0 0 0 0 0 0 0 0 0 0 0 0 0 0 0 0 0 0 0 0 0 0 0 0 0 0 0 0 0 0 0 0 0 0 0 0 0 0 0 0 0 0 0 0 1066 1066 1066 1082 1082 1115 1187 1098 1149 1206 1226 1226 1247 1247 1247 1247 1268 1291 1314 1388 1388 1362 1362 1362 1388 1362 1415 1443 1471 1501 1471 1533 1565 1565 1599 1599 1599 1635 1635 1711 1711 1795 1887 1989 1989 2044 1936 1936 2044 2164 2299 2374 2164 2230 2102 2374 2374 2537 2453 2628 2537 2628 2628 2943 2943 3066 2943 3199 3199 3504 3345 3504 4088 4329 4599 4906 4329 5256 5256 5661 6133 4599 4599 4599 4599 0 0 0 0 0 0 0 0 0 0 0 8177 6133 7359 7359 8177 0 0 7359 6690 8177 8177 8177 8177 7359 7359 7359 0 0 8177 8177 5256 5661 6133 5661 4088 4599 3873 3873 3679 3504 3199 3199 3199 2943 2725 2725 2725 2628 2725 2628 2537 2374 2537 2453 2164 2102 2044 2102 2044 1989 1936 1795 1752 1752 1752 1443 1599 1471 1533 1533 1443 1533 1501 1471 1533 1443 1501 1415 1388 1443 1291 1268 1247 1226 1132 1098 1115 1098 1066 1082 1082 1082 1051 1082 1051 1082 1066 1082 1051 1066 1051 1051 1008 1008 981 968 981 955 943 931 943 886 855 845 826 817 817 817 817 0 808 799 0 0 968 0 0 0 0 0 0 0 250 0 271 0 0 651 681 687 687 687 675 651 645 645 687 618 623 613 574 593 593 598 566 553 566 566 566 566 0 0 0 0 0</data></depth>
</opencv_storage>
