<?xml version="1.0"?>
<opencv_storage>
<gps_time_stamp>321371</gps_time_stamp>
<gps_x>-1.2431496620178223e+001</gps_x>
<gps_y>1.0710286140441895e+001</gps_y>
<gps_z>-1.9917579889297485e+000</gps_z>
<image_time_stamp>312260</image_time_stamp>
<depth type_id="opencv-matrix">
  <rows>82</rows>
  <cols>320</cols>
  <dt>s</dt>
  <data>
    0 0 0 0 0 0 0 0 0 0 0 0 0 0 0 0 0 0 0 0 0 0 0 0 0 0 0 0 0 0 0 0 0 0 0 0 0 0 0 0 0 0 0 0 0 0 0 0 0 0 0 0 0 0 0 0 0 0 0 0 0 0 0 0 0 0 0 0 0 1672 1672 1635 1672 1672 1752 1635 1565 1415 1388 1443 1415 1415 1362 1388 1443 1471 1501 1501 1471 1443 1415 1471 1471 1291 1268 1291 1247 1226 1291 1338 1388 1388 1388 1415 1415 1443 1565 1599 1599 1599 1471 1599 1599 1599 1635 1533 1533 1533 1533 0 0 0 0 0 0 0 4329 4599 4906 5256 5661 5661 4088 4599 5256 4088 3679 3199 5256 3873 4329 5256 4599 5256 5661 6690 6133 5661 6690 5661 5661 5661 6133 5661 6133 6133 6690 7359 7359 6690 7359 6690 7359 7359 6690 5661 4906 5661 5661 4906 5661 4906 5256 5256 5256 6133 5256 5661 6690 6133 6690 4906 3679 3873 3679 3679 3345 3345 3345 3345 3199 3345 2230 1672 1672 1672 1635 1565 1501 1471 1388 1338 1314 1247 1226 1226 1098 1132 1098 1051 1066 1098 1082 1066 1066 1115 1066 1051 1098 1082 994 968 955 955 908 855 0 799 774 774 758 750 743 743 743 735 0 782 766 750 0 826 728 663 681 663 629 645 629 613 0 0 77 603 593 598 584 574 588 574 574 570 574 579 545 541 537 529 500 507 507 504 497 500 504 0 490 487 490 490 487 0 0 0 111 111 0 457 0 98 0 0 0 440 440 443 0 0 451 459 0 0 0 1082 0 0 0 350 345 343 0 687 0 0 681 0 0 0 0 0
    0 0 0 0 0 0 0 0 0 0 0 0 0 0 0 0 0 0 0 0 0 0 0 0 0 0 0 0 0 0 0 0 0 0 0 0 0 0 0 0 0 0 0 0 0 0 0 0 0 0 0 0 0 0 0 0 0 0 0 0 0 0 0 0 0 0 0 0 0 1635 1635 1599 1635 1635 1711 1635 1565 1415 1415 1443 1443 1415 1362 1388 1443 1471 1471 1443 1443 1415 1415 1443 1443 1291 1168 0 1268 1206 1291 1338 1362 1362 1362 1388 1388 1415 1565 1599 1599 1599 1471 1635 1635 1635 1672 1599 1565 1565 1565 0 0 0 0 0 0 3679 6690 6133 6690 6690 7359 7359 5661 6690 6690 4599 4088 3504 5661 3873 4599 5661 4906 4906 5256 6133 5661 5661 6690 5661 5661 5661 6133 6133 5661 6133 6133 6690 7359 6690 6690 6133 7359 7359 6690 6133 4906 5661 5661 5256 5661 5256 5256 5661 5661 6690 6133 6690 7359 7359 8177 5661 4088 4599 3679 3679 3345 3199 3345 3345 3345 3504 1989 1599 1635 1635 1635 1565 1501 1471 1415 1338 1291 1247 1206 1206 1082 1115 1082 1051 1066 1098 1082 1066 1066 1115 1082 1066 1115 1082 1008 994 981 981 943 876 876 817 782 782 774 758 750 750 0 0 0 0 0 836 855 845 743 657 675 663 629 645 629 618 0 618 0 608 593 598 584 574 588 574 574 574 570 584 545 541 537 533 504 504 504 500 493 497 500 0 487 487 490 490 487 0 0 0 0 0 0 459 0 98 98 0 0 0 440 0 443 0 448 459 481 0 1247 994 908 855 0 0 345 0 0 707 0 0 681 0 0 0 0 0
    0 0 0 0 0 0 0 0 0 0 0 0 0 0 0 0 0 0 0 0 0 0 0 0 0 0 0 0 0 0 0 0 0 0 0 0 0 0 0 0 0 0 0 0 0 0 0 0 0 0 0 0 0 0 0 0 0 0 0 0 0 0 0 0 0 0 0 0 0 1635 1565 1533 1635 1635 1711 1672 1599 1501 1471 1565 1533 1443 1388 1388 1471 1471 1471 1443 1415 1388 1388 1415 1415 1247 0 0 0 0 0 0 0 0 1362 1443 1443 1471 1635 1711 1711 1635 1501 1672 1635 1635 1672 1599 1565 1565 1565 0 0 0 0 0 3504 6690 7359 8177 8177 8177 0 0 0 0 0 0 5661 0 0 4906 5661 6690 5256 5661 5256 6690 5661 5661 6690 5661 5661 5661 6133 6133 6133 6133 6133 6690 6690 6690 6690 6133 7359 6690 6690 6133 4906 5661 5661 5256 5661 5256 5661 5661 5661 6690 6690 7359 8177 8177 0 6690 4329 4906 3873 3873 3504 3199 3345 3504 3504 3679 0 1599 1635 1635 1599 1533 1471 1443 1415 1338 1291 1247 1226 1226 1098 1115 1098 1051 1082 1098 1082 1066 1066 1098 1098 1066 1132 1082 1008 1008 994 994 955 897 886 836 799 799 782 766 758 758 0 0 0 0 0 855 876 845 758 0 675 663 629 651 634 618 0 618 623 608 593 598 584 574 588 574 574 574 570 584 549 541 537 533 504 500 500 500 493 493 500 0 0 484 490 487 484 0 0 0 0 0 0 459 0 98 98 0 0 0 440 0 443 0 448 459 481 0 1132 968 886 865 836 0 0 0 728 714 0 0 687 0 0 0 0 0
    0 0 0 0 0 0 0 0 0 0 0 0 0 0 0 0 0 0 0 0 0 0 0 0 0 0 0 0 0 0 0 0 0 0 0 0 0 0 0 0 0 0 0 0 0 0 0 0 0 0 0 0 0 0 0 0 0 0 0 0 0 0 0 0 0 0 0 0 0 1635 1565 1599 1711 1752 1795 1752 1752 1672 1635 1752 1711 1565 1388 1388 1471 1501 1533 1533 1443 1388 1388 1415 1501 0 0 0 0 0 0 0 0 0 0 0 2044 0 0 1989 1887 1752 1565 1672 1635 1635 1672 1599 1565 1533 0 0 0 0 0 4088 4088 8177 8177 0 0 0 0 0 0 0 0 0 6133 0 0 6133 7359 7359 5661 6690 5256 6690 6133 5661 6690 5661 5661 6133 6133 6133 6690 6690 6133 6690 7359 6690 6690 6133 7359 7359 7359 6690 5256 5661 6133 5661 6133 5256 5256 5661 6133 7359 6690 6690 7359 8177 0 6133 4329 5256 5256 5256 4088 3345 3679 3679 3873 4088 0 1635 1635 1599 1565 1501 1443 1415 1388 1338 1268 1268 1247 1247 1132 1115 1115 1066 1082 1098 1082 1066 1066 1098 1098 1066 0 1082 1022 1008 994 1008 955 886 865 836 808 808 791 782 774 782 0 0 0 0 0 0 876 845 758 0 657 663 623 651 634 618 0 618 623 613 598 598 584 574 588 574 574 574 570 588 549 541 537 529 504 497 500 497 493 490 500 0 487 487 490 484 484 0 0 0 0 0 0 459 448 98 98 0 0 0 443 0 446 0 446 457 477 0 1066 968 876 865 836 0 0 766 743 728 721 0 700 0 0 0 0 0
    0 0 0 0 0 0 0 0 0 0 0 0 0 0 0 0 0 0 0 0 0 0 0 0 0 0 0 0 0 0 0 0 0 0 0 0 0 0 0 0 0 0 0 0 0 0 0 0 0 0 0 0 0 0 0 0 0 0 0 0 0 0 0 0 0 0 0 0 0 1635 1635 1672 1795 1795 1839 1839 1795 1795 1795 1936 1936 1795 1672 1599 1635 1672 1672 1752 1635 1443 1415 0 0 0 0 4599 4329 3679 0 8177 7359 8177 8177 5256 4088 0 0 3504 2453 1795 1635 1711 1711 1711 1711 1672 1599 1599 0 0 0 0 0 4906 5661 7359 8177 0 0 0 0 0 0 0 0 0 6133 0 0 6690 7359 8177 6690 6690 6133 7359 6133 6133 7359 6133 6133 6133 6690 6690 7359 7359 7359 7359 7359 7359 7359 6690 7359 8177 7359 6690 5661 6133 6133 6133 6133 5256 5661 5661 6133 6690 6690 6690 7359 8177 0 6690 5256 5661 6133 6133 4906 3679 4088 3679 3873 4088 0 1672 1635 1599 1565 1501 1471 1443 1415 1338 1291 1268 1268 1268 1168 1115 1132 1066 1098 1098 1066 1066 1066 1082 1098 1066 0 1051 1008 1008 981 1008 943 876 845 826 808 808 799 791 782 782 0 0 0 0 0 0 855 0 743 0 639 651 623 651 634 618 0 0 618 613 593 598 584 574 588 574 574 574 574 588 553 545 537 529 507 493 500 497 493 490 500 490 490 487 490 484 484 0 0 0 110 110 110 459 448 0 97 0 0 0 443 0 446 0 446 454 474 0 0 955 876 865 845 826 808 782 758 735 735 0 707 0 0 0 0 0
    0 0 0 0 0 0 0 0 0 0 0 0 0 0 0 0 0 0 0 0 0 0 0 0 0 0 0 0 0 0 0 0 0 0 0 0 0 0 0 0 0 0 0 0 0 0 0 0 0 0 0 0 0 0 0 0 0 0 0 0 0 0 0 0 0 0 0 0 0 1565 1565 1635 1711 1752 1795 1752 1752 1711 1752 1887 0 0 0 0 0 0 0 0 0 0 0 0 0 0 0 6690 6133 5661 0 0 0 0 0 0 0 0 0 6690 3066 1989 1752 0 1839 0 3679 3345 0 0 0 0 0 6690 6133 5661 6133 7359 8177 0 0 0 0 0 0 0 0 0 6690 0 0 8177 0 8177 7359 8177 7359 8177 6133 6690 6690 6690 6690 6690 7359 6690 6690 7359 7359 7359 7359 7359 6690 6133 7359 7359 6690 6133 5256 5661 5661 6133 5661 5256 5661 5661 6133 6690 6690 6690 6690 7359 8177 6690 5256 5661 6133 6133 4906 4088 4599 3679 3679 3679 0 1711 1672 1635 1599 1533 1471 1471 1443 1362 1314 1268 1268 1268 1187 1098 1132 1066 1098 1082 1066 1051 1051 1066 1082 1066 0 1022 1022 994 981 1008 919 865 836 826 808 817 808 799 791 782 0 0 0 0 0 0 0 0 721 629 629 645 623 645 629 618 0 0 618 613 593 598 584 570 588 574 574 574 570 588 553 545 537 533 511 493 500 497 493 490 500 490 490 490 490 484 484 0 0 109 110 110 110 462 451 0 0 307 0 0 443 0 0 0 0 0 468 0 0 943 865 865 845 826 817 782 758 743 743 0 0 0 0 0 0 0
    0 0 0 0 0 0 0 0 0 0 0 0 0 0 0 0 0 0 0 0 0 0 0 0 0 0 0 0 0 0 0 0 0 0 0 0 0 0 0 0 0 0 0 0 0 0 0 0 0 0 0 0 0 0 0 0 0 0 0 0 0 0 0 0 0 0 0 0 0 1533 1533 1599 1711 1752 1795 1752 1752 1711 0 0 0 0 0 0 0 0 0 0 0 0 0 0 0 0 0 7359 7359 7359 0 0 0 0 0 0 0 0 0 0 4599 3199 0 4599 4906 6133 6133 5256 5256 0 0 0 0 8177 6690 6133 6690 7359 8177 8177 8177 8177 0 0 0 0 0 0 7359 0 0 0 0 8177 8177 0 8177 0 6690 7359 7359 7359 7359 6690 7359 6690 6690 7359 6690 7359 6690 7359 6690 6133 7359 7359 6690 6133 5661 6133 6133 6133 6133 5661 5661 5661 6133 6690 6690 6690 6690 7359 8177 6690 6133 6690 6690 6690 5661 4906 5256 3679 3345 3199 0 1711 1672 1672 1599 1533 1471 1443 1443 1388 1291 1268 1291 1291 1206 1098 1132 1066 1082 1066 1051 1051 1036 1051 1066 1036 0 1008 1008 968 955 1008 876 855 826 817 808 817 808 799 0 782 0 0 0 0 0 663 681 0 707 634 629 645 623 639 629 613 613 0 613 613 588 593 584 570 588 574 570 574 570 588 553 545 537 533 518 493 504 500 497 490 500 493 493 490 490 484 484 0 0 0 0 110 110 462 454 0 0 307 0 0 446 0 0 0 0 0 0 0 0 955 876 865 845 0 0 799 774 0 0 224 0 0 0 0 0 0
    0 0 0 0 0 0 0 0 0 0 0 0 0 0 0 0 0 0 0 0 0 0 0 0 0 0 0 0 0 0 0 0 0 0 0 0 0 0 0 0 0 0 0 0 0 0 0 0 0 0 0 0 0 0 0 0 0 0 0 0 0 0 0 0 0 0 0 0 0 1471 1501 1533 1635 1672 1752 1711 1752 0 0 0 0 0 0 0 0 0 0 0 0 0 0 0 0 0 7359 6133 6690 7359 0 0 0 0 0 0 0 0 0 0 7359 7359 0 8177 8177 8177 8177 7359 8177 0 0 0 0 0 7359 6690 7359 7359 8177 8177 8177 8177 8177 8177 0 0 8177 8177 7359 8177 8177 0 0 0 0 0 0 0 7359 7359 7359 7359 7359 7359 7359 7359 7359 8177 7359 7359 6690 7359 6690 6133 7359 7359 6690 6133 5661 6133 6133 6133 5661 5256 5661 5661 5661 6133 6133 6133 6690 6690 7359 6690 6133 6690 6690 6690 5661 5256 5256 3873 3504 3066 1752 1711 1672 1672 1599 1501 1471 1415 1415 1362 1291 1291 1291 1291 1226 1098 1149 1082 1082 1066 1051 1036 1022 1036 1051 1008 0 981 994 908 876 955 836 845 826 817 817 817 808 808 0 791 0 0 0 0 663 657 669 694 681 645 629 651 623 639 629 613 613 613 613 613 588 593 584 570 588 574 570 570 570 588 553 545 537 533 518 493 507 504 500 493 504 497 497 493 0 481 481 0 0 0 0 0 0 462 454 0 304 0 0 0 446 0 0 0 0 0 0 0 0 0 886 876 855 0 0 0 0 0 0 224 223 0 0 0 0 0
    0 0 0 0 0 0 0 0 0 0 0 0 0 0 0 0 0 0 0 0 0 0 0 0 0 0 0 0 0 0 0 0 0 0 0 0 0 0 0 0 0 0 0 0 0 0 0 0 0 0 0 0 0 0 0 0 0 0 0 0 0 0 0 0 0 0 0 0 0 1415 1443 1471 1533 1565 1672 1599 0 0 0 0 0 0 0 0 0 0 0 0 0 0 0 0 8177 0 7359 5661 6133 6690 0 0 0 0 0 0 0 0 0 0 0 0 0 0 0 0 0 0 0 0 0 0 0 0 8177 7359 7359 7359 8177 8177 8177 8177 7359 8177 0 0 8177 8177 8177 8177 8177 0 0 0 0 0 8177 7359 6690 6690 6133 6133 6133 6133 6690 6690 6690 7359 6690 7359 6690 6690 6690 6133 6690 6690 6690 6133 5661 5661 5661 6133 5256 4906 5661 5256 5661 6133 6133 6133 6133 6133 7359 6133 6133 6690 6690 6690 6133 5661 5661 4088 3679 3066 1752 1752 1711 1672 1599 1501 1471 1443 1415 1362 1291 1268 1291 1291 1247 1115 1187 1098 1098 1051 1051 1036 1008 0 0 994 994 968 981 886 865 908 836 845 826 826 817 826 817 826 0 0 0 0 0 669 663 663 669 687 675 651 634 657 629 634 623 613 613 613 613 608 588 588 584 574 588 574 570 570 570 588 557 545 541 533 521 497 511 507 504 493 511 504 504 497 0 481 481 0 0 0 0 0 0 462 457 0 302 0 0 446 448 0 0 0 0 0 0 0 0 0 897 876 865 0 210 0 0 0 0 224 223 0 0 0 0 0
    0 0 0 0 0 0 0 0 0 0 0 0 0 0 0 0 0 0 0 0 0 0 0 0 0 0 0 0 0 0 0 0 0 0 0 0 0 0 0 0 0 0 0 0 0 0 0 0 0 0 0 0 0 0 0 0 0 0 0 0 0 0 0 0 0 0 0 0 0 1388 1415 1415 1415 1443 1533 1443 0 0 0 0 0 0 0 0 0 0 0 0 0 0 0 0 0 0 0 6690 7359 7359 0 0 0 0 0 0 0 0 0 0 0 0 0 0 0 0 0 0 0 0 0 0 0 0 8177 7359 8177 7359 8177 8177 8177 8177 7359 8177 0 8177 8177 8177 8177 8177 8177 0 0 0 8177 8177 7359 7359 6133 6133 5661 5661 5661 5661 6133 6133 6133 6690 6133 6690 6690 6690 6133 6133 6133 6133 6133 5661 6133 5256 5661 6133 5256 4906 5661 5256 5661 5661 6133 6133 6133 6133 7359 6690 6690 7359 6690 6690 6133 6133 6133 4329 3679 3066 1795 1752 1672 1672 1565 1471 1443 1415 1388 1338 1291 1291 1291 1291 1268 1132 1206 1115 1115 1066 1051 1022 1008 0 0 981 968 955 968 876 855 886 826 836 826 817 817 826 826 836 0 0 0 0 0 0 675 0 675 687 675 669 634 663 629 629 623 608 608 608 608 608 584 588 584 574 588 579 574 574 570 593 557 549 545 537 529 500 514 514 511 497 514 507 507 497 0 481 481 0 0 0 459 459 454 465 459 0 0 0 451 448 448 0 0 0 0 0 0 0 0 0 886 876 855 208 209 0 0 0 0 0 223 0 0 0 0 0
    0 0 0 0 0 0 0 0 0 0 0 0 0 0 0 0 0 0 0 0 0 0 0 0 0 0 0 0 0 0 0 0 0 0 0 0 0 0 0 0 0 0 0 0 0 0 0 0 0 0 0 0 0 0 0 0 0 0 0 0 0 0 0 0 0 0 0 0 0 1362 1388 1388 1362 1415 1443 0 0 0 0 0 0 0 0 0 0 0 0 0 0 0 0 0 0 0 0 0 0 9199 0 0 0 0 0 0 0 0 0 0 0 0 0 0 0 0 0 0 0 0 0 0 0 0 0 8177 8177 7359 7359 8177 8177 8177 6690 7359 8177 7359 7359 7359 8177 7359 8177 0 0 8177 0 0 8177 7359 6133 6133 5661 5661 5661 5661 6133 6133 6690 6690 6690 6690 6133 6133 6133 5661 6133 5661 6133 5661 6133 5256 5661 5661 5256 4906 5256 4906 4906 4906 5661 5256 5256 5661 6133 6133 6133 7359 7359 7359 6690 6690 6690 4599 3679 2943 0 1752 1672 1672 1533 1443 1415 1388 1362 1291 1291 1291 1291 1291 1268 1149 1206 1132 1132 1066 1051 1022 1008 1008 0 968 955 943 955 865 845 876 808 836 826 808 817 826 826 845 0 0 766 0 408 0 694 0 0 700 687 687 639 669 629 623 618 603 608 608 608 608 584 584 584 574 588 579 574 574 574 593 561 553 549 537 533 500 518 514 514 500 518 511 511 500 0 0 481 0 0 0 459 462 457 465 462 459 0 0 451 448 448 0 0 0 440 0 0 0 0 0 886 865 855 207 0 0 0 0 0 0 0 0 0 0 0 0
    0 0 0 0 0 0 0 0 0 0 0 0 0 0 0 0 0 0 0 0 0 0 0 0 0 0 0 0 0 0 0 0 0 0 0 0 0 0 0 0 0 0 0 0 0 0 0 0 0 0 0 0 0 0 0 0 0 0 0 0 0 0 0 0 0 0 0 0 0 1362 1415 1415 1362 1388 1415 0 0 0 0 0 0 0 0 0 0 0 0 0 0 0 0 0 0 0 0 0 0 0 0 0 0 0 0 0 0 0 0 0 0 0 0 0 0 0 0 0 0 0 0 0 0 0 0 0 0 7359 8177 7359 7359 7359 5661 6133 7359 6133 6690 6690 7359 6690 7359 0 0 8177 8177 8177 8177 6690 6133 6133 5661 5661 5661 5661 6133 6133 6690 6690 6690 6133 6133 6133 6133 5661 5661 5661 5661 5256 6133 5661 5661 5661 5661 4906 5256 5256 4906 4599 5256 4906 4906 5256 5661 5661 6133 7359 7359 6690 6133 6690 6690 4906 3873 2943 0 0 1711 1672 1533 1443 1388 1362 1362 1291 1291 1268 1291 1291 1268 1132 1206 1132 1132 1066 1051 1036 1008 1008 0 968 943 943 955 865 845 876 808 836 826 808 808 826 826 845 845 826 782 0 0 0 700 0 0 707 694 700 645 669 634 0 618 603 603 603 603 0 579 584 584 574 588 579 574 574 570 593 561 549 545 537 533 504 518 514 514 500 518 514 514 500 0 0 0 0 110 0 462 462 459 468 465 462 0 0 451 451 448 0 0 0 443 0 443 0 0 0 876 865 855 0 0 0 0 0 0 225 224 0 0 0 0 0
    0 0 0 0 0 0 0 0 0 0 0 0 0 0 0 0 0 0 0 0 0 0 0 0 0 0 0 0 0 0 0 0 0 0 0 0 0 0 0 0 0 0 0 0 0 0 0 0 0 0 0 0 0 0 0 0 0 0 0 0 0 0 0 0 0 0 0 0 0 1362 1415 1415 1362 1362 1362 0 0 0 0 0 0 0 0 0 0 0 0 0 0 0 0 0 0 0 0 0 0 0 0 0 0 0 0 0 0 0 0 0 0 0 0 0 0 0 0 0 0 0 0 0 0 0 0 0 0 8177 8177 7359 7359 7359 5256 6133 6690 6133 6690 6690 7359 6690 7359 0 8177 7359 8177 8177 7359 6690 5661 5661 5661 5661 5661 5661 5661 6133 6133 6690 6133 6133 6133 5661 5661 5661 5661 5661 5661 5256 6133 5661 6133 6133 5661 5256 5661 5256 4906 4599 5256 4906 4906 4906 5661 5661 6133 6690 7359 6690 5661 6133 6133 4906 3873 3066 1936 0 1711 1672 1533 1443 1362 1362 1338 1291 1291 1291 1291 1291 1268 1115 1206 1132 1132 1066 1066 1036 1008 1008 0 968 943 943 955 876 855 876 808 845 836 808 808 0 826 845 845 836 799 750 0 707 707 700 700 714 700 707 651 675 639 0 618 603 603 603 603 0 579 584 584 574 588 579 574 574 570 593 561 549 549 537 533 504 518 518 514 500 518 514 514 504 0 0 0 0 110 0 462 465 462 468 465 462 0 0 448 448 448 454 0 0 446 446 448 448 0 0 876 855 845 0 826 0 0 0 0 225 224 0 0 0 0 0
    0 0 0 0 0 0 0 0 0 0 0 0 0 0 0 0 0 0 0 0 0 0 0 0 0 0 0 0 0 0 0 0 0 0 0 0 0 0 0 0 0 0 0 0 0 0 0 0 0 0 0 0 0 0 0 0 0 0 0 0 0 0 0 0 0 0 0 0 0 1362 1415 1388 1338 1291 0 0 0 0 0 0 0 0 0 0 0 0 0 0 0 0 0 0 0 0 0 0 0 0 0 0 0 0 0 0 0 0 0 0 0 0 0 0 0 0 0 0 0 0 0 0 0 0 0 0 0 8177 8177 7359 7359 7359 5256 6133 7359 6133 6690 6690 7359 6690 7359 8177 8177 7359 7359 7359 7359 6690 6133 5661 5256 5661 5661 5661 5661 6133 6133 6133 5661 6133 5661 5661 5661 5661 5661 5661 5661 5661 6133 6133 6133 6133 6133 5256 5661 5661 4906 4906 5256 4906 4906 4906 5661 5661 5661 7359 6690 6133 5661 5661 6133 4906 3873 3199 0 0 0 1711 1565 1443 1362 1362 1338 1291 1314 1291 1291 1291 1268 1115 1187 1132 1132 1082 1066 1036 1008 1008 0 968 943 955 968 886 855 0 808 845 836 808 0 0 817 845 845 836 808 758 0 714 707 700 700 714 700 707 657 675 645 0 618 603 603 603 0 0 579 579 588 574 588 579 570 570 566 588 557 549 549 537 533 504 518 518 514 500 518 514 514 504 0 0 0 0 111 0 465 468 462 468 465 462 301 0 446 448 448 454 0 0 448 448 451 465 0 0 876 855 845 0 826 0 0 0 0 0 225 0 0 0 0 0
    0 0 0 0 0 0 0 0 0 0 0 0 0 0 0 0 0 0 0 0 0 0 0 0 0 0 0 0 0 0 0 0 0 0 0 0 0 0 0 0 0 0 0 0 0 0 0 0 0 0 0 0 0 0 0 0 0 0 0 0 0 0 0 0 0 0 0 0 0 1362 1415 1362 1291 1247 0 0 0 0 0 0 0 0 0 0 0 0 0 0 0 0 0 0 0 0 0 0 0 0 0 0 0 0 0 0 0 0 0 0 0 0 0 0 0 0 0 0 0 0 0 0 0 0 0 0 0 8177 8177 7359 7359 7359 5661 6690 7359 6133 6690 6133 6690 6690 7359 8177 7359 7359 7359 7359 7359 6690 6133 6133 5661 5661 5256 5661 5661 6133 6133 6133 6133 6133 5661 5661 5661 5661 5661 5661 5661 5661 6133 6133 6133 6133 6133 5661 5661 5661 4906 4906 5256 4906 4906 5256 5661 5661 5661 7359 7359 6133 5661 6133 6133 4906 4088 3345 0 0 0 1672 1533 1443 1362 1362 1362 1291 1338 1291 1291 1291 1268 1115 1187 1149 1149 1082 1082 1036 1008 1022 0 968 943 955 968 897 855 353 817 845 836 0 0 0 808 845 845 836 817 774 0 714 714 700 707 721 707 714 663 681 651 0 618 608 608 608 0 121 579 579 588 579 588 579 574 570 570 588 557 549 545 537 533 504 518 518 514 500 518 518 514 504 0 0 0 0 111 0 468 471 468 471 468 0 301 0 443 448 448 451 0 0 448 451 454 471 0 0 865 836 836 817 826 0 0 0 0 0 225 0 0 0 0 0
    0 0 0 0 0 0 0 0 0 0 0 0 0 0 0 0 0 0 0 0 0 0 0 0 0 0 0 0 0 0 0 0 0 0 0 0 0 0 0 0 0 0 0 0 0 0 0 0 0 0 0 0 0 0 0 0 0 0 0 0 0 0 0 0 0 0 0 0 0 1362 1415 1362 1291 0 0 0 0 0 0 0 0 0 0 0 0 0 0 0 0 0 0 0 0 0 0 0 0 0 0 0 0 0 0 0 0 0 0 0 0 0 0 0 0 0 0 0 0 0 0 0 0 0 0 0 0 8177 8177 8177 7359 7359 6690 7359 7359 5661 6690 5661 6690 6133 7359 7359 6690 7359 7359 6690 7359 6690 6690 6133 5661 6133 5256 5661 5661 6133 6133 6133 5661 5661 5661 5661 5661 5661 5661 5661 5661 5661 5661 6133 6133 6133 5661 5661 5661 6133 4906 4906 5256 4906 4906 5661 6133 6133 5661 7359 7359 6133 5661 5661 5661 4906 4088 3345 2830 0 0 1711 1533 1443 1388 1362 1362 1314 1362 1314 1314 1314 1268 1098 1187 1149 1149 1115 1098 1066 1022 1036 0 981 968 994 994 931 865 353 817 845 845 0 0 808 808 836 845 836 826 782 0 721 721 707 707 721 714 714 669 681 657 0 623 613 608 608 0 121 584 584 588 579 588 584 574 570 570 593 561 549 549 537 533 504 514 514 511 500 514 514 0 504 0 0 490 0 111 0 0 0 0 0 468 0 301 0 443 448 446 448 0 451 0 454 454 477 0 0 845 826 817 808 817 0 0 0 0 0 226 0 0 0 0 0
    0 0 0 0 0 0 0 0 0 0 0 0 0 0 0 0 0 0 0 0 0 0 0 0 0 0 0 0 0 0 0 0 0 0 0 0 0 0 0 0 0 0 0 0 0 0 0 0 0 0 0 0 0 0 0 0 0 0 0 0 0 0 0 0 0 0 0 0 0 1388 1443 1362 0 0 0 0 0 0 0 0 0 0 0 0 0 0 0 0 0 0 0 0 0 0 0 0 0 0 0 0 0 0 0 0 0 0 0 0 0 0 0 0 0 0 0 0 0 0 0 0 0 0 8177 8177 8177 7359 8177 6690 7359 7359 7359 8177 8177 4906 6690 5661 6690 6133 6690 6690 6690 6690 7359 6690 7359 6133 6690 6133 6133 6133 5256 5661 5661 6133 6133 6133 6133 5661 5661 5661 5661 5661 5661 5256 5661 5661 5661 6133 6133 6133 5661 5661 5256 5661 4906 4906 4906 4906 4906 5661 6133 6133 5661 7359 7359 6690 5661 6133 6133 4906 4088 3504 2725 0 1711 1711 1565 1471 1415 1415 1388 1338 1415 1338 1338 1338 1291 1098 1187 1149 1132 1132 1115 1082 1051 1066 1082 1022 1022 1036 1022 968 908 0 845 865 0 0 0 799 808 826 845 836 826 791 735 0 728 714 714 721 0 714 669 681 663 0 629 618 613 613 613 0 584 584 593 579 584 584 574 574 570 593 561 549 549 537 533 504 511 511 507 497 511 514 0 500 0 0 490 0 111 0 0 0 0 0 465 0 301 302 440 448 446 448 0 451 0 457 457 481 0 855 836 808 808 799 808 799 0 0 0 0 225 0 0 0 0 0
    0 0 0 0 0 0 0 0 0 0 0 0 0 0 0 0 0 0 0 0 0 0 0 0 0 0 0 0 0 0 0 0 0 0 0 0 0 0 0 0 0 0 0 0 0 0 0 0 0 0 0 0 0 0 0 0 0 0 0 0 0 0 0 0 0 0 0 0 0 1443 1471 1415 0 0 0 0 0 0 0 0 0 0 0 0 0 0 0 0 0 0 0 0 0 0 0 0 0 0 0 0 0 0 0 0 0 0 0 0 0 0 0 0 0 0 0 0 7359 8177 0 0 7359 6690 6690 6690 7359 6690 7359 6690 6690 8177 8177 0 0 4906 7359 5256 6690 5661 6133 6690 6133 6690 7359 6133 7359 6133 6690 6133 6133 6133 5661 6133 6133 6133 6690 6690 5661 5661 6133 5661 5661 5661 5661 5256 5256 5661 5661 5661 6133 6133 5661 5661 5661 5661 4906 4906 4906 5256 4906 5661 6133 6690 6133 7359 8177 7359 5661 6133 6133 4906 3873 3345 2628 0 1711 1711 1599 1501 1443 1443 1443 1388 1471 1362 1362 1362 1314 1098 1168 1149 1115 1115 1132 1115 1066 1082 1115 1051 1051 1066 1051 994 943 0 876 865 0 0 0 799 799 826 845 826 826 799 750 0 0 0 721 721 0 714 675 681 669 0 634 623 613 613 613 0 588 588 593 584 588 588 579 574 574 593 561 549 545 537 533 504 507 507 504 497 507 511 0 497 0 0 493 0 111 0 0 0 0 0 465 0 302 304 0 0 443 446 0 448 0 457 459 484 0 836 836 799 808 799 817 808 0 0 0 0 0 0 0 0 0 0
    0 0 0 0 0 0 0 0 0 0 0 0 0 0 0 0 0 0 0 0 0 0 0 0 0 0 0 0 0 0 0 0 0 0 0 0 0 0 0 0 0 0 0 0 0 0 0 0 0 0 0 0 0 0 0 0 0 0 0 0 0 0 0 0 0 0 0 0 0 1471 1501 1443 0 0 0 0 0 0 0 0 0 0 0 0 0 0 0 0 0 0 0 0 0 0 0 0 0 0 0 0 0 0 0 0 0 0 0 0 0 0 0 0 0 0 0 0 8177 8177 0 0 6690 6690 6690 6690 7359 7359 8177 7359 7359 8177 8177 0 0 5256 7359 5256 6133 5661 6133 6133 6133 6133 6690 5661 6690 6133 6690 6133 6133 6690 5661 6133 6133 6133 6690 6690 5661 6133 6133 5661 5661 5661 5661 5256 5256 5661 5661 5661 6133 6690 6133 5661 5661 6133 5256 5256 5256 5256 5256 6133 6133 6133 5661 6690 7359 6690 5661 5661 5661 4599 3873 3345 2537 1752 1752 1752 1635 1565 1471 1501 1471 1415 1533 1362 1362 1362 1314 1082 1149 1115 1098 1115 1115 1115 1066 1082 1098 1051 1051 1066 1051 994 931 0 886 0 0 0 0 799 799 817 836 817 817 791 750 0 0 0 728 721 0 714 675 681 675 0 639 629 618 618 618 0 593 593 593 584 588 588 579 579 574 593 561 545 541 533 529 504 504 504 500 493 0 507 4088 493 0 0 493 0 0 0 0 0 474 0 465 457 304 305 0 0 440 0 0 0 0 454 457 481 0 836 836 808 808 808 817 817 0 0 0 0 0 0 0 0 0 0
    0 0 0 0 0 0 0 0 0 0 0 0 0 0 0 0 0 0 0 0 0 0 0 0 0 0 0 0 0 0 0 0 0 0 0 0 0 0 0 0 0 0 0 0 0 0 0 0 0 0 0 0 0 0 0 0 0 0 0 0 0 0 0 0 0 0 0 0 0 1533 1565 1501 0 0 0 0 0 0 0 0 0 0 0 0 0 0 0 0 0 0 0 0 0 0 0 0 0 0 0 0 0 0 0 0 0 0 0 0 0 8177 0 0 0 0 0 0 8177 0 0 0 6690 6690 6690 6690 7359 7359 7359 6690 6690 8177 8177 0 0 6133 7359 5256 6133 5661 5661 6133 5661 6133 6133 5256 6690 5661 6133 6133 6133 6690 5256 6133 6133 6133 6690 6690 5661 6133 5661 5661 5661 5661 5661 5661 5256 6133 5661 6133 6690 6690 5661 5661 5661 5661 5661 5256 5256 5256 5256 6133 5661 6133 5661 6133 6690 6133 4906 5256 5256 4088 3679 3345 2453 1711 1752 1752 1635 1599 1501 1533 1501 1443 1533 1388 1362 1362 1314 1098 1132 1115 1082 1098 1115 1115 1066 1082 1098 1051 1051 1066 1036 981 919 0 0 0 0 0 0 799 799 808 826 808 808 791 750 0 0 0 0 0 0 714 675 675 675 634 0 629 618 618 618 0 0 593 598 584 584 588 579 574 574 588 566 545 537 533 529 500 497 497 493 490 0 0 4329 490 0 493 493 490 0 0 0 0 0 0 468 459 305 306 311 0 438 0 0 0 0 451 451 477 465 836 836 808 817 817 826 0 0 0 0 0 0 0 0 0 0 0
    0 0 0 0 0 0 0 0 0 0 0 0 0 0 0 0 0 0 0 0 0 0 0 0 0 0 0 0 0 0 0 0 0 0 0 0 0 0 0 0 0 0 0 0 0 0 0 0 0 0 0 0 0 0 0 0 0 0 0 0 0 0 0 0 0 0 0 0 0 1635 1599 1533 0 0 0 0 0 0 0 0 0 0 0 0 0 0 0 0 0 0 0 0 0 0 0 0 0 0 0 0 0 0 0 0 0 0 0 0 0 8177 0 0 0 0 0 0 7359 7359 0 0 6690 6133 6690 6690 6690 7359 7359 6133 6133 7359 8177 0 0 6690 8177 5256 6133 5661 5661 6133 5661 6133 6133 4906 6133 5256 6133 6133 5661 6690 5256 6133 5661 6133 6133 6690 5256 6133 5661 6133 5661 6133 6133 5661 5661 6690 5661 6133 6133 6690 5661 5661 5661 5256 5256 5256 4906 5256 5256 6133 6133 6133 6133 6133 6690 6133 4906 5256 5256 3873 3679 3345 2374 1711 1752 1752 1672 1599 1533 1533 1533 1443 0 0 1362 1388 1314 1115 1149 1115 1082 1098 1115 1098 1066 1082 1082 1051 1036 1051 1022 981 908 0 0 0 171 167 0 791 791 799 817 799 799 782 750 0 0 0 0 0 0 0 669 675 675 634 0 634 618 618 618 618 0 593 598 584 584 593 579 574 574 588 574 545 537 533 529 500 493 493 493 487 0 0 4329 490 0 497 493 490 0 0 0 0 0 0 468 462 0 0 313 0 0 0 0 0 0 0 446 465 446 836 0 808 817 808 826 0 206 206 205 0 0 0 0 0 0 0
    0 0 0 0 0 0 0 0 0 0 0 0 0 0 0 0 0 0 0 0 0 0 0 0 0 0 0 0 0 0 0 0 0 0 0 0 0 0 0 0 0 0 0 0 0 0 0 0 0 0 0 0 0 0 0 0 0 0 0 0 0 0 0 0 0 0 0 0 0 1752 1635 1471 0 0 0 0 0 0 0 0 0 0 0 0 0 0 0 0 0 0 0 0 0 0 0 0 0 0 0 0 0 0 0 8177 0 0 8177 0 0 8177 8177 0 0 8177 8177 8177 6690 6690 0 0 6133 5661 6133 6133 6690 6690 7359 5661 5661 6690 7359 7359 8177 6133 8177 5256 6133 5661 5661 5661 5661 5661 5661 4906 6133 5256 6133 6133 5661 6690 5256 6133 5661 6133 6133 6690 5661 6133 6133 6133 5661 6133 6133 6133 5661 6690 5661 5661 6133 6133 5256 5256 5256 5256 5256 5256 5256 5256 5256 6133 6133 6133 6133 6133 6690 6133 5256 5256 4906 3873 3504 3199 2299 1711 1711 1711 1635 1599 1565 1565 1533 1471 0 0 1388 1388 1338 1132 1132 1115 1082 1098 1098 1098 1066 1066 1066 1051 1036 0 994 981 897 0 0 0 171 167 0 791 791 791 817 799 791 774 750 0 0 0 0 0 0 0 669 675 675 634 0 634 618 618 618 618 603 593 598 588 584 593 579 579 579 588 584 549 541 533 529 504 493 493 493 490 0 0 4599 490 0 497 493 490 0 0 0 0 0 0 471 462 0 0 313 0 0 0 0 0 0 0 443 448 440 0 0 791 808 808 826 0 206 206 206 0 209 0 0 0 0 0
    0 0 0 0 0 0 0 0 0 0 0 0 0 0 0 0 0 0 0 0 0 0 0 0 0 0 0 0 0 0 0 0 0 0 0 0 0 0 0 0 0 0 0 0 0 0 0 0 0 0 0 0 0 0 0 0 0 0 0 0 0 0 0 0 0 0 0 0 0 1752 1565 1415 1415 0 0 0 0 0 0 0 0 0 0 0 0 0 0 0 0 0 0 0 0 0 0 0 0 0 0 0 0 7359 6690 6690 8177 7359 8177 0 0 7359 8177 0 0 8177 8177 7359 6690 5661 8177 7359 5661 5256 6133 6133 7359 7359 8177 6690 7359 8177 0 0 0 6133 7359 4906 6133 5661 5661 5661 5661 5661 6133 5256 6133 5661 6133 6133 6133 6133 5661 6133 5661 5661 6133 6133 5256 5661 5661 6133 5661 6133 6133 5661 5661 6690 5661 5661 6133 6133 5256 5661 5256 5256 5256 5256 5256 5256 5661 6133 6133 6133 6690 6690 7359 6690 5661 5256 5256 3873 3504 3199 2230 1672 1711 1711 1672 1635 1565 1565 1533 1471 1565 1415 1388 1415 1338 1168 1132 1115 1082 1098 1098 1098 1066 1066 1051 0 1022 0 981 968 897 0 0 0 0 0 0 791 791 791 817 791 782 774 750 0 0 0 0 0 0 0 675 669 675 634 0 634 618 618 618 618 608 598 603 588 584 598 584 579 579 588 588 549 537 533 529 507 490 497 493 490 0 0 4599 0 490 0 490 490 0 0 0 0 0 0 471 465 0 0 0 0 0 0 0 0 0 0 440 440 440 0 0 0 791 0 0 0 207 207 206 0 210 0 0 0 0 0
    0 0 0 0 0 0 0 0 0 0 0 0 0 0 0 0 0 0 0 0 0 0 0 0 0 0 0 0 0 0 0 0 0 0 0 0 0 0 0 0 0 0 0 0 0 0 0 0 0 0 0 0 0 0 0 0 0 0 0 0 0 0 0 0 0 0 0 0 0 1672 1533 1415 1443 1268 0 0 0 0 0 0 0 0 0 0 0 0 0 0 0 0 0 0 0 0 0 0 0 0 8177 7359 6690 6133 5661 6133 7359 7359 8177 0 0 8177 8177 0 0 8177 8177 7359 6690 5661 8177 7359 5661 5661 6133 6133 7359 7359 0 7359 8177 0 0 8177 0 6133 7359 4906 6133 5661 5661 5661 5661 5661 5661 5256 6133 5256 6133 6133 5661 5661 5661 6133 5661 5661 6133 6133 4906 5661 5661 5661 5661 6133 6133 5661 5661 6690 5661 5661 6133 6690 5661 5661 5661 5256 5661 5661 5661 5661 5661 5661 6133 6133 6690 6690 6690 6690 5256 5256 5256 3873 3504 3199 2164 1672 1752 1752 1672 1635 1565 1565 1533 1471 1565 1415 1388 0 1362 0 0 1132 1082 1098 1098 1098 1066 0 1051 0 1008 0 968 968 886 0 0 0 0 0 0 799 791 791 817 791 0 774 758 0 735 735 0 0 0 0 681 669 675 634 645 634 618 623 623 623 0 598 603 588 584 598 584 579 584 588 593 549 537 533 529 511 490 497 497 0 0 5256 4599 0 490 0 0 487 0 0 0 0 0 0 471 0 0 0 0 318 0 0 0 0 249 435 438 438 440 432 0 0 791 0 0 0 209 0 0 0 211 0 0 0 0 0
    0 0 0 0 0 0 0 0 0 0 0 0 0 0 0 0 0 0 0 0 0 0 0 0 0 0 0 0 0 0 0 0 0 0 0 0 0 0 0 0 0 0 0 0 0 0 0 0 0 0 0 0 0 0 0 0 0 0 0 0 0 0 0 0 0 0 0 0 0 1565 1501 1415 1443 1314 1314 0 0 0 0 0 0 0 0 0 0 8177 0 0 0 0 8177 0 0 0 0 8177 0 6690 6690 5661 5661 5661 5661 5661 6690 6690 7359 0 0 8177 8177 8177 0 8177 8177 7359 6690 5256 7359 6690 6133 5661 6133 6133 6690 6690 8177 7359 7359 8177 0 8177 0 6690 6690 4906 6133 5661 5661 5661 5661 5661 5661 5256 6133 5661 6133 6133 5661 5661 6133 6133 5661 6133 6133 6133 4906 5661 6133 5661 5661 6133 6133 5661 5661 6690 5661 5661 6133 6690 6133 5661 5661 5256 5661 5661 5256 5256 5256 5256 6133 6133 6133 6690 6690 6690 5256 5256 5256 4088 3679 3199 2230 0 1752 1752 1672 1635 1565 1565 1533 1443 1565 1388 1388 0 1338 1226 0 1132 1082 1098 1082 1082 1051 0 1036 0 994 0 955 955 876 0 0 0 0 0 0 799 791 791 817 791 0 774 758 750 743 735 0 0 0 714 681 669 675 634 645 634 618 623 623 623 613 598 603 593 588 598 588 584 584 584 593 553 541 537 529 514 490 500 497 0 0 0 4599 0 493 0 0 0 0 0 0 0 110 0 471 0 0 0 0 319 318 0 0 0 0 435 438 438 443 432 0 0 0 0 0 0 210 0 209 0 0 0 0 0 0 0
    0 0 0 0 0 0 0 0 0 0 0 0 0 0 0 0 0 0 0 0 0 0 0 0 0 0 0 0 0 0 0 0 0 0 0 0 0 0 0 0 0 0 0 0 0 0 0 0 0 0 0 0 0 0 0 0 0 0 0 0 0 0 0 0 0 0 0 0 0 1533 1471 1415 1415 1362 1362 1291 1268 1206 0 0 0 0 0 0 0 6690 6133 6690 0 0 0 0 8177 7359 7359 7359 8177 5661 5661 5256 4906 4906 5661 5256 6133 6133 6690 8177 0 7359 7359 8177 8177 7359 7359 6690 6133 4906 6690 6690 5661 5256 5661 6133 7359 7359 0 8177 8177 8177 0 0 0 7359 6690 5256 6133 6133 5661 5661 6133 5661 5661 5661 6133 5661 5661 6133 5661 5661 5661 5661 5256 5661 5661 6133 4906 5661 6133 5661 5661 6133 6133 5661 5661 6690 5661 5661 6133 6690 6133 5661 5661 5256 5256 5256 5256 5256 5256 5256 5661 5661 6133 6690 6690 6133 4906 4906 4906 4088 3679 3199 2299 0 1752 1752 1672 1635 1599 1533 1501 1443 1565 1388 1362 0 1338 1226 0 1132 1082 1098 1082 1082 1051 0 1022 0 981 0 943 943 876 0 0 0 0 0 0 0 791 782 808 791 0 774 758 750 743 743 728 707 700 714 687 663 675 634 639 629 618 623 0 623 618 598 603 593 588 598 584 579 579 579 593 549 537 537 529 514 490 500 500 0 0 0 0 0 493 80 80 0 0 0 0 0 110 110 474 0 0 0 0 319 319 0 0 0 0 435 438 438 443 430 0 0 0 0 0 0 210 0 0 379 0 0 0 0 0 0
    0 0 0 0 0 0 0 0 0 0 0 0 0 0 0 0 0 0 0 0 0 0 0 0 0 0 0 0 0 0 0 0 0 0 0 0 0 0 0 0 0 0 0 0 0 0 0 0 0 0 0 0 0 0 0 0 0 0 0 0 0 0 0 0 0 0 0 0 0 1501 1471 1415 1415 1388 1388 1291 1291 1226 1168 0 0 0 0 7359 8177 6133 5661 5256 6690 0 6133 6690 8177 6690 7359 7359 8177 5661 4906 4906 4329 4329 5256 4906 5661 5661 6690 7359 8177 6690 6690 6690 6690 6133 6133 5661 5661 4599 6133 6133 5661 5256 5661 6133 7359 7359 0 8177 8177 0 0 0 0 6690 6690 5256 6133 6133 5661 5661 6133 5661 5661 5661 5661 5661 5661 6133 5661 5661 5661 5661 5256 5661 5256 5661 4906 5661 6133 5661 5661 6690 6133 6133 6133 6690 6133 6133 6690 6690 6133 5661 5661 5256 5256 5256 5256 5256 5256 5256 5661 5661 5661 6133 6133 5661 4906 4599 4906 4088 3873 3345 2299 0 1752 1752 1672 1635 1599 1533 1501 1443 1565 1362 1362 0 1314 1247 0 1132 1082 1098 1066 1066 1051 0 0 0 981 0 931 943 876 0 0 0 0 0 160 0 782 782 808 791 0 774 758 750 743 743 728 714 707 721 694 663 675 634 634 629 618 623 623 623 618 598 603 593 584 598 584 574 574 574 593 549 533 533 525 511 493 504 504 500 500 514 504 0 497 80 80 0 0 0 0 0 0 0 474 0 0 0 0 321 319 0 0 0 0 0 440 438 446 430 0 0 750 0 0 0 212 212 0 379 379 0 0 0 0 0
    0 0 0 0 0 0 0 0 0 0 0 0 0 0 0 0 0 0 0 0 0 0 0 0 0 0 0 0 0 0 0 0 0 0 0 0 0 0 0 0 0 0 0 0 0 0 0 0 0 0 0 0 0 0 0 0 0 0 0 0 0 0 0 0 0 0 0 0 0 1501 1471 1415 1415 1415 1415 1314 1314 1247 1187 0 0 0 0 7359 7359 5661 5256 4906 6133 6133 5661 6133 7359 6133 6690 6690 7359 5256 4599 4329 4088 4088 4906 4599 5256 5256 6133 6690 7359 6133 6133 5661 6133 5661 5661 4906 5256 4329 6133 5661 5661 4906 5256 5661 7359 7359 0 8177 0 0 0 0 0 6690 6133 5661 6133 6133 5256 5661 5661 5256 5661 5661 5661 5661 5661 6133 5661 5661 6133 5661 5256 5661 5256 5661 5256 5661 6133 6133 6133 6690 6690 6133 6133 6690 6133 6133 6690 6690 6133 5661 5661 5256 4906 5256 5256 4906 5256 5256 5661 5661 5256 6133 6133 5661 4906 4906 4906 4088 3873 3345 2374 0 1752 1752 1672 1635 1599 1501 1501 1443 1565 1362 1362 0 1314 1291 0 1168 1098 1115 1066 1066 1051 0 1008 0 981 0 931 943 876 855 0 0 0 0 160 0 782 782 808 791 0 766 750 743 735 743 721 714 707 714 694 663 675 634 629 623 613 623 623 623 618 593 598 593 588 598 584 574 574 570 598 549 533 533 525 514 493 507 507 504 500 514 507 0 497 80 80 80 0 0 0 0 0 0 477 471 0 0 0 321 0 0 0 0 0 0 440 440 448 430 0 714 0 0 0 0 0 0 377 379 379 0 0 0 0 0
    0 0 0 0 0 0 0 0 0 0 0 0 0 0 0 0 0 0 0 0 0 0 0 0 0 0 0 0 0 0 0 0 0 0 0 0 0 0 0 0 0 0 0 0 0 0 0 0 0 0 0 0 0 0 0 0 0 0 0 0 0 0 0 0 0 0 0 0 0 1471 1471 1415 1415 1415 1415 1338 1338 1268 0 0 0 0 0 7359 7359 5661 4906 4906 5256 5661 5256 5661 6133 5256 6133 6133 6133 4906 4329 4329 4088 4088 5256 4906 5661 5661 6133 6690 6690 6133 5661 5256 5661 4906 4906 4599 5256 4088 5661 5661 5256 4599 5256 5661 7359 7359 0 0 0 0 0 0 8177 6133 5661 5256 5661 5661 5256 5661 5661 5256 5661 5661 5661 5661 5661 6133 5661 5661 6133 5661 4906 5256 4906 5256 5256 5661 6133 6133 6133 6690 6690 6133 6133 6133 6133 6133 6690 6690 6133 5661 5661 5256 5256 5256 5256 4906 5256 5256 5661 6133 5256 6690 6690 6133 5256 4906 4906 4329 3873 3345 2374 0 1752 1752 1672 1635 1599 1471 1471 1415 1565 1362 1362 0 1314 1291 1132 1168 1098 1115 1066 1066 1036 0 1008 0 981 0 943 943 876 855 0 0 0 160 160 0 782 782 808 791 774 766 750 735 735 735 721 714 707 714 700 657 675 634 629 623 613 623 623 623 618 593 598 598 588 598 584 574 574 574 598 549 533 533 525 518 493 511 511 507 504 514 511 507 500 80 80 80 0 0 0 0 0 0 477 471 0 0 0 0 0 0 0 0 0 0 443 443 454 432 0 714 0 0 0 0 0 214 377 379 377 0 0 0 0 0
    0 0 0 0 0 0 0 0 0 0 0 0 0 0 0 0 0 0 0 0 0 0 0 0 0 0 0 0 0 0 0 0 0 0 0 0 0 0 0 0 0 0 0 0 0 0 0 0 0 0 0 0 0 0 0 0 0 0 0 0 0 0 0 0 0 0 0 0 0 1471 1443 1415 1388 1415 1443 1362 1362 0 0 206 0 8177 7359 6690 6690 5661 4329 4599 4906 4906 4599 5256 5661 4599 5256 5661 5661 4599 3873 3873 3873 3873 4906 4906 5661 5661 6133 6133 6690 5661 5661 5256 5256 4599 4329 4088 4906 4088 5256 5256 5256 4599 4906 5661 6690 6690 0 0 0 0 0 8177 8177 6133 5256 5256 5256 5256 4906 5256 5661 4906 5661 5661 5661 6133 6133 6690 5661 5256 6133 5256 4906 5256 4906 5256 4906 5661 6133 5661 6133 6690 6133 6133 6133 6133 6133 6133 6690 6690 6690 5661 5661 5661 5256 5256 5661 5256 5256 5661 6133 6690 5661 7359 7359 6690 5661 5256 4906 4599 3873 3345 2374 0 1711 1711 1672 1635 1565 1443 1471 1415 0 0 1338 0 1314 1314 0 1168 1098 1098 1051 1066 1036 0 1008 0 968 0 943 955 876 855 0 0 0 159 159 157 782 774 808 791 766 758 743 728 728 728 714 714 707 714 707 657 675 639 623 623 618 623 623 623 618 593 598 598 593 598 588 579 579 574 598 553 537 533 525 518 497 511 511 511 504 518 511 0 500 80 80 80 0 0 0 0 0 0 474 468 0 0 0 0 0 0 0 0 0 443 448 448 462 432 0 714 0 0 0 0 0 0 375 377 375 0 0 0 0 0
    0 0 0 0 0 0 0 0 0 0 0 0 0 0 0 0 0 0 0 0 0 0 0 0 0 0 0 0 0 0 0 0 0 0 0 0 0 0 0 0 0 0 0 0 0 0 0 0 0 0 0 0 0 0 0 0 0 0 0 0 0 0 0 0 0 0 0 0 0 1443 1415 1415 1415 1443 1471 1415 1443 0 208 206 5256 5256 4906 5256 5256 4906 4088 4088 4329 4599 4329 4906 4906 4329 4599 5256 4906 4088 3679 3873 3873 3873 4599 5256 5661 6133 6133 6690 6690 5661 5256 4906 4906 4088 3873 3873 4329 3873 4599 4906 4906 4088 4329 5256 6133 6690 8177 8177 0 0 0 8177 7359 6133 4906 4906 4906 5256 4599 5256 5661 4906 5661 6133 5661 6133 6133 6690 6133 5256 6133 5661 4599 5256 4906 4906 4906 5661 6133 5661 6133 6133 6133 6133 6133 6133 6133 6133 6690 6690 6690 5661 5661 5661 5256 5256 5661 5256 5256 5256 6133 6133 5661 7359 7359 6690 5661 5256 4906 4906 4088 3345 2453 0 1711 1711 1672 1635 1565 1443 1443 1415 0 0 0 0 1314 1291 0 1168 1098 1098 1051 1051 1036 0 1008 0 981 0 943 968 886 0 0 0 0 0 158 156 0 0 808 791 766 750 735 728 721 721 714 714 707 714 707 657 681 645 623 623 618 623 623 623 623 593 593 598 593 598 588 579 579 574 598 553 537 533 525 518 497 511 511 511 500 514 511 511 500 80 80 80 0 0 0 0 468 462 474 468 0 0 0 0 448 0 0 0 0 446 451 451 468 435 0 721 0 0 743 0 0 0 375 377 375 0 0 0 0 0
    0 0 0 0 0 0 0 0 0 0 0 0 0 0 0 0 0 0 0 0 0 0 0 0 0 0 0 0 0 0 0 0 0 0 0 0 0 0 0 0 0 0 0 0 0 0 0 0 0 0 0 0 0 0 0 0 0 0 0 0 0 0 0 0 0 0 0 0 0 1415 1415 1415 1415 1471 1533 1443 1501 0 207 206 3679 3679 3873 3873 4329 4088 3873 3873 4088 4329 4329 4906 4906 4329 4599 4906 4599 4088 3504 3679 3873 3873 4906 5256 5661 6133 6133 6690 6690 6133 5256 4599 4599 3873 3504 3679 3873 3504 3873 4088 4329 4088 4088 5256 5661 6133 7359 7359 7359 7359 8177 7359 6690 5661 4599 4906 4906 4906 4599 4906 5661 4906 5256 6133 5661 6133 6133 6690 5661 5256 6133 5661 4599 5661 4906 5256 5256 6133 6133 5661 6133 6690 6133 6133 6133 6133 6133 6133 6690 6133 6690 6133 6133 5661 5256 5661 5256 5256 5256 5256 6133 6133 5661 7359 6690 6133 5661 5256 4906 4906 4088 3504 2453 0 1711 0 1635 1599 1533 1415 1415 1388 1443 0 0 0 1268 1268 0 1168 1082 1082 1036 1036 1022 0 1008 0 981 0 0 981 886 0 0 0 0 0 156 155 154 0 0 799 758 750 728 721 714 721 707 714 707 707 707 657 681 651 623 623 618 618 618 618 618 593 593 598 593 598 588 579 579 574 598 553 537 533 525 514 493 511 511 511 500 518 514 0 500 80 80 80 0 0 0 0 468 462 474 468 0 0 0 0 451 0 0 0 0 451 454 454 471 438 0 714 0 0 743 0 0 0 375 377 375 0 0 0 0 0
    0 0 0 0 0 0 0 0 0 0 0 0 0 0 0 0 0 0 0 0 0 0 0 0 0 0 0 0 0 0 0 0 0 0 0 0 0 0 0 0 0 0 0 0 0 0 0 0 0 0 0 0 0 0 0 0 0 0 0 0 0 0 0 0 0 0 0 0 0 1443 1443 1415 1415 1471 1533 1471 1533 0 207 206 3504 3504 3679 3679 4088 4088 4088 3873 4088 4329 4329 4599 4906 4088 4329 4906 4599 4088 3504 3873 3873 4088 5256 5256 5256 6133 5661 6133 6133 5661 4906 4329 4088 3679 3345 3345 3504 3199 3345 3504 3873 3679 3679 4906 5256 5661 6690 6690 6690 6690 7359 7359 6690 6133 4906 5256 4906 5256 4599 4906 5661 5256 5256 6133 5661 6133 6133 6690 5661 5256 6133 5661 4906 6133 5256 5661 5661 6133 6690 6133 6690 6690 6133 6133 6133 6133 6133 6133 6690 6133 6690 5661 6133 5661 5256 5661 5661 4906 4906 5256 6133 6133 5661 7359 6690 6690 6133 5661 5256 4906 4329 3504 2453 1672 1635 1635 1565 1565 1471 1362 1388 1338 1362 0 1247 0 1247 1247 1115 1149 1082 1082 1036 1036 1022 0 1008 0 981 0 0 994 908 0 0 0 0 0 155 155 153 0 0 799 758 750 728 714 714 721 714 721 714 714 714 657 681 651 618 623 613 618 618 0 0 593 593 598 588 593 588 579 579 574 598 553 537 533 525 514 493 511 511 511 500 514 514 0 500 80 80 80 0 0 0 465 468 462 474 468 465 307 0 448 451 451 90 0 0 454 457 457 471 440 700 0 0 0 0 0 0 0 373 377 373 0 0 0 0 0
    0 0 0 0 0 0 0 0 0 0 0 0 0 0 0 0 0 0 0 0 0 0 0 0 0 0 0 0 0 0 0 0 0 0 0 0 0 0 0 0 0 0 0 0 0 0 0 0 0 0 0 0 0 0 0 0 0 0 0 0 0 0 0 0 0 0 0 0 0 1443 1443 1443 1415 1471 1533 1471 1565 0 207 206 0 3345 3504 3679 4329 4329 4329 4088 4329 4599 4329 4906 4906 4088 4329 4599 4088 3873 3345 3679 3679 3873 4906 4906 4906 5661 5256 6133 5661 5256 4599 4088 3679 3504 3199 3199 3345 3199 3199 3345 3504 3504 3679 4906 5256 5661 6690 6690 6133 6133 6690 6690 6133 5661 5256 5256 5256 5256 4599 4906 5256 5256 5256 6133 5661 6133 5661 6690 6133 5661 6690 6133 5256 6133 5256 5661 6133 6133 6690 6133 6690 6690 6133 6690 6690 6133 6133 6133 6133 6133 6690 6133 6133 5661 5256 5256 5661 5256 5256 5256 5661 6133 5661 7359 6690 6690 6690 6133 5661 4906 4088 3345 2374 1635 1565 1565 1501 1501 1415 1314 1362 1314 0 0 0 0 1226 1226 1115 1149 1098 1066 1036 1036 1036 0 1022 1036 994 0 0 1008 931 0 0 0 0 155 155 155 152 0 0 0 766 750 728 714 714 721 714 721 714 714 714 657 681 657 618 623 618 613 613 613 0 588 588 598 588 593 593 579 579 579 598 553 533 529 521 514 493 507 507 507 497 514 511 0 500 80 80 80 0 0 468 468 468 462 474 468 465 307 0 451 454 451 90 0 0 0 459 457 471 440 707 0 0 0 0 0 0 373 373 377 373 0 0 0 0 0
    0 0 0 0 0 0 0 0 0 0 0 0 0 0 0 0 0 0 0 0 0 0 0 0 0 0 0 0 0 0 0 0 0 0 0 0 0 0 0 0 0 0 0 0 0 0 0 0 0 0 0 0 0 0 0 0 0 0 0 0 0 0 0 0 0 0 0 0 0 1415 1415 1415 1388 1471 1533 1471 1533 0 207 0 0 3345 3504 3873 4329 4329 4088 4329 4329 4599 4329 4599 4599 3873 3873 4088 3679 3504 3199 3345 3504 3504 4088 4329 4599 5661 4906 5661 5256 4906 4088 3873 3679 3504 3199 3345 3345 3199 3199 3345 3504 3504 3873 4906 5256 5661 6133 6690 6133 6133 6690 6133 6133 5661 5661 5256 5256 5256 4906 5256 5256 5256 5256 5661 5661 6133 5661 6690 6133 6133 7359 6690 5256 6133 5256 5661 6133 6133 6690 6133 6133 6133 5661 6133 6133 6133 6133 6133 6133 6133 6133 6133 6133 5661 5661 5661 5661 5661 5661 5661 5661 7359 6133 7359 7359 7359 6690 6133 5661 5256 4088 3345 2374 1635 1443 1443 1443 1415 1362 1291 1338 1268 0 0 0 0 1226 1226 1115 1168 1098 1066 1036 1051 1036 1022 1051 1066 1008 0 0 1036 968 0 0 0 0 154 154 154 151 0 0 0 774 758 728 714 714 721 714 721 721 714 714 663 681 663 618 623 618 613 613 613 0 588 588 598 588 593 593 584 584 584 603 561 541 533 525 518 497 507 504 504 497 511 511 0 497 80 80 80 0 0 468 465 468 462 474 468 465 0 0 451 454 451 0 0 0 0 457 457 468 0 707 0 0 0 0 0 0 373 373 377 373 0 0 0 0 0
    0 0 0 0 0 0 0 0 0 0 0 0 0 0 0 0 0 0 0 0 0 0 0 0 0 0 0 0 0 0 0 0 0 0 0 0 0 0 0 0 0 0 0 0 0 0 0 0 0 0 0 0 0 0 0 0 0 0 0 0 0 0 0 0 0 0 0 0 0 1415 1415 1415 1388 1471 1533 1471 1501 1599 0 0 0 3679 3873 4329 4599 4906 4088 4329 4088 4329 4088 4088 4088 3679 3679 3873 3504 3345 3199 3345 3504 3679 4088 4329 4599 5256 4906 5256 4906 4599 4088 3873 3679 3504 3199 3345 3345 3199 3199 3345 3504 3679 3873 4906 4906 5256 6133 6690 6133 6133 6690 6133 6133 6133 5661 5256 5256 5661 5256 5256 5256 5661 5256 6133 5661 6133 5661 6690 6690 6690 7359 7359 5661 6133 5256 6133 6133 5661 6133 5661 6133 6133 5661 6133 6133 5661 6133 6133 6133 5661 6133 6133 6133 5661 5661 5661 5661 6133 6133 5661 6133 7359 6690 7359 7359 7359 7359 6690 5661 5661 4088 3345 2374 1672 0 0 0 1362 1338 1247 1314 1247 0 0 1226 0 1226 1226 1115 1149 1098 1051 1036 1051 1051 1036 1066 1082 1036 0 0 1066 1008 0 0 0 0 0 153 153 150 149 0 0 782 766 721 714 714 721 721 728 721 714 714 663 687 669 623 623 618 0 613 613 123 588 588 598 588 593 598 588 588 588 603 574 545 537 529 521 497 504 500 500 493 507 507 504 497 0 0 80 0 0 468 465 468 462 474 468 465 0 0 451 454 451 0 0 0 244 457 454 468 0 707 0 0 0 0 0 0 373 373 377 373 0 0 0 0 0
    0 0 0 0 0 0 0 0 0 0 0 0 0 0 0 0 0 0 0 0 0 0 0 0 0 0 0 0 0 0 0 0 0 0 0 0 0 0 0 0 0 0 0 0 0 0 0 0 0 0 0 0 0 0 0 0 0 0 0 0 0 0 0 0 0 0 0 0 0 1415 1415 1388 1388 1471 1501 1471 1471 1565 209 0 0 4088 4329 4906 4906 5256 4599 4599 4329 4599 4329 4088 4088 3679 3679 4088 3504 3345 3199 3345 3679 3873 4329 4329 4599 5661 5256 5661 4906 4599 3873 3873 3504 3345 3199 3199 3199 3199 3199 3345 3504 3679 3873 4906 4906 5256 6133 6690 6133 6133 6690 6133 6133 6133 5661 5661 5256 5661 5256 5256 5256 5661 5661 6133 6133 6133 5661 6690 6690 6690 6690 6690 5256 6133 5256 5661 5661 5661 6133 5661 5661 5661 5256 5661 5661 5661 5661 5661 5661 5661 6133 5661 6133 5661 5661 5661 5661 6133 6133 6133 6133 7359 6690 7359 7359 8177 7359 6690 5661 5661 4088 3345 2453 1711 0 0 0 0 1338 1247 1314 1247 0 0 1247 0 1226 1206 1115 1149 1098 1036 1036 1051 1066 1036 1066 1098 1051 1066 0 0 0 0 152 152 0 0 151 152 150 148 0 307 791 0 728 721 721 728 728 735 728 721 714 675 687 669 623 623 618 0 613 0 123 593 588 598 588 593 598 588 588 588 603 584 549 545 533 525 497 500 500 497 490 504 504 500 493 0 0 0 0 0 471 468 468 465 471 465 465 0 0 448 451 451 0 0 0 244 454 454 468 0 707 0 0 0 0 0 0 373 373 377 373 0 0 0 0 0
    0 0 0 0 0 0 0 0 0 0 0 0 0 0 0 0 0 0 0 0 0 0 0 0 0 0 0 0 0 0 0 0 0 0 0 0 0 0 0 0 0 0 0 0 0 0 0 0 0 0 0 0 0 0 0 0 0 0 0 0 0 0 0 0 0 0 0 0 0 1415 1388 1388 1388 1443 1501 1471 1471 1599 0 0 0 4329 4906 5661 5661 5661 4906 5256 4906 4906 4599 4329 4088 3873 3873 4088 3504 3345 3345 3504 3679 3873 4329 4329 4329 5256 4906 5256 4088 4329 3679 3504 3345 3345 3066 3199 3199 3345 3199 3504 3679 3873 4088 4906 4906 5661 6133 6690 6133 6133 6690 6133 6133 6133 5256 5661 5256 5661 5256 4906 5256 5661 5256 6133 5661 6133 5661 6133 6133 5661 5661 6133 4906 5661 4906 5661 5661 5661 6133 5661 5661 5661 5256 5661 5661 5661 5661 5661 5661 5661 6133 5661 6133 5661 5661 5661 5661 6133 5661 5661 6690 6690 6690 6690 7359 7359 7359 6690 6133 5661 4329 3345 2628 1795 0 0 0 0 0 0 1338 1268 0 0 1268 0 0 0 1115 1132 1098 1022 1036 1066 1066 1051 1082 1115 1082 1082 0 0 1036 152 152 151 151 151 151 151 150 148 0 0 799 0 735 735 735 743 743 743 743 728 721 687 694 669 623 629 623 613 0 123 123 593 588 598 588 588 598 588 588 588 598 584 553 545 533 529 497 497 497 497 490 500 500 0 493 0 0 0 0 0 0 0 468 465 471 465 462 305 0 448 451 448 0 0 0 243 451 451 462 440 0 0 0 0 0 0 0 0 375 379 375 0 0 0 0 0
    0 0 0 0 0 0 0 0 0 0 0 0 0 0 0 0 0 0 0 0 0 0 0 0 0 0 0 0 0 0 0 0 0 0 0 0 0 0 0 0 0 0 0 0 0 0 0 0 0 0 0 0 0 0 0 0 0 0 0 0 0 0 0 0 0 0 0 0 0 1388 1388 1388 1388 1443 1501 1471 1471 1599 0 0 0 4329 5256 5661 6133 5661 5256 5661 5256 5661 5256 4906 4599 4088 4329 4599 3873 3679 3504 3679 3873 4088 4329 4329 4088 4599 4599 4599 3679 3873 3345 3345 3345 3199 3066 3345 3199 3345 3345 3679 3873 4329 4329 5256 5256 6133 6690 7359 6690 6690 6690 6690 6133 6133 5256 5661 5256 5661 5256 4906 5256 5256 5256 5661 5256 5661 5256 5256 5661 4599 4906 5256 4599 5256 4906 5256 5256 5256 5661 5256 5256 5661 5256 5661 5661 5256 5661 5661 5661 6133 6133 5661 6133 5661 6133 5661 5661 5661 5661 5661 6690 6133 6133 6690 6690 7359 7359 6690 6133 5256 4329 3345 2725 1989 0 0 0 0 0 0 1362 1291 0 0 0 0 0 0 0 0 0 1036 1036 1066 1082 1051 1082 1115 1098 1098 0 0 0 152 152 151 151 0 151 151 150 148 146 0 808 0 750 750 750 750 750 750 743 743 721 694 694 675 629 634 623 613 0 123 123 598 588 598 584 584 598 588 588 588 593 588 553 545 533 525 497 493 490 490 487 500 500 0 490 0 0 0 0 0 0 0 471 465 471 462 459 0 0 0 0 448 0 0 0 243 446 446 451 0 0 0 0 0 0 0 0 0 381 387 379 0 0 0 0 0
    0 0 0 0 0 0 0 0 0 0 0 0 0 0 0 0 0 0 0 0 0 0 0 0 0 0 0 0 0 0 0 0 0 0 0 0 0 0 0 0 0 0 0 0 0 0 0 0 0 0 0 0 0 0 0 0 0 0 0 0 0 0 0 0 0 0 0 0 0 1388 1388 1362 1388 1443 1501 1471 1471 1635 0 0 0 4599 0 6133 6690 6690 6133 6133 5661 6133 5661 5256 5256 4599 4599 5256 4088 4088 3873 4088 4088 4088 4599 4088 3873 4088 3873 3873 3345 3679 3345 3199 3345 3345 3199 3345 3345 3504 3345 4088 4088 4599 4906 5256 5661 6133 6690 7359 6690 7359 6690 6690 6690 6690 5661 5661 5256 6133 5661 5256 5256 5256 4906 5661 5256 5256 4906 5256 5256 4329 4329 4599 4088 4599 4329 4906 4906 4906 5661 5256 5256 5661 5661 5661 5661 5256 5661 6133 5661 6133 6133 5256 6133 5661 5661 5661 5661 6133 5661 5661 6133 6133 6133 6690 6690 6690 7359 6690 6133 5661 4329 3345 2830 2164 0 0 0 0 0 0 1388 1314 0 0 0 0 0 0 0 0 0 1036 1051 1082 1098 1066 1098 1115 1098 1098 0 0 0 0 152 151 0 0 151 0 150 148 146 0 0 0 758 758 758 758 758 758 750 750 728 700 694 675 629 639 629 613 613 123 123 0 593 598 584 579 598 588 584 584 593 588 549 541 533 525 497 487 490 490 487 497 497 139 490 0 0 0 487 0 0 256 471 465 468 462 457 0 0 0 0 446 0 90 0 0 443 443 443 0 0 0 0 0 0 0 0 0 389 391 385 0 0 0 0 0
    0 0 0 0 0 0 0 0 0 0 0 0 0 0 0 0 0 0 0 0 0 0 0 0 0 0 0 0 0 0 0 0 0 0 0 0 0 0 0 0 0 0 0 0 0 0 0 0 0 0 0 0 0 0 0 0 0 0 0 0 0 0 0 0 0 0 0 0 0 1388 1388 1362 1388 1443 1501 1471 1471 1599 0 0 0 0 0 8177 8177 7359 6690 6690 6133 6133 5661 5661 5256 4906 4906 5256 4329 4329 4088 4329 4329 4329 4599 3873 3679 3873 3679 3345 3199 3345 3066 3066 3199 3199 3199 3504 3345 3679 3679 4329 4329 4906 4906 5256 5661 6133 7359 8177 7359 7359 7359 7359 6690 6690 5661 5661 5661 6133 5661 5256 5256 5661 4906 5661 5256 5256 4906 4906 4906 4088 3873 4088 3679 4088 3873 4088 4329 4329 4906 5256 4906 5661 5256 5256 5661 5256 5661 6133 5661 6133 6133 5256 5661 5661 5661 5661 5661 6133 5661 5661 6690 6133 6133 6690 6690 7359 7359 7359 6133 6133 4599 3504 2943 2374 0 0 0 0 0 1533 1415 1338 1291 0 1291 0 0 0 0 0 0 1051 1066 1098 1098 1066 1082 1098 1115 1098 0 223 0 0 152 151 0 0 0 0 150 148 0 0 0 0 766 758 766 766 758 758 758 766 735 707 694 675 629 639 629 613 613 123 123 123 593 598 584 579 598 588 588 584 588 593 553 549 533 529 500 487 487 487 0 497 497 139 0 0 0 0 0 0 0 0 468 462 465 462 457 0 4088 0 0 446 0 90 0 0 438 440 0 0 0 0 0 0 808 0 0 0 391 393 389 0 0 0 0 0
    0 0 0 0 0 0 0 0 0 0 0 0 0 0 0 0 0 0 0 0 0 0 0 0 0 0 0 0 0 0 0 0 0 0 0 0 0 0 0 0 0 0 0 0 0 0 0 0 0 0 0 0 0 0 0 0 0 0 0 0 0 0 0 0 0 0 0 0 0 1388 1388 1362 1388 1443 1501 1471 1471 1565 1471 1501 0 0 0 0 0 0 8177 7359 6690 6690 6133 6133 5661 5256 5256 5256 4599 4599 4599 4599 4329 4329 4329 3679 3679 3679 3345 3066 2943 3199 3066 2943 3199 3199 3345 3679 3679 4088 4088 4906 4906 5256 5256 5661 5661 6133 7359 8177 7359 8177 8177 6690 6690 6690 5661 5661 5661 5661 5661 5256 5661 5256 4906 5661 5256 5256 4906 4906 4599 3873 3679 3873 3504 3679 3679 3679 3873 4088 4329 4906 4599 5256 5256 5256 5661 4906 5661 6133 5256 6133 5661 4906 5256 5256 5661 5256 5256 6133 5661 5661 6690 6133 6133 6690 7359 7359 7359 6690 6133 6133 4599 3679 3066 2537 0 0 0 0 1752 1599 1471 1362 1291 1338 1291 1168 0 0 1149 0 1132 1051 1082 1082 1098 1066 1082 1098 1115 1082 0 0 0 0 153 152 0 0 0 0 0 148 0 305 0 0 774 766 774 774 766 774 766 782 743 714 700 675 629 639 629 618 618 123 0 123 593 598 584 579 598 588 588 584 588 598 557 553 537 529 500 484 490 490 0 497 500 139 0 0 0 493 490 0 0 0 0 462 465 459 454 0 4329 0 0 446 0 90 0 0 0 0 0 0 0 0 418 0 808 0 0 0 393 393 389 0 0 0 0 0
    0 0 0 0 0 0 0 0 0 0 0 0 0 0 0 0 0 0 0 0 0 0 0 0 0 0 0 0 0 0 0 0 0 0 0 0 0 0 0 0 0 0 0 0 0 0 0 0 0 0 0 0 0 0 0 0 0 0 0 0 0 0 0 0 0 0 0 0 0 1388 1388 1362 1388 1443 1501 1471 1471 1533 1471 1501 0 0 0 0 0 0 8177 8177 6690 6690 6133 6133 6133 6133 5661 6133 5256 5256 5256 5256 4599 4906 4599 3873 3873 3679 3504 3199 3066 3199 3066 3066 3345 3345 3504 3873 4088 4329 4599 5256 4906 5256 5661 5661 5661 6690 7359 8177 8177 9199 8177 7359 7359 6690 5661 5661 5661 5661 5256 5256 5661 5256 4906 5256 4906 4906 4906 4599 4329 3679 3504 3679 3345 3504 3504 3345 3679 3873 4088 4329 4329 4599 4906 4906 5256 4906 5256 5661 5256 5661 5661 4599 5256 5256 5661 5661 5256 6133 6133 6133 6690 6133 6690 6690 7359 7359 7359 6690 6133 6133 4906 4088 3199 2725 0 0 0 0 0 1635 1533 1388 1314 1362 1268 1149 0 1168 1168 1082 1132 1051 1082 1082 1098 1066 1066 1082 1115 1082 0 0 0 0 153 152 0 0 0 150 0 148 0 306 0 0 774 766 0 0 782 782 782 799 750 714 694 675 629 645 634 618 618 618 618 0 593 598 584 579 593 584 584 584 584 598 557 553 537 529 504 484 493 493 0 497 500 0 0 0 0 490 490 0 0 0 0 462 462 459 454 451 4329 0 0 446 0 90 0 0 0 0 0 0 0 0 418 413 0 0 0 0 395 393 391 0 0 0 0 0
    0 0 0 0 0 0 0 0 0 0 0 0 0 0 0 0 0 0 0 0 0 0 0 0 0 0 0 0 0 0 0 0 0 0 0 0 0 0 0 0 0 0 0 0 0 0 0 0 0 0 0 0 0 0 0 0 0 0 0 0 0 0 0 0 0 0 0 0 0 1388 1388 1362 1388 1443 1471 1471 1471 1533 1501 1533 1599 0 0 0 0 0 8177 8177 6690 6690 6133 6690 6690 6133 6133 6690 6133 6133 6133 6133 5256 5256 4906 4329 4088 3873 3504 3199 3066 3199 3066 3066 3345 3345 3504 4088 4599 4599 4906 5256 5256 5256 5661 5661 5661 6133 7359 7359 8177 8177 8177 6690 7359 6690 5661 5661 5661 5256 5256 5256 5661 5256 4906 5256 4906 4906 4906 4329 4088 3504 3345 3504 3345 3345 3345 3345 3679 3679 4088 4088 4329 4329 4906 4906 5256 4906 5256 5661 5661 6133 6133 4906 5256 5256 5661 5661 5661 6133 5661 5661 6690 6133 6133 6690 7359 7359 7359 6690 6133 6690 4906 4329 3345 0 0 0 0 0 0 1672 1599 1443 1362 1388 1291 1149 1187 1149 1149 1066 1115 1051 1082 1082 1098 1066 1066 1066 1115 1066 0 0 0 0 153 153 152 152 0 0 0 149 0 306 0 0 0 766 0 0 782 782 774 799 750 721 694 675 634 645 634 618 618 618 623 613 593 598 584 579 593 584 584 584 584 598 557 553 537 529 504 487 497 497 490 500 504 4088 4088 0 0 0 487 0 0 0 465 462 459 459 454 451 4329 0 0 446 0 90 0 0 0 0 0 0 0 418 415 413 406 0 0 0 397 395 0 0 0 0 0 0
    0 0 0 0 0 0 0 0 0 0 0 0 0 0 0 0 0 0 0 0 0 0 0 0 0 0 0 0 0 0 0 0 0 0 0 0 0 0 0 0 0 0 0 0 0 0 0 0 0 0 0 0 0 0 0 0 0 0 0 0 0 0 0 0 0 0 0 0 0 1415 1388 1388 1388 1443 1471 1471 1471 1565 1533 1533 1599 0 0 0 0 0 0 8177 7359 7359 6690 6690 6690 6690 6133 6690 6690 6690 6690 6690 5661 5661 5256 4599 4088 3679 3504 3066 2943 2943 2725 2725 3066 3199 3345 4088 4906 4906 5256 5661 5256 5661 5661 5661 6133 6133 7359 7359 8177 8177 7359 7359 7359 6690 5661 5661 6133 5256 5256 5256 5661 5661 4906 5256 4906 4599 4599 4088 3873 3345 3345 3345 3199 3199 3199 3199 3504 3504 3873 3873 3873 4088 4599 4599 4906 4599 4906 5256 5661 6133 6133 5256 5256 5661 6133 6133 5661 6133 5661 6133 6690 6133 6133 6690 6690 7359 7359 6690 6133 6690 4906 4599 3504 0 0 0 0 0 0 1711 1635 1471 1388 1362 1268 1132 1149 1132 1132 1051 1098 1051 1082 1082 1082 1066 1066 1066 1098 1066 0 0 0 981 0 153 0 0 0 0 0 0 0 307 0 0 774 758 0 0 766 766 758 791 743 714 687 669 634 645 634 618 623 623 623 618 593 598 584 579 593 584 579 579 579 598 557 549 533 525 504 487 497 497 493 500 507 4599 4329 0 0 0 0 0 468 0 462 462 459 462 454 451 4599 0 0 443 443 0 0 0 0 0 0 0 0 413 413 411 404 406 402 399 397 0 0 0 0 0 0 0
    0 0 0 0 0 0 0 0 0 0 0 0 0 0 0 0 0 0 0 0 0 0 0 0 0 0 0 0 0 0 0 0 0 0 0 0 0 0 0 0 0 0 0 0 0 0 0 0 0 0 0 0 0 0 0 0 0 0 0 0 0 0 0 0 0 0 0 0 0 1388 1362 1362 1362 1443 1471 1471 1471 1565 1533 1565 1599 0 0 0 0 0 0 0 7359 7359 6690 6690 6690 6690 6690 6690 6690 6690 6690 7359 6133 6133 5661 5256 4599 4088 3679 3066 2830 2830 2537 2537 2830 3066 3345 4329 5256 4906 5661 6133 5661 5661 6133 6133 6133 6690 7359 7359 8177 8177 7359 7359 7359 7359 6690 6133 6690 6133 6133 5661 6133 6133 4906 5256 4906 4599 4329 3873 3504 3199 3199 3345 3066 3066 3066 3066 3345 3504 3679 3504 3679 3873 4088 4329 4599 4329 4599 5256 5661 6133 6133 5256 5661 5661 6133 6133 6133 6133 6133 6133 6690 6133 6133 6690 7359 6690 6690 6690 6133 6133 4906 4599 3679 3066 0 0 0 0 0 0 1635 1471 1388 1362 1247 1149 1132 1115 1115 1051 1098 1051 1082 1066 1082 1051 0 1051 1082 1051 0 0 1008 968 994 0 0 0 0 855 855 0 0 309 0 0 766 743 758 0 743 743 743 758 728 707 681 669 634 645 634 618 623 623 623 618 593 598 584 579 593 579 579 574 574 598 557 545 533 521 504 487 500 500 497 504 511 4906 0 0 0 477 477 0 468 457 462 462 459 462 454 451 4906 0 0 443 443 0 0 0 0 0 0 0 0 411 408 408 404 404 399 399 395 0 0 0 0 0 0 0
    0 0 0 0 0 0 0 0 0 0 0 0 0 0 0 0 0 0 0 0 0 0 0 0 0 0 0 0 0 0 0 0 0 0 0 0 0 0 0 0 0 0 0 0 0 0 0 0 0 0 0 0 0 0 0 0 0 0 0 0 0 0 0 0 0 0 0 0 0 1388 1362 1362 1362 1415 1471 1443 1471 1565 1501 0 1533 0 0 0 0 8177 7359 7359 6690 6690 6133 6690 6690 6690 6690 7359 6690 6690 7359 7359 6690 6690 6133 5661 4906 4906 3679 3199 2830 2725 2374 2299 2628 0 3345 4906 5661 5256 6133 6133 5661 5661 6133 6133 6133 6690 7359 7359 8177 8177 7359 7359 7359 7359 7359 6690 7359 6690 6133 6690 6690 6133 5256 5661 5256 4599 4088 3679 3345 3066 3199 3199 2943 3066 3066 3066 3345 3345 3504 3504 3504 3679 3873 4088 4329 4329 4599 5256 5661 6133 6133 5661 6133 5661 6133 6133 6133 6690 6133 6133 6690 6133 6690 7359 7359 7359 6690 6690 6133 6133 4906 4906 3679 3199 0 0 0 0 0 1711 1635 1471 1362 1338 1247 1149 1149 1132 1132 1051 1115 1051 1082 1066 1066 1051 0 1051 1066 0 0 0 994 968 968 0 0 0 0 855 855 836 0 0 0 0 750 735 743 750 735 735 728 743 721 707 681 669 634 639 634 618 623 623 623 618 593 598 584 579 593 584 579 574 574 603 557 545 533 521 507 490 504 504 500 507 514 497 0 0 0 474 471 0 465 457 462 465 459 465 457 454 5256 0 446 446 446 0 0 0 0 0 0 0 0 408 408 406 402 404 0 0 395 0 0 0 0 0 0 0
    0 0 0 0 0 0 0 0 0 0 0 0 0 0 0 0 0 0 0 0 0 0 0 0 0 0 0 0 0 0 0 0 0 0 0 0 0 0 0 0 0 0 0 0 0 0 0 0 0 0 0 0 0 0 0 0 0 0 0 0 0 0 0 0 0 0 0 0 0 1388 1362 1388 1362 1443 1471 1443 1443 1501 1471 0 1501 1752 0 0 0 7359 6690 6133 6133 6690 6133 6133 6690 6133 6133 6690 6690 6690 7359 7359 6690 6690 6133 5661 5256 5256 3504 3199 2725 2453 2164 2102 0 0 0 4906 5661 4906 5661 5661 5661 6133 6133 6133 6133 6133 6690 6690 7359 7359 7359 7359 7359 7359 7359 6690 7359 6690 6690 6690 6690 6690 5661 5661 5661 4906 4088 3504 3199 3066 3066 3199 2943 2943 2943 2943 3199 3199 3345 3345 3504 3504 3873 4088 4329 4599 4599 5661 5661 6133 6690 5661 6133 5661 6133 6133 6133 6690 6133 6133 6690 6133 6690 7359 7359 7359 6690 6690 6133 6133 4906 4906 3873 3345 3199 0 0 0 1887 1711 1599 1471 1362 1314 1247 1168 1149 1149 1132 1066 1132 1066 1098 1066 1066 1051 1036 1036 1051 1022 1036 968 981 968 955 968 876 886 865 855 845 836 799 0 0 0 735 728 735 735 728 721 714 721 707 700 675 663 634 639 629 618 618 618 623 618 593 598 588 584 598 584 579 579 579 603 557 545 533 525 511 490 507 507 504 507 518 500 0 490 0 474 468 0 465 457 462 465 459 465 459 457 5661 448 448 446 446 0 0 0 0 0 0 0 0 408 406 0 0 0 0 0 393 0 0 0 0 0 0 0
    0 0 0 0 0 0 0 0 0 0 0 0 0 0 0 0 0 0 0 0 0 0 0 0 0 0 0 0 0 0 0 0 0 0 0 0 0 0 0 0 0 0 0 0 0 0 0 0 0 0 0 0 0 0 0 0 0 0 0 0 0 0 0 0 0 0 0 0 0 1388 1362 1388 1362 1415 1471 1443 1443 1471 1443 1443 1471 0 0 0 0 6133 5256 4906 5661 6133 6133 5661 6133 5661 5661 6133 6133 6690 6690 7359 6690 6690 6133 5661 5256 5256 3199 2943 2453 2299 2102 2044 0 0 2830 4088 4906 4329 5256 4906 5661 6133 6133 6133 6133 6133 6690 6690 7359 6690 6690 7359 7359 7359 7359 7359 7359 6690 6690 7359 6690 6690 6133 6133 5661 5256 4599 3504 3345 3199 3199 3199 3066 3066 2943 2943 3345 3199 3345 3345 3504 3504 3873 4088 4329 4599 4599 5661 6133 6133 6690 5661 6133 6133 6133 6133 6133 6690 6133 6133 6690 6133 6690 7359 7359 7359 7359 6133 5661 5661 4906 4906 4088 3504 3345 3345 3345 2830 1887 1711 1599 1443 1362 1314 1247 1187 1168 1168 1132 1066 1115 1066 1098 1066 1051 1051 1036 1036 1051 1022 1036 981 981 981 981 968 919 908 897 855 845 826 799 782 766 782 735 735 728 728 721 714 707 707 694 687 669 657 634 634 629 613 618 618 618 613 588 598 588 588 598 588 579 579 579 603 561 545 537 525 518 493 511 511 504 507 518 500 0 490 0 471 465 459 462 457 459 465 459 465 459 457 0 451 448 446 443 0 0 0 0 0 0 0 0 404 0 0 0 0 0 0 391 389 0 0 0 0 0 0
    0 0 0 0 0 0 0 0 0 0 0 0 0 0 0 0 0 0 0 0 0 0 0 0 0 0 0 0 0 0 0 0 0 0 0 0 0 0 0 0 0 0 0 0 0 0 0 0 0 0 0 0 0 0 0 0 0 0 0 0 0 0 0 0 0 0 0 0 0 1388 1362 1388 1362 1415 1471 1443 1443 1471 1443 1443 1443 1711 0 0 0 0 0 0 0 0 0 0 5661 5256 6133 7359 7359 7359 8177 8177 0 7359 6133 5661 4906 4329 0 0 2299 2164 2044 1989 0 0 2725 3504 4088 4088 4906 4599 5661 6133 6133 6133 5661 6133 6690 6690 7359 6690 6690 7359 7359 8177 8177 8177 8177 7359 7359 7359 7359 7359 6133 6690 5661 5256 4599 3679 3504 3345 3345 3345 3199 3066 3066 3066 3345 3345 3504 3345 3504 3504 3679 4329 4329 4906 4906 5661 5661 6133 6690 6133 6133 6133 6133 6133 5661 6133 6133 6133 6690 6133 6690 6690 7359 7359 7359 6133 5256 5256 4599 4599 4088 3679 3345 3345 3504 3066 1989 1711 1565 1443 1362 1314 1247 1206 1187 1187 1132 1082 1115 1066 1082 1066 1051 1036 1036 1036 1051 1022 1036 994 994 994 994 968 943 908 908 845 826 817 791 774 766 774 735 735 728 728 721 714 700 700 687 681 663 651 634 629 623 613 618 618 613 613 588 598 588 588 598 588 579 579 579 603 561 541 533 525 514 493 507 511 507 507 518 497 0 487 477 471 462 457 462 457 459 465 459 465 459 457 459 448 448 443 443 440 438 435 430 0 0 0 415 402 0 0 0 0 0 0 389 387 383 0 0 0 0 0
    0 0 0 0 0 0 0 0 0 0 0 0 0 0 0 0 0 0 0 0 0 0 0 0 0 0 0 0 0 0 0 0 0 0 0 0 0 0 0 0 0 0 0 0 0 0 0 0 0 0 0 0 0 0 0 0 0 0 0 0 0 0 0 0 0 0 0 0 0 1388 1362 1388 1362 1415 1471 1443 1443 1471 1443 1415 1388 1501 0 943 886 886 865 865 943 981 1008 1036 0 0 0 0 7359 7359 0 0 0 0 6133 5661 4599 3873 0 0 0 1936 1887 1839 0 1989 2164 3066 3345 3679 4329 4088 5256 6133 5661 6133 6133 6133 6690 6690 7359 6690 6690 7359 7359 8177 8177 8177 8177 7359 7359 8177 7359 7359 6690 6690 5661 5256 4599 3679 3679 3504 3504 3504 3345 3199 3199 3066 3345 3345 3504 3199 3504 3504 3679 4329 4329 4906 5256 6133 5661 6133 6690 6133 6133 6133 6133 6133 5661 6690 6133 6133 6690 6133 6690 6690 7359 7359 7359 6133 5256 5256 4599 4599 4329 3873 3504 3504 3504 3345 2374 1711 1565 1443 1388 1314 1226 1206 1187 1187 1115 1082 1098 1066 1066 1066 1051 1036 1036 1036 1036 1022 1036 1008 994 1008 994 968 943 897 908 826 817 808 782 774 766 766 735 735 728 721 714 700 694 687 681 681 657 651 634 629 629 613 618 618 613 613 588 598 593 588 598 588 579 579 579 603 561 541 533 525 511 490 507 507 507 507 518 497 0 487 477 468 462 459 462 459 462 468 459 465 459 454 457 446 446 440 438 438 435 432 430 427 425 422 411 397 395 395 391 393 0 0 385 383 379 0 0 0 0 0
    0 0 0 0 0 0 0 0 0 0 0 0 0 0 0 0 0 0 0 0 0 0 0 0 0 0 0 0 0 0 0 0 0 0 0 0 0 0 0 0 0 0 0 0 0 0 0 0 0 0 0 0 0 0 0 0 0 0 0 0 0 0 0 0 0 0 0 0 0 1388 1388 1388 1362 1415 1443 1415 1415 1415 1388 1362 1314 0 981 943 897 897 876 876 919 968 1022 1066 1098 1098 1098 1051 0 7359 0 0 0 0 0 0 0 0 0 0 1936 1839 1839 1795 1887 1887 1936 2537 2943 3345 4088 3873 5256 6133 6133 6133 6133 6690 7359 6690 7359 6690 6690 7359 7359 8177 8177 8177 8177 8177 8177 8177 7359 7359 7359 7359 6133 5661 4906 3873 3873 3504 3873 3679 3504 3345 3345 3199 3345 3345 3504 3345 3504 3679 3679 4329 4599 5256 5256 6133 6133 6690 6690 6133 6133 6133 6133 6133 5661 6690 6133 6133 6690 6133 6133 6690 7359 6690 6690 6133 4906 4906 4599 4599 4329 3873 3504 3504 3504 3345 2537 1752 1599 1501 1388 1314 1226 1226 1206 1187 1098 1082 1098 1051 1066 1066 1036 1036 1036 1036 1036 1022 1036 1008 994 994 981 931 919 865 845 808 808 799 774 766 766 766 735 743 728 714 707 700 687 687 675 675 657 645 634 629 629 613 618 618 613 613 584 598 593 588 598 593 584 579 579 608 566 541 533 525 511 490 504 507 507 507 514 497 487 487 477 471 465 462 465 462 462 468 462 468 459 454 457 443 443 438 435 432 430 427 425 422 418 415 406 395 393 393 389 391 387 383 379 379 375 0 0 0 0 0
    0 0 0 0 0 0 0 0 0 0 0 0 0 0 0 0 0 0 0 0 0 0 0 0 0 0 0 0 0 0 0 0 0 0 0 0 0 0 0 0 0 0 0 0 0 0 0 0 0 0 0 0 0 0 0 0 0 0 0 0 0 0 0 0 0 0 0 0 0 1388 1362 1388 1362 1415 1443 1415 1362 1362 1338 1314 1022 0 931 908 886 886 876 865 897 955 1036 1168 1168 1132 1115 1066 0 0 0 0 0 0 0 0 0 0 2044 0 1839 1795 1795 1752 1839 1839 1887 2164 2725 3199 4088 3873 5256 6133 6133 6690 6690 6690 7359 7359 7359 6690 6690 7359 7359 8177 8177 8177 8177 8177 8177 7359 7359 8177 7359 7359 6133 6133 5256 4329 4329 3679 4088 3679 3504 3504 3345 3345 3345 3345 3504 3345 3504 3679 3873 4599 4599 5661 5661 6690 5661 6690 6133 6133 6690 6133 6133 6133 5661 6690 6133 6133 6690 6133 6133 6690 7359 6690 6133 6133 4906 4599 4599 4088 3873 3679 3345 3345 3345 3345 2628 1795 1635 1501 1362 1291 1206 1247 1247 1226 1115 1115 1115 1066 1051 1066 1036 1036 1036 1036 1036 1022 1036 1022 981 994 955 908 876 836 817 791 799 799 766 766 766 766 728 735 721 714 707 700 687 687 675 675 657 645 634 629 623 613 613 613 613 608 584 598 593 593 598 593 584 584 584 608 566 541 533 525 514 493 504 507 504 504 511 497 484 484 481 474 468 465 468 465 465 471 465 468 459 454 457 446 443 438 435 432 430 425 420 415 413 411 402 395 393 391 389 387 383 379 377 375 375 0 0 0 0 0
    0 0 0 0 0 0 0 0 0 0 0 0 0 0 0 0 0 0 0 0 0 0 0 0 0 0 0 0 0 0 0 0 0 0 0 0 0 0 0 0 0 0 0 0 0 0 0 0 0 0 0 0 0 0 0 0 0 0 0 0 0 0 0 0 0 0 0 0 0 1388 1338 1338 1314 1388 1388 1338 1314 1291 1247 1082 981 876 886 886 876 876 865 855 876 919 1036 1115 1187 1149 1132 1082 0 0 0 0 0 0 0 0 245 0 0 0 1795 1752 1752 1752 1795 1839 1887 1989 2628 3199 3873 3873 5256 6133 6133 6690 6690 7359 7359 7359 8177 7359 7359 8177 7359 8177 8177 8177 8177 7359 8177 7359 6690 7359 7359 6690 6133 6133 5661 4906 4906 4329 4599 4088 3873 3679 3504 3504 3504 3504 3679 3345 3679 3873 4088 4906 5256 6133 6133 6690 5661 6690 6133 6133 6690 6133 6133 5661 5661 6690 5661 5661 6690 5661 6690 6133 7359 6690 6690 4906 4329 3873 4088 3504 3504 3345 3199 3066 3199 2943 2453 1887 1711 1565 1415 1338 1314 1314 1291 1268 1149 1149 1149 1082 1051 1082 1036 1036 1036 1036 1022 1022 1022 1022 968 981 955 908 886 845 817 799 799 799 766 766 766 766 728 743 728 714 714 707 694 687 675 675 657 645 634 623 623 613 613 613 608 608 579 598 593 593 603 598 588 584 584 608 566 545 533 525 518 497 504 507 504 507 507 497 487 487 481 474 471 468 468 468 465 471 462 465 459 454 454 446 443 438 435 430 427 422 415 413 413 408 402 395 393 393 389 387 381 377 375 375 373 0 0 0 0 0
    0 0 0 0 0 0 0 0 0 0 0 0 0 0 0 0 0 0 0 0 0 0 0 0 0 0 0 0 0 0 0 0 0 0 0 0 0 0 0 0 0 0 0 0 0 0 0 0 0 0 0 0 0 0 0 0 0 0 0 0 0 0 0 0 0 0 0 0 0 1362 1338 1338 1314 1362 1338 1291 1226 1115 1051 994 908 865 865 876 876 876 865 855 876 981 1098 1168 1168 1187 1168 1115 1066 1022 981 0 0 0 0 0 244 238 0 1635 1711 1711 1711 1711 1752 1795 1839 1936 2628 3199 3873 3679 5256 6133 6133 6133 6690 7359 7359 7359 7359 7359 7359 7359 7359 7359 7359 7359 7359 7359 7359 6690 6690 7359 7359 6690 6133 6133 6133 5661 5661 4906 4906 4088 4088 3873 3679 3679 3504 3504 3679 3504 3873 4329 4599 5256 5661 6690 6690 6690 6133 6690 6690 6133 6133 6133 6133 5661 5256 6690 5661 5256 6690 5256 6133 5661 6690 6690 6133 3873 3679 3504 3679 3199 3066 3066 2943 2830 2943 2725 2374 1989 1839 1711 1565 1471 1388 1388 1362 1291 1187 1168 1168 1098 1051 1066 1051 1036 1036 1051 1022 1022 1022 1036 981 994 968 931 908 855 826 808 799 799 766 766 774 766 735 750 735 721 721 714 694 687 675 675 651 639 634 629 623 613 613 613 608 603 579 598 598 598 603 598 593 588 588 608 574 549 537 533 525 504 511 511 507 507 507 500 487 487 484 477 474 474 471 468 468 471 462 462 459 451 451 443 443 438 432 427 422 418 413 413 413 408 402 395 395 393 391 387 379 377 373 375 373 0 0 0 0 0
    0 0 0 0 0 0 0 0 0 0 0 0 0 0 0 0 0 0 0 0 0 0 0 0 0 0 0 0 0 0 0 0 0 0 0 0 0 0 0 0 0 0 0 0 0 0 0 0 0 0 0 0 0 0 0 0 0 0 0 0 0 0 0 0 0 0 0 0 0 1314 1291 1291 1291 1314 1247 1206 1066 994 968 931 865 855 855 865 876 876 865 876 897 1132 1226 1226 1206 1206 1206 1149 1082 1051 1022 931 0 0 0 0 239 0 1752 1635 1672 1672 1711 1711 1752 1839 1887 1936 2628 3199 4088 3873 5256 5661 5661 6133 6690 6690 7359 6690 7359 6690 7359 7359 6690 7359 6690 6690 6690 6690 6690 6133 6133 6690 7359 6690 6133 6133 6133 6133 6133 5661 5661 4329 4088 3873 3873 3679 3504 3504 3679 3504 4088 4599 5256 6133 6133 6690 6690 6690 6133 6690 6133 6133 6133 6133 6133 5661 4906 6133 4906 4329 5661 4088 4906 4329 5661 6690 6133 3679 3345 3504 3504 2943 2943 2943 2830 2725 2725 2628 2374 2044 1936 1752 1672 1533 1443 1415 1338 1291 1168 1187 1168 1098 1051 1066 1051 1036 1036 1051 1022 1022 1022 1051 994 994 981 955 955 876 855 817 817 817 791 782 791 774 750 758 735 721 714 707 687 681 651 663 639 639 634 629 629 618 613 613 608 608 584 598 598 598 598 598 588 588 588 603 574 553 545 537 533 514 514 514 507 507 507 500 487 487 487 481 477 477 471 468 465 468 459 459 457 451 448 440 440 435 432 425 420 413 413 413 415 411 402 395 395 391 391 385 377 375 371 373 371 0 0 0 0 0
    0 0 0 0 0 0 0 0 0 0 0 0 0 0 0 0 0 0 0 0 0 0 0 0 0 0 0 0 0 0 0 0 0 0 0 0 0 0 0 0 0 0 0 0 0 0 0 0 0 0 0 0 0 0 0 0 0 0 0 0 0 0 0 0 0 0 0 0 0 1268 1247 1247 1247 1247 1132 1098 1036 994 968 955 865 865 876 876 876 876 876 919 943 1226 1268 1268 1247 1226 1226 1168 1098 1066 1051 1022 1051 0 0 0 0 0 1711 1635 1635 1672 1711 1672 1711 1795 1887 1887 2628 3199 4329 4329 5256 5256 5661 6133 6133 6690 7359 6690 7359 6690 7359 7359 6690 6690 6690 6133 6133 6690 6690 6133 6133 6690 6690 6690 6133 6133 6690 6690 6690 5661 5661 4329 4088 3873 3679 3504 3345 3504 3504 3504 3873 4599 5256 6133 6133 6690 6690 6690 6133 6690 6133 6133 6133 5661 5661 5256 4599 5661 4329 3873 4906 3504 3873 3679 4599 7359 5661 3504 3199 3345 3345 2830 2830 2830 2830 2628 2628 2537 2299 2102 1989 1752 1711 1635 1533 1443 1338 1291 1149 1168 1149 1098 1051 1082 1066 1051 1036 1051 1022 1022 1022 1098 1008 1008 994 994 981 919 919 845 0 845 817 808 0 799 782 791 766 735 728 714 694 681 639 657 634 639 639 639 634 618 613 613 608 608 584 598 598 598 598 603 588 588 588 598 574 557 549 545 537 521 518 514 507 507 507 500 487 487 487 481 477 477 474 468 468 471 459 459 454 448 446 440 440 432 430 422 418 413 413 411 413 408 399 393 393 391 389 385 377 375 373 375 373 0 0 0 0 0
    0 0 0 0 0 0 0 0 0 0 0 0 0 0 0 0 0 0 0 0 0 0 0 0 0 0 0 0 0 0 0 0 0 0 0 0 0 0 0 0 0 0 0 0 0 0 0 0 0 0 0 0 0 0 0 0 0 0 0 0 0 0 0 0 0 0 0 0 0 1206 1226 1206 1187 1187 1082 1051 1022 981 981 968 876 876 886 876 876 876 886 931 955 1291 1268 1268 1247 1226 1206 1168 1115 1066 1066 1051 1066 0 0 0 0 0 1711 1635 1635 1711 1711 1672 1672 1752 1839 1839 2628 3345 4906 4906 5256 4599 5256 5661 6133 6690 6690 6690 6690 6690 7359 7359 6133 6690 6133 5661 6133 6133 6133 5661 5661 6133 6690 6133 6133 6133 6133 6690 6690 5661 5661 4088 3873 3679 3504 3504 3345 3345 3345 3345 3679 4329 5256 5661 6133 6133 6133 6133 5661 6133 6133 6133 6133 6133 6133 5661 4906 6133 4599 4088 5661 4088 4599 4088 5661 8177 5661 3345 3199 3345 3345 2725 2830 2830 2725 2537 2628 2537 2299 2102 2044 1795 1711 1672 1565 1443 1314 1291 1168 1168 1149 1098 1051 1082 1066 1051 1036 1036 1008 1008 1008 1066 994 994 981 994 994 931 931 865 845 855 836 0 0 0 0 799 0 0 0 0 728 707 645 663 623 645 645 651 645 623 613 613 608 608 588 598 603 598 593 603 588 588 588 593 574 557 549 549 537 529 521 518 507 511 507 500 487 490 487 484 481 484 474 471 471 471 462 459 457 448 446 440 440 435 432 425 418 413 413 411 413 408 399 395 395 391 391 385 377 375 373 375 371 0 0 0 0 0
    0 0 0 0 0 0 0 0 0 0 0 0 0 0 0 0 0 0 0 0 0 0 0 0 0 0 0 0 0 0 0 0 0 0 0 0 0 0 0 0 0 0 0 0 0 0 0 0 0 0 0 0 0 0 0 0 0 0 0 0 0 0 0 0 0 0 0 0 0 1132 1187 1149 1115 1098 1036 1036 1008 981 981 943 865 865 886 865 876 876 886 931 968 1268 1268 1268 1268 1247 1206 1168 1115 1066 1066 1066 1098 1187 0 0 0 0 1711 1635 1635 1711 1711 1672 1635 1711 1795 1795 2830 3504 5256 5661 5256 4329 5256 5661 6133 6133 6690 6133 6133 6133 6690 6690 5661 5661 5661 5256 5661 5661 5661 5256 5256 6133 6133 5256 6133 5661 6133 6133 6133 5256 5256 3873 3679 3345 3345 3199 3199 3199 3199 3199 3345 3873 4599 4906 5256 5661 5256 5256 5256 5661 6133 5661 6133 6133 6690 6133 5256 6133 5256 4088 4906 3873 4088 3873 5256 0 5256 3199 3066 3199 3199 2628 2725 2725 2725 2453 2537 2453 2230 2102 2102 1795 1711 1672 1565 1443 1291 1268 1187 1168 1149 1115 1066 1082 1066 1051 1036 1036 1008 1008 994 1036 981 981 981 994 1008 994 994 943 919 886 845 0 0 0 0 782 0 1711 0 0 0 721 694 687 623 657 663 663 663 629 613 608 608 608 588 593 598 598 593 603 588 588 584 588 574 557 553 553 541 533 521 521 507 511 507 500 490 490 490 490 487 490 481 477 474 477 465 462 459 454 448 443 440 438 435 425 420 413 413 411 413 408 402 395 397 393 393 387 379 377 373 375 371 0 0 0 0 0
    0 0 0 0 0 0 0 0 0 0 0 0 0 0 0 0 0 0 0 0 0 0 0 0 0 0 0 0 0 0 0 0 0 0 0 0 0 0 0 0 0 0 0 0 0 0 0 0 0 0 0 0 0 0 0 0 0 0 0 0 0 0 0 0 0 0 0 0 0 1098 1149 1098 1066 1051 1008 1008 994 968 968 919 855 865 865 845 845 845 836 865 908 1115 1149 1206 1226 1206 1187 1132 1098 1051 1066 1082 1132 1187 1187 0 0 1635 1711 1672 1672 1752 1752 1672 1599 1711 1795 1936 3199 3504 5661 6133 5256 4329 4906 5256 5661 6133 6133 5661 5661 6133 6690 6690 5661 5661 5661 5256 5256 5661 5256 5256 4906 5661 5661 4906 5661 5661 5661 6133 5661 4599 4906 3504 3345 3199 3066 3066 3066 3066 3066 3066 3066 3504 3873 4329 4906 4906 5256 4906 4906 5256 5661 5661 5661 5661 6133 5256 4599 4906 5256 4906 4599 4329 4329 4088 5256 0 6133 3199 2943 2943 3066 2299 2628 2628 2537 2299 2374 2299 2102 2102 2102 1795 1711 1711 1599 1415 1291 1268 1168 1168 1149 1115 1066 1082 1066 1051 1036 1036 994 994 994 1022 981 981 981 981 994 994 981 968 943 908 855 0 0 0 782 774 766 0 0 0 0 766 735 707 618 663 663 663 663 623 598 603 608 603 584 588 598 598 588 603 588 584 584 584 574 557 553 557 541 537 525 525 511 514 507 504 493 493 493 493 490 493 481 477 477 477 468 459 459 457 448 443 440 435 432 422 420 413 413 411 411 408 399 395 397 395 393 389 383 379 375 377 375 0 0 0 0 0
    0 0 0 0 0 0 0 0 0 0 0 0 0 0 0 0 0 0 0 0 0 0 0 0 0 0 0 0 0 0 0 0 0 0 0 0 0 0 0 0 0 0 0 0 0 0 0 0 0 0 0 0 0 0 0 0 0 0 0 0 0 0 0 0 0 0 0 0 0 1066 1098 1051 1022 1022 994 981 981 968 968 908 845 855 855 836 826 826 817 836 855 1036 1022 1082 1132 1132 1115 1066 1051 1036 1051 1082 1115 1168 1098 0 1415 1599 1711 1672 1672 1752 1795 1711 1565 1711 1839 2537 3504 3679 5256 6133 4906 4088 4599 4906 5256 5256 5661 5256 5256 5661 6690 6133 5661 5661 5256 4906 5256 5256 5256 4906 4599 5256 5256 4599 5661 5256 5661 5661 4906 4329 4329 3504 3199 3066 2943 2943 2943 2943 2943 2943 2943 3345 3679 4088 4599 4906 4906 4599 4906 4906 5256 5661 5661 5661 5661 4906 4599 4906 5661 5256 4088 3873 4088 3873 4329 7359 4906 3199 2943 2943 2943 2230 2537 2537 2453 2230 2299 2230 2044 2044 2044 1795 1752 1711 1635 1415 1268 1247 1168 1168 1149 1115 1082 1082 1082 1051 1051 1036 994 994 994 1008 981 981 981 981 981 994 994 981 955 908 876 0 808 782 791 782 766 0 0 0 0 799 766 707 629 669 669 669 663 629 593 603 603 603 588 584 593 593 584 598 584 579 579 579 574 557 553 557 545 541 529 529 511 514 511 504 493 493 493 493 490 497 481 477 474 474 462 457 457 451 448 443 438 435 430 420 0 0 0 408 408 406 399 395 395 393 393 389 385 381 377 381 377 0 0 0 0 0
    0 0 0 0 0 0 0 0 0 0 0 0 0 0 0 0 0 0 0 0 0 0 0 0 0 0 0 0 0 0 0 0 0 0 0 0 0 0 0 0 0 0 0 0 0 0 0 0 0 0 0 0 0 0 0 0 0 0 0 0 0 0 0 0 0 0 0 0 0 1022 1051 1022 994 981 968 955 955 955 955 886 845 855 845 836 826 826 817 845 855 1008 919 1022 1066 1051 1051 1036 1022 1022 1051 1082 1098 1168 1115 1362 1415 1533 1672 1635 1672 1752 1795 1711 1565 1752 2102 2628 3504 3679 4599 6133 4906 3873 4329 4599 4599 4906 5256 4906 4906 5256 6133 5661 5256 5256 5256 4906 4906 4906 4599 4329 4088 4329 4599 4329 5256 4906 5256 5256 4599 4088 4329 3504 3066 3066 2943 2943 2943 2943 2943 2830 2830 3199 3504 3873 4088 4599 4906 4599 4599 4906 4906 5256 5661 5661 5661 4906 4599 5256 5661 5661 4906 4088 4599 4088 4329 6690 4906 3345 3199 3066 3066 2453 2537 2537 2453 2164 2230 2164 2044 1989 1989 1795 1752 1752 1635 1415 1268 1247 1187 1168 1149 1132 1098 1082 1082 1066 1051 1022 994 994 981 994 981 981 981 981 981 994 994 981 943 886 865 817 808 791 799 791 774 782 782 774 0 791 735 700 634 675 669 669 669 629 598 608 603 603 588 579 593 593 579 598 579 579 574 574 574 561 557 566 549 549 537 537 518 518 514 507 504 500 500 497 497 504 484 477 474 471 462 451 454 448 446 440 435 432 425 0 0 0 408 406 408 406 399 393 395 393 393 389 385 383 377 381 379 0 0 0 0 0
    0 0 0 0 0 0 0 0 0 0 0 0 0 0 0 0 0 0 0 0 0 0 0 0 0 0 0 0 0 0 0 0 0 0 0 0 0 0 0 0 0 0 0 0 0 0 0 0 0 0 0 0 0 0 0 0 0 0 0 0 0 0 0 0 0 0 0 0 0 968 1008 968 968 955 931 931 943 943 943 886 855 865 855 845 836 836 836 845 855 931 855 955 1008 1008 994 994 981 1008 1036 1066 1082 1187 1132 1388 1415 1471 1635 1635 1672 1795 1795 1711 1565 1711 2230 2725 3345 3345 4088 5661 4599 3679 4088 4599 4329 4599 4906 4599 4329 4906 5256 4906 4599 4906 4906 4329 4599 4599 4088 4088 3873 4088 4599 4329 5256 4906 5256 4906 4329 4088 4088 3504 3066 3066 2943 2943 2943 2943 2830 2830 2830 3199 3345 3504 3873 4329 4599 4329 4329 4599 4906 5256 5256 4906 4906 4599 4599 5256 5661 5661 5256 4599 6133 4906 4906 5256 4088 3345 3345 3199 3066 2453 2374 2299 2164 2044 2102 2102 1989 1989 1936 1795 1795 1752 1599 1362 1268 1226 1187 1168 1149 1132 1098 1082 1082 1066 1051 1022 994 981 981 981 981 981 981 968 981 994 994 981 931 876 855 826 817 808 808 799 791 791 799 791 0 799 721 687 639 675 669 669 669 629 598 608 608 603 588 574 593 593 579 593 574 574 570 574 574 561 557 570 557 561 545 549 525 525 521 514 511 511 507 507 504 514 497 481 481 477 468 459 457 454 446 438 430 430 0 0 418 411 411 408 411 408 402 397 399 395 397 393 387 387 379 383 381 0 0 0 0 0
    0 0 0 0 0 0 0 0 0 0 0 0 0 0 0 0 0 0 0 0 0 0 0 0 0 0 0 0 0 0 0 0 0 0 0 0 0 0 0 0 0 0 0 0 0 0 0 0 0 0 0 0 0 0 0 0 0 0 0 0 0 0 0 0 0 0 0 0 0 886 968 919 931 931 919 919 931 943 931 865 845 845 836 826 826 817 817 826 836 855 836 897 981 968 968 994 968 981 1022 1066 1082 1149 1098 1338 1362 1415 1635 1635 1672 1795 1839 1711 1565 1672 2044 2299 3066 3199 3504 4906 4088 3504 3873 4329 4088 4599 4599 4088 3873 4329 4329 4599 3873 4329 4088 3873 4088 4088 3873 3873 3504 3679 4088 3873 4599 4599 4906 4599 4088 3873 4088 3345 3066 3066 2943 2943 2943 2943 2830 2830 2830 3199 3199 3345 3679 3873 4088 4088 4088 4088 4329 4329 4329 3873 3873 3679 3873 4088 4599 4599 4329 4329 5661 4599 4088 4088 4088 3199 3066 2943 2943 2537 2164 2044 1936 1887 1936 1989 1936 1887 1887 1752 1752 1711 1471 1314 1226 1187 1187 1168 1149 1132 1098 1082 1082 1051 1036 1008 981 981 981 981 981 968 968 955 968 981 968 955 908 865 855 826 817 817 817 799 791 791 791 782 791 750 707 681 645 675 675 669 663 629 598 608 608 603 593 570 588 588 574 593 574 574 566 570 574 557 557 566 553 557 541 553 525 529 525 521 518 514 511 511 507 514 500 484 487 481 477 468 468 462 451 440 430 0 0 0 420 413 411 408 411 408 404 0 402 393 397 393 391 391 383 387 387 0 0 0 0 0
    0 0 0 0 0 0 0 0 0 0 0 0 0 0 0 0 0 0 0 0 0 0 0 0 0 0 0 0 0 0 0 0 0 0 0 0 0 0 0 0 0 0 0 0 0 0 0 0 0 0 0 0 0 0 0 0 0 0 0 0 0 0 0 0 0 0 0 0 0 826 865 865 897 908 908 908 919 931 908 855 836 836 826 808 808 808 808 808 826 826 817 855 919 908 919 943 919 943 994 1036 1066 1082 1051 1051 1247 1268 1565 1635 1711 1839 1839 1711 1599 1672 1936 2230 3066 3066 3345 3873 3873 3504 3679 4088 4088 4329 4329 4088 3873 4088 4088 4599 3873 4088 3679 3679 3504 3679 3345 3345 3066 3199 3345 3345 3873 3873 4329 4088 3679 3679 3873 3345 3066 3066 2943 2943 2943 2943 2943 2830 2830 3199 3199 3504 3679 3873 4088 4088 3873 3679 3873 3679 3873 3345 3504 3345 3504 3679 4088 4088 4329 4329 6133 4599 3873 3679 3679 3345 2943 2830 2725 2537 0 1989 1839 1839 1839 1887 1839 1795 1839 1752 1711 1635 1388 1226 1206 1187 1168 1168 1149 1132 1115 1098 1098 1051 1036 1008 994 994 981 981 981 981 968 943 943 931 919 897 865 845 836 817 817 817 817 799 799 791 791 791 774 743 707 687 657 675 669 669 663 629 598 608 608 603 593 566 584 584 574 593 574 570 566 566 574 557 557 566 553 553 537 549 525 529 529 525 518 518 514 514 511 518 504 484 487 484 477 465 465 457 454 440 0 0 0 0 425 418 411 408 408 408 404 399 399 391 393 389 391 393 387 389 385 0 0 0 0 0
    0 0 0 0 0 0 0 0 0 0 0 0 0 0 0 0 0 0 0 0 0 0 0 0 0 0 0 0 0 0 0 0 0 0 0 0 0 0 0 0 0 0 0 0 0 0 0 0 0 0 0 0 0 0 0 0 0 0 0 0 0 0 0 0 0 0 0 0 0 808 826 845 876 886 897 897 908 919 886 845 826 817 817 791 799 799 799 799 817 817 817 845 886 876 876 886 897 919 955 1022 1051 1066 1051 1051 1149 1206 1443 1599 1752 1839 1887 1795 1672 1711 1936 2299 2830 3066 3199 3345 3679 3504 3679 3679 3679 4088 3873 3873 3679 3873 3873 4329 3873 4088 3679 3504 3345 3345 3199 3199 2943 2943 3066 3066 3504 3504 3873 3873 3679 3504 3679 3345 3066 3066 2943 2943 2943 2943 2943 2943 2943 3345 3345 3679 3873 3873 4088 4088 3873 3504 3504 3345 3504 3199 3345 3199 3345 3504 3679 3679 3873 3873 5256 3873 3504 3345 3199 3066 2830 2725 2628 2453 0 1936 1795 1795 1795 1839 1795 1795 1795 1752 1711 1443 1314 1187 1206 1187 1187 1168 1149 1132 1132 1098 1098 1051 1051 1008 994 994 994 994 981 981 968 943 955 943 919 886 865 826 826 808 808 808 817 799 791 782 782 782 750 735 707 687 669 675 669 669 663 629 598 608 603 603 593 566 584 584 570 588 570 570 561 566 574 557 557 561 549 549 537 549 529 529 529 525 518 518 518 514 514 518 507 487 487 487 0 459 459 448 448 440 432 435 432 427 427 422 418 413 408 411 408 402 404 395 393 393 0 0 0 0 383 0 0 0 0 0
    0 0 0 0 0 0 0 0 0 0 0 0 0 0 0 0 0 0 0 0 0 0 0 0 0 0 0 0 0 0 0 0 0 0 0 0 0 0 0 0 0 0 0 0 0 0 0 0 0 0 0 0 0 0 0 0 0 0 0 0 0 0 0 0 0 0 0 0 0 808 826 836 865 886 886 886 897 897 865 836 817 808 799 774 799 799 799 799 808 817 808 836 865 865 865 876 886 908 955 1008 1036 1051 1051 1051 1098 1168 1291 1388 1711 1795 1839 1795 1752 1752 1936 2453 2725 2943 3066 3199 3345 3345 3504 3504 3504 3873 3679 3873 3504 3679 3679 4329 3873 4088 3679 3504 3345 3345 3199 3199 2830 2943 2943 2943 3345 3345 3873 3679 3504 3504 3679 3345 3066 3199 3066 3066 3066 3066 2943 2943 2943 3504 3345 3679 3679 3679 3873 3873 3679 3345 3345 3199 3345 3199 3199 3199 3199 3345 3504 3504 3679 3504 4906 3679 3199 3199 3066 2943 2830 2725 2628 2453 0 0 1752 1752 1752 1795 1752 1752 1795 1752 1711 1443 1338 1206 1226 1206 1187 1187 1149 1149 1149 1115 1098 1066 1066 1022 1008 1008 994 994 981 981 981 955 955 955 931 919 876 826 826 808 808 808 817 791 782 766 766 758 735 728 707 687 675 675 669 663 657 623 593 603 603 598 588 561 579 579 570 588 570 566 561 566 574 557 557 557 549 545 537 549 525 529 525 521 518 518 518 514 514 0 507 484 487 0 0 0 459 448 446 438 432 435 430 427 425 420 418 413 411 411 411 404 408 402 397 0 0 0 0 0 0 0 0 0 0 0
    0 0 0 0 0 0 0 0 0 0 0 0 0 0 0 0 0 0 0 0 0 0 0 0 0 0 0 0 0 0 0 0 0 0 0 0 0 0 0 0 0 0 0 0 0 0 0 0 0 0 0 0 0 0 0 0 0 0 0 0 0 0 0 0 0 0 0 0 0 791 808 826 865 876 865 865 876 865 845 836 817 808 799 782 808 808 808 808 817 808 808 836 865 865 865 876 897 908 943 981 1008 1036 1051 1051 1082 1168 1268 1338 1635 1752 1795 1752 1752 1795 1936 2374 2628 2830 2943 3066 3345 3345 3345 3345 3345 3679 3679 3679 3504 3679 3679 4329 3873 4088 3504 3345 3199 3345 3066 3199 2830 2830 2943 3066 3345 3199 3679 3504 3504 3504 3679 3504 3066 3199 3199 3066 3066 3066 2943 2943 2830 3504 3345 3873 3504 3679 3873 4088 3679 3345 3199 3199 3199 3066 3199 3199 3199 3199 3504 3504 3679 3504 4906 3504 3199 3066 3066 2943 2830 2725 2628 2453 0 0 1752 1711 1711 1752 1752 1711 1752 1752 1752 1565 1362 1226 1247 1226 1206 1187 1168 1149 1149 1115 1115 1066 1066 1036 1008 1008 994 994 994 994 981 955 955 943 908 908 865 826 826 808 808 808 817 791 782 766 758 750 728 721 700 687 681 675 663 657 645 623 588 603 598 598 588 566 579 579 570 588 570 566 561 561 574 557 553 557 549 545 537 549 529 529 525 521 518 521 518 518 514 518 511 481 0 0 1132 0 0 0 448 440 435 440 432 430 427 422 420 415 411 411 411 406 411 404 399 397 0 0 0 0 0 0 0 0 0 0
    0 0 0 0 0 0 0 0 0 0 0 0 0 0 0 0 0 0 0 0 0 0 0 0 0 0 0 0 0 0 0 0 0 0 0 0 0 0 0 0 0 0 0 0 0 0 0 0 0 0 0 0 0 0 0 0 0 0 0 0 0 0 0 0 0 0 0 0 0 774 799 817 855 855 845 845 855 845 836 817 817 808 799 791 808 808 817 817 817 817 817 845 865 865 876 886 897 931 968 994 1022 1036 1082 1082 1115 1206 1247 1314 1635 1752 1752 1795 1795 1839 1936 2453 2628 2830 2830 3066 3199 3199 3345 3199 3345 3679 3504 3679 3345 3679 3504 4329 3873 4088 3504 3345 3199 3345 3199 3199 2830 2830 2943 2943 3345 3199 3679 3504 3504 3504 3679 3504 3199 3345 3345 3199 3199 3199 3066 3066 3066 3873 3679 4329 3679 3873 4088 4906 3679 3199 3199 2943 3199 2943 3066 3066 3199 3199 3345 3345 3504 3345 4599 3504 3066 3066 2943 2943 2830 2725 2628 2453 0 0 1752 1711 1711 1711 1711 1672 1711 1711 1752 1565 1362 1247 1268 1247 1226 1206 1168 1168 1168 1132 1132 1066 1066 1036 1022 1022 1008 994 994 1008 994 968 968 955 919 908 865 826 826 808 817 817 826 799 791 766 766 750 721 721 700 687 681 669 663 651 639 618 588 603 598 598 588 566 579 579 574 593 574 566 557 561 574 553 553 557 549 545 537 549 533 529 529 521 518 521 518 518 518 518 514 481 0 0 0 0 0 0 454 443 446 448 438 435 430 425 425 418 413 413 411 404 411 404 399 395 391 0 391 0 0 0 0 0 0 0
    0 0 0 0 0 0 0 0 0 0 0 0 0 0 0 0 0 0 0 0 0 0 0 0 0 0 0 0 0 0 0 0 0 0 0 0 0 0 0 0 0 0 0 0 0 0 0 0 0 0 0 0 0 0 0 0 0 0 0 0 0 0 0 0 0 0 0 0 0 766 791 808 845 845 836 836 826 826 808 791 817 808 799 791 808 817 826 826 836 817 817 855 876 876 876 886 908 931 968 994 1022 1036 1098 1098 1132 1206 1268 1314 1565 1711 1711 1752 1839 1839 1989 2453 2628 2830 2830 3066 3199 3199 3345 3199 3345 3504 3504 3504 3345 3504 3504 4088 3873 4088 3504 3345 3199 3345 3199 3199 2943 2943 2943 2943 3199 3066 3504 3345 3504 3504 3679 3504 3199 3345 3504 3345 3345 3345 3199 3199 3199 4329 4329 4906 3873 4088 4329 5661 3679 3066 3066 2725 3066 2830 3066 3066 3066 3066 3199 3199 3504 3345 4599 3504 3066 2943 2943 2830 2725 2725 2628 2453 0 0 1795 1752 1752 1752 1752 1672 1711 1711 1711 1501 1362 1247 1291 1247 1268 1226 1187 1187 1187 1168 1149 1082 1066 1036 1036 1036 1022 1008 994 1008 994 981 981 955 908 897 865 826 836 817 826 826 826 808 799 774 774 758 721 721 707 694 687 669 657 645 629 618 584 598 598 593 593 566 579 579 574 593 574 566 561 566 579 557 557 557 549 545 537 545 533 529 529 521 518 518 521 518 518 518 521 0 0 0 0 0 0 0 457 443 462 451 440 435 432 427 427 422 418 415 411 406 413 406 399 397 393 0 0 0 0 0 0 0 0 0
    0 0 0 0 0 0 0 0 0 0 0 0 0 0 0 0 0 0 0 0 0 0 0 0 0 0 0 0 0 0 0 0 0 0 0 0 0 0 0 0 0 0 0 0 0 0 0 0 0 0 0 0 0 0 0 0 0 0 0 0 0 0 0 0 0 0 0 0 0 758 791 799 836 826 817 817 808 799 774 758 791 791 782 774 799 808 817 826 826 817 826 855 876 876 897 908 919 943 981 1008 1022 1051 1098 1098 1149 1226 1268 1314 1501 1672 1672 1711 1795 1795 1887 2299 2453 2725 2830 3066 3066 3199 3345 3199 3199 3504 3199 0 0 3504 3345 4088 3679 4088 3504 3345 3199 3345 0 0 2943 2943 2943 2830 3066 3066 3504 3345 3345 3345 3504 3504 3345 3504 3679 3504 3504 3504 3504 3199 3345 4599 4906 5661 4599 4329 4906 5661 3679 3066 3066 2628 2943 2725 2943 2943 2943 3066 3199 3199 3504 3345 4906 3504 3066 2943 2943 2830 2628 2537 2453 2299 0 0 1795 1795 1795 1795 1795 1672 1711 1711 1711 1471 1338 1226 1268 1247 1268 1226 1187 1187 1187 1168 1149 1082 1066 1036 1036 1036 1022 1008 994 994 994 968 968 943 908 886 865 826 836 826 836 826 836 808 799 774 766 750 721 721 707 694 694 669 651 634 623 613 579 598 598 593 593 570 579 579 579 593 579 566 561 566 579 553 557 557 549 541 537 541 533 529 529 521 514 518 521 518 521 521 525 0 0 0 0 0 0 0 451 440 471 448 440 438 432 430 432 427 420 418 411 408 413 406 399 397 395 399 411 0 0 0 0 0 0 0
    0 0 0 0 0 0 0 0 0 0 0 0 0 0 0 0 0 0 0 0 0 0 0 0 0 0 0 0 0 0 0 0 0 0 0 0 0 0 0 0 0 0 0 0 0 0 0 0 0 0 0 0 0 0 0 0 0 0 0 0 0 0 0 0 0 0 0 0 0 743 774 774 774 782 766 743 743 750 735 728 750 758 750 750 782 791 808 808 826 826 826 865 908 908 943 943 955 955 994 1008 1036 1051 1098 1098 1149 1226 1268 1291 1471 1599 1599 1635 1752 1752 1839 2102 2374 2628 2725 3066 3066 3199 3199 3066 3066 3199 2943 0 411 0 3345 4329 3873 0 0 0 3199 3199 0 0 2830 2830 2830 2725 2943 2943 3345 3345 3345 3345 3504 3504 3504 3873 4088 3679 3504 3504 3504 3345 3679 5256 5256 6690 5661 5256 6133 6690 4088 2943 2830 2453 2830 2628 2943 2943 2943 2943 3199 3066 3345 3199 4088 3199 2830 2830 2830 2725 2537 2164 2044 1936 1839 0 1752 1752 1752 1711 1752 1635 1711 1711 1672 1443 1314 1226 1247 1247 1268 1247 1206 1187 1206 1187 1168 1082 1066 1036 1036 1036 1022 1008 994 994 994 968 955 943 886 865 855 817 826 808 826 817 826 799 782 750 743 735 714 714 700 694 694 669 639 629 613 608 574 593 593 593 593 570 579 579 579 593 579 566 561 566 579 553 553 553 545 541 537 537 529 521 529 518 514 518 521 518 518 521 525 0 0 521 549 0 0 0 0 0 471 451 443 443 438 435 438 432 425 420 413 411 413 406 399 397 393 397 402 0 0 0 0 0 0 0
    0 0 0 0 0 0 0 0 0 0 0 0 0 0 0 0 0 0 0 0 0 0 0 0 0 0 0 0 0 0 0 0 0 0 0 0 0 0 0 0 0 0 0 0 0 0 0 0 0 0 0 0 0 0 0 0 0 0 0 0 0 0 0 0 0 0 0 0 0 714 728 728 728 735 743 735 743 750 735 735 750 758 750 750 774 791 799 817 826 836 836 876 897 897 931 931 943 955 994 1008 1036 1051 1115 1098 1168 1247 1268 1291 1443 1565 1599 1635 1752 1752 1839 2044 2230 2537 2537 2830 2943 3066 3199 2725 2830 2943 2628 0 0 0 3199 0 0 0 0 0 2943 3066 2830 0 2725 2830 2725 2537 2830 2830 3345 3504 3504 3504 3679 0 4599 4599 5256 4599 4088 3873 4088 3873 4906 6133 6133 8177 7359 6690 8177 7359 4088 3066 2943 2453 2725 2628 2943 2943 2943 2943 3066 3066 3345 3199 3873 3066 2537 2628 2725 2725 2453 1989 1839 1795 1471 1388 1672 1752 1752 1711 1752 1672 1711 1752 1672 1471 1314 1226 1247 1247 1268 1247 1206 1206 1206 1187 1168 1082 1066 1036 1036 1036 1008 1008 981 981 981 955 955 931 886 865 855 826 826 808 817 808 808 791 782 750 735 735 714 707 700 700 700 657 629 618 613 608 574 593 593 593 593 574 584 584 579 593 584 566 561 566 579 553 553 553 0 541 541 537 533 525 529 518 514 521 521 518 521 521 525 0 0 514 0 0 0 0 0 451 459 451 446 446 443 440 443 438 0 0 415 411 415 408 402 0 393 395 395 383 389 0 0 0 0 0
    0 0 0 0 0 0 0 0 0 0 0 0 0 0 0 0 0 0 0 0 0 0 0 0 0 0 0 0 0 0 0 0 0 0 0 0 0 0 0 0 0 0 0 0 0 0 0 0 0 0 0 0 0 0 0 0 0 0 0 0 0 0 0 0 0 0 0 0 0 681 687 687 694 700 714 721 735 743 728 735 743 758 758 758 782 791 808 826 826 845 845 876 886 897 931 931 955 968 994 1008 1036 1036 1115 1115 1168 1247 1291 1314 1415 1533 1565 1599 1711 1752 1795 1839 2044 2164 2299 2628 2830 2943 2943 2230 2299 2628 2102 0 408 0 0 0 0 0 0 0 2725 2628 2628 2628 2628 2725 2725 2537 2830 2725 3345 3679 4329 4088 4088 0 7359 8177 8177 7359 5661 5661 6690 6133 6690 6690 6690 0 0 8177 7359 7359 0 0 3066 2628 2943 2725 3066 3066 2943 3066 3066 2943 3199 2943 3504 2830 2230 2453 2453 2537 2374 0 0 1711 1388 1415 1635 1752 1752 1752 1795 1711 1711 1795 1752 1565 1338 1247 1268 1268 1268 1247 1206 1206 1206 1206 1187 1082 1051 1036 1022 1022 1008 994 981 981 981 968 968 931 908 897 886 855 855 826 836 817 808 799 782 743 735 728 714 707 707 700 707 663 629 618 613 608 579 593 598 593 593 579 588 588 588 593 588 566 566 566 584 557 557 553 549 541 541 537 533 525 529 518 518 521 521 518 521 525 529 507 525 518 0 0 0 0 0 459 459 454 446 448 443 0 443 438 432 0 418 411 415 408 0 0 0 0 391 375 383 0 0 0 0 0
    0 0 0 0 0 0 0 0 0 0 0 0 0 0 0 0 0 0 0 0 0 0 0 0 0 0 0 0 0 0 0 0 0 0 0 0 0 0 0 0 0 0 0 0 0 0 0 0 0 0 0 0 0 0 0 0 0 0 0 0 0 0 0 0 0 0 0 0 0 634 629 623 618 675 687 707 714 721 721 721 728 743 750 758 782 791 808 826 826 845 855 865 876 897 931 931 955 955 994 1008 1022 1036 1115 1132 1187 1268 1291 1314 1415 1501 1565 1565 1672 1752 1711 1752 1936 1936 1936 2230 2537 2830 2164 1711 1672 1711 1635 1533 0 1501 1711 1711 1501 1501 1501 1599 1795 1795 2044 1989 2230 2725 2628 2537 2725 2725 3066 3199 3679 3679 3679 4088 8177 8177 0 8177 7359 7359 6133 6133 6690 0 0 0 0 0 0 0 0 0 0 0 0 0 3199 3199 3066 3199 2943 2830 3066 2628 3345 3066 2044 2453 0 0 0 0 0 1711 1388 1388 1501 1711 1752 1711 1795 1672 1672 1752 1711 1565 1338 1268 1268 1268 1268 1247 1226 1226 1206 1206 1187 1082 1051 1036 1022 0 0 994 981 981 981 955 955 931 908 897 886 865 865 845 845 826 817 808 791 758 743 735 721 707 707 707 700 663 623 618 613 608 588 598 598 598 598 584 593 593 593 598 593 574 570 574 588 561 557 553 549 541 541 541 537 529 533 521 521 525 525 525 525 525 529 521 529 525 0 0 0 0 0 0 468 459 448 448 0 0 443 0 0 0 0 408 411 406 0 0 0 0 391 381 385 0 0 0 0 0
    0 0 0 0 0 0 0 0 0 0 0 0 0 0 0 0 0 0 0 0 0 0 0 0 0 0 0 0 0 0 0 0 0 0 0 0 0 0 0 0 0 0 0 0 0 0 0 0 0 0 0 0 0 0 0 0 0 0 0 0 0 0 0 0 0 0 0 0 0 618 613 608 608 663 675 694 707 714 714 714 721 735 743 758 782 791 817 826 826 845 855 876 876 897 943 943 955 968 994 1008 1022 1022 1115 1149 1206 1291 1314 1314 1388 1471 1533 1533 1635 1711 1672 1672 1795 1711 1672 1711 0 1247 1226 1362 1388 1388 1388 1362 1362 1388 1471 1533 1362 1443 1471 1501 1599 1635 1795 1795 0 2725 2725 2628 2374 2537 2453 0 0 0 0 0 0 0 0 0 0 0 0 0 0 0 0 0 0 0 0 0 0 0 0 0 0 0 0 0 0 0 0 0 0 0 0 0 0 0 0 0 0 0 0 1501 1338 1362 1388 1635 1672 1672 1711 1599 1599 1711 1711 1599 1314 1268 1268 1268 1268 1247 1226 1226 1206 1206 1187 1098 1051 1036 1022 0 0 981 981 968 968 943 955 931 908 897 886 855 855 845 845 826 808 808 791 766 758 743 721 707 707 707 700 663 634 629 623 613 598 603 603 603 603 588 598 598 598 603 598 579 579 579 593 566 557 553 553 545 545 541 537 529 533 521 521 525 525 525 525 525 533 525 529 521 529 514 0 490 471 471 468 459 457 454 446 0 446 0 0 0 0 0 406 402 0 0 0 0 0 389 389 0 0 0 0 0
    0 0 0 0 0 0 0 0 0 0 0 0 0 0 0 0 0 0 0 0 0 0 0 0 0 0 0 0 0 0 0 0 0 0 0 0 0 0 0 0 0 0 0 0 0 0 0 0 0 0 0 0 0 0 0 0 0 0 0 0 0 0 0 0 0 0 0 0 0 603 584 557 545 675 687 694 707 707 714 707 714 721 728 735 766 766 799 808 817 836 845 855 876 897 943 943 955 981 994 1022 1036 1036 1132 1168 1206 1291 1291 1314 1388 1415 1471 1471 1599 1711 1635 1672 1795 1752 1711 1752 0 1247 1226 1338 1362 1362 1362 1338 1338 1362 1443 1443 1338 1415 1443 1471 1533 1565 1711 1752 0 2725 2725 2628 2374 2537 2453 0 0 0 0 0 0 0 0 0 0 0 0 0 0 0 0 0 0 0 0 0 0 0 0 0 0 0 0 0 0 0 0 0 0 0 0 0 0 0 0 0 0 0 0 1533 1362 1362 1362 1635 1635 1599 1672 1565 1533 1672 1672 1565 1338 1268 1268 1268 1291 1247 1247 1226 1226 1206 1206 1115 1066 1036 1022 0 0 981 981 968 968 943 943 931 919 897 886 855 855 845 845 826 808 808 799 774 766 750 728 714 707 707 707 675 0 639 629 618 608 603 608 603 603 593 598 603 603 603 598 579 584 584 593 570 557 553 553 549 549 545 541 533 537 525 521 525 525 525 525 525 533 529 533 525 529 518 497 493 477 477 471 465 465 0 0 0 451 0 0 0 0 0 0 0 0 0 393 0 0 391 391 0 0 0 0 0
    0 0 0 0 0 0 0 0 0 0 0 0 0 0 0 0 0 0 0 0 0 0 0 0 0 0 0 0 0 0 0 0 0 0 0 0 0 0 0 0 0 0 0 0 0 0 0 0 0 0 0 0 0 0 0 0 0 0 0 0 0 0 0 0 0 0 0 0 0 598 603 0 0 700 700 694 707 707 714 714 714 714 721 735 758 766 782 799 808 826 836 855 855 876 908 908 931 955 981 1008 1008 1022 1132 1187 1206 1291 1291 1291 1362 1388 1443 1443 1565 1672 1599 1599 1795 1635 1533 1672 1599 1226 1206 1314 1314 1338 1338 1338 1338 1362 1415 1388 1338 1388 1415 1415 1471 1501 1672 1752 0 2725 2725 2628 2374 2537 2453 0 0 0 0 0 0 0 0 0 0 0 0 0 0 0 0 0 0 0 0 0 0 0 0 0 0 0 0 0 0 0 0 0 0 0 0 0 0 0 0 0 0 0 0 1533 1362 1362 1362 1565 1599 1501 1599 1533 1501 1635 1635 1565 1338 1291 1291 1291 1291 1247 1247 1226 1226 1226 1206 1115 1066 1036 1008 994 994 981 968 955 955 943 943 919 919 886 886 855 855 845 0 817 808 808 799 782 766 766 728 714 707 707 700 675 0 645 639 623 613 608 608 608 603 598 598 603 603 603 598 584 584 584 588 570 557 557 557 549 553 549 545 541 541 533 529 533 529 529 525 525 529 529 529 521 521 507 490 487 477 481 474 465 465 0 0 0 454 0 0 0 0 0 0 0 0 0 0 0 0 0 0 0 0 0 0 0
    0 0 0 0 0 0 0 0 0 0 0 0 0 0 0 0 0 0 0 0 0 0 0 0 0 0 0 0 0 0 0 0 0 0 0 0 0 0 0 0 0 0 0 0 0 0 0 0 0 0 0 0 0 0 0 0 0 0 0 0 0 0 0 0 0 0 0 0 0 613 623 651 0 707 707 700 707 707 707 707 707 714 721 735 758 750 774 782 791 817 826 836 845 865 897 908 931 968 994 1022 1008 1036 1132 1187 1206 1268 1268 1291 1338 1362 1415 1415 1501 1635 1565 1565 1752 1501 1415 1533 1415 1206 1168 1247 1291 1314 1338 1314 1314 1338 1388 1362 1314 1362 1388 1388 1443 1443 1635 1752 0 2725 2725 2628 2374 2453 2453 0 0 0 0 0 0 0 0 0 0 0 0 0 0 0 0 0 0 0 0 0 0 0 0 0 0 0 0 0 0 0 0 0 0 0 0 0 0 0 0 0 0 0 0 1533 1362 1362 1338 1501 1533 1471 1565 1501 1471 1599 1565 1565 1338 1291 1291 1268 1268 1247 1247 1247 1226 1226 1206 1132 1082 1022 994 981 968 968 955 943 943 943 943 919 919 897 886 865 865 855 0 826 817 817 808 791 774 766 735 714 707 707 700 681 651 651 645 634 618 608 608 608 603 598 598 603 603 598 603 588 584 584 588 570 553 553 553 549 549 545 545 545 545 537 533 537 529 525 521 521 525 525 521 518 518 504 490 487 477 477 471 465 468 465 462 459 459 459 454 0 0 0 0 0 0 393 391 0 0 393 391 0 0 0 0 0
    0 0 0 0 0 0 0 0 0 0 0 0 0 0 0 0 0 0 0 0 0 0 0 0 0 0 0 0 0 0 0 0 0 0 0 0 0 0 0 0 0 0 0 0 0 0 0 0 0 0 0 0 0 0 0 0 0 0 0 0 0 0 0 0 0 0 0 0 0 623 634 657 681 694 694 694 700 700 707 707 707 714 721 735 758 750 766 774 782 817 826 826 836 865 908 919 955 994 1022 1051 1022 1036 1132 1206 1187 1226 1247 1268 1338 1314 1415 1415 1471 1672 1565 1565 1752 1471 1388 1599 1362 1226 1206 1291 1314 1338 1338 1338 1338 1338 1362 1338 1314 1338 1362 1362 1388 1415 1599 1672 1752 2725 2725 2628 0 0 0 0 0 0 0 0 0 0 0 0 0 0 0 0 0 0 0 0 0 0 0 0 0 0 0 0 0 0 0 0 0 0 0 0 0 0 0 0 0 0 0 0 0 0 0 1635 1362 1362 1362 1471 1471 1415 1501 1443 1415 1501 1471 1533 1314 1291 1291 1268 1268 1247 1247 1247 1247 1247 1226 1132 1082 1036 994 981 968 955 955 955 955 943 943 931 931 908 897 876 865 855 845 826 817 817 817 791 782 766 743 721 721 721 707 694 669 663 657 645 623 608 608 608 603 598 598 598 598 598 603 588 584 584 584 570 549 549 549 549 541 545 545 545 545 541 541 541 533 529 525 525 529 529 525 521 521 518 504 493 481 481 474 471 474 471 471 465 468 465 462 462 0 0 0 0 0 0 389 0 0 393 391 0 0 0 0 0
    0 0 0 0 0 0 0 0 0 0 0 0 0 0 0 0 0 0 0 0 0 0 0 0 0 0 0 0 0 0 0 0 0 0 0 0 0 0 0 0 0 0 0 0 0 0 0 0 0 0 0 0 0 0 0 0 0 0 0 0 0 0 0 0 0 0 0 0 0 629 639 669 687 694 694 694 700 700 707 707 707 714 721 743 758 743 766 782 791 0 0 0 0 865 919 931 955 994 1022 1036 994 1022 1115 1187 1168 1206 1247 1247 1314 1314 1415 1415 1471 1672 1565 1533 1711 1362 1314 0 1268 1206 1206 1268 1314 1338 1338 1338 1291 1291 1338 1314 1291 1314 1338 1338 1362 1388 1501 1599 1672 0 0 0 0 0 0 0 0 0 0 0 0 0 0 0 0 0 0 0 0 0 0 0 0 0 0 0 0 0 0 0 0 0 0 0 0 0 0 0 0 0 0 0 0 0 0 0 0 0 0 1752 1415 1415 1388 1533 1533 1443 1471 1415 1362 1415 1362 1362 1268 1226 1226 1206 1206 1187 1187 1206 1187 1206 1206 1149 1132 1036 1008 981 968 955 968 955 955 955 955 943 931 919 908 876 865 855 855 826 826 817 817 791 782 766 743 728 721 721 714 700 0 675 669 657 629 603 608 603 603 598 593 598 598 593 603 588 584 584 579 574 549 549 549 549 545 549 549 549 553 549 549 545 533 533 525 529 529 533 529 529 529 525 514 497 487 487 477 474 474 474 471 465 468 462 454 448 1115 1082 1051 0 0 0 0 0 0 0 0 0 0 0 0 0
    0 0 0 0 0 0 0 0 0 0 0 0 0 0 0 0 0 0 0 0 0 0 0 0 0 0 0 0 0 0 0 0 0 0 0 0 0 0 0 0 0 0 0 0 0 0 0 0 0 0 0 0 0 0 0 0 0 0 0 0 0 0 0 0 0 0 0 0 0 634 639 669 681 694 694 694 700 700 700 700 700 714 721 743 758 743 766 782 791 817 826 826 836 865 943 943 943 981 1008 1022 968 994 1066 1149 1132 1187 1206 1206 1314 1291 1362 1388 1388 1599 1471 1443 1533 1291 1291 1268 1268 1206 1226 1268 1314 1314 1338 1314 1268 1268 1291 1268 1247 1268 1291 1268 1314 1338 1388 1471 0 0 0 0 0 0 0 0 0 0 0 0 0 0 0 0 0 0 0 0 0 0 0 0 0 0 0 0 0 0 0 0 0 0 0 0 0 0 0 0 0 0 0 0 0 0 0 0 0 0 0 1839 1501 1501 1443 1533 1533 1415 1415 1362 1314 1291 1291 1268 1247 1187 1187 1168 1187 1187 1187 1187 1187 1187 1206 1168 1187 1066 1036 994 981 968 968 968 955 955 955 943 931 919 908 886 876 865 855 836 826 826 826 791 782 766 743 735 728 728 714 707 0 681 669 663 629 598 603 603 598 598 588 593 593 593 603 588 584 584 579 579 549 549 553 553 545 549 549 549 553 545 533 533 525 525 521 521 525 529 529 533 533 533 521 500 490 490 481 477 474 474 471 462 465 454 448 440 0 0 0 418 0 0 0 0 0 0 0 0 0 0 0 0</data></depth>
</opencv_storage>
