<?xml version="1.0"?>
<opencv_storage>
<gps_time_stamp>310870</gps_time_stamp>
<gps_x>-1.2420253753662109e+001</gps_x>
<gps_y>1.0962301254272461e+001</gps_y>
<gps_z>-2.0299654006958008e+000</gps_z>
<image_time_stamp>301759</image_time_stamp>
<depth type_id="opencv-matrix">
  <rows>85</rows>
  <cols>320</cols>
  <dt>s</dt>
  <data>
    0 0 0 0 0 0 0 0 0 0 0 0 0 0 0 0 0 0 0 0 0 0 0 0 0 0 0 0 0 0 0 0 0 0 0 0 0 0 0 0 0 0 0 0 0 0 0 0 0 0 0 0 0 0 0 0 0 0 0 0 0 0 0 0 0 0 0 0 0 1989 1936 1936 1936 1936 1936 1936 1936 1989 1936 1936 1936 1936 1989 1989 1989 2102 1989 2230 2102 2230 2230 2230 2299 2299 2299 2374 2299 2453 2374 2453 2537 2537 2628 2537 2725 2628 2725 2537 2628 2628 2725 2537 2943 2943 3066 3345 3345 3345 3345 3679 0 0 0 0 0 0 0 0 0 0 0 0 0 0 0 0 0 0 0 0 0 0 0 0 0 0 0 0 0 0 0 0 0 0 0 0 0 0 3345 4599 4088 4599 4599 4599 4599 4906 4599 0 0 0 0 0 0 0 0 2830 2943 2943 3066 2830 2453 2374 2164 1989 1887 1752 1839 1795 1839 1795 1635 1635 1635 1471 1565 1443 1443 1415 1388 1443 1338 1268 1268 1226 1132 1168 1168 1132 1066 1066 1082 1022 1022 0 968 943 943 981 931 931 931 919 876 865 855 845 826 826 808 791 758 782 774 774 721 675 700 694 694 694 675 675 675 663 687 645 618 645 645 639 618 618 106 0 0 0 593 579 566 579 570 579 566 570 574 557 553 0 525 0 500 493 493 487 484 474 477 468 471 459 465 454 457 451 448 448 446 0 0 0 0 0 0 0 418 0 411 0 0 750 0 0 0 0 0 0 0 0 0 0 0 366 362 360 0 0 0 0 0 0
    0 0 0 0 0 0 0 0 0 0 0 0 0 0 0 0 0 0 0 0 0 0 0 0 0 0 0 0 0 0 0 0 0 0 0 0 0 0 0 0 0 0 0 0 0 0 0 0 0 0 0 0 0 0 0 0 0 0 0 0 0 0 0 0 0 0 0 0 0 2044 1989 1989 1989 1989 1989 1989 1936 1989 1936 1936 1936 1936 1989 1989 1989 2102 1989 2230 2102 2230 2230 2230 2230 2299 2299 2374 2299 2537 2453 2537 2628 2537 2628 2537 2830 2725 2725 2537 2628 2628 2628 2453 2725 2830 2830 3066 3199 3199 3199 3345 0 0 0 0 0 0 0 0 0 0 0 0 0 0 0 0 0 0 0 0 0 0 0 0 0 0 0 0 0 0 0 0 0 0 0 0 0 4599 3679 5256 4599 5256 5256 5256 5661 5661 5256 6690 0 0 0 0 0 0 252 3066 3066 3066 3066 2943 2537 2374 2164 1989 1887 1752 1839 1795 1839 1795 1672 1635 1635 1501 1599 1471 1443 1388 1388 1415 1338 1247 1268 1226 1132 1168 1168 1132 1051 1051 1082 1008 1008 0 968 931 931 981 931 931 931 931 886 876 865 855 836 817 808 791 758 774 774 766 721 675 700 700 700 700 681 681 681 669 694 657 618 645 645 639 623 623 106 0 0 0 593 584 570 579 574 579 566 570 574 557 553 0 525 0 500 493 493 487 484 474 477 468 471 459 465 454 457 451 448 448 446 0 0 774 0 0 0 0 420 0 413 406 0 750 0 0 0 0 0 0 0 0 369 371 369 366 362 360 352 0 0 0 0 0
    0 0 0 0 0 0 0 0 0 0 0 0 0 0 0 0 0 0 0 0 0 0 0 0 0 0 0 0 0 0 0 0 0 0 0 0 0 0 0 0 0 0 0 0 0 0 0 0 0 0 0 0 0 0 0 0 0 0 0 0 0 0 0 0 0 0 0 0 0 2102 2044 2044 1989 1989 1989 1936 1936 1936 1887 1936 1887 1936 1936 1936 1936 2044 1989 2164 2044 2230 2230 2230 2230 2299 2299 2374 2299 2537 2453 2537 2628 2628 2725 2628 2830 2725 2725 2537 2628 2628 2628 2453 2628 2725 2725 2943 3066 2943 2943 2943 0 0 0 0 0 0 0 0 0 0 0 0 0 0 0 0 0 0 0 0 0 0 0 0 0 0 0 0 0 0 0 0 0 0 0 0 0 4088 3873 5661 4599 5256 5256 5256 5661 5661 5661 6690 0 0 0 0 0 0 252 3199 3066 3066 3066 2830 2453 2299 2102 1936 1839 1752 1839 1795 1795 1795 1672 1635 1635 1533 1599 1471 1443 1388 1362 1415 1338 1247 1268 1226 1149 1168 1168 1132 1051 1051 1066 1008 1008 0 955 931 931 981 931 931 931 919 876 865 855 845 817 817 808 799 766 782 774 766 721 681 707 700 700 700 687 0 687 675 694 657 618 645 645 639 618 618 0 0 0 0 593 584 570 584 574 579 566 570 570 557 549 0 525 511 500 493 490 487 484 474 477 468 471 459 465 454 454 451 448 448 446 0 0 0 0 0 0 0 420 415 413 406 0 750 743 0 0 0 0 0 375 371 371 373 371 367 364 362 353 0 0 0 0 0
    0 0 0 0 0 0 0 0 0 0 0 0 0 0 0 0 0 0 0 0 0 0 0 0 0 0 0 0 0 0 0 0 0 0 0 0 0 0 0 0 0 0 0 0 0 0 0 0 0 0 0 0 0 0 0 0 0 0 0 0 0 0 0 0 0 0 0 0 0 2102 1989 1989 1989 1989 1989 1936 1936 1936 1887 1887 1887 1887 1887 1887 1887 1989 1989 2164 2044 2230 2230 2230 2230 2299 2299 2374 2299 2628 2453 2537 2628 2628 2725 2725 2830 2830 2725 2628 2628 2628 2628 2374 2537 2628 2628 2725 2943 2830 2830 2830 0 0 0 0 0 0 0 0 0 0 0 0 0 0 0 0 0 0 0 0 0 0 0 0 0 0 0 0 0 0 0 0 0 0 0 0 0 3873 4088 5256 4599 4906 4906 4906 5256 5256 5661 6133 4599 0 0 0 0 0 251 3199 3066 2943 3066 2725 2374 2299 2102 1989 1887 1752 1795 1795 1795 1795 1672 1635 1635 1565 1635 1471 1415 1388 1362 1388 1314 1226 1247 1226 1149 1187 1168 1132 1051 1051 1082 0 0 0 955 931 931 981 931 931 919 908 865 855 845 826 808 808 799 791 766 758 758 743 721 681 707 707 707 707 694 0 700 681 0 663 613 639 639 634 618 618 0 0 0 0 593 584 574 584 574 579 566 570 570 557 549 0 525 511 500 497 490 484 481 471 474 465 468 457 462 454 0 451 448 448 446 0 0 0 0 0 0 0 420 415 413 406 0 750 743 0 0 381 383 377 377 373 375 375 375 369 367 364 353 0 0 0 0 0
    0 0 0 0 0 0 0 0 0 0 0 0 0 0 0 0 0 0 0 0 0 0 0 0 0 0 0 0 0 0 0 0 0 0 0 0 0 0 0 0 0 0 0 0 0 0 0 0 0 0 0 0 0 0 0 0 0 0 0 0 0 0 0 0 0 0 0 0 0 2102 1989 1989 1989 1989 1989 1936 1936 1887 1887 1887 1839 1839 1839 1839 1887 1936 1936 2164 1989 2230 2230 2164 2230 2230 2299 2374 2299 2628 2453 2537 2725 2628 2725 2725 2943 2830 2830 2628 2628 2628 2628 2374 2537 2537 2537 2628 2725 2628 2628 2628 0 0 0 0 0 0 0 0 0 0 0 0 0 0 0 0 0 0 0 0 0 0 0 0 0 0 0 0 0 0 0 0 0 0 0 0 4088 3679 4088 5256 4599 5256 4906 5256 5661 5661 6133 6133 5256 0 0 0 0 251 0 3199 2943 2830 2943 2628 2374 2299 2164 1989 1887 1752 1795 1752 1752 1752 1635 1599 1599 1565 1635 1443 1415 1388 1362 1415 1338 1226 1247 1226 1149 1187 1168 1115 1051 1051 1082 0 0 0 968 931 931 994 931 919 897 897 845 836 826 817 799 799 791 766 750 743 735 721 707 681 707 700 707 707 694 0 0 687 0 663 613 639 639 634 613 618 0 0 0 0 593 584 574 584 579 579 566 574 574 557 549 545 525 511 504 497 490 484 481 471 474 465 468 457 462 454 0 451 0 448 446 0 0 0 0 0 0 0 420 415 413 406 0 750 743 0 0 381 383 377 0 375 375 377 379 373 369 364 355 0 0 0 0 0
    0 0 0 0 0 0 0 0 0 0 0 0 0 0 0 0 0 0 0 0 0 0 0 0 0 0 0 0 0 0 0 0 0 0 0 0 0 0 0 0 0 0 0 0 0 0 0 0 0 0 0 0 0 0 0 0 0 0 0 0 0 0 0 0 0 0 0 0 0 2102 1989 1989 1989 1989 2044 1936 1936 1887 1887 1887 1795 1839 1795 1839 1839 1936 1936 2102 1989 2230 2164 2164 2230 2230 2299 2374 2299 2628 2537 2628 2725 2725 2830 2830 2943 2943 2943 2725 2725 2628 2628 2374 2537 2453 2537 2537 2628 2537 2537 2537 0 0 0 0 0 0 0 0 0 0 0 0 0 0 0 0 0 0 0 0 0 0 0 0 0 0 0 0 0 0 0 0 0 0 0 0 4088 3679 4088 5256 4599 5256 5256 5661 6133 6133 6690 7359 6690 8177 0 0 0 252 0 3345 3066 2830 2943 2537 2453 2374 2164 2044 1936 1839 1839 1795 1795 1795 1635 1635 1635 1565 1672 1443 1415 1388 1362 1388 1338 1206 1247 1226 1149 1187 1168 1115 1051 1051 1082 0 1008 0 968 931 931 994 931 919 897 897 845 826 826 817 808 799 782 774 758 743 735 728 714 694 707 707 707 707 700 0 707 0 0 669 613 634 634 629 613 613 603 0 0 0 593 584 574 584 579 579 566 574 574 557 549 549 529 514 504 497 490 484 481 471 474 465 468 457 462 454 0 451 0 448 446 0 0 0 0 0 0 0 420 415 415 406 0 750 743 0 0 381 385 377 0 377 377 379 383 375 369 364 355 0 0 0 0 0
    0 0 0 0 0 0 0 0 0 0 0 0 0 0 0 0 0 0 0 0 0 0 0 0 0 0 0 0 0 0 0 0 0 0 0 0 0 0 0 0 0 0 0 0 0 0 0 0 0 0 0 0 0 0 0 0 0 0 0 0 0 0 0 0 0 0 0 0 0 2164 2044 1989 1989 2044 2102 1936 1989 1887 1887 0 1795 1839 1795 1795 1839 1887 1936 2102 1989 2230 2164 2164 2230 2164 2299 2374 2299 2628 2537 2628 2725 2725 2830 2943 2943 2943 3066 2830 2725 2725 2725 2453 2537 2537 2537 2537 2628 2453 2453 2453 0 0 0 0 0 0 0 0 0 0 0 0 0 0 0 0 0 0 0 0 0 0 0 0 0 0 0 0 0 0 0 0 0 0 0 0 4088 3679 4329 4906 4599 5256 5256 5661 5661 5661 7359 7359 6690 8177 8177 5661 4088 252 0 3345 3066 2830 2943 2537 2453 2374 2164 2044 1989 1887 1887 1795 1795 1795 1711 1672 1672 1635 1672 1443 1415 1388 1362 1388 1338 1187 1226 1226 1149 1187 1168 1115 1051 1051 0 0 1008 0 955 931 919 994 943 919 908 897 845 836 826 817 799 791 774 766 758 743 735 728 721 707 714 714 714 707 707 0 707 687 0 669 613 629 629 629 613 0 603 0 0 0 593 584 574 584 579 579 566 574 574 557 553 553 529 518 507 497 490 484 481 468 474 462 465 0 459 451 0 451 448 448 0 0 0 0 0 0 0 0 420 415 415 406 0 743 743 0 0 383 387 379 0 379 377 0 387 375 369 364 355 0 0 0 0 0
    0 0 0 0 0 0 0 0 0 0 0 0 0 0 0 0 0 0 0 0 0 0 0 0 0 0 0 0 0 0 0 0 0 0 0 0 0 0 0 0 0 0 0 0 0 0 0 0 0 0 0 0 0 0 0 0 0 0 0 0 0 0 0 0 0 0 0 0 0 2164 2044 2044 2044 2102 2102 1989 1989 1887 1839 0 1795 1795 1795 1795 1839 1887 1936 2102 1989 2230 2164 2164 2230 2164 2299 2374 2299 2628 2537 2725 2725 2725 2830 2943 2943 2943 3199 2943 2830 2830 2830 2537 2628 2628 2628 2628 2537 2453 2453 2453 0 0 0 0 0 0 0 0 0 0 0 0 0 0 0 0 0 0 0 0 0 0 0 0 0 0 0 0 0 0 0 0 0 0 0 0 4329 3679 4599 5256 4906 5661 5661 6133 6133 6133 7359 7359 6690 7359 7359 5256 4088 253 0 3345 3066 2830 2830 2453 2453 2374 2164 2102 1989 1936 1936 1839 1795 1795 1711 1672 1672 1635 1672 1471 1415 1415 1388 1415 1338 1187 1226 1226 1132 1187 1168 1098 1051 1051 1082 0 0 0 955 931 931 994 955 931 908 886 845 826 817 808 791 782 774 766 758 735 735 721 721 707 714 707 707 707 707 707 707 687 0 669 608 623 623 618 608 608 598 608 598 593 593 584 574 584 579 579 566 574 579 557 553 557 533 518 511 500 490 0 0 468 0 0 0 0 457 451 0 0 0 0 0 0 0 0 0 0 0 0 420 415 415 406 406 0 0 389 387 383 387 377 0 0 0 0 0 0 0 364 353 0 0 0 0 0
    0 0 0 0 0 0 0 0 0 0 0 0 0 0 0 0 0 0 0 0 0 0 0 0 0 0 0 0 0 0 0 0 0 0 0 0 0 0 0 0 0 0 0 0 0 0 0 0 0 0 0 0 0 0 0 0 0 0 0 0 0 0 0 0 0 0 0 0 0 2164 2044 2044 2044 2102 2044 1936 1936 1839 1839 0 1752 0 0 1795 1839 1887 1936 2164 1989 2230 2164 2164 2230 2164 2299 2299 2230 2628 2453 2628 2725 2725 2830 2943 2943 2943 3199 3066 2943 2830 2943 2725 2628 2725 2628 2628 2537 2374 2374 2374 0 0 0 0 0 0 0 0 0 0 0 0 0 0 0 0 0 0 0 0 0 0 0 0 0 0 0 0 0 0 0 0 0 0 0 0 4599 3679 5256 5661 5661 6133 6133 6690 6690 6690 8177 7359 6690 8177 7359 5256 4329 4906 4329 3345 3066 2725 2830 2374 2453 2374 2230 2230 2044 1989 1989 1887 1839 1795 1711 1672 1672 1599 1635 1443 1415 1415 1362 1388 1338 1187 1226 1226 1132 1168 1168 1098 1051 1051 1082 0 0 1008 968 931 931 1008 981 931 908 876 836 817 808 799 791 782 774 766 758 735 728 728 721 707 707 707 700 700 707 707 707 681 0 669 608 613 613 613 603 603 598 603 593 593 593 584 574 584 579 579 566 574 579 557 553 561 533 521 514 500 490 0 0 0 0 0 0 0 0 0 0 0 0 0 0 0 0 0 0 0 0 0 420 415 413 406 406 397 393 389 387 381 0 0 0 0 0 0 0 0 0 0 0 0 0 0 0 0
    0 0 0 0 0 0 0 0 0 0 0 0 0 0 0 0 0 0 0 0 0 0 0 0 0 0 0 0 0 0 0 0 0 0 0 0 0 0 0 0 0 0 0 0 0 0 0 0 0 0 0 0 0 0 0 0 0 0 0 0 0 0 0 0 0 0 0 0 0 2164 2044 1989 1989 2102 1989 1887 1887 1752 1795 0 1752 0 0 0 0 1839 1989 2164 1989 2230 2164 2164 2230 2164 2230 2299 2230 2628 2453 2628 2725 2725 2830 2943 2943 2943 3066 3066 2943 2943 2943 2830 2725 2725 2725 2725 2453 2299 2299 2299 0 0 0 0 0 0 0 0 0 0 0 0 0 0 0 0 0 0 0 0 0 0 0 0 0 0 0 0 0 0 0 0 0 0 0 3873 4599 3504 5256 5661 5661 6133 6133 7359 6690 6690 0 7359 7359 7359 6690 5256 4599 5256 4329 3504 3066 2725 2830 2374 2453 2374 2230 2230 2044 1989 1989 1887 1795 1752 1672 1635 1635 1599 1635 1471 1415 1471 1388 1388 1338 1187 1226 1206 1115 1168 1149 1098 1051 1051 0 0 0 1022 968 931 931 1008 968 931 908 865 836 808 808 799 791 782 774 766 750 728 728 721 714 707 700 700 700 700 700 707 700 675 0 669 608 608 608 608 598 603 0 603 588 588 593 584 574 584 579 579 566 574 579 557 553 561 537 521 518 0 490 0 0 0 0 0 0 0 0 0 0 0 0 0 791 791 0 0 0 0 0 0 420 413 413 406 406 397 393 389 387 381 0 0 0 0 0 0 0 0 90 0 0 0 0 0 0 0
    0 0 0 0 0 0 0 0 0 0 0 0 0 0 0 0 0 0 0 0 0 0 0 0 0 0 0 0 0 0 0 0 0 0 0 0 0 0 0 0 0 0 0 0 0 0 0 0 0 0 0 0 0 0 0 0 0 0 0 0 0 0 0 0 0 0 0 0 0 2102 1989 1936 1936 2044 1936 1887 1887 1711 1795 0 1752 0 0 0 1887 1887 1989 2164 1989 2230 2164 2164 2164 2164 2230 2299 2164 2537 2453 2628 2725 2725 2830 2943 2943 2943 3066 3199 3066 3066 3066 2830 2830 2830 2830 2725 2453 2299 2299 2299 0 0 0 0 0 0 0 0 0 0 0 0 0 0 0 0 0 0 0 0 0 0 0 0 0 0 0 0 0 0 0 0 0 0 0 4088 4599 3504 4906 5256 5256 5661 5661 6690 6690 6690 0 7359 7359 7359 6690 5256 4599 5256 4329 3504 3066 2725 2830 2299 2374 2299 2230 2164 2044 1989 1989 1887 1795 1752 1635 1635 1599 1599 1635 1443 1443 1501 1415 1415 1362 1226 1247 1226 1115 1168 1149 1098 1051 1051 0 0 0 1022 968 931 931 1008 968 943 908 876 836 817 808 799 791 782 766 758 750 728 728 721 714 707 700 700 694 694 700 700 694 669 0 669 608 598 603 603 593 598 0 598 588 584 593 584 574 584 579 574 566 574 579 557 557 566 537 525 518 0 0 0 0 0 0 0 0 0 0 0 0 0 0 782 791 782 791 0 0 0 0 0 418 413 411 404 406 397 395 391 387 381 0 0 0 0 0 0 0 0 90 0 0 0 0 0 0 0
    0 0 0 0 0 0 0 0 0 0 0 0 0 0 0 0 0 0 0 0 0 0 0 0 0 0 0 0 0 0 0 0 0 0 0 0 0 0 0 0 0 0 0 0 0 0 0 0 0 0 0 0 0 0 0 0 0 0 0 0 0 0 0 0 0 0 0 0 0 2044 1936 1887 1839 1936 1839 1839 1839 1711 1795 0 1752 1839 1839 1839 1936 1887 1989 2164 1989 2230 2164 2164 2164 2164 2230 2299 2164 2537 2453 2628 2725 2725 2725 2943 2943 2943 3066 3199 3066 3066 3066 2943 2830 2830 2830 2830 2453 2299 2299 2299 0 0 0 0 0 0 0 0 0 0 0 0 0 0 0 0 0 0 0 0 0 0 0 0 0 0 0 0 0 0 0 0 0 0 0 4329 4599 3504 4906 5256 5256 5256 5661 6690 6133 6133 8177 7359 7359 7359 6133 5256 5256 5256 4599 3504 3066 2725 2725 2230 2374 2230 2164 2164 2044 1989 1989 1887 0 1711 1635 1672 1565 1599 1635 1471 1443 1533 1415 1415 1362 1247 1247 1226 1132 1168 1149 1098 1051 1051 0 0 0 1008 968 931 931 994 955 931 897 865 836 817 817 808 799 782 774 766 750 728 728 721 714 707 694 694 694 687 694 694 687 663 0 669 608 588 598 598 588 593 0 593 584 579 588 584 574 584 574 574 566 574 579 557 557 570 541 529 0 750 0 758 0 0 0 0 0 0 0 0 0 0 782 774 782 782 791 0 0 0 0 0 418 411 411 404 406 397 395 391 387 0 0 0 0 0 0 0 0 90 90 0 0 0 0 0 0 0
    0 0 0 0 0 0 0 0 0 0 0 0 0 0 0 0 0 0 0 0 0 0 0 0 0 0 0 0 0 0 0 0 0 0 0 0 0 0 0 0 0 0 0 0 0 0 0 0 0 0 0 0 0 0 0 0 0 0 0 0 0 0 0 0 0 0 0 0 0 2102 1989 0 0 1936 1795 1839 1839 1635 1752 0 1752 1839 1839 1887 1936 1887 1989 2164 1989 2230 2164 2164 2164 2164 2230 2299 2164 2537 2453 2628 2725 2725 2725 2943 2943 2943 3066 3199 3199 3066 3066 2943 2830 2943 2943 2830 2537 2299 2299 2299 0 0 0 0 0 0 0 0 0 0 0 0 0 0 0 0 0 0 0 0 0 0 0 0 0 0 0 0 0 0 0 0 0 0 0 4599 4599 3504 4906 5256 5256 5661 5661 6690 6133 6690 0 8177 8177 7359 6133 6133 5661 5661 4906 3504 3066 2725 2725 2230 2374 2230 2164 2164 2044 1989 1936 1887 0 1711 1635 1672 1565 1599 1599 1471 1471 1533 1415 1415 1362 1268 1247 1226 1132 1168 1168 1115 1051 1051 0 0 1022 1008 968 919 919 994 931 908 876 855 836 817 817 808 799 782 766 766 750 728 721 721 714 707 694 694 694 687 694 694 0 657 645 669 608 584 598 598 584 593 0 588 579 574 588 579 574 584 574 574 561 570 579 557 557 574 545 533 0 743 774 758 0 0 0 0 0 0 0 0 0 0 774 774 782 774 782 0 0 0 0 0 418 411 411 404 406 397 395 391 387 0 0 0 0 0 0 0 0 90 90 0 0 0 0 0 0 0
    0 0 0 0 0 0 0 0 0 0 0 0 0 0 0 0 0 0 0 0 0 0 0 0 0 0 0 0 0 0 0 0 0 0 0 0 0 0 0 0 0 0 0 0 0 0 0 0 0 0 0 0 0 0 0 0 0 0 0 0 0 0 0 0 0 0 0 0 0 2102 2044 0 0 1936 1795 1839 1795 1635 1752 0 1752 1839 1839 1887 1936 1887 1989 2164 2044 2230 2164 2164 2164 2164 2230 2299 2164 2537 2374 2537 2628 2725 2725 2943 2830 2943 2943 3199 3199 3199 3066 2943 2830 2943 2943 2943 2537 2299 2299 2299 0 0 0 0 0 0 0 0 0 0 0 0 0 0 0 0 0 0 0 0 0 0 0 0 0 0 0 0 0 0 0 0 0 0 0 4599 4599 3504 4906 5256 5256 5661 5661 6690 6133 6133 0 8177 8177 7359 5661 5661 5661 5661 4599 3504 3066 2725 2725 2230 2299 2164 2102 2102 1989 1989 1936 1887 1752 1672 1672 1672 1565 1599 1599 1471 1471 1533 1415 1388 1362 1268 1247 1226 1132 1168 1168 1115 1051 1051 0 0 1022 1022 968 919 919 981 919 886 876 855 836 826 817 808 791 782 774 774 750 728 728 728 728 714 694 700 694 687 700 687 675 657 645 669 608 579 593 593 579 588 0 584 574 574 588 579 570 579 570 570 561 566 574 553 557 0 0 0 0 743 774 758 782 766 0 0 0 0 0 0 0 0 0 0 0 0 0 0 0 430 422 422 418 411 411 404 406 399 395 391 387 0 0 0 0 0 0 92 91 0 0 0 0 0 0 0 0 0
    0 0 0 0 0 0 0 0 0 0 0 0 0 0 0 0 0 0 0 0 0 0 0 0 0 0 0 0 0 0 0 0 0 0 0 0 0 0 0 0 0 0 0 0 0 0 0 0 0 0 0 0 0 0 0 0 0 0 0 0 0 0 0 0 0 0 0 0 0 1989 1989 1936 0 1887 1752 1752 1752 1635 1752 1752 1795 1839 1839 1887 1936 1936 1989 2164 2044 2230 2164 2164 2164 2164 2230 2299 2164 2453 2374 2537 2628 2628 2628 2830 2830 2830 2943 3199 3199 3066 3066 2943 2830 2943 2943 2943 2537 2299 2299 2299 0 0 0 0 0 0 0 0 0 0 0 0 0 0 0 0 0 0 0 0 0 0 0 0 0 0 0 0 0 0 0 0 0 0 0 4599 4599 3504 5256 5661 5661 5256 5661 6133 5661 6133 8177 5661 6133 6133 4906 5661 5256 5661 4088 3345 3066 2725 2725 2299 2299 2164 2044 2044 1989 1936 1936 1839 0 1672 1672 1711 1565 1599 1599 1501 1471 1533 1415 1388 1362 1291 1247 1226 1132 1187 1187 1115 1051 1051 0 0 1022 1008 955 919 919 981 886 876 865 845 836 817 808 799 791 782 774 774 750 728 735 728 728 714 687 694 687 687 694 681 669 651 645 663 608 574 593 593 579 588 0 584 574 574 588 579 570 579 570 570 557 561 0 0 553 0 0 0 0 750 774 758 782 766 0 0 774 0 0 0 0 0 0 0 0 0 0 0 0 430 422 422 415 411 411 404 406 399 397 393 389 0 0 0 0 0 92 92 91 0 0 0 0 0 0 0 0 0
    0 0 0 0 0 0 0 0 0 0 0 0 0 0 0 0 0 0 0 0 0 0 0 0 0 0 0 0 0 0 0 0 0 0 0 0 0 0 0 0 0 0 0 0 0 0 0 0 0 0 0 0 0 0 0 0 0 0 0 0 0 0 0 0 0 0 0 0 0 1989 1989 1936 0 1839 1795 1839 1795 1711 1839 0 1795 1839 1887 1887 1936 1936 1989 2164 2044 2230 2164 2164 2164 2164 2230 2230 2164 2453 2299 2453 2537 2628 2628 2830 2725 2830 2830 3199 3199 3066 3066 2943 2943 2943 3066 3066 2628 2299 2299 2299 0 0 0 0 0 0 0 0 0 0 0 0 0 0 0 0 0 0 0 0 0 0 0 0 0 0 0 0 0 0 0 0 0 0 0 4599 4329 3679 5256 5661 6133 6133 6133 6690 6690 6690 8177 6690 6690 6690 4906 5661 5256 5256 4088 3345 3066 2725 2725 2299 2299 2102 2044 2044 1989 1887 1887 1839 1711 1672 1635 1672 1565 1565 1599 1471 1471 1501 1415 1388 1362 1268 1247 1226 1132 1187 1187 1115 1051 1051 0 0 1008 1008 955 919 908 968 886 865 855 845 836 817 808 799 791 791 774 774 743 728 728 728 721 707 675 687 681 681 687 675 669 651 639 663 608 570 588 588 574 584 574 584 574 574 588 584 570 584 574 574 557 557 0 0 0 0 0 0 0 750 774 766 782 766 782 758 774 0 782 0 0 0 448 446 0 0 0 0 430 430 422 422 415 408 408 404 406 399 399 393 389 0 0 0 0 0 92 92 91 0 0 0 0 0 0 0 0 0
    0 0 0 0 0 0 0 0 0 0 0 0 0 0 0 0 0 0 0 0 0 0 0 0 0 0 0 0 0 0 0 0 0 0 0 0 0 0 0 0 0 0 0 0 0 0 0 0 0 0 0 0 0 0 0 0 0 0 0 0 0 0 0 0 0 0 0 0 0 1936 1989 1989 1887 1887 1887 1887 1887 1839 1839 1839 1839 1839 1887 1887 1936 1936 1989 2164 1989 2230 2164 2164 2164 2164 2230 2230 2164 2453 2230 2453 2537 2628 2537 2725 2725 2830 2830 3199 3199 3066 3066 2943 2943 3066 3066 3199 2628 2299 2299 2299 0 0 0 0 0 0 0 0 0 0 0 0 0 0 0 0 0 0 0 0 0 0 0 0 0 0 0 0 0 0 0 0 0 0 0 4599 4088 3873 4906 5256 5661 6133 6133 6690 6690 6690 8177 7359 7359 6690 4906 5661 5661 5256 4088 3345 2943 2725 2628 2230 2164 2044 1936 1989 1936 1839 1839 1839 1711 1672 1672 1711 1565 1599 1599 1471 1443 1471 1388 1388 1362 1268 1247 1226 1149 1187 1187 1115 1051 1051 0 0 1008 1008 955 919 908 955 886 876 865 855 845 826 817 799 799 791 774 774 743 735 735 728 728 714 681 687 687 681 687 669 669 651 639 669 608 570 588 588 574 584 574 584 579 579 593 584 574 584 574 574 557 557 0 0 0 0 0 0 0 758 782 766 782 0 774 758 774 0 0 451 0 448 448 446 443 0 0 0 432 430 420 420 413 408 408 404 404 399 0 0 389 0 0 0 0 0 92 92 91 0 0 0 0 0 0 0 0 0
    0 0 0 0 0 0 0 0 0 0 0 0 0 0 0 0 0 0 0 0 0 0 0 0 0 0 0 0 0 0 0 0 0 0 0 0 0 0 0 0 0 0 0 0 0 0 0 0 0 0 0 0 0 0 0 0 0 0 0 0 0 0 0 0 0 0 0 0 0 1936 1989 1989 1887 1887 1936 1887 1887 1839 1839 1795 1795 1839 1839 1887 1936 1887 1936 2102 1989 2164 2164 2164 2164 2164 2164 2230 2164 2453 2230 2453 2537 2537 2537 2725 2725 2725 2725 3066 3066 3066 3066 2943 2943 3066 3066 3199 2628 2299 2299 2299 0 0 0 0 0 0 0 0 0 0 0 0 0 0 0 0 0 0 0 0 0 0 0 0 0 0 0 0 0 0 0 0 0 0 3679 4599 4088 4088 4906 4906 5661 6133 6133 6133 6133 6690 7359 7359 7359 6133 4599 5256 5661 5256 4088 3345 2943 2628 2537 2164 2102 1989 1887 1936 1936 0 1795 1839 1711 1672 1672 1711 1565 1565 1599 1471 1443 1443 1415 1388 1362 1268 1247 1247 1149 1187 1187 1115 1051 1051 0 0 1008 1008 955 919 919 955 886 886 876 865 845 836 817 799 791 791 774 774 750 735 735 735 735 714 681 687 687 681 687 669 669 651 639 669 613 574 593 593 574 584 574 584 579 579 593 584 574 588 574 574 0 0 0 0 0 0 0 0 0 758 782 766 782 0 0 0 0 462 459 451 454 451 448 446 446 440 440 0 0 430 420 418 411 0 406 0 0 0 799 0 0 0 0 0 0 0 92 92 91 0 0 0 0 0 0 0 0 0
    0 0 0 0 0 0 0 0 0 0 0 0 0 0 0 0 0 0 0 0 0 0 0 0 0 0 0 0 0 0 0 0 0 0 0 0 0 0 0 0 0 0 0 0 0 0 0 0 0 0 0 0 0 0 0 0 0 0 0 0 0 0 0 0 0 0 0 0 0 1989 1989 1989 1936 1936 1936 1887 1839 1839 1795 1711 1795 1839 1839 1839 1887 1887 1936 2044 1989 2102 2102 2164 2102 2102 2164 2164 2164 2453 2164 2374 2453 2537 2537 2628 2628 2628 2725 3066 3066 3066 3066 2830 2943 2943 3066 3199 2628 2299 2299 2299 0 0 0 0 0 0 0 0 0 0 0 0 0 0 0 0 0 0 0 0 0 0 0 0 0 0 0 0 0 0 0 0 0 0 3873 4599 3873 4088 4906 4906 5661 6133 6133 6133 6133 6690 7359 7359 6690 6133 4329 5256 5661 5256 4088 3345 2943 2628 2374 2164 2044 1936 1839 1936 1887 0 1795 1839 1752 1672 1672 1711 1565 1565 1565 1471 1415 1415 1388 1388 1362 1268 1247 1247 1168 1187 1187 1115 1051 1051 1066 0 1008 994 955 919 908 955 886 886 886 865 855 836 817 808 799 799 791 791 750 743 743 743 743 721 687 694 687 687 687 669 669 651 645 675 613 574 593 593 574 584 574 579 579 579 593 584 570 588 574 574 557 0 0 0 0 0 0 0 0 758 782 774 0 0 0 471 471 462 462 454 454 451 451 448 446 443 443 0 0 430 420 415 408 0 0 0 799 791 799 782 0 0 0 0 0 0 92 92 91 0 0 0 0 0 0 0 0 0
    0 0 0 0 0 0 0 0 0 0 0 0 0 0 0 0 0 0 0 0 0 0 0 0 0 0 0 0 0 0 0 0 0 0 0 0 0 0 0 0 0 0 0 0 0 0 0 0 0 0 0 0 0 0 0 0 0 0 0 0 0 0 0 0 0 0 0 0 0 1989 1989 1989 1936 1936 1936 1839 1839 1795 1752 1711 1795 1839 1795 1839 1887 1887 1887 2044 1936 2102 2044 2102 2102 2102 2102 2164 2102 2374 2102 2299 2374 2374 2453 2453 2537 2537 2628 2943 3066 2943 3066 2830 2943 2943 3066 3066 2628 2299 2299 2299 0 0 0 0 0 0 0 0 0 0 0 0 0 0 0 0 0 0 0 0 0 0 0 0 0 0 0 0 0 0 0 0 0 0 4329 4906 3873 4599 5256 5661 6133 6690 6133 6133 6133 7359 7359 6690 6690 6133 4329 5256 5256 4906 3873 3066 2830 2537 2299 2164 2044 1936 1839 1887 1887 1752 1752 1795 1752 1672 1672 1752 1599 1565 1533 1471 1388 1388 1388 1362 1338 1247 1247 1247 1168 1187 1187 1115 1051 1051 1066 0 0 994 955 919 919 955 886 886 886 876 865 845 817 808 799 799 791 791 750 743 750 750 743 714 681 687 687 687 687 669 669 657 645 669 613 574 593 593 574 584 574 579 579 579 593 584 570 588 574 574 557 549 0 0 0 0 0 514 0 758 782 774 0 0 0 471 471 462 462 454 457 451 451 448 448 446 443 440 0 0 418 0 0 0 0 0 791 791 799 782 0 0 0 0 0 0 0 92 0 0 0 0 0 0 0 0 0 0
    0 0 0 0 0 0 0 0 0 0 0 0 0 0 0 0 0 0 0 0 0 0 0 0 0 0 0 0 0 0 0 0 0 0 0 0 0 0 0 0 0 0 0 0 0 0 0 0 0 0 0 0 0 0 0 0 0 0 0 0 0 0 0 0 0 0 0 0 0 1989 1989 1936 1936 1936 1936 1887 1887 1839 1795 1795 1839 1839 1839 1839 1887 1887 1887 1989 1887 2044 2044 2102 2102 2102 2102 2102 2102 2299 2102 2230 2299 2299 2374 2374 2453 2453 2537 2830 2943 2943 3066 2830 2943 2943 3066 3066 2628 2299 2299 2299 0 0 0 0 0 0 0 0 0 0 0 0 0 0 0 0 0 0 0 0 0 0 0 0 0 0 0 0 0 0 0 0 0 4088 4599 4906 4088 5256 5661 5661 6133 6690 7359 6690 6690 8177 7359 7359 6690 6133 4329 5256 5256 4329 3679 2943 2943 2628 2299 2230 2102 1936 1795 1887 1839 1752 1752 1839 1795 1711 1672 1752 1635 1565 1533 1471 1362 1362 1362 1362 1338 1226 1247 1226 1149 1187 1187 1115 1051 1051 1066 0 0 994 955 919 919 955 886 886 886 886 876 845 817 808 799 799 791 782 743 743 750 750 743 714 687 687 687 687 687 669 675 657 645 669 613 574 593 593 574 584 574 579 579 579 593 584 570 588 574 574 561 549 545 0 541 0 529 511 0 766 0 0 0 0 474 471 471 462 462 454 457 451 454 451 448 446 446 443 0 0 418 0 0 0 0 0 791 799 799 0 0 0 0 0 0 0 0 0 0 0 0 0 0 0 0 0 0 0
    0 0 0 0 0 0 0 0 0 0 0 0 0 0 0 0 0 0 0 0 0 0 0 0 0 0 0 0 0 0 0 0 0 0 0 0 0 0 0 0 0 0 0 0 0 0 0 0 0 0 0 0 0 0 0 0 0 0 0 0 0 0 0 0 0 0 0 0 0 1989 1936 1936 1936 1936 1936 1887 1936 1887 1887 1887 1887 1887 1887 1887 1936 1936 1887 1989 1887 2044 1989 2102 2044 2102 2102 2102 2102 2299 2044 2164 2230 2230 2299 2299 2374 2374 2453 2830 2943 2943 3066 2830 2943 3066 3066 3199 2628 2299 2299 2299 0 0 0 0 0 0 0 0 0 0 0 0 0 0 0 0 0 0 0 0 0 0 0 0 0 0 0 0 0 0 0 8177 3679 4329 5256 5256 4088 5661 6133 6133 6690 7359 8177 7359 7359 8177 7359 6690 6690 5661 3873 4599 4906 3679 3504 2943 2943 2628 2374 2453 2164 2044 1887 1989 1936 1752 1795 1839 1795 1711 1672 1752 1635 1565 1533 1443 1362 1338 1362 1362 1338 1206 1226 1226 1149 1187 1187 1115 1051 1051 0 211 0 994 955 919 919 955 897 897 897 897 886 855 826 817 799 808 791 782 750 750 758 758 743 721 681 687 687 694 687 669 675 657 645 669 613 574 593 593 0 584 574 579 579 579 593 584 570 588 574 574 561 545 545 537 537 529 525 507 504 0 490 0 0 0 474 471 471 462 462 454 457 451 454 451 451 448 448 448 0 0 0 0 0 0 0 0 791 0 0 0 0 0 0 0 0 0 0 0 0 0 0 0 0 0 0 0 0 0
    0 0 0 0 0 0 0 0 0 0 0 0 0 0 0 0 0 0 0 0 0 0 0 0 0 0 0 0 0 0 0 0 0 0 0 0 0 0 0 0 0 0 0 0 0 0 0 0 0 0 0 0 0 0 0 0 0 0 0 0 0 0 0 0 0 0 0 0 0 1989 1936 1936 1936 1936 1989 1887 1936 1936 1936 1936 1936 1936 1936 1936 1989 1936 1887 1989 1887 2044 1989 2044 2044 2044 2102 2102 2102 2299 2044 2102 2230 2164 2230 2230 2299 2299 2374 2725 2830 2830 3066 2830 2943 3066 3066 3066 2628 2299 2299 2299 0 0 0 0 0 0 0 0 0 0 0 0 0 0 0 0 0 0 0 0 0 0 0 0 0 0 0 0 0 8177 8177 8177 5256 5256 5661 5661 4329 6133 6690 6690 7359 8177 8177 7359 7359 0 6690 6690 6690 5256 3873 4329 4906 3679 3504 2943 2943 2725 2453 2537 2230 2164 1989 2044 1989 1795 1839 1936 1839 1752 1711 1752 0 1565 1533 1443 1338 1338 1362 1362 1314 1168 1226 1226 1149 1187 1187 1115 1051 1051 0 212 211 994 955 919 919 955 897 897 908 908 897 865 845 826 817 817 799 791 758 766 766 766 743 714 681 687 687 687 687 669 675 657 651 675 613 0 0 0 0 584 579 574 579 579 593 584 570 588 574 570 566 545 541 533 533 525 521 507 504 0 490 0 0 0 471 471 468 459 459 451 454 451 454 451 451 451 451 451 0 0 0 0 0 0 0 0 791 0 0 0 0 0 0 0 0 0 0 0 0 0 0 0 0 0 0 0 0 0
    0 0 0 0 0 0 0 0 0 0 0 0 0 0 0 0 0 0 0 0 0 0 0 0 0 0 0 0 0 0 0 0 0 0 0 0 0 0 0 0 0 0 0 0 0 0 0 0 0 0 0 0 0 0 0 0 0 0 0 0 0 0 0 0 0 0 0 0 0 1989 1989 1989 1936 1936 1989 1887 1936 1936 1936 1936 1989 1936 1936 1936 1989 1989 1936 1989 1887 2044 1989 2044 1989 2044 2044 2102 2044 2230 1989 2102 2230 2164 2230 2230 2230 2299 2374 2628 2830 2830 2943 2725 2943 2943 2943 2943 2628 2299 2299 2299 0 0 0 0 0 0 0 0 0 0 0 0 0 0 0 0 0 0 0 0 0 0 0 0 0 0 0 0 0 7359 8177 8177 6133 5661 5661 5661 4906 6133 6133 6690 7359 0 0 8177 8177 0 8177 0 7359 6133 3873 4329 4906 3504 3504 3066 2943 2725 2453 2537 2230 2230 2044 2102 1989 1839 1887 1989 1887 0 1672 1711 1599 1501 1471 1415 1314 1338 1362 1362 1338 1168 1226 1226 1149 1187 1168 1098 1066 1066 1082 212 0 1008 955 931 931 955 919 919 931 931 931 886 876 855 836 826 808 799 766 766 766 758 735 714 687 687 687 687 687 675 681 663 657 675 0 0 0 0 0 0 0 0 0 0 0 579 570 0 574 570 574 545 541 529 529 521 521 507 504 493 490 0 0 0 0 468 468 459 457 451 454 451 454 454 451 451 454 454 0 0 0 0 0 0 0 0 0 0 0 0 0 0 0 387 0 0 0 0 0 0 0 0 0 0 0 0 0 0
    0 0 0 0 0 0 0 0 0 0 0 0 0 0 0 0 0 0 0 0 0 0 0 0 0 0 0 0 0 0 0 0 0 0 0 0 0 0 0 0 0 0 0 0 0 0 0 0 0 0 0 0 0 0 0 0 0 0 0 0 0 0 0 0 0 0 0 0 0 1989 1989 1989 1936 1936 1989 1887 1936 1936 1936 1936 1989 1936 1936 1936 1989 1989 1936 1989 1887 1989 1989 2044 1989 2044 2044 2102 2044 2230 1989 2044 2164 2164 2230 2164 2230 2230 2374 2537 2830 2725 2943 2725 2830 2943 2943 2943 2628 2299 2299 2299 0 0 0 0 0 0 0 0 0 0 0 0 0 0 0 0 0 0 0 0 0 0 0 0 0 0 0 0 0 0 0 0 7359 6690 6690 5661 5661 6133 6690 6690 7359 8177 8177 6690 8177 0 7359 7359 6690 5256 3873 4329 5256 3504 3504 3066 2943 2725 2453 2537 2230 2230 2102 2102 1989 1887 1887 2044 1887 0 1672 1672 1565 1501 1443 1388 1314 1314 1362 1388 1338 1187 1247 1247 1149 1187 1168 1098 1066 0 0 0 1022 1022 968 943 943 968 931 931 955 955 968 919 908 865 0 826 808 799 766 766 758 758 735 714 694 694 694 694 694 687 687 669 0 675 0 0 0 0 0 0 0 0 91 91 92 579 570 192 570 566 579 541 537 529 529 521 521 507 504 497 490 0 0 0 0 468 465 459 457 451 454 451 454 454 454 454 457 457 0 0 0 0 0 0 0 0 0 0 0 0 0 0 0 0 0 0 0 0 0 0 381 0 0 0 0 0 0 0
    0 0 0 0 0 0 0 0 0 0 0 0 0 0 0 0 0 0 0 0 0 0 0 0 0 0 0 0 0 0 0 0 0 0 0 0 0 0 0 0 0 0 0 0 0 0 0 0 0 0 0 0 0 0 0 0 0 0 0 0 0 0 0 0 0 0 0 0 0 2044 1936 1936 1887 1887 1936 1839 1936 1936 1936 1989 1989 1989 1989 1989 2044 1989 1936 1989 1887 1989 1989 2044 1989 2044 2044 2102 2102 2230 1989 2044 2164 2164 2230 2164 2230 2230 2299 2537 2725 2628 2943 2628 2830 2943 2943 2943 2628 2299 2299 2299 0 0 0 0 0 0 0 0 0 0 0 0 0 0 0 0 0 0 0 0 0 0 0 0 0 0 0 0 0 7359 8177 0 7359 6690 6690 5661 5661 6690 6690 6690 6690 7359 7359 6690 8177 0 7359 6690 6690 5661 4329 4599 5256 3504 3504 3199 2943 2725 2453 2537 2299 2299 2164 2164 2044 1936 1936 2044 1887 0 1635 1635 1565 1471 1415 1388 1314 1338 1388 1388 1338 1187 1247 1247 1149 1187 1168 1098 1082 0 0 1036 1036 1036 981 955 955 968 931 943 955 955 981 943 931 886 0 836 817 0 774 766 766 758 735 714 0 694 694 700 700 694 694 675 0 0 0 0 0 0 0 0 0 0 91 91 92 574 566 192 0 561 579 537 529 521 521 518 518 507 504 497 493 0 0 0 0 468 462 457 454 448 454 454 457 457 454 459 459 462 0 0 0 0 0 0 0 0 0 0 0 0 0 0 0 0 0 0 0 0 0 0 0 0 381 0 0 0 0 0
    0 0 0 0 0 0 0 0 0 0 0 0 0 0 0 0 0 0 0 0 0 0 0 0 0 0 0 0 0 0 0 0 0 0 0 0 0 0 0 0 0 0 0 0 0 0 0 0 0 0 0 0 0 0 0 0 0 0 0 0 0 0 0 0 0 0 0 0 0 0 1936 1795 1795 1752 1839 1672 1887 1936 1936 1989 2044 1989 1989 1989 2044 1989 1936 1989 1887 2044 1989 2044 1989 2044 2102 2102 2102 2299 1989 2044 2164 2164 2230 2230 2164 2230 2299 2453 2725 2628 2943 2537 2830 2943 2830 2830 2628 2299 2299 2299 0 0 0 0 0 0 0 0 0 0 0 0 0 0 0 0 0 0 0 0 0 0 0 0 0 0 0 0 0 0 0 0 8177 7359 7359 6133 6133 6690 6690 6133 6690 6690 6690 6133 8177 0 7359 7359 7359 6690 4599 5256 5661 3679 3504 3066 2830 2725 2453 2628 2299 2299 2230 2230 2102 2044 1989 2164 1887 0 1672 1672 1599 1533 1415 1388 1338 1338 1388 1388 1338 1187 1247 1226 1132 1168 1168 1098 1082 1082 1098 1036 1036 1036 981 943 955 968 931 931 955 955 994 943 955 919 876 855 0 0 782 766 758 750 728 0 0 694 694 700 707 700 0 681 0 0 0 0 0 0 0 0 0 570 574 574 0 574 566 191 192 0 588 533 521 514 518 518 518 507 504 497 493 0 0 0 0 465 459 454 451 448 454 454 457 459 457 462 462 468 0 0 0 0 0 0 0 0 0 0 0 0 0 0 0 0 0 0 0 0 0 0 0 0 0 0 0 0 0 0
    0 0 0 0 0 0 0 0 0 0 0 0 0 0 0 0 0 0 0 0 0 0 0 0 0 0 0 0 0 0 0 0 0 0 0 0 0 0 0 0 0 0 0 0 0 0 0 0 0 0 0 0 0 0 0 0 0 0 0 0 0 0 0 0 0 0 0 0 0 0 0 1501 1388 1415 1443 1501 1839 1887 1936 1989 2044 2044 2044 1989 2044 2044 1989 2044 1887 2044 2044 2044 1989 2102 2102 2164 2102 2299 2044 2044 2230 2164 2230 2230 2164 2230 2299 2453 2725 2537 2943 2537 2725 2830 2830 2830 2628 2299 2299 2299 0 0 0 0 0 0 0 0 0 0 0 0 0 0 0 0 0 0 0 0 0 0 0 0 0 0 0 0 0 7359 8177 8177 8177 7359 7359 6133 6133 6690 7359 6690 6690 6690 7359 6133 8177 0 7359 7359 7359 6690 4599 4906 5661 3679 3345 3066 2830 2725 2453 2537 2299 2299 2299 2230 2102 2044 2044 2164 1936 0 1672 1672 1635 1565 1443 1362 1338 1338 1388 1388 1338 1187 1247 1226 1132 1168 1149 1098 1082 1082 1098 1051 1051 1066 981 955 981 981 943 955 955 968 994 955 955 943 876 836 817 0 774 758 750 735 714 0 0 694 700 700 707 707 0 0 0 675 0 0 0 0 0 0 0 570 574 574 588 579 570 191 191 191 0 533 521 514 521 521 521 518 514 504 497 0 0 0 0 0 457 451 448 446 451 454 459 459 459 468 465 471 0 0 0 0 0 0 0 0 0 0 0 0 0 0 0 0 0 0 0 0 0 0 385 0 0 0 0 0 0 0
    0 0 0 0 0 0 0 0 0 0 0 0 0 0 0 0 0 0 0 0 0 0 0 0 0 0 0 0 0 0 0 0 0 0 0 0 0 0 0 0 0 0 0 0 0 0 0 0 0 0 0 0 0 0 0 0 0 0 0 0 0 0 0 0 0 0 0 0 0 1672 1565 1471 1415 1471 1471 1471 1635 1795 1839 1989 2044 1989 2044 1989 2044 2044 1989 2044 1936 2044 2044 2102 2044 2102 2164 2230 2164 2374 2044 2044 2230 2164 2230 2230 2164 2230 2299 2374 2628 2537 2943 2453 2725 2830 2830 2725 2628 2299 2299 2299 0 0 0 0 0 0 0 0 0 0 0 0 0 0 0 0 0 0 0 0 0 0 0 0 0 0 0 0 0 7359 8177 8177 8177 7359 7359 6133 6690 7359 6690 6690 6690 6690 6690 6133 8177 8177 6690 7359 7359 6690 4599 5256 5661 3679 3345 3066 2830 2830 2537 2628 2374 2374 2299 2299 2102 2102 2044 2164 1887 0 1672 1635 1599 1565 1443 1362 1338 1338 1415 1388 1338 1187 1247 1226 1132 1187 0 1082 1066 1066 1098 1051 1051 1066 981 955 981 981 955 955 955 955 994 955 943 919 845 836 817 0 782 766 743 735 707 0 0 694 700 700 714 707 0 0 0 681 618 0 0 0 0 0 91 574 579 579 593 579 0 191 191 191 0 0 525 514 521 525 525 525 525 518 507 500 0 0 0 0 0 448 0 446 451 457 459 462 462 471 468 477 0 477 0 0 0 0 0 0 0 0 0 0 0 0 0 0 0 0 0 0 0 0 0 0 383 0 0 0 0 0
    0 0 0 0 0 0 0 0 0 0 0 0 0 0 0 0 0 0 0 0 0 0 0 0 0 0 0 0 0 0 0 0 0 0 0 0 0 0 0 0 0 0 0 0 0 0 0 0 0 0 0 0 0 0 0 0 0 0 0 0 0 0 0 0 0 0 0 0 0 1565 1533 1443 1415 1471 1443 1471 1533 1672 1711 1839 1936 1936 1989 1989 2044 2044 1989 2044 1936 2102 2102 2102 2044 2102 2164 2230 2164 2374 2044 2044 2230 2164 2299 2230 2164 2230 2299 2374 2628 2453 2830 2453 2628 2830 2830 2725 2725 2374 2299 2299 0 0 0 0 0 0 0 0 0 0 0 0 0 0 0 0 0 0 0 0 0 0 0 0 0 0 8177 6690 7359 6690 7359 7359 7359 7359 7359 6133 6690 7359 6690 6690 6690 6690 6690 6133 8177 7359 6690 7359 8177 7359 4906 5256 5661 3679 3345 3066 2725 2830 2537 2628 2374 2374 2299 2299 2102 2164 1989 2102 1887 1752 1635 1599 1565 1501 1443 1338 1338 1338 1443 1415 1338 1187 1247 1226 0 0 0 1082 1066 1066 1098 1051 1051 0 981 955 994 981 955 943 955 955 994 968 955 931 876 855 0 0 0 774 750 735 0 0 0 694 700 0 714 707 0 0 0 681 618 0 0 0 91 91 91 579 584 579 0 584 0 191 191 192 0 0 0 518 529 529 533 537 533 525 525 518 766 0 0 0 0 0 0 443 448 459 459 468 465 477 471 481 0 0 0 0 0 0 0 0 0 0 0 0 0 0 0 0 0 0 0 0 0 0 0 385 383 0 0 0 0 0
    0 0 0 0 0 0 0 0 0 0 0 0 0 0 0 0 0 0 0 0 0 0 0 0 0 0 0 0 0 0 0 0 0 0 0 0 0 0 0 0 0 0 0 0 0 0 0 0 0 0 0 0 0 0 0 0 0 0 0 0 0 0 0 0 0 0 0 0 0 1471 1443 1415 1415 1471 1443 1471 1501 1565 1635 1752 1887 1887 1989 1936 1989 2044 1936 2044 1936 2102 2102 2102 2044 2102 2164 2299 2164 2374 2044 2044 2230 2164 2299 2230 2164 2230 2299 2374 2628 2453 2830 2374 2537 2830 2725 2628 2628 2299 2230 2230 0 0 0 0 0 0 0 0 0 0 0 0 0 0 0 0 0 0 0 0 0 0 0 0 0 0 6690 6690 6690 6690 7359 8177 7359 8177 8177 6690 7359 7359 6690 6690 6690 6690 6690 6133 8177 8177 8177 0 8177 7359 5256 5256 5661 3679 3199 2943 2628 2725 2453 2537 2299 2299 2230 2299 2102 2102 1989 2102 1839 1752 1635 1599 1533 1501 1415 1314 1338 1338 1415 1415 1362 1206 1247 1247 0 0 0 1082 1066 1066 1098 1051 1051 215 981 968 1008 981 955 955 955 955 994 968 955 943 886 876 855 0 0 0 743 728 0 0 0 694 694 0 714 707 0 0 0 675 613 0 0 0 91 91 91 579 584 584 0 588 0 190 191 192 194 190 0 521 0 0 0 0 541 533 533 0 766 791 0 766 758 0 0 0 0 459 462 468 465 477 474 481 0 0 0 0 0 0 0 0 0 0 0 0 0 0 0 0 0 0 0 0 0 0 0 0 383 0 0 0 0 0
    0 0 0 0 0 0 0 0 0 0 0 0 0 0 0 0 0 0 0 0 0 0 0 0 0 0 0 0 0 0 0 0 0 0 0 0 0 0 0 0 0 0 0 0 0 0 0 0 0 0 0 0 0 0 0 0 0 0 0 0 0 0 0 0 0 0 0 0 0 1388 1388 1415 1443 1501 1501 1533 1565 1599 1635 1752 1887 1887 1936 1936 1989 2044 1936 2102 1936 2102 2164 2164 2044 2102 2164 2299 2230 2453 2044 2044 2230 2164 2299 2230 2164 2230 2299 2374 2537 2453 2830 2374 2537 2830 2628 2628 2628 2164 2164 2164 2537 2374 2299 0 0 0 0 0 0 0 0 0 0 0 0 0 0 0 0 0 0 0 0 0 0 0 6690 6133 6133 6690 7359 8177 8177 8177 8177 6690 7359 8177 6690 6690 6690 6690 6690 6133 8177 8177 8177 0 0 8177 5661 5256 4906 3679 3066 2943 2628 2628 2374 2537 2374 2299 2230 2230 2044 2102 1936 1989 1795 1672 1565 1565 1501 1471 1415 1314 1338 1338 1388 1415 1362 1206 1247 1226 1132 1168 1115 1066 1066 1066 1082 1051 1051 215 981 968 1008 981 955 955 943 955 981 968 943 955 886 886 855 0 0 750 721 0 0 0 0 0 694 694 714 707 0 0 681 675 613 0 0 0 0 0 91 0 588 588 0 593 584 190 191 192 195 190 0 0 128 0 128 127 549 537 541 0 782 799 774 774 758 0 0 0 0 462 459 468 462 481 474 484 0 0 227 0 0 0 0 0 0 0 0 0 0 0 0 0 0 0 0 0 0 0 0 0 383 0 0 0 0 0
    0 0 0 0 0 0 0 0 0 0 0 0 0 0 0 0 0 0 0 0 0 0 0 0 0 0 0 0 0 0 0 0 0 0 0 0 0 0 0 0 0 0 0 0 0 0 0 0 0 0 0 0 0 0 0 0 0 0 0 0 0 0 0 0 0 0 0 0 0 1362 1362 1415 1443 1501 1565 1565 1599 1672 1672 1795 1887 1936 1936 1936 1989 2044 1936 2102 1989 2164 2164 2164 2102 2164 2230 2299 2230 2453 2044 2044 2230 2164 2299 2230 2164 2230 2299 2374 2537 2453 2830 2453 2628 2830 2628 2537 2537 2044 2102 2102 2299 2230 2164 2374 2628 2628 0 0 0 0 0 0 0 0 0 0 0 0 0 0 0 0 0 0 0 8177 6133 6133 6133 6690 7359 8177 7359 8177 8177 7359 8177 8177 6690 6690 6690 6690 6133 6133 8177 7359 7359 8177 8177 7359 5661 5661 4599 3679 3066 2943 2628 2628 2374 2537 2374 2230 2164 2164 1989 2044 1887 1936 1752 1635 1533 1565 1471 1415 1415 1314 1314 1314 1338 1388 1338 1206 1247 1226 1132 1168 1115 1066 1066 1051 1082 1036 1036 216 981 955 1008 981 955 943 931 943 968 968 919 931 876 876 845 0 0 735 707 0 0 0 0 0 687 694 707 707 0 0 681 681 613 579 593 593 588 0 0 588 588 588 0 598 588 190 191 192 0 0 0 127 127 0 0 0 0 537 0 227 782 799 782 774 0 0 0 0 454 462 459 471 462 484 477 487 0 0 0 0 0 0 0 0 0 0 0 0 0 0 0 0 0 0 0 159 0 0 0 0 0 0 0 0 0 0
    0 0 0 0 0 0 0 0 0 0 0 0 0 0 0 0 0 0 0 0 0 0 0 0 0 0 0 0 0 0 0 0 0 0 0 0 0 0 0 0 0 0 0 0 0 0 0 0 0 0 0 0 0 0 0 0 0 0 0 0 0 0 0 0 0 0 0 0 0 1338 1338 1388 1415 1443 1501 1599 1635 1711 1752 1795 1887 1936 1989 1936 1989 2044 1936 2102 1989 2164 2164 2164 2102 2164 2230 2374 2230 2453 2102 2102 2230 2164 2374 2230 2164 2230 2299 2299 2537 2453 2830 2374 2628 2830 2628 2374 2453 1989 1989 1989 2164 2102 2102 2374 2628 2628 3873 4088 0 0 0 0 0 0 0 0 0 0 0 0 0 0 0 6690 6690 6690 6690 5661 5661 6133 6690 7359 6690 8177 8177 6690 7359 8177 7359 6690 6690 6690 6133 6133 7359 7359 7359 8177 8177 8177 5661 5661 4329 3873 3066 2943 2628 2725 2453 2537 2374 2299 2102 2102 1989 1936 1839 1839 1752 1599 1501 1533 1443 1388 1415 1291 1314 1291 1291 1338 1314 1206 1226 1226 1115 1168 1115 0 1051 1051 1051 1036 1036 216 968 955 1008 981 955 955 931 943 955 955 908 919 876 886 855 0 0 0 700 0 0 694 687 0 687 694 707 707 0 0 681 681 618 579 593 593 588 0 0 588 588 588 0 598 588 190 191 193 0 0 0 0 127 127 0 0 0 0 0 227 799 808 782 774 0 782 0 0 457 462 0 471 462 484 481 490 490 0 0 0 0 0 0 0 0 0 0 0 0 0 0 0 0 161 160 0 159 159 161 0 0 0 0 0 0 0
    0 0 0 0 0 0 0 0 0 0 0 0 0 0 0 0 0 0 0 0 0 0 0 0 0 0 0 0 0 0 0 0 0 0 0 0 0 0 0 0 0 0 0 0 0 0 0 0 0 0 0 0 0 0 0 0 0 0 0 0 0 0 0 0 0 0 0 0 0 1338 1338 1415 1443 1471 1533 1635 1635 1711 1752 1795 1887 1936 1936 1989 1989 2102 1936 2164 1989 2164 2164 2164 2102 2164 2230 2374 2230 2453 2102 2102 2230 2164 2374 2230 2164 2230 2299 2299 2453 2374 2830 2374 2537 2830 2453 2102 2299 1887 1989 1936 2044 2044 2044 2299 2628 2628 3679 3873 0 0 0 0 0 0 0 0 0 0 4906 6690 5661 7359 7359 7359 7359 7359 7359 6690 6133 6690 6690 7359 7359 8177 7359 7359 8177 8177 7359 6690 6690 6690 6690 6690 7359 7359 6690 7359 7359 7359 5661 5661 4088 3873 3199 3066 2725 2725 2453 2537 2453 2299 2102 2102 1936 1887 1795 1795 1672 1533 1443 1501 1388 1388 1415 1291 1291 1291 1291 1291 1291 1206 1226 1206 1132 1168 1115 0 1051 1036 0 0 1022 0 955 943 994 968 955 955 931 943 955 955 897 908 865 876 855 0 0 0 707 0 0 700 0 0 0 694 707 700 0 0 681 681 618 584 598 598 593 0 0 588 593 588 324 0 593 190 191 192 0 0 0 127 127 127 0 0 0 0 0 0 808 808 791 0 0 791 0 454 457 465 0 471 462 484 0 490 0 0 0 0 0 0 0 0 0 0 0 422 413 0 0 151 0 161 161 160 0 0 161 0 0 0 0 0 0 0
    0 0 0 0 0 0 0 0 0 0 0 0 0 0 0 0 0 0 0 0 0 0 0 0 0 0 0 0 0 0 0 0 0 0 0 0 0 0 0 0 0 0 0 0 0 0 0 0 0 0 0 0 0 0 0 0 0 0 0 0 0 0 0 0 0 0 0 0 0 1362 1388 1443 1471 1501 1565 1672 1672 1752 1795 1887 1936 1936 1936 1989 2044 2102 1989 2164 1989 2164 2164 2164 2102 2164 2230 2374 2230 2374 2102 2102 2230 2164 2374 2230 2164 2230 2299 2299 2453 2374 2830 2374 2537 2830 2453 2044 2164 1887 1936 1936 1989 2044 1989 2164 2537 2537 3066 3504 3679 0 0 0 0 0 0 0 9199 4329 4329 6133 5661 6133 6690 6690 6133 6690 6690 6133 5661 6133 6133 6690 6690 7359 7359 6690 8177 8177 7359 7359 6690 7359 6690 6690 7359 6690 6133 7359 6690 6690 5256 5256 3873 3873 3345 3066 2830 2725 2537 2537 2453 2299 2044 2044 1887 0 1752 1711 1635 1471 1415 1471 1388 1362 1415 1291 1291 1291 1291 1314 1314 1226 1247 1226 1149 1187 1132 0 1066 1036 0 0 1022 0 955 943 994 968 955 955 931 943 943 955 908 919 876 886 865 845 0 0 0 0 0 707 0 0 0 0 714 700 700 687 681 681 618 584 598 598 593 0 0 593 593 593 0 0 593 190 191 193 0 0 0 127 127 127 127 128 127 0 0 0 817 817 791 782 0 791 0 0 459 465 0 468 459 0 0 0 0 0 0 0 0 0 0 0 0 0 0 420 411 0 0 0 0 162 161 160 0 0 161 0 79 0 0 0 0 0
    0 0 0 0 0 0 0 0 0 0 0 0 0 0 0 0 0 0 0 0 0 0 0 0 0 0 0 0 0 0 0 0 0 0 0 0 0 0 0 0 0 0 0 0 0 0 0 0 0 0 0 0 0 0 0 0 0 0 0 0 0 0 0 0 0 0 0 0 0 1362 1388 1471 1471 1565 1599 1711 1711 1795 1887 1936 1989 2044 1989 2044 2102 2164 1989 2164 2044 2164 2164 2164 2102 2164 2230 2299 2230 2374 2164 2102 2230 2102 2299 2230 2164 2164 2299 2230 2453 2374 2830 2374 2537 2830 2299 1887 1936 1839 1887 1887 1936 1989 1989 2102 2453 2537 2943 3345 3504 3345 0 0 0 0 0 0 0 5661 4088 6133 5661 6133 6133 6133 5661 6133 6133 6133 5661 6690 6133 6690 6690 7359 7359 6690 8177 8177 7359 6690 6690 6690 6690 6690 8177 6690 6133 7359 7359 6690 5661 5256 3873 3679 3199 3066 2830 2725 2537 2537 2537 2374 2044 1989 1839 0 1711 1672 1599 1443 1415 1471 1388 1362 1415 1291 1291 1291 1268 1291 1291 1226 1247 1247 1168 1187 1132 0 0 0 162 0 1022 0 955 943 994 968 955 955 943 955 968 981 955 955 897 908 886 845 782 0 721 728 714 714 0 0 0 0 714 700 700 687 675 681 618 584 598 598 593 0 0 593 593 593 0 0 598 190 0 0 0 721 0 128 128 128 128 128 127 0 0 855 817 808 791 791 0 791 0 0 459 462 0 465 457 0 178 0 178 0 0 0 0 0 0 0 0 0 0 420 411 0 0 0 0 162 161 161 96 0 161 0 79 0 0 0 0 0
    0 0 0 0 0 0 0 0 0 0 0 0 0 0 0 0 0 0 0 0 0 0 0 0 0 0 0 0 0 0 0 0 0 0 0 0 0 0 0 0 0 0 0 0 0 0 0 0 0 0 0 0 0 0 0 0 0 0 0 0 0 0 0 0 0 0 0 0 0 1362 1388 1471 1501 1565 1635 1795 1795 1839 1989 2044 2044 2164 2102 2044 2102 2230 1989 2164 2044 2164 2164 2164 2164 2164 2230 2299 2230 2299 2164 2102 2230 2102 2299 2230 2164 2164 2299 2230 2374 2374 2830 2374 2537 2725 2044 1752 1795 1795 1887 1887 1936 1989 1989 2102 2374 2453 2725 2943 3199 3066 2943 0 0 0 0 0 0 6690 4599 6690 6133 6133 6133 6133 5661 6133 6133 6133 5661 6133 6133 6133 6690 7359 7359 6690 7359 8177 7359 6690 6690 6690 6690 6690 7359 6690 6133 6690 7359 6690 5661 4599 3679 3679 3066 2943 2725 2628 2453 2453 2537 2374 2102 0 1839 0 1711 1672 1599 1443 1415 1501 1388 1362 1443 1291 1291 1291 1268 1291 1268 1226 1247 1247 1168 1187 1132 0 0 0 163 162 1022 0 955 943 994 968 955 968 955 981 981 994 994 994 955 981 955 865 766 0 721 721 721 714 0 0 0 0 714 700 700 687 675 681 618 584 598 598 593 613 0 598 598 593 0 0 0 0 0 0 0 728 0 0 128 128 128 128 127 0 0 855 817 808 782 791 0 0 0 0 459 462 459 465 0 0 178 177 178 178 0 0 0 0 0 0 0 0 0 418 408 0 0 0 163 162 161 161 0 0 162 0 79 0 0 0 0 0
    0 0 0 0 0 0 0 0 0 0 0 0 0 0 0 0 0 0 0 0 0 0 0 0 0 0 0 0 0 0 0 0 0 0 0 0 0 0 0 0 0 0 0 0 0 0 0 0 0 0 0 0 0 0 0 0 0 0 0 0 0 0 0 0 0 0 0 0 0 1338 1388 1471 1471 1599 1635 1795 1839 1887 2102 2102 2102 2230 2164 2102 2102 2230 1989 2164 2044 2164 2164 2164 2102 2164 2164 2299 2164 2230 2102 2102 2164 2102 2299 2230 2164 2164 2299 2230 2374 2453 2830 2299 2453 2537 1989 1711 1752 1795 1887 1887 1936 1989 1989 2102 2299 2453 2725 2725 2943 2943 2830 2628 0 0 0 0 0 6690 4906 6690 6133 6133 6133 6133 5661 6133 6690 6690 6133 6690 6690 6690 7359 8177 8177 6690 7359 8177 8177 6690 7359 6690 6133 6133 7359 6690 6133 6133 6690 6133 4906 4599 3679 3679 3199 3066 2725 2725 2453 2537 2537 2374 0 0 0 0 1711 1672 1599 1443 1415 1501 1388 1388 1443 1314 1291 1291 1268 1268 1268 1226 1247 1247 1168 1206 1132 0 0 0 163 162 1022 0 955 931 994 968 968 968 968 981 994 1008 1008 1008 981 1022 955 0 743 714 721 728 721 714 707 0 0 0 714 700 700 687 675 681 623 588 598 598 598 613 0 598 598 593 0 0 0 0 0 0 0 728 0 0 128 128 128 128 127 0 0 0 808 799 774 0 0 0 468 462 462 462 0 0 0 0 178 177 178 178 0 0 0 0 0 0 0 0 418 415 408 0 152 0 163 162 162 161 0 162 162 0 79 0 0 0 0 0
    0 0 0 0 0 0 0 0 0 0 0 0 0 0 0 0 0 0 0 0 0 0 0 0 0 0 0 0 0 0 0 0 0 0 0 0 0 0 0 0 0 0 0 0 0 0 0 0 0 0 0 0 0 0 0 0 0 0 0 0 0 0 0 0 0 0 0 0 0 1338 1388 1443 1471 1565 1635 1839 1839 1936 2164 2164 2164 2299 2230 2164 2102 2230 1989 2102 2044 2164 2164 2164 2102 2102 2164 2230 2164 2164 2102 2044 2102 2044 2230 2164 2164 2164 2230 2164 2299 2374 2725 2230 2230 2299 1989 1752 0 1839 1887 1839 1936 1989 1989 2044 2230 2374 2628 2628 2943 2830 2725 2628 2725 0 0 0 0 7359 5256 6690 6133 6133 6133 6133 5661 6690 6690 6690 6133 6690 6690 6690 7359 8177 7359 6690 7359 8177 7359 6690 6690 6690 6133 6133 7359 6133 5661 6133 6133 6133 4906 4599 3679 3679 3199 3066 2830 2628 2453 2537 2537 2453 2102 2044 1839 0 1711 1672 1599 1443 1443 1533 1415 1388 1471 1314 1314 1314 1268 1268 1247 1226 1247 1247 1187 1206 1149 0 0 0 163 162 1008 0 955 931 981 968 968 981 968 981 994 0 1008 994 955 836 0 758 743 721 728 735 728 721 714 0 0 0 721 700 700 694 681 687 623 593 603 0 0 613 613 598 598 593 0 0 0 0 0 0 0 735 0 0 0 129 128 128 0 0 85 85 799 791 766 0 0 0 471 465 465 462 0 0 0 0 178 177 178 178 0 0 0 0 0 0 0 0 415 415 406 0 152 0 0 162 162 161 0 0 162 79 79 0 0 0 0 0
    0 0 0 0 0 0 0 0 0 0 0 0 0 0 0 0 0 0 0 0 0 0 0 0 0 0 0 0 0 0 0 0 0 0 0 0 0 0 0 0 0 0 0 0 0 0 0 0 0 0 0 0 0 0 0 0 0 0 0 0 0 0 0 0 0 0 0 0 0 1338 1415 1443 1471 1565 1599 1839 1839 1936 2164 2164 2164 2230 2164 2102 2102 2164 1989 2044 2044 2102 2102 2102 2102 2044 2102 2164 2102 2044 2044 2044 2044 2044 2164 2164 2102 2102 2230 2102 2164 2374 2628 2164 2102 2102 1989 1752 1752 1839 1839 1839 1887 1936 1936 1989 2102 2299 2453 2628 2830 2830 2830 2725 2725 8177 0 0 0 7359 5661 6690 6690 6133 6133 6133 5661 6133 6690 6690 6133 7359 6690 6690 7359 8177 7359 6133 7359 7359 7359 6690 6690 6690 6133 6133 7359 6690 5661 6133 6690 6133 5256 4906 4088 3873 3345 3066 2830 2628 2453 2537 2537 2453 2102 2102 1887 0 1711 1672 1599 1443 1471 1565 1443 1415 1501 1338 1338 1314 1268 1268 1247 1226 1247 1247 1187 1206 1168 0 0 0 163 162 1008 0 955 931 981 968 968 981 968 994 981 994 1008 968 876 808 799 758 743 721 735 743 735 728 714 0 0 0 721 700 700 694 687 687 629 593 603 0 0 613 613 598 593 593 0 0 0 0 0 0 0 735 0 714 0 129 128 128 0 0 85 85 774 774 743 0 0 0 471 468 468 0 0 0 0 0 178 177 177 0 0 0 0 0 0 0 0 0 413 413 406 0 152 0 0 162 161 0 0 0 0 79 79 0 0 0 0 0
    0 0 0 0 0 0 0 0 0 0 0 0 0 0 0 0 0 0 0 0 0 0 0 0 0 0 0 0 0 0 0 0 0 0 0 0 0 0 0 0 0 0 0 0 0 0 0 0 0 0 0 0 0 0 0 0 0 0 0 0 0 0 0 0 0 0 0 0 0 1362 1415 1443 1471 1565 1599 1795 1839 1887 2102 2102 2102 2230 2164 2102 2164 2230 2044 1989 2044 2044 2102 2044 2044 2044 2044 2044 2044 1989 2044 1989 2044 1989 2102 2102 2102 2044 2230 2044 2102 2299 2453 2102 1989 1989 1936 1795 1795 1839 1839 1839 1887 1936 1887 1936 2102 2299 2374 2537 2830 2725 2725 2725 2725 6690 8177 0 0 0 6690 7359 7359 6690 6690 6690 6133 6690 6690 6690 6690 7359 6690 6690 7359 7359 7359 6133 7359 7359 7359 6690 7359 6690 6690 6133 8177 6690 6133 6133 6690 6133 5661 4906 4329 3873 3345 3199 2725 2628 2453 2537 2537 2537 2164 2164 1936 0 1711 1672 1599 1471 1471 1565 1471 1415 1565 1362 1338 1314 1268 1247 1226 1226 1247 1268 1187 1226 1168 208 0 0 163 162 1008 0 955 931 981 968 968 968 968 981 981 994 994 955 855 808 799 758 743 728 750 750 743 728 721 0 0 0 721 700 700 694 681 687 629 598 603 0 0 618 613 598 598 593 0 0 0 0 0 0 0 735 0 714 0 129 128 128 0 0 0 0 0 0 0 0 465 474 474 471 468 0 85 85 0 0 0 177 177 0 0 0 0 0 0 0 0 413 413 413 406 0 0 0 0 0 0 0 0 348 0 0 79 0 0 0 0 0
    0 0 0 0 0 0 0 0 0 0 0 0 0 0 0 0 0 0 0 0 0 0 0 0 0 0 0 0 0 0 0 0 0 0 0 0 0 0 0 0 0 0 0 0 0 0 0 0 0 0 0 0 0 0 0 0 0 0 0 0 0 0 0 0 0 0 0 0 0 1362 1443 1471 1501 1565 1599 1795 1795 1839 2102 2164 2164 2230 2164 2102 2164 2230 2044 1989 2102 2044 2102 1989 1989 2044 1989 2044 2044 1936 1989 1936 1989 1989 1989 2044 1989 1989 2102 1936 1989 2102 2164 2102 1936 1936 1936 1795 1795 1839 1839 1839 1887 1887 1936 1936 2044 2230 2299 2537 2830 2830 2830 2943 3199 5256 6133 7359 8177 8177 6690 7359 8177 8177 7359 6690 6690 7359 6690 8177 7359 8177 7359 6690 8177 8177 8177 6690 7359 7359 7359 7359 7359 7359 6690 6690 8177 6690 6133 6133 6690 6133 5661 4906 4599 3873 3199 3066 2725 2628 2453 2537 2537 2453 2230 2299 1936 0 1752 1711 1599 1471 1501 1599 1471 1443 1599 1388 1362 1338 1291 1268 1247 1226 1268 1268 1206 1226 1168 207 208 0 163 162 1008 0 955 919 968 955 955 955 968 968 968 981 981 931 836 799 799 766 750 743 758 766 750 735 728 728 728 721 721 700 694 694 681 681 629 598 603 0 0 618 613 598 598 593 0 0 0 0 0 0 743 735 0 0 0 0 0 0 0 0 0 0 0 0 0 0 468 477 474 471 0 0 85 0 0 0 0 176 176 0 0 0 0 0 0 0 0 413 413 413 406 0 0 0 0 0 0 0 0 350 0 79 79 0 0 0 0 0
    0 0 0 0 0 0 0 0 0 0 0 0 0 0 0 0 0 0 0 0 0 0 0 0 0 0 0 0 0 0 0 0 0 0 0 0 0 0 0 0 0 0 0 0 0 0 0 0 0 0 0 0 0 0 0 0 0 0 0 0 0 0 0 0 0 0 0 0 0 1388 1443 1471 1501 1599 1599 1795 1839 1887 2102 2164 2164 2230 2164 2102 2102 2164 2044 1989 2102 2044 2102 1989 1936 1989 1936 1989 1989 1887 1936 1887 1936 1936 1936 1989 1936 1936 1989 1839 1887 1936 1936 2044 1936 1936 1936 1795 1795 1887 1839 1887 1887 1936 1936 1936 2044 2230 2230 2453 2943 2943 2943 3066 3679 4906 6133 6690 8177 8177 6133 7359 0 8177 8177 7359 6690 6690 6690 8177 7359 7359 6690 6690 8177 8177 8177 6690 7359 7359 7359 7359 7359 7359 7359 6133 7359 6690 6133 6133 6133 6133 5256 4906 4599 3873 3066 2943 2628 2537 2374 2453 2453 2453 2164 2299 1989 1795 1752 1711 1599 1501 1533 1635 1533 1501 1599 1388 1388 1362 1291 1268 1247 1226 1268 1268 1226 1226 1168 207 207 0 163 0 994 0 955 919 968 943 955 955 968 968 968 981 955 908 836 799 799 774 750 750 766 766 758 743 735 0 728 728 721 700 694 694 681 681 634 0 608 0 0 618 613 598 598 593 0 0 0 0 0 0 0 728 0 0 0 0 0 0 0 545 0 0 598 537 0 0 468 477 474 471 0 85 85 85 0 0 0 176 176 0 0 0 0 0 0 0 0 415 413 413 406 0 0 0 0 0 0 0 0 0 0 79 0 0 0 0 0 0
    0 0 0 0 0 0 0 0 0 0 0 0 0 0 0 0 0 0 0 0 0 0 0 0 0 0 0 0 0 0 0 0 0 0 0 0 0 0 0 0 0 0 0 0 0 0 0 0 0 0 0 0 0 0 0 0 0 0 0 0 0 0 0 0 0 0 0 0 0 1388 1443 1471 1533 1599 1599 1839 1839 1887 2044 2102 2102 2164 2102 2044 2044 2044 1989 1989 2044 1989 2044 1989 1887 1936 1887 1936 1936 1887 1887 1887 1887 1936 1936 1989 1936 1936 2044 1887 1989 2164 1989 2102 1936 1989 1936 1839 1839 1887 1839 1887 1936 1936 1936 1989 2044 2230 2164 2453 3199 3199 3199 3199 3679 4599 6133 6690 0 0 9199 0 0 0 0 8177 8177 8177 8177 0 8177 0 7359 6690 8177 8177 0 7359 7359 7359 7359 7359 8177 7359 7359 6133 7359 7359 6133 6690 6133 6133 5661 4906 4906 3873 3066 3066 2628 2628 2374 2453 2453 2453 2164 0 0 0 1752 1752 1599 1501 1565 1635 1565 1533 1635 1471 1415 1388 1291 1247 1206 1187 1206 1247 1206 1206 1149 207 207 165 163 163 994 994 955 931 968 943 955 955 968 968 955 968 943 897 845 808 808 782 758 766 774 774 766 743 735 0 735 735 714 700 694 687 681 681 634 0 608 0 0 618 618 598 598 593 0 0 0 0 0 0 0 728 0 0 0 0 0 0 0 549 0 549 593 537 0 0 471 481 477 0 0 85 85 85 0 0 0 176 175 0 0 0 0 0 0 0 0 415 415 413 406 0 0 0 0 0 0 0 0 0 0 79 79 0 0 0 0 0
    0 0 0 0 0 0 0 0 0 0 0 0 0 0 0 0 0 0 0 0 0 0 0 0 0 0 0 0 0 0 0 0 0 0 0 0 0 0 0 0 0 0 0 0 0 0 0 0 0 0 0 0 0 0 0 0 0 0 0 0 0 0 0 0 0 0 0 0 0 1362 1415 1471 1533 1565 1599 1839 1839 1839 1989 2044 2044 2044 1989 1989 1989 1936 1936 1936 1989 1936 1989 1936 1795 1839 1839 1887 1887 1839 1887 1839 1887 1989 1989 2044 1989 1989 2230 2044 2102 2299 2164 2164 2044 2044 1989 1887 1887 1936 1887 1887 1936 1989 1989 2044 2102 2230 2230 2453 3199 3345 3199 3199 3679 4329 5256 5661 8177 8177 0 0 0 0 0 0 0 0 0 8177 8177 0 7359 6690 9199 7359 8177 7359 8177 7359 7359 8177 8177 7359 7359 6690 7359 7359 6133 6690 6133 6133 5661 4906 4906 4088 3199 3199 2628 2628 2374 2453 2453 2453 2164 0 0 1936 1752 1752 1599 1501 1565 1635 1565 1533 1635 1501 1443 1415 1338 1247 1226 1206 1206 1247 1187 1187 1132 0 0 165 163 0 994 981 955 931 968 943 955 955 968 968 955 955 931 897 855 826 817 799 774 782 782 782 774 750 743 735 0 743 714 700 694 694 681 681 639 0 613 613 0 623 618 598 598 593 0 0 0 0 0 0 0 0 0 0 0 0 0 0 0 549 0 549 584 537 0 504 471 481 477 0 0 0 85 85 85 0 0 176 175 0 0 0 5661 0 6133 0 422 418 418 415 406 0 0 0 0 0 0 0 0 0 0 79 79 0 0 0 0 0
    0 0 0 0 0 0 0 0 0 0 0 0 0 0 0 0 0 0 0 0 0 0 0 0 0 0 0 0 0 0 0 0 0 0 0 0 0 0 0 0 0 0 0 0 0 0 0 0 0 0 0 0 0 0 0 0 0 0 0 0 0 0 0 0 0 0 0 0 0 1362 1415 1471 1533 1533 1565 1795 1839 1839 1936 1989 1989 1989 1936 1989 1936 1936 1936 1936 1936 1839 1887 1887 1795 1839 1887 1936 1887 1887 1887 1887 1936 1989 2044 2044 1989 2102 2374 2164 2164 2374 2230 2299 2044 2102 2044 1936 1936 1936 1887 1936 1936 1989 1989 2044 2102 2230 2299 2537 3199 3345 3345 3345 3679 4088 4906 4906 8177 8177 0 0 0 0 0 0 0 0 0 0 0 0 8177 7359 0 7359 0 8177 8177 7359 6690 8177 8177 8177 8177 7359 7359 7359 6690 7359 6690 6690 5661 5256 5256 4599 3504 3345 2725 2628 2374 2537 2453 2374 2102 2230 0 1936 1752 1752 1599 1471 1565 1635 1565 1533 1635 1533 1471 1443 1388 1268 1247 1226 1187 1247 1187 1187 1132 0 1051 164 162 0 994 981 955 931 968 943 955 968 981 968 955 955 931 897 855 836 826 808 791 799 799 799 791 766 758 743 0 743 714 707 694 694 681 681 645 0 623 623 0 623 618 598 598 593 0 0 0 0 0 0 0 0 0 0 0 0 0 0 584 549 0 545 579 537 0 507 471 481 477 0 0 0 85 85 85 0 0 175 174 0 0 0 6133 6133 6133 0 0 420 420 418 408 0 0 0 0 0 0 0 0 0 0 79 79 0 0 0 0 0
    0 0 0 0 0 0 0 0 0 0 0 0 0 0 0 0 0 0 0 0 0 0 0 0 0 0 0 0 0 0 0 0 0 0 0 0 0 0 0 0 0 0 0 0 0 0 0 0 0 0 0 0 0 0 0 0 0 0 0 0 0 0 0 0 0 0 0 0 0 1388 1415 1471 1533 1533 1565 1795 1795 1752 1887 1936 1936 1936 1887 1936 1936 1887 1989 1936 1936 1839 1887 1936 1839 1887 1887 1936 1936 1936 1989 1989 1989 2044 2102 2102 2164 2164 2537 2299 2230 2453 2374 2374 2102 2164 2102 1936 1989 1989 1887 1936 1936 1989 1989 2102 2102 2230 2374 2537 3066 3199 3199 3504 3873 4088 4906 4906 7359 7359 8177 0 0 0 0 0 0 0 0 8177 0 0 7359 6690 8177 7359 8177 8177 8177 7359 7359 7359 8177 7359 8177 7359 7359 7359 6690 8177 7359 7359 6133 5256 5661 4599 3679 3345 2725 2628 2299 2453 2374 2374 2102 2230 2044 1989 1795 1752 1635 1501 1565 1635 1565 1565 1599 1565 1471 1471 1443 1268 1247 1247 1187 1226 1187 1168 1132 0 1051 0 0 0 994 994 0 943 981 955 968 981 981 968 955 955 931 897 865 845 836 826 808 808 808 808 799 774 766 750 0 750 721 707 694 694 681 681 651 0 629 629 618 0 618 598 598 593 0 588 0 0 0 0 0 0 0 0 0 0 0 0 0 0 0 0 0 533 0 504 471 481 477 0 0 0 85 85 85 0 0 175 174 174 0 0 6133 6133 6133 0 0 422 422 0 0 0 0 0 0 0 0 97 0 0 0 79 79 0 0 0 0 0
    0 0 0 0 0 0 0 0 0 0 0 0 0 0 0 0 0 0 0 0 0 0 0 0 0 0 0 0 0 0 0 0 0 0 0 0 0 0 0 0 0 0 0 0 0 0 0 0 0 0 0 0 0 0 0 0 0 0 0 0 0 0 0 0 0 0 0 0 0 1388 1415 1501 1565 1533 1565 1752 1752 1752 1839 1887 1887 1887 1839 1887 1936 1887 1989 1936 1936 1839 1887 1936 1839 1887 1936 1936 1989 2044 2102 2102 2102 2230 2299 2299 2374 2453 2628 2453 2299 2537 2453 2374 2164 2164 2102 1989 1989 1989 1936 1989 1936 2044 2044 2164 2230 2299 2453 2537 2943 3199 3199 3679 4088 4329 4906 5256 7359 8177 8177 0 0 0 0 0 0 8177 8177 8177 8177 8177 6690 6690 7359 6133 8177 8177 8177 7359 7359 7359 8177 7359 8177 7359 6690 7359 6690 8177 8177 7359 6133 5661 6133 5256 3873 3504 2725 2628 2374 2453 2374 2299 2102 2230 2044 2044 1795 1795 1672 1533 1599 1635 1599 1565 1599 1565 1443 1471 1471 1268 1247 1247 1149 1206 1187 1132 1115 0 1051 0 0 0 994 981 500 943 981 955 968 981 981 981 955 968 943 908 886 855 845 836 817 817 808 808 808 782 774 750 0 750 714 700 687 694 681 675 657 0 634 634 623 0 618 598 598 593 0 588 579 0 0 0 0 0 0 0 0 0 0 0 0 0 0 0 0 529 0 0 471 481 0 0 0 0 85 85 85 0 0 175 174 174 0 0 6690 6690 6690 0 0 422 422 0 0 0 0 0 0 0 0 97 0 0 0 79 79 0 0 0 0 0
    0 0 0 0 0 0 0 0 0 0 0 0 0 0 0 0 0 0 0 0 0 0 0 0 0 0 0 0 0 0 0 0 0 0 0 0 0 0 0 0 0 0 0 0 0 0 0 0 0 0 0 0 0 0 0 0 0 0 0 0 0 0 0 0 0 0 0 0 0 1388 1415 1501 1565 1533 1565 1752 1752 1752 1839 1887 1887 1887 1839 1936 1936 1887 1989 1936 1936 1887 1887 1936 1839 1887 1936 1936 2044 2102 2230 2299 2230 2299 2453 2453 2537 2628 2725 2537 2299 2628 2537 2453 2230 2230 2102 2044 2044 2044 1989 2044 2044 2102 2102 2374 2299 2453 2537 2537 2943 3066 3199 3504 4329 4599 5256 5256 7359 8177 7359 0 0 0 0 0 0 0 8177 8177 8177 7359 7359 6133 7359 6133 8177 8177 8177 7359 7359 7359 8177 7359 8177 6690 6690 7359 6133 8177 7359 7359 6133 5661 6133 5661 4329 3679 2725 2628 2299 2453 2374 2299 2102 2164 2044 2044 1839 1839 1672 1565 1599 1635 1599 1565 1599 1565 1443 1471 1471 1268 1268 1268 1132 1206 1187 1115 1098 1066 1051 1036 0 0 994 0 500 0 981 943 968 981 981 981 955 968 955 919 908 865 855 836 817 817 808 808 808 782 774 758 0 758 714 700 687 694 681 675 663 623 639 639 629 623 618 603 598 593 0 584 574 0 0 0 0 0 0 0 0 0 0 0 0 0 0 0 0 521 0 0 471 481 0 0 0 0 85 85 85 0 176 175 174 174 0 0 7359 7359 7359 0 0 0 0 0 0 0 0 0 0 0 0 0 0 0 0 79 79 0 0 0 0 0
    0 0 0 0 0 0 0 0 0 0 0 0 0 0 0 0 0 0 0 0 0 0 0 0 0 0 0 0 0 0 0 0 0 0 0 0 0 0 0 0 0 0 0 0 0 0 0 0 0 0 0 0 0 0 0 0 0 0 0 0 0 0 0 0 0 0 0 0 0 1388 1415 1501 1565 1533 1565 1795 1795 1795 1887 1936 1936 1887 1887 1936 1936 1936 2044 1936 1936 1936 1887 1989 1887 1887 1989 1989 2044 2230 2374 2374 2299 2374 2537 2453 2537 2725 2830 2628 2374 2628 2628 2453 2299 2374 2164 2102 2102 2102 2044 2102 2102 2164 2164 2453 2374 2453 2628 2537 2830 3066 3066 3504 4329 4599 5256 4906 6690 7359 6690 8177 0 0 0 0 0 8177 8177 8177 7359 7359 7359 6690 7359 6690 8177 8177 8177 7359 7359 7359 7359 7359 7359 6690 6133 6690 6133 8177 7359 6690 5661 5661 6133 5661 4599 3679 2725 2628 2230 2453 2299 2230 2164 2164 2102 2044 1839 1887 1711 1565 1599 1635 1599 1565 1599 1565 1443 1471 1501 1291 1268 1268 1132 1206 1187 1115 1098 1066 1051 1036 0 0 0 0 497 500 981 943 968 981 981 981 955 968 955 919 0 876 855 845 817 817 808 817 808 782 774 758 743 750 714 700 694 694 681 675 669 629 645 645 634 0 618 603 598 588 0 584 570 0 0 0 0 0 0 0 0 0 0 0 0 0 0 0 0 514 0 0 471 0 0 0 0 0 85 85 0 0 176 175 174 174 175 0 8177 8177 8177 0 0 0 0 0 0 0 0 0 0 0 0 0 0 0 0 79 79 0 0 0 0 0
    0 0 0 0 0 0 0 0 0 0 0 0 0 0 0 0 0 0 0 0 0 0 0 0 0 0 0 0 0 0 0 0 0 0 0 0 0 0 0 0 0 0 0 0 0 0 0 0 0 0 0 0 0 0 0 0 0 0 0 0 0 0 0 0 0 0 0 0 0 1362 1388 1471 1533 1565 1565 1795 1795 1795 1887 1936 1936 1887 1887 1936 1989 1936 2102 1936 1989 1936 1936 2044 1936 1887 1989 1989 2102 2230 2374 2453 2299 2374 2628 2537 2628 2830 2943 2830 2537 2725 2725 2537 2453 2537 2299 2299 2299 2299 2230 2230 2299 2299 2299 2537 2453 2453 2628 2628 2830 2943 3066 3345 4088 4329 4906 4906 6690 7359 6690 8177 0 0 0 0 0 8177 8177 7359 7359 7359 8177 7359 7359 6690 7359 8177 8177 7359 7359 6690 7359 6690 7359 6690 6133 6690 6690 0 8177 7359 6133 6133 6133 6133 5256 3679 2628 2628 2230 2374 2230 2230 2164 2164 2102 2102 1887 1936 1752 1599 1599 1635 1599 1565 1599 1565 1471 1471 1565 1291 1291 1291 1132 1206 1187 1098 1098 1066 1051 1036 0 0 0 0 497 500 981 943 968 981 981 981 955 968 955 931 0 886 865 845 826 817 808 808 817 782 774 758 743 750 721 700 694 694 675 675 669 629 651 651 634 0 618 0 598 588 0 584 566 0 0 0 91 0 91 91 0 0 0 0 0 0 0 0 0 0 0 0 471 0 0 0 0 0 85 85 0 0 176 175 174 174 175 0 8177 0 8177 0 0 0 0 0 0 0 0 0 0 0 0 0 0 0 0 0 79 0 0 0 0 0
    0 0 0 0 0 0 0 0 0 0 0 0 0 0 0 0 0 0 0 0 0 0 0 0 0 0 0 0 0 0 0 0 0 0 0 0 0 0 0 0 0 0 0 0 0 0 0 0 0 0 0 0 0 0 0 0 0 0 0 0 0 0 0 0 0 0 0 0 0 1362 1388 1471 1501 1565 1565 1752 1752 1752 1839 1887 1887 1887 1839 1936 1989 1989 2164 1936 1989 1989 1936 2102 1936 1887 1989 1989 2102 2164 2374 2453 2299 2453 2628 2537 2628 2725 2943 2830 2628 2830 2725 2628 2628 2628 2453 2453 2374 2374 2299 2299 2374 2374 2374 2537 2453 2537 2725 2628 2830 2943 2943 3199 3873 4088 4329 4329 6133 7359 6690 8177 0 0 0 0 0 0 8177 7359 7359 7359 8177 7359 7359 6690 7359 7359 8177 8177 7359 6690 7359 6690 7359 7359 6690 6690 7359 0 0 8177 6690 6133 6690 6690 6133 3679 2628 2628 2164 2374 2230 2230 2164 2164 2102 2102 1936 1989 1795 1635 1599 1599 1599 1565 1599 1565 1471 1471 1599 1314 1314 1314 1149 1206 1187 1098 1098 0 0 0 0 0 0 500 497 500 981 943 968 981 981 981 955 968 955 0 0 886 865 855 826 826 808 817 817 791 774 758 743 750 721 700 687 687 675 669 669 629 651 651 634 0 618 0 598 588 0 579 566 566 0 0 91 0 91 91 0 0 0 257 0 0 0 0 0 0 0 0 471 490 0 0 0 0 85 85 0 177 176 174 174 174 175 0 8177 0 0 0 0 0 0 0 0 0 0 0 0 0 0 0 0 0 0 0 0 0 0 0 0 0
    0 0 0 0 0 0 0 0 0 0 0 0 0 0 0 0 0 0 0 0 0 0 0 0 0 0 0 0 0 0 0 0 0 0 0 0 0 0 0 0 0 0 0 0 0 0 0 0 0 0 0 0 0 0 0 0 0 0 0 0 0 0 0 0 0 0 0 0 0 1362 1388 1443 1471 1565 1565 1752 1711 1711 1839 1887 1887 1936 1887 1936 1989 2044 2230 1936 2044 1989 1989 2164 1989 1936 2044 2044 2164 2230 2453 2453 2374 2453 2628 2537 2628 2725 2943 2830 2725 2830 2830 2725 2628 2725 2537 2537 2374 2374 2374 2299 2374 2453 2374 2537 2453 2628 2725 2725 2725 2943 2943 3199 3873 4088 4329 4088 5256 6690 6690 7359 8177 8177 0 0 0 0 8177 7359 8177 7359 8177 8177 7359 6690 8177 8177 0 8177 7359 7359 7359 6690 7359 6690 6690 6690 6690 8177 8177 7359 6690 6133 6690 6133 6690 3504 2453 2537 2102 2374 2164 2230 2230 2230 2164 2102 1936 2044 1839 1635 1635 1565 1565 1565 1599 1533 1443 1443 1599 1338 1338 1314 1149 1206 1187 1115 1098 0 0 0 0 0 0 500 497 497 0 943 0 0 981 994 955 968 0 0 0 0 865 855 0 0 817 817 826 799 782 758 743 743 721 700 681 687 669 669 675 629 651 651 639 0 618 0 598 588 0 579 566 566 0 0 91 0 91 91 0 0 0 257 257 0 0 0 0 504 0 0 474 493 0 0 0 0 85 85 177 176 176 174 174 174 0 0 8177 0 0 0 0 0 0 0 0 0 0 0 0 0 0 0 0 0 0 0 0 0 0 0 0 0
    0 0 0 0 0 0 0 0 0 0 0 0 0 0 0 0 0 0 0 0 0 0 0 0 0 0 0 0 0 0 0 0 0 0 0 0 0 0 0 0 0 0 0 0 0 0 0 0 0 0 0 0 0 0 0 0 0 0 0 0 0 0 0 0 0 0 0 0 0 1362 1388 1443 1471 1565 1565 1752 1711 1711 1887 1936 1936 1989 1887 1989 1989 2164 2374 1936 2044 2044 2044 2230 2102 1989 2102 2102 2230 2299 2453 2453 2374 2453 2628 2537 2628 2725 2943 2943 2830 2943 2943 2725 2725 2830 2628 2537 2374 2374 2374 2299 2374 2453 2374 2537 2453 2628 2725 2725 2725 2943 2943 3345 4088 4329 4599 4329 4906 7359 6690 7359 0 8177 0 0 0 0 8177 7359 8177 7359 8177 8177 7359 7359 8177 8177 8177 8177 8177 7359 7359 7359 7359 6690 6690 6690 7359 8177 8177 7359 6690 6690 6690 6690 7359 3504 2453 2537 2102 2299 2102 2230 2230 2230 2164 2102 1989 2102 1839 1672 1635 1599 1599 1565 1599 1501 1443 1443 1635 1338 1338 1314 1149 1206 1187 1115 1115 0 0 0 0 0 0 497 497 497 981 931 0 0 981 994 955 968 0 0 0 0 865 0 0 0 817 817 826 799 782 758 743 743 714 694 681 681 669 669 675 629 657 657 639 0 0 0 598 588 0 579 566 561 579 0 91 0 91 91 0 0 0 0 257 253 0 0 0 0 0 0 474 497 0 0 0 0 85 85 177 176 176 174 174 174 0 0 8177 0 0 0 0 0 0 0 0 0 0 0 0 0 0 0 0 0 0 0 0 0 0 0 0 0
    0 0 0 0 0 0 0 0 0 0 0 0 0 0 0 0 0 0 0 0 0 0 0 0 0 0 0 0 0 0 0 0 0 0 0 0 0 0 0 0 0 0 0 0 0 0 0 0 0 0 0 0 0 0 0 0 0 0 0 0 0 0 0 0 0 0 0 0 0 1362 1415 1443 1471 1565 1565 1752 1711 1752 1887 1936 1936 1989 1936 1989 2044 2230 2453 1936 2102 2102 2102 2230 2102 2044 2102 2102 2299 2230 2453 2453 2374 2453 2537 2537 2628 2725 2943 2943 2943 2943 2943 2830 2943 2943 2725 2725 2537 2537 2628 2537 2628 2628 2453 2628 2537 2725 2830 2830 2830 3066 3066 3504 4088 4329 4906 4906 4599 6690 6133 6690 7359 7359 8177 8177 0 8177 8177 8177 8177 7359 8177 8177 8177 7359 8177 8177 8177 8177 8177 7359 7359 7359 7359 6690 7359 6690 7359 7359 7359 6690 6690 6690 6690 6690 0 3504 2453 2537 2102 2299 2102 2230 2230 2230 2164 2164 2044 2164 1887 1752 1672 1599 1599 1565 1599 1501 1443 1443 1599 1338 1338 1314 1149 1206 1187 1132 1115 0 0 0 0 0 0 497 497 493 0 931 0 0 968 981 955 955 0 0 0 0 0 0 0 0 808 817 826 799 791 0 750 743 714 694 675 681 669 669 675 629 657 657 639 0 0 0 598 588 0 579 566 561 579 0 91 0 91 91 0 0 0 0 257 0 0 0 0 507 0 0 481 500 0 0 0 0 0 85 177 176 176 175 174 174 0 0 8177 0 0 0 0 0 0 0 0 0 0 0 0 0 0 0 0 0 0 0 0 0 0 0 0 0
    0 0 0 0 0 0 0 0 0 0 0 0 0 0 0 0 0 0 0 0 0 0 0 0 0 0 0 0 0 0 0 0 0 0 0 0 0 0 0 0 0 0 0 0 0 0 0 0 0 0 0 0 0 0 0 0 0 0 0 0 0 0 0 0 0 0 0 0 0 1362 1388 1443 1471 1533 1565 1752 1711 1752 1887 1936 1989 1989 1989 2044 2044 2299 2537 1989 2164 2164 2164 2299 2102 2044 2102 2164 2299 2230 2453 2374 2374 2453 2453 2453 2537 2628 2830 2943 2943 3066 3066 2943 3066 3066 2943 2943 2725 2830 2830 2725 2830 2725 2628 2830 2725 2943 2943 2943 3199 3504 3504 3873 4599 4906 5256 5256 4906 6690 6133 6133 7359 7359 8177 8177 8177 8177 7359 8177 8177 8177 0 8177 8177 7359 8177 8177 8177 8177 7359 7359 7359 7359 7359 6690 7359 6690 7359 7359 6690 6690 6690 6133 6690 6690 0 3199 2537 2628 2102 2374 2102 2299 2299 2299 2230 2102 2044 2164 1887 1752 1672 1599 1599 1565 1635 1471 1443 1443 1599 1338 1338 1314 1168 1206 1187 1132 1115 0 0 0 0 0 0 497 497 0 0 0 0 0 968 981 955 955 0 239 0 0 0 0 0 0 808 817 826 799 791 766 750 743 707 694 675 675 663 669 669 629 657 657 639 0 0 0 598 588 0 579 566 566 579 0 91 0 91 0 0 0 0 0 257 0 0 0 0 514 0 0 487 504 0 0 0 0 0 0 177 176 176 175 175 174 0 0 7359 0 0 0 0 0 0 0 0 0 0 0 0 0 0 0 0 0 0 0 0 0 0 0 0 0
    0 0 0 0 0 0 0 0 0 0 0 0 0 0 0 0 0 0 0 0 0 0 0 0 0 0 0 0 0 0 0 0 0 0 0 0 0 0 0 0 0 0 0 0 0 0 0 0 0 0 0 0 0 0 0 0 0 0 0 0 0 0 0 0 0 0 0 0 0 1338 1388 1415 1471 1533 1565 1795 1752 1795 1936 1989 1989 2044 1989 2102 2102 2299 2453 1989 2230 2164 2230 2299 2164 2044 2102 2164 2374 2230 2374 2374 2374 2453 2453 2453 2537 2628 2830 2830 2943 2943 2943 2943 3199 3199 3066 2943 2943 3066 3199 2943 3066 2830 2830 2943 2943 3504 3345 3504 4329 4599 4906 4329 4906 5256 5256 5256 4906 6690 5661 6133 7359 7359 8177 8177 8177 8177 7359 8177 8177 8177 0 8177 8177 7359 8177 8177 8177 8177 7359 7359 7359 7359 7359 6690 7359 6690 7359 7359 7359 6690 6690 6133 6690 6690 0 3066 2537 2628 2164 2374 2102 2299 2299 2299 2164 2164 2044 2164 1887 1752 1672 1599 1599 1565 1599 1471 1443 1443 1599 1362 1362 1314 1168 1226 1187 1132 1132 0 0 0 0 0 0 500 497 0 0 0 943 0 0 981 955 943 0 239 0 0 0 0 0 0 808 817 826 808 799 774 0 735 700 694 675 675 657 663 669 629 651 651 639 0 0 0 598 588 113 579 566 566 579 0 92 0 91 0 0 0 0 0 0 0 0 0 0 518 490 0 497 511 529 0 0 0 0 0 176 176 176 175 175 174 0 0 7359 0 0 758 0 0 0 0 0 0 0 0 0 0 0 0 0 0 0 0 0 0 0 0 0 0
    0 0 0 0 0 0 0 0 0 0 0 0 0 0 0 0 0 0 0 0 0 0 0 0 0 0 0 0 0 0 0 0 0 0 0 0 0 0 0 0 0 0 0 0 0 0 0 0 0 0 0 0 0 0 0 0 0 0 0 0 0 0 0 0 0 0 0 0 0 1338 1388 1415 1443 1533 1565 1752 1711 1795 1936 1989 1989 2044 1989 2102 2102 2299 2374 1989 2164 2164 2230 2299 2164 2102 2102 2164 2374 2230 2374 2230 2299 2374 2374 2374 2537 2628 2725 2830 2943 2943 2830 2943 3199 3199 3345 3199 3066 3504 3679 3504 4329 2943 0 0 0 6133 6133 6690 0 6690 6690 5661 5661 5661 6133 5661 5256 6690 5661 6133 6690 6690 7359 7359 7359 7359 6690 8177 8177 8177 8177 8177 8177 7359 8177 7359 8177 8177 7359 7359 7359 7359 8177 7359 7359 6690 7359 7359 7359 6690 6690 6133 6690 6690 8177 3199 2628 2725 2164 2374 2102 2299 2299 2299 2164 2164 2044 2164 1887 1752 1672 1635 1635 1599 1599 1471 1443 1443 1635 1362 1362 1338 1168 1226 1187 1132 1132 1082 1082 1082 0 0 0 0 497 0 0 931 943 0 0 981 943 943 0 240 0 0 0 0 0 0 817 826 836 817 808 791 0 735 700 687 675 675 657 663 669 629 651 651 634 0 618 0 598 593 113 579 566 566 579 0 92 0 92 0 0 0 127 0 0 0 0 0 0 521 500 0 507 518 529 0 0 0 0 0 176 176 176 175 175 174 0 808 0 0 0 758 0 0 0 0 0 0 0 152 0 0 0 0 0 0 0 0 0 0 0 0 0 0
    0 0 0 0 0 0 0 0 0 0 0 0 0 0 0 0 0 0 0 0 0 0 0 0 0 0 0 0 0 0 0 0 0 0 0 0 0 0 0 0 0 0 0 0 0 0 0 0 0 0 0 0 0 0 0 0 0 0 0 0 0 0 0 0 0 0 0 0 0 1338 1388 1415 1443 1501 1533 1752 1711 1752 1887 1936 1936 1989 1936 2044 2044 2230 2299 1936 2164 2164 2164 2230 2102 2102 2102 2164 2374 2230 2299 2230 2374 2453 2374 2453 2453 2628 2725 2830 2943 2830 2830 2943 3199 3345 3679 3504 3504 4329 4906 4329 7359 0 0 0 0 0 0 0 0 0 8177 7359 6133 6690 6690 6690 5661 6690 5661 6133 6690 6690 7359 7359 7359 7359 7359 8177 8177 8177 8177 8177 8177 7359 8177 7359 8177 8177 7359 7359 7359 7359 8177 6690 7359 6690 6690 7359 6690 6690 6133 6133 6133 6133 7359 3345 2725 2725 2230 2453 2164 2299 2299 2299 2230 2164 2102 2230 1936 1795 1711 1635 1635 1599 1599 1471 1443 1443 1635 1362 1362 1338 1168 1226 1187 1132 1132 1082 1098 1082 0 0 0 0 500 497 0 931 955 0 0 981 0 943 0 0 241 0 0 0 0 0 817 826 845 817 808 0 0 735 700 687 675 675 657 669 669 629 651 651 639 0 618 0 598 593 113 579 566 566 584 0 0 0 92 0 92 127 127 0 0 0 0 0 514 525 507 0 514 521 533 525 0 0 0 0 176 176 176 175 175 174 0 799 0 471 0 766 0 758 0 0 0 0 0 152 0 0 0 0 0 0 0 0 0 0 0 0 0 0
    0 0 0 0 0 0 0 0 0 0 0 0 0 0 0 0 0 0 0 0 0 0 0 0 0 0 0 0 0 0 0 0 0 0 0 0 0 0 0 0 0 0 0 0 0 0 0 0 0 0 0 0 0 0 0 0 0 0 0 0 0 0 0 0 0 0 0 0 0 1338 1362 1388 1415 1471 1501 1752 1672 1752 1887 1936 1936 1989 1936 2044 2102 2230 2299 1989 2164 2164 2164 2230 2102 2102 2102 2164 2374 2299 2299 2230 2374 2453 2299 2453 2537 2628 2725 2830 2943 2830 2830 3066 3345 3345 4088 3873 4088 6133 6690 6133 0 0 0 0 0 0 0 0 0 0 0 8177 6690 7359 7359 7359 6133 6690 5661 6133 6133 6690 6690 6690 6690 7359 6690 8177 8177 8177 8177 8177 8177 7359 8177 7359 8177 7359 6690 7359 6690 6690 7359 6690 7359 6690 6690 7359 6690 6133 6133 6133 6690 6133 7359 3504 2830 2830 2299 2453 2164 2299 2299 2299 2164 2164 2102 2230 1936 1795 1711 1635 1635 1599 1599 1471 1443 1443 1599 1338 1338 1314 1149 1206 1187 1132 1149 1098 1115 1098 0 0 0 0 504 497 0 943 955 0 0 0 0 943 0 240 242 0 0 0 0 0 817 826 845 826 817 0 0 743 700 687 669 675 657 669 675 629 657 657 639 0 618 0 598 593 0 584 570 570 584 0 0 0 92 0 0 127 127 0 0 0 0 0 514 525 511 0 521 529 533 529 0 0 0 0 176 176 176 175 175 174 0 799 0 471 0 766 0 758 0 0 0 0 153 152 0 0 0 0 0 0 0 0 0 0 0 0 0 0
    0 0 0 0 0 0 0 0 0 0 0 0 0 0 0 0 0 0 0 0 0 0 0 0 0 0 0 0 0 0 0 0 0 0 0 0 0 0 0 0 0 0 0 0 0 0 0 0 0 0 0 0 0 0 0 0 0 0 0 0 0 0 0 0 0 0 0 0 0 1338 1362 1388 1415 1415 1501 1752 1711 1795 1887 1936 1989 2044 1989 2102 2102 2230 2299 1989 2164 2164 2164 2230 2102 2164 2102 2164 2299 2299 2299 2230 2374 2453 2299 2453 2537 2628 2628 2725 2943 2830 2830 2943 3199 3345 4088 3873 4906 6690 7359 7359 0 0 0 0 0 0 0 0 0 0 0 0 8177 0 8177 0 6690 7359 5661 6133 6133 6690 6690 6133 6690 6690 6690 8177 8177 8177 8177 8177 0 7359 8177 7359 7359 7359 6690 7359 6690 6690 7359 6690 8177 6690 6690 7359 7359 6690 6133 6133 6690 6690 7359 3873 0 0 2374 2453 2164 2230 2299 2299 2164 2164 2044 2230 1936 1795 1711 1672 1672 1635 1599 1443 1443 1443 1599 1314 1314 1314 1149 1206 1187 1132 1149 1098 1115 1115 1082 0 0 0 0 0 0 943 0 0 0 0 0 0 0 240 242 0 0 0 0 0 817 836 845 826 0 0 73 743 700 681 669 675 663 669 675 629 657 657 639 0 618 0 598 593 113 584 570 570 588 0 92 0 0 0 92 127 127 0 0 0 0 0 514 525 507 0 525 533 533 529 0 175 176 0 176 176 176 175 175 174 0 0 0 0 0 766 0 758 0 0 0 0 153 152 0 0 0 0 0 0 0 0 0 0 0 0 0 0
    0 0 0 0 0 0 0 0 0 0 0 0 0 0 0 0 0 0 0 0 0 0 0 0 0 0 0 0 0 0 0 0 0 0 0 0 0 0 0 0 0 0 0 0 0 0 0 0 0 0 0 0 0 0 0 0 0 0 0 0 0 0 0 0 0 0 0 0 0 1338 1362 1362 1415 1388 1471 1752 1752 1795 1936 1989 1989 2044 2044 2164 2164 2230 2299 1989 2164 2164 2164 2164 2102 2164 2102 2164 2299 2299 2299 2164 2374 2453 2230 2453 2453 2628 2628 2725 2830 2830 2725 2943 3199 3199 3679 3873 4906 6690 8177 8177 0 0 0 0 0 0 0 0 0 0 0 0 8177 0 0 0 7359 7359 5661 6133 6133 6690 6690 6133 6690 7359 6690 8177 7359 8177 8177 8177 0 7359 8177 7359 7359 7359 6690 7359 6690 7359 7359 6690 8177 6690 6690 8177 7359 6690 6690 6690 6690 6690 7359 0 0 0 0 2537 2164 2230 2230 2230 2102 2164 2044 2164 1887 0 1711 1672 1672 1635 1599 1443 1443 1443 1599 1314 1314 1314 1149 1206 1187 1115 1149 1115 1132 1115 1098 1115 0 0 0 0 0 955 0 0 0 327 0 0 0 0 242 0 0 0 0 0 817 826 845 0 0 0 73 750 700 687 675 675 663 675 681 634 657 657 639 0 618 0 598 598 113 584 570 570 588 0 0 0 0 0 92 127 127 0 0 0 0 0 0 525 507 0 525 533 533 529 0 175 176 0 176 176 176 175 175 174 176 0 0 0 0 774 0 758 0 0 0 0 154 152 152 153 154 0 0 0 0 0 0 0 0 0 0 0
    0 0 0 0 0 0 0 0 0 0 0 0 0 0 0 0 0 0 0 0 0 0 0 0 0 0 0 0 0 0 0 0 0 0 0 0 0 0 0 0 0 0 0 0 0 0 0 0 0 0 0 0 0 0 0 0 0 0 0 0 0 0 0 0 0 0 0 0 0 1338 1338 1362 1415 1388 1471 1795 1795 1839 1936 1989 2044 2044 2044 2230 2164 2230 2299 2044 2102 2164 2164 2164 2102 2164 2102 2164 2299 2299 2230 2164 2374 2453 2230 2374 2453 2537 2537 2725 2830 2725 2725 2943 3199 3199 3679 3873 4599 6133 7359 7359 0 0 0 0 0 0 0 0 0 0 0 0 8177 0 8177 0 7359 6690 5661 6133 6133 6133 6690 6133 6690 6690 6690 8177 7359 8177 8177 8177 0 7359 8177 7359 7359 7359 6690 7359 6690 7359 7359 6690 8177 6690 6690 8177 7359 6690 6690 6690 6690 6690 7359 0 0 0 0 0 2164 2164 2164 2164 2102 2164 1989 2102 1887 0 1711 1672 1672 1635 1599 1443 1443 1443 1599 1291 1291 1291 1149 1206 1187 1115 1149 1115 1132 1132 1098 1132 0 0 0 0 0 955 0 0 0 327 0 0 0 0 242 0 0 0 0 0 817 826 845 0 0 0 0 758 700 687 681 681 657 675 681 634 657 657 639 0 618 0 0 0 0 584 570 570 588 0 0 0 0 0 92 128 127 0 0 0 0 0 0 525 507 0 521 533 533 529 521 176 176 0 176 176 176 175 175 174 175 0 0 0 8177 0 0 766 0 0 0 750 154 152 152 153 154 0 0 0 0 0 0 0 0 0 0 0
    0 0 0 0 0 0 0 0 0 0 0 0 0 0 0 0 0 0 0 0 0 0 0 0 0 0 0 0 0 0 0 0 0 0 0 0 0 0 0 0 0 0 0 0 0 0 0 0 0 0 0 0 0 0 0 0 0 0 0 0 0 0 0 0 0 0 0 0 0 1338 1338 1362 1388 1362 1471 1795 1839 1936 1989 2044 2044 2044 2044 2230 2164 2230 2230 1989 2102 2164 2164 2102 2102 2164 2102 2164 2299 2299 2230 2164 2453 2453 2230 2374 2453 2537 2537 2725 2830 2725 2725 2943 3066 3199 3345 3679 3873 4906 6133 6133 8177 0 0 0 0 0 0 0 0 0 0 0 8177 8177 8177 8177 8177 7359 6133 6690 6690 6690 6690 6690 6690 7359 6690 8177 7359 8177 8177 8177 0 7359 0 7359 8177 8177 7359 7359 7359 7359 7359 6690 8177 7359 6690 8177 7359 6690 6690 6690 7359 6690 6690 0 0 85 85 0 2164 2164 2164 2164 2044 2164 1989 2102 1839 1711 1711 1672 1672 1635 1599 1443 1443 1415 1565 1291 1291 1291 1132 1206 1206 1115 1149 1115 1132 1132 1098 1132 0 0 0 0 0 968 0 0 0 327 0 321 0 0 242 0 0 0 0 0 0 0 0 74 74 74 74 774 707 694 687 681 657 675 681 634 657 657 639 0 618 0 0 0 0 584 570 570 588 0 0 0 0 0 92 128 127 0 0 0 0 0 0 521 0 0 518 529 529 529 521 175 0 0 0 176 176 174 175 174 175 174 0 0 0 0 0 0 420 0 0 0 0 152 0 153 0 0 0 0 0 0 0 0 0 0 0 0
    0 0 0 0 0 0 0 0 0 0 0 0 0 0 0 0 0 0 0 0 0 0 0 0 0 0 0 0 0 0 0 0 0 0 0 0 0 0 0 0 0 0 0 0 0 0 0 0 0 0 0 0 0 0 0 0 0 0 0 0 0 0 0 0 0 0 0 0 0 1338 1338 1362 1415 1388 1533 1839 1887 1989 2044 2044 2044 2102 2044 2164 2164 2164 2164 1989 2102 2164 2164 2102 2102 2164 2164 2164 2374 2299 2230 2164 2453 2374 2230 2374 2453 2537 2537 2725 2830 2725 2725 2830 2943 3066 3199 3345 3504 4088 5256 5256 6690 0 0 0 0 0 0 0 0 0 8177 8177 8177 8177 8177 8177 8177 7359 6690 6690 6690 6690 6690 6690 6690 7359 7359 8177 8177 8177 8177 8177 0 8177 0 7359 8177 8177 7359 8177 7359 8177 8177 7359 8177 7359 6690 8177 7359 6690 6690 7359 7359 6690 6690 4329 0 85 85 0 2164 2102 2102 2102 2044 2164 1989 2102 1839 1711 1711 1672 1672 1635 1599 1443 1443 1443 1565 1291 1291 1291 1149 1206 1206 1115 1149 1115 1149 1132 1115 0 0 0 0 0 0 968 0 0 0 328 0 322 0 0 242 0 0 0 0 0 0 0 0 74 74 74 73 782 714 694 687 687 663 675 681 634 657 657 639 0 618 0 0 0 0 584 570 570 588 0 0 0 0 0 92 128 127 0 0 0 0 0 0 521 0 0 511 525 529 525 521 175 0 0 0 175 176 174 174 174 0 174 0 0 0 0 0 0 418 418 411 0 0 153 0 0 0 0 0 0 0 109 0 0 0 0 0 0
    0 0 0 0 0 0 0 0 0 0 0 0 0 0 0 0 0 0 0 0 0 0 0 0 0 0 0 0 0 0 0 0 0 0 0 0 0 0 0 0 0 0 0 0 0 0 0 0 0 0 0 0 0 0 0 0 0 0 0 0 0 0 0 0 0 0 0 0 0 1362 1362 1388 1415 1415 1635 1887 1887 1989 1989 2044 2044 2044 2044 2230 2164 2164 2164 1989 2102 2164 2164 2102 2102 2164 2164 2230 2374 2230 2230 2164 2453 2374 2299 2374 2453 2537 2537 2725 2830 2725 2725 2830 2943 3066 3199 3345 3345 3873 4599 4906 6133 7359 8177 8177 0 0 8177 8177 0 8177 7359 7359 7359 7359 8177 7359 7359 7359 6690 7359 7359 6690 7359 7359 7359 7359 7359 8177 7359 7359 8177 8177 8177 7359 8177 7359 8177 8177 7359 8177 7359 8177 8177 7359 8177 7359 6690 8177 8177 6690 6690 7359 7359 6690 6690 4329 0 85 85 2453 2102 2102 2102 2102 2044 2164 1989 2102 1839 1711 1711 1672 1672 1635 1599 1443 1443 1443 1599 1314 1314 1314 1149 1206 1206 1115 1168 1115 1149 1149 1115 0 0 0 0 0 514 968 0 0 0 328 0 322 0 0 243 0 0 0 0 0 0 0 0 74 74 74 73 782 721 694 687 687 663 675 681 634 657 657 639 0 618 0 0 0 0 584 570 570 588 0 0 0 0 0 92 128 127 0 0 0 0 0 507 518 0 0 500 521 525 521 521 175 0 0 0 175 175 174 174 174 0 0 0 0 0 0 0 0 418 418 411 0 0 153 0 0 0 0 0 0 0 109 0 0 0 0 0 0
    0 0 0 0 0 0 0 0 0 0 0 0 0 0 0 0 0 0 0 0 0 0 0 0 0 0 0 0 0 0 0 0 0 0 0 0 0 0 0 0 0 0 0 0 0 0 0 0 0 0 0 0 0 0 0 0 0 0 0 0 0 0 0 0 0 0 0 0 0 1362 1362 1415 1443 1443 1752 1936 1936 2044 2044 2044 2044 2102 2044 2230 2230 2230 2164 1989 2102 2164 2164 2044 2102 2164 2164 2164 2374 2230 2230 2164 2453 2299 2299 2374 2453 2537 2628 2628 2830 2725 2830 2830 2943 3066 3066 3199 3345 3679 4329 4599 5661 6690 6690 6690 6690 7359 6690 6690 6690 6690 6690 6690 6690 6690 6690 6690 7359 7359 6690 7359 7359 6690 7359 7359 7359 8177 8177 8177 7359 7359 8177 8177 0 8177 8177 8177 8177 8177 8177 8177 7359 7359 7359 7359 8177 7359 7359 8177 8177 7359 7359 7359 7359 7359 6690 4329 0 0 0 2453 2164 2102 2102 2102 2044 2164 1989 2102 1839 1711 1711 1672 1672 1635 1599 1443 1443 1443 1599 1314 1314 1314 1168 1206 1206 1115 1168 1115 1149 1149 1115 0 0 0 0 0 0 981 0 0 0 328 322 322 0 0 0 0 0 0 0 0 0 0 0 74 74 74 73 791 721 694 687 681 663 675 681 634 657 657 639 0 618 0 0 0 113 584 570 566 588 0 0 0 0 0 92 128 127 0 0 0 0 0 0 514 758 0 490 0 521 518 521 175 0 0 0 175 175 174 174 174 197 0 0 0 0 0 0 422 418 418 411 408 0 153 0 0 0 0 0 0 0 109 0 0 0 0 0 0
    0 0 0 0 0 0 0 0 0 0 0 0 0 0 0 0 0 0 0 0 0 0 0 0 0 0 0 0 0 0 0 0 0 0 0 0 0 0 0 0 0 0 0 0 0 0 0 0 0 0 0 0 0 0 0 0 0 0 0 0 0 0 0 0 0 0 0 0 0 1388 1388 1471 1501 1533 1887 1936 1989 2044 2044 2044 2044 2102 2044 2230 2230 2230 2164 1989 2102 2164 2164 2044 2164 2164 2164 2164 2374 2164 2230 2164 2453 2230 2230 2299 2374 2453 2537 2628 2830 2725 2830 2830 2830 2943 2943 3066 3066 3504 3873 4329 4906 5661 6133 5661 6133 6690 6133 5661 5661 5661 5661 6133 6133 6133 6133 6690 7359 7359 7359 7359 7359 6690 7359 7359 7359 8177 8177 8177 7359 7359 8177 7359 0 8177 8177 8177 8177 0 8177 8177 8177 8177 8177 7359 8177 7359 8177 8177 0 8177 7359 8177 7359 7359 0 0 0 0 2374 2453 2164 2102 2102 2102 2044 2102 1989 2044 1839 1672 1711 1672 1672 1635 1635 1443 1443 1443 1599 1314 1314 1314 1168 1226 1206 1115 1168 1115 1149 1149 1115 0 0 0 0 0 0 0 0 0 0 328 322 322 0 0 0 0 0 0 0 0 0 0 75 75 74 74 73 791 721 694 687 681 663 675 675 634 657 657 639 0 618 0 0 0 0 584 566 566 588 0 0 0 0 0 92 128 127 0 799 0 0 0 0 0 0 0 0 0 514 0 525 175 0 85 0 175 175 174 174 0 198 198 0 0 0 0 0 420 418 418 413 411 0 0 0 0 0 0 0 0 0 0 0 0 0 0 0 0
    0 0 0 0 0 0 0 0 0 0 0 0 0 0 0 0 0 0 0 0 0 0 0 0 0 0 0 0 0 0 0 0 0 0 0 0 0 0 0 0 0 0 0 0 0 0 0 0 0 0 0 0 0 0 0 0 0 0 0 0 0 0 0 0 0 0 0 0 0 1471 1443 1599 1599 1635 1887 1936 1989 1989 2044 1989 2044 2044 2044 2230 2164 2164 2164 1936 2102 2164 2164 2044 2164 2230 2164 2230 2374 2164 2230 2164 2453 2230 2230 2299 2299 2453 2537 2537 2725 2725 2830 2725 2830 2830 2830 2943 3066 3345 3679 4088 4906 5256 5661 5256 5661 6133 5661 5256 5661 5661 5256 6133 6133 6133 6133 6690 7359 7359 7359 7359 7359 6690 7359 7359 7359 8177 7359 7359 7359 6690 8177 7359 0 8177 0 8177 0 0 0 8177 8177 8177 8177 7359 8177 8177 8177 8177 0 8177 7359 7359 7359 6690 6690 3873 0 0 0 2453 2164 2102 2164 2164 2044 2102 1989 2044 1839 1672 1711 1635 1635 1599 1599 1443 1443 1443 1599 1338 1338 1314 1168 1226 1206 1115 1168 1132 1149 1149 1115 1149 1082 0 0 0 0 0 0 0 0 0 324 324 0 0 0 0 0 0 0 0 0 0 0 75 74 74 73 791 728 694 694 681 663 675 675 634 657 657 639 0 618 0 0 0 0 584 566 566 588 0 0 0 0 0 91 128 127 0 0 0 0 0 0 0 0 750 0 0 0 0 0 0 0 85 0 175 175 173 173 0 198 199 0 0 0 0 0 418 415 415 413 415 0 0 0 0 0 0 0 0 0 0 0 0 0 0 0 0
    0 0 0 0 0 0 0 0 0 0 0 0 0 0 0 0 0 0 0 0 0 0 0 0 0 0 0 0 0 0 0 0 0 0 0 0 0 0 0 0 0 0 0 0 0 0 0 0 0 0 0 0 0 0 0 0 0 0 0 0 0 0 0 0 0 0 0 0 0 1565 1533 1672 1672 1672 1936 1936 1936 1989 1989 1989 1989 1989 1989 2164 2102 2102 2102 1936 2102 2164 2164 2044 2164 2230 2230 2230 2374 2102 2230 2102 2374 2230 2230 2230 2299 2374 2453 2537 2725 2628 2830 2725 2830 2830 2830 2943 2943 3345 3679 4088 4599 5256 5256 5256 5256 5661 5256 5256 5256 5256 5256 6133 6133 6690 6690 6690 7359 7359 7359 7359 7359 6690 6690 7359 7359 7359 7359 7359 6690 6133 7359 7359 0 8177 0 0 0 0 0 8177 0 8177 8177 8177 8177 8177 8177 8177 8177 8177 6690 6690 6690 6690 6133 3679 0 0 0 2453 2164 2164 2164 2164 2044 2102 1989 2044 1839 1672 1672 1635 1635 1599 1599 1443 1443 1443 1599 1338 1338 1314 1187 1226 1226 1132 1187 1132 1149 1149 1115 1149 1082 1082 0 0 0 0 0 0 0 0 0 0 0 0 0 0 0 0 0 0 0 0 0 75 74 74 73 791 728 700 694 687 663 675 675 634 657 657 639 0 618 0 0 0 0 584 561 561 0 0 0 0 0 0 0 127 127 0 0 514 0 0 0 0 0 750 0 0 0 0 0 0 518 84 0 174 175 0 0 0 199 199 0 0 0 0 0 415 415 415 413 415 0 0 0 0 0 0 0 0 0 0 389 0 0 0 0 0
    0 0 0 0 0 0 0 0 0 0 0 0 0 0 0 0 0 0 0 0 0 0 0 0 0 0 0 0 0 0 0 0 0 0 0 0 0 0 0 0 0 0 0 0 0 0 0 0 0 0 0 0 0 0 0 0 0 0 0 0 0 0 0 0 0 0 0 0 0 1635 1635 1711 1711 1711 1936 1936 1936 1989 1989 1936 1936 1989 1989 2102 2102 2102 2044 1887 2164 2164 2164 2044 2230 2230 2230 2230 2453 2102 2230 2102 2453 2230 2230 2230 2299 2374 2453 2537 2725 2628 2830 2725 2830 2830 2830 2943 2943 3199 3679 3679 4329 4906 5256 5256 5256 6133 5661 5256 5661 5661 5661 6133 6133 6690 6690 6133 7359 7359 7359 7359 6690 5661 6690 6690 7359 7359 7359 6690 6690 6133 7359 7359 8177 8177 8177 0 0 0 0 8177 8177 8177 8177 8177 7359 8177 8177 7359 8177 7359 6690 6690 6133 6133 5661 3504 2453 2725 2164 2374 2164 2164 2164 2164 2044 2102 1989 2044 1839 1672 1672 1635 1635 1599 1635 1443 1443 1443 1565 1338 1338 1314 1187 1226 1226 1132 1187 1132 1149 1149 1115 1149 1082 1082 0 0 0 0 0 0 0 0 0 0 0 0 0 0 0 0 0 0 0 0 0 75 74 74 73 791 728 700 694 687 663 675 675 629 651 651 639 0 618 0 0 0 0 579 561 557 0 0 0 0 0 0 0 127 127 0 0 514 0 0 0 0 0 750 0 0 0 0 0 521 518 0 0 0 174 0 0 235 199 200 0 0 0 0 0 415 413 413 415 415 0 0 0 0 0 0 0 0 0 391 389 0 0 0 0 0
    0 0 0 0 0 0 0 0 0 0 0 0 0 0 0 0 0 0 0 0 0 0 0 0 0 0 0 0 0 0 0 0 0 0 0 0 0 0 0 0 0 0 0 0 0 0 0 0 0 0 0 0 0 0 0 0 0 0 0 0 0 0 0 0 0 0 0 0 0 1672 1672 1752 1752 1752 1936 1936 1936 1936 1936 1936 1936 1936 1936 2102 2102 2102 2044 1887 2164 2164 2164 2044 2230 2230 2230 2230 2453 2102 2230 2164 2374 2230 2230 2230 2299 2374 2453 2537 2725 2628 2830 2725 2830 2725 2830 2830 2943 3199 3504 3679 4088 4906 4906 5256 5256 6133 5661 5256 5256 5661 5661 6133 6690 7359 6690 6690 7359 7359 7359 7359 6690 5661 6690 6690 6690 6690 6690 6133 6133 5661 7359 6690 8177 7359 8177 8177 8177 8177 0 8177 8177 7359 8177 8177 7359 8177 8177 7359 7359 7359 6690 6133 6133 6133 5256 3345 2374 2628 2164 2374 2164 2164 2164 2164 2102 2102 1989 2044 1839 1672 1672 1599 1599 1565 1635 1443 1443 1443 1533 1338 1338 1314 1187 1226 1226 1132 1187 1132 1149 1149 1115 1149 1082 1082 0 0 0 0 0 0 0 0 0 0 0 0 0 0 808 0 0 0 0 0 0 75 74 0 0 791 728 700 700 687 663 675 675 629 651 651 634 0 618 0 0 0 0 579 557 553 0 0 0 0 0 0 0 127 127 0 0 0 0 0 0 0 750 743 0 0 0 0 0 0 0 0 0 0 0 0 0 236 0 200 0 0 0 0 0 415 413 413 415 418 0 0 0 0 0 0 0 395 0 391 389 0 0 0 0 0
    0 0 0 0 0 0 0 0 0 0 0 0 0 0 0 0 0 0 0 0 0 0 0 0 0 0 0 0 0 0 0 0 0 0 0 0 0 0 0 0 0 0 0 0 0 0 0 0 0 0 0 0 0 0 0 0 0 0 0 0 0 0 0 0 0 0 0 0 0 1672 1635 1752 1752 1795 1936 1936 1936 1936 1936 1936 1936 1989 1936 2102 2102 2102 2044 1887 2164 2164 2164 2044 2230 2230 2230 2230 2453 2102 2230 2164 2374 2230 2230 2230 2299 2374 2453 2537 2725 2628 2830 2725 2830 2725 2830 2830 2943 3199 3504 3679 3873 4906 4906 5256 5256 6133 5661 5661 5256 6133 6133 6690 6690 8177 7359 7359 8177 8177 8177 7359 6690 6133 6690 6690 6690 6690 7359 6133 6133 6133 7359 6690 7359 7359 7359 7359 7359 7359 8177 7359 8177 7359 8177 8177 7359 8177 8177 8177 8177 7359 6690 6133 5661 6133 5256 3345 2374 2628 2164 2374 2164 2164 2164 2164 2102 2102 1989 2044 1839 1672 1672 1599 1599 1565 1635 1443 1443 1443 1533 1338 1338 1314 1187 1226 1226 1132 1187 1132 1149 1149 1115 1149 1082 1082 0 0 0 0 0 0 0 0 0 0 0 0 0 0 808 0 0 0 133 0 0 75 74 0 0 782 721 700 694 687 663 669 675 629 651 651 634 0 618 0 598 593 0 579 557 553 0 0 0 0 0 0 0 127 127 0 0 0 0 0 0 0 0 0 0 0 669 0 634 0 0 0 0 0 0 0 238 236 0 201 0 0 0 0 0 0 413 413 415 418 0 0 0 0 0 0 0 395 0 393 391 0 0 0 0 0
    0 0 0 0 0 0 0 0 0 0 0 0 0 0 0 0 0 0 0 0 0 0 0 0 0 0 0 0 0 0 0 0 0 0 0 0 0 0 0 0 0 0 0 0 0 0 0 0 0 0 0 0 0 0 0 0 0 0 0 0 0 0 0 0 0 0 0 0 0 1672 1635 1752 1795 1795 1936 1936 1989 1936 1936 1936 1936 1989 1989 2102 2102 2102 2044 1936 2164 2164 2164 1989 2230 2230 2230 2230 2374 2102 2230 2164 2374 2230 2230 2230 2299 2374 2453 2453 2725 2628 2725 2725 2725 2725 2725 2830 2943 3066 3504 3679 3873 4599 4906 5256 5661 6133 5661 6133 5661 6690 6690 7359 7359 8177 8177 8177 8177 8177 8177 8177 6690 6133 6690 6690 6690 6690 6690 6133 6133 6133 6690 6133 7359 7359 7359 7359 7359 7359 7359 7359 8177 7359 8177 8177 7359 8177 8177 8177 8177 8177 6690 6133 5661 5661 4906 3345 2453 2628 2164 2374 2164 2164 2164 2164 2102 2102 1989 2044 1839 1672 1672 1599 1599 1565 1635 1443 1443 1443 1533 1338 1338 1314 1206 1226 1226 1132 1187 1132 1149 1149 1115 1149 1082 0 0 0 0 0 0 0 0 0 325 325 0 0 0 0 799 0 0 0 133 132 0 75 74 0 0 782 721 700 694 694 663 675 675 629 651 651 634 0 618 0 598 593 0 579 557 0 0 0 0 0 0 0 0 127 126 0 0 0 2537 0 0 0 0 0 0 0 669 0 634 0 0 639 0 0 0 0 238 237 0 0 0 0 0 0 0 0 413 413 415 0 0 0 0 0 0 0 0 393 0 393 391 0 0 0 0 0
    0 0 0 0 0 0 0 0 0 0 0 0 0 0 0 0 0 0 0 0 0 0 0 0 0 0 0 0 0 0 0 0 0 0 0 0 0 0 0 0 0 0 0 0 0 0 0 0 0 0 0 0 0 0 0 0 0 0 0 0 0 0 0 0 0 0 0 0 0 1672 1672 1795 1795 1839 1989 1989 1989 1989 1989 1989 1936 1989 1989 2102 2102 2102 2044 1936 2164 2164 2164 1989 2230 2230 2230 2230 2374 2102 2164 2102 2374 2230 2230 2230 2299 2374 2453 2453 2725 2628 2725 2725 2725 2725 2725 2725 2943 2943 3345 3504 3679 4088 4906 5256 5661 6133 5661 6133 5661 6690 6690 7359 8177 8177 8177 8177 8177 8177 8177 8177 6690 6133 6690 6690 6690 6690 6690 6133 6133 5661 6690 6133 6690 6690 7359 6690 6690 6690 7359 7359 8177 7359 8177 8177 7359 8177 8177 8177 8177 8177 6690 5661 5256 5661 4599 3199 2453 2628 2164 2374 2164 2164 2164 2164 2044 2102 1936 2044 1839 1672 1672 1599 1599 1565 1635 1443 1443 1443 1501 1338 1338 1314 1206 1226 1226 1132 1187 1132 1149 1149 1115 1149 1082 0 0 0 0 0 0 0 0 0 325 325 0 0 0 6690 799 0 0 0 133 132 0 75 74 0 0 782 728 707 700 694 669 675 675 629 651 651 634 0 0 0 598 593 0 579 557 0 0 0 0 0 0 0 0 127 126 127 0 0 2537 0 0 0 0 0 0 454 663 0 629 0 0 634 0 0 0 0 239 237 0 0 0 0 0 0 0 0 0 0 418 0 0 0 0 0 0 0 0 0 0 391 389 0 0 0 0 0
    0 0 0 0 0 0 0 0 0 0 0 0 0 0 0 0 0 0 0 0 0 0 0 0 0 0 0 0 0 0 0 0 0 0 0 0 0 0 0 0 0 0 0 0 0 0 0 0 0 0 0 0 0 0 0 0 0 0 0 0 0 0 0 0 0 0 0 0 0 1672 1711 0 1839 1839 1989 1989 1989 1989 1989 1989 1936 1989 1989 2044 2044 2102 2044 1936 2164 2164 2164 1989 2230 2230 2230 2230 2374 2102 2164 2164 2374 2230 2230 2230 2299 2374 2453 2453 2725 2628 2725 2725 2725 2725 2725 2725 2830 2830 3199 3345 3504 3873 4906 5256 5661 6133 6133 6133 5661 6690 7359 8177 8177 0 0 8177 8177 0 8177 8177 6690 6133 6690 6690 6133 6133 6690 6133 5661 5661 6133 5661 6133 6133 6690 6690 6133 6690 6690 7359 8177 7359 8177 8177 7359 8177 8177 8177 7359 7359 6690 5661 5256 5256 4599 3199 2374 2628 2164 2374 2164 2164 2164 2164 2044 2102 1936 1989 1795 1635 1672 1599 1599 1565 1599 1443 1443 1415 1471 1314 1314 0 1187 1206 1226 1115 1187 1132 1149 1149 1115 1149 1098 1098 0 0 0 0 0 0 0 0 0 0 0 0 0 6690 799 0 0 134 133 132 0 75 74 0 0 791 728 707 700 700 669 675 675 629 651 651 634 0 0 0 0 593 0 579 557 112 0 0 0 0 0 0 0 127 126 0 0 0 0 0 0 0 0 86 0 451 0 0 0 584 0 0 0 0 0 0 239 237 0 0 0 0 0 0 0 0 0 0 418 0 0 0 0 0 0 0 0 0 0 391 389 0 0 0 0 0
    0 0 0 0 0 0 0 0 0 0 0 0 0 0 0 0 0 0 0 0 0 0 0 0 0 0 0 0 0 0 0 0 0 0 0 0 0 0 0 0 0 0 0 0 0 0 0 0 0 0 0 0 0 0 0 0 0 0 0 0 0 0 0 0 0 0 0 0 0 1672 1711 1839 1839 1839 1989 2044 1989 1989 1989 1989 1936 1989 1989 2044 2044 2102 2044 1936 2164 2230 2164 1989 2230 2230 2230 2230 2374 2102 2164 2164 2374 2299 2230 2299 2374 2453 2453 2537 2725 2725 2725 2725 2725 2725 2725 2725 2830 2830 3199 3199 3345 3679 4906 5256 6133 6133 6133 6133 6133 7359 8177 0 0 0 0 0 8177 0 8177 8177 7359 6133 6690 6690 6690 6690 6690 6133 5661 5661 5661 5661 5661 5661 5661 5661 5256 6133 6133 7359 8177 7359 8177 8177 7359 8177 8177 8177 7359 7359 6133 5661 4906 5256 4599 3345 0 2537 2164 2299 2164 2164 2164 2164 2044 2044 1936 1989 1795 1635 1672 1599 1599 1565 1599 1443 1415 1388 1443 1291 1291 1291 1168 1206 1206 1115 1187 1132 1149 1149 1115 1149 1098 1098 0 0 0 0 0 0 0 0 0 0 0 0 0 0 799 0 0 0 0 0 0 75 74 74 73 791 735 707 707 700 669 675 675 629 645 645 634 3504 3679 0 0 593 0 0 557 112 0 0 0 0 0 0 0 127 127 0 0 0 0 86 0 0 0 86 0 457 0 0 0 0 525 0 0 0 0 0 239 237 0 0 0 0 0 0 0 0 0 0 418 418 0 0 0 0 0 0 0 0 0 391 389 0 0 0 0 0
    0 0 0 0 0 0 0 0 0 0 0 0 0 0 0 0 0 0 0 0 0 0 0 0 0 0 0 0 0 0 0 0 0 0 0 0 0 0 0 0 0 0 0 0 0 0 0 0 0 0 0 0 0 0 0 0 0 0 0 0 0 0 0 0 0 0 0 0 0 1672 1711 1839 1887 1887 1989 2044 2044 2044 1989 1989 1989 2044 2044 2044 2044 2044 1989 1936 2164 2164 2164 1989 2230 2230 2230 2230 2374 2102 2230 2164 2374 2299 2299 2299 2374 2453 2453 2537 2725 2725 2725 2830 2725 2725 2725 2725 2830 2830 3199 3199 3345 3873 4906 5256 5661 5661 6133 6133 5661 7359 8177 8177 0 0 0 8177 8177 8177 0 8177 7359 6690 7359 7359 6690 6690 6690 6133 5661 6133 5661 5256 5256 5661 5661 5661 5256 6133 6133 7359 7359 7359 8177 8177 7359 8177 8177 8177 6690 7359 6690 5661 5256 5256 4906 3345 0 0 0 2299 2164 2164 2164 2164 2044 2044 1936 2044 1839 1672 1672 1599 1599 1565 1599 1443 1415 1388 1388 1268 1268 1268 1168 1206 1206 1115 1187 1132 1168 1149 1115 1149 1098 1098 0 0 0 0 0 0 0 0 0 0 0 0 0 0 808 0 0 0 0 0 0 75 74 74 73 791 743 714 707 707 675 681 675 629 651 651 634 3504 3679 0 0 0 0 0 557 112 0 0 0 0 0 0 0 127 127 0 0 0 0 86 0 0 0 86 0 462 0 0 0 525 518 0 0 0 0 0 239 237 0 0 0 0 0 0 0 0 0 0 420 415 406 406 0 0 0 0 0 0 0 391 389 0 0 0 0 0
    0 0 0 0 0 0 0 0 0 0 0 0 0 0 0 0 0 0 0 0 0 0 0 0 0 0 0 0 0 0 0 0 0 0 0 0 0 0 0 0 0 0 0 0 0 0 0 0 0 0 0 0 0 0 0 0 0 0 0 0 0 0 0 0 0 0 0 0 0 1672 1672 1795 1839 0 2044 2044 2102 2044 2044 2044 1989 2044 2044 2102 2044 2044 1989 1936 2102 2164 2164 1989 2230 2230 2230 2230 2299 2164 2230 2164 2374 2299 2299 2299 2374 2453 2537 2537 2725 2725 2725 2830 2830 2725 2725 2725 2830 2830 3199 3199 3345 3873 5256 5256 5256 5661 6133 5661 5256 6133 6690 6690 8177 8177 8177 7359 8177 8177 0 0 8177 7359 8177 8177 7359 7359 7359 6133 5661 6133 5661 5256 5256 5661 5256 5661 5256 5661 5661 7359 7359 7359 8177 8177 8177 0 8177 8177 7359 7359 6690 6133 5661 5661 5256 3504 0 2628 2164 2299 2164 2164 2164 2164 2102 2102 1989 2044 1839 1672 1672 1635 1635 1565 1599 1443 1415 1388 1388 1268 1268 1268 1168 1206 1206 1115 1187 1115 1168 1149 1115 1149 1098 1098 0 0 0 0 0 0 0 0 0 0 0 0 0 0 808 0 0 0 0 0 0 74 74 74 73 799 750 721 714 714 681 687 681 629 651 651 634 3679 3873 0 0 593 325 0 557 112 0 0 0 0 0 0 0 0 127 0 0 0 0 86 0 0 0 86 0 465 477 0 511 518 0 84 0 0 681 0 239 237 0 0 0 0 0 0 0 0 0 0 420 418 408 0 0 265 267 275 274 0 0 0 391 0 0 0 0 0
    0 0 0 0 0 0 0 0 0 0 0 0 0 0 0 0 0 0 0 0 0 0 0 0 0 0 0 0 0 0 0 0 0 0 0 0 0 0 0 0 0 0 0 0 0 0 0 0 0 0 0 0 0 0 0 0 0 0 0 0 0 0 0 0 0 0 0 0 0 1635 1672 1752 1839 0 1989 2044 2044 2044 2044 2044 1989 2044 2044 2044 2044 1989 1936 1887 2102 2102 2102 1989 2230 2164 2164 2230 2299 2164 2230 2164 2374 2299 2299 2299 2374 2537 2537 2537 2725 2830 2830 2830 2830 2725 2725 2725 2830 2830 3199 3199 3199 3873 5256 5256 4906 4599 4906 4329 4088 4329 5661 4906 6133 7359 7359 7359 0 0 0 0 0 8177 8177 8177 7359 7359 7359 6133 5661 6133 5256 5256 5256 5661 5256 5661 5256 6133 5661 7359 7359 7359 8177 8177 7359 8177 7359 8177 6690 6690 6690 5661 5661 5661 5256 3873 0 2725 2230 2374 2102 2164 2164 2164 2102 2102 1989 2102 1839 1711 1672 1635 1635 1565 1599 1471 1415 1388 1415 1268 1268 1268 1168 1206 1206 1115 1168 1115 1168 1149 1115 1149 1115 1098 0 0 0 0 0 0 0 0 0 0 0 0 0 0 0 0 0 0 0 0 0 74 74 74 73 799 766 721 721 714 694 687 687 629 645 645 634 3679 3873 0 593 593 325 0 561 112 0 0 0 0 91 0 128 127 127 0 0 0 0 86 0 87 0 0 0 471 481 487 507 0 0 84 0 0 0 0 0 237 0 0 0 0 0 0 0 0 0 0 422 418 0 0 0 271 0 277 276 0 0 0 391 0 0 0 0 0
    0 0 0 0 0 0 0 0 0 0 0 0 0 0 0 0 0 0 0 0 0 0 0 0 0 0 0 0 0 0 0 0 0 0 0 0 0 0 0 0 0 0 0 0 0 0 0 0 0 0 0 0 0 0 0 0 0 0 0 0 0 0 0 0 0 0 0 0 0 1672 1672 1752 1795 0 1989 2044 2044 2044 2044 2044 1989 2044 2044 2044 1989 1989 1936 1887 2044 2102 2102 1989 2164 2164 2164 2230 2299 2164 2230 2164 2374 2299 2230 2299 2374 2537 2537 2628 2725 2830 2830 2830 2830 2725 2725 2725 2725 2725 3066 3066 3066 3504 5256 5256 4599 3873 4599 3873 3873 4088 4906 4329 5661 6690 7359 7359 0 0 0 0 0 8177 0 8177 7359 7359 7359 6133 6133 6133 5256 5256 5256 5256 5256 5256 5256 5661 6133 6690 7359 7359 7359 7359 7359 8177 7359 7359 6690 6690 6690 5661 5661 5661 4906 3873 0 2830 2299 2374 2164 2230 2230 2230 2102 2102 1989 2102 1887 1711 1672 1599 1599 1565 1565 1471 1415 1388 1443 1291 1268 1268 1168 1206 1206 1115 1168 1115 1168 1149 1115 1149 1115 1098 0 0 0 0 0 0 0 0 0 0 0 0 0 0 0 0 0 0 0 0 994 0 73 74 0 808 766 728 721 721 694 694 687 629 639 639 629 0 3873 0 588 593 325 584 561 112 0 0 0 0 91 0 128 128 127 0 0 0 0 86 0 87 0 0 0 474 484 487 504 0 0 84 0 0 0 0 0 0 0 845 0 0 0 0 0 0 0 0 422 0 0 406 0 0 277 278 277 0 0 0 391 0 0 0 0 0
    0 0 0 0 0 0 0 0 0 0 0 0 0 0 0 0 0 0 0 0 0 0 0 0 0 0 0 0 0 0 0 0 0 0 0 0 0 0 0 0 0 0 0 0 0 0 0 0 0 0 0 0 0 0 0 0 0 0 0 0 0 0 0 0 0 0 0 0 0 1672 1672 1752 1795 1795 1989 2044 2044 2044 2044 2044 1989 2044 2044 2044 2044 2044 1989 1887 2044 2102 2102 1989 2164 2230 2230 2230 2299 2230 2230 2164 2374 2299 2299 2299 2374 2537 2628 2628 2830 2830 2830 2830 2830 2725 2725 2628 2628 2628 2943 2943 2830 3199 4599 4599 3873 3504 3504 3345 3345 3504 3873 3504 4599 5256 6690 6133 8177 0 0 0 0 8177 8177 0 8177 7359 8177 6690 6133 6133 5256 5256 5256 5256 5256 5256 5256 5661 6133 6690 7359 6690 7359 7359 6690 7359 6690 7359 6690 6133 6133 6133 5661 5661 5256 4329 0 0 0 2374 2164 2230 2230 2230 2164 2164 2044 2102 1887 1752 1672 1635 1635 1599 1599 1501 1443 1388 1415 1291 1268 1268 1168 1206 1206 1115 1168 1115 1168 1149 1115 1149 1115 1115 0 0 0 0 0 0 0 0 0 0 0 0 0 0 0 0 0 0 0 0 1008 0 0 73 73 808 766 728 721 721 700 694 694 634 634 634 623 0 3679 0 588 588 0 584 561 0 0 0 0 0 91 0 127 128 127 0 0 0 0 86 0 87 0 0 0 477 484 490 500 0 0 0 0 175 0 0 0 0 0 845 0 0 0 0 0 0 0 0 425 0 0 408 0 0 0 279 277 0 0 393 391 0 0 0 0 0
    0 0 0 0 0 0 0 0 0 0 0 0 0 0 0 0 0 0 0 0 0 0 0 0 0 0 0 0 0 0 0 0 0 0 0 0 0 0 0 0 0 0 0 0 0 0 0 0 0 0 0 0 0 0 0 0 0 0 0 0 0 0 0 0 0 0 0 0 0 1635 1635 1711 1752 1752 1936 1989 1989 2044 1989 2044 1989 2044 2044 2102 2044 2044 1989 1887 2044 2102 2102 1989 2164 2230 2230 2230 2374 2230 2299 2230 2453 2374 2299 2299 2453 2628 2628 2628 2725 2725 2725 2830 2830 2725 2725 2628 2628 2628 2943 2830 2725 2943 3504 3504 3199 3066 2943 2943 2830 3066 3199 3066 3679 3873 5661 5256 6690 8177 0 0 8177 7359 8177 0 8177 8177 8177 6690 6690 6690 5661 5661 5256 5256 5256 5256 5256 5661 5661 6690 7359 7359 7359 7359 6690 7359 6690 7359 6690 6133 6133 6133 6133 6133 5256 4906 3199 3066 2374 2453 2102 2299 2299 2230 2164 2102 2044 2164 1936 1795 1711 1635 1635 1565 1599 1501 1443 1415 1443 1314 1291 1291 1168 1206 1206 1115 1168 1115 1149 1132 1115 1149 1115 1098 0 0 0 0 0 0 0 0 0 0 0 0 0 0 0 0 0 0 0 0 994 0 0 0 73 808 766 728 721 714 694 694 687 629 629 629 623 0 0 0 584 588 588 584 561 0 0 0 0 0 91 0 127 127 127 0 0 0 0 0 0 0 0 0 487 481 487 490 500 0 0 0 177 176 0 0 0 0 232 836 0 0 0 0 0 0 0 0 427 422 0 411 411 0 0 279 278 0 387 393 391 0 0 0 0 0
    0 0 0 0 0 0 0 0 0 0 0 0 0 0 0 0 0 0 0 0 0 0 0 0 0 0 0 0 0 0 0 0 0 0 0 0 0 0 0 0 0 0 0 0 0 0 0 0 0 0 0 0 0 0 0 0 0 0 0 0 0 0 0 0 0 0 0 0 0 1599 1599 1635 1672 1711 1887 1936 1936 1989 1936 1989 1989 2044 1989 2102 2044 2044 1989 1887 2044 2102 2102 1989 2164 2164 2230 2230 2374 2299 2299 2230 2453 2374 2299 2374 2453 2628 2628 2628 2725 2725 2725 2830 2830 2725 2725 2725 2725 2725 2943 2830 2628 2830 2943 2943 2943 2830 2725 2725 2725 2943 3066 2943 3345 3504 5256 4906 6690 8177 8177 8177 8177 7359 7359 7359 8177 8177 8177 6690 6690 6690 5661 5661 5661 5661 5661 5661 5256 5661 5661 6690 7359 7359 7359 7359 6690 7359 6690 7359 6690 5661 6133 6133 6133 6133 4906 4599 3345 3066 2299 2453 2102 2299 2299 2299 2164 2164 2102 2230 1936 1887 1711 1635 1672 1599 1599 1533 1471 1415 1443 1338 1314 1291 1187 1226 1206 1115 1168 1132 1149 1132 1115 1149 1115 1098 1115 0 0 1022 0 0 0 0 0 0 0 0 0 0 836 0 0 0 865 955 968 886 0 0 0 799 766 728 721 714 694 687 687 629 0 623 618 0 0 0 584 584 584 584 561 0 0 0 0 0 0 0 0 127 127 0 0 0 0 0 0 0 0 0 490 484 487 490 497 0 0 177 177 176 175 0 0 0 231 826 0 0 0 0 0 0 427 427 427 422 420 413 411 411 0 0 0 393 387 393 393 0 0 0 0 0</data></depth>
</opencv_storage>
