<?xml version="1.0"?>
<opencv_storage>
<gps_time_stamp>298274</gps_time_stamp>
<gps_x>-1.2397454261779785e+001</gps_x>
<gps_y>1.1000081062316895e+001</gps_y>
<gps_z>-2.0629382133483887e+000</gps_z>
<image_time_stamp>289159</image_time_stamp>
<depth type_id="opencv-matrix">
  <rows>83</rows>
  <cols>320</cols>
  <dt>s</dt>
  <data>
    0 0 0 0 0 0 0 0 0 0 0 0 0 0 0 0 0 0 0 0 0 0 0 0 0 0 0 0 0 0 0 0 0 0 0 0 0 0 0 0 0 0 0 0 0 0 0 0 0 0 0 0 0 0 0 0 0 0 0 0 0 0 0 0 0 0 0 0 0 1066 1115 1082 1051 1098 1115 1082 1082 1149 1132 1168 1187 1187 1187 1206 1226 1247 1268 0 0 1314 1338 1362 1362 1362 1362 1338 1362 1338 1443 1338 1338 1443 1533 1533 1565 1565 1599 1635 1672 1672 1672 1711 1711 1752 1839 1936 1936 1936 1887 2102 0 73 74 0 0 0 0 0 5256 5661 6133 9199 0 0 0 0 0 0 0 0 0 0 0 0 0 0 0 0 0 0 355 352 0 0 0 0 0 0 0 0 0 0 0 0 0 0 0 0 0 0 0 0 0 0 0 0 0 0 0 0 0 0 0 0 0 0 0 0 0 0 0 0 0 0 0 0 0 0 0 0 0 0 0 0 0 0 147 0 0 0 0 0 0 0 0 0 0 0 1839 1599 1565 1443 1415 1415 1415 1415 1415 1443 1443 1443 1443 1443 1443 0 0 0 0 1338 0 0 0 1206 1149 1115 1098 1098 1098 1082 1082 1082 1066 1051 1036 1008 994 981 908 943 943 931 897 897 897 865 845 0 0 0 0 0 0 0 808 826 808 808 808 808 791 791 774 774 791 774 758 750 743 735 735 743 728 728 721 714 707 700 700 700 694 694 694 687 681 675 675 675 675 694 0 657 639 0 0 629 639 0 0 0 0 0
    0 0 0 0 0 0 0 0 0 0 0 0 0 0 0 0 0 0 0 0 0 0 0 0 0 0 0 0 0 0 0 0 0 0 0 0 0 0 0 0 0 0 0 0 0 0 0 0 0 0 0 0 0 0 0 0 0 0 0 0 0 0 0 0 0 0 0 0 0 1082 1132 1115 1066 1098 1132 1098 1082 1149 1132 1168 1168 1187 1187 1206 1226 1247 1268 0 1338 1338 1362 1388 1362 1362 1362 1362 1362 1338 1388 1314 1314 1415 1471 1533 1565 1599 1599 1635 1672 1711 1711 1711 1752 1795 1887 1989 1989 2044 1887 2102 0 73 74 73 0 0 0 0 0 0 0 0 0 0 0 0 8177 0 0 0 0 0 0 0 588 0 588 0 0 0 357 350 0 0 0 0 0 0 0 0 0 0 0 0 0 0 0 0 0 0 0 0 0 0 0 0 0 0 0 0 0 0 0 0 0 0 0 0 0 0 0 0 0 0 0 0 0 0 0 0 0 0 0 0 0 0 0 0 0 0 0 0 0 0 0 0 0 0 1795 1565 1501 1443 1415 1415 1415 1443 1415 1415 1443 1443 1415 1443 1443 0 0 0 0 0 0 1247 1206 1187 1115 1098 1098 1098 1098 1098 1098 1082 1066 1066 1036 1008 1008 994 908 943 943 943 897 897 897 865 845 0 0 0 0 0 0 0 808 826 808 808 808 808 791 791 774 782 799 782 758 750 743 735 735 735 721 721 721 714 707 700 700 700 700 700 694 687 681 675 669 669 675 0 0 0 0 0 714 0 707 0 0 0 0 0
    0 0 0 0 0 0 0 0 0 0 0 0 0 0 0 0 0 0 0 0 0 0 0 0 0 0 0 0 0 0 0 0 0 0 0 0 0 0 0 0 0 0 0 0 0 0 0 0 0 0 0 0 0 0 0 0 0 0 0 0 0 0 0 0 0 0 0 0 0 1082 1132 1115 1066 1082 1115 1082 1082 1149 1132 1149 1168 1168 1187 1206 1226 1268 1268 0 1338 1338 1362 1388 1388 1362 1362 1362 1362 1338 1362 1314 1314 1415 1443 1565 1565 1599 1635 1635 1672 1711 1711 1711 1752 1752 1795 1887 1936 1989 1887 2044 0 0 0 0 0 0 0 0 0 0 0 0 0 0 0 0 6690 0 0 0 0 0 0 0 584 0 584 0 0 0 357 0 0 0 0 0 0 0 0 0 0 0 0 0 0 0 0 0 0 0 0 0 0 0 0 0 0 0 0 0 0 0 0 0 0 0 0 0 0 0 0 0 0 0 0 0 0 0 0 0 0 0 0 0 0 0 0 0 0 0 0 0 0 0 0 0 0 0 1752 1565 1471 1443 1415 1443 1443 1443 1443 1415 1443 1443 1415 1415 1415 0 1362 0 0 0 1206 1226 1206 1149 1115 1115 1115 1115 1115 1115 1098 1082 1066 1051 1036 1008 1008 994 908 943 955 943 908 897 897 865 845 0 0 0 0 0 0 0 817 826 808 808 808 808 782 782 782 791 808 782 758 758 750 743 735 728 721 721 721 714 707 700 707 707 707 707 707 700 687 687 681 0 0 0 0 0 0 0 721 714 707 0 0 0 0 0
    0 0 0 0 0 0 0 0 0 0 0 0 0 0 0 0 0 0 0 0 0 0 0 0 0 0 0 0 0 0 0 0 0 0 0 0 0 0 0 0 0 0 0 0 0 0 0 0 0 0 0 0 0 0 0 0 0 0 0 0 0 0 0 0 0 0 0 0 0 1066 1115 1115 1066 1066 1098 1098 1082 1168 1149 1168 1168 1187 1187 1226 1247 1268 1268 0 0 1338 1362 1388 1388 1362 1362 1362 1362 1362 1388 1338 1338 1443 1471 1599 1635 1635 1635 1635 1672 1711 1711 1711 1752 1752 1795 1887 1936 1989 1989 2044 2102 0 0 74 73 0 73 0 0 0 0 0 0 0 0 0 0 0 0 0 0 0 0 0 0 588 0 0 0 0 0 0 0 0 0 0 252 0 0 0 1711 1795 0 0 0 0 0 0 0 0 0 0 0 0 0 0 0 0 0 0 0 0 0 0 0 0 0 0 0 0 0 0 0 0 0 0 0 0 0 0 0 0 0 0 0 0 0 0 0 0 0 0 0 0 373 0 0 0 1672 1533 1443 1471 1443 1471 1471 1471 1443 1415 1415 1415 1415 1415 1415 0 1362 1291 0 0 1206 1226 1168 1149 1115 1132 1115 1115 1132 1132 1115 1115 1066 1066 1036 1022 1022 1008 908 955 955 955 908 897 897 865 845 876 836 836 0 0 0 0 0 826 808 799 799 799 774 782 782 791 808 774 758 758 758 750 735 728 728 721 721 721 714 707 714 714 714 721 714 707 700 700 0 0 0 0 0 0 0 0 0 0 687 0 0 0 0 0
    0 0 0 0 0 0 0 0 0 0 0 0 0 0 0 0 0 0 0 0 0 0 0 0 0 0 0 0 0 0 0 0 0 0 0 0 0 0 0 0 0 0 0 0 0 0 0 0 0 0 0 0 0 0 0 0 0 0 0 0 0 0 0 0 0 0 0 0 0 0 1098 1132 1066 1066 1098 1115 1115 1187 1168 1187 1187 1206 1206 1226 1247 1268 0 0 0 1338 1362 1388 1362 1362 1362 1362 1362 1362 1388 1388 1362 1471 1501 1599 1635 1635 1635 1672 1672 1711 1711 1752 1752 1752 1795 1839 1887 2044 2044 2102 2102 2230 0 74 73 0 73 73 0 0 4906 0 0 0 4906 3873 3873 3504 3679 0 0 3873 3504 0 0 0 0 0 0 0 0 0 0 0 0 0 0 0 0 0 1672 1711 0 0 0 0 0 0 0 0 0 0 0 0 0 0 0 0 0 0 0 0 0 0 0 0 0 0 0 0 0 0 0 0 0 0 0 0 0 0 0 0 0 0 0 0 0 0 0 0 0 0 379 379 377 0 0 1599 1599 1471 1443 1471 1443 1471 1471 1471 1443 1415 1415 1443 1415 1443 1471 1415 1388 1314 0 1247 1226 1187 1132 1132 1115 1115 1115 1115 1132 1115 1115 1115 1066 1066 1051 1051 1036 1022 919 968 968 968 908 897 886 876 855 886 845 836 0 0 0 0 0 826 808 799 799 799 774 774 774 791 799 766 750 758 750 743 735 728 728 721 728 721 714 714 721 721 728 728 728 721 707 721 0 0 0 0 0 0 0 0 0 0 681 0 0 0 0 0
    0 0 0 0 0 0 0 0 0 0 0 0 0 0 0 0 0 0 0 0 0 0 0 0 0 0 0 0 0 0 0 0 0 0 0 0 0 0 0 0 0 0 0 0 0 0 0 0 0 0 0 0 0 0 0 0 0 0 0 0 0 0 0 0 0 0 0 0 0 0 1036 1098 1051 1066 1098 1115 1115 1187 1187 1206 1206 1206 1226 1247 1247 1291 1291 0 0 0 1362 1388 1362 1362 1362 1362 1388 1388 1415 1443 1443 1501 1533 1599 1635 1635 1635 1635 1672 1711 1711 1752 1752 1752 1795 1839 1887 1989 1936 2102 1989 2102 0 0 0 0 73 73 73 0 3345 3066 3066 3066 3199 3066 3199 3199 3199 3066 3066 3504 3345 0 0 0 0 0 0 0 0 0 0 0 0 0 0 0 1672 0 1672 1711 0 0 0 0 0 0 0 0 0 0 0 0 0 0 0 0 0 0 0 0 0 0 0 0 0 0 0 0 0 0 0 0 0 0 0 0 0 0 0 0 0 0 0 0 0 0 0 0 0 0 383 383 379 373 0 1565 1599 1471 1471 1471 1443 1471 1471 1471 1443 1443 1443 1443 1443 1471 1501 1443 1388 0 0 1268 1226 1168 1149 1149 1132 1132 1115 1132 1132 1115 1115 1098 1036 1051 1036 1036 1036 1022 931 968 968 968 908 897 886 0 0 886 845 845 0 357 357 353 348 0 799 799 791 799 774 774 774 791 791 758 750 758 750 743 735 728 728 721 721 721 714 714 721 721 728 728 728 721 0 0 0 0 0 0 0 0 0 0 0 0 700 0 0 0 0 0
    0 0 0 0 0 0 0 0 0 0 0 0 0 0 0 0 0 0 0 0 0 0 0 0 0 0 0 0 0 0 0 0 0 0 0 0 0 0 0 0 0 0 0 0 0 0 0 0 0 0 0 0 0 0 0 0 0 0 0 0 0 0 0 0 0 0 0 0 0 0 0 0 1022 1036 1066 1082 1115 1187 1187 1187 1206 1206 1226 1247 1268 1291 1291 0 0 1362 1362 1388 1388 1362 1362 1388 1388 1415 1415 1443 1443 1501 1533 1635 1635 1672 1672 1672 1672 1711 1752 1752 1752 1795 1795 1839 1887 1989 1989 2044 1887 1989 0 74 0 0 73 73 0 0 2943 2830 2628 2725 2830 2830 2830 2943 2943 2830 2830 3345 3345 3199 0 0 0 0 0 0 0 0 0 0 0 0 0 0 0 0 0 0 0 0 0 0 0 0 0 0 0 0 0 0 0 0 0 0 0 0 0 0 0 0 0 0 0 0 0 0 0 0 0 0 0 0 0 0 0 0 0 0 0 1388 0 0 0 0 0 0 0 0 381 381 377 0 1388 1565 1565 1471 1471 1471 1471 1471 1471 1471 1443 1415 1415 1415 1415 1443 1443 1415 1362 0 1291 1268 1206 1168 1149 1149 1132 1132 1132 1132 1132 1132 1115 1098 1036 1051 1051 1036 1036 1022 943 968 968 981 897 886 886 0 0 897 855 845 0 357 357 355 348 0 799 791 791 799 766 774 766 791 791 750 750 758 750 743 735 728 728 721 721 721 714 714 721 728 728 728 735 721 0 0 0 0 0 0 0 0 0 0 0 0 657 0 0 0 0 0
    0 0 0 0 0 0 0 0 0 0 0 0 0 0 0 0 0 0 0 0 0 0 0 0 0 0 0 0 0 0 0 0 0 0 0 0 0 0 0 0 0 0 0 0 0 0 0 0 0 0 0 0 0 0 0 0 0 0 0 0 0 0 0 0 0 0 0 0 0 0 0 1036 1008 1022 1066 1082 1098 1187 1187 1206 1206 1206 1226 1247 1268 1291 1291 0 0 0 1362 1388 1388 1362 1362 1388 1388 1415 1415 1443 1443 1471 1533 1635 1599 1672 1672 1672 1711 1711 1752 1752 1752 1795 1795 1839 1887 1936 1936 1989 1887 1936 0 73 0 0 73 0 0 0 2830 2830 2374 2725 2725 2725 2725 2830 2830 2830 2725 3345 3345 3199 4906 0 0 0 0 0 0 0 0 0 0 0 0 0 0 0 0 0 0 0 0 0 0 0 0 0 0 0 0 0 0 0 0 0 0 0 0 0 0 0 0 0 0 0 0 0 0 0 0 0 0 0 0 0 0 0 0 0 1362 1388 0 1839 0 0 0 0 0 0 385 385 377 0 1415 1533 1471 1443 1443 1443 1443 1471 1443 1443 1415 1415 1415 1415 0 1415 1415 1415 1362 1338 1314 1247 1187 1168 1168 1149 1132 1132 1149 1115 1132 1115 1098 1082 1022 1036 1036 1036 1036 1022 943 968 955 981 897 886 886 0 0 908 865 855 845 357 357 355 348 0 799 791 791 799 774 774 774 799 782 750 750 758 750 743 735 728 728 721 721 714 714 714 721 721 728 728 735 728 743 750 0 0 0 0 0 0 0 0 0 0 0 0 0 0 0 0
    0 0 0 0 0 0 0 0 0 0 0 0 0 0 0 0 0 0 0 0 0 0 0 0 0 0 0 0 0 0 0 0 0 0 0 0 0 0 0 0 0 0 0 0 0 0 0 0 0 0 0 0 0 0 0 0 0 0 0 0 0 0 0 0 0 0 0 0 0 0 994 1022 994 0 1051 1115 1115 1187 1206 1206 1206 1226 1247 1247 1268 1291 1291 0 0 0 1362 1388 1388 1362 1362 1388 1388 1415 1415 1471 1443 1471 1501 1599 1599 1635 1672 1672 1711 1711 1752 1752 1795 1795 1795 1839 1887 1936 1936 2044 1936 1887 1936 0 0 0 0 0 0 2725 2943 2830 2374 2725 2830 2830 2830 2943 2943 2830 2830 3679 3345 3345 4329 0 0 0 0 0 0 0 0 0 0 0 0 0 0 0 0 0 0 0 0 0 0 0 0 0 0 0 0 0 0 0 0 0 0 0 0 0 0 0 0 0 0 0 0 0 270 0 0 0 0 0 0 0 0 0 0 0 1338 1338 0 1752 1711 0 0 0 395 0 387 385 377 0 1471 1501 1415 1415 1415 1415 1443 1415 1415 1415 1388 1415 1415 1415 1415 1415 1415 1415 1388 1362 1314 1247 1206 1187 1168 1149 1132 1149 1132 1115 1132 1115 1082 1066 1022 1036 1036 1036 1022 1008 931 968 955 981 886 886 886 876 855 908 865 855 845 0 0 0 0 0 808 799 791 799 774 774 782 808 782 758 758 766 750 743 735 728 728 721 721 714 707 707 714 714 714 707 707 707 714 721 0 0 0 0 0 0 0 0 0 0 0 0 0 0 0 0
    0 0 0 0 0 0 0 0 0 0 0 0 0 0 0 0 0 0 0 0 0 0 0 0 0 0 0 0 0 0 0 0 0 0 0 0 0 0 0 0 0 0 0 0 0 0 0 0 0 0 0 0 0 0 0 0 0 0 0 0 0 0 0 0 0 0 0 0 0 0 0 0 0 0 0 1168 1115 1206 1226 1226 1226 1226 1247 1268 1268 1291 1291 1314 1314 1338 1362 1362 1362 1362 1362 1415 1388 1415 1443 1471 1471 1471 1501 1565 1565 1635 1635 1672 1711 1711 1752 1795 1795 1795 1839 1839 1887 1936 1936 2044 1989 1936 2044 0 0 0 0 0 0 2830 2830 2830 2299 2830 2830 2830 2830 2943 3066 2943 2943 4088 3504 3504 4329 0 0 0 0 0 0 0 0 0 0 0 0 0 0 0 0 0 0 0 0 0 0 0 0 0 0 0 0 0 0 0 0 0 0 0 0 0 0 0 0 0 0 0 0 0 0 0 0 0 0 0 0 0 0 0 0 1388 1338 1314 0 1635 1471 0 0 0 0 0 387 385 377 1599 1599 1443 1388 1388 1388 1415 1415 1415 1388 1388 1388 1415 1415 1415 1415 1415 1415 1415 1388 1362 1291 1247 1226 1187 1168 1168 1149 1149 1132 1132 1132 1115 1082 1066 1022 1036 1036 1022 1022 994 919 955 943 981 886 886 886 876 865 908 865 855 845 0 0 0 0 0 808 799 799 799 774 782 782 799 782 758 758 766 758 743 735 728 728 721 721 707 700 700 707 700 707 694 700 707 707 714 0 651 0 0 0 0 0 0 0 645 0 0 0 0 0 0
    0 0 0 0 0 0 0 0 0 0 0 0 0 0 0 0 0 0 0 0 0 0 0 0 0 0 0 0 0 0 0 0 0 0 0 0 0 0 0 0 0 0 0 0 0 0 0 0 0 0 0 0 0 0 0 0 0 0 0 0 0 0 0 0 0 0 0 0 0 0 0 0 0 994 0 1268 1168 1268 1247 1247 1247 1247 1268 1268 1247 1268 1268 1291 1291 1314 1338 1362 1362 1338 1362 1415 1388 1443 1443 1471 1471 1501 1501 1565 1565 1599 1599 1672 1711 1711 1752 1795 1795 1839 1839 1839 1887 1936 1989 2102 2102 2164 2164 2044 0 0 0 2830 2537 2830 2830 2830 2453 2943 2943 2943 2943 3066 3066 2943 3066 3873 3345 3345 3504 3679 0 0 0 0 0 0 0 0 0 0 0 0 0 0 0 0 0 0 0 0 0 0 0 0 0 0 0 0 774 0 0 0 0 855 0 0 0 0 0 0 0 0 0 0 0 0 0 0 0 0 0 0 0 0 0 0 1362 1314 0 0 0 0 0 0 0 0 387 385 0 1752 1711 1471 1415 1415 1415 1415 1415 1415 1415 1388 1415 1443 1415 1415 1415 1415 1415 1388 1362 1314 1268 1226 1226 1206 1187 1168 1149 1149 1149 1132 1132 1115 1098 1082 1036 1036 1036 1036 1022 994 919 955 943 981 886 886 886 886 865 919 876 855 855 0 0 0 0 0 808 799 791 791 774 774 774 799 791 766 766 774 774 750 735 735 728 721 721 707 700 700 707 700 700 687 694 700 700 694 681 645 629 0 0 0 0 0 0 651 0 0 0 0 0 0
    0 0 0 0 0 0 0 0 0 0 0 0 0 0 0 0 0 0 0 0 0 0 0 0 0 0 0 0 0 0 0 0 0 0 0 0 0 0 0 0 0 0 0 0 0 0 0 0 0 0 0 0 0 0 0 0 0 0 0 0 0 0 0 0 0 0 0 0 0 0 0 0 0 994 0 1338 1247 1314 1291 1268 1268 1247 1268 1247 1247 1247 1247 1268 1268 1291 1314 1338 1362 1338 1362 1415 1388 1443 1443 1471 1471 1501 1501 1565 1533 1599 1565 1635 1711 1752 1795 1795 1839 1839 1887 1887 1936 1936 1989 2044 2164 2230 2374 2230 2628 2725 3066 3199 3066 2943 3066 2943 2725 3066 3066 2943 2943 3066 3199 3066 3199 3873 3345 3345 3345 3504 0 0 1672 0 0 0 0 0 0 0 0 0 0 0 0 0 0 0 0 0 0 0 0 0 0 0 0 791 758 799 0 0 0 855 0 855 0 0 0 0 0 0 0 0 275 273 0 0 0 0 0 0 0 0 0 0 1415 1338 1362 1533 1443 0 0 0 0 0 0 0 0 1887 1752 1501 1443 1443 1443 1415 1415 1415 1388 1388 1388 1443 1415 1388 1415 1388 1388 1388 1362 1314 1291 1247 1247 1206 1187 1187 1149 1149 1149 1132 1132 1115 1115 1098 1036 1051 1051 1036 1022 1008 919 955 943 981 886 876 886 886 865 919 876 865 855 0 0 0 0 0 808 791 782 791 774 774 774 791 791 766 766 782 774 750 743 735 728 721 721 707 707 707 707 700 700 694 694 700 700 694 681 663 645 0 0 0 0 0 0 0 0 0 0 0 0 0
    0 0 0 0 0 0 0 0 0 0 0 0 0 0 0 0 0 0 0 0 0 0 0 0 0 0 0 0 0 0 0 0 0 0 0 0 0 0 0 0 0 0 0 0 0 0 0 0 0 0 0 0 0 0 0 0 0 0 0 0 0 0 0 0 0 0 0 0 0 968 0 0 0 1168 0 0 0 0 0 1268 1268 1226 1247 1206 1226 1226 1226 1247 1268 1291 1314 1338 1362 1362 1362 1443 1388 1471 1471 1501 1501 1501 1533 1565 1533 1635 1533 1635 1752 1795 1839 1839 1839 1887 1887 1887 1936 1936 1989 2044 2230 2299 2537 2374 2830 2943 3345 3345 3345 3345 3345 3066 3066 3199 3199 3066 3066 3199 3199 3199 3345 4088 3345 3345 3345 3504 0 0 1672 0 0 0 0 0 0 0 0 0 0 0 0 0 0 0 0 0 0 0 0 0 0 0 0 758 721 735 728 0 0 855 0 855 0 0 0 0 0 0 0 0 0 0 0 0 0 0 0 0 0 0 0 0 1599 1388 1443 1672 0 0 0 0 0 0 0 0 1752 1795 1672 1533 1501 1471 1471 1443 1443 1415 1415 1388 1388 1415 1388 1388 1388 1362 1388 1362 1338 1314 1268 1247 1226 1187 1187 1187 1132 1149 1132 1132 1132 1115 1115 1082 1051 1066 1051 1051 1022 1008 919 955 943 981 886 876 886 886 865 919 876 865 855 0 0 0 0 0 799 791 782 791 774 774 774 791 791 766 766 782 774 750 743 735 728 721 714 707 700 700 707 700 707 687 694 707 700 687 681 669 657 663 675 0 0 0 0 0 0 0 0 0 0 0
    0 0 0 0 0 0 0 0 0 0 0 0 0 0 0 0 0 0 0 0 0 0 0 0 0 0 0 0 0 0 0 0 0 0 0 0 0 0 0 0 0 0 0 0 0 0 0 0 0 0 0 0 0 0 0 0 0 0 0 0 0 0 0 0 0 0 0 0 0 994 0 1187 1187 1226 0 0 0 0 0 1226 1226 1206 1226 1187 1226 1226 1226 1247 1268 1291 1314 1338 1415 1388 1388 1471 1388 1501 1471 1501 1501 1501 1533 1565 1533 1635 1565 1635 1795 1795 1839 1839 1887 1887 1936 1936 1936 1936 1989 2044 2299 2374 2628 2453 2943 3066 3504 3504 3504 3504 3504 3199 3066 3345 3345 3199 3199 3199 3345 3199 3504 4329 3345 3345 3345 3504 0 0 0 0 0 0 0 0 0 0 0 0 0 0 0 0 0 0 0 0 0 0 0 0 0 774 0 0 0 0 0 0 0 0 0 865 0 0 0 0 0 0 0 0 0 0 0 0 0 0 0 0 0 7359 0 0 0 1338 1471 0 0 0 0 0 0 0 0 1839 1839 1839 1711 1599 1565 1501 1501 1443 1443 1415 1415 1388 1388 1415 1362 1362 1362 1338 1338 1314 1314 1268 1247 1247 1226 1187 1187 1168 1132 1149 1132 1115 1132 1115 1115 1082 1051 1066 1051 1051 1022 994 919 955 943 968 886 876 886 886 865 919 876 865 855 0 0 0 0 0 799 791 782 791 774 774 774 791 799 774 774 782 782 758 750 743 735 721 714 700 700 700 707 694 700 687 687 694 694 675 675 657 651 651 663 0 0 0 0 0 0 0 0 0 0 0
    0 0 0 0 0 0 0 0 0 0 0 0 0 0 0 0 0 0 0 0 0 0 0 0 0 0 0 0 0 0 0 0 0 0 0 0 0 0 0 0 0 0 0 0 0 0 0 0 0 0 0 0 0 0 0 0 0 0 0 0 0 0 0 0 0 0 0 0 0 0 1149 1187 1168 1206 0 0 0 0 0 1226 1226 1206 1226 1187 1226 1226 1226 1268 1268 1291 1314 1338 1415 1388 1388 1501 1388 1533 1471 1501 1533 1533 1565 1599 1565 1635 1565 1635 1795 1839 1839 1839 1887 1936 1936 1936 1989 1989 2044 2102 2299 2453 2725 2628 2943 3066 3504 3504 3679 3679 3679 3345 3199 3504 3504 3345 3345 3345 3345 3345 3679 4906 3504 3504 3345 3679 0 0 0 0 0 0 0 0 0 0 0 0 0 0 0 0 0 0 0 0 0 0 0 0 0 0 0 0 0 0 0 0 0 0 0 0 0 0 0 0 0 0 0 0 0 0 0 0 0 0 0 0 0 7359 0 0 0 0 0 0 0 0 0 0 0 0 1936 1887 1887 1839 1752 1635 1599 1565 1501 1471 1471 1443 1415 1415 1388 1415 1338 1338 1362 1338 1338 1314 1291 1268 1247 1247 1226 1206 1206 1187 1132 1149 1115 1115 1132 1115 1098 1082 1051 1066 1051 1051 1022 994 908 955 943 981 886 876 886 886 865 919 876 865 855 0 0 0 0 0 799 791 782 799 782 782 782 791 799 782 774 782 782 758 758 743 728 721 714 700 700 700 707 694 700 687 687 687 687 675 675 663 651 651 657 0 0 0 0 0 0 0 0 0 0 0
    0 0 0 0 0 0 0 0 0 0 0 0 0 0 0 0 0 0 0 0 0 0 0 0 0 0 0 0 0 0 0 0 0 0 0 0 0 0 0 0 0 0 0 0 0 0 0 0 0 0 0 0 0 0 0 0 0 0 0 0 0 0 0 0 0 0 0 0 0 1036 1115 1149 1132 1206 1226 1268 1168 0 1226 1226 1226 1206 1226 1187 1226 1226 1247 1268 1268 1291 1314 1338 1415 1415 1388 1565 1388 1565 1533 1533 1565 1565 1599 1599 1599 1672 1599 1672 1795 1839 1887 1839 1887 1887 1936 1989 1989 1989 1989 2102 2299 2453 2830 2628 2943 3066 3345 3679 3873 3873 3873 3345 3345 3679 3679 3679 3679 3504 3504 3504 3873 4906 3504 3504 3199 3345 0 0 1795 0 0 0 0 0 0 0 0 0 0 0 0 0 0 0 0 0 0 0 0 0 0 0 0 0 0 0 0 0 0 886 919 886 0 0 0 0 0 294 0 292 0 0 0 0 0 0 0 0 0 0 0 0 0 0 0 0 0 0 0 0 0 0 1887 1839 1839 1839 1752 1635 1635 1599 1533 1501 1471 1471 1443 1415 1415 1415 1338 1338 1338 1314 1314 1291 1291 1268 1247 1247 1226 1187 1187 1187 1115 1132 1115 1115 1132 1115 1115 1098 1051 1082 1051 1051 1008 994 908 955 955 981 886 876 886 886 865 919 876 865 845 0 0 0 0 0 808 791 791 799 782 782 782 791 808 782 782 782 782 766 758 735 728 0 0 694 700 700 700 694 700 694 687 687 687 675 669 657 645 639 645 0 0 0 623 623 629 0 0 0 0 0
    0 0 0 0 0 0 0 0 0 0 0 0 0 0 0 0 0 0 0 0 0 0 0 0 0 0 0 0 0 0 0 0 0 0 0 0 0 0 0 0 0 0 0 0 0 0 0 0 0 0 0 0 0 0 0 0 0 0 0 0 0 0 0 0 0 0 0 0 0 1036 1132 1132 1149 1226 1247 1247 1168 1206 1206 1206 1206 1206 1226 1187 1226 1226 1226 1268 1268 1291 1314 1338 1415 1415 1415 1635 1415 1635 1565 1599 1599 1599 1635 1635 1635 1672 1635 1711 1795 1887 1887 1887 1887 1936 1989 1989 1989 1989 2044 2102 2299 2453 2830 2628 2830 3066 3345 3504 3873 4088 3873 3504 3679 4088 4088 3873 3873 3679 3679 3679 4088 4906 3504 3504 3345 3504 0 0 0 0 0 0 0 0 0 0 0 0 0 0 0 0 0 0 0 0 0 0 4088 5256 3504 0 0 0 0 0 0 0 0 0 0 0 0 0 0 0 0 296 0 294 0 0 0 0 0 0 0 0 0 0 0 0 0 0 0 0 0 0 0 618 0 1839 1839 1839 1795 1839 1752 1672 1672 1635 1565 1533 1533 1501 1501 1443 1443 1415 0 1338 1338 1291 1268 1268 1268 1247 1226 1247 1226 1187 1187 1206 1115 1149 1115 1132 1132 1149 1132 1098 1051 1098 1066 1066 1022 1008 908 955 955 981 897 876 886 0 0 919 876 865 845 357 357 357 350 0 799 791 0 0 782 782 791 791 808 791 782 782 782 774 758 743 0 0 0 700 707 707 707 694 707 694 694 694 687 681 669 651 645 639 645 0 0 0 629 629 634 0 0 0 0 0
    0 0 0 0 0 0 0 0 0 0 0 0 0 0 0 0 0 0 0 0 0 0 0 0 0 0 0 0 0 0 0 0 0 0 0 0 0 0 0 0 0 0 0 0 0 0 0 0 0 0 0 0 0 0 0 0 0 0 0 0 0 0 0 0 0 0 0 0 0 1051 1115 1115 1115 1206 1226 1226 1149 1187 1206 1206 1206 1206 1206 1187 1226 1247 1226 1268 1268 1291 1314 1338 0 0 1415 1635 0 1635 1599 1599 1635 1635 1635 1672 1635 1711 1635 1752 1795 1887 1887 1887 1887 1936 1989 1989 1989 2044 2044 2102 2299 2537 2830 2628 2830 2943 3199 3345 3679 3873 3873 3504 3679 3873 3873 3873 3873 3873 3679 3679 4329 4906 3504 3679 3504 3504 0 0 0 0 0 897 865 0 0 0 0 0 0 0 0 0 0 0 0 0 0 6690 4906 6133 4329 0 0 0 0 0 0 0 0 0 0 0 0 0 0 0 0 0 0 293 292 0 0 0 0 0 0 8177 0 7359 0 0 0 0 0 0 0 0 0 0 0 1752 1795 1795 1752 1795 1752 1711 1752 1672 1635 1599 1599 1565 1533 1471 1501 1415 0 1338 1314 1268 1268 1247 1247 1226 1206 1247 1206 1168 1187 1187 1115 1149 1132 1149 1149 1149 1132 1115 1066 1115 1066 1066 1036 1022 931 968 955 981 897 876 886 0 0 931 886 865 845 355 355 355 350 0 799 791 0 0 782 782 791 791 817 791 782 791 791 782 766 0 0 0 0 714 714 714 714 700 714 700 694 700 694 694 681 663 657 651 651 645 0 0 623 623 629 0 0 0 0 0
    0 0 0 0 0 0 0 0 0 0 0 0 0 0 0 0 0 0 0 0 0 0 0 0 0 0 0 0 0 0 0 0 0 0 0 0 0 0 0 0 0 0 0 0 0 0 0 0 0 0 0 0 0 0 0 0 0 0 0 0 0 0 0 0 0 0 0 0 0 1036 1066 1082 1066 1115 1168 1187 1115 1187 1187 1187 1187 1187 1206 1187 1226 1247 1247 1268 1291 1314 1338 1338 0 114 0 0 0 1635 1599 1599 1635 1635 1672 1672 1672 1711 1672 1752 1795 1839 1887 1887 1887 1936 1989 2044 1989 2044 2102 2102 2230 2453 2628 2537 2725 2830 3066 3345 3679 3873 3873 3504 3679 4088 4088 4088 4088 3873 3679 3873 4599 4906 3679 3679 3504 3504 0 0 0 0 0 908 865 0 0 0 0 0 0 0 0 0 0 0 0 0 7359 6133 5256 6133 4599 0 0 0 0 0 0 0 0 0 0 0 0 0 0 0 0 0 0 292 289 290 0 0 0 0 0 5661 0 7359 0 0 0 0 0 0 0 0 0 0 1711 1752 1795 1795 1795 1795 1752 1752 1795 1711 1672 1672 1672 1599 1565 1501 1533 1415 0 1338 1314 1268 1268 1247 1247 1226 1226 1268 1206 1168 1206 1206 1115 1149 1132 1149 1149 1149 1149 1115 1066 1132 1066 1082 1036 1022 943 968 968 981 897 886 886 0 0 931 886 865 845 0 355 355 348 0 799 791 0 0 791 791 791 791 817 799 782 791 791 791 782 766 743 735 721 721 714 714 714 694 714 694 694 700 694 694 687 669 657 651 645 639 0 0 618 618 0 0 0 0 0 0
    0 0 0 0 0 0 0 0 0 0 0 0 0 0 0 0 0 0 0 0 0 0 0 0 0 0 0 0 0 0 0 0 0 0 0 0 0 0 0 0 0 0 0 0 0 0 0 0 0 0 0 0 0 0 0 0 0 0 0 0 0 0 0 0 0 0 0 0 0 1036 1051 1066 1051 0 1132 1149 1098 1168 1187 1187 1187 1187 1206 1187 1206 1247 1247 1291 1291 1314 1362 1362 0 0 0 0 0 1672 1599 1635 1635 1635 1672 1672 1672 1752 1672 1752 1795 1839 1839 1887 1887 1936 1989 2044 2044 2044 2102 2102 2164 2299 2453 2374 2453 2725 2943 3199 3679 4088 4088 3504 3679 4088 4088 4088 4088 3873 3873 3873 4599 5661 3873 3873 3679 3873 0 0 0 0 0 0 886 0 0 73 73 0 0 0 0 0 0 0 0 0 0 6690 5256 5661 3873 4906 0 0 0 0 0 0 0 0 0 0 0 0 383 0 0 0 0 290 288 290 0 0 0 0 0 0 0 0 0 0 0 0 0 0 0 0 0 1599 1672 1711 1711 1711 1752 1752 1752 1711 1752 1711 1672 1672 1672 1635 1565 1501 1533 1415 0 1338 1338 1291 1291 1268 1268 1247 1226 1268 1206 1168 1206 1206 1115 1168 1132 1149 1149 1168 1132 1115 1051 1115 1051 1066 1036 1022 943 968 968 981 897 886 886 0 0 931 886 865 845 0 353 353 348 0 808 799 0 0 799 799 799 799 826 799 782 782 782 791 782 766 750 750 728 728 721 721 714 694 714 700 700 700 700 694 694 675 663 651 634 629 618 613 608 608 603 0 0 0 0 0
    0 0 0 0 0 0 0 0 0 0 0 0 0 0 0 0 0 0 0 0 0 0 0 0 0 0 0 0 0 0 0 0 0 0 0 0 0 0 0 0 0 0 0 0 0 0 0 0 0 0 0 0 0 0 0 0 0 0 0 0 0 0 0 0 0 0 0 0 0 1036 1051 1051 1036 0 1098 1132 1098 1168 1187 1187 1187 1187 1206 1206 1226 1291 1268 1314 1314 1362 1388 1388 0 0 0 0 0 1672 1599 1635 1635 1635 1672 1672 1672 1752 1672 1752 1752 1795 1795 1839 1839 1887 1989 2044 2044 2044 2102 2102 2164 2230 2453 2230 2374 2537 2725 0 3504 4088 4088 3504 3504 4088 4088 4088 4088 4088 3873 3873 4599 5661 3873 4088 3679 3873 0 84 0 0 0 0 0 0 0 0 73 0 0 0 0 0 0 0 0 0 0 0 6133 6133 4088 0 2230 0 0 0 0 0 0 0 0 0 0 0 377 381 379 0 0 0 289 290 0 0 0 0 0 0 0 1082 0 0 0 1168 0 0 0 0 0 1635 1711 1711 1711 1752 1795 1795 1752 1752 1752 1711 1672 1711 1672 1599 1565 1471 1501 1415 0 1362 1338 1291 1291 1268 1268 1247 1226 1268 1206 1168 1206 1187 1115 1168 1132 1168 1149 1149 1132 1098 1051 1115 1051 1051 1036 1022 943 981 968 981 897 876 886 0 0 931 886 865 0 0 353 353 348 0 808 0 0 0 808 808 799 799 826 808 782 774 782 799 782 766 758 743 728 721 721 707 707 681 700 694 694 700 0 0 0 669 657 634 623 0 613 608 603 603 603 0 0 0 0 0
    0 0 0 0 0 0 0 0 0 0 0 0 0 0 0 0 0 0 0 0 0 0 0 0 0 0 0 0 0 0 0 0 0 0 0 0 0 0 0 0 0 0 0 0 0 0 0 0 0 0 0 0 0 0 0 0 0 0 0 0 0 0 0 0 0 0 0 0 0 1036 1051 1051 1036 0 1082 1115 1098 1149 1168 1187 1187 1187 1226 1226 1247 1338 1314 1362 1362 1415 1415 1415 0 0 0 0 0 1672 1565 1635 1635 1635 1672 1672 1672 1711 1672 1752 1752 1795 1795 1839 1839 1936 1989 2044 2044 2044 2102 2102 2102 2164 2230 2102 2164 2164 2299 2299 0 3873 3873 3504 3345 4088 4088 4088 4088 4088 3873 3873 4329 5661 3873 4088 3679 3873 0 0 0 0 0 0 0 0 0 0 0 0 0 0 0 0 0 0 0 0 0 0 7359 7359 6133 0 0 0 0 0 0 0 0 0 0 0 0 0 377 379 377 0 0 0 288 0 0 0 0 0 0 0 0 1082 0 0 0 1168 1168 1149 0 0 1599 1672 1795 1752 1752 1795 1795 1795 1795 1752 1711 1711 1672 1672 0 0 1501 1443 1501 1415 0 1362 1338 1291 1291 1268 1268 1247 1206 1268 1206 1168 1206 1187 1132 1149 1132 1168 1168 1168 1149 1098 1051 1098 1036 1036 1022 1022 943 968 968 981 897 876 886 0 0 931 886 876 0 0 353 353 348 0 817 0 0 0 817 817 808 808 845 808 774 774 774 799 782 758 735 728 721 714 714 0 0 681 700 694 700 0 0 0 0 0 0 0 0 0 0 603 603 608 603 0 0 0 0 0
    0 0 0 0 0 0 0 0 0 0 0 0 0 0 0 0 0 0 0 0 0 0 0 0 0 0 0 0 0 0 0 0 0 0 0 0 0 0 0 0 0 0 0 0 0 0 0 0 0 0 0 0 0 0 0 0 0 0 0 0 0 0 0 0 0 0 0 0 0 1036 1051 1036 0 0 0 1098 1082 1149 1168 1168 1168 1187 1226 1226 1247 1362 1338 1388 1362 1415 1415 1415 0 0 0 1501 0 1599 1501 1599 1599 1635 1672 1635 1635 1711 1672 1752 1752 1795 1795 1795 1839 1936 1989 2044 2044 2044 2044 2102 2044 2102 2164 2044 2044 2102 2164 2102 0 3504 3873 3504 3345 3873 3873 3873 3873 4088 3873 3679 4329 5661 3873 4088 3873 3873 4088 0 0 6133 0 0 0 0 0 0 0 0 0 0 0 0 0 0 0 0 0 0 7359 7359 6690 0 0 0 0 0 0 0 0 0 0 0 0 0 0 0 0 0 0 0 0 0 0 0 0 0 0 0 0 0 0 0 0 1206 1206 0 0 0 1635 1795 1795 1795 1752 1795 1795 1795 1752 1752 1711 1672 1635 0 0 0 1471 1415 1471 1415 1338 1388 1362 1314 1291 1291 1291 1268 1226 1268 1206 1168 1226 1206 1132 1168 1149 1187 1168 1168 1149 1098 1051 1098 1036 1036 1022 1022 931 968 968 981 897 876 886 0 0 931 886 876 855 0 355 355 348 845 817 0 0 0 817 817 817 817 836 808 766 758 758 791 758 0 0 0 687 694 694 0 687 669 694 700 0 0 0 0 0 0 0 0 0 0 623 613 608 0 0 0 0 0 0 0
    0 0 0 0 0 0 0 0 0 0 0 0 0 0 0 0 0 0 0 0 0 0 0 0 0 0 0 0 0 0 0 0 0 0 0 0 0 0 0 0 0 0 0 0 0 0 0 0 0 0 0 0 0 0 0 0 0 0 0 0 0 0 0 0 0 0 0 0 0 1022 1036 1022 0 0 1082 1082 1082 1149 1168 1168 1168 1168 1226 1206 1247 1362 1314 1362 1362 1388 1415 1388 0 1415 1388 1471 1388 1533 1471 1565 1599 1599 1635 1635 1635 1711 1672 1711 1711 1752 1795 1795 1839 1887 1989 1989 1989 2044 2044 2102 2044 2102 2102 2044 2044 2102 2044 2044 1989 3199 3679 3504 3345 3873 3873 3873 3873 4088 3873 3679 4329 6133 4088 4329 4088 4088 4088 4906 7359 6133 0 0 0 0 0 0 0 0 0 0 0 0 0 0 0 0 0 0 8177 7359 6690 9199 0 0 0 0 0 0 0 0 0 0 0 0 0 0 379 0 385 0 0 0 0 0 0 0 0 0 0 0 0 0 0 0 1226 0 0 1415 1672 1795 1795 1795 1795 1795 1795 1795 1752 1752 1672 1672 1599 0 0 0 1443 1388 1471 1443 1338 1415 1388 1314 1314 1314 1291 1268 1206 1247 1187 1149 1206 1187 1132 1168 1149 1187 1168 1187 1168 1098 1051 1115 1022 1036 1022 1022 931 968 955 968 897 876 886 886 876 931 886 876 855 0 0 0 0 855 826 817 0 0 817 817 817 808 826 808 758 758 758 799 766 0 0 0 687 694 687 0 675 657 687 687 0 0 0 0 0 0 0 0 0 651 634 629 629 639 0 0 0 0 0 0
    0 0 0 0 0 0 0 0 0 0 0 0 0 0 0 0 0 0 0 0 0 0 0 0 0 0 0 0 0 0 0 0 0 0 0 0 0 0 0 0 0 0 0 0 0 0 0 0 0 0 0 0 0 0 0 0 0 0 0 0 0 0 0 0 0 0 0 0 0 1022 1036 1022 0 0 1066 1082 1098 1149 1168 1168 1187 1168 1226 1206 1226 1338 0 0 0 0 1388 1362 0 1388 1362 1415 1388 1501 1443 1533 1565 1599 1635 1599 1635 1711 1672 1752 1711 1795 1795 1795 1839 1887 1936 1989 1989 2044 2044 2102 2044 2102 2102 2102 2102 2102 2102 1989 2044 2628 3504 3504 3345 3873 3873 3873 3873 3873 3873 3679 4329 6133 4329 4599 4329 4329 4599 4906 7359 6133 0 0 0 0 0 0 0 0 0 0 0 0 0 0 0 0 0 0 8177 7359 7359 0 0 1752 1672 0 1599 1533 0 0 0 0 0 0 0 379 0 0 381 0 0 0 0 0 0 0 0 0 0 0 0 0 0 0 0 0 0 1599 1752 1839 1887 1839 1887 1887 1839 1839 1795 1795 1711 1672 0 0 0 1471 1443 1388 1471 1471 1362 1471 1388 1338 1338 1314 1338 1291 1226 1247 1187 1149 1226 1187 1132 1168 1149 1206 1168 1187 1168 1082 1051 1098 1008 1008 1008 1008 919 968 955 955 897 886 897 897 876 931 897 876 855 0 0 0 0 855 826 817 817 0 808 808 808 808 817 808 750 750 750 791 758 0 0 0 0 687 675 0 663 645 681 675 0 0 0 0 0 0 0 0 0 0 657 645 0 0 0 0 0 0 0 0
    0 0 0 0 0 0 0 0 0 0 0 0 0 0 0 0 0 0 0 0 0 0 0 0 0 0 0 0 0 0 0 0 0 0 0 0 0 0 0 0 0 0 0 0 0 0 0 0 0 0 0 0 0 0 0 0 0 0 0 0 0 0 0 0 0 0 0 0 0 1022 1022 1008 0 0 1066 1082 1098 1149 1168 1168 1187 1168 1226 1206 0 0 0 0 0 0 1362 1362 1362 1388 1362 1415 1388 1471 1443 1533 1565 1599 1635 1599 1635 1711 1672 1752 1752 1795 1795 1795 1839 1936 1936 1989 1989 2044 2102 2102 2102 2102 2102 2102 2102 2102 2164 2044 2102 2230 3345 3679 3199 3873 3873 3873 3873 3873 4088 3873 4329 6133 4329 4329 4088 4088 4329 4599 7359 4906 0 0 0 0 0 0 0 0 0 0 0 0 0 0 0 0 0 0 0 0 0 0 0 0 1635 0 1565 1471 0 0 0 0 0 0 0 0 0 0 0 0 0 0 0 0 0 0 0 0 0 0 0 0 0 0 0 0 1501 1672 1752 1839 1887 1887 1887 1887 1887 1887 1839 1795 1752 1711 0 0 0 1471 1443 1362 1471 1471 1388 1471 1415 1338 1338 1338 1362 1291 1226 1247 1187 1149 1226 1187 1132 1168 1168 1206 1168 1168 1168 1082 1051 1082 1008 981 981 994 908 955 943 955 897 886 908 897 876 931 897 876 855 876 0 0 0 855 817 817 817 845 808 799 799 799 808 808 750 750 758 791 0 0 0 0 0 651 639 634 634 634 669 675 687 0 0 0 0 0 721 0 0 0 0 0 0 0 0 0 0 0 0 0
    0 0 0 0 0 0 0 0 0 0 0 0 0 0 0 0 0 0 0 0 0 0 0 0 0 0 0 0 0 0 0 0 0 0 0 0 0 0 0 0 0 0 0 0 0 0 0 0 0 0 0 0 0 0 0 0 0 0 0 0 0 0 0 0 0 0 0 0 0 1008 1008 994 1008 1008 1051 1082 1098 1132 1149 1168 1168 1168 1206 1187 1206 0 0 0 0 0 1362 1362 1362 1388 1362 1415 1388 1471 1443 1533 1533 1565 1635 1599 1635 1711 1672 1752 1752 1839 1839 1839 1887 1936 1989 1989 2044 2044 2102 2102 2102 2102 2164 2164 2164 2164 2164 2102 2102 2230 3199 3504 3199 3873 3873 3873 3873 3873 4088 3679 4088 6133 3873 4088 3873 3873 3873 4088 0 0 0 0 0 0 0 0 0 0 0 0 0 0 0 0 0 0 0 0 0 0 0 0 0 0 0 0 0 0 0 0 0 0 0 0 0 0 0 0 0 0 0 0 0 0 0 0 0 681 0 651 0 0 0 0 0 1443 1599 1752 1795 1887 1936 1887 1936 1887 1887 1887 1839 1839 1752 1711 0 0 1471 1443 1443 1362 1471 1471 1388 1501 1415 1362 1362 1362 1388 1314 1226 1247 1187 1149 1226 1187 1132 1187 1168 1206 1168 1187 1168 1082 1051 1066 994 955 968 968 897 943 943 943 897 886 908 897 876 931 886 876 855 876 0 0 0 865 817 817 817 845 799 791 799 791 799 808 758 766 766 799 0 0 0 0 0 639 634 629 629 634 663 669 681 687 681 687 687 694 714 0 687 651 0 0 0 0 0 0 0 0 0 0
    0 0 0 0 0 0 0 0 0 0 0 0 0 0 0 0 0 0 0 0 0 0 0 0 0 0 0 0 0 0 0 0 0 0 0 0 0 0 0 0 0 0 0 0 0 0 0 0 0 0 0 0 0 0 0 0 0 0 0 0 0 0 0 0 0 0 0 0 0 1008 1008 1008 1008 1008 1066 1082 1098 1132 1149 1149 1168 1168 1226 1206 1206 0 0 0 0 0 1362 1362 1362 1388 1388 1415 1388 1471 1443 1501 1533 1565 1635 1599 1635 1711 1672 1752 1752 1839 1887 1839 1936 1936 1989 2044 2044 2102 2102 2102 2102 2102 2164 2164 2230 2230 2230 2230 2230 2453 3199 3504 3199 3873 3873 3679 3679 3873 4088 3679 3873 5661 3679 3873 4088 4329 3873 3873 8177 0 0 0 0 0 0 0 0 0 0 0 0 0 0 0 0 0 0 0 0 0 0 0 0 0 0 0 0 0 0 0 0 0 0 0 0 0 0 0 0 0 0 0 0 0 0 0 0 687 669 645 634 0 0 0 0 1599 1635 1752 1752 1839 1887 1887 1936 1887 1887 1887 1839 1839 1752 1672 1501 1501 1443 1415 1443 1362 1443 1443 1388 1501 1415 1362 1362 1362 1362 1314 1226 1247 1187 1149 1226 1187 1149 1187 1168 1226 1187 1206 1168 1066 1051 1066 994 931 955 955 897 943 943 943 908 886 919 897 876 931 886 876 855 876 0 0 0 865 817 817 817 836 799 791 791 791 791 808 766 774 774 808 0 0 0 0 0 0 0 0 613 618 651 651 675 681 681 687 687 694 721 0 0 0 0 0 0 0 0 0 0 0 0 0
    0 0 0 0 0 0 0 0 0 0 0 0 0 0 0 0 0 0 0 0 0 0 0 0 0 0 0 0 0 0 0 0 0 0 0 0 0 0 0 0 0 0 0 0 0 0 0 0 0 0 0 0 0 0 0 0 0 0 0 0 0 0 0 0 0 0 0 0 0 1022 1022 1022 1022 1022 1066 1098 1098 1132 1149 1168 1168 1168 1226 1206 1226 0 0 0 0 0 1362 1362 1362 1388 1388 1415 1388 1471 1443 1501 1533 1565 1635 1599 1635 1672 1635 1752 1752 1839 1887 1887 1936 1936 1989 2044 2044 2102 2102 2164 2164 2164 2164 2164 2230 2299 2299 2299 2299 2628 3066 3345 3199 3679 3679 3504 3504 3873 3873 3679 3679 4906 3873 3873 4599 4599 3873 3873 6690 0 0 0 0 0 0 0 0 0 0 0 0 0 0 0 0 0 0 0 0 0 0 0 0 0 0 0 0 0 0 0 0 0 0 0 0 0 0 0 0 0 0 0 0 0 0 0 0 0 0 0 0 0 0 0 1711 1795 1795 1839 1795 1839 1887 1887 1936 1936 1887 1887 1839 1839 1795 1672 1565 1501 1471 1443 1443 1388 1443 1443 1388 1471 1415 1362 1338 1338 1338 1314 1206 1247 1168 1149 1226 1187 1149 1187 1168 1226 1187 1206 1168 1066 1051 1066 981 931 955 955 908 943 943 943 908 897 931 908 876 931 886 876 855 876 0 0 0 865 817 817 817 826 791 782 782 782 782 808 766 766 766 808 0 0 0 0 0 608 603 593 608 613 651 651 681 687 0 694 694 0 0 0 0 0 0 0 0 0 0 0 0 0 0 0
    0 0 0 0 0 0 0 0 0 0 0 0 0 0 0 0 0 0 0 0 0 0 0 0 0 0 0 0 0 0 0 0 0 0 0 0 0 0 0 0 0 0 0 0 0 0 0 0 0 0 0 0 0 0 0 0 0 0 0 0 0 0 0 0 0 0 0 0 0 1022 1022 1022 1036 1036 1066 1115 1115 1149 1168 1168 1168 1187 1226 1226 1247 1291 0 0 0 0 1338 1338 1338 1362 1362 1415 1388 1471 1443 1533 1533 1565 1635 1599 1635 1672 1672 1752 1752 1839 1887 1887 1936 1936 1936 2044 2044 2102 2102 2102 2164 2164 2164 2230 2230 2299 2374 2374 2453 2628 2943 3199 3199 3679 3679 3504 3504 3873 3873 3679 3679 4906 3873 4088 4906 5256 3873 3873 0 0 0 0 0 0 0 0 0 0 0 0 0 0 0 0 0 0 0 0 0 0 0 0 0 0 0 0 0 0 0 0 0 0 0 0 0 0 0 0 0 0 0 0 0 0 0 0 0 0 0 0 0 0 0 0 1887 1887 1887 1887 1887 1887 1936 1936 1936 1887 1887 1887 1839 1795 1752 1672 1599 1501 1443 1443 1415 1388 1415 1443 1388 1471 1415 1362 1362 1362 1362 1314 1226 1247 1187 1149 1226 1187 1132 1187 1168 1226 1168 1187 1149 1066 1051 1066 981 919 955 955 908 943 943 943 919 908 931 908 876 919 876 865 845 876 0 0 0 855 817 817 817 826 782 774 774 774 774 808 766 766 774 808 782 0 0 0 0 603 598 593 603 618 663 663 681 687 0 700 694 728 743 0 0 0 0 0 0 0 0 0 0 0 0 0
    0 0 0 0 0 0 0 0 0 0 0 0 0 0 0 0 0 0 0 0 0 0 0 0 0 0 0 0 0 0 0 0 0 0 0 0 0 0 0 0 0 0 0 0 0 0 0 0 0 0 0 0 0 0 0 0 0 0 0 0 0 0 0 0 0 0 0 0 0 1022 1022 1022 1036 1036 1066 1115 1115 1168 1168 1168 1168 1187 1226 1226 1247 1268 1247 0 1268 0 0 1314 1338 1338 1362 1388 1388 1471 1471 1533 1565 1565 1635 1599 1635 1711 1672 1752 1752 1839 1887 1839 1936 1936 1936 2044 2044 2102 2102 2164 2164 2164 2230 2230 2230 2299 2374 2374 2453 2628 2830 3199 3199 3679 3679 3345 3345 3873 3873 3679 3679 4906 4088 4088 5256 5661 4088 3873 0 0 0 0 0 0 0 0 0 0 0 0 0 0 0 0 0 0 0 0 0 0 0 0 0 0 0 0 0 0 0 0 0 0 0 0 0 0 0 0 0 0 0 0 0 0 0 0 0 0 0 0 0 0 0 0 1887 1936 1936 1887 1887 1887 1936 1936 1989 1936 1887 1887 1839 1839 1752 1672 1599 1501 1501 1471 1415 1388 1415 1443 1388 1471 1443 1362 1388 1388 1388 1338 1247 1268 1187 1168 1226 1187 1132 1168 1168 1226 1149 1187 1132 1066 1051 1051 968 931 955 955 908 943 943 943 919 908 931 908 886 919 876 865 845 876 0 0 0 855 808 808 808 826 782 766 766 766 766 808 774 774 774 808 791 774 774 0 0 618 608 603 613 618 663 657 675 681 681 694 687 0 735 0 0 0 0 0 0 0 0 0 0 0 0 0
    0 0 0 0 0 0 0 0 0 0 0 0 0 0 0 0 0 0 0 0 0 0 0 0 0 0 0 0 0 0 0 0 0 0 0 0 0 0 0 0 0 0 0 0 0 0 0 0 0 0 0 0 0 0 0 0 0 0 0 0 0 0 0 0 0 0 0 0 0 1036 1036 1022 1051 1051 1066 1098 1115 1149 1168 1168 1168 1168 1206 1226 1226 1268 1247 1268 0 0 0 1291 1314 1314 1338 1388 1388 1471 1471 1501 1533 1565 1635 1599 1635 1672 1672 1752 1795 1795 1839 1839 1887 1936 1887 1989 2044 2102 2102 2164 2164 2230 2230 2230 2299 2374 2374 2453 2537 2725 2830 3066 3066 3679 3679 3345 3345 3679 3873 3679 3679 4599 3873 4088 5661 6133 4088 3873 4599 0 0 0 0 0 0 0 0 0 0 0 0 0 0 0 0 0 0 0 0 0 0 0 0 0 0 0 0 0 0 0 0 0 0 0 0 0 0 0 0 0 0 0 0 0 0 0 0 0 0 0 0 0 0 1887 1887 1936 1936 1887 1887 1936 1989 1936 1989 1936 1887 1887 1887 1839 1752 1672 1599 1533 1501 1471 1443 1415 1415 1443 1388 1471 1443 1388 1388 1415 1415 1362 1268 1291 1187 1187 1226 1187 1132 1168 1168 1206 1149 1168 1115 1066 1051 1036 968 931 955 955 908 943 943 943 931 919 943 919 886 908 865 855 845 865 0 0 0 845 808 808 808 817 782 758 766 766 766 808 774 774 782 808 799 791 791 750 0 669 645 639 634 634 669 657 675 687 681 687 681 0 0 0 0 0 0 0 0 0 0 0 0 0 0 0
    0 0 0 0 0 0 0 0 0 0 0 0 0 0 0 0 0 0 0 0 0 0 0 0 0 0 0 0 0 0 0 0 0 0 0 0 0 0 0 0 0 0 0 0 0 0 0 0 0 0 0 0 0 0 0 0 0 0 0 0 0 0 0 0 0 0 0 0 0 1036 1036 1036 1066 1051 1066 1082 1115 1132 1149 1149 1149 1168 1206 1226 1247 1291 1247 1268 0 0 0 1291 1314 1314 1338 1388 1415 1471 1471 1501 1533 1533 1635 1599 1635 1711 1711 1795 1795 1839 1887 1887 1887 1936 1936 1989 2044 2102 2164 2164 2164 2230 2299 2299 2299 2374 2453 2537 2628 2725 2830 2943 3066 3679 3679 3345 3345 3679 3873 3873 3679 4329 3679 3873 5256 5661 3873 3504 3873 0 0 0 0 0 0 0 0 0 0 0 0 0 0 0 0 0 0 0 0 0 0 0 0 0 0 0 0 0 0 0 0 0 0 0 0 0 0 0 0 0 0 0 0 0 0 0 0 0 0 0 0 0 0 1936 1936 1936 1936 1936 1936 1936 1989 1936 1989 1936 1887 1887 1839 1752 1711 1599 1533 1471 1471 1443 1415 1388 1388 1415 1388 1443 1415 1388 1388 1415 1415 1388 1291 1291 1187 1187 1226 1187 1132 1168 1149 1206 1132 1168 1098 1066 1051 1022 981 943 955 955 919 943 955 955 931 919 943 919 886 897 865 845 836 865 0 0 0 845 817 817 817 826 782 758 766 766 766 808 774 774 774 799 782 0 750 0 657 663 651 651 645 651 669 663 681 694 687 694 681 0 0 651 0 0 0 0 0 0 0 0 0 0 0 0
    0 0 0 0 0 0 0 0 0 0 0 0 0 0 0 0 0 0 0 0 0 0 0 0 0 0 0 0 0 0 0 0 0 0 0 0 0 0 0 0 0 0 0 0 0 0 0 0 0 0 0 0 0 0 0 0 0 0 0 0 0 0 0 0 0 0 0 0 0 1051 1051 1051 1066 1066 1082 1082 1115 1132 1149 1149 1149 1168 1206 1226 1247 1314 1268 1291 1291 0 0 1314 1338 1338 1362 1388 1415 1471 1471 1501 1533 1533 1599 1565 1635 1672 1672 1795 1795 1839 1887 1887 1887 1936 1936 2044 2044 2044 2164 2164 2230 2299 2299 2299 2299 2374 2453 2537 2628 2725 2830 2943 3066 3679 3679 3345 3345 3679 3873 3873 3504 4088 3679 3679 4906 5661 3679 3345 3504 0 0 0 0 0 0 0 0 0 0 0 0 0 0 0 0 0 0 0 0 0 0 0 0 0 0 0 0 0 0 0 0 0 0 0 0 0 0 0 0 0 0 0 0 0 0 0 0 0 0 0 0 0 0 1936 1989 1989 1989 1936 1936 1989 1989 1936 1936 1887 1839 1839 1752 1711 1672 1565 1533 1501 1501 1443 1388 1388 1362 1415 1388 1443 1415 1362 1388 1415 1415 1388 1291 1291 1187 1187 1206 1187 1132 1149 1149 1187 1132 1168 1082 1066 1036 1022 981 955 968 968 919 955 955 968 943 919 943 919 886 897 855 845 836 865 0 0 0 845 817 817 817 826 782 758 766 766 766 808 774 774 774 799 782 0 0 0 645 663 651 657 657 657 669 669 687 700 700 707 694 0 0 623 0 603 0 598 0 0 0 0 0 0 0 0
    0 0 0 0 0 0 0 0 0 0 0 0 0 0 0 0 0 0 0 0 0 0 0 0 0 0 0 0 0 0 0 0 0 0 0 0 0 0 0 0 0 0 0 0 0 0 0 0 0 0 0 0 0 0 0 0 0 0 0 0 0 0 0 0 0 0 0 0 0 1051 1051 1051 1066 1066 1082 1082 1098 1149 1132 1132 1149 1168 1206 1226 1226 1314 1268 1291 1291 0 1314 1314 1338 1338 1362 1388 1415 1471 1443 1501 1501 1501 1599 1565 1635 1672 1672 1752 1795 1795 1839 1839 1887 1936 1887 2044 1989 2044 2164 2164 2230 2299 2299 2299 2299 2374 2453 2537 2537 2725 2725 2830 2943 3504 3504 3199 3199 3679 3873 3873 3504 3873 3873 3873 5256 5661 3873 3504 3504 0 0 0 0 0 0 0 0 0 0 0 0 0 0 0 0 0 0 0 0 0 0 0 0 0 0 0 0 0 0 0 0 0 0 0 0 0 0 0 0 0 0 0 0 0 0 0 0 0 0 0 0 0 1936 1989 1989 1989 1989 1936 1989 2044 1989 1989 1936 1887 1839 1795 1752 1672 1599 1565 1533 1501 1501 1443 1415 1415 1362 1415 1388 1443 1415 1388 1415 1415 1415 1415 1291 1291 1187 1187 1206 1168 1115 1149 1132 1187 1115 1149 1066 1051 1036 1036 994 968 981 981 931 968 968 968 943 919 943 931 886 886 855 836 836 855 0 0 0 836 817 817 817 826 782 758 766 766 766 817 774 774 766 799 0 0 0 0 651 675 657 663 663 657 669 663 687 694 694 707 687 0 663 623 0 608 0 598 0 0 603 0 0 0 0 0
    0 0 0 0 0 0 0 0 0 0 0 0 0 0 0 0 0 0 0 0 0 0 0 0 0 0 0 0 0 0 0 0 0 0 0 0 0 0 0 0 0 0 0 0 0 0 0 0 0 0 0 0 0 0 0 0 0 0 0 0 0 0 0 0 0 0 0 0 0 1051 1066 1066 1066 1066 1082 1082 1098 1149 1132 1132 1149 1168 1206 1226 1226 1314 1268 1291 1291 1314 0 1314 1338 1338 1362 1388 1415 1471 1443 1501 1501 1501 1599 1565 1635 1672 1672 1752 1795 1795 1839 1839 1887 1887 1887 1989 1989 1989 2102 2164 2230 2299 2299 2299 2299 2374 2453 2537 2537 2725 2725 2830 2943 3504 3504 3199 3199 3679 3873 3873 3679 3873 3873 4088 5256 6133 4088 3679 3679 0 0 0 0 0 0 0 0 0 0 0 0 0 0 0 0 0 0 0 0 0 0 0 0 0 0 0 0 0 0 0 0 0 0 0 0 0 0 0 0 0 0 0 0 0 0 0 0 0 0 0 0 0 1989 1989 2044 1989 1989 1936 1989 1936 1936 1887 1839 1795 1795 1752 1711 1672 1599 1565 1565 1533 1501 1443 1415 1415 1362 1415 1388 1443 1415 1388 1415 1415 1415 1415 1291 1291 1206 1187 1187 1168 1115 1132 1132 1168 1098 1132 1066 1066 1036 1036 994 994 994 994 943 981 981 981 943 931 943 931 897 886 845 836 836 855 0 0 0 836 826 826 826 826 791 758 766 766 766 817 750 750 750 782 735 0 0 681 669 687 675 681 669 669 675 663 694 700 700 700 681 0 634 618 0 608 0 603 0 608 603 0 0 0 0 0
    0 0 0 0 0 0 0 0 0 0 0 0 0 0 0 0 0 0 0 0 0 0 0 0 0 0 0 0 0 0 0 0 0 0 0 0 0 0 0 0 0 0 0 0 0 0 0 0 0 0 0 0 0 0 0 0 0 0 0 0 0 0 0 0 0 0 0 0 0 1066 1082 1066 1082 1082 1098 1082 1098 1149 1149 1132 1149 1168 1206 1268 1268 1338 1314 1314 1314 1314 1314 1314 1338 1338 1362 1388 1415 1471 1443 1501 1501 1533 1599 1565 1635 1672 1672 1752 1795 1795 1839 1839 1887 1887 1887 1989 2044 1989 2164 2102 2230 2230 2299 2299 2299 2374 2453 2537 2628 2725 2830 2830 3066 3504 3504 3345 3345 3679 4088 4088 3679 3873 4088 4088 5256 5661 4088 3679 3679 0 0 0 0 0 0 0 0 0 0 0 0 0 0 0 0 0 0 0 0 0 0 0 0 0 0 0 0 0 0 0 0 0 0 0 0 0 0 0 0 0 0 0 0 0 0 0 0 0 0 0 0 1989 2044 2044 2044 2044 1989 1936 1989 1936 1887 1887 1839 1795 1752 1752 1711 1635 1599 1565 1565 1533 1501 1443 1415 1415 1388 1443 1388 1443 1415 1388 1415 1415 1415 1415 1268 1268 1206 1187 1168 1168 1115 1132 1115 1168 1082 1098 1066 1066 1051 1036 1008 1008 1008 1008 943 981 981 981 955 931 943 943 897 876 845 836 826 855 0 0 0 836 826 826 826 826 791 758 766 766 766 817 735 735 728 750 714 0 707 694 687 700 687 694 681 687 681 675 700 700 700 707 675 681 623 623 618 613 608 603 608 608 603 0 0 0 0 0
    0 0 0 0 0 0 0 0 0 0 0 0 0 0 0 0 0 0 0 0 0 0 0 0 0 0 0 0 0 0 0 0 0 0 0 0 0 0 0 0 0 0 0 0 0 0 0 0 0 0 0 0 0 0 0 0 0 0 0 0 0 0 0 0 0 0 0 0 0 1066 1082 1082 1082 1082 1098 1082 1098 1149 1149 1132 1132 1168 1206 1268 1268 1338 1314 1314 1314 1314 1314 1338 1338 1338 1362 1388 1415 1471 1471 1501 1501 1533 1599 1565 1635 1672 1711 1752 1839 1839 1839 1839 1887 1887 1887 1989 2044 1936 2102 2102 2299 2230 2374 2374 2299 2374 2537 2537 2628 2628 2830 2943 3066 3504 3504 3504 3345 3679 4088 4088 3873 3679 4088 4088 4906 5661 4088 3679 3679 4599 0 0 0 0 0 0 0 0 0 0 0 0 0 0 0 0 0 0 0 0 0 0 0 0 0 0 0 0 0 0 0 0 0 0 0 0 0 0 0 0 0 0 0 0 0 0 0 0 0 0 0 2044 2044 2044 2044 1989 1936 1936 1887 1887 1839 1839 1795 1752 1752 1752 1672 1599 1599 1565 1533 1533 1533 1415 1415 1443 1388 1443 1388 1443 1443 1388 1415 1388 1388 1388 1268 1268 1206 1187 1168 1168 1115 1115 1115 1149 1082 1098 1051 1066 1036 1022 1008 1008 1008 1008 931 981 981 981 955 919 943 943 897 876 845 826 826 0 0 0 836 836 826 826 826 0 791 758 766 766 766 817 728 735 728 743 714 0 707 694 694 700 694 700 687 694 687 675 694 700 694 675 629 623 613 618 613 608 608 603 608 603 603 0 0 0 0 0
    0 0 0 0 0 0 0 0 0 0 0 0 0 0 0 0 0 0 0 0 0 0 0 0 0 0 0 0 0 0 0 0 0 0 0 0 0 0 0 0 0 0 0 0 0 0 0 0 0 0 0 0 0 0 0 0 0 0 0 0 0 0 0 0 0 0 0 0 0 1066 1082 1082 1098 1098 1115 1082 1098 1149 1149 1132 1132 1168 1206 1247 1247 1338 0 1338 1314 1338 1314 1338 1338 1362 1388 1415 1443 1471 1471 1501 1501 1533 1565 1599 1635 1672 1711 1752 1795 1839 1839 1839 1887 1887 1887 1989 2044 1989 2102 2164 2374 2230 2453 2374 2374 2453 2537 2628 2628 2628 2830 2830 3066 3504 3504 3345 3345 3504 3873 3873 3679 3504 3873 3873 4599 5661 4088 3679 3679 4329 0 0 0 0 0 0 0 0 0 0 0 0 0 0 0 0 0 0 0 0 0 0 0 0 0 0 0 0 0 0 0 0 0 0 0 0 0 0 0 0 0 0 0 0 0 0 0 0 0 0 1989 2044 2044 2044 2044 1989 1936 1936 1887 1839 1839 1795 1752 1752 1711 1711 1672 1599 1599 1565 1533 1533 1533 1443 1471 1443 1388 1471 1415 1443 1443 1388 1415 1362 1362 1362 1247 1247 1206 1168 1168 1168 1115 1115 1115 1149 1082 1098 1051 1066 1036 1022 1022 1022 1008 1022 931 981 994 994 955 919 943 943 897 876 845 826 826 855 0 0 836 836 826 826 826 0 791 758 766 766 766 817 735 743 728 743 714 0 0 687 0 700 694 700 687 694 687 675 700 700 681 634 613 613 613 618 608 603 603 598 603 603 598 0 0 0 0 0
    0 0 0 0 0 0 0 0 0 0 0 0 0 0 0 0 0 0 0 0 0 0 0 0 0 0 0 0 0 0 0 0 0 0 0 0 0 0 0 0 0 0 0 0 0 0 0 0 0 0 0 0 0 0 0 0 0 0 0 0 0 0 0 0 0 0 0 0 0 1066 1082 1082 1098 1098 1115 1082 1098 1149 1168 1149 1149 1187 1206 1268 1268 0 0 1338 1314 1338 1314 1338 1338 1362 1388 1415 1443 1501 1471 1533 1501 1565 1565 1599 1635 1672 1711 1752 1795 1839 1839 1839 1887 1887 1936 1989 2044 1989 2164 2164 2374 2230 2453 2453 2453 2453 2537 2628 2628 2628 2830 2830 3066 3345 3504 3345 3345 3504 3679 3679 3679 3504 3679 3873 4329 5256 4088 3679 3679 4088 0 0 0 0 0 0 0 0 0 0 0 0 0 0 0 0 0 0 0 0 0 0 0 0 0 0 0 0 0 0 0 0 0 0 0 0 0 0 0 0 0 0 0 0 0 0 0 0 0 0 2044 2044 2102 2102 2044 2044 2044 1936 1936 1839 1839 1839 1752 1752 1711 1672 1672 1635 1635 1599 1533 1565 1533 1443 1501 1471 1415 1471 1415 1443 1443 1388 1388 1338 1338 1338 1226 1226 1187 1168 1149 1187 1115 1115 1115 1149 1082 1098 1066 1066 1036 1036 1022 1036 1022 1022 931 994 994 994 968 919 943 943 897 876 845 826 826 855 855 836 836 836 826 826 826 0 791 758 766 766 766 817 743 758 728 750 714 0 0 0 0 0 687 694 687 700 694 681 700 694 675 634 618 618 613 618 608 608 603 598 598 598 593 0 0 0 0 0
    0 0 0 0 0 0 0 0 0 0 0 0 0 0 0 0 0 0 0 0 0 0 0 0 0 0 0 0 0 0 0 0 0 0 0 0 0 0 0 0 0 0 0 0 0 0 0 0 0 0 0 0 0 0 0 0 0 0 0 0 0 0 0 0 0 0 0 0 0 1066 1066 1082 1082 1098 1115 1082 1098 1168 1168 1168 1187 1206 1226 1268 1268 1314 0 1338 1314 1338 1314 1362 1338 1388 1415 1443 1443 1533 1471 1533 1533 1565 1599 1599 1672 1672 1672 1752 1795 1795 1839 1839 1887 1887 1936 1989 2044 1989 2230 2102 2453 2164 2453 2374 2453 2453 2537 2537 2628 2628 2830 2830 3066 3345 3345 3345 3345 3504 3679 3679 3679 3345 3679 3873 4329 4906 4088 3873 3873 4088 0 0 0 0 0 0 0 0 0 0 0 0 0 0 0 0 0 0 0 0 0 0 0 0 0 0 0 0 0 0 0 0 0 0 0 0 0 0 0 0 0 0 0 0 0 0 0 0 0 2044 2044 2102 2102 2102 2102 2044 2044 1936 1887 1795 1795 1752 1711 1711 1672 1672 1672 1635 1635 1599 1565 1565 1533 1471 1533 1501 1415 1501 1443 1443 1443 1388 1362 1314 1314 1314 1226 1206 1187 1149 1132 1187 1115 1115 1115 1149 1098 1098 1066 1066 1051 1051 1036 1036 1022 1008 931 994 994 994 968 919 955 943 897 876 845 826 826 855 855 836 836 836 826 826 826 0 791 766 766 766 766 826 750 774 728 758 707 0 0 0 0 0 694 0 0 735 714 681 714 681 669 629 623 618 618 618 613 608 608 598 598 593 588 0 0 0 0 0
    0 0 0 0 0 0 0 0 0 0 0 0 0 0 0 0 0 0 0 0 0 0 0 0 0 0 0 0 0 0 0 0 0 0 0 0 0 0 0 0 0 0 0 0 0 0 0 0 0 0 0 0 0 0 0 0 0 0 0 0 0 0 0 0 0 0 0 0 0 1051 1082 1082 1098 1098 1132 1098 1098 1187 1187 1187 1187 1226 1247 1268 1268 1291 1291 1338 1314 1338 1314 1338 1338 1388 1415 1443 1443 1533 1471 1533 1501 1565 1599 1599 1672 1672 1672 1711 1752 1795 1795 1795 1887 1887 1936 1989 2044 1989 2164 2102 2374 2102 2453 2374 2374 2453 2453 2537 2628 2537 2830 2830 2943 3345 3345 3199 3345 3345 3504 3504 3504 3345 3504 3679 4329 4906 4599 4329 4329 4599 0 0 0 0 0 0 0 0 0 0 0 0 0 0 0 0 0 0 0 0 0 0 0 0 0 0 0 0 0 0 0 0 0 0 0 0 0 0 0 0 0 0 0 0 0 0 0 0 0 2102 2102 2102 2102 2102 2102 2102 2044 1936 1839 1795 1795 1752 1711 1711 1672 1672 1672 1672 1672 1635 1599 1599 1599 1533 1599 1565 1471 1565 1471 1471 1443 1415 1338 1291 1291 1291 1206 1187 1187 1149 1132 1187 1115 1115 1115 1149 1098 1098 1082 1082 1051 1051 1036 1022 1022 1008 931 994 994 994 968 931 955 955 908 876 845 826 826 855 855 826 826 826 826 826 826 0 791 766 766 766 766 826 758 782 735 774 714 0 735 0 0 0 0 799 782 799 766 0 0 657 651 623 623 618 618 618 608 608 603 598 598 593 588 0 0 0 0 0
    0 0 0 0 0 0 0 0 0 0 0 0 0 0 0 0 0 0 0 0 0 0 0 0 0 0 0 0 0 0 0 0 0 0 0 0 0 0 0 0 0 0 0 0 0 0 0 0 0 0 0 0 0 0 0 0 0 0 0 0 0 0 0 0 0 0 0 0 0 1066 1082 1098 1098 1098 1149 1098 1115 1187 1206 1187 1187 1226 1226 1268 1247 1268 1291 1314 1291 1314 1291 1338 1338 1388 1388 1415 1415 1501 1471 1533 1501 1565 1565 1599 1635 1711 1672 1711 1752 1795 1795 1795 1887 1887 1936 1989 2044 2044 2164 2102 2374 2102 2453 2374 2374 2453 2453 2537 2537 2537 2830 2830 2943 3345 3345 3199 3345 3345 3504 3345 3504 3345 3504 3679 4329 4906 5256 4599 4599 4599 0 0 0 0 0 0 0 0 0 0 0 0 0 0 0 0 0 0 0 0 0 0 0 0 0 0 0 0 0 0 0 0 0 0 0 0 0 0 0 0 0 0 0 0 0 0 0 0 2044 2102 2164 2102 2164 2164 2102 2164 2044 1936 1887 1795 1795 1752 1711 1672 1672 1672 1711 1672 1672 1635 1599 1599 1635 1533 1635 1599 1501 1599 1501 1471 1471 1415 1362 1291 1291 1291 1206 1187 1206 1149 1149 1206 1115 1115 1115 1168 1098 1082 1082 1066 1051 1051 1022 1022 1022 1008 943 994 994 994 981 931 955 955 908 876 845 826 826 855 855 826 826 826 826 826 826 826 791 766 766 766 766 826 766 791 750 791 758 758 766 735 0 0 782 836 808 826 0 0 0 623 634 618 623 623 618 613 608 608 603 598 598 593 588 0 0 0 0 0
    0 0 0 0 0 0 0 0 0 0 0 0 0 0 0 0 0 0 0 0 0 0 0 0 0 0 0 0 0 0 0 0 0 0 0 0 0 0 0 0 0 0 0 0 0 0 0 0 0 0 0 0 0 0 0 0 0 0 0 0 0 0 0 0 0 0 0 0 0 1051 1082 1098 1098 1115 1168 1115 1115 1206 1226 1206 1206 1226 1226 1268 1268 1268 1291 1314 1314 1314 1291 1338 1338 1388 1415 1415 1415 1533 1471 1533 1501 1599 1565 1599 1672 1711 1672 1711 1752 1795 1795 1795 1887 1887 1936 1989 2044 2044 2102 2102 2299 2102 2453 2374 2453 2453 2453 2537 2537 2537 2830 2943 3066 3345 3345 3199 3199 3345 3504 3345 3504 3504 3345 3679 4329 4906 5661 4906 4906 4906 0 0 0 0 0 0 0 0 0 0 0 0 0 0 0 0 0 0 0 0 0 0 0 0 0 0 0 0 0 0 0 0 0 0 0 0 0 0 0 0 0 0 0 0 0 0 0 0 2102 2164 2164 2102 2164 2164 2230 2164 2102 1989 1887 1887 1839 1795 1752 1711 1711 1711 1711 1672 1711 1635 1635 1599 1672 1565 1635 1635 1533 1599 1533 1471 1471 1415 1362 1291 1291 1291 1226 1187 1226 1187 1168 1206 1132 1132 1132 1168 1098 1115 1098 1082 1066 1051 1022 1022 1022 1022 943 1008 1008 1008 994 943 955 955 908 876 845 826 817 845 845 826 817 817 817 817 817 826 791 758 766 766 766 826 774 799 774 808 791 799 791 0 0 0 808 836 826 826 0 0 681 618 639 623 623 623 618 618 608 608 608 603 598 593 588 0 0 0 0 0
    0 0 0 0 0 0 0 0 0 0 0 0 0 0 0 0 0 0 0 0 0 0 0 0 0 0 0 0 0 0 0 0 0 0 0 0 0 0 0 0 0 0 0 0 0 0 0 0 0 0 0 0 0 0 0 0 0 0 0 0 0 0 0 0 0 0 0 0 0 1051 1082 1098 1098 1115 1168 1115 1115 1206 1247 1226 1226 1247 1247 1268 1291 1291 1291 1314 1314 1314 1291 1338 1338 1388 1415 1415 1415 1533 1501 1533 1471 1599 1565 1599 1635 1711 1672 1711 1752 1795 1752 1795 1887 1887 1936 1989 2044 2044 2164 2102 2299 2102 2453 2299 2453 2537 2453 2537 2628 2628 2830 2943 2943 3345 3345 3199 3199 3199 3504 3504 3504 3504 3504 3679 4599 4906 6133 4906 4906 4906 0 0 0 0 0 0 0 0 0 0 0 0 0 0 0 0 0 0 0 0 0 0 0 0 0 0 0 0 0 0 0 0 0 0 0 0 0 0 0 0 0 0 0 0 0 0 0 2102 2164 2230 2164 2102 2164 2230 2230 2164 2102 1989 1936 1936 1887 1839 1752 1752 1752 1711 1711 1711 1711 1672 1635 1635 1711 1599 1635 1635 1565 1599 1533 1471 1471 1388 1338 1291 1291 1291 1206 1187 1226 1187 1187 1206 1132 1132 1115 1149 1115 1115 1098 1082 1066 1051 1036 1022 1022 1008 955 1008 1008 1008 994 943 968 955 908 876 845 826 817 845 855 826 817 817 817 817 817 826 791 758 766 766 766 817 782 808 791 826 817 826 808 0 836 845 808 817 782 0 0 0 629 618 629 618 623 618 618 618 608 608 608 598 598 593 584 0 0 0 0 0
    0 0 0 0 0 0 0 0 0 0 0 0 0 0 0 0 0 0 0 0 0 0 0 0 0 0 0 0 0 0 0 0 0 0 0 0 0 0 0 0 0 0 0 0 0 0 0 0 0 0 0 0 0 0 0 0 0 0 0 0 0 0 0 0 0 0 0 0 0 1051 1066 1082 1098 1115 1187 1115 1115 1206 1247 1226 1226 1247 1247 1268 1268 1268 1268 1291 1291 1291 1291 1314 1338 1362 1388 1388 1415 1501 1471 1501 1443 1565 1533 1565 1635 1672 1672 1711 1711 1752 1752 1795 1887 1839 1936 1989 2044 2044 2164 2102 2230 2102 2374 2299 2374 2453 2453 2537 2537 2537 2628 2830 2943 3345 3345 3066 3199 3199 3504 3504 3504 3504 3504 3679 4599 4906 6133 5256 5256 5256 0 0 0 0 0 0 0 0 0 0 0 0 0 0 0 0 0 0 0 0 0 0 0 0 0 0 0 0 0 0 0 0 0 0 0 0 0 0 0 0 0 0 0 0 0 0 0 2102 2164 2230 2164 2102 2230 2299 2230 2164 2164 2044 1936 1989 1887 1839 1795 1795 1795 1752 1752 1752 1752 1711 1672 1672 1752 1599 1672 1672 1599 1635 1565 1471 1443 1388 1338 1268 1268 1268 1206 1187 1226 1187 1206 1226 1149 1149 1132 1149 1132 1115 1098 1082 1082 1066 1036 1036 1022 1008 968 1008 1008 1008 994 943 968 955 908 876 855 826 817 845 0 826 817 817 817 817 817 826 791 758 758 766 766 817 782 808 799 836 836 845 836 845 855 855 808 791 0 0 0 608 618 613 623 618 623 618 618 618 608 608 608 598 598 593 584 0 0 0 0 0
    0 0 0 0 0 0 0 0 0 0 0 0 0 0 0 0 0 0 0 0 0 0 0 0 0 0 0 0 0 0 0 0 0 0 0 0 0 0 0 0 0 0 0 0 0 0 0 0 0 0 0 0 0 0 0 0 0 0 0 0 0 0 0 0 0 0 0 0 0 1051 1066 1082 1082 1098 1187 1098 1115 1206 1247 1247 1247 1268 1247 1268 1268 1268 1268 1291 1268 1291 1291 1314 1314 0 1388 1388 1388 1471 1443 1471 1415 1533 1533 1533 1599 1672 1635 1672 1711 1752 1711 1752 1887 1839 1936 1989 2044 2102 2164 2164 2230 2102 2374 2299 2453 2453 2453 2537 2537 2537 2628 2830 2830 3345 3345 3066 3199 3199 3504 3504 3504 3679 3345 3679 4599 4906 6690 5256 5256 5256 0 0 0 0 0 0 0 0 0 0 0 0 0 0 0 0 0 0 0 0 0 0 0 0 0 0 0 0 0 0 0 0 0 0 0 0 0 0 0 0 0 0 0 0 0 0 2164 2164 2230 2230 2230 2164 2230 2374 2299 2230 2164 2044 1989 1989 1887 1887 1839 1839 1839 1795 1795 1795 1795 1752 1711 1672 1795 1635 1711 1711 1599 1635 1565 1471 1443 1388 1338 1268 1268 0 1226 1187 1247 1226 1226 1226 1149 1149 1149 1149 1132 1115 1098 1082 1082 1066 1036 1022 1008 1008 968 1008 1008 1008 1008 943 968 955 908 876 855 826 817 845 0 826 817 817 817 817 817 826 791 758 758 758 758 817 782 808 808 845 855 865 845 855 845 0 0 694 669 623 608 618 623 629 629 623 623 623 618 613 608 608 603 598 593 588 584 0 0 0 0 0
    0 0 0 0 0 0 0 0 0 0 0 0 0 0 0 0 0 0 0 0 0 0 0 0 0 0 0 0 0 0 0 0 0 0 0 0 0 0 0 0 0 0 0 0 0 0 0 0 0 0 0 0 0 0 0 0 0 0 0 0 0 0 0 0 0 0 0 0 0 1051 1066 1066 1082 1098 1168 1098 1115 1226 1247 1268 1268 1268 1268 1268 1291 1268 1268 1291 1268 1268 1268 1314 1314 0 0 1362 1388 1443 1443 1471 1415 1533 1533 1533 1599 1672 1635 1672 1711 1752 1711 1752 1887 1887 1936 2044 2044 2102 2164 2164 2230 2102 2374 2299 2374 2453 2453 2537 2537 2628 2537 2830 2830 3345 3199 3066 3199 3199 3504 3504 3504 3679 3345 3679 4906 4906 7359 5661 5661 5661 0 0 0 0 0 0 0 0 0 0 0 0 0 0 0 0 0 0 0 0 0 0 0 0 0 0 0 0 0 0 0 0 0 0 0 0 0 0 0 0 0 0 0 0 0 0 2164 2230 2230 2230 2230 2164 2299 2374 2299 2230 2164 2044 1989 1936 1839 1839 1795 1752 1795 1795 1795 1795 1795 1795 1711 1711 1839 1711 1752 1711 1635 1635 1565 0 0 1388 1338 1268 1268 0 1247 1206 1268 1268 1247 1226 1149 1168 1149 1132 1115 1115 1098 1098 1098 1082 1036 1022 1008 1008 968 1008 1008 1008 1008 943 968 968 919 876 855 826 826 845 0 826 817 817 817 817 817 826 791 750 758 758 758 817 766 791 799 836 845 845 826 826 799 0 694 681 663 623 623 618 623 623 623 623 623 618 618 613 608 608 603 598 593 593 588 0 0 0 0 0
    0 0 0 0 0 0 0 0 0 0 0 0 0 0 0 0 0 0 0 0 0 0 0 0 0 0 0 0 0 0 0 0 0 0 0 0 0 0 0 0 0 0 0 0 0 0 0 0 0 0 0 0 0 0 0 0 0 0 0 0 0 0 0 0 0 0 0 0 0 1051 1066 1066 1082 1098 1168 1098 1115 1226 1268 1268 1268 1291 1291 1291 1291 1268 1268 1291 1268 1268 1291 1314 1314 1314 1362 1362 1362 1443 1415 1443 1415 1501 1501 1501 1565 1635 1599 1672 1672 1752 1711 1795 1887 1887 1936 2044 2044 2102 2164 2164 2230 2164 2374 2299 2374 2537 2374 2537 2628 2628 2537 2830 2830 3345 3199 3066 3199 3199 3504 3679 3504 3679 3504 3679 4906 4599 7359 5661 5661 5661 0 0 0 0 0 0 0 0 0 0 0 0 0 0 0 0 0 0 0 0 0 0 0 0 0 0 0 0 0 0 0 0 0 0 0 0 0 0 0 0 0 0 0 0 0 2164 2230 2230 2230 2230 2230 2164 2299 2299 2299 2164 2044 1989 1887 1795 1795 1711 1752 1711 1752 1752 1752 1795 1795 1795 1752 1711 1887 1752 1752 1752 1672 1635 1565 0 0 1362 1338 1268 1268 219 1247 1226 1291 1268 1247 1206 1168 1187 1149 1132 1115 1115 1098 1115 1115 1082 1051 1036 1022 1008 981 1008 1008 1008 1008 943 968 968 919 0 865 836 826 845 0 826 826 826 817 817 817 826 791 750 758 758 758 817 750 774 774 817 817 808 791 774 750 714 700 669 657 634 634 623 629 629 629 623 623 623 618 618 613 608 608 598 598 593 588 0 0 0 0 0
    0 0 0 0 0 0 0 0 0 0 0 0 0 0 0 0 0 0 0 0 0 0 0 0 0 0 0 0 0 0 0 0 0 0 0 0 0 0 0 0 0 0 0 0 0 0 0 0 0 0 0 0 0 0 0 0 0 0 0 0 0 0 0 0 0 0 0 0 0 1051 1082 1066 1082 1098 1168 1082 1115 1226 1268 1268 1268 1268 1291 1291 1291 1268 1291 1291 1268 1291 1291 1314 1338 1314 1362 1362 1362 1415 1415 1415 1415 1471 1501 1501 1533 1635 1599 1672 1672 1711 1711 1795 1887 1887 1936 1989 2044 2102 2164 2164 2230 2164 2374 2299 2374 2628 2374 2537 2628 2628 2537 2725 2830 3199 3199 3066 3199 3066 3504 3679 3679 3873 3504 3873 5256 4599 7359 6133 6133 6133 0 0 0 0 0 0 0 0 0 0 0 0 0 0 0 0 0 0 0 0 0 0 0 0 0 0 0 0 0 0 0 0 0 0 0 0 0 0 0 0 0 0 0 0 0 2164 2230 2230 2230 2230 2230 2230 2299 2299 2299 2164 2102 1989 1936 1839 1795 1752 1752 1711 1752 1752 1752 1795 1795 1795 1795 1752 1936 1752 1795 1795 1672 1635 1565 0 0 1362 1338 1291 1268 0 1247 1247 1291 1291 1247 1206 1187 1206 1149 1132 1115 1115 1115 1132 1115 1082 1051 1036 1022 1008 994 1008 1008 1008 1008 943 968 955 919 0 876 836 0 855 0 826 826 826 817 817 817 817 791 750 758 758 758 817 750 774 774 799 799 791 766 735 721 694 681 669 663 645 639 634 634 634 629 623 623 623 618 618 613 608 608 603 598 598 588 0 0 0 0 0
    0 0 0 0 0 0 0 0 0 0 0 0 0 0 0 0 0 0 0 0 0 0 0 0 0 0 0 0 0 0 0 0 0 0 0 0 0 0 0 0 0 0 0 0 0 0 0 0 0 0 0 0 0 0 0 0 0 0 0 0 0 0 0 0 0 0 0 0 0 1051 1066 1066 1082 1098 1149 1082 1098 1206 1247 1268 1268 1268 1291 1291 1314 1291 1291 1291 1291 1314 1338 1338 1338 1338 1388 1362 1388 1443 1415 1443 1415 1471 1501 1533 1565 1635 1599 1672 1672 1752 1711 1795 1887 1887 1936 1989 2044 2102 2164 2164 2230 2164 2374 2299 2453 2725 2374 2628 2725 2725 2537 2830 2830 3199 3199 3066 3199 3199 3504 3679 3679 3873 3679 4088 5256 4906 7359 6133 6133 6133 0 0 0 0 0 0 0 0 0 0 0 0 0 0 0 0 0 0 0 0 0 0 0 0 0 0 0 0 0 0 0 0 0 0 0 0 0 0 0 0 0 0 0 0 2164 2230 2299 2230 2299 2230 2299 2299 2374 2374 2299 2164 2164 2044 1936 1887 1839 1752 1752 1711 1752 1752 1711 1752 1795 1795 1795 1752 1936 1795 1795 1795 1672 1635 1533 0 0 1362 1338 1268 0 0 1247 1226 1291 1268 1247 1187 1168 1206 1132 1115 1098 1098 1098 1132 1115 1098 1066 1036 1022 1008 994 994 994 994 994 931 968 955 919 98 876 836 836 855 0 0 0 826 826 817 817 0 791 750 758 758 766 817 758 766 766 791 791 758 728 700 687 675 669 663 657 645 639 634 634 634 629 623 623 623 618 618 613 608 608 603 598 598 588 0 0 0 0 0
    0 0 0 0 0 0 0 0 0 0 0 0 0 0 0 0 0 0 0 0 0 0 0 0 0 0 0 0 0 0 0 0 0 0 0 0 0 0 0 0 0 0 0 0 0 0 0 0 0 0 0 0 0 0 0 0 0 0 0 0 0 0 0 0 0 0 0 0 0 1051 1066 1066 1082 1082 1132 1066 1082 1206 1247 1268 1268 1291 1314 1338 1338 1338 1338 1338 1314 1338 1362 1362 1362 1338 1388 1388 1388 1443 1415 1443 1415 1501 1533 1565 1599 1672 1635 1672 1711 1752 1711 1795 1887 1839 1936 1989 2044 2102 2164 2164 2230 2230 2374 2374 2453 2725 2453 2628 2725 2725 2537 2725 2830 3066 3199 3066 3199 3199 3504 3873 3679 3873 3873 4088 5256 4906 7359 5661 5661 5661 0 0 0 0 0 0 0 0 0 0 0 0 0 0 0 0 0 0 0 0 0 0 0 0 0 0 0 0 0 0 0 0 0 0 0 0 0 0 0 0 0 0 0 0 2230 2299 2299 2230 2230 2230 2299 2299 2299 2299 2230 2164 2102 2102 1936 1839 1795 1711 1752 1672 1711 1711 1711 1752 1795 1795 1795 1752 1887 1795 1795 1795 1672 1635 1533 0 0 1338 1314 1268 1226 1247 1247 1206 1268 1247 1247 1168 1149 1206 1115 1098 1098 1098 1098 1168 1149 1132 1082 1036 1022 1008 994 968 994 981 994 931 968 955 919 98 886 845 836 855 0 0 0 836 826 817 817 0 791 758 766 758 766 817 750 758 750 782 766 728 707 687 681 675 669 669 663 651 645 639 634 634 629 623 623 623 618 618 613 613 608 603 598 598 588 0 0 0 0 0
    0 0 0 0 0 0 0 0 0 0 0 0 0 0 0 0 0 0 0 0 0 0 0 0 0 0 0 0 0 0 0 0 0 0 0 0 0 0 0 0 0 0 0 0 0 0 0 0 0 0 0 0 0 0 0 0 0 0 0 0 0 0 0 0 0 0 0 0 0 1051 1051 1051 1066 1082 1132 1066 1082 1206 1268 1291 1291 1314 1338 1362 1362 1362 1362 1338 1338 1338 1338 1362 1362 1338 1388 1388 1388 1443 1415 1443 1443 1533 1533 1565 1599 1672 1635 1672 1711 1752 1711 1795 1887 1839 1936 1989 2044 2102 2164 2164 2230 2230 2374 2374 2453 2628 2453 2628 2725 2725 2537 2725 2830 3066 3199 3066 3199 3199 3679 3873 3873 3873 4088 4329 5661 4906 7359 5661 5661 5661 0 0 0 0 0 0 0 0 0 0 0 0 0 0 0 0 0 0 0 0 0 0 0 0 0 0 0 0 0 0 0 0 0 0 0 0 0 0 0 0 0 0 0 2230 2230 2374 2299 2230 2230 2230 2299 2230 2230 2230 2164 2102 2102 1989 1887 1752 1752 1672 1672 1635 1672 1672 1672 1711 1752 1752 1752 1752 1887 1795 1795 1795 1635 1635 1501 0 0 1338 1291 1268 1226 1226 1226 1187 1247 1226 1226 1149 1149 1206 1115 1115 1098 1082 1115 1168 1168 1168 1082 1022 1008 994 981 943 981 981 981 919 955 955 919 0 897 855 845 865 0 0 0 836 826 817 817 0 791 758 758 758 758 817 743 743 743 743 728 714 700 687 681 681 675 669 663 657 651 639 639 634 629 629 623 623 618 618 613 613 608 603 598 598 593 0 0 0 0 0
    0 0 0 0 0 0 0 0 0 0 0 0 0 0 0 0 0 0 0 0 0 0 0 0 0 0 0 0 0 0 0 0 0 0 0 0 0 0 0 0 0 0 0 0 0 0 0 0 0 0 0 0 0 0 0 0 0 0 0 0 0 0 0 0 0 0 0 0 0 1051 1051 1051 1066 1082 1115 1066 1066 1226 1268 1291 1314 1338 1388 1388 1362 1362 1362 1362 1338 1362 1362 1362 1362 1362 1388 1415 1388 1443 1443 1471 1443 1533 1565 1599 1635 1672 1635 1672 1711 1752 1711 1795 1839 1839 1936 1989 2044 2102 2164 2164 2230 2230 2299 2299 2453 2537 2374 2628 2725 2830 2628 2830 2943 3199 3199 3199 3345 3199 3679 3873 3873 3873 4088 4329 5661 4906 7359 5661 5661 5661 0 0 0 0 0 0 0 0 0 0 0 0 0 0 0 0 0 0 0 0 0 0 0 0 0 0 0 0 0 0 0 0 0 0 0 0 0 0 0 0 0 0 0 2230 2299 2374 2299 2230 2230 2299 2299 2230 2230 2230 2230 2102 2102 1989 1887 1752 1752 1635 1672 1599 1672 1672 1672 1711 1752 1752 1752 1752 1887 1795 1795 1795 1635 1635 1471 0 0 1338 1291 1268 0 1247 1226 1206 1268 1247 1247 1168 1168 1226 1132 1115 1082 1066 1132 1187 1168 1187 1082 1008 994 994 994 943 981 981 981 908 955 943 919 876 897 855 845 865 0 0 0 845 826 817 817 0 791 758 758 758 758 808 743 743 728 728 721 714 700 694 687 681 675 675 669 663 651 645 639 634 634 629 629 629 623 618 613 613 608 603 598 598 593 0 0 0 0 0
    0 0 0 0 0 0 0 0 0 0 0 0 0 0 0 0 0 0 0 0 0 0 0 0 0 0 0 0 0 0 0 0 0 0 0 0 0 0 0 0 0 0 0 0 0 0 0 0 0 0 0 0 0 0 0 0 0 0 0 0 0 0 0 0 0 0 0 0 0 1051 1051 1051 1066 1082 1115 1066 1066 1226 1268 1314 1338 1362 1415 1415 1388 1388 1362 1388 1362 1362 1362 1362 1388 1362 1415 1415 1388 1443 1443 1533 1471 1565 1565 1635 1635 1711 1635 1711 1711 1752 1752 1795 1839 1839 1936 1989 2044 2102 2102 2102 2164 2230 2299 2299 2374 2537 2453 2628 2725 2830 2725 2830 3066 3199 3199 3199 3345 3345 3679 3873 3873 3873 4088 4329 5661 4906 7359 5256 5256 5256 0 0 0 0 0 0 0 0 0 0 0 0 0 0 0 0 0 0 0 0 0 0 0 0 0 0 0 0 0 0 0 0 0 0 0 0 0 0 0 0 0 0 2230 2299 2299 2374 2299 2230 2230 2299 2299 2230 2230 2230 2164 2164 2102 1989 1887 1752 1795 1635 1672 1599 1635 1635 1672 1711 1752 1752 1752 1752 1887 1795 1752 1752 1599 1599 1471 0 0 1338 0 1268 0 1247 1247 1226 1291 1268 1268 1206 1168 1247 1187 1098 1066 1066 1132 1206 1168 1206 1066 981 1008 1008 994 943 981 981 981 908 955 943 919 886 908 865 855 865 0 0 0 845 826 817 817 0 791 758 758 758 758 808 743 735 735 735 721 714 700 694 687 681 675 669 663 663 651 645 639 639 634 634 629 629 623 623 618 613 608 608 598 598 593 0 0 0 0 0
    0 0 0 0 0 0 0 0 0 0 0 0 0 0 0 0 0 0 0 0 0 0 0 0 0 0 0 0 0 0 0 0 0 0 0 0 0 0 0 0 0 0 0 0 0 0 0 0 0 0 0 0 0 0 0 0 0 0 0 0 0 0 0 0 0 0 0 0 0 1051 1051 1051 1066 1082 1098 1066 1066 1206 1247 1291 1314 1362 1415 1415 1415 1388 1388 1388 1388 1388 1362 1388 1388 1388 1415 1443 1415 1471 1443 1533 1501 1565 1599 1635 1672 1711 1672 1711 1752 1752 1752 1839 1839 1839 1936 1989 1989 2044 2102 2102 2164 2230 2299 2299 2374 2537 2453 2628 2830 2830 2725 2830 3066 3199 3199 3199 3345 3199 3679 3873 3873 3873 4329 4599 5661 4906 7359 5256 5256 5256 0 0 0 0 0 0 0 0 0 0 0 0 0 0 0 0 0 0 0 0 0 0 0 0 0 0 0 0 0 0 0 0 0 0 0 0 0 0 0 0 0 2537 2453 2453 2453 2453 2453 2299 2299 2299 2299 2230 2230 2230 2164 2102 2044 1936 1887 1752 1795 1635 1672 1599 1635 1635 1672 1711 1752 1752 1752 1752 1839 1752 1752 1752 1599 1565 1443 0 0 0 0 1268 1247 1247 1247 1226 1291 1268 1268 1206 1187 1268 1206 1115 1066 1051 1149 1226 1206 1187 1051 994 1008 1008 1008 931 981 968 968 908 955 943 919 886 919 876 865 876 0 0 0 845 826 817 808 0 791 758 766 766 758 799 743 735 735 735 721 714 700 694 687 681 675 675 663 657 651 645 645 639 634 634 629 629 623 623 618 618 613 608 603 603 593 0 0 0 0 0
    0 0 0 0 0 0 0 0 0 0 0 0 0 0 0 0 0 0 0 0 0 0 0 0 0 0 0 0 0 0 0 0 0 0 0 0 0 0 0 0 0 0 0 0 0 0 0 0 0 0 0 0 0 0 0 0 0 0 0 0 0 0 0 0 0 0 0 0 0 1051 1051 1051 1051 1066 1098 1066 1066 1187 1226 1268 1314 1338 1415 1415 1415 1415 1388 1415 1388 1388 1362 1388 1415 1388 1415 1443 1415 1443 1443 1533 1501 1565 1565 1635 1672 1711 1672 1711 1711 1752 1711 1795 1839 1839 1887 1989 1989 2044 2102 2102 2164 2230 2299 2299 2374 2537 2537 2628 2830 2830 2830 2943 3066 3199 3199 3199 3504 3345 3873 3873 4088 3873 4329 4599 5661 4906 7359 5256 4906 4906 0 0 0 0 0 0 0 0 0 0 0 0 0 0 0 0 0 0 0 0 0 0 0 0 0 0 0 0 0 0 0 0 0 0 0 0 0 0 0 0 3199 2830 2725 2628 2537 2537 2453 2299 2299 2374 2299 2230 2299 2230 2164 2164 2102 1936 1887 1795 1795 1672 1672 1635 1635 1635 1672 1711 1752 1711 1752 1711 1795 1711 1711 1711 1565 0 1415 0 0 0 0 1268 1247 1247 1247 1226 1291 1268 1291 1226 1187 1291 1206 1082 0 1008 1168 1226 1168 1149 1066 1022 1022 1022 1022 919 968 968 968 897 943 931 919 886 931 886 865 876 0 0 0 855 826 808 808 0 791 758 766 766 758 799 750 743 743 735 721 707 700 694 687 681 675 675 669 663 657 651 645 639 639 634 629 634 623 623 618 618 0 0 0 0 593 0 0 0 0 0
    0 0 0 0 0 0 0 0 0 0 0 0 0 0 0 0 0 0 0 0 0 0 0 0 0 0 0 0 0 0 0 0 0 0 0 0 0 0 0 0 0 0 0 0 0 0 0 0 0 0 0 0 0 0 0 0 0 0 0 0 0 0 0 0 0 0 0 0 0 1036 1036 1051 1051 1066 1098 1066 1082 1168 1226 1268 1314 1338 1415 1415 1388 1388 1388 1415 1388 1388 1362 1388 1415 1415 1443 1443 1415 1471 1443 1565 1501 1599 1599 1672 1672 1711 1672 1711 1752 1752 1711 1795 1795 1839 1887 1936 1989 2044 2102 2102 2164 2230 2230 2299 2374 2537 2537 2628 2830 2725 2830 3066 3199 3199 3199 3199 3504 3345 3873 3873 4088 3873 4599 4906 5661 5256 7359 5256 4906 4906 0 0 0 0 0 0 0 0 0 0 0 0 0 0 0 0 0 0 0 0 0 0 0 0 0 0 0 0 0 0 0 0 0 0 0 0 0 0 0 3873 3345 3066 2830 2725 2628 2537 2453 2374 2299 2374 2230 2299 2299 2230 2164 2164 2044 1989 1887 1839 1839 1711 1711 1672 1672 1672 1711 1711 1752 1711 1711 1711 1752 1672 1672 1672 1533 1501 1415 0 0 1268 0 0 1247 1247 1247 1226 1291 1268 1314 1226 1187 1268 1206 1115 0 994 0 1187 1149 1187 1051 0 1008 1022 1008 908 968 955 955 897 943 931 919 886 931 897 876 876 0 0 0 855 826 808 799 0 791 758 758 758 758 791 743 735 735 728 714 707 694 694 687 681 675 675 669 663 657 651 651 645 639 639 629 634 629 629 623 0 1206 0 0 1226 598 0 0 0 0 0
    0 0 0 0 0 0 0 0 0 0 0 0 0 0 0 0 0 0 0 0 0 0 0 0 0 0 0 0 0 0 0 0 0 0 0 0 0 0 0 0 0 0 0 0 0 0 0 0 0 0 0 0 0 0 0 0 0 0 0 0 0 0 0 0 0 0 0 0 0 1036 1036 1051 1051 1066 1098 1082 1082 1168 1206 1247 1314 1338 1415 1388 1388 1388 1388 1415 1415 1388 1362 1388 1415 1415 1443 1471 1415 1471 1471 1599 1533 1599 1599 1672 1711 1752 1711 1752 1752 1752 1711 1795 1795 1795 1887 1936 1936 2044 2102 2102 2164 2230 2230 2230 2374 2537 2537 2628 2830 2725 2830 3066 3199 3345 3345 3345 3504 3345 3873 3873 4088 3873 4599 4906 6133 5256 7359 5661 4599 4599 0 0 0 0 0 0 0 0 0 0 0 0 0 0 0 0 0 0 0 0 0 0 0 0 0 0 0 0 0 0 0 0 0 0 0 0 0 0 4599 4088 3504 3199 3066 2830 2725 2628 2537 2374 2374 2453 2230 2299 2230 2230 2164 2164 2044 1989 1936 1839 1839 1711 1711 1672 1672 1672 1711 1711 1711 1672 1711 1672 1711 1672 1635 1635 1501 1471 1388 0 1268 1247 1268 0 1247 1247 1247 1226 1291 1291 1388 1247 1206 1291 1268 1226 0 0 1314 1168 1187 1206 1066 0 1008 1022 1008 908 955 955 955 897 943 931 919 886 943 897 876 876 0 0 0 0 826 808 799 0 791 758 758 758 750 791 735 735 735 721 714 707 700 694 694 681 681 681 669 663 657 651 651 645 639 639 634 634 629 629 0 0 1206 1206 1206 1226 0 0 0 0 0 0
    0 0 0 0 0 0 0 0 0 0 0 0 0 0 0 0 0 0 0 0 0 0 0 0 0 0 0 0 0 0 0 0 0 0 0 0 0 0 0 0 0 0 0 0 0 0 0 0 0 0 0 0 0 0 0 0 0 0 0 0 0 0 0 0 0 0 0 0 0 1036 1036 1051 1066 1082 1115 1098 1098 1168 1206 1226 1291 1314 1388 1388 1362 1362 1362 1415 1415 1388 1338 1388 1388 1415 1443 1471 1415 1443 1471 1635 1565 1635 1599 1672 1711 1752 1711 1711 1752 1752 1711 1795 1839 1795 1887 1936 1936 2044 2102 2044 2164 2230 2230 2230 2299 2537 2537 2628 2830 2725 2830 2943 3199 3345 3345 3345 3504 3504 3873 4088 4329 4088 4906 5256 6133 5661 8177 5661 4599 4599 0 0 0 0 0 0 0 0 0 0 0 0 0 0 0 0 0 0 0 0 0 0 0 0 0 0 0 0 0 0 0 0 0 0 0 0 0 0 4599 4088 3504 3199 3199 3066 2830 2725 2537 2453 2374 2453 2230 2299 2230 2164 2164 2102 2044 1989 1936 1839 1839 1711 1711 1672 1672 1672 1711 1672 1711 1672 1711 1672 1672 1635 1565 1599 1471 1415 1362 1268 1268 1226 1268 0 1247 1247 1268 1247 1338 1338 1471 1268 1247 1314 1338 1268 1338 1206 1247 1168 1168 1187 1066 1022 1022 1022 1022 908 968 955 955 897 943 931 919 886 943 908 876 876 0 0 0 0 817 799 791 782 791 758 758 758 750 791 735 735 735 728 721 714 707 700 700 687 681 681 675 669 663 657 651 645 645 645 634 639 629 629 0 1206 1206 1206 1206 1226 0 0 0 0 0 0
    0 0 0 0 0 0 0 0 0 0 0 0 0 0 0 0 0 0 0 0 0 0 0 0 0 0 0 0 0 0 0 0 0 0 0 0 0 0 0 0 0 0 0 0 0 0 0 0 0 0 0 0 0 0 0 0 0 0 0 0 0 0 0 0 0 0 0 0 0 1036 1051 1066 1066 1082 1115 1098 1115 1168 1187 1206 1268 1291 1338 1338 1338 1314 1338 1388 1388 1362 1338 1362 1388 1388 1443 1471 1415 1443 1443 1635 1533 1599 1565 1635 1672 1711 1711 1711 1711 1752 1752 1839 1839 1839 1887 1989 1936 2044 2102 2102 2164 2230 2230 2230 2299 2537 2537 2628 2725 2725 2830 2943 3199 3345 3345 3345 3504 3504 4088 4088 4329 4088 5256 5661 6133 5661 8177 5661 4599 4599 0 0 0 0 0 0 0 0 0 0 0 0 0 0 0 0 0 0 0 0 0 0 0 0 0 0 0 0 0 0 0 0 0 0 0 0 0 0 4329 3873 3504 3345 3345 3199 3066 2830 2725 2537 2453 2537 2230 2299 2230 2230 2164 2102 2044 1989 1936 1839 1839 1711 1711 1711 1672 1672 1711 1672 1711 1672 1711 1635 1635 1635 1533 1565 1471 1388 1338 1268 1247 1226 1268 0 1247 1247 1291 1268 1388 1388 1599 1291 1291 1338 1388 1314 1338 1268 1247 1168 1149 1149 1051 1022 1022 1022 1022 908 955 955 955 897 943 931 919 886 943 908 886 876 0 0 0 0 0 799 782 782 791 758 758 758 750 791 735 735 735 728 714 714 707 707 707 694 687 687 675 669 663 657 657 651 645 645 634 639 0 0 1206 1187 1206 1206 1206 1226 0 0 0 0 0 0
    0 0 0 0 0 0 0 0 0 0 0 0 0 0 0 0 0 0 0 0 0 0 0 0 0 0 0 0 0 0 0 0 0 0 0 0 0 0 0 0 0 0 0 0 0 0 0 0 0 0 0 0 0 0 0 0 0 0 0 0 0 0 0 0 0 0 0 0 0 1036 1051 1066 1082 1082 1115 1098 1115 1149 1187 1206 1247 1268 1314 1291 1291 1314 1338 1362 1362 0 1314 1362 1362 1388 1415 1415 1415 1415 1443 1599 1501 1565 1533 1599 1672 1672 1711 1711 1752 1752 1752 1839 1887 1839 1887 1989 1936 2044 2102 2102 2164 2230 2230 2230 2299 2537 2537 2537 2725 2725 2830 2943 3199 3345 3199 3199 3345 3345 3873 4088 4329 4088 4906 5661 6133 6133 8177 5661 4599 4599 0 0 0 0 0 0 0 0 0 0 0 0 0 0 0 0 0 0 0 0 0 0 0 0 0 0 0 0 0 0 0 0 0 0 0 0 0 3873 4088 3873 3679 3504 3504 3199 3066 2943 2725 2628 2537 2537 2299 2374 2299 2230 2164 2102 2044 1989 1936 1887 1839 1711 1752 1711 1672 1672 1711 1672 1711 1635 1711 1635 1635 1635 1501 1533 1443 1362 1338 1247 1247 1226 0 0 1268 1268 1314 1314 1443 1443 1672 1338 1338 1338 1415 1291 1268 1226 1187 1149 1115 1115 1051 1022 1022 1022 1022 908 955 955 955 897 931 919 919 886 943 919 886 876 0 0 0 0 0 799 791 782 791 766 766 766 758 791 735 735 735 728 714 721 707 707 707 694 687 687 675 675 669 657 657 651 651 645 639 0 0 0 0 0 1206 1187 1206 1226 0 0 0 0 0 0
    0 0 0 0 0 0 0 0 0 0 0 0 0 0 0 0 0 0 0 0 0 0 0 0 0 0 0 0 0 0 0 0 0 0 0 0 0 0 0 0 0 0 0 0 0 0 0 0 0 0 0 0 0 0 0 0 0 0 0 0 0 0 0 0 0 0 0 0 0 1022 1051 1066 1082 1082 1115 1115 1115 1149 1187 1206 1247 1268 1291 1291 1291 1291 1338 1338 1338 1338 1314 1338 1362 1362 1388 1415 1388 1388 1443 1565 1501 1565 1533 1599 1635 1672 1711 1711 1711 1752 1752 1839 1839 1839 1887 1989 1936 2044 2102 2102 2164 2230 2230 2299 2299 2537 2537 2537 2725 2725 2725 2943 2943 3345 3066 3199 3345 3199 3873 4088 4329 4088 4906 5661 6133 6133 8177 5661 4599 4599 0 0 0 0 0 0 0 0 0 0 0 0 0 0 0 0 0 8177 0 0 0 0 0 0 0 0 0 0 0 0 0 0 0 0 0 0 0 4088 4329 4088 3873 3679 3504 3345 3199 3066 2830 2628 2628 2537 2374 2453 2299 2299 2164 2102 2044 2044 1989 1887 1839 1711 1752 1711 1672 1672 1672 1635 1711 1599 1672 1599 1599 1599 1471 1501 1443 1338 1314 1247 1247 1226 0 0 1268 1247 1314 1314 1443 1443 1635 1314 1291 1291 1362 1268 1247 1206 1168 1132 1098 1098 1036 1022 1022 1022 1022 897 955 943 943 897 931 919 919 886 943 919 886 0 0 0 0 0 0 799 782 774 791 766 766 766 766 791 743 743 750 735 721 721 714 714 714 694 687 687 681 675 669 657 657 651 651 645 639 0 0 0 0 0 0 0 0 0 598 0 0 0 0 0
    0 0 0 0 0 0 0 0 0 0 0 0 0 0 0 0 0 0 0 0 0 0 0 0 0 0 0 0 0 0 0 0 0 0 0 0 0 0 0 0 0 0 0 0 0 0 0 0 0 0 0 0 0 0 0 0 0 0 0 0 0 0 0 0 0 0 0 0 0 1022 1066 1066 1082 1098 1132 1115 1132 1149 1187 1226 1268 1268 1291 1268 1268 1291 1338 1362 1362 1338 1314 1338 1362 1388 1415 1415 1415 1388 1443 1565 1501 1565 1533 1599 1635 1672 1711 1711 1711 1752 1752 1795 1839 1839 1887 1936 1936 1989 2102 2102 2164 2230 2230 2299 2230 2537 2537 2537 2628 2628 2628 2830 2943 3345 3199 3199 3345 3199 3873 4329 4329 4088 4906 5661 6133 6133 8177 5661 4599 4599 0 0 0 0 0 0 0 0 0 0 0 0 0 0 0 0 0 8177 0 0 0 0 0 0 0 8177 0 8177 0 0 0 0 0 0 0 0 0 4329 4599 4599 4088 3873 3679 3504 3345 3199 2943 2725 2725 2628 2453 2537 2374 2374 2230 2164 2102 2102 2044 1887 1839 1711 1752 1711 1672 1672 1635 1599 1672 1599 1635 1565 1565 1565 1471 1471 1415 1338 1314 1226 1226 1206 1268 1268 1268 1268 1291 1314 1443 1443 1635 1291 1291 1268 1314 1268 1247 1206 1187 1149 1132 1098 1036 1022 1008 1008 1008 886 943 943 943 897 931 919 919 886 943 919 886 0 0 0 0 0 0 799 782 774 799 774 774 766 774 791 743 750 750 735 721 721 714 707 707 700 687 687 681 675 669 663 657 651 651 651 639 0 0 0 0 0 0 0 0 0 598 0 0 0 0 0
    0 0 0 0 0 0 0 0 0 0 0 0 0 0 0 0 0 0 0 0 0 0 0 0 0 0 0 0 0 0 0 0 0 0 0 0 0 0 0 0 0 0 0 0 0 0 0 0 0 0 0 0 0 0 0 0 0 0 0 0 0 0 0 0 0 0 0 0 0 1036 1066 1082 1098 1098 1149 1149 1168 1168 1226 1247 1268 1291 1291 1291 1291 1291 1338 1362 1362 1362 1314 1362 1362 1388 1388 1415 1415 1388 1471 1599 1533 1565 1533 1599 1635 1672 1711 1711 1711 1752 1752 1795 1839 1839 1839 1936 1887 1989 2102 2102 2164 2230 2164 2299 2230 2537 2537 2537 2628 2628 2628 2830 2943 3504 3345 3345 3345 3345 4088 4599 4599 4088 4906 5661 5661 6133 8177 5661 4599 4599 0 0 0 0 0 0 0 0 0 0 0 0 0 0 0 0 0 7359 0 0 0 0 0 0 0 8177 0 8177 0 0 0 0 0 0 0 0 3504 4329 4599 4329 3873 3873 3873 3504 3199 3199 2943 2830 2830 2628 2453 2537 2374 2374 2230 2164 2164 2164 2102 1936 1839 1711 1752 1711 1635 1635 1635 1565 1635 1565 1635 1533 1565 1565 1471 1471 1415 1338 1314 1226 1226 1226 1291 1268 0 0 1291 1314 1443 1415 1635 1291 1247 1247 1291 1268 1206 1187 1149 1132 1132 1098 1036 994 1008 994 994 886 943 943 943 897 931 919 919 886 955 919 886 0 0 0 0 0 0 791 774 774 799 782 774 766 782 791 758 758 758 735 721 728 721 714 714 700 687 694 681 0 675 663 663 651 657 651 645 651 634 0 0 0 0 0 0 0 598 0 0 0 0 0
    0 0 0 0 0 0 0 0 0 0 0 0 0 0 0 0 0 0 0 0 0 0 0 0 0 0 0 0 0 0 0 0 0 0 0 0 0 0 0 0 0 0 0 0 0 0 0 0 0 0 0 0 0 0 0 0 0 0 0 0 0 0 0 0 0 0 0 0 0 1051 1082 1098 1115 1115 1149 1149 1168 1187 1226 1247 1268 1291 1291 1291 1291 1314 1362 1362 1388 1362 1314 1362 1362 1388 1388 1415 1415 1388 1471 1599 1565 1565 1533 1635 1635 1672 1711 1752 1711 1752 1752 1795 1839 1839 1839 1936 1887 1989 2044 2044 2164 2164 2164 2230 2164 2453 2537 2537 2628 2628 2628 2830 2943 3345 3345 3345 3345 3345 3873 4599 4599 4088 4906 5256 5661 6133 7359 5256 4599 4599 0 0 0 0 0 0 0 0 0 0 0 0 0 0 0 0 0 6690 0 0 0 0 0 0 8177 8177 0 0 0 0 0 0 0 0 0 4088 3504 4329 4329 3873 3679 3504 3679 3345 3066 3066 2830 2725 2725 2628 2453 2537 2374 2453 2164 2164 2164 2230 2102 1936 1839 1711 1752 1711 1635 1635 1599 1565 1635 1565 1635 1533 1565 1565 1501 1533 1415 1362 1338 1226 1247 1226 1291 1291 0 0 1291 1314 1443 1415 1599 1268 1226 1226 1247 1226 1187 1187 1149 1132 1132 1082 1022 955 994 994 981 876 943 943 943 897 931 919 919 886 955 919 886 0 0 0 0 0 0 791 774 782 799 791 782 774 791 791 766 766 758 743 721 735 721 714 714 0 0 0 0 0 0 0 663 651 657 651 645 651 634 639 0 0 0 0 0 0 598 0 0 0 0 0
    0 0 0 0 0 0 0 0 0 0 0 0 0 0 0 0 0 0 0 0 0 0 0 0 0 0 0 0 0 0 0 0 0 0 0 0 0 0 0 0 0 0 0 0 0 0 0 0 0 0 0 0 0 0 0 0 0 0 0 0 0 0 0 0 0 0 0 0 0 1066 1098 1115 1115 1115 1132 1149 1149 1168 1206 1226 1247 1268 1268 1268 1291 1291 1362 1362 1388 1362 1314 1362 1362 1388 1388 1415 1415 1388 1443 1599 1565 1599 1565 1635 1635 1672 1711 1752 1752 1752 1752 1795 1839 1839 1839 1936 1887 1989 2044 2044 2102 2164 2164 2230 2164 2453 2453 2453 2537 2628 2537 2725 2830 3345 3345 3345 3345 3199 4088 4599 4906 4088 4906 5256 5256 6133 7359 5256 4599 4599 0 0 0 0 0 0 0 0 0 0 0 0 0 0 0 0 0 6690 0 8177 0 8177 8177 0 8177 7359 0 0 0 0 0 0 0 0 0 4329 3679 4329 4329 3873 3504 3504 3504 3199 2830 2943 2725 2725 2628 2537 2453 2453 2453 2453 2230 2299 2230 2299 2102 1936 1839 1711 1752 1711 1635 1599 1599 1599 1672 1599 1672 1565 1599 1565 1533 1533 1388 1362 1338 1226 1247 1247 0 0 0 0 1314 1314 1443 1443 1635 1268 1226 1226 1247 1226 1149 1149 1098 1098 1082 1051 1008 955 981 981 981 876 943 943 943 897 931 919 919 886 955 919 886 0 0 0 0 0 0 799 782 782 808 799 791 782 799 791 774 774 766 758 728 735 728 714 714 0 0 0 0 1187 0 0 0 657 657 657 651 657 634 639 0 0 0 0 0 0 603 0 0 0 0 0
    0 0 0 0 0 0 0 0 0 0 0 0 0 0 0 0 0 0 0 0 0 0 0 0 0 0 0 0 0 0 0 0 0 0 0 0 0 0 0 0 0 0 0 0 0 0 0 0 0 0 0 0 0 0 0 0 0 0 0 0 0 0 0 0 0 0 0 0 0 1066 1098 1098 1098 1115 1115 1149 1149 1149 1187 1206 1226 1247 1268 1268 1291 1314 1388 1388 1388 1388 1314 1362 1362 1388 1362 1415 1415 1388 1443 1565 1565 1599 1565 1672 1635 1672 1711 1752 1752 1795 1795 1839 1887 1839 1887 1936 1887 1989 2044 2044 2102 2164 2164 2299 2164 2453 2453 2453 2537 2628 2537 2725 2725 3199 3199 3345 3345 3199 3873 4599 4906 3873 4906 4906 5256 6133 6690 4906 4599 4599 0 0 0 0 0 0 0 0 0 0 0 0 0 0 0 0 0 6133 0 8177 0 0 0 0 8177 7359 0 0 0 0 0 0 0 0 4088 4329 4088 4599 4599 3873 3345 3504 3345 2943 2725 2830 2725 2628 2537 2537 2453 2453 2537 2537 2230 2299 2299 2374 2102 1887 1795 1711 1711 1711 1672 1599 1599 1599 1711 1635 1711 1635 1635 1565 1565 1565 1388 1362 1338 1247 1268 1247 0 0 0 0 1314 1338 1471 1443 1635 1268 1206 1206 1226 1187 1115 1115 1082 1082 1066 1036 1008 968 994 994 981 876 943 943 943 897 931 919 919 886 943 919 886 0 0 0 0 0 0 799 782 791 808 799 799 782 799 791 774 774 766 758 728 743 735 721 714 0 0 694 0 1168 1132 0 0 0 663 657 651 0 0 0 0 0 0 0 0 0 603 0 0 0 0 0
    0 0 0 0 0 0 0 0 0 0 0 0 0 0 0 0 0 0 0 0 0 0 0 0 0 0 0 0 0 0 0 0 0 0 0 0 0 0 0 0 0 0 0 0 0 0 0 0 0 0 0 0 0 0 0 0 0 0 0 0 0 0 0 0 0 0 0 0 0 1051 1066 1066 1082 1098 1098 1149 1149 1168 1206 1226 1226 1247 1268 1268 1291 1314 1388 1415 1415 1388 1314 1362 1362 1388 1362 1388 1388 1388 1415 1565 1533 1565 1565 1672 1635 1672 1711 1752 1752 1795 1795 1839 1887 1887 1887 1936 1887 1936 1989 2044 2102 2164 2164 2299 2164 2453 2453 2453 2537 2537 2537 2628 2725 3199 3066 3199 3199 3199 3873 4329 4599 3873 4599 4599 4906 5661 6690 4906 4599 4599 0 0 0 0 0 0 0 0 0 0 0 0 0 0 0 0 0 5661 8177 8177 8177 8177 8177 0 7359 7359 0 0 0 0 0 0 0 0 4329 4329 4599 4906 4906 3679 3345 3345 3199 2943 2725 2725 2725 2628 2537 2537 2537 2537 2628 2628 2230 2374 2453 2453 2164 1887 1839 1672 1711 1711 1672 1599 1599 1635 1711 1635 1711 1635 1672 1565 1599 1565 1388 1362 1338 1247 1268 1268 0 0 0 0 1338 1362 1501 1443 1672 1268 1206 1206 1187 1168 1098 1082 1066 1066 1051 1022 1008 968 981 981 981 876 943 943 943 897 931 919 919 886 943 919 886 0 0 0 0 0 0 0 0 791 0 808 799 782 808 791 774 774 766 758 728 743 743 714 0 0 0 0 1187 1168 1132 0 0 0 663 657 657 0 0 0 0 0 0 0 0 0 603 0 0 0 0 0
    0 0 0 0 0 0 0 0 0 0 0 0 0 0 0 0 0 0 0 0 0 0 0 0 0 0 0 0 0 0 0 0 0 0 0 0 0 0 0 0 0 0 0 0 0 0 0 0 0 0 0 0 0 0 0 0 0 0 0 0 0 0 0 0 0 0 0 0 0 1051 1066 1066 1066 1082 1098 1149 1149 1149 1187 1226 1226 1247 1268 1268 1291 1314 1388 1415 1415 1388 1338 1388 1362 1388 1362 1415 1415 1388 1415 1565 1533 1565 1565 1672 1635 1635 1672 1795 1752 1795 1795 1839 1839 1839 1839 1936 1887 1936 1989 2044 2102 2164 2102 2299 2164 2453 2374 2453 2537 2537 2537 2628 2725 3066 3066 3345 3345 3199 3679 4088 4599 3873 4329 4599 4599 5661 6133 4599 4599 4599 0 0 0 0 0 0 0 0 0 0 0 0 0 0 0 0 0 4906 7359 6690 6690 7359 7359 8177 6690 6133 0 0 0 0 0 0 0 4088 4906 4906 5661 5661 5661 4088 3504 3504 3199 2943 2830 2830 2725 2628 2628 2628 2537 2537 2537 2537 2164 2374 2453 2453 2164 0 1839 1711 1711 1711 1635 1599 1599 1599 1711 1635 1711 1635 1672 1565 1599 1565 1388 1338 1338 1247 1268 1268 0 0 0 0 1362 1388 1533 1471 1672 1291 1247 1226 1206 1187 1066 1051 1051 1036 1036 1008 994 968 981 981 968 886 943 943 943 908 931 931 931 897 943 919 886 0 0 0 0 0 0 0 0 0 0 808 808 791 808 782 774 774 774 758 735 743 750 0 0 0 0 0 0 1149 0 0 675 657 663 657 657 663 0 0 0 0 0 0 0 0 0 0 0 0 0 0
    0 0 0 0 0 0 0 0 0 0 0 0 0 0 0 0 0 0 0 0 0 0 0 0 0 0 0 0 0 0 0 0 0 0 0 0 0 0 0 0 0 0 0 0 0 0 0 0 0 0 0 0 0 0 0 0 0 0 0 0 0 0 0 0 0 0 0 0 0 1051 1066 1066 1066 1082 1098 1149 1132 1149 1187 1226 1226 1247 1268 1268 1291 1314 1388 1388 1415 1388 1338 1362 1388 1388 1362 1415 1415 1388 1415 1565 1533 1565 1599 1711 1672 1672 1672 1795 1795 1795 1795 1839 1839 1839 1839 1887 1839 1936 1936 1989 2102 2102 2102 2299 2164 2453 2374 2453 2537 2537 2537 2628 2725 3066 3066 3345 3345 3345 3873 4088 4329 3873 4329 4599 4599 5661 6133 4599 4599 4599 0 0 0 0 0 0 0 0 0 0 0 0 0 0 0 0 0 6133 7359 7359 7359 7359 7359 7359 6690 6133 8177 7359 8177 0 7359 8177 5256 4599 5256 5256 5661 5661 5661 4088 3679 3504 3199 3066 2830 2830 2830 2628 2628 2628 2537 2537 2537 2453 2102 2374 2453 2453 2102 0 1839 1711 1752 1711 1635 1599 1599 1599 1711 1635 1711 1635 1672 1565 1599 1565 1388 1338 1314 1247 1291 1291 0 220 219 0 1362 1415 1533 1471 1672 1291 1291 1268 1247 1226 1082 1051 1051 1036 1036 1008 994 968 981 981 968 897 955 955 955 908 931 931 931 897 943 919 886 0 0 0 0 0 0 0 0 0 0 808 808 791 808 782 774 774 774 766 743 743 758 0 714 0 694 0 0 1132 0 0 687 657 669 663 0 0 0 0 0 0 0 0 0 0 0 0 0 0 0 0
    0 0 0 0 0 0 0 0 0 0 0 0 0 0 0 0 0 0 0 0 0 0 0 0 0 0 0 0 0 0 0 0 0 0 0 0 0 0 0 0 0 0 0 0 0 0 0 0 0 0 0 0 0 0 0 0 0 0 0 0 0 0 0 0 0 0 0 0 0 1051 1066 1051 1066 1082 1098 1149 1132 1168 1168 1206 1206 1247 1247 1268 1291 1314 1362 1388 1415 1388 1338 1388 1388 1388 1362 1415 1443 1415 1415 1565 1565 1599 1599 1711 1672 1672 1672 1839 1839 1839 1795 1839 1887 1887 1839 1887 1839 1936 1936 1989 2102 2102 2102 2299 2164 2537 2374 2453 2537 2537 2537 2628 2725 3066 3066 3504 3504 3504 3873 4088 4599 3873 4599 4599 4599 5661 5661 4599 4599 4599 0 0 0 0 0 0 0 0 0 0 0 0 0 0 0 0 0 6133 7359 6690 6133 6690 6690 6690 6133 6133 7359 6690 7359 0 6690 7359 5256 4599 5661 5661 5661 5661 5661 4329 3679 3504 3199 3199 2943 2943 2830 2628 2628 2725 2537 2537 2537 2453 2102 2299 2453 2374 2044 0 1839 1752 1752 1711 1672 1599 1635 1635 1711 1635 1711 1635 1711 1533 1599 1565 1388 1314 1314 1247 1291 1291 0 221 219 0 1388 1415 1565 1443 1672 1291 1291 1268 1247 1226 1082 1051 1051 1036 1051 1008 994 968 968 981 968 886 943 943 943 908 931 931 931 897 943 919 886 0 0 0 0 0 0 0 0 350 0 0 0 0 808 791 774 774 774 758 743 743 766 714 721 700 700 707 0 0 1082 0 700 669 675 669 0 0 0 0 0 0 0 0 0 0 0 0 0 0 0 0
    0 0 0 0 0 0 0 0 0 0 0 0 0 0 0 0 0 0 0 0 0 0 0 0 0 0 0 0 0 0 0 0 0 0 0 0 0 0 0 0 0 0 0 0 0 0 0 0 0 0 0 0 0 0 0 0 0 0 0 0 0 0 0 0 0 0 0 0 0 1036 1051 1051 1066 1066 1082 1149 1115 1149 1168 1187 1187 1226 1226 1247 1268 1291 1362 1362 1415 1388 1338 1388 1388 1388 1362 1415 1443 1415 1388 1533 1533 1565 1599 1711 1672 1672 1672 1887 1887 1839 1839 1887 1887 1887 1839 1887 1839 1936 1936 1989 2102 2102 2102 2299 2230 2537 2374 2537 2628 2537 2537 2628 2725 3066 3066 3504 3679 3679 4088 4088 4599 4088 4906 4906 4906 5661 5661 4599 4599 4599 0 0 0 0 0 0 0 0 0 0 0 0 0 0 0 0 0 6133 6690 6690 6133 6690 6690 6690 6133 6133 7359 7359 8177 0 6133 6690 4906 4599 5661 5256 5661 5661 4906 4329 3679 3504 3066 3066 2943 2943 2830 2628 2628 2628 2537 2537 2453 2299 2102 2299 2374 2230 1989 0 1839 1752 1752 1711 1672 1635 1672 1672 1752 1672 1752 1672 1711 1533 1599 1565 1388 1314 1314 1268 1314 1291 0 0 220 0 1415 1443 1565 1443 1672 1291 1247 1226 1206 1168 1082 1051 1066 1036 1022 1008 994 968 955 955 955 886 943 943 943 908 931 943 931 897 943 919 886 0 0 0 0 0 0 0 0 350 0 0 0 0 808 782 774 774 774 758 750 743 766 714 721 0 700 707 0 1082 1066 0 0 675 681 675 0 0 0 0 0 0 0 0 0 0 0 0 0 0 0 0
    0 0 0 0 0 0 0 0 0 0 0 0 0 0 0 0 0 0 0 0 0 0 0 0 0 0 0 0 0 0 0 0 0 0 0 0 0 0 0 0 0 0 0 0 0 0 0 0 0 0 0 0 0 0 0 0 0 0 0 0 0 0 0 0 0 0 0 0 0 1036 1051 1051 1051 1066 1082 1149 1115 1132 1168 1168 1187 1206 1206 1247 1268 1291 1338 1338 1388 1362 1338 1362 1362 1388 1362 1415 1443 1415 1388 1533 1533 1565 1565 1711 1635 1672 1672 1887 1887 1887 1839 1887 1887 1887 1839 1839 1795 1936 1887 1989 2102 2102 2102 2299 2230 2537 2299 2453 2628 2537 2628 2628 2725 3066 3066 3679 3873 3873 4088 4329 4906 4599 4906 5256 5256 5661 5256 4599 4599 4599 0 0 0 0 0 0 0 0 0 0 0 0 0 0 0 0 0 6690 6690 6690 6690 6690 6690 6690 6133 6133 7359 7359 8177 0 6133 6133 4906 4906 5661 5256 5661 5256 4599 4329 3504 3345 2943 2943 2830 2830 2725 2537 2537 2537 2453 2453 2374 2299 2102 2230 2374 2102 1936 1795 1839 1752 1752 1711 1672 1635 1672 1672 1752 1672 1711 1672 1711 1565 1599 1565 1388 1291 1291 1268 1314 1314 1362 0 220 0 1415 1443 1565 1415 1635 1291 1247 1226 1206 1168 1115 1051 1036 1036 1008 994 981 968 955 968 968 908 943 955 943 919 931 943 931 897 943 919 886 0 0 0 0 0 0 0 0 0 0 0 0 0 808 782 774 766 774 758 750 743 766 714 728 0 0 0 0 1082 1051 981 0 0 0 0 0 0 0 0 0 0 0 0 0 0 0 0 0 0 0 0
    0 0 0 0 0 0 0 0 0 0 0 0 0 0 0 0 0 0 0 0 0 0 0 0 0 0 0 0 0 0 0 0 0 0 0 0 0 0 0 0 0 0 0 0 0 0 0 0 0 0 0 0 0 0 0 0 0 0 0 0 0 0 0 0 0 0 0 0 0 1022 1036 1036 1051 1066 1066 1132 1115 1132 1149 1168 1168 1206 1206 1247 1247 1268 1314 1314 1362 1362 1338 1362 1362 1362 1362 1415 1443 1415 1388 1501 1501 1565 1565 1711 1635 1672 1711 1887 1936 1887 1839 1839 1887 1887 1839 1839 1795 1887 1887 1936 2102 2164 2164 2299 2230 2537 2299 2453 2537 2537 2537 2628 2628 3066 3066 3679 3873 3873 4088 4329 4906 4599 4906 5256 5256 5661 4906 4599 4599 4599 0 0 0 0 0 0 0 0 0 0 0 0 0 0 0 0 0 6690 6690 6690 6133 6690 6690 6690 6133 6690 7359 8177 8177 0 5661 5661 4599 4906 5661 5256 5661 4906 4088 4329 3504 3345 2943 2943 2830 2830 2830 2537 2537 2537 2453 2453 2374 2299 2102 2230 2299 2044 1936 1839 1887 1752 1752 1711 1711 1672 1711 1711 1752 1672 1752 1672 1752 1599 1635 1565 1415 1291 1291 1247 1314 1314 1362 0 220 0 1443 1443 1565 1388 1565 1291 1247 1247 1206 1149 1082 1036 1022 1022 994 994 981 968 968 981 968 919 955 955 955 919 931 943 931 897 943 919 886 0 0 0 0 0 0 0 0 0 0 0 0 0 808 782 766 766 774 750 758 735 766 714 728 0 714 0 0 1066 1051 0 0 0 0 0 0 0 0 0 0 0 0 0 0 0 0 0 0 0 0 0
    0 0 0 0 0 0 0 0 0 0 0 0 0 0 0 0 0 0 0 0 0 0 0 0 0 0 0 0 0 0 0 0 0 0 0 0 0 0 0 0 0 0 0 0 0 0 0 0 0 0 0 0 0 0 0 0 0 0 0 0 0 0 0 0 0 0 0 0 0 1008 1022 1022 1036 1051 1051 1132 1115 1132 1149 1149 1168 1206 1206 1247 1247 1268 1291 1291 1362 1362 1338 1338 1362 1362 1338 1415 1443 1415 1415 1533 1501 1533 1565 1711 1635 1672 1711 1936 1936 1887 1839 1839 1839 1839 1839 1839 1795 1887 1887 1989 2102 2164 2164 2299 2230 2537 2299 2453 2537 2537 2537 2628 2628 3066 3066 3504 3873 4088 4088 4329 4906 4599 4906 5256 5256 5661 4906 4599 4599 4599 0 0 0 0 0 0 0 0 0 0 0 0 0 0 0 0 0 8177 7359 7359 6690 7359 7359 6690 6690 7359 7359 8177 8177 0 5256 5256 4599 4599 5256 4906 5256 4329 3679 3873 3199 3199 2830 0 2830 2943 2943 2628 2628 2628 2537 2537 2453 2299 2102 2164 2374 2044 1936 1839 1887 1795 1795 1711 1711 1672 0 1672 1711 1635 1711 1635 1752 1599 1635 1599 1415 1291 1268 1247 1314 1314 1338 0 221 219 1443 1443 1533 1362 1501 1291 1247 1206 1168 1115 1066 1036 1022 1022 1008 994 994 968 968 981 981 919 955 955 955 931 931 943 931 897 943 919 886 0 0 0 0 0 0 0 0 808 0 0 0 0 808 782 766 758 766 750 758 735 766 714 728 0 707 700 0 0 1051 0 0 675 0 0 0 0 0 0 0 0 0 0 0 0 0 0 0 0 0 0
    0 0 0 0 0 0 0 0 0 0 0 0 0 0 0 0 0 0 0 0 0 0 0 0 0 0 0 0 0 0 0 0 0 0 0 0 0 0 0 0 0 0 0 0 0 0 0 0 0 0 0 0 0 0 0 0 0 0 0 0 0 0 0 0 0 0 0 0 0 1008 1008 1022 1022 1036 1051 1115 1115 1132 1149 1149 1168 1206 1187 1226 1226 1247 1247 1268 1314 1338 1314 1338 1338 1362 1338 1415 1443 1415 1415 1533 1533 1533 1565 1711 1599 1711 1711 1887 1887 1839 1839 1839 1839 1839 1839 1839 1839 1887 1936 1989 2102 2164 2164 2299 2299 2537 2299 2453 2537 2537 2537 2628 2725 0 3066 3679 3873 4088 4088 4329 4906 4906 4906 5661 5256 6133 4599 4599 4599 4599 0 0 0 0 0 0 0 0 0 0 0 0 0 0 0 0 8177 0 8177 8177 7359 8177 7359 7359 7359 8177 7359 8177 8177 8177 5661 5256 4599 4599 5256 4906 4906 3873 3504 3504 3066 3199 2943 3199 2943 2943 2943 2725 2725 2725 2537 2628 2453 2299 2164 2164 2374 1989 1936 1839 1887 1795 1795 1672 1711 1672 0 1672 1711 1635 1711 1635 1752 1599 1635 1599 1415 1268 1268 1247 1338 1314 1338 0 221 219 1415 1415 1501 1338 1388 1268 1206 1168 1168 1115 1066 1036 1022 1008 994 994 981 955 968 981 981 919 955 955 955 931 931 943 931 897 943 919 886 0 0 0 0 0 0 0 0 817 0 0 0 0 799 782 766 758 766 750 758 735 758 721 728 707 700 694 687 0 0 0 700 669 0 0 0 0 0 0 0 0 0 0 0 0 0 0 0 0 0 0
    0 0 0 0 0 0 0 0 0 0 0 0 0 0 0 0 0 0 0 0 0 0 0 0 0 0 0 0 0 0 0 0 0 0 0 0 0 0 0 0 0 0 0 0 0 0 0 0 0 0 0 0 0 0 0 0 0 0 0 0 0 0 0 0 0 0 0 0 0 1008 1008 1022 1022 1036 1051 1115 1098 1132 1149 1132 1149 1187 1168 1206 1226 1226 1226 1247 1291 1314 1338 1338 1362 1362 1362 1415 1443 1415 1415 1533 1533 1533 1533 1711 1599 1711 1752 1936 1887 1839 1839 1887 1887 1887 1839 1839 1839 1936 1936 2044 2102 2164 2230 2374 2299 2537 2299 2453 2537 2537 2537 2628 2725 0 3199 3679 3873 4329 4329 4329 4906 4906 4906 5661 5256 6133 4599 4599 4599 4599 0 0 0 0 0 0 0 0 0 0 0 0 0 0 0 0 6690 0 8177 7359 7359 7359 7359 7359 6690 8177 7359 8177 8177 8177 5256 5256 4088 3873 4329 4088 4088 3504 3345 3345 3066 3199 3066 3199 2943 3066 3066 2725 2725 2725 2537 2537 2374 2230 2164 2102 2299 1936 1936 1839 1887 1795 1795 1672 1711 1711 0 1672 1711 1635 1711 1672 1795 1635 1635 1635 1443 1268 1268 1268 1338 1338 1338 0 221 220 1388 1388 1443 1291 1291 1247 1168 1149 1168 1098 1051 1036 1008 1022 994 994 981 955 968 981 981 919 955 955 955 931 931 943 931 897 943 919 886 865 876 0 0 0 0 0 0 0 826 808 808 791 799 782 758 758 766 750 758 728 750 714 721 707 700 694 681 0 0 0 694 663 0 0 0 0 0 0 0 0 0 0 0 0 0 0 0 0 0 0
    0 0 0 0 0 0 0 0 0 0 0 0 0 0 0 0 0 0 0 0 0 0 0 0 0 0 0 0 0 0 0 0 0 0 0 0 0 0 0 0 0 0 0 0 0 0 0 0 0 0 0 0 0 0 0 0 0 0 0 0 0 0 0 0 0 0 0 0 0 1008 1008 1022 1022 1036 1036 1098 1098 1115 1149 1115 1149 1187 1168 1206 1226 1226 1226 1226 1291 1314 1314 1338 1362 1362 1362 1415 1471 1443 1415 1533 1533 1533 1533 1672 1599 1711 1752 1887 1887 1795 1839 1887 1936 1887 1839 1887 1887 1936 1989 2044 2164 2164 2230 2374 2299 2537 2299 2453 2537 2453 2537 2537 2725 0 3199 3679 3873 4329 4329 4329 4599 4906 4906 5256 5256 6133 4906 4599 4599 4599 0 0 0 0 0 0 0 0 0 0 0 7359 8177 0 0 0 6133 8177 7359 7359 7359 7359 7359 7359 7359 0 7359 0 0 0 0 5256 3873 3679 3873 3679 3679 3345 3199 3345 3066 3345 3199 3199 3066 2943 2943 2725 2725 2628 2453 2453 2374 2299 2230 2164 2299 1989 1989 1887 1887 1795 1795 1672 1711 1711 0 1711 1752 1672 1752 1711 1839 1635 1635 1635 1443 1268 1268 1247 1338 1338 0 0 221 220 1388 1388 1415 1291 1268 1247 1187 1168 1168 1098 1066 1036 1022 1022 994 994 981 955 968 981 981 908 955 955 955 931 931 943 919 886 955 919 886 876 0 876 855 845 865 826 826 808 817 799 808 782 791 782 758 758 766 750 750 728 750 714 721 707 700 694 687 0 1066 0 694 663 0 0 0 0 0 0 0 0 0 0 0 0 0 0 0 0 0 0
    0 0 0 0 0 0 0 0 0 0 0 0 0 0 0 0 0 0 0 0 0 0 0 0 0 0 0 0 0 0 0 0 0 0 0 0 0 0 0 0 0 0 0 0 0 0 0 0 0 0 0 0 0 0 0 0 0 0 0 0 0 0 0 0 0 0 0 0 0 1008 1008 1022 1022 1022 1036 1098 1082 1115 1132 1115 1149 1187 1168 1206 1206 1206 1226 1206 1291 1291 1314 1362 1362 1362 1362 1415 1471 1443 1443 1533 1533 1533 1565 1672 1635 1752 1752 1887 1887 1839 1839 1936 1936 1936 1887 1936 1887 1989 1989 2044 2164 2164 2230 2374 2299 2537 2299 2453 2537 2453 2537 2628 2725 0 3199 3679 3679 4329 4329 4599 4906 4906 5256 5256 5256 6133 5256 4599 4599 4599 0 0 0 0 0 0 0 0 0 0 8177 6690 0 0 0 0 6133 7359 7359 6690 6690 6133 6690 6690 7359 0 0 0 0 0 198 0 4088 4088 3873 3679 3873 3504 3199 3199 3066 3345 3199 3199 2943 2830 2943 2725 2725 2628 2453 2453 2374 2299 2374 2230 2374 2044 1989 1936 1887 1795 1795 1672 1752 1711 0 1752 1795 1711 1795 1752 1887 1635 1635 1635 1443 1268 1268 1247 1338 1338 0 0 221 220 1362 1362 1362 1268 1247 1247 1168 1149 1149 1082 1066 1036 1022 1022 981 981 981 955 955 981 981 908 943 955 955 931 931 943 919 886 955 919 886 876 0 886 855 845 855 826 817 799 808 791 799 774 791 782 758 758 766 750 750 728 750 721 721 707 700 687 681 0 1082 0 687 0 0 0 0 0 0 0 0 0 0 0 0 0 0 0 0 0 0 0
    0 0 0 0 0 0 0 0 0 0 0 0 0 0 0 0 0 0 0 0 0 0 0 0 0 0 0 0 0 0 0 0 0 0 0 0 0 0 0 0 0 0 0 0 0 0 0 0 0 0 0 0 0 0 0 0 0 0 0 0 0 0 0 0 0 0 0 0 0 1008 1008 1022 1022 1022 1036 1082 1082 1098 1132 1098 1149 1187 1168 1206 1226 1206 1206 1206 1291 1291 1314 1362 1362 1362 1388 1415 1471 1443 1443 1565 1533 1565 1565 1672 1672 1795 1795 1887 1887 1839 1887 1936 1989 1989 1887 1936 1936 1989 2044 2044 2164 2102 2164 2299 2299 2453 2299 2374 2453 2453 2453 2537 2725 3066 3199 3504 3679 4088 4599 4599 4906 4906 5256 5256 5256 6133 5256 4599 4599 4599 0 0 0 0 0 0 0 0 0 5256 0 8177 0 0 0 0 7359 8177 8177 8177 8177 7359 7359 6690 8177 0 0 0 0 148 199 0 4329 4329 3679 3679 3679 3504 3199 3345 3199 3504 3199 3199 3066 2830 2830 2725 2628 2628 2374 2453 2374 2299 2374 2299 2453 2230 2102 1989 1887 1795 1795 1711 1752 0 0 1752 1795 1711 1839 1795 1887 1672 1672 1672 1443 1268 1268 1268 1338 1338 0 221 221 220 1362 0 1362 1268 1226 1247 1149 1149 1132 1082 1051 1036 1022 1022 981 981 981 968 981 981 981 908 955 955 955 931 919 943 919 886 955 919 886 876 0 886 855 845 845 817 808 791 799 782 782 766 782 782 758 758 766 750 750 735 750 721 721 0 694 681 675 0 0 0 675 651 657 0 0 0 0 0 0 0 0 0 0 0 0 0 0 0 0 0
    0 0 0 0 0 0 0 0 0 0 0 0 0 0 0 0 0 0 0 0 0 0 0 0 0 0 0 0 0 0 0 0 0 0 0 0 0 0 0 0 0 0 0 0 0 0 0 0 0 0 0 0 0 0 0 0 0 0 0 0 0 0 0 0 0 0 0 0 0 1008 1008 1022 1022 1022 1022 1082 1082 1098 1132 1098 1149 1187 1168 1206 1226 1206 1206 1206 1268 1268 1291 1338 1338 1362 1362 1415 1471 1443 1471 1565 1565 1565 1599 1672 1711 1795 1795 1887 1887 1839 1887 1936 1989 1989 1887 1936 1989 1989 2044 2102 2164 2102 2164 2299 2230 2374 2230 2374 2453 2374 2453 2537 2725 3066 3199 3504 3504 4088 4329 4599 4906 4599 5256 5256 4906 6133 5661 4599 4599 4599 0 0 0 0 0 0 0 0 8177 6133 0 0 0 0 0 8177 7359 8177 8177 8177 8177 7359 7359 7359 0 0 0 0 0 0 0 0 4329 4599 3679 3873 3873 3679 3345 3504 3345 3679 3345 3345 3066 2830 2830 2725 2628 2628 2374 2374 2453 2374 2453 2299 2453 2299 2102 1989 1936 1795 1795 1711 1752 1752 1752 1752 1795 1752 1887 1839 1936 1672 1672 1672 1443 1247 1268 1268 1338 0 0 0 221 0 0 0 1338 1247 1206 1247 1149 1149 1132 1082 1051 1036 1022 1036 994 994 994 968 994 994 994 919 955 955 968 931 931 943 931 886 955 931 886 876 0 886 855 845 836 808 799 782 791 774 782 758 774 782 758 758 766 750 750 735 750 721 721 0 687 681 675 0 0 669 657 645 651 0 0 0 0 0 0 0 0 0 0 0 0 0 0 0 0 0
    0 0 0 0 0 0 0 0 0 0 0 0 0 0 0 0 0 0 0 0 0 0 0 0 0 0 0 0 0 0 0 0 0 0 0 0 0 0 0 0 0 0 0 0 0 0 0 0 0 0 0 0 0 0 0 0 0 0 0 0 0 0 0 0 0 0 0 0 0 1008 1008 1022 1022 1022 1022 1082 1066 1098 1115 1082 1149 1168 1168 1206 1206 1206 1206 1206 1268 1268 1291 1338 1338 1362 1362 1388 1471 1443 1443 1565 1565 1565 1599 1672 1752 1839 1839 1887 1887 1839 1887 1887 1989 1989 1887 1936 1989 2044 2102 2102 2230 2164 2164 2299 2230 2374 2230 2299 2453 2299 2374 2537 2725 3066 3066 3504 3345 3873 4329 4329 4599 4329 4906 5256 4599 6133 5661 4599 4599 4599 0 0 0 0 0 0 0 0 6690 5661 8177 0 0 0 0 8177 8177 0 8177 8177 8177 6690 6690 6690 8177 0 0 0 0 8177 0 7359 4329 4906 3873 4088 3873 3873 3504 3504 3345 3504 3345 3345 3066 0 2830 2725 2628 2537 2374 2374 2453 2374 2453 2299 2453 2453 2230 2102 1936 1795 1839 1752 0 0 1752 1752 1839 1795 1936 1887 1989 1672 1635 1672 1443 1247 1268 1247 1338 0 0 221 221 0 0 1338 1338 1247 1206 1247 1149 1149 1132 1082 1051 1051 1066 1066 1022 1008 994 981 994 994 994 908 955 955 955 919 919 931 931 897 955 931 886 876 0 886 855 845 0 808 799 774 782 766 774 758 774 782 758 758 766 750 750 735 750 721 714 0 687 681 675 0 0 663 657 645 645 0 0 0 0 0 0 0 0 0 0 0 0 0 0 0 0 0</data></depth>
</opencv_storage>
