<?xml version="1.0"?>
<opencv_storage>
<gps_time_stamp>292309</gps_time_stamp>
<gps_x>-1.2360470771789551e+001</gps_x>
<gps_y>1.1125274658203125e+001</gps_y>
<gps_z>-2.2092404365539551e+000</gps_z>
<image_time_stamp>283159</image_time_stamp>
<depth type_id="opencv-matrix">
  <rows>94</rows>
  <cols>320</cols>
  <dt>s</dt>
  <data>
    0 0 0 0 0 0 0 0 0 0 0 0 0 0 0 0 0 0 0 0 0 0 0 0 0 0 0 0 0 0 0 0 0 0 0 0 0 0 0 0 0 0 0 0 0 0 0 0 0 0 0 0 0 0 0 0 0 0 0 0 0 0 0 0 0 0 0 0 0 0 0 0 0 0 0 0 0 0 0 0 0 0 817 826 845 886 876 855 886 876 876 876 886 876 865 876 897 876 865 876 876 886 886 876 865 817 826 826 817 799 799 799 799 799 855 845 845 845 0 0 98 98 0 0 817 799 808 817 817 808 808 808 817 808 817 817 826 836 836 836 836 836 836 836 826 817 817 817 817 817 817 808 799 817 826 808 826 799 808 817 845 845 826 836 836 836 845 836 836 808 799 817 817 791 791 799 791 799 791 799 799 791 782 791 791 799 791 799 799 791 791 817 817 808 791 782 782 766 782 782 766 774 766 758 766 774 774 782 774 782 766 750 782 791 766 799 799 799 766 791 799 791 782 791 750 758 766 791 758 750 758 758 766 766 758 750 766 750 774 774 774 774 782 782 791 791 799 791 791 791 782 799 782 791 782 799 782 766 0 0 0 0 782 0 0 750 0 750 0 0 0 0 0 0 0 0 0 694 714 714 728 728 714 728 743 774 774 766 766 758 735 735 743 728 714 714 714 707 714 721 721 687 613 608 613 598 865 855 865 886 897 897 897 908 955 0 0 0 0 0
    0 0 0 0 0 0 0 0 0 0 0 0 0 0 0 0 0 0 0 0 0 0 0 0 0 0 0 0 0 0 0 0 0 0 0 0 0 0 0 0 0 0 0 0 0 0 0 0 0 0 0 0 0 0 0 0 0 0 0 0 0 0 0 0 0 0 0 0 0 0 0 0 0 0 0 0 0 0 0 0 0 817 808 817 855 886 876 865 897 886 876 876 886 876 876 876 908 876 865 876 876 886 886 876 855 817 826 817 808 799 799 799 799 799 855 845 845 845 0 0 0 0 0 0 808 799 799 808 817 808 808 808 817 817 826 826 826 836 845 845 836 836 845 845 836 826 826 826 817 826 817 817 808 817 826 817 826 808 808 817 845 845 826 836 836 836 845 845 845 817 799 826 817 799 799 799 799 808 799 808 799 791 791 791 799 808 799 808 808 799 799 826 817 808 799 782 782 766 782 791 766 774 766 750 766 774 782 782 774 782 774 758 791 799 766 799 791 799 766 791 799 782 782 799 758 766 766 791 758 758 758 758 766 766 758 766 766 758 774 774 782 774 782 791 782 799 808 791 791 782 774 791 774 782 782 791 766 758 766 0 0 0 766 0 0 750 0 743 0 0 0 0 0 0 0 0 0 700 714 714 721 721 714 728 750 766 774 774 774 750 735 735 735 721 714 714 714 707 714 721 0 0 0 0 0 0 865 855 865 876 897 897 897 908 955 0 0 0 0 0
    0 0 0 0 0 0 0 0 0 0 0 0 0 0 0 0 0 0 0 0 0 0 0 0 0 0 0 0 0 0 0 0 0 0 0 0 0 0 0 0 0 0 0 0 0 0 0 0 0 0 0 0 0 0 0 0 0 0 0 0 0 0 0 0 0 0 0 0 0 0 0 0 0 0 0 0 0 0 0 799 0 0 808 836 865 897 876 865 897 886 886 886 886 876 876 876 908 876 876 876 876 886 886 876 865 817 826 817 817 799 799 808 799 808 855 855 855 845 0 0 0 0 0 808 808 799 808 817 817 808 817 808 826 817 836 826 836 836 845 845 845 845 845 845 845 836 836 826 826 826 826 817 808 817 826 817 826 808 817 808 836 845 826 836 836 836 845 836 845 817 808 826 826 808 799 808 799 808 799 808 808 799 799 799 799 817 808 808 808 799 799 826 817 808 799 782 791 774 782 791 774 782 766 750 766 766 774 774 766 782 774 758 791 799 758 791 791 791 758 782 791 782 782 799 758 774 766 791 758 758 766 758 774 774 766 774 774 766 782 782 782 782 791 791 782 799 799 782 791 791 774 791 774 782 774 782 766 758 766 766 766 782 774 766 0 0 0 743 758 0 0 0 0 0 0 0 707 700 707 700 714 707 707 721 743 758 774 774 766 743 735 735 735 721 714 714 714 707 721 728 0 0 0 0 0 420 865 855 865 886 897 897 908 919 955 0 0 0 0 0
    0 0 0 0 0 0 0 0 0 0 0 0 0 0 0 0 0 0 0 0 0 0 0 0 0 0 0 0 0 0 0 0 0 0 0 0 0 0 0 0 0 0 0 0 0 0 0 0 0 0 0 0 0 0 0 0 0 0 0 0 0 0 0 0 0 0 0 0 0 0 0 0 0 0 0 0 0 0 0 0 0 0 0 855 897 919 886 876 897 886 886 897 897 876 876 886 897 876 876 876 876 876 876 876 855 817 826 817 817 808 799 808 808 808 855 845 845 845 845 0 0 0 0 817 817 808 808 817 826 817 817 817 826 817 836 826 836 836 845 855 845 845 845 845 845 836 836 826 826 826 826 817 808 808 826 817 826 808 817 808 836 836 826 826 836 826 836 836 845 817 817 826 826 808 808 808 808 817 808 808 808 799 799 808 808 817 808 817 817 808 808 817 817 799 799 782 791 774 791 791 782 782 766 758 774 766 774 774 766 782 782 758 791 799 750 791 791 791 758 782 791 782 782 799 766 782 774 799 766 766 766 766 774 774 774 782 782 766 774 782 782 782 791 782 774 791 791 782 791 791 766 791 766 774 774 782 774 758 766 766 774 782 774 774 782 766 774 758 774 750 0 0 714 714 0 714 707 700 700 694 700 694 694 707 728 735 750 750 750 728 735 743 735 721 714 714 714 714 728 0 0 0 0 468 0 422 855 855 865 886 897 897 908 919 955 0 0 0 0 0
    0 0 0 0 0 0 0 0 0 0 0 0 0 0 0 0 0 0 0 0 0 0 0 0 0 0 0 0 0 0 0 0 0 0 0 0 0 0 0 0 0 0 0 0 0 0 0 0 0 0 0 0 0 0 0 0 0 0 0 0 0 0 0 0 0 0 0 0 0 0 0 897 0 0 0 0 0 1022 943 908 0 0 0 886 931 919 886 876 897 886 886 897 897 876 876 886 886 876 876 876 865 865 876 865 855 826 826 826 826 817 808 808 808 808 845 836 836 836 826 0 0 0 826 817 817 808 808 826 826 817 817 817 826 817 845 836 845 845 855 855 855 845 855 845 855 836 836 836 826 826 826 817 808 817 826 817 826 817 817 808 826 836 817 817 826 817 826 826 836 817 817 836 836 817 817 817 808 817 808 817 808 799 808 808 808 817 817 817 817 817 817 826 826 817 808 799 799 782 799 808 799 791 774 766 774 766 774 774 758 782 774 758 799 799 750 791 782 791 758 791 791 782 782 808 782 782 774 799 774 774 774 774 782 774 782 782 782 766 774 782 782 782 782 766 774 774 782 774 782 782 758 774 758 766 774 782 774 758 774 766 774 782 774 766 774 758 758 750 766 750 750 0 721 714 714 721 707 700 700 681 681 675 675 694 707 707 721 728 735 728 735 743 735 721 721 721 721 728 743 743 0 0 0 0 0 0 855 845 855 876 886 886 897 908 943 0 0 0 0 0
    0 0 0 0 0 0 0 0 0 0 0 0 0 0 0 0 0 0 0 0 0 0 0 0 0 0 0 0 0 0 0 0 0 0 0 0 0 0 0 0 0 0 0 0 0 0 0 0 0 0 0 0 0 0 0 0 0 0 0 0 0 0 0 0 0 0 0 0 0 0 0 897 0 0 0 0 1051 1036 981 0 0 0 0 897 931 908 876 876 897 886 876 886 886 876 876 886 876 876 886 876 865 865 865 865 845 826 826 826 826 826 817 817 808 817 836 817 826 826 817 0 0 0 826 817 817 808 808 817 826 817 817 826 826 817 845 845 855 855 855 865 855 855 855 845 855 845 845 836 826 826 826 817 808 817 817 808 826 817 817 799 826 826 808 817 817 808 817 817 826 817 808 836 836 826 817 826 808 817 808 808 808 799 808 808 817 826 826 826 836 826 826 836 836 826 817 817 817 799 826 817 808 799 782 774 774 774 774 774 766 782 782 774 799 808 750 791 782 782 758 782 791 782 782 808 782 782 774 799 782 782 782 782 782 782 791 791 782 774 774 782 782 782 782 766 774 774 766 758 782 774 743 766 750 766 774 791 774 766 782 782 782 782 782 766 774 758 758 750 766 758 750 735 728 721 721 721 714 707 700 681 675 657 663 687 700 700 700 707 721 721 728 750 743 728 728 728 735 743 774 799 0 0 0 0 791 0 845 845 845 865 876 876 886 897 931 0 0 0 0 0
    0 0 0 0 0 0 0 0 0 0 0 0 0 0 0 0 0 0 0 0 0 0 0 0 0 0 0 0 0 0 0 0 0 0 0 0 0 0 0 0 0 0 0 0 0 0 0 0 0 0 0 0 0 0 0 0 0 0 0 0 0 0 0 0 0 0 0 0 0 897 919 908 919 955 1008 994 1022 1008 955 931 0 919 0 897 931 897 876 876 886 876 876 886 876 865 876 876 865 865 876 876 855 855 855 845 845 826 836 826 836 836 826 826 826 826 845 826 836 836 817 0 0 836 826 817 817 808 808 808 817 808 817 817 817 817 845 845 855 865 865 876 865 855 865 855 855 845 836 826 826 817 817 808 799 799 808 808 826 817 826 808 826 826 817 817 817 817 817 817 826 817 817 836 826 826 817 826 808 808 808 808 808 799 799 808 817 826 826 836 836 826 836 836 836 826 817 826 826 808 826 817 808 799 791 774 774 774 774 774 766 791 791 782 808 808 750 791 782 782 758 782 791 774 774 808 782 782 774 808 791 791 782 782 782 782 791 791 782 774 774 782 774 782 774 766 774 774 758 758 782 774 750 774 750 766 774 791 782 766 0 0 782 782 782 766 774 750 750 743 766 743 743 728 721 714 721 721 721 707 707 687 687 675 681 694 700 694 700 707 721 714 735 750 743 735 735 735 735 758 799 817 836 836 0 0 808 0 836 836 845 855 876 876 876 886 919 0 0 0 0 0
    0 0 0 0 0 0 0 0 0 0 0 0 0 0 0 0 0 0 0 0 0 0 0 0 0 0 0 0 0 0 0 0 0 0 0 0 0 0 0 0 0 0 0 0 0 0 0 0 0 0 0 0 0 0 0 0 0 0 0 0 0 0 0 0 0 0 0 0 0 908 931 908 919 943 968 981 994 968 931 919 908 886 876 897 919 876 865 876 876 876 876 876 865 855 876 865 855 865 876 865 855 845 845 836 836 836 836 836 836 836 836 836 836 845 855 836 836 836 826 0 0 845 826 817 817 808 799 799 808 808 817 826 826 826 845 845 855 865 865 876 855 855 865 845 845 845 836 826 817 817 817 808 799 799 808 808 826 826 826 799 826 826 817 817 817 817 817 817 836 826 817 836 836 836 826 826 799 799 808 808 808 808 808 817 817 836 826 836 836 836 836 826 836 817 808 817 817 799 817 817 808 799 791 782 782 774 774 774 774 791 791 791 808 808 750 791 782 782 758 782 791 774 774 808 782 782 774 808 791 0 0 782 774 782 791 791 782 774 774 782 774 782 766 766 774 774 766 758 782 782 766 782 0 766 774 791 782 0 0 0 782 782 791 774 782 758 766 750 766 750 750 735 728 714 721 728 728 714 714 700 707 700 700 714 714 707 721 721 721 721 735 750 743 735 735 735 743 766 808 817 817 817 836 0 808 721 836 836 836 855 865 865 876 886 919 0 0 0 0 0
    0 0 0 0 0 0 0 0 0 0 0 0 0 0 0 0 0 0 0 0 0 0 0 0 0 0 0 0 0 0 0 0 0 0 0 0 0 0 0 0 0 0 0 0 0 0 0 0 0 0 0 0 0 0 0 0 0 0 0 0 0 0 0 0 0 0 0 0 0 931 943 931 955 981 994 994 1008 994 955 955 0 0 876 908 919 876 865 876 876 865 876 876 865 855 865 865 855 855 865 855 845 836 836 826 826 826 836 836 836 836 845 845 845 855 855 836 836 845 836 0 855 845 836 836 826 817 817 808 817 826 826 836 836 836 855 855 865 865 865 865 845 845 855 845 845 836 836 826 826 826 817 808 799 799 808 808 817 817 826 791 817 817 808 808 808 817 817 808 836 826 826 845 855 855 855 836 791 799 808 808 808 808 0 0 817 836 826 836 836 836 836 836 826 817 817 826 817 808 817 817 817 808 799 791 782 774 774 774 774 791 791 782 799 808 750 791 782 782 758 782 791 782 774 808 791 782 774 808 0 0 0 782 774 791 791 791 782 774 774 782 774 782 766 758 766 766 750 750 766 766 750 0 0 766 766 799 782 0 0 0 791 791 0 791 791 782 774 766 774 766 774 758 750 735 735 735 728 721 714 714 714 714 707 721 721 714 721 728 721 728 743 758 743 743 743 735 743 782 808 817 808 808 0 0 0 0 826 826 826 845 855 865 865 876 919 0 0 0 0 0
    0 0 0 0 0 0 0 0 0 0 0 0 0 0 0 0 0 0 0 0 0 0 0 0 0 0 0 0 0 0 0 0 0 0 0 0 0 0 0 0 0 0 0 0 0 0 0 0 0 0 0 0 0 0 0 0 0 0 0 0 0 0 0 0 0 0 0 0 0 919 931 908 919 943 943 968 968 955 931 943 919 886 886 919 908 876 865 876 876 865 876 876 855 855 865 855 855 855 865 855 845 836 836 826 826 826 836 836 836 836 845 845 845 855 855 836 836 845 845 0 865 845 836 845 836 836 826 817 826 826 836 845 836 836 855 855 865 865 865 865 845 845 855 836 836 0 836 826 826 826 817 808 799 799 808 808 817 817 826 791 817 817 808 808 808 817 817 808 836 826 826 845 865 855 855 826 774 791 0 0 0 0 0 0 817 836 836 836 836 836 836 836 826 817 817 826 826 817 826 817 817 808 808 799 791 774 774 774 774 791 791 782 799 799 750 791 782 782 758 782 791 782 782 808 791 782 774 808 0 0 774 782 782 791 791 791 782 774 782 782 774 782 758 766 766 758 750 743 758 0 743 774 0 774 0 0 782 0 0 0 799 799 0 799 791 791 782 782 782 782 782 791 766 750 743 735 728 721 714 714 707 707 707 714 714 707 714 721 721 728 743 758 743 743 743 743 750 782 0 799 799 0 477 468 0 0 817 826 817 845 855 855 865 865 908 0 0 0 0 0
    0 0 0 0 0 0 0 0 0 0 0 0 0 0 0 0 0 0 0 0 0 0 0 0 0 0 0 0 0 0 0 0 0 0 0 0 0 0 0 0 0 0 0 0 0 0 0 0 0 0 0 0 0 0 0 0 0 0 0 0 0 0 0 0 0 0 0 0 0 908 908 897 908 919 931 943 943 943 943 955 931 886 897 919 897 876 876 876 865 865 876 876 855 855 865 855 855 865 865 855 855 826 826 826 826 826 836 836 836 826 836 845 845 855 845 836 836 845 845 876 865 845 836 836 826 836 817 808 817 817 836 845 826 826 845 845 855 855 855 855 836 845 855 845 845 0 836 826 826 826 817 808 791 799 808 808 817 826 826 808 826 826 808 808 808 817 808 808 826 817 817 845 855 836 836 817 766 782 0 0 0 0 0 0 817 845 845 845 845 845 845 845 836 817 817 826 826 817 826 826 817 817 817 808 791 782 782 774 782 791 791 782 799 808 750 791 782 782 758 782 791 782 782 817 791 782 782 808 782 782 774 782 774 791 791 791 782 774 782 782 774 782 758 774 766 758 750 743 766 766 758 0 0 0 0 0 799 791 808 0 799 791 0 0 0 791 782 782 782 791 782 782 758 735 735 728 721 714 707 714 707 714 714 714 714 707 714 714 714 728 735 750 743 743 743 735 750 791 799 766 774 0 0 0 0 0 808 817 808 836 845 855 855 865 908 0 0 0 0 0
    0 0 0 0 0 0 0 0 0 0 0 0 0 0 0 0 0 0 0 0 0 0 0 0 0 0 0 0 0 0 0 0 0 0 0 0 0 0 0 0 0 0 0 0 0 0 0 0 0 0 0 0 0 0 0 0 0 0 0 0 0 0 0 0 0 0 0 0 0 897 897 886 908 908 919 919 908 908 908 931 897 865 886 897 876 865 865 865 855 855 865 865 845 855 855 845 855 865 865 845 855 826 826 826 826 826 826 826 826 826 836 845 845 855 845 836 836 845 845 876 865 845 836 836 826 845 826 817 808 817 836 845 826 826 845 845 845 845 845 836 826 845 855 836 836 836 836 826 826 826 817 799 791 799 808 817 826 836 826 817 826 826 808 808 799 808 808 808 817 817 817 836 865 826 817 808 758 791 799 0 0 0 0 0 817 845 845 836 845 845 845 845 836 826 826 836 836 826 845 836 836 826 826 808 799 791 791 791 791 799 791 791 808 808 750 791 782 782 766 791 791 782 782 817 791 782 782 808 782 774 774 782 774 791 791 791 782 774 782 782 774 782 758 774 774 758 758 743 774 766 766 0 0 791 782 0 799 791 808 808 808 799 0 0 0 774 774 766 774 774 766 782 0 0 0 728 728 721 714 721 714 721 714 721 721 714 721 714 714 728 735 735 735 735 735 735 743 774 774 735 750 0 0 0 484 481 791 808 791 817 836 845 845 855 886 0 0 0 0 0
    0 0 0 0 0 0 0 0 0 0 0 0 0 0 0 0 0 0 0 0 0 0 0 0 0 0 0 0 0 0 0 0 0 0 0 0 0 0 0 0 0 0 0 0 0 0 0 0 0 0 0 0 0 0 0 0 0 0 0 0 0 0 0 0 0 0 0 0 0 897 0 886 908 919 908 908 897 897 897 919 886 855 876 876 855 855 855 855 845 855 855 855 845 855 855 836 855 855 855 845 845 826 826 826 826 826 826 826 826 826 836 845 845 855 855 836 836 845 845 876 865 845 836 836 826 845 826 817 817 817 836 845 836 836 845 845 855 855 845 845 826 845 855 836 836 836 836 826 826 836 817 799 791 799 808 808 826 826 817 808 826 817 808 808 799 808 808 808 817 808 817 826 845 826 808 808 766 799 799 799 791 0 0 808 817 845 836 836 845 845 845 845 836 826 836 845 845 836 855 845 0 836 836 817 808 0 0 791 799 799 799 799 808 817 750 791 791 782 766 791 791 791 782 817 799 782 791 808 774 774 774 774 774 791 782 782 782 774 782 782 782 782 766 782 774 766 766 766 782 766 766 0 0 791 782 808 799 791 808 808 799 799 0 791 0 766 758 743 750 766 750 766 743 0 743 743 750 735 728 743 728 728 728 728 728 721 721 714 714 728 728 728 728 728 728 728 735 758 0 728 735 0 474 0 490 481 782 799 774 808 817 826 836 836 865 0 0 0 0 0
    0 0 0 0 0 0 0 0 0 0 0 0 0 0 0 0 0 0 0 0 0 0 0 0 0 0 0 0 0 0 0 0 0 0 0 0 0 0 0 0 0 0 0 0 0 0 0 0 0 0 0 0 0 0 0 0 0 0 0 0 0 0 0 0 0 0 0 0 0 908 0 886 919 908 897 908 897 897 897 919 876 845 865 855 845 845 845 845 845 845 855 845 845 855 855 836 855 855 855 836 845 817 826 817 826 826 826 826 826 817 836 845 845 865 855 845 845 855 855 886 865 845 836 836 836 845 836 817 826 817 845 845 836 836 845 845 855 855 845 836 826 845 855 836 836 0 836 826 826 826 817 799 791 799 808 808 817 826 817 817 826 826 817 817 817 817 808 817 817 817 817 836 855 826 817 808 774 799 799 799 799 799 808 817 817 845 836 836 836 845 836 836 826 808 817 826 826 817 836 0 0 0 845 826 817 0 0 799 0 808 799 799 808 817 750 791 782 782 774 791 799 791 791 817 799 791 791 799 766 766 766 774 774 782 782 782 774 774 782 782 782 782 774 791 782 782 782 774 782 774 774 782 782 791 782 799 791 782 799 799 791 791 0 791 766 766 758 750 758 766 750 766 735 750 735 728 735 728 728 743 735 735 735 735 735 735 735 721 721 728 728 728 721 728 728 728 735 750 0 0 0 0 481 490 493 484 774 791 766 799 808 817 817 817 845 0 0 0 0 0
    0 0 0 0 0 0 0 0 0 0 0 0 0 0 0 0 0 0 0 0 0 0 0 0 0 0 0 0 0 0 0 0 0 0 0 0 0 0 0 0 0 0 0 0 0 0 0 0 0 0 0 0 0 0 0 0 0 0 0 0 0 0 0 0 0 0 0 0 0 0 0 886 931 908 897 908 897 897 886 908 865 845 865 855 845 845 845 845 845 845 855 845 845 855 855 836 855 865 865 836 855 826 826 826 826 826 826 826 826 817 836 845 845 876 865 855 855 855 865 886 876 855 845 845 845 855 845 826 826 817 845 845 836 836 845 845 845 845 836 836 817 836 845 836 0 0 836 826 826 826 817 799 791 808 808 808 826 826 826 836 836 836 826 826 826 826 826 826 826 817 826 826 845 826 817 808 782 799 799 799 799 808 817 817 817 845 836 836 836 845 836 836 817 808 808 817 817 799 817 0 0 0 0 836 817 0 0 0 0 799 799 791 808 808 743 782 782 774 774 791 799 791 791 817 799 791 0 799 766 766 766 774 774 782 774 782 774 774 782 791 791 791 782 799 782 782 782 782 782 782 774 782 782 782 782 791 782 782 791 799 791 791 782 791 774 774 766 758 758 758 750 750 721 728 707 707 0 707 721 728 728 743 743 743 743 743 743 728 728 735 735 728 721 728 728 728 735 0 0 0 0 0 481 490 493 0 766 791 758 791 791 808 808 808 836 0 0 0 0 0
    0 0 0 0 0 0 0 0 0 0 0 0 0 0 0 0 0 0 0 0 0 0 0 0 0 0 0 0 0 0 0 0 0 0 0 0 0 0 0 0 0 0 0 0 0 0 0 0 0 0 0 0 0 0 0 0 0 0 0 0 0 0 0 0 0 0 0 0 0 0 0 919 943 919 897 897 897 897 886 897 865 845 865 845 845 845 845 845 845 845 855 845 845 865 855 845 865 865 855 836 855 826 826 826 826 817 826 826 826 808 836 845 845 865 865 855 855 855 876 886 876 865 855 855 855 876 876 845 836 836 855 855 845 845 845 845 845 845 836 826 817 836 845 0 0 89 836 826 826 826 817 808 799 808 817 808 826 826 826 826 826 826 826 826 826 826 826 826 826 817 826 826 845 817 817 808 791 799 799 799 799 808 817 817 826 845 836 836 845 845 836 836 826 817 817 826 817 808 826 0 0 0 0 0 0 0 0 0 0 799 799 782 799 808 743 782 782 766 774 791 799 791 791 817 799 791 0 0 0 766 766 766 774 782 766 774 774 782 782 791 791 782 791 0 782 782 774 782 782 782 774 774 782 782 782 791 782 782 791 799 791 799 782 791 782 782 774 766 766 766 758 758 728 735 714 714 700 714 721 728 728 743 750 750 750 743 743 735 735 743 735 728 728 728 728 728 735 735 0 0 0 0 471 0 0 0 758 782 750 791 782 799 799 799 826 0 0 0 0 0
    0 0 0 0 0 0 0 0 0 0 0 0 0 0 0 0 0 0 0 0 0 0 0 0 0 0 0 0 0 0 0 0 0 0 0 0 0 0 0 0 0 0 0 0 0 0 0 0 0 0 0 0 0 0 0 0 0 0 0 0 0 0 0 0 0 0 0 0 0 0 0 931 955 931 908 897 897 897 897 897 865 855 865 845 845 845 845 845 845 845 845 836 845 865 845 845 855 855 855 0 855 817 817 817 817 817 817 817 826 808 836 836 836 855 855 855 855 855 865 876 865 865 855 845 855 876 876 845 845 836 845 845 845 836 845 845 845 836 826 826 817 836 836 0 90 89 836 826 826 826 808 799 799 808 808 808 826 808 817 826 826 826 826 817 826 817 826 826 817 817 826 826 845 817 817 808 799 799 799 799 799 808 817 817 826 836 836 836 845 845 826 836 826 817 826 836 836 826 855 0 0 0 0 0 0 0 0 0 0 808 791 774 799 808 735 774 782 758 782 791 799 791 791 817 799 791 0 0 0 766 766 766 774 774 766 774 774 782 782 782 782 774 791 0 0 774 766 782 782 782 766 774 774 782 782 791 782 782 791 799 791 799 782 791 774 782 774 758 766 766 766 766 735 735 707 714 714 728 728 721 728 735 743 750 743 743 728 728 743 743 743 728 728 728 735 735 743 728 0 0 0 0 462 0 0 0 758 782 750 782 774 791 782 782 817 0 0 0 0 0
    0 0 0 0 0 0 0 0 0 0 0 0 0 0 0 0 0 0 0 0 0 0 0 0 0 0 0 0 0 0 0 0 0 0 0 0 0 0 0 0 0 0 0 0 0 0 0 0 0 0 0 0 0 0 0 0 0 0 0 0 0 0 0 0 0 0 0 0 0 0 0 919 931 919 908 897 897 897 897 886 865 865 865 855 845 855 845 845 855 855 845 836 845 865 845 845 855 855 0 0 855 817 817 817 817 808 817 817 817 808 826 836 836 855 855 855 855 855 865 865 865 876 855 855 855 876 865 845 836 826 826 836 836 836 836 836 836 826 817 817 817 836 0 90 89 89 836 826 836 826 817 808 799 817 817 817 826 817 826 826 826 826 826 826 826 826 826 826 817 817 826 826 845 817 808 808 799 808 808 799 799 808 817 826 836 845 836 836 845 845 826 836 826 808 826 826 826 826 855 0 0 0 0 0 0 0 0 0 0 808 791 766 799 799 728 774 774 758 774 791 791 782 782 817 799 791 0 0 0 774 774 774 774 774 766 766 774 774 774 782 774 766 782 0 0 0 766 774 782 782 774 774 774 774 782 782 774 774 791 791 782 791 782 782 774 774 774 758 766 766 766 758 728 721 0 707 707 728 721 721 728 743 750 750 743 743 728 728 743 743 735 728 728 728 735 743 743 728 728 0 0 0 0 0 0 0 758 782 743 774 766 782 774 774 808 0 0 0 0 0
    0 0 0 0 0 0 0 0 0 0 0 0 0 0 0 0 0 0 0 0 0 0 0 0 0 0 0 0 0 0 0 0 0 0 0 0 0 0 0 0 0 0 0 0 0 0 0 0 0 0 0 0 0 0 0 0 0 0 0 0 0 0 0 0 0 0 0 0 0 0 955 955 955 931 931 919 897 897 886 865 865 855 855 855 855 855 845 845 855 855 845 845 845 855 845 845 855 845 0 0 855 817 817 817 817 808 817 817 817 799 826 826 826 855 855 855 855 855 865 865 865 876 855 855 865 876 865 855 845 826 826 836 845 845 836 836 836 826 826 826 817 836 0 90 89 89 836 826 836 826 817 817 808 817 817 817 836 817 826 836 826 826 826 826 826 826 826 817 808 817 817 817 836 808 808 808 808 0 808 808 808 808 817 836 845 836 836 836 836 845 826 826 817 799 817 817 817 808 836 0 0 0 0 0 0 0 0 808 817 808 799 774 799 799 728 774 774 750 774 782 791 782 782 817 799 799 83 83 0 774 774 774 774 774 758 766 766 774 774 774 766 758 774 0 0 0 758 774 782 774 774 774 774 774 782 782 774 766 782 774 766 774 774 782 774 774 774 766 774 766 766 743 728 721 707 707 700 721 721 721 743 750 766 766 758 750 728 735 750 735 735 728 728 735 735 750 750 735 0 0 758 0 0 0 0 0 750 774 743 766 758 774 766 774 799 0 0 0 0 0
    0 0 0 0 0 0 0 0 0 0 0 0 0 0 0 0 0 0 0 0 0 0 0 0 0 0 0 0 0 0 0 0 0 0 0 0 0 0 0 0 0 0 0 0 0 0 0 0 0 0 0 0 0 0 0 0 0 0 0 0 0 0 0 0 0 0 0 0 0 968 968 968 981 955 955 919 886 886 865 855 855 865 855 855 855 855 845 855 855 855 845 845 845 855 855 855 855 845 0 826 855 817 817 817 808 799 808 808 817 799 826 826 826 855 855 855 855 855 876 865 876 897 865 876 876 897 886 865 855 836 826 845 855 865 845 845 836 826 826 836 826 836 0 89 89 0 845 836 836 826 826 817 808 817 817 817 817 817 826 826 826 826 826 826 826 826 817 817 808 817 817 808 836 808 808 808 808 0 808 808 808 808 817 826 836 826 826 826 817 817 799 799 791 791 799 808 808 799 826 817 0 0 0 0 0 0 836 808 817 808 799 774 799 799 728 774 774 750 774 782 791 782 782 808 791 791 83 83 0 774 774 774 774 774 758 766 766 766 766 774 758 758 774 0 0 0 766 774 774 766 766 774 774 774 782 782 766 758 782 774 758 766 766 774 766 774 774 766 774 774 774 758 743 735 721 721 714 728 721 721 758 758 774 774 758 750 728 735 750 735 735 728 728 735 735 758 750 735 0 0 766 799 0 0 791 707 750 766 735 766 758 774 766 758 799 0 0 0 0 0
    0 0 0 0 0 0 0 0 0 0 0 0 0 0 0 0 0 0 0 0 0 0 0 0 0 0 0 0 0 0 0 0 0 0 0 0 0 0 0 0 0 0 0 0 0 0 0 0 0 0 0 0 0 0 0 0 0 0 0 0 0 0 0 0 0 0 0 0 0 968 968 968 981 955 968 919 886 886 855 845 865 865 855 855 855 855 855 855 865 865 845 855 855 865 865 865 855 845 845 836 855 817 817 817 808 799 808 808 817 791 826 826 817 845 855 855 855 855 876 865 876 886 865 876 876 886 876 865 855 845 826 845 855 865 855 855 845 836 836 836 836 836 0 89 0 0 845 826 826 817 817 808 799 808 808 808 808 799 817 817 817 817 817 817 826 826 826 817 808 817 817 808 826 808 808 808 817 808 808 808 808 808 817 826 826 826 826 826 826 817 808 808 799 799 799 808 808 799 817 808 808 817 0 808 799 0 817 799 799 808 791 758 791 782 728 766 774 743 774 774 782 774 774 808 791 791 83 0 782 782 782 782 774 774 758 766 774 766 766 766 758 758 766 0 743 0 750 766 774 766 766 774 774 782 782 782 774 766 782 782 758 766 758 766 766 774 774 766 774 774 774 766 750 743 721 721 714 728 721 728 758 758 774 774 758 750 728 735 750 735 735 728 728 728 735 758 750 0 0 0 766 799 0 0 791 707 750 766 735 766 750 766 758 758 791 0 0 0 0 0
    0 0 0 0 0 0 0 0 0 0 0 0 0 0 0 0 0 0 0 0 0 0 0 0 0 0 0 0 0 0 0 0 0 0 0 0 0 0 0 0 0 0 0 0 0 0 0 0 0 0 0 0 0 0 0 0 0 0 0 0 0 0 0 0 0 0 0 0 0 943 943 955 968 943 931 897 886 886 855 845 855 855 845 855 855 855 855 865 876 865 855 865 865 865 865 865 855 0 845 836 855 817 817 817 808 799 808 808 808 791 817 817 817 845 855 855 855 855 876 855 865 876 865 876 886 886 876 865 855 845 836 845 855 855 845 845 836 826 836 836 836 0 89 89 0 0 836 817 817 799 808 808 799 808 808 808 808 808 826 817 817 817 817 817 826 826 826 808 817 817 817 808 836 808 808 817 817 808 808 808 808 808 817 826 826 826 826 826 826 817 808 808 799 799 808 808 817 799 817 808 808 808 0 799 791 791 799 782 791 791 774 743 774 774 721 766 774 743 766 766 774 766 774 799 782 791 83 0 791 782 791 791 774 774 766 774 774 774 774 766 750 750 758 750 735 750 743 758 766 774 766 782 774 782 782 782 774 774 791 791 758 774 766 774 774 774 774 774 774 774 782 766 750 735 714 721 714 721 714 728 758 750 774 782 758 750 735 743 758 735 735 728 728 728 743 766 750 0 0 0 758 782 808 791 782 707 743 758 735 758 750 758 758 750 791 0 0 0 0 0
    0 0 0 0 0 0 0 0 0 0 0 0 0 0 0 0 0 0 0 0 0 0 0 0 0 0 0 0 0 0 0 0 0 0 0 0 0 0 0 0 0 0 0 0 0 0 0 0 0 0 0 0 0 0 0 0 0 0 0 0 0 0 0 0 0 0 0 0 0 919 908 919 943 908 897 865 876 876 845 845 865 855 845 855 855 855 855 865 876 865 855 876 865 865 865 876 865 845 855 836 855 836 826 826 808 799 808 808 808 791 817 808 808 836 855 855 855 855 876 855 865 876 865 876 876 886 876 865 855 845 826 845 855 855 836 836 836 826 836 845 836 836 0 0 0 826 836 826 817 799 808 808 808 808 817 817 808 808 826 817 817 817 817 817 817 826 826 808 817 817 826 817 836 808 808 808 808 808 799 808 808 808 817 826 826 826 826 826 826 817 808 799 799 808 808 817 817 808 0 817 0 0 0 0 791 791 799 782 782 791 774 750 774 774 728 766 774 735 766 766 774 758 766 799 782 782 0 0 791 791 799 791 782 774 766 774 774 774 774 766 750 750 750 743 728 735 728 750 750 766 758 774 774 782 774 791 782 782 799 791 766 774 774 774 774 774 782 774 774 782 791 766 758 735 728 735 728 735 728 735 766 758 774 782 766 750 735 743 750 735 735 728 728 728 743 774 0 0 0 0 758 791 826 808 782 707 743 758 735 758 743 758 750 743 782 0 0 0 0 0
    0 0 0 0 0 0 0 0 0 0 0 0 0 0 0 0 0 0 0 0 0 0 0 0 0 0 0 0 0 0 0 0 0 0 0 0 0 0 0 0 0 0 0 0 0 0 0 0 0 0 0 0 0 0 0 0 0 0 0 0 0 0 0 0 0 0 0 0 0 931 931 931 955 919 931 876 865 855 845 836 865 845 845 845 845 845 855 865 876 855 855 876 855 865 865 865 855 845 855 836 855 836 826 826 799 791 799 799 799 782 808 799 799 826 855 855 855 865 897 865 865 886 865 876 886 886 886 865 855 845 826 855 855 855 845 836 836 826 836 845 845 836 0 0 0 826 845 826 826 799 808 808 799 808 817 817 808 817 826 817 817 817 817 817 817 826 817 817 817 817 826 817 836 808 808 808 808 808 799 808 808 808 817 826 826 826 826 826 826 808 808 799 799 808 817 817 826 817 0 826 0 817 0 799 791 791 799 782 791 799 782 758 782 774 728 766 774 735 766 766 774 758 766 799 782 782 817 799 791 791 799 791 782 782 774 774 782 774 766 758 750 743 743 728 714 0 0 735 743 758 750 782 782 782 774 791 782 791 791 782 750 758 758 766 758 758 766 766 766 774 782 774 766 743 743 750 735 758 743 750 774 766 782 782 766 750 735 743 743 735 735 728 728 728 750 0 0 0 0 0 0 799 836 808 782 0 743 750 728 750 735 750 743 735 782 0 0 0 0 0
    0 0 0 0 0 0 0 0 0 0 0 0 0 0 0 0 0 0 0 0 0 0 0 0 0 0 0 0 0 0 0 0 0 0 0 0 0 0 0 0 0 0 0 0 0 0 0 0 0 0 0 0 0 0 0 0 0 0 0 0 0 0 0 0 0 0 0 0 0 0 0 931 943 908 919 876 876 855 845 845 865 845 845 855 845 845 855 865 876 855 865 876 855 865 865 865 855 845 855 836 845 836 836 826 799 791 799 791 799 782 799 799 791 826 855 865 865 876 897 886 876 886 876 886 886 886 876 855 845 845 836 855 855 855 845 836 836 836 845 855 845 845 845 845 836 836 845 836 826 808 817 808 799 808 817 808 808 817 826 817 817 817 817 817 817 826 817 817 817 826 826 817 836 808 808 808 808 799 799 808 808 808 817 817 817 817 826 817 817 808 808 799 799 799 808 808 817 808 826 826 817 808 0 799 799 799 799 782 782 791 782 758 782 774 728 766 766 735 766 766 774 758 766 799 782 782 817 799 799 791 808 791 782 782 774 782 782 774 774 758 758 750 743 728 714 0 0 0 743 758 758 791 782 791 774 799 791 791 791 782 750 758 743 758 750 750 758 758 750 774 782 766 758 750 743 758 743 766 750 758 774 774 782 791 766 750 735 743 735 728 735 728 728 728 758 0 0 0 0 2230 0 0 0 0 0 0 735 743 728 743 728 743 743 735 774 0 0 0 0 0
    0 0 0 0 0 0 0 0 0 0 0 0 0 0 0 0 0 0 0 0 0 0 0 0 0 0 0 0 0 0 0 0 0 0 0 0 0 0 0 0 0 0 0 0 0 0 0 0 0 0 0 0 0 0 0 0 0 0 0 0 0 0 0 0 0 0 0 0 0 943 931 919 931 908 919 886 886 855 855 855 876 845 845 855 845 845 865 865 865 855 865 886 855 865 865 855 845 845 855 836 845 845 845 836 799 791 799 799 799 782 791 791 791 826 855 865 865 876 919 897 886 897 876 897 886 886 876 855 855 845 836 855 855 855 845 836 845 836 845 855 845 845 845 845 845 845 855 845 836 817 826 817 799 808 817 799 799 817 817 817 817 817 826 817 826 826 817 826 826 826 826 817 826 808 808 808 799 799 799 808 808 799 808 817 808 808 817 817 817 808 799 799 799 808 799 799 817 808 826 826 817 808 0 799 791 791 791 782 791 799 791 766 791 782 728 774 774 735 766 766 774 750 766 799 782 782 817 799 799 799 808 791 791 791 782 791 782 782 774 766 774 758 750 743 728 0 0 0 758 766 0 0 0 791 774 799 782 782 782 774 743 750 743 758 750 750 758 758 750 774 782 766 750 750 743 743 735 758 743 758 774 774 782 791 774 758 743 743 735 728 728 728 728 728 766 766 0 0 0 0 0 0 0 0 0 0 728 735 721 743 728 735 735 728 0 0 0 0 0 0
    0 0 0 0 0 0 0 0 0 0 0 0 0 0 0 0 0 0 0 0 0 0 0 0 0 0 0 0 0 0 0 0 0 0 0 0 0 0 0 0 0 0 0 0 0 0 0 0 0 0 0 0 0 0 0 0 0 0 0 0 0 0 0 0 0 0 0 0 0 955 943 931 955 908 955 897 886 865 865 865 865 845 845 855 845 845 855 865 865 855 865 876 855 865 876 865 845 845 865 845 845 865 855 845 817 799 808 799 799 782 791 782 782 817 855 865 865 876 919 919 897 897 876 908 886 876 876 865 855 855 845 865 845 845 836 836 836 836 845 855 845 845 845 855 845 845 865 845 836 817 817 808 791 808 808 782 791 817 817 817 817 826 826 817 836 836 826 826 836 826 826 817 826 808 808 808 799 799 799 799 799 799 808 808 808 808 817 808 808 808 799 799 799 817 808 808 817 817 836 836 817 808 799 0 791 799 799 782 791 799 799 782 799 799 735 774 774 735 766 766 766 750 766 799 782 782 817 799 799 799 817 791 791 791 782 791 791 782 782 774 782 766 758 766 750 0 0 0 774 0 0 0 0 0 0 817 799 0 791 782 750 758 735 758 750 743 750 750 750 766 782 774 758 758 758 750 743 766 758 766 782 782 791 791 766 766 750 743 728 728 728 721 728 728 782 743 0 0 694 0 0 0 0 0 0 0 721 728 721 735 721 735 735 0 0 0 0 0 0 0
    0 0 0 0 0 0 0 0 0 0 0 0 0 0 0 0 0 0 0 0 0 0 0 0 0 0 0 0 0 0 0 0 0 0 0 0 0 0 0 0 0 0 0 0 0 0 0 0 0 0 0 0 0 0 0 0 0 0 0 0 0 0 0 0 0 0 0 0 0 968 955 931 955 919 943 908 886 876 865 865 865 855 855 855 845 855 855 865 865 855 876 876 865 876 876 865 855 855 865 845 845 876 865 855 836 808 808 808 808 791 791 782 782 808 845 845 845 855 886 908 876 886 876 897 886 876 886 865 845 855 836 855 836 826 826 826 826 836 845 855 845 0 0 845 836 836 845 826 808 791 808 799 782 799 799 791 799 817 817 817 817 826 826 826 826 836 836 836 836 826 826 826 826 808 808 808 808 799 808 808 808 808 808 808 808 808 817 817 817 808 808 808 799 808 799 808 817 817 836 845 826 817 808 799 791 799 799 791 791 799 799 791 808 808 735 774 774 743 766 766 766 750 766 799 782 782 808 791 791 799 817 791 782 782 782 791 791 782 782 774 791 774 766 782 766 0 0 0 782 0 0 0 0 0 0 826 0 0 791 782 758 758 743 766 743 743 743 743 735 766 774 782 758 774 766 758 743 766 758 774 782 774 782 791 758 758 750 743 728 728 728 721 721 735 758 707 700 694 681 657 663 0 0 0 0 0 721 728 721 735 721 735 735 728 758 0 0 0 0 0
    0 0 0 0 0 0 0 0 0 0 0 0 0 0 0 0 0 0 0 0 0 0 0 0 0 0 0 0 0 0 0 0 0 0 0 0 0 0 0 0 0 0 0 0 0 0 0 0 0 0 0 0 0 0 0 0 0 0 0 0 0 0 0 0 0 0 0 0 0 981 968 943 968 908 943 897 865 865 865 865 865 855 855 855 855 865 865 876 865 865 886 876 876 876 876 865 855 855 865 836 845 886 876 865 845 817 817 817 817 799 791 782 782 808 836 845 836 845 876 897 876 876 876 897 897 886 886 855 845 855 845 855 836 826 826 826 836 836 845 855 845 0 0 0 836 0 836 817 808 791 808 808 782 799 799 799 817 817 826 826 817 826 826 826 826 826 836 826 836 826 826 826 826 817 817 808 808 808 808 808 808 808 817 808 808 808 817 817 817 817 808 808 799 808 799 799 808 817 836 845 826 817 808 0 799 799 799 791 791 799 799 791 808 808 735 782 774 743 766 766 766 750 766 799 782 774 808 782 791 791 808 782 782 782 782 791 791 782 782 782 791 0 0 0 774 0 0 0 0 0 0 0 0 0 0 0 0 0 782 782 766 774 758 774 758 743 743 743 743 766 774 782 766 774 774 766 743 766 766 782 782 782 782 782 758 766 758 735 728 728 728 721 721 735 750 700 700 687 681 663 669 0 0 0 579 0 714 728 721 735 721 735 735 735 758 0 0 0 0 0
    0 0 0 0 0 0 0 0 0 0 0 0 0 0 0 0 0 0 0 0 0 0 0 0 0 0 0 0 0 0 0 0 0 0 0 0 0 0 0 0 0 0 0 0 0 0 0 0 0 0 0 0 0 0 0 0 0 0 0 0 0 0 0 0 0 0 0 0 0 994 994 994 1008 968 981 931 865 876 876 876 865 855 865 855 855 865 876 876 865 876 886 876 876 886 876 855 855 855 865 826 836 886 886 865 845 826 826 826 826 817 791 791 791 817 836 845 845 855 876 908 876 876 876 897 886 876 876 845 836 845 845 845 836 826 836 826 836 845 855 855 0 90 0 0 0 0 836 817 817 799 808 808 791 808 799 799 826 817 826 826 826 836 826 826 826 826 836 836 836 836 836 836 836 826 0 817 817 808 808 808 808 808 808 808 808 808 817 808 817 817 791 791 774 791 774 782 782 799 826 836 817 817 799 799 799 808 799 791 799 799 799 799 808 808 735 782 774 743 766 766 766 750 766 799 782 774 799 782 782 791 808 774 774 774 782 791 791 782 782 791 791 0 0 0 782 0 0 0 0 817 817 826 0 0 0 0 774 791 758 758 758 758 758 766 758 743 743 750 758 782 782 782 774 782 782 766 750 774 766 782 782 782 791 782 750 766 758 735 728 728 728 728 728 750 766 700 700 694 681 663 663 0 0 603 584 623 714 728 714 735 721 735 735 728 758 0 0 0 0 0
    0 0 0 0 0 0 0 0 0 0 0 0 0 0 0 0 0 0 0 0 0 0 0 0 0 0 0 0 0 0 0 0 0 0 0 0 0 0 0 0 0 0 0 0 0 0 0 0 0 0 0 0 0 0 0 0 0 0 0 0 0 0 0 0 0 0 0 0 0 0 0 1022 1051 1036 1036 968 876 876 886 876 855 855 865 855 865 876 876 876 865 876 897 886 886 886 876 865 865 876 865 826 836 886 886 865 845 836 836 826 836 826 799 799 799 826 845 855 855 865 886 908 886 886 886 897 876 855 865 836 826 836 836 845 826 826 836 826 836 845 855 855 0 90 0 0 0 0 826 817 817 799 808 808 791 808 791 799 826 817 826 826 826 826 826 836 826 826 836 836 836 836 836 836 836 826 0 817 808 808 808 808 808 808 808 808 808 808 817 799 808 817 774 782 758 766 758 774 758 782 799 808 799 799 791 799 799 808 799 799 808 808 808 799 808 808 735 782 774 743 766 766 766 743 766 791 774 766 799 774 782 782 808 774 774 774 774 791 791 782 782 791 0 0 0 0 791 0 0 791 0 817 0 0 0 0 0 791 0 774 743 743 743 743 743 750 750 735 743 750 766 774 782 782 774 774 774 758 735 766 766 774 774 782 791 782 743 774 758 735 728 735 735 728 735 774 774 700 694 694 675 645 639 0 603 593 579 613 0 721 714 728 721 728 728 728 0 0 0 0 0 0
    0 0 0 0 0 0 0 0 0 0 0 0 0 0 0 0 0 0 0 0 0 0 0 0 0 0 0 0 0 0 0 0 0 0 0 0 0 0 0 0 0 0 0 0 0 0 0 0 0 0 0 0 0 0 0 0 0 0 0 0 0 0 0 0 0 0 0 0 0 0 0 1022 1066 1051 1036 968 865 876 886 876 855 855 865 855 865 876 886 876 876 886 897 886 886 897 876 0 865 876 865 836 836 886 876 865 845 836 836 836 845 836 799 799 799 0 845 855 855 865 886 919 886 886 886 886 865 0 845 836 817 826 836 836 826 817 826 826 826 845 845 845 90 90 0 0 0 0 826 808 817 799 817 817 791 817 799 808 826 817 826 826 817 826 826 826 826 817 836 826 826 826 826 826 826 826 0 817 808 808 817 808 808 808 808 808 808 808 817 799 808 817 782 791 774 774 766 774 758 774 782 791 791 791 782 791 791 808 799 799 817 817 817 799 817 808 735 782 774 743 766 766 766 743 766 791 774 766 799 774 774 782 799 774 774 766 774 782 791 782 782 791 0 0 0 0 791 791 0 0 0 0 0 0 0 0 0 791 766 774 750 750 750 750 743 743 743 735 743 743 758 758 774 782 766 758 766 743 728 758 766 766 766 774 782 774 743 774 758 735 728 735 735 735 743 782 758 700 694 694 675 639 645 608 603 593 588 613 0 714 707 728 714 728 728 0 0 0 0 0 0 0
    0 0 0 0 0 0 0 0 0 0 0 0 0 0 0 0 0 0 0 0 0 0 0 0 0 0 0 0 0 0 0 0 0 0 0 0 0 0 0 0 0 0 0 0 0 0 0 0 0 0 0 0 0 0 0 0 0 0 0 0 0 0 0 0 0 0 0 0 0 0 0 1008 1051 1036 1022 919 876 886 897 876 865 865 865 865 865 886 886 876 876 886 886 886 897 897 876 0 876 876 865 836 836 876 876 876 845 845 845 845 855 845 808 799 808 826 836 845 845 855 865 897 865 865 865 865 855 836 826 826 817 817 826 826 817 817 817 826 826 845 845 0 90 89 0 0 0 0 817 799 808 791 808 808 791 817 808 817 826 817 826 826 817 826 817 817 817 817 826 817 817 817 826 826 826 826 0 0 0 817 817 817 808 808 808 808 808 808 826 799 808 817 774 791 766 774 774 774 758 758 774 782 782 782 782 782 791 799 799 799 817 817 817 799 817 808 728 782 774 743 766 766 766 743 766 791 766 766 791 774 774 774 799 774 774 774 774 782 782 782 782 791 791 0 0 799 791 791 782 782 0 0 0 817 0 0 0 799 758 774 750 743 750 758 758 766 766 758 774 766 799 791 808 0 0 0 774 743 721 750 758 766 766 774 782 758 743 782 758 735 735 743 735 735 750 808 766 694 694 694 669 639 651 608 613 603 603 618 687 707 707 721 714 721 0 0 0 0 0 0 0 0
    0 0 0 0 0 0 0 0 0 0 0 0 0 0 0 0 0 0 0 0 0 0 0 0 0 0 0 0 0 0 0 0 0 0 0 0 0 0 0 0 0 0 0 0 0 0 0 0 0 0 0 0 0 0 0 0 0 0 0 0 0 0 0 0 0 0 0 0 0 0 0 0 1036 1036 0 886 876 886 897 876 865 865 876 865 876 886 886 876 876 886 886 876 897 886 0 865 876 886 855 836 836 876 876 865 845 845 845 845 855 855 808 808 808 826 826 836 836 836 845 865 836 845 836 845 836 826 817 808 808 817 817 826 817 808 817 817 826 836 0 90 90 89 0 0 0 0 808 791 799 782 808 808 799 817 817 836 826 817 836 826 826 826 826 817 808 808 826 808 808 817 826 836 836 836 0 0 0 0 826 817 808 808 808 808 799 799 817 799 808 808 758 774 766 774 766 774 758 758 774 782 774 774 774 774 782 791 799 791 808 808 808 799 817 808 735 782 774 743 766 766 766 743 766 791 766 766 791 766 774 774 799 766 774 774 774 782 782 774 791 791 782 0 0 799 791 791 774 782 791 817 808 808 791 791 791 799 758 774 758 743 758 758 766 774 774 774 782 782 808 799 0 0 0 0 766 0 721 735 743 750 758 758 774 750 735 774 758 743 735 735 735 743 766 826 791 694 0 0 681 0 0 0 629 608 618 623 687 707 707 721 714 721 0 0 0 0 0 0 0 0
    0 0 0 0 0 0 0 0 0 0 0 0 0 0 0 0 0 0 0 0 0 0 0 0 0 0 0 0 0 0 0 0 0 0 0 0 0 0 0 0 0 0 0 0 0 0 0 0 0 0 0 0 0 0 0 0 0 0 0 0 0 0 0 0 0 0 0 0 0 0 0 0 0 0 0 855 865 886 886 876 865 865 876 865 886 897 886 876 876 886 886 886 908 886 865 865 886 897 855 836 836 876 876 865 845 845 845 855 855 865 808 808 808 826 826 826 826 826 836 855 826 836 826 836 826 826 817 808 808 817 817 826 817 808 817 817 817 836 0 0 0 0 0 0 808 808 799 782 791 782 799 808 799 817 826 845 836 826 836 836 826 826 826 817 808 808 817 808 799 817 826 836 845 836 0 0 0 0 836 826 817 817 817 808 808 799 808 799 808 808 774 791 782 791 774 782 758 766 774 782 774 774 774 774 782 791 791 782 808 799 808 791 808 808 735 782 774 743 766 766 766 743 766 782 766 758 791 766 774 766 791 766 766 766 766 774 774 766 791 791 782 774 799 799 791 782 774 774 782 808 808 799 782 782 782 799 758 774 750 743 758 758 766 766 766 766 774 782 808 799 0 0 0 0 0 0 728 735 743 750 750 758 766 743 743 774 750 735 735 735 735 743 766 826 766 687 0 0 0 0 0 0 613 598 0 618 675 700 700 714 707 714 0 0 0 0 0 0 0 0
    0 0 0 0 0 0 0 0 0 0 0 0 0 0 0 0 0 0 0 0 0 0 0 0 0 0 0 0 0 0 0 0 0 0 0 0 0 0 0 0 0 0 0 0 0 0 0 0 0 0 0 0 0 0 0 0 0 0 0 0 0 0 0 0 0 0 0 0 0 0 0 0 0 0 0 0 855 876 876 865 865 865 876 865 886 897 886 876 886 886 886 886 908 886 865 876 886 886 855 817 836 876 876 865 845 845 845 855 865 876 817 817 817 845 826 836 836 836 836 845 826 826 817 826 826 817 817 808 808 817 826 836 817 808 817 817 817 0 0 0 0 0 0 826 799 808 791 774 782 782 799 808 808 817 826 845 836 826 836 826 826 826 826 817 808 808 817 799 799 817 817 836 836 836 113 0 0 0 836 836 826 826 817 817 808 799 817 799 799 799 774 782 774 774 766 774 750 758 774 774 774 774 782 782 782 791 782 782 791 782 791 782 799 799 728 774 774 743 766 766 766 743 766 782 758 758 782 758 766 758 791 758 758 758 758 766 766 758 799 791 774 782 799 808 0 782 766 766 774 799 791 782 758 766 758 766 743 758 743 735 758 758 766 766 766 766 774 782 799 799 0 0 0 0 0 0 728 743 750 750 750 750 750 735 743 766 750 735 735 735 728 743 774 826 750 675 0 0 0 0 0 0 0 588 0 618 669 700 700 714 700 0 0 0 0 0 0 0 0 0
    0 0 0 0 0 0 0 0 0 0 0 0 0 0 0 0 0 0 0 0 0 0 0 0 0 0 0 0 0 0 0 0 0 0 0 0 0 0 0 0 0 0 0 0 0 0 0 0 0 0 0 0 0 0 0 0 0 0 0 0 0 0 0 0 0 0 0 0 0 0 0 0 0 0 0 0 845 855 855 855 855 855 865 855 886 886 876 876 876 876 886 886 908 886 865 876 886 876 845 799 817 865 865 865 845 845 855 855 855 876 817 817 817 845 826 826 826 836 836 836 817 826 817 817 817 817 817 808 808 817 826 836 817 808 817 817 817 0 0 0 0 0 0 0 808 799 782 782 791 782 799 808 808 817 836 845 836 826 836 826 826 826 826 817 808 808 817 799 799 817 808 826 826 826 0 0 0 0 836 836 836 826 826 817 799 799 808 791 791 782 774 782 782 782 774 774 750 766 774 774 782 774 782 782 782 791 782 782 782 774 782 766 791 791 721 774 774 735 766 766 766 743 766 782 758 758 782 766 766 758 791 758 766 766 766 766 766 758 799 791 782 782 799 808 0 782 774 766 766 791 782 774 758 766 750 766 743 758 750 735 766 774 782 782 782 782 791 799 808 808 808 0 0 0 0 0 728 743 743 750 743 743 750 735 750 758 750 743 735 735 735 750 782 845 0 657 0 0 0 0 0 0 0 588 0 623 663 694 694 707 675 0 0 0 0 0 0 0 0 0
    0 0 0 0 0 0 0 0 0 0 0 0 0 0 0 0 0 0 0 0 0 0 0 0 0 0 0 0 0 0 0 0 0 0 0 0 0 0 0 0 0 0 0 0 0 0 0 0 0 0 0 0 0 0 0 0 0 0 0 0 0 0 0 0 0 0 0 0 0 0 0 0 0 0 0 826 845 855 845 855 855 855 865 855 886 886 865 876 876 876 876 886 897 876 865 876 886 865 845 799 817 865 865 855 836 845 855 855 855 865 817 817 817 836 817 808 817 826 826 836 826 826 817 826 817 817 817 808 808 817 826 836 808 808 808 808 817 0 0 0 0 0 0 0 799 799 782 782 791 791 808 808 808 826 836 836 836 826 826 826 826 826 826 808 808 808 817 799 808 817 808 817 826 0 0 112 0 0 0 836 836 826 826 817 799 799 817 799 799 791 791 791 791 799 782 782 758 774 774 774 774 774 774 782 782 791 782 774 782 766 782 758 782 782 721 774 774 735 766 766 766 743 766 782 758 758 782 766 766 758 791 766 774 766 766 766 766 766 799 782 774 774 799 799 782 782 774 774 774 791 782 774 758 758 743 758 743 750 743 735 758 766 791 791 791 791 799 799 817 808 0 0 0 0 0 0 728 743 743 743 743 743 743 743 750 766 750 750 743 743 743 774 817 968 0 0 0 0 0 0 0 0 0 584 0 618 651 687 687 700 645 623 0 603 0 0 0 0 0 0
    0 0 0 0 0 0 0 0 0 0 0 0 0 0 0 0 0 0 0 0 0 0 0 0 0 0 0 0 0 0 0 0 0 0 0 0 0 0 0 0 0 0 0 0 0 0 0 0 0 0 0 0 0 0 0 0 0 0 0 0 0 0 0 0 0 0 0 0 0 0 0 808 826 817 826 826 855 855 855 855 865 865 865 865 897 876 865 876 876 865 876 886 897 865 865 886 897 865 845 817 817 865 865 855 836 855 855 855 855 865 817 817 817 826 808 799 808 817 826 826 826 826 826 836 826 817 826 817 817 817 826 826 808 808 799 808 817 826 0 0 0 817 817 817 799 791 774 774 791 782 808 808 808 826 845 836 836 826 836 826 826 826 826 808 817 817 826 808 808 817 808 0 0 0 0 0 0 0 836 845 845 836 836 826 808 808 817 791 791 782 791 791 799 799 782 782 758 774 774 774 774 774 782 782 774 791 782 782 782 774 782 766 782 791 721 774 766 735 766 766 766 743 766 782 758 758 782 766 766 758 791 766 774 766 766 766 758 766 791 774 774 766 791 799 782 782 774 766 774 782 774 766 750 758 735 766 735 743 743 743 774 782 799 799 799 799 799 808 826 808 0 817 782 0 0 728 735 743 743 750 743 743 743 743 758 766 750 750 743 743 743 791 0 0 955 0 0 1036 1051 0 0 0 0 0 0 0 639 681 681 694 634 613 603 603 598 0 0 0 0 0
    0 0 0 0 0 0 0 0 0 0 0 0 0 0 0 0 0 0 0 0 0 0 0 0 0 0 0 0 0 0 0 0 0 0 0 0 0 0 0 0 0 0 0 0 0 0 0 0 0 0 0 0 0 0 0 0 0 0 0 0 0 0 0 0 0 0 0 0 0 0 0 799 826 826 826 826 855 855 855 865 876 865 865 876 908 886 865 876 886 865 876 886 886 865 865 886 886 855 845 808 808 855 855 845 836 855 855 855 855 865 826 817 817 826 799 791 791 808 817 817 826 826 826 836 826 826 826 817 817 817 817 826 799 808 799 808 817 817 0 0 0 817 817 817 799 791 782 791 799 791 808 817 808 826 845 836 826 826 836 836 0 836 826 808 817 826 836 808 808 808 808 0 0 0 0 0 0 0 845 845 845 836 836 836 808 799 808 782 774 766 791 782 791 791 782 782 758 774 774 774 774 774 782 782 782 799 791 782 782 782 791 774 791 791 721 774 774 743 766 766 774 743 766 782 758 758 791 766 758 758 791 758 774 766 766 766 758 766 782 766 766 758 782 791 774 774 774 758 766 774 758 750 743 743 728 743 743 750 743 750 782 799 817 826 817 826 808 826 826 817 836 817 791 0 0 750 758 758 758 758 750 750 743 743 750 750 743 743 743 735 743 791 845 0 0 0 0 0 0 0 1247 0 0 0 0 0 639 681 681 681 629 613 603 603 598 0 0 0 0 0
    0 0 0 0 0 0 0 0 0 0 0 0 0 0 0 0 0 0 0 0 0 0 0 0 0 0 0 0 0 0 0 0 0 0 0 0 0 0 0 0 0 0 0 0 0 0 0 0 0 0 0 0 0 0 0 0 0 0 0 0 0 0 0 0 0 0 0 0 0 0 0 799 836 836 836 836 865 865 865 865 886 876 876 876 919 876 865 876 886 865 876 876 876 855 865 876 865 845 845 799 799 845 845 845 836 845 855 855 845 865 826 817 817 817 791 774 782 799 817 817 826 826 826 826 826 826 826 817 826 826 826 836 808 808 808 817 826 826 0 0 0 826 0 817 808 799 791 799 808 791 808 817 799 817 836 826 826 817 836 836 0 845 836 808 826 836 845 0 808 808 799 0 0 0 0 0 836 836 845 855 845 845 836 845 817 808 817 782 782 766 782 774 791 791 774 774 758 774 782 782 782 774 782 782 782 799 782 782 782 782 791 782 791 799 728 774 766 743 766 774 774 743 766 782 766 766 791 766 758 758 791 758 774 774 774 766 758 766 791 774 774 766 782 791 774 774 782 758 766 766 758 758 743 743 728 728 743 743 735 728 782 799 817 826 826 836 817 836 826 817 826 817 808 0 0 774 774 774 774 774 766 758 743 743 750 743 743 743 735 735 735 791 855 0 0 0 968 1022 1036 0 1206 1187 0 0 0 0 639 681 681 681 623 613 603 603 598 0 0 0 0 0
    0 0 0 0 0 0 0 0 0 0 0 0 0 0 0 0 0 0 0 0 0 0 0 0 0 0 0 0 0 0 0 0 0 0 0 0 0 0 0 0 0 0 0 0 0 0 0 0 0 0 0 0 0 0 0 0 0 0 0 0 0 0 0 0 0 0 0 0 0 0 0 0 836 845 845 836 876 876 865 865 886 876 865 876 919 876 865 876 876 865 876 886 876 855 865 876 865 855 845 799 791 836 836 836 836 845 845 845 845 865 826 817 817 817 791 774 774 791 808 808 817 826 817 826 826 826 836 817 826 826 826 836 808 817 817 826 826 0 0 0 0 826 817 817 808 799 799 808 817 791 817 817 808 817 836 826 817 817 826 826 0 845 826 808 826 845 845 826 817 808 799 817 817 808 799 817 826 826 845 845 845 845 836 845 817 817 808 782 774 758 774 774 782 782 766 774 758 774 782 782 782 774 782 782 782 791 782 782 774 774 782 782 791 799 728 774 774 743 774 774 774 750 766 782 766 766 791 766 758 758 791 758 782 774 774 766 766 774 791 782 791 774 782 791 782 782 782 766 766 758 750 758 743 743 728 728 735 735 728 728 774 782 808 826 826 826 808 817 817 799 808 808 791 0 0 774 782 774 774 774 766 750 735 743 750 743 735 735 735 735 735 791 0 0 0 0 981 1036 1066 1082 1247 1247 0 0 0 0 639 681 681 669 623 608 603 603 598 0 0 0 0 0
    0 0 0 0 0 0 0 0 0 0 0 0 0 0 0 0 0 0 0 0 0 0 0 0 0 0 0 0 0 0 0 0 0 0 0 0 0 0 0 0 0 0 0 0 0 0 0 0 0 0 0 0 0 0 0 0 0 0 0 0 0 0 0 0 0 0 0 0 0 130 0 0 845 865 865 845 876 876 876 876 886 886 876 876 919 876 865 876 876 865 876 886 876 865 876 886 865 855 855 799 791 826 826 826 826 845 845 845 845 865 836 826 826 817 791 774 782 799 808 799 817 826 817 836 826 826 845 826 845 836 836 836 808 817 817 826 836 826 817 817 826 826 826 826 808 799 808 808 817 791 817 817 808 817 826 817 808 808 826 826 826 836 826 817 836 855 855 826 817 808 791 808 808 799 791 808 817 817 836 845 845 845 845 845 826 817 817 782 774 750 774 766 782 782 766 774 758 774 782 774 782 782 782 782 782 799 782 782 774 774 782 774 782 799 728 774 782 743 774 774 782 750 766 782 766 766 791 766 758 758 791 766 782 774 774 766 774 782 782 782 782 766 782 782 774 774 774 758 758 750 743 743 735 735 728 728 735 728 735 766 799 808 817 826 836 826 808 817 808 791 782 799 791 774 766 774 782 782 774 782 766 743 735 743 750 735 735 728 728 728 735 791 0 0 0 0 0 0 1082 0 1247 1268 1082 0 0 0 634 681 675 663 618 608 603 603 598 0 0 0 0 0
    0 0 0 0 0 0 0 0 0 0 0 0 0 0 0 0 0 0 0 0 0 0 0 0 0 0 0 0 0 0 0 0 0 0 0 0 0 0 0 0 0 0 0 0 0 0 0 0 0 0 0 0 0 0 0 0 0 0 0 0 0 0 0 0 0 0 0 0 0 0 0 0 855 876 886 855 876 886 876 876 886 886 876 876 908 876 855 876 886 876 876 876 876 865 886 897 886 865 855 817 791 826 826 817 826 836 845 836 836 865 845 836 845 826 808 791 799 817 826 808 826 826 826 836 826 826 845 826 855 845 845 836 808 817 826 836 836 826 826 817 836 817 826 817 808 799 808 808 817 791 817 817 808 817 826 808 808 808 826 826 826 845 826 817 845 865 865 0 817 808 799 808 808 799 782 799 808 808 836 845 845 836 845 845 826 826 826 782 782 750 766 758 774 774 766 766 750 766 774 774 782 774 782 791 782 799 782 791 766 774 791 774 774 791 735 766 774 750 774 774 782 750 766 782 766 766 791 766 758 758 791 766 791 782 782 774 782 782 782 782 791 766 782 782 774 774 782 766 766 758 750 750 743 735 735 735 735 743 743 782 817 817 836 845 855 845 826 836 817 799 791 799 791 766 766 774 782 782 774 782 766 735 735 743 743 735 728 728 721 728 735 0 0 0 0 0 0 0 0 0 0 0 0 0 0 0 639 681 681 663 618 608 603 603 598 0 0 0 0 0
    0 0 0 0 0 0 0 0 0 0 0 0 0 0 0 0 0 0 0 0 0 0 0 0 0 0 0 0 0 0 0 0 0 0 0 0 0 0 0 0 0 0 0 0 0 0 0 0 0 0 0 0 0 0 0 0 0 0 0 0 0 0 0 0 0 0 0 0 0 0 0 0 855 886 897 865 876 886 876 876 886 886 876 876 908 876 865 876 886 876 876 876 865 865 886 897 897 865 855 826 782 817 817 808 817 836 836 826 826 855 855 845 855 836 817 808 808 826 836 808 826 826 826 836 826 826 845 0 865 865 836 826 817 826 836 845 845 836 826 826 836 817 826 817 799 799 808 817 817 782 817 817 799 826 826 808 808 808 826 826 826 845 826 826 855 876 865 836 826 808 808 817 808 799 791 799 808 808 845 836 836 836 845 855 826 826 826 791 791 774 774 766 774 774 766 766 758 774 774 766 774 774 782 791 782 808 791 799 774 782 791 774 774 782 743 774 774 750 782 782 782 750 774 782 774 774 791 766 758 766 791 774 791 791 782 782 791 799 791 791 791 774 782 791 782 782 791 782 774 774 774 766 758 750 750 750 750 758 750 782 817 808 826 836 845 836 817 826 817 808 808 799 791 766 774 782 782 774 766 782 758 735 735 743 743 735 728 728 721 735 743 0 0 0 0 0 0 0 0 0 0 0 0 0 0 0 634 675 675 657 618 608 603 603 598 0 0 0 0 0
    0 0 0 0 0 0 0 0 0 0 0 0 0 0 0 0 0 0 0 0 0 0 0 0 0 0 0 0 0 0 0 0 0 0 0 0 0 0 0 0 0 0 0 0 0 0 0 0 0 0 0 0 0 0 0 0 0 0 0 0 0 0 0 0 0 0 0 0 0 0 0 0 855 897 908 865 876 886 886 886 897 897 876 886 908 886 865 876 886 876 876 876 865 865 876 886 886 865 855 836 774 808 808 799 817 826 826 817 826 855 865 855 876 855 836 826 826 845 876 817 836 836 826 836 817 817 0 808 0 836 0 808 826 836 845 855 855 845 826 836 855 817 836 817 799 808 826 826 826 774 826 808 791 826 817 808 799 799 826 826 826 855 817 836 876 897 886 855 836 817 817 826 817 808 799 808 808 817 845 836 836 836 845 855 836 836 836 799 799 782 782 758 766 758 758 758 758 774 766 758 774 774 799 799 0 0 0 817 791 799 808 791 782 782 750 782 782 758 782 782 791 758 774 782 774 774 791 766 758 766 799 782 799 791 782 782 799 799 791 791 791 774 782 791 782 782 782 782 774 782 774 774 750 750 743 743 743 750 743 766 799 799 808 826 836 826 817 817 817 799 791 791 782 750 758 774 774 766 758 782 758 735 743 743 735 735 728 728 721 735 743 0 0 0 0 0 0 0 669 669 0 0 0 0 0 0 634 675 675 651 618 608 603 603 598 0 0 0 0 0
    0 0 0 0 0 0 0 0 0 0 0 0 0 0 0 0 0 0 0 0 0 0 0 0 0 0 0 0 0 0 0 0 0 0 0 0 0 0 0 0 0 0 0 0 0 0 0 0 0 0 0 0 0 0 0 0 0 0 0 0 0 0 0 0 0 0 0 0 0 0 0 0 865 897 908 876 886 886 886 886 897 897 876 886 908 886 876 876 886 886 876 876 865 876 876 876 876 865 855 836 766 799 799 799 808 817 817 817 817 855 876 865 908 886 876 865 865 876 943 817 0 836 799 808 791 0 799 774 0 0 791 0 836 836 855 865 876 855 845 855 865 826 845 817 799 817 826 836 826 766 817 808 782 817 808 791 791 791 817 817 817 845 799 845 876 908 897 855 836 817 817 836 817 808 791 808 808 817 855 836 836 836 836 855 836 826 836 791 774 728 728 721 721 735 750 750 750 766 774 766 782 782 0 0 0 0 0 808 791 799 808 782 782 774 766 782 782 758 782 791 791 758 782 782 774 774 791 766 758 766 791 782 799 799 782 791 0 0 799 808 799 774 782 791 782 782 782 774 766 782 774 774 750 743 743 743 743 750 743 766 791 799 799 826 826 826 808 808 808 799 774 774 766 743 750 758 766 766 750 782 750 743 750 743 735 735 728 721 721 735 0 0 0 608 603 608 0 0 0 669 0 0 0 0 0 634 639 675 669 651 618 608 603 603 598 0 0 0 0 0
    0 0 0 0 0 0 0 0 0 0 0 0 0 0 0 0 0 0 0 0 0 0 0 0 0 0 0 0 0 0 0 0 0 0 0 0 0 0 0 0 0 0 0 0 0 0 0 0 0 0 0 0 0 0 0 0 0 0 0 0 0 0 0 0 0 0 0 0 0 0 0 0 855 908 919 876 886 886 876 876 886 897 876 876 886 876 865 876 876 876 876 876 865 876 886 876 876 865 855 836 766 799 799 791 799 808 808 808 817 845 876 876 919 908 897 886 886 897 994 826 766 808 758 766 766 758 750 735 728 799 774 0 836 808 855 855 876 855 845 855 865 836 865 826 0 845 886 865 0 750 826 817 774 808 799 782 782 782 808 799 799 836 782 0 855 897 886 855 826 808 808 826 817 799 774 791 791 791 845 836 817 817 836 855 836 836 845 808 799 766 728 743 728 743 766 766 782 791 799 782 791 799 0 0 0 0 808 791 774 791 799 782 774 766 774 782 782 766 791 791 799 766 782 782 782 782 791 774 766 766 791 782 799 808 791 808 0 0 0 0 808 791 791 799 791 791 782 782 766 782 774 774 750 743 743 750 743 766 758 758 791 791 799 817 817 817 808 808 808 799 782 774 766 743 750 750 758 758 750 774 750 750 758 750 743 735 735 728 721 735 0 0 623 608 608 618 0 0 0 675 700 0 0 694 707 639 639 669 669 645 618 608 603 603 598 0 0 0 0 0
    0 0 0 0 0 0 0 0 0 0 0 0 0 0 0 0 0 0 0 0 0 0 0 0 0 0 0 0 0 0 0 0 0 0 0 0 0 0 0 0 0 0 0 0 0 0 0 0 0 0 0 0 0 0 0 0 0 0 0 0 0 0 0 0 0 0 0 0 0 0 0 0 855 897 908 876 876 886 876 876 876 897 876 865 876 876 865 876 876 876 876 865 865 886 886 876 876 855 845 836 758 791 791 782 791 799 799 799 808 836 865 865 919 919 908 897 897 908 994 826 750 782 758 743 0 0 728 714 0 0 0 0 0 750 0 855 876 845 836 0 855 0 0 0 0 0 0 0 0 669 0 808 782 817 808 791 791 799 817 817 808 845 791 0 876 897 876 855 826 817 817 826 817 791 766 766 766 750 0 0 817 0 836 876 855 865 865 836 0 0 826 826 766 782 799 799 808 808 817 799 799 808 0 0 943 0 808 782 766 782 799 782 782 758 782 782 791 766 791 791 791 766 791 782 782 782 791 774 766 774 791 791 799 808 791 817 0 0 0 0 817 799 799 808 799 799 791 791 766 782 782 774 743 743 750 766 750 774 774 766 791 782 791 799 799 799 799 791 791 791 766 758 750 735 743 743 743 750 743 758 743 750 766 750 750 743 743 735 735 758 0 0 0 608 608 618 0 0 0 663 694 694 0 687 694 634 634 669 663 639 618 608 603 603 598 0 0 0 0 0
    0 0 0 0 0 0 0 0 0 0 0 0 0 0 0 0 0 0 0 0 0 0 0 0 0 0 0 0 0 0 0 0 0 0 0 0 0 0 0 0 0 0 0 0 0 0 0 0 0 0 0 0 0 0 0 0 0 0 0 0 0 0 0 0 0 0 0 0 0 0 0 0 845 897 908 876 865 876 876 876 876 897 865 865 865 876 865 876 876 876 876 855 865 886 886 886 855 826 836 826 758 791 791 774 782 799 799 799 799 826 865 865 919 919 919 908 897 908 994 826 766 782 782 758 0 0 0 0 0 0 0 0 0 0 0 0 0 0 0 0 0 0 0 0 0 0 0 0 657 645 0 0 791 0 817 817 817 826 845 865 0 0 0 0 886 897 876 876 845 836 826 836 817 782 758 728 728 0 0 0 0 0 0 0 876 931 908 876 0 0 0 855 808 808 817 817 826 826 845 808 808 826 897 919 897 836 817 774 766 782 791 774 774 758 782 782 791 774 782 791 791 766 791 774 782 782 791 774 766 774 791 791 799 791 782 808 0 0 0 0 808 799 799 808 799 808 791 782 758 774 766 758 735 735 743 758 743 766 758 758 766 766 766 774 782 782 782 774 774 782 743 735 743 728 735 728 728 735 728 743 735 743 758 750 750 750 750 743 750 791 0 0 0 603 608 0 0 0 0 669 694 694 0 687 687 634 634 663 663 639 618 608 603 603 598 0 0 0 0 0
    0 0 0 0 0 0 0 0 0 0 0 0 0 0 0 0 0 0 0 0 0 0 0 0 0 0 0 0 0 0 0 0 0 0 0 0 0 0 0 0 0 0 0 0 0 0 0 0 0 0 0 0 0 0 0 0 0 0 0 0 0 0 0 0 0 0 0 0 0 0 0 0 845 897 897 865 855 865 865 865 876 886 865 855 865 876 865 876 876 876 865 855 865 886 886 886 845 817 817 826 766 791 791 774 782 799 799 791 791 817 855 865 908 919 919 908 908 908 1008 826 774 791 791 774 0 0 0 0 0 0 0 0 0 0 0 0 0 0 360 0 0 0 0 0 0 0 0 0 0 0 0 0 0 0 0 0 0 0 0 0 0 0 0 0 0 0 0 0 0 0 0 0 0 0 0 0 0 0 0 0 0 0 0 0 0 0 0 0 0 0 0 886 836 826 826 826 845 836 855 817 817 845 897 908 919 876 845 799 791 791 799 774 774 750 782 782 782 774 774 791 791 766 791 774 782 782 782 782 774 774 791 791 799 791 782 808 0 0 0 0 808 791 799 808 791 799 782 774 750 766 758 750 728 728 735 743 735 766 743 743 743 750 758 766 0 766 758 758 750 774 735 721 735 728 728 728 728 735 735 750 735 743 758 743 750 750 750 743 750 0 0 0 603 603 613 618 0 0 0 663 694 694 687 681 694 629 634 663 663 639 618 608 603 603 598 0 0 0 0 0
    0 0 0 0 0 0 0 0 0 0 0 0 0 0 0 0 0 0 0 0 0 0 0 0 0 0 0 0 0 0 0 0 0 0 0 0 0 0 0 0 0 0 0 0 0 0 0 0 0 0 0 0 0 0 0 0 0 0 0 0 0 0 0 0 0 0 0 0 0 0 865 0 845 886 886 865 855 855 855 865 865 876 855 855 855 865 855 865 865 865 855 855 855 886 876 876 836 817 817 826 766 791 791 782 782 791 791 791 791 817 845 855 886 908 908 897 897 908 1008 826 766 782 791 774 0 0 0 0 0 0 0 0 0 0 0 0 0 0 0 0 0 0 0 0 0 0 0 0 0 0 0 0 0 0 0 0 826 0 0 0 2628 0 0 468 0 0 0 0 0 0 0 0 0 0 0 0 0 0 0 2537 0 0 0 0 0 0 0 0 0 0 0 908 855 836 836 826 845 845 855 817 826 855 919 931 943 897 855 808 799 799 799 774 774 743 782 782 782 774 774 791 791 774 791 774 782 782 782 782 774 774 791 799 799 791 791 808 0 808 0 0 808 799 799 817 808 808 799 791 758 782 774 766 735 728 735 750 735 774 743 735 735 735 758 758 0 758 743 750 758 0 750 707 735 728 728 721 728 735 728 735 743 750 766 750 758 758 758 750 758 808 0 0 0 603 618 0 0 0 0 669 687 694 0 657 681 623 634 657 657 639 618 613 603 603 598 0 0 0 0 0
    0 0 0 0 0 0 0 0 0 0 0 0 0 0 0 0 0 0 0 0 0 0 0 0 0 0 0 0 0 0 0 0 0 0 0 0 0 0 0 0 0 0 0 0 0 0 0 0 0 0 0 0 0 0 0 0 0 0 0 0 0 0 0 0 0 0 0 0 0 886 876 855 855 886 876 865 855 855 855 865 865 876 855 855 855 855 855 865 865 855 845 845 855 876 865 865 826 817 817 836 774 799 791 782 782 791 791 791 782 808 845 845 876 897 897 897 886 897 994 826 782 799 799 0 0 0 0 0 0 0 0 0 0 0 0 0 0 0 0 0 0 0 0 0 0 0 0 0 0 0 0 0 0 0 0 0 0 0 0 0 2725 0 0 0 0 0 0 0 0 0 0 0 0 0 0 0 0 0 0 0 0 0 0 0 0 0 0 0 0 0 0 908 865 855 845 836 845 845 865 817 0 0 931 943 931 886 855 808 808 799 799 782 782 735 782 791 791 782 774 791 791 774 791 774 782 774 782 791 774 774 782 799 791 782 791 808 0 799 808 0 799 799 799 808 799 808 799 782 758 782 782 774 743 735 735 750 743 774 743 743 735 735 743 743 743 743 735 735 743 782 743 721 735 728 728 721 728 728 728 735 743 750 766 758 758 758 758 758 774 799 0 0 0 603 0 0 0 0 0 0 687 0 0 645 675 618 634 657 657 634 613 613 603 603 598 0 0 0 0 0
    0 0 0 0 0 0 0 0 0 0 0 0 0 0 0 0 0 0 0 0 0 0 0 0 0 0 0 0 0 0 0 0 0 0 0 0 0 0 0 0 0 0 0 0 0 0 0 0 0 0 0 0 0 0 0 0 0 0 0 0 0 0 0 0 0 0 0 0 0 908 897 855 855 886 876 865 865 855 865 865 876 886 865 855 855 855 865 865 865 855 845 845 845 865 855 845 817 808 817 836 774 799 799 782 782 791 791 791 782 799 836 836 865 897 886 886 886 897 994 826 808 808 817 0 0 0 0 0 0 0 681 663 0 0 0 0 0 0 0 0 0 0 0 0 0 0 0 0 0 0 0 0 0 391 0 0 0 0 0 0 2943 0 0 0 0 0 0 0 0 0 0 0 0 0 0 0 0 0 0 0 0 0 0 0 0 357 0 364 0 0 0 0 855 845 836 845 855 845 865 817 0 0 0 919 0 0 836 791 808 791 791 782 782 735 791 791 799 782 766 791 791 774 791 774 782 774 782 799 774 782 782 791 791 782 791 808 791 799 808 0 0 791 791 799 791 799 791 782 758 782 782 774 743 743 735 758 743 782 750 743 728 735 743 743 0 0 0 0 728 0 714 707 721 721 714 707 714 721 721 728 743 766 766 766 758 758 758 766 782 0 0 0 598 598 0 0 0 0 0 0 700 707 707 700 707 623 634 657 657 634 613 608 603 603 598 0 0 0 0 0
    0 0 0 0 0 0 0 0 0 0 0 0 0 0 0 0 0 0 0 0 0 0 0 0 0 0 0 0 0 0 0 0 0 0 0 0 0 0 0 0 0 0 0 0 0 0 0 0 0 0 0 0 0 0 0 0 0 0 0 0 0 0 0 0 0 0 0 0 0 0 908 0 865 886 865 865 865 855 865 865 886 886 865 865 855 855 865 876 865 855 845 855 845 865 855 845 817 808 817 836 782 799 799 782 782 791 791 791 774 799 826 826 855 886 886 886 876 886 994 826 817 826 845 0 0 0 0 0 0 0 681 663 0 675 0 0 0 0 0 0 0 0 0 0 0 0 4599 0 0 0 0 0 0 0 0 0 0 0 0 0 0 0 0 0 0 0 0 0 0 0 0 0 0 0 0 0 0 0 0 0 0 0 0 0 0 0 0 0 0 0 0 0 855 845 836 855 865 845 876 817 0 0 0 0 0 0 817 782 799 782 782 774 782 735 791 791 791 791 766 782 782 774 791 782 782 774 782 799 782 782 782 791 782 774 791 799 791 799 799 0 0 799 791 799 782 791 791 774 758 766 758 758 735 728 728 743 735 766 743 743 728 728 735 728 0 0 0 721 714 721 707 700 714 714 707 700 714 714 714 735 750 774 774 774 774 774 774 782 791 0 0 0 0 0 0 0 0 0 0 0 707 735 728 721 707 623 634 657 657 634 613 608 598 598 598 0 0 0 0 0
    0 0 0 0 0 0 0 0 0 0 0 0 0 0 0 0 0 0 0 0 0 0 0 0 0 0 0 0 0 0 0 0 0 0 0 0 0 0 0 0 0 0 0 0 0 0 0 0 0 0 0 0 0 0 0 0 0 0 0 0 0 0 0 0 0 0 0 0 0 0 897 0 865 886 865 865 865 855 865 876 886 876 865 865 855 855 865 865 855 855 845 855 845 865 855 845 817 808 817 845 782 799 799 782 782 791 791 782 774 791 808 817 845 876 876 876 876 886 994 826 826 0 897 0 0 0 0 0 0 0 687 675 694 0 0 0 0 0 0 0 0 0 0 0 6133 5661 4599 3873 3873 4329 0 0 0 0 0 0 0 0 0 0 0 0 0 0 0 0 0 0 0 0 0 0 0 0 0 0 0 0 876 0 0 0 0 0 0 0 0 0 0 0 0 0 855 845 0 865 876 845 876 817 0 0 0 0 0 0 0 808 0 799 799 782 791 735 791 791 799 791 758 782 782 774 791 782 782 774 782 808 782 782 782 799 782 774 791 799 782 791 799 808 799 791 791 799 782 791 791 782 766 0 782 791 758 758 750 758 750 782 758 750 735 735 743 743 0 0 0 0 714 721 694 694 714 721 707 707 714 721 721 750 774 782 791 791 782 791 782 799 808 0 0 0 0 0 0 0 0 0 0 0 0 766 735 721 714 618 634 657 657 634 613 608 598 598 598 0 0 0 0 0
    0 0 0 0 0 0 0 0 0 0 0 0 0 0 0 0 0 0 0 0 0 0 0 0 0 0 0 0 0 0 0 0 0 0 0 0 0 0 0 0 0 0 0 0 0 0 0 0 0 0 0 0 0 0 0 0 0 0 0 0 0 0 0 0 0 0 0 0 0 943 897 865 876 886 865 865 865 855 865 876 886 876 865 865 855 855 865 865 855 845 836 855 845 855 855 845 817 817 817 845 782 799 799 782 774 791 782 782 774 791 808 817 836 876 865 865 865 876 994 826 826 0 855 0 0 0 0 0 0 735 0 0 0 0 0 0 876 0 0 0 0 0 0 0 0 5256 4599 3873 3679 4599 0 0 0 0 0 0 0 0 0 0 0 0 0 0 0 0 0 0 0 0 0 0 0 0 0 0 0 0 943 908 897 0 0 0 0 0 0 0 0 206 0 0 886 855 0 0 886 855 876 836 855 865 0 0 0 0 0 0 0 0 0 791 799 735 791 791 799 799 750 782 782 774 782 782 782 774 782 808 782 791 791 799 774 774 791 791 782 782 791 791 791 791 782 791 782 782 791 774 766 774 774 0 766 0 0 758 758 0 758 758 735 743 0 0 0 0 0 0 714 721 694 700 714 721 714 714 721 721 721 750 774 782 782 782 782 791 791 808 808 0 0 0 0 0 0 0 0 0 0 0 0 774 743 735 714 623 639 663 657 634 613 608 598 598 598 0 0 0 0 0
    0 0 0 0 0 0 0 0 0 0 0 0 0 0 0 0 0 0 0 0 0 0 0 0 0 0 0 0 0 0 0 0 0 0 0 0 0 0 0 0 0 0 0 0 0 0 0 0 0 0 0 0 0 0 0 0 0 0 0 0 0 0 0 0 0 0 0 0 0 968 908 876 886 886 865 865 865 855 865 876 886 865 855 865 855 855 865 865 855 845 845 855 855 865 865 845 826 826 817 845 782 799 799 782 782 791 782 782 774 791 799 808 826 865 855 855 855 865 994 826 817 808 0 808 799 799 791 782 782 766 766 791 0 0 0 0 0 0 0 1187 1168 1149 0 1291 0 6133 4906 4088 3679 4329 4329 0 0 0 0 0 0 0 0 0 0 0 0 0 0 0 0 0 0 0 0 0 0 0 0 0 0 1008 994 943 919 0 0 0 0 0 0 0 0 206 0 0 0 0 0 0 0 0 0 0 0 0 0 0 0 190 0 0 191 0 0 0 808 735 791 799 799 799 750 782 782 766 782 774 774 766 774 799 782 782 791 791 766 774 791 774 774 774 782 782 782 782 774 774 774 774 774 766 758 774 758 0 766 0 0 750 750 0 750 758 735 0 0 0 0 0 0 0 0 721 0 707 721 728 714 714 721 721 728 758 774 774 774 774 766 774 791 799 799 0 0 0 0 0 0 0 0 0 0 0 707 743 735 728 714 623 634 663 657 634 613 608 598 598 593 0 0 0 0 0
    0 0 0 0 0 0 0 0 0 0 0 0 0 0 0 0 0 0 0 0 0 0 0 0 0 0 0 0 0 0 0 0 0 0 0 0 0 0 0 0 0 0 0 0 0 0 0 0 0 0 0 0 0 0 0 0 0 0 0 0 0 0 0 0 0 0 0 0 0 943 876 865 886 876 855 865 865 855 865 876 886 865 865 876 855 855 876 855 845 845 845 865 855 865 855 845 836 845 0 845 774 799 799 782 782 791 782 791 774 791 799 808 826 855 855 855 855 865 981 826 817 808 808 808 791 799 791 782 774 774 782 791 0 0 0 0 0 0 0 1149 1115 1115 1226 1226 1168 0 0 4088 0 0 0 0 0 0 0 0 0 0 0 0 0 0 0 0 0 0 0 0 0 0 0 0 0 0 0 0 0 1022 1008 0 0 0 0 0 0 0 0 0 0 0 0 0 0 0 285 287 289 0 0 0 0 0 0 0 0 0 0 0 192 0 0 0 808 743 799 799 791 799 750 782 782 766 782 774 766 766 774 799 774 782 791 791 766 774 782 766 766 766 774 774 774 774 774 774 0 774 782 774 774 791 774 0 0 0 0 0 0 0 758 782 750 791 0 0 0 0 0 758 0 728 707 707 714 714 707 707 714 714 721 758 774 766 766 766 758 766 782 799 0 0 0 675 0 0 0 0 0 0 735 714 707 743 735 721 714 623 634 657 657 634 613 603 598 598 593 0 0 0 0 0
    0 0 0 0 0 0 0 0 0 0 0 0 0 0 0 0 0 0 0 0 0 0 0 0 0 0 0 0 0 0 0 0 0 0 0 0 0 0 0 0 0 0 0 0 0 0 0 0 0 0 0 0 0 0 0 0 0 0 0 0 0 0 0 0 0 0 0 0 0 919 865 855 876 865 855 865 865 855 865 886 886 865 876 876 855 865 886 855 845 845 836 855 855 855 845 836 836 845 0 845 774 799 799 782 782 791 782 791 774 791 799 808 826 845 845 845 845 855 968 845 845 836 836 836 808 808 799 791 791 791 799 808 0 0 0 0 0 0 0 0 0 0 0 1268 1206 0 0 0 0 0 0 0 0 0 0 0 0 0 0 0 0 0 0 0 0 0 0 0 0 0 0 0 0 0 0 0 0 0 0 897 0 0 0 0 0 0 0 0 728 0 0 0 0 0 285 0 0 0 0 0 0 0 0 0 0 0 0 0 193 0 0 0 799 735 791 791 791 799 750 782 782 758 782 774 766 766 774 799 774 774 791 774 750 766 758 750 750 758 758 766 766 774 766 774 0 782 791 782 791 799 791 817 0 0 0 0 0 0 791 799 791 817 808 0 817 817 791 782 0 735 714 714 707 714 700 700 707 707 714 750 766 766 766 766 758 766 791 817 0 0 0 0 0 0 0 0 0 0 758 728 707 758 735 735 714 623 634 657 651 634 613 603 598 598 593 0 0 0 0 0
    0 0 0 0 0 0 0 0 0 0 0 0 0 0 0 0 0 0 0 0 0 0 0 0 0 0 0 0 0 0 0 0 0 0 0 0 0 0 0 0 0 0 0 0 0 0 0 0 0 0 0 0 0 0 0 0 0 0 0 0 0 0 0 0 0 0 0 0 0 931 876 865 876 855 855 865 855 855 865 886 886 865 876 876 865 876 897 865 845 845 845 865 855 845 836 826 826 845 826 845 766 799 799 782 782 791 782 791 774 791 799 808 826 845 845 845 845 855 943 845 836 826 826 836 817 817 808 799 799 0 808 0 0 0 0 0 0 0 0 0 0 0 0 1247 1206 0 0 0 0 0 0 0 0 0 0 0 0 0 0 0 0 0 0 0 0 0 0 0 0 876 931 931 943 0 0 0 0 0 0 865 0 0 0 0 0 0 0 735 721 728 0 0 0 0 0 0 0 0 0 0 0 0 142 0 0 0 0 0 193 0 0 0 782 728 791 791 791 791 750 774 782 758 782 766 766 766 774 791 766 774 791 774 758 758 758 750 750 758 758 758 766 0 766 774 766 782 782 782 791 799 791 0 0 0 0 0 0 799 782 782 808 845 826 855 0 836 808 799 799 750 721 721 721 721 707 707 707 714 721 758 758 758 766 766 758 766 799 826 0 0 0 0 0 0 0 0 0 0 714 707 694 721 728 735 714 618 629 651 651 629 613 603 598 598 593 0 0 0 0 0
    0 0 0 0 0 0 0 0 0 0 0 0 0 0 0 0 0 0 0 0 0 0 0 0 0 0 0 0 0 0 0 0 0 0 0 0 0 0 0 0 0 0 0 0 0 0 0 0 0 0 0 0 0 0 0 0 0 0 0 0 0 0 0 0 0 0 0 0 0 0 886 865 876 855 855 865 855 855 865 876 876 865 865 876 865 876 886 865 845 845 845 865 855 836 826 808 817 845 0 845 758 799 799 782 782 791 791 791 782 799 808 808 826 845 836 845 836 855 931 836 836 817 817 817 808 0 808 808 799 799 817 0 0 0 0 537 533 0 0 0 0 0 0 1291 0 0 0 0 0 0 0 0 0 0 0 0 0 0 0 0 0 0 0 0 0 0 0 0 0 0 876 0 897 0 0 0 0 0 0 876 0 0 0 0 0 0 0 728 714 721 714 735 721 0 0 0 0 0 0 0 0 0 0 0 0 0 0 0 0 0 0 0 782 728 782 791 791 782 758 774 774 750 791 766 766 766 774 791 766 774 799 774 774 774 0 766 0 0 0 0 0 0 766 0 0 782 782 782 774 791 774 0 0 0 0 0 774 799 766 774 791 0 826 0 0 826 808 799 808 758 728 728 721 728 714 714 714 714 721 758 758 758 758 758 758 766 808 826 0 0 0 0 694 0 687 675 669 675 694 694 687 700 714 728 707 618 629 651 651 629 608 603 593 593 593 0 0 0 0 0
    0 0 0 0 0 0 0 0 0 0 0 0 0 0 0 0 0 0 0 0 0 0 0 0 0 0 0 0 0 0 0 0 0 0 0 0 0 0 0 0 0 0 0 0 0 0 0 0 0 0 0 0 0 0 0 0 0 0 0 0 0 0 0 0 0 0 0 0 0 0 0 865 865 855 855 855 855 855 865 865 865 855 865 865 865 876 886 855 845 845 855 865 865 836 826 817 817 845 0 836 758 799 808 782 782 791 791 791 782 808 808 808 826 855 836 845 836 0 908 845 836 808 817 817 791 0 808 808 791 791 808 799 0 0 0 0 0 0 0 0 0 0 0 1291 1247 1206 1168 0 0 0 0 623 0 0 0 0 0 0 0 0 0 0 0 0 0 0 0 0 0 0 0 0 908 897 0 0 0 0 0 0 0 0 0 0 0 0 0 721 714 721 714 743 735 808 0 0 0 0 0 0 0 0 0 0 0 0 0 0 0 0 0 0 791 728 782 791 791 782 758 774 774 750 791 758 758 766 774 782 766 774 799 774 791 0 0 0 0 0 0 0 758 758 758 0 774 791 782 782 774 791 774 0 782 774 758 782 766 791 758 782 799 817 808 826 791 808 799 799 0 750 728 743 735 735 728 728 721 721 735 758 750 750 750 750 750 766 808 0 0 0 0 0 700 694 687 675 675 669 675 681 669 681 694 707 700 613 629 645 645 629 608 598 593 593 593 0 0 0 0 0
    0 0 0 0 0 0 0 0 0 0 0 0 0 0 0 0 0 0 0 0 0 0 0 0 0 0 0 0 0 0 0 0 0 0 0 0 0 0 0 0 0 0 0 0 0 0 0 0 0 0 0 0 0 0 0 0 0 0 0 0 0 0 0 0 0 0 0 0 0 0 865 865 865 855 855 855 855 855 865 865 865 855 865 855 865 865 876 845 845 845 845 855 865 826 836 836 836 855 0 836 774 808 817 782 791 799 799 799 791 808 817 817 836 855 836 845 836 0 886 836 826 799 799 808 799 0 817 808 799 791 0 0 0 360 0 0 0 0 0 0 0 0 0 0 0 0 0 0 645 623 639 634 0 634 639 639 618 0 0 0 0 0 0 0 0 0 0 0 0 0 0 0 0 968 931 0 0 0 0 0 0 0 0 0 0 0 0 0 721 714 714 743 743 826 826 0 0 0 0 0 0 0 0 0 0 0 0 0 0 0 0 0 791 735 782 782 782 774 758 774 774 750 782 758 758 758 774 782 766 766 799 774 799 0 0 0 0 0 0 0 750 750 758 766 774 799 799 791 774 791 782 791 791 782 774 782 774 799 774 791 791 791 799 799 791 808 799 808 0 0 0 758 750 750 743 743 728 728 743 758 743 743 743 743 743 750 799 0 0 0 0 0 0 707 700 681 681 681 675 675 663 681 694 0 0 0 623 645 645 629 608 598 593 593 593 0 0 0 0 0
    0 0 0 0 0 0 0 0 0 0 0 0 0 0 0 0 0 0 0 0 0 0 0 0 0 0 0 0 0 0 0 0 0 0 0 0 0 0 0 0 0 0 0 0 0 0 0 0 0 0 0 0 0 0 0 0 0 0 0 0 0 0 0 0 0 0 0 0 0 0 876 865 865 855 855 855 855 865 876 876 865 865 865 855 865 865 865 845 836 845 845 855 876 836 845 845 0 855 0 836 0 817 826 791 791 808 808 808 799 817 817 817 845 855 836 845 836 0 855 826 817 791 799 799 799 0 817 817 817 0 0 0 0 0 0 0 0 557 0 0 0 0 0 0 0 0 0 0 657 634 651 645 0 645 663 657 634 0 0 0 0 0 0 0 0 0 0 0 0 0 0 0 968 981 981 0 0 0 0 0 0 0 0 0 0 0 0 0 743 0 0 0 799 855 845 855 0 0 0 0 0 307 0 0 0 0 0 0 0 0 0 782 791 728 782 782 782 766 766 774 774 743 782 750 758 758 774 774 758 766 799 766 799 0 0 766 0 0 743 750 743 743 750 766 766 0 799 799 774 791 782 782 782 774 766 782 774 799 782 799 799 791 791 799 774 808 0 0 0 0 750 766 758 758 743 743 728 728 750 750 735 735 735 735 735 743 791 0 0 0 0 0 0 700 694 681 687 687 694 694 681 707 721 0 0 0 623 639 639 629 603 598 593 593 593 0 0 0 0 0
    0 0 0 0 0 0 0 0 0 0 0 0 0 0 0 0 0 0 0 0 0 0 0 0 0 0 0 0 0 0 0 0 0 0 0 0 0 0 0 0 0 0 0 0 0 0 0 0 0 0 0 0 0 0 0 0 0 0 0 0 0 0 0 0 0 0 0 0 0 0 855 855 855 855 855 855 855 865 876 876 865 865 876 865 876 876 865 845 845 855 865 865 886 845 855 855 0 865 0 0 0 826 826 808 799 817 817 817 808 817 817 817 845 855 845 845 836 0 855 836 836 817 836 817 817 855 0 855 0 0 0 0 0 0 0 0 0 0 0 0 0 0 707 700 0 0 0 0 0 0 669 657 0 0 675 663 639 0 0 0 0 0 0 1415 0 0 0 0 0 0 981 1008 968 968 968 0 0 0 0 0 0 0 0 0 0 0 0 0 0 0 0 0 0 0 0 0 0 0 0 0 0 306 0 0 0 0 0 0 0 0 791 782 791 728 782 782 782 766 766 774 774 743 782 750 758 758 774 766 758 758 799 766 808 0 0 0 0 758 750 758 750 750 758 774 774 799 808 799 782 791 782 791 791 782 774 782 774 799 782 791 782 782 774 782 766 791 808 799 0 766 766 782 766 774 750 750 735 735 758 750 743 735 743 735 743 758 0 0 0 0 0 0 0 694 0 0 0 687 681 687 681 0 0 0 0 0 618 639 639 623 603 598 588 593 593 0 0 0 0 0
    0 0 0 0 0 0 0 0 0 0 0 0 0 0 0 0 0 0 0 0 0 0 0 0 0 0 0 0 0 0 0 0 0 0 0 0 0 0 0 0 0 0 0 0 0 0 0 0 0 0 0 0 0 0 0 0 0 0 0 0 0 0 0 0 0 0 0 0 0 845 855 845 845 845 855 855 855 865 886 876 876 865 876 865 876 876 855 845 845 855 865 865 865 836 836 836 0 0 0 0 0 836 836 808 808 826 817 826 826 826 826 826 855 865 845 845 845 0 865 865 855 845 865 845 855 908 897 897 865 0 0 0 0 0 0 0 0 0 0 0 0 743 728 714 0 0 0 0 0 0 675 0 0 0 0 675 0 0 0 0 0 0 0 1471 0 1471 0 0 0 0 981 994 955 955 943 0 0 0 0 0 681 681 0 0 0 0 0 0 0 0 0 0 0 0 0 0 0 0 0 0 0 302 0 0 0 0 0 0 758 0 782 791 791 728 782 782 782 766 774 774 774 743 782 750 758 758 774 766 758 766 799 774 817 0 0 0 766 766 758 766 758 758 766 782 774 799 808 799 791 799 799 799 799 791 782 782 782 791 774 782 774 766 758 774 766 782 791 799 817 782 791 799 791 799 782 766 743 743 766 758 743 743 750 750 766 782 0 0 0 0 0 0 0 0 0 0 0 0 0 669 669 0 0 0 0 0 623 639 639 623 603 598 588 593 593 0 0 0 0 0
    0 0 0 0 0 0 0 0 0 0 0 0 0 0 0 0 0 0 0 0 0 0 0 0 0 0 0 0 0 0 0 0 0 0 0 0 0 0 0 0 0 0 0 0 0 0 0 0 0 0 0 0 0 0 0 0 0 0 0 0 0 0 0 0 0 0 0 0 0 855 865 845 855 845 855 855 865 876 886 876 876 865 876 865 886 876 865 855 845 855 865 865 865 836 836 845 0 845 0 836 855 845 845 826 817 836 836 836 836 826 826 826 855 876 855 845 845 0 865 876 855 855 876 855 876 919 908 897 876 0 0 0 0 0 0 0 0 584 0 0 0 0 728 721 728 0 0 1291 0 0 0 0 0 0 0 0 0 0 0 0 0 0 1565 1501 0 1471 1415 0 0 0 968 968 931 897 919 0 0 0 0 687 681 669 0 0 0 0 0 0 0 0 0 0 0 0 0 0 0 0 0 0 0 0 0 0 0 0 0 0 0 0 774 791 791 728 791 791 791 766 774 782 774 750 782 750 766 766 782 774 766 774 808 791 0 0 0 0 0 774 766 774 766 766 766 782 774 799 808 799 791 799 799 799 799 791 782 791 791 791 782 774 766 766 758 766 758 782 791 799 799 791 799 817 808 808 799 782 758 758 774 758 750 750 750 758 774 791 0 0 0 0 0 0 0 0 0 0 0 0 0 0 0 0 0 0 0 0 623 639 639 623 603 593 588 593 593 0 0 0 0 0
    0 0 0 0 0 0 0 0 0 0 0 0 0 0 0 0 0 0 0 0 0 0 0 0 0 0 0 0 0 0 0 0 0 0 0 0 0 0 0 0 0 0 0 0 0 0 0 0 0 0 0 0 0 0 0 0 0 0 0 0 0 0 0 0 0 0 0 0 0 855 865 845 855 855 855 855 865 876 886 876 876 876 876 876 897 886 865 865 855 865 876 865 865 836 845 845 0 855 845 836 865 865 855 836 826 845 845 845 845 0 0 0 865 886 855 855 845 0 855 855 845 836 865 836 0 0 919 897 876 0 0 0 0 0 0 0 0 0 0 0 0 0 728 0 743 0 0 1247 0 0 0 0 334 0 0 0 0 0 0 0 0 1443 1533 1501 1533 1533 1443 0 0 0 968 968 919 897 931 0 0 0 0 0 0 0 0 343 0 0 0 0 0 0 0 0 0 0 0 0 0 0 0 0 0 0 0 0 0 0 0 0 0 750 774 808 808 735 791 791 799 758 782 782 774 750 782 750 766 766 791 774 774 774 808 808 836 0 0 791 791 782 782 782 774 774 774 791 0 799 808 799 791 799 799 799 799 791 782 791 782 791 774 774 766 766 758 766 750 774 791 791 774 782 791 808 799 808 791 774 766 774 774 758 750 750 750 758 782 799 0 0 0 0 0 0 750 0 0 0 0 0 0 675 681 0 0 0 0 0 623 639 639 629 603 593 588 593 593 0 0 0 0 0
    0 0 0 0 0 0 0 0 0 0 0 0 0 0 0 0 0 0 0 0 0 0 0 0 0 0 0 0 0 0 0 0 0 0 0 0 0 0 0 0 0 0 0 0 0 0 0 0 0 0 0 0 0 0 0 0 0 0 0 0 0 0 0 0 0 0 0 0 0 855 855 845 855 855 855 855 876 886 897 886 886 876 886 886 897 876 855 865 865 876 886 865 865 836 845 855 0 855 845 845 876 876 865 845 836 845 855 865 855 0 0 0 876 897 865 855 845 0 845 855 845 845 876 845 0 0 955 908 886 0 0 0 0 0 0 0 0 0 0 0 0 0 728 0 750 0 0 1226 0 0 0 0 331 0 334 0 0 0 0 0 0 0 1501 1471 1533 1565 1443 0 0 0 0 0 0 0 0 0 0 0 0 0 0 0 343 347 0 0 0 0 0 0 0 0 0 0 0 0 0 0 0 0 0 0 0 0 0 0 0 0 0 0 0 836 826 743 799 799 799 766 782 782 774 750 782 750 766 766 791 774 774 782 808 808 845 0 0 0 0 782 782 782 774 774 774 782 0 799 808 791 782 799 791 799 791 782 774 774 774 782 766 774 758 766 758 766 758 774 782 766 750 758 774 782 782 782 766 743 750 774 782 766 758 758 758 758 791 0 0 0 0 0 0 0 766 0 0 728 0 0 0 681 681 0 0 0 0 0 623 645 645 629 603 593 588 593 588 0 0 0 0 0
    0 0 0 0 0 0 0 0 0 0 0 0 0 0 0 0 0 0 0 0 0 0 0 0 0 0 0 0 0 0 0 0 0 0 0 0 0 0 0 0 0 0 0 0 0 0 0 0 0 0 0 0 0 0 0 0 0 0 0 0 0 0 0 0 0 0 0 0 0 855 845 845 855 845 855 855 876 897 886 886 886 876 886 886 897 876 855 855 865 876 897 876 865 845 845 865 855 865 855 845 886 886 876 855 845 855 865 876 865 845 845 845 886 897 865 855 845 0 826 826 826 836 886 0 0 0 955 931 897 0 0 0 0 0 0 0 0 0 681 0 0 0 0 0 750 0 0 0 0 0 0 0 330 0 0 0 0 0 0 0 0 0 0 0 0 0 1471 0 0 0 0 0 0 0 994 0 0 0 0 0 0 0 0 348 0 0 0 0 0 0 0 0 0 0 0 0 0 0 0 0 0 0 0 0 0 0 0 0 0 0 0 845 836 743 799 799 799 766 782 782 774 750 782 758 766 766 791 774 774 774 799 791 817 808 782 782 782 766 774 774 766 766 766 766 0 0 808 791 791 799 799 799 791 782 774 766 774 774 766 774 766 774 766 782 774 791 799 782 774 774 791 791 791 782 766 743 750 774 774 766 750 750 750 758 799 0 0 0 0 0 0 0 0 735 0 774 0 0 0 681 0 0 0 0 0 0 623 645 645 629 603 593 588 593 588 0 0 0 0 0
    0 0 0 0 0 0 0 0 0 0 0 0 0 0 0 0 0 0 0 0 0 0 0 0 0 0 0 0 0 0 0 0 0 0 0 0 0 0 0 0 0 0 0 0 0 0 0 0 0 0 0 0 0 0 0 0 0 0 0 0 0 0 0 0 0 0 0 0 0 855 845 845 845 845 855 855 876 897 886 886 886 886 897 886 908 865 855 855 876 886 897 865 855 845 855 865 855 865 855 845 886 886 886 855 855 865 876 886 876 845 845 855 897 908 876 855 845 0 826 0 826 836 919 886 0 0 981 955 931 943 931 919 931 0 0 0 0 0 0 0 0 0 0 0 750 0 0 0 0 0 0 0 0 0 0 0 0 0 0 0 0 0 0 0 0 0 0 0 0 0 1098 1082 0 1036 0 0 0 0 0 0 0 0 0 0 0 0 0 0 0 0 0 0 0 0 0 0 0 0 0 0 0 0 0 0 0 0 0 0 0 0 0 845 826 743 799 799 799 758 782 782 774 750 782 758 766 766 791 774 766 766 799 791 799 799 766 782 774 758 766 766 758 758 758 766 766 774 799 791 791 799 799 799 791 782 774 766 774 774 766 766 766 782 782 799 799 808 808 791 782 791 799 799 791 782 758 735 758 774 774 766 750 750 750 750 808 0 0 0 0 0 0 0 0 758 0 817 0 0 0 675 0 0 0 0 0 0 623 639 645 629 598 593 588 588 588 0 0 0 0 0
    0 0 0 0 0 0 0 0 0 0 0 0 0 0 0 0 0 0 0 0 0 0 0 0 0 0 0 0 0 0 0 0 0 0 0 0 0 0 0 0 0 0 0 0 0 0 0 0 0 0 0 0 0 0 0 0 0 0 0 0 0 0 0 0 0 0 0 0 0 855 845 845 845 845 855 855 886 897 886 897 886 886 897 897 908 865 855 865 876 886 897 855 845 836 845 0 0 865 855 845 897 897 886 865 855 865 886 897 886 855 855 865 919 919 886 865 855 0 826 826 826 845 908 886 968 994 981 955 955 968 0 981 981 0 0 0 0 0 0 0 0 0 0 0 0 0 0 0 0 0 0 0 0 0 0 0 0 0 0 0 0 0 0 0 0 0 0 0 1051 1022 1115 1098 1082 0 0 0 0 0 0 0 0 0 0 0 0 0 0 0 0 0 0 0 0 0 0 0 0 0 0 0 0 0 0 0 0 0 0 0 0 0 0 0 836 743 799 799 799 766 782 782 774 758 782 758 766 766 791 774 766 766 799 782 782 791 758 774 774 758 766 766 758 758 758 758 766 766 782 774 782 799 799 791 782 766 766 758 774 750 750 750 766 791 799 808 808 817 808 791 791 791 799 791 791 782 750 735 766 782 774 766 758 758 750 758 0 0 0 0 0 0 0 0 0 799 0 836 0 0 0 663 0 669 0 675 0 0 623 639 639 623 598 588 584 588 588 0 0 0 0 0
    0 0 0 0 0 0 0 0 0 0 0 0 0 0 0 0 0 0 0 0 0 0 0 0 0 0 0 0 0 0 0 0 0 0 0 0 0 0 0 0 0 0 0 0 0 0 0 0 0 0 0 0 0 0 0 0 0 0 0 0 0 0 0 0 0 0 0 0 0 855 845 845 855 845 855 865 886 886 886 886 886 886 897 897 908 865 855 865 876 886 897 845 836 808 836 0 0 855 0 845 886 897 886 865 855 865 886 908 886 865 865 886 931 919 897 865 865 0 826 817 826 836 876 0 943 968 955 931 955 955 0 0 0 0 0 0 0 0 0 0 243 0 0 1098 0 1066 0 0 0 0 0 0 0 0 0 0 0 0 0 0 0 0 0 0 0 0 0 0 1036 0 1149 1149 0 0 0 0 0 0 0 0 0 0 0 0 0 0 0 0 0 0 0 0 0 0 0 0 0 0 0 0 0 0 0 0 0 0 0 0 0 500 0 943 836 743 808 799 808 766 782 782 774 758 782 758 758 766 791 782 766 766 799 791 782 799 766 782 782 766 774 766 766 766 766 758 766 766 782 774 791 799 799 791 791 766 750 743 743 721 728 728 743 782 799 817 808 817 808 791 791 799 799 791 791 782 750 735 766 782 774 774 766 758 750 766 0 0 0 0 0 0 0 0 0 791 0 808 728 0 669 657 675 669 675 663 657 623 623 634 639 623 593 588 584 588 588 0 0 0 0 0
    0 0 0 0 0 0 0 0 0 0 0 0 0 0 0 0 0 0 0 0 0 0 0 0 0 0 0 0 0 0 0 0 0 0 0 0 0 0 0 0 0 0 0 0 0 0 0 0 0 0 0 0 0 0 0 0 0 0 0 0 0 0 0 0 0 0 0 0 0 855 855 855 855 855 855 865 886 886 886 886 886 886 897 908 897 855 855 876 876 876 876 826 817 799 826 826 826 855 0 845 886 897 886 865 865 865 886 908 886 876 876 897 931 931 908 876 865 981 826 808 808 817 0 0 0 981 968 919 955 955 0 0 0 0 0 0 0 0 0 0 243 0 0 0 0 0 0 0 0 0 0 0 0 0 0 0 0 0 0 0 0 0 0 418 0 0 0 0 1022 0 1187 1187 0 0 0 0 0 0 0 0 0 0 0 0 0 0 0 0 0 0 0 0 0 0 0 0 0 0 0 0 0 0 0 0 0 0 0 0 0 497 0 968 836 743 808 799 808 766 774 782 774 758 782 758 758 766 791 791 774 774 791 782 774 791 766 774 766 758 766 766 766 766 766 758 766 766 782 782 791 799 799 791 782 750 728 721 721 707 707 707 721 766 791 826 817 817 808 782 782 782 791 774 774 766 735 728 766 774 774 766 766 758 750 766 0 0 0 0 0 0 0 0 0 774 743 750 714 669 669 657 681 675 675 663 657 623 618 634 634 623 593 588 584 588 588 0 0 0 0 0
    0 0 0 0 0 0 0 0 0 0 0 0 0 0 0 0 0 0 0 0 0 0 0 0 0 0 0 0 0 0 0 0 0 0 0 0 0 0 0 0 0 0 0 0 0 0 0 0 0 0 0 0 0 0 0 0 0 0 0 0 0 0 0 0 0 0 0 0 0 855 855 865 865 865 865 876 886 886 897 897 886 886 908 919 897 865 865 876 876 876 865 826 817 799 826 0 826 845 0 845 886 897 886 865 865 865 886 908 886 876 876 908 943 931 919 876 876 994 826 799 799 808 0 0 0 0 0 0 968 968 0 0 0 0 0 0 0 0 284 0 242 0 0 0 0 0 0 0 0 0 0 0 0 1082 0 0 1226 0 0 0 0 0 0 0 0 0 919 0 0 0 1226 1226 1168 0 0 0 0 0 0 0 0 0 0 0 0 0 0 0 0 0 0 0 0 0 0 0 0 0 0 0 0 0 0 0 0 0 0 0 0 500 0 955 845 743 799 799 808 766 774 782 774 766 791 758 758 766 791 791 766 766 782 766 758 782 750 766 758 750 766 766 766 766 766 766 766 774 791 782 782 799 799 782 782 735 721 707 700 700 700 707 735 774 799 826 808 808 799 782 774 774 774 758 743 743 728 728 758 766 766 766 766 758 758 774 0 0 0 0 0 687 0 0 0 750 728 728 707 0 675 663 681 675 675 663 657 623 618 634 634 618 588 588 584 584 584 0 0 0 0 0
    0 0 0 0 0 0 0 0 0 0 0 0 0 0 0 0 0 0 0 0 0 0 0 0 0 0 0 0 0 0 0 0 0 0 0 0 0 0 0 0 0 0 0 0 0 0 0 0 0 0 0 0 0 0 0 0 0 0 0 0 0 0 0 0 0 0 0 0 0 855 855 865 876 865 865 886 897 886 897 897 897 897 908 931 897 865 876 886 876 876 865 826 826 808 817 817 817 826 817 0 886 886 886 865 865 865 886 908 886 876 876 908 943 931 919 886 886 994 826 808 808 0 0 0 0 0 994 919 981 0 0 0 0 0 0 0 0 0 0 0 242 0 0 955 0 981 955 0 0 994 0 0 0 0 0 0 1206 0 0 0 0 0 0 0 0 876 0 0 0 0 0 0 0 0 0 0 0 0 0 0 0 0 0 0 0 0 0 0 0 0 0 0 0 0 0 0 0 0 0 0 0 0 0 0 0 0 0 0 0 504 0 955 845 750 808 808 808 766 774 782 774 766 791 758 750 758 782 791 758 758 774 766 758 791 766 782 774 758 774 774 766 774 766 766 766 774 791 782 782 799 799 782 774 735 707 700 700 700 700 707 735 774 799 826 799 799 791 774 774 766 766 743 735 728 721 728 766 774 782 782 774 766 766 791 0 0 0 0 0 0 0 0 0 0 766 743 707 0 669 657 675 675 669 663 651 623 0 629 629 618 584 584 579 584 584 0 0 0 0 0
    0 0 0 0 0 0 0 0 0 0 0 0 0 0 0 0 0 0 0 0 0 0 0 0 0 0 0 0 0 0 0 0 0 0 0 0 0 0 0 0 0 0 0 0 0 0 0 0 0 0 0 0 0 0 0 0 0 0 0 0 0 0 0 0 0 0 0 0 0 845 865 865 876 865 865 886 886 886 897 897 897 897 908 931 886 865 876 886 876 876 865 836 826 817 826 817 817 826 808 0 876 886 876 865 865 865 886 897 886 876 876 908 931 931 931 897 897 994 836 817 826 0 0 0 0 968 955 919 968 0 0 0 0 0 366 0 0 0 0 0 0 0 0 955 0 0 943 955 968 981 955 0 0 0 0 0 0 0 0 0 0 0 0 0 0 0 0 0 0 0 0 1206 0 0 0 0 0 0 0 0 0 0 0 0 0 808 817 817 0 0 0 0 0 0 0 0 0 0 0 0 0 0 0 0 0 0 0 0 0 507 0 943 845 758 808 808 808 766 774 782 774 766 791 750 750 758 782 782 743 750 750 750 750 791 766 782 774 758 774 766 766 766 766 758 766 766 782 774 782 791 799 782 774 750 0 0 0 0 0 707 728 782 799 826 799 791 782 774 782 774 774 750 743 743 728 743 774 774 782 782 782 774 782 799 0 0 0 0 0 0 0 0 0 0 0 0 0 0 669 651 675 669 669 663 651 0 0 623 623 618 579 584 579 584 584 0 0 0 0 0
    0 0 0 0 0 0 0 0 0 0 0 0 0 0 0 0 0 0 0 0 0 0 0 0 0 0 0 0 0 0 0 0 0 0 0 0 0 0 0 0 0 0 0 0 0 0 0 0 0 0 0 0 0 0 0 0 0 0 0 0 0 0 0 0 0 0 0 0 0 845 865 865 876 865 865 886 886 886 897 886 886 886 908 931 886 865 886 886 886 886 865 845 836 826 826 817 817 826 808 0 876 886 876 865 865 855 876 897 876 876 876 897 931 919 931 897 897 994 855 836 836 845 0 0 931 955 0 0 981 0 0 0 0 404 0 0 0 0 0 252 248 0 0 0 0 0 981 968 981 968 955 0 0 0 0 0 0 0 0 0 0 0 0 0 0 0 0 0 0 0 0 1226 1206 0 0 0 0 0 0 0 0 808 0 0 836 817 817 826 0 0 0 0 0 0 0 0 0 0 0 0 0 0 0 0 0 0 0 0 504 500 0 943 845 758 799 808 799 766 774 782 774 766 791 758 743 758 782 782 735 743 743 743 743 782 758 774 774 766 782 774 766 774 774 766 774 774 791 782 791 799 808 791 782 0 0 0 0 0 0 700 721 791 799 836 808 799 791 791 799 774 774 750 728 735 728 758 774 774 782 782 782 774 782 808 0 0 0 0 0 0 0 0 0 0 0 0 0 0 687 657 681 675 675 669 657 0 0 623 623 613 579 584 579 584 584 0 0 0 0 0
    0 0 0 0 0 0 0 0 0 0 0 0 0 0 0 0 0 0 0 0 0 0 0 0 0 0 0 0 0 0 0 0 0 0 0 0 0 0 0 0 0 0 0 0 0 0 0 0 0 0 0 0 0 0 0 0 0 0 0 0 0 0 0 0 0 0 0 0 0 855 876 865 876 865 876 886 876 876 886 876 897 897 908 931 886 876 897 897 886 876 855 836 826 817 817 808 808 817 799 836 876 886 876 865 865 855 876 897 876 876 876 897 931 919 943 908 908 994 897 0 0 865 0 0 955 981 0 931 1008 0 0 0 0 0 0 0 0 0 0 255 249 0 0 0 0 0 981 968 981 968 955 0 0 0 0 0 0 0 0 0 0 0 0 0 0 0 0 0 0 0 0 0 0 0 0 0 0 0 0 0 0 826 0 0 0 817 817 826 0 0 0 0 0 0 0 0 0 0 0 0 0 0 0 0 0 0 0 0 0 0 908 931 845 758 799 808 799 774 766 782 774 766 791 750 750 758 782 791 735 743 735 750 743 774 750 774 774 766 782 782 774 782 782 774 782 782 791 791 799 799 799 791 782 0 0 0 0 0 0 700 707 774 782 836 799 791 774 766 774 743 728 721 714 707 721 758 774 774 782 782 782 782 791 817 0 0 0 0 0 0 0 0 0 0 0 0 0 0 0 0 687 681 675 675 657 0 0 618 618 613 579 579 579 584 584 0 0 0 0 0
    0 0 0 0 0 0 0 0 0 0 0 0 0 0 0 0 0 0 0 0 0 0 0 0 0 0 0 0 0 0 0 0 0 0 0 0 0 0 0 0 0 0 0 0 0 0 0 0 0 0 0 0 0 0 0 0 0 0 0 0 0 0 0 0 0 0 0 0 0 855 876 865 876 876 876 886 886 886 886 876 897 897 908 919 886 876 897 897 886 865 836 836 826 808 808 799 808 817 799 836 876 886 876 865 865 855 876 886 876 876 876 897 919 919 943 908 908 1008 943 0 0 0 0 0 0 0 1008 943 1022 0 0 0 0 0 0 0 0 0 0 0 0 0 0 0 0 0 0 0 0 0 943 0 0 0 0 0 0 0 0 0 0 0 0 0 0 0 0 0 0 0 0 0 0 0 0 0 0 0 0 0 0 0 0 0 0 799 808 817 0 0 0 0 0 0 0 0 0 0 0 0 0 0 0 0 0 0 0 0 0 0 897 919 845 766 808 808 799 774 766 774 774 766 791 750 750 758 782 791 743 743 735 750 735 758 735 750 766 758 782 782 774 791 782 782 782 782 799 791 808 808 808 799 799 0 0 0 0 0 0 700 700 0 750 836 774 743 743 743 743 721 707 707 707 700 721 758 774 782 791 791 791 782 799 826 0 0 0 0 0 0 0 0 0 0 0 0 0 0 0 0 0 681 675 675 0 348 0 618 618 613 579 584 579 584 584 0 0 0 0 0
    0 0 0 0 0 0 0 0 0 0 0 0 0 0 0 0 0 0 0 0 0 0 0 0 0 0 0 0 0 0 0 0 0 0 0 0 0 0 0 0 0 0 0 0 0 0 0 0 0 0 0 0 0 0 0 0 0 0 0 0 0 0 0 0 0 0 0 0 0 865 886 876 876 886 876 897 886 886 886 876 897 897 908 919 886 886 897 897 897 876 836 845 826 808 817 808 817 836 808 836 876 886 876 865 865 855 876 886 876 886 886 897 919 908 943 908 908 1008 931 0 0 0 0 0 0 0 968 931 1022 0 0 0 0 0 0 0 0 0 0 0 0 0 0 0 0 0 0 0 0 0 0 0 0 0 0 0 0 0 0 0 0 0 0 0 0 0 0 0 0 0 0 774 0 750 0 0 0 0 0 0 0 0 0 0 0 782 0 817 0 0 0 0 0 0 0 0 0 0 0 0 0 0 0 0 0 0 0 0 0 955 908 919 845 766 808 808 808 774 766 774 774 774 791 758 750 758 782 799 750 750 743 766 743 766 743 743 766 758 782 782 782 791 791 782 782 782 799 799 817 817 817 808 0 0 0 0 0 0 0 707 0 0 758 826 758 735 743 743 743 721 714 707 707 707 728 758 774 782 782 782 782 782 808 836 0 0 0 0 0 0 0 0 0 0 0 0 0 0 0 0 0 0 0 675 657 0 0 618 618 613 579 584 584 584 584 0 0 0 0 0
    0 0 0 0 0 0 0 0 0 0 0 0 0 0 0 0 0 0 0 0 0 0 0 0 0 0 0 0 0 0 0 0 0 0 0 0 0 0 0 0 0 0 0 0 0 0 0 0 0 0 0 0 0 0 0 0 0 0 0 0 0 0 0 0 0 0 0 0 0 876 886 876 876 886 886 886 886 886 886 876 897 908 908 919 886 897 908 908 908 886 845 845 0 0 0 0 836 845 0 845 876 886 876 865 865 865 876 886 886 886 886 908 908 908 943 908 919 1008 943 897 0 0 0 0 0 0 968 0 994 0 994 0 0 0 0 0 0 0 0 275 0 269 0 0 0 0 0 0 0 0 0 0 0 0 0 0 0 0 0 0 0 0 0 0 0 0 0 0 0 0 0 774 743 743 0 0 0 0 0 0 0 0 0 0 0 791 808 836 0 0 0 0 0 0 0 0 0 0 0 0 0 0 0 0 0 0 0 855 0 897 876 886 845 766 808 808 799 774 766 774 774 774 791 758 750 758 782 799 758 750 743 774 750 0 0 0 750 743 774 782 774 791 782 782 791 791 808 808 826 826 0 0 0 0 0 0 0 0 0 0 0 0 758 808 735 721 728 728 0 707 700 700 700 707 735 766 774 782 782 782 782 791 808 826 0 0 0 0 0 0 0 0 0 0 0 0 0 0 0 0 0 0 0 687 0 0 0 623 623 618 584 584 584 584 588 0 0 0 0 0
    0 0 0 0 0 0 0 0 0 0 0 0 0 0 0 0 0 0 0 0 0 0 0 0 0 0 0 0 0 0 0 0 0 0 0 0 0 0 0 0 0 0 0 0 0 0 0 0 0 0 0 0 0 0 0 0 0 0 0 0 0 0 0 0 0 0 0 0 0 876 886 876 876 886 886 886 886 886 886 876 908 908 908 908 897 908 919 919 919 886 855 865 0 0 0 0 855 855 0 845 886 886 876 876 865 865 886 886 886 886 886 908 908 908 943 908 919 1008 955 908 919 0 0 0 0 0 0 968 0 0 0 0 0 0 0 0 0 0 0 0 0 274 0 0 0 0 0 0 0 0 0 0 0 0 0 0 0 0 281 0 0 0 0 0 0 0 0 0 0 735 750 766 735 735 0 0 0 0 0 0 0 0 0 0 0 808 826 845 855 0 0 0 0 0 0 0 0 0 0 0 0 0 766 782 782 826 817 845 0 855 855 876 845 766 799 808 799 774 766 782 774 774 782 758 750 758 782 791 758 750 750 782 758 0 0 0 750 735 766 766 766 782 782 782 782 782 799 808 0 0 0 0 0 0 0 86 86 0 0 0 0 0 758 791 728 721 735 735 728 714 700 700 707 714 743 774 782 782 782 782 782 791 808 826 0 0 0 0 0 0 0 808 817 0 855 0 0 0 0 0 0 0 0 0 0 0 0 623 623 618 584 584 584 588 588 0 0 0 0 0
    0 0 0 0 0 0 0 0 0 0 0 0 0 0 0 0 0 0 0 0 0 0 0 0 0 0 0 0 0 0 0 0 0 0 0 0 0 0 0 0 0 0 0 0 0 0 0 0 0 0 0 0 0 0 0 0 0 0 0 0 0 0 0 0 0 0 0 0 0 876 886 876 876 886 886 886 886 886 876 876 908 908 897 897 897 908 908 919 919 886 855 876 0 0 0 0 886 865 855 855 897 897 876 876 876 865 886 886 886 886 886 908 908 908 943 908 919 994 943 897 897 931 0 0 0 0 0 0 0 0 0 0 0 0 0 0 0 0 0 0 0 0 0 0 0 0 0 0 0 0 0 0 0 0 0 0 0 0 0 0 0 112 0 0 0 0 0 0 0 0 0 0 743 728 0 0 0 0 0 0 0 0 0 0 0 845 845 865 0 0 0 0 0 0 0 0 0 0 0 0 0 0 0 0 799 845 0 0 0 855 855 876 845 758 799 799 799 774 766 782 774 774 782 758 758 758 782 791 758 758 758 791 766 0 0 743 758 735 758 750 750 766 766 774 774 766 791 791 0 0 0 0 0 0 0 86 86 0 0 0 0 0 0 808 728 728 735 735 728 721 707 707 707 721 750 782 782 782 791 791 791 799 817 836 0 0 0 0 0 0 0 808 808 0 0 0 0 0 0 0 0 0 0 0 0 0 0 623 623 613 584 584 584 584 588 0 0 0 0 0
    0 0 0 0 0 0 0 0 0 0 0 0 0 0 0 0 0 0 0 0 0 0 0 0 0 0 0 0 0 0 0 0 0 0 0 0 0 0 0 0 0 0 0 0 0 0 0 0 0 0 0 0 0 0 0 0 0 0 0 0 0 0 0 0 0 0 0 0 0 876 876 876 876 886 886 876 886 886 865 876 908 897 886 886 897 897 897 908 897 865 855 876 0 0 0 0 897 876 876 855 897 897 876 876 876 865 886 886 886 886 886 908 908 908 943 908 908 994 919 897 876 886 0 0 0 0 0 0 0 1066 1036 0 1036 0 0 0 0 0 0 0 0 0 0 0 0 0 0 0 0 0 0 0 0 0 0 364 0 0 0 0 0 0 0 0 0 0 0 0 0 0 1887 0 0 0 0 0 0 0 0 0 0 0 0 0 0 0 0 876 0 0 245 0 0 0 0 0 0 0 0 0 0 0 0 0 0 0 0 0 0 855 845 865 836 750 799 799 799 774 766 774 774 766 782 758 758 766 782 799 766 766 758 799 774 0 0 735 728 721 735 743 743 750 758 758 766 758 791 782 0 0 0 0 0 0 0 86 86 0 0 84 0 0 791 791 728 735 750 743 735 728 721 721 714 728 750 774 774 774 782 782 782 799 817 826 836 799 0 0 0 0 799 791 799 791 0 0 0 0 0 0 0 0 0 0 0 0 0 618 618 613 584 584 579 584 588 0 0 0 0 0
    0 0 0 0 0 0 0 0 0 0 0 0 0 0 0 0 0 0 0 0 0 0 0 0 0 0 0 0 0 0 0 0 0 0 0 0 0 0 0 0 0 0 0 0 0 0 0 0 0 0 0 0 0 0 0 0 0 0 0 0 0 0 0 0 0 0 0 0 0 886 876 876 886 886 886 876 886 886 876 876 908 897 876 876 897 886 886 897 886 865 855 886 0 0 0 0 897 876 886 865 897 897 876 876 876 865 886 886 886 886 886 919 908 908 943 908 908 994 908 876 855 0 0 0 0 0 0 0 0 0 1036 1008 1022 0 0 0 0 0 0 0 0 0 0 0 0 0 0 0 0 0 0 0 0 0 0 0 0 0 0 0 0 0 0 0 0 0 0 0 0 0 0 0 0 0 0 0 0 0 0 0 0 0 0 0 0 0 0 886 0 242 244 0 0 0 0 0 0 0 845 0 0 0 0 0 0 0 0 0 0 0 845 876 836 743 799 799 799 774 766 774 774 766 782 758 758 766 782 799 774 774 766 799 782 0 0 743 721 0 728 735 735 743 750 758 766 766 799 782 0 0 0 0 0 0 86 86 86 0 0 0 0 0 758 774 721 735 743 743 735 728 728 728 721 728 750 766 774 766 774 774 782 799 826 0 0 0 0 0 799 0 774 774 774 774 0 0 0 0 0 0 0 0 0 0 0 0 0 618 618 613 579 584 579 584 588 0 0 0 0 0
    0 0 0 0 0 0 0 0 0 0 0 0 0 0 0 0 0 0 0 0 0 0 0 0 0 0 0 0 0 0 0 0 0 0 0 0 0 0 0 0 0 0 0 0 0 0 0 0 0 0 0 0 0 0 0 0 0 0 0 0 0 0 0 0 0 0 0 0 0 886 876 865 886 886 886 876 886 886 876 886 919 897 876 876 897 886 886 886 876 865 865 897 0 0 908 943 931 886 908 865 908 897 876 886 876 865 897 886 886 886 897 919 908 908 943 908 908 1008 919 865 845 0 0 0 0 0 0 0 0 0 0 0 0 0 0 0 0 0 0 0 0 0 0 0 0 0 0 0 0 0 0 0 0 0 0 0 0 0 0 0 0 0 0 0 0 0 0 0 0 0 0 0 0 0 0 0 0 0 0 0 0 0 0 0 0 0 0 0 0 246 246 0 0 0 0 0 0 865 855 0 0 0 0 0 0 0 0 0 0 0 0 897 845 750 799 808 799 774 774 782 774 774 782 758 758 766 791 799 774 774 774 808 791 0 0 750 0 0 0 0 0 0 735 735 0 0 0 791 0 0 0 0 0 0 0 0 0 0 0 0 0 0 0 728 714 728 743 735 728 735 735 728 728 735 750 766 766 766 766 774 782 808 0 0 0 0 0 0 0 0 0 766 766 766 808 0 0 0 0 0 774 0 0 0 0 0 0 613 613 613 579 579 579 584 588 0 0 0 0 0
    0 0 0 0 0 0 0 0 0 0 0 0 0 0 0 0 0 0 0 0 0 0 0 0 0 0 0 0 0 0 0 0 0 0 0 0 0 0 0 0 0 0 0 0 0 0 0 0 0 0 0 0 0 0 0 0 0 0 0 0 0 0 0 0 0 0 0 0 0 876 865 865 886 886 876 876 886 886 876 897 931 897 876 886 908 897 897 886 865 865 876 931 919 0 943 968 968 908 931 876 919 908 886 886 876 865 897 886 886 886 897 919 908 919 943 908 908 1008 943 908 886 0 0 0 0 0 0 0 0 0 0 0 0 0 0 0 0 0 0 0 0 0 0 0 0 0 0 0 0 0 0 0 0 0 0 0 0 0 0 0 0 0 0 0 0 0 0 0 0 0 0 0 0 0 0 0 0 0 0 0 0 0 0 0 0 0 0 0 0 0 247 0 0 0 0 0 0 0 845 0 0 0 799 0 0 0 0 0 0 0 0 931 845 758 808 808 808 782 774 782 774 774 782 758 766 766 791 799 782 782 782 0 0 0 0 0 0 0 0 0 0 0 728 728 0 0 0 791 0 808 0 0 0 0 0 0 0 0 0 0 0 0 0 721 714 728 735 735 735 743 750 735 743 750 750 766 766 766 766 766 791 817 845 836 0 0 0 0 0 0 0 774 758 766 799 0 0 0 0 0 728 694 0 0 0 0 0 608 608 608 574 579 579 584 584 0 0 0 0 0
    0 0 0 0 0 0 0 0 0 0 0 0 0 0 0 0 0 0 0 0 0 0 0 0 0 0 0 0 0 0 0 0 0 0 0 0 0 0 0 0 0 0 0 0 0 0 0 0 0 0 0 0 0 0 0 0 0 0 0 0 0 0 0 0 0 0 0 0 0 876 865 865 886 886 876 876 886 886 886 897 931 897 876 886 897 886 897 876 855 865 886 943 919 931 955 968 968 908 931 876 919 908 886 886 876 865 897 876 876 876 897 919 908 919 943 908 919 1008 955 955 931 0 0 0 0 0 0 0 0 0 0 0 0 0 0 0 0 0 0 0 0 0 0 0 0 0 0 0 0 0 0 0 0 0 0 0 0 0 0 0 0 0 0 0 0 0 0 0 0 0 0 0 0 0 0 0 0 0 0 0 0 0 0 0 0 0 0 0 0 0 0 0 0 0 0 0 0 0 836 0 0 0 799 0 0 0 0 0 0 0 0 908 845 766 808 808 808 782 774 782 774 774 791 758 766 766 791 799 782 791 782 0 799 0 0 774 0 0 0 0 0 0 0 0 0 0 782 774 0 791 0 0 0 0 0 0 0 0 0 0 0 0 0 0 714 728 735 735 735 750 758 735 743 750 750 758 766 766 774 774 799 826 876 876 0 0 0 0 0 0 0 0 774 774 799 0 0 0 0 0 700 687 0 681 651 0 0 608 608 603 570 574 574 584 584 0 0 0 0 0
    0 0 0 0 0 0 0 0 0 0 0 0 0 0 0 0 0 0 0 0 0 0 0 0 0 0 0 0 0 0 0 0 0 0 0 0 0 0 0 0 0 0 0 0 0 0 0 0 0 0 0 0 0 0 0 0 0 0 0 0 0 0 0 0 0 0 0 0 0 865 865 865 886 876 876 876 886 876 886 908 931 886 876 886 897 886 886 865 845 0 0 0 0 919 931 955 955 897 931 876 919 908 876 886 876 865 897 876 876 876 886 919 908 919 943 908 919 1008 968 968 968 0 0 0 0 0 0 0 0 0 0 981 0 0 0 0 0 0 0 0 0 0 0 0 0 0 0 0 0 0 0 0 0 0 0 0 0 0 0 0 0 0 0 0 180 0 0 0 0 0 0 0 0 0 0 0 0 0 0 0 0 0 0 0 0 0 0 0 0 0 0 0 0 0 0 0 0 0 0 0 0 0 799 0 0 0 0 0 0 0 0 886 845 766 808 808 808 782 774 782 774 774 791 758 758 766 791 799 774 782 774 0 791 782 0 766 0 0 0 0 0 0 0 0 0 0 782 774 791 791 791 0 0 0 0 0 766 0 728 0 0 681 700 700 714 721 728 728 728 750 766 735 750 750 743 758 766 758 766 766 808 836 0 919 0 0 0 0 0 0 0 0 0 743 758 735 735 0 0 0 687 675 687 669 639 0 0 603 603 603 570 574 574 579 584 0 0 0 0 0
    0 0 0 0 0 0 0 0 0 0 0 0 0 0 0 0 0 0 0 0 0 0 0 0 0 0 0 0 0 0 0 0 0 0 0 0 0 0 0 0 0 0 0 0 0 0 0 0 0 0 0 0 0 0 0 0 0 0 0 0 0 0 0 0 0 0 0 0 0 855 855 865 886 876 876 876 886 876 886 908 919 886 876 886 897 886 886 855 836 845 855 876 865 886 897 919 931 886 919 876 919 897 876 876 876 865 897 876 876 876 886 908 908 919 943 908 908 1008 943 943 968 876 0 0 0 0 0 0 0 0 1051 1051 1082 0 1187 0 0 0 1115 0 0 0 1115 0 0 0 0 0 0 0 0 0 0 0 0 0 0 0 0 0 0 0 0 182 180 0 0 0 0 0 0 0 0 0 3679 0 0 0 0 0 0 0 0 0 0 0 0 0 0 0 0 0 0 0 0 0 0 0 0 0 0 0 0 0 0 0 0 0 0 0 0 897 845 766 808 808 808 782 774 782 774 774 791 758 766 766 791 799 774 782 782 791 791 782 0 0 0 0 0 0 0 0 0 0 0 766 791 782 791 782 782 0 0 774 782 782 782 774 758 766 721 700 721 714 721 735 735 743 743 766 782 743 758 750 743 750 758 750 758 766 808 845 0 0 0 0 994 0 0 0 0 0 0 0 0 743 728 0 0 0 681 663 669 639 629 598 570 598 598 598 566 574 570 579 579 0 0 0 0 0
    0 0 0 0 0 0 0 0 0 0 0 0 0 0 0 0 0 0 0 0 0 0 0 0 0 0 0 0 0 0 0 0 0 0 0 0 0 0 0 0 0 0 0 0 0 0 0 0 0 0 0 0 0 0 0 0 0 0 0 0 0 0 0 0 0 0 0 0 0 855 855 865 886 865 876 876 876 876 886 908 908 876 876 886 886 886 876 845 836 836 845 855 855 865 876 897 919 876 919 876 919 897 876 876 876 865 897 876 876 876 886 908 908 919 943 908 908 994 908 908 943 865 0 0 0 0 855 0 994 0 1036 1051 1051 1051 0 0 1082 1036 1051 1051 1051 1132 1082 1036 0 0 0 0 0 0 0 0 0 0 0 0 0 0 0 0 0 0 0 0 0 0 0 0 0 0 0 0 0 0 3679 0 0 0 0 0 0 0 0 0 0 0 0 0 0 263 0 0 210 0 0 0 0 0 0 0 0 0 774 0 0 0 0 0 0 0 0 931 845 766 817 817 817 782 782 782 774 774 791 758 758 766 791 799 774 782 782 791 791 0 0 0 0 0 0 0 0 0 0 0 758 774 791 782 791 782 782 799 782 774 774 791 782 791 782 791 743 728 743 728 735 743 743 750 750 782 782 743 766 750 743 750 750 743 758 758 808 0 0 0 0 0 0 0 0 0 0 0 0 0 0 0 0 0 0 0 681 0 663 629 618 593 566 598 598 593 561 570 570 579 579 0 0 0 0 0
    0 0 0 0 0 0 0 0 0 0 0 0 0 0 0 0 0 0 0 0 0 0 0 0 0 0 0 0 0 0 0 0 0 0 0 0 0 0 0 0 0 0 0 0 0 0 0 0 0 0 0 0 0 0 0 0 0 0 0 0 0 0 0 0 0 0 0 0 0 845 855 865 876 865 876 876 876 876 886 908 897 876 876 886 886 876 865 826 826 826 826 0 0 0 0 876 897 865 908 865 908 897 876 876 876 865 886 876 876 876 886 908 908 919 931 897 897 994 886 897 943 865 0 0 0 0 865 0 955 0 1022 1022 0 0 0 0 1066 1022 1008 1008 1008 1082 1051 1036 0 0 0 0 0 0 0 0 0 0 0 0 0 0 0 0 0 0 0 0 0 0 176 0 0 0 0 0 0 0 0 0 886 865 0 0 0 0 0 0 0 0 0 0 0 0 0 0 0 0 0 0 0 0 0 0 0 0 766 0 0 0 0 0 0 0 0 919 845 766 817 817 817 791 782 782 774 774 791 758 758 766 791 799 774 782 774 782 0 0 0 0 0 0 0 0 0 0 0 0 0 791 0 799 799 799 799 817 799 791 791 799 791 799 766 743 721 700 728 721 728 728 735 750 758 791 782 743 766 750 743 750 750 743 750 758 799 0 0 0 0 0 0 0 0 0 0 0 0 0 0 0 791 0 0 0 0 0 0 0 0 0 561 593 593 593 561 570 570 579 579 0 0 0 0 0</data></depth>
</opencv_storage>
