<?xml version="1.0"?>
<opencv_storage>
<gps_time_stamp>287205</gps_time_stamp>
<gps_x>-1.2391096115112305e+001</gps_x>
<gps_y>1.1146397590637207e+001</gps_y>
<gps_z>-2.2260277271270752e+000</gps_z>
<image_time_stamp>278056</image_time_stamp>
<depth type_id="opencv-matrix">
  <rows>79</rows>
  <cols>320</cols>
  <dt>s</dt>
  <data>
    0 0 0 0 0 0 0 0 0 0 0 0 0 0 0 0 0 0 0 0 0 0 0 0 0 0 0 0 0 0 0 0 0 0 0 0 0 0 0 0 0 0 0 0 0 0 0 0 0 0 0 0 0 0 0 0 0 0 0 0 0 0 0 0 0 0 0 0 0 1635 1533 1533 1711 1565 1565 1533 1672 1501 0 0 0 0 0 0 0 0 0 0 0 0 1388 1415 1501 0 0 0 0 0 0 0 0 1471 1471 1443 1443 1443 1443 1415 1443 1415 1388 1443 1443 1443 1471 1501 1443 1533 1533 1565 1565 1599 1635 1635 1599 1795 1672 1599 1672 1599 1415 1388 1362 1362 1388 1362 1362 1338 1338 1362 1362 1388 1388 1362 1388 1362 1415 1362 1415 1388 1415 1415 1388 1362 1362 1362 1388 1268 0 1291 1291 1314 1338 1338 1338 1314 1338 1291 1291 1291 1226 1226 1206 1206 1268 1247 1247 1388 1388 1362 1443 1443 1415 1388 1388 1415 1388 1388 1415 1362 1338 1362 1362 1388 1388 1338 1314 1291 1268 1291 1247 1206 1187 1226 1247 1291 1291 1291 1338 1362 1415 1443 1533 1443 1415 1501 1501 1533 1501 1415 1415 1501 1388 1362 1338 1314 1362 1362 1338 1362 1338 1338 1314 1268 0 1115 994 968 955 908 897 886 886 865 865 845 836 826 817 808 791 782 774 750 758 743 735 721 714 714 700 694 681 681 675 675 675 663 657 645 639 629 629 629 623 623 618 618 623 618 623 613 613 613 608 608 608 608 603 603 598 603 603 608 603 603 598 603 603 598 593 598 598 603 603 603 603 603 603 598 588 588 579 579 579 0 0 0 0 0
    0 0 0 0 0 0 0 0 0 0 0 0 0 0 0 0 0 0 0 0 0 0 0 0 0 0 0 0 0 0 0 0 0 0 0 0 0 0 0 0 0 0 0 0 0 0 0 0 0 0 0 0 0 0 0 0 0 0 0 0 0 0 0 0 0 0 0 0 0 1635 1533 1533 1711 1565 1565 1565 1711 0 0 0 0 0 0 0 0 0 0 0 0 0 0 0 0 0 0 0 0 0 0 0 0 1471 1471 1443 1415 1415 1443 1415 1443 1415 1415 1471 1443 1443 1471 1501 1443 1533 1533 1565 1533 1599 1635 1599 1565 1752 1635 1565 1635 1565 1415 1362 1338 1362 1388 1338 1362 1338 1338 1362 1362 1388 1388 1362 1388 1338 1388 1362 1443 1415 1415 1415 1388 1388 1362 1362 1388 1268 0 1291 0 1314 1314 1338 1314 1314 1338 1291 1291 1291 1247 1226 1226 1226 1268 1247 1187 1362 1362 1338 1415 1443 1415 1388 1388 1388 1362 1388 1388 1338 1314 1338 1362 1362 1362 1338 1314 1291 1268 1291 1247 1206 1168 1206 1247 1268 1291 1291 1362 1443 1471 1599 1599 1501 1443 1565 1533 1533 1501 1388 1415 1501 1388 1338 1338 1291 1338 1338 1338 1314 1291 1291 1268 1206 1206 1066 981 955 943 908 897 886 886 865 865 845 836 826 817 808 791 782 774 758 766 750 743 728 721 714 694 694 675 675 669 669 669 663 657 645 639 629 629 629 623 623 618 618 623 613 623 613 613 613 608 608 608 608 603 608 598 603 603 608 603 603 598 603 603 603 603 603 598 603 603 608 603 603 603 593 584 588 574 579 579 0 0 0 0 0
    0 0 0 0 0 0 0 0 0 0 0 0 0 0 0 0 0 0 0 0 0 0 0 0 0 0 0 0 0 0 0 0 0 0 0 0 0 0 0 0 0 0 0 0 0 0 0 0 0 0 0 0 0 0 0 0 0 0 0 0 0 0 0 0 0 0 0 0 0 1635 1533 1533 1711 1565 1565 1565 1711 0 0 0 0 0 0 0 0 0 0 0 0 0 0 0 0 0 0 0 0 0 0 0 0 1501 1443 1443 1415 1415 1443 1415 1443 1415 1415 1471 1443 1443 1501 1501 1443 1533 1533 1565 1533 1599 1635 1599 1565 1752 1599 1565 1635 1565 1415 1362 1314 1362 1362 1338 1362 1338 1338 1362 1362 1388 1388 1362 1415 1338 1415 1362 1443 1415 1443 1443 1415 1388 1388 1388 1415 1268 183 0 182 1314 1314 1314 1314 1314 1338 1314 1291 1291 1247 1247 1226 1226 1268 1247 1115 1338 1338 1314 1415 1415 1388 1388 1388 1388 1362 1388 1388 1338 1338 1338 1362 1362 1362 1362 1338 1338 1291 1314 0 1226 1187 1247 1247 1291 1291 1314 1415 1565 1635 1752 1711 1599 1533 1599 1565 1565 1533 1388 1443 1533 1388 1338 1338 1291 1314 1314 1314 1291 1268 1247 1226 1115 1115 1036 968 943 943 908 886 886 886 865 865 845 836 826 817 799 791 791 782 766 774 758 750 735 728 721 700 694 675 675 669 669 669 657 657 645 639 629 629 629 623 623 618 618 623 613 618 613 613 613 608 608 608 608 603 608 598 603 603 608 603 603 603 603 603 608 608 608 603 603 608 608 608 603 603 593 584 584 574 579 579 0 0 0 0 0
    0 0 0 0 0 0 0 0 0 0 0 0 0 0 0 0 0 0 0 0 0 0 0 0 0 0 0 0 0 0 0 0 0 0 0 0 0 0 0 0 0 0 0 0 0 0 0 0 0 0 0 0 0 0 0 0 0 0 0 0 0 0 0 0 0 0 0 0 0 1635 1533 1533 1711 1533 1533 1565 1711 0 0 0 0 0 0 0 0 0 0 0 0 0 0 0 0 0 0 0 0 0 0 0 0 1471 1415 1415 1415 1388 1415 1388 1415 1443 1415 1471 1443 1443 1501 1501 1443 1533 1533 1565 1533 1599 1635 1565 1565 1752 1599 1599 1635 1565 1388 1362 1314 1362 1362 1338 1362 1338 1338 1338 1338 1388 1362 1362 1388 1362 1415 1362 1471 1443 1471 1471 1443 1415 1415 1415 1415 1268 0 0 182 1314 1314 1314 1291 1291 1362 1314 1291 1314 1268 1247 1247 1247 1291 1247 1082 1268 1291 1291 1388 1388 1362 1362 1362 1388 1388 1388 1415 1362 1338 1362 1362 1362 1388 1362 1338 1388 1291 1362 1291 1247 1206 0 1268 1338 1291 1362 1388 1599 0 0 0 1471 1415 1471 1471 1471 1443 1362 1415 1533 1388 1314 1338 1247 1291 1291 1268 1247 1206 1168 1149 1051 1022 1008 955 919 919 897 897 886 886 876 865 845 836 826 817 799 791 791 782 774 782 766 750 735 735 721 700 694 675 669 669 663 663 651 651 645 639 629 629 629 623 623 623 618 623 613 618 613 613 613 608 613 608 608 603 608 598 603 603 608 608 608 603 608 608 608 608 608 603 603 603 608 603 603 603 593 584 584 574 574 574 0 0 0 0 0
    0 0 0 0 0 0 0 0 0 0 0 0 0 0 0 0 0 0 0 0 0 0 0 0 0 0 0 0 0 0 0 0 0 0 0 0 0 0 0 0 0 0 0 0 0 0 0 0 0 0 0 0 0 0 0 0 0 0 0 0 0 0 0 0 0 0 0 0 0 1635 1533 1533 1711 1599 1599 1599 0 0 0 0 0 0 0 0 0 0 0 0 0 0 0 0 0 0 0 0 0 0 0 0 0 0 1388 1388 1388 1388 1415 1415 1415 1443 1415 1471 1443 1443 1501 1501 1443 1533 1501 1565 1533 1599 1635 1565 1565 1752 1635 1599 1672 1565 1388 1362 1314 1362 1388 1338 1362 1338 1338 1338 1362 1388 1388 1362 1415 1388 1415 1362 1501 1443 1471 1471 1443 1415 1443 1443 1471 1291 0 0 0 1314 1338 1314 1314 1314 1362 1314 1314 1338 1268 1247 1247 1247 1268 1247 1098 1247 1247 1247 1362 1388 1362 1362 1388 1388 1388 1388 1415 1362 1338 1362 1362 1362 1362 1338 1338 1362 1314 1415 1338 1268 1247 1635 0 0 0 0 1565 0 0 1989 1168 1415 1338 1415 1362 1362 1362 1314 1388 1471 1362 1268 1314 1206 1226 1247 1206 1168 1098 1066 1066 1008 994 981 931 908 908 897 897 886 886 876 865 845 845 826 817 808 799 799 791 774 782 766 750 735 735 721 700 694 675 675 669 669 669 651 657 645 639 629 629 629 623 623 618 618 618 613 618 613 613 613 613 613 608 608 603 613 603 603 608 608 608 603 603 608 608 613 613 608 603 603 603 608 603 603 598 588 584 579 574 570 574 0 0 0 0 0
    0 0 0 0 0 0 0 0 0 0 0 0 0 0 0 0 0 0 0 0 0 0 0 0 0 0 0 0 0 0 0 0 0 0 0 0 0 0 0 0 0 0 0 0 0 0 0 0 0 0 0 0 0 0 0 0 0 0 0 0 0 0 0 0 0 0 0 0 0 1635 1565 1565 0 1672 1672 1672 0 0 0 0 0 0 0 0 0 0 0 0 0 0 0 0 0 0 0 0 0 0 0 0 0 0 1388 1388 1415 1388 1415 1415 1415 1443 1443 1501 1471 1471 1533 1533 1443 1565 1533 1565 1533 1599 1635 1565 1565 1795 1672 1635 1672 1565 1415 1362 1338 1362 1388 1362 1338 1362 1362 1362 1388 1388 1388 1388 1415 1415 1415 1362 1501 1443 1471 1471 1443 1415 1443 1443 1471 1314 1338 1314 0 1314 1338 0 1314 1314 1362 1314 1314 1388 1268 1268 1268 1268 1268 1247 1115 1247 1247 1268 1362 1388 1362 1388 1388 1415 1388 1388 1415 1362 1338 1388 1338 1338 1362 1338 1338 1338 1314 1415 0 1291 0 1752 1565 0 0 0 1672 2102 0 0 1168 1388 1338 1388 1362 1338 1338 1291 1362 1388 1314 1168 1226 1132 1132 1168 1132 1082 1051 1036 1022 1008 981 968 931 908 919 908 897 886 886 876 865 845 845 836 826 808 799 799 791 782 782 774 758 743 743 721 700 694 675 675 663 663 663 657 657 645 639 629 629 629 623 623 618 618 618 613 618 613 613 613 613 613 608 613 608 618 603 608 608 608 603 603 603 608 603 613 608 608 603 603 603 603 603 598 593 588 584 574 574 570 570 0 0 0 0 0
    0 0 0 0 0 0 0 0 0 0 0 0 0 0 0 0 0 0 0 0 0 0 0 0 0 0 0 0 0 0 0 0 0 0 0 0 0 0 0 0 0 0 0 0 0 0 0 0 0 0 0 0 0 0 0 0 0 0 0 0 0 0 0 0 0 0 0 0 0 1635 1565 1565 0 0 0 0 0 0 0 0 0 0 0 0 0 0 0 0 0 0 0 0 0 0 0 0 0 0 0 0 0 0 1388 1388 1415 1415 1415 1443 1443 1471 1443 1501 1471 1471 1533 1533 1443 1565 1533 1565 1533 1599 1635 1565 1565 1795 1672 1635 1672 1533 1415 1338 1338 1362 1415 1362 1388 1388 1415 1362 1415 1415 1415 1415 1415 1415 1388 1338 1533 1443 1471 1471 1443 1415 1443 1471 1501 1338 1362 1338 0 0 0 0 0 0 0 1314 1291 1388 1291 1291 1268 1291 1291 1268 1168 1268 1268 1268 1388 1415 1362 1388 1415 1443 1415 1415 1443 1362 1338 1388 1338 1338 1338 1338 1338 0 0 1443 0 0 1338 1887 0 1936 1887 1936 1839 2102 2102 0 1206 1415 1388 1415 1362 1338 1338 1268 1314 1338 1247 1115 1149 1082 1082 1082 1066 1051 1008 1008 1008 994 981 955 931 919 919 908 897 886 886 876 876 855 855 836 826 817 808 808 799 791 791 774 766 750 750 728 700 694 675 675 663 663 663 657 657 651 639 629 629 629 623 623 618 618 618 613 618 613 613 613 613 613 613 613 608 618 598 608 603 603 603 603 603 603 603 608 603 603 603 598 598 598 598 593 588 588 584 570 574 570 570 0 0 0 0 0
    0 0 0 0 0 0 0 0 0 0 0 0 0 0 0 0 0 0 0 0 0 0 0 0 0 0 0 0 0 0 0 0 0 0 0 0 0 0 0 0 0 0 0 0 0 0 0 0 0 0 0 0 0 0 0 0 0 0 0 0 0 0 0 0 0 0 0 0 0 1635 1565 1565 0 1635 1635 1635 0 3504 0 0 0 0 0 0 0 0 0 0 0 0 0 0 0 0 0 0 0 0 0 0 0 0 1362 1388 1415 1388 1388 1471 1443 1501 1471 1533 1501 1471 1533 1565 1443 1565 1533 1565 1533 1599 1635 1565 1565 1795 1672 1672 1635 1565 1388 1338 1338 1388 1415 1388 1388 1443 1443 1388 1443 1443 1415 1415 1443 1443 1415 1362 1533 1443 1471 1471 1443 1415 1443 1471 1533 1338 1388 1362 1314 1338 0 0 0 1314 1388 1314 1314 1388 1291 1291 1291 1291 1291 1268 1187 1291 1291 1291 1415 1415 1388 1415 1443 1443 1415 1415 1471 1388 1362 1388 1362 1338 1362 1338 1362 0 0 0 0 0 1471 1936 1936 1936 1887 1936 0 0 0 0 1226 1338 1314 1338 1338 1314 1314 1247 1291 1291 1226 1132 1115 1082 1066 1066 1051 1022 1008 994 994 981 968 955 943 931 931 919 897 897 897 886 876 865 865 845 845 826 808 808 799 799 791 782 766 750 758 735 700 700 681 675 669 669 669 663 663 651 639 629 629 629 623 623 618 618 618 613 618 613 613 613 613 613 613 613 603 618 598 603 603 603 603 603 603 608 603 608 608 603 603 598 598 598 593 588 584 584 584 570 574 570 574 0 0 0 0 0
    0 0 0 0 0 0 0 0 0 0 0 0 0 0 0 0 0 0 0 0 0 0 0 0 0 0 0 0 0 0 0 0 0 0 0 0 0 0 0 0 0 0 0 0 0 0 0 0 0 0 0 0 0 0 0 0 0 0 0 0 0 0 0 0 0 0 0 0 0 1635 1565 1565 1752 1635 1635 1635 0 3504 0 0 0 0 0 0 0 1839 1599 1672 1672 0 0 0 0 0 0 0 0 0 0 0 0 0 0 1415 1471 1388 1415 1471 1443 1501 1471 1533 1501 1471 1565 1565 1443 1565 1533 1565 1533 1599 1635 1565 1565 1795 1635 1672 1635 1635 1501 1362 1388 1443 1471 1415 1443 1471 1501 1415 1501 1471 1471 1443 1501 1471 1471 1362 1565 1471 1501 1501 1471 1443 1471 1471 1533 1338 1388 1362 1338 1338 1362 1338 0 1338 1388 1314 1314 1388 1291 1291 1291 1291 1291 1268 1206 1291 1291 1314 1415 1415 1388 1415 1471 1471 1443 1443 1501 1388 1388 1415 1362 1362 1362 1362 1362 0 0 0 0 0 1711 1989 1936 1936 0 0 0 0 0 0 1206 1291 1291 1314 1314 1314 1314 1268 1268 1268 1226 1149 1115 1098 1082 1066 1036 1022 1008 994 994 981 968 955 955 931 943 919 908 897 897 897 876 865 865 845 845 826 817 817 799 799 799 791 774 758 766 743 700 700 681 681 669 669 669 663 663 651 639 629 629 629 623 623 618 613 613 613 618 613 613 613 608 0 0 613 603 618 598 608 603 608 603 603 608 608 608 613 608 608 603 603 598 598 593 588 579 579 579 570 574 574 574 0 0 0 0 0
    0 0 0 0 0 0 0 0 0 0 0 0 0 0 0 0 0 0 0 0 0 0 0 0 0 0 0 0 0 0 0 0 0 0 0 0 0 0 0 0 0 0 0 0 0 0 0 0 0 0 0 0 0 0 0 0 0 0 0 0 0 0 0 0 0 0 0 0 0 1635 1565 1565 1752 1672 1672 1672 0 3679 0 0 2044 1533 0 0 0 1839 1565 1635 1599 0 0 0 0 1635 0 0 0 1936 1752 0 0 0 0 1415 1501 1443 1415 1501 1501 1533 1501 1565 1533 1471 1565 1599 1443 1565 1533 1533 1533 1565 1635 1565 1565 1795 1635 1672 1672 1672 1599 1388 1415 1501 1533 1471 1443 1471 1501 1443 1501 1501 1471 1471 1501 1501 1533 1362 1599 1501 1533 1533 1501 1471 1471 1501 1565 1362 1415 1388 1362 1388 1388 1362 1338 1388 1443 1338 1338 1388 1291 1314 1291 1291 1268 1247 1206 1291 1314 1314 1415 1415 1388 1415 1471 1471 1443 1443 1501 1388 1388 1415 1388 1362 1362 1362 1362 0 0 0 0 0 0 1989 1936 0 0 0 0 0 0 0 1187 1291 1291 1314 1314 1291 1314 1268 1268 1247 1206 1168 1149 1132 1132 1098 1051 1036 1008 1008 994 994 981 968 968 931 943 931 908 908 897 897 876 865 876 845 845 826 817 817 799 799 799 791 774 758 774 750 707 714 687 687 675 675 675 663 663 657 645 629 629 629 623 623 613 613 613 608 613 613 608 608 608 613 613 613 603 618 598 608 603 608 603 603 603 608 603 608 608 603 603 603 598 593 593 588 584 584 584 579 579 579 579 0 0 0 0 0
    0 0 0 0 0 0 0 0 0 0 0 0 0 0 0 0 0 0 0 0 0 0 0 0 0 0 0 0 0 0 0 0 0 0 0 0 0 0 0 0 0 0 0 0 0 0 0 0 0 0 0 0 0 0 0 0 0 0 0 0 0 0 0 0 0 0 0 0 0 1635 1599 1599 1795 1711 1672 1711 0 4088 0 0 1989 1565 0 1839 1887 1887 1599 1599 1635 1599 0 1599 1599 1599 1533 1711 1752 1839 1711 1672 1672 1533 1314 1443 1533 1471 1415 1501 1501 1533 1501 1565 1565 1471 1565 1599 1443 1533 1533 1533 1533 1565 1635 1565 1565 1795 1672 1711 1672 1711 1565 1388 1443 1533 1565 1533 1443 1501 1533 1471 1533 1533 1501 1471 1501 1533 1565 1362 1565 1501 1501 1501 1501 1471 1471 1501 1565 1388 1415 1415 1388 1415 1415 1388 1388 1443 1443 1338 1362 1388 1291 1314 1291 1291 1268 1247 1226 1314 1314 1314 1415 1415 1415 1443 1471 1501 1471 1443 1533 1443 1415 1443 1415 1362 1388 1362 1388 0 0 0 0 1565 1711 1887 1887 0 0 0 0 0 0 1051 1187 1291 1291 1314 1314 1247 1291 1268 1247 1226 1206 1168 1149 1149 1149 1115 1066 1051 1022 1022 1008 1008 981 968 968 943 955 943 919 908 908 908 876 865 876 845 845 836 817 817 808 808 799 791 774 766 774 750 714 721 694 687 675 675 675 669 669 663 645 634 634 634 623 623 618 613 608 608 613 613 608 608 608 613 613 613 603 618 603 613 608 608 603 603 603 603 603 608 603 598 603 598 598 593 588 584 584 584 584 579 579 579 579 0 0 0 0 0
    0 0 0 0 0 0 0 0 0 0 0 0 0 0 0 0 0 0 0 0 0 0 0 0 0 0 0 0 0 0 0 0 0 0 0 0 0 0 0 0 0 0 0 0 0 0 0 0 0 0 0 0 0 0 0 0 0 0 0 0 0 0 0 0 0 0 0 0 0 1635 1599 1599 1795 1795 1752 1752 0 4329 3679 0 2374 1501 0 0 0 1839 1533 1565 1599 1599 1635 1565 1599 1599 1533 1635 1672 1672 1599 0 1471 0 1226 1415 1501 1471 1415 1471 1501 1533 1501 1565 1565 1501 1565 1599 1443 1533 1533 1565 1533 1565 1635 1565 1565 1795 1672 1711 1635 1752 1565 1388 1533 1599 1599 1599 1443 1533 1565 1471 1533 1533 1501 1471 1471 1565 1533 1362 1565 1471 1501 1501 1501 1471 1501 1533 1565 1415 1471 1443 1415 1415 1443 1443 1415 1471 1443 1338 1362 1388 1314 1314 1291 1291 1268 1247 1226 1338 1338 1338 1415 1443 1415 1415 1471 1533 1471 1471 1565 1415 1415 1443 1415 1362 1388 1338 1362 0 0 0 0 1599 1752 1887 1887 0 0 0 0 0 1051 1066 1187 1268 1291 1314 1314 1206 1268 1247 1247 1226 1206 1187 1149 1168 1168 1132 1082 1066 1036 1022 1022 1008 994 981 981 955 968 943 931 919 908 908 886 865 886 855 855 836 826 826 808 808 808 799 782 766 782 766 714 721 700 694 675 675 669 669 669 663 651 634 634 634 629 623 618 613 608 608 613 613 608 608 608 613 613 618 608 618 603 613 613 608 603 603 603 603 603 608 603 598 603 598 598 588 588 584 584 584 584 579 579 579 574 0 0 0 0 0
    0 0 0 0 0 0 0 0 0 0 0 0 0 0 0 0 0 0 0 0 0 0 0 0 0 0 0 0 0 0 0 0 0 0 0 0 0 0 0 0 0 0 0 0 0 0 0 0 0 0 0 0 0 0 0 0 0 0 0 0 0 0 0 0 0 0 0 0 0 1635 1599 1599 1839 1839 1795 1839 0 5256 4088 0 0 0 0 0 0 0 1471 1533 1599 1599 1599 1565 1565 1533 1471 1565 1635 1599 1565 0 1443 0 1338 1443 1533 1471 1443 1501 1501 1533 1501 1565 1565 1501 1565 1599 1443 1533 1533 1565 1533 1565 1635 1565 1565 1795 1635 1672 1599 1752 1599 1443 1599 1599 1635 1672 1501 1565 1599 1533 1565 1565 1533 1501 1501 1565 1533 1362 1565 1501 1533 1533 1565 1533 1533 1565 1599 1443 1501 1471 1415 1443 1443 1443 1415 1471 1443 1338 1362 1362 1314 1338 1291 1291 1291 1226 1247 1362 1362 1338 1443 1443 1415 1415 1471 1533 1471 1443 1565 1388 1388 1415 1415 1362 1362 1338 1362 0 0 0 0 1752 0 1936 0 0 0 0 0 0 1051 1082 1206 1268 1291 1291 1314 1187 1268 1247 1247 1226 1206 1187 1168 1168 1187 1149 1082 1082 1051 1036 1036 1022 1008 994 994 968 981 955 931 919 908 919 886 876 886 855 855 845 826 826 808 817 808 799 791 774 791 774 721 728 0 694 681 681 669 675 669 669 657 639 634 634 629 623 613 613 603 608 613 613 608 608 608 613 613 618 608 618 608 618 613 613 608 603 608 608 608 608 603 603 603 598 598 588 588 588 584 588 584 579 579 579 574 0 0 0 0 0
    0 0 0 0 0 0 0 0 0 0 0 0 0 0 0 0 0 0 0 0 0 0 0 0 0 0 0 0 0 0 0 0 0 0 0 0 0 0 0 0 0 0 0 0 0 0 0 0 0 0 0 0 0 0 0 0 0 0 0 0 0 0 0 0 0 0 0 0 0 1599 1599 1599 1795 1795 1752 1795 0 5661 0 0 0 1415 0 0 1672 1887 1599 1599 1599 1599 1565 1533 1501 1471 1443 1471 1565 1565 1533 0 0 0 1362 1471 1533 1471 1415 1501 1501 1501 1471 1565 1565 1501 1565 1599 1443 1533 1533 1599 1501 1533 1599 1565 1565 1795 1635 1672 1599 1795 1672 1501 1635 1599 1635 1711 1501 1565 1599 1565 1565 1565 1533 1471 1501 1565 1501 1362 1533 1501 1533 1533 1565 1533 1533 1565 1565 1471 1533 1471 1443 1443 1443 1443 1443 1471 1443 1338 1362 1362 1338 1338 1314 1314 1314 1226 1247 1388 1388 1362 1443 1471 1443 1443 1501 1565 1471 1443 1565 1388 1388 1443 1415 1362 1362 1362 1362 0 0 0 0 0 0 0 1388 0 1268 0 1268 1187 1098 1149 1268 1291 1291 1314 1314 1206 1291 1268 1268 1247 1226 1206 1187 1187 1206 1149 1098 1098 1051 1051 1051 1036 1022 1008 1008 981 981 968 943 931 919 919 886 876 897 865 865 855 836 836 808 817 808 799 782 774 791 782 721 728 0 694 681 681 669 669 669 669 651 639 634 634 623 618 608 608 593 603 613 608 608 608 608 613 613 623 608 618 608 618 613 618 608 608 608 608 608 608 603 0 603 593 593 584 584 584 584 584 584 579 579 579 574 0 0 0 0 0
    0 0 0 0 0 0 0 0 0 0 0 0 0 0 0 0 0 0 0 0 0 0 0 0 0 0 0 0 0 0 0 0 0 0 0 0 0 0 0 0 0 0 0 0 0 0 0 0 0 0 0 0 0 0 0 0 0 0 0 0 0 0 0 0 0 0 0 0 0 1599 1599 1599 1795 1752 1711 1752 0 0 0 0 0 0 0 0 0 1839 1599 1565 1565 1533 1501 1443 1415 1388 1388 0 0 0 0 0 0 0 0 1501 1533 1443 1415 1471 1471 1533 1443 1565 1565 1533 1565 1599 1443 1533 1533 1599 1501 1533 1599 1565 1565 1752 1635 1635 1565 1795 1711 1599 1672 1635 1672 1711 1501 1599 1635 1565 1565 1565 1533 1471 1471 1565 1471 1388 1471 1501 1501 1533 1599 1565 1533 1565 1565 1501 1533 1501 1443 1415 1443 1443 1443 1471 1388 1314 1338 1314 1362 1362 1362 1338 1338 1226 1268 1415 1415 1362 1443 1471 1443 1443 1501 1565 1471 1471 1599 1388 1388 1443 1443 1362 1338 1338 1314 0 0 0 0 0 0 0 0 1247 1226 1247 1268 1226 1206 1247 1314 1338 1362 1388 1338 1291 1314 1291 1291 1268 1247 1226 1206 1206 1206 1149 1098 1098 1066 1051 1051 1036 1036 1022 1022 0 994 968 943 931 919 931 897 876 897 865 865 855 826 826 808 808 799 799 782 774 782 774 721 728 0 694 681 675 669 669 669 669 651 634 629 629 623 618 608 608 593 603 608 608 608 608 603 613 613 623 608 618 613 618 613 618 613 613 613 613 613 613 603 0 598 0 593 584 584 584 579 584 584 579 579 584 579 0 0 0 0 0
    0 0 0 0 0 0 0 0 0 0 0 0 0 0 0 0 0 0 0 0 0 0 0 0 0 0 0 0 0 0 0 0 0 0 0 0 0 0 0 0 0 0 0 0 0 0 0 0 0 0 0 0 0 0 0 0 0 0 0 0 0 0 0 0 0 0 0 0 0 1599 1599 1599 1795 1795 1752 1795 1989 0 0 0 0 0 0 1936 0 1887 1599 1599 1533 1533 1501 1471 1443 1415 1388 0 1501 0 0 0 0 0 1362 1501 1533 1443 1415 1443 1443 1471 1471 1565 1565 1565 1599 1599 1443 1533 1565 1599 1501 1533 1565 1565 1565 1752 1599 1635 1565 1752 1711 1672 1672 1672 1711 1672 1501 1599 1635 1599 1565 1533 1501 1443 1501 1565 1443 1415 1471 1501 1533 1565 1599 1599 1599 1599 1533 1533 1533 1501 1443 1415 1443 1443 1471 1501 1362 1314 1338 1314 1338 1362 1338 1338 1338 1226 1268 1415 1415 1362 1443 1471 1443 1443 1501 1599 1501 1501 1599 1388 1415 1443 1443 1338 1338 1314 1314 1314 0 0 0 0 0 0 1226 1206 1187 1247 1268 1247 1247 1291 1362 1415 1443 1471 1338 1314 1314 1314 1291 1291 1268 1247 1226 1206 1206 1149 1098 1098 1066 1051 1051 1036 1036 1022 1022 0 994 968 955 943 931 931 886 876 897 855 865 855 826 826 808 808 799 799 782 774 782 782 735 743 721 700 681 681 669 669 669 669 651 634 634 634 629 618 613 608 593 603 613 608 608 608 603 608 608 623 608 618 613 618 618 623 613 613 618 613 613 613 608 0 598 0 588 579 579 584 584 584 588 584 584 584 579 0 0 0 0 0
    0 0 0 0 0 0 0 0 0 0 0 0 0 0 0 0 0 0 0 0 0 0 0 0 0 0 0 0 0 0 0 0 0 0 0 0 0 0 0 0 0 0 0 0 0 0 0 0 0 0 0 0 0 0 0 0 0 0 0 0 0 0 0 0 0 0 0 0 0 1599 1599 1599 1795 1839 1795 1887 2374 3345 0 0 0 0 0 1989 1936 1936 0 0 1599 1599 1565 1533 1471 1443 1443 0 0 0 0 0 0 0 1388 1501 1533 1471 1443 1443 1443 1443 1471 1565 1533 1565 1565 1565 1415 1533 1565 1599 1501 1533 1533 1533 1565 1752 1635 1635 1565 1711 1672 1711 1672 1672 1711 1599 1471 1565 1599 1565 1533 1501 1471 1443 1501 1565 1415 1415 1471 1501 1533 1565 1635 1599 1599 1599 1533 1533 1533 1471 1415 1415 1415 1415 1471 1471 1362 1314 1338 1291 1314 1362 1314 1314 1338 1206 1268 1415 1415 1362 1443 1443 1443 1443 1501 1599 1501 1501 1599 1415 1415 1471 1443 1314 1338 1314 1314 1338 0 0 0 0 0 0 0 0 0 1672 1795 1338 1338 1362 1471 1565 1565 1501 1338 1314 1338 1314 1314 1291 1268 1247 1226 1206 1206 1149 1098 1098 1066 1051 1051 1036 1036 1022 1022 0 994 968 955 943 931 931 897 876 897 855 855 855 826 826 808 808 808 799 782 774 782 782 735 743 721 700 681 681 663 669 663 663 651 634 634 634 629 623 608 608 588 603 613 608 608 603 603 608 608 623 608 613 608 618 618 623 618 618 618 613 613 613 603 0 598 0 593 579 584 588 584 0 593 0 0 0 0 0 0 0 0 0
    0 0 0 0 0 0 0 0 0 0 0 0 0 0 0 0 0 0 0 0 0 0 0 0 0 0 0 0 0 0 0 0 0 0 0 0 0 0 0 0 0 0 0 0 0 0 0 0 0 0 0 0 0 0 0 0 0 0 0 0 0 0 0 0 0 0 0 0 0 1599 1565 1565 1795 1795 1752 1936 2164 0 0 0 0 0 1887 1989 1936 1936 0 0 0 0 1565 1565 1501 0 0 0 0 0 0 0 0 0 1362 1471 1471 1443 1443 1443 1443 1415 1471 1533 1533 1533 1565 1565 1415 1533 1599 1599 1501 0 1533 1533 1565 1752 1635 1635 1599 1672 1635 1711 1635 1635 1635 1471 1443 1533 1599 1533 1471 1501 1471 1415 1501 1533 1388 1415 1443 1471 1501 1533 1599 1565 1565 1565 1501 1533 1533 1443 1415 1388 1388 1415 1471 1415 1338 1338 1362 1338 1362 1388 1362 1338 1362 1226 1268 1415 1415 1362 1443 1471 1415 1443 1501 1599 1501 1501 1599 1415 1415 1501 1415 1314 1338 1314 1291 0 0 1226 0 0 0 0 0 0 0 1635 1752 1443 1362 1388 1443 1565 1565 1443 1314 1314 1338 1314 1291 1291 1268 1247 1226 1206 1206 1132 1098 1098 1066 1066 1051 1036 1036 1036 1022 0 994 981 0 0 0 931 897 886 897 855 865 855 826 826 808 799 799 799 782 774 782 782 735 743 721 700 681 675 657 663 657 663 651 0 634 634 629 623 613 608 588 603 613 608 603 603 603 603 603 618 603 608 603 613 613 623 613 613 613 608 608 608 603 0 593 588 593 584 584 588 588 0 0 0 0 0 0 0 0 0 0 0
    0 0 0 0 0 0 0 0 0 0 0 0 0 0 0 0 0 0 0 0 0 0 0 0 0 0 0 0 0 0 0 0 0 0 0 0 0 0 0 0 0 0 0 0 0 0 0 0 0 0 0 0 0 0 0 0 0 0 0 0 0 0 0 0 0 0 0 0 0 1565 1565 1565 1795 1672 1672 1795 0 0 0 0 0 0 0 0 0 1887 0 0 0 0 1565 1599 1533 0 0 0 0 0 0 0 0 0 1388 1471 1501 1471 1471 1471 1443 1443 1471 1533 1533 1533 1565 1565 1415 1533 1599 1599 1501 1533 1501 1533 1533 1752 1635 1599 1565 1565 1565 1711 1635 1599 1565 1415 1443 1533 1565 1533 1471 1501 1471 1415 1533 1501 1362 1415 1443 1471 1501 1533 1599 1565 1565 1565 1501 1533 1501 1443 1388 1388 1388 1415 1471 1362 1362 1362 1362 1362 1471 1471 1415 1415 1415 1268 1291 1415 1415 1362 1443 1443 1415 1443 1501 1565 1471 1471 1565 1388 1415 1533 1388 1314 1314 1291 1291 0 0 1206 0 0 1314 0 1291 1314 0 1471 1533 1338 1338 1338 1388 1443 1443 1388 1291 1314 1314 1314 1291 1291 1268 1247 1206 1206 1187 1115 1082 1098 1066 1066 1066 1051 1036 1036 1036 0 994 981 955 0 0 931 897 886 897 865 865 855 826 0 808 799 799 799 782 774 782 774 735 743 721 700 681 681 657 669 657 663 651 0 639 639 634 629 618 613 588 598 608 608 603 603 598 603 603 608 603 603 598 608 608 618 613 613 613 608 608 608 598 0 593 584 593 584 588 593 588 0 0 0 0 0 0 0 0 0 0 0
    0 0 0 0 0 0 0 0 0 0 0 0 0 0 0 0 0 0 0 0 0 0 0 0 0 0 0 0 0 0 0 0 0 0 0 0 0 0 0 0 0 0 0 0 0 0 0 0 0 0 0 0 0 0 0 0 0 0 0 0 0 0 0 0 0 0 0 0 0 1565 1533 1533 1752 1635 1635 1752 0 0 0 0 0 0 0 0 0 0 0 0 0 0 1635 1635 1599 1672 1565 0 0 0 0 0 0 0 1415 1471 1501 1471 1501 1501 1415 1471 1471 1533 1533 1533 1565 1565 1415 1565 1599 1599 1501 1533 1501 1533 1533 1752 1599 1599 1565 1565 1565 1672 1599 1565 1501 1388 1443 1533 1565 1501 1443 1471 1471 1443 1533 1471 1388 1443 1443 1501 1501 1533 1599 1565 1565 1565 1501 1565 1501 1443 1415 1388 1388 1415 1443 1338 1362 1362 1388 1388 1533 1565 1501 1565 1443 1268 1291 1415 1415 1362 1443 1443 1388 1443 1471 1565 1471 1471 1533 1388 1415 1533 1362 1291 1314 1291 1268 0 0 1187 0 1247 0 0 0 1338 0 1443 1388 1314 1338 1338 1362 1388 1388 1362 1268 1314 1338 1314 1291 1291 1268 1226 1206 1206 1187 1098 1082 1098 1066 1066 1066 1051 1036 1036 1022 0 994 968 943 0 0 931 897 886 897 855 865 865 836 0 808 799 799 799 774 766 782 766 735 735 714 694 681 681 657 669 657 663 651 639 639 645 639 639 618 613 588 598 608 608 603 603 598 598 598 608 603 603 598 608 608 613 613 608 608 608 603 603 598 0 593 584 0 588 0 0 0 0 0 0 0 0 0 0 0 0 0 0
    0 0 0 0 0 0 0 0 0 0 0 0 0 0 0 0 0 0 0 0 0 0 0 0 0 0 0 0 0 0 0 0 0 0 0 0 0 0 0 0 0 0 0 0 0 0 0 0 0 0 0 0 0 0 0 0 0 0 0 0 0 0 0 0 0 0 0 0 0 1565 1533 1533 1752 1599 1599 1711 1839 0 0 0 0 0 0 0 0 0 0 0 0 1711 1672 1711 1672 1752 1672 1672 0 0 0 0 0 1415 1443 1471 1501 1501 1501 1533 1415 1471 1501 1533 1501 1533 1565 1533 1415 1565 1565 1565 1471 1533 1501 1533 1565 1752 1635 1599 1565 1565 1599 1672 1599 1565 1443 1415 1471 1533 1565 1501 1443 1471 1471 1443 1533 1471 1415 1471 1443 1501 1501 1533 1565 1565 1533 1533 1501 1565 1501 1443 1415 1388 1388 1415 1415 1291 1338 1362 1362 1362 1388 1599 1599 1599 1471 1268 1291 1388 1388 1362 1443 1415 1388 1443 1443 1533 1443 1443 1501 1388 1415 1565 1338 1314 1338 1314 1291 0 0 0 1206 1226 0 1247 1268 1268 1247 1388 1338 1338 1362 1362 1388 1415 1415 1362 1268 1338 1338 1338 1291 1291 1268 1247 1206 1206 1168 1115 1098 1115 1066 1066 1066 1051 0 0 1022 981 994 968 943 0 0 931 897 886 897 855 855 855 826 826 799 791 791 791 758 758 766 758 728 728 707 694 681 681 663 669 657 663 657 0 645 651 639 639 618 613 584 593 603 603 603 603 598 598 598 608 603 603 598 603 603 608 608 603 608 603 603 603 598 0 588 579 588 588 0 0 0 0 0 251 0 0 0 0 0 0 0 0
    0 0 0 0 0 0 0 0 0 0 0 0 0 0 0 0 0 0 0 0 0 0 0 0 0 0 0 0 0 0 0 0 0 0 0 0 0 0 0 0 0 0 0 0 0 0 0 0 0 0 0 0 0 0 0 0 0 0 0 0 0 0 0 0 0 0 0 0 0 1565 1533 1533 1752 1599 1599 1672 1887 0 0 0 0 0 1989 2102 0 2164 0 0 0 0 1752 1795 1752 1795 1711 1752 0 0 0 0 0 1443 1443 1443 1471 1501 1501 1501 1415 1471 1501 1533 1533 1533 1533 1533 1415 1565 1565 1533 1471 1533 1501 1533 1533 1752 1635 1599 1599 1599 1599 1672 1599 1599 1443 1415 1501 1533 1565 1471 1443 1471 1471 1471 1565 1443 1415 1471 1443 1471 1501 1533 1533 1501 1501 1501 1501 1565 1471 1443 1415 1388 1388 1443 1415 1291 1338 1362 1314 0 0 1565 0 1565 1443 1268 1291 1388 1388 1338 1443 1415 1388 1443 1443 1533 1471 1443 1533 1388 1443 1565 1362 1338 1338 1338 1338 0 1247 0 1206 1226 0 1247 1268 1268 1247 0 1314 1338 1388 1388 1415 1443 1443 1362 1291 1338 1362 1338 1291 1291 1268 1247 1206 1206 1168 1115 1098 1115 1082 1082 1066 1051 0 0 0 981 981 955 943 0 0 919 886 876 886 845 855 855 826 817 791 782 782 782 750 750 758 750 721 721 700 694 681 681 663 669 657 663 651 0 639 645 634 634 618 613 588 593 603 603 603 603 598 598 598 608 603 603 593 598 598 603 603 598 603 603 598 598 598 584 588 579 588 588 0 0 0 0 0 0 158 0 0 0 0 0 0 0
    0 0 0 0 0 0 0 0 0 0 0 0 0 0 0 0 0 0 0 0 0 0 0 0 0 0 0 0 0 0 0 0 0 0 0 0 0 0 0 0 0 0 0 0 0 0 0 0 0 0 0 0 0 0 0 0 0 0 0 0 0 0 0 0 0 0 0 0 0 1533 1533 1533 1752 1599 1599 1672 1839 1711 0 2299 0 2164 1887 0 0 2044 0 0 0 0 1711 1752 1711 1752 1672 1672 1672 0 0 0 1443 1443 1443 1443 1471 1501 1533 1501 1443 1471 1533 1533 1501 1533 1533 1533 1415 1565 1599 1533 1501 0 1533 1533 1565 1752 1635 1599 1599 1599 1599 1672 1635 1599 1415 1443 1533 1533 1533 1471 1471 1471 1471 1501 1565 1415 1415 1471 1443 1471 1501 1533 1533 1471 1501 1471 1501 1565 1443 1415 1415 1415 1415 1471 1415 1338 1362 1415 1388 1471 1471 1711 1672 1672 1501 1362 1314 1362 1362 1338 1415 1415 1388 1415 1443 1501 1471 1443 1533 1415 1471 1565 1362 1338 1338 1338 1338 0 1247 0 1187 1206 0 1247 1226 1226 1226 0 1314 1338 1415 1415 1471 1533 1501 1362 1291 1338 1362 1338 1291 1291 1268 1247 1206 1206 1168 1115 1115 1132 1082 1066 1066 1036 0 0 0 968 981 955 943 931 919 919 886 886 886 855 855 855 826 826 799 782 782 774 743 743 758 743 721 728 707 694 681 687 663 663 651 657 651 0 639 645 639 639 629 618 593 598 608 603 603 603 598 598 603 608 603 603 593 593 598 598 603 598 598 598 593 593 593 584 588 579 588 588 0 0 0 0 0 0 158 0 0 0 0 0 0 0
    0 0 0 0 0 0 0 0 0 0 0 0 0 0 0 0 0 0 0 0 0 0 0 0 0 0 0 0 0 0 0 0 0 0 0 0 0 0 0 0 0 0 0 0 0 0 0 0 0 0 0 0 0 0 0 0 0 0 0 0 0 0 0 0 0 0 0 0 0 1533 1533 1533 1752 1599 1599 1672 1752 1635 1635 1795 1795 0 1711 0 0 1887 0 0 0 0 1672 1752 1711 1711 1635 1672 1635 1635 1599 1471 1443 1471 1443 1471 1471 1501 1533 1501 1471 1471 1501 1501 1471 1501 1533 1501 1415 1565 1565 1501 1501 0 1565 1565 1565 1752 1672 1635 1635 1599 1599 1672 1599 1565 1388 1443 1533 1533 1533 1471 1471 1471 1471 1533 1565 1388 1443 1443 1443 1471 1471 1501 1501 1443 1471 1471 1471 1533 1443 1415 1415 1415 1415 1471 1415 1362 1388 1501 1565 1599 1635 1672 1599 1635 1533 1415 1314 1338 1338 1314 1415 1388 1388 1415 1415 1501 1471 1443 1501 1415 1501 1533 1362 1338 1338 1338 1415 0 0 0 1206 1187 0 1206 1168 1149 1168 0 1247 1247 1314 1338 1388 1443 1415 1338 1247 1338 1338 1314 1268 1268 1268 1226 1206 1226 1168 1115 1115 1149 1082 1082 1082 1051 0 1008 1008 968 981 955 931 931 919 919 886 886 886 865 855 865 836 826 799 782 774 774 735 743 743 735 721 721 707 694 687 687 663 669 651 657 651 0 645 645 645 645 629 618 593 598 608 608 603 603 603 603 603 608 603 603 593 593 593 598 598 593 593 593 588 593 593 579 588 584 593 593 0 0 0 0 0 0 0 0 0 0 0 0 0 0
    0 0 0 0 0 0 0 0 0 0 0 0 0 0 0 0 0 0 0 0 0 0 0 0 0 0 0 0 0 0 0 0 0 0 0 0 0 0 0 0 0 0 0 0 0 0 0 0 0 0 0 0 0 0 0 0 0 0 0 0 0 0 0 0 0 0 0 0 0 1533 1501 1533 1711 1565 1565 1635 1672 1635 1635 1752 1635 1711 1672 1711 1752 1795 0 0 1635 1672 1672 1752 1711 1711 1635 1635 1635 1599 1599 1443 1443 1501 1443 1471 1471 1533 1533 1471 1471 1501 1501 1501 1471 1471 1501 1501 1415 1565 1533 1501 1501 0 1565 1565 1565 1795 1672 1635 1672 1635 1599 1672 1565 1471 1388 1443 1533 1501 1501 1471 1471 1501 1471 1565 1533 1415 1443 1443 1443 1471 1471 1471 1471 1443 1471 1443 1471 1501 1415 1415 1415 1415 1443 1501 1415 1388 1443 1599 1672 1635 1711 1711 1599 1635 1565 1415 1314 1314 1314 1314 1388 1362 1388 1415 1415 1471 1471 1443 1501 1388 1501 1471 1388 1338 1362 1338 1533 1839 0 0 0 1206 0 1187 1132 1132 1149 1149 1206 1187 1268 1291 1362 1388 1362 1314 1226 1314 1314 1314 1247 1268 1247 1226 1206 1226 1168 1132 1132 1168 1098 1098 1082 1051 1008 1008 994 955 968 943 931 931 919 919 886 886 897 865 865 876 836 836 808 782 766 758 728 735 735 728 721 721 707 700 694 694 669 669 657 663 657 0 645 645 645 645 629 618 588 598 608 608 603 603 603 603 603 608 603 603 593 593 593 593 598 588 588 588 588 588 588 579 588 584 593 593 593 598 0 0 0 0 0 0 0 0 0 0 0 0
    0 0 0 0 0 0 0 0 0 0 0 0 0 0 0 0 0 0 0 0 0 0 0 0 0 0 0 0 0 0 0 0 0 0 0 0 0 0 0 0 0 0 0 0 0 0 0 0 0 0 0 0 0 0 0 0 0 0 0 0 0 0 0 0 0 0 0 0 0 1533 1533 1533 1752 1565 1565 1672 1672 1635 1635 1711 1635 1711 1672 1672 1711 1752 1635 1565 1565 1635 1635 1752 1711 1711 1599 1672 1635 1635 1599 1443 1471 1501 1443 1471 1471 1533 1533 1471 1471 1501 1501 1533 1471 1471 1471 1471 1415 1565 1501 1471 1471 0 1599 1565 1599 1795 1672 1635 1672 1672 1599 1672 1565 1443 1415 1471 1533 1501 1501 1471 1471 1501 1501 1599 1501 1415 1471 1471 1443 1471 1471 1471 1443 1415 1443 1443 1471 1501 1415 1415 1415 1415 1471 1471 1388 1388 1415 1599 1599 1599 1635 1599 1533 1533 1501 1388 1314 1247 1291 1291 1388 1362 1388 1388 1388 1443 1471 1443 1501 1388 1565 1443 1388 1362 1388 1388 1672 1839 1795 0 1338 1226 0 1187 1115 1115 1115 1098 1132 1098 1226 1268 1314 1338 1338 1314 1206 1314 1314 1291 1247 1268 1247 1226 1206 1226 1187 1149 1149 1187 1115 1098 1098 1051 1008 994 981 955 955 943 919 919 919 908 886 886 897 876 865 886 845 836 817 791 758 750 721 728 728 721 714 721 707 700 694 700 675 675 663 663 657 645 645 645 645 645 629 618 588 598 608 603 603 603 603 603 603 608 603 603 598 593 598 593 593 584 588 584 584 584 588 574 588 579 593 593 593 598 598 593 0 598 0 593 584 0 0 0 0 0
    0 0 0 0 0 0 0 0 0 0 0 0 0 0 0 0 0 0 0 0 0 0 0 0 0 0 0 0 0 0 0 0 0 0 0 0 0 0 0 0 0 0 0 0 0 0 0 0 0 0 0 0 0 0 0 0 0 0 0 0 0 0 0 0 0 0 0 0 0 1565 1565 1565 1752 1672 1635 1711 1711 1672 1672 1752 1672 1752 1672 1672 1711 1752 1565 1533 1533 1635 1672 1752 1711 1711 1599 1635 1672 1635 1599 1443 1501 1533 1471 1471 1501 1533 1533 1443 1471 1501 1501 1533 1471 1443 1471 1471 1415 1533 1471 1471 1471 0 1599 1565 1599 1795 1672 1635 1672 1672 1635 1635 1599 1443 1443 1501 1565 1533 1501 1471 1501 1501 1565 1635 1471 1443 1501 1471 1471 1471 1471 1471 1443 1443 1443 1443 1471 1501 1415 1415 1415 1443 1501 1471 1388 1362 1415 1533 1501 1565 1533 1533 1471 1471 1443 1388 1338 1206 1268 1268 1362 1338 1388 1388 1388 1415 1471 1443 1533 1415 1599 1415 1415 1388 1415 1443 1711 1839 1839 1795 1533 1247 0 1187 1098 1115 1098 1066 1082 1066 1187 1226 1268 1291 1291 1291 1226 1314 1314 1314 1247 1268 1268 1247 1226 1247 1187 1168 1149 1187 1115 1115 1098 1051 1008 994 968 955 955 931 908 919 908 908 886 886 897 876 865 897 855 845 836 799 750 743 714 728 728 714 714 721 714 707 700 700 675 675 663 669 657 651 651 651 645 651 629 623 588 593 603 603 603 603 603 603 603 608 603 608 598 598 598 593 593 584 588 584 584 584 588 574 588 579 588 593 588 593 593 593 598 593 0 593 584 0 0 0 0 0
    0 0 0 0 0 0 0 0 0 0 0 0 0 0 0 0 0 0 0 0 0 0 0 0 0 0 0 0 0 0 0 0 0 0 0 0 0 0 0 0 0 0 0 0 0 0 0 0 0 0 0 0 0 0 0 0 0 0 0 0 0 0 0 0 0 0 0 0 0 1565 1565 1565 1795 1711 1672 1752 1752 1635 1672 1752 1672 1795 1635 1711 1711 1839 1635 1565 1533 1635 1711 1752 1711 1672 1565 1635 1635 1635 1565 1443 1533 1533 1471 1501 1501 1565 1533 1443 1501 1501 1501 1533 1471 1443 1443 1471 1415 1533 1471 1471 1471 0 1599 1565 1599 1795 1672 1635 1672 1672 1672 1635 1599 1443 1443 1533 1565 1533 1501 1471 1501 1501 1565 1672 1443 1471 1501 1501 1471 1471 1501 1471 1443 1443 1443 1443 1471 1501 1415 1415 1415 1443 1501 1471 1362 1362 1388 1443 1471 1471 1471 1471 1415 1415 1388 1362 1338 0 1268 1268 1362 1338 1388 1388 1388 1443 1471 1443 1533 1415 1635 1388 1415 1388 1443 1501 1711 1795 1795 0 1599 1268 0 1187 1098 1149 1132 1082 1115 1082 1206 1247 1291 1268 1268 1268 1247 1338 1338 1314 1268 1291 1291 1247 1247 1247 1206 1168 1149 1187 1115 1098 1098 1036 1008 981 955 955 943 931 908 908 908 897 886 897 897 886 876 908 855 855 855 808 735 735 707 721 721 714 714 721 714 707 700 700 675 675 657 663 657 645 645 645 639 645 623 618 584 593 603 603 603 603 603 603 608 613 608 608 603 598 598 593 598 584 588 588 584 584 588 574 588 579 588 588 584 588 588 588 598 593 0 588 579 0 0 0 0 0
    0 0 0 0 0 0 0 0 0 0 0 0 0 0 0 0 0 0 0 0 0 0 0 0 0 0 0 0 0 0 0 0 0 0 0 0 0 0 0 0 0 0 0 0 0 0 0 0 0 0 0 0 0 0 0 0 0 0 0 0 0 0 0 0 0 0 0 0 0 1565 1565 1565 1752 1672 1635 1752 1711 1635 1752 1795 1752 1839 1711 1839 0 1989 1711 1635 1599 1635 1672 1752 1672 1635 1533 1599 1565 1565 1501 1415 1471 1501 1443 1443 1471 1533 1501 1443 1501 1501 1501 1533 1471 1415 1443 1471 1415 1501 1471 1471 1471 0 1599 1565 1565 1752 1635 1599 1672 1672 1672 1635 1599 1443 1471 1565 1565 1533 1501 1471 1501 1533 1599 1672 1443 1471 1471 1501 1471 1471 1471 1471 1415 1443 1443 1471 1471 1471 1415 1415 1415 1443 1533 1443 1388 1362 1388 1388 1443 1415 1415 1388 1362 1362 1338 1314 1314 1206 1291 1268 1362 1338 1415 1415 1415 1443 1501 1471 1565 1443 1672 1388 1415 1415 1471 1565 1711 1752 1711 1711 1599 1338 0 1206 1132 1168 1168 1115 1132 1115 1206 1247 1291 1268 1247 1247 1268 1362 1338 1338 1291 1291 1314 1268 1247 1247 1206 1168 1149 1187 1115 1098 1082 1022 994 968 943 943 931 931 908 919 919 897 897 908 897 897 876 908 865 865 865 826 750 743 714 728 721 714 714 721 714 707 700 700 675 675 657 657 651 634 639 639 634 634 618 613 579 593 603 603 603 603 603 603 608 613 608 613 603 598 598 593 598 588 588 588 588 588 588 574 588 579 584 588 579 584 584 584 593 588 584 584 579 0 0 0 0 0
    0 0 0 0 0 0 0 0 0 0 0 0 0 0 0 0 0 0 0 0 0 0 0 0 0 0 0 0 0 0 0 0 0 0 0 0 0 0 0 0 0 0 0 0 0 0 0 0 0 0 0 0 0 0 0 0 0 0 0 0 0 0 0 0 0 0 0 0 0 1565 1533 1565 1752 1711 1635 1752 1711 1635 1839 1839 0 1936 1711 0 0 1989 1672 1635 1533 1635 1599 1711 1599 1565 1443 1533 1443 1471 1443 1388 1471 1501 1443 1471 1501 1533 1501 1443 1533 1501 1501 1533 1443 1415 1443 1471 1415 1501 1471 1471 1471 0 1599 1533 1565 1752 1635 1599 1672 1672 1672 1672 1599 1471 1501 1565 1565 1533 1471 1471 1501 1533 1635 1635 1443 1471 1471 1501 1501 1471 1471 1443 1415 1443 1471 1471 1443 1443 1415 1415 1415 1471 1565 1415 1415 1388 1388 1415 1443 1388 1415 1362 1338 1314 1291 1291 1314 1206 1291 1291 1362 1362 1415 1443 1443 1471 1533 1471 1565 1443 1672 1362 1388 1388 1443 1599 1672 1711 1672 1635 1599 1443 1443 1247 1206 1206 1206 1132 1149 1132 1187 1226 1291 1247 1206 1226 1268 1362 1362 1338 1291 1314 1314 1291 1268 1268 1206 1168 1149 1187 1098 1082 1082 1022 994 968 943 955 931 931 908 919 919 908 908 919 897 908 886 919 865 865 876 845 774 758 714 728 721 714 721 721 721 714 700 0 675 675 651 657 645 629 634 634 629 629 613 608 579 593 603 603 603 608 608 603 608 613 608 613 608 598 603 593 598 588 593 588 588 588 593 574 588 579 584 588 579 584 584 579 588 584 574 584 574 0 0 0 0 0
    0 0 0 0 0 0 0 0 0 0 0 0 0 0 0 0 0 0 0 0 0 0 0 0 0 0 0 0 0 0 0 0 0 0 0 0 0 0 0 0 0 0 0 0 0 0 0 0 0 0 0 0 0 0 0 0 0 0 0 0 0 0 0 0 0 0 0 0 0 1565 1565 1565 1795 1711 1635 1795 1711 0 0 1795 0 1887 1672 0 1672 0 1635 1599 1533 1599 1599 1635 1533 1501 1388 1471 1388 1443 1415 1388 1471 1501 1443 1471 1501 1565 1471 1471 1533 1501 1501 1565 1443 1388 1443 1501 1415 1471 1471 1471 1471 0 1635 1565 1565 1752 1672 1635 1672 1672 1711 1711 1565 1471 1533 1565 1565 1501 1471 1471 1501 1533 1635 1565 1415 1501 1471 1501 1501 1501 1501 1471 1443 1471 1471 1501 1471 1443 1443 1415 1443 1501 1565 1415 1415 1415 1415 1415 1443 1388 1415 1362 1338 1314 1291 1291 1314 1206 1314 1291 1388 1362 1415 1443 1443 1443 1501 1443 1565 1443 1672 1362 1388 1415 1533 1711 1752 1752 1711 1711 1635 1565 1533 1314 1268 1247 1247 1149 1187 1187 1206 1226 1314 1268 1247 1268 1291 1362 1362 1338 1314 1314 1314 1291 1268 1268 1226 1168 1149 1168 1098 1082 1082 1022 994 968 931 955 919 931 897 919 919 908 908 919 897 908 886 908 865 865 855 836 766 766 721 728 721 714 721 721 721 714 707 714 681 681 657 657 651 629 634 634 634 629 613 608 579 593 603 603 608 608 608 603 608 613 608 613 608 598 603 598 603 593 593 593 593 588 588 574 584 579 584 588 579 579 579 579 584 584 574 579 574 0 0 0 0 0
    0 0 0 0 0 0 0 0 0 0 0 0 0 0 0 0 0 0 0 0 0 0 0 0 0 0 0 0 0 0 0 0 0 0 0 0 0 0 0 0 0 0 0 0 0 0 0 0 0 0 0 0 0 0 0 0 0 0 0 0 0 0 0 0 0 0 0 0 0 1565 1565 1565 1795 1711 1635 1752 1672 0 0 1752 0 1887 0 0 1711 0 1672 1635 1635 1672 1672 1672 1533 1501 1388 1501 1362 1471 1415 1388 1501 1533 1443 1501 1533 1565 1471 1471 1565 1501 1501 1565 1443 1388 1443 1501 1415 1471 1471 1471 1471 1599 1635 1565 1565 1752 1672 1635 1672 1711 1711 1711 1533 1471 1533 1565 1533 1471 1443 1443 1471 1501 1635 1501 1415 1501 1471 1501 1533 1501 1533 1471 1443 1501 1471 1533 1471 1443 1415 1415 1415 1501 1533 1362 1388 1388 1388 1338 1388 1362 1362 1338 1291 1268 1247 1268 1291 1206 1314 1291 1362 1362 1415 1415 1415 1415 1471 1443 1533 1415 1635 1362 1388 1415 1565 1711 1711 1711 1672 1672 1599 1533 1501 1338 1314 1291 1268 1187 1206 1226 1226 1247 1338 1291 1268 1314 1314 1362 1362 1362 1314 1338 1338 1291 1291 0 1226 1149 1149 1168 1098 1082 1082 1036 994 955 931 943 908 919 897 908 908 908 908 919 897 908 876 897 865 865 855 836 774 766 721 728 721 714 721 721 721 714 707 714 681 687 669 663 657 634 634 634 629 623 608 603 574 593 603 603 608 603 608 603 608 613 608 613 608 603 603 598 603 593 593 593 593 588 593 579 584 579 584 588 579 584 579 584 588 584 579 579 574 0 0 0 0 0
    0 0 0 0 0 0 0 0 0 0 0 0 0 0 0 0 0 0 0 0 0 0 0 0 0 0 0 0 0 0 0 0 0 0 0 0 0 0 0 0 0 0 0 0 0 0 0 0 0 0 0 0 0 0 0 0 0 0 0 0 0 0 0 0 0 0 0 0 0 1565 1565 1565 1752 1635 1565 1711 1635 0 0 0 0 2453 0 0 0 0 1711 1635 1672 1711 0 0 0 0 0 1501 1362 1443 1415 1388 1471 1533 1443 1501 1533 1565 1471 1501 1565 1533 1501 1565 1443 1388 1443 1533 1388 1443 1443 1443 1471 1565 1599 1533 1565 1752 1672 1635 1711 1711 1752 1752 1565 1471 1533 1565 1533 1471 1443 1443 1443 1533 1672 1501 1415 1533 1471 1533 1533 1533 1533 1471 1471 1501 1471 1533 1471 1443 1415 1415 1415 1471 1471 1362 1388 1362 1362 1291 1338 1314 1338 1291 1247 1226 1206 1247 1268 1187 1314 1291 1388 1362 1388 1415 1415 1415 1471 1415 1533 1388 1565 1415 1388 1415 1599 1711 1711 1672 1635 1635 1565 1533 1471 1362 1338 1291 1291 1226 1247 1268 1268 1268 1362 1314 1314 1338 1314 1362 1362 1362 1314 1338 1338 1291 1268 1268 1206 1149 1132 1149 1098 1098 1098 1036 1008 968 919 943 897 919 897 908 897 897 919 931 897 897 876 886 865 855 845 826 782 774 728 728 721 714 721 721 721 721 707 714 687 694 675 675 663 0 639 639 629 623 603 598 570 593 603 603 603 603 603 603 603 608 608 608 608 603 608 603 603 593 598 593 598 593 593 584 588 584 588 588 579 584 584 584 588 584 584 584 579 0 0 0 0 0
    0 0 0 0 0 0 0 0 0 0 0 0 0 0 0 0 0 0 0 0 0 0 0 0 0 0 0 0 0 0 0 0 0 0 0 0 0 0 0 0 0 0 0 0 0 0 0 0 0 0 0 0 0 0 0 0 0 0 0 0 0 0 0 0 0 0 0 0 0 1565 1565 1565 1795 1672 1599 1711 1635 1226 0 0 0 2725 0 0 0 0 0 0 0 1599 0 0 0 0 0 0 1291 1388 1415 1388 1443 1501 1443 1501 1533 1565 1501 1501 1565 1533 1501 1565 1443 1388 1471 1533 1388 1443 1443 1443 1501 1565 1599 1533 1533 1711 1635 1635 1711 1711 1752 1752 1565 1471 1533 1565 1533 1443 1415 1415 1443 1533 1672 1501 1443 1533 1471 1533 1565 1533 1565 1471 1471 1501 1471 1565 1471 1415 1415 1388 1388 1443 1415 1362 1388 1388 1388 1314 1362 1338 1338 1314 1268 1247 1226 1268 1291 1206 1338 1314 1388 1362 1388 1415 1415 1415 1471 1415 1533 1388 1533 1443 1388 1415 1599 1672 1635 1635 1565 1599 1533 1565 1471 1415 1388 1362 1314 1291 1314 1314 1291 1291 1338 1314 1314 1338 1314 1388 1362 1362 1338 1338 1338 1291 1268 1247 1206 1132 1149 1149 1115 1098 1115 1051 1036 968 908 943 886 908 897 897 897 908 919 931 886 897 865 865 855 845 836 817 782 782 735 735 721 714 721 721 721 721 707 721 694 700 675 675 669 645 651 651 639 634 608 603 579 593 603 603 603 603 603 603 603 0 608 613 608 603 608 603 608 598 598 593 598 593 593 584 588 584 588 588 579 584 584 584 588 584 584 584 579 0 0 0 0 0
    0 0 0 0 0 0 0 0 0 0 0 0 0 0 0 0 0 0 0 0 0 0 0 0 0 0 0 0 0 0 0 0 0 0 0 0 0 0 0 0 0 0 0 0 0 0 0 0 0 0 0 0 0 0 0 0 0 0 0 0 0 0 0 0 0 0 0 0 0 1565 1565 1565 0 0 1672 0 0 1206 0 0 0 0 0 0 0 0 0 1471 0 0 275 0 0 0 0 0 1247 1338 1388 1388 1443 1501 1443 1501 1533 1533 1501 1501 1533 1533 1501 1533 1443 1388 1501 1533 1388 1471 1471 1443 1501 1565 1599 1501 1533 1711 1599 1599 1711 1711 1752 1795 1533 1501 1533 1565 1501 1443 1415 1415 1443 1565 1711 1501 1471 1533 1471 1565 1565 1565 1565 1501 1471 1533 1501 1565 1443 1415 1415 1388 1388 1443 1362 1362 1415 1443 1443 1362 1415 1362 1388 1362 1314 1291 1247 1291 1314 1268 1362 1314 1388 1388 1388 1443 1415 1415 1471 1415 1501 1388 1471 1443 1338 1388 1501 1599 1501 1471 1443 1471 1443 1533 1443 1388 1362 1362 1338 1338 1338 1362 1314 1314 1362 1338 1338 1362 1314 1388 1388 1362 1338 1362 1338 1291 1268 1226 1187 1132 1132 1149 1115 1098 1098 1051 1036 968 908 931 886 908 897 897 908 908 919 943 897 897 865 855 845 836 826 817 782 782 743 728 721 714 714 714 714 0 0 714 687 694 675 675 669 0 651 651 639 639 613 608 584 593 603 603 603 603 603 603 0 0 608 608 608 603 608 608 608 598 598 598 598 593 593 588 588 584 588 588 579 584 584 584 588 584 579 584 579 0 0 0 0 0
    0 0 0 0 0 0 0 0 0 0 0 0 0 0 0 0 0 0 0 0 0 0 0 0 0 0 0 0 0 0 0 0 0 0 0 0 0 0 0 0 0 0 0 0 0 0 0 0 0 0 0 0 0 0 0 0 0 0 0 0 0 0 0 0 0 0 0 0 0 1565 1565 1565 0 1711 1672 1752 1711 0 0 0 0 1989 0 0 0 0 0 0 0 0 276 0 0 0 0 0 0 1362 1471 1415 1443 1501 1471 1533 1533 1501 1501 1533 1565 1565 1533 1533 1443 1388 1533 1565 1388 1471 1471 1471 1533 1565 1599 1501 1501 1672 1565 1565 1711 1635 1752 1752 1443 1471 1501 1533 1471 1415 1415 1415 1443 1599 1711 1471 1471 1533 1471 1565 1565 1565 1599 1501 1471 1565 1501 1565 1443 1388 1388 1388 1388 1443 1338 1388 1471 1533 1533 1443 1471 1415 1443 1388 1314 1291 1268 1291 1314 1291 1362 1314 1388 1388 1388 1443 1415 1415 1443 1415 1501 1388 1443 1443 1338 1362 1443 1471 1443 1443 1415 1415 1388 1443 1388 1362 1338 1338 1338 1362 1388 1388 1362 1338 1415 1362 1362 1362 1314 1388 1388 1362 1338 1362 1338 1291 1268 1226 1187 1132 1132 1132 1115 1098 1098 1051 1036 968 897 931 886 919 908 908 908 919 931 943 897 897 865 855 845 836 817 808 791 782 750 728 0 714 714 714 0 0 700 714 687 694 675 675 669 0 645 651 639 634 608 603 584 598 608 603 603 603 603 603 0 0 608 608 608 603 608 608 608 603 598 598 598 593 593 588 588 584 584 588 579 579 579 584 584 584 579 579 574 0 0 0 0 0
    0 0 0 0 0 0 0 0 0 0 0 0 0 0 0 0 0 0 0 0 0 0 0 0 0 0 0 0 0 0 0 0 0 0 0 0 0 0 0 0 0 0 0 0 0 0 0 0 0 0 0 0 0 0 0 0 0 0 0 0 0 0 0 0 0 0 0 0 0 1565 1565 1565 0 1752 1711 1752 0 0 0 0 0 2102 1936 0 0 0 0 0 0 0 0 269 0 0 0 0 0 1388 1533 1415 1471 1501 1471 1533 1533 1501 1501 1501 1565 1533 1501 1533 1443 1388 1565 1565 1388 1471 1471 1443 1533 1565 1599 1501 1501 1672 1565 1565 1752 1711 1795 1795 1415 1501 1501 1533 1471 1415 1415 1388 1415 1635 1711 1471 1501 1533 1471 1565 1565 1565 1599 1501 1501 1533 1501 1565 1443 1388 1388 1388 1388 1388 1291 1362 1471 1565 1599 1565 1533 1471 1471 1415 1338 1291 1268 1291 1314 1291 1362 1314 1388 1388 1388 1415 1415 1415 1443 1415 1501 1388 1415 1501 1338 1388 1471 1471 1501 1471 1443 1415 1415 1443 1388 1362 1314 1314 1314 1362 1388 1415 1388 1388 1443 1415 1415 1388 1314 1388 1388 1362 1338 1362 1338 1291 1268 1226 1187 1132 1149 1149 1115 1098 1115 1066 1066 981 908 931 886 919 908 908 908 919 931 955 886 897 865 845 845 836 817 808 791 782 750 728 0 714 707 714 0 0 0 714 694 700 681 681 669 0 639 0 629 623 608 603 584 598 608 603 603 0 603 0 0 0 608 608 608 603 608 608 608 603 598 598 598 598 598 593 593 588 588 588 579 584 579 584 584 584 574 574 570 0 0 0 0 0
    0 0 0 0 0 0 0 0 0 0 0 0 0 0 0 0 0 0 0 0 0 0 0 0 0 0 0 0 0 0 0 0 0 0 0 0 0 0 0 0 0 0 0 0 0 0 0 0 0 0 0 0 0 0 0 0 0 0 0 0 0 0 0 0 0 0 0 0 0 1565 1565 1565 1795 1711 1672 1711 1752 0 0 0 0 1936 1839 0 0 1635 0 0 0 0 0 269 0 0 0 0 0 1443 1635 1443 1533 1533 1501 1565 1533 1501 1501 1533 1565 1533 1501 1501 1443 1388 1565 1565 1388 1471 1501 1443 1533 1565 1599 1533 1533 1672 1565 1599 1839 1936 2044 1887 1443 1533 1533 1565 1443 1388 1388 1388 1415 1635 1672 1443 1565 1565 1501 1599 1565 1599 1599 1533 1533 1533 1501 1501 1415 1362 1388 1362 1362 1338 1291 0 1501 1635 1672 1635 1635 1635 1565 1471 1362 1291 1291 1291 1314 1291 1338 1314 1388 1388 1362 1415 1415 1415 1443 1415 1501 1388 1415 1533 1362 1415 1533 1415 1501 1471 1415 1443 1415 1471 1415 1362 1338 1338 1314 1388 1415 1443 1415 1415 1501 1443 1443 1415 1314 1388 1388 1362 1338 1362 1338 1291 1268 1226 1187 1149 1149 1168 1132 1115 1149 1098 1132 1008 908 943 886 919 908 908 908 919 931 943 886 886 855 845 845 836 817 808 0 782 750 728 0 714 714 714 0 0 0 721 694 700 681 681 669 425 0 0 629 623 608 603 593 598 608 603 603 603 603 0 0 0 608 603 608 598 608 603 608 603 598 598 603 598 603 593 593 588 588 593 584 584 584 584 584 579 570 570 570 0 0 0 0 0
    0 0 0 0 0 0 0 0 0 0 0 0 0 0 0 0 0 0 0 0 0 0 0 0 0 0 0 0 0 0 0 0 0 0 0 0 0 0 0 0 0 0 0 0 0 0 0 0 0 0 0 0 0 0 0 0 0 0 0 0 0 0 0 0 0 0 0 0 0 1533 1533 1533 1752 1635 1635 1672 1752 1672 1839 1752 1839 1839 1839 1795 0 0 0 0 0 0 0 0 0 0 0 0 0 1501 1635 1501 1533 1533 1501 1565 1533 1501 1501 1501 1565 1533 1501 1501 1443 1388 1599 1565 1388 1501 1501 1443 1533 1565 1599 1533 1533 1672 1599 1565 1887 1887 1936 1887 1501 1471 1501 1501 1443 1388 1388 1338 1388 1443 1635 1388 1501 1533 1471 1533 1533 1599 1599 1565 1565 1533 1443 1443 1415 1362 1362 1338 1314 1247 1206 0 0 1711 1752 1711 1752 1752 1672 1599 1471 1388 1362 1338 1338 1268 1314 1291 1362 1362 1338 1388 1388 1415 1443 1443 1501 1388 1415 1565 1362 1388 0 1314 1338 1388 1362 1362 1338 1388 1338 1338 1314 1314 1291 1362 1362 1415 1362 1388 1471 1415 1443 1415 1314 1388 1388 1362 1338 1362 1338 1291 1268 1226 1187 1149 1168 1168 1149 1132 1168 1115 1187 1036 919 943 886 919 908 908 908 919 919 943 886 897 865 845 845 836 817 808 0 782 750 728 0 721 0 714 0 0 0 721 700 700 687 681 669 0 0 0 634 629 618 608 598 603 608 603 603 603 603 603 603 603 603 603 608 598 603 603 608 603 598 598 603 598 603 593 593 588 593 593 584 584 584 584 584 579 570 570 570 0 0 0 0 0
    0 0 0 0 0 0 0 0 0 0 0 0 0 0 0 0 0 0 0 0 0 0 0 0 0 0 0 0 0 0 0 0 0 0 0 0 0 0 0 0 0 0 0 0 0 0 0 0 0 0 0 0 0 0 0 0 0 0 0 0 0 0 0 0 0 0 0 0 0 1533 1533 1533 1752 1635 1635 1635 1711 1672 1795 1795 1839 1839 1839 1839 1839 0 1936 0 0 0 0 0 0 0 0 0 0 1501 1635 1501 1501 1533 1533 1565 1501 1501 1533 1501 1565 1565 1501 1501 1443 1415 1599 1565 1388 1501 1501 1443 1533 1565 1599 1501 1533 1672 1565 1565 1795 1752 0 0 1565 0 0 0 0 0 1314 1291 1362 0 0 1362 0 0 0 0 0 0 1388 1501 0 1533 1415 1388 1415 1314 0 0 0 0 0 0 0 0 0 1752 1752 1711 1635 1599 1501 1443 1415 1338 1314 1226 1291 1268 1362 1362 1338 1388 1388 1415 1443 1443 1533 1415 1415 1565 1338 1388 1338 1291 1268 1338 1338 1314 1291 1291 1291 1291 1291 1291 1268 1314 1314 1362 1338 1388 1415 1388 1415 1388 1268 1362 1362 1362 1338 1362 1338 1291 1268 1226 1187 1149 1168 1168 1149 1149 1187 1132 1206 1036 919 943 886 919 908 908 908 919 919 943 897 897 865 845 845 836 817 808 0 782 743 728 0 721 0 714 0 0 707 728 700 707 687 681 669 0 0 0 629 623 613 608 603 603 613 603 603 603 603 603 603 603 603 603 603 593 603 603 608 598 598 598 603 603 608 598 598 593 593 593 584 588 584 584 584 579 570 570 570 0 0 0 0 0
    0 0 0 0 0 0 0 0 0 0 0 0 0 0 0 0 0 0 0 0 0 0 0 0 0 0 0 0 0 0 0 0 0 0 0 0 0 0 0 0 0 0 0 0 0 0 0 0 0 0 0 0 0 0 0 0 0 0 0 0 0 0 0 0 0 0 0 0 0 1533 1533 1533 1752 1635 1635 1635 1711 1635 1711 1672 1752 1752 1795 1752 1752 1672 1936 0 0 0 0 0 0 0 1989 0 0 1533 1635 1501 1471 1533 1501 1533 1471 1471 1533 1501 1533 1565 1501 1471 1443 1443 1599 1533 1415 1533 1533 1443 1533 1565 1599 1501 1533 1672 1533 1533 1795 1599 1752 0 1711 0 0 0 0 0 0 0 1471 0 0 1443 1415 1443 0 0 0 0 0 0 0 0 0 0 1501 0 0 0 0 0 243 237 0 0 0 1752 1752 1711 1635 1599 1501 1501 1443 1362 1314 1226 1291 1268 1362 1388 1338 1415 1415 1443 1471 1471 1565 1443 1443 1565 1338 1388 1338 1291 1291 1362 1338 1314 1291 1314 1291 1291 1291 1291 1247 1291 1314 1338 1338 1362 1388 1388 1388 1362 1247 1362 1362 1362 1338 1362 1338 1268 1268 1247 1206 1168 1168 1168 1149 1132 1168 1115 1149 1008 919 931 897 919 919 919 908 919 931 943 908 908 865 845 845 836 817 808 0 774 735 728 0 721 721 714 714 714 707 728 694 700 669 663 657 0 634 634 629 629 618 613 608 603 613 603 608 603 603 603 603 603 603 603 608 593 603 598 608 593 598 598 598 598 608 603 0 0 598 598 584 584 584 584 584 579 570 574 570 0 0 0 0 0
    0 0 0 0 0 0 0 0 0 0 0 0 0 0 0 0 0 0 0 0 0 0 0 0 0 0 0 0 0 0 0 0 0 0 0 0 0 0 0 0 0 0 0 0 0 0 0 0 0 0 0 0 0 0 0 0 0 0 0 0 0 0 0 0 0 0 0 0 0 1533 1565 1565 1752 1672 1672 1672 1711 1672 1711 1635 1672 1672 1711 1635 1565 1635 1936 1936 0 0 1989 1989 0 2164 2102 0 0 1565 1672 1501 1471 1533 1501 1533 1471 1501 1533 1501 1533 1565 1501 1471 1471 1443 1599 1533 1415 1533 1533 1443 1533 1565 1599 1501 1533 1672 1533 1533 1795 1672 1752 0 1839 0 0 0 0 0 0 0 0 0 0 0 0 0 0 0 0 0 0 0 0 1672 1501 0 1565 1415 0 0 0 0 0 0 0 0 0 1839 1839 1795 1752 1672 1635 1599 1533 1388 1338 0 1314 1291 1388 1388 1362 1415 1415 1471 1471 1471 1565 1443 1443 1599 1338 1388 1314 1314 1291 1362 1338 1314 1314 1338 1291 1338 1338 1338 1291 1338 1362 1388 1362 1415 1415 1388 1388 1362 1268 1362 1362 1362 1338 1362 1338 1291 1268 1247 1206 1168 1168 1168 1132 1115 1132 1082 1082 1008 931 943 897 931 919 931 919 919 931 955 908 919 865 845 836 836 817 808 774 774 735 728 721 721 721 714 714 714 707 721 687 687 663 657 657 0 634 639 629 634 623 613 613 608 613 603 608 603 608 603 608 603 603 603 608 598 603 598 608 593 598 593 598 598 608 0 0 0 0 0 588 588 584 584 584 584 574 579 574 0 0 0 0 0
    0 0 0 0 0 0 0 0 0 0 0 0 0 0 0 0 0 0 0 0 0 0 0 0 0 0 0 0 0 0 0 0 0 0 0 0 0 0 0 0 0 0 0 0 0 0 0 0 0 0 0 0 0 0 0 0 0 0 0 0 0 0 0 0 0 0 0 0 0 1533 1533 1533 1752 1635 1672 1672 1752 1711 1711 1711 1711 1752 0 1752 0 0 1989 2044 2102 0 2044 2044 0 2164 2102 0 0 1635 1672 1533 1501 1533 1501 1533 1471 1501 1533 1501 1565 1565 1501 1471 1471 1443 1599 1533 1415 1533 1533 1443 1533 1565 1599 1501 1533 1672 1533 1533 1795 1565 1635 0 1839 1338 0 1672 0 0 0 0 0 1314 0 1268 1206 1268 1226 0 0 0 0 0 0 1599 1533 1501 1565 0 0 0 0 0 0 0 0 0 0 1839 1839 1795 1752 1752 1711 1672 1565 1388 1338 0 1338 1314 1415 1415 1362 1415 1443 1471 1501 1471 1599 1443 1443 1599 1362 1415 1314 1314 1268 1362 1338 1314 1314 1338 1314 1338 1362 1362 1314 1362 1362 1415 1388 1415 1471 1415 1388 1362 1268 1362 1362 1362 1362 1362 1362 1314 1291 1268 1206 1168 1149 1168 1115 1098 1098 1066 1051 1008 931 943 908 943 931 943 919 931 931 943 919 931 876 855 845 845 826 808 774 774 728 728 721 721 721 721 714 714 700 721 681 681 657 651 651 0 634 634 629 634 623 613 608 608 613 603 608 603 608 603 608 608 608 603 608 598 608 598 608 598 598 598 603 603 608 603 0 0 0 0 0 588 588 588 588 584 579 584 579 0 0 0 0 0
    0 0 0 0 0 0 0 0 0 0 0 0 0 0 0 0 0 0 0 0 0 0 0 0 0 0 0 0 0 0 0 0 0 0 0 0 0 0 0 0 0 0 0 0 0 0 0 0 0 0 0 0 0 0 0 0 0 0 0 0 0 0 0 0 0 0 0 0 0 1533 1533 1565 1752 1635 1635 1672 1711 1752 1752 1795 1752 1795 0 0 0 0 1989 2102 0 0 2102 2102 0 2299 0 0 0 1672 1635 1501 1501 1533 1501 1501 1471 1501 1533 1533 1565 1565 1501 1471 1501 1443 1565 1533 1415 1533 1533 1471 1533 1565 1599 1501 1533 1672 1533 1533 1795 1599 1635 1839 1795 1672 1795 1635 0 0 0 0 0 0 0 1268 1247 1314 1291 1268 1362 1268 1291 1443 0 0 1501 1443 0 0 0 0 0 0 0 0 0 0 0 0 0 0 1711 0 0 1635 1533 0 0 0 1338 1314 1415 1415 1388 1443 1443 1471 1501 1471 1599 1443 1443 1599 1362 1388 1338 1314 1291 1388 1338 1338 1338 1362 1338 1338 1362 1388 1314 1362 1388 1388 1388 1443 1533 1443 1388 1362 1291 1388 1388 1388 1362 1388 1362 1314 1291 1291 1226 1168 1149 1149 1098 1082 1082 1066 1051 1008 943 955 931 955 943 943 931 931 931 943 931 931 876 855 845 845 836 817 774 774 721 728 721 721 728 721 721 721 707 721 687 687 657 651 645 0 629 629 623 629 618 613 613 608 613 603 608 603 608 603 608 608 608 608 613 603 608 603 608 603 603 603 608 608 613 608 0 0 0 0 0 588 588 588 588 588 579 584 579 0 0 0 0 0
    0 0 0 0 0 0 0 0 0 0 0 0 0 0 0 0 0 0 0 0 0 0 0 0 0 0 0 0 0 0 0 0 0 0 0 0 0 0 0 0 0 0 0 0 0 0 0 0 0 0 0 0 0 0 0 0 0 0 0 0 0 0 0 0 0 0 0 0 0 1533 1533 1533 1711 1565 1599 1635 1711 1711 1711 1752 1752 1752 0 0 0 1672 1887 1989 2044 0 0 0 0 2299 0 0 0 1635 1565 1471 1471 1533 1501 1471 1471 1533 1533 1533 1565 1565 1471 1471 1501 1443 1565 1533 1415 1533 1533 1471 1565 1565 1599 1501 1533 1672 1565 1565 1795 1711 1752 1887 1936 1839 1839 1672 0 0 0 618 0 0 0 1268 0 1415 0 0 1443 0 1362 0 0 0 0 0 0 0 0 266 0 0 0 0 0 0 0 0 0 0 0 0 0 1471 1415 0 0 0 1362 1338 1443 1443 1388 1443 1443 1471 1501 1471 1599 1443 1443 1565 1338 1362 1291 1291 1268 1362 1338 1338 1338 1362 1338 1338 1362 1388 1314 1338 1338 1388 1362 1415 1565 1471 1388 1362 1314 1388 1388 1388 1362 1388 1362 1314 1314 1291 1226 1187 1149 1149 1098 1066 1066 1051 1036 1008 955 955 943 955 943 955 931 931 931 931 931 919 876 845 836 845 826 808 758 766 721 728 721 721 728 728 728 721 714 728 694 694 657 651 639 623 629 629 629 629 623 613 613 608 613 598 608 603 608 603 608 608 608 603 613 603 608 603 608 603 603 603 608 608 613 608 0 0 0 0 0 593 593 588 588 588 584 588 584 0 0 0 0 0
    0 0 0 0 0 0 0 0 0 0 0 0 0 0 0 0 0 0 0 0 0 0 0 0 0 0 0 0 0 0 0 0 0 0 0 0 0 0 0 0 0 0 0 0 0 0 0 0 0 0 0 0 0 0 0 0 0 0 0 0 0 0 0 0 0 0 0 0 0 1533 1533 1565 1711 1565 1599 1599 1672 1672 1672 1672 1672 1672 0 0 0 0 0 1936 1989 0 0 1989 0 2164 0 0 1501 1565 1471 1443 1471 1501 1471 1443 1471 1533 1533 1533 1565 1565 1501 1471 1565 1443 1565 1533 1443 1533 1533 1471 1565 1565 1599 1501 1533 1672 1565 1565 1795 1752 1795 1936 2164 1887 0 1752 0 0 623 618 0 0 0 0 0 0 0 0 0 0 0 0 0 0 0 0 0 0 0 0 0 0 0 0 0 0 0 0 0 0 0 0 0 0 1388 0 0 0 1388 1338 1471 1443 1415 1443 1471 1501 1501 1471 1599 1415 1415 1533 1291 1314 1291 1291 1268 1314 1338 1314 1314 1338 1291 1314 1338 1388 1314 1314 1338 1362 1362 1388 1501 1443 1362 1338 1268 1388 1388 1388 1362 1388 1362 1314 1314 1291 1226 1187 1149 1149 1082 1066 1066 1051 1022 1008 955 955 943 955 955 955 919 919 919 919 931 897 865 836 826 836 836 808 750 758 714 728 714 721 728 728 728 721 714 728 0 0 663 651 645 623 634 629 629 629 623 618 618 613 613 603 608 603 608 608 608 608 608 0 613 603 613 608 613 608 608 603 608 608 613 603 0 0 0 0 0 593 593 593 593 593 588 588 584 0 0 0 0 0
    0 0 0 0 0 0 0 0 0 0 0 0 0 0 0 0 0 0 0 0 0 0 0 0 0 0 0 0 0 0 0 0 0 0 0 0 0 0 0 0 0 0 0 0 0 0 0 0 0 0 0 0 0 0 0 0 0 0 0 0 0 0 0 0 0 0 0 0 0 1565 1565 1599 1711 1533 1565 1599 1635 1635 1565 1599 1599 1533 0 0 0 1291 0 2044 1989 0 1936 1989 0 2044 1887 0 1501 1501 1443 1415 1471 1501 1501 1443 1471 1533 1533 1533 1599 1565 1471 1471 1565 1443 1565 1533 1443 1533 1533 1471 1565 1533 1599 1501 1533 1672 1565 1565 1795 1752 1839 1989 2374 1936 1936 0 0 0 0 629 0 0 0 0 0 0 0 0 0 0 0 0 0 0 0 0 0 0 0 0 0 0 0 0 0 0 0 0 0 0 0 0 0 0 0 0 0 0 1443 1362 1471 1471 1443 1471 1471 1501 1501 1471 1635 1415 1415 1501 1291 1314 1314 1314 1291 1314 1338 1291 1291 1291 1268 1268 1314 1362 1314 1291 1338 1362 1338 1362 1471 1415 1338 1314 1247 1362 1362 1362 1362 1362 1362 1314 1291 1291 1226 1187 1149 1149 1082 1066 1066 1051 1022 1008 968 955 955 955 943 955 919 919 919 919 919 886 855 826 817 817 0 808 750 758 714 728 714 721 728 728 728 721 714 728 0 0 675 657 645 623 634 634 629 629 623 618 618 613 618 603 613 608 613 608 608 608 608 0 618 608 613 608 613 608 608 608 608 608 608 603 0 0 0 0 0 0 593 0 593 598 588 593 588 0 0 0 0 0
    0 0 0 0 0 0 0 0 0 0 0 0 0 0 0 0 0 0 0 0 0 0 0 0 0 0 0 0 0 0 0 0 0 0 0 0 0 0 0 0 0 0 0 0 0 0 0 0 0 0 0 0 0 0 0 0 0 0 0 0 0 0 0 0 0 0 0 0 0 1565 1565 1599 1711 1501 1533 1599 1565 1565 1471 1501 1501 1443 1415 1388 1338 0 0 0 0 0 0 0 0 2044 0 0 1471 1415 1415 1415 1443 1501 1471 1443 1471 1533 1533 1533 1565 1565 1471 1471 1599 1415 1533 1533 1443 1533 1533 1471 1565 1533 1599 1501 1533 1672 1565 1565 1795 1752 1795 1936 0 0 0 0 0 0 657 651 0 0 0 0 0 0 0 0 0 0 0 0 0 0 0 0 0 0 0 264 0 0 0 0 0 0 0 0 0 0 0 0 0 0 0 0 0 0 1501 1415 1501 1501 1471 1471 1501 1501 1501 1471 1635 1415 1415 1501 1388 1362 1388 1388 1362 1388 1388 1362 1338 1338 1291 1291 1362 1415 1362 1362 1415 1415 1415 1388 1565 1415 1338 1314 1247 1362 1362 1362 1362 1362 1362 1314 1291 1291 1226 1187 1168 1149 1098 0 0 0 0 0 955 955 955 955 955 955 931 919 919 919 931 876 836 817 799 799 0 799 743 758 0 728 714 721 728 728 721 721 714 728 694 0 669 657 645 623 634 634 629 634 623 618 618 613 618 608 613 613 613 613 613 608 613 0 618 608 618 613 618 613 608 608 608 603 608 598 0 598 588 0 0 593 588 588 593 598 593 593 588 0 0 0 0 0
    0 0 0 0 0 0 0 0 0 0 0 0 0 0 0 0 0 0 0 0 0 0 0 0 0 0 0 0 0 0 0 0 0 0 0 0 0 0 0 0 0 0 0 0 0 0 0 0 0 0 0 0 0 0 0 0 0 0 0 0 0 0 0 0 0 0 0 0 0 1565 1565 1635 1672 1471 1501 1599 1501 1533 1415 1471 1443 1415 1415 1415 1388 0 0 0 0 0 0 0 0 0 0 0 1443 1362 1388 1415 1443 1471 1471 1443 1501 1533 1533 1533 1565 1533 1471 1471 1599 1388 1533 1565 1443 1533 1533 1471 1565 1533 1599 1501 1533 1672 1565 1565 1795 1752 1752 1839 0 0 0 0 0 0 0 0 0 0 0 0 0 0 0 0 0 0 0 0 0 0 0 0 0 0 0 0 0 0 0 629 623 0 0 0 0 0 0 0 0 0 0 0 0 0 1565 1443 1533 1533 1501 1471 1533 1501 1501 1443 1635 1443 1415 1501 1415 1388 1415 1415 1415 1415 1443 1415 1388 1415 1388 1338 1443 1565 1443 1443 1501 1471 1443 1415 1599 1471 1388 1338 1291 1388 1388 1388 1362 1388 1362 1314 1291 1291 1226 1187 1168 1168 1098 0 0 0 0 0 955 943 955 955 943 955 931 919 931 919 931 865 826 808 791 799 0 799 750 758 0 728 714 721 721 721 721 0 0 0 694 0 669 657 651 629 639 639 634 639 629 618 618 613 618 608 613 613 613 613 613 613 613 0 618 613 618 613 618 613 608 603 603 603 603 598 593 593 588 593 584 588 588 588 593 598 593 598 0 0 0 0 0 0
    0 0 0 0 0 0 0 0 0 0 0 0 0 0 0 0 0 0 0 0 0 0 0 0 0 0 0 0 0 0 0 0 0 0 0 0 0 0 0 0 0 0 0 0 0 0 0 0 0 0 0 0 0 0 0 0 0 0 0 0 0 0 0 0 0 0 0 0 0 1565 1565 1672 1672 1501 1501 1635 1533 1565 1443 1565 1501 1533 1501 1501 0 0 0 0 1533 1501 1443 1388 0 0 0 1314 1338 1338 1362 1415 1471 1471 1443 1471 1501 1533 1533 1533 1565 1533 1471 1501 1635 1388 1533 1565 1443 1533 1533 1471 1565 1533 1599 1501 1533 1672 1565 1565 1752 1711 1752 1795 0 1839 0 0 0 0 0 0 0 0 0 0 0 0 0 0 0 0 0 0 0 0 0 0 0 0 0 0 0 0 0 0 0 0 0 0 0 0 0 0 0 0 0 0 0 0 1599 1443 1501 1501 1501 1471 1501 1501 1501 1415 1599 1415 1388 1415 1362 1362 1388 1388 1388 1388 1415 1415 1415 1471 1443 1362 1471 1599 1471 1501 1501 1533 1443 1415 1599 1471 1388 1362 1314 1388 1388 1388 1362 1388 1362 1314 1291 1291 1226 1187 1168 1168 1098 0 0 0 0 0 943 943 955 955 943 955 931 931 931 919 931 855 826 808 799 799 826 799 766 774 0 728 707 721 721 721 0 0 0 0 687 700 675 663 651 634 639 639 634 639 623 613 613 613 613 608 613 608 613 608 0 613 613 613 623 618 623 618 623 613 608 608 608 603 603 598 593 593 584 593 584 588 588 588 593 598 0 0 0 0 0 0 0 0
    0 0 0 0 0 0 0 0 0 0 0 0 0 0 0 0 0 0 0 0 0 0 0 0 0 0 0 0 0 0 0 0 0 0 0 0 0 0 0 0 0 0 0 0 0 0 0 0 0 0 0 0 0 0 0 0 0 0 0 0 0 0 0 0 0 0 0 0 0 1565 1565 1672 1635 1501 1501 1635 1533 1565 1443 1565 1501 1501 1471 1471 0 0 0 0 1415 1388 1362 1338 1291 1291 1247 1291 1314 1338 1362 1415 1471 1471 1443 1471 1533 1533 1533 1533 1533 1501 1471 1533 1635 1362 1565 1599 1443 1565 1565 1471 1565 1533 1599 1501 1533 1672 1533 1565 1752 1672 1711 1752 0 0 0 0 681 0 0 0 0 0 0 0 0 0 0 0 0 0 0 0 0 0 525 0 0 574 0 0 0 0 0 0 0 0 0 0 0 199 0 0 0 0 0 0 0 1471 1599 1443 1471 1471 1471 1471 1501 1471 1471 1388 1565 1443 1388 1388 1362 1362 1388 1388 1388 1388 1388 1388 1388 1443 1388 1338 1443 1501 1443 1443 1471 1533 1443 1415 1599 1443 1388 1338 1291 1388 1388 1388 1362 1362 1338 1314 1268 1291 1206 1168 1149 1149 1082 0 0 0 0 0 943 943 955 955 955 955 931 931 931 919 931 855 826 817 808 808 826 799 774 774 0 728 707 714 721 721 721 0 0 0 694 700 675 669 657 634 639 639 634 634 618 613 613 608 613 603 608 608 608 608 0 613 613 613 623 618 623 623 623 618 613 608 608 603 603 598 593 593 584 593 579 588 588 584 588 598 593 593 0 0 0 0 0 0
    0 0 0 0 0 0 0 0 0 0 0 0 0 0 0 0 0 0 0 0 0 0 0 0 0 0 0 0 0 0 0 0 0 0 0 0 0 0 0 0 0 0 0 0 0 0 0 0 0 0 0 0 0 0 0 0 0 0 0 0 0 0 0 0 0 0 0 0 0 1565 1565 1711 1599 1501 1501 1635 1565 1565 1471 1565 1501 1533 1471 1501 1443 1415 1388 1501 1388 1415 1388 1338 1291 1268 1247 1291 1291 1338 1362 1415 1471 1471 1443 1471 1533 1533 1533 1533 1533 1501 1471 1565 1635 1362 1565 1635 1471 1565 1565 1471 1565 1533 1599 1501 1501 1672 1565 1565 1752 1711 1752 1795 0 0 0 0 0 0 0 0 0 0 0 0 0 0 0 0 0 2453 0 0 0 0 0 0 0 0 0 0 0 0 0 0 0 0 0 201 199 198 0 0 0 0 0 0 0 1471 1599 1471 1471 1471 1471 1443 1471 1443 1471 1362 1533 1471 1388 1388 1388 1362 1388 1388 1388 1362 1388 1362 1388 1415 1362 1338 1415 1471 1443 1443 1471 1471 1415 1415 1533 1415 1388 1338 1268 1388 1388 1388 1362 1362 1338 1314 1268 1291 1206 1168 1149 1149 1082 0 0 0 0 0 943 943 955 955 943 955 943 931 943 931 943 855 836 817 817 817 826 808 782 782 0 728 707 714 714 721 721 0 0 0 694 0 681 669 657 634 634 629 623 623 613 608 613 603 608 603 608 608 608 608 0 608 613 0 623 618 623 623 623 618 608 603 603 603 603 593 588 588 579 588 579 584 584 584 588 593 588 588 0 0 0 0 0 0
    0 0 0 0 0 0 0 0 0 0 0 0 0 0 0 0 0 0 0 0 0 0 0 0 0 0 0 0 0 0 0 0 0 0 0 0 0 0 0 0 0 0 0 0 0 0 0 0 0 0 0 0 0 0 0 0 0 0 0 0 0 0 0 0 0 0 0 0 0 1533 1533 1711 1635 1533 1533 1672 1599 1565 1471 1565 1501 1533 1471 1501 1471 1443 1415 1533 1388 1443 1388 1362 1314 1268 1291 1314 1314 1362 1388 1415 1471 1471 1443 1501 1533 1533 1533 1533 1533 1471 1501 1565 1599 1362 1599 1635 1471 1565 1565 1471 1565 1533 1599 1501 1533 1672 1565 1599 1795 1795 1839 1936 0 0 0 0 0 0 0 3873 0 0 0 0 0 0 0 0 0 2453 0 0 0 0 0 0 0 0 0 0 0 0 0 0 0 0 0 201 198 197 196 193 0 0 0 0 1471 1443 1565 1443 1443 1443 1443 1415 1443 1415 1443 1338 1443 1533 1415 1415 1415 1388 1415 1415 1388 1388 1388 1388 1388 1415 1388 1362 1443 1501 1443 1443 1501 1471 1415 1415 1501 1388 1388 1338 1268 1388 1388 1388 1338 1362 1314 1314 1247 1268 1206 1168 1168 1168 1098 1066 0 0 0 943 931 931 943 943 943 955 931 931 943 931 955 876 855 826 826 826 845 826 791 782 714 728 707 714 714 0 721 0 0 0 694 700 681 675 657 634 629 629 623 618 608 608 608 603 608 603 608 608 608 608 0 613 618 0 618 618 618 618 618 613 608 603 603 598 603 593 588 588 574 584 574 584 584 584 584 593 584 588 0 0 0 0 0 0
    0 0 0 0 0 0 0 0 0 0 0 0 0 0 0 0 0 0 0 0 0 0 0 0 0 0 0 0 0 0 0 0 0 0 0 0 0 0 0 0 0 0 0 0 0 0 0 0 0 0 0 0 0 0 0 0 0 0 0 0 0 0 0 0 0 0 0 0 0 1533 1533 1711 1635 1565 1533 1635 1565 1565 1443 1533 1443 1471 0 0 0 1471 1443 1533 1388 1415 1362 1338 1291 1268 1291 1338 1338 1388 1415 1443 1471 1471 1471 1501 1501 1533 1533 1533 1533 1471 1533 1599 1565 1362 1599 1635 1471 1565 1533 1443 1533 1533 1565 1501 1501 1672 1565 1565 1795 1795 1839 2102 0 0 0 0 0 0 0 0 0 0 0 0 0 0 0 0 0 2374 0 0 0 0 0 0 0 0 0 0 0 0 0 0 0 0 0 201 200 200 0 0 0 0 0 0 1471 1415 1565 1443 1388 1415 1415 1388 1415 1388 1415 1338 1388 1565 1415 1443 1471 1443 1471 1443 1415 1388 1415 1415 1415 1443 1415 1388 1471 1533 1501 1471 1501 1501 1415 1415 1443 1338 1362 1338 1268 1362 1388 1388 1338 1338 1314 1314 1247 1268 1206 1187 1168 1168 1115 1066 0 0 0 943 931 931 943 943 943 943 931 919 943 931 955 886 886 845 845 845 876 855 808 791 714 728 707 714 0 0 721 0 0 0 687 700 675 669 657 634 629 623 618 618 608 603 603 598 603 603 608 608 608 608 613 613 618 613 618 618 618 618 613 608 603 603 598 598 598 593 588 588 574 579 566 574 574 574 574 584 574 579 0 0 0 0 0 0
    0 0 0 0 0 0 0 0 0 0 0 0 0 0 0 0 0 0 0 0 0 0 0 0 0 0 0 0 0 0 0 0 0 0 0 0 0 0 0 0 0 0 0 0 0 0 0 0 0 0 0 0 0 0 0 0 0 0 0 0 0 0 0 0 0 0 0 0 0 1533 1533 1711 1599 1565 1533 1635 1565 1565 1443 1533 1443 1443 0 0 0 0 0 1443 0 1362 1338 1314 1291 1291 1314 1362 1338 1388 1443 1471 1501 1471 1471 1533 1501 1533 1533 1501 1501 1471 1533 1599 1533 1362 1599 1672 1471 1565 1533 1443 1533 1501 1565 1471 1501 1635 1533 1565 1795 1711 1795 1989 0 0 0 0 0 0 0 0 0 0 0 0 0 1036 0 0 0 2374 0 2453 0 0 340 0 0 0 0 0 0 0 0 0 0 0 0 202 202 202 0 0 0 0 0 0 1471 1388 1533 1443 1362 1388 1388 1388 1415 1362 1415 1314 1338 1565 1443 1443 1501 1471 1471 1443 1443 1415 1443 1471 1443 1471 1471 1443 1501 1533 1533 1501 1533 1501 1415 1415 1443 1338 1362 1338 1268 1362 1388 1388 1338 1338 1314 1314 1247 1291 1206 1187 1168 1168 1098 0 0 0 968 931 919 919 943 943 931 943 931 919 943 931 968 897 919 876 876 876 897 865 817 799 721 728 700 714 0 0 0 0 0 0 687 700 675 669 651 634 0 623 618 613 603 603 598 598 603 603 603 608 608 608 613 613 613 613 618 613 613 613 608 603 598 598 598 598 598 593 588 588 570 570 553 557 557 557 557 561 553 553 0 0 0 0 0 0
    0 0 0 0 0 0 0 0 0 0 0 0 0 0 0 0 0 0 0 0 0 0 0 0 0 0 0 0 0 0 0 0 0 0 0 0 0 0 0 0 0 0 0 0 0 0 0 0 0 0 0 0 0 0 0 0 0 0 0 0 0 0 0 0 0 0 0 0 0 1501 1501 1672 1565 1565 1565 1635 1599 1599 1471 1565 1471 1471 0 0 0 0 0 1415 0 0 1338 1314 1291 1314 1338 1362 1338 1415 1443 1501 1501 1471 1471 1533 1533 1533 1533 1501 1501 1501 1565 1635 1533 1388 1635 1672 1471 1565 1533 1443 1533 1501 1533 1443 1471 1599 1501 1533 1795 1672 1795 1936 2453 0 0 0 0 4906 0 0 0 0 0 0 0 0 0 0 2628 2537 0 2628 2453 0 340 0 0 0 0 0 0 0 0 0 198 201 202 202 202 203 0 0 0 0 0 0 1471 1388 1533 1415 1362 1362 1362 1362 1388 1362 1388 1291 1314 1565 1415 1415 1501 1443 1443 1415 1415 1415 1443 1471 1471 1501 1501 1471 1533 1599 1565 1533 1565 1565 1415 1415 1443 1362 1388 1338 1314 1388 1388 1388 1338 1338 1291 1314 1247 1268 1206 1149 1149 1132 0 0 0 0 955 919 919 919 931 943 931 943 931 919 943 931 955 897 908 876 876 876 886 865 817 808 721 728 700 714 0 0 0 0 0 0 681 694 669 669 645 634 0 623 618 618 608 598 593 593 598 598 603 603 603 603 608 608 613 613 613 613 608 608 603 598 593 593 593 593 593 584 584 584 561 561 545 545 545 545 545 545 541 537 525 0 0 0 0 0
    0 0 0 0 0 0 0 0 0 0 0 0 0 0 0 0 0 0 0 0 0 0 0 0 0 0 0 0 0 0 0 0 0 0 0 0 0 0 0 0 0 0 0 0 0 0 0 0 0 0 0 0 0 0 0 0 0 0 0 0 0 0 0 0 0 0 0 0 0 1501 1501 1672 1565 1599 1599 1635 1635 1599 1533 1599 1533 1565 1599 0 0 1443 1415 1501 0 0 1338 1338 1314 1362 1362 1388 1362 1415 1471 1501 1501 1471 1501 1533 1533 1565 1533 1501 1471 1501 1599 1599 1533 1388 1635 1672 1471 1565 1533 1443 1501 1501 1533 1443 1443 1565 1471 1501 1752 1672 1795 1936 2230 2230 2230 0 0 3679 0 0 0 0 0 0 0 0 0 0 0 0 0 0 2537 0 339 0 0 0 0 0 0 0 0 0 197 199 200 201 201 0 0 1533 1501 1501 1415 1338 1471 1362 1501 1415 1338 1362 1362 1362 1388 1362 1388 1291 1291 1533 1415 1415 1501 1388 1415 1388 1388 1388 1415 1443 1471 1501 1501 1471 1533 1565 1565 1471 1533 1533 1443 1415 1443 1388 1388 1362 1314 1388 1388 1362 1314 1338 1291 1291 1226 1268 1187 1132 1132 1115 1051 0 0 0 955 919 919 919 931 943 931 943 931 919 943 919 955 886 897 865 865 865 865 0 826 808 728 728 707 714 0 0 0 0 0 0 681 694 663 663 645 634 0 623 618 618 608 603 593 588 593 598 598 598 598 603 603 608 613 613 613 613 608 608 603 598 593 593 588 588 584 570 570 570 549 549 533 529 533 529 533 533 529 525 518 0 0 0 0 0
    0 0 0 0 0 0 0 0 0 0 0 0 0 0 0 0 0 0 0 0 0 0 0 0 0 0 0 0 0 0 0 0 0 0 0 0 0 0 0 0 0 0 0 0 0 0 0 0 0 0 0 0 0 0 0 0 0 0 0 0 0 0 0 0 0 0 0 0 0 1565 1533 1672 1635 1711 1672 1672 1672 1599 1533 1599 1533 1533 0 0 0 1362 0 1443 1268 1291 1338 1362 1314 1362 1415 1388 1388 1443 1471 1501 1501 1501 1533 1533 1533 1565 1533 1533 1471 1501 1599 1565 1501 1388 1635 1635 1471 1565 1533 1415 1501 1471 1533 1415 1443 1565 1443 1471 1752 1635 1795 1989 2230 2374 2453 0 0 3504 3504 0 0 0 0 0 968 955 908 0 246 0 0 0 0 0 0 0 0 324 0 0 0 0 0 0 196 0 0 0 0 0 1599 1565 1533 1501 1415 1338 1443 1362 1501 1415 1338 1362 1362 1362 1388 1362 1388 1291 1291 1533 1415 1388 1501 1443 1443 1415 1415 1388 1415 1443 1443 1443 1443 1443 1501 1533 1533 1443 1501 1533 1471 1443 1415 1388 1388 1362 1291 1362 1362 1362 1314 1314 1291 1291 1206 1247 1187 1132 1132 1115 1051 1008 0 0 968 919 931 919 931 943 943 943 931 919 931 908 943 876 897 865 865 876 865 0 0 808 735 728 707 714 0 0 0 0 0 0 681 687 657 651 639 629 0 618 618 618 608 603 598 588 593 598 598 598 603 603 608 608 613 608 613 613 608 603 598 593 588 588 584 584 574 561 561 561 545 545 521 504 518 518 525 525 525 521 518 0 0 0 0 0
    0 0 0 0 0 0 0 0 0 0 0 0 0 0 0 0 0 0 0 0 0 0 0 0 0 0 0 0 0 0 0 0 0 0 0 0 0 0 0 0 0 0 0 0 0 0 0 0 0 0 0 0 0 0 0 0 0 0 0 0 0 0 0 0 0 0 0 0 0 1635 1635 1711 1672 1752 1711 1711 1672 1635 1533 1533 1471 1471 0 0 1314 1314 0 1388 1268 0 1388 1415 1338 1388 1443 1415 1388 1443 1501 1501 1501 1501 1533 1533 1533 1565 1565 1501 1501 1533 1635 1565 1501 1388 1635 1635 1471 1565 1533 1415 1501 1471 1501 1415 1443 1533 1443 1471 1752 1635 1795 0 2453 0 2628 0 0 3873 3873 0 0 0 0 0 943 919 876 246 246 247 251 0 0 0 0 0 0 0 0 0 0 0 0 0 0 0 0 0 0 1672 1711 1672 1635 1599 1471 1338 1443 1338 1501 1415 1338 1338 1338 1338 1362 1362 1388 1291 1291 1533 1443 1443 1599 1565 1565 1533 1533 1443 1471 1471 1471 1471 1443 1443 1471 1501 1533 1443 1501 1501 1501 1443 1388 1362 1362 1338 1268 1362 1362 1338 1314 1314 1291 1291 1206 1247 1206 1149 1149 1115 1066 1008 0 0 968 931 931 919 931 943 943 943 931 919 931 908 943 876 897 876 876 876 876 0 845 817 735 728 707 714 0 0 0 0 0 0 681 687 651 645 634 623 0 613 608 608 603 598 593 588 598 603 603 603 603 603 608 608 613 608 608 603 603 593 588 579 574 574 570 570 561 549 549 549 537 525 511 493 504 507 514 514 514 511 511 0 0 0 0 0
    0 0 0 0 0 0 0 0 0 0 0 0 0 0 0 0 0 0 0 0 0 0 0 0 0 0 0 0 0 0 0 0 0 0 0 0 0 0 0 0 0 0 0 0 0 0 0 0 0 0 0 0 0 0 0 0 0 0 0 0 0 0 0 0 0 0 0 0 0 1635 1635 1672 1672 1752 1711 1711 1672 1635 1565 1565 1501 1501 0 0 1443 1471 1501 1501 1362 0 1415 1415 1338 1388 1415 1388 1415 1443 1501 1501 1471 1501 1533 1533 1533 1533 1565 1533 1501 1565 1672 1565 1501 1388 1635 1635 1471 1533 1533 1415 1501 1471 1501 1415 1443 1533 1443 1471 1711 1565 1795 0 2830 0 2725 0 0 3873 4088 0 0 0 0 0 0 908 0 245 246 0 0 0 0 0 0 0 0 0 0 0 0 0 0 0 0 0 0 0 0 1711 1752 1752 1711 1635 1599 1362 1443 1338 1471 1388 1314 1338 1338 1338 1362 1338 1388 1291 1291 1565 1443 1471 1635 1672 1635 1635 1635 1533 1565 1533 1533 1501 1443 1415 1443 1471 1471 1362 1388 1443 1501 1501 1415 1388 1388 1338 1291 1362 1362 1338 1314 1338 1291 1314 1226 1268 1226 1168 1168 1115 1066 1008 994 0 968 919 931 908 931 931 931 943 919 919 931 897 943 886 897 876 876 886 876 876 865 817 743 728 707 714 0 0 0 0 0 0 681 687 645 639 629 618 0 608 603 603 598 593 593 588 598 603 603 603 603 608 608 608 613 603 598 584 588 579 570 566 561 557 557 557 553 541 537 537 521 504 500 493 497 504 511 511 507 500 500 0 0 0 0 0
    0 0 0 0 0 0 0 0 0 0 0 0 0 0 0 0 0 0 0 0 0 0 0 0 0 0 0 0 0 0 0 0 0 0 0 0 0 0 0 0 0 0 0 0 0 0 0 0 0 0 0 0 0 0 0 0 0 0 0 0 0 0 0 0 0 0 0 0 0 1711 1711 1711 1752 1795 1752 1752 1711 1672 1635 1635 1599 1533 0 0 1501 1565 1533 1533 1415 1388 1415 1415 1338 1388 1415 1415 1415 1443 1501 1501 1471 1501 1533 1533 1565 1533 1565 1501 1533 1599 1672 1565 1565 1415 1635 1635 1471 1533 1501 1415 1471 1471 1501 1415 1415 1501 1415 1443 1672 1501 1711 0 0 0 2830 0 0 3873 4329 0 0 0 0 0 0 0 0 243 243 0 0 0 0 0 0 0 0 0 0 0 0 0 0 0 0 0 0 0 0 1711 1752 1795 1795 1711 1711 0 1471 1314 1443 1388 1314 1338 1338 1338 1338 1338 1388 1291 1291 1565 1443 1443 1599 1635 1635 1599 1635 1565 1599 1565 1565 1533 1443 1443 1415 1415 1443 1314 1268 1415 1599 1599 1443 1388 1338 1338 1268 1338 1338 1314 1314 1338 1314 1314 1247 1268 1247 1226 1206 1132 1066 1008 994 0 968 919 931 908 931 931 943 931 919 919 931 897 943 876 886 865 865 876 876 876 865 817 743 728 714 721 0 0 0 0 0 0 681 687 645 639 623 618 0 608 608 603 603 598 598 593 598 603 603 603 603 603 608 608 608 588 0 561 574 561 557 553 553 549 549 549 545 529 514 511 504 493 493 493 497 500 507 507 504 497 493 0 0 0 0 0
    0 0 0 0 0 0 0 0 0 0 0 0 0 0 0 0 0 0 0 0 0 0 0 0 0 0 0 0 0 0 0 0 0 0 0 0 0 0 0 0 0 0 0 0 0 0 0 0 0 0 0 0 0 0 0 0 0 0 0 0 0 0 0 0 0 0 0 0 0 1711 1752 1711 1752 1839 1839 1795 1752 1752 1711 1711 1672 1635 1635 1599 1501 1565 1565 1565 1471 1471 1471 1443 1388 1443 1443 1415 1443 1471 1533 1501 1471 1533 1533 1565 1565 1565 1565 1501 1565 1635 1711 1599 1599 1443 1672 1672 1471 1533 1501 1415 1471 1471 1501 1415 1415 1471 1415 1415 1635 1471 1635 0 0 2374 2164 0 0 0 0 0 0 0 0 0 0 0 0 244 0 0 0 0 0 0 0 0 0 0 0 0 0 0 0 0 0 0 0 0 0 1711 1752 1795 1795 1752 0 0 1471 1314 1443 1362 1314 1314 1338 1314 1338 1338 1388 1291 1291 1533 1443 1443 1599 1635 1672 1635 1711 1635 1672 1635 1635 1565 1501 1471 1415 1415 1443 1291 1247 1415 1599 1635 1415 1314 1268 1291 1247 1314 1314 1291 1291 1314 1338 1338 1268 1291 1268 1247 1247 1187 1098 1008 981 981 968 919 943 919 931 943 943 943 919 919 931 897 931 865 876 855 855 865 865 865 855 817 743 728 714 721 0 0 0 0 0 0 681 687 645 645 623 618 0 613 608 608 603 603 598 593 598 603 603 598 598 598 603 598 598 561 0 0 557 549 545 545 545 541 541 541 529 504 490 490 493 490 490 493 497 504 507 507 507 497 493 0 0 0 0 0
    0 0 0 0 0 0 0 0 0 0 0 0 0 0 0 0 0 0 0 0 0 0 0 0 0 0 0 0 0 0 0 0 0 0 0 0 0 0 0 0 0 0 0 0 0 0 0 0 0 0 0 0 0 0 0 0 0 0 0 0 0 0 0 0 0 0 0 0 0 1752 1752 1752 1795 1839 1839 1839 1795 1795 1752 1752 1752 1672 1711 1635 1533 1533 1565 1599 1471 1501 1501 1443 1388 1443 1415 1415 1443 1471 1533 1501 1471 1533 1533 1565 1565 1565 1565 1533 1599 1672 1711 1635 1599 1415 1672 1672 1471 1533 1533 1415 1471 1471 1501 1415 1415 1471 1388 1415 1635 1471 1672 1795 1989 2102 2044 0 0 0 0 0 0 0 0 0 0 0 0 0 0 0 0 0 0 0 0 0 0 0 0 0 0 0 0 0 0 0 0 0 1501 1672 1711 1752 1752 1711 1752 0 1471 1314 1443 1388 1314 1338 1338 1338 1338 1338 1388 1291 1314 1533 1471 1443 1565 1635 1635 1635 1711 1672 1672 1635 1635 1599 1533 1501 1415 1415 1443 1291 1247 1388 1565 1599 1362 1268 1247 1268 1206 1268 1291 1268 1291 1314 1314 1338 1268 1314 1291 1268 1268 1206 1149 1022 1008 994 981 931 943 919 943 943 943 943 919 919 931 886 931 865 876 855 855 865 855 855 836 817 743 728 714 714 714 0 0 0 0 0 681 687 645 645 629 623 0 613 613 613 608 603 593 593 593 603 598 593 593 588 593 593 584 545 427 0 0 511 0 525 518 507 504 514 497 487 481 484 487 490 493 493 500 507 514 514 514 500 497 0 0 0 0 0
    0 0 0 0 0 0 0 0 0 0 0 0 0 0 0 0 0 0 0 0 0 0 0 0 0 0 0 0 0 0 0 0 0 0 0 0 0 0 0 0 0 0 0 0 0 0 0 0 0 0 0 0 0 0 0 0 0 0 0 0 0 0 0 0 0 0 0 0 0 1795 1795 1795 1795 1887 1887 1839 1839 1839 1795 1795 1795 1752 1795 1752 1672 1635 1599 1599 1533 1565 1533 1443 1388 1443 1415 1415 1471 1471 1501 1471 1471 1533 1533 1565 1565 1533 1565 1533 1599 1672 1672 1635 1533 1415 1635 1635 1471 1533 1533 1415 1471 1471 1533 1443 1415 1501 1415 1415 1635 1501 1711 1795 1936 0 1936 1887 0 0 0 0 0 0 0 0 0 0 0 0 0 0 0 0 0 0 0 0 0 0 0 0 0 0 0 0 0 0 0 1501 1501 1635 1711 1752 1711 1599 0 0 1443 1314 1443 1388 1314 1338 1338 1338 1338 1338 1415 1291 1314 1565 1501 1471 1565 1635 1599 1599 1672 1672 1672 1635 1635 1635 1599 1565 1415 1388 1388 1268 1247 1388 1533 1533 1338 1268 1247 1268 1226 1268 1268 1268 1268 1291 1314 1314 1268 1314 1314 1314 1291 1247 1226 1066 1051 1022 994 955 955 919 943 943 955 943 919 919 919 886 919 855 855 845 836 855 845 826 826 808 743 728 714 721 714 0 0 0 0 0 681 687 645 645 629 623 0 618 618 613 608 598 593 588 588 598 588 570 574 570 579 579 557 0 430 443 457 474 471 484 481 484 484 490 484 481 481 484 487 493 497 497 500 514 518 518 518 497 0 0 0 0 0 0
    0 0 0 0 0 0 0 0 0 0 0 0 0 0 0 0 0 0 0 0 0 0 0 0 0 0 0 0 0 0 0 0 0 0 0 0 0 0 0 0 0 0 0 0 0 0 0 0 0 0 0 0 0 0 0 0 0 0 0 0 0 0 0 0 0 0 0 0 0 1839 1795 1795 1839 1936 1936 1887 1887 1839 1839 1839 1839 1795 1839 1795 1711 1711 1635 1635 1533 1599 1501 1443 1415 1443 1415 1415 1471 1501 1501 1471 1471 1533 1533 1565 1565 1533 1533 1501 1599 1672 1599 1565 1471 1362 1635 1635 1471 1533 1533 1443 1501 1471 1565 1443 1443 1533 1443 1443 1635 1565 1752 1752 1839 0 1887 1887 1887 2164 0 0 0 0 0 0 0 0 0 0 0 0 0 0 0 0 0 0 0 0 0 0 0 0 0 1362 1471 1415 1443 1501 1471 1599 1672 1711 1672 0 0 0 0 0 1443 1388 1314 1338 1338 1338 1338 1338 1415 1314 1338 1599 1533 1501 1533 1599 1599 1599 1672 1672 1672 1599 1635 1635 1533 1443 1314 1291 1314 1247 1226 1362 1501 1443 1338 1268 1268 1268 1226 1247 1268 1268 1268 1291 1314 1314 1291 1314 1338 1314 1314 1268 1268 1098 1098 1082 1022 968 968 931 943 943 955 943 919 919 919 876 919 855 855 836 836 845 845 826 826 808 750 735 714 721 707 0 0 0 0 0 681 687 645 0 623 623 0 618 613 608 603 593 588 584 584 588 566 549 557 553 561 557 537 465 435 446 451 462 462 474 474 474 474 477 477 477 481 484 487 493 504 507 511 521 521 0 0 0 0 0 0 0 0 0
    0 0 0 0 0 0 0 0 0 0 0 0 0 0 0 0 0 0 0 0 0 0 0 0 0 0 0 0 0 0 0 0 0 0 0 0 0 0 0 0 0 0 0 0 0 0 0 0 0 0 0 0 0 0 0 0 0 0 0 0 0 0 0 0 0 0 0 0 0 1839 1839 1795 1839 1936 1936 1936 1936 1887 1839 1839 1839 1839 1887 1887 1795 1795 1711 1711 1599 1635 1443 1443 1415 1415 1415 1415 1471 1501 1471 1471 1471 1533 1533 1533 1533 1501 1501 1501 1635 1672 1565 1599 1471 1362 1635 1635 1471 1533 1533 1443 1501 1501 1599 1471 1471 1599 1501 1501 1672 1635 1795 1795 1887 1795 1839 1839 1795 0 0 0 0 0 0 0 0 0 0 0 0 0 0 0 0 0 0 0 0 2164 0 0 0 0 0 1443 1533 1443 1471 1471 1443 1533 1635 1672 1599 0 0 0 0 0 1443 1388 1291 1338 1338 1338 1338 1338 1415 1314 1338 1599 1533 1471 1501 1599 1599 1635 1672 1672 1672 1599 1672 1672 1533 1471 1291 1268 1291 1247 1226 1362 1471 1388 1314 1247 1247 1268 1226 1247 1268 1268 1268 1291 1314 1338 1314 1338 1362 1338 1338 1291 1291 1149 1132 1115 1036 981 981 931 955 955 955 943 931 919 919 876 919 855 855 845 836 855 845 836 826 808 750 728 707 714 707 0 0 0 0 0 681 687 651 639 618 613 0 608 603 593 588 579 574 566 574 566 549 537 541 541 541 541 493 465 440 448 454 462 459 468 468 468 471 474 474 477 477 484 490 511 525 529 533 0 0 0 0 0 0 0 0 0 0 0
    0 0 0 0 0 0 0 0 0 0 0 0 0 0 0 0 0 0 0 0 0 0 0 0 0 0 0 0 0 0 0 0 0 0 0 0 0 0 0 0 0 0 0 0 0 0 0 0 0 0 0 0 0 0 0 0 0 0 0 0 0 0 0 0 0 0 0 0 0 1887 1839 1839 1887 1936 1989 1936 1936 1887 1887 1887 1887 1887 1887 1887 1795 1839 1752 1752 1672 1672 1471 1471 1443 1443 1415 1443 1471 1501 1471 1471 1471 1533 1533 1533 1533 1501 1501 1533 1635 1635 1565 1599 1501 1388 1635 1635 1471 1565 1565 1471 1501 1533 1599 1501 1501 1635 1533 1565 1711 1672 1795 1795 1795 1752 1752 1752 1711 1711 0 1672 1672 1599 1672 0 1711 1795 1752 0 0 0 0 0 0 0 0 0 3345 2628 0 0 0 0 1635 1565 1599 1471 1471 1501 1443 1565 1635 1672 1565 0 0 0 1415 0 1443 1362 1291 1338 1338 1314 1314 1338 1415 1314 1338 1635 1533 1501 1533 1635 1599 1672 1711 1711 1711 1635 1752 1752 1635 1565 1314 1268 1268 1226 1226 1388 1415 1362 1314 1247 1247 1268 1247 1247 1268 1268 1268 1291 1314 1338 1314 1362 1388 1362 1338 1314 1314 1187 1168 1149 1051 994 994 943 968 955 968 955 931 919 908 865 908 845 845 836 826 836 836 826 826 808 750 728 707 714 707 0 0 0 0 0 0 0 0 0 618 613 0 0 598 579 566 0 553 553 557 549 537 514 497 507 518 507 481 465 446 457 459 465 462 468 468 471 474 474 477 477 481 487 490 514 541 537 0 0 0 0 0 0 0 0 0 0 0 0
    0 0 0 0 0 0 0 0 0 0 0 0 0 0 0 0 0 0 0 0 0 0 0 0 0 0 0 0 0 0 0 0 0 0 0 0 0 0 0 0 0 0 0 0 0 0 0 0 0 0 0 0 0 0 0 0 0 0 0 0 0 0 0 0 0 0 0 0 0 1936 1839 1795 1887 1887 1936 1936 1936 1887 1887 1887 1936 1887 1887 1887 1795 1795 1752 1795 1752 0 0 0 3 1443 1415 1443 1471 1501 1443 1471 1501 1533 1533 1565 1533 1501 1471 1533 1635 1565 1501 1533 1471 1388 1635 1635 1471 1565 1565 1471 1533 1533 1599 1533 1501 1635 1565 1599 1711 1711 1795 1795 1752 1752 1711 1752 1672 1672 1599 1565 1565 1565 1635 1672 1672 1711 1672 1635 1415 1795 0 0 0 0 3504 3345 3199 2725 2628 0 0 0 0 1672 1599 1471 1415 1415 1362 1362 1415 0 0 0 0 0 1443 0 1443 1388 1291 1338 1338 1314 1338 1338 1415 1314 1338 1635 1533 1501 1501 1565 1565 1635 1635 1635 1635 1635 1711 1752 1672 1599 1415 1291 1291 1168 1291 1388 1443 1362 1314 1247 1268 1268 1247 1247 1268 1268 1268 1291 1291 1314 1291 1338 1338 1338 1338 1291 1314 1206 1206 1168 1082 1022 1008 968 981 968 981 968 943 931 919 865 897 845 836 826 826 836 836 826 826 808 750 728 707 714 707 0 0 0 0 0 0 0 0 0 618 0 0 0 0 0 0 0 0 0 545 533 514 490 484 484 490 487 477 468 457 465 468 471 471 474 471 474 474 477 477 477 481 484 477 504 0 525 0 0 0 0 7359 0 7359 0 0 0 0 0
    0 0 0 0 0 0 0 0 0 0 0 0 0 0 0 0 0 0 0 0 0 0 0 0 0 0 0 0 0 0 0 0 0 0 0 0 0 0 0 0 0 0 0 0 0 0 0 0 0 0 0 0 0 0 0 0 0 0 0 0 0 0 0 0 0 0 0 0 0 1936 1887 1795 1887 1936 1989 1989 1989 1936 1887 1936 1936 1936 1887 1887 1839 1839 1795 1839 1752 1752 1599 1599 1599 1501 1471 1501 1501 1533 1471 1501 1533 1533 1533 1533 1533 1471 1471 1533 1599 1471 1443 1501 1471 1388 1599 1599 1471 1565 1565 1501 1533 1565 1635 1533 1533 1672 1599 1635 1711 1752 1795 1795 1752 1711 1711 1711 1635 1635 1565 1533 1565 1565 1635 1672 1635 1635 1599 1565 1443 1599 1599 0 0 0 3345 3066 3066 2725 2537 0 0 0 0 1672 1599 1471 1362 1362 1291 1268 1291 1338 1338 0 1635 1362 1443 1314 1443 1388 1314 1338 1338 1338 1338 1338 1415 1314 1338 1599 1471 1471 1471 1501 1471 1501 1533 1533 1533 1565 1635 1711 1711 1672 1565 1314 1388 1206 1338 1415 1443 1362 1291 1247 1268 1268 1247 1247 1247 1247 1268 1268 1268 1268 1268 1268 1291 1268 1291 1268 1291 1226 1206 1206 1115 1051 1036 994 994 994 994 981 968 955 931 876 897 845 836 826 826 836 836 826 826 808 743 728 700 714 707 0 0 0 0 0 0 0 0 0 0 0 0 0 0 0 0 471 474 490 529 504 500 490 481 481 484 481 477 468 462 468 471 474 474 477 474 477 477 481 477 481 481 481 477 0 0 0 0 0 0 0 9199 0 0 0 0 0 0 0
    0 0 0 0 0 0 0 0 0 0 0 0 0 0 0 0 0 0 0 0 0 0 0 0 0 0 0 0 0 0 0 0 0 0 0 0 0 0 0 0 0 0 0 0 0 0 0 0 0 0 0 0 0 0 0 0 0 0 0 0 0 0 0 0 0 0 0 0 0 2164 1936 1752 1887 1936 1989 1989 2044 1936 1887 1936 1989 1989 1936 1936 1887 1839 1795 1795 1711 1711 1599 1599 1599 1501 1501 1501 1501 1533 1443 1501 1533 1501 1501 1533 1501 1471 1471 1533 1533 1415 1388 1471 1443 1362 1565 1565 1471 1565 1565 1533 1533 1599 1672 1599 1565 1711 1672 1672 1752 1752 1795 1752 1711 1672 1711 1711 1635 1599 1533 1501 1533 1565 1599 1635 1533 1565 1565 1501 1443 1533 1471 1501 0 0 0 0 0 2628 0 0 0 0 0 1711 1635 1471 1388 1388 1338 1314 1314 1388 1362 1415 1501 1362 1415 1314 1443 1388 1314 1338 1338 1338 1338 1338 1415 1314 1338 1599 1471 1471 1471 1501 1501 1501 1533 1565 1565 1565 1599 1711 1672 1672 1635 1711 1415 1168 1338 1388 1388 1314 1226 1247 1268 1268 1247 1247 1268 1247 1268 1268 1268 1247 1226 1247 1247 1206 1226 1226 1247 1206 1206 1206 1149 1082 1051 1008 1008 1008 1008 994 981 968 943 876 908 845 836 836 826 836 836 817 826 799 728 721 0 0 0 0 0 0 0 0 0 0 0 525 0 521 0 465 448 474 474 471 471 477 484 484 487 484 477 477 481 477 471 468 468 471 474 477 481 484 484 487 487 484 481 481 477 481 471 0 0 0 0 0 0 0 0 0 0 0 0 0 0 0
    0 0 0 0 0 0 0 0 0 0 0 0 0 0 0 0 0 0 0 0 0 0 0 0 0 0 0 0 0 0 0 0 0 0 0 0 0 0 0 0 0 0 0 0 0 0 0 0 0 0 0 0 0 0 0 0 0 0 0 0 0 0 0 0 0 0 0 0 0 1989 1839 1565 1752 1752 1887 1936 1936 1887 1839 1839 1887 1887 1839 1839 1795 1752 1752 1795 1711 1752 1672 1672 1672 1599 1599 1565 1565 1565 1471 1501 1533 1501 1501 1501 1501 1443 1471 1501 1471 1388 1388 1471 1415 1362 1533 1533 1443 1533 1533 1565 1565 1635 1672 1635 1635 1752 1711 1711 1752 1752 1795 1711 1672 1635 1672 1635 1565 1533 1471 1443 1501 1565 1599 1599 1501 1565 1565 1501 1501 1533 1501 1501 0 1635 0 0 0 2725 2374 2102 0 1795 1887 1752 1635 1501 1415 1415 1415 1415 1362 1471 1415 1471 1533 1388 1415 1314 1415 1388 1291 1338 1338 1338 1338 1338 1388 1314 1338 1599 1471 1471 1471 1501 1501 1471 1501 1533 1533 1565 1599 1672 1635 1635 1672 1795 1388 1247 1338 1338 1362 1314 1187 1247 1291 1291 1247 1247 1268 1247 1268 1247 1247 1206 1187 1206 1206 1168 1187 1187 1226 1206 1187 1226 1187 1132 1082 1036 1036 1022 1022 1008 981 981 943 886 908 855 845 836 826 826 826 817 826 791 714 0 0 0 687 0 0 0 0 0 0 0 0 514 493 504 490 474 459 474 471 471 471 474 474 477 477 481 474 474 474 474 468 468 474 477 477 484 487 490 490 493 493 497 490 490 487 487 468 0 0 0 0 0 0 0 0 0 0 0 0 0 0 0
    0 0 0 0 0 0 0 0 0 0 0 0 0 0 0 0 0 0 0 0 0 0 0 0 0 0 0 0 0 0 0 0 0 0 0 0 0 0 0 0 0 0 0 0 0 0 0 0 0 0 0 0 0 0 0 0 0 0 0 0 0 0 0 0 0 0 0 0 0 1752 1635 1388 1565 1672 1795 1887 1936 1839 1795 1795 1839 1795 1752 1795 1752 1711 1752 1752 1711 1711 1672 1635 1635 1565 1599 1599 1565 1533 1471 1501 1533 1471 1471 1443 1443 1415 1443 1471 1415 1388 1388 1471 1415 1338 1501 1501 1415 1533 1533 1565 1565 1672 1711 1672 1672 1795 1795 1711 1752 1752 1752 1711 1635 1635 1672 1599 1565 1501 1443 1443 1501 1599 1635 1599 1501 1599 1599 1533 1533 1565 1501 1533 1565 1635 1711 0 0 2628 2299 2044 0 1795 1887 1795 1672 1501 1415 1443 1533 1599 1415 1565 1471 1565 1599 1443 1415 1314 1415 1388 1291 1314 1314 1314 1338 1338 1388 1314 1338 1599 1471 1471 1471 1501 1501 1501 1501 1533 1533 1599 1599 1672 1635 1635 1672 1839 1501 1338 1362 1362 1388 1314 1187 1268 1291 1291 1268 1268 1268 1268 1268 1247 1226 1187 1168 1187 1187 1168 1149 1149 1206 1187 1149 1206 1187 1132 1082 1036 1036 1036 1022 1008 994 981 943 876 876 845 836 836 826 826 826 817 826 774 700 0 0 507 0 0 0 0 521 525 0 0 0 514 497 511 511 484 471 477 474 474 477 477 474 471 471 477 471 474 474 468 465 465 474 477 481 487 490 493 490 500 514 521 518 529 525 497 468 0 0 0 0 0 0 0 0 0 0 0 0 0 0 0
    0 0 0 0 0 0 0 0 0 0 0 0 0 0 0 0 0 0 0 0 0 0 0 0 0 0 0 0 0 0 0 0 0 0 0 0 0 0 0 0 0 0 0 0 0 0 0 0 0 0 0 0 0 0 0 0 0 0 0 0 0 0 0 0 0 0 0 0 0 1565 1443 1362 1415 1415 1471 1887 1887 1711 1711 1672 1752 1711 1711 1711 1711 1672 1711 1752 1752 1752 1711 1672 1711 1635 1672 1635 1599 1565 1471 1533 1501 1443 1443 1415 1415 1443 1471 1501 1415 1415 1415 1471 1443 1362 1501 1501 1415 1501 1533 1565 1565 1672 1711 1672 1672 1795 1795 1711 1752 1752 1752 1711 1635 1635 1672 1565 1565 1533 1443 1443 1533 1635 1635 1565 1501 1565 1565 1501 1533 1533 1471 1501 1599 1635 1635 1711 0 0 0 0 0 1795 1936 0 1672 1471 1362 1415 1565 1635 1443 1599 1533 1599 1635 1533 1443 1314 1415 1388 1291 1314 1314 1314 1338 1314 1388 1291 1314 1599 1443 1471 1471 1533 1565 1565 1533 1599 1599 1599 1635 1672 1635 1635 1635 1752 1565 1388 1443 1388 1415 1314 1187 1268 1291 1291 1291 1291 1268 1268 1268 1226 1226 1187 1168 1168 1168 1149 1132 1115 1187 1132 1115 1098 1098 1082 1066 1036 1036 1036 1022 1008 1008 1008 955 876 876 845 836 836 826 826 826 817 826 750 669 0 0 507 0 514 500 511 521 525 525 0 0 514 500 514 514 490 477 481 474 477 477 477 474 471 468 477 471 477 474 471 468 471 487 487 487 490 493 493 493 504 514 0 0 0 521 493 457 0 0 364 0 0 397 0 0 0 0 0 0 0 0 0
    0 0 0 0 0 0 0 0 0 0 0 0 0 0 0 0 0 0 0 0 0 0 0 0 0 0 0 0 0 0 0 0 0 0 0 0 0 0 0 0 0 0 0 0 0 0 0 0 0 0 0 0 0 0 0 0 0 0 0 0 0 0 0 0 0 0 0 0 0 1471 1415 1388 1443 1415 1388 1795 1887 1672 1635 1635 1752 1672 1635 1672 1672 1599 1672 1711 1711 1711 1711 1711 1711 1635 1635 1635 1599 1565 1471 1501 1471 1443 1443 1415 1388 1415 1471 1501 1415 1443 1443 1501 1443 1388 1501 1501 1415 1501 1501 1565 1565 1635 1711 1635 1635 1752 1752 1711 1711 1711 1711 1711 1635 1635 1635 1533 0 0 0 1443 1501 1599 1635 1501 1501 1565 1533 1501 1533 1565 1501 1533 1635 1672 1635 0 0 0 0 0 0 0 0 0 1711 1599 1338 1443 1635 1672 1443 1599 1565 1635 1672 1599 1471 1314 1415 1388 1291 1338 1314 1314 1338 1338 1388 1291 1291 1599 1443 1443 1471 1471 1565 1565 1533 1565 1599 1599 1599 1635 1635 1599 1635 1711 1565 1388 1501 1388 1443 1338 1187 1268 1291 1291 1268 1268 1247 1247 1268 1226 1206 1187 1168 1168 1149 1168 1132 1115 1168 1149 1098 1066 1066 1051 1051 1036 1051 1051 1036 1022 1022 1022 981 897 876 855 836 826 817 817 817 808 808 728 634 0 0 514 514 514 504 511 518 518 514 0 518 500 493 500 500 487 481 484 477 477 481 477 477 471 471 481 477 481 481 477 474 487 500 493 490 493 497 497 493 511 0 529 511 511 497 484 448 0 387 0 0 0 402 0 0 0 0 0 0 0 0 0
    0 0 0 0 0 0 0 0 0 0 0 0 0 0 0 0 0 0 0 0 0 0 0 0 0 0 0 0 0 0 0 0 0 0 0 0 0 0 0 0 0 0 0 0 0 0 0 0 0 0 0 0 0 0 0 0 0 0 0 0 0 0 0 0 0 0 0 0 0 1443 1415 1388 1443 1443 1415 1672 1839 1565 1599 1599 1672 1565 1533 1599 1599 1533 1599 1635 1635 1672 1672 1711 1672 1635 1635 1635 1565 1565 1471 1501 1471 1471 1443 1415 1388 1443 1471 1501 1443 1471 1443 1501 1471 1388 1533 1533 1443 1501 1533 1565 1565 1599 1672 1599 1565 1711 1672 1599 1635 1635 1672 1635 1599 1599 1635 1533 0 0 0 0 1471 1635 1635 1501 1533 1565 1533 1533 1565 1565 1533 1533 1635 1635 1635 0 0 0 0 0 0 0 0 0 1795 0 1362 1533 1672 0 1471 1635 1599 1672 1672 1672 1533 1338 1443 1415 1291 1338 1338 1314 1338 1338 1388 1291 1291 1599 1443 1471 1501 1471 1565 1533 1533 1565 1565 1565 1565 1599 1599 1565 1599 1635 1501 1415 1443 1362 1415 1314 1168 1268 1291 1268 1268 1268 1247 1247 1268 1226 1206 1187 1187 1168 1149 1168 1132 1115 1149 1132 1082 0 0 0 1022 1022 1022 1036 1022 1008 1022 1022 968 876 855 836 826 817 799 791 799 799 0 0 0 533 497 514 514 518 507 507 514 514 507 0 500 493 487 490 493 484 477 481 477 477 477 477 474 471 471 477 474 484 0 481 468 0 500 493 490 493 497 497 500 514 518 514 490 484 481 474 446 427 0 0 413 418 408 0 0 0 0 0 0 0 0 0
    0 0 0 0 0 0 0 0 0 0 0 0 0 0 0 0 0 0 0 0 0 0 0 0 0 0 0 0 0 0 0 0 0 0 0 0 0 0 0 0 0 0 0 0 0 0 0 0 0 0 0 0 0 0 0 0 0 0 0 0 0 0 0 0 0 0 0 0 0 1443 1443 1388 1443 1415 1362 1565 1795 1415 1501 1501 1635 1501 1501 1533 1533 1501 1565 1565 1565 1599 1672 1672 1635 1599 1565 1599 1565 1533 1471 1471 1471 1471 1443 1415 1388 1443 1471 1471 1443 1471 1443 1501 1471 1415 1533 1533 1443 1501 1501 1533 1533 1565 1672 1533 1533 1672 1599 1565 1565 1599 1635 1599 1565 1599 1635 1533 0 0 0 0 1471 1672 1672 1471 1533 1565 1533 1533 1565 1565 1533 1533 1599 1599 1599 1635 0 0 0 0 0 1711 1635 0 0 0 0 0 0 0 1501 1635 1599 1635 1635 1672 1533 1338 1443 1415 0 1338 1338 1314 1338 1338 1388 1291 1291 1635 1415 1443 1471 1443 1501 1471 1471 1501 1501 1501 1501 1501 1565 1501 1565 1565 1443 1388 1501 1338 1338 1314 1149 1268 1291 1268 1268 1268 1247 1268 1268 1226 1206 1206 1187 1187 1168 1187 1149 1115 1149 1168 1066 0 0 994 994 981 981 1008 981 943 1008 1008 968 886 886 865 865 845 826 817 817 817 0 0 0 541 493 514 514 514 504 504 511 511 504 511 493 490 490 497 500 490 481 484 477 477 481 477 474 471 471 477 474 0 0 477 459 0 504 493 493 497 500 504 511 521 518 507 490 484 477 468 443 430 430 430 427 427 420 422 425 0 0 0 0 0 0 0
    0 0 0 0 0 0 0 0 0 0 0 0 0 0 0 0 0 0 0 0 0 0 0 0 0 0 0 0 0 0 0 0 0 0 0 0 0 0 0 0 0 0 0 0 0 0 0 0 0 0 0 0 0 0 0 0 0 0 0 0 0 0 0 0 0 0 0 0 0 1471 1443 1388 1415 1415 1338 1599 0 1415 1471 1471 1599 1501 1501 1533 1533 1501 1533 1533 1533 1565 1635 1599 1565 1565 1565 1565 1565 1533 1471 1471 1471 1471 1415 1415 1388 1443 1471 1501 1471 1501 1471 1501 1501 1415 1533 1533 1443 1501 1501 1533 1533 1565 1672 1533 1533 1672 1599 1533 1565 1565 1599 1565 1565 1565 1565 1443 0 0 0 0 1533 1711 1711 1471 1533 1565 1533 1533 1565 1565 1501 1501 1599 1565 1565 1565 1565 1565 0 0 1565 1599 1501 1338 0 0 0 0 0 0 1533 1635 1599 1635 1635 1672 1533 1362 1471 1415 0 1338 1338 1314 1338 1338 1388 1291 1291 1635 1415 1415 1443 1415 1415 1415 1415 1443 1471 1443 1443 1471 1533 1501 1533 1565 1471 1415 1599 1415 1268 1226 1098 1247 1268 1247 1247 1268 1226 1247 1268 1226 1187 1206 1187 1187 1168 1187 1149 1098 1132 1168 1066 1008 981 943 897 897 886 886 886 845 876 943 943 897 0 0 886 0 0 0 0 0 0 0 0 541 490 511 511 511 504 504 504 504 500 504 490 490 490 493 497 490 484 487 481 484 484 481 477 471 474 481 474 484 0 0 471 0 500 487 490 497 497 500 504 518 504 493 484 468 454 446 438 418 406 404 406 406 408 418 420 0 0 0 0 0 0 0
    0 0 0 0 0 0 0 0 0 0 0 0 0 0 0 0 0 0 0 0 0 0 0 0 0 0 0 0 0 0 0 0 0 0 0 0 0 0 0 0 0 0 0 0 0 0 0 0 0 0 0 0 0 0 0 0 0 0 0 0 0 0 0 0 0 0 0 0 0 1471 1443 1415 1415 1471 1388 1672 1752 1415 1471 1443 1565 1471 1471 1501 1471 1443 1471 1471 1501 1501 1565 1533 1501 1533 1533 1565 1533 1501 1471 1443 1443 1471 1415 1388 1388 1443 1471 1471 1501 1533 1501 1501 1533 1443 1533 1565 1471 1533 1533 1565 1565 1599 1711 1565 1533 1672 1599 1533 1565 1565 1565 1533 1533 1565 1471 1362 0 0 0 0 0 0 1672 1443 1565 1599 1533 1533 1565 1565 1501 1501 1599 1565 1533 1565 1533 1501 1471 1471 1533 1533 1415 1291 0 0 0 157 157 0 1599 1672 1635 1672 1672 1711 1533 1362 1471 1415 0 1338 1338 1338 1338 1338 1415 1291 1291 1672 1471 1443 1471 1415 1388 1388 1388 1415 1443 1415 1415 1443 1471 1501 1533 1533 1471 1443 1635 1443 1314 1206 1051 1206 1226 1168 1168 1226 1187 1226 1247 1206 1187 1187 1206 1187 1168 0 0 1098 1115 1149 1036 994 955 886 865 855 845 0 0 0 0 0 0 0 0 0 0 0 0 657 603 570 0 0 533 533 487 511 507 511 507 507 504 504 500 511 487 487 490 493 493 490 484 484 477 477 477 477 471 465 465 474 474 484 490 484 474 0 500 484 0 484 487 487 487 504 484 474 462 451 443 438 430 415 404 399 395 397 399 404 406 404 0 0 0 0 0 0
    0 0 0 0 0 0 0 0 0 0 0 0 0 0 0 0 0 0 0 0 0 0 0 0 0 0 0 0 0 0 0 0 0 0 0 0 0 0 0 0 0 0 0 0 0 0 0 0 0 0 0 0 0 0 0 0 0 0 0 0 0 0 0 0 0 0 0 0 0 1415 1415 1388 1415 1443 1388 1672 1711 1388 1471 1443 1501 1415 1471 1501 1471 1471 1471 1471 1533 1533 1599 1533 1501 1533 1533 1565 1533 1501 1471 1443 1443 1471 1415 1388 1388 1443 1471 1471 1533 1565 1533 1501 1565 1443 1533 1565 1501 1533 1533 1565 1565 1599 1711 1565 1533 1672 1565 1533 1565 1565 1565 1533 1565 1599 1443 0 0 0 0 0 0 1711 1672 1443 1565 1599 1533 1533 1565 1565 1533 1501 1599 1533 1501 1565 1501 1501 1471 1443 1501 1533 1388 1291 0 0 0 157 0 0 1635 1672 1672 1672 1672 1711 1565 1362 1501 1415 0 1338 1338 1338 1338 1362 1415 1291 1291 1711 1501 1501 1471 1415 1388 1388 1362 1415 1415 1388 1415 1415 1443 1471 1501 1501 1471 1471 1635 1501 1415 1291 1051 1051 1098 1051 1082 1168 0 0 1247 0 1187 1206 1206 1187 1168 1206 1149 1082 1115 1132 1022 943 897 876 0 845 0 0 0 0 0 364 359 0 0 0 0 0 651 0 593 561 537 525 500 525 487 511 507 504 500 500 497 497 493 500 477 474 484 490 490 487 481 481 474 477 477 477 471 465 465 471 471 484 490 484 471 471 490 477 471 459 468 462 465 477 462 448 446 440 438 435 430 420 408 402 397 399 404 406 406 404 402 0 0 0 0 0</data></depth>
</opencv_storage>
