<?xml version="1.0"?>
<opencv_storage>
<gps_time_stamp>316691</gps_time_stamp>
<gps_x>-1.2430944442749023e+001</gps_x>
<gps_y>1.0958026885986328e+001</gps_y>
<gps_z>-1.9939370155334473e+000</gps_z>
<image_time_stamp>307560</image_time_stamp>
<depth type_id="opencv-matrix">
  <rows>80</rows>
  <cols>320</cols>
  <dt>s</dt>
  <data>
    0 0 0 0 0 0 0 0 0 0 0 0 0 0 0 0 0 0 0 0 0 0 0 0 0 0 0 0 0 0 0 0 0 0 0 0 0 0 0 0 0 0 0 0 0 0 0 0 0 0 0 0 0 0 0 0 0 0 0 0 0 0 0 0 0 0 0 0 0 1206 1187 1187 1187 1187 1168 1168 1149 1132 1168 1168 1132 1149 1132 1149 1168 1132 1149 1149 1149 1149 1149 1168 1168 1149 1149 1149 1149 1115 1149 1149 1149 1149 1149 1187 1206 1206 1247 1226 1247 1268 1247 1268 1314 1314 1362 1388 1388 1338 1338 1362 1388 0 0 0 0 0 0 0 0 0 0 0 0 0 0 0 0 0 0 0 0 0 0 0 0 0 0 0 0 0 0 0 0 6133 8177 0 0 7359 7359 8177 7359 5256 5661 5661 5256 4599 6133 5661 5661 6133 6133 6133 6133 6690 7359 6690 7359 7359 7359 0 0 0 0 0 0 0 0 1989 2044 2044 1887 2164 2164 1989 2102 2044 0 0 0 1839 1711 1672 1711 1501 1415 1388 1291 1268 1247 1187 1206 1187 1187 1168 1115 1187 1098 1115 1149 1008 981 968 955 931 865 855 845 845 826 855 855 855 845 0 826 799 0 102 102 101 101 101 0 0 0 387 0 0 0 0 0 634 613 629 629 639 593 0 0 0 0 0 0 0 0 0 0 0 0 521 0 514 0 0 507 497 0 0 474 465 462 459 457 448 451 446 446 440 0 0 2830 0 430 425 422 415 413 406 404 0 397 397 393 391 391 387 389 377 371 371 375 377 373 369 364 0 0 0 0 0
    0 0 0 0 0 0 0 0 0 0 0 0 0 0 0 0 0 0 0 0 0 0 0 0 0 0 0 0 0 0 0 0 0 0 0 0 0 0 0 0 0 0 0 0 0 0 0 0 0 0 0 0 0 0 0 0 0 0 0 0 0 0 0 0 0 0 0 0 0 1206 1187 1187 1168 1187 1168 1168 1149 1132 1168 1168 1149 1168 1132 1149 1168 1132 1149 1149 1149 1149 1149 1168 1168 1149 1149 1149 1149 1132 1149 1168 1149 1149 1149 1187 1206 1206 1226 1226 1247 1268 1268 1268 1314 1338 1362 1388 1388 1338 1338 1338 1362 0 0 0 0 0 0 0 0 0 0 0 0 0 0 0 0 0 0 0 0 0 0 0 0 0 0 0 0 0 0 0 5256 5661 7359 7359 8177 6133 6133 6690 6133 5256 5661 5661 5661 5256 6133 6133 6133 6133 6690 6133 6133 6690 6690 6690 6690 6133 6690 8177 9199 0 0 0 0 0 0 2044 2102 2102 1887 2164 2164 1989 2102 2102 0 0 0 1887 1752 1711 1752 1501 1415 1388 1291 1268 1247 1168 1187 1187 1187 1168 1115 1187 1098 1098 1132 1008 994 968 968 931 865 855 855 855 836 865 865 865 855 0 0 808 0 102 102 101 101 101 0 0 0 387 0 0 0 0 0 629 608 629 623 0 584 0 0 0 0 0 0 0 0 0 0 0 0 521 525 518 0 0 514 500 0 0 0 468 465 462 459 451 451 446 446 440 0 0 2830 0 0 425 422 415 413 406 404 0 399 399 395 393 391 387 389 379 371 371 375 377 373 369 364 0 0 0 0 0
    0 0 0 0 0 0 0 0 0 0 0 0 0 0 0 0 0 0 0 0 0 0 0 0 0 0 0 0 0 0 0 0 0 0 0 0 0 0 0 0 0 0 0 0 0 0 0 0 0 0 0 0 0 0 0 0 0 0 0 0 0 0 0 0 0 0 0 0 0 1206 1187 1187 1168 1187 1168 1168 1149 1132 1168 1168 1149 1168 1132 1149 1187 1132 1149 1149 1149 1168 1132 1168 1168 1149 1149 1149 1132 1132 1149 1168 1149 1132 1149 1187 1206 1206 1226 1226 1247 1247 1268 1268 1338 1338 1362 1388 1388 1338 1338 1338 1338 1415 0 0 0 0 0 0 0 0 0 0 0 0 0 0 0 0 0 0 0 0 0 0 0 0 0 0 0 0 0 0 5256 6133 8177 8177 0 7359 7359 7359 6690 6133 6133 6133 6133 5256 6133 6133 6133 6133 6133 6133 5661 6133 6690 6133 6133 5661 6133 6690 6690 6690 4906 3679 3345 3066 2628 2164 2164 2164 1887 2102 2102 1936 2044 2044 0 0 0 1887 1752 1711 1752 1501 1388 1362 1268 1268 1226 1168 1187 1168 1168 1149 1115 1168 1082 1082 1115 1008 994 981 981 931 865 865 855 855 836 876 876 876 865 0 0 817 0 102 102 101 101 101 0 0 0 0 0 681 0 663 645 629 613 629 623 634 584 0 0 0 561 0 0 0 0 0 0 0 0 521 525 518 0 0 518 504 0 0 0 0 468 465 462 451 451 446 446 0 0 0 0 432 0 425 422 418 415 408 406 408 399 399 395 393 393 389 391 381 373 371 375 379 373 369 364 0 0 0 0 0
    0 0 0 0 0 0 0 0 0 0 0 0 0 0 0 0 0 0 0 0 0 0 0 0 0 0 0 0 0 0 0 0 0 0 0 0 0 0 0 0 0 0 0 0 0 0 0 0 0 0 0 0 0 0 0 0 0 0 0 0 0 0 0 0 0 0 0 0 0 1187 1168 1187 1168 1187 1168 1168 1168 1149 1187 1187 1149 1168 1132 1149 1187 1132 1149 1168 1149 1168 1132 1168 1187 1149 1132 1149 1132 1132 1149 1168 1149 1132 1149 1187 1206 1206 1226 1226 1226 1247 1268 1268 1314 1338 1362 1388 1388 1338 1338 1338 1338 1388 0 0 0 0 0 0 0 0 0 0 0 0 0 0 0 0 0 0 0 0 0 0 0 0 0 0 0 0 0 0 5256 5661 7359 7359 8177 6690 6690 6133 6133 5661 5661 5661 5661 5256 5661 5661 6133 5661 5661 5661 5661 6133 6690 6133 6133 5661 6690 7359 7359 7359 5661 4906 4329 3504 2943 2230 2164 2164 1887 2044 2044 1936 1989 1989 1936 1887 1887 1839 1711 1672 1711 1501 1388 1362 1268 1247 1226 1168 1187 1168 1168 1149 1115 1168 1082 1066 1098 1008 994 981 968 919 865 865 865 855 845 876 876 876 865 0 836 826 0 0 766 101 0 0 735 0 0 721 694 681 0 675 0 634 623 634 629 0 588 0 0 0 561 0 0 0 0 0 0 0 0 521 0 0 0 0 521 507 0 0 0 474 471 468 465 448 451 446 446 0 0 0 0 0 0 425 422 418 415 408 406 411 402 402 395 393 393 389 391 383 371 371 377 381 373 369 362 0 0 0 0 0
    0 0 0 0 0 0 0 0 0 0 0 0 0 0 0 0 0 0 0 0 0 0 0 0 0 0 0 0 0 0 0 0 0 0 0 0 0 0 0 0 0 0 0 0 0 0 0 0 0 0 0 0 0 0 0 0 0 0 0 0 0 0 0 0 0 0 0 0 0 1187 1168 1187 1168 1187 1168 1187 1168 1149 1187 1187 1168 1187 1132 1149 1187 1149 1168 1168 1149 1168 1132 1168 1187 1149 1132 1149 1132 1149 1149 1168 1149 1132 1168 1187 1206 1206 1206 1226 1247 1247 1268 1247 1314 1314 1338 1362 1362 1338 1338 1338 1338 1362 1415 0 0 0 0 0 0 0 0 0 0 0 0 0 0 0 0 0 0 0 0 0 0 0 0 0 0 0 0 0 5256 4906 6690 7359 7359 7359 6690 6690 6690 6133 6133 6133 5661 5256 5661 5661 6133 5661 5661 5661 5256 6133 6690 6133 5661 5661 6690 7359 6690 6690 5661 5661 4906 3873 3066 2299 2230 2230 1887 1989 2044 1936 1936 1936 1887 1839 1839 1839 1711 1672 1672 1533 1388 1362 1268 1247 1247 1168 1187 1168 1149 1168 1115 1168 1082 1082 1098 1008 994 994 968 931 865 865 865 865 845 876 876 876 865 845 836 826 791 0 766 0 0 728 735 714 721 728 694 687 707 687 0 0 634 639 0 0 0 0 0 0 557 0 0 0 0 0 0 0 0 525 0 0 0 0 525 511 0 0 0 0 471 468 465 448 451 448 446 0 0 0 0 0 0 425 422 420 418 411 406 411 402 402 397 395 395 391 393 385 369 369 375 379 371 367 360 0 0 0 0 0
    0 0 0 0 0 0 0 0 0 0 0 0 0 0 0 0 0 0 0 0 0 0 0 0 0 0 0 0 0 0 0 0 0 0 0 0 0 0 0 0 0 0 0 0 0 0 0 0 0 0 0 0 0 0 0 0 0 0 0 0 0 0 0 0 0 0 0 0 0 1187 1168 1187 1168 1187 1168 1187 1168 1168 1187 1206 1168 1187 1132 1149 1187 1149 1168 1168 1149 1168 1132 1168 1187 1149 1132 1149 1132 1149 1149 1168 1149 1149 1168 1187 1206 1206 1206 1206 1226 1247 1268 1247 1314 1291 1314 1362 1338 1314 1338 1338 1338 1362 1443 1501 0 0 0 0 0 0 0 0 0 0 0 0 0 0 0 0 0 0 0 0 0 0 0 0 0 0 0 0 5256 4906 6133 6690 7359 7359 7359 6690 6690 6690 6690 6690 6133 6133 6133 6133 6690 6133 5661 6133 5661 6133 6133 6133 6133 5661 6133 6690 6133 6690 6133 6133 5256 4329 3199 2374 0 2374 1936 1936 1989 1887 1887 1887 1839 1839 1795 1795 1711 1635 1672 1533 1362 1362 1247 1247 1247 1168 1187 1168 1149 1149 1115 1168 1082 1082 1098 1022 1008 994 981 943 865 886 876 876 855 876 876 876 865 845 826 826 791 0 766 0 0 735 743 714 721 728 694 687 707 0 0 0 0 645 0 0 0 593 584 561 561 0 0 0 0 0 0 0 0 525 0 0 0 0 0 0 0 100 0 0 471 468 0 451 451 448 0 0 0 0 0 0 0 425 422 420 418 411 408 413 402 404 397 395 395 391 393 385 367 369 375 379 369 366 359 0 0 0 0 0
    0 0 0 0 0 0 0 0 0 0 0 0 0 0 0 0 0 0 0 0 0 0 0 0 0 0 0 0 0 0 0 0 0 0 0 0 0 0 0 0 0 0 0 0 0 0 0 0 0 0 0 0 0 0 0 0 0 0 0 0 0 0 0 0 0 0 0 0 0 1187 1187 1206 1187 1206 1187 1187 1187 1187 1206 1226 1187 1206 1132 1168 1187 1149 1168 1168 1168 1187 1149 1168 1187 1149 1132 1149 1132 1149 1149 1168 1168 1149 1187 1206 1206 1226 1206 1226 1226 1247 1268 1247 1291 1268 1291 1338 1338 1314 1338 1362 1388 1415 1501 1565 1599 0 0 0 0 0 0 0 0 0 0 0 0 0 0 0 0 0 0 0 0 0 0 0 0 0 0 0 5256 4906 6133 6690 7359 7359 7359 6690 6690 6690 6690 6690 5661 6133 6133 5661 6690 5661 5661 5661 5661 6133 5661 5661 5661 5256 6133 6690 6133 6133 5661 6133 5661 4906 3504 0 0 2725 1936 1887 1936 1887 1839 1839 1839 1795 1752 1752 1672 1635 1635 1533 1362 1338 1247 1268 1247 1168 1187 1168 1149 1149 1115 1168 1082 1082 1098 1022 1008 994 981 943 876 897 897 886 865 886 886 876 865 845 826 817 782 0 774 102 0 735 743 714 728 728 694 687 707 0 0 0 0 0 0 0 588 588 584 561 561 0 0 0 0 0 0 0 0 525 0 0 0 0 0 0 0 100 100 0 0 0 0 451 0 0 0 0 0 0 0 0 193 425 422 420 418 413 408 415 404 404 399 397 397 393 395 389 367 369 377 385 371 366 359 0 0 0 0 0
    0 0 0 0 0 0 0 0 0 0 0 0 0 0 0 0 0 0 0 0 0 0 0 0 0 0 0 0 0 0 0 0 0 0 0 0 0 0 0 0 0 0 0 0 0 0 0 0 0 0 0 0 0 0 0 0 0 0 0 0 0 0 0 0 0 0 0 0 0 1187 1187 1206 1187 1206 1187 1206 1206 1187 1226 1226 1206 1226 1149 1187 1206 1149 1168 1168 1168 1187 1149 1168 1187 1168 1132 1168 1132 1168 1149 1187 1168 1149 1187 1206 1226 1226 1206 1226 1226 1247 1268 1268 1291 1268 1314 1362 1388 1388 1362 1388 1471 1501 1565 1599 1635 1711 0 0 0 0 0 0 0 0 0 0 0 0 0 0 0 0 0 0 0 0 0 0 0 0 0 0 0 4329 5256 5661 6690 6690 6133 6133 6133 6690 6690 6690 6133 6133 6133 6133 6690 6133 5256 5256 5256 6133 5256 5256 6133 5256 6133 6690 6133 5661 5661 6133 5256 4599 3873 0 0 2943 2102 1989 1989 1887 1839 1839 1839 1795 1752 1752 1672 1635 1599 1533 1362 1338 1247 1268 1247 1187 1187 1168 1149 1149 1115 1168 1082 1082 1098 1022 1008 994 981 955 886 919 919 908 865 886 886 886 865 845 817 817 782 799 774 102 0 0 743 721 728 728 694 687 0 0 681 0 0 0 0 0 588 588 579 566 561 549 0 0 0 0 0 0 0 529 0 0 0 0 0 0 0 0 100 0 0 0 0 451 0 0 0 0 0 0 0 0 193 425 422 420 418 413 408 415 406 406 399 397 399 395 397 391 371 371 381 389 375 367 360 0 0 0 0 0
    0 0 0 0 0 0 0 0 0 0 0 0 0 0 0 0 0 0 0 0 0 0 0 0 0 0 0 0 0 0 0 0 0 0 0 0 0 0 0 0 0 0 0 0 0 0 0 0 0 0 0 0 0 0 0 0 0 0 0 0 0 0 0 0 0 0 0 0 0 1187 1206 1206 1206 1226 1187 1206 1206 1206 1226 1247 1206 1226 1168 1187 1206 1168 1168 1187 1168 1206 1168 1187 1187 1168 1132 1168 1132 1168 1149 1187 1187 1149 1187 1206 1226 1247 1226 1226 1226 1247 1268 1268 1291 1268 1291 1362 1362 1415 1388 1415 1533 1599 1635 1672 1711 1752 0 0 0 0 0 0 0 0 0 0 0 0 0 0 0 0 0 0 0 0 0 0 0 0 0 0 0 4599 4329 4599 5661 6690 6133 6133 6133 6690 6690 7359 6133 6690 6133 6133 6690 5661 5256 4906 5256 6133 4906 5256 5661 5256 5661 6133 6690 5661 6133 6133 5256 5256 4088 3199 3199 3066 2230 2102 2102 1936 1839 1839 1839 1752 1752 1752 1635 1599 1565 1501 1314 1314 1226 1247 1226 1168 1187 1149 1132 1149 1115 1168 1082 1082 1115 1022 1008 1008 994 955 886 919 919 919 865 876 876 876 855 836 817 808 774 791 766 102 0 0 743 721 728 728 694 687 0 0 681 0 0 645 618 0 588 588 579 566 566 553 553 0 0 0 0 0 0 529 0 0 0 0 0 0 0 0 0 0 0 0 0 454 0 0 443 0 0 0 0 0 193 425 422 420 418 413 408 415 406 406 402 399 399 395 397 393 379 375 385 391 381 367 360 0 0 0 0 0
    0 0 0 0 0 0 0 0 0 0 0 0 0 0 0 0 0 0 0 0 0 0 0 0 0 0 0 0 0 0 0 0 0 0 0 0 0 0 0 0 0 0 0 0 0 0 0 0 0 0 0 0 0 0 0 0 0 0 0 0 0 0 0 0 0 0 0 0 0 1187 1206 1206 1206 1226 1187 1226 1226 1226 1226 1247 1226 1247 1187 1206 1206 1187 1187 1206 1187 1226 1187 1206 1206 1187 1149 1168 1132 1168 1149 1168 1187 1149 1187 1206 1226 1247 1226 1226 1226 1247 1268 1268 1291 1268 1268 1291 1314 1415 1415 1443 1565 1672 1672 1752 1752 1795 1887 0 0 0 0 0 0 0 0 0 0 0 0 0 0 0 0 0 0 0 0 0 0 0 0 0 5661 4599 3873 4329 5256 6133 6133 5661 6133 6133 6133 6690 6133 6690 6133 5661 6133 5661 5661 4906 5256 5661 4906 4906 5661 4906 5256 5661 6133 5256 5661 5661 5256 5256 4088 3504 3345 3066 2453 2164 2164 1936 0 1795 1795 1711 1672 1672 1599 1565 1533 1501 1291 1291 1206 1226 1226 1168 1168 1149 1132 1168 1115 1168 1082 1082 1115 1022 1022 1008 994 955 886 931 931 919 865 876 865 865 855 826 808 799 766 791 766 102 0 0 743 721 721 728 694 687 0 0 681 0 639 639 618 603 593 588 579 570 570 553 557 0 0 0 0 0 0 0 0 0 0 0 0 0 0 0 0 0 0 0 0 454 451 451 443 443 0 0 0 0 0 425 422 420 418 415 408 418 408 408 402 399 399 395 397 395 385 377 387 393 385 369 360 0 0 0 0 0
    0 0 0 0 0 0 0 0 0 0 0 0 0 0 0 0 0 0 0 0 0 0 0 0 0 0 0 0 0 0 0 0 0 0 0 0 0 0 0 0 0 0 0 0 0 0 0 0 0 0 0 0 0 0 0 0 0 0 0 0 0 0 0 0 0 0 0 0 0 1206 1206 1226 1206 1226 1206 1226 1226 1247 1247 1268 1268 1291 1226 1247 1247 1206 1206 1226 1226 1247 1226 1226 1226 1206 1168 1187 1149 1168 1168 1168 1187 1149 1206 1206 1226 1247 1226 1247 1247 1268 1291 1268 1291 1268 1291 1314 1362 1533 1501 1533 1635 1672 1711 1795 1795 1839 1936 2102 0 0 0 0 0 0 0 0 0 0 0 0 0 0 0 0 0 0 0 0 0 0 0 0 5661 4599 3873 4906 5256 6690 6690 6133 6133 6133 6690 7359 6133 6690 6133 5661 6133 6133 6133 4906 5256 6133 5256 5256 6133 5661 5256 5661 6690 5256 6133 5661 5256 4906 3873 3504 3345 3066 2628 2230 2164 1989 1795 1752 1752 1711 1635 1635 1565 1533 1501 1501 1291 1291 1187 1226 1206 1149 1168 1132 1115 1168 1115 1149 1082 1082 1132 1036 1022 1022 994 968 897 931 931 919 876 865 855 855 845 808 799 791 758 782 758 102 0 0 735 721 721 728 694 687 721 728 675 639 639 629 613 603 593 593 584 574 570 557 557 0 0 1565 1599 1635 1711 0 0 0 1936 0 0 135 134 0 0 0 0 0 0 454 454 451 446 443 0 82 82 82 0 425 420 420 418 415 408 415 408 408 402 399 399 395 395 395 385 379 387 393 385 367 359 0 0 0 0 0
    0 0 0 0 0 0 0 0 0 0 0 0 0 0 0 0 0 0 0 0 0 0 0 0 0 0 0 0 0 0 0 0 0 0 0 0 0 0 0 0 0 0 0 0 0 0 0 0 0 0 0 0 0 0 0 0 0 0 0 0 0 0 0 0 0 0 0 0 0 1226 1247 1247 1247 1247 1226 1247 1268 1268 1291 1338 1314 1338 1314 1268 1268 1268 1247 1291 1268 1291 1291 1268 1268 1247 1226 1226 1187 1168 1168 1168 1187 1168 1206 1226 1247 1247 1247 1247 1247 1268 1291 1268 1291 1268 1291 1314 1362 1533 1501 1565 1672 1711 1711 1839 1839 1887 1989 2044 2230 0 0 0 0 0 0 0 0 0 0 0 0 0 0 0 0 0 0 0 0 0 4329 4329 5661 4088 3679 4088 4599 5661 5661 5661 6133 6133 6690 6690 6133 6690 6133 5661 6133 6133 6133 4906 5256 6133 5256 5256 6690 6133 5661 5256 7359 5256 6133 6133 5661 4599 3679 3504 3345 2943 2628 2374 2299 1989 0 1795 1752 1711 1672 1635 1565 1533 1501 1501 1291 1291 1187 1226 1206 1149 1168 1132 1115 1168 1115 1168 1082 1098 1132 1036 1036 1036 1008 981 919 955 943 943 876 855 845 845 836 791 791 782 750 774 758 102 0 728 735 721 721 728 694 687 721 721 675 639 634 623 608 603 593 593 584 579 574 0 566 0 0 1599 1635 1635 1711 0 0 0 1989 2102 0 135 134 0 0 474 0 0 0 451 454 454 446 443 0 82 81 82 0 422 420 420 415 413 408 415 408 408 402 399 399 395 395 395 381 377 385 391 383 367 357 0 0 0 0 0
    0 0 0 0 0 0 0 0 0 0 0 0 0 0 0 0 0 0 0 0 0 0 0 0 0 0 0 0 0 0 0 0 0 0 0 0 0 0 0 0 0 0 0 0 0 0 0 0 0 0 0 0 0 0 0 0 0 0 0 0 0 0 0 0 0 0 0 0 0 1268 1268 1268 1268 1268 1268 1291 1291 1338 1362 1388 1388 1443 1362 1314 1314 1314 1291 1338 1338 1338 1338 1338 1338 1314 1291 1291 1247 1226 1206 1168 1187 1187 1226 1226 1247 1247 1247 1268 1268 1291 1314 1291 1314 1314 1314 1362 1388 1565 1471 1565 1672 1711 1711 1839 1795 1887 1936 2044 2164 2164 0 0 0 0 0 0 0 0 0 0 0 0 0 0 5256 5256 5661 5256 5661 4906 5256 4906 6690 5256 4088 4906 5661 6133 6690 6133 6690 6133 6690 7359 6690 6690 6690 6133 6133 6690 6690 5256 5661 6133 5256 5661 6133 5661 4906 4906 6133 4906 5661 5256 4906 4329 3679 3504 3345 2830 2537 2374 2230 1989 0 1795 1752 1672 1635 1635 1533 1533 1533 1533 1291 1291 1206 1226 1206 1168 1168 1132 1132 1168 1115 1168 1098 1115 1149 1051 1051 1051 1022 994 943 955 943 943 886 855 836 836 826 782 782 774 750 774 758 0 0 728 735 721 721 728 694 687 714 714 669 639 629 623 608 603 593 593 588 584 579 0 0 0 0 0 0 0 1711 0 1887 1936 1936 2102 0 135 135 0 0 474 0 0 0 454 454 454 446 446 0 82 81 81 0 422 420 420 415 413 408 413 408 408 404 399 399 395 393 393 379 375 383 389 381 367 357 0 0 0 0 0
    0 0 0 0 0 0 0 0 0 0 0 0 0 0 0 0 0 0 0 0 0 0 0 0 0 0 0 0 0 0 0 0 0 0 0 0 0 0 0 0 0 0 0 0 0 0 0 0 0 0 0 0 0 0 0 0 0 0 0 0 0 0 0 0 0 0 0 0 0 1291 1314 1291 1291 1291 1291 1314 1338 1362 1443 1443 1443 1471 1362 1314 1314 1338 1314 1338 1338 1362 1362 1362 1362 1362 1338 1362 1314 1268 1226 1206 1206 1187 1206 1206 1247 1247 1247 1268 1268 1291 1314 1314 1314 1314 1338 1338 1388 1533 1471 1533 1672 1711 1711 1795 1795 1795 1887 2044 2164 2164 2164 0 0 0 0 0 0 0 0 0 0 0 0 4599 5256 6133 6690 5661 6690 5661 5256 5256 6690 7359 4599 5661 6690 6690 7359 7359 7359 6690 7359 8177 7359 7359 7359 6690 6690 7359 7359 5661 6133 6133 5661 5661 6133 6133 4906 4599 6133 4599 5661 4906 4599 4329 3679 3504 3199 2830 2537 2453 2299 2044 0 1795 1752 1711 1635 1635 1533 1533 1533 1533 1291 1291 1206 1247 1206 1168 1168 1149 1132 1187 1132 1187 1115 1132 1132 1036 1051 1036 1022 994 943 943 943 955 876 845 826 826 817 774 782 774 743 766 758 101 721 728 743 721 721 728 694 687 714 0 663 639 629 623 613 608 598 598 593 593 588 0 0 0 0 0 0 0 1711 0 1839 1887 1887 1989 0 0 0 0 0 471 0 465 0 454 454 457 448 446 443 0 81 0 0 425 420 420 415 413 408 413 411 408 404 399 399 393 393 393 379 375 383 387 383 367 357 0 0 0 0 0
    0 0 0 0 0 0 0 0 0 0 0 0 0 0 0 0 0 0 0 0 0 0 0 0 0 0 0 0 0 0 0 0 0 0 0 0 0 0 0 0 0 0 0 0 0 0 0 0 0 0 0 0 0 0 0 0 0 0 0 0 0 0 0 0 0 0 0 0 0 1338 1362 1338 1338 1362 1362 1415 1443 1471 1533 1501 1501 1565 1415 1362 1338 1362 1338 1362 1362 1388 1388 1388 1415 1388 1388 1415 1362 1314 1268 1247 1247 1206 1247 1226 1247 1268 1268 1291 1291 1314 1338 1338 1362 1362 1362 1388 1415 1565 1533 1533 1635 1672 1672 1752 1752 1795 1887 1989 2230 2230 2299 2299 0 0 0 0 0 0 0 0 0 0 7359 3504 4329 4599 5256 5256 6133 5661 5256 4906 6133 6133 5256 5661 6690 6690 6690 6690 7359 6690 7359 7359 6690 6690 6690 6690 6690 6690 7359 5661 6133 6690 5661 6133 6690 6690 5661 4906 6690 4906 5256 5256 4599 4329 3679 3504 3345 2830 2537 2537 2453 2102 0 1839 1795 1711 1672 1672 1533 1533 1533 1533 1291 1291 1206 1247 1206 1187 1187 1149 1149 1206 1149 1206 1132 1149 1115 1036 1036 1022 1008 994 931 943 943 943 865 836 826 817 808 766 774 766 743 766 758 101 721 728 743 728 728 735 0 694 714 0 669 651 634 629 618 608 598 603 0 0 0 0 0 0 0 0 0 1711 1711 1795 1795 1795 0 0 1936 0 0 0 0 468 468 462 0 454 457 457 448 448 443 440 81 0 0 425 422 420 418 413 408 413 411 406 404 399 397 393 391 393 379 375 383 385 385 369 359 0 0 0 0 0
    0 0 0 0 0 0 0 0 0 0 0 0 0 0 0 0 0 0 0 0 0 0 0 0 0 0 0 0 0 0 0 0 0 0 0 0 0 0 0 0 0 0 0 0 0 0 0 0 0 0 0 0 0 0 0 0 0 0 0 0 0 0 0 0 0 0 0 0 0 1471 1501 1443 1443 1471 1471 1533 1565 1533 1565 1565 1533 1565 1443 1388 1362 1362 1338 1362 1362 1388 1415 1415 1415 1388 1388 1443 1388 1338 1291 1268 1247 1206 1247 1226 1247 1268 1268 1291 1291 1314 1338 1338 1362 1388 1362 1415 1443 1565 1565 1533 1635 1672 1635 1752 1752 1752 1839 1989 2299 2299 2374 2453 0 0 0 0 0 0 0 0 0 0 0 0 5256 4329 5661 5256 5661 5256 5256 4599 6133 5661 5661 5256 6133 6133 6690 6690 7359 6690 7359 7359 6690 6690 6690 6690 6690 6690 7359 6133 6133 6690 6133 6690 6690 6690 6133 5661 6690 5256 5661 5256 4599 4088 3504 3199 3066 2725 2453 2453 2453 2102 0 1887 1795 1752 1711 1711 1533 1533 1533 1533 1291 1291 1226 1268 1226 1206 1187 1168 1168 1206 1168 1206 1132 1168 1098 1036 1036 1022 1008 981 919 931 931 931 865 826 817 808 799 766 774 758 735 758 758 101 721 728 743 728 728 735 0 700 714 700 669 651 634 629 629 618 603 608 0 0 0 0 0 0 0 0 0 0 1711 0 1795 1795 0 1887 1887 0 0 0 0 465 465 0 0 454 457 457 451 448 446 440 81 0 0 427 425 422 418 413 411 411 411 406 404 397 397 393 391 391 377 375 381 385 385 369 359 0 0 0 0 0
    0 0 0 0 0 0 0 0 0 0 0 0 0 0 0 0 0 0 0 0 0 0 0 0 0 0 0 0 0 0 0 0 0 0 0 0 0 0 0 0 0 0 0 0 0 0 0 0 0 0 0 0 0 0 0 0 0 0 0 0 0 0 0 0 0 0 0 0 0 1599 1599 1599 1599 1599 1565 1599 1635 1599 1599 1599 1533 1599 1443 1388 1362 1362 1338 1362 1362 1388 1415 1415 1443 1415 1415 1443 1388 1338 1291 1268 1268 1226 1247 1206 1206 1247 1268 1268 1268 1291 1314 1314 1362 1388 1388 1415 1443 1565 1565 1565 1635 1672 1635 1752 1752 1752 1839 2044 2299 2374 2453 2453 2628 0 0 0 0 0 0 0 0 0 0 5661 4906 4906 5256 5256 5661 5256 5256 4906 6133 6133 6133 6690 6690 6690 7359 6690 8177 6690 7359 7359 6690 7359 7359 6690 6690 6690 7359 6690 6690 7359 6690 7359 7359 7359 6133 5661 6690 5661 5661 4906 4088 4088 3504 3345 3066 2725 2453 2453 2453 2164 1936 1887 1839 1795 1711 1711 1565 1533 1533 1533 1291 1291 1226 1268 1226 1206 1187 1187 1168 1226 1187 1226 1149 1168 1066 1036 1036 1036 1022 994 931 931 931 931 865 817 808 808 799 758 766 750 735 758 758 0 728 728 743 735 735 743 707 700 714 694 669 657 639 634 639 629 608 0 0 0 0 0 0 0 0 0 0 675 0 0 1752 1752 0 1887 1795 0 0 0 0 459 462 0 0 454 457 459 454 451 446 443 0 0 0 430 427 425 420 415 411 411 411 406 404 397 397 393 391 391 377 375 381 383 385 369 357 0 0 0 0 0
    0 0 0 0 0 0 0 0 0 0 0 0 0 0 0 0 0 0 0 0 0 0 0 0 0 0 0 0 0 0 0 0 0 0 0 0 0 0 0 0 0 0 0 0 0 0 0 0 0 0 0 0 0 0 0 0 0 0 0 0 0 0 0 0 0 0 0 0 0 1635 1635 1635 1635 1599 1565 1635 1635 1599 1599 1599 1565 1599 1471 1415 1388 1388 1362 1388 1388 1415 1415 1415 1443 1415 1415 1471 1388 1362 1314 1291 1268 1226 1247 1206 1206 1247 1247 1268 1268 1291 1314 1338 1362 1415 1388 1443 1471 1565 1599 1565 1635 1635 1635 1711 1711 1752 1795 1936 2164 2299 2374 2453 2537 2628 0 0 0 0 0 0 0 0 0 7359 5661 5256 5661 5256 5661 5661 5256 5256 6133 6133 6690 7359 7359 7359 7359 6690 7359 6690 7359 7359 6133 7359 7359 6690 7359 7359 8177 7359 6690 7359 6690 7359 7359 8177 6690 6133 6690 6133 6133 4906 4599 4088 3345 3199 3066 2725 2453 2453 2453 2164 1887 1936 1839 1795 1711 1711 1599 1565 1565 1565 1291 1291 1247 1291 1226 1226 1206 1187 1187 1226 1206 1226 1149 1168 1036 1022 1036 1022 1022 994 931 931 931 931 865 808 808 799 791 750 766 750 735 750 766 721 728 728 743 735 735 743 707 707 714 694 669 663 645 639 645 634 0 0 0 0 0 0 0 639 0 0 0 675 681 0 0 1752 1839 1839 1795 0 0 0 0 451 454 0 457 451 457 459 457 454 448 446 443 0 0 0 430 427 422 415 413 411 413 406 404 397 397 391 391 391 377 375 379 381 385 369 357 0 0 0 0 0
    0 0 0 0 0 0 0 0 0 0 0 0 0 0 0 0 0 0 0 0 0 0 0 0 0 0 0 0 0 0 0 0 0 0 0 0 0 0 0 0 0 0 0 0 0 0 0 0 0 0 0 0 0 0 0 0 0 0 0 0 0 0 0 0 0 0 0 0 0 1565 1599 1635 1635 1565 1565 1635 1635 1565 1599 1599 1565 1635 1533 1471 1415 1415 1362 1415 1415 1415 1443 1443 1471 1415 1443 1471 1388 1362 1338 1291 1291 1226 1247 1206 1206 1247 1247 1291 1291 1291 1314 1338 1362 1415 1415 1471 1471 1565 1599 1565 1635 1635 1635 1672 1711 1711 1752 1795 2102 2164 2299 2453 2453 2537 2537 0 0 0 0 0 0 0 0 7359 6133 5661 5661 5661 5661 5661 5256 5256 6133 6133 7359 0 8177 8177 8177 7359 8177 8177 8177 8177 6690 8177 8177 7359 7359 7359 7359 7359 6690 7359 6690 6690 7359 7359 6690 6133 5661 5661 5661 4906 4906 3873 3345 3066 2943 2725 2374 2453 2374 2164 1936 1989 1887 1887 1752 1752 1635 1599 1599 1565 1314 1291 1268 1314 1226 1226 1206 1206 1187 1247 1206 1226 1149 1168 1008 1022 1036 1008 1008 994 931 919 931 931 865 808 0 0 791 750 758 743 728 750 766 721 735 728 735 735 735 743 0 707 707 687 669 669 651 657 663 645 0 0 0 0 0 0 0 639 0 0 0 675 681 0 0 1752 1839 1839 1795 0 0 0 0 0 0 0 457 454 457 459 457 457 451 448 448 440 443 0 432 430 425 418 413 413 413 406 404 397 397 393 391 391 377 377 379 381 385 369 359 0 0 0 0 0
    0 0 0 0 0 0 0 0 0 0 0 0 0 0 0 0 0 0 0 0 0 0 0 0 0 0 0 0 0 0 0 0 0 0 0 0 0 0 0 0 0 0 0 0 0 0 0 0 0 0 0 0 0 0 0 0 0 0 0 0 0 0 0 0 0 0 0 0 0 1599 1635 1672 1635 1599 1565 1635 1635 1565 1599 1599 1565 1599 1565 1501 1443 1443 1415 1415 1443 1443 1471 1443 1471 1443 1443 1471 1415 1362 1338 1291 1291 1247 1247 1206 1206 1247 1247 1268 1268 1268 1291 1314 1362 1415 1415 1471 1471 1565 1565 1565 1635 1635 1599 1635 1672 1711 1752 1795 2044 2102 2230 2374 2453 2453 2537 2453 0 0 0 0 0 0 0 6690 5661 5256 5661 5661 5661 5661 5256 5661 6133 6133 7359 8177 8177 7359 7359 6690 7359 7359 7359 7359 6133 7359 7359 6690 6690 6690 6690 6690 6133 7359 6690 6690 7359 7359 6690 6133 6133 6690 6133 4906 4599 4088 3504 3066 2943 2725 2299 2453 2374 2164 1936 1989 1936 1887 1795 1752 1635 1599 1565 1533 1314 1291 1268 1314 1247 1247 1226 1206 1206 1268 1226 1247 1168 1187 1008 1008 1022 994 994 981 0 908 908 919 855 0 0 0 791 750 758 743 728 750 766 721 735 728 743 735 735 750 0 707 707 681 669 669 651 669 675 651 0 0 0 0 0 0 645 639 0 0 0 669 675 0 0 1711 1795 1839 1795 0 0 0 0 0 0 0 457 457 459 462 459 459 454 451 451 443 446 440 435 432 427 420 415 413 415 406 404 397 397 393 391 391 379 377 381 381 387 371 359 0 0 0 0 0
    0 0 0 0 0 0 0 0 0 0 0 0 0 0 0 0 0 0 0 0 0 0 0 0 0 0 0 0 0 0 0 0 0 0 0 0 0 0 0 0 0 0 0 0 0 0 0 0 0 0 0 0 0 0 0 0 0 0 0 0 0 0 0 0 0 0 0 0 0 1599 1635 1672 1599 1565 1565 1635 1635 1565 1599 1599 1599 1635 1599 1565 1501 1501 1501 1443 1471 1443 1471 1471 1501 1443 1443 1471 1415 1388 1338 1291 1291 1268 1247 1226 1226 1247 1268 1291 1291 1291 1314 1338 1388 1443 1443 1501 1501 1565 1599 1599 1635 1672 1635 1672 1672 1711 1752 1795 2102 2102 2230 2299 2374 2453 2453 2374 2374 0 0 0 0 0 0 0 6690 6133 6133 5661 6133 6133 5661 6133 6133 6690 7359 0 0 0 7359 7359 7359 7359 8177 8177 5661 6690 6690 6690 6690 6133 6690 6690 5661 6690 6133 6133 7359 6690 6690 6690 6133 7359 6690 5256 5256 4329 3504 3066 2830 2725 2230 2453 2374 2164 1936 1989 1936 1887 1795 1752 1635 1565 1565 1501 1314 1291 1291 1338 1247 1247 1226 1226 1226 1268 1247 1247 1168 1187 1008 1022 1022 981 994 981 0 0 897 0 855 799 0 799 782 750 758 743 728 750 766 721 743 735 743 743 743 0 0 714 707 687 675 669 657 0 0 0 0 0 0 0 0 0 639 634 663 675 687 669 675 0 0 1752 1795 1887 0 0 0 0 0 0 457 451 459 457 459 462 462 459 457 454 454 446 446 443 438 0 430 422 418 415 415 406 404 395 395 393 391 391 379 377 381 381 387 371 359 0 0 0 0 0
    0 0 0 0 0 0 0 0 0 0 0 0 0 0 0 0 0 0 0 0 0 0 0 0 0 0 0 0 0 0 0 0 0 0 0 0 0 0 0 0 0 0 0 0 0 0 0 0 0 0 0 0 0 0 0 0 0 0 0 0 0 0 0 0 0 0 0 0 0 1599 1599 1711 1635 1533 1533 1635 1635 1533 1565 1565 1565 1599 1599 1635 1501 1533 1599 1533 1565 1533 1565 1501 1533 1471 1471 1471 1415 1362 1314 1291 1291 1268 1268 1226 1226 1268 1291 1314 1314 1291 1314 1338 1388 1443 1443 1533 1501 1565 1635 1599 1672 1711 1672 1711 1711 1711 1795 1795 2164 2102 2230 2299 2374 2453 2453 2374 2299 2299 2374 0 0 0 0 0 6133 5661 6133 5661 5661 5661 5661 5661 6133 6133 7359 0 8177 0 7359 7359 7359 7359 8177 7359 5661 7359 6690 6690 6690 6690 6133 6690 5661 6690 6133 6133 6690 6690 6690 6690 6690 7359 6690 5661 5256 4906 3504 3066 2830 2830 2299 2453 2453 2164 1989 2044 1989 1936 1839 1795 1672 1565 1565 1501 1314 1291 1291 1338 1268 1268 1247 1247 1226 1268 1247 1247 1168 1168 1008 1022 1022 981 994 981 0 0 897 0 845 791 0 799 782 750 758 735 728 743 766 721 743 735 743 743 743 0 728 721 721 687 675 675 663 0 0 0 0 0 0 0 0 0 634 629 657 669 687 675 681 0 1711 1752 1839 1887 0 0 0 0 0 0 457 454 459 459 459 462 462 462 459 457 454 448 448 448 440 0 0 0 0 418 418 406 404 395 395 393 391 389 379 377 381 381 387 371 360 0 0 0 0 0
    0 0 0 0 0 0 0 0 0 0 0 0 0 0 0 0 0 0 0 0 0 0 0 0 0 0 0 0 0 0 0 0 0 0 0 0 0 0 0 0 0 0 0 0 0 0 0 0 0 0 0 0 0 0 0 0 0 0 0 0 0 0 0 0 0 0 0 0 0 1565 1599 1711 1635 1533 1501 1599 1599 1501 1533 1533 1533 1565 1565 1599 1501 1533 1672 1635 1711 1635 1672 1599 1599 1501 1533 1501 1443 1362 1314 1314 1291 1268 1268 1247 1247 1314 1314 1362 1338 1338 1338 1388 1415 1471 1443 1565 1533 1599 1672 1635 1711 1711 1711 1711 1752 1752 1795 1839 2230 2164 2299 2230 2374 2374 2453 2453 2453 2628 2830 0 0 0 0 0 8177 6690 6133 5661 5256 5661 5661 5661 5661 6133 7359 0 8177 8177 6690 6690 6690 7359 7359 6690 5661 6690 6690 6690 6690 6690 6133 6133 5661 6690 6133 6133 6690 6690 7359 7359 6690 7359 7359 6133 5661 4906 3679 3066 2830 2830 2299 2453 2374 2164 1989 2044 2044 1936 1839 1795 1672 1565 1565 1501 1338 1291 1291 1338 1268 1268 1247 1247 1226 1268 1247 1247 1168 1168 1022 1022 1022 994 1008 994 931 0 908 0 855 791 808 799 782 750 750 735 721 743 766 721 743 735 735 743 743 0 728 721 714 687 681 681 669 0 0 0 0 0 0 0 0 0 634 623 0 675 0 0 0 1887 1711 1752 1887 1887 1936 0 0 0 465 454 0 0 457 459 459 465 465 462 462 462 457 454 454 454 446 448 0 0 0 422 422 408 404 395 397 393 391 389 379 377 379 379 387 371 362 0 0 0 0 0
    0 0 0 0 0 0 0 0 0 0 0 0 0 0 0 0 0 0 0 0 0 0 0 0 0 0 0 0 0 0 0 0 0 0 0 0 0 0 0 0 0 0 0 0 0 0 0 0 0 0 0 0 0 0 0 0 0 0 0 0 0 0 0 0 0 0 0 0 0 1533 1533 1672 1565 1501 1471 1565 1565 1471 1501 1501 1533 1533 1565 1599 1533 1533 1752 1672 1795 1839 1795 1752 1752 1599 1635 1635 1565 1388 1338 1314 1268 1247 1291 1268 1268 0 0 0 0 1362 1388 1388 1415 1471 1415 1501 1501 1635 1672 1672 1711 1795 1795 1795 1795 1839 1839 1936 2230 2299 2299 2164 2374 2374 2453 2537 2628 2830 3199 0 0 0 0 0 0 0 8177 6133 5661 6133 6133 6690 6133 6690 8177 0 0 0 7359 6690 7359 7359 7359 6690 5661 6690 6690 6690 6690 6133 5661 6133 5661 6133 6133 5661 6133 6690 6690 6690 6690 6690 6133 5661 5661 5256 3679 3199 2943 2943 2453 2537 2453 2230 1989 2044 2044 1936 1839 1795 1672 1533 1533 1501 1314 1291 1291 1338 1247 1247 1247 1247 1226 1268 1247 1247 1168 1168 1022 1022 1036 1008 1022 1008 943 931 931 0 855 791 808 799 791 750 750 735 721 743 766 721 735 728 735 735 728 0 721 714 707 681 675 675 669 0 0 0 0 0 0 0 0 0 0 0 0 0 0 0 0 1887 1711 1752 1887 1887 1936 0 0 0 468 457 457 0 457 459 459 465 465 465 462 465 462 462 462 462 454 462 446 132 0 427 425 411 406 397 397 395 391 389 379 375 379 379 387 371 364 0 0 0 0 0
    0 0 0 0 0 0 0 0 0 0 0 0 0 0 0 0 0 0 0 0 0 0 0 0 0 0 0 0 0 0 0 0 0 0 0 0 0 0 0 0 0 0 0 0 0 0 0 0 0 0 0 0 0 0 0 0 0 0 0 0 0 0 0 0 0 0 0 0 0 1501 1471 1635 1533 1501 1471 1565 1565 1471 1501 1501 1501 1533 1533 1565 1471 1501 1711 1711 1839 1887 1887 1839 1839 1752 1752 1795 1711 1443 1362 1338 1268 1247 1314 1291 1291 1338 0 0 0 1443 1471 1443 1471 1471 1443 1501 1501 1635 1711 1711 1752 1795 1795 1795 1839 1887 1887 1936 2102 2164 2164 2102 2374 2374 2537 2628 2628 2943 3345 7359 7359 7359 7359 7359 6133 8177 7359 6133 5661 6690 7359 8177 7359 8177 0 0 0 0 8177 7359 7359 7359 7359 6690 6133 6690 6690 6690 6690 6690 6133 6133 5661 6133 6133 5661 6133 6690 6690 6690 6690 6690 6133 5661 5661 5661 4329 3679 3504 3199 2628 2628 2628 2299 1989 2044 2044 1887 1839 1795 1672 1533 1533 1471 1314 1291 1268 1314 1247 1247 1247 1247 1226 1268 1247 1226 1168 1168 1022 1022 1036 1008 1022 1022 955 943 955 0 865 791 808 799 791 758 750 735 721 743 766 721 735 728 728 728 728 0 714 714 700 675 675 675 669 0 0 0 0 0 0 0 0 100 0 0 100 100 0 0 728 0 1711 1752 0 0 0 345 0 0 471 459 457 457 454 457 459 465 465 465 465 468 465 465 468 468 465 471 454 0 0 0 430 415 408 399 399 395 391 389 379 375 377 377 385 371 366 0 0 0 0 0
    0 0 0 0 0 0 0 0 0 0 0 0 0 0 0 0 0 0 0 0 0 0 0 0 0 0 0 0 0 0 0 0 0 0 0 0 0 0 0 0 0 0 0 0 0 0 0 0 0 0 0 0 0 0 0 0 0 0 0 0 0 0 0 0 0 0 0 0 0 1471 1471 1599 1471 1471 1471 1565 1533 1443 1501 1471 1471 1501 1501 1533 1443 1501 1711 1711 1936 1989 1936 1936 1887 1887 1839 1936 1839 1565 1415 1362 1268 1268 1338 1338 1338 1388 1471 1565 1599 1599 1599 1565 1599 1565 1533 1599 1565 1711 1752 1752 1795 1839 1839 1839 1839 1936 1936 1936 2102 2102 2164 2044 2299 2374 2537 2628 2830 3199 3504 4906 5661 5256 6133 5661 6133 8177 7359 6133 6133 8177 0 0 0 0 0 0 0 0 0 7359 7359 7359 7359 6690 6133 6133 6133 6133 6690 6133 6133 6133 5661 5661 5661 5256 6133 6133 6133 6690 6133 6133 6133 5661 6133 5661 4599 3679 3504 3199 2628 2628 2537 2230 1936 1989 1989 1887 1795 1795 1672 1533 1501 1471 1314 1291 1291 1338 1268 1268 1268 1247 1247 1268 1247 0 1168 1187 1022 1022 1022 1008 1022 1022 955 943 931 943 855 791 808 799 791 750 750 735 721 743 766 721 735 728 728 728 721 0 0 707 700 675 675 669 669 0 0 0 0 0 0 0 0 0 0 0 100 100 0 0 735 0 1711 1752 0 1989 0 0 0 0 471 462 457 0 451 457 457 465 468 465 465 471 468 471 471 474 471 474 462 0 0 0 432 420 408 399 399 395 389 389 379 373 377 377 383 371 367 0 0 0 0 0
    0 0 0 0 0 0 0 0 0 0 0 0 0 0 0 0 0 0 0 0 0 0 0 0 0 0 0 0 0 0 0 0 0 0 0 0 0 0 0 0 0 0 0 0 0 0 0 0 0 0 0 0 0 0 0 0 0 0 0 0 0 0 0 0 0 0 0 0 0 1471 1443 1533 1443 1443 1443 1533 1533 1443 1471 1471 1471 1501 1501 1533 1471 1533 1752 1839 2299 2164 2044 2044 1936 1989 1936 1989 1887 1672 1533 1415 1314 1314 1388 1362 1362 1415 1533 1635 1672 1672 1711 1635 1672 1635 1672 1752 1711 1795 1839 1795 1839 1887 1936 1887 1887 1989 1989 1989 2164 2164 2164 2044 2299 2453 2537 2628 2943 3345 3679 4599 5256 4906 5661 5256 5661 6690 6133 5661 5661 7359 0 0 0 0 0 0 0 0 0 7359 7359 7359 7359 6690 6133 6133 6133 6133 6690 6133 6133 6133 5661 5661 5661 5661 5661 5661 5661 6133 5661 5661 5661 5661 5661 5661 4906 3873 3504 3199 2628 2628 2537 2164 1936 1989 1989 1887 1839 1795 1672 1533 1533 1471 1314 1291 1291 1338 0 1268 1268 1247 1247 1268 1247 0 1168 1187 1022 1022 1022 1008 1022 1022 943 919 908 919 855 782 799 799 782 750 750 735 721 743 766 721 735 721 728 728 721 0 707 707 694 675 675 669 669 0 0 0 0 0 0 0 0 0 0 0 0 0 0 0 0 0 1711 1795 0 0 0 0 0 0 474 462 457 459 451 457 459 465 468 468 468 0 471 474 474 477 474 477 468 0 0 0 432 425 411 399 399 395 389 389 377 373 375 375 381 369 367 0 0 0 0 0
    0 0 0 0 0 0 0 0 0 0 0 0 0 0 0 0 0 0 0 0 0 0 0 0 0 0 0 0 0 0 0 0 0 0 0 0 0 0 0 0 0 0 0 0 0 0 0 0 0 0 0 0 0 0 0 0 0 0 0 0 0 0 0 0 0 0 0 0 0 1471 1415 1533 1415 1443 1443 1533 1501 1443 1471 1471 1471 1501 1501 1501 1471 1533 1711 1795 2164 2102 2044 2044 1936 1936 1989 1989 1936 1752 1672 1533 1388 1388 1471 1388 1388 1443 1565 1635 1672 1672 1711 1711 1752 1672 1752 1839 1839 1887 1887 1887 1887 1936 1989 1936 1936 2044 2044 2044 2164 2230 2230 2102 2299 2453 2628 2725 3066 3504 3679 4599 5256 4906 5256 5256 5256 6690 6133 5661 5661 6690 0 0 0 0 0 0 0 0 7359 6690 6690 6690 6133 6690 6690 6133 6133 6690 6133 6133 6690 6690 6133 5661 6133 6133 6133 5661 6133 6133 6133 6133 5661 5661 5661 5661 5661 3873 3504 3199 2628 2628 2537 2102 1936 1989 1989 1936 1839 1795 1635 1501 1533 1471 1314 1314 1314 1338 0 1268 1268 1247 1247 1268 1247 0 1168 1187 1022 1022 1022 1008 1022 1022 931 908 897 897 845 774 799 799 791 758 750 735 721 743 766 721 735 728 728 728 721 735 707 707 0 681 681 669 675 0 0 0 0 0 0 0 0 0 0 0 0 0 0 743 0 280 0 0 0 0 0 0 0 197 474 465 459 459 451 459 459 465 468 468 468 0 0 0 0 481 477 0 0 0 0 0 432 427 413 402 399 397 391 389 377 371 375 375 381 369 366 0 0 0 0 0
    0 0 0 0 0 0 0 0 0 0 0 0 0 0 0 0 0 0 0 0 0 0 0 0 0 0 0 0 0 0 0 0 0 0 0 0 0 0 0 0 0 0 0 0 0 0 0 0 0 0 0 0 0 0 0 0 0 0 0 0 0 0 0 0 0 0 0 0 0 1471 1415 1501 1415 1443 1471 1533 1501 1443 1471 1471 1471 1501 1501 1501 1471 1533 1672 1752 1936 1989 2044 2044 1936 1936 1989 1989 1936 1795 1752 1672 1599 1635 1635 1471 1471 1533 1635 1672 1711 1711 1752 1795 1795 1752 1839 1887 1887 1936 1936 1989 1989 1989 2044 2044 2044 2102 2102 2102 2230 2230 2230 2102 2299 2453 2628 2725 2943 3504 3679 4599 5256 4906 5256 5256 5256 6133 5661 5661 6133 6690 0 0 0 0 0 0 0 0 8177 7359 7359 7359 6690 6690 6690 6133 6133 6133 6133 6133 6690 6690 6133 5256 5661 6133 5661 5256 5661 5661 5661 5661 5661 5661 5661 5661 5661 4088 3504 3199 2725 2628 2537 2102 1989 1989 1989 1936 1839 1795 1672 1533 1565 1471 1314 1314 1314 1338 0 1268 1268 1247 1247 1268 1226 0 1168 1187 1022 1022 1022 1022 1022 1022 919 897 886 886 845 766 799 791 791 758 750 735 728 743 766 721 735 721 735 735 728 735 714 714 0 681 687 675 675 0 0 0 0 0 0 0 0 0 99 0 0 0 750 758 0 280 0 0 0 0 0 0 0 197 477 468 459 459 451 459 459 465 468 468 471 0 0 0 0 481 477 0 0 0 0 0 435 430 415 402 399 399 393 391 377 373 375 375 381 369 367 0 0 0 0 0
    0 0 0 0 0 0 0 0 0 0 0 0 0 0 0 0 0 0 0 0 0 0 0 0 0 0 0 0 0 0 0 0 0 0 0 0 0 0 0 0 0 0 0 0 0 0 0 0 0 0 0 0 0 0 0 0 0 0 0 0 0 0 0 0 0 0 0 0 0 1443 1415 1501 1471 1471 1501 1501 1533 1443 1471 1501 1471 1471 1471 1471 1471 1501 1635 1711 1795 1887 2044 2044 1936 1887 1989 1989 1936 1839 1795 1711 1711 1752 1711 1533 1501 1533 1635 1672 1711 1711 1711 1795 1839 1839 1887 1936 1936 1989 1989 1989 1989 1989 2044 2044 1989 2044 2044 2044 2164 2230 2230 2102 2299 2374 2537 2628 2943 3679 3679 4599 5661 4906 5256 5256 5661 6133 6133 5661 6133 7359 0 0 0 0 0 0 0 0 8177 6690 6690 7359 6133 6690 6690 6133 6133 6133 6133 6133 6133 6690 6133 5256 6133 6133 6133 5256 5256 5256 5256 5256 5661 5661 5256 5661 5661 4088 3504 3199 2725 2628 2453 2102 1989 1989 1989 1989 1887 1887 1711 1565 1599 1501 1314 1338 1314 1338 0 0 1268 1247 1247 0 1226 0 1168 1187 1008 1008 1008 1008 1022 1022 908 876 865 865 836 750 791 791 782 758 750 735 728 743 758 721 735 721 735 735 721 735 714 714 114 0 0 675 0 0 0 0 0 0 0 97 0 0 0 0 0 0 0 0 0 280 0 0 0 0 0 0 0 197 0 0 459 459 454 459 459 465 468 0 471 0 0 0 0 484 477 0 471 0 0 440 435 430 418 402 399 399 393 391 379 373 377 377 383 371 367 0 0 0 0 0
    0 0 0 0 0 0 0 0 0 0 0 0 0 0 0 0 0 0 0 0 0 0 0 0 0 0 0 0 0 0 0 0 0 0 0 0 0 0 0 0 0 0 0 0 0 0 0 0 0 0 0 0 0 0 0 0 0 0 0 0 0 0 0 0 0 0 0 0 0 1443 1443 1533 1501 1471 1501 1501 1533 1443 1501 1501 1501 1471 1471 1471 1501 1471 1635 1635 1635 1752 1936 1989 1887 1887 1936 1936 1936 1887 1839 1795 1795 1795 1752 1599 1501 1533 1635 1672 1672 1711 1752 1839 1936 1887 1936 1989 1989 1989 1989 2044 1989 1989 1989 2044 2044 2164 2164 2102 2230 2299 2374 2230 2299 2453 2537 2628 2943 3873 3873 4906 5661 5256 5256 5256 5661 6133 6133 6133 6690 7359 0 0 0 0 0 0 0 8177 8177 6690 6690 7359 6133 6690 6690 5661 5661 5661 5661 5661 5661 6133 5661 5256 5661 6133 6133 4906 5256 5256 5256 5256 5661 5661 5661 5256 5661 4088 3504 3199 2830 2537 2453 2102 1989 1989 1989 1989 1887 1839 1711 1599 1599 1501 1291 1338 1338 0 253 0 1268 1247 0 0 1226 1206 1168 1206 1022 1008 994 1022 1008 1008 886 0 836 836 826 743 782 782 782 758 750 743 728 743 758 721 735 721 728 728 721 728 714 0 114 0 0 675 0 0 0 0 0 0 0 0 0 0 0 0 0 0 750 0 0 280 0 0 0 0 0 0 0 197 0 0 462 459 454 459 457 465 468 0 474 0 0 0 0 484 477 0 468 454 0 438 435 430 418 402 399 399 395 393 381 373 377 377 383 371 367 0 0 0 0 0
    0 0 0 0 0 0 0 0 0 0 0 0 0 0 0 0 0 0 0 0 0 0 0 0 0 0 0 0 0 0 0 0 0 0 0 0 0 0 0 0 0 0 0 0 0 0 0 0 0 0 0 0 0 0 0 0 0 0 0 0 0 0 0 0 0 0 0 0 0 1471 1471 1533 1501 1471 1533 1471 1533 1443 1501 1501 1501 1471 1501 1471 1533 1501 1635 1599 1565 1711 1936 1989 1887 1887 1936 1936 1936 1887 1887 1839 1839 1887 1887 1711 1599 1635 0 1752 1752 1795 1887 1989 2230 1989 1989 2044 0 0 2102 2164 2164 2164 2230 2374 2453 2537 2537 2453 2374 2453 2537 2374 2374 2453 2537 2628 2943 3873 3873 4599 5661 5256 5256 4906 5661 5661 6133 6133 6690 6690 0 0 0 0 0 7359 8177 7359 7359 6690 6133 6690 6133 6133 6133 5256 5661 5256 5256 5256 5256 5661 5256 5256 5661 6133 6133 4599 4906 4906 4906 4906 5256 5256 5256 5256 5661 4088 3345 3199 2830 0 2453 2102 1989 1936 1936 1989 1839 1839 1672 1599 1599 1533 1291 1362 1338 254 254 0 0 0 0 0 1206 1206 1187 1206 1036 1022 1022 1036 1008 1008 876 743 817 817 808 728 774 774 774 750 750 743 728 735 750 714 728 721 735 735 721 728 721 0 114 114 0 675 0 0 0 0 0 0 0 0 0 0 0 99 0 0 735 0 281 281 0 2044 0 0 0 0 0 197 0 0 465 462 454 462 457 465 468 0 474 0 0 481 0 484 477 0 468 451 0 438 432 430 415 402 399 399 395 395 383 375 377 377 383 371 367 0 0 0 0 0
    0 0 0 0 0 0 0 0 0 0 0 0 0 0 0 0 0 0 0 0 0 0 0 0 0 0 0 0 0 0 0 0 0 0 0 0 0 0 0 0 0 0 0 0 0 0 0 0 0 0 0 0 0 0 0 0 0 0 0 0 0 0 0 0 0 0 0 0 0 1471 1471 1533 1471 1471 1533 1471 1501 1443 1501 1501 1501 1501 1501 1501 1533 1533 1635 1599 1565 1711 1936 2044 1887 1887 1936 1936 1936 1936 1887 1936 1887 1989 2164 1795 1711 0 0 0 0 2725 2102 2453 2628 2164 2164 2164 0 0 0 0 2725 2628 0 0 3066 2943 2830 2725 2537 2537 2628 2537 2374 2374 2453 2537 2830 3873 3873 4599 5661 5256 5256 4906 5256 5661 5661 5661 6690 6690 8177 0 0 0 0 7359 7359 6690 7359 6690 6133 6133 6133 5661 6133 5256 5256 5256 4906 5256 5256 5661 5256 5256 5661 6133 6133 4906 5256 5256 5256 5256 5661 5256 5256 5256 6133 3873 3199 3066 2628 2374 2230 1989 1936 1887 1887 1936 1839 1795 1672 1599 1599 1565 1314 1388 1362 0 254 0 0 0 259 0 1226 1206 1187 1226 1066 1051 1051 1066 1036 1022 897 0 791 799 791 728 774 766 774 750 758 743 728 735 750 714 728 721 735 735 728 735 728 728 114 114 0 681 0 0 0 0 0 0 0 0 0 0 0 0 0 0 0 0 0 283 0 2164 0 0 0 0 507 0 0 0 468 0 457 462 459 468 468 0 0 0 0 481 0 484 477 0 468 451 440 435 432 430 415 402 399 402 397 395 385 375 377 377 383 371 367 0 0 0 0 0
    0 0 0 0 0 0 0 0 0 0 0 0 0 0 0 0 0 0 0 0 0 0 0 0 0 0 0 0 0 0 0 0 0 0 0 0 0 0 0 0 0 0 0 0 0 0 0 0 0 0 0 0 0 0 0 0 0 0 0 0 0 0 0 0 0 0 0 0 0 1501 1471 1565 1501 1471 1533 1471 1533 1471 1501 1533 1533 1501 1533 1501 1565 1533 1672 1599 1565 1711 1936 2044 1887 1887 1936 1936 1936 1936 1887 1936 1936 2102 2628 2164 2943 3199 3679 4088 4088 3199 2453 2830 2943 2453 2374 2374 0 0 0 0 3199 0 0 6133 5661 4088 3873 2943 2725 2725 2725 2628 2453 2453 2537 2537 2943 4088 4088 4906 6133 5256 5256 4599 5661 5661 5661 6133 6690 6133 8177 8177 0 0 0 7359 7359 6690 7359 6690 6133 6690 6133 5661 6133 5661 5256 5256 4906 5256 5256 5256 5256 5256 5661 6133 6133 4906 5661 4906 5256 4906 5256 4906 4906 4599 5256 3504 2943 2943 2453 2299 2164 1989 1936 1887 1887 1936 1839 1795 1672 1635 1599 1565 1338 1388 1362 1362 0 0 0 0 0 0 1226 1206 1187 1226 1082 1066 1066 1098 1051 1036 919 0 782 791 782 728 774 766 766 750 758 750 735 728 743 714 728 721 735 735 728 735 743 735 114 114 0 681 0 0 0 0 0 0 0 0 0 0 0 0 0 0 0 0 0 0 0 2230 0 1936 0 0 0 0 0 0 0 0 0 465 459 468 471 0 0 0 484 484 0 484 477 0 468 448 438 435 432 430 415 404 402 402 397 397 387 377 375 377 383 371 367 0 0 0 0 0
    0 0 0 0 0 0 0 0 0 0 0 0 0 0 0 0 0 0 0 0 0 0 0 0 0 0 0 0 0 0 0 0 0 0 0 0 0 0 0 0 0 0 0 0 0 0 0 0 0 0 0 0 0 0 0 0 0 0 0 0 0 0 0 0 0 0 0 0 0 1501 1533 1599 1533 1471 1565 1471 1565 1471 1533 1533 1533 1533 1533 1533 1599 1533 1635 1635 1533 1635 1839 2044 1887 1887 1936 1936 1936 1936 1887 1936 1936 2102 2725 3066 3345 3873 4329 4329 4599 3679 3199 5661 3679 3066 2628 2725 0 0 0 5256 4906 4906 0 0 8177 7359 7359 4088 2943 2943 2943 2830 2537 2453 2628 2725 2943 5256 4906 6133 7359 6133 5661 4599 5661 5661 5661 6133 6690 6133 8177 8177 0 0 0 7359 8177 7359 8177 7359 6133 6690 6133 6133 6133 5661 5256 5256 4906 4906 4906 5256 5256 5256 5661 5661 6133 5256 5661 5256 5256 4906 5256 5256 5256 4329 4906 3504 2943 0 2374 2230 2164 1989 1936 1936 1887 1936 1839 1795 1711 1635 1635 1565 1314 1388 1338 1362 0 1268 1268 1247 0 0 1206 1206 1206 1247 1115 1098 1132 1168 1098 1066 955 0 791 799 791 735 774 774 774 758 766 750 735 728 743 707 728 721 735 743 735 743 750 750 0 114 0 681 0 0 213 0 0 0 0 0 0 0 0 0 0 0 0 0 0 0 0 2102 1936 1887 0 0 0 0 0 148 0 468 0 468 459 471 471 0 0 0 484 484 0 490 477 0 468 448 438 435 432 430 418 406 404 404 399 397 389 375 375 375 381 371 367 0 0 0 0 0
    0 0 0 0 0 0 0 0 0 0 0 0 0 0 0 0 0 0 0 0 0 0 0 0 0 0 0 0 0 0 0 0 0 0 0 0 0 0 0 0 0 0 0 0 0 0 0 0 0 0 0 0 0 0 0 0 0 0 0 0 0 0 0 0 0 0 0 0 0 1501 1533 1599 1533 1501 1565 1471 1565 1471 1533 1533 1533 1533 1533 1533 1599 1533 1635 1599 1501 1599 1839 1989 1887 1839 1887 1936 1936 1936 1887 1936 1936 2102 2830 3345 3679 4329 4599 4599 4906 4599 4906 8177 7359 4599 3066 0 0 0 0 7359 7359 6690 0 0 0 8177 8177 5661 4088 4088 4088 3345 2725 2628 2830 2830 3345 6690 6133 8177 8177 7359 6133 4088 5661 5661 6133 6133 7359 6690 8177 8177 0 0 0 7359 8177 7359 8177 7359 6690 6690 6690 6133 6690 5661 5256 5256 4906 4906 5256 5256 5256 5256 5661 6133 6133 5256 6133 5256 5661 5256 5661 5256 5256 4088 4088 3345 2830 2725 2299 2230 2164 1989 1936 1887 1839 1887 1839 1752 1672 1599 1599 1599 1338 1388 1338 1338 0 1268 1247 1226 1226 0 1206 1206 1206 1268 1187 1149 1226 1226 1168 1168 1008 0 799 817 808 735 782 782 774 766 766 758 735 0 735 707 728 721 735 743 735 750 766 758 0 0 0 681 215 215 214 288 0 0 0 0 0 0 0 0 0 0 0 0 0 0 2299 2044 1887 1887 0 0 0 0 0 0 0 468 465 468 459 471 474 0 0 0 487 487 0 493 481 0 471 448 438 432 432 430 418 406 406 404 399 399 389 377 373 375 379 371 367 0 0 0 0 0
    0 0 0 0 0 0 0 0 0 0 0 0 0 0 0 0 0 0 0 0 0 0 0 0 0 0 0 0 0 0 0 0 0 0 0 0 0 0 0 0 0 0 0 0 0 0 0 0 0 0 0 0 0 0 0 0 0 0 0 0 0 0 0 0 0 0 0 0 0 1533 1565 1599 1533 1501 1599 1471 1565 1471 1533 1565 1565 1533 1533 1533 1599 1565 1635 1599 1471 1565 1795 1989 1887 1839 1887 1887 1887 1887 1887 1936 1887 2102 2830 3504 3679 4329 4599 4599 5256 6133 6133 0 0 7359 6133 0 0 0 0 7359 8177 8177 0 0 0 0 0 8177 7359 7359 6690 4599 2830 2943 3199 3199 5256 7359 6690 8177 0 0 8177 3873 6133 5661 6133 6133 7359 6690 7359 8177 0 0 0 8177 8177 7359 8177 7359 6690 6690 6690 6133 6133 5661 5256 5256 5256 4906 4906 4906 5256 5256 5661 5661 6133 5256 6133 5661 6133 6133 6690 5661 5661 4329 4088 3345 2830 2628 2230 2164 2164 1989 1936 1887 1839 1839 1839 1752 1672 1599 1565 1635 1338 1415 1362 1362 0 1268 1268 1226 1247 0 1206 1206 1206 1268 1206 1187 1268 1247 1206 1206 1082 774 791 817 808 735 782 782 782 766 766 758 735 121 735 707 721 721 735 743 728 0 766 758 0 0 0 681 0 215 214 288 0 0 0 0 0 0 0 0 0 0 0 0 0 0 2230 1989 1936 1936 0 0 0 0 0 0 0 471 465 468 459 474 474 151 0 0 487 490 0 500 484 0 471 446 435 432 430 427 415 406 406 406 399 399 391 377 373 375 379 371 367 0 0 0 0 0
    0 0 0 0 0 0 0 0 0 0 0 0 0 0 0 0 0 0 0 0 0 0 0 0 0 0 0 0 0 0 0 0 0 0 0 0 0 0 0 0 0 0 0 0 0 0 0 0 0 0 0 0 0 0 0 0 0 0 0 0 0 0 0 0 0 0 0 0 0 1565 1599 1599 1565 1501 1565 1471 1565 1471 1533 1533 1533 1533 1533 1533 1599 1565 1672 1635 1565 1635 1795 1936 1887 1795 1887 1887 1887 1887 1887 1936 1887 2044 2628 3199 3504 4088 4088 4329 5256 6133 6690 0 0 0 8177 8177 0 0 8177 8177 8177 0 0 0 0 0 0 0 0 0 0 6133 3199 4599 5256 5256 7359 8177 7359 0 0 0 0 0 6690 5661 6133 6690 7359 6133 7359 7359 0 0 0 8177 0 8177 0 8177 7359 6690 6690 6690 6133 5661 5256 5256 5256 5256 5256 4906 5256 5256 5661 5661 6133 5661 6133 6690 6690 6690 6690 6133 6690 4906 4088 3199 2628 2537 2102 2102 2164 1989 1887 1887 1839 1839 1795 1752 1672 1565 0 1635 1338 1415 1362 1362 0 1291 1268 1247 1247 0 1206 1206 1206 1268 1226 1206 1268 1268 1226 1226 1132 0 799 817 808 743 791 791 782 774 766 766 743 121 728 707 721 714 735 735 0 0 0 758 758 0 0 681 0 215 214 287 283 0 0 0 735 0 0 0 0 0 0 0 0 0 2164 1989 1989 1989 0 0 0 0 0 0 0 0 0 468 459 474 0 151 0 490 490 490 0 507 487 0 474 443 432 427 427 425 411 406 406 406 399 399 391 375 371 373 375 369 366 0 0 0 0 0
    0 0 0 0 0 0 0 0 0 0 0 0 0 0 0 0 0 0 0 0 0 0 0 0 0 0 0 0 0 0 0 0 0 0 0 0 0 0 0 0 0 0 0 0 0 0 0 0 0 0 0 0 0 0 0 0 0 0 0 0 0 0 0 0 0 0 0 0 0 1501 1533 1565 1501 1471 1533 1471 1533 1471 1533 1533 1533 1533 1533 1565 1599 1565 1672 1672 1635 1672 1795 1936 1839 1795 1839 1887 1839 1887 1887 1936 1887 2044 2537 3199 3345 3873 4088 4599 5256 6690 7359 0 0 0 0 0 0 0 0 0 0 0 0 0 0 0 0 0 0 0 0 8177 8177 8177 0 7359 7359 7359 7359 8177 0 0 0 0 6690 5661 6133 6133 6690 6133 6690 7359 0 8177 0 8177 8177 8177 0 7359 6690 6690 6690 6690 6133 5661 5661 5256 5256 5256 5256 4906 5256 5661 5256 5661 6133 5661 6133 6690 6690 7359 6690 6690 6690 5256 4599 3345 2725 2628 2164 2230 2230 2044 1887 1887 1839 1795 1752 1711 1599 1501 1501 1635 1338 1415 1362 1362 0 1291 1268 1247 0 0 1226 1206 1206 1268 1226 1206 1268 1268 1226 1206 1132 0 808 826 817 750 799 799 791 782 774 766 743 121 728 700 721 714 728 735 0 0 758 758 750 0 0 681 215 215 214 287 0 0 0 0 0 0 0 0 0 0 0 0 0 0 0 1936 1936 2044 0 0 0 0 0 0 0 0 0 471 459 474 0 152 0 493 493 493 0 511 487 0 471 440 427 427 422 422 411 406 406 406 399 399 391 373 367 371 371 367 366 0 0 0 0 0
    0 0 0 0 0 0 0 0 0 0 0 0 0 0 0 0 0 0 0 0 0 0 0 0 0 0 0 0 0 0 0 0 0 0 0 0 0 0 0 0 0 0 0 0 0 0 0 0 0 0 0 0 0 0 0 0 0 0 0 0 0 0 0 0 0 0 0 0 0 1443 1443 1471 1443 1443 1471 1443 1533 1443 1501 1533 1533 1533 1565 1565 1599 1565 1672 1672 1672 1752 1795 1936 1839 1795 1839 1887 1839 1887 1887 1936 1887 2044 2374 3066 3199 3679 3873 4329 4906 6690 7359 0 0 0 0 0 0 0 0 0 0 0 0 0 0 0 0 0 0 0 0 6690 6690 7359 0 7359 8177 8177 7359 8177 0 0 0 0 6690 5661 6133 6133 6690 6133 6690 7359 8177 7359 0 8177 0 8177 8177 7359 6690 6133 6690 6690 5661 5661 5256 5256 5256 5256 5256 4906 5256 5661 5256 5661 6133 5661 6133 6690 6690 7359 6690 7359 6690 4906 4329 3345 2725 2628 2102 2299 2299 2044 1887 1887 1839 1839 1752 1672 1599 1501 1501 1635 1338 1415 1362 1362 0 1291 1268 1226 0 0 1226 1206 1206 1247 1206 1187 1268 1268 1226 1206 1132 0 0 865 836 758 808 799 799 782 774 774 743 0 0 0 721 714 728 735 0 0 750 750 750 0 0 681 215 215 215 287 0 75 0 274 0 0 0 0 0 0 0 0 0 94 0 1936 1936 2044 0 0 0 0 0 0 0 0 0 471 459 0 0 152 0 493 493 493 0 514 0 0 468 440 427 425 422 422 411 406 406 406 402 399 391 371 0 371 371 367 366 0 0 0 0 0
    0 0 0 0 0 0 0 0 0 0 0 0 0 0 0 0 0 0 0 0 0 0 0 0 0 0 0 0 0 0 0 0 0 0 0 0 0 0 0 0 0 0 0 0 0 0 0 0 0 0 0 0 0 0 0 0 0 0 0 0 0 0 0 0 0 0 0 0 0 1388 1388 1443 1415 1415 1443 1443 1471 1415 1471 1501 1501 1533 1533 1565 1599 1565 1672 1672 1711 1795 1795 1936 1839 1795 1887 1887 1887 1936 1936 1989 1936 2044 2230 2830 2943 3345 3345 3679 4088 5661 6690 0 0 0 8177 7359 7359 7359 6690 7359 7359 7359 0 0 0 0 0 0 8177 8177 8177 6133 6133 6690 0 8177 0 0 8177 0 0 0 0 0 7359 5661 6133 6133 6690 6133 6690 7359 8177 7359 0 0 0 0 8177 7359 6690 6133 6690 6690 5661 5661 5256 5256 5256 5256 5256 5256 4906 5661 5256 5661 6133 6133 6133 6690 7359 7359 7359 7359 6690 4599 3873 3199 2725 2628 2102 2299 2299 2102 1936 1887 1839 1839 0 1672 1599 1501 1501 1635 1338 1415 1362 1362 1291 1268 1268 1226 0 1247 1206 1187 1206 1247 1206 1187 1247 1268 1206 1187 1132 955 0 908 845 774 808 808 799 791 782 782 743 0 0 0 721 721 728 728 0 0 750 750 0 0 0 681 215 215 215 287 75 75 0 274 735 0 0 0 0 0 0 0 0 95 0 1936 1989 2164 0 0 0 0 0 0 0 0 0 0 462 0 0 152 0 497 497 497 0 518 0 132 0 438 425 422 418 420 411 408 408 406 399 397 391 0 0 373 373 371 367 0 0 0 0 0
    0 0 0 0 0 0 0 0 0 0 0 0 0 0 0 0 0 0 0 0 0 0 0 0 0 0 0 0 0 0 0 0 0 0 0 0 0 0 0 0 0 0 0 0 0 0 0 0 0 0 0 0 0 0 0 0 0 0 0 0 0 0 0 0 0 0 0 0 0 1388 1415 1443 1415 1415 1415 1443 1443 1415 1471 1471 1501 1533 1533 1533 1565 1565 1672 1672 1711 1795 1795 1887 1839 1795 1887 1887 1887 1936 1936 1989 1936 2044 2230 2830 2943 3199 3199 3504 3873 5661 6133 0 0 8177 6690 6133 6133 6133 5661 6133 6690 6690 8177 0 0 0 0 8177 8177 7359 7359 6133 5661 6690 8177 7359 8177 8177 8177 0 0 0 0 5256 7359 5256 6133 6133 6690 6133 6690 7359 8177 7359 0 0 0 0 0 7359 6690 6690 6690 6690 5661 5661 5661 5661 5661 5661 5661 5256 4906 6133 5256 6133 6133 6133 6133 6133 6690 7359 6690 7359 5661 4329 3873 3345 2725 2628 2164 2453 2374 2164 1989 1936 1887 1887 0 1711 1599 1501 1501 1635 1362 1443 1388 1362 1268 1268 1268 1226 0 1247 1206 1187 1187 1226 1187 1187 1247 1247 1206 1168 1115 968 955 931 855 791 817 817 808 799 782 782 750 0 0 0 721 721 721 0 0 0 743 743 0 0 0 681 215 215 215 286 75 75 0 274 735 0 0 0 0 0 0 0 0 0 0 0 0 0 0 0 0 0 0 0 0 0 151 0 462 0 484 0 497 497 497 497 500 518 0 131 0 438 422 422 415 418 408 408 406 406 399 397 391 371 0 373 373 371 367 0 0 0 0 0
    0 0 0 0 0 0 0 0 0 0 0 0 0 0 0 0 0 0 0 0 0 0 0 0 0 0 0 0 0 0 0 0 0 0 0 0 0 0 0 0 0 0 0 0 0 0 0 0 0 0 0 0 0 0 0 0 0 0 0 0 0 0 0 0 0 0 0 0 0 1388 1388 1415 1415 1388 1415 1415 1415 1415 1443 1443 1471 1501 1501 1533 1533 1565 1635 1635 1711 1839 1795 1839 1839 1795 1887 1887 1887 1936 1936 1989 1936 2044 2299 2943 3066 3345 3345 3504 4088 6133 6690 8177 8177 8177 6690 6133 6133 6133 5661 6133 6690 6690 8177 0 0 0 0 7359 7359 7359 7359 6133 6133 6690 8177 8177 0 0 8177 0 0 0 0 6133 7359 5256 6133 6133 6133 6133 6133 6690 7359 6690 8177 8177 0 0 8177 8177 7359 6690 6690 6690 5661 6133 5661 5661 5661 5661 5661 5661 4906 6133 5661 6133 6133 6133 5661 6690 6690 7359 6690 7359 5661 4599 3873 3345 2628 2628 2164 2453 2374 2164 1989 1936 1936 1936 0 1711 1599 1501 1501 1635 1362 1443 1388 1362 1268 1268 1268 1226 0 1247 1206 1168 1187 1226 1187 1168 1226 1247 1187 1149 1115 981 981 955 855 799 826 817 808 808 782 782 750 0 735 0 721 721 0 0 0 0 0 735 0 0 681 681 0 216 215 286 75 75 0 274 735 0 260 0 0 0 0 0 0 0 0 0 0 0 0 0 0 0 0 0 0 229 151 0 465 0 484 0 497 500 500 497 497 518 0 130 0 438 422 0 413 418 408 406 406 406 399 395 391 371 369 375 375 373 367 0 0 0 0 0
    0 0 0 0 0 0 0 0 0 0 0 0 0 0 0 0 0 0 0 0 0 0 0 0 0 0 0 0 0 0 0 0 0 0 0 0 0 0 0 0 0 0 0 0 0 0 0 0 0 0 0 0 0 0 0 0 0 0 0 0 0 0 0 0 0 0 0 0 0 1362 1388 1415 1388 1388 1388 1388 1388 1388 1443 1415 1443 1501 1501 1501 1501 1565 1635 1599 1752 1887 1839 1887 1839 1795 1887 1936 1887 1936 1936 1989 1936 2044 2374 2830 2943 3199 3199 3504 3873 6133 6690 8177 8177 7359 6690 5661 5661 5661 5256 6133 6690 6690 7359 0 0 8177 8177 7359 6690 7359 7359 6133 6133 6690 8177 7359 0 0 8177 0 0 0 0 6690 7359 5661 6133 6133 6133 6133 6133 6133 6690 6133 7359 6690 7359 8177 7359 7359 6690 6133 6690 6690 5256 5661 5661 5661 5661 5661 5661 5661 4906 6133 5661 6133 6690 6133 5661 6690 6690 6690 6690 7359 5661 4906 4329 3345 2725 2628 2230 2374 2374 2164 1989 1936 1936 1936 0 1711 1599 1501 1501 1635 1362 1471 1415 1388 0 1268 1268 1226 0 0 1206 1149 1187 1206 1168 1149 1206 1226 1168 1132 1098 994 994 955 865 799 0 0 817 808 791 791 750 0 0 0 721 721 0 90 0 0 0 728 0 681 675 681 0 216 215 286 75 75 0 274 0 0 260 260 0 0 0 0 0 0 0 0 0 0 0 0 0 0 0 0 227 229 0 0 465 0 487 0 500 500 500 500 0 521 130 130 129 438 422 0 413 0 0 406 406 404 399 395 393 375 371 377 379 375 369 0 0 0 0 0
    0 0 0 0 0 0 0 0 0 0 0 0 0 0 0 0 0 0 0 0 0 0 0 0 0 0 0 0 0 0 0 0 0 0 0 0 0 0 0 0 0 0 0 0 0 0 0 0 0 0 0 0 0 0 0 0 0 0 0 0 0 0 0 0 0 0 0 0 0 1362 1388 1415 1388 1362 1362 1388 1362 1362 1415 1388 1415 1471 1471 1471 1471 1565 1635 1599 1752 1936 1887 1936 1887 1839 1887 1936 1887 1936 1936 1989 1936 2044 2453 2725 2830 3199 3199 3504 3504 5661 6133 7359 6690 6690 0 5256 4906 5256 4906 5661 6133 6133 7359 8177 0 7359 8177 6690 6690 7359 7359 6133 5661 6690 7359 7359 8177 8177 7359 8177 0 0 8177 7359 7359 5661 6690 6133 5661 6133 5661 6133 6690 5661 6690 6690 6690 7359 7359 7359 6690 6133 6690 6690 5256 5661 5661 5661 5661 6133 5661 5661 4906 6133 5661 6133 6690 5661 5661 6133 6133 6690 6133 6690 5661 5256 4906 3504 2830 2725 2230 2374 2374 2102 1989 0 1936 1936 0 1711 1599 1501 1501 1635 1362 1501 1415 1415 0 1268 1268 1226 0 0 1187 1149 1187 1206 1149 1132 1187 1206 1149 1132 1098 994 1008 968 876 817 0 0 817 817 791 791 750 0 0 0 721 0 0 90 90 0 0 0 0 675 675 681 657 216 215 286 75 75 0 0 728 0 0 259 0 0 0 0 0 0 0 0 0 0 0 0 0 0 0 0 0 228 0 0 468 487 487 493 500 500 500 500 0 521 130 129 129 0 422 0 411 0 0 404 404 404 399 395 393 377 371 379 381 377 369 0 0 0 0 0
    0 0 0 0 0 0 0 0 0 0 0 0 0 0 0 0 0 0 0 0 0 0 0 0 0 0 0 0 0 0 0 0 0 0 0 0 0 0 0 0 0 0 0 0 0 0 0 0 0 0 0 0 0 0 0 0 0 0 0 0 0 0 0 0 0 0 0 0 0 1338 1362 1388 1388 1362 1362 1362 1338 1362 1415 1388 1415 1471 1471 1471 1471 1565 1635 1599 1752 1989 1936 1936 1936 1887 1936 1936 1887 1989 1989 1989 1989 2102 2537 2628 2830 3066 3066 3504 3504 4906 5256 5256 5256 5256 0 4599 4088 4906 4906 5661 6133 6133 6690 8177 8177 6690 8177 6133 6690 6690 6690 6133 5661 6133 7359 6690 8177 7359 7359 7359 8177 0 7359 7359 7359 6133 6690 6133 5661 6133 5661 6133 6133 5661 6690 6690 6690 8177 7359 8177 6690 6690 6690 6690 5256 6133 5661 5661 5661 6133 5661 5661 4906 6133 5661 6133 6690 5661 5661 6133 5661 6133 6133 6133 5256 4906 4906 3504 2830 2830 2230 2374 2374 2102 1989 0 0 0 0 1711 1599 1471 1471 1635 1362 1471 1415 1388 1268 1268 1247 1226 0 1226 1187 1132 1187 1187 1149 1115 1187 1187 1132 1115 1098 994 1008 981 886 826 0 0 826 817 791 791 750 0 743 0 721 0 0 90 90 90 0 0 112 669 669 681 657 216 215 285 75 75 0 0 728 0 0 259 0 0 0 0 0 0 0 0 0 0 0 0 0 0 226 0 0 0 0 474 468 487 490 493 504 504 504 500 497 521 130 129 128 0 0 0 0 0 0 406 404 404 399 395 393 377 371 379 381 377 369 0 0 0 0 0
    0 0 0 0 0 0 0 0 0 0 0 0 0 0 0 0 0 0 0 0 0 0 0 0 0 0 0 0 0 0 0 0 0 0 0 0 0 0 0 0 0 0 0 0 0 0 0 0 0 0 0 0 0 0 0 0 0 0 0 0 0 0 0 0 0 0 0 0 0 1338 1362 1388 1362 1338 1338 1338 1338 1362 1415 1388 1388 1471 1471 1471 1471 1599 1599 1565 1711 1989 1989 1989 1936 1887 1936 1936 1887 1989 1989 2044 1989 2102 2537 2628 2725 3199 0 3504 3679 4906 4906 4329 4599 4599 4329 4599 4088 4599 4906 5256 6133 5661 6690 7359 7359 6133 7359 5661 6133 6133 6133 5661 5256 5661 6690 6133 7359 7359 6690 6690 7359 7359 6690 6690 6690 6133 6133 6133 5661 6133 6133 6133 6133 5661 6690 6690 6690 8177 7359 7359 6690 6133 6690 6690 5256 6133 5661 5661 5661 6133 6133 6133 5256 6690 6133 6690 6690 5661 5661 6133 5661 6133 6133 6133 4906 4906 4599 3345 2830 2830 2230 2374 2374 2102 1989 0 0 0 0 1711 1599 1501 1501 1635 1362 1501 1415 1388 1268 1268 1247 1206 0 1226 1187 1132 1168 1168 1132 1115 1168 1168 1115 1115 1098 0 1008 981 908 836 0 0 836 826 791 791 750 0 743 0 721 721 0 90 89 90 0 0 112 669 669 681 657 216 214 286 75 75 0 0 721 0 0 259 0 0 0 0 0 0 0 0 0 0 0 0 0 0 0 0 0 0 468 474 468 487 490 493 504 504 504 504 500 521 130 128 128 0 0 0 0 0 0 406 404 404 399 395 393 377 371 381 381 379 369 0 0 0 0 0
    0 0 0 0 0 0 0 0 0 0 0 0 0 0 0 0 0 0 0 0 0 0 0 0 0 0 0 0 0 0 0 0 0 0 0 0 0 0 0 0 0 0 0 0 0 0 0 0 0 0 0 0 0 0 0 0 0 0 0 0 0 0 0 0 0 0 0 0 0 1338 1362 1388 1362 1338 1338 1338 1314 1362 1388 1362 1388 1471 1471 1471 1471 1599 1599 1533 1711 1989 1989 1989 1936 1887 1936 1936 1887 2044 1989 2044 2044 2164 2453 2537 2628 2943 2943 0 3345 3873 3873 3679 3873 4088 4088 4599 4329 4906 5256 5256 6133 6133 6133 6690 6690 5661 6690 5256 5661 5661 5661 5661 5256 5661 6690 6133 7359 6690 6690 7359 7359 7359 6133 6690 6690 6133 6133 6133 5256 6133 6133 6133 6133 6133 6690 6690 6690 8177 7359 8177 6690 6133 6690 6690 5256 6133 5661 5661 5661 6133 6133 6133 5661 6690 6133 6690 6690 6133 6133 6133 5661 6133 6133 6133 5256 4906 4329 3199 2725 2725 2164 2299 2299 2102 1989 0 0 0 0 1711 1599 1501 1501 1635 1362 1501 1415 1388 0 1247 1247 1206 0 0 1168 1115 1168 1168 1132 1098 1168 1149 1098 1115 1098 0 1008 981 919 845 0 0 836 826 799 791 758 0 743 0 721 721 0 89 89 89 0 0 0 669 669 681 657 216 214 286 75 75 0 0 0 0 0 258 0 0 0 0 0 0 0 0 0 89 0 0 0 0 0 0 0 465 465 471 468 487 490 493 504 504 504 504 500 521 0 128 127 0 0 0 0 0 0 406 402 402 397 393 393 377 373 381 381 379 369 0 0 0 0 0
    0 0 0 0 0 0 0 0 0 0 0 0 0 0 0 0 0 0 0 0 0 0 0 0 0 0 0 0 0 0 0 0 0 0 0 0 0 0 0 0 0 0 0 0 0 0 0 0 0 0 0 0 0 0 0 0 0 0 0 0 0 0 0 0 0 0 0 0 0 1314 1362 1388 1362 1314 1314 1314 1314 1362 1388 1362 1388 1471 1471 1471 1471 1635 1565 1533 1711 1989 1989 1989 1936 1887 1936 1936 1887 2044 1989 2044 2044 2164 2453 2453 2537 2830 2725 2943 2943 3199 3199 3199 3504 3679 4088 4599 4599 4906 5256 5256 6133 6133 6133 6133 6133 5661 6133 4906 5661 5256 5256 5256 5256 5661 6133 6133 7359 6690 6690 7359 6690 7359 6133 6690 6133 6133 6133 6133 5256 6133 6133 6133 6690 6133 6690 6690 6133 8177 7359 8177 6690 6690 6690 6690 5661 6133 6133 5661 5661 6133 6133 6133 5661 6690 6690 6690 6690 6133 6133 6133 5256 6133 6133 6133 5256 4906 4599 3199 2725 2725 2164 2299 2299 2102 1936 0 0 0 0 1752 1599 1471 1471 1635 1362 1471 1415 1388 0 1247 1247 1206 0 0 1168 1115 1168 1168 1132 1098 1149 1149 1098 1115 1098 0 0 981 931 845 0 0 845 836 799 791 758 0 735 0 721 714 0 89 89 89 89 0 0 669 669 675 657 216 214 287 75 75 0 0 0 0 0 258 0 0 0 0 0 275 0 0 313 0 0 0 0 0 0 446 451 459 462 468 468 487 490 493 504 504 507 507 500 521 0 128 126 126 0 126 0 0 0 404 399 402 395 393 393 379 373 381 381 381 369 0 0 0 0 0
    0 0 0 0 0 0 0 0 0 0 0 0 0 0 0 0 0 0 0 0 0 0 0 0 0 0 0 0 0 0 0 0 0 0 0 0 0 0 0 0 0 0 0 0 0 0 0 0 0 0 0 0 0 0 0 0 0 0 0 0 0 0 0 0 0 0 0 0 0 1314 1338 1388 1338 1314 1314 1314 1314 1362 1415 1362 1388 1501 1471 1471 1471 1635 1533 1501 1711 1936 1936 1936 1936 1887 1887 1936 1887 1989 1936 2044 2044 2164 2453 2374 2537 2628 2628 2830 2725 2830 2830 2830 3199 3345 3873 4088 4329 4906 5256 5256 6133 6133 6133 5661 5661 5256 5661 4599 5661 5256 5256 5256 5256 5661 5661 5661 6690 6133 6133 6133 6133 6690 5661 6133 6133 6133 6133 6133 5256 6133 6133 6133 6690 6133 6690 6690 6133 8177 7359 8177 6690 6133 6690 6690 5661 6133 6133 6133 6133 6690 6133 6133 5661 6690 6133 6690 6690 6133 6133 6133 5661 6690 6133 6133 5661 5256 4906 3345 2725 2725 2164 2299 2299 2102 1936 1887 1936 1887 0 1752 1599 1471 1471 1635 1362 1471 1415 1362 0 1247 1247 1206 0 0 1168 1115 1168 1168 1115 1098 1149 0 0 0 1115 0 0 994 943 855 0 0 845 836 799 791 750 0 735 714 0 714 0 89 0 0 0 0 707 669 669 675 663 0 0 288 75 75 0 0 0 0 0 258 0 0 0 169 0 273 0 0 313 0 0 0 0 0 0 0 448 454 457 468 468 487 490 493 504 507 507 507 500 525 0 127 126 127 126 126 0 411 0 404 397 399 395 391 393 379 373 381 381 381 369 0 0 0 0 0
    0 0 0 0 0 0 0 0 0 0 0 0 0 0 0 0 0 0 0 0 0 0 0 0 0 0 0 0 0 0 0 0 0 0 0 0 0 0 0 0 0 0 0 0 0 0 0 0 0 0 0 0 0 0 0 0 0 0 0 0 0 0 0 0 0 0 0 0 0 1314 1338 1362 1338 1314 1314 1314 1314 1362 1388 1362 1388 1501 1471 1471 1471 1672 1533 1501 1752 1936 1936 1936 1936 1839 1887 1887 1887 1989 1936 2044 2044 2102 2299 2299 2374 2537 2453 2628 2537 2537 2537 2628 2830 2830 3504 3679 4088 4599 4599 4599 5661 5661 5661 5256 5256 5256 5661 4599 5256 4906 4906 4906 4906 5256 5661 5256 6133 5661 6133 6133 6133 6690 6133 6690 6133 6133 6133 6133 5256 6133 6133 6690 6690 6690 6690 6690 6133 8177 7359 7359 6690 6133 6690 6690 6133 6133 6133 6133 6133 6690 6133 6133 5661 6133 6690 6690 7359 6133 6690 6690 6133 7359 6690 7359 6133 6133 5661 3345 2725 2830 2164 2299 2299 2102 1936 1887 1936 1887 0 1752 1599 1471 1471 1635 1362 1471 1415 1362 0 1247 1247 1206 0 0 1168 1115 1168 1168 1132 1098 1168 0 0 0 0 0 549 994 943 855 0 0 845 836 799 791 750 0 735 714 0 714 0 0 687 687 0 0 700 669 669 669 663 0 0 288 75 75 0 0 0 0 0 258 0 0 0 170 0 270 0 0 310 0 0 0 0 0 443 440 443 451 454 465 468 490 493 497 507 511 511 511 504 529 0 127 126 0 126 126 0 411 404 404 393 397 395 391 393 379 373 379 379 381 369 0 0 0 0 0
    0 0 0 0 0 0 0 0 0 0 0 0 0 0 0 0 0 0 0 0 0 0 0 0 0 0 0 0 0 0 0 0 0 0 0 0 0 0 0 0 0 0 0 0 0 0 0 0 0 0 0 0 0 0 0 0 0 0 0 0 0 0 0 0 0 0 0 0 0 1291 1314 1362 1314 1314 1314 1314 1291 1362 1388 1362 1388 1501 1471 1471 1471 1672 1501 1501 1711 1887 1936 1936 1887 1839 1887 1887 1839 1989 1936 2044 2044 2102 2230 2164 2299 2374 2299 2453 2374 2374 2374 2537 2628 2725 3199 3345 3679 4088 4329 4329 4906 5661 5256 4906 4906 4906 5256 4329 5256 4599 4599 4329 4329 4599 4906 4599 5661 5256 5661 5661 6133 6690 6133 6690 6133 6690 6690 6690 5661 6690 6133 6690 7359 6690 6690 6690 6133 7359 6690 7359 6133 6133 6690 6690 6133 6690 6133 6133 6133 6690 6133 6133 5661 6133 6133 6690 7359 6133 6690 6690 6133 7359 7359 7359 6690 6690 6133 3504 2830 2830 2164 2299 2299 2102 1936 1887 1936 1887 0 1752 1599 1471 1471 1635 1362 1471 1415 1362 0 1268 1247 1206 0 0 1168 1115 1168 1168 1132 1115 0 0 0 0 0 0 549 994 955 865 0 0 855 836 799 791 750 0 735 714 0 707 0 0 687 681 0 0 700 669 669 663 657 669 0 289 75 75 0 0 0 0 0 0 0 0 0 170 0 0 0 0 305 0 0 425 0 0 440 440 443 448 454 465 471 490 493 497 511 514 518 514 511 533 0 127 126 127 126 126 0 408 404 402 391 395 393 391 391 375 371 377 377 379 367 0 0 0 0 0
    0 0 0 0 0 0 0 0 0 0 0 0 0 0 0 0 0 0 0 0 0 0 0 0 0 0 0 0 0 0 0 0 0 0 0 0 0 0 0 0 0 0 0 0 0 0 0 0 0 0 0 0 0 0 0 0 0 0 0 0 0 0 0 0 0 0 0 0 0 1291 1314 1362 1314 1314 1314 1314 1314 1388 1415 1388 1388 1501 1471 1471 1471 1672 1501 1501 1711 1887 1887 1887 1887 1839 1887 1887 1839 1989 1936 2044 2044 2044 2164 2164 2230 2374 2299 2374 2374 2299 2374 2453 2628 2628 2943 3066 3504 4088 4088 3873 4599 5256 4906 4599 4329 4906 4599 4329 4906 4329 4088 4088 4088 4329 4329 4329 4906 4599 4906 5661 5661 6133 6133 6690 6133 6690 6133 6690 5661 6690 6690 7359 7359 7359 6690 6690 6133 7359 6690 6690 5661 6133 6133 6133 6133 6690 6133 6133 6133 6690 6133 6690 6133 6133 6133 6690 7359 6690 7359 7359 6690 7359 8177 7359 7359 7359 6690 3679 2830 2830 2164 2374 2374 2102 1936 1936 1936 1936 0 1752 1599 1471 1471 1635 1362 1471 1415 1362 0 1268 1247 1206 0 0 1168 1115 1168 1168 1132 0 0 0 0 0 0 0 553 994 955 865 0 0 855 836 799 791 750 0 735 714 0 0 707 0 687 681 0 0 694 669 663 657 657 651 0 289 75 75 75 0 0 687 0 0 0 0 0 170 0 0 0 0 0 0 0 0 0 0 0 438 443 448 451 465 471 490 493 497 511 518 518 518 514 537 0 127 126 0 126 126 408 408 404 402 389 395 393 389 389 375 371 373 373 377 366 0 0 0 0 0
    0 0 0 0 0 0 0 0 0 0 0 0 0 0 0 0 0 0 0 0 0 0 0 0 0 0 0 0 0 0 0 0 0 0 0 0 0 0 0 0 0 0 0 0 0 0 0 0 0 0 0 0 0 0 0 0 0 0 0 0 0 0 0 0 0 0 0 0 0 1268 1291 1362 1338 1314 1314 1314 1314 1388 1415 1388 1388 1501 1471 1471 1471 1672 1501 1501 1711 1839 1839 1839 1839 1795 1839 1839 1839 1936 1936 2044 2044 2044 2102 2102 2230 2299 2230 2374 2299 2299 2374 2453 2628 2628 2943 2943 3504 3873 3873 3679 4088 4906 4329 4329 4088 4906 4329 4329 4599 4329 4088 4088 4088 4329 4088 4329 4599 4329 4906 6133 6133 6133 6133 6133 6133 6133 6133 6690 6133 6133 6690 7359 7359 7359 6690 6690 6133 6690 6133 6690 5661 6133 6133 6133 6133 6690 6133 6690 6133 6690 6133 6690 6690 6133 6690 7359 7359 7359 7359 8177 7359 8177 8177 8177 7359 7359 6690 3679 2830 2830 2230 2453 2374 2164 1989 1936 1936 1936 0 1795 1599 1471 1471 1672 1362 1471 1388 1338 0 1247 1247 1206 0 1206 1168 1115 1168 1168 1132 0 0 0 0 0 0 0 557 994 955 865 0 0 845 836 799 791 750 0 735 714 0 0 700 0 681 675 0 0 687 669 663 651 657 639 0 289 75 75 75 0 0 0 0 0 0 0 171 170 0 0 0 521 0 0 0 0 0 0 0 438 443 448 451 462 471 490 493 497 511 518 518 521 518 537 0 0 0 0 0 126 408 408 406 402 389 395 393 389 389 375 371 373 373 375 366 0 0 0 0 0
    0 0 0 0 0 0 0 0 0 0 0 0 0 0 0 0 0 0 0 0 0 0 0 0 0 0 0 0 0 0 0 0 0 0 0 0 0 0 0 0 0 0 0 0 0 0 0 0 0 0 0 0 0 0 0 0 0 0 0 0 0 0 0 0 0 0 0 0 0 1268 1291 1338 1338 1314 1314 1314 1314 1388 1415 1388 1388 1501 1471 1471 1501 1672 1501 1501 1711 1839 1839 1839 1839 1795 1839 1839 1795 1936 1936 2044 2044 2044 2102 2102 2164 2230 2230 2299 2299 2299 2374 2537 2628 2628 2943 2943 3504 3873 3679 3679 3679 4088 3873 4088 3679 4599 4088 4088 4329 4088 3873 4088 4088 4329 4088 4599 4906 4906 5256 6690 6690 6133 6133 6133 6133 6133 6133 6690 6133 6133 6690 6690 7359 7359 6690 6690 5661 6133 5661 5661 5256 5661 5661 6133 6133 6133 6133 6690 6133 6690 6133 6690 6690 6133 6690 7359 7359 7359 7359 8177 7359 8177 0 0 7359 7359 6690 3679 2725 2830 2299 2453 2453 2164 1989 1936 1936 1936 0 1795 1599 1471 1501 1672 1362 1443 1388 1314 1226 1247 1247 1187 0 1206 1168 1115 1168 1168 1132 0 0 0 0 0 0 0 557 994 955 865 845 855 855 845 799 799 758 0 743 721 0 0 700 0 681 675 0 0 681 669 657 645 651 634 0 289 75 75 75 0 0 0 0 0 0 0 171 171 0 0 0 518 0 0 0 0 0 0 0 0 440 448 454 465 474 490 493 497 507 518 518 521 518 537 0 0 0 0 0 0 408 411 408 404 391 395 393 389 389 375 371 373 373 0 366 0 0 0 0 0
    0 0 0 0 0 0 0 0 0 0 0 0 0 0 0 0 0 0 0 0 0 0 0 0 0 0 0 0 0 0 0 0 0 0 0 0 0 0 0 0 0 0 0 0 0 0 0 0 0 0 0 0 0 0 0 0 0 0 0 0 0 0 0 0 0 0 0 0 0 1268 1291 1338 1338 1314 1314 1314 1314 1388 1415 1362 1388 1501 1471 1471 1471 1672 1501 1501 1711 1839 1795 1795 1795 1752 1839 1839 1795 1936 1936 1989 1989 2044 2044 2102 2164 2230 2230 2299 2230 2299 2374 2537 2628 2628 2943 3066 3679 3873 3679 3504 3504 3679 3679 3873 3679 4329 3873 4088 4329 4088 3873 4088 4088 4599 4088 4906 4906 5256 5661 6690 6690 6690 6690 6133 6133 6690 6133 6690 6133 6133 6690 6690 7359 7359 6690 6690 6133 6133 5661 5661 5256 5661 5661 6133 6133 6133 6133 6690 6133 6133 6133 6133 6133 6133 6133 6690 7359 7359 7359 7359 7359 8177 8177 0 7359 6133 6690 3873 2830 2830 2374 2537 2453 2230 1989 1936 1936 1989 0 1795 1635 1471 1501 1672 1362 1415 1362 1291 1226 1226 1226 1187 0 1187 1187 1115 1168 1168 1132 0 0 0 0 0 0 0 553 994 955 865 845 865 855 845 808 799 758 0 743 721 0 0 700 0 681 669 0 0 669 663 651 645 651 629 0 289 75 75 75 0 0 0 0 0 0 0 171 170 0 0 0 0 0 0 0 0 0 0 0 0 0 0 0 468 474 487 490 493 507 518 518 521 518 537 0 0 0 0 0 0 411 413 411 404 393 395 393 391 391 377 373 371 371 0 366 0 0 0 0 0
    0 0 0 0 0 0 0 0 0 0 0 0 0 0 0 0 0 0 0 0 0 0 0 0 0 0 0 0 0 0 0 0 0 0 0 0 0 0 0 0 0 0 0 0 0 0 0 0 0 0 0 0 0 0 0 0 0 0 0 0 0 0 0 0 0 0 0 0 0 1268 1268 1338 1338 1314 1314 1338 1314 1388 1415 1362 1388 1471 1471 1443 1471 1672 1471 1471 1672 1795 1752 1795 1795 1752 1795 1795 1795 1936 1936 1989 1989 1989 2044 2044 2164 2230 2230 2299 2230 2299 2374 2537 2628 2628 3066 3066 3679 3873 3679 3504 3345 3679 3679 3873 3679 4088 3873 3873 4088 4088 4088 4088 4088 4599 4329 5256 5256 6133 6133 6690 7359 7359 7359 6690 6133 6690 6133 6690 5661 6133 6133 6133 6133 6690 6133 5661 5661 6133 5661 5256 5256 5661 5661 5661 6133 6133 6133 6133 6133 6133 6133 6133 6133 5661 6133 6690 7359 7359 7359 7359 7359 7359 8177 0 7359 6133 6690 4088 3066 2943 2453 2628 2537 2230 2044 1989 1936 1989 0 1795 1635 1471 1501 1672 1362 1388 1362 1291 1226 1226 1226 1168 1168 1187 1187 1115 1168 1149 1132 0 0 1168 1149 1132 0 0 0 994 943 865 845 865 865 845 0 799 766 0 750 728 0 0 700 687 675 669 681 88 663 663 645 639 645 629 0 0 0 75 75 0 0 0 0 0 0 0 171 170 0 0 0 0 0 0 0 0 0 0 0 0 0 0 0 0 477 490 490 493 504 518 518 521 521 537 0 0 0 0 0 0 413 413 413 404 395 395 393 391 391 379 373 371 371 0 364 0 0 0 0 0
    0 0 0 0 0 0 0 0 0 0 0 0 0 0 0 0 0 0 0 0 0 0 0 0 0 0 0 0 0 0 0 0 0 0 0 0 0 0 0 0 0 0 0 0 0 0 0 0 0 0 0 0 0 0 0 0 0 0 0 0 0 0 0 0 0 0 0 0 0 1247 1268 1338 1338 1338 1338 1338 1314 1388 1415 1362 1388 1471 1443 1443 1471 1672 1443 1443 1672 1795 1711 1795 1795 1711 1795 1795 1752 1936 1887 1989 1989 1989 2044 2044 2164 2230 2230 2299 2299 2299 2453 2537 2725 2628 3199 3199 3679 3873 3679 3345 3199 3504 3504 3873 3679 4088 3679 3873 4088 4088 4088 4088 4088 4599 4329 5256 5661 6133 6690 6690 7359 7359 7359 6690 6690 6690 6133 6690 5661 6133 6133 5661 6133 6133 5661 5256 5661 5661 5256 4906 5256 5256 5661 5661 6133 5661 6133 6133 6133 6133 6133 6133 6133 5661 6133 6690 7359 6690 7359 7359 8177 7359 8177 8177 7359 6133 6690 4088 3066 2943 2537 2628 2537 2299 2044 1989 1936 1989 0 1795 1635 1471 1501 1672 1362 1362 1338 1268 1206 1226 1226 1168 1168 1187 1187 1115 1168 1149 1132 0 0 1168 1149 1132 0 0 0 994 943 865 855 865 865 855 0 799 766 0 758 728 0 0 700 687 681 669 681 669 663 663 645 639 639 623 0 0 75 75 75 0 0 0 0 0 0 0 0 0 0 0 0 0 0 0 0 0 0 0 0 0 0 0 0 0 481 490 493 497 507 518 518 521 521 537 0 0 126 127 0 0 413 415 415 406 397 397 395 393 393 379 373 369 369 0 364 0 0 0 0 0
    0 0 0 0 0 0 0 0 0 0 0 0 0 0 0 0 0 0 0 0 0 0 0 0 0 0 0 0 0 0 0 0 0 0 0 0 0 0 0 0 0 0 0 0 0 0 0 0 0 0 0 0 0 0 0 0 0 0 0 0 0 0 0 0 0 0 0 0 0 1247 1268 1338 1338 1338 1338 1338 1314 1388 1415 1388 1415 1501 1471 1443 1471 1672 1443 1443 1635 1752 1672 1752 1795 1672 1752 1795 1752 1936 1887 1989 1989 1989 2044 2044 2164 2230 2230 2374 2299 2374 2453 2628 2725 2725 3345 3345 3873 4599 4329 4088 3504 3873 3679 4088 3679 4088 3873 4088 4088 4088 4329 4329 4329 5256 4599 6133 6133 6690 7359 7359 8177 8177 7359 7359 6690 6690 6133 6133 5661 6133 6133 5661 5661 5661 5256 5256 5661 5256 5256 4906 5256 5256 5661 5661 6133 5661 6690 6133 6133 6133 6133 6133 6133 6133 6133 6690 7359 6690 7359 7359 8177 7359 8177 8177 7359 6133 6690 4329 3199 3066 2537 2628 2537 2299 2044 1989 1936 1989 0 1795 1635 1471 1501 1672 1362 1338 1314 1247 1206 1226 1206 1168 1149 1168 1187 1115 1168 1149 0 0 0 1168 1132 1132 0 0 0 994 943 865 855 865 865 855 0 808 774 0 766 735 0 0 694 687 681 675 681 669 663 663 639 645 634 623 0 0 75 75 75 0 0 0 0 0 0 0 0 0 0 0 0 0 0 0 0 0 0 0 0 300 0 0 0 0 481 490 490 497 507 514 518 521 521 537 537 127 126 0 0 0 415 415 415 406 397 397 397 393 393 379 373 0 369 0 364 0 0 0 0 0
    0 0 0 0 0 0 0 0 0 0 0 0 0 0 0 0 0 0 0 0 0 0 0 0 0 0 0 0 0 0 0 0 0 0 0 0 0 0 0 0 0 0 0 0 0 0 0 0 0 0 0 0 0 0 0 0 0 0 0 0 0 0 0 0 0 0 0 0 0 1247 1268 1314 1338 1338 1338 1338 1314 1415 1415 1388 1415 1501 1471 1443 1471 1672 1443 1443 1599 1711 1599 1711 1752 1672 1752 1795 1795 1936 1936 1989 1989 1989 2044 2044 2164 2230 2230 2374 2299 2374 2453 2628 2830 2725 3345 3345 4088 4906 4906 4599 4088 4599 3873 4329 3873 4088 3679 4088 4088 4329 4329 4599 4599 5661 5256 6690 6690 7359 7359 7359 8177 7359 7359 7359 6690 6690 6133 6133 5661 6133 6133 5256 5661 5661 5661 5256 5256 4906 4906 4599 4906 4906 5256 5256 5661 5256 6133 5661 6133 6133 6133 6133 6133 6133 6690 6690 7359 6690 6690 6690 7359 7359 7359 7359 6690 5661 6690 4088 3199 3066 2537 2628 2537 2299 2044 1989 1936 1989 0 1795 1599 1471 1501 1672 1362 1291 1291 1247 1206 1206 1206 1149 1149 1168 1187 1115 1168 1149 0 0 0 1149 1132 1115 0 0 0 994 943 865 855 876 876 855 0 808 774 0 766 735 0 0 694 687 681 675 681 669 657 663 639 645 634 0 0 212 75 75 75 0 0 0 0 255 255 0 0 0 0 0 0 0 0 0 0 0 0 0 0 0 0 0 0 0 481 487 493 493 504 514 518 521 521 537 533 127 126 0 0 0 0 415 413 406 399 397 397 393 393 381 373 371 371 375 364 0 0 0 0 0
    0 0 0 0 0 0 0 0 0 0 0 0 0 0 0 0 0 0 0 0 0 0 0 0 0 0 0 0 0 0 0 0 0 0 0 0 0 0 0 0 0 0 0 0 0 0 0 0 0 0 0 0 0 0 0 0 0 0 0 0 0 0 0 0 0 0 0 0 0 1268 1268 1338 1338 1362 1362 1362 1338 1415 1415 1388 1415 1501 1471 1443 1471 1672 1443 1443 1599 1711 1635 1752 1795 1711 1795 1795 1795 1936 1936 1989 1989 1989 2044 2044 2164 2230 2230 2374 2299 2374 2537 2725 2830 2830 3504 3504 4329 5256 4906 4906 4329 4599 4088 4599 3873 4088 3679 3873 4088 4329 4329 4599 4906 6133 5661 7359 7359 7359 8177 8177 8177 7359 7359 7359 6690 6690 6690 6133 5661 6133 6133 5256 5661 5661 5661 5256 5256 4906 4599 4329 4906 4329 4599 4599 4906 4599 5661 5256 6133 6133 6133 6133 6133 6690 6690 6690 8177 6690 6690 6690 7359 7359 7359 7359 6690 5256 6690 4329 3199 3066 2628 2628 2537 2299 2044 1989 1936 1989 0 1795 1599 1471 1501 1672 1362 1247 1268 1226 1206 1206 1206 1149 1149 1168 1187 1098 1168 1132 0 0 1149 1149 1132 1115 0 0 0 994 943 876 865 876 876 865 0 808 782 0 774 743 0 0 694 0 681 675 681 669 657 669 639 657 639 0 0 212 75 75 75 0 0 0 0 255 257 0 0 0 0 0 273 0 0 0 0 0 0 0 0 0 0 0 0 0 484 490 493 497 500 511 514 518 518 533 525 0 0 0 0 0 0 415 415 406 399 399 399 395 395 383 375 373 373 379 366 0 0 0 0 0
    0 0 0 0 0 0 0 0 0 0 0 0 0 0 0 0 0 0 0 0 0 0 0 0 0 0 0 0 0 0 0 0 0 0 0 0 0 0 0 0 0 0 0 0 0 0 0 0 0 0 0 0 0 0 0 0 0 0 0 0 0 0 0 0 0 0 0 0 0 1268 1268 1314 1338 1362 1362 1362 1314 1415 1415 1388 1415 1501 1443 1443 1471 1672 1443 1443 1599 1711 1672 1795 1839 1752 1795 1839 1795 1936 1936 1989 1989 2044 2044 2044 2164 2230 2230 2374 2299 2453 2537 2725 0 0 3679 3873 4329 5256 5256 4906 4329 4906 4329 4599 3873 4088 3679 4088 4329 4329 4329 4906 5256 6133 6133 7359 7359 7359 8177 7359 8177 7359 7359 7359 7359 7359 7359 6690 6133 6133 6133 5256 5661 5661 5661 4906 4906 4599 4329 4088 4599 4088 4329 4329 4599 4329 5256 4906 5661 5661 5661 5661 6133 6690 6690 6690 8177 6690 6690 6690 7359 7359 6690 6690 6133 5256 6133 4088 3199 3066 2628 2628 2537 2230 2044 1989 1936 1989 0 1795 1599 1443 1471 1672 1362 1226 1268 1226 1187 1206 1187 1132 1132 1149 1187 1098 1168 1132 1132 1115 1149 1149 1132 1115 0 0 0 994 955 876 865 886 886 865 0 0 791 0 782 743 0 0 0 0 687 681 687 669 657 675 645 675 645 0 0 0 75 75 75 0 0 93 0 256 258 0 0 0 0 0 274 274 0 0 0 0 0 0 0 0 0 0 0 0 0 490 493 497 500 504 507 511 511 525 504 0 0 130 0 0 420 418 418 408 402 399 399 395 395 385 377 375 375 383 367 0 0 0 0 0
    0 0 0 0 0 0 0 0 0 0 0 0 0 0 0 0 0 0 0 0 0 0 0 0 0 0 0 0 0 0 0 0 0 0 0 0 0 0 0 0 0 0 0 0 0 0 0 0 0 0 0 0 0 0 0 0 0 0 0 0 0 0 0 0 0 0 0 0 0 1268 1268 1314 1338 1338 1338 1338 1314 1415 1388 1388 1415 1501 1443 1443 1443 1635 1443 1443 1599 1711 1672 1839 1839 1795 1839 1839 1839 1989 1936 1989 1989 2044 2044 2044 2164 2230 2230 2374 2374 2453 2628 2830 0 114 4088 4329 4906 6133 5661 5256 4906 4906 4599 4599 3873 4088 3679 4088 4329 4329 4599 5256 5661 6690 6690 7359 7359 7359 8177 8177 8177 8177 8177 8177 7359 8177 7359 6690 6690 6690 6690 5256 5661 5661 5256 4599 4906 4329 4088 3873 4329 3679 3873 3873 4329 3873 4906 4906 5256 5661 5661 5661 5661 6133 6690 6690 7359 6690 6690 6690 7359 7359 6690 6690 6133 5256 6133 4088 3199 3066 2628 2628 2453 2230 2044 1936 1887 1936 1795 1752 1599 1443 1471 1635 1362 1206 1268 1226 1206 1226 1206 1149 1132 1149 1206 1098 1168 1132 1132 1115 1149 1132 1132 1115 1168 0 0 994 968 886 876 886 886 865 0 0 799 758 782 750 0 0 0 89 0 0 0 675 663 681 663 687 669 0 0 0 0 0 0 273 0 93 0 257 0 0 0 0 0 273 274 274 0 0 0 0 0 0 0 521 0 0 0 0 487 490 493 497 497 500 500 0 504 518 493 0 131 131 0 0 422 418 418 408 402 402 399 395 397 387 379 375 375 385 367 0 0 0 0 0
    0 0 0 0 0 0 0 0 0 0 0 0 0 0 0 0 0 0 0 0 0 0 0 0 0 0 0 0 0 0 0 0 0 0 0 0 0 0 0 0 0 0 0 0 0 0 0 0 0 0 0 0 0 0 0 0 0 0 0 0 0 0 0 0 0 0 0 0 0 1291 1291 1314 1338 1338 1338 1338 1314 1388 1388 1362 1388 1471 1415 1415 1443 1635 1415 1443 1565 1672 1672 1887 1887 1839 1887 1887 1839 1989 1989 1989 1989 2044 2044 2044 2164 2230 2230 2374 2299 2453 2537 2830 2943 0 4088 4329 4599 5661 5256 4906 4329 4599 4088 4329 3873 3873 3873 4329 4329 4599 4906 5661 5661 6690 6690 7359 7359 7359 8177 8177 8177 8177 0 0 8177 8177 8177 7359 6690 7359 6690 5256 5661 5661 5256 4599 4599 4088 3873 3873 4088 3679 3679 3873 4329 3873 4906 4599 4906 5256 5256 5256 5661 6133 6690 6690 7359 6690 6690 6690 8177 7359 7359 6690 6133 5256 6133 4329 3345 3066 2628 2537 2537 2164 1989 1936 1887 1936 1795 1752 1599 1443 1471 1635 1362 1226 1268 1226 1226 1226 1226 1168 1149 1168 1226 1115 0 1149 1149 1115 1149 1132 1132 1132 0 0 0 994 968 886 886 886 886 876 0 0 799 758 782 750 0 0 0 89 0 0 0 681 669 0 0 0 687 0 0 0 0 0 0 0 0 93 0 258 0 0 0 0 0 273 274 274 0 0 0 0 0 0 518 518 0 0 497 0 487 493 493 497 497 497 497 0 500 511 490 0 132 131 0 0 422 420 420 411 402 402 399 397 397 387 379 375 375 385 367 0 0 0 0 0
    0 0 0 0 0 0 0 0 0 0 0 0 0 0 0 0 0 0 0 0 0 0 0 0 0 0 0 0 0 0 0 0 0 0 0 0 0 0 0 0 0 0 0 0 0 0 0 0 0 0 0 0 0 0 0 0 0 0 0 0 0 0 0 0 0 0 0 0 0 1291 1291 1314 1338 1362 1362 1362 1314 1388 1388 1362 1388 1471 1415 1415 1443 1635 1415 1443 1565 1672 1672 1887 1887 1839 1887 1887 1887 1989 1989 2044 2044 2044 2044 2044 2164 2164 2164 2374 2299 2374 2537 2725 2943 2943 4088 4599 4329 5256 4599 4329 3873 4088 3679 4088 3679 3873 4088 4329 4329 4906 4906 5661 5661 6690 7359 7359 7359 8177 8177 8177 0 8177 8177 8177 8177 0 0 8177 7359 7359 6690 5256 5661 5661 4906 4088 4329 3873 3873 3873 3873 3679 3679 3873 4088 3679 4599 4329 4599 5256 5256 5256 5661 6133 6690 6690 7359 7359 6690 7359 7359 7359 7359 6690 6133 5661 6133 4599 3504 3066 2628 2537 2453 2164 1989 1936 1887 1936 1795 1752 1635 1471 1471 1635 1362 1206 1247 1226 1226 1226 1226 1187 1168 1168 1226 1132 0 1168 1168 1115 1149 1132 1132 1132 0 0 0 981 968 886 886 886 886 876 0 0 799 750 782 750 0 707 694 0 0 0 0 681 669 0 0 735 700 0 0 0 0 0 0 0 0 93 0 259 0 0 0 0 0 273 274 274 0 0 0 0 0 525 518 514 0 497 497 490 490 493 497 497 497 493 497 0 493 497 477 0 0 0 425 420 422 422 422 413 402 402 402 397 395 387 379 375 375 385 367 0 0 0 0 0
    0 0 0 0 0 0 0 0 0 0 0 0 0 0 0 0 0 0 0 0 0 0 0 0 0 0 0 0 0 0 0 0 0 0 0 0 0 0 0 0 0 0 0 0 0 0 0 0 0 0 0 0 0 0 0 0 0 0 0 0 0 0 0 0 0 0 0 0 0 1291 1291 1314 1338 1362 1362 1362 1338 1415 1388 1362 1388 1501 1415 1415 1471 1635 1471 1471 1599 1711 1711 1887 1887 1839 1839 1887 1839 1989 1936 1989 1989 2044 2044 2044 2164 2164 2164 2299 2230 2299 2453 2725 2830 2943 4329 4906 4088 4599 4088 3679 3345 3679 3345 3679 3504 3679 4088 4599 4906 5661 4906 6133 6133 6690 7359 7359 7359 8177 8177 0 8177 8177 8177 8177 0 0 0 8177 8177 8177 7359 5661 6133 5661 4906 4088 4329 3679 3873 3679 3873 3504 3504 3679 4088 3679 4329 4329 4599 4906 4906 5256 5661 6133 6690 6690 6690 6690 6690 7359 7359 7359 6690 6690 6133 6133 6133 4906 3504 3066 2628 2453 2374 2102 1989 1936 1936 1936 1839 1752 1672 1471 1471 1635 1362 1206 1247 1206 1206 1226 1226 1187 1168 1168 1226 1149 0 1187 1206 1115 1149 1132 1132 1132 0 0 0 981 955 886 886 886 886 876 845 0 799 750 0 743 0 707 694 0 0 0 0 681 675 0 0 0 707 0 0 0 0 0 0 0 0 0 261 260 0 142 0 0 0 273 273 273 0 0 0 0 0 525 514 511 511 493 497 490 490 490 493 497 493 493 493 0 0 474 448 432 425 425 425 422 422 422 422 415 402 402 402 397 395 387 379 377 377 385 369 0 0 0 0 0
    0 0 0 0 0 0 0 0 0 0 0 0 0 0 0 0 0 0 0 0 0 0 0 0 0 0 0 0 0 0 0 0 0 0 0 0 0 0 0 0 0 0 0 0 0 0 0 0 0 0 0 0 0 0 0 0 0 0 0 0 0 0 0 0 0 0 0 0 0 1291 1291 1314 1338 1362 1362 1362 1338 1388 1388 1362 1388 1471 1415 1415 1471 1635 1501 1501 1635 1711 1672 1839 1839 1795 1839 1839 1839 1936 1936 1989 1989 1989 2044 2044 2164 2164 2102 2230 2230 2230 2374 2725 2830 2943 4329 4906 4088 4088 3679 3345 3066 0 2830 0 3199 3345 3873 4329 4599 5661 4906 6133 6133 6690 7359 7359 7359 7359 7359 8177 8177 7359 8177 8177 0 0 0 0 0 8177 8177 6133 6133 6133 5256 4329 4329 3679 3873 3679 3679 3504 3504 3679 3873 3679 4329 4329 4329 4906 4906 5256 5256 5661 6133 6690 6690 6690 6690 6690 6690 7359 6690 6690 6690 6133 6133 4906 3504 3066 2628 2374 2299 2102 1989 1936 1887 1936 1839 1752 1711 1501 1471 1635 1362 1226 1226 1187 1206 1206 1206 1187 1168 1168 1226 1149 1247 1187 1226 1132 1168 1115 1132 0 0 0 0 968 955 876 886 886 886 865 845 817 799 750 782 743 714 707 700 0 707 0 0 687 681 0 0 0 0 0 0 0 0 0 0 0 264 0 263 260 0 0 0 0 0 272 273 273 2164 2164 0 0 0 525 514 507 504 490 493 487 487 490 490 493 493 490 0 0 0 446 438 430 425 422 422 422 422 422 420 415 399 399 399 397 395 387 379 377 377 385 369 0 0 0 0 0
    0 0 0 0 0 0 0 0 0 0 0 0 0 0 0 0 0 0 0 0 0 0 0 0 0 0 0 0 0 0 0 0 0 0 0 0 0 0 0 0 0 0 0 0 0 0 0 0 0 0 0 0 0 0 0 0 0 0 0 0 0 0 0 0 0 0 0 0 0 1291 1291 1314 1338 1362 1362 1362 1338 1388 1388 1388 1415 1501 1415 1415 1501 1635 1533 1501 1599 1635 1599 1795 1795 1795 1795 1839 1839 1887 1936 1989 1989 1989 1989 2044 2102 2102 2102 2164 2164 2102 2374 2725 2830 2943 4088 4599 3679 3345 3199 3066 2044 1752 1887 0 2044 0 0 3873 0 5256 4599 6133 6133 6690 7359 6690 6690 7359 7359 7359 7359 6690 7359 7359 8177 0 0 0 0 0 0 7359 7359 6133 5256 4329 4329 3873 3873 3873 3679 3679 3504 3504 3679 3504 3873 3873 3679 4329 4329 4599 4906 5256 5661 6133 6133 6690 6133 6690 6690 7359 6690 7359 6690 6133 6133 4906 3504 2943 2628 2374 2299 2164 1989 1936 1887 1887 1887 1795 1752 1565 1533 1635 1388 1226 1247 1187 1206 1206 1206 1206 1187 1187 1247 1187 1268 1226 1247 1132 1149 1115 1132 1115 0 0 0 968 943 876 886 886 886 865 845 817 808 750 782 750 714 714 707 714 714 714 714 0 0 721 0 0 0 0 0 0 0 0 0 0 0 0 264 261 0 0 0 0 0 271 272 272 2164 2164 0 0 0 529 511 504 500 487 490 487 487 487 487 487 487 484 0 0 465 438 435 430 422 420 420 420 420 418 415 411 399 397 397 395 393 385 379 375 375 383 369 0 0 0 0 0
    0 0 0 0 0 0 0 0 0 0 0 0 0 0 0 0 0 0 0 0 0 0 0 0 0 0 0 0 0 0 0 0 0 0 0 0 0 0 0 0 0 0 0 0 0 0 0 0 0 0 0 0 0 0 0 0 0 0 0 0 0 0 0 0 0 0 0 0 0 1291 1291 1314 1314 1338 1362 1338 1338 1362 1388 1362 1415 1471 1415 1415 1501 1599 1533 1501 1565 1565 1565 1711 1711 1752 1752 1795 1839 1887 1936 1936 1936 1989 1989 1989 2044 2102 2044 2102 2102 2044 2299 2725 2725 2830 4088 4599 3504 3066 2374 2102 1887 1711 1795 1752 1795 0 0 0 0 4329 4088 5661 5661 5661 6690 6133 6133 6690 7359 7359 6690 6690 7359 7359 8177 0 0 0 0 0 0 8177 7359 6690 5256 4329 4329 4088 4088 4088 3873 3873 3504 3679 3679 3504 3679 3679 3504 3873 3873 4329 4599 5256 5661 6133 6133 6690 6690 7359 6690 7359 6690 7359 6690 6133 6133 5256 3504 2943 2628 2374 2299 2164 1989 1936 1887 1887 1887 1795 1752 1635 1565 1635 1415 1247 1247 1187 1206 1206 1206 1206 1187 1187 1247 1187 1268 1226 1247 1168 1168 1115 1132 1115 1082 0 0 943 931 876 876 876 876 865 845 808 799 750 782 750 721 714 707 721 721 714 721 0 0 728 0 0 0 0 0 0 0 0 799 0 0 0 267 0 0 0 0 0 0 0 0 272 2164 2164 2164 0 0 533 504 500 0 0 490 0 484 484 484 484 484 481 474 462 457 0 432 430 425 420 420 420 418 415 415 411 399 397 397 395 393 385 381 375 375 383 371 0 0 0 0 0
    0 0 0 0 0 0 0 0 0 0 0 0 0 0 0 0 0 0 0 0 0 0 0 0 0 0 0 0 0 0 0 0 0 0 0 0 0 0 0 0 0 0 0 0 0 0 0 0 0 0 0 0 0 0 0 0 0 0 0 0 0 0 0 0 0 0 0 0 0 1314 1291 1314 1338 1338 1362 1338 1338 1362 1388 1362 1388 1471 1415 1415 1471 1533 1501 1471 1565 1565 1533 1635 1672 1672 1711 1795 1795 1839 1887 1936 1936 1936 1989 1989 1989 2044 1989 2044 1989 1936 2164 2374 2299 2537 3345 3873 3199 2374 1795 1752 1752 1635 1672 1635 1672 0 0 0 0 4088 3873 5256 5256 5256 6690 6133 6133 6690 7359 6690 6690 6133 6690 7359 8177 0 0 0 0 0 0 8177 7359 6690 5661 4329 4599 4329 4329 4329 3873 4088 3679 3679 3679 3504 3504 3679 3504 3679 3679 4088 4329 4599 4906 5661 5661 6690 6690 7359 6690 7359 7359 7359 6690 6133 6133 4906 3504 2830 2537 2299 2230 2102 1989 1887 1887 1887 1839 1752 1752 1635 1599 1635 1415 1247 1247 1187 1226 1206 1226 1206 1187 1187 1247 1226 1291 1226 1247 1187 1187 1115 1132 1115 1066 931 955 943 919 865 865 876 865 865 845 808 799 750 782 750 721 721 714 728 728 721 721 700 694 0 743 817 0 0 0 0 0 0 791 728 0 0 0 0 0 0 0 0 0 0 0 0 2164 2164 2164 0 0 537 0 493 0 0 487 477 481 481 481 481 481 477 471 462 457 440 435 430 425 418 420 418 415 413 413 408 402 397 397 395 393 387 383 375 377 383 371 0 0 0 0 0
    0 0 0 0 0 0 0 0 0 0 0 0 0 0 0 0 0 0 0 0 0 0 0 0 0 0 0 0 0 0 0 0 0 0 0 0 0 0 0 0 0 0 0 0 0 0 0 0 0 0 0 0 0 0 0 0 0 0 0 0 0 0 0 0 0 0 0 0 0 1314 1314 1314 1338 1338 1362 1338 1338 1362 1388 1362 1415 1443 1415 1415 1471 1501 1501 1471 1565 1533 1501 1599 1599 1635 1635 1752 1795 1795 1839 1887 1887 1887 1936 1936 1887 1936 1887 1887 1887 1752 1839 1839 1752 1752 1752 1711 1635 1711 1599 1635 1635 1565 1599 1599 1635 1672 1672 0 0 3679 3504 4599 4599 4329 5661 5661 5661 6133 6690 6690 6133 6133 6690 7359 8177 0 0 0 0 8177 8177 8177 7359 6690 5661 4906 4906 4599 4329 4599 4088 4329 4088 3679 3873 3679 3504 3504 3504 3679 3679 3873 4088 4329 4599 5661 5256 6133 6690 6690 6690 7359 7359 8177 6690 6690 5661 4906 3504 2725 2537 2299 2230 2102 1989 1887 1887 1887 1887 1795 1795 1635 1599 1599 1415 1247 1226 1187 1226 1206 1226 1206 1206 1206 1247 1226 1291 1226 1247 1187 1187 1132 1115 1098 1036 897 931 919 908 865 865 865 865 855 845 808 799 750 782 758 728 721 714 728 735 721 728 700 700 743 750 808 0 0 0 0 0 0 0 714 0 0 0 0 0 0 0 0 0 598 598 0 2102 2102 2164 0 0 0 0 493 0 0 484 477 477 477 477 481 477 474 471 462 457 440 435 430 422 418 418 415 413 408 408 406 399 397 397 395 393 387 385 375 377 385 373 0 0 0 0 0
    0 0 0 0 0 0 0 0 0 0 0 0 0 0 0 0 0 0 0 0 0 0 0 0 0 0 0 0 0 0 0 0 0 0 0 0 0 0 0 0 0 0 0 0 0 0 0 0 0 0 0 0 0 0 0 0 0 0 0 0 0 0 0 0 0 0 0 0 0 1338 1338 1314 1338 1362 1362 1362 1362 1362 1415 1388 1415 1471 1443 1443 1471 1471 1501 1443 1533 1533 1471 1565 1565 1565 1565 1672 1752 1752 1752 1839 1839 1839 1887 1936 1887 1887 1839 1839 1839 1752 1752 1752 1711 1711 1635 1599 1533 1599 1471 1565 1565 1501 1533 1533 1565 1635 1635 0 1887 3066 2943 3679 3873 3679 4599 4599 4906 5661 6133 6133 5256 5661 6133 6133 7359 8177 8177 8177 0 8177 8177 8177 8177 6690 6690 5661 5661 5256 4906 5256 4088 4329 4329 3679 3873 3679 3504 3679 3504 3679 3679 3873 4329 4088 4599 5661 5256 6133 6690 6690 6690 6690 7359 8177 7359 6690 6133 5661 3679 2725 2453 2299 2164 2102 1989 1936 1887 1887 1936 1795 1795 1635 1599 1565 1415 1226 1226 1187 1226 1206 1226 1226 1206 1206 1268 1247 1291 1247 1268 1206 1187 1168 1149 1115 1022 865 897 897 886 855 865 865 865 855 836 799 799 750 774 750 728 721 714 728 735 721 728 707 700 735 743 799 0 0 0 0 0 0 0 0 0 0 0 0 0 0 0 0 598 593 588 0 2044 2044 2102 0 0 0 0 493 0 0 481 474 477 474 477 477 477 471 468 462 454 440 432 430 422 415 418 415 411 406 406 404 397 395 395 395 393 389 387 377 377 383 375 0 0 0 0 0
    0 0 0 0 0 0 0 0 0 0 0 0 0 0 0 0 0 0 0 0 0 0 0 0 0 0 0 0 0 0 0 0 0 0 0 0 0 0 0 0 0 0 0 0 0 0 0 0 0 0 0 0 0 0 0 0 0 0 0 0 0 0 0 0 0 0 0 0 0 1362 1362 1338 1362 1388 1362 1362 1388 1388 1443 1415 1443 1471 1443 1471 1501 1471 1533 1443 1533 1501 1471 1533 1533 1533 1533 1599 1672 1672 1672 1752 1752 1795 1839 1936 1936 1936 1887 1887 1839 1795 1795 1795 1752 1752 1672 1672 1599 1635 1443 1533 1533 1471 1501 1501 1533 1565 1565 1752 1795 1936 2725 3345 3504 3345 3873 3873 4088 4906 5256 4906 4599 4906 5256 5661 6690 7359 7359 7359 8177 7359 7359 8177 7359 6690 6690 6133 5661 5661 5256 4906 4088 4329 4329 3679 3679 3679 3504 3679 3504 3504 3679 3873 4088 4088 4329 5256 5256 5661 6690 6690 6133 6690 6690 8177 6690 6690 5661 4906 3345 2453 2299 2230 2102 2102 2044 1936 1936 1936 1936 1839 1795 1635 1599 1501 1388 1206 1206 1168 1226 1206 1226 1226 1206 1206 1268 1247 1291 1247 1268 1226 1226 1247 0 1206 1036 855 886 876 865 845 855 855 865 855 836 799 799 750 774 758 735 728 721 728 743 728 735 707 700 728 728 791 675 0 0 0 0 0 0 0 0 0 0 0 593 0 0 584 593 584 584 0 2044 1989 2102 2044 0 0 500 493 0 0 477 471 474 471 474 474 474 471 468 459 454 440 432 427 422 415 415 413 408 404 404 399 395 393 395 393 391 389 387 379 379 385 377 0 0 0 0 0
    0 0 0 0 0 0 0 0 0 0 0 0 0 0 0 0 0 0 0 0 0 0 0 0 0 0 0 0 0 0 0 0 0 0 0 0 0 0 0 0 0 0 0 0 0 0 0 0 0 0 0 0 0 0 0 0 0 0 0 0 0 0 0 0 0 0 0 0 0 1362 1388 1362 1362 1388 1388 1362 1388 1388 1471 1443 1471 1471 1471 1471 1471 1471 1501 1415 1501 1471 1443 1501 1501 1501 1501 1565 1635 1599 1635 1711 1711 1752 1795 1839 1887 1936 1887 1887 1839 1795 1839 1795 1711 1711 1672 1635 1599 1565 1415 1471 1501 1443 1501 1501 1533 1565 1599 1752 1795 1795 2299 0 3199 3199 3345 3504 3679 3873 4088 4088 3873 4329 4599 5256 6133 6690 6690 7359 8177 7359 7359 8177 6690 6690 6690 6690 5661 5661 4906 4906 4088 4599 4329 3679 3679 3679 3345 3679 3504 3504 3504 3679 3873 3873 4088 5256 4906 5256 6133 6133 6133 6690 7359 8177 6690 6690 5256 4088 3199 2164 2230 2230 2164 2102 2044 1936 1936 1887 1936 1887 1795 1635 1565 1471 1388 1226 1226 1187 1226 1206 1226 1226 1206 1206 1268 1268 1291 1247 1268 1247 1247 1291 1635 1314 1066 876 886 886 865 845 845 855 855 845 826 791 791 750 766 758 743 735 721 728 743 728 728 714 700 714 700 743 663 0 0 0 0 1443 0 588 0 0 0 579 593 570 588 579 588 579 584 0 2044 1989 2044 1989 0 0 500 490 0 0 477 468 471 468 471 471 471 468 465 459 454 440 432 427 422 413 415 411 408 402 399 397 395 391 393 391 389 389 387 383 379 387 381 0 0 0 0 0
    0 0 0 0 0 0 0 0 0 0 0 0 0 0 0 0 0 0 0 0 0 0 0 0 0 0 0 0 0 0 0 0 0 0 0 0 0 0 0 0 0 0 0 0 0 0 0 0 0 0 0 0 0 0 0 0 0 0 0 0 0 0 0 0 0 0 0 0 0 1388 1388 1388 1388 1415 1388 1388 1415 1388 1501 1443 1471 1501 1471 1471 1471 1471 1501 1415 1471 1443 1415 1471 1471 1471 1471 1565 1635 1599 1635 1711 1711 1752 1795 1839 1887 1936 1887 1887 1887 1839 1839 1839 1711 1711 1672 1599 1533 1501 1415 1471 1471 1443 1501 1501 1565 1599 1635 1752 1795 1839 2102 2453 2830 2943 0 0 3345 3504 3679 3679 3679 3873 4329 4906 6133 6133 6690 6690 7359 6690 7359 7359 6690 6690 6690 6690 5661 6133 4906 4906 4329 4599 4088 3679 3679 3679 3345 3504 3345 3345 3345 3504 3679 3504 3873 4599 4329 4599 5661 5661 5661 6133 7359 8177 6133 6133 4599 3345 2830 2164 2164 2230 2164 2102 2044 1936 1936 1887 1936 1887 1795 1635 1599 1501 1388 1226 1226 1206 1247 1226 1226 1247 1226 1226 1291 1291 1314 1247 1268 1247 1268 1388 1672 1362 1115 943 919 908 865 845 845 845 855 845 826 791 791 758 766 766 750 735 728 735 743 721 728 714 700 700 694 700 657 623 0 545 0 0 0 579 584 588 588 570 593 570 584 579 588 579 579 0 2044 1989 2044 1989 0 0 497 490 0 0 474 468 468 465 468 468 471 465 465 457 454 440 432 427 420 411 413 408 406 399 397 395 393 389 391 389 389 389 387 385 381 387 387 0 0 0 0 0
    0 0 0 0 0 0 0 0 0 0 0 0 0 0 0 0 0 0 0 0 0 0 0 0 0 0 0 0 0 0 0 0 0 0 0 0 0 0 0 0 0 0 0 0 0 0 0 0 0 0 0 0 0 0 0 0 0 0 0 0 0 0 0 0 0 0 0 0 0 1415 1415 1443 1415 1443 1415 1443 1471 1388 1501 1471 1501 1501 1501 1471 1471 1443 1501 1388 1471 1443 1415 1443 1443 1443 1471 1565 1635 1599 1599 1635 1635 1711 1752 1795 1887 1936 1887 1936 1936 1887 1839 1839 1752 1752 1711 1635 1565 1501 1443 1471 1501 1443 1501 1501 1565 1599 1635 1752 1839 1887 2044 2299 2628 2725 2725 0 0 3199 3504 3504 3504 3873 4088 4906 5661 6133 6133 6690 7359 6690 6690 7359 6690 6690 6690 6133 4906 5661 4599 4599 4088 4329 4088 3679 3679 3679 3345 3504 3345 3199 3345 3345 3504 3345 3679 4329 3873 4088 5661 5256 5256 5661 6690 7359 5661 4906 3873 3199 2943 2374 2164 2299 2230 2164 2102 1936 1936 1887 1936 1887 1795 1635 1565 1501 1388 1226 1247 1226 1268 1247 1247 1268 1247 1247 1291 1291 1338 1247 1268 1247 1268 1415 1635 1362 1187 981 931 919 876 845 845 855 855 845 836 791 799 766 774 766 750 743 735 735 743 721 728 714 700 694 694 700 645 623 0 545 0 0 0 574 570 579 579 570 593 570 579 574 584 574 574 0 1989 1989 2044 0 0 0 500 490 0 0 474 468 468 465 468 468 468 465 465 457 451 440 432 425 418 411 413 408 404 399 397 395 391 389 391 389 387 389 389 387 383 389 389 0 0 0 0 0
    0 0 0 0 0 0 0 0 0 0 0 0 0 0 0 0 0 0 0 0 0 0 0 0 0 0 0 0 0 0 0 0 0 0 0 0 0 0 0 0 0 0 0 0 0 0 0 0 0 0 0 0 0 0 0 0 0 0 0 0 0 0 0 0 0 0 0 0 0 1501 1471 1533 1501 1565 1471 1471 1533 1415 1501 1471 1501 1501 1501 1471 1471 1443 1501 1415 1471 1443 1443 1471 1471 1471 1501 1565 1672 1599 1533 1565 1533 1565 1711 1839 1936 1989 1989 2044 1989 1887 1887 1839 1711 1752 1635 1565 1471 1443 1415 1443 1443 1415 1443 1471 1501 1565 1599 1711 1795 1887 2044 2299 2628 2628 2725 2830 3066 3199 3504 3504 3504 3873 4088 4329 5256 5661 5661 6133 6690 6133 6690 6690 6133 6690 6133 6133 4599 5661 4329 4329 4088 4088 3873 3679 3679 3679 3345 3679 3504 3345 3345 3504 3504 3504 3873 4599 4088 4329 5661 5256 5661 5661 6690 7359 5256 4599 3873 3066 2830 2537 2164 2374 2230 2102 2044 1936 1936 1887 1887 1887 1752 1599 1501 1443 1338 1247 1247 1226 1291 1247 1247 1268 1268 1247 1291 1291 1314 1226 1268 1247 1268 1388 1635 1415 1247 1022 955 943 876 845 855 855 855 845 836 799 799 774 774 774 758 743 735 735 743 721 728 721 700 700 700 700 0 639 618 561 0 0 0 574 574 588 579 579 593 570 574 570 579 566 0 0 0 1989 2044 0 0 0 0 497 490 0 474 468 465 465 468 468 468 465 465 454 451 440 432 422 418 411 413 408 404 399 397 395 393 391 391 389 389 391 389 389 385 391 391 0 0 0 0 0
    0 0 0 0 0 0 0 0 0 0 0 0 0 0 0 0 0 0 0 0 0 0 0 0 0 0 0 0 0 0 0 0 0 0 0 0 0 0 0 0 0 0 0 0 0 0 0 0 0 0 0 0 0 0 0 0 0 0 0 0 0 0 0 0 0 0 0 0 0 1533 1533 1565 1565 1599 1565 1565 1599 1443 1533 1471 1501 1501 1501 1501 1471 1443 1501 1415 1501 1471 1443 1501 1471 1501 1533 1599 1711 1565 1471 1501 1362 1362 1415 1936 2164 2164 2044 1936 1887 1752 1711 1635 1501 1565 1471 1415 1415 1388 1415 1388 1415 1388 1388 1415 1471 1501 1533 1599 1752 1839 1989 2453 2628 2725 2830 2943 3199 3345 3679 3679 3679 4088 4088 4088 4599 5256 5256 5256 6133 5661 6133 6133 6133 6133 6133 6133 4329 5256 4088 3873 3873 3873 3679 3679 3679 3679 3345 3679 3504 3345 3345 3504 3504 3504 3679 4088 3873 4088 4906 5256 4906 5256 6690 6690 5256 4329 3504 3066 2830 2628 2164 2374 2299 2102 2044 1936 1887 1839 1839 1887 1752 1599 1471 1443 1338 1226 1247 1226 1291 1247 1268 1291 1268 1268 1314 1314 1314 1226 1268 1206 1247 1268 0 1362 0 1022 981 981 897 865 865 876 876 855 836 808 808 791 782 774 758 743 743 735 743 721 735 735 707 707 758 728 0 687 639 0 0 0 0 579 588 598 588 584 593 574 574 566 574 557 0 0 0 0 0 529 0 518 0 500 490 474 474 468 465 465 468 468 468 462 462 451 448 440 430 422 415 413 413 408 404 397 395 395 391 391 391 389 389 391 391 391 387 393 393 0 0 0 0 0
    0 0 0 0 0 0 0 0 0 0 0 0 0 0 0 0 0 0 0 0 0 0 0 0 0 0 0 0 0 0 0 0 0 0 0 0 0 0 0 0 0 0 0 0 0 0 0 0 0 0 0 0 0 0 0 0 0 0 0 0 0 0 0 0 0 0 0 0 0 1501 1533 1565 1565 1635 1635 1599 1599 1471 1565 1471 1501 1533 1533 1501 1471 1471 1501 1415 1501 1471 1443 1471 1471 1533 1565 1565 1711 1599 1471 1443 1338 1291 1268 0 0 0 1672 1388 1338 1338 1362 1388 1388 1415 1415 1388 1388 1388 1388 1388 1362 1338 1362 1388 1415 1443 1471 1599 1795 1887 2044 2453 2628 2628 2725 2830 3066 3199 3504 3345 3504 3873 3873 3679 4329 4599 4329 4329 5256 4906 5256 5256 5661 5661 5256 5256 4088 5256 4088 3873 3873 3873 3873 3679 3504 3679 3345 3679 3679 3345 3345 3504 3504 3504 3679 4088 3873 3873 4599 4906 4906 5256 6133 6133 5661 4906 3679 3066 2830 2725 2230 2374 2299 2164 2044 1989 1936 1839 1839 1887 1795 1635 1501 1471 1338 1226 1226 1226 1291 1247 1268 1291 1291 1268 1314 1314 1338 1226 1268 1187 1168 1247 1247 0 0 994 981 968 919 865 886 897 886 855 845 817 817 799 782 774 766 743 743 735 743 721 735 743 714 707 766 735 0 687 645 0 0 0 0 588 593 598 584 574 588 570 566 557 561 549 541 537 537 529 529 521 518 511 507 500 490 477 477 471 465 465 468 465 465 459 462 448 446 438 427 420 413 411 411 406 399 395 393 393 389 389 389 387 387 391 389 391 387 393 393 0 0 0 0 0
    0 0 0 0 0 0 0 0 0 0 0 0 0 0 0 0 0 0 0 0 0 0 0 0 0 0 0 0 0 0 0 0 0 0 0 0 0 0 0 0 0 0 0 0 0 0 0 0 0 0 0 0 0 0 0 0 0 0 0 0 0 0 0 0 0 0 0 0 0 1471 1501 1533 1533 1599 1635 1599 1599 1501 1565 1471 1533 1501 1533 1501 1471 1443 1471 1388 1443 1443 1415 1415 1415 1533 1565 1533 1711 1635 1443 1415 1362 1314 1247 1291 1338 1415 1415 1362 1388 1362 1388 1415 1388 1443 1388 1388 1415 1362 1362 1362 1362 1338 1362 1362 1388 1443 1471 1599 1752 1839 1989 2299 2537 2628 2725 2830 3066 3345 3679 3504 3679 3873 3873 3873 4329 4599 4329 4088 4599 4599 5256 5256 5256 5256 4599 4329 3873 4906 4088 3873 4088 3679 3679 3679 3504 3679 3345 3504 3679 3504 3345 3504 3504 3679 3679 3873 3873 3679 4088 4599 4599 5256 5661 5661 5661 4906 3873 3199 2943 2830 2374 2374 2299 2164 2044 1936 1887 1795 1795 1795 1752 1635 1533 1533 1338 1226 1226 1226 1291 1247 1268 1314 1291 1291 1338 1338 1388 1268 1291 1247 1187 1187 1226 1168 0 994 981 994 919 865 886 886 886 845 845 817 817 808 791 782 766 743 743 735 735 721 721 735 714 707 743 0 0 675 634 618 0 0 0 598 593 598 588 584 588 579 566 549 549 541 533 529 529 521 521 518 514 504 504 497 487 0 474 468 465 462 465 462 462 457 459 446 443 435 427 422 415 418 415 406 397 395 391 393 389 389 387 387 387 391 389 389 387 393 395 0 0 0 0 0</data></depth>
</opencv_storage>
