<?xml version="1.0"?>
<opencv_storage>
<gps_time_stamp>323072</gps_time_stamp>
<gps_x>-1.2421799659729004e+001</gps_x>
<gps_y>1.0709133148193359e+001</gps_y>
<gps_z>-1.9806896448135376e+000</gps_z>
<image_time_stamp>313957</image_time_stamp>
<depth type_id="opencv-matrix">
  <rows>83</rows>
  <cols>320</cols>
  <dt>s</dt>
  <data>
    0 0 0 0 0 0 0 0 0 0 0 0 0 0 0 0 0 0 0 0 0 0 0 0 0 0 0 0 0 0 0 0 0 0 0 0 0 0 0 0 0 0 0 0 0 0 0 0 0 0 0 0 0 0 0 0 0 0 0 0 0 0 0 0 0 0 0 0 0 0 0 0 0 0 0 0 0 0 0 0 0 0 0 0 0 0 0 0 0 8177 0 0 0 0 0 0 0 0 0 0 8177 7359 6690 5661 7359 7359 7359 7359 0 0 0 0 0 0 0 0 8177 6690 6690 7359 8177 8177 8177 8177 0 0 0 0 0 0 0 0 0 8177 0 0 0 0 0 8177 8177 6690 7359 5661 5661 5256 5256 5256 4906 5256 5256 4906 5256 5256 5256 5661 5256 5661 5256 5661 5661 5661 4906 6133 6133 6133 5256 6133 5661 5661 5256 6133 5256 5661 5661 5661 5661 5256 6133 6690 6133 6133 5661 5661 6690 5661 5661 5256 4329 3873 3873 3679 0 0 0 0 1187 1187 1187 1168 1168 1168 1132 1206 1115 1082 1066 1066 1036 994 943 943 931 886 855 865 855 845 799 817 799 766 782 791 766 766 750 758 735 735 743 714 728 728 694 675 714 700 669 0 0 0 0 0 0 0 0 0 0 0 0 0 1795 1795 0 0 0 855 845 0 364 364 367 525 525 533 529 0 537 537 537 545 521 0 471 459 468 468 468 451 446 446 440 438 435 432 432 432 432 430 413 399 395 395 391 389 385 373 375 373 373 366 364 364 362 362 366 364 364 364 364 364 362 366 364 0 0 0 0 0
    0 0 0 0 0 0 0 0 0 0 0 0 0 0 0 0 0 0 0 0 0 0 0 0 0 0 0 0 0 0 0 0 0 0 0 0 0 0 0 0 0 0 0 0 0 0 0 0 0 0 0 0 0 0 0 0 0 0 0 0 0 0 0 0 0 0 0 0 0 0 0 0 0 0 0 0 0 0 0 0 0 0 0 0 0 0 0 0 0 0 0 0 0 0 0 0 0 0 0 8177 8177 6690 6690 6690 7359 7359 7359 7359 0 0 0 0 0 0 0 0 0 7359 6690 6690 6690 6133 6690 5661 0 8177 0 0 8177 0 0 0 0 8177 0 0 0 0 0 8177 7359 6690 6690 5661 5661 5256 4906 5256 4906 5256 4906 4906 5256 5256 5256 5661 5256 5661 5256 5661 5256 5661 4906 6133 6133 6133 5256 6133 6133 5661 5256 5661 5256 5661 5256 5661 5661 5256 6133 6690 6690 6133 6133 6133 6690 5661 5661 5256 4599 3873 4088 3679 0 0 0 0 1168 1149 1168 1168 1149 1168 1132 1206 1115 1082 1082 1066 1036 994 931 931 919 886 855 876 865 855 817 826 817 782 791 799 766 774 750 766 743 735 0 714 728 735 0 694 721 707 0 0 0 0 0 0 0 0 0 0 0 0 645 0 1839 1839 0 0 2102 865 855 0 362 364 367 0 525 533 533 0 0 541 0 0 0 0 471 457 465 465 468 451 446 446 443 440 435 432 432 432 432 430 413 399 395 395 391 389 387 375 375 373 375 366 364 364 364 360 0 364 362 362 362 362 362 362 364 0 0 0 0 0
    0 0 0 0 0 0 0 0 0 0 0 0 0 0 0 0 0 0 0 0 0 0 0 0 0 0 0 0 0 0 0 0 0 0 0 0 0 0 0 0 0 0 0 0 0 0 0 0 0 0 0 0 0 0 0 0 0 0 0 0 0 0 0 0 0 0 0 0 0 0 0 0 0 0 0 0 0 0 0 0 0 0 0 0 0 0 0 0 0 0 0 0 0 0 0 0 0 0 0 8177 8177 7359 6690 7359 8177 8177 8177 8177 0 0 0 0 0 0 0 0 0 7359 6690 6133 5661 5256 5661 5661 0 7359 8177 7359 8177 8177 0 8177 0 8177 8177 8177 0 8177 8177 7359 7359 6133 6133 5661 5661 5661 5256 5661 4906 5661 5256 4906 5256 5256 4906 5661 5256 5661 5256 5661 5661 6133 5256 6133 6133 6690 5661 6133 6690 5661 5256 5661 5256 5256 5256 5661 5661 5256 6133 6690 6690 6133 6133 6133 6690 5661 5661 4906 4599 4088 4329 3679 0 0 0 0 1149 1132 1149 1149 1149 1168 1132 1187 1115 1098 1082 1066 0 1008 931 931 919 886 855 876 876 865 836 845 826 791 808 808 774 774 758 774 750 743 0 721 735 743 0 0 0 707 0 0 0 0 0 0 0 0 0 0 0 618 645 0 1936 1887 1887 0 2164 0 865 0 362 0 367 0 529 537 533 0 0 0 0 0 0 0 468 454 462 462 465 451 443 446 443 440 435 435 432 432 432 432 415 399 397 397 393 391 389 375 375 375 375 366 366 366 366 360 0 362 362 362 362 362 360 360 364 0 0 0 0 0
    0 0 0 0 0 0 0 0 0 0 0 0 0 0 0 0 0 0 0 0 0 0 0 0 0 0 0 0 0 0 0 0 0 0 0 0 0 0 0 0 0 0 0 0 0 0 0 0 0 0 0 0 0 0 0 0 0 0 0 0 0 0 0 0 0 0 0 0 0 0 0 0 0 0 0 0 0 0 0 0 0 0 0 0 0 0 0 0 0 0 0 0 0 0 0 0 0 0 0 0 8177 8177 8177 8177 0 0 8177 0 0 0 0 0 0 0 0 0 0 7359 8177 5661 4906 4906 5256 5256 0 6133 7359 6690 7359 7359 8177 7359 0 7359 8177 8177 0 8177 8177 7359 7359 6690 6690 6133 5661 5661 5256 5661 5256 5661 5256 4906 5256 5256 5256 5661 5256 5661 5256 5661 5661 6133 5661 6690 6133 6690 5661 6690 6690 5661 5256 5661 5256 5256 5256 5256 5661 5256 6133 6690 6133 5661 5661 5661 6690 5661 5256 4906 4599 4088 4329 3679 0 0 0 1115 1132 1115 1132 1149 1149 1168 1132 1187 1115 1098 1082 1082 0 0 931 931 931 897 865 897 886 886 855 865 836 808 817 817 774 774 758 774 750 743 743 721 735 750 0 721 0 714 0 0 0 0 0 0 0 0 0 0 0 623 645 639 0 1936 1936 0 2230 0 865 0 360 0 0 0 533 541 537 0 0 163 0 0 0 0 459 448 459 457 462 451 443 446 446 440 435 435 435 435 432 432 415 399 399 399 395 393 391 377 377 375 377 366 366 366 366 359 0 362 359 360 360 359 359 359 362 0 0 0 0 0
    0 0 0 0 0 0 0 0 0 0 0 0 0 0 0 0 0 0 0 0 0 0 0 0 0 0 0 0 0 0 0 0 0 0 0 0 0 0 0 0 0 0 0 0 0 0 0 0 0 0 0 0 0 0 0 0 0 0 0 0 0 0 0 0 0 0 0 0 0 0 0 0 0 0 0 0 0 0 0 0 0 0 0 0 0 0 0 0 0 0 0 0 0 0 0 0 0 0 0 0 0 0 0 0 0 0 8177 8177 0 0 0 0 0 8177 8177 0 0 7359 8177 6133 5661 5661 6133 5661 0 6690 7359 6690 7359 6690 7359 6690 8177 7359 7359 7359 8177 7359 7359 6690 7359 6133 6133 6133 5661 5661 5661 5661 5256 5661 5256 5256 5661 5661 5256 5661 5661 6133 5661 5661 6133 6133 6133 6690 6690 6690 5661 6133 6690 5661 5256 5661 5256 5256 5256 5256 5661 4906 5661 6690 6690 6133 5661 6133 6690 5661 5256 5256 4599 3873 4329 3679 3345 0 0 0 1115 1098 1115 1149 1149 1168 1132 1168 1115 1082 1082 1082 0 0 943 943 943 908 876 897 897 897 865 886 845 817 817 826 774 774 758 774 758 743 743 721 735 750 721 728 0 714 0 714 0 0 0 0 0 0 0 0 0 623 645 639 0 1989 1989 0 2230 0 855 0 359 0 0 0 537 545 541 0 163 163 0 0 165 0 0 446 454 454 459 448 443 448 446 443 438 435 435 435 435 435 415 402 402 402 395 395 393 379 379 377 377 366 366 366 366 357 362 360 357 357 357 357 357 355 362 0 0 0 0 0
    0 0 0 0 0 0 0 0 0 0 0 0 0 0 0 0 0 0 0 0 0 0 0 0 0 0 0 0 0 0 0 0 0 0 0 0 0 0 0 0 0 0 0 0 0 0 0 0 0 0 0 0 0 0 0 0 0 0 0 0 0 0 0 0 0 0 0 0 0 0 0 0 0 0 0 0 0 0 0 0 0 0 0 0 0 0 0 0 0 0 0 0 0 0 0 0 0 0 0 0 0 0 0 0 0 0 8177 8177 0 0 0 0 0 0 0 0 0 8177 9199 7359 6690 6690 6690 6690 8177 6690 6690 6133 6690 6690 6690 6690 7359 7359 7359 7359 8177 7359 7359 6690 7359 6133 6133 6133 5661 5661 5661 5661 5661 6133 5661 5661 5661 5661 5256 6133 5661 6133 5661 6133 5661 6133 5661 6690 6690 6133 5661 6133 6690 5256 5661 5256 5256 5256 5256 5256 5661 5256 6133 6690 6690 6690 6133 6133 6690 5661 5661 5256 4599 3873 4329 3679 3504 0 0 0 1115 1098 1115 1149 1149 1149 1132 1149 1115 1082 1098 1082 0 0 0 943 943 908 876 908 897 908 876 897 855 826 826 826 782 782 758 774 766 743 743 728 735 750 721 0 0 707 0 714 0 0 0 0 0 0 629 0 0 0 639 639 0 2102 0 0 2299 0 855 0 0 0 0 0 537 549 541 0 163 163 164 0 165 0 0 446 0 451 459 448 443 448 448 443 438 438 438 438 438 438 415 399 399 399 395 393 393 377 377 375 377 367 367 367 367 355 360 359 355 355 357 355 355 353 362 0 0 0 0 0
    0 0 0 0 0 0 0 0 0 0 0 0 0 0 0 0 0 0 0 0 0 0 0 0 0 0 0 0 0 0 0 0 0 0 0 0 0 0 0 0 0 0 0 0 0 0 0 0 0 0 0 0 0 0 0 0 0 0 0 0 0 0 0 0 0 0 0 0 0 0 0 0 0 0 0 0 0 0 0 0 0 0 0 0 0 0 0 0 0 0 0 0 0 0 0 0 0 0 0 0 0 0 0 0 0 0 0 0 0 0 0 0 0 0 0 0 0 8177 0 8177 7359 6690 7359 8177 0 6690 6690 5661 6690 6133 6690 6133 7359 6690 6690 7359 8177 7359 8177 6690 7359 6133 6690 6133 5661 5661 5661 5661 5661 6133 5661 5661 5661 6133 5661 6133 5661 6133 5661 6133 5661 5661 5661 6690 6133 5661 5661 5661 6133 5256 5256 5256 4906 4906 5256 5256 6133 5661 6133 7359 7359 6690 6133 6133 6690 5661 5256 5256 4599 3873 4329 3679 3504 0 0 0 1115 1082 1115 1149 1149 1149 1132 1149 1115 1082 1098 1082 0 0 0 955 955 919 876 908 908 908 876 897 855 826 826 826 782 782 758 782 766 750 750 728 735 750 728 0 0 0 694 714 0 0 0 0 0 0 629 0 0 0 634 634 0 2164 0 0 0 0 855 0 0 0 0 545 541 553 545 0 163 163 164 0 165 0 0 446 0 451 459 451 443 448 448 446 438 438 438 438 438 438 415 402 399 399 393 391 389 375 375 375 377 367 367 367 367 355 360 359 355 355 355 355 353 353 362 0 0 0 0 0
    0 0 0 0 0 0 0 0 0 0 0 0 0 0 0 0 0 0 0 0 0 0 0 0 0 0 0 0 0 0 0 0 0 0 0 0 0 0 0 0 0 0 0 0 0 0 0 0 0 0 0 0 0 0 0 0 0 0 0 0 0 0 0 0 0 0 0 0 0 0 0 0 0 0 0 0 0 0 0 0 0 0 0 0 0 0 0 0 0 8177 0 0 0 0 0 0 0 0 0 0 0 0 0 0 0 0 0 0 0 0 0 0 0 0 8177 0 0 8177 8177 8177 7359 6690 8177 8177 0 8177 6690 5661 7359 6690 6690 6133 6690 6690 6690 6690 7359 6690 7359 6133 6690 6133 6133 6133 5661 5661 5661 5661 5661 6133 5661 5661 6133 6133 5661 6133 6133 6133 5661 5661 5661 5661 5661 6690 6133 5661 5661 5256 6133 4906 5256 4906 4906 4906 5256 5256 6133 5661 6133 7359 7359 6690 6133 6690 6690 5661 4906 4906 4599 3873 4088 3679 3504 0 0 0 1115 1082 1115 1149 1149 1149 1132 1149 1115 1082 1098 1098 0 0 0 955 955 919 886 908 908 919 886 897 855 826 826 826 782 782 766 782 774 750 750 735 735 0 0 0 0 0 0 0 0 0 0 0 0 0 629 0 0 0 634 634 0 0 0 465 0 0 0 0 0 0 0 545 541 553 553 0 163 163 164 0 0 0 0 446 0 451 459 454 446 451 448 446 435 435 435 435 435 435 415 402 399 399 393 389 389 375 375 375 377 367 367 367 367 353 360 359 355 355 355 355 355 353 362 0 0 0 0 0
    0 0 0 0 0 0 0 0 0 0 0 0 0 0 0 0 0 0 0 0 0 0 0 0 0 0 0 0 0 0 0 0 0 0 0 0 0 0 0 0 0 0 0 0 0 0 0 0 0 0 0 0 0 0 0 0 0 0 0 0 0 0 0 0 0 0 0 0 0 0 0 0 0 0 0 0 0 0 0 0 0 0 0 0 0 0 0 0 0 8177 0 0 0 0 0 0 0 0 0 0 0 0 0 0 0 0 0 0 0 0 0 0 0 0 8177 8177 8177 7359 7359 7359 6690 6690 8177 8177 8177 7359 6690 6133 7359 6133 6690 6133 6133 6133 6133 6690 6690 6133 6690 5661 6133 6133 6133 6133 5661 5661 5661 5661 5661 6690 5661 5661 6133 6133 5661 6133 6133 6133 5661 5661 6133 5256 5661 6133 6133 5256 5661 5256 5661 4906 5256 4906 4906 4906 5256 5256 6133 6133 6690 7359 8177 7359 6133 6690 6690 5661 4906 4906 4599 3873 4088 3679 3504 0 0 0 1115 1082 1098 1149 1149 1149 1132 1149 1115 1082 1115 1098 0 0 0 968 968 931 886 908 897 919 886 897 855 826 826 826 782 782 766 782 774 750 750 735 735 0 0 0 0 0 0 0 0 0 0 0 0 634 629 0 0 0 634 634 721 0 0 0 0 0 0 0 0 0 0 549 545 557 557 0 164 164 165 0 165 0 0 448 0 454 465 459 446 451 448 443 432 432 432 432 432 432 415 404 402 402 393 387 387 375 375 373 377 367 367 367 367 353 360 359 355 357 357 357 357 355 0 0 0 0 0 0
    0 0 0 0 0 0 0 0 0 0 0 0 0 0 0 0 0 0 0 0 0 0 0 0 0 0 0 0 0 0 0 0 0 0 0 0 0 0 0 0 0 0 0 0 0 0 0 0 0 0 0 0 0 0 0 0 0 0 0 0 0 0 0 0 0 0 0 0 0 0 0 0 0 0 0 0 0 0 0 0 0 0 0 0 0 0 0 0 0 0 0 0 0 0 0 0 0 0 0 0 0 0 0 0 0 0 0 0 0 0 0 0 0 8177 6690 7359 7359 6133 6133 6690 6690 6133 7359 7359 6690 6690 6133 6133 7359 6133 6690 5661 5661 6133 5661 6133 6133 5256 6133 5256 5661 5661 5661 6133 5256 5256 5661 5661 5661 6133 5661 5661 5661 6133 5661 6133 6133 6133 5661 5661 6133 5256 5661 6133 6133 5256 5661 5256 5661 5256 5661 4906 4906 4906 5256 5256 6133 5661 6133 6133 6690 6690 5256 6133 5661 5256 4599 4599 4329 3679 4088 3679 3504 0 0 0 1115 1066 1098 1132 1149 1149 1132 1149 1115 1098 1115 1115 1051 1036 0 968 968 931 886 897 897 908 876 886 845 817 817 817 782 782 766 774 774 750 750 735 735 0 0 0 0 0 0 0 0 0 0 0 0 634 629 0 0 0 634 639 721 0 0 0 0 0 0 0 0 0 0 549 549 561 561 0 164 164 165 0 0 0 0 451 0 459 468 465 446 451 446 443 430 432 430 430 430 430 415 404 404 404 393 387 387 375 375 375 377 367 367 367 367 355 362 360 357 357 359 359 357 357 0 0 0 0 0 0
    0 0 0 0 0 0 0 0 0 0 0 0 0 0 0 0 0 0 0 0 0 0 0 0 0 0 0 0 0 0 0 0 0 0 0 0 0 0 0 0 0 0 0 0 0 0 0 0 0 0 0 0 0 0 0 0 0 0 0 0 0 0 0 0 0 0 0 0 0 0 0 0 0 0 0 0 0 0 0 0 0 0 0 0 0 0 0 0 0 0 0 0 0 0 0 0 0 0 0 0 0 0 0 0 0 0 0 0 0 0 0 8177 0 7359 5256 6133 5256 5256 5661 5661 6133 6133 6690 7359 6133 7359 5661 6690 8177 6133 6690 5661 5661 6133 5661 6133 6133 5256 6133 5256 5661 5661 5661 6133 5256 5256 5661 5256 5661 6133 6133 5256 5661 6133 6133 6133 6133 6690 6133 5661 6690 5661 6133 6690 6133 5661 5661 5256 5256 5256 5661 4599 4599 4906 5256 4906 5661 5661 5256 5661 6133 5661 4906 5256 4906 4599 4088 4329 4088 3679 4088 3679 3504 0 0 0 1115 1082 1098 1149 1149 1149 1132 1132 1115 1098 1132 1115 1051 1051 0 981 981 943 886 886 886 897 876 876 836 799 808 808 782 782 766 774 782 758 758 743 735 0 0 0 0 0 0 0 0 0 645 634 629 634 634 0 0 0 634 639 721 0 0 0 2102 0 799 0 0 0 537 553 549 557 557 566 0 164 0 0 0 0 0 457 0 465 468 471 448 454 448 443 430 430 430 430 430 430 418 406 406 404 393 389 389 375 375 375 377 369 367 367 367 357 362 362 359 359 360 359 359 359 0 0 0 0 0 0
    0 0 0 0 0 0 0 0 0 0 0 0 0 0 0 0 0 0 0 0 0 0 0 0 0 0 0 0 0 0 0 0 0 0 0 0 0 0 0 0 0 0 0 0 0 0 0 0 0 0 0 0 0 0 0 0 0 0 0 0 0 0 0 0 0 0 0 0 0 0 0 7359 0 0 0 0 0 0 0 0 0 0 0 0 0 8177 8177 8177 7359 7359 8177 8177 8177 8177 0 0 0 0 0 0 0 0 0 0 0 0 0 0 0 0 0 7359 0 6690 4906 5256 4599 4906 5256 5256 6133 5661 6690 6690 6690 9199 6133 8177 8177 6133 7359 6133 5661 6133 5661 6133 5661 5256 6133 5256 5661 5661 5661 5661 5256 4906 5256 5256 5256 5661 6133 5256 5661 6133 6133 6133 6133 6690 6133 6133 6690 5661 6133 6690 6133 5256 5661 5256 4906 4906 5256 4599 4599 4906 5256 4906 5256 5256 5256 5256 5661 5661 4599 4906 4599 4329 4088 4329 4088 3679 4088 3679 3679 0 0 0 1132 1082 1115 1149 1168 1149 1149 1149 1115 1098 1132 1132 1051 1051 0 981 981 943 886 886 876 886 865 855 826 791 808 808 782 782 766 774 782 766 758 743 735 0 0 0 0 0 0 0 0 0 645 0 629 634 634 0 0 0 0 645 0 0 0 0 0 826 782 0 507 518 537 553 549 557 557 561 0 164 0 0 0 0 0 459 0 468 471 471 451 457 448 443 430 430 430 430 430 430 418 406 406 404 393 389 389 375 375 375 377 369 367 367 367 359 364 364 360 362 362 362 360 360 369 0 0 0 0 0
    0 0 0 0 0 0 0 0 0 0 0 0 0 0 0 0 0 0 0 0 0 0 0 0 0 0 0 0 0 0 0 0 0 0 0 0 0 0 0 0 0 0 0 0 0 0 0 0 0 0 0 0 0 0 0 0 0 0 0 0 0 0 0 0 0 0 0 0 0 0 8177 6690 0 0 0 0 0 0 0 0 0 0 0 0 0 8177 7359 7359 6690 7359 7359 6690 6690 7359 8177 8177 8177 0 0 0 0 0 0 0 0 0 0 0 0 0 0 6690 7359 6133 4906 4906 4599 5256 5256 5661 6690 6133 6690 6690 6690 0 6133 8177 8177 6133 7359 6133 5661 5661 5661 6133 5661 5256 6133 4906 5256 5256 5256 5256 4906 4906 4906 5256 4906 5661 5661 4906 5661 5661 6133 6133 6133 6690 6133 6133 7359 5661 6133 6133 6133 5256 5661 5256 4599 4906 5256 4599 4599 4599 5256 4599 5256 5661 5256 5661 5661 5661 4599 4906 4906 4599 4088 4329 4088 3679 4088 3679 3679 0 0 0 1187 1098 0 1168 1187 1168 1149 1149 1132 1098 1132 1132 1066 1051 0 994 994 955 886 876 865 876 855 836 817 782 791 799 774 782 774 774 791 774 766 750 735 0 0 0 0 0 0 0 0 0 0 0 629 634 634 0 0 0 0 645 681 0 0 0 0 0 0 518 518 525 533 549 549 553 557 561 0 0 0 0 0 0 0 462 0 0 471 474 451 454 446 440 427 427 427 427 427 427 418 406 404 402 393 387 385 375 373 375 379 371 369 369 367 360 366 366 0 364 364 364 362 362 371 0 0 0 0 0
    0 0 0 0 0 0 0 0 0 0 0 0 0 0 0 0 0 0 0 0 0 0 0 0 0 0 0 0 0 0 0 0 0 0 0 0 0 0 0 0 0 0 0 0 0 0 0 0 0 0 0 0 0 0 0 0 0 0 0 0 0 0 0 0 0 0 0 0 0 0 0 6690 0 8177 8177 8177 6133 0 0 0 0 0 0 0 0 8177 6690 6690 6690 6690 6133 5661 6133 6133 7359 7359 7359 0 0 0 0 0 0 0 0 0 0 0 0 0 0 7359 7359 6690 5661 5256 5661 6133 5661 6133 6690 6690 7359 7359 7359 0 7359 7359 8177 6133 6690 6133 5661 5661 5661 6133 5661 5256 5661 4906 5256 5256 5256 4906 4906 4906 4906 4906 4906 5256 5661 4599 5661 5661 5661 6133 6133 6690 6133 6133 7359 6133 6133 6690 6690 5661 6133 5256 4599 4906 4906 4906 4906 4906 5256 4906 5256 5661 5661 5661 5661 5256 4329 4906 4906 4329 4088 4088 4088 3679 4088 3679 3679 0 0 0 0 0 0 1187 1206 1168 1168 1149 1149 1115 1149 1132 1082 1066 0 994 994 955 876 865 855 855 845 817 808 774 782 791 774 774 774 774 791 774 766 758 735 0 743 743 0 0 0 0 0 0 0 0 629 634 0 0 0 0 0 645 657 0 0 0 0 0 529 529 525 529 533 549 549 553 561 561 0 0 0 0 0 0 0 462 0 0 471 474 451 451 443 438 427 427 425 425 425 425 418 404 404 399 393 385 383 375 373 375 379 373 369 369 369 362 0 367 0 366 366 366 366 364 375 0 0 0 0 0
    0 0 0 0 0 0 0 0 0 0 0 0 0 0 0 0 0 0 0 0 0 0 0 0 0 0 0 0 0 0 0 0 0 0 0 0 0 0 0 0 0 0 0 0 0 0 0 0 0 0 0 0 0 0 0 0 0 0 0 0 0 0 0 0 0 0 0 0 0 0 0 7359 7359 6690 7359 7359 5256 8177 8177 0 0 0 0 0 8177 8177 6690 6690 6133 6133 6133 5256 5661 6133 6690 6690 7359 8177 8177 8177 0 0 0 0 0 0 0 0 0 0 0 7359 7359 6690 5661 5256 6133 6133 6133 6133 6690 6690 7359 7359 7359 9199 7359 7359 7359 6133 6690 6133 5661 5661 6133 6133 5661 5256 5661 4906 5661 5661 5256 4906 4906 4906 4599 4906 4599 4906 5256 4329 5256 5661 5256 5661 6133 6690 6133 6133 7359 6133 6133 6133 6133 6133 6133 5661 4599 4906 4906 5256 4906 4906 4906 4599 5256 5661 5256 5661 5256 5256 4088 4599 4599 4088 3873 3873 4088 3679 3873 3679 3504 0 0 0 0 0 0 0 1226 1168 1187 1149 1149 1115 1149 1149 1098 1066 0 1008 1008 955 876 855 845 845 836 799 799 766 774 782 774 766 774 766 791 774 766 774 743 766 750 743 721 0 0 0 0 0 0 0 629 629 634 0 0 0 0 645 645 0 0 0 0 0 537 533 529 533 533 545 549 553 557 557 0 0 0 0 0 0 0 465 0 0 471 474 451 448 440 435 427 425 425 425 425 425 420 406 404 399 393 387 385 375 373 377 379 375 371 371 369 364 369 369 367 367 367 367 0 367 379 0 0 0 0 0
    0 0 0 0 0 0 0 0 0 0 0 0 0 0 0 0 0 0 0 0 0 0 0 0 0 0 0 0 0 0 0 0 0 0 0 0 0 0 0 0 0 0 0 0 0 0 0 0 0 0 0 0 0 0 0 0 0 0 0 0 0 0 0 0 0 0 0 0 0 0 0 6133 4906 5256 6133 5661 4329 7359 8177 8177 0 0 0 0 8177 8177 6690 6133 6133 6133 6133 5256 5256 5661 6133 6690 7359 7359 7359 7359 0 0 0 8177 0 0 0 0 0 0 0 6690 6690 6690 5661 5256 6133 6690 6133 6133 6690 7359 7359 7359 7359 8177 7359 7359 7359 6133 6690 6133 5661 5661 6133 6133 5661 5256 5661 4906 5661 5661 5256 4906 4906 4906 4599 4906 4599 4906 5256 4329 5256 5256 5256 5661 5661 6133 6133 6133 7359 6133 6133 6133 6133 6133 5661 5661 4906 5256 4906 5256 4599 4906 4906 4599 4906 5256 4906 5661 4906 5256 3873 4088 4599 4088 3873 3873 4088 3679 3873 3504 0 0 0 0 0 0 0 0 1247 1187 1187 1168 1168 1132 1149 1149 1098 1082 0 1008 1008 955 876 836 826 826 826 782 791 766 766 774 782 766 774 766 791 774 774 782 750 766 758 743 728 0 0 700 694 0 657 639 634 629 639 0 0 0 634 645 645 0 0 0 0 0 533 529 525 529 533 541 545 545 557 553 0 0 0 0 0 0 0 465 0 114 474 477 448 446 438 430 425 422 422 422 422 422 420 406 404 399 395 389 387 377 373 377 379 375 371 371 369 366 371 371 369 369 369 369 369 369 383 0 0 0 0 0
    0 0 0 0 0 0 0 0 0 0 0 0 0 0 0 0 0 0 0 0 0 0 0 0 0 0 0 0 0 0 0 0 0 0 0 0 0 0 0 0 0 0 0 0 0 0 0 0 0 0 0 0 0 0 0 0 0 0 0 0 0 0 0 0 0 0 0 0 0 0 3504 3873 3199 4088 4599 4088 3504 6133 7359 7359 7359 7359 8177 7359 6690 7359 5661 5256 5256 5661 5256 4599 4599 5256 6133 6133 6690 7359 6690 6690 7359 0 0 6690 0 0 0 0 0 0 7359 6133 6690 6690 5661 4599 5661 6133 6133 6133 6690 7359 6690 6690 7359 7359 6690 6690 6690 5661 6133 6133 5661 6133 6133 6133 5661 5661 5661 5256 5661 5661 5256 4906 5256 4906 4599 4906 4906 4906 5256 4329 5256 5256 5256 5661 6133 6133 6133 6133 7359 6133 5661 6133 6133 6133 5661 5661 4906 5256 4906 5661 4906 4906 4906 4599 4906 4906 4906 5661 4906 4906 3873 4088 4329 4088 4088 4088 4088 3679 3679 0 0 0 0 0 0 0 0 0 1247 1187 1206 1168 1187 1132 1168 1149 1115 1082 0 1008 1022 955 865 0 817 817 826 774 791 766 758 774 782 766 774 758 791 774 766 782 758 774 766 743 728 0 700 700 694 0 651 645 634 629 639 0 0 0 639 651 645 0 0 0 0 0 533 529 525 529 529 537 541 541 549 545 0 0 0 0 0 0 0 0 0 0 474 477 448 443 438 430 425 422 422 422 422 422 420 406 404 399 395 391 389 379 375 379 381 377 371 371 369 367 371 373 369 369 369 369 369 369 381 0 0 0 0 0
    0 0 0 0 0 0 0 0 0 0 0 0 0 0 0 0 0 0 0 0 0 0 0 0 0 0 0 0 0 0 0 0 0 0 0 0 0 0 0 0 0 0 0 0 0 0 0 0 0 0 0 0 0 0 0 0 0 0 0 0 0 0 0 0 0 0 0 0 0 0 3345 3679 3199 3873 4329 3873 3504 4906 5661 6133 5661 5661 6133 6133 5661 6133 4599 4088 4329 4329 4599 4088 4088 4599 5256 5661 6133 6690 6133 6690 6690 0 0 5661 0 0 5661 4906 3873 0 4906 4906 5661 5256 4599 4088 5256 6133 6133 6133 6690 7359 6690 6690 7359 8177 6690 7359 6690 6133 6690 6133 5661 6133 6133 6133 5661 5661 5661 5256 5661 5661 5256 4906 5256 5256 4599 4906 4599 4599 5256 4329 5256 5661 5661 5661 6133 6133 6133 6133 7359 6133 6133 6133 6133 6133 6133 5661 4906 5256 4906 5256 4906 4906 4906 4599 5256 4906 4599 5661 4906 4906 3873 4088 4599 4088 4088 4329 4088 3679 3504 0 0 0 0 0 0 0 0 0 1268 1187 1206 1168 1187 1149 1149 1149 1115 1082 1082 1022 1036 955 865 817 817 817 817 774 791 766 758 774 791 766 774 758 791 774 766 791 758 766 766 735 735 707 0 0 694 0 651 645 634 629 639 0 0 0 0 657 0 0 0 0 0 0 529 525 525 525 529 533 537 537 545 541 0 0 0 0 0 114 0 0 0 0 471 474 448 440 438 430 427 420 422 422 422 422 420 406 404 399 397 393 391 383 375 379 381 377 371 371 371 367 371 373 369 369 369 369 0 369 375 0 0 0 0 0
    0 0 0 0 0 0 0 0 0 0 0 0 0 0 0 0 0 0 0 0 0 0 0 0 0 0 0 0 0 0 0 0 0 0 0 0 0 0 0 0 0 0 0 0 0 0 0 0 0 0 0 0 0 0 0 0 0 0 0 0 0 0 0 0 0 0 0 0 0 0 3504 4906 4329 4906 4906 4599 3504 4599 5256 5256 4906 4599 5256 5256 4599 5256 4088 3873 3873 3679 3873 3679 3679 4088 4906 4906 5661 6133 5661 6133 5661 6133 5661 4906 0 4906 4329 4329 3679 3873 4088 4599 4906 4906 4088 3679 4906 6133 5661 6690 6690 7359 7359 7359 8177 8177 7359 7359 6133 6133 6690 6133 5661 6133 6133 5661 5661 5661 5661 5661 5661 6133 5256 4906 5256 5256 4599 4906 4599 4599 5256 4599 5256 5661 5661 6133 6133 6690 6690 6690 7359 6690 6133 6133 6133 6133 6133 5661 4906 5256 4599 5256 4906 4906 5256 4906 5661 5256 4906 6133 5661 5661 4088 4599 4906 4329 4088 4599 4088 3679 3345 2725 0 0 0 0 0 0 0 0 0 1187 1206 1149 1187 1132 1149 1132 1115 1082 1098 1008 1022 955 855 808 817 817 817 774 799 782 758 774 791 766 774 758 791 774 766 782 758 766 766 0 0 0 0 0 0 0 645 645 639 634 639 0 0 0 0 657 645 0 0 0 0 0 529 525 525 525 525 529 533 533 537 537 0 0 0 0 0 114 0 0 0 0 471 474 448 438 438 430 427 420 425 422 422 422 422 408 406 402 399 393 391 385 377 381 381 379 371 371 371 367 371 373 369 369 369 369 0 367 373 0 0 0 0 0
    0 0 0 0 0 0 0 0 0 0 0 0 0 0 0 0 0 0 0 0 0 0 0 0 0 0 0 0 0 0 0 0 0 0 0 0 0 0 0 0 0 0 0 0 0 0 0 0 0 0 0 0 0 0 0 0 0 0 0 0 0 0 0 0 0 0 0 0 0 0 4599 6133 5256 5661 5256 4906 3679 4599 4906 4906 4906 4599 5256 5256 4599 5256 4088 3873 3679 3504 3679 3504 3504 3873 4329 4599 4906 5661 5256 5661 5256 5256 4906 4329 0 4329 3873 3873 3504 3504 3873 4329 4599 4329 4088 3504 4906 6133 5661 6690 6690 7359 7359 7359 8177 8177 7359 7359 6133 6133 6133 6133 5661 6133 6133 5661 5661 6133 5661 5661 5661 6133 5661 4906 5661 5256 4599 4906 4599 4599 4906 4599 5256 5661 5661 6133 6133 6133 6690 6690 7359 6133 6133 6133 6133 6133 6133 5661 4906 5256 4599 5661 4906 4906 5256 4906 5661 5661 5661 6690 6133 6690 4906 5256 5661 4906 4599 4906 4329 3679 3345 2725 0 0 0 0 0 0 0 0 0 1206 1226 1168 1206 1132 1132 1115 1098 1082 1098 1008 1008 968 855 808 826 826 826 782 799 791 766 782 799 766 774 758 791 774 766 782 750 758 766 0 0 0 0 0 0 0 639 651 639 634 645 0 0 0 639 657 639 0 0 0 0 0 525 525 521 525 525 525 529 529 537 533 0 0 0 0 0 114 0 0 0 0 471 474 446 435 438 430 430 422 425 425 425 425 425 411 404 399 399 393 391 385 375 381 381 381 371 371 371 369 371 373 369 369 369 367 0 0 0 0 0 0 0 0
    0 0 0 0 0 0 0 0 0 0 0 0 0 0 0 0 0 0 0 0 0 0 0 0 0 0 0 0 0 0 0 0 0 0 0 0 0 0 0 0 0 0 0 0 0 0 0 0 0 0 0 0 0 0 0 0 0 0 0 0 0 0 0 0 0 0 0 0 0 0 0 6690 5661 6133 5256 5256 3873 4599 4906 4906 4906 4599 5256 4906 4599 5256 4329 3873 3679 3504 3504 3504 3504 3679 4329 4088 4599 5256 4906 5256 4906 4906 4329 4088 4088 3679 3679 3504 3345 3199 3504 4088 4088 3873 4088 3679 5256 6133 6133 6690 6690 7359 7359 7359 8177 8177 7359 7359 5661 6133 6133 6133 5661 6133 6690 5661 5661 6133 5661 5661 5661 6133 5661 4906 5661 5256 4906 4599 4906 4329 4906 4599 5256 5661 5661 5661 6133 6133 6690 6690 6690 6133 5661 6133 6133 6133 6133 5256 5256 5661 4599 5661 5256 5256 5256 5256 6133 6133 6133 7359 7359 7359 5661 5661 6133 5256 4906 5256 4599 3679 3345 2725 2230 0 0 0 0 0 0 0 0 1206 1226 1168 1206 1149 1132 1098 1098 1066 1082 1008 1008 968 865 817 836 836 836 799 817 808 774 791 799 758 774 758 782 766 758 774 743 0 0 0 0 0 0 0 0 0 0 657 645 639 645 0 0 0 634 651 629 0 0 0 0 0 0 521 521 525 525 521 529 529 533 533 0 0 0 0 0 114 0 0 0 0 471 474 446 427 438 430 430 422 427 425 425 425 427 411 404 397 397 393 389 385 375 379 379 381 371 371 371 367 369 371 369 367 367 367 0 0 0 0 0 0 0 0
    0 0 0 0 0 0 0 0 0 0 0 0 0 0 0 0 0 0 0 0 0 0 0 0 0 0 0 0 0 0 0 0 0 0 0 0 0 0 0 0 0 0 0 0 0 0 0 0 0 0 0 0 0 0 0 0 0 0 0 0 0 0 0 0 0 0 0 0 0 0 0 0 0 4906 4088 4599 3679 4088 4599 4329 4906 4329 4599 4599 4088 4329 4088 3679 3679 3199 3345 3345 3345 3679 4088 3873 4329 4906 4599 4906 4329 4599 4088 3873 3873 3679 3504 3345 3199 3066 3345 3679 3504 3504 3873 3679 5661 6690 6133 7359 7359 7359 8177 7359 0 8177 8177 7359 5661 6133 6133 6133 5661 6690 6690 5661 5661 6133 5661 5661 5661 6133 5256 4906 5256 4906 4599 4599 4906 4599 4906 4906 5661 5661 5661 5661 6133 5661 6133 6133 6133 6133 5661 6133 6133 6133 6133 5661 5256 5661 4906 5661 4906 5256 5256 5256 6690 6690 6690 8177 8177 8177 6133 6133 6690 5661 5256 5256 4906 3873 3345 2830 2374 0 0 0 0 0 0 0 0 1206 1226 1168 1206 1149 1132 1098 1098 1066 1082 1008 994 968 865 826 845 845 845 817 826 817 782 799 808 766 766 750 782 758 750 766 743 743 0 0 0 0 0 0 0 0 0 663 651 645 651 645 0 0 629 645 0 1839 0 0 0 0 0 518 518 521 521 518 525 525 533 533 529 0 0 0 0 115 0 0 0 0 471 471 446 427 438 432 432 425 430 427 427 427 430 413 402 397 397 391 389 385 373 377 377 379 369 369 369 367 367 369 367 0 367 366 0 0 0 0 0 0 0 0
    0 0 0 0 0 0 0 0 0 0 0 0 0 0 0 0 0 0 0 0 0 0 0 0 0 0 0 0 0 0 0 0 0 0 0 0 0 0 0 0 0 0 0 0 0 0 0 0 0 0 0 0 0 0 0 0 0 0 0 0 0 0 0 0 0 0 0 0 0 0 0 0 0 3679 3345 4088 3679 3679 4088 3873 4599 3873 4088 4088 3679 3679 3873 3504 3345 3066 3199 3199 3199 3504 3679 3679 4088 4329 4329 4329 4088 4088 3873 3873 3679 3504 3345 3345 3199 3066 3066 3199 3066 3066 3345 3504 4906 6690 6133 7359 7359 7359 8177 8177 0 8177 7359 8177 5661 6690 6133 6133 5661 6690 6690 5661 5661 6133 5661 5661 5661 6133 5256 4599 5256 4906 4599 4599 5256 4599 5256 4906 5661 6133 5661 6133 6690 6133 6133 6133 6133 6133 5661 6133 6133 6133 6133 6133 5661 6133 5256 6133 5256 5256 5661 5661 6690 7359 7359 0 0 0 7359 6690 6690 5661 5256 5256 4906 3873 3345 3066 2453 0 0 0 0 0 0 0 0 1206 1226 1168 1187 1132 1115 1098 1098 1051 1082 994 981 968 876 836 865 865 855 836 845 836 799 808 817 766 774 758 782 758 750 766 735 735 0 0 0 0 0 104 104 0 0 663 657 645 651 651 0 0 629 639 0 0 0 0 0 0 0 511 514 514 518 514 525 525 529 529 529 0 0 0 0 0 0 0 474 0 471 471 448 432 443 438 438 430 432 432 432 432 435 413 399 397 395 391 387 385 373 377 377 379 369 369 369 367 366 0 366 0 366 366 366 366 364 0 0 0 0 0
    0 0 0 0 0 0 0 0 0 0 0 0 0 0 0 0 0 0 0 0 0 0 0 0 0 0 0 0 0 0 0 0 0 0 0 0 0 0 0 0 0 0 0 0 0 0 0 0 0 0 0 0 0 0 0 0 0 0 0 0 0 0 0 0 0 0 0 0 0 0 0 3066 3066 3504 3345 3873 3679 3345 3679 3504 4088 3504 3679 3504 3345 3504 3679 3345 3199 2943 3066 3199 3199 3504 3679 3504 3873 4329 4088 4088 3873 4088 3873 3873 3679 3504 3345 3345 3199 3066 3066 3066 2830 2943 3199 3345 3873 6133 6133 7359 7359 7359 8177 7359 8177 7359 6690 7359 5661 6133 5661 6133 5661 6690 6690 5661 5661 6133 5661 5661 5661 6133 5256 4599 4906 4906 4599 4599 5256 4599 5256 5256 6133 6690 6133 6690 6690 6133 6690 6690 6133 6133 5661 6133 6133 6133 6133 6133 5661 6133 5661 6133 5661 5661 5661 6133 7359 8177 8177 0 0 0 8177 7359 7359 6133 5256 5661 4906 3873 3345 3199 2628 0 0 0 0 0 0 0 0 1206 1206 1168 1168 1132 1098 1098 1082 1051 1066 994 968 968 886 845 876 876 865 845 865 845 808 817 817 774 774 766 782 758 750 758 735 735 0 0 0 0 0 104 104 104 0 663 657 0 651 651 0 0 623 629 0 0 0 0 0 0 0 507 507 511 514 511 521 525 529 529 525 529 0 0 0 0 0 0 474 0 471 471 457 438 448 443 440 432 435 435 435 435 438 415 397 395 395 391 387 385 373 377 375 379 369 369 369 367 362 178 364 364 364 364 364 364 364 0 0 0 0 0
    0 0 0 0 0 0 0 0 0 0 0 0 0 0 0 0 0 0 0 0 0 0 0 0 0 0 0 0 0 0 0 0 0 0 0 0 0 0 0 0 0 0 0 0 0 0 0 0 0 0 0 0 0 0 0 0 0 0 0 0 0 0 0 0 0 0 0 0 0 3199 3066 3199 3345 3679 3504 4088 3873 3504 3679 3345 3679 3345 3504 3199 3199 3199 3504 3345 3066 2830 3066 2943 3199 3345 3504 3504 3679 4088 4088 3679 3679 3679 3679 3679 3504 3345 3345 3199 3199 3066 2943 2943 2830 2830 3066 3199 3504 4906 5256 6690 6690 6690 7359 6690 6690 6690 6133 6690 5256 5661 5661 6133 5661 6133 6690 5661 6133 6133 5661 5661 5661 6133 5256 4906 4906 4906 4599 4599 5256 4599 5256 5661 6133 6690 6133 7359 7359 6690 7359 6690 6133 6133 6133 6133 6133 6133 6690 6133 6133 6133 5661 6133 6133 6133 6133 6133 8177 0 0 0 0 0 0 8177 8177 6690 5661 6133 5256 4088 3345 3345 2725 0 0 0 0 0 0 0 0 1226 1206 1168 1168 1115 1098 1098 1082 1051 1066 981 968 981 908 855 886 886 876 855 876 845 817 826 826 782 774 766 791 766 750 758 735 728 0 0 0 0 0 104 104 104 0 0 657 0 651 657 0 0 623 623 0 1936 0 0 0 0 0 0 504 507 511 511 521 525 529 529 525 529 0 0 0 0 0 0 471 0 471 468 462 443 451 446 443 435 438 438 438 438 438 418 397 395 395 391 389 387 373 377 375 379 367 367 367 367 360 178 364 362 364 362 362 362 362 0 0 0 0 0
    0 0 0 0 0 0 0 0 0 0 0 0 0 0 0 0 0 0 0 0 0 0 0 0 0 0 0 0 0 0 0 0 0 0 0 0 0 0 0 0 0 0 0 0 0 0 0 0 0 0 0 0 0 0 0 0 0 0 0 0 0 0 0 0 0 0 0 0 0 3345 0 3504 3679 4088 4088 4906 4599 4088 3873 3504 3679 3345 3504 3199 3066 3199 3504 3345 3066 2943 3066 2943 3066 3199 3345 3345 3504 3873 3873 3679 3679 3679 3679 3679 3504 3504 3345 3345 3345 3066 3066 3066 2830 2943 3199 3345 3679 5661 5661 6690 6690 6690 6690 6690 6690 6133 6133 6133 5661 5661 5661 6133 6133 6133 6133 5661 5661 5661 5661 5661 5661 6133 5661 5256 4906 5256 4906 4906 5256 4599 5256 5661 6133 6690 6133 6690 6690 6133 6690 6690 6133 6133 6133 6690 6133 6690 7359 6690 6133 6133 5661 6133 6133 6133 6133 5661 8177 0 0 0 0 0 0 0 8177 7359 5661 5661 5256 4088 3345 3345 2830 4088 0 0 0 0 0 0 0 1226 1206 1168 1149 1115 1098 1098 1082 1051 1066 994 968 994 931 855 908 897 886 865 886 855 826 826 0 782 774 774 782 766 743 743 728 721 0 0 0 0 0 104 104 103 0 0 651 0 645 651 0 634 618 618 0 1887 0 0 0 0 0 0 500 504 511 511 521 525 525 529 525 529 0 0 0 0 0 0 471 0 468 468 465 446 454 448 446 438 440 440 440 440 440 420 397 397 395 391 389 387 375 377 377 379 367 367 367 367 360 177 362 362 362 362 362 362 362 0 0 0 0 0
    0 0 0 0 0 0 0 0 0 0 0 0 0 0 0 0 0 0 0 0 0 0 0 0 0 0 0 0 0 0 0 0 0 0 0 0 0 0 0 0 0 0 0 0 0 0 0 0 0 0 0 0 0 0 0 0 0 0 0 0 0 0 0 0 0 0 0 0 0 3679 3873 4088 4329 4906 4599 5661 5256 4599 4329 3679 3873 3504 3679 3504 3199 3345 3679 3504 3199 3066 3199 3066 3066 3199 3199 3199 3345 3873 3873 3679 3679 3679 3679 3679 3504 3345 3345 3345 3199 3066 3199 3199 3066 3199 3873 4088 4599 6133 6133 6690 6690 6690 6690 6133 6133 6133 6133 6133 5256 5256 5661 6133 6133 6133 5661 5661 5661 5661 5661 5661 5256 5661 5661 5661 4906 5256 5256 4906 5661 4906 5256 5661 5661 6133 5661 6133 6133 5661 6690 6133 6133 6133 6133 6690 6133 6690 6690 6133 5661 6133 5661 5661 5661 6133 5661 5661 7359 8177 0 0 0 0 0 0 8177 7359 5661 5256 5256 4329 3345 3504 2943 4329 0 0 0 0 0 0 0 0 1206 1168 1149 1115 1098 1098 1098 1051 1066 994 981 994 955 865 908 908 897 876 897 855 826 826 0 782 782 774 782 758 743 743 728 721 0 0 0 0 0 0 103 103 0 0 645 0 639 651 0 634 613 608 0 0 0 0 0 0 0 504 504 500 507 511 521 525 529 533 525 529 0 0 0 0 0 465 468 471 468 465 465 448 457 451 448 440 443 443 443 443 443 420 395 395 393 389 389 387 375 375 375 379 369 367 367 367 359 0 362 362 362 362 362 362 362 0 0 0 0 0
    0 0 0 0 0 0 0 0 0 0 0 0 0 0 0 0 0 0 0 0 0 0 0 0 0 0 0 0 0 0 0 0 0 0 0 0 0 0 0 0 0 0 0 0 0 0 0 0 0 0 0 0 0 0 0 0 0 0 0 0 0 0 0 0 0 0 0 0 0 4088 4329 4599 4906 5256 5256 6133 5661 5256 4906 4088 4599 3679 3873 3679 3504 3504 3679 3345 3199 3066 3066 2943 3066 3066 3066 3199 3504 3873 3873 3679 3679 3504 3504 3504 3345 3345 3199 3199 3066 2943 3199 3199 3199 3345 4329 4599 5256 6133 6690 6690 6690 6690 6690 6133 6133 5661 5661 5661 5256 5256 5661 5661 5661 5661 5661 5661 5661 5661 5661 5661 5661 5661 5661 6133 4906 5256 5256 4906 5256 4906 5256 5661 5661 5661 5661 5661 6133 5661 6133 6133 5661 5661 6133 6133 6133 6133 6690 6133 5661 5661 5661 5256 5256 5661 5661 5661 6690 7359 8177 8177 0 0 0 8177 7359 7359 5661 4906 5256 4329 3504 3504 3066 4329 0 0 0 0 0 0 0 0 1206 1168 1149 1115 1098 1115 1098 1051 1066 1008 981 1008 955 865 908 908 897 876 897 855 826 826 826 782 782 774 782 758 743 735 728 721 0 0 0 0 0 0 103 103 0 0 0 0 0 0 0 629 608 603 0 0 0 0 0 0 0 511 507 504 511 511 521 525 529 533 525 525 0 0 0 0 0 459 465 468 465 465 468 448 459 454 451 443 443 443 443 443 443 422 393 391 389 387 385 385 373 373 373 377 369 367 367 367 359 0 364 362 364 362 362 362 362 0 0 0 0 0
    0 0 0 0 0 0 0 0 0 0 0 0 0 0 0 0 0 0 0 0 0 0 0 0 0 0 0 0 0 0 0 0 0 0 0 0 0 0 0 0 0 0 0 0 0 0 0 0 0 0 0 0 0 0 0 0 0 0 0 0 0 0 0 0 0 0 0 0 0 4906 5256 5256 5661 6133 6133 6690 6690 5661 5256 4599 4906 3873 3873 3504 3504 3345 3504 3199 2943 2830 2943 2943 2943 2830 2943 3199 3345 3873 3873 3679 3679 3504 3504 3504 3345 3199 3199 3066 3066 2943 3199 3199 3345 3504 4599 4906 5661 6690 6690 6690 6690 6690 6690 6133 5661 5661 5661 5661 5256 5256 5256 5661 5661 5256 5256 5661 5256 5661 5256 5256 5256 5661 5256 5256 3873 4599 4329 4329 4906 4599 4906 5256 5661 5661 5256 5661 5661 5661 6133 6133 5661 6133 6133 6133 6133 6133 6133 6133 5661 5661 5661 5256 5256 5661 5256 5661 6133 6690 6690 7359 7359 8177 7359 7359 6690 6133 5256 4329 4599 4329 3504 3679 3199 4088 0 0 0 0 0 0 0 1226 1187 1168 1149 1115 1098 1115 1115 1051 1066 0 981 1008 955 865 908 897 897 876 886 845 826 826 826 782 774 774 774 758 743 735 735 721 0 0 0 0 0 0 0 0 0 0 0 0 0 0 0 0 0 0 0 0 0 0 0 0 0 0 514 511 514 514 525 525 529 533 521 0 774 0 0 0 0 459 465 465 465 465 468 451 459 454 454 440 443 443 443 440 440 422 393 389 389 387 385 383 373 373 373 375 369 367 367 367 359 0 0 364 364 364 364 364 364 0 0 0 0 0
    0 0 0 0 0 0 0 0 0 0 0 0 0 0 0 0 0 0 0 0 0 0 0 0 0 0 0 0 0 0 0 0 0 0 0 0 0 0 0 0 0 0 0 0 0 0 0 0 0 0 0 0 0 0 0 0 0 0 0 0 0 0 0 0 0 0 0 0 0 5661 6133 5661 6690 6690 6690 7359 6690 6690 5661 5256 5256 4088 3873 3504 3345 3345 3504 3199 2943 2725 2830 2830 2830 2830 2943 3066 3345 3679 3679 3504 3504 3345 3504 3504 3345 3345 3199 3066 3066 3066 3199 3345 3504 4088 4906 5256 6133 6690 6690 6690 6690 6690 6690 6133 6133 5661 5661 5661 5256 4906 5256 5256 5256 4906 5256 5256 5256 5661 5256 5256 5256 5256 5256 4599 3679 4088 3679 3873 4088 3873 4329 4599 4906 5256 5256 5256 5661 5661 6133 6133 6133 6133 6690 6690 6690 6690 6690 6133 5661 5661 5661 5256 5661 5256 5256 5256 6133 6690 6690 6690 6690 6690 6690 6690 6133 5256 4906 4088 4329 4088 3504 3679 3345 0 0 0 0 0 0 0 0 1206 1187 1168 1132 1115 1098 1115 1115 1066 1066 0 994 1008 968 876 897 886 886 876 876 845 817 817 817 782 774 774 774 766 743 743 743 728 0 0 0 0 0 714 0 0 0 0 0 0 0 0 0 0 0 0 0 0 0 0 0 0 0 0 525 521 521 521 529 525 529 533 0 728 774 0 0 0 0 459 465 465 465 462 468 451 459 451 457 440 440 440 440 440 440 425 393 385 387 385 383 383 373 371 373 375 371 367 367 367 0 0 0 366 366 366 366 366 366 0 0 0 0 0
    0 0 0 0 0 0 0 0 0 0 0 0 0 0 0 0 0 0 0 0 0 0 0 0 0 0 0 0 0 0 0 0 0 0 0 0 0 0 0 0 0 0 0 0 0 0 0 0 0 0 0 0 0 0 0 0 0 0 0 0 0 0 0 0 0 0 0 0 0 6690 7359 7359 7359 8177 7359 8177 7359 6690 6690 5661 5661 4599 4088 3679 3504 3504 3504 3199 2943 2830 2830 2943 2943 2830 2943 3066 3199 3504 3504 3504 3504 3345 3345 3345 3199 3345 3345 3199 3199 3199 3345 3679 3873 4599 4599 5256 5661 6133 6133 6690 6690 6690 6133 6133 6133 5661 5661 5661 5256 5256 5256 5661 5256 4906 4906 5256 4906 5256 5256 5256 4906 4906 4906 4088 3345 3679 3345 3504 3679 3679 3873 4088 4599 4906 4906 5256 5661 5661 6133 6133 5661 6133 6690 6133 7359 6690 6133 6133 5661 5661 5661 5661 5661 5256 5256 5256 6133 6133 6133 6133 6690 6690 6690 6133 5661 4906 4906 3873 4088 4088 3504 3679 3504 0 0 0 0 0 0 0 0 1206 1168 1168 1132 1115 1082 1115 1115 1066 1066 0 994 1008 968 865 876 876 876 865 855 826 808 799 808 774 774 774 782 782 750 0 758 728 0 0 0 377 0 721 0 0 0 0 0 0 0 0 0 0 0 0 192 0 1989 1989 0 0 0 0 0 0 525 525 533 529 529 0 0 735 782 774 791 0 0 0 465 465 468 462 468 451 457 448 454 438 440 440 440 438 438 425 395 385 387 385 383 383 373 371 373 375 371 369 369 367 0 367 176 0 367 366 366 366 366 0 0 0 0 0
    0 0 0 0 0 0 0 0 0 0 0 0 0 0 0 0 0 0 0 0 0 0 0 0 0 0 0 0 0 0 0 0 0 0 0 0 0 0 0 0 0 0 0 0 0 0 0 0 0 0 0 0 0 0 0 0 0 0 0 0 0 0 0 0 0 0 0 0 0 0 0 0 0 0 0 0 8177 8177 7359 6133 6133 5256 4329 3873 3679 3679 3679 3345 3199 3066 3066 3066 3066 2943 2830 2943 2943 3199 3345 3199 3345 3066 3345 3345 3199 3504 3345 3345 3504 3345 3679 3873 4329 4906 4599 4906 5661 5661 6133 6133 6133 6133 6133 5661 5661 5661 6133 5661 5256 5256 5256 5661 5661 4906 5256 5256 4906 5256 4906 4906 4906 4906 4599 3679 3199 3345 3066 3199 3199 3345 3345 3679 3873 4088 4599 4599 5256 5256 5661 6133 5661 6133 6690 6690 7359 6690 6690 6133 6133 6133 5661 5256 5661 5661 4906 5256 5661 5661 5661 5661 6133 6133 6133 6133 5256 4599 4599 3873 4088 3873 3504 3679 3504 0 0 0 0 0 0 0 0 1187 1168 1168 1149 1115 1098 1115 1115 1082 1082 1022 0 0 968 865 0 865 865 855 836 817 791 791 799 774 774 774 774 782 758 0 766 735 0 0 0 379 728 728 0 0 0 0 0 0 0 0 0 0 0 0 0 0 1989 1936 0 0 0 0 0 0 529 529 537 529 529 0 0 743 791 774 0 0 0 462 465 465 465 462 465 451 457 448 454 438 438 438 438 435 435 425 397 387 387 387 385 385 375 371 373 375 373 369 369 369 166 369 0 367 369 367 367 367 369 0 0 0 0 0
    0 0 0 0 0 0 0 0 0 0 0 0 0 0 0 0 0 0 0 0 0 0 0 0 0 0 0 0 0 0 0 0 0 0 0 0 0 0 0 0 0 0 0 0 0 0 0 0 0 0 0 0 0 0 0 0 0 0 0 0 0 0 0 0 0 0 0 0 0 0 0 0 0 0 0 0 0 0 8177 6690 6133 5661 4599 4088 3873 3873 3679 3504 3199 3199 3066 3199 3199 2943 2943 2830 2830 2943 3066 3066 3199 2943 3199 3199 3199 3504 3345 3504 3504 3504 3873 4329 4906 4906 4599 5256 5661 5661 6133 6133 6133 6133 6690 6133 6133 6133 6133 6133 5661 5256 5661 5661 5661 4906 5256 5256 4906 5256 5256 4906 4906 4599 4088 3504 3066 3199 2943 2943 2943 3066 3066 3199 3345 3679 4088 4088 4599 4906 5256 5661 5256 6133 6690 6133 7359 6690 6133 5661 5661 5661 5661 4906 5661 5661 4906 5256 5661 5661 5661 5661 6133 5661 6133 5661 4906 4329 4329 3679 3873 3679 3504 3679 3504 0 0 0 0 0 0 0 1206 1187 1168 1168 1168 1132 1098 1132 1132 1098 1098 1036 0 0 968 865 0 855 845 845 817 808 782 774 791 774 774 766 774 782 758 743 766 735 0 0 0 379 735 728 0 0 0 0 0 0 0 0 0 0 0 0 0 2044 1989 1936 0 2453 0 0 0 0 0 0 0 533 0 0 0 0 791 0 0 0 0 459 465 465 465 462 465 451 457 446 454 435 435 435 435 435 432 427 397 389 389 387 387 387 377 371 375 377 373 369 369 369 166 371 373 369 371 369 369 369 371 0 0 0 0 0
    0 0 0 0 0 0 0 0 0 0 0 0 0 0 0 0 0 0 0 0 0 0 0 0 0 0 0 0 0 0 0 0 0 0 0 0 0 0 0 0 0 0 0 0 0 0 0 0 0 0 0 0 0 0 0 0 0 0 0 0 0 0 0 0 0 0 0 0 0 0 0 0 0 0 0 0 0 0 8177 7359 6690 6133 4906 4599 4329 4088 3873 3679 3345 3345 3199 3345 3199 3066 2943 2943 2830 3066 3199 0 3199 0 3066 3066 3066 3504 3345 3345 3504 3679 4329 5256 5256 5256 4906 5661 6133 5661 6690 6690 6133 6690 6690 6690 6690 6133 6690 6133 5661 5661 5661 5661 5661 5256 5256 5256 4906 5256 5256 4906 4906 4599 3873 3345 3066 2943 2725 2830 2830 2830 2830 3066 3066 3345 3679 3679 4088 4329 4906 5661 5256 5661 6690 6133 6690 6690 6133 5256 5661 5661 5661 4906 5661 5661 5256 5256 6133 5661 5661 5661 6133 5661 5661 5256 4599 4329 4329 3679 3873 3679 3504 3679 3679 0 0 0 0 0 0 0 1187 1187 1168 1187 1168 1149 1098 1149 1149 1098 1098 1036 994 0 968 865 0 836 826 836 799 799 782 766 782 774 766 766 766 782 750 743 766 735 750 0 0 0 0 728 0 0 0 0 0 0 0 0 0 0 0 0 0 2102 1989 1989 0 2537 0 0 0 0 0 0 545 533 0 0 0 0 791 0 0 0 0 459 465 462 465 462 465 454 454 446 454 435 435 435 435 432 432 427 399 389 389 387 387 387 377 371 375 377 375 371 371 369 166 373 375 371 373 371 371 371 373 0 0 0 0 0
    0 0 0 0 0 0 0 0 0 0 0 0 0 0 0 0 0 0 0 0 0 0 0 0 0 0 0 0 0 0 0 0 0 0 0 0 0 0 0 0 0 0 0 0 0 0 0 0 0 0 0 0 0 0 0 0 0 0 0 0 0 0 0 0 0 0 0 0 0 0 0 0 0 0 0 0 0 0 8177 7359 6690 6133 5256 5256 4906 4599 4329 4088 3679 3504 3345 3679 3345 3066 3066 2943 2725 0 0 0 0 0 0 0 0 3873 3679 3679 3679 3873 4906 5256 5256 4906 4906 5256 6133 5661 6133 6133 6133 6690 7359 7359 6690 6133 6690 6133 5661 5661 5661 5256 5256 5256 5661 5256 4906 5256 5256 4906 4599 4329 3679 3199 2943 2830 2725 2628 2725 2830 2725 2943 3066 3199 3504 3679 3873 4329 4906 5661 5256 5661 6133 6133 6690 6690 6133 5256 5661 5661 5661 5256 5661 5661 5256 5661 6133 5661 6133 5661 5661 5661 5661 4906 4329 4088 4329 3679 3873 3679 3504 3679 3873 3504 0 0 0 0 0 0 0 1168 1149 1187 1168 1168 1115 1149 1149 1098 1082 1022 994 1008 955 855 0 826 826 817 782 791 774 758 774 774 766 766 766 782 758 743 766 735 758 0 0 0 0 728 0 0 0 0 0 0 0 0 252 0 0 0 0 2164 2044 2044 0 0 0 0 0 0 0 541 545 533 533 0 0 0 0 0 0 0 0 462 465 462 465 462 465 454 454 446 454 435 435 435 435 435 432 430 402 387 387 387 385 385 377 371 375 377 375 371 371 369 0 375 377 373 373 373 373 373 373 0 0 0 0 0
    0 0 0 0 0 0 0 0 0 0 0 0 0 0 0 0 0 0 0 0 0 0 0 0 0 0 0 0 0 0 0 0 0 0 0 0 0 0 0 0 0 0 0 0 0 0 0 0 0 0 0 0 0 0 0 0 0 0 0 0 0 0 0 0 0 0 0 0 0 0 0 0 0 0 0 0 0 0 7359 7359 6690 6133 5256 5661 5661 5256 4906 4906 4329 3873 3679 4088 3679 3345 3345 0 2725 0 0 0 0 0 0 0 0 4906 4329 4088 4088 4329 5256 5661 5256 4906 4599 5256 6133 5661 6133 6133 6133 6133 6690 6690 6690 6133 6690 6133 6133 5661 6133 5661 5256 5256 5661 5661 5256 5256 5256 4906 4599 4088 3504 2943 2725 2725 2628 2537 2628 2725 2628 2830 3066 3199 3345 3504 3679 4088 4599 5661 4906 5256 6133 6133 6690 6690 6133 5256 5661 5661 5661 5256 5661 5661 5256 5661 6133 5661 5661 5256 5661 5256 5256 4906 4088 3873 4088 3504 3873 3679 3504 3873 3873 3679 0 0 0 0 0 0 0 1132 1132 1187 1168 1168 1115 1149 1132 1082 1066 1008 981 994 943 855 0 817 817 808 766 782 774 750 774 774 766 766 766 782 766 750 782 735 758 750 0 0 0 721 714 707 0 0 0 0 0 0 0 0 0 0 0 2299 2044 2044 0 0 0 0 0 553 541 541 545 533 529 0 0 0 0 0 0 0 0 462 468 465 465 462 465 454 451 446 454 435 435 435 435 435 432 430 404 391 389 387 387 387 379 371 375 377 375 371 371 371 0 375 379 373 375 373 375 375 375 0 0 0 0 0
    0 0 0 0 0 0 0 0 0 0 0 0 0 0 0 0 0 0 0 0 0 0 0 0 0 0 0 0 0 0 0 0 0 0 0 0 0 0 0 0 0 0 0 0 0 0 0 0 0 0 0 0 0 0 0 0 0 0 0 0 0 0 0 0 0 0 0 0 0 0 0 0 0 0 0 0 0 0 7359 7359 6690 6690 5661 6133 6133 5661 5256 5661 4906 4599 4088 4906 4088 3873 3873 3345 0 0 0 0 0 1082 1082 0 0 5661 5256 4329 4599 4906 5661 5661 5661 5256 4906 5256 5661 5256 5661 5661 6133 6133 6690 6690 6690 6690 7359 6690 6690 6133 6690 5661 6133 5661 6133 5661 5256 5256 5256 4599 4088 3679 3199 2830 2628 2628 2537 2453 2537 2628 2628 2830 2943 3066 3199 3504 3679 3873 4599 5256 4906 5256 5661 6133 6690 6133 6133 4906 6133 5661 5661 5256 5661 5661 5661 5661 6133 5661 5661 5256 5661 5256 5256 4599 4088 3873 4088 3504 3679 3504 3504 3679 3873 3679 3873 0 0 0 0 97 0 1098 1115 1187 1187 1187 1132 1132 1115 1066 1051 994 981 981 931 855 0 817 808 799 758 782 774 750 766 782 766 766 774 791 766 750 782 743 758 750 0 0 0 714 707 700 694 675 669 0 0 0 0 0 0 0 0 0 0 0 0 0 0 0 549 549 541 545 545 529 529 525 511 0 0 0 0 0 0 465 468 468 465 462 465 454 448 446 451 435 432 435 435 432 432 430 406 393 393 391 389 389 381 373 377 377 375 371 371 371 367 375 379 373 375 373 375 373 375 0 0 0 0 0
    0 0 0 0 0 0 0 0 0 0 0 0 0 0 0 0 0 0 0 0 0 0 0 0 0 0 0 0 0 0 0 0 0 0 0 0 0 0 0 0 0 0 0 0 0 0 0 0 0 0 0 0 0 0 0 0 0 0 0 0 0 0 0 0 0 0 0 0 0 0 0 0 0 0 0 0 0 8177 7359 7359 6690 6133 5661 5661 5661 5661 5256 5661 5256 4906 4599 5256 4599 4329 4599 3873 0 0 0 0 0 1066 1082 1066 1051 0 5661 4906 4906 5256 6133 6133 6133 5661 4906 5661 5661 5256 5256 5661 6133 5661 6690 6690 6690 6690 7359 7359 7359 6690 7359 6690 6690 6690 6690 6133 5256 5256 5256 4599 4088 3679 3199 2830 2725 2725 2537 2453 2453 2628 2628 2725 2830 2943 3066 3345 3504 3679 4088 4599 4329 4599 5256 5661 6133 6133 6133 5256 6133 5661 5661 5256 6133 5661 5661 5661 6133 5661 6133 5256 5661 5256 5256 4599 3873 3873 3873 3504 3679 3504 3504 3679 3873 3679 3873 3873 0 0 0 0 0 1066 1115 1187 1187 1206 1149 1149 1115 1066 1036 994 981 981 931 855 782 817 817 808 758 791 782 758 774 791 774 766 774 791 774 750 774 743 750 750 0 0 0 707 694 694 687 675 675 669 0 651 0 0 0 608 598 598 593 0 584 574 0 553 549 545 541 541 541 529 529 521 507 500 497 0 487 481 481 468 471 468 465 462 465 454 446 446 448 435 430 432 432 430 430 430 408 397 397 395 391 391 385 373 377 379 375 371 371 371 367 373 377 373 373 373 373 373 373 0 0 0 0 0
    0 0 0 0 0 0 0 0 0 0 0 0 0 0 0 0 0 0 0 0 0 0 0 0 0 0 0 0 0 0 0 0 0 0 0 0 0 0 0 0 0 0 0 0 0 0 0 0 0 0 0 0 0 0 0 0 0 0 0 0 0 0 0 0 0 0 0 0 0 8177 8177 7359 8177 8177 8177 8177 8177 8177 6690 6690 6133 6133 5256 5661 6133 5661 5256 5661 5256 4906 4599 5256 4599 4088 4599 3873 0 0 0 0 1036 1066 1082 1066 1051 0 0 4599 4599 5256 5661 6133 6133 4906 4906 5661 5661 5256 5256 5661 6133 5661 6690 6690 6690 6690 8177 8177 8177 7359 8177 7359 7359 7359 7359 6133 5256 5256 5256 4599 3873 3504 3066 2830 2725 2725 2537 2537 2453 2628 2628 2725 2830 2830 3066 3199 3345 3504 3873 4329 4088 4329 5256 5256 5661 5661 5661 5256 6133 5256 5661 5256 6133 5661 5661 5661 6133 5661 6133 5256 5661 5256 4906 4329 3873 3873 3873 3504 3679 3504 3504 3679 3873 3679 3873 3873 0 0 0 0 994 1036 1098 1206 1206 1226 1206 1168 1115 1066 1036 994 981 981 943 865 799 817 817 808 766 791 791 766 774 791 774 774 774 791 774 750 774 750 735 743 0 694 681 694 687 687 681 675 669 663 629 0 598 593 598 593 584 584 584 584 570 566 553 549 545 541 537 537 537 521 525 514 504 500 497 493 487 484 481 471 471 471 465 465 465 454 446 446 448 435 430 432 430 430 427 430 411 402 402 397 395 393 389 375 379 379 375 371 371 369 367 373 375 371 373 373 373 373 373 0 0 0 0 0
    0 0 0 0 0 0 0 0 0 0 0 0 0 0 0 0 0 0 0 0 0 0 0 0 0 0 0 0 0 0 0 0 0 0 0 0 0 0 0 0 0 0 0 0 0 0 0 0 0 0 0 0 0 0 0 0 0 0 0 0 0 0 0 0 0 0 0 0 0 7359 7359 7359 7359 8177 7359 7359 8177 8177 6690 6690 6133 6133 5661 6133 6133 5661 5661 5661 5256 5256 4599 4906 4088 3873 4599 3504 0 0 0 1036 1051 1082 1082 1082 1066 0 0 4599 4906 5256 5661 6133 5661 4599 5256 5661 5661 5661 5256 5661 6133 5661 6690 6690 6690 6690 7359 7359 8177 7359 8177 7359 7359 7359 7359 6690 5661 5661 6133 4906 4088 3504 3066 2830 2830 2725 2628 2537 2537 2628 2628 2830 2943 2943 3066 3199 3345 3504 3873 4329 4329 4329 5256 5256 5661 5661 5661 5256 5661 5256 5661 5256 6133 5661 5661 6133 6133 5661 6133 5256 5661 5256 4906 4088 3873 3873 3679 3504 3679 3504 3504 3679 4088 3873 4088 4088 0 0 0 0 994 1008 1098 1206 1206 1247 1226 1168 1098 1066 1022 994 994 981 955 876 826 826 826 817 782 799 799 774 782 799 774 774 774 791 766 750 758 743 721 728 687 681 663 675 669 669 663 663 657 645 623 0 584 579 579 579 570 570 570 574 557 557 549 549 541 537 533 533 529 514 518 507 497 497 493 493 487 484 481 471 471 471 465 462 462 454 446 446 448 435 430 432 430 430 427 427 411 404 404 402 397 395 393 377 381 379 375 369 369 369 367 371 375 371 371 371 371 371 371 0 0 0 0 0
    0 0 0 0 0 0 0 0 0 0 0 0 0 0 0 0 0 0 0 0 0 0 0 0 0 0 0 0 0 0 0 0 0 0 0 0 0 0 0 0 0 0 0 0 0 0 0 0 0 0 0 0 0 0 0 0 0 0 0 0 0 0 0 0 0 0 0 0 0 7359 7359 7359 7359 8177 8177 8177 7359 7359 6133 6690 5661 5661 5661 6133 6133 5661 5661 5661 5256 4906 4599 4599 4088 4088 0 0 0 1051 1051 1036 1051 1082 1082 1098 1082 0 0 4906 4906 5256 5661 6133 5661 4599 5256 5661 5661 5661 5256 5661 6133 5661 6690 6690 6690 6690 7359 8177 8177 7359 8177 7359 7359 7359 7359 6690 6133 6133 6133 5256 4329 3679 3199 3066 2943 2830 2725 2628 2628 2628 2725 2830 2943 2943 3066 3199 3345 3504 3873 4329 4329 4329 5256 5256 5661 5661 5661 5256 5661 5256 5661 5256 6133 5661 5661 6133 6133 5661 6133 5661 6133 5661 4906 4088 4088 3873 3873 3504 3679 3504 3504 3679 4088 3873 4088 4088 0 0 0 994 994 1036 1098 1206 1187 1226 1187 1082 1066 1022 1008 994 981 968 955 886 845 845 845 826 799 808 808 791 791 799 774 774 774 782 766 750 758 735 721 728 681 669 645 663 657 657 651 657 651 639 623 618 584 579 570 570 566 566 566 570 557 557 549 545 537 533 529 529 521 511 514 500 493 493 490 490 484 481 481 468 471 471 462 462 459 451 443 446 448 435 432 432 430 430 427 427 413 406 406 404 397 397 395 379 381 379 375 369 369 369 367 369 373 369 369 371 371 371 369 0 0 0 0 0
    0 0 0 0 0 0 0 0 0 0 0 0 0 0 0 0 0 0 0 0 0 0 0 0 0 0 0 0 0 0 0 0 0 0 0 0 0 0 0 0 0 0 0 0 0 0 0 0 0 0 0 0 0 0 0 0 0 0 0 0 0 0 0 0 0 0 0 0 0 7359 7359 6690 7359 8177 8177 8177 7359 7359 6133 6690 5661 5661 6133 6133 6133 6133 5661 5661 4906 4906 4329 4329 3679 0 0 0 0 1051 1051 1051 1051 1082 1082 1098 1098 0 0 0 4906 5256 4906 5661 5661 4599 5256 5256 5661 5661 5256 5661 6133 5661 6690 6690 6690 7359 7359 8177 8177 8177 0 8177 7359 8177 7359 7359 6690 6133 6690 4906 4329 3679 3345 3066 3066 2943 2830 2830 2725 2725 2830 2943 3066 3066 3199 3345 3504 3679 4088 4599 4329 4329 5256 5256 5661 5661 5661 5661 6133 5661 6133 5256 6133 6133 5661 6133 6133 5661 6133 5256 6133 5661 4906 4329 4088 3873 3873 3504 3679 3504 3679 3679 3873 3873 4088 4088 0 0 0 994 994 1051 1115 1168 1168 1187 1132 1036 1022 1008 994 994 981 968 968 897 865 876 876 836 826 826 826 808 799 808 782 782 782 782 766 758 766 750 728 735 681 663 634 657 651 651 645 651 645 639 623 618 584 584 574 570 570 570 566 574 557 557 549 545 537 529 525 525 514 504 511 497 490 490 487 487 481 481 481 468 468 471 462 459 459 448 443 446 446 435 432 432 430 430 427 427 413 406 408 406 399 399 397 379 381 377 375 369 369 369 367 367 371 367 369 369 369 369 369 0 0 0 0 0
    0 0 0 0 0 0 0 0 0 0 0 0 0 0 0 0 0 0 0 0 0 0 0 0 0 0 0 0 0 0 0 0 0 0 0 0 0 0 0 0 0 0 0 0 0 0 0 0 0 0 0 0 0 0 0 0 0 0 0 0 0 0 0 0 0 0 0 0 0 0 8177 7359 8177 8177 8177 8177 7359 7359 6133 6690 5256 6133 6133 6133 5661 5661 5256 5256 4599 4599 0 0 0 0 0 0 0 1098 1066 1066 1082 1082 1082 1115 1098 0 0 0 4329 4599 4088 5256 5256 4599 5661 5256 5661 5661 5256 5661 6133 5661 6690 6690 6690 7359 7359 8177 0 8177 0 8177 8177 8177 7359 7359 6690 6690 6690 4599 4329 3679 3504 3199 3199 2943 2943 2943 2830 2830 2943 2943 3199 3199 3199 3345 3679 3679 4088 4599 4599 4599 5256 5256 5661 5661 5661 5661 6133 5661 6133 5661 6690 6133 5661 6133 5661 5256 6133 5256 5661 5661 5256 4599 4329 3873 3873 3679 3679 3504 3679 3504 3873 3679 4088 3873 0 0 0 994 1008 1066 1149 1168 1187 1187 1115 1036 1022 1008 994 994 994 981 981 931 908 919 908 855 845 845 836 826 808 808 791 791 791 791 782 766 774 774 735 750 687 669 634 657 657 657 657 657 651 639 618 613 584 579 570 570 570 570 566 570 557 557 545 541 533 529 521 521 511 504 507 497 490 490 487 490 481 484 481 468 468 471 462 459 457 448 440 443 446 435 430 432 430 430 427 427 415 411 413 411 404 402 399 379 379 377 375 369 369 369 367 366 367 366 367 367 367 367 367 0 0 0 0 0
    0 0 0 0 0 0 0 0 0 0 0 0 0 0 0 0 0 0 0 0 0 0 0 0 0 0 0 0 0 0 0 0 0 0 0 0 0 0 0 0 0 0 0 0 0 0 0 0 0 0 0 0 0 0 0 0 0 0 0 0 0 0 0 0 0 0 0 0 0 0 0 8177 0 0 8177 0 7359 8177 7359 7359 5256 6133 6133 6133 5661 5661 4906 4906 4329 0 214 215 215 0 0 165 0 1115 1082 1082 1098 1115 1115 1132 1149 1168 0 0 3345 3679 3679 4906 4906 4599 5661 5256 5661 5661 5661 6133 6133 5661 6690 6690 7359 7359 7359 8177 8177 8177 0 8177 8177 8177 8177 8177 6690 6690 6690 4599 4329 3679 3504 3199 3345 3066 3066 3066 2943 2830 3066 3066 3199 3199 3345 3345 3679 3873 4329 4906 4906 4906 5661 5256 6133 5661 6133 6133 6133 6133 6133 5661 6690 6133 5661 6133 5661 5256 5661 5661 6133 5661 5256 4906 4599 3873 4088 3679 3504 3345 3679 3504 3679 3679 4088 3679 0 0 0 994 1008 1098 1168 1168 1187 1149 1115 1022 1008 1008 1008 1008 1008 994 994 943 943 955 943 865 865 865 855 845 826 817 808 808 808 799 791 782 782 791 743 782 687 669 639 657 663 651 663 663 651 634 618 608 579 584 570 574 574 570 570 570 557 557 545 541 533 525 521 521 511 504 511 497 493 493 487 490 484 484 481 468 468 471 462 459 457 448 440 443 443 435 430 430 430 427 427 427 418 413 413 415 406 404 399 379 377 375 373 369 369 369 367 364 366 366 366 366 366 366 366 0 0 0 0 0
    0 0 0 0 0 0 0 0 0 0 0 0 0 0 0 0 0 0 0 0 0 0 0 0 0 0 0 0 0 0 0 0 0 0 0 0 0 0 0 0 0 0 0 0 0 0 0 0 0 0 0 0 0 0 0 0 0 0 0 0 0 0 0 0 0 0 0 0 0 714 0 0 0 0 0 0 8177 0 8177 8177 5256 6133 6133 6133 5661 5256 4906 4599 4088 0 0 215 215 0 0 0 1132 1098 1098 1082 1115 1132 1115 1149 1149 1187 1206 0 0 3199 3345 4906 4599 4329 5661 5256 5661 5661 5661 6133 5661 5661 6690 6133 7359 7359 6690 8177 8177 7359 8177 8177 8177 8177 7359 8177 6690 6690 6690 4906 4329 3873 3679 3345 3504 3345 3199 3199 3199 2943 3199 3199 3345 3199 3345 3345 3873 3873 4329 4906 4906 4906 5661 5256 6133 6133 6133 6133 6133 6133 6690 5661 6690 6133 5661 6133 5661 5256 5661 5256 6133 5661 5256 4906 4906 3873 4088 3873 3504 3345 3679 3345 3504 3504 3679 3504 3504 3679 3873 0 0 0 1206 1149 1206 1168 1066 1036 1022 1022 1022 1022 1022 1008 1008 968 955 968 955 876 886 886 876 865 855 826 817 817 817 799 791 791 782 799 766 826 700 675 639 657 657 651 651 651 645 629 618 613 584 588 574 574 579 574 570 574 557 557 545 541 529 525 521 521 511 507 514 500 493 497 490 490 484 484 481 468 468 471 462 459 457 446 443 443 443 435 427 430 427 425 425 427 418 413 415 418 408 406 402 379 375 373 373 369 369 369 367 362 364 366 364 366 366 366 364 0 0 0 0 0
    0 0 0 0 0 0 0 0 0 0 0 0 0 0 0 0 0 0 0 0 0 0 0 0 0 0 0 0 0 0 0 0 0 0 0 0 0 0 0 0 0 0 0 0 0 0 0 0 0 0 0 0 0 0 0 0 0 0 0 0 0 0 0 0 0 0 0 0 0 721 700 0 0 0 0 0 0 0 0 8177 5256 5661 6133 5661 5256 5256 4599 4329 0 0 0 0 0 0 0 0 0 1082 1098 1098 1115 1132 1115 1149 1132 1168 1187 0 0 0 0 4599 4329 4329 5256 5256 5661 5661 5661 6133 5661 5661 6133 6133 7359 6690 6690 7359 7359 7359 7359 8177 7359 7359 7359 8177 6690 6690 7359 5256 4906 4329 4088 3679 3873 3504 3345 3345 3345 3199 3199 3199 3345 3345 3504 3504 4088 4329 4599 5256 5256 5256 6133 5256 6133 6133 5661 6133 6133 6133 6690 5661 6690 6133 5661 6690 5661 5256 6133 5661 6133 6133 5661 4599 4329 3679 3873 3873 3504 3345 3504 3345 3504 3345 3504 3345 3199 3199 3199 2628 0 1795 1291 1314 1314 1291 1082 1066 1036 1036 1036 1022 1022 1022 1022 968 981 981 968 886 908 897 886 876 865 836 826 826 826 808 799 799 791 808 799 855 728 681 645 657 663 645 657 651 639 629 618 613 584 588 574 579 579 574 574 574 561 561 545 545 529 525 521 521 511 507 514 504 497 497 490 493 484 487 481 465 465 468 459 459 454 446 443 443 443 435 427 430 427 425 425 425 418 413 415 418 408 406 402 379 373 373 371 369 369 369 367 360 364 364 364 364 364 364 364 0 0 0 0 0
    0 0 0 0 0 0 0 0 0 0 0 0 0 0 0 0 0 0 0 0 0 0 0 0 0 0 0 0 0 0 0 0 0 0 0 0 0 0 0 0 0 0 0 0 0 0 0 0 0 0 0 0 0 0 0 0 0 0 0 0 0 0 0 0 0 0 0 0 0 750 0 0 0 0 0 0 0 0 0 0 5661 6133 6133 6133 5256 5256 4599 4088 0 136 136 0 0 0 0 0 0 1098 1132 1115 1132 1132 1115 1132 1115 1132 1149 0 0 0 0 0 4329 4329 5256 5256 6133 5661 6133 6133 5661 6133 6690 6133 7359 6133 6690 6690 7359 6690 6690 7359 6690 6690 6690 7359 7359 7359 7359 5661 5256 4599 4329 3873 3873 3504 3345 3345 3345 3199 3199 3199 3504 3504 3679 3873 4599 5256 5256 5661 5661 5661 6133 5661 6133 6133 5661 6133 6133 6133 6690 5661 6690 5661 5256 6690 5661 5256 6133 5661 6133 6690 6133 4329 3679 3345 3679 3679 3345 3345 3504 3345 3345 3345 3345 2943 2830 2830 0 2230 0 1599 1362 1362 1338 1338 1247 1132 1051 1051 1036 1022 1022 1022 1022 955 981 981 955 876 908 897 876 876 876 836 826 836 836 808 808 817 808 826 817 876 774 694 669 669 675 663 663 657 645 629 623 613 588 593 579 579 579 579 574 574 561 561 549 545 533 529 521 521 507 511 514 507 500 500 493 493 484 487 477 462 462 465 459 457 454 446 443 443 443 435 430 432 430 425 425 425 415 413 415 413 408 406 402 379 371 373 371 369 369 369 367 359 364 364 362 362 362 362 362 0 0 0 0 0
    0 0 0 0 0 0 0 0 0 0 0 0 0 0 0 0 0 0 0 0 0 0 0 0 0 0 0 0 0 0 0 0 0 0 0 0 0 0 0 0 0 0 0 0 0 0 0 0 0 0 0 0 0 0 0 0 0 0 0 0 0 0 0 0 0 0 0 0 0 808 0 0 0 0 0 0 0 0 0 0 6133 6133 6133 5661 4906 4906 4599 3873 0 0 0 0 0 0 0 0 1149 1098 1115 1098 1115 1098 1098 1098 1082 1098 1115 0 0 0 0 0 4906 4599 5661 5661 6133 5661 6133 6133 5661 6133 6133 6133 6690 6133 6133 6133 6690 6133 6133 6690 6133 6133 5661 6690 6690 6690 6690 5256 5661 5256 4599 4329 4088 3679 3345 3345 3345 3199 3199 3345 3504 3679 4088 4329 5661 5661 5661 6133 5661 5661 6133 5661 6690 6690 6133 6690 6133 6690 6690 6133 6690 5256 4329 6133 4088 3873 4088 4329 5256 6690 6690 4599 3504 3345 3504 3679 3345 3345 3504 3199 3345 3345 3199 2830 2725 0 0 0 0 1501 1338 1338 1338 1362 1247 1149 1066 1036 1036 1022 1022 1022 1008 955 968 981 968 886 908 897 876 876 897 845 836 836 855 808 808 826 826 826 826 931 817 0 687 681 681 669 651 634 629 623 623 618 598 593 579 579 584 579 574 574 561 561 553 545 533 525 518 521 511 514 518 511 507 504 493 493 487 493 477 462 462 462 457 457 451 443 443 440 443 435 432 432 430 425 425 425 418 413 415 413 408 406 404 381 371 373 373 369 369 369 367 360 364 366 362 362 362 362 362 0 0 0 0 0
    0 0 0 0 0 0 0 0 0 0 0 0 0 0 0 0 0 0 0 0 0 0 0 0 0 0 0 0 0 0 0 0 0 0 0 0 0 0 0 0 0 0 0 0 0 0 0 0 0 0 0 0 0 0 0 0 0 0 0 0 0 0 0 0 0 0 0 0 0 865 845 0 0 0 0 0 0 0 0 0 6690 6133 6133 5661 5256 4599 4088 3873 0 0 0 0 0 0 0 0 1115 1082 1098 1098 1098 1082 1082 1082 1066 1066 1098 0 0 0 0 0 4906 4599 5256 5661 6133 5661 6133 6133 5661 6133 6133 6133 6690 6133 6133 6133 6133 5661 6133 6133 6133 5661 5661 6133 6133 6133 6690 5661 5661 5661 5256 4599 4329 3679 3345 3345 3345 3199 3199 3199 3504 3504 3873 4906 5661 6133 6133 6133 5661 5661 6133 6133 6690 6690 6690 6690 6690 7359 7359 6690 7359 5661 4088 5661 3873 3679 3504 3504 3873 5661 6690 4329 3504 3199 3504 3679 3345 3345 3504 3199 3199 3345 3199 2830 0 0 0 0 0 1501 1338 1338 1338 1362 1247 1168 1066 1036 1036 1022 1036 1036 1008 955 981 981 968 886 919 897 886 886 908 855 836 845 855 808 808 826 817 817 817 943 865 886 0 758 721 0 681 618 623 618 634 623 618 0 0 593 593 588 584 570 566 566 553 545 537 529 521 521 514 518 521 518 514 507 497 497 490 493 481 471 465 465 457 459 451 443 440 438 440 432 430 432 430 422 425 425 418 413 415 413 408 406 404 381 369 373 373 371 371 371 369 360 366 367 364 364 364 364 364 0 0 0 0 0
    0 0 0 0 0 0 0 0 0 0 0 0 0 0 0 0 0 0 0 0 0 0 0 0 0 0 0 0 0 0 0 0 0 0 0 0 0 0 0 0 0 0 0 0 0 0 0 0 0 0 0 0 0 0 0 0 0 0 0 0 0 0 0 0 0 0 0 0 0 931 886 855 886 876 897 886 0 0 0 0 7359 6690 6133 6133 5256 4599 3873 0 0 0 0 0 0 0 0 1149 1132 1066 1098 1098 1098 1066 1082 1066 1051 1051 0 0 0 0 0 0 5256 4599 4906 5661 6133 5661 6133 5661 5661 5661 5661 6133 6690 6133 5661 5661 5661 5256 5661 6133 5661 5661 5256 6133 6133 5661 6133 5256 5256 5256 4906 4329 4088 3504 3199 3199 3066 3066 3199 3199 3345 3345 3504 4599 5661 6133 5661 6133 5661 6133 6133 6690 7359 7359 7359 7359 7359 8177 8177 7359 7359 5661 3873 5256 4088 3873 3873 4088 4088 5256 6690 4088 3345 3199 3504 3679 3345 3345 3504 3199 3345 3345 3199 2830 0 0 0 0 0 1443 1314 1314 1314 1362 1226 1187 1098 1051 1051 1036 1051 1051 1008 968 968 981 968 897 919 897 886 886 908 855 836 826 826 799 791 808 791 791 799 826 855 876 845 782 721 0 694 687 639 623 639 629 639 0 0 0 0 0 588 561 557 549 553 541 537 533 525 529 521 525 525 521 521 514 500 497 493 497 484 484 474 471 465 468 451 438 438 435 438 425 427 430 430 420 425 425 418 413 415 413 408 406 404 383 369 373 373 371 371 371 369 362 366 369 364 364 366 364 364 0 0 0 0 0
    0 0 0 0 0 0 0 0 0 0 0 0 0 0 0 0 0 0 0 0 0 0 0 0 0 0 0 0 0 0 0 0 0 0 0 0 0 0 0 0 0 0 0 0 0 0 0 0 0 0 0 0 0 0 0 0 0 0 0 0 0 0 0 0 0 0 0 0 0 943 897 876 886 886 886 886 855 0 0 0 7359 6133 6133 6133 5256 4329 3873 0 0 0 0 0 0 0 1132 1168 1149 1066 1098 1115 1098 1082 1082 1051 1022 1036 92 0 0 0 0 0 5661 4599 4906 5661 5661 5256 6133 5661 5256 5256 5661 5661 5661 5256 5256 5256 5256 4906 5256 5661 5661 5661 5256 5661 5661 5661 6133 5256 4906 4599 4329 3873 3679 3345 2943 2943 2943 2943 3066 3066 3066 3199 3199 4088 4599 5661 4906 5256 5256 5661 6133 6133 6690 7359 7359 7359 7359 0 8177 7359 6133 5661 3873 4329 4088 3873 3873 4088 4088 5661 7359 3873 3199 3199 3345 3679 3199 3345 3504 3199 3345 3504 3345 2830 0 0 0 0 1268 1388 1314 1314 1291 1314 1226 1206 1132 1066 1051 1036 1036 1036 994 955 968 968 968 908 919 908 886 897 897 845 826 808 817 791 774 791 774 782 791 817 845 855 836 743 714 0 700 694 675 645 651 639 663 0 0 0 0 0 0 0 0 533 541 537 529 529 533 537 533 533 533 525 521 521 511 504 0 500 493 493 493 490 0 0 468 0 440 430 438 415 425 427 427 415 422 422 418 413 415 411 406 406 406 383 367 373 373 371 371 371 369 362 369 373 366 366 366 366 364 0 0 0 0 0
    0 0 0 0 0 0 0 0 0 0 0 0 0 0 0 0 0 0 0 0 0 0 0 0 0 0 0 0 0 0 0 0 0 0 0 0 0 0 0 0 0 0 0 0 0 0 0 0 0 0 0 0 0 0 0 0 0 0 0 0 0 0 0 0 0 0 0 0 0 968 955 931 919 897 886 886 865 865 0 277 0 5661 5661 5661 4599 3873 0 0 0 0 94 94 0 0 1132 1168 1168 1066 1098 1115 1098 1066 1082 1051 1022 1022 92 0 0 0 0 0 5661 4329 4599 5256 5661 4906 5661 5256 4906 5256 5256 5256 5661 5256 5256 4599 5256 4599 5256 5256 5661 5256 5256 5661 5661 5256 6133 5256 4599 4329 4329 3679 3345 3199 2725 2830 2830 2943 2943 2943 2943 3066 3066 3873 4088 4906 4088 4599 4599 4906 5256 5256 6133 5661 6133 6133 6133 7359 6133 6133 5661 5256 4906 4906 4906 5256 4599 5256 5661 0 7359 3345 3066 3066 3199 3504 3199 3345 3504 3199 3345 3504 3199 0 0 0 1247 1247 1291 1388 1314 1291 1268 1314 1226 1206 1149 1082 1051 1051 1036 1022 994 955 955 955 955 908 919 908 886 897 886 845 817 791 799 782 766 782 774 774 799 817 826 845 817 721 714 0 694 681 675 657 663 645 675 0 0 0 0 0 0 0 0 529 537 533 525 525 533 537 537 537 529 525 518 525 0 0 0 0 0 0 0 0 0 0 0 0 0 0 0 0 425 427 427 411 420 422 418 411 413 408 404 404 406 385 367 373 375 373 371 371 369 366 371 375 367 369 367 367 367 0 0 0 0 0
    0 0 0 0 0 0 0 0 0 0 0 0 0 0 0 0 0 0 0 0 0 0 0 0 0 0 0 0 0 0 0 0 0 0 0 0 0 0 0 0 0 0 0 0 0 0 0 0 0 0 0 0 0 0 0 0 0 0 0 0 0 0 0 0 0 0 0 0 0 994 968 955 943 908 886 886 865 855 0 280 0 0 5256 4906 4329 0 0 0 0 0 0 0 0 1187 1132 1149 1149 1066 1098 1098 1082 1066 1066 1051 1022 1022 0 0 0 0 0 7359 5661 4329 4329 4906 5256 4599 5256 4906 4599 4599 5256 5256 5256 5256 4906 4599 5256 4599 5256 5256 5256 4906 4906 5256 5661 5256 5661 5256 4599 4329 4088 3679 3345 3199 2725 2830 2830 2943 2943 2943 2943 3066 2943 4088 3873 4599 4088 4329 4329 4599 4906 4906 5256 4906 5256 5256 5256 5256 4599 4329 4906 4599 5256 6133 6133 6133 6133 7359 8177 0 0 4599 3066 3066 3199 3345 3066 3345 3504 3345 3345 3504 3345 0 0 1268 1268 1268 1291 1362 1338 1314 1291 1314 1226 1187 1149 1098 1066 1066 1051 1036 994 968 968 955 955 919 919 908 886 886 876 836 808 782 791 774 766 782 774 774 799 808 817 836 799 707 707 694 675 669 669 651 657 634 669 0 663 0 0 0 0 0 537 537 541 537 529 533 537 541 541 537 529 525 518 521 0 0 0 0 0 0 0 0 0 0 0 529 504 0 0 406 427 430 430 411 422 422 415 411 413 406 404 404 0 387 367 375 375 373 373 373 371 367 373 377 371 369 369 369 367 0 0 0 0 0
    0 0 0 0 0 0 0 0 0 0 0 0 0 0 0 0 0 0 0 0 0 0 0 0 0 0 0 0 0 0 0 0 0 0 0 0 0 0 0 0 0 0 0 0 0 0 0 0 0 0 0 0 0 0 0 0 0 0 0 0 0 0 0 0 0 0 0 0 0 1008 981 968 968 943 897 897 876 865 0 0 0 0 0 4329 3873 0 0 0 0 0 0 0 0 1187 1132 1132 1149 1066 1098 1098 1082 1051 1066 1051 1008 994 0 0 0 0 0 8177 6133 4088 4088 4906 4906 4599 5256 4599 4599 4599 4906 5661 4906 4906 4906 4329 4906 4329 4906 5256 5256 4906 4906 4906 5256 5256 5661 4906 4599 4329 4088 3679 3504 3199 2725 2830 2830 2943 2943 2943 3066 3066 3066 4329 3873 4599 3873 4088 4088 4329 4599 4599 4906 4329 4906 4599 4906 4906 4329 4329 4906 4599 6133 7359 6690 6690 6690 7359 7359 0 0 4906 3504 3199 3066 3066 3066 3345 3504 3345 3345 3504 3199 0 0 1268 1291 1291 1314 1362 1362 1314 1291 1314 1226 1187 1168 1115 1066 1066 1051 1022 994 968 955 955 943 919 919 908 886 886 865 826 799 766 774 766 766 766 758 758 782 799 808 817 728 675 687 681 669 669 669 651 663 639 681 0 657 651 0 566 553 549 545 545 549 545 541 541 545 545 545 541 0 525 514 514 0 0 0 0 497 504 507 0 518 518 518 521 497 0 0 0 430 432 430 411 422 422 418 411 413 406 404 404 0 389 369 377 377 375 375 375 373 369 375 381 371 371 371 371 369 0 0 0 0 0
    0 0 0 0 0 0 0 0 0 0 0 0 0 0 0 0 0 0 0 0 0 0 0 0 0 0 0 0 0 0 0 0 0 0 0 0 0 0 0 0 0 0 0 0 0 0 0 0 0 0 0 0 0 0 0 0 0 0 0 0 0 0 0 0 0 0 0 0 0 1022 994 981 981 943 886 886 876 865 855 845 836 836 836 3873 0 117 116 0 0 0 0 1443 1314 1168 1115 1115 1115 1066 1082 1082 1066 1051 1051 1036 994 955 0 0 0 0 8177 8177 6133 4329 4329 4906 4599 4329 4906 4329 4599 4329 4906 5256 4599 4599 4599 3873 4599 4088 4599 4599 4599 4599 4599 4599 5256 4906 5256 4599 4329 4088 3873 3504 3504 3199 2725 2943 2943 3066 3066 3066 3199 3199 3199 4599 3873 4329 3679 3873 3873 4088 4599 4599 4906 4599 4906 4906 5256 5256 4906 4599 5256 4906 6133 8177 7359 7359 6133 6690 6690 8177 6690 5256 4088 3679 3199 3199 2943 3504 3504 3504 3345 0 0 0 1247 1291 1314 1314 1314 1338 1362 1314 1268 1291 1226 1168 1149 1098 1066 1051 1036 1008 981 955 943 943 931 919 908 897 886 876 855 826 791 758 758 758 758 758 758 750 774 791 791 782 707 675 687 681 675 669 675 663 675 651 687 675 0 675 0 566 545 553 549 549 549 545 541 545 545 549 545 0 0 0 0 0 0 0 0 0 497 507 507 518 514 514 500 507 493 484 443 0 430 432 430 411 422 422 415 411 413 406 404 404 0 391 369 377 379 377 375 375 375 369 377 381 373 373 373 371 371 0 0 0 0 0
    0 0 0 0 0 0 0 0 0 0 0 0 0 0 0 0 0 0 0 0 0 0 0 0 0 0 0 0 0 0 0 0 0 0 0 0 0 0 0 0 0 0 0 0 0 0 0 0 0 0 0 0 0 0 0 0 0 0 0 0 0 0 0 0 0 0 0 0 0 1008 994 968 955 919 876 876 865 855 855 845 836 845 855 855 0 117 0 0 0 0 0 1415 1314 1149 1098 1098 1115 1066 1066 1066 1051 1036 1051 1036 994 943 0 0 0 7359 6690 7359 6133 4088 3873 4329 4088 3873 4329 3873 3873 3679 4088 4329 3679 3873 3873 3679 4088 3873 4329 4599 4599 4599 4329 4599 4906 4599 4906 4329 4088 3873 3873 3504 3345 3199 2725 2943 2943 3066 3066 3066 3199 3199 3199 4329 3679 4088 3504 3679 3679 3873 4329 4329 4599 4599 4906 4599 4906 4599 4329 4329 4906 5256 5661 6690 6690 7359 6690 7359 6133 6690 5661 5256 4329 4088 0 0 0 0 3873 3504 3066 0 0 1533 1338 1362 1388 1362 1338 1362 1388 1291 1247 1268 1206 1132 1098 1082 1051 1051 1036 1008 981 968 955 943 931 919 908 897 886 876 845 826 791 758 750 758 758 766 766 758 766 782 774 743 707 687 694 687 681 675 675 663 675 651 675 657 675 657 663 0 557 561 549 549 545 545 541 545 545 553 553 0 0 0 0 0 0 0 0 0 500 511 507 518 507 0 0 0 490 0 0 0 430 430 430 411 422 422 418 411 413 406 404 404 0 391 371 379 379 377 375 375 375 369 377 383 375 375 373 373 371 0 0 0 0 0
    0 0 0 0 0 0 0 0 0 0 0 0 0 0 0 0 0 0 0 0 0 0 0 0 0 0 0 0 0 0 0 0 0 0 0 0 0 0 0 0 0 0 0 0 0 0 0 0 0 0 0 0 0 0 0 0 0 0 0 0 0 0 0 0 0 0 0 0 0 981 968 968 943 886 855 865 865 855 865 855 855 876 886 931 908 0 0 0 0 0 0 1443 1314 1132 1098 1082 1115 1082 1066 1082 1066 1051 1051 1036 1008 968 931 0 0 4906 4329 6133 5256 3679 3679 4088 3873 3679 4088 3679 3679 3345 3679 3504 3199 3345 3504 3199 3679 3504 3873 4088 4329 4329 4329 4599 4906 4599 4599 4088 3873 3679 3504 3345 3199 3066 2628 2943 2943 3066 3066 3066 3199 3199 3199 4088 3345 3873 3199 3345 3504 3504 4088 4088 4329 4088 4329 4329 4329 3873 3873 3873 4329 4599 5256 5661 5661 6133 6690 6690 5256 5256 4906 4088 3504 3199 2943 0 0 0 0 3345 2628 1247 1635 1599 1443 1415 1443 1415 1388 1362 1415 1314 1268 1268 1226 1168 1115 1098 1066 1051 1036 1008 981 968 955 943 931 931 908 897 897 876 845 826 799 766 758 766 766 774 774 766 774 782 774 735 707 687 694 694 681 681 681 663 675 651 681 657 675 663 694 629 593 584 570 553 549 549 545 549 549 561 557 0 0 0 758 0 766 0 0 0 500 507 504 514 504 0 481 0 487 0 0 0 430 430 427 411 422 422 418 413 413 406 404 404 0 391 371 377 379 377 375 375 375 371 375 383 375 375 375 373 371 0 0 0 0 0
    0 0 0 0 0 0 0 0 0 0 0 0 0 0 0 0 0 0 0 0 0 0 0 0 0 0 0 0 0 0 0 0 0 0 0 0 0 0 0 0 0 0 0 0 0 0 0 0 0 0 0 0 0 0 0 0 0 0 0 0 0 0 0 0 0 0 0 0 0 919 943 931 919 855 836 845 845 845 855 855 855 865 886 931 908 968 968 931 0 1051 1082 1226 1206 1082 1066 1066 1098 1066 1066 1066 1051 1036 1051 1036 1022 994 968 1022 994 0 3504 4906 4599 3679 3679 4088 3679 3679 3873 3504 3504 3345 3504 3345 3066 3066 3066 2943 3199 3199 3504 3504 3873 3873 4088 4329 4329 4088 3873 3504 3504 3345 3345 3066 3066 3066 2725 2943 2943 3199 3199 3066 3199 3199 3066 3873 3199 3679 3199 3345 3504 3504 3873 4088 3873 3679 3873 3679 3679 3345 3504 3504 3679 3873 4329 4599 5256 5256 6690 6133 4906 4599 4088 3873 3345 2943 2725 2628 0 0 0 0 2044 1268 1565 1565 1471 1415 1443 1415 1388 1388 1415 1314 1268 1268 1247 1187 1132 1132 1066 1066 1036 1008 981 968 955 943 931 931 919 908 908 886 845 0 817 791 766 774 782 774 782 774 782 774 758 728 707 694 700 694 687 681 681 663 663 639 669 634 645 634 634 623 603 598 574 553 553 549 549 549 553 574 574 0 0 657 0 687 0 0 0 0 0 0 0 0 0 0 0 0 481 451 0 0 430 430 427 413 425 425 422 415 413 406 404 0 0 391 371 377 377 377 373 373 373 369 375 381 373 375 373 371 371 0 0 0 0 0
    0 0 0 0 0 0 0 0 0 0 0 0 0 0 0 0 0 0 0 0 0 0 0 0 0 0 0 0 0 0 0 0 0 0 0 0 0 0 0 0 0 0 0 0 0 0 0 0 0 0 0 0 0 0 0 0 0 0 0 0 0 0 0 0 0 0 0 0 0 855 897 897 886 845 808 817 826 836 855 855 855 855 876 931 919 931 943 865 865 931 981 1051 1082 1066 1051 1066 1098 1082 1066 1066 1051 1051 1051 1051 1036 1008 1008 1036 1008 0 0 3679 3873 3504 3504 3873 3679 3504 3873 3504 3504 3345 3345 3199 3066 3066 3066 2830 2943 2943 3066 3199 3345 3345 3679 3679 3679 3504 3345 3199 3199 3066 3066 2943 2943 3066 2725 3066 3066 3199 3199 3066 3199 3199 3199 3679 3199 3679 3345 3345 3504 3504 3873 3873 3504 3504 3504 3345 3504 3199 3345 3345 3504 3679 3873 4088 4599 4599 6133 5256 4329 3873 3679 3504 3199 2943 2725 2537 2374 0 0 0 0 0 1501 1501 1471 1415 1443 1415 1388 1388 1415 1291 1291 1268 1247 1206 1149 1149 1082 1066 1036 994 981 968 955 943 931 931 919 908 908 876 845 0 826 808 782 791 791 791 791 782 791 758 743 728 700 687 694 687 681 669 663 657 645 629 651 618 623 623 623 623 613 608 588 561 561 557 553 557 557 579 584 0 0 681 0 681 0 0 0 0 0 0 0 0 0 0 0 0 477 454 443 415 430 430 430 415 427 427 425 418 418 408 406 0 0 391 371 375 375 377 373 373 373 369 373 377 371 371 371 369 369 0 0 0 0 0
    0 0 0 0 0 0 0 0 0 0 0 0 0 0 0 0 0 0 0 0 0 0 0 0 0 0 0 0 0 0 0 0 0 0 0 0 0 0 0 0 0 0 0 0 0 0 0 0 0 0 0 0 0 0 0 0 0 0 0 0 0 0 0 0 0 0 0 0 0 855 886 876 865 826 766 735 808 826 845 845 845 855 865 908 897 908 919 836 826 826 845 0 0 1226 1066 1082 1115 1115 1082 1066 1051 1051 1066 1082 1066 1036 1036 1082 1036 0 2453 3066 3345 3345 3504 3679 3504 3345 3504 3504 3504 3345 3345 3199 3066 2943 2943 2725 2725 2830 2830 2830 3066 3066 3199 3199 3199 3066 2943 3066 3066 2943 3066 2943 3066 3199 2943 3199 3199 3199 3199 3199 3345 3199 3199 3679 3066 3345 3199 3199 3345 3345 3504 3504 3345 3504 3345 3199 3345 3199 3345 3345 3345 3504 3504 3679 4088 3873 5256 4906 4088 3679 3504 3504 3199 2943 2830 2628 2374 0 0 0 0 0 1471 1471 1443 1388 1415 1415 1388 1388 1443 1291 1291 1268 1247 1206 1149 1168 1082 1082 1051 1008 994 981 968 955 943 931 919 897 908 865 845 845 836 845 808 817 817 808 817 808 799 774 735 728 714 694 700 687 675 663 639 639 629 623 634 613 608 613 613 623 613 613 598 570 579 574 566 574 566 570 574 0 0 0 0 0 0 0 0 0 0 545 593 549 0 0 0 0 477 459 443 422 432 432 430 418 427 427 425 420 420 411 408 0 0 393 371 375 375 375 371 371 371 369 371 373 369 369 369 367 367 0 0 0 0 0
    0 0 0 0 0 0 0 0 0 0 0 0 0 0 0 0 0 0 0 0 0 0 0 0 0 0 0 0 0 0 0 0 0 0 0 0 0 0 0 0 0 0 0 0 0 0 0 0 0 0 0 0 0 0 0 0 0 0 0 0 0 0 0 0 0 0 0 0 0 826 845 836 836 774 714 707 791 808 845 845 845 845 865 908 908 919 943 836 817 808 0 2044 1936 1415 1187 1115 1149 1149 1098 1066 1051 1066 1082 1098 1098 1066 1082 1149 1066 2044 2164 2537 2943 3066 3199 3345 3199 3199 3345 3345 3345 3199 3199 3199 2943 2943 2830 2725 2537 2725 2725 2725 2943 2943 3066 3066 2943 2943 2830 2830 2943 2830 2943 2943 3066 3199 3066 3345 3345 3345 3199 3199 3345 3199 3199 3504 3066 3345 3199 3199 3199 3199 3504 3679 3345 3504 3345 3199 3345 3199 3199 3199 3345 3345 3345 3504 3873 3873 5256 4906 4088 3504 3504 3504 3199 2943 2830 2725 2453 2164 0 0 0 0 1443 1443 1443 1388 1415 1388 1388 1388 1443 1314 1268 1268 1247 1226 1187 1168 1098 1082 1066 1022 1008 981 968 955 943 931 919 897 908 865 845 855 845 855 826 836 826 817 826 808 799 774 743 721 721 694 700 687 675 663 634 634 613 618 623 608 598 598 593 613 603 603 593 574 588 588 584 593 584 593 0 0 0 0 0 0 533 529 529 0 533 533 0 0 521 0 0 474 474 459 443 425 432 432 427 418 427 427 425 420 420 411 408 0 0 395 373 375 373 373 369 369 369 367 367 369 367 367 367 366 366 0 0 0 0 0
    0 0 0 0 0 0 0 0 0 0 0 0 0 0 0 0 0 0 0 0 0 0 0 0 0 0 0 0 0 0 0 0 0 0 0 0 0 0 0 0 0 0 0 0 0 0 0 0 0 0 0 0 0 0 0 0 0 0 0 0 0 0 0 0 0 0 0 0 0 782 791 735 721 721 700 700 791 799 845 855 855 855 865 897 886 897 919 836 808 799 0 2164 1989 1839 0 1149 1168 1168 1098 1066 1051 1066 1082 1082 1082 1051 1082 1132 1066 1989 2164 2453 2830 2943 3199 3345 3199 3066 3345 3345 3345 3199 3199 3066 2943 2830 2830 2725 2537 2725 2725 2725 2830 2943 3066 2943 2830 2830 2725 2628 2830 2725 2830 2830 2943 3199 3066 3345 3345 3199 3199 3199 3345 3199 3199 3345 2943 3199 3066 3066 2943 3199 3199 3504 3199 3504 3345 3066 3345 3066 3199 3199 3199 3345 3199 3345 3679 3679 4906 4599 3873 3504 3345 3345 3066 2943 2830 2725 2453 2164 0 0 0 0 1443 1471 1471 1388 1415 1388 1362 1388 1415 1291 1247 1268 1226 1226 1187 1187 1115 1098 1066 1036 1008 994 968 955 943 931 919 886 908 865 855 855 845 845 826 826 817 808 817 808 791 774 743 721 721 700 707 687 675 669 639 639 608 618 618 603 598 593 579 608 593 598 588 574 593 588 588 598 588 0 0 0 0 0 0 0 525 521 525 529 533 541 549 537 525 0 0 474 474 459 446 432 435 435 427 420 427 427 425 420 418 411 408 0 0 395 375 373 373 373 367 367 367 367 364 366 366 366 366 364 364 0 0 0 0 0
    0 0 0 0 0 0 0 0 0 0 0 0 0 0 0 0 0 0 0 0 0 0 0 0 0 0 0 0 0 0 0 0 0 0 0 0 0 0 0 0 0 0 0 0 0 0 0 0 0 0 0 0 0 0 0 0 0 0 0 0 0 0 0 0 0 0 0 0 0 721 728 714 700 700 700 700 774 791 855 855 855 865 865 897 886 897 919 845 817 808 0 2230 2044 1839 0 1149 1149 1149 1082 1051 1051 1066 1082 1082 1066 1051 1066 1115 1051 1989 2230 2537 2830 2943 3199 3345 3199 3066 3199 3199 3199 3066 3199 3066 2943 2725 2725 2628 2537 2725 2725 2628 2830 2830 2943 2830 2725 2725 2537 2453 2725 2628 2725 2725 2830 2943 3066 3199 3345 3066 3066 3066 3066 3066 3066 3066 2830 2943 2943 2830 2725 2943 2943 3066 3066 3504 3345 3066 3199 3066 3199 3199 3199 3345 3199 3345 3873 3679 4906 4329 3873 3345 3199 3199 2943 2830 2830 2628 2453 2164 0 0 0 0 1415 1501 1501 1415 1415 1388 1388 1362 1388 1291 1247 1247 1226 1206 1187 1168 1115 1115 1082 1051 1022 1008 981 968 955 943 931 897 919 876 865 865 845 845 826 826 826 817 817 808 808 799 782 791 766 735 728 714 694 681 639 645 603 613 613 603 598 598 584 608 593 598 588 579 588 584 584 593 588 0 0 0 0 0 0 529 518 511 507 497 511 0 549 0 0 0 0 471 471 457 446 438 438 435 427 425 427 427 427 420 415 408 408 0 0 395 375 373 373 373 366 366 366 366 359 362 364 362 362 360 362 0 0 0 0 0
    0 0 0 0 0 0 0 0 0 0 0 0 0 0 0 0 0 0 0 0 0 0 0 0 0 0 0 0 0 0 0 0 0 0 0 0 0 0 0 0 0 0 0 0 0 0 0 0 0 0 0 0 0 0 0 0 0 0 0 0 0 0 0 0 0 0 0 0 0 700 707 700 687 687 694 700 766 791 855 855 855 865 876 897 897 908 943 865 836 0 0 2230 1989 0 0 1132 1115 1132 1082 1051 1051 1082 1082 1098 1066 1066 1098 1115 0 1989 2164 2453 2725 2830 3066 3199 3066 2943 3199 3199 3199 3066 3199 3066 2943 2725 2725 2628 2453 2628 2628 2628 2725 2725 2943 2830 2628 2725 2453 2374 2628 2537 2628 2628 2725 2830 2943 2943 3199 2830 2830 2830 2830 2830 2725 2830 2725 2725 2943 2725 2628 2943 2943 3199 3199 3504 3345 2943 3199 3066 3199 3199 3199 3199 3199 3199 3679 3504 4906 4599 3873 3345 3199 3199 2943 2725 2725 2537 2299 2164 0 0 0 0 1388 1501 1501 1415 1443 1415 1388 1362 1362 1291 1226 1226 1206 1206 1168 1149 1115 1098 1082 1051 1036 1008 994 981 968 955 943 908 919 876 876 865 845 845 817 817 817 817 817 808 808 808 799 808 799 774 743 735 728 700 0 681 588 0 608 598 593 598 588 613 598 603 593 584 593 588 593 598 588 593 588 557 0 529 0 533 521 521 518 518 521 549 557 0 0 0 0 474 474 459 446 438 438 435 427 425 430 427 427 420 413 406 408 0 408 393 375 371 371 371 366 364 364 364 357 362 364 362 362 360 360 0 0 0 0 0
    0 0 0 0 0 0 0 0 0 0 0 0 0 0 0 0 0 0 0 0 0 0 0 0 0 0 0 0 0 0 0 0 0 0 0 0 0 0 0 0 0 0 0 0 0 0 0 0 0 0 0 0 0 0 0 0 0 0 0 0 0 0 0 0 0 0 0 0 0 694 700 694 687 694 700 714 799 817 865 865 865 876 876 897 897 931 955 908 876 0 0 0 1989 0 0 1115 1082 1098 1066 1051 1066 1082 1098 1115 1082 1082 1115 1132 0 1936 2102 2374 2628 2830 3066 3066 3066 2943 3199 3345 3345 3199 3199 3066 2943 2725 2628 2537 2374 2628 2628 2537 0 0 0 2830 2628 2725 2453 2374 2628 2628 2628 2628 2725 2830 2943 2830 3199 2537 2537 2628 2537 2628 2628 2628 2725 2725 2943 2830 2628 3199 0 3199 3066 3345 3199 2830 3066 3066 3199 3199 3199 3199 3066 3199 3679 3504 4599 4088 3679 3199 3199 3199 2943 2725 2628 2453 2164 0 0 0 0 0 0 1501 1501 1443 1415 1415 1388 1338 1338 1291 1226 1206 1187 1187 1168 1149 1115 1098 1082 1051 1036 1008 994 981 968 968 943 908 919 886 876 876 845 845 817 817 817 817 817 799 808 808 799 817 808 791 766 750 782 0 0 0 579 588 598 593 588 593 584 603 593 598 593 588 598 593 593 598 593 593 593 566 537 529 518 521 514 518 514 514 514 529 533 525 0 0 481 477 477 465 448 440 440 438 430 427 430 430 430 420 411 406 406 408 404 393 375 369 369 369 364 364 364 364 355 362 364 362 362 359 359 0 0 0 0 0
    0 0 0 0 0 0 0 0 0 0 0 0 0 0 0 0 0 0 0 0 0 0 0 0 0 0 0 0 0 0 0 0 0 0 0 0 0 0 0 0 0 0 0 0 0 0 0 0 0 0 0 0 0 0 0 0 0 0 0 0 0 0 0 0 0 0 0 0 0 687 694 694 694 707 721 743 826 826 865 865 855 865 876 886 897 919 955 908 876 0 0 0 1936 0 0 1082 1051 1066 1036 1022 1051 1082 1082 1098 1066 1082 1098 1149 1098 1887 1989 2230 2537 2725 3066 3066 3066 3066 3345 3345 3345 3345 3345 3199 3066 2628 0 2453 2230 2537 0 2453 0 0 0 2830 2628 2725 2537 2453 2725 2725 2725 2628 2725 2943 3066 2943 3345 2453 2453 2628 2453 2453 2453 2537 2628 2725 3066 2830 2537 3504 3345 3199 3199 3504 3199 0 3066 3066 3199 3199 3199 3066 2943 3066 3679 3345 4329 3873 3504 3199 3066 3199 3066 2830 2725 2537 2164 0 0 0 0 0 0 1501 1501 1471 1415 1415 1388 1338 1338 1268 1206 1187 1149 1168 1149 1132 1098 1082 1066 1051 1036 1008 994 981 968 968 955 919 931 886 886 865 845 836 817 808 808 808 808 799 799 799 799 817 808 791 750 721 728 0 0 0 579 593 593 593 588 588 584 598 588 598 588 588 598 593 593 598 593 588 579 557 533 525 504 511 504 507 504 500 500 511 514 511 497 490 481 481 477 468 451 446 443 440 432 430 430 430 430 420 411 406 406 408 404 393 375 367 369 369 364 362 362 362 355 360 364 360 360 359 359 0 0 0 0 0
    0 0 0 0 0 0 0 0 0 0 0 0 0 0 0 0 0 0 0 0 0 0 0 0 0 0 0 0 0 0 0 0 0 0 0 0 0 0 0 0 0 0 0 0 0 0 0 0 0 0 0 0 0 0 0 0 0 0 0 0 0 0 0 0 0 0 0 0 0 694 700 700 700 728 750 791 826 826 865 865 845 865 865 876 876 919 943 897 886 1098 0 0 1936 0 968 1051 1051 1051 1022 1008 1036 1082 1082 1082 1066 1066 1082 1149 1115 1672 0 2044 2374 2628 2943 2725 2830 2830 0 0 3199 3199 3199 3199 3066 2374 0 2164 1989 2230 2230 2230 2299 0 0 2830 2628 2725 2628 2725 2830 2830 2830 2725 0 3066 3066 3066 4088 2299 2164 2374 2230 2230 2374 2374 2453 2537 2943 2725 2164 0 0 0 0 0 91 91 91 0 0 3199 3199 3066 2830 2830 3199 3066 3504 3504 3504 3066 2943 3066 3066 2943 2943 2628 0 0 0 0 0 0 0 1471 1471 1443 1443 1443 1388 1338 1338 1291 1187 1168 1132 1149 1149 1115 1098 1066 1066 1051 1022 1008 994 981 968 968 955 908 919 876 876 855 836 826 817 808 808 808 808 799 808 808 817 826 826 817 774 721 799 0 0 0 584 0 593 593 584 579 584 598 588 598 593 588 598 598 598 598 593 593 579 557 533 525 504 507 504 504 500 497 497 500 507 507 497 490 484 484 481 474 459 451 448 443 435 430 430 430 427 418 408 404 404 406 402 393 375 367 369 369 364 364 364 364 357 359 364 360 359 357 357 0 0 0 0 0
    0 0 0 0 0 0 0 0 0 0 0 0 0 0 0 0 0 0 0 0 0 0 0 0 0 0 0 0 0 0 0 0 0 0 0 0 0 0 0 0 0 0 0 0 0 0 0 0 0 0 0 0 0 0 0 0 0 0 0 0 0 0 0 0 0 0 0 0 0 694 700 707 700 735 758 799 826 826 855 855 845 865 865 876 876 919 943 919 943 1149 1098 955 0 981 955 1022 1022 1036 1008 1008 1022 1066 1066 1066 1066 1051 1066 1168 1149 1291 0 0 2164 2453 2725 2374 2628 2628 0 2830 2830 2830 2830 2830 2943 1936 0 1887 1839 2044 2102 2102 0 0 0 2943 2830 2830 2830 2830 3066 3066 2943 2830 2943 3199 3345 3345 4906 2453 2164 2453 2299 2230 2299 2299 2299 2374 0 2537 0 1226 0 0 0 0 92 91 0 0 92 0 3066 2943 2725 2628 2830 2628 0 4088 3679 3345 3199 3345 3345 0 0 0 0 0 0 0 0 0 1187 1362 1388 1388 1388 1415 1388 1338 1338 1314 1226 1168 1132 1132 1149 1098 1082 1066 1051 1051 1036 1008 994 981 968 968 955 908 919 876 886 865 845 836 817 817 817 817 817 799 808 817 817 836 836 826 0 782 836 826 845 0 588 0 593 0 588 574 579 588 579 593 588 584 588 588 593 588 588 584 561 549 529 521 500 507 500 500 497 493 493 497 500 500 490 487 481 481 481 474 462 457 451 443 435 430 430 427 425 413 404 402 402 404 397 391 375 369 371 371 366 364 364 364 359 360 364 360 360 359 357 0 0 0 0 0
    0 0 0 0 0 0 0 0 0 0 0 0 0 0 0 0 0 0 0 0 0 0 0 0 0 0 0 0 0 0 0 0 0 0 0 0 0 0 0 0 0 0 0 0 0 0 0 0 0 0 0 0 0 0 0 0 0 0 0 0 0 0 0 0 0 0 0 0 0 700 707 714 721 758 782 808 826 826 855 855 845 865 876 886 897 955 968 955 994 1168 1082 981 994 968 943 968 1022 1022 994 994 1022 1051 1051 1066 1066 1051 1066 1132 1132 1247 0 0 0 2102 2453 2044 2164 2044 2044 1795 1711 1711 1635 1635 1635 1471 1388 1471 1533 1672 1887 2044 2102 2374 3504 3504 3345 3504 4088 3873 4329 4599 0 0 0 3199 3199 0 0 0 0 0 0 0 0 0 0 0 0 0 0 0 0 0 0 0 0 0 0 0 0 0 0 0 0 0 0 0 0 0 0 0 0 0 0 0 0 0 0 0 0 0 1168 1066 1226 1338 1362 1388 1388 1415 1388 1338 1362 1338 1247 1187 1132 1132 1132 1098 1082 1051 1051 1036 1022 1008 994 968 968 955 943 908 908 876 886 865 845 836 817 817 808 817 817 799 808 808 817 826 826 808 750 728 799 791 817 791 0 0 0 0 588 574 579 584 579 588 588 584 588 584 593 588 588 588 570 553 533 525 497 504 493 497 493 490 493 493 497 497 487 484 477 477 477 474 462 457 451 443 438 430 430 427 422 411 402 399 399 402 395 391 375 371 373 371 366 366 366 366 359 360 364 362 360 359 359 0 0 0 0 0
    0 0 0 0 0 0 0 0 0 0 0 0 0 0 0 0 0 0 0 0 0 0 0 0 0 0 0 0 0 0 0 0 0 0 0 0 0 0 0 0 0 0 0 0 0 0 0 0 0 0 0 0 0 0 0 0 0 0 0 0 0 0 0 0 0 0 0 0 0 707 714 721 735 766 791 799 817 817 845 845 836 876 886 886 897 955 968 955 1008 1115 1051 994 1008 981 955 955 1022 1022 994 1008 1022 1066 1066 1066 1066 1051 1066 1132 1115 0 0 0 1082 1247 0 0 0 0 0 0 743 0 1388 1362 1338 1314 1338 1362 1388 1388 1672 2044 2044 2374 4329 4088 4088 4906 7359 0 0 0 0 0 0 0 0 0 0 0 0 0 0 0 0 0 0 0 0 0 0 0 0 0 0 0 0 0 0 0 0 0 0 0 0 0 0 0 0 0 0 0 0 0 0 0 0 0 0 0 0 1226 1226 1247 1268 1314 1362 1362 1362 1388 1362 1338 1338 1338 1247 1187 1132 1115 1115 1082 1066 1051 1036 1022 1022 1008 994 981 968 968 955 919 908 876 876 855 836 826 817 808 808 808 808 791 799 799 799 799 808 766 735 728 774 766 782 774 0 0 0 0 593 584 588 593 588 593 593 584 584 584 588 584 584 584 566 549 533 529 493 504 493 497 493 490 493 497 500 500 487 487 481 484 484 477 462 459 448 443 438 432 432 432 427 411 0 399 397 397 395 391 375 371 373 373 367 366 366 366 360 362 366 362 362 360 360 0 0 0 0 0
    0 0 0 0 0 0 0 0 0 0 0 0 0 0 0 0 0 0 0 0 0 0 0 0 0 0 0 0 0 0 0 0 0 0 0 0 0 0 0 0 0 0 0 0 0 0 0 0 0 0 0 0 0 0 0 0 0 0 0 0 0 0 0 0 0 0 0 0 0 700 707 721 735 766 799 799 808 817 836 836 836 876 886 886 908 955 968 968 1008 1098 1066 1022 1036 1008 994 968 1036 1036 1008 1022 1036 1066 1066 1066 1082 1066 1082 1149 1115 185 0 0 1115 1247 0 0 0 0 0 0 758 0 1388 1362 1338 1338 1338 1362 1388 1388 1565 2044 2044 2374 4329 4088 4088 4906 7359 0 0 0 0 0 0 0 0 0 0 0 0 0 0 0 0 0 0 0 0 0 0 0 0 0 0 0 0 0 0 0 0 0 0 0 0 0 0 0 0 0 0 0 0 0 0 0 0 0 0 0 0 1268 1291 1314 1291 1314 1338 1338 1362 1388 1362 1338 1314 1338 1268 1187 1132 1115 1115 1066 1051 1036 1022 1022 1008 1008 994 981 981 981 968 931 931 897 886 865 845 826 826 808 808 808 808 791 799 799 791 791 791 750 735 728 758 758 774 782 766 0 0 675 603 593 598 603 598 598 593 584 579 579 584 574 579 574 561 549 537 541 504 507 497 500 497 493 497 500 500 504 490 487 481 487 490 481 468 459 440 438 438 435 435 438 432 0 0 0 397 397 393 389 373 371 373 373 367 366 366 366 362 364 366 364 362 362 360 0 0 0 0 0
    0 0 0 0 0 0 0 0 0 0 0 0 0 0 0 0 0 0 0 0 0 0 0 0 0 0 0 0 0 0 0 0 0 0 0 0 0 0 0 0 0 0 0 0 0 0 0 0 0 0 0 0 0 0 0 0 0 0 0 0 0 0 0 0 0 0 0 0 0 700 707 714 728 766 799 799 799 808 817 817 817 865 886 886 908 968 994 994 1036 1115 1066 1036 1066 1051 1008 994 1051 1051 1022 1051 1051 1082 1082 1082 1082 1082 1082 1149 1115 1226 1132 1132 1149 1226 1206 1206 1206 1247 1268 0 0 1338 1338 1362 1338 1314 1338 1338 1362 1362 1501 2044 2044 2374 4329 4088 4088 4906 7359 0 0 0 0 0 0 0 0 0 0 0 0 0 0 0 0 0 0 0 0 0 0 0 0 0 0 0 0 0 0 0 0 0 0 0 0 0 0 0 0 0 0 0 0 0 0 0 0 0 0 0 0 1314 1314 1314 1291 1291 1314 1314 1314 1314 1291 1268 1268 1268 1226 1168 1115 1132 1115 1051 1036 1022 1022 1008 994 994 994 981 981 981 968 931 931 908 897 876 845 836 826 817 808 808 799 791 791 782 774 758 758 728 721 714 728 728 743 714 694 669 657 629 608 593 598 603 598 603 598 584 579 584 584 579 584 579 561 549 545 545 521 511 500 500 497 493 497 500 497 504 493 487 481 490 490 481 471 462 440 440 440 438 440 438 0 0 0 0 397 397 395 389 373 371 373 373 369 367 367 367 364 366 366 364 364 364 360 0 0 0 0 0
    0 0 0 0 0 0 0 0 0 0 0 0 0 0 0 0 0 0 0 0 0 0 0 0 0 0 0 0 0 0 0 0 0 0 0 0 0 0 0 0 0 0 0 0 0 0 0 0 0 0 0 0 0 0 0 0 0 0 0 0 0 0 0 0 0 0 0 0 0 700 707 721 735 766 791 791 799 808 791 791 808 845 876 876 897 943 981 981 1022 1066 1066 1036 1066 1098 1051 1022 1051 1066 1036 1066 1051 1082 1082 1082 1098 1082 1082 1168 1115 1247 1132 1115 1149 1206 1206 1187 1187 1226 1226 1206 1338 1268 1338 1338 1338 1314 1338 1338 1362 1362 1565 2044 2044 2374 4329 4088 4088 4906 7359 0 0 0 0 0 0 0 0 0 0 0 0 0 0 0 0 0 0 0 0 0 0 0 0 0 0 0 0 0 0 0 0 0 0 0 0 0 0 0 0 0 0 0 0 0 0 0 0 0 0 0 0 1314 1314 1314 1291 1268 1268 1291 1247 1247 1247 1206 1187 1187 1187 1149 1115 1149 1149 1066 1051 1022 1008 994 994 981 981 981 981 981 968 931 931 897 886 865 845 826 826 817 799 799 799 782 782 766 766 743 743 721 714 707 721 714 714 694 675 663 645 629 618 598 603 603 598 598 593 584 579 579 584 579 584 579 561 545 537 541 500 500 493 493 490 490 490 490 490 500 490 484 0 487 487 481 468 462 443 440 440 438 440 440 0 0 0 0 397 395 393 387 371 371 373 373 369 367 367 367 364 366 366 364 364 364 362 0 0 0 0 0
    0 0 0 0 0 0 0 0 0 0 0 0 0 0 0 0 0 0 0 0 0 0 0 0 0 0 0 0 0 0 0 0 0 0 0 0 0 0 0 0 0 0 0 0 0 0 0 0 0 0 0 0 0 0 0 0 0 0 0 0 0 0 0 0 0 0 0 0 0 707 721 743 750 758 782 774 782 791 750 758 791 836 876 876 886 919 955 981 1022 1036 1066 1036 1066 1149 1082 1036 1066 1082 1036 1082 1066 1098 1082 1082 1098 1098 1098 1168 1115 1247 1115 1115 1168 1187 1206 1187 1187 1226 1226 1226 1314 1268 1338 1338 1314 1314 1338 1362 1362 1388 1565 2164 2299 2628 3679 3679 3873 4906 6690 0 0 0 0 0 0 0 0 0 0 0 0 0 0 0 0 0 0 0 0 0 0 0 0 0 0 0 0 0 0 0 0 0 0 0 0 0 0 0 0 0 0 0 0 0 0 0 0 0 0 0 0 1314 1314 1338 1291 1268 1268 1268 1247 1247 1226 1187 1168 1168 1168 1149 1115 1149 1132 1066 1082 1051 1022 1008 1008 1008 994 994 994 981 955 919 908 886 876 855 836 826 817 0 799 799 0 782 774 758 750 735 728 714 714 707 714 714 700 694 681 669 657 639 634 613 613 613 608 603 598 584 579 574 579 574 579 574 557 545 537 533 497 497 493 490 490 490 490 490 490 497 490 477 477 477 481 474 459 451 440 440 440 438 440 440 438 0 0 0 397 395 393 387 371 371 373 373 371 369 369 367 364 367 367 366 366 366 362 0 0 0 0 0
    0 0 0 0 0 0 0 0 0 0 0 0 0 0 0 0 0 0 0 0 0 0 0 0 0 0 0 0 0 0 0 0 0 0 0 0 0 0 0 0 0 0 0 0 0 0 0 0 0 0 0 0 0 0 0 0 0 0 0 0 0 0 0 0 0 0 0 0 0 721 735 766 758 750 782 782 791 791 743 750 799 836 876 876 876 908 955 981 1008 0 0 0 0 1168 1132 1051 1082 1115 1066 1098 1066 1098 1098 1098 1115 1098 1098 1168 1098 1226 1098 1098 1132 1149 1187 1168 1149 1206 1206 1206 1291 1247 1314 1338 1314 1291 1314 1314 1338 1362 1471 1989 2230 2537 3345 3199 0 0 0 0 0 0 0 0 0 0 0 0 0 0 0 0 0 0 0 0 0 0 0 0 0 0 0 0 0 0 0 0 0 0 0 0 0 0 0 0 0 0 0 0 0 0 0 0 0 0 0 0 0 0 0 1314 1314 1338 1291 1247 1247 1268 1226 1226 1206 1168 1168 1168 1187 1149 1115 1149 1149 1082 1082 1066 1036 1022 1022 1008 1008 1008 1008 981 955 919 886 876 865 836 817 817 808 808 791 791 782 774 766 766 750 735 728 714 707 707 714 707 694 687 681 663 657 645 645 629 623 623 613 603 598 584 570 566 570 574 574 574 561 545 0 533 493 497 490 490 490 490 490 490 493 504 493 0 0 0 0 477 459 448 438 438 438 438 440 440 0 0 212 0 399 397 393 389 371 371 373 371 369 367 367 367 364 369 369 369 369 367 366 0 0 0 0 0
    0 0 0 0 0 0 0 0 0 0 0 0 0 0 0 0 0 0 0 0 0 0 0 0 0 0 0 0 0 0 0 0 0 0 0 0 0 0 0 0 0 0 0 0 0 0 0 0 0 0 0 0 0 0 0 0 0 0 0 0 0 0 0 0 0 0 0 0 0 735 766 791 782 766 791 799 808 791 750 750 817 845 886 886 886 919 968 981 1008 994 1051 1051 1066 1187 1187 1082 1098 1132 1082 1132 1082 1115 1115 1115 1115 1115 1098 1168 1098 1247 1098 1098 1132 1149 1187 1168 1149 1206 1206 1168 1247 1226 1291 1314 1291 1291 1291 1291 1314 1314 1362 0 0 0 0 0 0 0 0 0 0 0 0 0 0 0 0 0 0 0 0 0 0 0 0 0 0 0 0 0 0 0 0 0 0 0 0 0 0 0 0 0 0 0 0 0 0 0 0 0 0 0 0 0 0 0 0 0 0 0 0 1338 1314 1338 1291 1247 1247 1247 1226 1226 1187 1149 1149 1149 1168 1132 1115 1132 1132 1082 1098 1066 1036 1036 1036 1022 1008 1008 1008 994 968 943 897 876 865 826 808 799 799 791 782 774 774 766 758 758 735 728 721 707 707 700 700 694 687 675 669 657 657 651 645 634 629 623 613 598 593 579 566 561 561 570 574 570 561 541 0 525 487 493 487 487 487 487 487 487 490 507 0 0 0 0 0 0 459 448 438 435 435 438 440 440 0 0 0 0 397 395 393 389 371 371 371 371 369 367 367 367 364 371 371 369 371 369 366 0 0 0 0 0
    0 0 0 0 0 0 0 0 0 0 0 0 0 0 0 0 0 0 0 0 0 0 0 0 0 0 0 0 0 0 0 0 0 0 0 0 0 0 0 0 0 0 0 0 0 0 0 0 0 0 0 0 0 0 0 0 0 0 0 0 0 0 0 0 0 0 0 0 0 758 782 799 791 774 799 808 817 791 758 758 826 845 886 886 886 919 968 981 1008 994 1066 1082 1098 1206 1206 1132 1098 1168 1098 1149 1098 1132 1132 1115 1132 1132 1098 1168 1098 1226 1082 1098 1115 1132 1168 1168 1149 1206 1187 1168 1206 1206 1268 1291 1268 1268 1268 1268 1291 1314 0 0 0 0 0 0 0 0 0 0 0 0 0 0 0 0 0 0 0 0 0 0 0 0 0 0 0 0 0 0 0 0 0 0 0 0 0 0 0 0 0 0 0 0 0 0 0 0 0 0 0 0 0 0 0 0 0 0 0 0 0 1362 1338 1362 1314 1247 1226 1247 1206 1187 1168 1132 1115 1115 1132 1132 1115 1132 1132 1082 1115 1098 1051 1036 1036 1022 1008 1008 1008 994 968 955 919 886 865 817 799 782 791 782 774 766 766 758 750 750 735 728 721 707 700 694 687 675 669 663 663 657 651 645 651 639 629 623 618 598 593 588 574 570 566 584 584 584 579 549 0 0 0 490 490 490 490 490 490 493 497 511 504 0 0 0 500 0 0 446 438 435 435 440 443 440 438 0 0 0 397 395 393 387 371 367 369 369 369 366 366 366 362 369 371 371 371 369 366 0 0 0 0 0
    0 0 0 0 0 0 0 0 0 0 0 0 0 0 0 0 0 0 0 0 0 0 0 0 0 0 0 0 0 0 0 0 0 0 0 0 0 0 0 0 0 0 0 0 0 0 0 0 0 0 0 0 0 0 0 0 0 0 0 0 0 0 0 0 0 0 0 0 0 750 782 791 774 782 808 826 836 799 766 774 836 845 886 876 876 897 968 981 994 994 1082 1082 1098 1187 1187 1149 1098 1168 1115 1168 1098 1132 1132 1132 1132 1149 1098 1168 1082 1226 1066 1082 1115 1115 1168 1168 1149 1187 1168 1149 1168 1149 1206 1226 1226 1226 1247 1247 1291 1314 0 0 0 0 0 0 0 0 0 0 0 0 0 0 0 0 0 0 0 0 0 0 0 0 0 0 0 0 0 0 0 0 0 0 0 0 0 0 0 0 0 0 0 0 0 0 0 0 0 0 0 0 0 0 0 0 0 0 0 0 0 1362 1362 1388 1314 1247 1206 1206 1168 1149 1132 1098 1082 1098 1098 1098 1098 1115 1132 1082 1115 1115 1066 1051 1051 1036 1022 1022 1022 1008 981 968 943 908 886 817 791 774 782 766 758 743 750 743 743 750 735 735 728 714 714 694 687 675 669 657 657 651 651 651 651 645 634 629 618 598 593 588 574 570 570 584 584 584 579 549 0 0 490 493 493 493 493 493 493 497 497 507 497 493 490 487 490 484 481 465 446 440 443 446 448 446 440 0 0 0 397 393 393 387 369 367 369 367 369 366 366 366 364 369 373 369 371 369 366 0 0 0 0 0
    0 0 0 0 0 0 0 0 0 0 0 0 0 0 0 0 0 0 0 0 0 0 0 0 0 0 0 0 0 0 0 0 0 0 0 0 0 0 0 0 0 0 0 0 0 0 0 0 0 0 0 0 0 0 0 0 0 0 0 0 0 0 0 0 0 0 0 0 0 721 758 782 766 782 826 845 845 799 782 782 836 836 865 865 865 876 943 968 994 981 1066 1066 1082 1132 1168 1149 1082 1149 1115 1149 1098 1132 1132 1132 1132 1149 1115 1149 1082 1226 1066 1082 1115 1115 1187 1168 1149 1132 1132 1132 1149 1132 1168 1206 1206 1226 1247 1268 1291 0 0 0 0 0 0 0 0 0 0 0 0 0 0 0 0 0 0 0 0 0 0 0 0 0 0 0 0 0 0 0 0 0 0 0 0 0 0 0 0 0 0 0 0 0 0 0 0 0 0 0 0 0 0 0 0 0 0 0 0 0 0 0 1388 1415 1314 1206 1149 1168 1098 1082 1082 1051 1051 1066 1066 1051 1051 1066 1082 1036 1066 1082 1022 1022 1022 1008 994 1008 1022 994 981 968 943 919 897 826 791 774 774 758 758 750 758 758 750 758 750 743 735 721 721 694 687 675 663 657 657 651 651 651 651 639 634 623 613 588 584 588 579 574 579 588 588 593 598 557 0 0 490 490 490 490 490 490 490 490 490 493 490 484 481 477 481 481 481 471 457 451 454 454 454 451 443 0 0 0 397 393 393 387 369 366 369 367 369 367 367 367 366 369 373 369 369 367 366 0 0 0 0 0
    0 0 0 0 0 0 0 0 0 0 0 0 0 0 0 0 0 0 0 0 0 0 0 0 0 0 0 0 0 0 0 0 0 0 0 0 0 0 0 0 0 0 0 0 0 0 0 0 0 0 0 0 0 0 0 0 0 0 0 0 0 0 0 0 0 0 0 0 0 721 758 774 766 782 836 855 845 799 782 782 836 836 865 855 855 876 943 955 981 968 1066 1066 1066 1115 1149 1149 1066 1149 1115 1149 1098 1132 1132 1115 1115 1149 1115 1149 1082 1247 1066 1082 1115 1115 1187 1149 1098 1082 1098 1115 1115 1115 1132 1168 1187 1206 1226 1247 1268 0 0 0 0 0 0 0 0 0 0 0 0 0 0 0 0 0 0 0 0 0 0 0 0 0 0 0 0 0 0 0 0 0 0 0 0 0 0 0 0 0 0 0 0 0 0 0 0 0 0 0 0 0 0 0 0 0 0 0 0 0 0 0 0 1415 1314 1082 1082 1082 1066 1066 1051 1036 1036 1051 1036 1036 1022 1022 1022 994 1008 1008 981 981 981 981 968 968 994 981 981 968 955 876 855 808 782 766 774 758 766 750 766 758 750 758 758 743 735 714 700 687 681 669 663 657 657 651 645 651 645 639 629 623 608 588 584 593 579 574 579 588 588 588 593 557 537 0 493 490 490 490 493 493 490 490 490 493 490 481 481 474 474 474 474 471 465 462 465 459 459 454 443 0 0 0 0 391 389 385 371 366 369 367 369 367 367 367 366 369 373 367 369 367 364 0 0 0 0 0
    0 0 0 0 0 0 0 0 0 0 0 0 0 0 0 0 0 0 0 0 0 0 0 0 0 0 0 0 0 0 0 0 0 0 0 0 0 0 0 0 0 0 0 0 0 0 0 0 0 0 0 0 0 0 0 0 0 0 0 0 0 0 0 0 0 0 0 0 0 721 758 782 766 782 836 855 845 791 774 782 836 836 865 855 855 876 931 943 981 955 1066 1066 1066 1115 1149 1132 1066 1132 1098 1149 1098 1115 1132 1115 1115 1132 1115 1132 1082 1247 1051 1066 1082 1082 1132 1066 1036 1036 1051 1082 1082 1098 1132 1149 1168 1206 1226 1247 0 0 0 0 0 0 0 0 0 0 0 0 0 0 0 0 0 0 0 0 0 0 0 0 0 0 0 0 0 0 0 0 0 0 0 0 0 0 0 0 0 0 0 0 0 0 0 0 0 0 0 0 0 0 0 0 0 0 0 0 0 0 0 0 0 1443 1291 1066 1066 1082 1082 1066 1051 1036 1022 1036 1022 1022 1008 994 994 981 981 981 968 955 955 955 955 943 981 943 955 955 919 865 826 799 782 774 774 758 766 758 766 758 750 750 758 743 735 714 700 687 681 669 663 657 657 651 645 651 645 639 629 618 608 588 584 593 579 574 579 588 584 584 598 557 537 0 0 0 493 493 497 497 497 493 493 497 493 487 481 474 474 471 471 471 465 462 465 454 457 451 443 0 0 0 0 387 385 379 369 364 367 367 369 366 366 366 366 367 371 367 367 366 364 0 0 0 0 0
    0 0 0 0 0 0 0 0 0 0 0 0 0 0 0 0 0 0 0 0 0 0 0 0 0 0 0 0 0 0 0 0 0 0 0 0 0 0 0 0 0 0 0 0 0 0 0 0 0 0 0 0 0 0 0 0 0 0 0 0 0 0 0 0 0 0 0 0 0 743 774 782 766 782 845 855 845 791 782 791 826 836 855 845 845 865 931 943 968 955 1051 1066 1066 1115 1149 1115 1066 1115 1098 1132 1082 1115 1115 1098 1098 1132 1098 1115 1066 1247 1051 1036 1036 1036 1051 1008 994 994 1022 1051 1051 1082 1098 1115 1149 1187 1226 0 0 0 0 0 0 0 0 0 0 0 0 0 0 0 0 0 0 0 0 0 0 0 0 0 0 0 0 0 0 0 0 0 0 0 0 0 0 0 0 0 0 0 0 0 0 0 0 0 0 0 0 0 0 0 0 0 0 0 0 0 0 0 0 0 0 0 0 1098 1051 1082 1082 1051 1022 1008 981 994 968 981 968 955 968 955 955 955 943 943 931 943 943 931 968 931 955 955 908 897 817 799 791 774 782 766 766 758 766 758 750 750 750 735 728 707 700 687 681 669 663 657 657 651 645 651 645 639 623 613 608 593 588 593 584 584 588 593 588 584 598 557 537 525 0 500 497 500 500 500 500 497 493 497 490 484 481 471 471 468 471 468 465 459 465 454 454 446 440 0 0 0 0 395 393 389 373 366 367 367 369 366 366 366 366 364 369 366 366 366 364 0 0 0 0 0
    0 0 0 0 0 0 0 0 0 0 0 0 0 0 0 0 0 0 0 0 0 0 0 0 0 0 0 0 0 0 0 0 0 0 0 0 0 0 0 0 0 0 0 0 0 0 0 0 0 0 0 0 0 0 0 0 0 0 0 0 0 0 0 0 0 0 0 0 0 743 766 766 750 774 845 855 836 791 791 799 826 836 855 845 845 865 931 931 968 955 1051 1051 1066 1115 1132 1098 1051 1098 1098 1132 1066 1098 1115 1098 1098 1115 1098 1098 1066 1247 1008 968 943 943 931 955 955 968 1008 1022 1036 1051 1066 1098 1115 1168 0 0 0 0 0 0 0 0 0 0 0 0 0 0 0 0 0 0 0 0 0 0 0 0 0 0 0 0 0 0 0 0 0 0 0 0 0 0 0 0 0 0 0 0 0 0 0 0 0 0 0 0 0 0 0 0 0 0 0 0 0 0 0 0 0 0 0 0 0 0 0 1022 1051 1022 981 981 955 968 943 955 943 943 943 931 943 931 931 931 908 931 931 919 955 919 968 943 908 931 817 791 791 774 782 766 766 766 766 766 758 750 758 743 728 714 700 694 687 669 669 657 657 651 639 639 634 629 618 608 608 593 593 598 593 593 593 598 584 574 588 557 545 537 511 500 500 500 500 500 497 497 493 493 487 481 477 471 471 471 471 471 465 462 465 457 457 446 440 0 0 0 397 397 397 393 377 367 369 369 371 366 366 366 366 362 367 364 366 364 362 0 0 0 0 0</data></depth>
</opencv_storage>
