<?xml version="1.0"?>
<opencv_storage>
<gps_time_stamp>295312</gps_time_stamp>
<gps_x>-1.2383913040161133e+001</gps_x>
<gps_y>1.1002625465393066e+001</gps_y>
<gps_z>-2.0262589454650879e+000</gps_z>
<image_time_stamp>286158</image_time_stamp>
<depth type_id="opencv-matrix">
  <rows>86</rows>
  <cols>320</cols>
  <dt>s</dt>
  <data>
    0 0 0 0 0 0 0 0 0 0 0 0 0 0 0 0 0 0 0 0 0 0 0 0 0 0 0 0 0 0 0 0 0 0 0 0 0 0 0 0 0 0 0 0 0 0 0 0 0 0 0 0 0 0 0 0 0 0 0 0 0 0 0 0 0 0 0 0 0 4906 4906 4906 4906 4906 4906 4906 6133 6690 4599 5256 4906 4329 0 0 2628 0 2102 2164 2453 0 0 0 0 0 0 0 0 0 0 0 0 0 0 0 0 0 0 5661 2830 2628 2537 2164 1989 0 0 0 0 0 0 0 0 0 0 0 0 0 0 0 0 0 0 0 0 0 0 0 0 0 0 0 0 0 0 0 138 140 0 0 73 0 0 2830 2537 2374 2230 2164 2230 1989 1989 1887 1795 1795 1711 1711 1752 1752 1752 1752 1672 1635 1565 1565 1533 1415 1599 1599 1415 1565 1443 1533 1501 1443 1443 1415 1415 1415 1338 1362 1268 1247 1291 1268 1291 1268 1268 1291 1247 1247 1268 1268 1268 1206 1226 1168 1051 1115 1066 1066 1066 1066 1082 1066 1051 1022 994 994 981 955 955 943 931 931 968 955 955 886 919 919 908 886 897 919 886 876 908 865 855 855 876 817 808 799 808 817 808 817 808 791 782 799 817 836 845 836 826 826 845 826 808 735 721 700 707 694 687 669 675 681 687 687 675 657 639 629 639 634 634 623 623 618 623 623 629 623 618 0 579 618 634 639 0 0 0 0 0 0 0 0 557 0 0 579 570 561 549 0 529 525 525 521 533 533 533 533 545 0 0 0 0 0
    0 0 0 0 0 0 0 0 0 0 0 0 0 0 0 0 0 0 0 0 0 0 0 0 0 0 0 0 0 0 0 0 0 0 0 0 0 0 0 0 0 0 0 0 0 0 0 0 0 0 0 0 0 0 0 0 0 0 0 0 0 0 0 0 0 0 0 0 0 4906 4906 4906 4906 4906 4906 4906 6690 7359 6133 7359 7359 6690 0 0 0 0 1936 2044 0 0 0 0 0 0 0 0 0 0 0 0 0 0 0 0 0 0 0 7359 0 2537 2374 1989 0 0 0 0 0 0 1599 1533 0 0 0 0 1314 0 0 0 0 0 0 0 0 0 0 0 0 0 0 0 0 0 0 0 0 0 0 0 0 0 2830 2725 2537 2299 2230 2299 2299 2102 2102 1936 1839 1795 1752 1711 1752 1752 1711 1711 1635 1599 1533 1501 1471 1415 1565 1565 1415 1533 1443 1533 1471 1443 1443 1415 1415 1415 1338 1362 1268 1268 1314 1291 1291 1291 1291 1291 1247 1268 1268 1268 1268 1206 1226 1187 1066 1132 1066 1082 1066 1066 1066 1051 1051 1008 981 981 968 955 955 943 931 931 968 955 955 886 919 919 908 886 897 919 886 876 897 876 845 855 865 817 808 808 817 817 817 826 817 799 791 799 817 836 845 855 836 845 855 845 817 0 0 694 694 687 675 663 669 675 687 687 663 645 629 623 634 634 639 629 629 623 629 629 634 623 618 0 574 0 639 0 0 0 0 0 0 0 0 0 0 0 0 0 0 553 545 0 529 529 525 521 533 533 529 533 541 0 0 0 0 0
    0 0 0 0 0 0 0 0 0 0 0 0 0 0 0 0 0 0 0 0 0 0 0 0 0 0 0 0 0 0 0 0 0 0 0 0 0 0 0 0 0 0 0 0 0 0 0 0 0 0 0 0 0 0 0 0 0 0 0 0 0 0 0 0 0 0 0 0 0 4906 4906 4906 4906 4906 5256 5256 7359 8177 0 0 0 0 0 0 0 0 0 0 0 0 0 0 0 0 0 0 0 0 0 0 0 0 0 0 0 0 0 7359 0 0 2374 1989 0 0 0 766 0 0 1565 1501 1443 0 0 1362 1338 0 0 0 0 0 0 0 0 0 0 0 0 0 0 0 0 0 0 0 0 0 0 0 0 2299 2628 2537 2453 2299 2299 2299 2299 2164 2164 1989 1887 1795 1752 1711 1752 1752 1711 1672 1599 1599 1533 1443 1501 1443 1533 1533 1415 1533 1443 1533 1471 1415 1443 1415 1415 1415 1338 1362 1291 1268 1338 1314 1314 1314 1314 1291 1268 1268 1268 1268 1268 1226 1226 1187 1066 1132 1066 1066 1066 1051 1051 1036 1036 981 968 968 955 943 943 955 931 931 981 955 955 897 908 919 908 897 908 919 886 876 897 886 845 855 865 826 817 817 817 817 808 817 808 782 774 774 808 826 845 855 845 845 855 0 0 0 0 687 681 687 681 663 675 681 694 694 675 663 634 623 639 639 639 634 629 623 623 629 634 618 0 0 584 0 634 0 0 0 0 0 0 0 0 0 0 0 0 0 0 0 0 0 529 529 529 521 533 533 529 529 537 0 0 0 0 0
    0 0 0 0 0 0 0 0 0 0 0 0 0 0 0 0 0 0 0 0 0 0 0 0 0 0 0 0 0 0 0 0 0 0 0 0 0 0 0 0 0 0 0 0 0 0 0 0 0 0 0 0 0 0 0 0 0 0 0 0 0 0 0 0 0 0 0 0 0 4599 4906 4906 4906 4906 5256 5256 7359 0 0 0 0 0 0 0 0 0 0 0 0 0 0 0 0 0 0 0 0 0 0 0 0 0 0 0 0 0 0 0 0 0 0 0 0 0 0 782 0 0 0 1501 0 0 0 0 0 0 0 0 0 0 0 0 0 0 0 0 0 0 0 0 0 0 1036 1051 1066 0 0 0 2299 2299 2453 2374 2299 2230 2164 2102 2164 2102 2102 1936 1887 1839 1795 1752 1795 1752 1711 1565 1533 1533 1501 1415 1471 1443 1471 1501 1415 1533 1443 1533 1471 1443 1443 1415 1415 1415 1362 1388 1291 1314 1362 1338 1338 1314 1338 1291 1268 1268 1268 1247 1247 1226 1226 1187 1082 1132 1082 1066 1051 1051 1036 1022 1022 968 968 955 955 943 943 955 931 931 981 968 968 908 908 919 919 897 908 919 886 876 897 897 845 855 865 826 817 817 817 817 799 799 791 766 750 743 782 808 826 845 0 0 0 0 0 0 0 687 681 681 681 663 675 681 700 700 687 675 657 634 651 651 645 634 623 618 623 623 634 623 613 0 598 0 651 0 0 0 0 0 0 0 0 0 0 0 0 0 0 0 0 0 529 529 529 518 533 533 529 529 537 0 0 0 0 0
    0 0 0 0 0 0 0 0 0 0 0 0 0 0 0 0 0 0 0 0 0 0 0 0 0 0 0 0 0 0 0 0 0 0 0 0 0 0 0 0 0 0 0 0 0 0 0 0 0 0 0 0 0 0 0 0 0 0 0 0 0 0 0 0 0 0 0 0 0 4329 4599 4906 4906 4906 5256 5256 8177 0 0 0 0 0 0 0 0 0 0 0 0 0 0 74 0 0 0 0 0 0 0 0 0 0 0 0 0 0 0 0 0 0 0 0 0 0 0 0 0 0 1501 0 0 0 0 0 1362 0 0 0 0 0 0 0 0 0 0 0 0 0 0 0 0 0 1036 1051 1066 0 0 1989 2164 2164 2230 2164 2164 2102 2102 2044 2102 2044 2102 1936 1936 1887 1795 1752 1795 1752 1599 1501 1501 1533 1501 1415 1471 1443 1443 1501 1415 1501 1443 1501 1501 1415 1443 1443 1415 1415 1388 1415 1314 1338 1388 1338 1338 1338 1338 1291 1247 1268 1268 1247 1247 1206 1226 1187 1082 1132 1082 1066 1051 1036 1036 1022 1022 968 968 955 955 943 955 968 943 931 994 968 968 931 897 919 919 897 908 919 886 876 886 919 855 855 865 826 826 826 826 817 799 799 791 766 766 766 791 808 836 845 845 845 845 0 0 0 0 687 687 687 687 669 681 687 707 707 700 694 0 0 675 669 663 639 629 618 618 623 629 0 0 0 0 0 0 0 0 0 0 0 0 0 0 0 0 0 0 0 200 0 0 0 537 533 537 518 533 537 529 529 537 0 0 0 0 0
    0 0 0 0 0 0 0 0 0 0 0 0 0 0 0 0 0 0 0 0 0 0 0 0 0 0 0 0 0 0 0 0 0 0 0 0 0 0 0 0 0 0 0 0 0 0 0 0 0 0 0 0 0 0 0 0 0 0 0 0 0 0 0 0 0 0 0 0 0 4329 4599 4906 4906 4906 5256 5256 8177 0 0 0 0 0 0 0 0 0 0 0 0 0 0 0 0 73 0 0 0 0 0 0 0 0 0 0 0 0 0 0 0 0 0 0 0 0 0 0 0 0 1533 1533 0 0 0 0 1388 0 0 0 0 0 0 0 0 0 0 0 0 0 0 0 0 0 1022 1036 1066 0 2374 2044 2102 2230 2164 2164 2164 2102 2102 2044 2102 2102 2044 1989 1936 1887 1839 1795 1752 1672 1533 1443 1471 1501 1501 1388 1501 1443 1443 1471 1415 1501 1443 1501 1501 1415 1443 1443 1443 1443 1388 1443 1338 1338 1415 1362 1362 1338 1338 1291 1268 1268 1268 1247 1247 1206 1226 1187 1066 1115 1066 1051 1036 1022 1022 1008 1022 968 968 955 955 955 955 968 943 943 994 981 981 943 897 931 919 908 908 919 886 876 886 943 845 855 855 836 836 826 836 817 799 799 791 774 774 782 791 808 826 845 836 0 0 0 0 0 0 681 687 681 694 669 681 687 700 707 0 694 0 681 687 681 675 651 629 618 618 0 0 0 0 0 0 0 0 0 0 0 0 0 0 0 0 0 0 0 0 0 199 0 0 0 549 545 541 525 537 537 529 529 537 0 0 0 0 0
    0 0 0 0 0 0 0 0 0 0 0 0 0 0 0 0 0 0 0 0 0 0 0 0 0 0 0 0 0 0 0 0 0 0 0 0 0 0 0 0 0 0 0 0 0 0 0 0 0 0 0 0 0 0 0 0 0 0 0 0 0 0 0 0 0 0 0 0 0 4088 4599 4906 4906 4906 5256 4906 8177 0 0 0 0 0 0 0 0 0 0 0 0 0 0 0 0 0 0 0 0 0 0 0 0 0 0 0 0 0 0 0 0 0 0 0 0 0 0 0 156 0 0 0 0 0 0 1501 1415 0 0 0 0 0 0 0 0 0 0 0 0 0 0 0 0 0 1008 1022 1051 0 2230 2044 2044 2164 2164 2164 2164 2102 2102 2102 2164 2164 2102 2044 1989 1936 1839 1795 1711 1565 1501 1415 1415 1415 1415 1388 1471 1443 1415 1443 1388 1471 1443 1501 1501 1415 1443 1471 1443 1443 1415 1443 1362 1362 1443 1388 1388 1362 1362 1314 1268 1268 1268 1247 1226 1206 1206 1168 1066 1098 1066 1036 1022 1022 1008 1008 1008 955 968 955 968 955 968 968 955 955 994 981 981 968 886 931 919 919 908 919 886 876 886 955 845 845 845 845 845 826 826 817 799 799 799 782 782 791 799 817 826 845 0 0 0 0 0 0 0 657 669 663 681 657 675 681 694 694 694 687 0 0 0 687 675 657 634 623 0 0 0 0 0 0 0 0 0 0 0 0 0 0 0 0 0 0 0 0 0 0 0 0 0 0 553 549 545 529 541 541 533 533 537 0 0 0 0 0
    0 0 0 0 0 0 0 0 0 0 0 0 0 0 0 0 0 0 0 0 0 0 0 0 0 0 0 0 0 0 0 0 0 0 0 0 0 0 0 0 0 0 0 0 0 0 0 0 0 0 0 0 0 0 0 0 0 0 0 0 0 0 0 0 0 0 0 0 0 4088 4599 4906 4906 4906 5256 4906 8177 0 0 0 0 0 0 0 0 0 0 0 0 0 0 0 0 0 0 0 0 0 0 0 0 0 0 0 0 0 0 0 0 0 264 264 0 0 0 0 157 0 0 0 0 0 0 1565 1443 0 0 0 0 0 0 0 0 0 0 0 0 0 0 968 0 994 1022 1036 0 2102 2230 2044 2044 2102 2102 2164 2102 2102 2102 2102 2164 2230 2164 2044 2044 1936 1887 1795 1672 1565 1471 1415 1388 1388 1362 1362 1415 1388 1362 1415 1362 1443 1415 1471 1501 1415 1471 1501 1471 1471 1443 1471 1388 1415 1471 1388 1388 1362 1388 1314 1291 1268 1268 1226 1226 1187 1206 1168 1066 1082 1051 1036 1022 1008 1008 1008 1008 955 968 968 968 968 968 981 955 955 1008 981 981 981 897 943 931 931 919 919 886 886 886 968 845 845 845 845 855 836 826 808 799 791 791 774 774 782 791 808 826 845 836 845 0 0 0 0 0 645 663 651 675 645 669 675 687 687 687 687 694 681 0 687 0 0 0 0 0 0 0 0 0 0 0 0 0 0 0 613 593 584 0 566 0 0 0 0 0 0 0 0 0 0 557 553 549 529 541 541 537 533 541 0 0 0 0 0
    0 0 0 0 0 0 0 0 0 0 0 0 0 0 0 0 0 0 0 0 0 0 0 0 0 0 0 0 0 0 0 0 0 0 0 0 0 0 0 0 0 0 0 0 0 0 0 0 0 0 0 0 0 0 0 0 0 0 0 0 0 0 0 0 0 0 0 0 0 4088 4599 4906 4906 4906 5661 4906 8177 0 0 0 0 0 0 0 0 0 0 0 0 0 0 0 0 0 0 0 0 0 0 0 0 0 0 0 0 0 0 0 0 0 0 0 0 0 0 0 0 0 0 0 0 0 0 0 1443 0 0 0 0 0 0 0 0 0 0 0 0 0 0 968 981 994 1022 1036 2230 2102 2164 2044 1989 2102 2102 2102 2102 2102 2102 2102 2164 2230 2230 2164 2164 2044 1936 1839 1752 1635 1471 1415 1415 1388 1388 1362 1388 1388 1362 1388 1362 1443 1415 1471 1501 1415 1471 1501 1471 1471 1443 1471 1415 1415 1471 1415 1415 1362 1388 1314 1291 1268 1247 1226 1206 1187 1187 1149 1066 1066 1051 1036 1008 1008 1008 994 1008 955 968 968 968 968 968 981 955 955 1008 981 981 981 897 943 931 931 931 931 897 897 897 968 855 855 855 855 865 845 836 808 799 791 791 782 774 782 791 799 808 826 817 0 0 0 0 0 0 694 700 675 707 657 687 681 694 694 700 0 0 0 0 0 0 0 0 0 0 0 0 0 0 0 618 618 639 0 0 598 593 588 579 579 574 0 0 0 0 0 0 0 0 0 557 553 545 525 541 541 533 533 541 0 0 0 0 0
    0 0 0 0 0 0 0 0 0 0 0 0 0 0 0 0 0 0 0 0 0 0 0 0 0 0 0 0 0 0 0 0 0 0 0 0 0 0 0 0 0 0 0 0 0 0 0 0 0 0 0 0 0 0 0 0 0 0 0 0 0 0 0 0 0 0 0 0 0 4088 4599 5256 5256 5256 5661 4906 8177 0 0 0 0 0 0 0 0 0 0 0 0 0 0 0 0 0 0 0 0 0 0 0 0 0 0 0 0 0 0 0 0 0 0 0 0 0 0 0 0 0 0 0 0 0 0 0 0 0 0 0 0 0 0 0 0 0 0 0 0 0 0 0 0 0 1036 2299 2299 2230 2299 2230 2102 2164 2164 2164 2164 2164 2164 2164 2164 2230 2230 2164 2102 1989 1887 1839 1752 1635 1501 1443 1443 1388 1415 1388 1415 1415 1362 1415 1388 1443 1415 1471 1501 1443 1471 1533 1471 1471 1471 1471 1415 1415 1471 1415 1415 1362 1415 1314 1314 1268 1226 1206 1206 1168 1187 1132 1066 1066 1051 1022 1008 1008 994 994 1008 943 968 968 968 955 968 968 955 955 994 981 981 981 897 943 931 931 931 931 897 897 897 981 855 855 855 865 876 855 845 808 799 791 791 782 774 782 782 791 791 782 758 0 743 743 0 0 0 714 714 0 714 0 707 700 707 0 714 0 0 0 0 0 0 0 0 0 0 0 0 0 0 603 613 603 603 593 584 584 588 584 0 0 0 0 0 0 0 0 0 549 537 525 557 553 549 529 541 541 537 537 541 0 0 0 0 0
    0 0 0 0 0 0 0 0 0 0 0 0 0 0 0 0 0 0 0 0 0 0 0 0 0 0 0 0 0 0 0 0 0 0 0 0 0 0 0 0 0 0 0 0 0 0 0 0 0 0 0 0 0 0 0 0 0 0 0 0 0 0 0 0 0 0 0 0 0 4088 4599 5256 5256 5256 5661 4906 7359 0 0 0 0 0 0 0 0 0 0 0 0 0 0 0 0 0 0 0 0 0 0 0 0 0 0 0 0 0 0 1149 0 0 0 0 0 0 0 0 0 0 0 0 0 0 0 9199 0 0 0 0 0 0 0 0 0 0 0 0 0 0 0 0 0 0 2230 2374 2374 2230 2374 2299 2164 2230 2230 2230 2230 2164 2164 2102 2102 2164 2164 2102 1989 1839 1795 1795 1711 1565 1533 1471 1471 1415 1443 1388 1415 1415 1362 1415 1388 1443 1415 1471 1501 1443 1471 1533 1471 1471 1443 1471 1415 1415 1443 1415 1388 1362 1415 1314 1314 1268 1226 1206 1187 1168 1149 1115 1051 1066 1036 1008 1008 994 994 994 1008 931 968 968 968 955 968 968 955 955 994 981 968 968 886 931 931 931 919 919 897 897 908 981 865 855 855 865 897 855 836 799 782 791 782 774 774 782 774 774 766 743 721 0 721 721 0 0 0 721 728 714 721 0 707 707 0 700 0 0 0 0 687 0 0 0 0 0 0 0 0 0 0 608 618 608 598 593 584 579 584 574 0 0 0 0 0 0 0 553 553 553 541 533 557 557 549 533 541 541 537 537 545 0 0 0 0 0
    0 0 0 0 0 0 0 0 0 0 0 0 0 0 0 0 0 0 0 0 0 0 0 0 0 0 0 0 0 0 0 0 0 0 0 0 0 0 0 0 0 0 0 0 0 0 0 0 0 0 0 0 0 0 0 0 0 0 0 0 0 0 0 0 0 0 0 0 0 4088 4599 5256 5256 5256 5661 4906 7359 0 0 0 0 0 0 0 0 0 0 0 0 0 0 0 0 0 0 0 0 0 0 0 0 0 0 0 0 0 0 1187 1115 0 1082 0 0 0 0 0 0 0 0 0 0 0 0 0 0 0 0 0 0 0 0 0 0 0 0 0 0 0 0 0 0 2453 2299 2374 2299 2230 2299 2230 2164 2164 2164 2164 2164 2164 2102 2044 2044 2102 2102 1936 1887 1795 1752 1752 1635 1565 1533 1471 1501 1415 1443 1415 1415 1443 1388 1443 1388 1471 1443 1471 1501 1471 1471 1533 1471 1471 1415 1443 1388 1388 1415 1388 1388 1362 1362 1314 1291 1247 1206 1206 1168 1132 1132 1098 1051 1051 1036 1022 1008 1008 1008 1008 1022 931 968 968 968 955 968 955 955 955 994 968 968 968 886 931 931 931 919 919 897 897 908 981 865 865 855 865 897 855 836 791 782 791 782 774 774 774 766 758 758 735 721 0 0 721 0 0 0 728 728 721 721 714 714 714 707 0 0 0 0 0 700 0 0 0 0 0 0 0 0 0 0 0 629 618 608 603 584 574 574 570 0 0 574 0 0 0 566 561 561 553 541 541 557 557 549 537 545 541 541 537 545 0 0 0 0 0
    0 0 0 0 0 0 0 0 0 0 0 0 0 0 0 0 0 0 0 0 0 0 0 0 0 0 0 0 0 0 0 0 0 0 0 0 0 0 0 0 0 0 0 0 0 0 0 0 0 0 0 0 0 0 0 0 0 0 0 0 0 0 0 0 0 0 0 0 0 4329 4599 5256 5256 5256 5661 4906 7359 8177 0 0 0 0 0 0 0 0 0 0 0 0 0 0 0 0 0 0 0 0 0 0 0 0 0 0 0 0 0 1247 0 0 0 0 0 0 0 0 0 0 0 0 0 0 0 0 0 0 0 0 0 0 0 0 0 0 0 0 0 0 0 0 0 2537 2374 2299 2299 2230 2299 2299 2164 2102 2164 2164 2164 2102 2102 2044 2044 2044 2044 1936 1839 1752 1752 1635 1599 1533 1533 1501 1501 1415 1471 1443 1415 1443 1388 1443 1415 1471 1443 1501 1501 1471 1443 1501 1443 1443 1415 1415 1362 1362 1362 1362 1362 1338 1338 1314 1291 1247 1206 1187 1149 1115 1115 1066 1036 1051 1036 1008 1008 1008 1022 1022 1022 919 968 968 968 955 968 955 943 955 994 968 968 968 886 931 931 919 919 919 897 897 897 981 855 865 865 865 897 865 845 799 791 799 791 782 782 791 782 774 782 758 750 0 735 728 0 743 0 735 735 0 721 0 714 707 700 694 0 694 694 694 694 0 0 0 0 0 0 0 0 0 0 613 629 613 603 598 579 566 566 561 0 574 570 570 566 570 570 566 566 553 545 545 557 557 549 541 545 545 541 541 549 0 0 0 0 0
    0 0 0 0 0 0 0 0 0 0 0 0 0 0 0 0 0 0 0 0 0 0 0 0 0 0 0 0 0 0 0 0 0 0 0 0 0 0 0 0 0 0 0 0 0 0 0 0 0 0 0 0 0 0 0 0 0 0 0 0 0 0 0 0 0 0 0 0 0 4329 4906 5661 5661 5256 5661 4906 7359 8177 0 0 0 0 0 0 0 0 0 0 0 0 0 0 0 0 0 0 0 0 0 0 0 0 0 0 0 0 0 0 0 0 0 2164 0 0 0 0 0 0 0 0 0 0 0 0 0 0 0 0 0 0 0 0 0 0 0 0 0 0 0 0 2537 2537 2453 2299 2374 2230 2299 2299 2102 2102 2164 2102 2102 2102 2044 1989 1989 1989 1989 1839 1795 1752 1672 1635 1599 1533 1533 1501 1501 1443 1471 1471 1415 1471 1415 1471 1415 1471 1471 1501 1501 1501 1443 1501 1443 1443 1388 1388 1362 1362 1362 1362 1338 1338 1338 1314 1291 1226 1187 1168 1132 1098 1098 1066 1051 1036 1022 1008 1008 1008 1008 1008 1022 897 955 955 955 943 955 943 943 943 981 968 955 955 886 943 931 919 919 919 897 897 897 968 845 845 845 845 876 836 826 791 782 799 791 782 782 782 791 774 782 766 750 735 735 728 728 743 735 735 735 0 721 0 0 694 687 681 681 681 681 681 681 694 0 0 0 0 0 0 0 0 0 0 623 608 598 593 574 561 561 557 561 570 570 570 566 570 570 561 557 549 541 541 549 549 545 541 541 541 541 541 545 0 0 0 0 0
    0 0 0 0 0 0 0 0 0 0 0 0 0 0 0 0 0 0 0 0 0 0 0 0 0 0 0 0 0 0 0 0 0 0 0 0 0 0 0 0 0 0 0 0 0 0 0 0 0 0 0 0 0 0 0 0 0 0 0 0 0 0 0 0 0 0 0 0 0 4599 5256 5661 5661 5661 5661 5256 6690 7359 0 0 0 0 0 0 0 0 0 0 0 0 0 0 0 0 0 0 0 0 0 0 0 0 0 0 0 0 0 0 0 0 0 0 2102 0 0 0 0 0 0 0 0 0 0 0 0 0 0 0 0 0 0 0 0 0 0 0 0 0 0 0 2453 2537 2374 2374 2374 2230 2299 2299 2164 2102 2102 2102 2044 2044 1989 1989 1989 1989 1989 1839 1839 1752 1711 1672 1599 1565 1565 1533 1533 1443 1533 1501 1415 1471 1415 1471 1415 1501 1471 1501 1501 1501 1443 1533 1443 1443 1362 1388 1362 1338 1338 1362 1314 1314 1314 1291 1291 1206 1168 1168 1132 1098 1098 1066 1066 1051 1036 1022 1022 1022 1036 1022 1022 897 955 955 955 943 943 943 943 943 981 968 955 955 886 943 931 919 919 919 897 897 897 968 836 836 836 836 865 826 817 791 774 799 791 782 782 782 791 774 782 766 743 728 721 721 721 735 735 728 728 0 0 0 0 681 675 657 669 669 669 675 675 681 0 681 0 0 0 0 0 0 0 0 623 603 593 579 557 557 557 557 561 566 570 570 566 566 557 549 549 541 537 537 541 549 545 541 541 541 541 541 545 0 0 0 0 0
    0 0 0 0 0 0 0 0 0 0 0 0 0 0 0 0 0 0 0 0 0 0 0 0 0 0 0 0 0 0 0 0 0 0 0 0 0 0 0 0 0 0 0 0 0 0 0 0 0 0 0 0 0 0 0 0 0 0 0 0 0 0 0 0 0 0 0 0 0 4599 5256 5256 5661 5661 5661 5256 6133 6690 8177 0 0 0 0 0 0 0 0 0 0 0 0 0 0 0 0 0 0 0 0 0 0 0 0 0 0 0 0 0 0 0 0 0 0 0 0 0 0 0 0 0 0 0 0 0 0 0 0 0 0 0 0 0 0 0 0 0 0 0 0 2537 2537 2453 2453 2453 2374 2374 2374 2299 2230 2102 2164 2044 2044 2044 1989 1989 1989 1936 1989 1887 1839 1752 1711 1711 1635 1599 1565 1533 1533 1501 1599 1565 1443 1533 1443 1501 1443 1533 1471 1501 1501 1533 1443 1533 1443 1443 1362 1362 1338 1314 1314 1338 1291 1291 1268 1291 1247 1187 1168 1149 1115 1098 1098 1066 1066 1051 1036 1022 1022 1022 1036 1036 1022 886 955 955 943 931 931 931 931 943 981 968 968 968 886 943 931 919 919 919 897 897 897 968 836 845 845 845 876 845 836 817 799 817 808 799 799 791 791 782 782 774 750 735 728 721 728 743 743 735 735 0 0 0 0 669 663 0 663 663 663 669 669 669 681 0 0 0 0 0 0 0 0 0 623 603 579 557 553 553 553 553 557 561 566 570 561 561 553 549 545 541 537 533 529 541 541 537 533 537 533 533 541 0 0 0 0 0
    0 0 0 0 0 0 0 0 0 0 0 0 0 0 0 0 0 0 0 0 0 0 0 0 0 0 0 0 0 0 0 0 0 0 0 0 0 0 0 0 0 0 0 0 0 0 0 0 0 0 0 0 0 0 0 0 0 0 0 0 0 0 0 0 0 0 0 0 0 4599 4906 4906 5256 5661 5661 5661 5661 5661 8177 0 0 0 0 0 0 0 0 0 0 0 0 0 0 0 0 0 0 0 0 0 0 0 0 0 0 0 0 0 0 0 0 0 0 0 0 0 0 0 0 0 0 0 0 0 0 0 0 0 0 0 0 0 0 0 0 0 0 0 0 2537 2537 2453 2453 2374 2374 2299 2299 2299 2230 2102 2164 2044 2044 1989 0 1936 1936 1887 1936 1795 1795 1711 1711 1711 1635 1565 1565 1565 1565 1533 1635 1635 1471 1599 1471 1565 1471 1565 1501 1501 1501 1533 1443 1501 1443 1443 1338 1338 1314 1314 1291 1314 1291 1268 1268 1268 1247 1187 1149 1149 1115 1098 1082 1066 1066 1066 1051 1022 1022 1022 1036 1036 1022 886 955 943 943 931 931 931 931 931 981 955 955 955 886 943 931 919 919 919 897 897 897 968 836 836 845 845 876 836 817 808 799 826 817 808 808 799 799 799 791 782 758 735 728 728 735 743 743 735 0 0 0 0 0 0 657 645 657 657 645 657 651 645 0 0 0 0 0 0 0 0 0 0 618 598 574 553 549 553 553 553 553 557 557 566 557 557 553 549 545 545 537 533 525 537 537 537 529 533 533 533 537 0 0 0 0 0
    0 0 0 0 0 0 0 0 0 0 0 0 0 0 0 0 0 0 0 0 0 0 0 0 0 0 0 0 0 0 0 0 0 0 0 0 0 0 0 0 0 0 0 0 0 0 0 0 0 0 0 0 0 0 0 0 0 0 0 0 0 0 0 0 0 0 0 0 0 4329 4906 4599 5256 5661 5661 5661 5661 5661 0 0 0 0 0 0 0 0 0 0 0 0 0 0 0 0 0 0 4088 2725 7359 6133 0 0 0 0 0 0 0 0 0 0 0 0 0 0 0 0 0 0 0 0 0 0 0 0 0 0 0 0 0 0 0 0 0 0 0 0 0 0 2453 2537 2374 2453 2374 2374 2374 2299 2299 2299 2230 2102 2102 2044 2044 1936 0 1887 1887 1839 1839 1752 1711 1672 1672 1711 1599 1533 1533 1565 1533 1565 1635 1635 1501 1599 1501 1565 1501 1565 1501 1533 1533 1533 1415 1501 1415 1443 1338 1338 1291 1268 1268 1314 1268 1247 1247 1268 1226 1168 1168 1149 1115 1098 1082 1066 1066 1066 1036 1022 1022 1022 1022 1036 1022 886 955 943 943 931 931 943 931 931 981 955 955 955 886 943 931 919 919 919 897 897 897 968 836 836 845 845 876 826 808 808 808 826 817 808 808 808 808 799 799 799 758 743 728 735 735 743 0 0 0 0 0 0 0 663 657 651 657 657 645 657 657 0 0 0 0 0 0 0 0 0 0 608 613 593 570 553 553 553 549 549 545 549 553 557 553 553 549 549 545 545 541 537 533 541 541 541 533 533 537 533 537 0 0 0 0 0
    0 0 0 0 0 0 0 0 0 0 0 0 0 0 0 0 0 0 0 0 0 0 0 0 0 0 0 0 0 0 0 0 0 0 0 0 0 0 0 0 0 0 0 0 0 0 0 0 0 0 0 0 0 0 0 0 0 0 0 0 0 0 0 0 0 0 0 0 0 4088 4329 4599 4906 5256 5256 5661 5661 5256 0 0 0 0 0 0 0 0 0 0 0 0 0 0 0 0 0 0 0 0 0 0 0 0 0 0 0 0 0 0 0 0 0 0 0 0 0 0 0 0 0 0 0 0 0 0 0 0 0 0 0 0 0 0 0 0 0 0 0 2374 2453 2453 2453 2453 2374 2374 2374 2299 2299 2230 2164 2102 2102 1989 2044 1936 0 1887 1839 1795 1795 1711 1711 1672 1672 1672 1565 1533 1565 1565 1501 1565 1635 1635 1501 1599 1501 1565 1501 1565 1501 1533 1533 1533 1443 1501 1443 1443 1338 1338 1291 1268 1247 1291 1247 1206 1206 1247 1187 1168 1149 1149 1098 1098 1082 1066 1066 1051 1036 1022 1022 1022 1022 1022 1022 886 955 943 943 943 943 943 931 943 981 968 968 968 886 943 931 919 919 919 897 897 897 968 836 845 845 855 886 826 817 817 817 826 826 808 808 808 808 808 0 0 0 0 0 743 0 0 0 0 0 0 0 0 0 663 663 651 657 657 651 651 651 645 0 0 0 0 0 0 0 0 613 593 588 584 561 553 553 553 553 549 549 549 549 557 553 549 549 545 545 541 541 537 537 545 545 541 533 537 537 533 537 0 0 0 0 0
    0 0 0 0 0 0 0 0 0 0 0 0 0 0 0 0 0 0 0 0 0 0 0 0 0 0 0 0 0 0 0 0 0 0 0 0 0 0 0 0 0 0 0 0 0 0 0 0 0 0 0 0 0 0 0 0 0 0 0 0 0 0 0 0 0 0 0 0 0 3873 4329 4599 4906 5256 5256 5661 5661 4906 7359 0 0 0 0 0 0 0 0 0 0 0 0 0 0 0 0 0 0 0 0 0 0 0 0 0 0 0 0 0 0 0 0 0 0 0 0 0 0 0 0 0 0 0 0 0 0 0 0 0 0 0 0 0 0 0 0 0 0 2374 2453 2299 2374 2299 2299 2299 2299 2230 2164 2164 2164 2102 2102 1989 1989 1936 0 1887 1839 1839 1795 1752 1752 1711 1711 1711 1599 1565 1533 1533 1443 1533 1599 1599 1471 1599 1501 1565 1501 1599 1501 1533 1533 1533 1443 1533 1443 1471 1362 1388 1291 1268 1268 1268 1206 1187 1187 1206 1168 1149 1132 1132 1098 1098 1082 1051 1051 1036 1036 1022 1022 1008 1022 1022 1022 897 955 955 943 943 943 943 931 943 981 968 968 968 886 943 931 919 919 931 897 897 897 968 845 855 855 855 886 855 836 826 826 845 836 826 817 826 826 826 0 0 0 0 0 0 0 0 0 0 0 0 0 681 675 657 657 639 663 657 645 645 639 0 0 0 0 588 553 557 537 557 570 579 584 584 570 557 561 557 553 553 553 553 549 553 553 549 549 545 541 541 537 537 537 541 545 541 529 533 537 533 533 0 0 0 0 0
    0 0 0 0 0 0 0 0 0 0 0 0 0 0 0 0 0 0 0 0 0 0 0 0 0 0 0 0 0 0 0 0 0 0 0 0 0 0 0 0 0 0 0 0 0 0 0 0 0 0 0 0 0 0 0 0 0 0 0 0 0 0 0 0 0 0 0 0 0 3873 4088 4329 4599 5256 5256 5661 5256 4599 7359 0 0 0 0 0 0 0 0 0 0 0 0 0 0 0 0 0 0 0 0 0 0 0 0 0 0 0 0 0 0 0 0 0 0 0 0 0 0 0 0 0 0 0 0 0 0 0 0 0 0 0 0 0 0 0 0 0 2299 2374 2374 2299 2299 2230 2299 2230 2230 2230 2164 2164 2164 2102 2102 1989 1989 1936 1795 1839 1795 1795 1795 1752 1752 1711 1672 1711 1599 1565 1533 1501 1443 1533 1599 1599 1471 1599 1471 1565 1501 1599 1471 1533 1501 1533 1443 1533 1443 1471 1362 1388 1291 1268 1268 1268 1206 1168 1187 1206 1168 1149 1149 1115 1098 1098 1082 1051 1036 1036 1036 1022 1022 994 1008 1022 1008 897 955 955 955 943 943 943 931 931 981 955 955 955 886 931 931 931 919 931 897 897 897 968 845 845 845 855 886 845 826 836 845 855 855 836 826 826 826 826 0 0 0 0 0 0 0 0 0 0 0 0 0 669 657 639 651 639 657 651 634 629 629 618 608 613 603 588 574 584 588 598 588 566 574 579 566 557 557 557 553 553 553 549 545 553 553 549 549 545 545 545 545 541 541 545 545 541 529 533 533 533 533 0 0 0 0 0
    0 0 0 0 0 0 0 0 0 0 0 0 0 0 0 0 0 0 0 0 0 0 0 0 0 0 0 0 0 0 0 0 0 0 0 0 0 0 0 0 0 0 0 0 0 0 0 0 0 0 0 0 0 0 0 0 0 0 0 0 0 0 0 0 0 0 0 0 0 3873 4088 4329 4599 5256 5256 5256 5256 4906 6690 0 0 0 0 0 0 0 0 0 0 0 0 0 0 0 0 0 0 0 0 0 0 0 0 0 0 0 0 0 0 0 0 0 0 0 0 0 0 0 0 0 0 0 0 0 0 0 0 0 0 0 0 0 0 0 0 2230 2299 2374 2299 2299 2230 2230 2230 2230 2230 2230 2164 2164 2164 2102 2102 1936 2044 1887 1752 1839 1795 1795 1752 1752 1711 1672 1672 1711 1599 1599 1533 1501 1415 1565 1599 1599 1443 1565 1471 1565 1501 1599 1471 1533 1501 1533 1443 1533 1443 1501 1362 1415 1291 1268 1268 1268 1187 1168 1168 1187 1132 1115 1115 1098 1098 1098 1051 1051 1036 1036 1022 1008 1008 994 1008 1022 1008 908 955 955 955 955 955 943 919 931 981 955 955 955 876 931 931 931 919 919 908 908 908 968 855 855 855 865 897 845 826 836 845 855 845 0 0 817 808 0 0 0 0 0 0 0 0 0 0 0 0 0 0 629 623 629 634 629 651 639 629 618 618 608 598 598 593 579 579 588 593 593 588 574 579 584 574 561 561 557 553 557 553 549 545 553 553 549 545 545 545 545 545 541 541 545 545 541 529 533 533 529 533 0 0 0 0 0
    0 0 0 0 0 0 0 0 0 0 0 0 0 0 0 0 0 0 0 0 0 0 0 0 0 0 0 0 0 0 0 0 0 0 0 0 0 0 0 0 0 0 0 0 0 0 0 0 0 0 0 0 0 0 0 0 0 0 0 0 0 0 0 0 0 0 0 0 0 3873 4088 4329 4599 5256 5256 5256 5256 4906 7359 0 0 0 0 0 0 0 0 0 0 0 0 0 0 0 0 0 0 0 0 0 0 0 0 0 0 0 0 0 0 0 0 0 0 0 0 0 0 0 0 0 0 0 0 0 0 0 0 0 0 0 0 0 0 0 0 2299 2299 2299 2299 2230 2230 2164 2164 2230 2230 2164 2164 2164 2164 2102 2102 1936 2044 1887 1752 1795 1752 1752 1752 1752 1711 1672 1672 1752 1635 1599 1565 1533 1443 1565 1599 1565 1443 1565 1471 1565 1471 1599 1471 1533 1501 1533 1443 1533 1443 1501 1388 1415 1291 1268 1268 1247 1206 1168 1168 1187 1132 1115 1098 1098 1082 1066 1051 1036 1022 1022 1008 1008 1008 994 1022 1022 1022 908 955 955 955 955 955 931 908 919 968 943 943 943 876 919 919 931 919 919 908 908 908 968 865 865 865 876 908 865 845 845 845 855 836 817 808 817 799 0 0 1501 0 0 0 855 0 908 0 0 0 0 0 613 0 629 629 629 645 639 618 613 613 598 588 593 588 579 579 588 593 593 588 584 584 588 574 561 557 561 557 557 557 553 549 557 557 553 553 549 553 553 549 545 545 549 549 545 529 533 537 533 533 0 0 0 0 0
    0 0 0 0 0 0 0 0 0 0 0 0 0 0 0 0 0 0 0 0 0 0 0 0 0 0 0 0 0 0 0 0 0 0 0 0 0 0 0 0 0 0 0 0 0 0 0 0 0 0 0 0 0 0 0 0 0 0 0 0 0 0 0 0 0 0 0 0 0 3873 4088 4599 4599 4906 5256 5256 5256 4906 7359 0 0 0 0 0 0 0 0 0 0 0 0 0 0 0 0 0 0 0 0 0 0 0 0 0 0 0 0 0 0 0 0 0 0 0 0 0 0 0 0 0 0 0 0 0 0 0 0 0 0 0 0 0 0 0 2299 2299 2299 2374 2299 2230 2230 2164 2230 2164 2164 2164 2102 2102 2102 2044 2044 1887 1989 1887 1711 1795 1752 1752 1752 1752 1752 1672 1672 1752 1672 1635 1565 1565 1443 1565 1565 1533 1443 1533 1443 1533 1471 1599 1471 1501 1501 1533 1471 1533 1443 1501 1388 1415 1291 1291 1268 1268 1206 1187 1187 1187 1132 1115 1098 1082 1082 1082 1051 1036 1022 1022 1008 994 994 981 1008 1022 1008 897 955 955 955 955 955 931 897 908 955 919 919 919 865 908 919 931 919 919 908 908 908 968 865 865 865 876 897 855 845 845 845 855 836 817 808 817 799 0 0 0 0 0 0 0 0 886 0 0 0 0 0 634 657 663 657 645 657 651 629 623 613 593 579 588 588 579 579 588 593 598 598 588 579 584 574 566 566 566 561 561 566 557 557 561 561 557 561 557 557 557 557 549 549 549 549 545 529 537 537 533 533 0 0 0 0 0
    0 0 0 0 0 0 0 0 0 0 0 0 0 0 0 0 0 0 0 0 0 0 0 0 0 0 0 0 0 0 0 0 0 0 0 0 0 0 0 0 0 0 0 0 0 0 0 0 0 0 0 0 0 0 0 0 0 0 0 0 0 0 0 0 0 0 0 0 0 3873 4088 4599 4599 5256 5256 5661 5256 4906 7359 0 0 0 0 0 0 0 0 0 0 0 0 0 0 0 0 0 0 0 0 0 0 0 0 0 0 0 0 0 0 0 0 0 0 0 0 0 0 0 0 0 0 0 0 0 0 0 0 0 0 0 0 0 0 2299 2299 2299 2374 2374 2299 2230 2230 2164 2164 2102 2102 2102 2044 2044 2044 1989 1936 1839 1989 1887 1711 1752 1752 1752 1752 1752 1795 1711 1711 1752 1711 1672 1599 1565 1471 1533 1565 1501 1415 1533 1443 1533 1471 1565 1443 1501 1471 1533 1471 1533 1443 1471 1388 1443 1314 1314 1291 1268 1206 1206 1187 1168 1132 1115 1082 1082 1082 1082 1036 1036 1008 1022 1008 1008 994 981 1008 1022 1008 897 955 955 955 955 955 919 897 908 955 897 897 897 865 908 919 919 919 919 908 908 908 968 865 865 865 865 886 855 845 836 826 836 817 808 791 791 774 791 0 0 0 0 0 0 0 855 826 791 0 750 0 645 663 669 657 645 657 645 618 618 613 598 588 593 593 584 588 593 593 593 598 588 579 584 579 570 574 574 570 566 570 566 566 566 570 566 566 561 561 557 557 549 557 553 553 549 533 541 541 537 537 0 0 0 0 0
    0 0 0 0 0 0 0 0 0 0 0 0 0 0 0 0 0 0 0 0 0 0 0 0 0 0 0 0 0 0 0 0 0 0 0 0 0 0 0 0 0 0 0 0 0 0 0 0 0 0 0 0 0 0 0 0 0 0 0 0 0 0 0 0 0 0 0 0 0 3679 3873 4599 4599 4906 5256 5256 5256 5256 7359 0 0 0 0 0 0 0 0 0 0 0 0 0 0 0 0 0 0 0 0 0 0 0 0 0 0 0 0 0 0 0 0 0 0 0 0 0 0 0 0 0 0 0 0 0 0 0 0 0 0 0 0 0 2299 2374 2374 2299 2374 2299 2299 2164 2164 2102 2102 2044 2044 2044 1989 1989 1989 1936 1936 1839 1936 1887 1711 1752 1752 1752 1752 1752 1795 1711 1711 1795 1752 1672 1635 1599 1471 1533 1565 1471 1415 1501 1415 1501 1443 1565 1443 1501 1471 1533 1471 1501 1443 0 1388 1443 1314 1314 1268 1226 1168 1206 1168 1149 1115 1098 1082 1082 1082 1066 1008 1022 994 1008 994 1008 994 981 1022 1022 1008 908 955 955 955 955 955 919 886 897 955 886 886 886 855 897 919 931 919 919 908 908 908 968 865 865 865 865 886 865 855 845 845 855 817 791 758 758 743 766 735 774 0 0 0 0 0 836 808 782 750 728 700 657 669 675 663 651 651 639 623 623 618 603 598 603 598 588 588 593 593 593 593 588 584 588 579 574 574 579 574 570 579 570 574 574 574 570 566 561 566 557 557 549 557 557 557 549 537 545 545 537 541 0 0 0 0 0
    0 0 0 0 0 0 0 0 0 0 0 0 0 0 0 0 0 0 0 0 0 0 0 0 0 0 0 0 0 0 0 0 0 0 0 0 0 0 0 0 0 0 0 0 0 0 0 0 0 0 0 0 0 0 0 0 0 0 0 0 0 0 0 0 0 0 0 0 0 3679 3873 4599 4599 4906 4906 5256 5256 5256 7359 0 0 0 0 0 0 0 0 0 0 0 0 0 0 0 0 0 0 0 0 0 0 0 0 0 0 0 0 0 0 0 0 0 0 0 0 0 0 0 0 0 0 0 0 0 0 0 0 0 0 0 0 0 2374 2374 2299 2374 2374 2299 2299 2164 2164 2044 2102 2044 1989 2044 1989 2044 1989 1887 1887 1839 1936 1887 1752 1752 1795 1795 1795 1795 1839 1752 1752 1795 1795 1711 1672 1635 1501 1565 1565 1471 1415 1501 1415 1501 1443 1565 1443 1501 1471 1533 1471 1533 1443 1501 1415 1471 1338 1338 1291 1226 1206 1206 1168 1132 1098 1082 1066 1051 1051 1036 994 994 981 981 981 994 981 955 1036 1036 1022 908 968 968 968 968 968 908 886 897 943 876 876 876 855 897 919 931 919 908 908 908 908 981 865 876 876 876 897 876 865 865 845 865 817 791 758 750 750 758 758 774 0 0 0 0 0 808 791 750 0 714 669 639 651 657 634 634 639 629 623 623 623 608 603 603 598 588 593 598 593 588 593 588 584 588 584 584 579 584 584 579 584 574 579 579 574 574 570 561 566 557 561 553 557 557 557 549 541 545 545 541 545 0 0 0 0 0
    0 0 0 0 0 0 0 0 0 0 0 0 0 0 0 0 0 0 0 0 0 0 0 0 0 0 0 0 0 0 0 0 0 0 0 0 0 0 0 0 0 0 0 0 0 0 0 0 0 0 0 0 0 0 0 0 0 0 0 0 0 0 0 0 0 0 0 0 0 3679 3873 4599 4599 4599 4906 5256 5256 4906 6690 0 0 0 0 0 0 0 0 0 0 0 0 0 0 0 0 0 0 0 0 0 0 0 0 0 0 0 0 0 0 0 0 0 0 0 0 0 0 0 0 0 0 0 0 0 0 0 0 0 0 0 0 2374 2374 2299 2374 2299 2299 2299 2230 2102 2102 1989 2044 1989 1936 1989 1989 1989 1936 1839 1839 1839 1887 1887 1752 1752 1795 1795 1839 1839 1887 1795 1752 1839 1839 1752 1672 1672 1565 1565 1599 1501 1415 1471 1388 1471 1415 1533 1415 1471 1443 1501 1471 1501 1443 1501 1415 1443 1338 1314 1268 1247 1226 1226 1168 1132 1098 1066 1051 1051 1036 1022 981 981 968 0 0 0 955 908 1051 1066 1022 908 968 968 968 968 968 908 876 897 943 876 876 876 855 897 919 931 919 908 908 908 908 981 865 876 876 876 897 876 876 876 865 886 836 0 0 766 774 774 774 791 774 0 0 0 782 758 735 714 707 694 663 651 657 663 639 639 639 634 629 629 618 608 603 603 603 598 603 603 603 598 603 598 598 593 588 588 584 588 588 584 588 579 584 579 574 574 570 566 570 561 561 553 561 557 557 553 541 545 545 545 545 0 0 0 0 0
    0 0 0 0 0 0 0 0 0 0 0 0 0 0 0 0 0 0 0 0 0 0 0 0 0 0 0 0 0 0 0 0 0 0 0 0 0 0 0 0 0 0 0 0 0 0 0 0 0 0 0 0 0 0 0 0 0 0 0 0 0 0 0 0 0 0 0 0 0 3679 3873 4599 4599 4599 4906 5256 5256 5256 7359 0 0 0 0 0 0 0 0 0 0 0 0 0 0 0 0 0 0 0 0 0 0 0 0 0 0 0 0 0 0 0 0 0 0 0 0 0 0 0 0 0 0 0 0 0 0 0 0 0 0 0 2453 2453 2374 2453 2453 2374 2453 2299 2299 2102 2102 1989 1989 1936 1989 2044 1989 1936 1887 1795 1839 1887 1887 1936 1752 1752 1795 1795 1839 1839 1839 1752 1752 1839 1795 1752 1711 1711 1599 1599 1635 1501 1415 1471 1362 1443 1415 1501 1415 1471 1443 1471 1443 1471 1415 1471 1388 1415 1314 1291 1268 1247 1247 1247 1187 1168 1115 1082 1066 1051 1051 1022 981 981 968 0 1501 0 943 0 1066 1082 1036 908 968 968 968 968 968 908 876 897 943 876 876 876 855 897 919 931 919 908 908 908 908 981 865 876 876 886 908 876 876 876 865 897 855 845 0 0 799 791 774 782 766 750 758 750 758 735 707 687 675 657 645 645 645 651 634 634 634 634 623 629 618 613 608 608 608 603 608 613 608 603 608 603 603 598 593 593 588 593 588 584 588 579 584 579 579 579 570 566 570 561 561 557 561 557 557 553 545 549 549 545 549 0 0 0 0 0
    0 0 0 0 0 0 0 0 0 0 0 0 0 0 0 0 0 0 0 0 0 0 0 0 0 0 0 0 0 0 0 0 0 0 0 0 0 0 0 0 0 0 0 0 0 0 0 0 0 0 0 0 0 0 0 0 0 0 0 0 0 0 0 0 0 0 0 0 0 3873 3873 4599 4599 4599 4906 5256 5256 5256 7359 0 0 0 0 0 0 0 0 0 0 0 0 0 0 0 0 0 0 0 0 0 0 0 0 0 0 0 0 0 0 0 0 0 0 0 0 0 0 0 0 0 0 0 0 0 0 0 0 0 0 0 2453 2453 2374 2537 2537 2453 2453 2374 2374 2164 2164 2044 1989 1989 1989 2044 1989 1936 1887 1839 1839 1887 1887 1936 1752 1795 1795 1795 1839 1839 1839 1795 1752 1839 1839 1795 1752 1752 1672 1635 1635 1501 1443 1471 1362 1415 1388 1471 1388 1443 1443 1471 1443 1471 1415 1471 1388 1415 1314 1314 1291 1268 1268 1247 1206 1187 1115 1082 1066 1066 1051 1036 981 994 981 0 1415 0 1036 1036 1098 1098 1036 919 981 968 968 968 968 919 876 897 955 865 865 865 845 897 919 931 908 897 908 908 908 981 865 876 876 886 919 886 897 886 876 908 865 876 826 799 799 782 766 782 758 743 743 728 721 714 700 681 669 645 639 639 639 651 634 634 634 629 623 623 618 608 613 608 608 608 613 613 613 613 613 608 608 608 603 598 593 598 593 588 588 579 584 584 579 579 574 566 570 561 566 557 561 561 561 553 545 553 553 549 553 0 0 0 0 0
    0 0 0 0 0 0 0 0 0 0 0 0 0 0 0 0 0 0 0 0 0 0 0 0 0 0 0 0 0 0 0 0 0 0 0 0 0 0 0 0 0 0 0 0 0 0 0 0 0 0 0 0 0 0 0 0 0 0 0 0 0 0 0 0 0 0 0 0 0 3873 3873 4599 4599 4599 4906 5256 5661 5256 6690 0 0 0 0 0 0 0 0 0 0 0 0 0 0 0 0 0 0 0 0 0 0 0 0 0 0 0 0 0 0 0 0 0 0 0 0 0 0 0 0 0 0 0 0 0 0 0 0 0 0 2299 2453 2453 2374 2453 2537 2453 2537 2453 2453 2230 2230 2044 2044 2044 2044 2044 1989 1936 1936 1839 1839 1887 1887 1936 1795 1795 1795 1795 1795 1839 1887 1839 1795 1839 1887 1795 1795 1795 1711 1635 1672 1471 1443 1443 1362 1415 1388 1443 1388 1443 1415 1443 1443 1471 1415 1443 1388 1415 1314 1291 1291 1268 1268 1247 1226 1187 1115 1098 1098 1082 1066 1051 994 1036 1022 1098 0 1187 1066 1036 1098 1115 1036 919 981 981 968 968 968 919 886 897 955 865 865 865 845 897 908 919 908 897 908 908 897 981 865 876 876 876 919 897 897 897 886 908 855 855 817 799 799 791 774 774 766 750 735 728 721 714 700 687 681 669 657 651 651 639 629 629 634 629 623 623 623 613 623 618 618 618 618 623 618 618 618 613 613 613 603 603 598 598 598 588 593 579 584 584 579 579 574 570 570 561 566 557 566 570 566 561 549 557 557 557 557 0 0 0 0 0
    0 0 0 0 0 0 0 0 0 0 0 0 0 0 0 0 0 0 0 0 0 0 0 0 0 0 0 0 0 0 0 0 0 0 0 0 0 0 0 0 0 0 0 0 0 0 0 0 0 0 0 0 0 0 0 0 0 0 0 0 0 0 0 0 0 0 0 0 0 3873 3873 4906 4906 4599 4906 5256 5661 5661 7359 8177 8177 8177 8177 0 0 0 0 0 0 0 0 0 0 0 0 0 0 0 0 0 0 0 0 0 0 0 0 0 0 0 0 0 0 0 0 0 0 0 0 0 0 0 0 0 0 0 0 0 2453 2453 2453 2537 2453 2537 2537 2453 2537 2537 2537 2299 2164 2044 2102 1989 1989 1989 1936 1936 1887 1839 1795 1839 1839 1936 1795 1795 1795 1795 1795 1839 1887 1887 1795 1839 1887 1839 1839 1839 1752 1635 1635 1471 1443 1415 1338 1388 1362 1415 1362 1415 1415 1415 1415 1443 1388 1443 1362 1388 1291 1291 1291 1268 1268 1268 1226 1206 1149 1132 1168 1149 1115 1115 1022 1115 1098 1291 1314 1206 1115 1036 1098 1115 1036 919 981 981 968 968 968 919 897 897 955 865 865 865 845 897 908 908 897 897 908 908 897 981 865 876 876 886 931 897 897 886 865 876 836 826 808 791 799 774 750 758 750 735 728 721 714 707 700 687 681 663 645 645 645 639 634 634 634 634 629 629 634 623 629 623 623 623 623 629 629 623 623 618 618 618 608 608 598 598 598 588 593 579 584 584 579 579 570 566 570 561 566 561 570 574 574 570 557 561 561 561 561 0 0 0 0 0
    0 0 0 0 0 0 0 0 0 0 0 0 0 0 0 0 0 0 0 0 0 0 0 0 0 0 0 0 0 0 0 0 0 0 0 0 0 0 0 0 0 0 0 0 0 0 0 0 0 0 0 0 0 0 0 0 0 0 0 0 0 0 0 0 0 0 0 0 0 3873 3873 4906 4906 4599 4906 5256 5661 5661 7359 8177 6690 6690 6690 0 0 0 0 0 0 0 0 0 0 0 0 0 0 0 0 0 0 0 0 0 0 0 0 0 0 0 0 0 0 0 0 0 0 0 0 0 0 0 0 0 0 0 0 0 2374 2374 2453 2537 2453 2537 2628 2537 2628 2628 2628 2374 2230 2102 2164 2044 2044 2044 2044 1989 1936 1887 1839 1839 1839 1887 1752 1795 1752 1795 1795 1839 1887 1887 1795 1887 1887 1887 1887 1839 1839 1635 1672 1471 1443 1388 1314 1362 1338 1388 1362 1388 1388 1388 1388 1415 1388 1415 1362 1388 1291 1268 1291 1268 1268 1268 1226 1206 1168 1149 1187 1187 1132 1098 1036 1132 1115 1247 0 1206 1115 1036 1098 1115 1036 908 981 981 968 968 968 931 897 908 968 865 876 876 845 897 908 908 897 897 908 908 897 981 865 876 876 876 908 865 865 845 826 836 808 808 791 774 758 743 735 735 735 728 721 714 714 707 694 681 675 657 645 645 639 634 629 629 639 634 634 634 639 629 639 634 629 629 629 634 629 623 629 618 623 618 613 613 598 598 598 593 593 579 584 579 574 574 566 561 561 557 561 557 566 574 579 579 561 566 561 561 557 0 0 0 0 0
    0 0 0 0 0 0 0 0 0 0 0 0 0 0 0 0 0 0 0 0 0 0 0 0 0 0 0 0 0 0 0 0 0 0 0 0 0 0 0 0 0 0 0 0 0 0 0 0 0 0 0 0 0 0 0 0 0 0 0 0 0 0 0 0 0 0 0 0 0 3873 3873 4906 4906 4906 4599 5256 5661 5661 7359 7359 5661 5661 5661 0 0 0 0 0 0 0 0 0 0 0 0 0 0 0 0 0 0 0 0 0 0 0 0 0 0 0 0 0 0 0 0 0 0 0 0 0 0 0 0 0 0 0 0 2628 2628 2537 2537 2628 2537 2628 2628 2537 2628 2628 2725 2453 2299 2299 2230 2164 2164 2164 2102 2044 2044 1936 1887 1936 1839 1936 1795 1795 1752 1795 1795 1839 1839 1887 1795 1887 1887 1936 1887 1839 1839 1635 1672 1471 1443 1388 1314 1338 1314 1362 1338 1362 1362 1362 1362 1415 1388 1415 1338 1362 1268 1247 1291 1268 1268 1247 1247 1206 1168 1149 1187 1187 1098 1066 1022 1082 1066 1051 1168 1115 1066 1036 1098 1115 1036 919 981 981 968 968 968 943 908 919 968 865 876 876 855 897 897 908 897 897 919 908 908 981 865 876 865 865 886 836 836 817 799 791 766 766 750 750 743 728 728 721 721 721 714 707 700 694 687 675 669 651 639 645 645 639 639 639 645 639 645 639 645 634 645 634 634 634 629 634 634 629 629 623 623 623 613 613 603 603 598 593 593 584 584 579 570 570 557 553 557 553 553 557 566 574 584 588 566 566 561 561 557 0 0 0 0 0
    0 0 0 0 0 0 0 0 0 0 0 0 0 0 0 0 0 0 0 0 0 0 0 0 0 0 0 0 0 0 0 0 0 0 0 0 0 0 0 0 0 0 0 0 0 0 0 0 0 0 0 0 0 0 0 0 0 0 0 0 0 0 0 0 0 0 0 0 0 3873 4088 4906 4906 4906 4599 5256 6133 5661 6690 6690 5256 5256 5256 0 0 0 0 0 0 0 0 0 0 0 0 0 0 0 0 0 0 0 0 0 0 0 0 0 0 0 0 0 0 0 0 0 0 0 0 0 0 0 7359 4329 0 0 2943 2725 2628 2628 2537 2628 2537 2628 2628 2537 2725 2628 2628 2537 2374 2453 2299 2230 2230 2230 2164 2044 2044 1989 1887 1936 1839 1936 1795 1795 1752 1795 1795 1839 1887 1936 1795 1887 1887 1936 1887 1887 1839 1635 1635 1471 1415 1362 1291 1314 1291 1338 1314 1338 1338 1338 0 574 1362 1388 1338 1362 1268 1226 1291 1268 1268 1247 1247 1206 1149 1168 1206 1187 1115 1115 1066 1115 1115 1115 1149 1115 1098 1036 1098 1115 1036 908 981 981 968 968 968 943 919 919 981 865 886 886 855 908 897 897 897 886 919 908 908 981 865 865 855 855 865 817 808 799 774 766 766 766 758 750 743 728 728 728 721 714 707 700 694 687 681 669 657 651 645 645 645 645 645 645 651 645 645 645 651 634 645 634 634 634 629 634 634 629 634 623 629 629 618 618 603 603 598 593 593 584 584 579 570 561 553 549 553 549 545 0 0 0 588 593 570 561 557 557 553 0 0 0 0 0
    0 0 0 0 0 0 0 0 0 0 0 0 0 0 0 0 0 0 0 0 0 0 0 0 0 0 0 0 0 0 0 0 0 0 0 0 0 0 0 0 0 0 0 0 0 0 0 0 0 0 0 0 0 0 0 0 0 0 0 0 0 0 0 0 0 0 0 0 0 4088 4088 4906 4906 5256 4599 5256 5661 6133 6690 6133 4599 4599 4599 0 0 0 0 0 0 0 0 0 0 0 0 0 0 0 0 5661 4906 5661 5661 5661 5661 6133 0 0 0 0 0 0 0 0 0 0 0 0 0 206 5256 8177 0 4906 0 0 2943 2725 2628 2725 2537 2628 2537 2725 2725 2628 2725 2725 2628 2537 2453 2453 2374 2299 2374 2230 2230 2102 2102 2044 1936 1936 1839 1936 1839 1839 1752 1795 1795 1839 1887 1936 1795 1887 1887 1989 1887 1887 1839 1635 1635 1443 1415 1338 1268 1291 1268 1314 0 1338 1338 0 574 566 1362 1388 1338 1338 1247 1226 1291 1247 1247 1226 1247 1206 1168 1187 1206 1206 1149 1149 1115 1149 1168 1149 1149 1132 1132 1051 1115 1115 1036 897 968 981 968 968 968 955 931 931 981 865 886 886 855 908 897 897 897 886 919 897 897 968 845 845 845 845 845 799 758 735 721 735 735 735 728 728 728 721 721 714 714 707 700 694 694 687 681 675 675 669 663 663 663 657 663 657 663 651 657 645 651 634 645 639 634 634 634 634 634 629 639 623 629 629 618 618 603 603 598 593 598 588 584 579 566 561 0 0 553 0 0 334 336 0 0 598 574 0 553 557 549 0 0 0 0 0
    0 0 0 0 0 0 0 0 0 0 0 0 0 0 0 0 0 0 0 0 0 0 0 0 0 0 0 0 0 0 0 0 0 0 0 0 0 0 0 0 0 0 0 0 0 0 0 0 0 0 0 0 0 0 0 0 0 0 0 0 0 0 0 0 0 0 0 0 0 4088 4088 4906 4906 5256 4599 5661 5661 6133 6690 6133 4599 4599 4599 0 0 0 0 0 0 0 0 0 0 0 0 0 0 0 0 6690 5661 6133 6133 6133 6690 6690 6690 7359 0 0 0 0 0 0 0 0 0 0 212 206 5661 0 0 5661 0 3199 2830 2628 2628 2628 2537 2628 2453 2725 2725 2725 2830 2725 2628 2537 2453 2537 2374 2374 2374 2299 2299 2230 2164 2102 1936 1936 1887 1936 1839 1839 1752 0 1795 1839 1887 1989 1839 1936 1936 1989 1887 1839 1839 1635 1635 1443 1388 1338 1268 1291 1268 1291 0 1314 1314 0 570 566 1362 1388 1338 1362 1247 1226 1314 1247 1226 1226 1268 1206 1168 1187 1187 1206 1168 1149 1115 1149 1168 1132 1132 1115 1115 1066 1098 1115 1036 897 981 981 968 968 968 955 943 931 994 865 897 897 865 908 897 897 897 886 919 897 886 968 836 836 826 817 808 782 743 721 721 728 728 728 728 721 714 721 714 714 714 707 707 700 694 694 687 681 681 675 675 669 669 663 663 663 663 651 657 645 651 639 651 639 634 634 634 634 639 634 639 623 629 629 618 618 603 603 598 593 598 593 584 584 566 0 1711 1635 0 0 0 0 0 0 0 0 0 0 549 553 549 0 0 0 0 0
    0 0 0 0 0 0 0 0 0 0 0 0 0 0 0 0 0 0 0 0 0 0 0 0 0 0 0 0 0 0 0 0 0 0 0 0 0 0 0 0 0 0 0 0 0 0 0 0 0 0 0 0 0 0 0 0 0 0 0 0 0 0 0 0 0 0 0 0 0 3873 4329 4906 4906 5256 4599 5661 5661 6133 6690 5661 4599 4599 4599 0 0 0 0 0 0 0 0 0 0 0 0 0 0 4906 5661 7359 5661 6690 6133 6690 7359 7359 7359 6690 0 0 0 0 0 0 0 0 0 0 0 0 6133 0 0 6133 3504 3199 2830 2628 2537 2537 2453 2453 2374 2537 2628 2628 2628 2628 2453 2537 2299 2453 2374 2374 2374 2230 2299 2299 2230 2230 1989 1989 1887 1936 1887 1839 1752 0 1795 1887 1936 1989 1887 1936 1936 1989 1839 1839 1795 1599 1599 1443 1388 1338 1268 1291 1247 1291 0 1314 1314 0 566 561 1362 1388 1362 1388 1268 1247 1338 1247 1206 1206 1268 1168 1132 1168 1168 1187 1149 1149 1115 1132 1132 1098 1098 1098 1098 1051 1082 1098 1036 908 981 981 981 981 968 968 955 943 994 855 897 897 865 908 897 897 897 886 919 886 886 955 826 808 808 799 799 766 735 728 721 728 728 721 728 721 714 714 714 714 721 714 714 707 700 700 700 694 694 681 681 675 675 669 669 663 663 657 657 645 657 639 651 645 634 639 634 639 639 634 645 623 629 634 618 623 0 603 598 593 598 0 0 584 566 0 1711 1635 0 0 0 0 0 0 0 0 0 0 0 553 549 0 0 0 0 0
    0 0 0 0 0 0 0 0 0 0 0 0 0 0 0 0 0 0 0 0 0 0 0 0 0 0 0 0 0 0 0 0 0 0 0 0 0 0 0 0 0 0 0 0 0 0 0 0 0 0 0 0 0 0 0 0 0 0 0 0 0 0 0 0 0 0 0 0 0 4088 4329 4906 4906 5256 4599 5661 5661 6690 7359 5661 4906 4906 4906 0 0 0 0 0 0 0 0 0 0 0 0 0 0 4599 5661 6690 5661 6690 6690 6690 8177 8177 0 8177 0 0 0 0 0 0 0 0 0 212 0 8177 6690 0 0 6133 3504 3199 2830 2725 2628 2628 2453 2537 2453 2628 2628 2537 2537 2537 2299 2453 2230 2453 2299 2374 2374 2230 2299 2374 2299 2299 2044 2044 1887 1989 0 1839 1795 0 1795 1887 1936 1989 1839 1887 1887 1989 1839 1795 1752 1565 1599 1415 1388 1338 1268 1291 1247 1268 1268 1291 0 1291 0 561 1362 1388 1362 1415 1291 1268 1388 1247 1187 1187 1247 1132 1115 1149 1168 1168 1149 1149 1115 1149 1132 1098 1098 1082 1082 1036 1066 1066 1022 897 981 981 981 981 968 968 955 943 994 865 897 897 865 908 908 897 897 886 919 886 876 943 826 799 799 791 791 758 735 728 721 728 721 714 721 714 714 714 721 714 728 721 721 714 714 707 707 700 694 687 681 675 675 663 663 663 663 657 657 651 657 645 657 645 634 639 639 639 645 639 651 629 629 639 618 623 0 0 0 0 0 1599 0 584 566 0 1752 1672 0 0 0 0 0 0 0 0 0 0 0 0 545 0 0 0 0 0
    0 0 0 0 0 0 0 0 0 0 0 0 0 0 0 0 0 0 0 0 0 0 0 0 0 0 0 0 0 0 0 0 0 0 0 0 0 0 0 0 0 0 0 0 0 0 0 0 0 0 0 0 0 0 0 0 0 0 0 0 0 0 0 0 0 0 0 0 0 4088 4329 4906 4906 5256 4906 5661 6133 6690 7359 6133 5256 5256 5256 0 0 0 0 0 0 0 0 0 0 0 0 0 4599 4088 5256 6690 5661 6133 6133 6690 7359 8177 0 0 0 0 0 0 0 0 0 0 0 0 0 7359 6690 8177 8177 5661 3504 3199 2943 2830 2725 2725 2537 2628 2628 2725 2725 2628 2628 2628 2299 2537 2230 2453 2230 2374 2374 2230 2374 2374 2299 2374 2102 2164 1936 1989 0 0 0 0 1839 1887 1936 1989 1839 1936 1936 1936 1795 1752 1672 1565 1565 1443 1388 1338 1268 1268 1226 1247 1247 1291 1291 1291 0 557 1362 1415 1388 1443 1291 1291 1443 1268 1187 1187 1226 1132 1115 1168 1149 1168 1149 1149 1132 1168 1149 1098 1098 1082 1082 1022 1066 1051 1022 897 981 981 981 981 981 968 968 955 1008 865 908 908 876 919 908 908 897 886 931 886 876 943 826 799 799 791 791 758 735 728 721 728 728 721 728 721 721 721 728 721 735 728 728 721 721 714 707 700 694 681 681 669 675 669 669 663 669 657 663 651 657 645 651 645 634 639 645 639 645 645 651 634 634 645 623 629 1565 0 0 593 0 0 0 584 566 0 1839 0 0 0 0 0 0 0 0 0 0 0 0 0 541 0 0 0 0 0
    0 0 0 0 0 0 0 0 0 0 0 0 0 0 0 0 0 0 0 0 0 0 0 0 0 0 0 0 0 0 0 0 0 0 0 0 0 0 0 0 0 0 0 0 0 0 0 0 0 0 0 0 0 0 0 0 0 0 0 0 0 0 0 0 0 0 0 0 0 4088 4329 4599 4599 5256 5256 5661 6133 7359 7359 6133 6133 6133 6133 0 0 0 0 0 0 0 0 0 0 0 0 0 4599 4088 5661 6690 6133 6690 6690 7359 8177 0 0 0 0 0 0 0 0 0 0 0 0 7359 7359 7359 6690 8177 8177 5256 3345 3199 2943 2830 2725 2725 2628 2628 2725 2830 2830 2725 2725 2628 2453 2628 2374 2537 2299 2453 2453 2299 2374 2453 2374 2453 2164 2299 1936 2044 0 0 0 0 0 1887 1936 1989 1795 1887 1887 1936 1752 1711 1672 1599 1599 1443 1388 1338 1268 1291 1226 1247 1247 1291 1291 1291 0 553 1362 1415 1415 1471 1314 1314 1443 1268 1187 1168 1206 1098 1098 1115 1115 1132 1115 1115 1115 1132 1115 1082 1082 1082 1066 1022 1051 1051 1022 908 981 994 994 994 981 981 981 955 1008 876 919 919 876 919 919 908 908 897 931 886 876 943 826 799 799 791 782 758 743 728 728 735 728 728 735 728 735 728 743 728 743 735 735 728 721 721 714 700 700 687 681 675 675 669 669 663 669 657 663 651 657 645 657 651 639 645 645 639 651 645 651 634 634 645 623 623 0 0 598 593 598 0 0 584 0 1989 1936 0 0 0 0 0 0 0 0 0 0 0 0 541 537 0 0 0 0 0
    0 0 0 0 0 0 0 0 0 0 0 0 0 0 0 0 0 0 0 0 0 0 0 0 0 0 0 0 0 0 0 0 0 0 0 0 0 0 0 0 0 0 0 0 0 0 0 0 0 0 0 0 0 0 0 0 0 0 0 0 0 0 0 0 0 0 0 0 0 4088 4329 4329 4329 4906 5661 5661 6133 7359 7359 6690 6690 6690 0 0 0 0 0 0 0 0 0 0 0 0 0 0 4599 4088 6133 7359 6690 7359 7359 7359 8177 0 0 0 0 0 0 0 0 0 0 0 6133 6690 7359 7359 6690 7359 7359 4906 3345 3345 2943 2943 2830 2830 2628 2628 2725 2830 2725 2725 2628 2537 2453 2537 2374 2453 2230 2453 2453 2299 2374 2374 2374 2453 2230 2374 1989 2044 0 0 0 0 1839 1936 1936 1989 1795 1839 1839 1795 1672 1599 1599 1565 1565 1415 1388 1362 1268 1291 1226 1247 1247 1291 1291 1268 0 0 1362 1443 1415 1501 1338 1338 1471 1268 1187 1168 1226 1098 1082 1098 1098 1115 1082 1082 1082 1098 1098 1066 1082 1066 1066 1022 1051 1051 1022 908 994 994 994 994 994 994 994 968 1022 886 931 931 886 919 919 908 908 897 931 886 886 943 826 791 799 791 782 758 750 735 735 743 735 743 743 743 750 735 750 735 750 743 735 735 728 721 721 0 700 687 687 675 675 669 669 669 675 663 663 651 663 651 663 657 639 645 645 645 651 645 651 634 634 645 618 623 0 603 598 593 603 0 0 588 574 2044 1989 0 0 0 0 0 0 0 0 0 0 0 529 537 533 0 0 0 0 0
    0 0 0 0 0 0 0 0 0 0 0 0 0 0 0 0 0 0 0 0 0 0 0 0 0 0 0 0 0 0 0 0 0 0 0 0 0 0 0 0 0 0 0 0 0 0 0 0 0 0 0 0 0 0 0 0 0 0 0 0 0 0 0 0 0 0 0 0 0 4088 4329 4329 4329 4599 5661 6133 6133 7359 7359 6690 6690 6690 0 0 0 0 0 0 0 0 0 0 0 0 0 0 4906 3873 6133 6690 6133 6690 6690 7359 8177 8177 0 8177 8177 0 0 0 0 0 0 5661 6133 0 0 0 7359 8177 8177 5256 3679 3679 3199 3066 2943 2830 2725 2628 2725 2830 2628 2628 2628 2628 2537 2537 2453 2453 2299 2453 2453 2299 2374 2374 2374 2453 2164 2299 0 0 0 0 0 1936 1839 1936 1936 1989 1795 1795 1795 1795 1672 1635 1565 1565 1533 1388 1415 1362 1291 1291 1226 1247 1226 1291 0 1268 148 0 1388 1443 1443 1533 1362 1362 1501 1268 1206 1187 1226 1115 1115 1115 1132 1132 1115 1098 1098 1115 1115 1082 1098 1082 1066 1022 1066 1066 1022 919 994 1008 994 994 994 994 994 968 1022 886 931 931 886 919 919 908 908 897 931 886 876 955 826 782 791 782 774 750 758 743 743 750 750 750 750 750 758 743 766 743 758 750 743 743 735 728 721 707 707 694 687 681 681 669 669 669 675 663 663 657 669 657 669 663 639 645 645 645 651 645 645 634 629 639 618 618 0 603 598 593 598 0 0 593 579 2044 2044 2044 0 0 0 0 239 319 0 0 553 529 533 537 533 0 0 0 0 0
    0 0 0 0 0 0 0 0 0 0 0 0 0 0 0 0 0 0 0 0 0 0 0 0 0 0 0 0 0 0 0 0 0 0 0 0 0 0 0 0 0 0 0 0 0 0 0 0 0 0 0 0 0 0 0 0 0 0 0 0 0 0 0 0 0 0 0 0 0 4329 4329 4329 4329 4329 6133 6690 6133 7359 7359 6690 6690 6690 0 0 0 0 0 0 0 0 0 0 0 0 0 0 4906 3873 6690 7359 6690 6690 6690 7359 0 0 0 8177 8177 0 0 0 0 0 7359 6690 5661 8177 7359 8177 7359 6690 6690 5256 4088 4088 3199 3199 2943 2830 2830 2628 2830 2725 2725 2725 2628 2628 2537 2453 2374 2453 2299 2453 2374 2299 2374 2374 2374 2453 2164 2299 1936 2044 0 0 0 1936 1795 1887 1887 1936 1752 1752 1752 1752 1635 1635 1565 1565 1565 1388 1443 1388 1291 1291 1226 1247 1226 1291 0 1268 0 0 1388 1443 1443 1533 1362 1362 1533 1268 1206 1187 1226 1132 1115 1115 1132 1149 1115 1115 1098 1115 1115 1098 1115 1098 1066 1008 1051 1051 1022 919 1008 1008 1008 1008 1008 994 994 981 1022 886 919 919 876 919 908 908 897 886 931 876 865 931 826 782 782 791 774 758 766 750 758 758 750 758 758 758 766 750 766 743 758 750 743 743 735 728 728 714 714 694 694 681 681 669 675 669 675 663 663 657 669 663 675 669 639 645 645 645 651 645 645 629 629 639 618 618 0 603 598 593 598 0 0 593 584 0 2102 0 0 584 0 0 0 0 0 561 553 537 537 541 537 0 0 0 0 0
    0 0 0 0 0 0 0 0 0 0 0 0 0 0 0 0 0 0 0 0 0 0 0 0 0 0 0 0 0 0 0 0 0 0 0 0 0 0 0 0 0 0 0 0 0 0 0 0 0 0 0 0 0 0 0 0 0 0 0 0 0 0 0 0 0 0 0 0 0 4599 4599 4329 4329 4329 6133 6690 6690 7359 7359 6690 6690 6690 0 0 0 0 0 0 0 0 0 0 0 0 0 4329 5256 4088 7359 7359 7359 7359 7359 0 0 0 0 0 0 0 0 0 0 0 8177 7359 5256 7359 6690 8177 7359 6690 6690 5661 4599 4599 3345 3504 3066 2943 2943 2725 2943 2830 2725 2725 2725 2725 2628 2537 2453 2453 2299 2374 2374 2299 2374 2299 2374 2453 2164 2374 1936 2044 0 0 0 1887 1752 1839 1795 1839 1711 1711 1672 1672 1565 1635 1533 1565 1565 1415 1501 1415 1314 1314 1247 1247 1247 0 0 1268 0 0 1362 1443 1443 1533 1362 1362 1533 1268 1206 1206 1226 1168 1132 1132 1132 1149 1115 1115 1082 1115 1082 1066 1066 1066 1036 955 1036 1036 1022 919 994 1008 994 1008 1008 994 994 981 1008 886 919 908 865 908 897 0 886 876 919 865 865 908 836 808 808 808 782 774 774 766 766 766 758 774 758 766 766 750 774 750 758 750 743 743 735 728 728 714 714 694 694 675 681 663 669 669 681 669 663 663 675 669 681 0 639 645 645 639 645 639 639 629 629 639 618 618 0 0 598 593 598 0 588 588 584 0 0 0 0 579 570 0 0 0 566 561 553 541 541 545 537 0 0 0 0 0
    0 0 0 0 0 0 0 0 0 0 0 0 0 0 0 0 0 0 0 0 0 0 0 0 0 0 0 0 0 0 0 0 0 0 0 0 0 0 0 0 0 0 0 0 0 0 0 0 0 0 0 0 0 0 0 0 0 0 0 0 0 0 0 0 0 0 0 0 0 4599 4599 4329 4599 4329 6133 6690 6690 7359 7359 6690 6690 6690 0 0 0 0 0 0 0 0 0 0 0 0 0 4906 5256 4599 7359 8177 7359 8177 8177 0 0 0 0 0 0 0 0 0 0 0 0 0 7359 0 8177 0 0 7359 7359 6690 5256 5256 3679 3679 3199 3066 3066 2830 2943 2830 2830 2725 2725 2725 2628 2537 2453 2453 2299 2453 2453 2299 2374 2299 2374 2453 2102 2374 1936 2044 0 0 0 1887 1752 1795 1795 1795 1672 1672 1635 1599 1533 1635 1565 1599 1599 1415 1565 1471 1362 1338 1268 1268 1268 0 0 1268 0 0 1362 1415 1415 1501 1362 1362 1501 1268 1226 1206 1247 1206 1149 1132 1132 1132 1098 1082 1051 1066 1022 1008 897 981 931 908 1008 1008 1008 897 994 994 994 994 994 981 981 968 994 886 908 886 865 886 886 0 876 876 908 865 855 897 845 836 826 817 791 782 782 774 774 774 766 774 758 766 766 750 774 750 758 750 743 743 735 728 735 714 721 694 694 675 681 663 669 663 681 669 0 0 675 0 0 0 645 645 639 639 645 639 639 629 629 639 618 618 0 608 603 593 598 593 584 588 579 579 584 574 570 574 566 570 561 566 561 557 549 541 541 545 537 0 0 0 0 0
    0 0 0 0 0 0 0 0 0 0 0 0 0 0 0 0 0 0 0 0 0 0 0 0 0 0 0 0 0 0 0 0 0 0 0 0 0 0 0 0 0 0 0 0 0 0 0 0 0 0 0 0 0 0 0 0 0 0 0 0 0 0 0 0 0 0 0 0 0 4599 4599 4329 4599 4329 6133 6690 7359 6690 6690 6690 6690 6690 0 0 0 0 0 0 0 0 0 0 0 0 0 5256 4906 4599 6690 7359 8177 8177 8177 0 0 0 0 0 0 0 0 0 0 0 0 8177 7359 8177 7359 0 8177 7359 7359 6133 5661 5661 4088 4088 3504 3066 3066 2830 2943 2943 2830 2830 2725 2830 2725 2628 2537 2537 2299 2453 2453 2299 2374 2299 2374 2374 2102 2299 1887 1989 0 0 1887 1887 1752 1839 1795 1795 1672 1672 1672 1635 1565 1672 1599 1635 1635 1443 1599 1501 1388 1362 1291 1291 1268 1338 1338 1268 0 0 1338 1415 1415 1471 1338 1338 1471 1268 1206 1206 1247 1206 1149 1149 1149 1149 1098 1082 1051 1066 1022 968 865 943 897 897 994 1008 994 886 981 994 981 994 981 981 968 968 994 876 897 886 855 876 876 0 865 865 897 855 855 886 865 855 845 826 799 782 791 782 774 774 766 774 766 766 766 750 774 750 758 750 750 750 743 735 735 721 728 700 700 681 681 663 669 663 0 0 0 0 0 0 0 0 0 639 634 634 639 634 634 629 629 634 618 618 0 603 603 593 598 593 584 588 579 579 584 574 566 570 566 570 561 561 561 553 549 537 545 545 537 0 0 0 0 0
    0 0 0 0 0 0 0 0 0 0 0 0 0 0 0 0 0 0 0 0 0 0 0 0 0 0 0 0 0 0 0 0 0 0 0 0 0 0 0 0 0 0 0 0 0 0 0 0 0 0 0 0 0 0 0 0 0 0 0 0 0 0 0 0 0 0 0 0 0 4599 4906 4599 4906 4599 5661 6690 7359 6133 6133 6133 6133 6133 0 0 0 0 0 0 0 0 0 0 0 0 0 5256 5256 5661 7359 7359 8177 8177 8177 0 0 0 0 0 0 0 0 0 0 0 0 7359 6690 7359 6690 8177 7359 6690 6133 6133 5661 5256 4088 4329 3504 3199 3066 3066 3066 3066 2943 2943 2830 2943 2943 2830 2628 2628 2374 2537 2537 2374 2374 2299 2374 2374 2102 2299 1887 1989 2044 1887 1936 1936 0 1887 1887 1887 1711 1711 1752 1635 1565 1711 1635 1672 1711 1443 1599 1501 1388 1362 1291 1291 1268 1338 1338 1268 0 0 1338 1388 1388 1471 1314 1314 1443 1268 1187 1187 1247 1206 1132 1132 1168 1168 1098 1082 1051 1066 1036 994 897 968 908 919 994 1008 994 876 968 981 981 981 981 968 968 955 981 876 897 876 845 865 865 0 865 865 886 855 855 886 865 855 855 836 0 791 791 0 774 774 766 774 766 774 766 750 774 750 766 758 750 750 743 735 743 721 728 700 700 681 687 0 675 0 0 0 0 0 0 0 0 0 0 634 629 634 634 629 629 623 623 629 613 618 0 603 603 598 598 593 584 588 579 579 584 574 570 574 570 570 561 566 561 557 549 537 549 545 545 0 0 0 0 0
    0 0 0 0 0 0 0 0 0 0 0 0 0 0 0 0 0 0 0 0 0 0 0 0 0 0 0 0 0 0 0 0 0 0 0 0 0 0 0 0 0 0 0 0 0 0 0 0 0 0 0 0 0 0 0 0 0 0 0 0 0 0 0 0 0 0 0 0 0 4599 4906 4599 4906 4599 5661 6133 6690 5661 5661 5661 5661 5661 0 0 0 0 0 0 0 0 0 0 0 0 3873 5256 5661 7359 8177 8177 0 0 0 0 0 0 0 0 0 0 0 0 0 0 0 7359 6690 7359 6690 8177 6690 6133 6133 5661 5256 4906 4088 4088 3679 3345 3199 3066 3199 3066 3066 3066 2943 2943 2943 2830 2628 2628 2453 2537 2537 2374 2374 2299 2299 2299 2044 2230 1839 1989 2044 1887 1989 1989 0 0 1887 1936 1752 1711 1752 1635 1599 1711 1672 1711 1711 1443 1599 1501 1388 1388 1291 1291 1268 1338 1338 1268 1291 0 1314 1388 1388 1443 1291 1291 1415 1247 1168 1187 1268 1247 1132 1115 1149 1149 1098 1082 1051 1051 1051 994 897 943 919 919 943 981 981 886 981 994 994 994 981 981 981 968 981 886 886 865 845 865 855 0 865 855 886 855 855 876 876 865 865 836 0 799 791 0 0 774 766 774 766 774 766 750 774 750 766 758 750 750 743 735 743 721 728 700 700 681 687 663 675 0 0 0 0 0 0 0 0 0 0 634 629 629 634 623 629 623 623 623 613 613 0 603 603 598 598 593 584 588 584 584 588 579 574 579 579 579 570 0 574 561 549 537 553 549 549 0 0 0 0 0
    0 0 0 0 0 0 0 0 0 0 0 0 0 0 0 0 0 0 0 0 0 0 0 0 0 0 0 0 0 0 0 0 0 0 0 0 0 0 0 0 0 0 0 0 0 0 0 0 0 0 0 0 0 0 0 0 0 0 0 0 0 0 0 0 0 0 0 0 0 4329 5256 4599 5256 4599 5661 5661 6133 5256 4906 4906 4906 4906 0 0 0 0 0 0 0 0 0 0 0 0 4329 5256 7359 8177 0 0 0 0 0 0 0 0 0 0 0 8177 0 0 0 0 0 7359 6690 6690 6690 7359 6690 5661 5661 5661 4906 4599 4088 4088 3504 3345 3345 3066 3066 3066 2943 3066 3066 3066 2830 2725 2628 2628 2453 2537 2453 2374 2374 2299 2299 2299 2044 2230 1839 1936 2044 1936 2044 1989 0 0 1936 1989 1795 1752 1752 1635 1565 1711 1672 1711 1711 1443 1599 1501 1388 1388 1314 1291 1268 1338 0 1268 1268 549 1314 1362 1362 1415 1291 1268 1362 1226 1132 1168 1247 1247 1098 1082 1132 1149 1082 1082 1036 1022 981 955 876 919 897 897 897 943 955 897 968 981 981 981 981 981 968 968 955 886 876 865 836 855 855 845 855 855 876 865 855 876 876 865 865 845 0 799 0 0 0 0 0 0 0 0 0 750 774 750 766 758 743 750 735 735 735 714 728 700 694 681 681 669 675 0 0 0 0 0 0 0 0 0 0 0 0 629 629 623 623 618 618 618 613 608 0 598 603 593 593 593 584 588 584 584 0 0 0 0 0 0 0 0 0 0 553 533 557 553 557 0 0 0 0 0
    0 0 0 0 0 0 0 0 0 0 0 0 0 0 0 0 0 0 0 0 0 0 0 0 0 0 0 0 0 0 0 0 0 0 0 0 0 0 0 0 0 0 0 0 0 0 0 0 0 0 0 0 0 0 0 0 0 0 0 0 0 0 0 0 0 0 0 0 0 4329 5256 4599 5256 4599 5661 5661 6133 5256 4599 4599 4599 4599 0 0 0 0 0 0 0 0 0 0 0 4599 4599 5661 7359 0 8177 8177 0 0 0 0 0 0 0 0 0 0 0 0 0 0 0 0 7359 7359 7359 8177 6690 6133 5661 5661 4906 4329 3873 4088 3504 3345 3199 3066 3066 3199 3066 3199 3066 3066 2830 2830 2628 2628 2453 2537 2453 2374 2299 2299 2230 2230 1989 2164 1795 1936 2044 1936 2044 2044 0 0 1936 2044 1887 1795 1795 1672 1565 1711 1672 1711 1711 1471 1599 1501 1388 1388 1291 1291 1268 1338 0 1247 1268 549 1291 1362 1338 1362 1268 1226 1314 1206 1115 1132 1206 1206 1082 1082 1115 1132 1082 1066 1051 1036 1008 981 908 943 931 931 908 943 943 897 943 968 968 968 968 981 955 955 943 897 876 865 836 855 845 845 855 865 876 865 0 876 876 865 876 0 0 799 0 0 0 0 0 0 0 0 0 750 766 750 766 758 743 743 735 728 735 714 721 694 694 681 681 669 675 0 0 0 0 0 0 0 0 0 0 0 0 623 623 0 623 618 618 618 613 608 0 598 0 593 593 593 584 588 584 0 0 0 0 0 0 0 0 0 0 0 0 511 557 553 557 0 0 0 0 0
    0 0 0 0 0 0 0 0 0 0 0 0 0 0 0 0 0 0 0 0 0 0 0 0 0 0 0 0 0 0 0 0 0 0 0 0 0 0 0 0 0 0 0 0 0 0 0 0 0 0 0 0 0 0 0 0 0 0 0 0 0 0 0 0 0 0 0 0 0 4329 5256 4906 5256 4906 5661 5661 6133 5661 4599 4599 4599 4599 0 0 0 0 0 0 0 0 0 0 4088 5256 5661 5661 6690 0 0 0 0 0 0 0 0 0 0 0 0 0 0 0 0 0 0 0 8177 7359 7359 8177 6690 5661 5661 5256 4088 3873 3504 3679 3199 3199 3066 2943 3066 3199 3066 3066 3066 3066 2830 2830 2628 2628 2453 2537 2453 2299 2299 2374 2230 2230 2044 2164 1795 1936 2044 1936 2044 2044 1989 1989 1989 2044 1936 1795 1839 1672 1565 1711 1711 1711 1752 1471 1635 1501 1388 1388 0 1291 1268 1338 0 1247 1268 549 1291 1338 1338 1338 1247 1206 1291 1187 1098 1098 1187 1149 1051 1036 1036 1051 1036 1022 1022 1008 981 968 908 943 943 919 886 931 931 897 931 968 955 955 955 968 943 943 919 908 876 865 836 855 845 845 855 865 876 865 85 876 876 865 0 0 0 808 0 0 0 0 0 0 0 0 0 758 774 750 766 758 743 743 728 728 728 707 714 694 687 681 681 669 675 0 0 0 0 1795 0 0 0 0 0 0 0 0 0 0 623 0 0 0 0 0 0 598 0 593 593 593 579 584 584 0 0 0 0 0 0 0 0 0 0 0 0 497 553 549 553 0 0 0 0 0
    0 0 0 0 0 0 0 0 0 0 0 0 0 0 0 0 0 0 0 0 0 0 0 0 0 0 0 0 0 0 0 0 0 0 0 0 0 0 0 0 0 0 0 0 0 0 0 0 0 0 0 0 0 0 0 0 0 0 0 0 0 0 0 0 0 0 0 0 0 4329 5256 4906 5256 4906 5661 5256 5661 6133 4599 4599 4599 4599 0 0 0 0 0 0 0 0 6690 7359 5661 6690 6690 6690 8177 0 0 0 0 0 0 0 0 0 0 0 0 0 0 0 0 0 0 0 0 8177 8177 8177 6690 5661 5661 5256 3873 3504 3345 3345 3199 3199 3199 2943 3066 3345 3199 3199 3199 3066 2830 2830 2725 2628 2453 2537 2453 2299 2299 2374 2230 2230 2044 2102 1839 1936 2044 1936 2044 2044 2044 2044 2044 2102 2044 1839 1936 1711 1599 1711 1711 1711 1752 1471 1635 1501 1388 1362 0 1291 1268 1338 0 1247 1247 549 1268 1314 1314 1314 1226 1187 1268 1149 1098 1098 1187 1098 1036 1022 1008 1008 994 994 1008 981 968 968 908 943 943 919 897 943 943 908 931 955 955 955 955 968 943 943 897 919 876 865 836 855 855 845 865 876 876 0 85 876 876 0 0 0 0 808 0 0 0 0 0 0 0 782 774 758 766 750 758 750 743 735 728 728 728 707 707 694 687 681 681 675 675 0 0 0 0 1752 0 0 0 0 634 0 0 0 0 83 0 0 0 0 0 0 0 598 0 598 593 593 0 0 0 0 0 0 0 0 0 0 0 0 0 0 0 493 553 545 553 0 0 0 0 0
    0 0 0 0 0 0 0 0 0 0 0 0 0 0 0 0 0 0 0 0 0 0 0 0 0 0 0 0 0 0 0 0 0 0 0 0 0 0 0 0 0 0 0 0 0 0 0 0 0 0 0 0 0 0 0 0 0 0 0 0 0 0 0 0 0 0 0 0 0 4329 5256 4906 5256 4906 5661 5256 5661 6133 4599 4599 4599 4329 0 0 0 0 0 0 0 0 6690 8177 7359 7359 7359 7359 0 0 0 0 0 0 0 0 0 0 8177 0 0 7359 9199 0 0 0 0 0 0 8177 8177 7359 6133 5256 5256 4599 3679 3345 3345 3345 3345 3199 3199 2943 3066 3199 3199 3066 3066 3066 2628 2830 2628 2537 2453 2453 2453 2299 2299 2453 2230 2299 2044 2102 1839 1936 2044 1989 2102 2102 2044 2044 2044 2164 2164 1936 2164 1752 1635 1711 1711 1752 1752 1443 1599 1471 1362 1362 0 1291 1268 1314 0 1247 1247 0 1268 1314 1291 1291 1226 1168 1268 1149 1098 1082 1149 1036 994 994 981 994 981 981 1008 981 968 968 919 943 931 919 897 943 955 919 919 955 955 955 955 968 943 943 886 931 886 876 845 865 865 855 876 886 886 0 85 886 886 0 0 0 0 817 0 0 0 0 0 774 0 791 0 758 766 750 758 750 743 735 728 721 721 700 707 687 0 681 681 675 675 0 0 1711 1752 1711 1752 1752 1752 0 0 0 0 0 0 84 0 0 0 0 0 379 379 0 0 598 593 593 0 0 0 0 0 0 0 2164 0 0 0 0 0 0 0 490 549 541 549 0 0 0 0 0
    0 0 0 0 0 0 0 0 0 0 0 0 0 0 0 0 0 0 0 0 0 0 0 0 0 0 0 0 0 0 0 0 0 0 0 0 0 0 0 0 0 0 0 0 0 0 0 0 0 0 0 0 0 0 0 0 0 0 0 0 0 0 0 0 0 0 0 0 0 4329 5256 4906 5256 4906 5661 5256 5661 6133 4599 4599 4599 4329 0 0 0 0 0 0 0 0 0 0 8177 0 8177 0 0 0 0 0 0 0 0 0 0 7359 7359 7359 8177 6690 6690 0 0 0 0 0 8177 7359 7359 6133 5256 4329 4599 4088 3345 3345 3345 3345 3345 3345 3199 3066 3199 3345 3199 3066 3199 3066 2628 2725 2628 2537 2453 2453 2453 2299 2299 2453 2230 2230 2102 2044 1839 1936 2044 1989 2102 2102 2102 2102 2102 2230 2299 1989 2453 1752 1635 1672 1711 1752 1752 1415 1599 1443 1362 1338 111 1268 1268 1314 0 1226 1226 0 1247 1291 1291 1291 1226 1168 1247 1149 1115 1098 1132 1036 1008 1008 1008 1008 994 981 1008 994 968 981 943 955 955 943 931 968 968 955 919 968 968 955 955 968 943 943 886 943 897 886 855 886 886 865 886 886 897 0 85 897 886 0 0 0 0 817 0 0 0 0 0 774 0 791 0 758 766 750 758 750 735 735 728 721 721 700 700 687 681 675 675 675 675 0 0 1672 1711 1672 1711 1711 1711 1752 0 92 0 0 0 0 0 0 0 0 0 379 0 0 0 0 593 593 0 0 0 0 2044 0 0 0 0 0 0 0 0 0 0 525 545 541 549 0 0 0 0 0
    0 0 0 0 0 0 0 0 0 0 0 0 0 0 0 0 0 0 0 0 0 0 0 0 0 0 0 0 0 0 0 0 0 0 0 0 0 0 0 0 0 0 0 0 0 0 0 0 0 0 0 0 0 0 0 0 0 0 0 0 0 0 0 0 0 0 0 0 0 4329 5256 4906 5256 4906 5256 5256 5256 6690 4599 4599 4599 4599 0 0 0 0 0 0 0 0 0 0 0 0 8177 0 0 0 0 0 0 0 0 0 8177 7359 6133 7359 7359 6690 7359 0 0 0 8177 0 8177 7359 6690 5256 4599 4088 4088 3873 3199 3199 3199 3199 3345 3345 3345 3066 3066 3345 3199 3066 0 2943 2453 2628 2537 2453 2374 2374 2374 2299 2230 2453 2164 2299 2230 2044 1839 1936 2044 1989 2102 2102 2102 2044 2102 2230 2374 1989 2537 1752 1565 1599 1672 1711 1711 1388 1565 1443 1338 1338 111 1268 1247 0 0 1226 0 0 1247 1291 1268 1268 1206 1168 1226 1149 1115 1132 1132 1051 1036 1008 1008 1008 981 981 1008 981 968 994 968 968 981 968 955 981 981 981 919 968 968 968 968 968 955 943 886 955 897 886 855 897 897 876 897 897 897 85 85 897 0 78 0 0 0 826 0 0 799 782 0 774 774 791 774 758 766 743 750 743 735 735 728 721 721 700 700 687 675 675 675 669 675 0 0 1635 1672 1635 1672 1711 1711 1752 0 0 92 91 0 0 0 0 0 0 0 0 0 0 0 0 593 598 0 0 0 0 2044 0 0 0 593 0 0 0 0 0 549 541 545 537 549 0 0 0 0 0
    0 0 0 0 0 0 0 0 0 0 0 0 0 0 0 0 0 0 0 0 0 0 0 0 0 0 0 0 0 0 0 0 0 0 0 0 0 0 0 0 0 0 0 0 0 0 0 0 0 0 0 0 0 0 0 0 0 0 0 0 0 0 0 0 0 0 0 0 0 4599 4906 4906 5256 4906 5256 5256 5256 6690 4599 4599 4599 4599 0 0 0 0 0 0 0 0 0 0 0 0 0 0 0 0 0 0 0 0 0 0 8177 7359 6133 7359 6690 6690 7359 0 0 0 8177 0 0 7359 7359 4906 4599 3679 4088 3679 3066 3066 3066 3066 3345 3345 3345 3066 3066 3199 3199 0 0 2830 2374 2453 2453 2374 2299 2374 2374 2299 2230 2374 2164 2299 2164 1989 1795 1887 1989 1936 2044 2102 2044 2044 2044 2230 2299 1989 2453 1711 1533 1533 1635 1635 1672 1388 1565 1443 1338 1338 0 1268 1247 0 0 0 1226 0 0 0 1291 1268 1206 1168 1226 1149 1132 1132 1132 1051 1036 1008 994 981 981 968 1008 981 981 1008 994 994 994 994 981 994 994 994 919 968 968 968 968 968 943 943 876 955 908 897 865 897 897 876 897 908 908 0 85 897 78 78 0 0 78 0 0 0 799 791 766 774 774 791 774 766 766 743 750 743 735 728 721 721 714 700 700 687 675 0 0 0 1711 1635 1635 1599 1635 1635 1635 1711 1711 1752 0 0 92 91 91 0 0 0 0 0 0 0 0 0 0 0 593 598 0 0 0 0 0 0 0 0 584 584 0 0 0 557 545 541 541 537 541 0 0 0 0 0
    0 0 0 0 0 0 0 0 0 0 0 0 0 0 0 0 0 0 0 0 0 0 0 0 0 0 0 0 0 0 0 0 0 0 0 0 0 0 0 0 0 0 0 0 0 0 0 0 0 0 0 0 0 0 0 0 0 0 0 0 0 0 0 0 0 0 0 0 0 4329 4906 4906 4906 4906 5256 5256 5256 6690 4599 4599 4599 4599 0 0 0 0 0 0 0 0 0 0 0 0 0 0 0 0 0 0 0 0 0 0 8177 7359 6690 7359 6690 6690 7359 0 0 0 8177 0 8177 7359 6133 4599 4329 3679 4088 3679 3199 3199 3199 3066 3345 3345 3345 3066 3066 3345 3199 3066 2943 2725 2299 2453 2374 2299 2230 2299 2299 2299 2230 2374 2164 2299 2230 2044 1795 1887 1989 1936 2044 2044 2044 1989 2044 2164 2299 1989 2374 1711 1533 1533 1599 1599 1635 1388 1565 1443 1338 1338 0 1268 1247 0 0 1226 1226 0 0 0 0 1291 1226 1168 1247 1168 1132 1132 1132 1066 1036 1008 1008 981 981 955 1008 994 981 1008 1022 1022 1022 1022 1022 1008 1008 1008 908 955 955 955 955 955 931 931 876 955 908 908 865 908 908 886 908 908 908 897 85 908 0 78 0 0 78 0 0 0 799 791 766 774 774 791 774 766 766 743 743 735 735 728 721 721 714 700 0 687 0 1672 1672 1672 1711 1635 1672 1635 1635 1635 1635 1711 1711 1752 0 0 92 91 0 0 0 0 0 0 0 0 0 0 0 0 593 598 0 0 0 0 0 0 0 0 584 584 0 0 0 553 541 541 533 533 537 0 0 0 0 0
    0 0 0 0 0 0 0 0 0 0 0 0 0 0 0 0 0 0 0 0 0 0 0 0 0 0 0 0 0 0 0 0 0 0 0 0 0 0 0 0 0 0 0 0 0 0 0 0 0 0 0 0 0 0 0 0 0 0 0 0 0 0 0 0 0 0 0 0 0 4329 4599 4599 4906 4599 4906 5256 5256 6690 4599 4599 4599 4599 0 0 0 0 0 0 0 0 0 0 0 0 0 0 0 0 0 0 0 0 0 0 0 0 8177 8177 7359 6690 7359 0 0 7359 7359 7359 7359 6690 5661 4088 4088 3679 4088 3679 3345 3199 3345 3199 3504 3504 3345 3066 3199 3345 3345 2943 2830 2725 2230 2453 2299 2299 2230 2230 2299 2230 2164 2374 2102 2299 2230 1989 1752 1839 1936 1887 1989 2044 1989 1989 1989 2164 2299 1989 2374 1711 1533 1501 1533 1533 1599 1362 1533 1415 1338 1314 0 0 1247 0 0 1226 1226 0 1247 0 0 1291 1226 1187 1247 1187 1149 1132 1132 1082 1051 1036 1008 994 981 968 1036 1008 1022 1036 1036 1036 1051 1036 1051 1036 1036 1022 897 955 955 955 955 943 919 919 876 955 919 908 865 908 908 886 908 919 908 908 0 908 0 0 0 0 78 0 0 0 799 791 774 774 774 791 766 766 774 743 743 735 728 728 721 721 714 0 0 0 0 1635 1672 1672 1711 1672 1672 1635 1672 1672 1672 1711 1711 1752 1752 1752 92 0 0 0 0 623 0 0 0 0 377 0 0 0 593 598 0 0 0 0 0 0 0 584 584 584 574 570 570 557 545 541 529 533 533 0 0 0 0 0
    0 0 0 0 0 0 0 0 0 0 0 0 0 0 0 0 0 0 0 0 0 0 0 0 0 0 0 0 0 0 0 0 0 0 0 0 0 0 0 0 0 0 0 0 0 0 0 0 0 0 0 0 0 0 0 0 0 0 0 0 0 0 0 0 0 0 0 0 0 4329 4599 4599 4906 4599 4906 4906 5256 6690 4329 4088 4088 4088 0 0 0 0 0 0 0 0 0 0 0 0 0 0 0 0 0 0 0 0 0 0 0 0 0 8177 7359 6690 6690 8177 7359 6690 7359 6133 6133 5661 4906 3873 4088 3679 4088 3679 3504 3345 3504 3345 3873 3504 3504 3199 3199 3199 3199 2830 2725 2628 2164 2453 2299 2230 2230 2230 2230 2299 2230 2374 2164 2299 2299 1989 1752 1795 1887 1839 1989 1989 1989 1936 1989 2164 2374 1989 2374 1711 1471 1443 1471 1471 1533 1362 1533 1415 1338 1314 0 0 1247 0 0 1226 1226 549 0 88 1314 1314 1247 1206 1247 1187 1149 1149 1149 1098 1082 1082 1036 1008 994 1008 1066 1022 1036 1036 1051 1051 1066 1051 1066 1051 1066 1036 908 955 955 955 955 943 919 919 876 955 919 908 876 908 908 897 908 931 919 908 876 908 876 886 886 865 78 0 0 0 799 791 774 774 774 791 766 774 774 743 735 728 728 728 721 721 714 0 1533 0 1565 1635 1635 1672 1711 1672 1672 1672 1672 1711 1672 1711 1711 1752 1752 1752 0 0 0 0 0 623 0 623 0 0 377 603 0 0 593 598 0 588 0 0 0 0 0 579 579 579 574 570 570 561 549 545 533 533 533 0 0 0 0 0
    0 0 0 0 0 0 0 0 0 0 0 0 0 0 0 0 0 0 0 0 0 0 0 0 0 0 0 0 0 0 0 0 0 0 0 0 0 0 0 0 0 0 0 0 0 0 0 0 0 0 0 0 0 0 0 0 0 0 0 0 0 0 0 0 0 0 0 0 0 4329 4599 4599 4906 4599 4906 4906 4906 6690 4329 4088 4329 4599 0 0 0 0 0 0 0 0 0 0 0 0 0 0 0 0 0 0 0 0 0 0 0 8177 8177 8177 6690 5661 6133 6690 6690 5661 6133 4906 5661 5256 4906 3679 4088 3679 4329 3873 3873 3504 3873 3504 4088 3679 3679 3345 3345 3345 3345 2943 2830 2628 2164 2453 2230 2230 2230 2230 2230 2299 2230 2453 2164 2374 2374 1989 1711 1795 1887 1839 1936 1936 1936 1936 1989 2102 2374 1989 2374 1711 1415 1443 1471 1471 1533 1362 1533 1443 1338 1338 0 0 0 0 0 1226 1226 0 0 0 1314 1314 1247 1206 1268 1206 1187 1187 1187 1132 1149 1132 1098 1098 1036 1066 1149 1051 1066 1066 1082 1066 1066 1051 1066 1051 1098 1036 908 955 955 955 955 931 919 919 876 955 919 919 876 919 908 897 908 931 919 908 876 919 876 886 886 865 78 0 0 0 799 791 774 774 766 791 758 766 766 735 735 728 728 728 721 721 0 1565 1533 1565 1565 1599 1599 1635 1711 1672 1672 1635 1635 1672 1635 1711 1672 1711 1711 1711 1711 0 0 0 0 623 623 623 618 0 0 603 0 603 598 598 0 588 588 0 0 0 574 570 570 574 574 570 566 566 557 549 533 533 533 0 0 0 0 0
    0 0 0 0 0 0 0 0 0 0 0 0 0 0 0 0 0 0 0 0 0 0 0 0 0 0 0 0 0 0 0 0 0 0 0 0 0 0 0 0 0 0 0 0 0 0 0 0 0 0 0 0 0 0 0 0 0 0 0 0 0 0 0 0 0 0 0 0 0 4329 4599 4599 4906 4599 4599 4906 4906 6133 4329 4088 4088 4906 7359 0 0 0 0 0 0 0 0 0 0 0 0 0 0 0 0 0 0 0 0 0 0 0 8177 8177 7359 6133 6133 6690 6133 5256 6133 4906 5256 4599 4599 3873 4088 3873 4329 3873 4088 3504 4088 3679 4088 3873 3679 3504 3345 3345 3504 3066 2943 2725 2299 2537 2230 2230 2230 2230 2230 2299 2230 2453 2164 2374 2453 1936 1672 1752 1839 1839 1936 1936 1936 1936 1936 2102 2374 1989 2299 1672 1415 1443 1471 1471 1533 1362 1533 1443 1338 1314 1247 0 0 0 0 1226 1226 0 0 1338 1314 1338 1247 1226 1268 1226 1187 1187 1187 1168 1187 1168 1168 1168 1098 1132 1206 1082 1098 1082 1082 1082 1082 1066 1066 1051 1098 1022 897 955 955 943 955 931 919 919 876 968 919 919 876 919 908 897 908 931 908 908 876 919 876 886 886 865 78 0 0 0 799 791 774 766 766 782 758 766 758 735 735 728 728 728 721 0 0 1565 1533 1565 1565 1599 1599 1635 1672 1635 1635 1599 1599 1635 1599 1711 1672 1711 1711 1711 1711 0 0 0 0 623 623 623 618 0 0 603 0 603 598 603 588 588 588 584 0 0 570 566 566 566 570 566 561 561 557 549 533 537 533 0 0 0 0 0
    0 0 0 0 0 0 0 0 0 0 0 0 0 0 0 0 0 0 0 0 0 0 0 0 0 0 0 0 0 0 0 0 0 0 0 0 0 0 0 0 0 0 0 0 0 0 0 0 0 0 0 0 0 0 0 0 0 0 0 0 0 0 0 0 0 0 0 0 0 4329 4599 4599 4906 4599 4599 4906 4906 6133 4329 4329 4088 5256 8177 0 0 0 0 0 0 0 0 0 0 0 0 0 0 0 0 0 0 0 0 0 0 8177 8177 8177 6690 5661 6133 6133 5256 5256 5661 4599 5256 4599 4906 3873 4329 3873 4329 4088 4088 3504 4088 3679 4088 3679 3679 3345 3345 3199 3345 3066 2830 2725 2299 2537 2230 2230 2230 2299 2230 2299 2230 2374 2164 2299 2374 1936 1635 1711 1839 1795 1936 1936 1936 0 1936 2102 2299 1989 2230 1672 1415 1443 1501 1471 1533 1362 1533 1443 1338 1314 1247 1268 0 0 0 1247 1226 0 168 1338 1338 1338 1247 1247 1268 1206 1187 1187 1187 1168 1187 1168 1168 1168 1115 1132 1168 1066 1082 1082 1082 1082 1082 1082 1082 1066 1115 1036 908 955 955 943 943 931 919 919 876 968 919 919 876 919 908 897 908 943 908 897 876 919 865 876 886 865 0 836 0 0 799 782 766 766 758 782 750 758 750 735 735 728 728 728 721 0 0 1565 0 1565 1533 1599 1599 1635 1672 1635 1635 1635 1635 1672 1635 1711 1672 1711 1711 1711 1711 0 0 0 0 623 618 623 618 0 613 603 608 603 598 603 593 593 593 588 0 0 0 561 561 566 0 561 0 553 557 545 533 537 533 0 0 0 0 0
    0 0 0 0 0 0 0 0 0 0 0 0 0 0 0 0 0 0 0 0 0 0 0 0 0 0 0 0 0 0 0 0 0 0 0 0 0 0 0 0 0 0 0 0 0 0 0 0 0 0 0 0 0 0 0 0 0 0 0 0 0 0 0 0 0 0 0 0 0 4329 4329 4329 4906 4329 4599 4906 5256 6133 4329 4329 4329 5256 8177 0 0 0 0 0 0 0 0 0 0 0 0 0 0 0 0 0 0 0 0 0 0 8177 8177 8177 6690 5661 6133 6690 5256 5256 6133 4906 5256 4599 4906 4088 4329 4088 4329 4088 4329 3504 4088 3504 3873 3679 3504 3345 3199 3199 3199 2943 2830 2725 2299 2537 2230 2230 2230 2299 2230 2299 2230 2453 2164 2374 2453 1936 1599 1711 1839 1795 1936 1936 1936 0 0 2102 2299 1936 2102 1672 1388 1415 1415 1388 1415 1338 1471 1415 1338 1314 1247 0 0 0 0 1247 0 0 168 1338 1338 1338 1247 1247 1268 1187 1149 1149 1149 1149 1168 1149 1149 1115 1115 1132 1168 1082 1098 1082 1098 1082 1098 1082 1082 1066 1132 1022 908 955 955 943 943 931 919 908 876 968 919 919 876 919 908 908 908 943 908 897 865 919 865 876 886 865 0 845 0 0 799 782 766 766 758 774 750 758 750 735 735 728 728 728 721 0 0 1565 0 1565 1533 1565 1565 1635 1635 1635 1635 1635 1672 1711 1672 1795 1711 1752 1752 1711 1711 0 0 0 0 623 618 623 618 608 613 603 603 603 598 603 598 593 593 588 0 1989 0 0 0 0 0 0 0 0 574 0 0 537 533 0 0 0 0 0
    0 0 0 0 0 0 0 0 0 0 0 0 0 0 0 0 0 0 0 0 0 0 0 0 0 0 0 0 0 0 0 0 0 0 0 0 0 0 0 0 0 0 0 0 0 0 0 0 0 0 0 0 0 0 0 0 0 0 0 0 0 0 0 0 0 0 0 0 0 4329 4329 4329 4906 4329 4599 4906 5661 6690 5661 5661 5661 6690 0 0 0 0 0 0 0 0 0 0 0 0 0 0 0 0 0 0 0 0 0 0 8177 7359 7359 7359 6133 5256 5661 6133 4906 4906 6133 4599 4906 4329 4599 3873 4088 3873 4088 3873 4329 3679 4329 3679 3873 3679 3504 3345 3199 3199 3199 2943 2830 2830 2374 2628 2299 2230 2230 2299 2164 2230 2230 2453 2164 2299 2374 1887 1565 1672 1839 1795 1887 1936 1936 0 1936 2044 2164 1887 1989 1635 1415 1415 1388 1362 1362 1338 1471 1388 1314 1314 1247 0 0 0 0 1247 0 0 168 1338 1338 1362 1247 1268 1291 1187 1132 1115 1149 1149 1149 1149 1149 1132 1132 1149 1206 1098 1098 1082 1098 1098 1098 1082 1082 1066 1132 1022 908 955 943 943 943 931 919 897 876 968 919 919 876 919 908 908 919 0 0 0 865 919 865 876 876 865 0 845 0 0 799 782 766 766 758 774 750 758 750 735 735 728 728 728 721 0 0 0 0 1533 1501 1565 1533 1599 0 1635 1635 1672 1752 1752 1752 0 0 0 0 0 0 0 623 623 618 623 618 623 618 608 613 603 603 603 598 603 598 593 593 593 2102 1989 0 0 0 1752 1752 0 0 0 0 0 0 545 537 0 0 0 0 0
    0 0 0 0 0 0 0 0 0 0 0 0 0 0 0 0 0 0 0 0 0 0 0 0 0 0 0 0 0 0 0 0 0 0 0 0 0 0 0 0 0 0 0 0 0 0 0 0 0 0 0 0 0 0 0 0 0 0 0 0 0 0 0 0 0 0 0 0 0 4329 4329 4329 4906 4329 4599 5256 5661 7359 7359 0 0 0 0 0 0 0 0 0 0 0 0 0 0 0 0 0 0 0 0 0 0 0 0 0 0 8177 8177 8177 6690 5661 6133 6133 5661 5661 6133 4906 5256 4329 4906 4088 4088 4088 4088 3873 4329 3873 4329 3679 3873 3679 3504 3345 3345 3199 3199 2943 2943 2943 2453 2628 2299 2164 2230 2230 2164 2164 2230 2374 2102 2299 2453 1887 1533 1672 1839 1795 1887 0 0 0 0 2044 2164 1887 1936 1635 1388 1415 1362 1362 1388 1338 1443 1415 1338 1314 0 0 0 0 0 0 0 561 168 1314 1338 1362 1247 1268 1268 1168 1115 1098 1149 1149 1168 1168 1168 1149 1187 1187 1226 1115 1132 1082 1098 1098 1098 1082 1082 1066 1132 1022 908 955 943 943 943 931 919 897 886 968 919 919 876 919 908 908 919 0 0 0 865 931 865 876 876 876 845 845 0 0 799 774 774 766 758 774 750 758 750 735 0 728 728 728 721 0 0 0 0 1565 0 1565 1565 1635 0 0 0 0 0 0 0 0 0 0 639 634 629 623 629 623 623 623 618 623 618 608 613 603 603 603 598 603 598 593 593 0 2044 1936 1887 0 1711 1711 1752 1839 0 0 0 0 0 0 545 0 0 0 0 0
    0 0 0 0 0 0 0 0 0 0 0 0 0 0 0 0 0 0 0 0 0 0 0 0 0 0 0 0 0 0 0 0 0 0 0 0 0 0 0 0 0 0 0 0 0 0 0 0 0 0 0 0 0 0 0 0 0 0 0 0 0 0 0 0 0 0 0 0 0 4329 4599 4329 5256 4329 4599 5256 6133 0 0 0 0 0 0 0 0 0 0 0 0 0 0 0 0 0 0 0 0 0 0 0 0 0 0 0 0 8177 8177 8177 7359 5256 5661 5661 4906 5661 5661 4599 4906 4329 4906 4088 4329 4088 4088 4088 4329 3873 4329 3679 3679 3504 3345 3345 3199 3066 3066 2830 2943 2943 2453 2628 2299 2164 2230 2299 2164 2164 2230 2374 2164 2299 2537 1887 1565 1711 1839 1795 1936 0 0 0 0 2044 2164 1887 1936 1635 1388 1415 1362 1362 1388 1338 1471 1415 1338 1338 0 0 202 0 0 0 0 0 169 0 1314 1314 1247 1268 1247 1149 1115 1098 1149 1149 1168 1168 1168 1149 1187 1206 1226 1132 1149 1098 1098 1098 1098 1082 1082 1066 1132 1022 908 955 943 943 943 931 919 886 886 968 919 919 876 919 908 908 919 0 0 0 0 931 865 876 876 876 845 845 0 0 791 774 774 766 758 774 743 758 743 735 0 728 721 0 0 0 0 0 0 1599 1533 0 0 0 0 0 0 0 0 0 0 0 0 0 645 639 634 629 629 629 623 623 618 623 618 613 613 603 603 603 603 0 598 593 593 593 1989 1887 0 0 1672 1635 1752 0 0 0 0 0 0 0 553 0 0 0 0 0
    0 0 0 0 0 0 0 0 0 0 0 0 0 0 0 0 0 0 0 0 0 0 0 0 0 0 0 0 0 0 0 0 0 0 0 0 0 0 0 0 0 0 0 0 0 0 0 0 0 0 0 0 0 0 0 0 0 0 0 0 0 0 0 0 0 0 0 0 0 4599 4599 4599 5256 4329 4599 5661 6133 0 0 0 0 0 0 0 0 0 0 0 0 0 0 0 0 0 0 0 0 0 0 0 0 0 8177 0 8177 7359 7359 8177 8177 5661 6133 5661 4906 5661 5256 4906 4906 4329 4906 4088 4329 4329 4088 4088 4088 4088 4329 3679 3679 3504 3504 3345 3345 3199 0 2943 3066 3066 0 2628 2299 2164 2230 2299 2164 2164 2164 2374 2102 2299 2628 1839 1599 1711 1887 1795 1936 0 0 0 0 2044 2164 1887 1887 1635 1388 1415 1388 1388 1415 1362 1471 1415 1338 1338 0 202 202 0 0 0 0 169 169 0 1314 1314 1247 1268 1226 1168 1132 1115 1149 1132 1168 1168 1168 1149 1168 1187 1226 1132 1149 1082 1082 1098 1098 1082 1082 1066 1132 1036 919 955 955 943 943 931 919 886 897 968 919 919 876 919 908 908 919 0 0 0 85 931 876 876 886 886 845 845 0 0 791 774 774 766 766 766 743 750 0 0 0 0 0 0 0 0 454 0 1599 1635 1599 1672 0 0 0 0 0 0 0 0 0 0 0 0 645 639 634 634 634 629 623 629 623 629 623 618 618 603 603 603 603 0 598 588 593 593 0 1887 0 0 0 0 0 0 0 0 0 342 342 0 553 0 0 0 0 0
    0 0 0 0 0 0 0 0 0 0 0 0 0 0 0 0 0 0 0 0 0 0 0 0 0 0 0 0 0 0 0 0 0 0 0 0 0 0 0 0 0 0 0 0 0 0 0 0 0 0 0 0 0 0 0 0 0 0 0 0 0 0 0 0 0 0 0 0 0 4599 4599 4599 5256 4329 4599 5661 6133 0 0 0 0 0 0 0 0 0 0 0 0 0 0 0 0 0 0 0 0 0 8177 0 0 8177 8177 8177 7359 7359 7359 8177 8177 6133 6690 6133 5256 5661 5256 4906 4599 4329 4906 4088 4329 4088 4088 4088 4088 4088 4088 3504 3679 3679 3504 3504 3504 3345 3199 3066 3199 3199 0 2725 2374 2102 2230 2230 2164 2102 2164 2299 2102 2299 2628 1839 1711 1752 1887 1839 1936 1936 0 0 1936 2044 2102 1839 1887 1599 1388 1388 1388 1415 1415 1362 1471 1443 1362 1362 0 0 0 0 0 1247 0 0 0 1268 1268 1291 1226 1268 1226 1168 1132 1115 1149 1132 1149 1149 1149 1132 1168 1187 1226 1132 1132 1082 1066 1082 1082 1066 1066 1066 1115 1036 919 955 955 955 943 931 919 886 897 968 919 919 876 919 908 897 919 919 897 0 85 931 876 876 886 886 845 845 0 0 791 774 774 766 766 766 743 750 0 0 0 0 0 0 0 0 0 0 1635 1672 1635 1711 1672 0 0 0 0 0 0 0 0 0 0 0 645 645 629 634 629 629 623 629 623 634 629 623 618 608 0 603 0 0 0 588 593 593 0 1795 0 0 0 0 0 0 0 0 0 0 0 0 557 0 0 0 0 0
    0 0 0 0 0 0 0 0 0 0 0 0 0 0 0 0 0 0 0 0 0 0 0 0 0 0 0 0 0 0 0 0 0 0 0 0 0 0 0 0 0 0 0 0 0 0 0 0 0 0 0 0 0 0 0 0 0 0 0 0 0 0 0 0 0 0 0 0 0 4599 4599 4599 4906 4329 4599 5661 6690 0 0 0 0 0 0 0 0 0 0 0 0 0 0 0 0 0 0 0 0 0 8177 0 8177 8177 8177 0 8177 7359 7359 8177 8177 6690 7359 6133 5256 5661 5256 4906 4599 4329 4906 3873 4329 4088 4088 4088 3873 4088 4088 3504 3873 3679 3504 3679 3504 3504 3199 3199 3345 3199 0 2725 2299 2102 2230 2230 2102 2102 2102 2230 2044 2299 2628 1887 1839 1839 1936 1839 1936 1989 1936 1936 1989 1989 2044 1839 1839 1599 1415 1415 1388 1443 1415 1362 1501 1443 1362 1362 0 0 0 0 0 1247 1226 570 0 1268 1268 1291 1226 1268 1206 1168 1132 1115 1149 1132 1149 1149 1149 1149 1168 1187 1226 1149 1149 1066 1066 1066 1066 1051 1066 1051 1115 1022 919 955 955 955 955 931 919 876 908 968 919 919 876 919 908 897 919 919 897 0 85 931 0 886 897 908 845 845 826 808 799 774 782 766 766 766 750 750 743 735 0 0 0 0 0 0 0 1752 1672 1672 1711 1752 0 0 0 0 0 0 0 0 0 0 0 0 0 651 634 634 634 634 629 623 623 639 634 629 623 0 0 0 0 1936 0 588 593 0 1752 1752 1635 0 0 0 0 0 0 0 0 0 0 557 0 0 0 0 0 0
    0 0 0 0 0 0 0 0 0 0 0 0 0 0 0 0 0 0 0 0 0 0 0 0 0 0 0 0 0 0 0 0 0 0 0 0 0 0 0 0 0 0 0 0 0 0 0 0 0 0 0 0 0 0 0 0 0 0 0 0 0 0 0 0 0 0 0 0 0 4329 4599 4599 4906 4329 4599 6133 7359 0 0 0 0 0 0 0 0 0 0 0 0 0 0 0 0 0 0 0 0 0 8177 8177 8177 8177 8177 0 8177 8177 8177 8177 0 8177 0 6690 6133 5661 5256 5256 4906 4329 4906 4088 4329 3873 4088 4088 3873 4088 4088 3504 3873 3679 3504 3679 3504 3504 3066 3066 3345 3066 0 2628 2299 2044 2164 2230 2102 2044 2102 2230 2044 2164 2453 1839 1839 1839 1887 1839 1936 1989 1989 1936 1989 1989 1989 1795 1795 1599 1443 1415 1415 1443 1443 1388 1501 1443 1362 1362 0 0 0 0 0 1247 1226 570 1247 1268 1268 1291 1226 1268 1206 1149 1115 1098 1132 1115 1132 1132 1149 1149 1187 1206 1247 1168 1168 0 1051 1066 1051 1036 1051 1051 1098 1036 919 955 955 955 955 931 919 876 908 968 919 919 876 919 919 897 919 919 908 85 85 0 0 0 919 919 855 845 826 808 799 782 782 774 766 766 750 750 743 735 0 0 0 0 0 0 0 1752 1672 1711 1711 0 0 0 0 0 0 0 102 0 0 0 0 0 0 0 639 645 639 639 634 623 623 639 639 629 0 1795 1711 0 1887 0 1839 0 0 0 1672 1711 1599 0 0 0 0 0 0 0 192 0 549 557 0 0 0 0 0 0
    0 0 0 0 0 0 0 0 0 0 0 0 0 0 0 0 0 0 0 0 0 0 0 0 0 0 0 0 0 0 0 0 0 0 0 0 0 0 0 0 0 0 0 0 0 0 0 0 0 0 0 0 0 0 0 0 0 0 0 0 0 0 0 0 0 0 0 0 0 4329 4599 4329 4599 4599 4906 7359 8177 0 0 0 0 0 0 0 0 0 0 0 0 0 0 0 0 0 0 0 8177 8177 7359 8177 8177 8177 7359 0 0 0 0 0 0 0 0 8177 6690 6133 5256 5256 4906 4329 4599 3873 4088 3873 4088 4088 3679 4329 4329 3504 4088 3873 3679 3873 3873 3873 3199 3199 3504 3066 2725 2628 2299 2044 2164 2230 2102 2044 2044 2164 1989 2102 2374 1795 1839 1839 1887 1839 1936 1936 1936 1936 1989 1989 1936 1752 1752 1565 1471 1443 1443 1471 1443 1388 1501 1443 1388 1362 0 0 0 0 0 1247 1226 570 0 0 1268 1291 1226 1247 1206 1149 1098 1082 1115 1098 1115 1132 1168 0 0 0 1291 1226 0 0 1066 1066 1036 1036 1051 1036 1082 1022 908 955 955 955 955 931 919 876 919 968 919 919 876 919 919 897 931 919 919 85 85 85 85 0 0 931 855 845 826 808 808 782 782 774 766 766 750 750 743 735 728 0 0 0 0 0 0 1752 1672 1711 1752 0 0 0 0 0 0 0 102 0 0 0 0 0 0 669 639 651 639 645 639 629 623 645 645 639 0 1795 1711 0 0 0 0 0 0 0 1635 1672 1565 0 0 1443 0 0 0 0 0 0 545 549 0 0 0 0 0 0
    0 0 0 0 0 0 0 0 0 0 0 0 0 0 0 0 0 0 0 0 0 0 0 0 0 0 0 0 0 0 0 0 0 0 0 0 0 0 0 0 0 0 0 0 0 0 0 0 0 0 0 0 0 0 0 0 0 0 0 0 0 0 0 0 0 0 0 0 0 4329 4599 4329 4599 4906 5256 7359 0 0 0 0 0 0 0 0 0 0 0 0 0 0 0 0 0 0 0 0 0 0 8177 0 0 0 0 0 0 0 0 0 0 0 0 7359 6690 5661 4906 4906 4599 4088 4329 3679 4088 3679 3873 4088 3679 4088 4329 3504 4088 3873 3873 3873 3873 4088 3345 3345 3679 3199 2830 2725 2299 2044 2164 2230 2102 2044 2044 2164 1989 2102 2230 1795 1839 1839 1887 1839 1936 1936 1989 1936 2044 1989 1887 1711 1711 1565 1501 1443 1501 1533 1501 1415 1565 1471 1388 1362 0 0 0 0 0 1247 1226 570 0 0 1268 1291 1226 1247 1226 1149 1098 1082 1115 1098 1115 1115 0 0 0 0 1291 1247 0 0 1066 1066 1036 1022 1036 1036 1051 1022 897 955 955 943 943 919 919 876 919 968 931 931 876 919 919 897 931 919 919 85 85 85 85 0 0 943 855 845 826 817 808 791 791 774 766 766 750 743 743 728 0 0 0 0 0 0 0 1752 1672 1711 1752 0 0 0 0 0 0 0 0 0 0 0 0 675 663 669 645 651 639 645 639 629 629 657 657 0 0 1839 1752 0 1839 0 0 0 0 0 1635 1711 1565 0 1471 1471 0 0 0 0 0 0 541 541 0 0 0 0 0 0
    0 0 0 0 0 0 0 0 0 0 0 0 0 0 0 0 0 0 0 0 0 0 0 0 0 0 0 0 0 0 0 0 0 0 0 0 0 0 0 0 0 0 0 0 0 0 0 0 0 0 0 0 0 0 0 0 0 0 0 0 0 0 0 0 0 0 0 0 0 4329 4599 4329 4599 4906 5661 7359 8177 0 0 0 0 0 0 0 0 0 0 0 0 0 0 0 0 0 0 0 0 0 0 0 0 0 0 0 0 0 0 0 0 0 0 8177 7359 5661 4906 4906 4906 4329 4329 3873 4329 3873 4088 4329 3873 4088 4329 3679 4329 3873 3873 4088 4088 4329 3504 3504 3873 3199 2830 2725 2299 2044 2164 2230 2102 2044 2044 2164 1936 2044 2164 1795 1839 1887 1887 1839 1936 1936 1989 1936 2044 1989 1839 1711 1672 1565 1533 1443 1533 1565 1533 1415 1565 1471 1388 1362 0 0 0 0 0 1247 1226 570 0 1268 1291 1291 1226 1247 1226 1149 1098 1082 1098 1082 1115 1115 1168 1149 1206 1226 1291 1247 1268 0 1082 1066 1036 1036 1036 1036 1051 1022 908 955 943 943 943 919 919 876 919 968 931 931 876 919 919 886 931 931 919 85 85 85 0 0 0 931 845 845 836 817 817 791 799 782 774 766 750 743 735 728 0 0 0 0 0 0 0 1752 1672 1711 0 0 0 0 0 413 0 0 411 413 411 0 0 675 663 669 645 651 634 639 639 629 629 669 0 0 0 1887 1795 0 1887 0 0 0 0 0 0 1711 1565 0 1501 1471 1501 0 0 0 0 533 533 533 537 0 0 0 0 0
    0 0 0 0 0 0 0 0 0 0 0 0 0 0 0 0 0 0 0 0 0 0 0 0 0 0 0 0 0 0 0 0 0 0 0 0 0 0 0 0 0 0 0 0 0 0 0 0 0 0 0 0 0 0 0 0 0 0 0 0 0 0 0 0 0 0 0 0 0 4329 4599 4329 4329 4906 5661 7359 8177 0 0 0 0 0 0 0 0 0 0 0 0 0 0 0 0 0 0 0 0 0 0 0 0 0 0 0 0 0 0 0 0 0 0 7359 6133 5256 4599 4906 4599 4088 4329 3873 4329 3873 4329 4329 3873 4088 4329 3679 4599 4088 4088 4088 4088 4329 3504 3504 3873 3199 2830 2725 2374 2044 2230 2230 2102 2102 2044 2164 1936 2044 2102 1795 1839 1887 1887 1887 1936 1936 1989 1989 2044 1989 1795 1635 1635 1565 1565 1471 1565 1565 1533 1415 1599 1501 1388 1388 0 0 0 0 0 1247 1226 570 0 1268 1268 0 1206 1247 1226 1168 1115 1082 1098 1082 1115 1098 1168 1149 1187 1226 1268 1247 1247 0 1115 1066 1036 1036 1051 1036 1051 1022 919 955 955 943 943 919 919 876 919 968 931 931 876 919 919 886 931 931 919 0 85 85 0 897 943 908 845 855 845 826 826 799 799 782 774 0 750 0 0 0 0 0 0 0 0 0 0 1711 1672 1672 0 1752 0 0 1752 0 0 0 411 413 0 0 0 0 0 663 639 645 634 634 639 629 634 669 0 0 0 1936 0 0 1887 0 1887 0 0 0 0 0 0 0 1533 1501 0 0 242 245 0 529 529 525 533 0 0 0 0 0
    0 0 0 0 0 0 0 0 0 0 0 0 0 0 0 0 0 0 0 0 0 0 0 0 0 0 0 0 0 0 0 0 0 0 0 0 0 0 0 0 0 0 0 0 0 0 0 0 0 0 0 0 0 0 0 0 0 0 0 0 0 0 0 0 0 0 0 0 0 4329 4599 4329 4329 4906 5661 6690 7359 0 0 0 0 0 0 0 0 0 0 0 0 0 0 0 0 0 0 0 0 0 0 0 0 0 0 0 0 0 0 0 0 0 0 8177 6690 5256 4906 4906 4906 4088 4329 3873 4329 3873 4329 4329 3873 4088 4599 3679 4599 4088 4088 4088 4088 4599 3679 3679 4088 3199 2943 2830 2453 2102 2230 2299 2164 2102 2102 2164 1936 1989 2044 1795 1839 1887 1887 1887 1887 1936 1936 1936 1989 1887 1711 1565 1599 1501 1533 1471 1599 1565 1533 1415 1599 1471 1388 1362 0 0 0 0 0 1247 1226 570 0 1291 1268 0 1206 1247 1226 1187 1132 1098 1115 1098 1115 1115 1187 1168 0 0 1268 1268 1247 0 1115 1051 1036 1036 1036 1036 1036 1036 931 955 955 943 943 919 919 876 919 968 931 931 876 919 919 886 931 931 919 0 85 85 908 886 943 897 845 855 845 836 836 808 808 791 774 0 0 0 0 0 0 0 0 0 0 0 0 1672 1635 1672 1711 1711 1672 1795 1711 0 1711 0 411 0 0 0 0 0 0 663 639 639 629 629 634 629 629 663 0 0 0 0 1839 0 1887 0 0 0 0 0 0 0 0 0 1599 1565 0 0 243 245 0 529 529 518 525 0 0 0 0 0
    0 0 0 0 0 0 0 0 0 0 0 0 0 0 0 0 0 0 0 0 0 0 0 0 0 0 0 0 0 0 0 0 0 0 0 0 0 0 0 0 0 0 0 0 0 0 0 0 0 0 0 0 0 0 0 0 0 0 0 0 0 0 0 0 0 0 0 0 0 4329 4599 4599 4599 5256 6133 6690 8177 0 0 0 0 0 0 0 0 8177 0 0 0 0 0 0 0 0 0 0 0 0 0 0 0 0 0 0 0 0 0 0 0 0 0 0 7359 5256 4906 4599 4906 4088 4088 3679 4329 3873 4329 4088 3873 4088 4599 3679 4599 4088 4088 3873 3873 4088 3504 3504 3873 3199 2830 2830 2453 2164 2299 2374 2230 2164 2102 2230 1936 1989 1989 1795 1795 1887 1839 1839 1839 1887 1887 1887 1887 1887 1672 1533 1565 1533 1565 1501 1599 1565 1533 1415 1599 1471 0 1362 0 0 0 0 0 1247 1226 566 0 1291 1291 0 1206 1247 1247 1187 1132 1115 1115 1115 1132 1132 0 0 0 0 0 0 0 0 1132 1051 1036 1036 1036 1036 1036 1022 931 955 955 943 943 919 908 886 908 968 931 931 876 919 919 886 931 931 919 0 85 85 897 876 931 876 0 855 845 836 845 808 808 791 774 0 0 0 0 0 0 0 0 0 0 0 0 1672 1599 1635 1672 1672 1635 1752 1672 1752 1711 1752 0 0 0 0 0 0 0 657 639 639 629 629 634 629 629 651 0 0 0 0 1839 0 1887 0 0 0 0 0 0 0 0 0 1635 1599 1599 0 244 0 0 0 529 518 525 0 0 0 0 0
    0 0 0 0 0 0 0 0 0 0 0 0 0 0 0 0 0 0 0 0 0 0 0 0 0 0 0 0 0 0 0 0 0 0 0 0 0 0 0 0 0 0 0 0 0 0 0 0 0 0 0 0 0 0 0 0 0 0 0 0 0 0 0 0 0 0 0 0 0 4329 4599 4329 4599 5256 6133 6690 8177 0 0 0 0 0 8177 7359 7359 7359 7359 8177 0 0 0 0 0 0 0 0 0 0 0 0 0 0 0 0 0 0 0 0 0 0 0 0 7359 5256 4906 4329 4906 3873 4088 3679 4329 3873 4329 4088 4088 4088 4599 3679 4599 3873 3873 3679 3679 3873 3345 3345 3679 3066 2725 2830 2453 2230 2374 2374 2299 2230 2164 2299 1936 1989 1936 1795 1711 1839 1795 1795 1795 1839 1839 1839 1839 1936 1711 1565 1599 1533 1565 1501 1599 1565 1533 1415 1599 1471 0 1338 0 0 0 0 0 0 0 566 0 0 1291 0 1206 1268 1247 1206 1132 1149 1115 1132 1132 0 193 192 192 0 0 0 0 0 1168 1066 1036 1036 1036 1036 1036 1022 931 955 943 943 943 919 919 886 908 968 931 931 876 919 919 886 931 931 908 0 84 85 886 876 0 0 418 0 0 845 855 817 817 791 774 0 0 0 0 0 0 0 0 0 0 0 0 1635 1565 1599 1635 1635 1599 1752 1635 1752 1672 1752 1752 0 0 0 657 0 0 657 639 645 629 629 634 623 623 645 645 0 0 0 1795 0 0 0 0 0 0 0 0 0 0 0 1635 1599 1635 0 0 0 0 0 529 518 525 0 0 0 0 0
    0 0 0 0 0 0 0 0 0 0 0 0 0 0 0 0 0 0 0 0 0 0 0 0 0 0 0 0 0 0 0 0 0 0 0 0 0 0 0 0 0 0 0 0 0 0 0 0 0 0 0 0 0 0 0 0 0 0 0 0 0 0 0 0 0 0 0 0 0 4088 4599 4088 4329 4906 6133 6133 7359 8177 8177 8177 7359 7359 6690 6133 6133 6133 6690 8177 8177 0 0 0 0 0 0 0 0 0 0 0 0 0 0 0 0 0 0 0 0 0 0 0 8177 5256 4906 4329 4599 3873 3873 3679 4088 3873 4329 4088 4088 4088 4329 3679 4599 3873 3679 3504 3679 3679 3199 3199 3504 2943 2628 2725 2453 2299 2374 2453 2374 2230 2164 2374 1936 1936 1887 1795 1635 1795 1752 1752 1752 1795 1795 0 1795 1936 1711 1565 1599 1565 1565 1501 1599 1565 1533 1388 1565 1443 0 1338 0 0 0 0 0 0 0 566 0 0 1291 0 1206 1268 1268 0 0 0 1132 1149 1149 0 193 192 0 0 0 0 0 0 1149 1066 1051 1036 1051 1036 1036 1022 931 955 943 931 943 919 908 897 908 968 931 931 876 919 931 886 931 931 897 0 0 0 876 865 418 418 418 0 0 0 845 817 817 791 774 0 0 0 0 0 0 0 0 0 0 0 0 1599 1533 1599 1599 1599 1599 0 1635 1752 1672 1752 1752 0 0 0 0 0 0 651 639 645 629 629 634 623 623 639 645 0 0 0 1752 0 0 362 362 0 0 0 0 0 0 0 0 1635 1635 0 0 0 0 0 529 514 521 0 0 0 0 0
    0 0 0 0 0 0 0 0 0 0 0 0 0 0 0 0 0 0 0 0 0 0 0 0 0 0 0 0 0 0 0 0 0 0 0 0 0 0 0 0 0 0 0 0 0 0 0 0 0 0 0 0 0 0 0 0 0 0 0 0 0 0 0 0 0 0 0 0 0 4088 4329 4088 4329 4599 5661 5256 6690 7359 6133 6690 6133 6133 6133 5661 5661 6133 5661 7359 7359 8177 0 0 0 0 0 0 0 0 0 0 0 0 0 0 0 0 0 0 0 0 0 0 6690 4906 4599 4088 4329 3679 3873 3679 4088 3873 4088 3873 3873 3873 4329 3679 4329 3679 3504 3345 3504 3504 3199 3066 3345 2943 2537 2725 2453 2374 2453 2453 2453 2299 2230 2453 1936 1936 1936 1839 1635 1795 1752 1752 1752 1752 1752 0 0 1936 1711 1533 1599 1533 1565 1501 1599 1565 1533 1388 1565 1443 0 1338 0 0 0 0 0 1247 0 566 0 0 0 0 1206 1291 1291 0 0 0 0 0 1168 193 193 193 0 0 0 0 0 0 1115 1051 1036 1036 1051 1051 1036 1036 943 955 943 931 943 919 908 897 908 968 931 931 876 919 931 886 931 919 886 0 0 0 865 0 415 413 413 0 0 0 845 817 817 791 774 0 0 0 0 0 0 0 0 0 0 0 0 1599 1533 1599 1599 1599 1565 0 0 0 1672 1711 1711 0 0 0 0 0 0 645 634 645 629 629 634 623 623 639 639 0 0 0 1752 0 0 360 360 0 0 0 0 0 0 0 0 1635 1635 0 0 0 0 0 529 511 521 0 0 0 0 0
    0 0 0 0 0 0 0 0 0 0 0 0 0 0 0 0 0 0 0 0 0 0 0 0 0 0 0 0 0 0 0 0 0 0 0 0 0 0 0 0 0 0 0 0 0 0 0 0 0 0 0 0 0 0 0 0 0 0 0 0 0 0 0 0 0 0 0 0 0 3873 4088 3873 4088 4329 5256 4906 5661 6133 5661 5661 5256 5661 6133 5256 5661 5661 5661 6690 7359 8177 0 0 0 0 0 0 0 0 0 0 0 0 0 0 0 0 0 0 0 0 0 0 6133 4599 4599 3873 4329 3679 3873 3679 3873 3873 4088 3679 3873 3679 3873 3504 4088 3504 3345 3199 3199 3199 3066 2943 3066 2830 2453 2725 2537 2453 2453 2537 2453 2374 2230 2453 1936 1989 1936 1887 1672 1795 1795 1795 1752 1795 0 0 0 1887 1711 1533 1599 1533 1533 1501 1599 1599 1565 1388 1565 1443 0 1362 0 0 1247 0 0 1226 74 566 1247 1291 0 0 1206 0 0 0 0 0 0 0 1187 194 0 0 0 0 0 0 1168 0 1098 1051 1036 1036 1051 1051 1036 1036 955 955 943 943 943 919 908 908 908 968 943 943 876 919 931 886 931 919 886 0 0 876 855 0 413 411 411 0 0 0 845 817 817 799 782 0 0 0 0 0 0 0 0 0 0 0 0 1635 1565 1635 1565 1565 1565 153 0 0 0 0 0 0 657 645 651 0 645 645 634 639 634 629 634 623 623 634 639 623 0 133 0 0 0 359 360 566 574 0 0 0 0 0 0 0 1672 0 0 0 0 0 533 511 521 0 0 0 0 0
    0 0 0 0 0 0 0 0 0 0 0 0 0 0 0 0 0 0 0 0 0 0 0 0 0 0 0 0 0 0 0 0 0 0 0 0 0 0 0 0 0 0 0 0 0 0 0 0 0 0 0 0 0 0 0 0 0 0 0 0 0 0 0 0 0 0 0 0 0 3679 4088 3873 3873 4088 5256 4906 5256 5661 5256 5256 4906 5256 5661 5256 5256 5661 5661 6133 6690 7359 8177 8177 0 0 0 0 0 0 0 0 0 0 0 0 0 0 0 0 0 0 0 0 6133 4599 4599 3873 4088 3679 3679 3679 3873 3873 3873 3679 3679 3679 3873 3504 3873 3345 3199 3066 3199 3066 2943 2830 2943 2830 2374 2725 2537 2537 2537 2537 2537 2374 2230 2537 1887 1989 1989 1936 1711 1795 1795 1795 1752 1752 0 0 0 0 1672 1533 1599 1533 1565 1501 1635 1635 1599 1415 1599 1471 0 1362 1291 1268 1247 0 0 1226 0 566 1247 1291 0 0 1206 0 0 0 0 0 0 0 0 0 0 0 0 0 0 0 1098 1051 1082 1051 1036 1036 1051 1051 1051 1036 955 955 955 943 943 919 908 908 908 968 931 931 865 919 931 886 919 908 876 0 0 876 845 0 413 411 411 0 0 0 845 826 826 799 0 0 0 0 0 0 0 0 0 0 0 0 0 1672 1599 1635 1565 1565 1533 153 153 0 669 681 0 675 663 651 651 657 645 639 634 639 634 629 634 623 623 634 634 623 0 133 0 1752 1752 0 0 570 574 0 0 256 254 254 253 0 0 0 0 0 0 0 533 514 525 0 0 0 0 0
    0 0 0 0 0 0 0 0 0 0 0 0 0 0 0 0 0 0 0 0 0 0 0 0 0 0 0 0 0 0 0 0 0 0 0 0 0 0 0 0 0 0 0 0 0 0 0 0 0 0 0 0 0 0 0 0 0 0 0 0 0 0 0 0 0 0 0 0 0 3504 3873 3679 3873 4088 4906 4599 4906 5256 4599 4599 4599 4906 5256 4906 4599 5256 4906 5661 6133 6690 8177 8177 0 0 0 0 0 0 0 0 0 0 0 0 0 0 0 0 0 0 0 0 5256 4599 4599 3873 4088 3504 3679 3504 3679 3679 3873 3504 3679 3504 3679 3504 3679 3345 3199 2943 3066 2943 2830 2725 2943 2725 2374 2725 2537 2537 2537 2537 2537 2374 2230 2537 1936 2044 2044 1936 1711 1795 1752 1752 1752 1711 1635 0 0 0 1635 1565 1599 1565 1565 1533 1672 1672 1635 1443 1599 1471 212 1362 1291 1268 1247 0 0 1226 0 566 1226 1291 0 0 1206 0 0 0 0 0 0 0 0 0 0 0 0 0 0 0 1082 0 1082 1051 1051 1036 1066 1051 1051 1036 955 955 955 943 943 919 908 908 908 968 931 931 865 919 931 886 919 908 886 865 865 876 845 0 413 408 408 836 0 0 836 826 826 799 0 0 0 0 0 0 0 0 0 0 0 0 0 1711 1599 1635 1565 1501 0 153 0 681 669 681 0 675 663 651 657 657 645 639 634 639 634 634 634 623 623 629 634 623 623 0 0 1752 1711 0 0 570 574 0 0 257 254 255 254 252 0 250 0 0 0 549 537 518 529 0 0 0 0 0
    0 0 0 0 0 0 0 0 0 0 0 0 0 0 0 0 0 0 0 0 0 0 0 0 0 0 0 0 0 0 0 0 0 0 0 0 0 0 0 0 0 0 0 0 0 0 0 0 0 0 0 0 0 0 0 0 0 0 0 0 0 0 0 0 0 0 0 0 0 3504 3679 3679 3873 4088 5256 4906 5256 5256 5256 4906 4906 4906 5661 5256 4906 5661 5256 6133 6690 7359 0 8177 0 0 0 0 0 0 0 0 0 0 0 0 0 0 0 0 0 0 0 0 5256 4599 4599 3873 4088 3504 3679 3504 3679 3679 3679 3345 3504 3504 3679 3345 3504 3199 3066 2943 2943 2830 2725 2628 2830 2725 2299 2725 2537 2537 2537 2537 2537 2374 2230 2537 1989 2102 2102 1936 1711 1795 1752 1752 1711 1711 1635 0 0 0 1599 1565 1599 1599 1599 1565 1672 1672 1635 1471 1599 1471 0 1362 1291 1268 1247 1314 0 1226 0 566 1226 1291 0 0 1206 0 0 0 0 0 0 194 0 0 0 0 0 0 0 0 1082 1051 1082 1051 1051 1051 1066 1051 1051 1051 955 968 955 943 943 908 908 908 908 968 931 931 865 919 931 886 919 897 886 876 876 876 845 0 0 0 0 836 826 826 826 826 817 799 0 0 0 0 0 0 0 0 728 0 0 0 0 1711 1635 1635 1565 1501 0 0 0 681 675 681 0 675 663 657 657 651 639 639 634 639 629 629 629 623 623 629 629 623 618 0 0 0 0 0 588 570 574 566 570 0 0 256 254 252 252 0 0 0 557 553 541 525 537 0 0 0 0 0
    0 0 0 0 0 0 0 0 0 0 0 0 0 0 0 0 0 0 0 0 0 0 0 0 0 0 0 0 0 0 0 0 0 0 0 0 0 0 0 0 0 0 0 0 0 0 0 0 0 0 0 0 0 0 0 0 0 0 0 0 0 0 0 0 0 0 0 0 0 3504 3679 3679 3873 4088 5661 4906 5661 5661 5661 5256 5256 5256 6133 5661 5661 6133 6133 7359 7359 8177 0 0 0 0 0 0 0 0 0 0 0 0 0 0 0 0 0 0 0 0 0 0 5256 4599 4329 3873 3873 3679 3679 3679 3679 3679 3679 3345 3504 3504 3504 3345 3504 3199 2943 2830 2830 2725 2628 2537 2725 2537 2230 2628 2537 2537 2537 2537 2453 2299 2299 2537 1989 2102 2102 1936 1711 1795 1752 1711 1711 1711 1635 0 0 0 1565 1599 1599 1599 1599 1565 1711 1711 1672 1501 1599 1471 0 1362 1291 1268 1247 0 0 1226 0 566 1226 1291 0 0 1206 0 0 0 0 0 0 195 0 0 1187 1132 1187 0 0 1206 1066 1066 1082 1066 1051 1051 1082 1066 1066 1051 955 955 955 943 943 908 908 908 908 955 931 931 865 919 931 886 919 897 886 876 876 886 845 845 0 0 0 826 826 826 826 826 817 799 782 0 0 0 0 743 735 735 735 0 0 0 0 1752 1635 1635 1565 0 0 0 0 681 675 675 657 669 657 651 645 645 639 634 634 634 629 629 629 623 623 623 629 618 618 0 0 0 0 593 593 574 574 566 570 0 0 0 0 252 0 0 0 0 557 557 541 529 541 0 0 0 0 0
    0 0 0 0 0 0 0 0 0 0 0 0 0 0 0 0 0 0 0 0 0 0 0 0 0 0 0 0 0 0 0 0 0 0 0 0 0 0 0 0 0 0 0 0 0 0 0 0 0 0 0 0 0 0 0 0 0 0 0 0 0 0 0 0 0 0 0 0 0 3345 3679 3679 3873 4088 5661 5256 6133 6133 6133 5661 5661 6133 6133 6133 6133 6690 6690 8177 8177 0 0 0 0 0 0 0 0 0 0 0 0 0 0 0 0 0 0 0 0 0 0 0 5661 4906 4599 4088 3873 3679 3679 3679 3873 3679 3679 3345 3504 3504 3504 3504 3504 3345 2943 2830 2943 2725 2628 2628 2725 2537 2230 2628 2537 2537 2537 2453 2374 2299 2299 2537 1989 2102 2102 1936 1795 1795 1752 1752 1752 1711 0 1471 0 1711 1501 1599 1599 1599 1635 1565 1711 1711 1672 1533 1599 1471 209 1362 0 1268 1247 0 0 1226 0 566 1226 1291 0 0 1206 0 0 0 0 0 0 196 0 0 1187 1132 1168 1082 0 1149 1066 1066 1082 1066 1051 1051 1082 1066 1066 1051 943 955 955 943 943 919 908 908 908 968 931 931 865 919 931 886 919 897 886 876 876 886 845 845 0 817 817 826 826 826 826 0 817 799 782 782 774 0 0 743 735 743 735 743 0 0 0 0 1635 1635 1565 0 0 0 669 681 675 669 657 663 651 645 645 639 634 634 634 629 629 629 623 623 623 623 629 618 618 613 0 0 598 593 593 574 574 566 574 0 0 0 0 0 0 0 566 557 557 553 541 533 545 0 0 0 0 0</data></depth>
</opencv_storage>
