<?xml version="1.0"?>
<opencv_storage>
<gps_time_stamp>290296</gps_time_stamp>
<gps_x>-1.2371368408203125e+001</gps_x>
<gps_y>1.1129256248474121e+001</gps_y>
<gps_z>-2.2240607738494873e+000</gps_z>
<image_time_stamp>281157</image_time_stamp>
<depth type_id="opencv-matrix">
  <rows>89</rows>
  <cols>320</cols>
  <dt>s</dt>
  <data>
    0 0 0 0 0 0 0 0 0 0 0 0 0 0 0 0 0 0 0 0 0 0 0 0 0 0 0 0 0 0 0 0 0 0 0 0 0 0 0 0 0 0 0 0 0 0 0 0 0 0 0 0 0 0 0 0 0 0 0 0 0 0 0 0 0 0 0 0 0 1187 1149 1051 1051 0 0 0 0 0 1206 0 1206 1149 1149 1132 1098 1082 1051 1051 1051 1066 1115 1082 1098 1115 1115 1115 1132 1168 1132 1098 1132 1132 1149 1115 1098 1082 1082 1082 1082 1036 1036 1098 1115 1115 1226 1247 1268 1247 1226 1291 1291 1291 0 1226 1149 1149 1206 1291 1149 1098 1132 1098 1036 1008 1022 1036 1008 1008 994 0 0 1051 1051 1098 1168 0 0 0 0 0 0 0 0 0 1082 1036 1022 1008 994 1008 994 981 981 981 981 0 0 0 0 0 0 1314 0 1362 1415 1388 1443 1415 1443 0 0 0 0 0 1206 1168 1187 1206 1187 1168 1149 1187 1132 1115 1066 1051 1036 1036 943 981 968 955 1022 1036 1022 1051 1051 1066 1082 1082 1132 1051 1066 1149 1051 1051 0 0 0 0 0 931 981 968 994 1008 1022 1066 1066 1051 1022 994 994 981 981 968 968 968 955 981 943 981 1008 1008 1008 1008 1022 1008 968 1008 994 981 981 994 981 981 994 1149 1022 845 766 876 876 865 836 845 855 845 845 855 817 799 799 817 774 0 728 721 714 721 714 714 714 714 721 714 714 721 700 700 675 629 608 613 566 603 588 598 598 598 598 598 593 603 579 598 561 566 553 553 549 541 511 518 497 0 0 0 0 0
    0 0 0 0 0 0 0 0 0 0 0 0 0 0 0 0 0 0 0 0 0 0 0 0 0 0 0 0 0 0 0 0 0 0 0 0 0 0 0 0 0 0 0 0 0 0 0 0 0 0 0 0 0 0 0 0 0 0 0 0 0 0 0 0 0 0 0 0 0 1149 1132 1051 1051 1051 1066 1082 1132 1206 1168 0 1187 1132 1132 1132 1115 1098 1066 1051 1051 1066 1098 1066 1098 1098 1115 1115 1115 1149 1115 1098 1132 1132 1149 1115 1098 1082 1082 1082 1082 1036 1036 1098 1115 1115 1226 1247 1268 1226 1226 1291 1291 1291 0 1226 1149 1149 1206 1268 1132 1098 1115 1098 1036 1008 1008 1022 968 908 955 919 968 1008 1008 0 1187 0 0 0 0 0 0 0 0 0 1082 0 0 981 955 981 968 968 968 968 968 0 0 0 0 0 0 1338 1362 1388 1443 1443 1443 1415 0 0 0 0 0 0 0 0 0 1226 1206 0 1132 1149 1115 1098 1051 1036 1022 1022 931 968 968 968 1036 1036 1036 1051 1066 1082 1098 1098 1149 1066 1082 1168 1051 0 0 0 0 0 981 955 1022 1008 1036 1036 1051 1098 1082 1066 1036 1008 1008 981 968 968 955 955 943 968 919 943 981 981 981 981 994 994 968 1008 994 981 981 994 981 981 994 1247 1036 0 0 876 865 855 836 845 845 845 845 855 817 808 799 817 774 0 728 721 714 721 714 714 714 714 721 707 707 714 694 694 675 639 613 613 574 603 588 598 598 598 593 598 588 603 579 598 566 566 557 553 549 541 511 518 497 0 0 0 0 0
    0 0 0 0 0 0 0 0 0 0 0 0 0 0 0 0 0 0 0 0 0 0 0 0 0 0 0 0 0 0 0 0 0 0 0 0 0 0 0 0 0 0 0 0 0 0 0 0 0 0 0 0 0 0 0 0 0 0 0 0 0 0 0 0 0 0 0 0 0 1036 1066 1022 1036 1051 1066 1066 1098 1168 1132 0 1149 1115 1115 1132 1115 1115 1066 1066 1051 1082 1082 1066 1098 1098 1098 1115 1132 1149 1098 1115 1149 1115 1149 1098 1082 1082 1082 1082 1066 1036 1036 1115 1115 1115 1226 1247 1268 1226 1226 1291 1291 1291 0 1226 1149 1149 1206 1268 1149 1115 1132 1132 1082 1051 1051 1036 968 931 955 955 955 955 943 0 0 0 0 0 0 0 0 0 0 0 0 0 0 931 897 931 919 919 919 931 931 955 943 0 0 0 0 0 0 0 1501 1533 1533 1443 0 0 0 0 0 0 260 0 0 0 0 0 0 0 1115 1098 1066 1036 1036 1036 931 981 968 968 1036 1036 1036 1066 1066 1098 1098 1098 1149 1082 1082 1187 1066 1115 0 0 0 0 0 943 1022 1022 1036 1036 1051 1082 1082 1066 1051 1036 1022 994 981 981 968 968 955 968 908 943 968 981 968 968 981 981 968 994 994 981 968 981 968 981 981 0 0 782 728 865 865 855 836 845 845 845 845 855 817 808 808 817 774 0 728 721 714 721 714 714 714 714 714 700 700 707 681 687 663 639 0 613 574 603 588 593 593 593 593 593 593 603 584 598 561 566 553 553 549 541 511 514 497 0 0 0 0 0
    0 0 0 0 0 0 0 0 0 0 0 0 0 0 0 0 0 0 0 0 0 0 0 0 0 0 0 0 0 0 0 0 0 0 0 0 0 0 0 0 0 0 0 0 0 0 0 0 0 0 0 0 0 0 0 0 0 0 0 0 0 0 0 0 0 0 0 0 0 0 0 968 0 0 0 0 0 0 0 0 0 1082 1098 1115 1098 1098 1066 1051 1051 1098 1082 1066 1098 1082 1098 1115 1115 1149 1098 1115 1132 1115 1132 1098 1082 1082 1082 1098 1051 1036 1051 1115 1132 1132 1226 1247 1247 1226 1226 1291 1268 1268 0 1226 1168 1149 1226 1247 1149 1149 1168 1168 1098 1066 1051 1036 968 943 968 943 931 931 897 0 0 0 0 0 0 1711 0 0 0 0 0 0 0 886 876 897 886 886 886 886 897 919 908 0 0 0 0 0 0 0 0 0 0 0 0 593 588 0 0 0 260 0 0 0 0 0 115 114 0 0 0 0 0 1036 0 981 981 981 1036 1036 1036 1066 1066 1098 1115 1115 1168 1098 1098 1187 1066 1149 1226 1168 0 0 0 994 1036 1022 1036 1022 1036 1051 1051 1051 1051 1036 1036 1008 1008 994 994 981 968 968 908 955 968 968 968 968 981 968 968 994 981 981 968 981 968 981 981 0 0 735 721 865 855 855 826 845 845 845 845 865 817 808 808 826 782 721 728 721 721 721 721 714 714 714 714 700 694 694 675 681 663 639 0 613 570 598 588 593 593 593 593 593 593 603 584 598 561 566 553 549 549 541 511 514 497 0 0 0 0 0
    0 0 0 0 0 0 0 0 0 0 0 0 0 0 0 0 0 0 0 0 0 0 0 0 0 0 0 0 0 0 0 0 0 0 0 0 0 0 0 0 0 0 0 0 0 0 0 0 0 0 0 0 0 0 0 0 0 0 0 0 0 0 0 0 0 0 0 0 0 0 0 1008 1051 0 1082 0 0 0 0 0 0 0 0 0 0 1115 1066 1051 1051 1082 1066 1066 1098 1082 1098 1098 1115 1115 1098 1115 1132 1115 1132 1098 1082 1098 1098 1098 1051 1051 1051 1132 1149 1132 1206 1247 1247 1226 1226 1268 1268 1268 0 1226 1168 1149 1226 1247 1187 1168 1206 1206 1168 1082 1051 1036 981 981 968 0 931 908 876 0 0 0 0 0 0 1672 0 1599 0 0 0 0 0 0 0 0 897 876 876 886 897 908 908 931 0 0 0 0 0 0 0 0 0 0 0 584 579 0 0 0 0 0 0 0 0 0 0 114 0 0 0 0 0 1036 0 981 981 981 1036 1036 1036 1066 1066 1098 1115 1115 1168 1098 1098 1187 1066 1168 1226 0 0 0 1036 1008 1036 1036 1036 1022 1036 1051 1051 1051 1051 1051 1036 1022 1036 1022 1008 994 981 981 931 968 981 981 981 968 968 968 968 994 981 981 968 981 968 981 981 0 0 707 707 855 855 845 826 845 845 845 855 876 826 817 817 836 791 721 735 721 728 728 721 721 714 714 714 700 0 687 663 669 657 639 0 613 570 598 584 593 593 593 593 593 593 603 584 0 566 566 553 549 549 541 514 511 500 0 0 0 0 0
    0 0 0 0 0 0 0 0 0 0 0 0 0 0 0 0 0 0 0 0 0 0 0 0 0 0 0 0 0 0 0 0 0 0 0 0 0 0 0 0 0 0 0 0 0 0 0 0 0 0 0 0 0 0 0 0 0 0 0 0 0 0 0 0 0 0 0 0 0 0 0 0 0 0 0 0 0 0 0 0 0 0 0 0 0 0 1066 1051 1066 1098 1082 1082 1098 1082 1098 1098 1115 1115 1098 1115 1115 1115 1132 1098 1098 1098 1115 1115 1066 1051 1051 1149 1149 1132 1206 1247 1247 1206 1206 1268 1247 1247 0 1226 1168 1168 1247 1268 0 1206 1226 1226 1187 1098 1082 1066 0 0 0 0 0 886 0 0 0 0 0 0 0 0 1565 1501 0 0 0 0 0 0 0 0 0 0 897 886 908 908 931 0 943 0 0 0 0 0 0 0 0 1533 0 0 0 0 0 0 0 0 267 0 0 0 0 114 0 0 0 0 0 1051 0 981 981 968 1036 1036 1036 1066 1066 1115 1115 1115 1168 1098 1098 1187 1082 1168 1187 1098 1115 0 1036 1008 1036 1036 1036 1022 1036 1036 1051 1051 1051 1051 1036 1036 1036 1036 1036 1022 994 994 955 981 994 994 981 968 968 955 968 994 981 981 968 994 968 981 0 0 0 694 700 855 855 845 826 845 845 845 845 865 817 808 808 826 782 721 728 728 728 728 728 721 721 714 0 700 0 675 657 663 651 639 0 613 574 598 584 593 588 593 593 593 588 603 584 0 566 570 553 553 549 541 518 514 500 0 0 0 0 0
    0 0 0 0 0 0 0 0 0 0 0 0 0 0 0 0 0 0 0 0 0 0 0 0 0 0 0 0 0 0 0 0 0 0 0 0 0 0 0 0 0 0 0 0 0 0 0 0 0 0 0 0 0 0 0 0 0 0 0 0 0 0 0 0 0 0 0 0 0 0 0 0 0 0 0 0 0 0 0 0 0 224 0 222 0 0 0 1051 1066 1082 1082 1082 1098 1082 1098 1115 1115 1098 1098 1115 1115 1115 1132 1098 1098 1115 1132 1132 1066 1066 1051 1149 1149 1132 1187 1226 1226 1206 1206 1268 1247 1247 0 1226 1187 1168 1247 1268 0 1206 1206 1206 1168 1098 1082 1066 1022 0 0 0 0 0 0 0 0 0 0 0 0 1599 1471 1471 0 0 0 0 0 0 0 0 0 0 0 0 908 931 943 0 0 0 0 0 0 0 0 0 0 0 0 0 0 0 0 0 0 268 270 269 0 0 0 0 0 0 0 0 0 0 0 981 981 968 1036 1036 1022 1066 1066 1115 1115 1115 1168 1098 1098 1187 1082 1149 1149 1082 1082 1036 1036 1008 1036 1051 1022 1022 1022 1022 1036 1036 1036 1036 1022 1036 1036 1036 1051 1036 1022 1022 981 994 1008 994 994 968 968 955 981 1008 994 994 981 1008 981 994 0 0 0 694 700 845 845 845 826 845 855 845 845 876 817 808 817 826 774 721 728 728 735 735 728 721 721 714 0 694 0 675 657 663 657 639 0 0 570 598 584 593 588 588 588 593 588 598 584 0 566 570 553 549 549 541 521 514 500 0 0 0 0 0
    0 0 0 0 0 0 0 0 0 0 0 0 0 0 0 0 0 0 0 0 0 0 0 0 0 0 0 0 0 0 0 0 0 0 0 0 0 0 0 0 0 0 0 0 0 0 0 0 0 0 0 0 0 0 0 0 0 0 0 0 0 0 0 0 0 0 0 0 0 0 1082 0 0 0 0 0 0 0 0 0 227 225 225 222 0 0 0 1036 1051 1066 1066 1082 1082 1082 1098 1115 1115 1098 1115 1115 1115 1132 1115 1098 1098 1115 1149 1132 1066 1082 1051 1149 1149 1132 1187 1226 1226 1187 1187 1247 1226 1226 1247 1226 1187 1168 1247 1247 1149 1149 1149 1168 1098 1051 1036 1008 968 0 0 0 0 0 0 0 0 0 0 0 0 1501 1415 1443 0 0 0 0 0 0 0 0 0 0 0 0 908 931 955 0 968 0 0 0 0 0 0 0 0 0 0 0 0 0 0 0 0 271 272 270 0 0 0 0 0 0 0 0 0 1051 0 981 981 968 1036 1036 1022 1051 1066 1115 1115 1115 1168 1098 1098 1187 1066 1168 0 0 0 0 1008 1008 1036 1051 1022 1022 1022 1022 1022 1036 1036 1022 1022 1036 1036 1051 1051 1051 1036 1008 981 981 981 981 981 968 955 955 981 1008 994 1008 994 1008 994 994 0 808 728 694 700 845 845 836 817 845 855 845 845 876 826 817 826 855 766 721 721 721 728 728 721 721 721 721 0 700 0 675 657 663 657 639 0 613 570 598 584 593 588 588 588 593 588 598 584 0 561 566 549 549 545 541 0 514 500 0 0 0 0 0
    0 0 0 0 0 0 0 0 0 0 0 0 0 0 0 0 0 0 0 0 0 0 0 0 0 0 0 0 0 0 0 0 0 0 0 0 0 0 0 0 0 0 0 0 0 0 0 0 0 0 0 0 0 0 0 0 0 0 0 0 0 0 0 0 0 0 0 0 0 1066 1115 1051 1051 0 0 0 373 0 0 0 0 223 224 219 0 0 0 1036 1051 1051 1066 1082 1082 1082 1098 1115 1098 1098 1115 1132 1115 1132 1115 1098 1098 1115 1149 1115 1051 1082 1051 1149 1149 1132 1168 1206 1206 1187 1187 1247 1226 1226 1247 1226 1187 1168 1247 1247 1132 1149 1168 1187 1098 1051 1036 1008 943 0 0 0 0 0 0 0 0 0 0 0 0 1471 0 0 0 0 422 0 0 0 0 0 0 0 0 0 0 0 0 0 968 0 0 0 0 0 0 0 0 0 0 0 0 0 0 0 0 0 0 0 0 0 0 0 0 0 0 0 81 1051 0 981 981 981 1036 1036 1022 1051 1051 1098 1115 1115 1187 1098 1098 1187 1082 1187 0 0 0 0 994 1008 1051 1066 1022 1022 1022 1022 1022 1036 1036 1022 1022 1036 1036 1051 1066 1066 1051 1022 994 994 994 994 994 968 955 955 981 994 994 994 981 994 981 994 0 782 707 694 694 836 836 836 817 845 845 845 845 865 826 817 817 865 743 714 714 721 728 728 721 721 714 721 0 700 0 675 657 663 657 645 0 613 574 603 588 593 588 588 588 593 588 598 584 0 0 570 549 545 541 541 518 514 500 0 0 0 0 0
    0 0 0 0 0 0 0 0 0 0 0 0 0 0 0 0 0 0 0 0 0 0 0 0 0 0 0 0 0 0 0 0 0 0 0 0 0 0 0 0 0 0 0 0 0 0 0 0 0 0 0 0 0 0 0 0 0 0 0 0 0 0 0 0 0 0 0 0 0 0 1149 1066 0 0 0 373 379 373 379 0 0 0 0 219 0 0 0 1022 1036 1036 1051 1066 1066 1082 1098 1098 1098 1082 1115 1115 1098 1132 1098 1082 1082 1115 1149 1115 1051 1082 1051 1149 1149 1115 1149 1187 1187 1168 1168 1247 1206 1206 1226 1226 1187 1187 1268 1247 1149 1149 1168 0 1115 1051 1051 1008 968 0 0 0 0 0 0 0 0 0 0 0 0 0 0 0 420 422 427 435 0 0 0 0 0 0 0 0 897 0 0 0 955 943 0 0 0 0 0 0 0 0 0 0 0 0 0 0 0 0 0 0 0 104 103 0 0 0 0 0 0 1051 0 981 981 981 1022 1022 1022 1051 1051 1098 1115 1115 1187 1098 1115 1187 1098 1206 0 0 0 0 1036 1051 1098 1082 1036 1022 1022 1022 1022 1022 1036 1022 1008 1051 1066 1082 1115 1098 1098 1051 1036 1036 1022 1022 1022 981 955 968 981 981 981 981 981 994 981 0 0 766 700 687 694 836 845 836 817 845 845 845 845 886 826 817 826 0 721 707 707 721 721 721 714 714 714 721 0 0 0 0 645 657 651 645 0 0 579 603 588 593 588 588 588 593 588 598 584 0 561 570 549 545 541 537 518 514 500 0 0 0 0 0
    0 0 0 0 0 0 0 0 0 0 0 0 0 0 0 0 0 0 0 0 0 0 0 0 0 0 0 0 0 0 0 0 0 0 0 0 0 0 0 0 0 0 0 0 0 0 0 0 0 0 0 0 0 0 0 0 0 0 0 0 0 0 0 0 0 0 0 0 0 1098 1132 0 0 0 377 371 375 0 0 0 0 0 0 0 0 0 1022 1022 1036 1036 1066 1066 1066 1082 1098 1098 1082 1082 1115 1115 1098 1115 1082 1082 1082 1132 1149 1098 1051 1082 1051 1149 1132 1115 1132 1168 1168 1149 1168 1226 1206 1206 1226 1226 1187 1187 1268 1268 1115 1132 1149 0 1066 1036 1036 1008 994 0 0 0 0 0 0 0 0 0 0 0 0 0 0 0 0 0 435 443 443 0 0 0 0 0 0 0 0 0 0 0 968 955 0 0 0 0 0 0 0 0 0 0 0 0 0 0 0 0 0 0 0 0 103 0 0 0 0 0 0 1066 0 981 981 981 1022 1022 1022 1036 1036 1098 1098 1098 1168 1098 1098 1168 1115 1187 1187 1098 0 0 1066 1082 1132 1082 1036 1022 1008 1008 1008 1022 1022 1008 1008 1051 1082 1115 1149 1132 1115 1066 1066 1066 1051 1036 1036 981 955 968 981 981 981 981 968 981 994 0 0 766 700 687 694 836 845 836 817 845 845 855 855 897 836 826 826 0 714 707 707 714 721 721 714 714 714 721 0 0 0 0 645 645 645 634 0 0 574 598 588 593 588 588 593 593 588 598 584 0 561 570 549 545 541 537 521 514 504 0 0 0 0 0
    0 0 0 0 0 0 0 0 0 0 0 0 0 0 0 0 0 0 0 0 0 0 0 0 0 0 0 0 0 0 0 0 0 0 0 0 0 0 0 0 0 0 0 0 0 0 0 0 0 0 0 0 0 0 0 0 0 0 0 0 0 0 0 0 0 0 0 0 0 1082 1132 0 0 0 0 0 371 0 0 0 0 0 0 0 0 0 1022 1022 1036 1036 1066 1066 1066 1098 1098 1098 1082 1098 1115 1115 1098 1115 1082 1082 1082 1132 1149 1098 1066 1082 1051 1149 1149 1132 1132 1168 1168 1149 1168 1226 1206 1206 1226 1226 1206 1206 1268 1291 1115 1149 1187 0 1008 1008 1022 994 0 0 0 0 0 0 0 0 0 0 0 0 0 0 0 0 0 0 0 451 0 0 0 182 0 0 0 0 0 0 0 0 0 1051 0 0 0 0 0 0 0 0 0 0 0 0 0 0 0 0 0 0 0 0 0 0 0 0 0 0 0 1051 0 981 981 981 1022 1022 1022 1036 1036 1098 1098 1098 1168 1098 1098 1168 1115 1168 1187 0 0 0 0 1132 1187 1115 1051 1022 1008 1008 1022 1022 1022 1008 994 1051 1066 1082 1115 1115 1098 1082 1066 1082 1066 1066 1051 1008 968 981 981 968 968 981 968 981 994 0 0 758 694 681 694 826 836 836 808 845 845 845 855 897 836 826 826 0 714 707 707 714 721 721 721 721 721 721 721 0 0 0 651 645 645 634 0 608 574 598 588 593 588 593 593 593 588 598 584 0 566 570 545 0 541 537 521 514 504 0 0 0 0 0
    0 0 0 0 0 0 0 0 0 0 0 0 0 0 0 0 0 0 0 0 0 0 0 0 0 0 0 0 0 0 0 0 0 0 0 0 0 0 0 0 0 0 0 0 0 0 0 0 0 0 0 0 0 0 0 0 0 0 0 0 0 0 0 0 0 0 0 0 0 0 1149 0 0 0 385 375 375 0 210 0 0 0 0 0 0 0 1036 1022 1036 1036 1066 1066 1082 1098 1115 1115 1098 1098 1115 1115 1115 1115 1082 1082 1082 1132 1115 1082 1066 1066 1051 1149 1149 1115 1115 1149 1149 1132 1168 1226 1187 1187 1226 1247 1206 1206 1291 1291 1115 1149 1168 0 1008 994 1022 1008 1051 1098 0 0 0 0 0 0 0 0 1471 0 0 1338 0 0 0 0 0 0 0 0 0 0 0 0 0 0 0 0 0 0 0 1187 0 0 0 0 0 0 1268 1247 0 0 0 0 0 490 0 0 0 0 931 0 0 0 0 0 0 0 0 1051 908 981 981 981 1008 1008 1008 1022 1022 1082 1082 1082 1149 1082 1082 1115 1066 1082 1082 0 0 0 0 0 1187 1132 1066 1051 1036 1036 1036 1036 1022 1008 994 1051 1051 1066 1066 1082 1082 1066 1066 1066 1066 1066 1051 1008 981 981 981 968 968 968 968 968 994 0 0 750 694 681 687 826 836 836 808 845 845 845 855 897 845 836 826 0 0 0 707 714 721 721 721 721 721 728 721 0 0 0 651 645 645 634 0 608 574 598 588 593 588 593 593 593 588 598 584 598 566 574 545 545 541 533 518 514 504 0 0 0 0 0
    0 0 0 0 0 0 0 0 0 0 0 0 0 0 0 0 0 0 0 0 0 0 0 0 0 0 0 0 0 0 0 0 0 0 0 0 0 0 0 0 0 0 0 0 0 0 0 0 0 0 0 0 0 0 0 0 0 0 0 0 0 0 0 0 0 0 0 0 0 0 0 0 393 391 385 381 379 0 209 0 0 0 0 0 0 0 1036 1036 1036 1051 1066 1066 1082 1098 1115 1098 1098 1115 1132 1115 1132 1115 1082 1082 1098 1132 1082 1066 1066 1066 1051 1149 1149 1115 1115 1149 1149 1132 1168 1226 1187 1187 1226 1247 1226 1206 1291 1291 1082 1051 1098 0 994 981 994 1008 1051 1098 1115 0 0 0 0 0 0 0 1443 1388 1362 1338 0 0 0 0 0 0 0 279 277 0 276 0 0 0 0 0 0 0 0 0 0 0 0 0 0 0 1247 1226 0 0 0 0 0 0 0 490 0 0 0 0 0 102 0 0 0 0 0 1051 908 981 968 981 994 1008 1008 1008 1008 1066 1066 1066 1115 1051 1051 1066 1022 1036 1036 0 0 0 0 0 1115 1098 1051 1051 1036 1036 1036 1036 1022 1008 994 1036 1036 1051 1051 1051 1066 1051 1036 1051 1036 1036 1036 1008 994 994 994 981 981 981 968 981 994 994 865 766 700 694 707 826 836 836 808 845 845 845 845 897 845 836 826 0 0 700 707 714 721 721 721 721 721 728 721 0 0 0 657 651 651 639 0 613 579 603 588 593 588 593 593 593 588 598 584 593 570 574 545 541 541 529 514 511 504 0 0 0 0 0
    0 0 0 0 0 0 0 0 0 0 0 0 0 0 0 0 0 0 0 0 0 0 0 0 0 0 0 0 0 0 0 0 0 0 0 0 0 0 0 0 0 0 0 0 0 0 0 0 0 0 0 0 0 0 0 0 0 0 0 0 0 0 0 0 0 0 0 0 0 0 0 0 0 0 389 385 379 0 210 0 0 0 0 0 0 1036 1036 1022 1036 1051 1066 1066 1082 1098 1115 1098 1098 1132 1132 1115 1149 1115 1098 1098 1115 1132 1082 1082 1066 1082 1051 1149 1149 1115 1115 1149 1149 1132 1168 1226 1187 1187 1226 1247 1226 1226 1291 1291 1168 1082 1098 0 994 968 955 1008 1022 1066 1082 0 0 0 0 0 0 0 1415 1362 1338 0 0 0 0 0 0 0 0 0 0 0 276 0 0 0 0 0 0 0 0 0 0 579 0 0 0 0 1247 1226 0 0 0 0 0 0 0 0 0 0 955 0 0 0 0 0 0 0 0 1036 897 981 981 981 994 1008 1008 1008 994 1051 1036 1036 1082 1022 1022 1022 994 1008 1008 0 0 994 0 0 1066 1066 1022 1022 1022 1022 1022 1022 1008 994 981 1036 1022 1036 1036 1036 1051 1036 1022 1022 1008 1022 1022 994 1008 994 994 981 981 981 981 981 994 981 836 774 728 721 721 826 826 836 808 845 845 845 855 897 855 845 845 0 0 707 707 714 721 721 721 721 721 728 728 0 0 0 669 663 657 645 0 0 579 603 588 598 593 593 593 593 593 598 584 598 570 574 541 541 541 533 514 511 504 0 0 0 0 0
    0 0 0 0 0 0 0 0 0 0 0 0 0 0 0 0 0 0 0 0 0 0 0 0 0 0 0 0 0 0 0 0 0 0 0 0 0 0 0 0 0 0 0 0 0 0 0 0 0 0 0 0 0 0 0 0 0 0 0 0 0 0 0 0 0 0 0 0 0 0 0 0 0 0 0 0 0 0 0 0 0 0 0 0 0 1036 1036 1022 1036 1066 1082 1066 1098 1115 1115 1098 1115 1132 1132 1115 1149 1115 1098 1115 1132 1168 1098 1115 1115 1098 1066 1168 1168 1115 1115 1149 1149 1132 1168 1226 1187 1187 1226 1247 1247 1247 1291 1291 1187 1132 1115 0 994 968 931 1022 994 1051 0 0 0 0 0 0 0 0 1388 0 0 0 0 0 0 0 0 0 0 0 0 0 277 0 278 283 0 0 0 0 0 0 0 0 0 1338 1338 1338 1291 1268 1268 0 0 0 0 0 0 0 0 0 0 0 0 0 0 0 0 0 0 1036 897 981 981 981 981 994 994 994 994 1036 1022 1036 1036 1008 1008 1022 994 1022 1008 0 0 0 0 0 0 1036 1008 1008 1008 1008 1022 1008 1008 994 981 1022 1008 1008 1008 1008 1022 1008 1008 994 994 1008 994 981 994 994 994 981 981 981 981 981 994 0 817 743 721 721 728 817 826 826 808 845 845 845 855 886 855 845 845 0 0 707 0 714 714 721 721 721 721 728 728 743 0 0 681 669 663 651 0 0 579 603 588 598 593 593 593 593 593 598 588 598 574 579 545 541 541 533 518 511 504 0 0 0 0 0
    0 0 0 0 0 0 0 0 0 0 0 0 0 0 0 0 0 0 0 0 0 0 0 0 0 0 0 0 0 0 0 0 0 0 0 0 0 0 0 0 0 0 0 0 0 0 0 0 0 0 0 0 0 0 0 0 0 0 0 0 0 0 0 0 0 0 0 0 0 0 0 0 0 0 0 0 0 0 0 0 0 0 0 0 0 1051 1051 1036 1051 1082 1098 1082 1098 1132 1115 1098 1132 1149 1132 1115 1149 1115 1098 1132 1168 1168 1115 1132 1149 1115 1066 1168 1168 1132 1115 1149 1149 1132 1168 1226 1206 1206 1226 1268 1268 1247 0 1291 1187 1149 1115 0 0 994 943 0 0 0 0 0 0 0 0 0 0 0 0 0 0 0 0 0 521 529 0 0 0 0 0 0 277 0 0 0 0 0 0 0 0 1314 1362 1362 1388 1362 1338 1338 0 1291 0 0 0 0 0 0 454 0 0 0 0 0 0 0 0 0 0 0 152 0 886 968 981 981 981 994 994 994 981 1036 1022 1022 1022 1008 1008 1022 1022 1051 1036 1022 0 1008 0 0 0 1022 1008 1008 1022 1008 1008 1008 1008 981 981 994 994 981 981 968 994 994 994 994 994 1008 994 981 994 994 981 968 981 981 968 981 0 0 0 0 694 714 728 817 826 836 808 845 845 845 855 886 855 845 845 0 0 707 0 714 714 721 714 721 721 728 728 743 0 0 681 675 669 657 0 0 584 603 588 598 593 593 593 598 593 598 588 598 579 588 553 545 545 533 518 507 504 0 0 0 0 0
    0 0 0 0 0 0 0 0 0 0 0 0 0 0 0 0 0 0 0 0 0 0 0 0 0 0 0 0 0 0 0 0 0 0 0 0 0 0 0 0 0 0 0 0 0 0 0 0 0 0 0 0 0 0 0 0 0 0 0 0 0 0 0 0 0 0 0 0 0 0 0 0 0 0 0 0 0 0 0 0 0 0 0 0 1022 1051 1066 1036 1066 1082 1098 1082 1115 1132 1098 1098 1132 1149 1132 1115 1149 1115 1115 1132 1187 1187 1132 1149 1206 1132 1082 1187 1168 1132 1132 1149 1149 1132 1168 1226 1206 1206 1226 1268 1268 1268 0 1291 1226 1168 1115 0 0 0 0 0 0 0 0 0 0 0 0 0 0 0 0 0 1443 0 0 0 518 521 0 0 0 0 0 0 0 0 0 0 0 0 0 0 0 0 1388 1388 1388 1362 1338 0 0 0 0 0 0 0 0 462 448 0 0 0 0 0 0 0 0 0 0 0 152 0 876 968 981 994 981 994 994 994 994 1036 1022 1022 1008 1008 981 1022 1036 1051 1036 1022 1008 1022 0 0 0 1022 1008 1008 1022 1008 1022 1008 994 968 968 994 981 968 968 968 994 994 1008 1008 994 1008 1008 994 1008 1008 994 994 994 994 994 994 0 0 0 0 0 694 721 826 836 836 808 845 845 855 855 886 855 845 845 0 0 707 700 714 714 721 721 721 721 728 728 0 0 0 0 663 669 0 0 0 584 598 588 598 593 593 593 593 593 598 588 598 584 588 553 549 545 533 518 507 504 0 0 0 0 0
    0 0 0 0 0 0 0 0 0 0 0 0 0 0 0 0 0 0 0 0 0 0 0 0 0 0 0 0 0 0 0 0 0 0 0 0 0 0 0 0 0 0 0 0 0 0 0 0 0 0 0 0 0 0 0 0 0 0 0 0 0 0 0 0 0 0 0 0 0 0 0 0 1268 1168 0 0 0 0 0 0 0 0 0 0 1036 1082 1098 1051 1082 1098 1098 1098 1115 1115 1098 1098 1132 1149 1149 1115 1149 1115 1115 1149 1187 1149 1115 1132 1226 1115 1082 1187 1168 1132 1115 1149 1149 1132 1168 1226 1206 1206 1247 1268 1268 1268 0 1291 1226 1206 1187 0 0 1082 0 0 0 0 0 0 0 0 0 0 0 0 0 0 1443 1388 0 0 511 514 0 0 0 0 0 0 0 0 0 0 0 0 0 0 0 0 1443 1415 1443 1388 1362 1338 0 0 0 0 0 0 0 459 446 0 0 0 0 0 0 0 269 0 0 0 153 0 876 981 994 994 994 1008 1008 1008 994 1036 1008 1022 1008 1008 981 1008 1036 1036 1036 1008 1008 1008 0 0 0 0 994 994 1022 1008 1022 1008 1008 981 981 994 981 968 968 968 994 994 994 1008 1008 1008 1008 994 1008 994 994 994 994 1008 1008 1008 0 0 0 0 0 0 728 836 836 836 808 845 855 845 855 876 855 855 855 0 0 700 694 714 714 721 721 721 721 728 728 0 0 0 0 0 0 0 0 0 579 598 588 598 593 593 593 593 593 598 593 598 584 588 553 553 545 537 518 507 504 0 0 0 0 0
    0 0 0 0 0 0 0 0 0 0 0 0 0 0 0 0 0 0 0 0 0 0 0 0 0 0 0 0 0 0 0 0 0 0 0 0 0 0 0 0 0 0 0 0 0 0 0 0 0 0 0 0 0 0 0 0 0 0 0 0 0 0 0 0 0 0 0 0 0 1132 1187 1187 1226 1132 1115 1149 1132 1115 0 1132 0 0 0 1066 1066 1115 1115 1066 1098 1098 1115 1098 1132 1132 1098 1098 1149 1149 1149 1115 1132 1098 1115 1149 1187 1115 1082 1098 1226 1082 1066 1168 1168 1115 1115 1149 1149 1132 1168 1226 1206 1206 1247 1268 1268 1268 0 1291 1187 1187 1187 0 0 1115 0 0 0 0 0 0 0 0 0 0 0 0 0 0 0 0 0 0 0 0 0 0 0 0 0 0 0 0 0 0 0 0 0 0 0 0 1471 1471 1501 1415 1362 1338 0 1247 1226 0 0 0 0 459 0 0 0 0 0 0 0 0 270 0 0 0 0 0 886 994 1008 1008 1008 1008 1008 1008 1008 1051 1008 1008 1008 994 981 994 1008 1022 1022 994 994 994 0 0 0 981 994 981 1008 1008 1036 1008 1008 994 0 994 994 981 981 981 1008 1008 1008 1022 1022 1022 1008 1008 1008 994 994 994 994 1008 1008 1008 0 1051 0 0 0 0 0 826 826 836 808 855 855 845 855 876 855 855 855 0 0 700 694 714 714 721 721 721 721 728 728 0 0 0 0 669 675 0 0 112 579 598 588 593 593 593 593 598 593 603 593 603 588 593 561 557 549 537 521 507 504 0 0 0 0 0
    0 0 0 0 0 0 0 0 0 0 0 0 0 0 0 0 0 0 0 0 0 0 0 0 0 0 0 0 0 0 0 0 0 0 0 0 0 0 0 0 0 0 0 0 0 0 0 0 0 0 0 0 0 0 0 0 0 0 0 0 0 0 0 0 0 0 0 0 0 1115 1149 1149 1187 1115 1082 1132 1132 1115 1149 1132 1132 1082 0 1098 1115 1168 1115 1082 1115 1115 1132 1115 1149 1132 1098 1115 1149 1149 1149 1098 1132 1098 1098 1149 1168 1066 1051 1066 0 1036 1036 1168 1149 1115 1115 1149 1149 1149 1168 1247 1206 1206 1247 1291 1268 1268 1268 1291 1149 1149 1149 1168 0 0 0 0 0 0 0 0 0 0 0 0 0 0 0 0 0 0 0 0 0 0 0 0 0 0 0 0 0 0 0 0 0 0 0 0 0 0 0 0 1635 1501 1443 1338 0 0 1187 0 0 0 0 0 0 0 0 0 0 0 0 0 272 0 268 267 0 0 876 1022 1022 1022 1022 1022 1022 1022 1008 1051 1008 1008 994 994 968 981 994 1008 1008 994 981 981 1008 0 994 968 981 968 994 994 1008 1008 1008 0 0 0 1008 1022 1022 1036 1036 1036 1036 1051 1036 1022 1008 1008 1008 994 994 994 994 994 1008 0 0 1022 0 0 0 0 0 836 836 836 817 855 855 855 855 876 865 855 865 0 0 707 707 721 721 728 721 721 721 735 728 774 0 0 681 669 675 0 0 0 584 603 593 598 593 598 598 598 598 603 593 603 593 593 561 561 553 541 525 504 504 0 0 0 0 0
    0 0 0 0 0 0 0 0 0 0 0 0 0 0 0 0 0 0 0 0 0 0 0 0 0 0 0 0 0 0 0 0 0 0 0 0 0 0 0 0 0 0 0 0 0 0 0 0 0 0 0 0 0 0 0 0 0 0 0 0 0 0 0 0 0 0 0 0 0 1098 1132 1132 1168 1098 1066 1115 1115 1115 1132 1115 1098 1098 0 1132 1149 1187 1115 1098 1132 1115 1149 1132 1149 1115 1098 1115 1149 1149 1149 1098 1115 1098 1098 1168 1149 1036 1036 0 0 1008 1036 1149 1149 1098 1115 1149 1149 1149 1168 1247 1206 1206 1247 1268 1268 1247 1268 1268 1115 1115 1115 1115 0 0 0 0 0 0 0 0 0 0 0 0 0 0 0 0 0 0 0 0 0 0 0 0 0 0 0 0 0 0 0 0 0 0 0 0 0 210 0 0 0 1635 1635 1565 0 0 0 0 0 0 0 0 0 0 0 0 0 0 0 0 272 0 0 0 0 0 876 1036 1036 1036 1036 1036 1036 1036 1022 1051 1008 1008 1008 994 981 994 1008 0 1008 994 981 981 1008 1008 994 968 968 955 981 0 1008 994 994 0 0 0 1022 1036 1036 1051 1051 1051 1051 1051 1036 1022 1008 994 994 994 994 994 994 994 1008 0 0 1022 0 1082 0 0 0 836 836 836 817 855 855 855 855 876 865 865 865 0 0 714 707 721 721 728 728 728 728 735 735 782 0 0 0 0 0 687 0 0 593 608 593 598 598 598 598 598 598 603 593 603 588 593 561 557 549 545 525 507 504 0 0 0 0 0
    0 0 0 0 0 0 0 0 0 0 0 0 0 0 0 0 0 0 0 0 0 0 0 0 0 0 0 0 0 0 0 0 0 0 0 0 0 0 0 0 0 0 0 0 0 0 0 0 0 0 0 0 0 0 0 0 0 0 0 0 0 0 0 0 0 0 0 0 0 1115 1149 1149 1168 1098 1066 1115 1115 1115 1168 1115 1082 1082 1132 1132 1168 1187 1115 1115 1132 1115 1149 1149 1149 1115 1098 1132 1149 1149 1149 1098 1098 1098 1098 1149 1115 1022 1036 0 0 981 1022 1149 1132 1098 1115 1149 1168 1168 1168 1247 1206 1206 1247 1268 1247 1247 1247 1268 1115 1115 1132 1149 1226 0 0 0 0 0 0 0 0 0 0 0 0 0 0 0 0 0 0 0 0 0 0 0 0 0 0 0 0 0 0 0 0 0 0 0 0 210 0 210 0 1711 1635 0 0 0 0 0 0 0 0 0 0 290 289 0 0 0 0 0 0 0 0 0 0 0 886 1051 1051 1036 1036 1036 1051 1036 1036 1066 1008 1008 1008 1008 994 1008 1036 0 1022 1008 1008 994 1051 1022 1008 981 981 981 981 0 994 981 994 0 0 1022 1022 1036 1036 1051 1051 1051 1051 1051 1036 1036 1008 1008 994 994 994 994 994 1008 1008 0 1082 1051 1115 1098 1098 0 0 845 836 836 817 855 855 855 855 876 865 865 865 0 0 721 707 728 721 728 721 721 728 735 735 774 0 0 0 0 0 0 0 0 593 0 598 598 598 598 598 598 598 603 598 603 593 593 566 557 549 545 529 507 507 0 0 0 0 0
    0 0 0 0 0 0 0 0 0 0 0 0 0 0 0 0 0 0 0 0 0 0 0 0 0 0 0 0 0 0 0 0 0 0 0 0 0 0 0 0 0 0 0 0 0 0 0 0 0 0 0 0 0 0 0 0 0 0 0 0 0 0 0 0 0 0 0 0 0 1168 1206 1206 1226 1115 1098 1149 1149 1206 1206 1168 1149 1132 1132 1132 1168 1187 1098 1115 1132 1115 1149 1149 1149 1115 1098 1149 1149 1149 1149 1098 1098 1098 1098 1132 1066 1008 1022 0 0 968 1022 1132 1132 1098 1115 1149 1168 1168 1168 1247 1206 1206 1247 1268 1226 1226 1226 1268 0 1115 1168 1206 1314 0 0 0 0 0 0 0 0 0 0 0 0 0 0 0 0 0 0 0 0 0 0 0 0 0 0 0 0 0 0 0 302 0 0 0 0 210 210 209 0 0 0 0 0 0 0 0 0 0 0 0 0 294 293 0 0 0 0 0 0 0 0 0 0 0 908 1066 1066 1051 1051 1051 1051 1051 1036 1066 1008 1008 1008 1008 1008 1022 1036 0 1022 1022 1022 1008 1066 1051 1036 1008 1008 1008 1008 1008 1008 994 994 994 1008 1022 1022 1036 1036 1082 1082 1066 1082 1082 1051 1051 1022 1008 994 994 994 994 994 1008 1008 0 1066 1051 1115 1115 1098 0 0 845 845 845 826 855 865 855 855 876 865 865 865 0 0 721 707 721 721 721 721 721 721 728 728 774 721 0 0 0 0 0 122 0 593 0 598 603 598 598 598 598 598 603 598 0 593 593 574 561 553 549 529 507 511 0 0 0 0 0
    0 0 0 0 0 0 0 0 0 0 0 0 0 0 0 0 0 0 0 0 0 0 0 0 0 0 0 0 0 0 0 0 0 0 0 0 0 0 0 0 0 0 0 0 0 0 0 0 0 0 0 0 0 0 0 0 0 0 0 0 0 0 0 0 0 0 0 0 0 1187 1226 1206 1268 1132 1149 1206 1226 1291 0 0 1247 1226 1206 1168 1187 1187 1115 1132 1132 1115 1132 1149 1149 1115 1098 1149 1132 1132 1132 1082 1098 1098 1098 1115 1036 1008 1022 0 0 968 1022 1132 1132 1098 1115 1149 1187 1187 1168 1247 1206 1206 1247 1247 1206 1206 1206 0 0 1132 1206 0 0 1247 0 1149 0 0 0 1443 0 0 0 0 0 0 0 0 0 0 0 0 0 0 0 0 0 0 0 0 0 0 0 0 0 0 0 0 0 210 0 208 0 0 0 0 0 0 0 0 0 0 0 0 0 0 0 0 0 0 0 0 0 0 0 0 0 0 931 1082 1082 1051 1051 1051 1051 1051 1036 1082 1008 1008 1008 1008 1008 1022 1022 0 1022 1036 1036 1036 1098 1082 1066 1036 1051 1051 1036 1036 1036 1008 1022 1022 1036 1066 1051 1082 1066 1098 1115 1098 1098 1115 1066 1066 1036 1036 1008 994 994 1008 1008 1008 1008 0 0 1051 1082 1082 1066 0 0 855 845 845 826 865 865 855 865 876 865 865 865 0 0 714 700 721 714 721 721 721 721 728 728 0 0 0 0 0 0 0 0 0 598 0 598 603 598 598 598 598 598 0 598 0 598 593 579 566 553 549 533 511 514 0 0 0 0 0
    0 0 0 0 0 0 0 0 0 0 0 0 0 0 0 0 0 0 0 0 0 0 0 0 0 0 0 0 0 0 0 0 0 0 0 0 0 0 0 0 0 0 0 0 0 0 0 0 0 0 0 0 0 0 0 0 0 0 0 0 0 0 0 0 0 0 0 0 0 1149 1206 1168 1247 1132 1187 1247 1268 1338 0 0 0 1247 1187 1187 1206 1187 1115 1149 1132 1115 1132 1168 1149 1098 1115 1149 1132 1132 1132 1082 1098 1098 1115 1098 1036 1022 1036 0 0 994 1036 1132 1132 1098 1115 1149 1187 1187 1168 1247 1206 1206 1247 1247 1206 1187 1187 0 0 1187 1226 1187 1168 1051 1115 1115 0 0 0 1362 1388 0 1338 0 0 0 0 0 0 0 0 0 0 0 0 0 0 0 0 0 0 0 0 0 0 0 0 0 0 207 0 207 0 0 0 0 0 0 0 0 0 0 0 0 0 0 0 0 0 0 0 0 0 0 0 0 0 0 981 1098 1098 1051 1066 1066 1066 1066 1051 1082 1008 1008 1008 1008 1008 1022 1022 1036 1022 1036 1036 1022 1066 1066 1051 1051 1051 1066 1051 1051 1066 1051 1051 1066 1066 1098 1082 1098 1082 1115 1132 1115 1115 1115 1066 1066 1051 1051 1008 1008 1008 1008 1008 1022 1022 0 0 1051 1051 1082 1051 0 0 855 845 845 826 855 865 865 865 886 865 865 876 0 0 714 0 721 714 721 721 721 721 728 721 0 0 0 0 0 0 669 0 0 0 0 0 603 598 598 598 598 598 0 598 0 598 593 579 566 557 553 537 511 518 0 0 0 0 0
    0 0 0 0 0 0 0 0 0 0 0 0 0 0 0 0 0 0 0 0 0 0 0 0 0 0 0 0 0 0 0 0 0 0 0 0 0 0 0 0 0 0 0 0 0 0 0 0 0 0 0 0 0 0 0 0 0 0 0 0 0 0 0 0 0 0 0 0 0 1082 1187 1149 1268 1168 1247 1268 1268 1314 1314 1268 0 1247 1132 1168 1187 1168 1115 1168 1132 1132 1149 1168 1149 1115 1115 1168 1132 1149 1132 1082 1098 1098 1115 1082 1022 1022 0 0 0 994 1036 1115 1115 1098 1132 1168 1187 1187 1168 1247 1206 1187 1226 1247 1206 1187 1187 0 0 1247 1268 1206 1149 0 1098 1082 0 0 1314 1388 1415 1338 1291 0 0 0 5661 0 0 4906 0 0 0 0 0 0 0 192 193 0 0 0 0 0 0 0 0 0 0 0 0 207 0 0 0 0 0 0 0 0 0 0 0 359 355 357 0 0 0 0 0 0 0 0 0 0 0 1066 1022 1098 1098 1066 1066 1066 1066 1066 1051 1082 1008 1008 1008 1008 1008 1008 1022 1036 1022 1051 1051 1022 1051 1036 1022 1036 1022 1051 1036 1051 1066 1051 1066 1082 1082 1098 1082 1098 1082 1115 1115 1115 1115 1115 1051 1051 1036 1022 994 994 994 994 994 1008 0 0 0 0 1022 1051 0 0 0 855 845 845 826 855 865 865 865 876 876 865 876 0 0 728 0 721 714 721 721 721 721 728 721 0 0 0 0 0 663 663 0 0 598 0 0 603 603 598 598 598 603 0 598 0 593 593 574 561 553 553 537 514 518 0 0 0 0 0
    0 0 0 0 0 0 0 0 0 0 0 0 0 0 0 0 0 0 0 0 0 0 0 0 0 0 0 0 0 0 0 0 0 0 0 0 0 0 0 0 0 0 0 0 0 0 0 0 0 0 0 0 0 0 0 0 0 0 0 0 0 0 0 0 0 0 0 0 0 1115 1187 1187 0 0 1291 1314 1314 1362 1338 1291 1291 1247 1098 1168 1187 1149 1098 1168 1115 1132 1149 1168 1149 1115 1132 1168 1132 1149 1132 1098 1098 1115 1115 1066 1022 1022 0 0 0 981 1036 1115 1115 1098 1132 1168 1187 1187 1149 1226 1187 1187 1226 1226 1206 1187 1187 0 1226 1268 1291 1247 1149 1022 1132 1132 0 0 0 1226 0 1226 1226 0 0 0 0 0 0 4599 0 0 0 0 0 0 0 0 193 194 0 0 0 0 0 0 156 0 0 0 0 207 0 0 0 0 0 1132 0 1168 0 0 0 0 357 359 0 0 0 0 0 0 0 0 0 0 0 1098 1022 1098 1098 1066 1066 1066 1066 1066 1051 1082 1008 1008 1008 1008 1008 1008 1008 1036 1022 1036 1036 1022 1036 1051 1036 1036 1022 1036 1022 0 1036 1036 1051 1066 1066 1082 1082 1098 1098 1115 1115 1115 1115 1115 1036 1036 1022 1008 994 994 994 994 994 1022 0 0 0 0 0 0 0 0 0 855 845 836 826 865 865 865 865 876 876 876 876 0 0 735 0 721 714 721 728 721 721 728 721 766 0 0 0 657 657 663 634 0 603 0 0 603 603 603 603 603 603 0 598 0 593 588 570 557 553 549 537 514 521 0 0 0 0 0
    0 0 0 0 0 0 0 0 0 0 0 0 0 0 0 0 0 0 0 0 0 0 0 0 0 0 0 0 0 0 0 0 0 0 0 0 0 0 0 0 0 0 0 0 0 0 0 0 0 0 0 0 0 0 0 0 0 0 0 0 0 0 0 0 0 0 0 0 0 1132 1247 0 0 0 1471 1501 1443 1443 1388 1314 1291 1226 1098 1168 1168 1115 1098 1149 1115 0 0 0 3 1115 1149 1168 1132 1149 1132 1098 1115 1115 1132 1082 1051 1051 0 0 0 1008 1051 1132 1132 1098 1132 1168 1187 1187 1149 1226 1187 1187 1226 1226 1206 1168 1168 1268 1206 1247 1268 1226 1082 0 0 1149 0 0 0 0 0 0 0 0 0 0 0 0 0 0 0 0 0 0 0 0 0 0 0 0 0 190 0 0 0 0 157 0 0 0 0 209 206 0 0 0 0 0 1115 1149 1115 0 0 0 359 0 0 0 0 0 0 0 0 0 0 0 0 1082 1022 1098 1098 1066 1066 1066 1066 1066 1051 1082 1008 1022 1008 1008 1008 1008 1008 1036 1022 1036 1036 1036 1036 1051 1036 1051 1008 1036 1022 0 0 0 1051 1066 1066 1082 1082 1098 1098 1115 1115 1115 1098 1098 1036 1036 1008 1008 994 994 994 1008 1008 1051 0 0 0 0 0 0 0 0 0 845 836 836 826 855 865 865 865 876 865 865 876 0 0 728 0 721 714 721 721 721 721 728 721 0 0 0 0 657 657 663 629 634 608 613 0 603 603 603 603 603 603 0 603 0 598 588 566 557 549 549 537 514 521 0 0 0 0 0
    0 0 0 0 0 0 0 0 0 0 0 0 0 0 0 0 0 0 0 0 0 0 0 0 0 0 0 0 0 0 0 0 0 0 0 0 0 0 0 0 0 0 0 0 0 0 0 0 0 0 0 0 0 0 0 0 0 0 0 0 0 0 0 0 0 0 0 0 0 1206 0 0 0 1443 1501 1501 1415 1415 1338 1291 1247 1168 1082 1149 1132 1098 1098 1132 1098 1115 1132 1149 1098 1098 1132 1149 1115 1149 1115 1098 1115 1132 1149 1082 1066 1066 0 0 1066 1036 1051 1132 1132 1098 1149 1168 1187 1187 1149 1226 1187 1187 1226 1206 1187 1168 1149 1268 1206 1226 1206 1168 1098 1098 1149 1187 0 0 0 0 0 0 0 0 0 0 0 0 0 0 0 0 0 0 0 0 0 0 0 0 0 0 0 0 0 0 0 0 0 0 0 0 0 0 0 0 0 0 0 0 0 0 0 0 0 0 0 0 0 0 0 0 0 0 0 0 0 1082 1022 1098 1098 1066 1066 1066 1066 1066 1051 1082 1022 1022 1022 1008 1022 1022 1008 1036 1022 1022 1036 1036 1022 1022 1008 1036 1008 1022 1022 0 0 1036 1036 1066 1051 1066 1066 1082 1082 1082 1082 1098 1082 1066 1036 1022 1008 1008 1008 994 994 1008 1022 1082 1082 0 0 0 0 0 0 0 0 845 845 845 826 865 865 865 865 876 876 876 876 0 0 0 0 714 714 721 721 714 721 728 721 0 0 0 0 657 657 663 629 0 603 0 0 603 603 603 603 603 603 0 603 0 598 584 566 549 545 541 533 511 521 0 0 0 0 0
    0 0 0 0 0 0 0 0 0 0 0 0 0 0 0 0 0 0 0 0 0 0 0 0 0 0 0 0 0 0 0 0 0 0 0 0 0 0 0 0 0 0 0 0 0 0 0 0 0 0 0 0 0 0 0 0 0 0 0 0 0 0 0 0 0 0 0 0 0 1206 1291 1388 1443 1443 1501 1443 1415 1388 1314 1247 1187 1098 1066 1115 1098 1082 1082 1098 1082 1098 1115 1115 1082 1098 1132 1132 1115 1149 1115 1098 1115 1132 1149 1082 1082 1098 1098 0 1115 1066 1066 1149 1149 1115 1149 1168 1187 1187 1149 1226 1187 1187 1226 1206 1206 1168 1168 1291 1247 1247 1206 1206 1149 1168 1168 1187 0 1187 0 1226 0 0 1187 0 0 0 0 0 0 0 0 0 0 0 0 0 0 0 0 0 0 0 0 0 0 0 0 0 0 0 0 0 0 0 0 0 0 0 0 0 0 0 0 0 0 0 0 0 0 0 0 0 0 0 0 0 0 1082 1036 1098 1098 1066 1066 1066 1066 1066 1051 1098 1022 1022 1022 1008 1008 1022 1008 1022 1008 1008 1022 1022 1008 1008 968 968 955 981 994 0 0 994 994 1036 1036 1051 1066 1082 1082 1082 1098 1115 1098 1066 1051 1036 1022 1008 1022 1008 1008 1022 1051 1132 1115 1066 0 0 0 0 0 0 0 845 845 845 836 865 865 865 865 886 886 876 886 0 0 0 0 714 707 714 714 714 714 721 714 0 721 0 0 651 645 651 623 0 598 0 603 603 603 603 603 603 603 0 603 0 598 584 566 549 545 541 533 511 521 0 0 0 0 0
    0 0 0 0 0 0 0 0 0 0 0 0 0 0 0 0 0 0 0 0 0 0 0 0 0 0 0 0 0 0 0 0 0 0 0 0 0 0 0 0 0 0 0 0 0 0 0 0 0 0 0 0 0 0 0 0 0 0 0 0 0 0 0 0 0 0 0 0 0 1168 1187 1314 1415 1415 1443 1415 1388 1362 1291 1247 1187 1098 1082 1115 1082 1066 1082 1082 1066 1098 1098 1098 1066 1098 1115 1115 1115 1132 1115 1098 1115 1132 1132 1082 1082 1115 1149 0 1168 1082 1066 1149 1149 1115 1149 1149 1187 1187 1132 1226 1168 1187 1226 1206 1206 1187 1168 1291 1268 1268 1226 1206 1187 0 0 0 0 0 0 1206 0 0 0 0 0 0 0 0 0 0 0 0 0 0 0 0 0 0 0 0 0 0 0 0 0 0 0 0 0 0 0 0 0 0 0 0 0 0 0 0 0 0 0 0 0 0 0 0 0 385 0 0 0 0 0 0 0 1115 1036 1115 1115 1066 1066 1066 1082 1082 1066 1098 1022 1022 1022 1022 1022 1022 1022 1036 1036 1036 1036 1036 1008 994 943 897 897 897 943 0 0 981 981 1008 1051 1051 1098 1098 1115 1098 1132 1168 1132 1082 1066 1036 1022 1008 1022 1008 1008 1022 1066 1168 1149 0 0 0 0 0 0 0 845 845 845 855 836 865 865 876 876 886 897 897 897 897 758 728 0 714 707 714 714 714 714 721 714 0 714 0 0 634 639 639 623 0 598 0 603 603 603 603 603 603 603 0 603 0 598 579 566 545 545 541 533 511 521 0 0 0 0 0
    0 0 0 0 0 0 0 0 0 0 0 0 0 0 0 0 0 0 0 0 0 0 0 0 0 0 0 0 0 0 0 0 0 0 0 0 0 0 0 0 0 0 0 0 0 0 0 0 0 0 0 0 0 0 0 0 0 0 0 0 0 0 0 0 0 0 0 0 0 1149 1132 1206 1291 1314 1338 1338 1314 1291 1247 1226 1168 1115 1098 1115 1082 1066 1082 1082 1066 1098 1098 1082 1066 1098 1132 1115 1115 1132 1115 1115 1115 1132 1132 1082 1098 1132 1168 1149 1187 1098 1066 1149 1149 1115 1149 1149 1168 1187 1132 1206 1168 1187 1226 1206 1206 1168 1168 1268 1247 1268 1206 1168 1115 1115 0 0 0 0 0 0 0 0 0 0 0 0 0 0 0 0 1168 0 0 0 0 0 0 0 0 0 0 0 0 0 0 0 0 0 0 0 0 0 163 0 0 0 1098 1082 1115 0 0 0 0 0 0 0 0 0 0 0 0 0 0 0 0 0 0 1149 1036 1132 1115 1082 1082 1082 1082 1082 1066 1098 1022 1022 1036 1022 1022 1022 1022 1022 1036 1036 1036 1036 994 955 908 855 845 855 886 0 0 968 981 1022 1082 1066 1098 1098 1115 1098 1115 1149 1115 1066 1066 1022 1008 994 994 994 994 1008 1066 1149 1132 0 0 0 0 0 0 0 845 836 836 845 845 865 876 876 876 897 919 919 931 919 766 728 700 714 707 714 714 714 714 721 714 0 721 0 0 0 639 634 623 0 598 0 603 603 603 603 603 603 603 0 603 0 598 579 570 545 545 541 533 511 521 0 0 0 0 0
    0 0 0 0 0 0 0 0 0 0 0 0 0 0 0 0 0 0 0 0 0 0 0 0 0 0 0 0 0 0 0 0 0 0 0 0 0 0 0 0 0 0 0 0 0 0 0 0 0 0 0 0 0 0 0 0 0 0 0 0 0 0 0 0 0 0 0 0 0 1187 1168 1206 1247 1247 1268 1268 1268 1247 1226 1206 1115 1098 1098 1098 1066 1066 1082 1066 1066 1098 1082 1082 1082 1098 1132 1115 1132 1149 1115 1115 1132 1149 1115 1082 1098 1132 1149 1115 1168 1098 1066 1149 1149 1115 1149 1149 1168 1168 1132 1206 1168 1168 1206 1187 1206 1168 1168 1268 1226 1247 1168 1132 1115 1098 0 0 0 0 0 0 0 0 0 0 0 0 0 0 0 0 1115 0 0 0 0 0 0 0 264 0 0 0 0 0 0 0 0 0 0 165 0 0 0 0 0 1082 1098 1082 1115 0 0 0 0 0 0 0 0 0 0 0 0 0 0 0 0 0 0 1132 1036 1132 1115 1082 1082 1082 1082 1082 1066 1115 1022 1022 1051 1022 1022 1022 1022 1022 1022 1008 1022 994 968 908 886 845 826 0 0 0 0 943 968 1008 1066 1051 1098 1098 1098 1098 1115 1149 1115 1066 1051 1008 994 981 994 981 994 994 1051 1082 1098 1022 968 0 0 0 0 0 836 817 826 845 845 865 865 876 876 908 931 931 943 943 799 766 707 714 714 721 714 714 714 721 721 0 721 0 0 634 634 634 623 608 598 603 603 603 603 603 603 603 603 0 603 603 598 584 579 549 549 545 537 511 521 0 0 0 0 0
    0 0 0 0 0 0 0 0 0 0 0 0 0 0 0 0 0 0 0 0 0 0 0 0 0 0 0 0 0 0 0 0 0 0 0 0 0 0 0 0 0 0 0 0 0 0 0 0 0 0 0 0 0 0 0 0 0 0 0 0 0 0 0 0 0 0 0 0 0 1226 1206 1226 1247 1247 1268 1268 1247 1247 1226 1187 1098 1098 1115 1082 1066 1066 1082 1066 1066 1098 1082 1066 1082 1115 1115 1115 1132 1132 1115 1115 1132 1132 1098 1066 1082 1115 1115 1082 1149 1066 1066 1149 1149 1115 1149 1132 1168 1168 1132 1206 1149 1168 1206 1187 1187 1168 1149 1268 1226 1226 1149 1132 1149 1149 0 0 0 0 0 0 0 0 0 0 0 0 0 1082 1036 0 1098 0 0 0 0 0 0 0 0 0 0 0 0 0 0 0 0 0 0 0 0 0 0 0 0 0 1082 0 0 0 0 0 0 0 0 0 0 0 0 0 0 0 0 0 0 0 0 1098 1036 1132 1115 1082 1082 1082 1098 1098 1082 1115 1036 1036 1066 1036 1008 1022 1022 1022 1022 1008 1022 1008 981 931 908 855 817 0 0 0 855 865 865 919 1036 1051 1115 1098 1115 1132 1149 1187 1132 1066 1066 1008 994 981 981 981 994 994 1036 1022 1066 994 908 0 0 908 897 876 845 826 826 845 845 876 876 876 886 919 943 943 955 955 817 817 714 721 714 721 721 721 721 728 721 0 735 0 0 669 651 639 623 608 603 603 603 603 603 603 603 603 603 603 603 603 598 588 584 549 549 545 537 511 525 0 0 0 0 0
    0 0 0 0 0 0 0 0 0 0 0 0 0 0 0 0 0 0 0 0 0 0 0 0 0 0 0 0 0 0 0 0 0 0 0 0 0 0 0 0 0 0 0 0 0 0 0 0 0 0 0 0 0 0 0 0 0 0 0 0 0 0 0 0 0 0 0 0 0 1247 1226 1247 1268 1247 1247 1268 1268 1268 1247 1226 1115 1132 1149 1098 1082 1082 1082 1066 1066 1098 1066 1066 1082 1098 1115 1098 1115 1132 1115 1132 1132 1132 1082 1082 1098 1132 1115 1098 1098 1051 1051 1149 1149 1115 1149 1132 1168 1168 1115 1187 1149 1168 1206 1168 1187 1149 1149 1247 1226 1226 1149 1149 1187 1187 0 0 0 0 0 0 0 0 0 0 0 0 0 1098 0 0 1115 0 0 0 0 0 0 0 1268 0 1291 1226 0 0 0 0 0 0 0 0 0 1066 0 0 0 0 1066 0 0 0 0 0 0 0 0 0 0 0 0 0 0 0 0 0 0 0 0 1082 1022 1132 1132 1082 1082 1098 1098 1098 1082 1132 1051 1051 1082 1051 1022 1022 1036 1022 1036 1022 1036 1022 1008 955 943 855 808 0 0 0 0 0 0 0 0 1082 1149 1132 1149 1149 1187 1206 1149 1066 1066 1008 1008 981 981 981 981 994 1008 994 1008 919 865 855 865 886 886 865 845 836 836 855 855 876 876 886 897 931 955 968 968 968 845 845 728 728 721 728 721 721 721 728 728 0 750 0 0 0 669 651 629 613 603 603 603 598 603 603 603 603 603 603 603 603 603 593 593 566 561 553 541 511 525 0 0 0 0 0
    0 0 0 0 0 0 0 0 0 0 0 0 0 0 0 0 0 0 0 0 0 0 0 0 0 0 0 0 0 0 0 0 0 0 0 0 0 0 0 0 0 0 0 0 0 0 0 0 0 0 0 0 0 0 0 0 0 0 0 0 0 0 0 0 0 0 0 0 0 1291 1268 1291 1291 1268 1268 1268 1291 1268 1268 1226 1115 1168 1187 1115 1098 1098 1082 1066 1082 1098 1066 1066 1082 1115 1098 1115 1115 1115 1115 1132 1132 1132 1082 1098 1098 1132 1098 1098 1082 1066 1051 1149 1149 1115 1149 1132 1149 1168 1115 1187 1149 1149 1187 1168 1187 1149 1149 1247 1247 1247 1187 1168 1247 0 0 0 0 0 0 0 0 0 0 0 0 0 0 0 0 0 1115 0 0 0 0 0 0 0 1268 0 1291 1206 0 0 0 1082 0 0 0 0 0 1051 1036 0 0 0 0 0 0 0 0 0 109 0 0 0 0 0 0 0 0 0 0 0 0 0 0 1082 1036 1115 1115 1082 1082 1098 1098 1098 1098 1149 1051 1051 1098 1082 1036 1036 1051 1036 1036 1036 1051 1051 1036 981 943 845 799 0 0 0 0 0 0 0 1268 1082 1149 1132 1132 1149 1187 1206 1132 1066 1066 1022 1008 981 981 981 981 994 1008 981 955 897 865 865 865 876 886 876 855 845 845 865 865 886 886 886 908 931 968 968 981 968 886 855 750 750 728 735 721 721 721 735 728 0 774 845 750 721 0 675 634 613 608 598 603 598 603 598 603 598 603 603 603 603 608 598 598 579 570 557 541 511 525 0 0 0 0 0
    0 0 0 0 0 0 0 0 0 0 0 0 0 0 0 0 0 0 0 0 0 0 0 0 0 0 0 0 0 0 0 0 0 0 0 0 0 0 0 0 0 0 0 0 0 0 0 0 0 0 0 0 0 0 0 0 0 0 0 0 0 0 0 0 0 0 0 0 0 1314 1291 1291 1314 1291 1247 1247 1247 1247 1247 1187 1098 1168 1168 1115 1098 1115 1082 1082 1082 1098 1066 1066 1098 1115 1115 1115 1115 1115 1132 1149 1149 1132 1082 1082 1098 1115 1066 1066 1066 1066 1051 1132 1132 1115 1149 1132 1149 1168 1115 1168 1149 1149 1187 1149 1168 1149 1149 1247 1268 1291 1247 1226 1291 0 0 0 0 0 0 0 968 0 0 0 0 0 0 0 0 0 1168 0 0 0 0 0 0 0 1247 0 1268 1187 1247 0 0 1066 0 0 981 0 0 0 994 0 943 955 0 0 0 0 0 0 109 0 0 0 0 0 0 0 0 0 0 0 0 0 0 1115 1036 1132 1132 1082 1098 1115 1115 1115 1098 1168 1066 1066 1098 1082 1051 1051 1066 1051 1051 1066 1066 1066 1051 1022 0 0 791 0 0 0 0 0 908 0 1149 1082 1132 1115 1098 1132 1187 1206 1115 1051 1051 1022 1008 981 981 968 981 981 1008 968 931 886 855 865 865 876 876 876 855 845 855 876 876 886 886 897 919 943 968 981 994 981 943 865 782 774 743 750 735 735 735 750 743 0 799 855 799 758 721 700 663 629 613 603 603 598 603 598 598 598 603 598 603 603 608 593 598 570 566 553 541 511 525 0 0 0 0 0
    0 0 0 0 0 0 0 0 0 0 0 0 0 0 0 0 0 0 0 0 0 0 0 0 0 0 0 0 0 0 0 0 0 0 0 0 0 0 0 0 0 0 0 0 0 0 0 0 0 0 0 0 0 0 0 0 0 0 0 0 0 0 0 0 0 0 0 0 0 1291 1268 1268 1268 1247 1226 1247 1247 1247 1247 1187 1132 1187 1187 1115 1115 1115 1082 1082 1098 1098 1066 1082 1115 1132 1115 1132 1115 1115 1149 1168 1149 1132 1098 1098 1098 1115 1066 1051 1066 1051 1051 1115 1132 1098 1149 1132 1149 1149 1115 1168 1132 1132 1168 1132 1168 1149 1149 1247 1268 1314 1291 1247 1314 1291 1247 1226 0 0 0 981 968 0 0 0 0 0 0 1226 0 0 1226 0 0 0 0 0 0 0 1226 0 0 1168 1206 0 0 1066 0 0 955 0 0 0 0 0 855 886 0 968 943 0 0 0 108 0 0 0 0 0 0 0 0 0 0 0 0 0 0 1132 1036 1149 1149 1098 1098 1115 1115 1115 1115 1168 1066 1066 1115 1098 1051 1051 1066 1066 1051 1066 1066 1066 1066 0 0 0 0 0 0 0 0 0 943 968 1082 1082 1132 1115 1115 1149 1206 1206 1098 1051 1036 1008 994 981 981 968 968 981 994 955 919 865 845 855 855 865 865 865 855 855 855 876 886 886 886 897 931 943 968 981 994 981 943 886 817 808 782 782 774 766 774 791 774 845 817 845 826 791 735 700 675 639 618 0 603 598 603 598 598 598 598 598 603 598 603 593 598 579 574 570 545 518 525 0 0 0 0 0
    0 0 0 0 0 0 0 0 0 0 0 0 0 0 0 0 0 0 0 0 0 0 0 0 0 0 0 0 0 0 0 0 0 0 0 0 0 0 0 0 0 0 0 0 0 0 0 0 0 0 0 0 0 0 0 0 0 0 0 0 0 0 0 0 0 0 0 0 0 1291 1268 1268 1268 1247 1226 1247 1268 1291 1291 1226 1187 1206 1187 1132 1132 1115 1098 1082 1115 1098 1082 1098 1132 1132 1132 1132 1115 1115 1149 1168 1149 1115 1098 1115 1098 1115 1051 1051 1051 1051 1051 1115 1115 1098 1132 1132 1149 1149 1115 1168 1132 1132 1168 1115 1149 1132 1132 1226 1247 1247 1247 1187 1268 1226 1226 1168 0 0 994 981 0 0 0 0 0 0 0 1268 0 0 0 0 0 0 0 0 0 0 0 0 0 0 0 0 0 0 0 0 968 0 799 0 0 0 826 836 826 919 908 0 0 0 0 0 0 229 227 0 0 0 0 0 0 86 86 0 0 1132 1036 1132 1132 1098 1098 1115 1115 1132 1115 1168 1082 1082 1132 1098 1051 1051 1051 1051 1051 1066 1066 1066 1066 1036 0 0 0 0 0 0 0 0 994 981 1051 1082 1115 1082 1066 1098 1149 1149 1066 1036 1008 1008 994 981 981 968 968 981 981 943 897 865 836 845 845 855 855 855 855 845 855 876 876 886 886 897 919 943 955 968 981 981 943 886 836 836 817 817 817 808 808 826 808 865 836 845 826 808 766 721 687 645 618 603 603 593 603 598 598 593 598 593 603 598 603 588 598 584 579 584 549 521 529 0 0 0 0 0
    0 0 0 0 0 0 0 0 0 0 0 0 0 0 0 0 0 0 0 0 0 0 0 0 0 0 0 0 0 0 0 0 0 0 0 0 0 0 0 0 0 0 0 0 0 0 0 0 0 0 0 0 0 0 0 0 0 0 0 0 0 0 0 0 0 0 0 0 0 1338 1291 1291 1291 1268 1268 1268 1314 1291 1291 1206 1187 1206 1168 1132 1132 1115 1098 1098 1115 1098 1082 1115 1149 1132 1132 1115 1098 1098 1149 1168 1149 1115 1115 1149 1098 1098 1051 1051 1051 1051 1051 1115 1115 1098 1132 1132 1149 1149 1115 1149 1115 1132 1149 1115 1132 1115 1115 1226 1226 1187 1168 1132 1206 1187 1187 1132 1098 1149 1008 1022 0 981 1051 981 0 0 1098 1268 0 0 1206 0 0 0 1168 1168 1149 1206 1206 0 0 0 1226 1206 1187 1149 0 0 0 0 0 0 0 0 0 836 826 931 919 955 0 0 0 0 0 0 0 0 0 0 0 0 0 86 86 0 0 1115 1036 1132 1132 1082 1098 1115 1115 1132 1115 1168 1082 1082 1115 1082 1036 1036 1036 1036 1036 1051 1051 1051 1066 1036 0 0 0 0 0 0 0 0 0 981 0 1051 1082 1051 1051 1066 1098 1098 1051 1036 1008 1008 1008 994 981 981 968 981 981 919 876 855 836 836 845 845 855 855 845 845 845 865 865 876 876 876 897 919 943 943 968 968 943 897 855 855 845 855 845 845 845 855 845 876 845 855 826 808 782 728 687 651 623 603 608 593 598 598 598 593 598 593 598 593 603 593 598 588 584 584 549 521 529 0 0 0 0 0
    0 0 0 0 0 0 0 0 0 0 0 0 0 0 0 0 0 0 0 0 0 0 0 0 0 0 0 0 0 0 0 0 0 0 0 0 0 0 0 0 0 0 0 0 0 0 0 0 0 0 0 0 0 0 0 0 0 0 0 0 0 0 0 0 0 0 0 0 0 1338 1314 1291 1314 1268 1268 1268 1291 1291 1268 1226 1206 1206 1149 1132 1132 1115 1098 1098 1115 1098 1082 1115 1132 1132 1115 1115 1082 1098 1149 1149 1132 1098 1098 1168 1098 1098 1051 1051 1051 1051 1051 1115 1115 1098 1132 1132 1132 1149 1115 1149 1115 1132 1149 1115 1132 1115 1132 1206 1226 1168 1168 1132 1206 1187 1168 1149 1149 1132 1036 1036 1066 994 1036 994 1132 1098 1082 1247 1226 1149 1149 0 1168 1082 1098 1098 1082 1149 1168 1187 1206 1149 1206 1206 1187 1149 1132 1098 1066 1082 1115 1098 1082 0 0 955 0 0 0 0 0 0 0 0 0 0 0 0 0 0 0 1082 0 0 86 0 1036 1082 1036 1115 1115 1082 1098 1115 1115 1115 1098 1168 1082 1082 1115 1066 1022 1022 1036 1036 1036 1051 1051 1066 1082 1082 1132 0 0 0 0 0 0 0 0 0 1022 1051 1066 1066 1036 1051 1066 1082 1051 1036 1022 1036 1022 1008 994 994 981 981 968 908 876 855 836 845 845 845 855 855 855 845 855 865 855 865 865 865 876 897 897 908 931 943 919 886 865 855 865 865 865 865 855 865 865 876 865 855 836 817 799 758 707 675 629 608 608 593 603 598 598 598 598 593 603 598 608 598 598 588 584 579 549 525 529 0 0 0 0 0
    0 0 0 0 0 0 0 0 0 0 0 0 0 0 0 0 0 0 0 0 0 0 0 0 0 0 0 0 0 0 0 0 0 0 0 0 0 0 0 0 0 0 0 0 0 0 0 0 0 0 0 0 0 0 0 0 0 0 0 0 0 0 0 0 0 0 0 0 0 1338 1314 1291 1314 1291 1268 1247 1291 1268 1268 1206 1206 1206 1149 1132 1168 1115 1115 1115 1115 1098 1082 1132 1132 1115 1115 1098 1082 1098 1132 1132 1115 1098 1098 1149 1115 1098 1066 1066 1051 1051 1051 1115 1115 1098 1132 1132 1132 1149 1115 1149 1115 1132 1149 1115 1149 1132 1115 1206 1226 1187 1168 1115 1187 1168 1149 1149 1168 1132 1051 1051 1082 1008 1036 1008 1051 1066 1036 1226 1206 1149 1168 1066 1168 1066 1132 1115 1098 1132 1149 1168 1187 1149 1206 1206 1168 1132 1149 1115 1098 1082 1132 1115 1115 1168 0 1036 0 0 0 0 0 0 0 1066 0 0 0 0 0 1066 1066 1066 1051 0 0 1066 1051 1082 1036 1098 1098 1066 1082 1098 1098 1115 1098 1149 1066 1066 1098 1051 1022 1022 1036 1036 1051 1066 1082 1082 1115 1115 1187 1132 1247 1206 1168 0 0 1149 1051 1022 1022 1036 1051 1051 1022 1022 1008 1051 1036 1036 1022 1036 1022 1008 1008 994 981 981 955 908 886 855 836 855 855 845 855 855 855 855 855 876 855 855 865 855 855 865 855 865 876 897 876 855 855 855 876 886 886 876 865 886 886 886 876 855 836 826 817 782 721 687 634 613 608 598 603 598 598 598 598 593 603 598 613 603 603 593 584 574 549 521 529 0 0 0 0 0
    0 0 0 0 0 0 0 0 0 0 0 0 0 0 0 0 0 0 0 0 0 0 0 0 0 0 0 0 0 0 0 0 0 0 0 0 0 0 0 0 0 0 0 0 0 0 0 0 0 0 0 0 0 0 0 0 0 0 0 0 0 0 0 0 0 0 0 0 0 1268 1291 1268 1268 1268 1247 1247 1247 1247 1247 1206 1206 1226 1149 1132 1168 1115 1115 1115 1115 1082 1098 1132 1132 1115 1115 1098 1082 1098 1132 1115 1098 1098 1098 1149 1115 1098 1082 1066 1066 1051 1051 1115 1115 1098 1132 1132 1132 1149 1132 1168 1115 1132 1168 1115 1149 1132 1115 1187 1206 1187 1149 1098 1149 1132 1132 1149 1132 1098 1051 1036 1115 994 1008 994 0 1051 1036 1168 1149 1115 1168 1082 1168 1066 1149 1132 1115 1115 1132 1149 1187 1149 1187 1168 1132 1115 1132 1115 1098 1066 1115 1098 1098 1168 0 1066 0 1051 0 0 0 0 1022 1066 0 0 0 0 0 0 1082 1082 1082 1168 1168 1098 1051 1098 1036 1098 1098 1066 1082 1098 1098 1098 1082 1132 1066 1051 1082 1051 1022 1022 1036 1051 1051 1066 1082 1098 1132 1098 1168 1115 1168 1132 1098 1115 1098 1098 1066 1051 1022 1022 1008 1036 1008 1008 981 1022 1022 1036 1022 1036 1022 1008 994 994 981 981 968 919 897 855 836 855 855 845 855 855 855 855 865 886 855 855 855 845 826 836 817 817 817 826 826 826 826 836 845 855 865 865 855 865 876 876 865 855 836 826 826 791 735 700 645 613 613 598 603 603 603 598 603 598 608 603 618 608 608 603 593 588 549 525 529 0 0 0 0 0
    0 0 0 0 0 0 0 0 0 0 0 0 0 0 0 0 0 0 0 0 0 0 0 0 0 0 0 0 0 0 0 0 0 0 0 0 0 0 0 0 0 0 0 0 0 0 0 0 0 0 0 0 0 0 0 0 0 0 0 0 0 0 0 0 0 0 0 0 0 1247 1247 1247 1247 1247 1226 1226 1226 1226 1226 1168 1206 1206 1132 1115 1149 1098 1115 1115 1098 1082 1082 1115 1132 1098 1115 1098 1082 1098 1132 1115 1098 1098 1132 1149 1115 1115 1082 1082 1066 1066 1066 1115 1115 1098 1132 1132 1132 1149 1132 1168 1115 1132 1168 1115 1132 1132 1098 1168 1187 1168 1115 1082 1115 1115 1115 1149 1115 1082 1051 1051 1149 981 981 981 0 1051 1066 1132 1115 1115 1168 1082 1132 1082 1168 1132 1098 1098 1098 1132 1168 1149 1168 1149 1098 1115 1132 1115 1082 1066 1098 1098 1098 1168 1247 1082 0 1066 0 0 0 0 1036 1066 0 0 0 0 0 1082 1115 1115 1132 1206 1187 1098 1066 1149 1022 1098 1098 1066 1066 1082 1082 1082 1066 1115 1051 1051 1066 1036 1022 1036 1036 1051 1051 1066 1082 1082 1132 1098 1132 1098 1098 1098 1082 1082 1082 1082 1066 1051 1051 1036 1022 1082 1022 1051 1022 1022 1022 1022 1008 1022 1008 1008 994 994 994 994 968 943 919 855 836 855 855 845 855 855 855 855 855 876 855 845 845 826 817 817 791 782 774 766 758 774 782 808 817 836 836 845 845 855 876 876 865 845 836 826 826 799 750 714 663 623 618 603 608 603 603 603 603 598 608 603 623 613 613 613 603 603 557 529 533 0 0 0 0 0
    0 0 0 0 0 0 0 0 0 0 0 0 0 0 0 0 0 0 0 0 0 0 0 0 0 0 0 0 0 0 0 0 0 0 0 0 0 0 0 0 0 0 0 0 0 0 0 0 0 0 0 0 0 0 0 0 0 0 0 0 0 0 0 0 0 0 0 0 0 1206 1226 1226 1226 1226 1226 1206 1226 1226 1206 1187 1206 1206 1132 1115 1115 1082 1098 1098 1082 1066 1066 1098 1098 1082 1082 1066 1082 1098 1115 1098 1098 1098 1149 1168 1132 1132 1098 1082 1066 1066 1051 1115 1115 1098 1115 1115 1132 1149 1132 1187 1098 1115 1168 1115 1132 1115 1082 1149 1149 1149 1098 1082 1098 1098 1098 1149 1098 1082 1051 1066 1168 981 981 981 1022 1066 1098 1132 1132 1115 1149 1082 1115 1098 1149 1115 1098 1082 1098 1115 1168 1168 1168 1132 1098 1115 1149 1149 1098 1082 1098 1098 1115 1168 1206 1082 1066 1066 0 0 0 0 1066 1082 0 0 0 0 1066 1082 1115 1082 1115 1187 1168 1082 1051 1149 1022 1082 1082 1066 1066 1066 1066 1066 1066 1098 1036 1036 1036 1022 1022 1022 1022 1036 1022 1036 1051 1051 1082 1051 1066 1066 1066 1082 1066 1082 1082 1098 1098 1082 1082 1098 1098 1115 1022 1036 1022 1008 1008 1022 1022 1036 1022 1022 1008 1022 1008 1008 994 981 943 855 836 855 855 845 855 855 845 845 855 876 836 836 826 817 799 799 774 758 743 743 728 735 735 766 791 826 836 845 855 865 876 865 855 845 836 826 826 799 758 735 681 645 623 608 608 608 608 603 603 603 608 608 629 623 634 639 618 613 570 537 537 0 0 0 0 0
    0 0 0 0 0 0 0 0 0 0 0 0 0 0 0 0 0 0 0 0 0 0 0 0 0 0 0 0 0 0 0 0 0 0 0 0 0 0 0 0 0 0 0 0 0 0 0 0 0 0 0 0 0 0 0 0 0 0 0 0 0 0 0 0 0 0 0 0 0 1168 1187 1168 1206 1187 1187 1206 1206 1206 1206 1187 1206 1226 1149 1132 1132 1098 1115 1098 1098 1082 1082 1098 1098 1082 1082 1066 1066 1082 1098 1082 1098 1115 1149 1187 1149 1149 1115 1098 1066 1066 1051 1115 1115 1098 1115 1115 1115 1149 1149 1187 1098 1115 1168 1115 1132 1098 1082 1132 1132 1132 1082 1066 1082 1082 1098 1132 1082 1066 1051 1098 1226 994 981 994 1051 1051 1098 1115 1098 1098 1132 1082 1098 1098 1149 0 1098 1082 1098 1132 1187 1187 1168 1149 1115 1132 1168 1168 1115 1098 1115 1115 1115 1168 1168 1082 1051 1051 1098 0 0 0 0 1082 0 0 0 0 1066 1082 1115 1082 1098 1168 1149 1082 1066 1115 1022 1066 1066 1051 1051 1051 1051 1066 1051 1082 1022 1022 1036 1022 1022 1008 1008 1008 994 1008 1022 1008 1008 1008 1036 1036 1066 1051 1066 1066 1082 1115 1115 1098 1098 1115 0 1206 1115 1149 981 943 1022 1036 1036 1051 1051 1036 1036 1036 1036 1022 1008 994 968 865 836 865 865 855 855 855 845 845 855 865 836 826 817 817 799 791 758 743 728 728 714 721 714 728 735 791 817 845 855 865 876 865 855 836 836 817 826 791 750 728 681 651 629 613 613 608 608 608 608 603 618 613 639 634 645 651 629 618 584 545 541 0 0 0 0 0
    0 0 0 0 0 0 0 0 0 0 0 0 0 0 0 0 0 0 0 0 0 0 0 0 0 0 0 0 0 0 0 0 0 0 0 0 0 0 0 0 0 0 0 0 0 0 0 0 0 0 0 0 0 0 0 0 0 0 0 0 0 0 0 0 0 0 0 0 0 1149 1187 1149 1187 1187 1187 1187 1206 1206 1206 1187 1206 1206 1132 1132 1132 1115 1115 1098 1098 1082 1082 1098 1082 1066 1066 1051 1051 1066 1082 1082 1082 1115 1132 1168 1149 1149 1132 1132 1082 1066 1051 1115 1115 1098 1115 1115 1115 1132 1149 1206 1098 1132 1187 1115 1132 1098 1066 1115 1132 1132 1066 1066 1082 1082 1098 1132 1066 1066 1066 1132 1247 1008 1008 1036 1098 1066 1115 1115 1115 1115 1149 1082 1082 1098 1149 0 1082 1082 1098 1132 1168 1187 1168 1149 1115 1132 1168 1168 1132 1098 1115 1115 1115 1168 1132 1066 1036 1036 1066 994 0 0 1098 1115 1082 0 0 0 1066 1082 1115 1066 1082 1149 1149 1082 1066 1098 1008 1051 1051 1036 1036 1036 1036 1051 1036 1066 1022 1022 1022 1008 1022 1022 1022 1008 994 994 1008 994 994 994 1022 1036 1066 1051 1066 1066 1066 1115 1132 1082 1098 1098 1226 1226 1187 1226 1022 919 1022 1051 1051 1066 1066 1051 1051 1051 1036 1036 1008 1008 981 876 845 876 876 855 855 855 855 855 855 865 826 826 808 808 782 774 750 735 721 714 707 707 694 700 700 714 750 836 855 845 855 855 845 836 826 826 826 782 750 735 687 669 639 618 618 618 618 618 613 613 629 634 663 657 663 669 651 623 598 553 541 0 0 0 0 0
    0 0 0 0 0 0 0 0 0 0 0 0 0 0 0 0 0 0 0 0 0 0 0 0 0 0 0 0 0 0 0 0 0 0 0 0 0 0 0 0 0 0 0 0 0 0 0 0 0 0 0 0 0 0 0 0 0 0 0 0 0 0 0 0 0 0 0 0 0 1115 1149 1098 1149 1149 1168 1168 1187 1187 1206 1168 1206 1206 1132 1098 1132 1098 1098 1082 1082 1082 1066 1082 1066 1051 1051 1036 1051 1066 1066 1082 1082 1115 1115 1132 1115 1149 1149 1132 1098 1082 1066 1132 1115 1098 1132 1132 1115 1132 1149 1206 1098 1132 1206 1132 1115 1082 1066 1115 1115 1115 1066 1066 1082 1082 1098 1132 1066 1051 1051 1115 1226 1022 1022 1066 1115 1066 1132 1149 1149 1149 1168 1082 1098 1115 1168 1115 1082 1082 1098 1115 1168 1168 1132 1115 1098 1132 1168 1168 1115 1098 1115 1115 1098 1149 1132 1066 1051 1051 1082 1008 1022 0 0 0 0 0 0 0 1082 1098 1132 1082 1082 1149 1149 1082 1082 1187 1022 1051 1051 1051 1036 1036 1036 1036 1036 1051 1022 1022 1022 1008 1036 1036 1036 1036 1008 1008 1036 1022 1008 981 1022 1051 1066 1066 1066 1066 1066 1115 1132 1115 1098 1132 0 0 0 1533 1206 1036 1066 1082 1066 1066 1066 1051 1051 1051 1051 1051 1036 1036 1022 897 855 886 897 876 865 865 865 865 865 876 836 826 808 808 774 766 743 728 714 707 694 694 687 687 694 694 700 0 0 799 0 845 836 836 817 817 817 782 758 774 700 694 675 639 639 639 639 639 639 651 669 669 681 675 669 675 657 629 603 566 549 0 0 0 0 0
    0 0 0 0 0 0 0 0 0 0 0 0 0 0 0 0 0 0 0 0 0 0 0 0 0 0 0 0 0 0 0 0 0 0 0 0 0 0 0 0 0 0 0 0 0 0 0 0 0 0 0 0 0 0 0 0 0 0 0 0 0 0 0 0 0 0 0 0 0 1082 1115 1082 1115 1115 1149 1132 1168 1168 1187 1187 1206 1206 1132 1098 1132 1115 1098 1082 1066 1066 1051 1066 1051 1036 1051 1051 1051 1082 1082 1082 1098 1115 1132 1115 1115 1149 1149 1149 1115 1082 1066 1132 1115 1098 1132 1132 1115 1149 1168 1226 1082 1132 1226 1132 1098 1066 1066 1098 1115 1115 1066 1066 1066 1082 1098 1132 1066 1051 1066 1115 0 0 0 1066 1115 1082 1168 1187 1187 1168 1168 1082 1115 1115 1168 1098 1082 1082 1082 1115 1168 1168 1132 1115 1098 1132 1168 1149 1115 1098 1115 1115 1082 1132 1098 1066 1051 1051 1082 1022 1066 1051 1206 0 0 0 0 0 1115 1132 1168 1098 1098 1115 1132 1082 1098 1187 1022 1066 1066 1051 1036 1036 1036 1036 1036 1051 1008 1008 1008 1022 1066 1066 1066 1098 1051 1066 1066 1051 1022 981 1022 1066 1082 1066 1082 1082 1082 1098 1115 1098 1066 1082 1098 1132 1206 1268 1066 1008 1066 1082 1066 1066 1082 1051 1036 1036 1036 1051 1036 1036 1036 943 886 931 931 897 886 876 876 876 886 886 855 836 826 817 782 766 743 721 714 707 687 687 675 681 681 687 694 694 694 700 694 0 0 0 0 735 774 758 782 799 743 735 721 694 694 687 681 681 687 687 687 687 687 687 681 681 669 634 608 593 561 0 0 0 0 0
    0 0 0 0 0 0 0 0 0 0 0 0 0 0 0 0 0 0 0 0 0 0 0 0 0 0 0 0 0 0 0 0 0 0 0 0 0 0 0 0 0 0 0 0 0 0 0 0 0 0 0 0 0 0 0 0 0 0 0 0 0 0 0 0 0 0 0 0 0 1066 1098 1066 1098 1098 1132 1132 1149 1168 1168 1149 1206 1206 1132 1098 1132 1115 1082 1082 1066 1066 1051 1066 1051 1036 1051 1066 1051 1082 1082 1098 1098 1115 1149 1132 1132 1168 1168 1149 1115 1082 1066 1132 1115 1098 1132 1132 1132 1149 1168 1226 1082 1132 1206 1115 1082 1066 1066 1082 1098 1098 1066 1066 1066 1082 1098 1115 1051 1036 1051 0 0 0 0 0 1098 1066 1168 1168 1168 1168 1149 1082 1115 1115 1168 1098 1082 1082 1082 1115 1187 1149 1115 1115 1098 1132 1168 1168 1115 1098 1098 1098 1066 1115 1082 1051 1051 1051 1051 1022 1066 1082 1226 1268 1226 0 0 0 1132 1149 1187 1115 1098 1115 1132 1082 1115 1206 1036 1082 1082 1066 1036 1036 1036 1036 1036 1051 1008 1008 1008 1022 1082 1082 1082 1115 1066 1082 1098 1022 1008 981 1008 1066 1082 1066 1082 1082 1066 1082 1098 1098 1051 1051 1051 1008 1066 1149 1051 1008 1051 1066 1051 1051 1098 1036 1036 1022 1036 1036 1036 1051 1051 981 919 955 955 919 908 886 886 876 886 886 865 845 826 817 791 766 735 721 707 700 687 681 669 675 687 694 694 687 687 687 675 675 657 645 651 675 681 694 714 808 750 750 735 714 721 721 707 700 700 700 700 700 700 694 687 687 681 645 618 608 584 0 0 0 0 0
    0 0 0 0 0 0 0 0 0 0 0 0 0 0 0 0 0 0 0 0 0 0 0 0 0 0 0 0 0 0 0 0 0 0 0 0 0 0 0 0 0 0 0 0 0 0 0 0 0 0 0 0 0 0 0 0 0 0 0 0 0 0 0 0 0 0 0 0 0 1066 1082 1051 1082 1082 1115 1115 1115 1115 1132 1115 1187 1206 1115 1098 1115 1115 1082 1082 1082 1082 1051 1066 1051 1036 1066 1082 1066 1082 1082 1115 1115 1132 1168 1132 1132 1187 1168 1149 1132 1098 1066 1132 1132 1098 1132 1132 1132 1149 1149 1226 1082 1132 1206 1115 1066 1066 1066 1082 1098 1098 1051 1051 1051 1066 1082 1082 0 1022 1036 0 0 0 0 1051 1098 1082 1187 1187 1168 1187 1132 1082 1115 1132 1168 1098 1082 1082 1082 1115 1168 1132 1098 1098 1098 1132 1168 1168 1115 1098 1115 1115 1066 1098 1066 1036 1036 1036 1051 1036 1066 1098 1226 1268 1247 1268 1226 1132 1115 1132 1168 1115 1098 1098 1098 1082 1149 1187 1036 1082 1082 1066 1036 1036 1036 1036 1036 1051 1008 1008 1008 1022 1082 1082 1066 1082 1008 1066 1051 1008 994 981 994 1066 1066 1066 1066 1066 1066 1082 1082 1082 1022 1036 1036 1008 1022 1036 1036 1036 1051 1066 1036 1051 1098 1036 1022 1008 1022 1036 1036 1051 1051 994 943 981 981 943 919 897 886 876 876 876 855 836 826 817 782 766 735 714 714 707 700 694 687 687 694 700 700 687 687 687 663 663 639 634 629 639 651 651 663 721 743 766 743 728 750 728 707 700 700 694 694 694 694 694 687 687 681 657 629 623 603 0 0 0 0 0
    0 0 0 0 0 0 0 0 0 0 0 0 0 0 0 0 0 0 0 0 0 0 0 0 0 0 0 0 0 0 0 0 0 0 0 0 0 0 0 0 0 0 0 0 0 0 0 0 0 0 0 0 0 0 0 0 0 0 0 0 0 0 0 0 0 0 0 0 0 1051 1066 1022 1066 1051 1082 1082 1082 1082 1098 1082 1149 1132 1082 1066 1082 1098 1066 1066 1066 1082 1036 1066 1051 1051 1066 1082 1066 1082 1098 1115 1115 1132 1168 1132 1132 1187 1187 1132 1132 1115 1066 1132 1115 1098 1132 1132 1132 1132 1149 1226 1082 1115 1206 1098 1051 1066 1066 1098 1115 1098 1051 1066 1066 1082 1082 1082 0 1022 1066 1565 0 0 1051 1066 1098 1082 1168 1168 1168 1187 1115 1098 1115 1149 1149 1082 1082 1082 1098 1132 1149 1115 1082 1098 1115 1132 1168 1149 1115 1115 1115 1115 1066 1082 1051 1022 1022 1036 1036 1051 1098 1149 1247 1291 1291 1291 1226 1115 1115 1115 1132 1098 1098 1082 1082 1098 1168 1187 1051 1098 1098 1082 1051 0 1051 1036 1036 1066 1008 1008 1008 1022 1051 1051 1051 1022 1008 0 1036 1008 1008 981 981 1066 1066 1066 1066 1066 1066 1066 1066 1082 1022 1036 1036 1008 1022 1036 1036 1082 1168 1082 1036 1051 1115 1036 1022 1008 1008 1022 1036 1051 1051 1008 968 994 1008 955 931 897 876 865 865 855 836 836 817 799 774 766 735 721 721 721 714 714 700 700 707 714 714 694 687 681 663 663 645 634 629 634 634 623 623 657 0 782 743 826 799 766 728 714 707 700 694 694 694 687 687 687 681 663 639 639 618 0 0 0 0 0
    0 0 0 0 0 0 0 0 0 0 0 0 0 0 0 0 0 0 0 0 0 0 0 0 0 0 0 0 0 0 0 0 0 0 0 0 0 0 0 0 0 0 0 0 0 0 0 0 0 0 0 0 0 0 0 0 0 0 0 0 0 0 0 0 0 0 0 0 0 1036 1036 981 1036 1036 1051 1051 1051 1051 1051 1066 1115 1082 1066 1066 1082 1098 1066 1066 1066 1066 1036 1066 1051 1051 1066 1082 1066 1082 1082 1115 1098 1132 1149 1115 1115 1187 1168 1149 1149 1132 1066 1149 1132 1098 1132 1132 1149 1132 1149 1206 1082 1115 1206 1082 1036 1051 1066 1082 1098 1066 1051 1051 1051 1098 1098 1066 0 1036 1149 1599 1362 1132 1036 0 1098 1066 1168 1168 1149 1168 1082 1098 1132 1149 1149 1082 1082 1098 1098 1132 1149 1098 1082 1098 1132 1149 1149 1149 1132 1132 1132 1132 1066 1082 1036 1022 1022 1036 1036 1051 1115 1187 1268 1291 1291 1314 0 0 1132 1098 1115 1098 1098 1082 1082 1098 1168 1168 1066 1115 1098 1082 1051 1051 1051 1051 1051 1066 1008 1008 1022 1008 1008 1022 1008 968 968 981 981 981 981 981 955 1051 1066 1051 1066 1051 1051 1066 1051 1066 1008 1022 1022 1008 1022 1036 1022 1066 1206 1149 1051 1066 1115 1036 1022 1008 1008 1022 1036 1051 1066 1022 994 1022 1022 981 955 897 876 865 855 845 836 826 808 799 766 766 735 714 721 721 721 721 707 714 714 728 728 700 687 681 657 651 639 634 623 629 629 613 608 608 608 0 0 0 0 0 0 707 694 694 681 694 694 694 687 687 687 675 651 651 623 0 0 0 0 0
    0 0 0 0 0 0 0 0 0 0 0 0 0 0 0 0 0 0 0 0 0 0 0 0 0 0 0 0 0 0 0 0 0 0 0 0 0 0 0 0 0 0 0 0 0 0 0 0 0 0 0 0 0 0 0 0 0 0 0 0 0 0 0 0 0 0 0 0 0 1036 1036 981 1022 1022 1036 1022 1036 1022 1022 1022 1082 1051 1051 1066 1098 1098 1066 1066 1066 1082 1051 1082 1066 1066 1098 1098 1082 1098 1098 1132 1098 1132 1115 1098 1098 1168 1168 1149 1168 1168 1082 1149 1149 1115 1132 1132 1149 1132 1132 1206 1066 1098 1168 1066 1051 1051 1066 1082 1098 1066 1051 1051 1066 1082 1082 1051 1036 1051 0 1533 1338 1098 0 994 1051 1036 1132 1115 1115 1115 1051 1082 1115 1132 1132 1066 1082 1098 1098 1132 1132 1098 1082 1098 1149 1132 1149 1132 1115 1132 1132 1115 1051 1051 1036 1008 1008 1036 1036 1051 1098 1187 1247 1291 1291 0 0 0 1115 1098 1098 1115 1098 1082 1098 1115 1187 1149 1066 1149 1115 1098 1066 1066 1066 1066 1051 1082 1022 1022 0 1022 1008 0 1008 955 981 981 994 994 1008 981 931 1051 1066 1051 1051 1036 1036 1036 1036 1066 994 994 1008 994 1022 1022 1022 1051 1149 1149 1082 1051 1115 1022 1008 994 994 1008 1022 1036 1066 1022 1022 1051 1036 994 968 908 876 865 845 845 826 826 808 791 766 758 735 714 721 721 728 728 721 721 728 735 735 714 694 687 663 651 639 629 623 623 623 608 603 598 598 598 603 0 0 0 0 0 629 700 639 0 707 700 687 687 687 681 663 669 634 0 0 0 0 0
    0 0 0 0 0 0 0 0 0 0 0 0 0 0 0 0 0 0 0 0 0 0 0 0 0 0 0 0 0 0 0 0 0 0 0 0 0 0 0 0 0 0 0 0 0 0 0 0 0 0 0 0 0 0 0 0 0 0 0 0 0 0 0 0 0 0 0 0 0 1008 1022 981 994 994 1008 1008 1008 994 994 994 1036 1022 1036 1051 1066 1066 1051 1066 1051 1066 1051 1082 1066 1082 1098 1098 1082 1098 1098 1115 1098 1115 1098 1082 1098 1168 1149 1132 1149 1149 1082 1149 1149 1115 1115 1115 1132 1115 1115 1168 1051 1066 1115 1066 1051 1066 1082 1082 1098 1082 1066 1066 1082 1132 1115 1066 1066 1082 0 1471 1314 1098 0 0 0 1022 1098 1082 1082 1051 1036 1082 1115 1115 1098 1051 1066 1082 1082 1132 1098 1066 1082 1115 1168 1132 1132 1132 1115 1149 1149 1115 1051 1066 1051 1022 1022 1051 1051 1066 1132 1226 1226 1268 0 0 0 0 1115 1082 1082 1115 1098 1082 1098 1115 1187 1149 1082 1149 1115 1115 1066 1066 1066 1066 1066 1082 1022 1022 0 1022 1008 955 968 943 968 981 994 1008 1008 994 908 1036 1051 1051 0 1036 1022 1022 1022 1051 994 981 994 994 1008 1008 1022 1036 1082 1098 1082 1098 1082 994 943 943 955 968 1008 1008 1066 1036 1066 1115 1066 1022 994 919 886 865 845 845 826 826 799 782 758 750 735 721 721 728 728 735 721 728 735 743 735 721 700 687 669 663 645 634 623 623 618 603 598 593 588 588 588 0 584 570 588 593 598 0 603 0 681 700 669 675 681 681 663 663 639 0 0 0 0 0
    0 0 0 0 0 0 0 0 0 0 0 0 0 0 0 0 0 0 0 0 0 0 0 0 0 0 0 0 0 0 0 0 0 0 0 0 0 0 0 0 0 0 0 0 0 0 0 0 0 0 0 0 0 0 0 0 0 0 0 0 0 0 0 0 0 0 0 0 0 994 994 943 968 955 981 981 981 981 968 981 1008 1022 1036 1051 1066 1066 1051 1066 1051 1066 1051 1098 1082 1082 1115 1115 1082 1098 1115 1115 1098 1115 1115 1082 1115 1187 1168 1132 1149 1168 1098 1149 1149 1098 1115 1115 1132 1115 1115 1168 1066 1066 1098 1066 1051 1066 1082 1082 1098 1082 1082 1098 1098 1168 1149 1082 1082 1098 1206 0 1247 1098 981 0 0 994 1051 1036 1022 1008 1022 1066 1098 1082 1082 1051 1066 1082 1098 1115 1082 1066 1082 1098 1168 1132 1132 1115 1115 1149 1168 1132 1051 1098 1082 1066 1036 1066 1066 1066 1115 1168 1149 1247 1247 1268 1132 0 1115 1082 1082 1115 1098 1082 1098 1132 1206 1168 1082 1168 1149 1132 1066 1082 1082 1082 1066 1082 1036 1022 0 1022 994 943 955 943 968 981 994 1036 1036 1022 886 1022 1036 1036 0 1022 1008 1008 1008 1051 981 968 981 981 994 1008 1008 1008 1036 1036 1008 1008 1082 981 908 919 919 908 968 981 1008 994 1022 1066 1036 981 981 919 876 865 845 836 826 826 799 782 766 750 735 728 728 735 735 735 728 728 735 743 735 721 700 694 675 675 657 645 629 623 623 603 598 588 584 579 584 566 570 557 570 570 588 588 588 588 0 657 613 623 645 669 651 639 634 0 0 0 0 0
    0 0 0 0 0 0 0 0 0 0 0 0 0 0 0 0 0 0 0 0 0 0 0 0 0 0 0 0 0 0 0 0 0 0 0 0 0 0 0 0 0 0 0 0 0 0 0 0 0 0 0 0 0 0 0 0 0 0 0 0 0 0 0 0 0 0 0 0 0 994 1008 943 955 968 968 994 981 981 968 968 1008 1022 1036 1051 1051 1066 1051 1082 1082 1082 1066 1115 1082 1098 1115 1115 1098 1115 1115 1132 1098 1132 1115 1098 1132 1187 1168 1132 1168 1168 1098 1149 1132 1098 1115 1115 1115 1115 1115 1149 1066 1066 1082 1036 1036 1051 1066 1066 1082 1066 1066 1098 1098 1168 1132 1082 1082 1082 1149 1226 1149 1082 994 886 919 994 1022 1008 981 968 1022 1066 1082 1066 1066 1051 1051 1066 1082 1098 1066 1051 1098 1098 1168 1132 1132 1115 1115 1132 1168 1132 1082 1149 1115 1082 1051 1082 1066 1051 1082 1098 1098 1206 1206 1247 1098 0 1098 1082 1082 1115 1082 1082 1098 1115 1187 1168 1098 1149 1115 1115 1066 1066 1066 1066 1051 1066 1022 1008 1008 1008 994 955 968 968 981 981 968 1022 1036 1022 897 1008 1008 0 0 1008 994 994 981 1036 981 968 968 968 981 994 994 994 1008 1008 994 994 1036 981 908 908 908 886 919 931 931 908 943 955 0 886 931 876 845 855 836 826 808 817 799 782 766 750 743 728 728 735 735 735 728 728 735 735 735 714 707 694 681 681 669 669 639 634 634 608 603 593 584 574 574 561 561 553 557 557 566 566 566 566 566 593 588 598 618 669 651 634 634 0 0 0 0 0
    0 0 0 0 0 0 0 0 0 0 0 0 0 0 0 0 0 0 0 0 0 0 0 0 0 0 0 0 0 0 0 0 0 0 0 0 0 0 0 0 0 0 0 0 0 0 0 0 0 0 0 0 0 0 0 0 0 0 0 0 0 0 0 0 0 0 0 0 0 981 994 943 968 981 994 994 994 994 968 981 1008 1008 1022 1036 1036 1051 1051 1082 1082 1066 1082 1132 1098 1115 1132 1115 1098 1115 1132 1132 1098 1132 1098 1098 1132 1187 1187 1149 1168 1168 1098 1149 1149 1098 1115 1115 1115 1115 1115 1149 1098 1066 1082 1036 1036 1051 1051 1051 1066 1051 1051 1082 1082 1168 1132 1082 1082 1082 1149 1206 1149 1082 1022 919 931 994 1008 994 943 943 994 1051 1066 1051 1051 1036 1051 1066 1082 1098 1051 1051 1082 1082 1149 1132 1115 1115 1115 1149 1168 1132 1115 1187 1115 1066 1036 1066 1051 1036 1066 1066 1082 1187 1187 1226 1082 0 1098 1082 1082 1098 1082 1082 1082 1115 1187 1149 1098 1149 1115 1115 1066 1066 1082 1066 1051 1066 1022 1022 1008 1008 1008 981 981 981 981 968 968 1036 1036 1022 919 981 994 994 994 994 981 955 955 1008 981 968 981 968 968 981 994 1008 1008 994 981 981 994 968 919 919 897 876 876 886 855 836 826 817 782 791 826 836 817 836 817 817 799 817 791 782 766 750 743 728 728 735 728 735 728 728 735 735 728 714 714 700 687 687 675 675 651 645 639 613 603 593 579 570 570 557 557 549 553 553 557 553 553 553 549 566 561 561 557 0 634 618 629 0 0 0 0 0
    0 0 0 0 0 0 0 0 0 0 0 0 0 0 0 0 0 0 0 0 0 0 0 0 0 0 0 0 0 0 0 0 0 0 0 0 0 0 0 0 0 0 0 0 0 0 0 0 0 0 0 0 0 0 0 0 0 0 0 0 0 0 0 0 0 0 0 0 0 994 1008 943 968 981 994 994 994 994 968 981 1008 1008 1008 1022 1036 1036 1051 1098 1082 1066 1098 1132 1098 1132 1132 1115 1098 1115 1132 1115 1082 1149 1066 1082 1132 1187 1187 1149 1168 1187 1098 1132 1149 1098 1115 1115 1115 1115 1098 1132 1082 1066 1066 1036 1036 1051 1051 1051 1051 1036 1051 1098 1098 1187 1132 1098 1098 1098 1168 1206 1132 1098 1022 919 931 981 1008 981 931 919 994 1051 1051 1036 1051 1036 1051 1051 1066 1082 1036 1036 1082 1082 1149 1115 1115 1115 1115 1149 1149 1149 1168 1206 1115 1051 1022 1066 1036 1022 1066 1051 1066 1187 1187 1206 1066 1051 1082 1082 1082 1098 1066 1066 1066 1098 1168 1132 1098 1149 1098 1098 1066 1066 1066 1066 1051 1051 1022 1022 1022 1022 1008 994 994 981 968 968 968 1036 1036 1022 919 981 981 981 981 981 968 943 931 994 955 931 955 955 943 943 968 981 981 981 968 968 955 943 919 908 908 865 855 855 817 808 808 791 750 743 791 808 808 826 817 817 799 808 791 782 766 750 743 728 728 735 735 735 735 735 735 728 728 714 721 700 687 681 675 675 657 639 634 608 598 588 579 570 570 557 557 549 553 549 557 553 553 549 541 549 549 545 537 533 0 579 623 0 0 0 0 0
    0 0 0 0 0 0 0 0 0 0 0 0 0 0 0 0 0 0 0 0 0 0 0 0 0 0 0 0 0 0 0 0 0 0 0 0 0 0 0 0 0 0 0 0 0 0 0 0 0 0 0 0 0 0 0 0 0 0 0 0 0 0 0 0 0 0 0 0 0 1008 1022 943 968 968 981 994 994 994 968 968 1008 1008 1008 1022 1022 1022 1036 1066 1051 1036 1082 1115 1082 1115 1115 1098 1098 1115 1132 1115 1082 1132 1051 1066 1115 1187 1187 1187 1187 1187 1098 1149 1149 1098 1115 1115 1115 1115 1098 1132 1082 1051 1051 1022 1036 1051 1036 1036 1051 1036 1051 1132 1132 1206 1168 1132 1115 1149 1187 1206 1132 1098 1022 897 897 968 994 981 908 897 981 1036 1051 1036 1036 1036 1036 1051 1066 1066 1022 1036 1098 1082 1132 1115 1098 1098 1098 1149 1149 1115 1168 1226 1115 1051 1022 1066 1036 1022 1051 1051 1051 1187 1187 1206 1066 1066 1098 1082 1082 1098 1066 1066 1066 1115 1187 1132 1098 1149 1098 1098 1066 1066 1066 1051 1051 1051 1022 1022 1022 1022 1008 1008 1008 994 981 968 968 1022 1036 1022 931 981 981 994 981 981 968 943 931 981 943 908 931 931 908 908 931 943 943 943 943 943 931 919 919 897 897 876 836 836 791 791 782 766 743 743 774 808 808 836 826 826 799 817 791 782 766 750 743 743 735 735 735 743 743 735 735 728 721 714 714 700 687 681 669 669 651 634 629 608 598 588 579 570 574 561 561 553 557 553 557 553 553 549 541 545 541 537 529 525 529 533 545 0 0 0 0 0
    0 0 0 0 0 0 0 0 0 0 0 0 0 0 0 0 0 0 0 0 0 0 0 0 0 0 0 0 0 0 0 0 0 0 0 0 0 0 0 0 0 0 0 0 0 0 0 0 0 0 0 0 0 0 0 0 0 0 0 0 0 0 0 0 0 0 0 0 0 1008 1022 943 955 955 968 994 994 994 955 968 1008 994 1008 1022 1022 1022 1022 1082 1051 1036 1098 1115 1082 1132 1115 1098 1098 1098 1132 1098 1082 1132 1051 1066 1115 1187 1187 1206 1206 1187 1115 1149 1149 1098 1115 1098 1098 1098 1098 1115 1082 1051 1036 1022 1036 1036 1022 1022 1022 1022 1051 1149 1168 1206 1206 1149 0 1168 1187 1187 1115 0 0 0 0 0 981 968 908 886 981 1036 1036 1022 1036 1022 1036 1036 1051 1051 0 1036 1098 1082 1132 1115 1098 1098 1098 1149 1132 1098 1168 1247 1168 1082 1036 1066 1022 1008 1036 1022 1022 1149 1168 1168 1066 1066 1098 1082 1082 1098 1066 1066 1066 1098 1187 1132 1098 1132 1082 1098 1051 1051 1066 1051 1051 1051 1022 1022 1008 1022 1008 994 1008 994 968 955 955 1022 1036 1022 931 981 981 981 981 981 968 943 931 981 931 886 897 908 876 876 897 897 908 908 931 943 919 919 931 897 897 876 855 826 782 782 782 766 750 758 791 808 817 845 836 836 799 817 791 782 774 750 750 750 735 743 735 750 750 735 735 721 721 714 714 700 681 675 663 669 651 634 634 613 603 593 584 574 579 566 566 557 561 557 561 553 549 545 537 541 537 529 525 518 521 529 533 0 0 0 0 0
    0 0 0 0 0 0 0 0 0 0 0 0 0 0 0 0 0 0 0 0 0 0 0 0 0 0 0 0 0 0 0 0 0 0 0 0 0 0 0 0 0 0 0 0 0 0 0 0 0 0 0 0 0 0 0 0 0 0 0 0 0 0 0 0 0 0 0 0 0 1008 1008 955 955 968 981 1008 1008 1008 968 981 994 1008 1008 1022 1008 1008 1022 1082 1051 1022 1115 1115 1082 1132 1115 1098 1098 1098 1132 1098 1082 1149 1051 1066 1149 1226 1206 1226 1206 1168 1098 1132 1132 1082 1098 1098 1098 1098 1098 1115 1082 1036 1022 1008 1036 1036 1036 1022 1036 1036 1066 1206 1206 1226 1206 1149 1132 1149 1149 1149 0 0 0 0 0 0 994 981 919 908 994 1008 1022 0 1022 1022 1008 1022 1036 0 0 0 1082 1051 1051 1098 1098 1098 1082 1132 1115 1098 1226 1268 1187 1115 1066 1066 1022 1008 1022 1008 1008 1132 1149 1132 1066 1066 1098 1098 1082 1098 1066 1066 1066 1098 1168 1115 1098 1115 1082 1082 1051 1051 1051 1051 1036 1036 1022 1022 1022 1022 1022 1008 1022 1008 981 968 968 1036 1036 1022 943 981 981 981 981 981 968 943 931 981 931 886 886 886 865 855 876 886 886 897 919 931 919 908 919 886 886 876 855 845 799 791 791 766 750 750 782 808 817 855 855 845 808 826 808 799 782 750 750 758 743 743 743 750 750 735 728 721 714 707 707 700 687 681 675 675 669 645 645 629 608 0 588 574 579 566 570 561 566 557 557 549 545 541 529 529 525 521 518 514 514 521 521 0 0 0 0 0
    0 0 0 0 0 0 0 0 0 0 0 0 0 0 0 0 0 0 0 0 0 0 0 0 0 0 0 0 0 0 0 0 0 0 0 0 0 0 0 0 0 0 0 0 0 0 0 0 0 0 0 0 0 0 0 0 0 0 0 0 0 0 0 0 0 0 0 0 0 994 981 968 968 981 994 1008 1008 1022 981 994 994 994 994 994 994 994 994 1066 1036 1008 1132 1115 1082 1115 1098 1082 1098 1098 1149 1082 1098 1168 1066 1115 1226 1247 1206 1268 1187 1132 1098 1098 1115 1066 1098 1098 1098 1098 1098 1132 1115 1066 1051 1022 1022 1022 1022 1008 1008 1022 1051 1268 1187 1247 1247 1187 1168 1149 1149 1149 0 0 0 0 0 0 0 994 931 908 1008 1008 1022 0 1022 1008 994 1008 0 0 0 0 0 0 0 0 0 1098 1115 1149 1149 1187 1362 1314 1247 1226 1206 1098 1036 1008 1022 1008 1008 1132 1149 1132 1066 1066 1098 1098 1098 1098 1051 1051 1051 1082 1168 1115 1098 1066 1066 1066 1051 1036 1051 1036 1022 1036 1022 1022 1008 1022 1036 1022 1022 1008 994 981 968 1036 1051 1022 955 981 981 981 981 981 968 931 919 968 931 876 876 865 845 845 865 876 876 876 886 919 908 908 908 886 886 876 865 855 826 799 782 774 758 758 774 808 817 845 876 855 817 836 817 808 791 750 750 758 750 743 743 743 750 735 728 714 714 707 707 700 687 687 675 681 675 651 657 639 608 0 588 574 574 566 570 561 566 0 0 549 0 0 525 521 521 518 514 518 518 525 518 0 0 0 0 0
    0 0 0 0 0 0 0 0 0 0 0 0 0 0 0 0 0 0 0 0 0 0 0 0 0 0 0 0 0 0 0 0 0 0 0 0 0 0 0 0 0 0 0 0 0 0 0 0 0 0 0 0 0 0 0 0 0 0 0 0 0 0 0 0 0 0 0 0 0 943 886 876 908 1022 1036 1082 1115 1082 1008 1022 1022 1008 981 968 981 981 981 1066 1008 981 1115 1115 1066 1115 1098 1082 1098 1115 1149 1098 1098 1187 1098 1168 1226 1226 0 0 0 0 0 0 1115 1082 1132 1132 1132 1132 1132 1149 1168 1082 1082 1008 994 994 994 981 981 981 994 1206 1082 1206 1206 1132 1115 1098 1132 0 0 0 0 0 119 118 0 994 908 897 994 1008 1022 0 1022 1022 1008 0 0 0 0 0 0 0 0 0 176 0 0 0 0 0 1471 1314 1206 1149 1132 1082 1022 1008 1008 994 994 1149 1168 1132 1066 1082 1115 1098 1098 1082 1036 1022 1036 1066 1132 1082 1098 1066 1051 1082 1051 1036 1051 1036 1022 1022 1022 1022 1008 1022 1051 1036 1066 1051 1008 1008 994 1051 1051 1036 968 981 981 981 994 981 955 919 908 955 919 876 865 845 826 836 845 855 865 855 876 897 897 908 919 897 897 886 876 876 845 817 782 774 766 758 766 799 808 826 876 865 836 845 836 817 799 750 758 766 766 750 750 750 758 743 735 714 707 707 700 694 687 687 681 681 681 663 663 657 0 603 588 579 579 574 574 570 566 557 557 553 545 541 529 521 521 518 518 521 521 525 525 0 0 0 0 0
    0 0 0 0 0 0 0 0 0 0 0 0 0 0 0 0 0 0 0 0 0 0 0 0 0 0 0 0 0 0 0 0 0 0 0 0 0 0 0 0 0 0 0 0 0 0 0 0 0 0 0 0 0 0 0 0 0 0 0 0 0 0 0 0 0 0 0 0 0 865 817 808 0 1098 1268 1291 1268 1132 1022 1036 1036 1008 981 955 968 968 968 1008 994 955 1098 1115 1066 1132 1098 1082 1098 1115 1149 1115 1115 1187 1082 1226 0 0 0 0 0 0 0 0 0 1082 1149 1132 1132 1132 1149 1149 1187 1082 1082 994 968 968 955 943 931 919 931 1008 1008 1051 1149 1098 0 0 0 0 0 0 0 0 0 0 0 994 908 943 994 1008 1022 0 1008 1008 1008 1008 0 0 0 0 0 201 196 0 0 0 0 0 0 0 0 1291 1187 1082 1149 1098 1022 1008 1008 0 0 1149 1187 1149 1066 1066 1098 1098 1098 1082 1022 1008 1008 1022 1036 1022 1036 1036 1008 1036 1036 0 1022 1008 1008 1008 1008 1022 1008 1022 1066 1051 1082 1066 1022 1008 994 1051 1051 1036 981 994 981 994 994 994 968 931 908 955 931 876 865 836 817 817 836 845 855 845 855 876 886 897 919 897 897 897 897 897 865 836 799 774 758 758 766 782 791 808 826 845 836 855 845 826 808 743 758 774 774 758 758 758 766 750 735 714 707 700 694 694 687 681 675 669 675 657 651 657 0 608 593 588 584 579 579 574 566 561 561 557 549 545 533 525 525 521 521 521 521 529 525 0 0 0 0 0
    0 0 0 0 0 0 0 0 0 0 0 0 0 0 0 0 0 0 0 0 0 0 0 0 0 0 0 0 0 0 0 0 0 0 0 0 0 0 0 0 0 0 0 0 0 0 0 0 0 0 0 0 0 0 0 0 0 0 0 0 0 0 0 0 0 0 0 0 0 0 0 0 0 0 0 0 1338 1187 1022 1051 1036 1008 981 968 968 968 981 1008 994 931 1066 1082 1051 1115 1082 1066 1082 1082 1132 1082 1082 1187 0 0 0 0 0 0 0 0 0 0 0 0 0 0 0 1132 1149 1149 1187 1098 1082 1008 981 981 968 943 0 0 0 0 0 0 0 0 0 0 0 0 0 0 0 0 0 0 0 0 0 0 0 968 994 0 0 1022 1008 0 0 0 0 0 0 0 0 0 196 0 195 0 0 0 0 179 175 0 0 1066 994 1008 0 0 0 1206 1226 1149 1051 1051 1082 1082 1082 1066 1008 994 981 994 1008 943 931 1022 1036 1082 1051 1036 1036 1036 1036 1036 1036 1036 1022 1022 1098 1082 1149 1066 994 1008 1008 1036 1051 1036 994 994 994 994 994 981 968 931 908 943 931 865 855 845 808 799 817 826 836 836 845 865 865 886 908 897 897 897 897 897 876 845 808 782 774 766 774 791 799 808 817 855 855 865 865 836 826 743 758 791 782 766 766 774 782 758 743 721 714 707 694 694 681 675 669 663 663 651 639 651 618 613 603 593 588 584 588 579 574 566 566 561 553 549 541 537 533 529 529 529 529 533 529 0 0 0 0 0
    0 0 0 0 0 0 0 0 0 0 0 0 0 0 0 0 0 0 0 0 0 0 0 0 0 0 0 0 0 0 0 0 0 0 0 0 0 0 0 0 0 0 0 0 0 0 0 0 0 0 0 0 0 0 0 0 0 0 0 0 0 0 0 0 0 0 0 0 0 0 0 0 0 0 0 0 0 0 0 0 0 1036 0 0 0 0 0 0 0 0 0 1066 1036 1115 1082 1066 1066 1082 0 0 0 0 0 0 0 0 0 0 0 0 0 0 0 0 0 0 0 0 0 0 0 0 0 0 0 0 0 0 0 0 0 0 0 0 0 0 0 0 0 0 0 0 0 0 0 0 0 0 0 0 0 0 0 0 0 0 0 0 0 0 0 0 0 0 0 0 0 0 0 0 0 0 0 0 0 0 0 0 0 0 0 0 0 0 0 0 0 0 0 1066 1051 1036 981 931 919 968 943 791 0 0 0 0 0 0 0 0 0 1036 1008 0 0 0 0 0 0 0 0 0 0 0 1051 1022 994 1051 1051 1036 1008 994 981 943 943 955 897 855 836 836 808 791 799 799 799 808 826 845 855 876 897 876 886 897 897 897 897 865 826 808 808 808 808 808 817 826 836 876 865 865 865 826 836 758 750 791 791 782 782 782 799 774 750 728 714 707 694 694 681 675 669 663 657 639 634 645 618 618 603 598 588 588 593 588 584 570 566 561 553 553 545 537 533 529 529 533 533 537 529 0 0 0 0 0
    0 0 0 0 0 0 0 0 0 0 0 0 0 0 0 0 0 0 0 0 0 0 0 0 0 0 0 0 0 0 0 0 0 0 0 0 0 0 0 0 0 0 0 0 0 0 0 0 0 0 0 0 0 0 0 0 0 0 0 0 0 0 0 0 0 0 0 0 0 0 0 0 0 0 0 0 0 0 0 0 0 0 0 0 0 0 0 0 0 0 0 0 0 0 0 0 0 0 0 0 0 0 0 0 0 0 0 0 0 0 0 0 0 0 0 0 0 0 0 0 0 0 0 0 0 0 0 0 0 0 0 0 0 0 0 0 0 0 0 0 0 0 0 0 0 0 0 0 0 0 0 0 0 0 0 0 0 0 0 0 0 0 0 0 0 0 0 0 0 0 0 0 0 0 0 0 0 0 0 0 0 0 0 0 0 0 0 0 0 0 0 0 0 0 0 0 0 0 0 0 0 0 0 0 0 0 0 0 0 0 0 0 0 0 0 0 0 0 0 0 0 0 0 0 0 0 981 981 981 981 994 968 931 855 0 0 791 766 782 766 750 774 808 845 855 876 886 886 876 886 886 897 908 886 845 836 836 836 826 817 817 826 817 855 845 826 836 791 808 766 743 799 791 791 791 791 808 782 758 735 721 707 694 694 687 675 669 663 663 639 639 645 629 623 608 603 593 588 593 588 588 574 574 566 553 557 545 537 533 529 529 533 533 537 529 0 0 0 0 0
    0 0 0 0 0 0 0 0 0 0 0 0 0 0 0 0 0 0 0 0 0 0 0 0 0 0 0 0 0 0 0 0 0 0 0 0 0 0 0 0 0 0 0 0 0 0 0 0 0 0 0 0 0 0 0 0 0 0 0 0 0 0 0 0 0 0 0 0 0 0 0 0 0 0 0 0 0 0 0 0 0 0 0 0 0 0 0 0 0 0 0 0 0 0 0 0 0 0 0 0 0 0 0 0 0 0 0 0 0 0 0 0 0 0 0 0 0 0 0 0 0 0 0 0 0 0 0 0 0 0 0 0 0 0 0 0 0 0 0 0 0 0 0 0 0 0 0 0 0 0 0 0 0 0 0 0 0 0 0 0 0 0 0 0 0 0 0 0 0 0 0 0 0 0 0 0 0 0 0 0 0 0 0 0 0 0 0 0 0 0 0 0 0 0 0 0 0 0 0 0 0 0 0 0 0 0 0 0 0 0 0 0 0 0 0 0 0 0 0 0 0 0 0 0 0 0 0 0 0 0 0 0 0 0 0 0 735 721 735 0 0 0 0 0 855 876 886 876 876 876 886 886 886 865 836 826 826 826 817 808 817 817 799 826 817 808 799 758 758 743 714 766 774 782 774 782 799 774 750 728 721 714 694 694 687 681 675 669 669 657 651 657 639 639 0 0 593 593 598 593 588 579 574 566 553 557 545 533 529 525 529 533 533 537 529 0 0 0 0 0
    0 0 0 0 0 0 0 0 0 0 0 0 0 0 0 0 0 0 0 0 0 0 0 0 0 0 0 0 0 0 0 0 0 0 0 0 0 0 0 0 0 0 0 0 0 0 0 0 0 0 0 0 0 0 0 0 0 0 0 0 0 0 0 0 0 0 0 0 0 0 0 0 0 0 0 0 0 0 0 0 0 0 0 0 0 0 0 0 0 0 0 0 0 0 0 0 0 0 0 0 0 0 0 0 0 0 0 0 0 0 0 0 0 0 0 0 0 0 0 0 0 0 0 0 0 0 0 0 0 0 0 0 0 0 0 0 0 0 0 0 0 0 0 0 0 0 0 0 0 0 0 0 0 0 0 0 0 0 0 0 0 0 0 0 0 0 0 0 0 0 0 0 0 0 0 0 0 0 0 0 0 0 0 0 0 0 0 0 0 0 0 0 0 0 0 0 0 0 0 0 0 0 0 0 0 0 0 0 0 0 0 0 0 0 0 0 0 0 0 0 0 0 0 0 0 0 0 0 0 0 0 0 0 0 0 0 0 0 0 0 0 0 0 0 0 876 886 876 865 876 876 865 865 855 826 817 817 817 808 799 808 817 799 817 799 799 774 728 721 714 687 681 707 721 728 721 758 743 743 728 721 721 700 700 694 687 681 675 675 663 657 669 645 639 0 0 0 0 603 593 588 579 574 570 557 561 549 537 533 529 533 533 533 537 529 0 0 0 0 0
    0 0 0 0 0 0 0 0 0 0 0 0 0 0 0 0 0 0 0 0 0 0 0 0 0 0 0 0 0 0 0 0 0 0 0 0 0 0 0 0 0 0 0 0 0 0 0 0 0 0 0 0 0 0 0 0 0 0 0 0 0 0 0 0 0 0 0 0 0 0 0 0 0 0 0 0 0 0 0 0 0 0 0 0 0 0 0 0 0 0 0 0 0 0 0 0 0 0 0 0 0 0 0 0 0 0 0 0 0 0 0 0 0 0 0 0 0 0 0 0 0 0 0 0 0 0 0 0 0 0 0 0 0 0 0 0 0 0 0 0 0 0 0 0 0 0 0 0 0 0 0 0 0 0 0 0 0 0 0 0 0 0 0 0 0 0 0 0 0 0 0 0 0 0 0 0 0 0 0 0 0 0 0 0 0 0 0 0 0 0 0 0 0 0 0 0 0 0 0 0 0 0 0 0 0 0 0 0 0 0 0 0 0 0 0 0 0 0 0 0 0 0 0 0 0 0 0 0 0 0 0 0 0 0 0 0 0 0 0 0 0 0 0 0 0 0 876 876 865 876 865 855 855 836 826 817 808 808 799 791 799 808 799 791 774 766 728 694 687 681 657 639 651 675 687 687 714 714 728 728 714 714 700 700 700 687 681 675 669 663 651 0 0 634 0 0 0 0 0 593 588 579 574 579 566 570 557 541 537 533 537 537 533 537 529 0 0 0 0 0
    0 0 0 0 0 0 0 0 0 0 0 0 0 0 0 0 0 0 0 0 0 0 0 0 0 0 0 0 0 0 0 0 0 0 0 0 0 0 0 0 0 0 0 0 0 0 0 0 0 0 0 0 0 0 0 0 0 0 0 0 0 0 0 0 0 0 0 0 0 0 0 0 0 0 0 0 0 0 0 0 0 0 0 0 0 0 0 0 0 0 0 0 0 0 0 0 0 0 0 0 0 0 0 0 0 0 0 0 0 0 0 0 0 0 0 0 0 0 0 0 0 0 0 0 0 0 0 0 0 0 0 0 0 0 0 0 0 0 0 0 0 0 0 0 0 0 0 0 0 0 0 0 0 0 0 0 0 0 0 0 0 0 0 0 0 0 0 0 0 0 0 0 0 0 0 0 0 0 0 0 0 0 0 0 0 0 0 0 0 0 0 0 0 0 0 0 0 0 0 0 0 0 0 0 0 0 0 0 0 0 0 0 0 0 0 0 0 0 0 0 0 0 0 0 0 0 0 0 0 0 0 0 0 0 0 0 0 0 0 0 0 0 0 0 0 0 0 0 865 876 865 855 845 836 817 808 808 808 799 791 791 799 791 774 750 735 714 687 681 675 645 629 629 651 657 669 694 700 707 721 707 714 700 700 694 687 681 675 669 663 657 657 645 639 0 0 603 0 613 603 598 588 579 584 570 574 561 545 545 537 541 541 537 537 533 0 0 0 0 0
    0 0 0 0 0 0 0 0 0 0 0 0 0 0 0 0 0 0 0 0 0 0 0 0 0 0 0 0 0 0 0 0 0 0 0 0 0 0 0 0 0 0 0 0 0 0 0 0 0 0 0 0 0 0 0 0 0 0 0 0 0 0 0 0 0 0 0 0 0 0 0 0 0 0 0 0 0 0 0 0 0 0 0 0 0 0 0 0 0 0 0 0 0 0 0 0 0 0 0 0 0 0 0 0 0 0 0 0 0 0 0 0 0 0 0 0 0 0 0 0 0 0 0 0 0 0 0 0 0 0 0 0 0 0 0 0 0 0 0 0 0 0 0 0 0 0 0 0 0 0 0 0 0 0 0 0 0 0 0 0 0 0 0 0 0 0 0 0 0 0 0 0 0 0 0 0 0 0 0 0 0 0 0 0 0 0 0 0 0 0 0 0 0 0 0 0 0 0 0 0 0 0 0 0 0 0 0 0 0 0 0 0 0 0 0 0 0 0 0 0 0 0 0 0 0 0 0 0 0 0 0 0 0 0 0 0 0 0 0 0 0 0 0 0 0 0 0 0 0 865 865 845 836 826 817 808 808 808 799 791 782 791 774 766 743 728 714 681 681 663 639 629 623 634 634 651 681 681 700 728 714 721 707 700 694 687 681 675 663 663 663 663 663 663 0 0 0 0 629 613 608 593 584 584 570 574 566 549 545 541 545 541 537 537 529 0 0 0 0 0
    0 0 0 0 0 0 0 0 0 0 0 0 0 0 0 0 0 0 0 0 0 0 0 0 0 0 0 0 0 0 0 0 0 0 0 0 0 0 0 0 0 0 0 0 0 0 0 0 0 0 0 0 0 0 0 0 0 0 0 0 0 0 0 0 0 0 0 0 0 0 0 0 0 0 0 0 0 0 0 0 0 0 0 0 0 0 0 0 0 0 0 0 0 0 0 0 0 0 0 0 0 0 0 0 0 0 0 0 0 0 0 0 0 0 0 0 0 0 0 0 0 0 0 0 0 0 0 0 0 0 0 0 0 0 0 0 0 0 0 0 0 0 0 0 0 0 0 0 0 0 0 0 0 0 0 0 0 0 0 0 0 0 0 0 0 0 0 0 0 0 0 0 0 0 0 0 0 0 0 0 0 0 0 0 0 0 0 0 0 0 0 0 0 0 0 0 0 0 0 0 0 0 0 0 0 0 0 0 0 0 0 0 0 0 0 0 0 0 0 0 0 0 0 0 0 0 0 0 0 0 0 0 0 0 0 0 0 0 0 0 0 0 0 0 0 0 0 0 0 0 855 836 826 817 808 817 817 817 808 808 808 808 791 782 750 721 707 675 669 645 634 623 618 623 623 634 669 681 700 743 735 735 728 707 700 687 681 681 669 669 669 675 675 675 669 0 0 0 645 623 0 0 0 588 570 579 566 553 545 541 545 545 537 533 529 0 0 0 0 0
    0 0 0 0 0 0 0 0 0 0 0 0 0 0 0 0 0 0 0 0 0 0 0 0 0 0 0 0 0 0 0 0 0 0 0 0 0 0 0 0 0 0 0 0 0 0 0 0 0 0 0 0 0 0 0 0 0 0 0 0 0 0 0 0 0 0 0 0 0 0 0 0 0 0 0 0 0 0 0 0 0 0 0 0 0 0 0 0 0 0 0 0 0 0 0 0 0 0 0 0 0 0 0 0 0 0 0 0 0 0 0 0 0 0 0 0 0 0 0 0 0 0 0 0 0 0 0 0 0 0 0 0 0 0 0 0 0 0 0 0 0 0 0 0 0 0 0 0 0 0 0 0 0 0 0 0 0 0 0 0 0 0 0 0 0 0 0 0 0 0 0 0 0 0 0 0 0 0 0 0 0 0 0 0 0 0 0 0 0 0 0 0 0 0 0 0 0 0 0 0 0 0 0 0 0 0 0 0 0 0 0 0 0 0 0 0 0 0 0 0 0 0 0 0 0 0 0 0 0 0 0 0 0 0 0 0 0 0 0 0 0 0 0 0 0 0 0 0 0 0 0 0 826 808 808 817 826 836 826 817 817 826 808 799 758 721 700 663 651 634 629 623 618 618 618 623 639 651 675 714 721 728 714 700 700 694 687 687 675 681 681 681 687 687 687 0 0 0 657 0 0 0 0 588 574 579 561 549 541 541 545 541 533 533 529 0 0 0 0 0
    0 0 0 0 0 0 0 0 0 0 0 0 0 0 0 0 0 0 0 0 0 0 0 0 0 0 0 0 0 0 0 0 0 0 0 0 0 0 0 0 0 0 0 0 0 0 0 0 0 0 0 0 0 0 0 0 0 0 0 0 0 0 0 0 0 0 0 0 0 0 0 0 0 0 0 0 0 0 0 0 0 0 0 0 0 0 0 0 0 0 0 0 0 0 0 0 0 0 0 0 0 0 0 0 0 0 0 0 0 0 0 0 0 0 0 0 0 0 0 0 0 0 0 0 0 0 0 0 0 0 0 0 0 0 0 0 0 0 0 0 0 0 0 0 0 0 0 0 0 0 0 0 0 0 0 0 0 0 0 0 0 0 0 0 0 0 0 0 0 0 0 0 0 0 0 0 0 0 0 0 0 0 0 0 0 0 0 0 0 0 0 0 0 0 0 0 0 0 0 0 0 0 0 0 0 0 0 0 0 0 0 0 0 0 0 0 0 0 0 0 0 0 0 0 0 0 0 0 0 0 0 0 0 0 0 0 0 0 0 0 0 0 0 0 0 0 0 0 0 0 0 0 0 791 791 799 826 836 826 826 826 826 817 817 774 721 700 651 639 629 623 618 618 613 618 618 629 634 651 681 687 700 700 694 694 694 694 694 687 694 694 694 700 700 694 700 0 0 663 0 0 0 0 588 574 574 557 545 541 541 545 537 533 529 529 0 0 0 0 0
    0 0 0 0 0 0 0 0 0 0 0 0 0 0 0 0 0 0 0 0 0 0 0 0 0 0 0 0 0 0 0 0 0 0 0 0 0 0 0 0 0 0 0 0 0 0 0 0 0 0 0 0 0 0 0 0 0 0 0 0 0 0 0 0 0 0 0 0 0 0 0 0 0 0 0 0 0 0 0 0 0 0 0 0 0 0 0 0 0 0 0 0 0 0 0 0 0 0 0 0 0 0 0 0 0 0 0 0 0 0 0 0 0 0 0 0 0 0 0 0 0 0 0 0 0 0 0 0 0 0 0 0 0 0 0 0 0 0 0 0 0 0 0 0 0 0 0 0 0 0 0 0 0 0 0 0 0 0 0 0 0 0 0 0 0 0 0 0 0 0 0 0 0 0 0 0 0 0 0 0 0 0 0 0 0 0 0 0 0 0 0 0 0 0 0 0 0 0 0 0 0 0 0 0 0 0 0 0 0 0 0 0 0 0 0 0 0 0 0 0 0 0 0 0 0 0 0 0 0 0 0 0 0 0 0 0 0 0 0 0 0 0 0 0 0 0 0 0 0 0 0 0 0 0 766 791 817 826 836 845 855 865 845 836 799 728 700 663 645 629 623 618 618 613 613 618 629 623 639 663 669 687 694 687 694 700 700 694 687 700 700 700 700 700 694 694 687 687 663 0 0 0 0 588 584 579 561 549 545 549 553 545 537 533 533 0 0 0 0 0
    0 0 0 0 0 0 0 0 0 0 0 0 0 0 0 0 0 0 0 0 0 0 0 0 0 0 0 0 0 0 0 0 0 0 0 0 0 0 0 0 0 0 0 0 0 0 0 0 0 0 0 0 0 0 0 0 0 0 0 0 0 0 0 0 0 0 0 0 0 0 0 0 0 0 0 0 0 0 0 0 0 0 0 0 0 0 0 0 0 0 0 0 0 0 0 0 0 0 0 0 0 0 0 0 0 0 0 0 0 0 0 0 0 0 0 0 0 0 0 0 0 0 0 0 0 0 0 0 0 0 0 0 0 0 0 0 0 0 0 0 0 0 0 0 0 0 0 0 0 0 0 0 0 0 0 0 0 0 0 0 0 0 0 0 0 0 0 0 0 0 0 0 0 0 0 0 0 0 0 0 0 0 0 0 0 0 0 0 0 0 0 0 0 0 0 0 0 0 0 0 0 0 0 0 0 0 0 0 0 0 0 0 0 0 0 0 0 0 0 0 0 0 0 0 0 0 0 0 0 0 0 0 0 0 0 0 0 0 0 0 0 0 0 0 0 0 0 0 0 0 0 0 0 0 750 782 817 845 876 919 931 955 931 919 836 782 707 669 657 629 618 618 618 613 613 613 623 618 629 657 663 675 687 681 694 700 694 694 687 700 700 700 707 700 700 694 694 694 675 0 0 0 0 0 588 579 561 557 553 561 566 557 541 533 537 0 0 0 0 0
    0 0 0 0 0 0 0 0 0 0 0 0 0 0 0 0 0 0 0 0 0 0 0 0 0 0 0 0 0 0 0 0 0 0 0 0 0 0 0 0 0 0 0 0 0 0 0 0 0 0 0 0 0 0 0 0 0 0 0 0 0 0 0 0 0 0 0 0 0 0 0 0 0 0 0 0 0 0 0 0 0 0 0 0 0 0 0 0 0 0 0 0 0 0 0 0 0 0 0 0 0 0 0 0 0 0 0 0 0 0 0 0 0 0 0 0 0 0 0 0 0 0 0 0 0 0 0 0 0 0 0 0 0 0 0 0 0 0 0 0 0 0 0 0 0 0 0 0 0 0 0 0 0 0 0 0 0 0 0 0 0 0 0 0 0 0 0 0 0 0 0 0 0 0 0 0 0 0 0 0 0 0 0 0 0 0 0 0 0 0 0 0 0 0 0 0 0 0 0 0 0 0 0 0 0 0 0 0 0 0 0 0 0 0 0 0 0 0 0 0 0 0 0 0 0 0 0 0 0 0 0 0 0 0 0 0 0 0 0 0 0 0 0 0 0 0 0 0 0 0 0 0 0 0 758 791 836 865 919 968 994 1022 1022 1066 0 0 728 694 681 651 629 623 618 613 608 0 623 0 0 651 645 645 687 675 687 694 687 687 687 694 700 700 707 700 700 694 687 687 675 645 0 0 0 0 0 579 557 557 553 557 561 549 533 525 529 0 0 0 0 0
    0 0 0 0 0 0 0 0 0 0 0 0 0 0 0 0 0 0 0 0 0 0 0 0 0 0 0 0 0 0 0 0 0 0 0 0 0 0 0 0 0 0 0 0 0 0 0 0 0 0 0 0 0 0 0 0 0 0 0 0 0 0 0 0 0 0 0 0 0 0 0 0 0 0 0 0 0 0 0 0 0 0 0 0 0 0 0 0 0 0 0 0 0 0 0 0 0 0 0 0 0 0 0 0 0 0 0 0 0 0 0 0 0 0 0 0 0 0 0 0 0 0 0 0 0 0 0 0 0 0 0 0 0 0 0 0 0 0 0 0 0 0 0 0 0 0 0 0 0 0 0 0 0 0 0 0 0 0 0 0 0 0 0 0 0 0 0 0 0 0 0 0 0 0 0 0 0 0 0 0 0 0 0 0 0 0 0 0 0 0 0 0 0 0 0 0 0 0 0 0 0 0 0 0 0 0 0 0 0 0 0 0 0 0 0 0 0 0 0 0 0 0 0 0 0 0 0 0 0 0 0 0 0 0 0 0 0 0 0 0 0 0 0 0 0 0 0 0 0 0 0 0 0 0 0 0 836 845 0 836 0 994 968 0 0 0 728 700 694 681 669 634 618 608 593 0 0 0 0 618 613 0 687 675 687 694 694 694 694 700 707 707 707 700 707 694 687 687 663 639 0 618 0 608 598 588 566 566 557 557 557 549 533 525 529 0 0 0 0 0
    0 0 0 0 0 0 0 0 0 0 0 0 0 0 0 0 0 0 0 0 0 0 0 0 0 0 0 0 0 0 0 0 0 0 0 0 0 0 0 0 0 0 0 0 0 0 0 0 0 0 0 0 0 0 0 0 0 0 0 0 0 0 0 0 0 0 0 0 0 0 0 0 0 0 0 0 0 0 0 0 0 0 0 0 0 0 0 0 0 0 0 0 0 0 0 0 0 0 0 0 0 0 0 0 0 0 0 0 0 0 0 0 0 0 0 0 0 0 0 0 0 0 0 0 0 0 0 0 0 0 0 0 0 0 0 0 0 0 0 0 0 0 0 0 0 0 0 0 0 0 0 0 0 0 0 0 0 0 0 0 0 0 0 0 0 0 0 0 0 0 0 0 0 0 0 0 0 0 0 0 0 0 0 0 0 0 0 0 0 0 0 0 0 0 0 0 0 0 0 0 0 0 0 0 0 0 0 0 0 0 0 0 0 0 0 0 0 0 0 0 0 0 0 0 0 0 0 0 0 0 0 0 0 0 0 0 0 0 0 0 0 0 0 5661 4906 4906 4329 3679 0 570 0 0 0 0 588 0 0 886 836 0 0 0 0 0 0 714 694 675 669 669 669 634 629 608 588 579 0 0 0 0 608 603 700 681 694 700 694 694 694 700 707 707 707 707 707 694 687 681 657 634 629 618 613 613 603 598 579 574 561 557 557 545 533 525 529 0 0 0 0 0
    0 0 0 0 0 0 0 0 0 0 0 0 0 0 0 0 0 0 0 0 0 0 0 0 0 0 0 0 0 0 0 0 0 0 0 0 0 0 0 0 0 0 0 0 0 0 0 0 0 0 0 0 0 0 0 0 0 0 0 0 0 0 0 0 0 0 0 0 0 0 0 0 0 0 0 0 0 0 0 0 0 0 0 0 0 0 0 0 0 0 0 0 0 0 0 0 0 0 0 0 0 0 0 0 0 0 0 0 0 0 0 0 0 0 0 0 0 0 0 0 0 0 0 0 0 0 0 0 0 0 0 0 0 0 0 0 0 0 0 0 0 0 0 0 0 0 0 0 0 0 0 0 0 0 0 0 0 0 0 0 0 0 0 0 0 0 0 0 0 0 0 0 0 0 0 0 0 0 0 0 0 0 0 0 0 0 0 0 0 0 0 0 0 0 0 0 0 0 0 0 0 0 0 0 0 0 0 0 0 0 0 0 0 0 0 0 0 0 0 0 0 0 0 0 0 0 0 0 0 0 0 0 0 0 0 0 0 0 0 6690 5256 3679 0 6690 6133 0 5661 4088 0 574 0 593 588 584 588 598 0 1008 931 0 0 1082 0 0 0 694 675 645 629 639 651 629 623 608 603 593 608 603 603 608 608 608 700 681 694 707 694 694 700 700 707 700 707 700 707 687 681 681 657 634 629 623 623 618 613 608 598 588 579 574 566 553 537 533 533 0 0 0 0 0
    0 0 0 0 0 0 0 0 0 0 0 0 0 0 0 0 0 0 0 0 0 0 0 0 0 0 0 0 0 0 0 0 0 0 0 0 0 0 0 0 0 0 0 0 0 0 0 0 0 0 0 0 0 0 0 0 0 0 0 0 0 0 0 0 0 0 0 0 0 0 0 0 0 0 0 0 0 0 0 0 0 0 0 0 0 0 0 0 0 0 0 0 0 0 0 0 0 0 0 0 0 0 0 0 0 0 0 0 0 0 0 0 0 0 0 0 0 0 0 0 0 0 0 0 0 0 0 0 0 0 0 0 0 0 0 0 0 0 0 0 0 0 0 0 0 0 0 0 0 0 0 0 0 0 0 0 0 0 0 0 0 0 0 0 0 0 0 0 0 0 0 0 0 0 0 0 0 0 0 0 0 0 0 0 0 0 0 0 0 0 0 0 0 0 0 0 0 0 0 0 0 0 0 0 0 0 0 0 0 0 0 0 0 0 0 0 0 0 0 0 0 0 0 0 0 0 0 0 0 0 0 0 0 0 0 0 0 0 0 0 5256 0 0 0 0 0 0 0 570 574 0 588 588 579 584 593 598 0 0 0 0 0 0 0 0 681 663 657 645 663 675 645 634 623 618 613 613 608 608 613 613 608 681 675 687 707 694 694 700 707 714 707 707 700 694 681 681 675 651 634 629 623 629 623 623 613 608 603 593 593 588 579 545 537 533 0 0 0 0 0
    0 0 0 0 0 0 0 0 0 0 0 0 0 0 0 0 0 0 0 0 0 0 0 0 0 0 0 0 0 0 0 0 0 0 0 0 0 0 0 0 0 0 0 0 0 0 0 0 0 0 0 0 0 0 0 0 0 0 0 0 0 0 0 0 0 0 0 0 0 0 0 0 0 0 0 0 0 0 0 0 0 0 0 0 0 0 0 0 0 0 0 0 0 0 0 0 0 0 0 0 0 0 0 0 0 0 0 0 0 0 0 0 0 0 0 0 0 0 0 0 0 0 0 0 0 0 0 0 0 0 0 0 0 0 0 0 0 0 0 0 0 0 0 0 0 0 0 0 0 0 0 0 0 0 0 0 0 0 0 0 0 0 0 0 0 0 0 0 0 0 0 0 0 0 0 0 0 0 0 0 0 0 0 0 0 0 0 0 0 0 0 0 0 0 0 0 0 0 0 0 0 0 0 0 0 0 0 0 0 0 0 0 0 0 0 0 0 0 0 0 0 0 0 0 0 0 0 0 0 0 0 0 0 0 0 0 0 0 0 0 0 0 0 0 0 0 0 0 0 570 579 579 570 561 570 579 579 0 0 0 0 0 0 0 629 651 629 639 634 645 663 645 645 634 629 618 608 603 603 608 608 608 675 681 694 714 700 700 707 707 721 707 707 687 669 657 663 657 639 629 623 623 623 623 623 618 613 613 603 598 598 593 561 541 533 0 0 0 0 0
    0 0 0 0 0 0 0 0 0 0 0 0 0 0 0 0 0 0 0 0 0 0 0 0 0 0 0 0 0 0 0 0 0 0 0 0 0 0 0 0 0 0 0 0 0 0 0 0 0 0 0 0 0 0 0 0 0 0 0 0 0 0 0 0 0 0 0 0 0 0 0 0 0 0 0 0 0 0 0 0 0 0 0 0 0 0 0 0 0 0 0 0 0 0 0 0 0 0 0 0 0 0 0 0 0 0 0 0 0 0 0 0 0 0 0 0 0 0 0 0 0 0 0 0 0 0 0 0 0 0 0 0 0 0 0 0 0 0 0 0 0 0 0 0 0 0 0 0 0 0 0 0 0 0 0 0 0 0 0 0 0 0 0 0 0 0 0 0 0 0 0 0 0 0 0 0 0 0 0 0 0 0 0 0 0 0 0 0 0 0 0 0 0 0 0 0 0 0 0 0 0 0 0 0 0 0 0 0 0 0 0 0 0 0 0 0 0 0 0 0 0 0 0 0 0 0 0 0 0 0 0 0 0 0 0 0 0 0 0 0 0 0 0 0 0 0 0 0 584 574 584 570 557 553 557 566 566 0 0 0 0 570 570 579 598 623 613 623 618 629 645 634 634 629 623 618 603 598 603 603 603 598 618 663 700 721 707 714 714 721 743 714 714 0 0 0 634 623 618 623 618 618 618 623 629 623 613 613 603 598 598 593 566 545 537 0 0 0 0 0
    0 0 0 0 0 0 0 0 0 0 0 0 0 0 0 0 0 0 0 0 0 0 0 0 0 0 0 0 0 0 0 0 0 0 0 0 0 0 0 0 0 0 0 0 0 0 0 0 0 0 0 0 0 0 0 0 0 0 0 0 0 0 0 0 0 0 0 0 0 0 0 0 0 0 0 0 0 0 0 0 0 0 0 0 0 0 0 0 0 0 0 0 0 0 0 0 0 0 0 0 0 0 0 0 0 0 0 0 0 0 0 0 0 0 0 0 0 0 0 0 0 0 0 0 0 0 0 0 0 0 0 0 0 0 0 0 0 0 0 0 0 0 0 0 0 0 0 0 0 0 0 0 0 0 0 0 0 0 0 0 0 0 0 0 0 0 0 0 0 0 0 0 0 0 0 0 0 0 0 0 0 0 0 0 0 0 0 0 0 0 0 0 0 0 0 0 0 0 0 0 0 0 0 0 0 0 0 0 0 0 0 0 0 0 0 0 0 0 0 0 0 0 0 0 0 0 0 0 0 0 0 0 0 0 0 0 0 0 0 0 0 0 0 0 0 0 0 0 584 574 584 570 553 549 553 561 561 561 570 549 553 561 553 553 549 618 608 613 613 618 629 634 629 629 613 608 598 593 598 613 603 593 593 618 639 0 0 714 721 743 766 728 721 0 0 0 0 613 603 613 613 613 613 618 623 618 613 613 603 598 598 593 570 549 537 0 0 0 0 0
    0 0 0 0 0 0 0 0 0 0 0 0 0 0 0 0 0 0 0 0 0 0 0 0 0 0 0 0 0 0 0 0 0 0 0 0 0 0 0 0 0 0 0 0 0 0 0 0 0 0 0 0 0 0 0 0 0 0 0 0 0 0 0 0 0 0 0 0 0 0 0 0 0 0 0 0 0 0 0 0 0 0 0 0 0 0 0 0 0 0 0 0 0 0 0 0 0 0 0 0 0 0 0 0 0 0 0 0 0 0 0 0 0 0 0 0 0 0 0 0 0 0 0 0 0 0 0 0 0 0 0 0 0 0 0 0 0 0 0 0 0 0 0 0 0 0 0 0 0 0 0 0 0 0 0 0 0 0 0 0 0 0 0 0 0 0 0 0 0 0 0 0 0 0 0 0 0 0 0 0 0 0 0 0 0 0 0 0 0 0 0 0 0 0 0 0 0 0 0 0 0 0 0 0 0 0 0 0 0 0 0 0 0 0 0 0 0 0 0 0 0 0 0 0 0 0 0 0 0 0 0 0 0 0 0 0 0 0 0 0 0 0 0 0 0 0 0 0 588 579 588 570 553 553 557 566 566 561 561 545 557 557 545 537 533 579 593 603 598 608 608 623 618 613 603 593 584 579 579 613 608 598 593 603 608 0 0 0 728 766 782 721 0 0 0 0 613 603 588 608 613 608 613 618 623 623 613 613 608 598 598 588 574 557 545 0 0 0 0 0
    0 0 0 0 0 0 0 0 0 0 0 0 0 0 0 0 0 0 0 0 0 0 0 0 0 0 0 0 0 0 0 0 0 0 0 0 0 0 0 0 0 0 0 0 0 0 0 0 0 0 0 0 0 0 0 0 0 0 0 0 0 0 0 0 0 0 0 0 0 0 0 0 0 0 0 0 0 0 0 0 0 0 0 0 0 0 0 0 0 0 0 0 0 0 0 0 0 0 0 0 0 0 0 0 0 0 0 0 0 0 0 0 0 0 0 0 0 0 0 0 0 0 0 0 0 0 0 0 0 0 0 0 0 0 0 0 0 0 0 0 0 0 0 0 0 0 0 0 0 0 0 0 0 0 0 0 0 0 0 0 0 0 0 0 0 0 0 0 0 0 0 0 0 0 0 0 0 0 0 0 0 0 0 0 0 0 0 0 0 0 0 0 0 0 0 0 0 0 0 0 0 0 0 0 0 0 0 0 0 0 0 0 0 0 0 0 0 0 0 0 0 0 0 0 0 0 0 0 0 0 0 0 0 0 0 0 0 0 0 0 0 0 0 0 0 728 0 0 0 0 593 579 557 557 561 570 566 557 549 537 537 545 537 533 525 533 541 570 579 588 588 0 603 593 579 566 561 561 557 588 598 593 598 603 603 608 0 0 0 0 0 0 0 0 0 0 593 593 574 603 608 608 613 618 623 623 618 613 608 603 603 593 584 566 553 0 0 0 0 0</data></depth>
</opencv_storage>
