<?xml version="1.0"?>
<opencv_storage>
<gps_time_stamp>296105</gps_time_stamp>
<gps_x>-1.2412836074829102e+001</gps_x>
<gps_y>1.0999562263488770e+001</gps_y>
<gps_z>-2.0858550071716309e+000</gps_z>
<image_time_stamp>286959</image_time_stamp>
<depth type_id="opencv-matrix">
  <rows>82</rows>
  <cols>320</cols>
  <dt>s</dt>
  <data>
    0 0 0 0 0 0 0 0 0 0 0 0 0 0 0 0 0 0 0 0 0 0 0 0 0 0 0 0 0 0 0 0 0 0 0 0 0 0 0 0 0 0 0 0 0 0 0 0 0 0 0 0 0 0 0 0 0 0 0 0 0 0 0 0 0 0 0 0 0 1098 1098 1098 1132 1098 1149 1168 1098 1098 1115 1168 1268 0 0 1268 1291 1291 1291 0 1338 1362 1415 1443 1533 1533 1471 1565 1565 1599 1635 1672 1711 1711 1752 1839 1839 1887 1989 1989 2044 2164 2164 2230 2299 2374 2374 2374 2453 2537 2537 2628 2725 2628 2943 3199 3504 3504 3873 4088 4599 4906 5256 4329 5256 5256 6133 7359 6690 7359 7359 8177 0 0 0 0 0 0 0 0 0 0 0 0 8177 8177 8177 6690 6690 7359 7359 7359 7359 8177 0 8177 0 7359 7359 8177 5661 5256 4906 4906 4329 4329 4329 4088 4088 3873 4088 4088 3679 3873 3679 3504 3873 3679 3504 3345 3199 3199 3066 3066 3199 2830 2453 2453 2299 2044 1936 1989 1936 1839 1887 1839 1711 1752 1599 1752 1565 1711 1711 1711 1672 1711 1752 1752 1672 1752 1635 1565 1471 1415 1388 1388 1415 1388 1388 1388 1388 1388 1362 1471 1415 1338 1338 1247 1247 1247 1187 1226 1149 1149 1187 1149 1187 1149 1115 1187 1115 1206 1082 1082 1082 1082 1082 1098 1051 1036 1008 994 994 994 981 0 0 0 0 0 0 0 865 845 845 855 855 855 855 826 836 826 826 817 808 782 817 826 836 826 836 817 0 817 836 799 714 728 728 721 707 694 694 651 681 687 681 651 657 663 645 651 657 651 645 645 651 0 0 0 0 0
    0 0 0 0 0 0 0 0 0 0 0 0 0 0 0 0 0 0 0 0 0 0 0 0 0 0 0 0 0 0 0 0 0 0 0 0 0 0 0 0 0 0 0 0 0 0 0 0 0 0 0 0 0 0 0 0 0 0 0 0 0 0 0 0 0 0 0 0 0 1082 1082 1098 1115 1098 1149 1168 1098 1098 1115 1168 1247 1247 0 1268 1291 1291 1291 1314 1338 1362 1415 1443 1533 1501 1501 1599 1565 1635 1672 1672 1711 1711 1752 1839 1839 1887 1989 1989 2102 2164 2102 2230 2299 2299 2374 2299 2453 2453 2537 2628 2725 2628 2943 3199 3345 3504 3873 4088 4599 4599 5256 4329 5256 5256 5661 6690 6690 6690 6690 8177 0 0 0 0 0 0 0 0 0 0 0 0 0 0 0 7359 7359 8177 7359 0 8177 0 0 0 0 0 0 0 6133 5661 5256 5256 4329 4329 4599 4088 4329 4088 4329 4329 3873 3873 3873 3345 3873 3504 3504 3199 3199 0 3199 3066 3199 2830 2374 2453 2299 2044 1989 1989 1936 1887 1887 1887 1752 1752 1635 1752 1565 1672 1711 1672 1711 1711 1752 1752 1672 1752 1672 1501 1471 1415 1388 1388 1415 1388 1388 1388 1388 1388 1362 1501 1415 0 1338 0 0 0 0 0 1149 1149 1187 1132 1187 1149 1115 1187 1115 1206 1098 1098 1098 1098 1082 1098 1066 1036 1008 1008 994 981 0 0 0 0 0 0 432 0 0 845 845 855 865 865 855 826 836 826 826 826 808 791 817 826 836 836 836 817 0 817 845 799 721 735 735 721 707 694 687 651 681 687 681 657 663 663 651 651 657 651 645 645 651 0 0 0 0 0
    0 0 0 0 0 0 0 0 0 0 0 0 0 0 0 0 0 0 0 0 0 0 0 0 0 0 0 0 0 0 0 0 0 0 0 0 0 0 0 0 0 0 0 0 0 0 0 0 0 0 0 0 0 0 0 0 0 0 0 0 0 0 0 0 0 0 0 0 0 1082 1082 1098 1115 1098 1149 1168 1082 1098 1115 1187 1247 1247 1291 1268 1268 1291 1291 1291 1314 1338 1415 1415 1533 1501 1501 1599 1565 1635 1672 1672 1711 1711 1752 1839 1839 1887 1989 1989 2044 2102 2102 2230 2230 2230 2299 2299 2374 2453 2453 2628 2725 2725 3066 3199 3504 3679 3873 4088 4906 4599 4906 4329 4906 5256 5661 6690 6690 6690 6690 8177 0 0 0 0 0 0 0 0 0 0 0 0 0 0 0 7359 8177 0 8177 0 8177 0 0 0 0 0 0 0 6133 5256 5256 4906 4329 4329 4599 4088 4329 4088 4599 4599 3873 4088 4088 3504 4088 3679 3679 3345 0 0 3199 3199 3199 2830 2374 2453 2374 2102 2044 2044 1989 1936 1936 1989 1752 1752 1635 1752 1599 1672 1711 1672 1711 1711 1752 1752 1635 1711 1672 1501 1471 1415 1388 1388 1415 1415 1388 1415 1415 1415 1388 1501 1443 0 1338 0 0 0 0 0 1149 1149 1187 1132 1187 1149 1132 1187 1115 1206 1098 1115 1132 1115 1098 1098 1082 1036 1008 1008 994 981 0 0 0 0 0 0 432 0 0 845 845 855 865 865 855 836 845 836 836 826 817 791 826 826 845 836 836 826 0 826 855 808 735 743 743 721 700 694 681 651 681 687 687 657 663 663 651 651 657 651 645 645 651 0 0 0 0 0
    0 0 0 0 0 0 0 0 0 0 0 0 0 0 0 0 0 0 0 0 0 0 0 0 0 0 0 0 0 0 0 0 0 0 0 0 0 0 0 0 0 0 0 0 0 0 0 0 0 0 0 0 0 0 0 0 0 0 0 0 0 0 0 0 0 0 0 0 0 1082 1082 1098 1115 1098 1132 1149 1082 1082 1115 1187 1247 1226 1291 1268 1268 1268 1268 1291 1291 1338 1388 1415 1501 1471 1501 1565 1565 1635 1672 1672 1711 1711 1795 1839 1887 1887 1989 1989 2044 2102 2044 2230 2230 2164 2299 2230 2374 2453 2453 2628 2725 2725 3199 3345 3504 3679 3873 4088 4599 4599 4906 4329 4906 5256 5661 6690 6690 6690 6133 8177 0 0 0 0 0 0 0 0 0 0 0 0 0 0 0 0 0 0 0 0 0 0 0 0 0 0 0 0 6690 5661 5256 5256 4329 4329 4599 4088 4329 4088 4599 4599 4088 4088 4088 3504 4329 3679 3679 3345 0 0 3199 3199 3066 2725 2299 2453 2374 2102 2102 2102 2044 1989 1989 2044 1795 1795 1635 1711 1635 1672 1711 1672 1711 1711 1752 1752 1635 1672 1672 1501 1471 1415 1388 1388 1415 1415 1388 1415 1415 1415 1388 1533 1443 0 1338 0 0 0 0 0 1149 1149 1187 1132 1187 1149 1132 1168 1132 1206 1115 1115 1149 1149 1115 1115 1115 1051 1022 1008 1008 994 0 0 0 0 0 0 0 0 0 836 845 855 865 865 855 845 855 836 845 836 817 791 826 836 845 836 845 836 0 836 886 817 758 766 766 721 694 687 681 645 681 687 687 657 669 663 651 657 651 651 639 639 651 0 0 0 0 0
    0 0 0 0 0 0 0 0 0 0 0 0 0 0 0 0 0 0 0 0 0 0 0 0 0 0 0 0 0 0 0 0 0 0 0 0 0 0 0 0 0 0 0 0 0 0 0 0 0 0 0 0 0 0 0 0 0 0 0 0 0 0 0 0 0 0 0 0 0 1082 1082 1082 1098 1098 1115 1149 1066 1082 1115 1206 1247 1226 1291 1247 1268 1268 1268 1268 1268 1314 1388 1362 1471 1443 1501 1565 1565 1672 1672 1711 1752 1711 1839 1887 1887 1936 2044 1989 2102 2102 2044 2230 2164 2164 2299 2230 2374 2374 2453 2725 2725 2725 3199 3345 3504 3679 3873 4088 4599 4599 4599 4329 4906 4906 5661 6133 6133 6133 6133 7359 0 0 8177 8177 0 0 0 0 0 0 0 0 0 0 0 0 0 0 0 0 0 0 0 0 0 0 0 0 8177 6133 5661 5256 4329 4329 4599 3873 4329 4088 4599 4599 4088 4329 4329 3679 4329 3873 3679 3345 0 0 3199 3066 3066 2725 2230 2453 2374 2164 2164 2164 2102 2044 1989 2102 1795 1752 1599 1672 1635 1599 1711 1672 1711 1711 1752 1752 1635 1672 1672 1533 1501 1415 1388 1415 1415 1415 1388 1415 1415 1415 1388 1533 1443 0 1338 0 90 90 90 0 1149 1149 1187 1132 1187 1149 1132 1168 1132 1206 1115 1132 1168 1168 1115 1115 1132 1051 1036 1008 1008 994 0 0 0 0 0 0 0 0 0 836 845 855 865 865 865 855 855 845 855 836 817 799 836 836 855 845 845 836 97 836 897 817 774 774 774 721 687 687 681 651 675 687 687 657 669 663 651 657 651 651 639 639 651 0 0 0 0 0
    0 0 0 0 0 0 0 0 0 0 0 0 0 0 0 0 0 0 0 0 0 0 0 0 0 0 0 0 0 0 0 0 0 0 0 0 0 0 0 0 0 0 0 0 0 0 0 0 0 0 0 0 0 0 0 0 0 0 0 0 0 0 0 0 0 0 0 0 0 1082 1082 1082 1082 1082 1115 1132 1066 1082 1098 1206 1247 1206 1268 1247 1268 1268 1268 1268 1268 1291 1362 1338 1471 1415 1501 1533 1533 1672 1672 1711 1752 1752 1839 1887 1887 1936 2102 1989 2102 2102 2044 2230 2164 2164 2299 2230 2374 2453 2537 2725 2725 2830 3345 3345 3504 3679 3873 4088 4599 4599 4329 4329 4906 4906 5256 5661 5661 5661 5661 6690 7359 7359 7359 7359 0 0 0 0 0 0 0 0 0 0 0 0 0 0 0 0 0 0 0 0 0 0 0 0 8177 5661 5256 5256 4329 4088 4599 3873 4329 4088 4599 4599 3873 4329 4329 3504 4329 3679 3679 0 0 0 3066 2943 2943 2628 2230 2453 2299 2164 2164 2230 2164 2102 2044 2230 1839 1752 1635 1711 1635 1533 1672 1672 1672 1672 1711 1711 1565 1635 1711 1533 1501 1415 1415 1415 1415 1443 1415 1443 1415 1443 1415 1533 1443 0 1338 90 90 90 90 0 1149 1149 1187 1132 1187 1149 1132 1168 1132 1187 1115 1132 1187 1168 1115 1098 1132 1051 1036 1008 1008 981 0 0 0 0 0 0 0 0 0 836 845 855 865 865 865 855 865 845 855 826 817 791 836 836 845 845 855 845 0 836 886 817 758 750 750 714 681 687 681 657 669 687 687 657 669 663 651 657 645 651 639 639 651 0 0 0 0 0
    0 0 0 0 0 0 0 0 0 0 0 0 0 0 0 0 0 0 0 0 0 0 0 0 0 0 0 0 0 0 0 0 0 0 0 0 0 0 0 0 0 0 0 0 0 0 0 0 0 0 0 0 0 0 0 0 0 0 0 0 0 0 0 0 0 0 0 0 0 1082 1066 1082 1082 1082 1098 1115 1051 1066 1082 1206 1268 1187 1291 1247 1268 1268 1247 1268 1268 1291 1362 1338 1501 1415 1501 1565 1565 1672 1711 1711 1752 1752 1839 1887 1936 1936 2102 1989 2102 2102 2044 2230 2164 2164 2374 2299 2453 2453 2537 2725 2830 2943 3345 3345 3504 3679 3873 3873 4329 4329 4088 4329 4599 4599 5256 4906 5256 5256 4906 6133 6133 6133 6133 6690 8177 8177 0 0 0 0 0 0 0 0 0 0 0 0 0 0 0 0 0 0 0 0 0 0 8177 5661 5256 4906 3873 3873 4329 3873 4329 4088 4599 4599 4088 4329 4599 3679 4329 3679 3504 0 0 0 2943 2830 2830 2628 2164 2453 2299 2164 2164 2230 2230 2164 2044 2374 1839 1752 1711 1711 1672 1501 1672 1635 1672 1672 1711 1635 1533 1599 1711 1533 1501 1415 1415 1415 1443 1471 1415 1471 1471 1471 1415 1565 1471 193 1338 90 90 90 90 0 1149 1149 1187 1132 1187 1149 1132 1168 1132 1187 1115 1132 1187 1168 1115 1098 1115 1036 0 994 1008 981 0 0 0 0 0 0 0 0 817 817 836 855 865 865 865 865 865 845 845 826 808 782 836 836 845 845 855 845 0 836 876 808 743 735 735 714 681 687 681 663 663 681 687 657 669 663 651 657 645 651 639 639 651 0 0 0 0 0
    0 0 0 0 0 0 0 0 0 0 0 0 0 0 0 0 0 0 0 0 0 0 0 0 0 0 0 0 0 0 0 0 0 0 0 0 0 0 0 0 0 0 0 0 0 0 0 0 0 0 0 0 0 0 0 0 0 0 0 0 0 0 0 0 0 0 0 0 0 1082 1066 1066 1082 1082 1098 1115 1051 1066 1082 1247 0 1206 1291 1247 1268 1268 1268 1268 1268 1291 1362 1338 1501 1415 1533 1533 1565 1672 1711 1711 1752 1752 1839 1887 1936 1936 2102 1989 2164 2102 2102 2299 2164 2164 2374 2299 2453 2453 2537 2830 2830 2943 3345 3345 3504 3504 3679 3873 4329 4088 4088 4329 4599 4329 4906 4329 4906 4599 4329 5661 5661 5661 5661 6133 7359 7359 0 0 0 0 0 0 0 0 0 0 0 0 0 0 0 0 0 0 0 0 0 0 0 6690 5256 5256 4088 4088 4599 3873 4329 4088 4599 4599 4088 4329 4599 3679 4329 3679 3504 0 0 0 2943 2830 2725 2628 2164 2453 2299 2164 2230 2299 2230 2164 2102 2374 1887 1752 1752 1711 1711 1471 1635 1599 1635 1635 1672 1565 1471 1533 1672 1501 1501 1415 1415 1415 1443 1533 1443 1533 1501 1501 1415 1565 1471 192 0 0 90 90 90 1226 1149 1149 1187 1132 1168 1132 1132 1149 1132 1168 1132 1132 1187 1168 1098 1082 1098 0 0 0 994 968 0 0 994 0 0 0 0 0 808 817 836 855 865 865 855 865 855 845 836 817 799 774 836 836 845 845 855 845 0 836 865 808 743 735 735 714 681 687 681 669 657 681 681 657 675 663 657 657 0 657 639 639 657 0 0 0 0 0
    0 0 0 0 0 0 0 0 0 0 0 0 0 0 0 0 0 0 0 0 0 0 0 0 0 0 0 0 0 0 0 0 0 0 0 0 0 0 0 0 0 0 0 0 0 0 0 0 0 0 0 0 0 0 0 0 0 0 0 0 0 0 0 0 0 0 0 0 0 1082 1066 1066 1066 1082 1098 1098 1051 1051 1082 0 0 0 0 1247 1268 1268 1268 1268 1247 1268 1362 1314 1501 1415 1501 1533 1565 1672 1711 1711 1711 1711 1795 1887 1936 1989 2102 1936 2164 2102 2102 2299 2164 2164 2299 2374 2537 2453 2537 2725 2830 2943 3345 3345 3345 3504 3679 3679 4088 3873 3873 4088 4329 4329 4599 4329 4599 4329 4329 5256 5256 5661 5661 5661 6690 6690 0 0 0 0 0 0 0 0 0 0 0 0 0 0 0 0 0 0 0 0 0 0 0 6133 5256 5256 3873 4088 4329 3873 4329 4088 4599 4599 4088 4599 4599 3679 4329 3679 3504 0 0 2943 2943 2725 2725 2628 2164 2453 2299 2230 2230 2299 2230 2164 2044 2374 1795 1672 1752 1752 1752 1471 1635 1599 1599 1635 1635 1533 1443 1501 1672 1501 1471 1443 1443 1443 1471 1565 1471 1533 1501 1533 1415 1565 1471 192 0 0 90 89 90 1226 1149 1132 1187 1132 1168 1132 1132 1149 1115 1168 1132 1132 1187 1168 1098 0 0 0 0 162 981 955 0 0 968 955 0 0 0 0 817 836 845 855 865 855 855 865 855 845 836 817 799 782 826 836 836 836 845 845 0 836 845 808 728 728 721 707 681 694 687 681 651 681 681 657 675 669 657 663 0 663 639 639 657 0 0 0 0 0
    0 0 0 0 0 0 0 0 0 0 0 0 0 0 0 0 0 0 0 0 0 0 0 0 0 0 0 0 0 0 0 0 0 0 0 0 0 0 0 0 0 0 0 0 0 0 0 0 0 0 0 0 0 0 0 0 0 0 0 0 0 0 0 0 0 0 0 0 0 1082 1066 1066 1066 1082 1115 1098 1051 1051 1082 0 0 0 0 1247 1268 1268 1268 1268 1247 1268 1362 1291 1443 1415 1501 1501 1533 1672 1711 1711 1711 1711 1795 1887 1936 1989 2044 1936 2164 2102 2102 2299 2164 2164 2299 2374 2537 2453 2537 2725 2830 2943 3199 3199 3199 3345 3345 3504 3873 3679 3679 4088 4088 4329 4599 4599 4906 4599 4329 5256 5256 5661 5661 6133 6690 6690 8177 0 0 0 0 0 0 0 0 0 0 0 0 0 0 0 0 0 0 0 0 0 0 5256 4906 5256 3873 3873 4329 3873 4088 3873 4599 4329 4088 4599 4599 3679 4329 3679 3504 3066 3066 2943 2830 2628 2725 2537 2164 2453 2299 2164 2230 2230 2230 2102 2044 2374 1839 1752 1795 1795 1795 1471 1635 1599 1599 1599 1599 1533 1443 1501 1635 1501 1471 1471 1471 1471 1471 1565 1471 1565 1501 1565 1415 1533 1443 0 0 1291 0 0 0 1226 1149 1132 1168 1115 1149 1132 1115 1132 1098 1149 1132 1132 1187 1187 1115 0 0 0 0 163 0 943 931 943 955 931 968 955 886 845 826 836 845 855 855 855 865 876 865 855 836 817 799 782 826 826 836 826 845 836 0 826 826 808 721 714 714 707 681 694 694 687 645 681 681 657 675 669 657 663 0 669 639 645 663 0 0 0 0 0
    0 0 0 0 0 0 0 0 0 0 0 0 0 0 0 0 0 0 0 0 0 0 0 0 0 0 0 0 0 0 0 0 0 0 0 0 0 0 0 0 0 0 0 0 0 0 0 0 0 0 0 0 0 0 0 0 0 0 0 0 0 0 0 0 0 0 0 0 0 1082 1082 1082 1082 1098 1132 1098 1051 1066 1115 0 1338 0 0 1268 1268 1268 1268 1268 1247 1268 1314 1291 1388 1388 1443 1471 1501 1672 1711 1711 1711 1711 1795 1887 1936 1989 1989 1887 2164 2102 2102 2299 2164 2164 2299 2374 2628 2453 2628 2830 2830 2943 3066 3199 3066 3199 3199 3345 3504 3504 3504 3873 4088 4599 5256 5256 5256 4906 4906 5256 5661 5661 5661 6133 6690 6690 8177 0 0 0 0 0 0 0 0 0 0 0 0 0 0 0 0 0 0 0 0 0 0 4599 4599 4906 3873 3873 4088 3873 4088 3873 4599 4088 4088 4329 4329 3679 4088 3504 3345 2943 2943 2830 2725 2628 2628 2537 2164 2453 2230 2164 2164 2164 2164 2044 1989 2230 1839 1795 1795 1795 1795 1501 1635 1599 1599 1599 1599 1533 1443 1501 1599 1501 1471 1471 1471 1471 1471 1599 1471 1565 1501 1565 1415 1501 1415 0 0 1268 1247 1247 1206 1226 1149 1132 1168 1115 1132 1132 1098 1132 1082 1132 1132 1132 1206 1187 1115 0 0 0 0 163 0 955 931 943 955 919 955 931 876 855 836 845 855 855 855 855 865 876 865 865 836 817 799 791 817 826 826 826 836 826 826 817 817 799 714 714 714 707 675 700 694 687 639 675 675 651 675 669 657 663 651 669 639 0 663 0 0 0 0 0
    0 0 0 0 0 0 0 0 0 0 0 0 0 0 0 0 0 0 0 0 0 0 0 0 0 0 0 0 0 0 0 0 0 0 0 0 0 0 0 0 0 0 0 0 0 0 0 0 0 0 0 0 0 0 0 0 0 0 0 0 0 0 0 0 0 0 0 0 0 1098 1082 1082 1082 1098 1132 1098 1051 1066 1115 1362 1362 1268 1314 1268 1291 1291 1268 1268 1247 1247 1314 1291 1388 1388 1443 1471 1501 1711 1711 1711 1752 1752 1795 1887 1989 2044 1989 1887 2164 2102 2102 2230 2230 2164 2299 2374 2628 2537 2628 2725 2830 2943 2943 3066 2943 2943 3066 3199 3345 3345 3345 3679 3873 4599 5661 5661 5661 4906 5256 5661 6133 6133 5661 6133 6690 6690 8177 0 0 0 0 0 0 0 0 0 0 0 0 0 0 0 0 0 0 0 0 0 0 4906 4906 4906 4088 3873 4088 3873 4088 3873 4599 4088 3873 4329 4329 3504 4088 3345 3199 2830 2830 2725 2628 2453 2628 2537 2164 2453 2164 2164 2164 2164 2102 1936 1936 2164 1887 1839 1839 1839 1839 1501 1635 1599 1599 1599 1599 1533 1443 1471 1599 1501 1471 1501 1501 1501 1501 1599 1471 1565 1501 1565 1388 1443 1388 0 0 1268 1247 1247 1187 1206 1149 1115 0 0 1115 1115 1098 1115 1066 1115 1132 1115 1187 1168 1098 1082 0 0 0 163 0 955 931 931 943 919 943 919 876 855 845 845 855 855 855 855 865 886 876 876 836 817 799 791 799 817 817 817 826 826 817 808 808 799 714 707 714 707 681 700 694 694 639 675 675 651 675 669 657 657 645 669 639 0 0 0 0 0 0 0
    0 0 0 0 0 0 0 0 0 0 0 0 0 0 0 0 0 0 0 0 0 0 0 0 0 0 0 0 0 0 0 0 0 0 0 0 0 0 0 0 0 0 0 0 0 0 0 0 0 0 0 0 0 0 0 0 0 0 0 0 0 0 0 0 0 0 0 0 0 1098 1082 1082 1082 1098 1149 1082 1051 1066 1115 1362 1362 1291 1314 1268 1291 1291 1268 1291 1247 1268 1314 1314 1388 1388 1471 1471 1501 1711 1752 1711 1752 1752 1795 1887 1989 2044 1989 1887 2164 2102 2102 2230 2230 2164 2299 2374 2628 2453 2537 2628 2725 2830 2830 2943 2830 2943 2943 3066 3199 3345 3345 3679 3679 4599 5661 5661 6133 5256 5661 5661 6133 6690 6133 6690 7359 7359 0 0 0 0 0 0 0 0 0 0 0 0 0 0 0 0 0 0 0 0 0 0 8177 4906 4906 4906 4088 3873 4088 3873 4088 3873 4599 4088 4088 4329 4088 3504 3873 3345 3066 2830 2725 2725 2537 2453 2628 2453 2164 2374 2102 2102 2102 2102 2044 1887 1887 1989 1887 1839 1839 1839 1839 1501 1635 1599 1599 1599 1599 1533 1443 1471 1565 1501 1443 1501 1501 1501 1501 1599 1471 1565 1471 1533 1362 1415 1388 0 1291 1268 1226 0 0 1206 1149 1115 521 511 514 1115 1098 1115 1066 1098 1115 1098 1187 1168 1098 1082 1082 0 0 0 981 955 931 931 943 919 943 908 886 865 855 855 865 855 855 865 865 897 876 876 826 817 799 799 782 808 808 808 817 817 808 799 799 808 714 707 707 700 681 700 700 694 634 669 669 651 675 669 657 657 645 669 639 0 0 0 0 0 0 0
    0 0 0 0 0 0 0 0 0 0 0 0 0 0 0 0 0 0 0 0 0 0 0 0 0 0 0 0 0 0 0 0 0 0 0 0 0 0 0 0 0 0 0 0 0 0 0 0 0 0 0 0 0 0 0 0 0 0 0 0 0 0 0 0 0 0 0 0 0 1098 1082 1082 1082 1098 1168 1066 1051 1066 1115 1388 1362 1314 1314 1291 1291 1291 1291 1291 1247 1268 1338 1338 1415 1415 1471 1501 1533 1672 1752 1711 1752 1752 1795 1887 1989 2044 1989 1936 2164 2102 2102 2230 2230 2230 2299 2374 2628 2537 2537 2628 2725 2830 2725 2830 2725 2943 2943 3199 3345 3345 3345 3679 3873 4599 6133 5661 6133 5661 5661 6133 6690 6690 6690 7359 7359 8177 0 0 0 0 0 0 0 0 0 0 0 0 0 0 0 0 0 0 0 0 0 0 8177 5661 5256 4906 4599 3873 4329 3873 4329 3873 4599 4088 4088 4088 4088 3345 3679 3199 2943 2725 2628 2628 2453 2374 2628 2453 2164 2374 2044 2044 2044 2044 1989 1795 1887 1936 1887 1839 1839 1839 1839 1501 1635 1599 1599 1599 1599 0 1443 1471 1533 1501 1443 1501 1501 1501 1471 1565 1471 1565 1471 1565 1362 1388 1362 0 1268 1268 1226 0 0 1206 1149 1115 518 507 514 1115 1082 1115 1051 1082 1115 1098 1187 1149 1082 1066 1066 0 0 0 981 943 931 931 931 919 943 908 886 876 855 865 876 865 865 865 876 897 876 876 826 808 799 799 758 799 799 799 808 808 799 791 791 808 721 714 714 707 687 707 700 700 634 669 669 651 675 669 657 651 645 669 645 0 0 0 0 0 0 0
    0 0 0 0 0 0 0 0 0 0 0 0 0 0 0 0 0 0 0 0 0 0 0 0 0 0 0 0 0 0 0 0 0 0 0 0 0 0 0 0 0 0 0 0 0 0 0 0 0 0 0 0 0 0 0 0 0 0 0 0 0 0 0 0 0 0 0 0 0 1098 1082 1082 1082 1098 1168 1051 1051 1066 1132 1388 1388 1314 1314 1291 1314 1291 1291 1314 1268 1268 1338 1362 1415 1443 1501 1501 1533 1711 1752 1752 1752 1752 1839 1887 1989 2044 1989 1936 2164 2102 2164 2230 2230 2230 2299 2374 2628 2453 2453 2537 2725 2725 2537 2725 2628 2830 2943 3066 3199 3345 3345 3679 3873 4906 6133 6133 6690 6133 6133 6133 6690 7359 6690 7359 8177 0 0 0 0 0 0 0 0 0 0 0 0 0 0 0 0 0 0 0 0 0 0 0 8177 6133 5256 5256 4906 4088 4329 3873 4329 4088 4599 4088 4088 4088 4088 3345 3679 3199 2943 2725 2628 2628 2374 2374 2628 2453 2164 2299 1989 1989 1989 2044 1887 1752 1839 1887 1936 1839 1839 1839 1839 1501 1635 1599 1565 1599 1599 0 1443 1471 1533 1471 1443 1501 1501 1501 1471 1565 1471 1565 1471 1565 1362 1362 1338 0 1268 1247 1206 0 0 1187 1168 1098 514 507 511 1132 1082 0 0 1082 1115 1082 1168 1149 1066 1066 1051 0 0 955 968 943 931 919 931 919 943 908 897 876 865 865 876 865 865 865 876 897 876 876 817 799 791 791 743 791 791 791 791 799 782 782 782 808 728 728 728 721 707 714 714 707 639 675 675 651 675 669 663 651 645 669 645 0 0 0 0 0 0 0
    0 0 0 0 0 0 0 0 0 0 0 0 0 0 0 0 0 0 0 0 0 0 0 0 0 0 0 0 0 0 0 0 0 0 0 0 0 0 0 0 0 0 0 0 0 0 0 0 0 0 0 0 0 0 0 0 0 0 0 0 0 0 0 0 0 0 0 0 0 1098 1082 1082 1082 1098 1187 1066 1051 1066 1149 1388 1388 1338 1314 1314 1314 1314 1314 1314 1268 1291 1338 1388 1415 1443 1501 1471 1533 1711 1752 1752 1752 1795 1839 1887 1989 2102 1989 1936 2164 2164 2164 2230 2230 2230 2299 2374 2628 2453 2453 2453 2725 2628 2537 2725 2628 2830 2943 3066 3199 3345 3504 3679 4088 4906 6133 6133 6690 6133 6133 6690 6690 7359 6690 7359 8177 0 0 0 0 0 0 0 0 0 0 0 0 0 0 0 0 0 0 0 0 0 0 0 8177 5661 5256 4906 4906 4088 4329 3873 4329 4088 4599 4088 4088 4088 4088 3345 3679 3199 2943 2725 2628 2628 2374 2374 2628 2453 2164 2230 1936 1936 1936 1989 1839 1711 1795 1795 1936 1887 1887 1887 1839 1471 1635 1599 1565 1599 1599 0 1443 1471 1501 1471 1415 1471 1471 1471 1471 1533 1443 1565 1443 1533 1362 1338 1338 0 1247 1247 1187 0 0 1187 1168 1098 514 507 511 1132 1082 0 0 0 1132 1082 1168 1149 1082 1066 1051 1022 994 968 981 943 943 931 931 919 943 908 897 886 865 876 886 865 865 865 876 897 876 876 817 799 791 782 735 782 782 782 782 791 774 766 774 808 735 735 735 728 714 721 721 707 639 675 675 651 675 663 663 651 645 669 651 651 0 0 0 0 0 0
    0 0 0 0 0 0 0 0 0 0 0 0 0 0 0 0 0 0 0 0 0 0 0 0 0 0 0 0 0 0 0 0 0 0 0 0 0 0 0 0 0 0 0 0 0 0 0 0 0 0 0 0 0 0 0 0 0 0 0 0 0 0 0 0 0 0 0 0 0 1115 1082 1082 1082 1115 1187 1066 1051 1066 1149 1362 1388 1338 1314 1291 1314 1291 1314 1314 1268 1268 1314 1388 1415 1443 1501 1471 1533 1711 1752 1752 1752 1795 1839 1887 2044 2102 1989 1936 2164 2164 2164 2230 2230 2164 2230 2374 2628 2453 2374 2374 2628 2537 2453 2628 2628 2830 2830 3066 3199 3345 3504 3873 4329 5256 6690 6690 7359 6690 6690 6690 7359 7359 7359 8177 8177 0 0 0 0 0 0 0 0 0 0 0 0 0 0 0 0 0 0 0 0 0 0 0 8177 5661 4906 4906 4906 4088 4329 4088 4329 4088 4599 4088 4088 3873 3873 3199 3504 3066 2830 2628 2537 2537 2299 2299 2628 2453 2164 2164 1887 1887 1887 1936 1795 1672 1752 1752 1887 1839 1839 1839 1839 1471 1635 1565 1565 1599 1599 0 1415 1443 1501 1471 1415 1471 1471 1471 1471 1533 1443 1565 1443 1533 1362 1314 1314 0 1247 1247 1187 0 0 1187 1168 1098 514 507 511 1132 1098 0 0 0 1132 1082 1168 1168 1082 1066 1051 1036 1008 981 981 955 955 931 943 931 931 908 897 886 865 876 886 865 865 865 876 897 876 876 808 791 791 782 735 774 774 774 782 782 766 766 766 808 735 735 735 728 714 721 721 707 639 669 669 651 675 663 663 651 645 669 651 651 663 0 0 0 0 0
    0 0 0 0 0 0 0 0 0 0 0 0 0 0 0 0 0 0 0 0 0 0 0 0 0 0 0 0 0 0 0 0 0 0 0 0 0 0 0 0 0 0 0 0 0 0 0 0 0 0 0 0 0 0 0 0 0 0 0 0 0 0 0 0 0 0 0 0 0 1115 1098 1098 1098 1115 1187 1066 1051 1066 1168 1338 1362 1338 1268 1291 1314 1291 1314 1314 1268 1268 1291 1388 1388 1443 1471 1443 1501 1711 1752 1752 1752 1795 1839 1887 2044 2102 1989 1936 2102 2102 2102 2164 2230 2164 2230 2374 2628 2374 2299 2299 2628 2537 2453 2628 2628 2830 2830 3066 3199 3345 3504 3873 4599 5661 7359 7359 7359 7359 7359 7359 7359 8177 7359 8177 0 0 0 0 0 0 0 0 0 0 0 0 0 0 0 0 0 0 0 0 0 0 0 0 8177 5661 4906 4599 5256 4088 4599 4088 4329 4088 4599 4088 4088 3873 3873 3199 3345 3066 2725 2628 2453 2537 2230 2299 2537 2374 2102 2102 1887 1887 1887 1887 1752 1635 1711 1711 1887 1839 1839 1839 1839 1443 1635 1565 1565 1599 1599 0 1443 1443 1501 1471 1415 1471 1443 1443 1443 1501 1443 1533 1443 1533 1362 1291 0 0 1247 1247 1168 0 0 1168 1187 1115 514 507 514 1149 1098 0 0 0 1132 1098 1168 1168 1098 1082 1066 1051 1036 994 994 968 955 943 943 931 943 908 897 886 865 876 886 876 865 865 876 886 865 865 799 791 791 782 735 774 774 774 774 782 758 758 766 817 743 735 743 728 714 714 714 707 634 669 669 651 669 663 663 645 645 663 651 651 663 0 0 0 0 0
    0 0 0 0 0 0 0 0 0 0 0 0 0 0 0 0 0 0 0 0 0 0 0 0 0 0 0 0 0 0 0 0 0 0 0 0 0 0 0 0 0 0 0 0 0 0 0 0 0 0 0 0 0 0 0 0 0 0 0 0 0 0 0 0 0 0 0 0 0 1098 1098 1098 1098 1115 1187 1066 1051 1066 1187 1314 1362 1338 1247 1291 1291 1268 1291 1314 1247 1268 1291 1388 1388 1443 1471 1443 1471 1672 1752 1752 1752 1795 1839 1887 2044 2102 1936 1936 2102 2102 2102 2102 2230 2164 2164 2299 2537 2299 2230 2230 2628 2537 2453 2628 2725 2943 2943 3066 3345 3504 3679 4088 4906 5661 7359 7359 8177 8177 7359 8177 8177 8177 7359 8177 0 0 0 0 0 0 0 0 0 0 0 0 0 0 0 0 0 0 0 0 0 0 0 0 8177 5661 4906 4599 5256 4329 4599 4088 4599 4329 4906 4329 4088 3873 3873 3199 3345 2943 2725 2537 2453 2537 2230 2299 2537 2374 2102 2102 1839 1839 1839 1839 1752 1635 1672 1672 1887 1839 1839 1839 1839 1443 1635 1565 1565 1599 1599 0 1443 1443 1471 1443 1415 1443 1443 1443 1443 1501 1443 1533 1443 1533 1362 1268 0 0 1247 1268 1168 1187 1132 1168 1187 1115 518 0 514 1149 1115 1149 1082 1098 1149 1098 1168 1168 1098 1098 1082 1066 1036 1022 1008 981 968 955 943 943 943 919 897 897 876 886 897 876 876 865 876 886 865 865 799 791 791 782 735 774 766 766 774 782 766 766 766 817 750 750 750 735 721 714 707 707 634 669 669 651 669 657 663 645 645 663 651 651 663 0 0 0 0 0
    0 0 0 0 0 0 0 0 0 0 0 0 0 0 0 0 0 0 0 0 0 0 0 0 0 0 0 0 0 0 0 0 0 0 0 0 0 0 0 0 0 0 0 0 0 0 0 0 0 0 0 0 0 0 0 0 0 0 0 0 0 0 0 0 0 0 0 0 0 1098 1098 1098 1098 1115 1168 1051 1051 1066 1187 1291 1338 1314 1226 1268 1268 1268 1291 1291 1247 1268 1291 1362 1388 1443 1471 1443 1471 1672 1752 1752 1752 1795 1795 1887 2044 2102 1936 1936 2044 2102 2102 2102 2164 2102 2164 2299 2453 2230 2230 2230 2628 2628 2537 2725 2943 3066 3199 3345 3504 3679 3873 4599 5256 5661 6690 6690 7359 8177 7359 8177 8177 8177 8177 9199 0 0 0 0 0 0 0 0 0 0 0 0 0 0 0 0 0 0 0 0 0 0 0 0 0 6133 4906 4599 5256 4329 4599 4088 4599 4329 4906 4329 4329 3873 3873 3199 3345 2943 2725 2537 2453 2537 2230 2299 2537 2374 2102 2044 1839 1839 1839 1839 1711 1599 1635 1635 1839 1795 1795 1795 1795 1443 1635 1565 1565 1599 1599 0 1443 0 1471 1443 1388 1443 1443 1443 1443 1501 1443 1565 1443 1533 1362 1247 0 0 1247 1247 1168 1187 1132 1168 1206 1115 518 1115 0 1168 1115 1168 1098 1115 1149 1098 1168 1168 1098 1098 1082 1082 1051 1036 1022 981 981 955 955 955 955 919 908 908 876 897 908 886 886 876 876 886 855 855 791 782 782 782 735 766 766 766 766 782 766 758 758 817 758 750 750 743 721 707 707 700 634 669 669 651 669 657 663 651 645 669 657 657 663 0 0 0 0 0
    0 0 0 0 0 0 0 0 0 0 0 0 0 0 0 0 0 0 0 0 0 0 0 0 0 0 0 0 0 0 0 0 0 0 0 0 0 0 0 0 0 0 0 0 0 0 0 0 0 0 0 0 0 0 0 0 0 0 0 0 0 0 0 0 0 0 0 0 0 1098 1098 1098 1098 1115 1168 1051 1051 1066 1206 1291 1314 1314 1226 1268 1268 1247 1291 1314 1268 1291 1314 1388 1388 1443 1471 1443 1471 1672 1711 1711 1752 1795 1795 1839 2044 2102 1936 1936 2044 2044 2102 2102 2164 2102 2102 2374 2453 2230 2230 2230 2628 2725 2725 2943 3066 3199 3345 3504 3504 3873 4088 4906 5256 5661 6690 6690 6690 8177 8177 8177 8177 0 9199 0 0 0 0 0 0 0 0 0 0 0 0 0 0 0 0 0 0 0 0 0 0 0 0 0 0 5661 4906 4599 5256 4329 4599 4088 4599 4329 4906 4599 4329 3873 3873 3199 3345 2943 2725 2537 2453 2537 2230 2299 2537 2374 2102 2044 1795 1795 1795 1795 1711 1599 1599 1599 1839 1711 1795 1795 1795 1415 1599 1565 1565 1599 1599 0 1443 269 1471 1443 1388 1443 1443 1443 1443 1501 1443 1565 1443 1533 1362 0 0 0 1247 1247 1168 1187 1149 1187 1206 1132 518 1132 0 1168 1132 1187 1115 1115 1149 1115 1168 1187 1115 1115 1098 1115 1066 1051 1022 994 981 968 968 968 968 931 919 919 886 908 919 908 886 876 876 886 855 855 791 782 782 774 735 766 766 766 766 782 758 758 758 817 750 743 735 728 714 707 707 700 634 669 669 651 669 657 669 651 645 669 657 657 669 0 0 0 0 0
    0 0 0 0 0 0 0 0 0 0 0 0 0 0 0 0 0 0 0 0 0 0 0 0 0 0 0 0 0 0 0 0 0 0 0 0 0 0 0 0 0 0 0 0 0 0 0 0 0 0 0 0 0 0 0 0 0 0 0 0 0 0 0 0 0 0 0 0 0 1098 1115 1098 1098 1115 1187 1066 1066 1082 1206 1291 1314 1314 1226 1268 1268 1247 1291 1314 1268 1314 1314 1388 1388 1443 1471 1443 1471 1635 1711 1711 1711 1795 1795 1839 1989 2102 1936 1936 2044 2044 2044 2102 2164 2102 2102 2374 2374 2230 2230 2299 2628 2830 2830 3066 3199 3345 3504 3679 3679 4088 4329 5256 5256 5661 6133 6133 6133 7359 7359 7359 7359 8177 8177 8177 0 0 0 0 0 0 0 0 0 0 0 0 0 0 0 0 0 0 0 0 0 0 0 0 0 5661 4599 4329 5256 4329 4599 4088 4599 4088 4906 4599 4329 3873 3873 3199 3345 3066 2725 2628 2453 2537 2230 2299 2537 2374 2102 2044 1795 1795 1795 1795 1711 1599 1599 1565 1839 1711 1795 1795 1795 1415 1599 1565 1565 1599 1599 0 1443 269 1471 1443 1388 1443 1443 1443 1443 1501 1443 1565 1443 1565 1362 0 0 0 1247 1247 1168 1187 1149 1187 1226 1149 518 1132 1132 1187 1149 1187 1115 1115 1168 1115 1168 1206 1115 1115 1098 1149 1082 1066 1036 1008 994 968 981 981 968 955 919 919 876 908 919 908 897 876 876 886 855 855 791 782 782 774 735 766 766 766 766 774 758 758 758 817 743 735 735 728 714 707 700 700 634 669 669 657 675 663 669 651 651 669 663 663 669 0 0 0 0 0
    0 0 0 0 0 0 0 0 0 0 0 0 0 0 0 0 0 0 0 0 0 0 0 0 0 0 0 0 0 0 0 0 0 0 0 0 0 0 0 0 0 0 0 0 0 0 0 0 0 0 0 0 0 0 0 0 0 0 0 0 0 0 0 0 0 0 0 0 0 1098 1115 1115 1098 1115 1187 1082 1082 1098 1206 1268 1291 1314 1247 1268 1268 1268 1314 1338 1268 1314 1314 1362 1388 1443 1471 1415 1443 1635 1672 1711 1711 1752 1752 1839 1989 2102 1887 1936 2044 2044 2044 2102 2164 2102 2102 2453 2299 2230 2230 2299 2628 2830 2830 3066 3345 3504 3679 3873 3873 4329 4599 5256 5256 5661 6133 6133 6133 7359 7359 7359 7359 8177 8177 8177 0 0 0 0 0 0 0 0 0 0 0 0 0 0 0 0 0 0 0 0 0 0 0 0 0 5256 4599 4329 4906 4329 4599 4088 4599 4088 4906 4329 4329 3873 3873 3199 3345 3066 2725 2628 2453 2537 2230 2299 2537 2374 2102 2044 1795 1795 1795 1795 1711 1599 1599 1565 1839 1752 1795 1795 1795 1415 1599 1565 1565 1635 1599 0 1443 269 1471 1443 1388 1443 1443 1443 1443 1501 1443 1565 1443 1565 1362 0 0 185 1268 0 1187 1187 1168 1187 1247 1168 518 1149 1132 1187 1168 1187 1132 1132 1168 1132 1168 1206 1132 1132 1115 1168 1115 1098 1051 1022 994 981 994 981 955 943 919 908 876 908 919 908 886 876 876 876 855 0 791 782 782 774 735 766 766 766 766 774 758 758 758 817 735 728 728 728 714 700 700 700 634 669 669 663 675 663 675 657 657 675 663 663 669 0 0 0 0 0
    0 0 0 0 0 0 0 0 0 0 0 0 0 0 0 0 0 0 0 0 0 0 0 0 0 0 0 0 0 0 0 0 0 0 0 0 0 0 0 0 0 0 0 0 0 0 0 0 0 0 0 0 0 0 0 0 0 0 0 0 0 0 0 0 0 0 0 0 0 1098 1115 1115 1098 1115 1187 1082 1082 1098 1206 1268 1291 1291 1247 1268 1268 1268 1314 1338 1268 1314 1314 1362 1362 1415 1443 1415 1443 1635 1672 1672 1672 1752 1752 1795 1989 2102 1887 1989 2044 2044 2044 2102 2164 2102 2102 2537 2230 2230 2299 2374 2628 2830 2830 3199 3345 3504 3873 3873 3873 4329 4599 5256 5256 5661 6133 5661 5661 7359 7359 7359 7359 8177 8177 8177 0 0 0 0 0 0 0 0 0 0 0 0 0 0 0 0 0 0 0 0 0 0 0 0 0 5661 4906 4599 5256 4329 4599 4088 4599 4088 4906 4329 4329 3873 4088 3345 3504 3066 2725 2628 2537 2537 2230 2230 2537 2299 2102 2044 1795 1795 1795 1795 1711 1599 1599 1565 1839 0 1839 1839 1839 1443 1635 1565 1599 1635 1599 0 1443 269 1471 1443 1415 1443 1443 1471 1443 1533 1471 1565 1471 1565 1362 0 0 185 0 0 1187 1206 1168 1206 1247 1187 518 1168 1132 1187 1168 1187 1132 1132 1168 1132 1187 1206 1149 1149 1132 1187 1115 1115 1066 1036 994 981 994 981 955 931 908 908 865 908 908 908 886 876 876 876 855 0 791 782 782 774 735 766 766 766 766 774 758 758 758 817 728 721 721 721 714 687 694 694 634 669 675 669 675 669 675 657 657 675 663 663 663 0 0 0 0 0
    0 0 0 0 0 0 0 0 0 0 0 0 0 0 0 0 0 0 0 0 0 0 0 0 0 0 0 0 0 0 0 0 0 0 0 0 0 0 0 0 0 0 0 0 0 0 0 0 0 0 0 0 0 0 0 0 0 0 0 0 0 0 0 0 0 0 0 0 0 1098 1098 1115 1098 1115 1187 1082 1082 1115 1206 1291 1291 1291 1247 1291 1291 1291 1314 1338 1291 1314 1314 1362 1362 1415 1443 1388 1443 1599 1635 1672 1672 1752 1752 1795 1989 2102 1887 1989 2044 2044 2044 2102 2230 2164 2164 2628 2230 2299 2299 2374 2628 2830 0 3199 3345 3504 3873 3873 3873 4329 4599 5256 5256 5661 6133 5661 5661 6690 6690 6690 6690 7359 7359 7359 0 0 0 0 0 0 8177 8177 8177 7359 0 0 0 0 0 0 0 0 0 0 0 0 0 0 0 6133 5256 4599 5256 4329 4599 4088 4599 4088 4906 4329 4599 4088 4088 3345 3504 3066 0 2628 2537 2537 2299 2230 2537 2299 2102 1989 1795 1795 1795 1795 1752 1599 1599 1565 1839 1839 1839 1839 1839 1443 0 1599 1599 1635 1599 1533 1443 269 1471 1443 1415 1471 1471 1471 1471 1533 1471 1599 1471 1565 1362 0 185 185 0 0 1206 1206 1187 0 0 0 518 1168 1149 1206 1168 1187 1149 1132 1187 1149 1187 1206 1149 1149 1149 1206 1132 1115 1066 1036 994 981 981 981 943 931 908 897 876 908 908 908 897 886 876 886 855 0 799 791 791 782 735 766 766 766 766 774 758 758 758 817 721 714 721 721 714 681 687 687 639 675 675 675 675 669 681 663 657 675 663 663 663 0 0 0 0 0
    0 0 0 0 0 0 0 0 0 0 0 0 0 0 0 0 0 0 0 0 0 0 0 0 0 0 0 0 0 0 0 0 0 0 0 0 0 0 0 0 0 0 0 0 0 0 0 0 0 0 0 0 0 0 0 0 0 0 0 0 0 0 0 0 0 0 0 0 0 1082 1098 1098 1098 1115 1187 1082 1082 1115 1206 1291 1314 1291 1268 1291 1291 1291 1314 1338 1291 1314 1314 1362 1388 1415 1443 1388 1443 1599 1635 1672 1672 1752 1752 1795 1936 2044 0 1989 2044 2044 2102 2102 2230 2164 2164 2628 2164 2299 2299 2453 2725 2943 0 3199 3345 3504 3873 4088 4088 4329 4599 5256 5256 5661 6133 5256 5661 6690 6690 6690 6133 6690 6690 6690 8177 8177 8177 8177 8177 0 8177 7359 7359 7359 8177 8177 8177 0 0 0 0 0 0 0 0 0 0 0 0 6133 5256 4599 5256 4329 4599 4088 4599 4088 4906 4329 4599 4088 4088 3345 3679 3199 0 2725 2628 2537 2299 2230 2537 2299 2102 1989 1795 1795 1795 1795 1752 1599 1599 1565 1839 1839 1839 1839 1839 1471 0 1599 1599 1635 1599 1533 1443 269 1471 1471 1415 1471 1471 1501 1471 1565 1501 1599 1471 1533 1362 0 185 185 0 0 1206 1206 1187 1206 1268 1187 514 0 1149 1206 1168 1187 1149 1132 1187 1149 1187 1206 1168 1168 1149 1206 1149 1132 1082 1036 994 981 968 981 931 919 897 897 876 897 908 919 897 897 886 886 865 0 808 791 791 782 735 774 766 774 766 774 758 758 758 817 721 714 721 721 714 675 687 687 639 681 681 681 675 675 681 663 663 675 663 663 663 0 0 0 0 0
    0 0 0 0 0 0 0 0 0 0 0 0 0 0 0 0 0 0 0 0 0 0 0 0 0 0 0 0 0 0 0 0 0 0 0 0 0 0 0 0 0 0 0 0 0 0 0 0 0 0 0 0 0 0 0 0 0 0 0 0 0 0 0 0 0 0 0 0 0 1082 1082 1098 1082 1115 1187 1082 1082 1132 1226 1314 1314 1314 1268 1291 1291 1291 1314 1338 1291 1338 1338 1362 1388 1443 1443 1415 1443 1635 1672 1672 1711 1711 1752 1795 1989 2044 1887 2044 2044 2102 2102 2164 2230 2164 2164 2725 2164 2299 2299 2453 0 2943 0 3345 3345 3679 4088 4088 4088 4599 4599 5256 5256 5661 6133 5256 5256 6690 6690 6690 6133 6690 6690 6690 7359 7359 7359 7359 8177 8177 8177 7359 7359 7359 8177 0 0 0 0 0 0 0 0 0 0 0 0 0 0 6133 5256 4599 5256 4329 4599 4088 4599 4088 4599 4329 4599 4088 4329 3504 3873 3345 0 2830 2725 2628 2374 2230 2537 2299 2102 1989 1795 1795 1795 1795 1752 1635 1599 1599 1839 1887 1887 1887 1839 1501 0 1635 1635 1672 1599 1533 1443 269 1471 1471 1443 1501 1501 1501 1501 1565 1501 1599 1443 1533 1362 0 185 185 0 0 1206 0 1187 1206 1268 1187 514 511 1149 1206 1168 1187 1149 1132 1187 1149 1187 1206 1168 1168 1168 1206 1168 1149 1098 1051 994 981 968 981 931 931 897 897 876 897 908 908 897 886 876 876 0 0 0 799 799 791 735 774 774 774 766 774 758 758 758 817 721 714 721 721 707 669 687 681 639 687 687 687 675 675 681 663 663 675 663 657 657 0 0 0 0 0
    0 0 0 0 0 0 0 0 0 0 0 0 0 0 0 0 0 0 0 0 0 0 0 0 0 0 0 0 0 0 0 0 0 0 0 0 0 0 0 0 0 0 0 0 0 0 0 0 0 0 0 0 0 0 0 0 0 0 0 0 0 0 0 0 0 0 0 0 0 1082 1082 1098 1082 1098 1187 1098 1098 1149 1206 1291 1314 1291 1268 1291 1291 1314 1338 1362 1291 1338 1362 1362 1415 1443 1443 1415 1443 1635 1672 1672 1711 1711 1752 1839 1989 2102 1887 2044 2044 2102 2102 2164 2230 2164 2230 2725 2164 2299 2299 2453 0 2943 0 3345 3345 3679 3873 3873 4088 4329 4599 5256 4906 5661 6133 5661 5661 6690 6690 6690 6133 6690 6690 6133 7359 7359 7359 7359 7359 8177 7359 7359 8177 7359 8177 0 8177 0 0 0 0 0 0 0 0 0 0 0 0 6690 5661 4329 5256 4329 4599 4088 4599 4088 4599 4329 4599 4329 4329 3504 4088 3345 0 2830 2830 2628 2453 2299 2537 2374 2102 1989 1795 1795 1795 1795 1752 1635 1599 1599 1887 1887 1887 1887 1839 1501 0 1635 1635 1672 1599 1533 1443 0 1501 1501 1443 1501 1533 1533 1501 1565 1501 1599 1443 1533 1362 0 185 185 0 0 1206 0 1206 0 0 0 511 511 0 1206 1187 1187 1168 1132 1187 1168 1187 1206 1168 1168 1168 1226 1168 1168 1115 1066 1008 994 981 981 943 919 897 886 876 886 897 908 897 886 876 876 0 0 817 808 799 799 735 782 774 782 774 774 758 758 758 817 721 714 721 721 707 663 687 681 645 687 694 694 0 681 681 669 663 675 663 651 651 0 0 0 0 0
    0 0 0 0 0 0 0 0 0 0 0 0 0 0 0 0 0 0 0 0 0 0 0 0 0 0 0 0 0 0 0 0 0 0 0 0 0 0 0 0 0 0 0 0 0 0 0 0 0 0 0 0 0 0 0 0 0 0 0 0 0 0 0 0 0 0 0 0 0 1082 1082 1098 1082 1115 1187 1115 1115 1168 1226 1314 1314 1291 1291 1291 1291 1314 1338 1362 1314 1362 1415 1388 1443 1471 1471 1443 1471 1635 1672 1672 1711 1752 1752 1839 1989 2102 1887 2044 2102 2164 2102 2230 2299 2230 2230 2628 2102 2299 2299 2453 0 2943 0 3199 3345 3504 3679 3873 4088 4329 4329 4906 4906 5256 6133 5256 5256 6133 6133 6133 5661 6133 6133 5661 6690 6690 6690 6690 7359 8177 7359 7359 8177 7359 8177 0 0 0 0 0 0 0 0 0 0 0 0 0 0 7359 6133 4329 5256 4088 4599 4088 4599 4088 4599 4088 4906 4329 4329 3504 3873 3345 0 2830 2830 2628 2374 2230 2537 2299 2102 1989 1795 1795 1795 1795 1795 1635 1599 1599 1839 1887 1887 1887 1839 1501 1672 1635 1635 1672 1599 1533 1471 1443 1501 1501 1471 1533 1533 1533 1501 1565 1501 1565 1443 1501 1362 0 0 185 0 0 1226 0 1226 1206 0 0 511 511 0 1206 1187 1168 1168 1132 1187 1168 1187 1206 1168 1168 1168 1206 1168 1168 1098 1066 1008 994 994 994 943 919 897 876 865 876 897 897 897 886 876 865 855 0 826 817 808 808 743 782 782 782 774 774 758 758 758 817 728 728 735 735 714 657 681 681 651 694 694 694 675 681 681 669 663 669 663 651 645 0 0 0 0 0
    0 0 0 0 0 0 0 0 0 0 0 0 0 0 0 0 0 0 0 0 0 0 0 0 0 0 0 0 0 0 0 0 0 0 0 0 0 0 0 0 0 0 0 0 0 0 0 0 0 0 0 0 0 0 0 0 0 0 0 0 0 0 0 0 0 0 0 0 0 1082 1082 1082 1082 1098 1187 1115 1115 1187 1226 1314 1314 1291 1291 1291 1291 1314 1338 1388 1314 1362 1415 1388 1443 1471 1471 1443 1471 1672 1672 1672 1711 1711 1752 1839 1989 2102 1936 2102 2164 2164 2164 2230 2299 2230 2230 2628 2102 2299 2299 2453 2628 0 0 3199 3199 3345 3679 3679 3873 4088 4088 4906 4599 5256 5661 4906 5256 6133 6133 5661 4906 5661 5661 5256 6133 6133 6133 6690 7359 8177 7359 7359 8177 7359 0 0 0 0 0 0 0 0 0 0 0 0 0 0 0 8177 6690 4329 5256 4088 4599 3873 4329 4088 4599 4088 4906 4329 4329 3679 4088 3504 3199 2943 2943 2725 2453 2299 2537 2374 2102 2044 1839 1795 1795 1795 1795 1672 1672 1672 1839 1887 1839 1839 1839 1533 1672 1635 1635 1672 1599 1565 1471 1443 1533 1533 1471 1533 1533 1533 1501 1565 1501 1565 1443 1501 1362 0 0 0 0 0 1226 0 1226 1206 0 0 511 511 1149 1206 1168 1168 1168 1149 1187 1168 1187 1187 1168 1149 1149 1187 1149 1149 1082 1066 1022 1008 994 994 943 919 897 876 865 876 886 897 886 886 876 865 855 855 836 817 817 817 750 782 782 782 774 774 758 758 758 817 735 728 743 743 714 651 681 675 657 694 694 694 669 681 681 669 663 0 657 645 645 0 0 0 0 0
    0 0 0 0 0 0 0 0 0 0 0 0 0 0 0 0 0 0 0 0 0 0 0 0 0 0 0 0 0 0 0 0 0 0 0 0 0 0 0 0 0 0 0 0 0 0 0 0 0 0 0 0 0 0 0 0 0 0 0 0 0 0 0 0 0 0 0 0 0 1082 1082 1082 1082 1098 1187 1115 1115 1187 1226 1314 1338 1314 1314 1314 1314 1338 1338 1388 1338 1362 1443 1388 1443 1501 1471 1471 1471 1672 1672 1672 1711 1711 1752 1839 1989 2102 1936 2102 2164 2164 2164 2299 2299 2299 2230 2628 2164 2299 2299 2453 2628 0 0 3066 3199 3345 3504 3504 3679 3873 4088 4599 4599 4906 5661 4906 5256 6133 5661 5256 4599 5256 5661 5661 6133 6133 6133 6690 7359 8177 8177 7359 8177 7359 0 0 0 0 0 0 0 0 0 0 0 0 0 0 0 0 7359 4088 5256 4329 4599 3873 4329 3873 4329 4088 4906 4329 4329 3679 4088 3504 3345 3066 3066 2725 2537 2374 2628 2374 2102 2044 1887 1887 1887 1887 1936 1752 1795 1839 1936 1936 1887 1839 1839 1533 1672 1635 1635 1635 1599 1565 1471 1443 1533 1533 1471 1533 1533 1533 1533 1565 1501 1533 1443 1471 1362 0 0 0 0 0 1226 0 1226 1187 0 0 511 511 1132 1187 1149 1149 1168 1149 1187 1168 1168 1187 1149 1149 1132 1187 1132 1149 1082 1066 1022 1008 1008 994 955 919 897 876 865 876 897 897 886 876 876 865 865 865 855 826 826 826 750 791 782 791 774 774 758 758 758 817 743 743 750 750 714 657 681 675 663 687 694 694 663 675 675 663 663 0 657 639 639 0 0 0 0 0
    0 0 0 0 0 0 0 0 0 0 0 0 0 0 0 0 0 0 0 0 0 0 0 0 0 0 0 0 0 0 0 0 0 0 0 0 0 0 0 0 0 0 0 0 0 0 0 0 0 0 0 0 0 0 0 0 0 0 0 0 0 0 0 0 0 0 0 0 0 1066 1066 1082 1082 1082 1149 1098 1098 1168 1206 1314 1338 1314 1314 1314 1314 1338 1338 1388 1338 1388 1443 1415 1443 1501 1501 1501 1501 1672 1672 1711 1711 1752 1752 1839 1989 2102 1936 2102 2164 2164 2164 2299 2299 2299 2230 2628 2230 2230 2299 2453 2628 2830 2725 3066 3199 3345 3504 3504 3679 3873 3873 4599 4329 4599 5256 4599 5256 5661 5256 4906 4088 4906 5256 5661 5661 6133 6133 6133 6690 8177 8177 7359 8177 7359 8177 0 0 0 0 0 0 0 0 0 0 0 0 0 0 0 0 3873 5256 4088 4599 3873 4329 3873 4329 3873 4906 4329 4329 3679 4088 3504 3504 3066 3199 2725 2537 2453 2628 2453 2102 2102 1936 1887 1936 1936 1989 1795 1839 1936 1936 1936 1887 1839 1795 1501 1635 1635 1599 1635 1599 1599 1471 1443 1565 1533 1471 1533 1533 1565 1533 1599 1501 1533 1415 1443 1338 1226 0 0 0 0 1226 0 1226 1187 1247 1187 511 511 1132 1187 1149 1149 1168 1149 1187 1149 1168 1168 1149 1132 1132 1168 1115 1132 1066 1066 1036 1022 1022 1022 968 919 897 876 865 865 886 886 886 876 876 876 865 865 865 836 836 836 758 791 791 791 782 774 758 758 758 817 735 735 743 743 714 651 681 675 669 681 694 694 663 675 675 663 663 0 657 639 639 0 0 0 0 0
    0 0 0 0 0 0 0 0 0 0 0 0 0 0 0 0 0 0 0 0 0 0 0 0 0 0 0 0 0 0 0 0 0 0 0 0 0 0 0 0 0 0 0 0 0 0 0 0 0 0 0 0 0 0 0 0 0 0 0 0 0 0 0 0 0 0 0 0 0 1066 1066 1066 1066 1066 1115 1066 1098 1149 1187 1314 1338 1314 1314 1314 1314 1338 1338 1362 1338 1362 1443 1415 1443 1501 1501 1533 1533 1711 1711 1711 1711 1752 1795 1839 1936 2102 1936 2044 2164 2164 2164 2299 2299 2299 2230 2537 2230 2230 2230 2453 2537 2830 2725 3066 3199 3199 3345 3345 3679 3679 3679 4329 4088 4088 4599 4329 4906 4906 4906 4599 4088 4906 5256 5256 5661 5661 5661 6133 6690 7359 7359 7359 7359 7359 8177 0 0 0 0 0 0 0 0 0 0 0 0 0 0 0 0 3679 5256 4088 4329 3873 4329 3873 4088 3679 4599 4088 4088 3504 3873 3504 3345 3066 3066 2725 2628 2537 2628 2537 2164 2164 2044 1936 1936 1936 1936 1795 1839 1839 1887 1887 1795 1795 1752 1471 1635 1635 1635 1672 1635 1635 1501 1501 1599 1533 1501 1565 1565 1565 1533 1599 1471 1471 1388 1415 1338 1206 1247 1247 1268 0 1226 0 1226 1168 1247 1168 511 511 1132 1187 1149 1132 1168 1149 1187 1149 1149 1168 1132 1132 1115 1168 1115 1132 1066 1066 1051 1036 1036 1036 981 931 897 876 865 865 886 876 876 876 886 886 876 876 876 855 855 836 766 799 791 799 782 774 758 758 766 817 758 750 743 743 714 651 681 681 675 675 694 694 657 675 669 663 657 657 657 634 639 0 0 0 0 0
    0 0 0 0 0 0 0 0 0 0 0 0 0 0 0 0 0 0 0 0 0 0 0 0 0 0 0 0 0 0 0 0 0 0 0 0 0 0 0 0 0 0 0 0 0 0 0 0 0 0 0 0 0 0 0 0 0 0 0 0 0 0 0 0 0 0 0 0 0 1051 1051 1066 1066 1051 1098 1066 1082 1132 1149 1268 1314 1291 1314 1314 1291 1338 1314 1362 1338 1362 1443 1415 1443 1501 1501 1533 1533 1711 1711 1672 1711 1752 1795 1839 1936 2044 1936 2044 2164 2164 2102 2299 2299 2299 2230 2537 2299 2230 2230 2453 2453 2725 2725 3066 3199 3199 3345 3345 3504 3504 3504 3873 3679 3873 4088 4088 4599 4599 4906 4599 4088 4906 5256 5661 5661 5256 5256 5661 6133 7359 7359 7359 8177 8177 0 0 0 0 0 0 0 0 0 0 0 0 0 0 0 0 0 3873 5256 4329 4599 4088 4329 3873 4088 3679 4329 3679 3873 3504 3679 3345 3345 3066 3066 2725 2628 2537 2725 2537 2299 2299 2102 1989 2044 1989 2044 1936 1936 1936 1936 1936 1839 1839 1795 1533 1672 1635 1635 1672 1672 1672 1599 1565 1635 1599 1565 1599 1565 1565 1533 1599 1471 1443 1388 1415 1338 1206 1247 1226 1268 1268 1226 0 1226 1168 1247 1168 507 511 1132 1187 1149 1132 1168 1149 1187 1149 1149 1149 1132 1132 1115 1149 1115 1132 1066 1066 1051 1036 1036 1036 994 943 897 886 865 855 876 865 865 865 876 876 865 876 876 855 865 845 774 799 799 799 791 774 766 766 766 826 782 758 735 735 714 645 681 675 675 657 687 687 657 675 663 657 657 651 651 634 634 0 0 0 0 0
    0 0 0 0 0 0 0 0 0 0 0 0 0 0 0 0 0 0 0 0 0 0 0 0 0 0 0 0 0 0 0 0 0 0 0 0 0 0 0 0 0 0 0 0 0 0 0 0 0 0 0 0 0 0 0 0 0 0 0 0 0 0 0 0 0 0 0 0 0 1036 1051 1051 1051 1051 1082 1066 1082 1115 1132 1247 1291 1268 1291 1291 1291 1314 1314 1362 1314 1362 1443 1415 1443 1501 1533 1565 1533 1711 1711 1672 1711 1752 1795 1887 1936 2044 1936 2044 2164 2164 2102 2299 2230 2230 2230 2537 2299 2230 2230 2453 2374 2725 2725 3066 3199 3199 3345 3345 3504 3504 3504 3679 3504 3679 3873 3873 4329 4599 4599 4906 4088 4906 5256 5661 5661 5256 5256 5661 6133 7359 7359 8177 8177 8177 0 0 0 0 0 0 0 0 0 0 0 0 0 0 0 0 7359 3873 5256 4329 4329 3873 4329 3873 3873 3504 4088 3504 3504 3345 3504 3199 3199 2943 3066 2725 2725 2628 2725 2537 2299 2374 2164 2044 2102 2044 2102 2044 2044 2044 2044 2044 1887 1887 1839 1599 1672 1635 1635 1672 1672 1711 1599 1565 1635 1635 1565 1599 1565 1565 1533 1565 1471 1443 1388 1388 1338 1206 1247 1247 1268 1268 1226 1226 1206 1168 1226 1168 507 0 1132 1187 1149 1132 1168 1149 1187 1149 1149 1149 1132 1115 1115 1132 1098 1098 1036 1036 1036 1008 1022 1036 994 955 908 919 876 865 886 865 865 865 876 876 855 855 865 845 855 836 758 791 791 799 791 774 758 758 766 826 791 758 735 721 714 639 681 675 669 634 681 681 645 669 663 657 651 645 651 634 634 0 0 0 0 0
    0 0 0 0 0 0 0 0 0 0 0 0 0 0 0 0 0 0 0 0 0 0 0 0 0 0 0 0 0 0 0 0 0 0 0 0 0 0 0 0 0 0 0 0 0 0 0 0 0 0 0 0 0 0 0 0 0 0 0 0 0 0 0 0 0 0 0 0 0 1036 1036 1036 1051 1051 1082 1066 1082 1098 1115 1226 1291 1247 1291 1291 1291 1314 1314 1338 1314 1388 1443 1415 1443 1501 1533 1565 1565 1711 1711 1711 1711 1752 1795 1887 1936 2044 1936 2044 2164 2164 2102 2299 2299 2230 2230 2537 2299 2230 2230 2453 2374 2725 2725 3066 3066 3199 3199 3199 3345 3345 3345 3679 3345 3504 3679 3873 4329 4329 4599 4906 4088 4906 5256 6133 5661 4906 5256 5256 5661 7359 7359 7359 7359 8177 0 0 0 0 0 0 0 0 0 0 0 0 0 0 0 8177 7359 4088 5256 4329 4599 3873 4329 3873 3873 3504 3873 3345 3345 3199 3199 3066 3066 2830 2943 2725 2725 2628 2725 2537 2374 2374 2164 2102 2164 2102 2102 2102 2102 2102 2044 2102 1887 1887 1839 1672 1672 1635 1635 1672 1672 1711 1599 1565 1599 1599 1565 1599 1533 1533 1471 1533 1471 1415 1388 1388 1338 1206 1247 1247 1247 1268 1226 1226 1206 1168 1226 1149 507 1168 1132 1187 1132 1132 1149 1132 1168 1132 1132 1132 1098 1098 1098 1115 1066 1066 1022 1008 1008 981 994 1008 968 955 897 943 855 855 919 886 897 908 0 0 0 0 908 865 886 845 721 782 782 799 791 766 750 758 766 826 782 743 721 714 0 629 681 675 669 629 669 675 645 669 657 657 651 645 657 634 0 0 0 0 0 0
    0 0 0 0 0 0 0 0 0 0 0 0 0 0 0 0 0 0 0 0 0 0 0 0 0 0 0 0 0 0 0 0 0 0 0 0 0 0 0 0 0 0 0 0 0 0 0 0 0 0 0 0 0 0 0 0 0 0 0 0 0 0 0 0 0 0 0 0 0 1022 1022 1036 1051 1051 1082 1066 1082 1098 1115 1206 1268 1226 1268 1291 1291 1314 1314 1338 1314 1388 1443 1443 1443 1501 1533 1565 1565 1711 1711 1711 1711 1752 1795 1839 1936 2044 1936 2102 2164 2230 2164 2299 2299 2230 2230 2537 2299 2230 2230 2453 2453 2725 2830 3066 3199 3199 3199 3199 3345 3345 3345 3504 3345 3345 3679 3679 4329 4329 4329 4599 4088 4906 4906 6133 5661 4906 5256 5256 5256 6133 6690 6690 6690 6690 8177 0 0 0 0 0 0 0 0 0 0 0 0 0 8177 8177 7359 4329 4906 4599 4599 4088 4088 3873 3679 3345 3679 3199 3066 2943 2943 2830 2830 2725 2943 2628 2725 2628 2725 2537 2453 2453 2299 2164 2230 2164 2102 2102 2102 2102 2044 2164 1887 1887 1839 1711 1711 1635 1635 1672 1635 1711 1635 1599 1635 1635 1635 1635 1565 1565 1471 1533 1443 1388 1362 1362 1314 1206 1226 1226 1226 1247 1206 1206 1206 1149 1226 1149 0 1168 1132 1187 1132 1115 1149 1115 1149 1098 1098 1082 1066 1066 1066 1082 1036 1036 981 981 981 955 955 968 943 931 876 931 845 0 0 0 0 0 0 0 0 0 0 0 0 0 603 774 774 808 799 766 758 766 774 826 791 728 0 0 0 598 651 651 645 623 663 669 645 663 657 651 651 645 657 634 0 0 0 0 0 0
    0 0 0 0 0 0 0 0 0 0 0 0 0 0 0 0 0 0 0 0 0 0 0 0 0 0 0 0 0 0 0 0 0 0 0 0 0 0 0 0 0 0 0 0 0 0 0 0 0 0 0 0 0 0 0 0 0 0 0 0 0 0 0 0 0 0 0 0 0 1022 1022 1022 1036 1051 1082 1066 1082 1098 1115 1206 1247 1206 1268 1268 1291 1314 1291 1338 1338 1388 1443 1443 1443 1501 1533 1565 1565 1711 1711 1672 1711 1752 1795 1839 0 2044 1989 2102 2164 2230 2164 2299 2299 2299 2299 2537 2299 2299 2299 2537 2537 2725 2943 3066 3199 3199 3345 3345 3345 3345 3345 3504 3345 3504 3679 3679 4088 4329 4329 4599 4329 4906 5256 6133 5661 5256 5661 5256 5256 6133 6690 6690 6133 6690 7359 0 0 0 0 0 0 0 0 0 0 0 0 8177 8177 7359 7359 4599 4906 4599 4599 4088 4088 3873 3679 3199 3345 3066 2943 2830 2830 2830 2830 2628 2830 2628 2725 2725 2830 2628 2537 2537 2374 2299 2374 2230 2164 2164 2164 2164 2102 2230 1936 1936 1839 1752 1711 1635 1672 1672 1672 1711 1672 1635 1635 1635 1672 1672 1599 1599 1501 1565 1471 1388 1388 1362 1314 1206 1226 1206 1226 1247 1187 1206 1187 1149 1206 1132 1168 1168 1132 1187 1132 1115 1132 1098 1132 1082 1066 1051 1036 1036 1066 1066 1022 1022 955 955 968 931 931 943 919 908 865 943 845 0 0 0 0 0 0 0 0 570 561 593 593 593 598 0 791 817 808 774 766 0 782 845 808 0 0 549 537 545 603 618 618 613 645 657 639 663 651 651 651 639 657 634 0 0 0 0 0 0
    0 0 0 0 0 0 0 0 0 0 0 0 0 0 0 0 0 0 0 0 0 0 0 0 0 0 0 0 0 0 0 0 0 0 0 0 0 0 0 0 0 0 0 0 0 0 0 0 0 0 0 0 0 0 0 0 0 0 0 0 0 0 0 0 0 0 0 0 0 1008 1008 1022 1036 1051 1082 1082 1082 1115 1132 1187 1226 1206 1268 1268 1291 1291 1291 1338 1338 1388 1443 1443 1443 1501 1533 1565 1565 1711 1711 1672 1711 1752 1795 1839 0 2044 1989 2102 2230 2230 2164 2299 2299 2299 2299 2453 2299 2230 2299 2453 2537 2725 2943 3066 3199 3199 3345 3345 3345 3345 3345 3504 3504 3504 3679 3679 4088 4088 4599 4599 4329 4906 4906 6133 5661 5256 5661 5661 5256 6133 6690 6690 6133 6690 6690 8177 0 0 0 0 0 0 0 0 0 0 0 8177 7359 6690 6690 4906 4906 4599 4906 4088 4088 3873 3504 3199 3199 2943 2943 2830 2830 2830 2830 2628 2830 2628 2725 2725 2725 2628 2537 2537 2453 2374 2374 2299 2164 2230 2230 2164 2102 2299 1989 1936 1839 1795 1752 1635 1635 1672 1672 1672 1672 1635 1635 1599 1711 1672 1599 1599 1533 1599 1471 1388 1388 1388 1314 1226 1226 1206 1206 1226 1168 1187 1187 1149 1206 1132 1168 1168 1132 1187 1115 1098 1132 1082 1098 1051 1036 0 0 0 1051 1066 1008 994 919 919 931 897 897 908 886 897 855 943 845 0 0 0 593 566 570 561 570 570 566 588 588 588 593 0 808 845 826 799 791 0 0 0 0 0 533 537 529 533 537 541 561 541 634 645 639 657 645 645 645 639 657 629 0 0 0 0 0 0
    0 0 0 0 0 0 0 0 0 0 0 0 0 0 0 0 0 0 0 0 0 0 0 0 0 0 0 0 0 0 0 0 0 0 0 0 0 0 0 0 0 0 0 0 0 0 0 0 0 0 0 0 0 0 0 0 0 0 0 0 0 0 0 0 0 0 0 0 0 1008 1008 1008 1036 1036 1066 1066 1082 1115 1132 1187 1226 1187 1247 1247 1268 1291 1268 1314 1314 1388 1415 1443 1443 1501 1533 1565 1565 1711 1711 1672 1711 1752 1795 0 0 1989 1989 2102 2230 2230 2164 2299 2299 2299 2299 2453 2299 2230 2299 2453 2537 2725 2943 3066 3199 3199 3504 3504 3504 3504 3345 3504 3504 3504 3873 3679 3873 4088 4599 4599 4599 4599 4599 5661 5256 5256 5256 4906 4906 5661 6133 6690 6133 6133 6690 7359 0 0 0 0 0 0 0 0 0 0 0 7359 8177 7359 7359 5256 5256 4599 4906 4088 3873 3873 3504 3066 3199 2830 2830 2725 2830 2725 2725 2628 2830 2725 2830 2830 2830 2628 2725 2628 2537 2453 2374 2299 2164 2164 2164 2102 2102 2299 1989 1989 1887 1887 1795 1635 1672 1672 1672 1672 1672 1672 1635 1635 1752 1711 1635 1635 1565 1565 1501 1388 1415 1388 1314 1247 1247 1226 1226 1247 1168 1187 1187 1132 1187 1132 1149 1168 1132 1187 1115 1082 1115 1066 1082 0 943 0 675 0 0 0 0 0 865 886 908 897 897 919 908 919 855 994 955 0 0 593 593 561 566 561 570 574 574 584 584 584 593 584 817 865 845 808 799 799 0 0 0 0 529 533 525 533 533 533 533 529 0 634 634 651 645 645 645 634 645 623 0 0 0 0 0 0
    0 0 0 0 0 0 0 0 0 0 0 0 0 0 0 0 0 0 0 0 0 0 0 0 0 0 0 0 0 0 0 0 0 0 0 0 0 0 0 0 0 0 0 0 0 0 0 0 0 0 0 0 0 0 0 0 0 0 0 0 0 0 0 0 0 0 0 0 0 994 994 1008 1036 1036 1066 1066 1082 1115 1132 1168 1206 1187 1226 1247 1247 1268 1247 1314 1314 1388 1443 1443 1443 1501 1533 1565 1565 1711 1711 1672 1711 1752 1795 0 0 1989 1989 2164 2230 2230 2230 2299 2230 2230 2299 2374 2230 2230 2299 2453 2537 2725 2943 3066 3199 3199 3504 3504 3504 3504 3345 3504 3345 3504 3679 3504 3679 4088 4329 4088 4329 4329 4088 4906 4906 4599 4906 4599 4906 5661 6133 6690 6133 6133 6690 6690 0 0 0 0 0 0 0 0 0 0 0 7359 7359 6690 6690 5256 5256 4329 4906 4088 3873 4088 3504 3066 3066 2830 2830 2725 2725 2725 2628 2628 2725 2725 2830 2830 2830 2725 2725 2628 2453 2374 2299 2230 2102 2102 2102 2044 2102 2374 2102 2044 1989 2044 1887 1672 1711 1711 1711 1711 1711 1672 1635 1635 1752 1752 1672 1672 0 1599 1635 1443 1501 1415 1338 1268 1268 1247 1226 1247 1168 1187 1187 1132 1187 1132 1149 1149 1132 1187 1115 1098 1132 1066 1098 1022 897 721 687 681 681 675 0 0 0 855 865 876 886 908 908 931 855 1008 0 0 0 593 593 561 574 566 574 579 0 588 588 584 593 584 0 0 855 0 0 0 0 0 0 533 525 529 521 529 529 525 521 514 504 0 629 645 639 639 645 634 645 0 0 0 0 0 0 0
    0 0 0 0 0 0 0 0 0 0 0 0 0 0 0 0 0 0 0 0 0 0 0 0 0 0 0 0 0 0 0 0 0 0 0 0 0 0 0 0 0 0 0 0 0 0 0 0 0 0 0 0 0 0 0 0 0 0 0 0 0 0 0 0 0 0 0 0 0 994 994 1008 1036 1036 1082 1082 1098 1132 1149 1187 1206 1187 1226 1247 1247 1247 1247 1314 1314 1388 1443 1443 1443 1501 1533 1565 1599 1672 1711 1672 1752 1795 1795 0 0 1989 1989 2230 2230 2299 2230 2299 2230 2299 2374 2374 2230 2299 2374 2453 2628 2725 2830 3066 3199 3199 3504 3504 3504 3504 3345 3345 3345 3345 3679 3345 3504 3679 3679 3679 3873 4088 3873 4599 4329 4906 5256 5256 4906 5661 6133 6690 6690 6690 6133 6133 8177 0 0 0 0 0 0 0 0 0 0 8177 7359 6133 6690 5661 4906 4088 4906 4329 3873 4088 3504 3199 3066 2943 2830 2725 2830 2725 2628 2628 2725 2725 2830 2830 2830 2453 2628 2453 2164 2230 2230 2164 2164 2164 2230 2230 2299 2537 2374 2164 2102 2102 1887 1711 1711 1711 1672 1672 1711 1672 1635 1635 1752 1752 1635 1672 0 0 1752 1599 1599 1471 1338 1291 1268 1247 1226 1247 1149 1187 1187 1132 1168 1115 1149 1149 1132 1187 1132 1098 1149 1066 1098 1036 897 750 694 694 681 669 681 613 0 0 0 865 865 886 897 931 855 1022 0 0 0 588 588 561 574 566 574 584 588 593 588 588 598 588 0 0 0 0 525 514 518 514 518 525 518 529 518 525 529 529 518 500 490 0 0 634 634 639 0 639 639 0 0 0 0 0 0 0
    0 0 0 0 0 0 0 0 0 0 0 0 0 0 0 0 0 0 0 0 0 0 0 0 0 0 0 0 0 0 0 0 0 0 0 0 0 0 0 0 0 0 0 0 0 0 0 0 0 0 0 0 0 0 0 0 0 0 0 0 0 0 0 0 0 0 0 0 0 994 994 1008 1036 1036 1082 1082 1115 1149 1168 1187 1206 1206 1247 1247 1247 1268 1268 1314 1338 1362 1415 1443 1443 1533 1533 1565 1599 1672 1752 1711 1752 1795 1839 0 0 2044 2044 2299 2299 2299 2299 2299 2299 2299 2374 2374 2299 2299 2374 2453 2628 2725 2830 2943 3199 3199 3504 3504 3504 3504 3504 3679 3504 3679 4088 3679 3679 3679 3345 3199 3504 3504 3504 3679 3504 4088 4906 5256 4906 5661 6133 6133 6133 6133 5661 5256 6690 0 0 0 0 0 0 0 0 0 0 8177 7359 5661 5661 5256 4329 3873 4599 4088 3873 3873 3504 3199 3066 2943 2830 2725 2830 2725 2725 2628 2830 2830 2830 2830 2725 2374 2374 2299 2102 2102 2102 2044 2044 2044 2164 2102 2230 2374 2299 2102 2102 2044 1936 1752 1711 1711 1672 1672 1672 1672 1599 1599 1711 1711 1672 1711 0 0 0 1711 1672 1471 1314 1291 1268 1247 1226 1247 1115 1187 1168 1132 1168 1115 1149 1149 1132 1187 1115 1098 1149 1066 1098 1008 0 728 694 694 681 669 675 613 566 537 0 0 845 855 855 897 836 0 0 0 0 584 584 561 579 570 579 588 0 593 593 593 598 588 0 0 0 0 525 514 511 507 518 525 518 525 521 529 533 533 521 500 487 477 490 0 0 459 0 0 0 0 0 0 0 0 0 0
    0 0 0 0 0 0 0 0 0 0 0 0 0 0 0 0 0 0 0 0 0 0 0 0 0 0 0 0 0 0 0 0 0 0 0 0 0 0 0 0 0 0 0 0 0 0 0 0 0 0 0 0 0 0 0 0 0 0 0 0 0 0 0 0 0 0 0 0 0 994 994 1008 1036 1051 1098 1115 1149 1187 1168 1187 1206 1226 1247 1247 1268 1291 1291 1314 1362 1362 1415 1415 1443 1533 1501 1565 1599 1672 1752 1711 1795 1795 1839 0 0 2044 0 0 2299 2299 2374 2299 2299 2299 2374 2299 2299 2299 2374 2453 2537 2628 2725 2725 2943 2943 3199 3199 3345 3345 3345 3345 3504 3679 4329 3679 3504 3345 3066 2943 3199 3199 3199 3345 3199 3679 4599 5256 4906 5661 5661 5661 5661 5256 4599 4329 0 0 0 0 0 0 0 0 0 0 0 7359 6690 6690 6690 7359 4906 4329 4906 4906 3873 3873 3504 3199 3066 3066 2830 2830 2830 2725 2725 2725 2830 2830 2830 2830 2725 2453 2453 2299 2102 2102 2044 2044 1989 1989 2044 2102 2230 2230 2230 2044 2044 1989 1936 1752 1752 1711 1672 1711 1711 1711 1635 1635 1795 1795 1752 1795 0 0 0 2374 1839 1471 1291 1291 1268 1247 1226 1226 1098 1187 1187 1132 1149 1115 1132 1149 1132 1187 1115 1098 1132 1066 0 0 817 707 694 687 675 657 663 608 584 549 0 0 791 782 782 0 791 0 0 0 0 0 593 566 584 574 584 588 593 593 588 588 598 584 836 0 0 533 525 514 511 507 518 525 521 529 525 529 533 533 518 493 481 474 481 477 471 465 462 468 0 0 0 0 0 0 0 0
    0 0 0 0 0 0 0 0 0 0 0 0 0 0 0 0 0 0 0 0 0 0 0 0 0 0 0 0 0 0 0 0 0 0 0 0 0 0 0 0 0 0 0 0 0 0 0 0 0 0 0 0 0 0 0 0 0 0 0 0 0 0 0 0 0 0 0 0 0 994 994 1008 1036 1051 1115 1132 1187 1206 1187 1187 1206 1247 1247 1268 1268 1314 1314 1338 1362 1362 1443 1415 1443 1533 1501 1565 1635 1672 1752 1711 1795 1839 1839 0 1989 2044 0 0 2299 2299 2374 2299 2299 2299 2374 2299 2299 2299 2374 2374 2537 2537 2628 2628 2725 2725 2943 3066 3199 3066 3066 3066 3199 3199 3873 3345 3199 2830 2725 2628 2943 2943 2943 3066 2943 3345 4329 4906 5256 5661 5661 5256 5256 4906 4329 4088 0 0 0 0 0 0 0 0 0 0 0 0 0 0 7359 8177 5661 4088 4906 5256 3504 3679 3345 3199 3066 3066 2943 2830 2830 2830 2725 2725 2830 2830 2725 2725 2725 2537 2453 2299 2164 2044 2044 1989 1989 1989 2044 2164 2299 2164 2230 1989 1989 1989 1936 1795 1752 1752 1711 1752 1752 1752 1672 1672 1839 1887 1887 1989 2044 2537 2725 2628 1936 1565 1291 1291 1291 1247 1226 1226 1098 1168 1168 1132 1149 1115 1132 1132 1132 1187 1115 1098 1149 0 0 0 817 700 687 675 663 645 645 608 584 570 0 623 0 735 735 750 750 758 0 0 865 0 0 566 593 584 588 593 603 598 593 0 0 0 845 836 0 529 525 521 518 514 521 525 521 529 521 525 529 525 507 487 474 471 471 471 465 465 465 471 477 477 484 0 0 0 0 0
    0 0 0 0 0 0 0 0 0 0 0 0 0 0 0 0 0 0 0 0 0 0 0 0 0 0 0 0 0 0 0 0 0 0 0 0 0 0 0 0 0 0 0 0 0 0 0 0 0 0 0 0 0 0 0 0 0 0 0 0 0 0 0 0 0 0 0 0 0 994 994 1008 1036 1066 1132 1132 1206 1226 1187 1206 1206 1247 1247 1268 1268 1314 1314 1338 1388 1362 1443 1415 1443 1565 1501 1565 1635 1635 1752 1711 1795 1839 1839 0 1936 1989 0 0 2299 2299 2374 2299 2299 2374 2374 2299 2299 2299 2374 2374 2453 2453 2537 2537 2628 2725 2830 2943 2943 2943 3066 3066 3066 3066 3345 3066 2830 2628 2537 2537 2830 2830 2830 2943 2830 3345 4088 4906 5661 5661 5661 5661 5256 5256 4329 0 0 0 0 0 0 0 0 0 0 0 0 0 0 0 0 0 0 4329 4906 5256 3504 3504 3199 3199 3066 3066 2943 2830 2943 2830 2830 2943 2943 2943 2725 2725 2628 2537 2299 2230 2102 1989 1989 1936 1989 1936 2044 2230 2299 2164 2230 2044 2044 1989 1989 1839 1795 1795 1795 1752 1795 1752 1711 1672 1795 1795 1795 1795 1839 1936 2374 2299 1936 1635 1362 1362 1338 1291 1291 1268 1098 1187 1187 1132 1149 1115 1132 1132 1132 1187 1115 1098 1149 0 0 0 826 700 681 669 657 639 634 608 584 584 603 603 0 0 728 743 750 728 0 0 845 0 0 570 598 588 588 0 639 0 0 0 817 836 845 826 0 525 521 518 518 514 521 525 518 525 518 521 525 518 497 481 471 468 468 471 465 465 465 471 477 474 487 0 0 0 0 0
    0 0 0 0 0 0 0 0 0 0 0 0 0 0 0 0 0 0 0 0 0 0 0 0 0 0 0 0 0 0 0 0 0 0 0 0 0 0 0 0 0 0 0 0 0 0 0 0 0 0 0 0 0 0 0 0 0 0 0 0 0 0 0 0 0 0 0 0 0 1008 1036 1036 1036 1066 1115 1132 1226 1206 1187 1187 1206 1247 1268 1268 1268 1338 1338 1338 1388 1362 1443 1415 1443 1565 1501 1565 1635 1635 1752 1711 1795 1839 1839 0 1936 1989 1989 0 2230 2299 2374 2299 2299 2299 2374 2299 2299 2299 2374 2374 2374 2299 2374 2299 2374 2453 2453 2628 2830 2830 2830 2943 2943 2943 2943 2943 2628 2374 2374 2374 2537 2628 2725 2725 2725 3066 3679 4329 5256 5256 5256 5256 5256 5256 0 0 0 0 0 0 0 0 0 0 0 0 0 0 0 0 0 0 0 0 0 4329 3345 3504 3199 3199 3066 3199 3066 3066 2943 3066 2943 3066 3199 3199 2830 2830 2628 2537 2230 2102 1936 1887 1887 1887 1936 1887 1989 2164 2299 2164 2299 2044 2044 1989 2044 1887 1839 1839 1839 1795 1795 1795 1711 1711 1795 1752 1711 1711 1752 1752 1989 2044 1887 1672 1415 1388 1415 1388 1338 1314 1115 1206 1206 1132 1149 1098 1132 1132 1132 1168 1115 1098 1168 0 0 0 0 0 681 669 651 634 623 608 598 593 603 603 0 0 0 0 735 700 0 0 0 0 0 0 593 588 0 0 0 0 0 0 799 826 836 817 0 0 0 529 525 525 529 525 518 521 500 0 0 493 0 459 462 457 462 462 462 462 462 468 477 477 493 0 0 0 0 0
    0 0 0 0 0 0 0 0 0 0 0 0 0 0 0 0 0 0 0 0 0 0 0 0 0 0 0 0 0 0 0 0 0 0 0 0 0 0 0 0 0 0 0 0 0 0 0 0 0 0 0 0 0 0 0 0 0 0 0 0 0 0 0 0 0 0 0 0 0 1036 1082 1082 1051 1066 1115 1149 1247 1206 1187 1168 1206 1226 1268 1268 1268 1338 1338 1338 1388 0 0 0 2 1565 1501 1565 1635 1635 1752 1711 1795 1839 1839 1936 1936 1989 1989 2230 2230 2230 2299 2299 2299 2299 2374 2299 2299 2299 2374 2299 2299 2164 2164 2102 2044 2102 2044 2299 2537 2628 2725 2830 2830 2830 2830 2725 2453 2299 2230 2230 2453 2537 2537 2537 2628 2830 3199 0 0 0 0 0 0 0 0 0 0 0 0 0 0 0 0 0 0 0 0 0 0 0 0 0 0 0 0 0 0 3504 3345 3199 2943 3199 2830 2830 2830 2943 2943 3066 3199 3199 2830 2830 2628 2537 2102 1989 1887 1887 1887 1887 1887 1887 1936 2102 2230 2230 2299 2102 2102 2102 2102 1989 1936 1936 1936 1887 1887 1839 1752 1711 1752 1711 1672 1635 1635 1635 1752 1795 1795 1565 1415 1388 1388 1362 1338 1314 1115 1206 1206 1132 1168 1098 1132 1132 1132 1168 1115 1098 1168 1082 0 0 0 0 0 675 657 645 629 618 618 613 623 613 629 728 728 743 735 714 0 0 845 0 0 0 0 0 0 799 735 714 721 817 735 782 799 766 728 0 0 0 0 0 553 529 518 0 0 0 0 0 454 448 454 446 454 454 459 459 459 468 477 0 511 0 0 0 0 0
    0 0 0 0 0 0 0 0 0 0 0 0 0 0 0 0 0 0 0 0 0 0 0 0 0 0 0 0 0 0 0 0 0 0 0 0 0 0 0 0 0 0 0 0 0 0 0 0 0 0 0 0 0 0 0 0 0 0 0 0 0 0 0 0 0 0 0 0 0 1036 1082 1082 1036 1066 1115 1187 1247 1187 1187 1168 1206 1226 1268 1268 1268 1338 1338 1338 1388 1388 1471 1443 1443 1565 1501 1565 1635 1635 1752 1711 1795 1839 1839 1936 1936 1989 1989 2102 2164 2164 2299 2230 2299 2299 2374 2299 2299 2299 2374 2164 2102 1989 1936 1887 1887 1887 1839 1989 2230 2453 2628 2725 2725 2725 2628 2453 2230 2102 2102 2102 2230 2230 2230 2299 2537 2628 0 0 0 0 0 0 0 0 0 0 0 0 0 0 0 0 0 0 0 0 0 0 0 0 0 0 0 0 0 0 0 0 0 3066 2537 2725 2453 2537 2537 2628 2830 2725 2830 3066 2628 2628 2453 2374 2044 1936 1839 1887 1887 1887 1887 1887 1936 2102 2230 2230 2299 2102 2164 2102 2164 2044 1989 1989 1989 1936 1989 1839 1752 1711 1711 1672 1635 1599 1599 1599 1672 1711 1711 1471 1362 1338 1338 1291 1291 1268 1115 1206 1187 1132 1168 1098 1149 1149 1132 1187 1115 1115 1168 1098 0 968 0 0 687 675 645 639 629 618 618 618 629 618 651 721 714 721 735 721 728 817 0 0 0 0 0 0 0 791 750 728 743 782 743 766 782 743 714 0 613 0 0 0 584 0 518 0 0 0 459 462 459 451 454 446 451 451 457 459 462 468 474 0 0 0 0 0 0 0
    0 0 0 0 0 0 0 0 0 0 0 0 0 0 0 0 0 0 0 0 0 0 0 0 0 0 0 0 0 0 0 0 0 0 0 0 0 0 0 0 0 0 0 0 0 0 0 0 0 0 0 0 0 0 0 0 0 0 0 0 0 0 0 0 0 0 0 0 0 1051 1115 1149 1168 1115 1168 1226 1268 1187 1187 1168 1206 1226 1268 1268 1268 1338 1362 1362 1388 1388 1471 1443 1471 1565 1501 1565 1635 1635 1752 1711 1795 1839 1839 1936 1936 1936 1936 2044 2102 2102 2299 2230 2299 2299 2299 2299 2230 2230 2164 1989 1887 1795 1752 1795 1795 1795 1795 1887 1989 2164 2537 2537 2628 2725 2453 2374 2164 2102 2102 2164 2164 2230 2230 2374 2537 0 0 0 0 0 0 0 0 0 0 0 0 0 0 0 0 0 0 0 0 0 0 0 0 0 0 0 0 0 0 0 0 0 0 0 0 0 0 0 0 2830 3199 3066 3345 3199 2628 2453 2374 2299 2044 1936 1839 1887 1936 1936 1936 1936 1989 2102 2164 2164 2230 1989 2044 2044 2102 2044 1989 1989 1989 1936 1936 1795 1752 1711 1711 1635 1635 1599 1599 1599 1672 1672 1711 1501 1388 1362 1338 1291 1268 1247 1115 1187 1187 1132 1168 1098 1149 1149 1149 1187 1115 1098 1149 0 0 0 0 0 675 657 634 634 629 613 613 613 629 623 651 721 721 721 735 721 728 799 0 0 0 0 0 0 0 791 766 750 758 758 735 758 766 743 714 0 613 574 0 0 0 518 490 0 477 465 459 457 462 451 451 443 448 448 454 459 462 468 474 0 0 0 0 0 0 0
    0 0 0 0 0 0 0 0 0 0 0 0 0 0 0 0 0 0 0 0 0 0 0 0 0 0 0 0 0 0 0 0 0 0 0 0 0 0 0 0 0 0 0 0 0 0 0 0 0 0 0 0 0 0 0 0 0 0 0 0 0 0 0 0 0 0 0 0 0 1066 1132 1187 1247 1168 1168 1226 1247 1187 1187 1168 1187 1206 1268 1268 1268 1338 1362 1362 1415 1388 1471 1443 1471 1565 1501 1565 1672 1635 1752 1711 1795 1839 1839 1887 1887 1936 1887 1936 2044 1989 2164 2230 2230 2230 2164 2299 2164 2102 1936 1839 1752 1672 1672 1711 1711 1752 1711 1839 1887 1936 2299 2374 2628 2628 2230 2164 1989 2044 2102 2044 2044 2044 2102 2230 2453 0 0 0 0 0 0 0 0 0 0 0 0 0 0 0 0 0 0 0 0 0 0 0 0 0 0 0 0 0 0 0 0 0 0 0 0 0 0 0 0 0 0 3679 3679 3345 2725 2537 2453 2453 2102 2044 1887 1936 1989 1989 2044 2044 1989 2230 2164 2164 2164 1989 2044 1989 2044 1989 1936 1936 1936 1887 1887 1795 1711 1711 1711 1635 1599 1565 1565 1565 1635 1635 1635 1471 1388 1338 1338 1268 1247 1247 1115 1187 1187 1132 1168 1115 1149 1149 1149 1187 1115 1082 1132 0 0 0 0 681 657 639 629 629 623 608 608 608 623 613 623 721 721 714 721 714 714 743 0 0 0 0 588 593 0 728 728 721 735 735 714 735 743 743 714 0 608 557 525 0 493 497 481 474 471 454 451 451 457 443 443 440 446 443 451 459 465 471 477 0 0 0 0 0 0 0
    0 0 0 0 0 0 0 0 0 0 0 0 0 0 0 0 0 0 0 0 0 0 0 0 0 0 0 0 0 0 0 0 0 0 0 0 0 0 0 0 0 0 0 0 0 0 0 0 0 0 0 0 0 0 0 0 0 0 0 0 0 0 0 0 0 0 0 0 0 1036 1066 1132 1187 1132 1168 1247 1268 1187 1187 1168 1187 1206 1268 1268 1268 1338 1362 1362 1415 1388 1471 1443 1471 1565 1501 1565 1672 1635 1752 1711 1795 1839 1839 1887 1887 1839 1839 1795 1936 1887 1887 2044 2044 2044 2044 2230 2102 2044 1887 1752 1711 1635 1635 1635 1672 1711 1672 1795 1795 1839 2044 2102 2374 2230 1989 1989 1936 2044 2102 1989 1989 1989 2044 2230 0 0 0 0 0 0 0 0 0 0 0 0 0 0 0 0 0 0 0 0 0 0 0 0 0 0 0 0 0 0 0 0 0 0 0 0 0 0 0 0 0 0 0 0 0 0 2725 2537 2537 2537 2044 1989 1795 1839 1936 1989 2044 2102 1989 2374 2164 2102 2044 1887 1936 1936 1936 1936 1887 1936 1887 1887 1887 1752 1711 1672 1672 1599 1599 1533 1565 1565 1599 1599 1565 1501 1415 1362 1338 1247 1247 1226 1115 1187 1187 1132 1168 1115 1168 1149 1149 1187 1115 1082 1132 0 0 0 0 669 645 629 623 623 618 603 603 603 613 608 608 618 629 669 657 675 651 681 0 645 0 0 0 593 593 0 0 714 714 721 0 0 750 758 0 0 574 541 507 474 471 471 465 457 457 448 446 443 446 435 438 438 440 438 443 446 459 468 468 0 0 0 0 0 0 0
    0 0 0 0 0 0 0 0 0 0 0 0 0 0 0 0 0 0 0 0 0 0 0 0 0 0 0 0 0 0 0 0 0 0 0 0 0 0 0 0 0 0 0 0 0 0 0 0 0 0 0 0 0 0 0 0 0 0 0 0 0 0 0 0 0 0 0 0 0 1008 1008 1066 1082 1066 1082 1268 1291 1168 1187 1168 1187 1206 1268 1268 1268 1338 1362 1362 1415 1415 1471 1443 1471 1565 1501 1565 1672 1635 1752 1672 1752 1795 1752 1795 1795 1752 1752 1752 1795 1795 1795 1887 1989 1989 1989 2164 2044 1936 1839 1752 1752 1635 1672 1635 1635 1672 1672 1752 1795 1795 1989 2044 2164 1989 1887 1887 1887 1989 1989 1936 1936 1936 2044 2230 0 0 0 0 0 0 0 0 0 0 0 0 0 0 0 0 0 0 0 0 0 0 0 0 0 0 0 0 0 0 0 0 0 0 0 0 0 0 0 0 0 0 0 0 0 0 0 0 2374 2453 1989 1936 1752 1839 1887 1989 2044 2102 1989 2453 2102 1936 1936 1795 1839 1839 1839 1839 1839 1887 1887 1839 1887 1752 1711 1672 1672 1565 1565 1501 1565 1565 1599 1565 1533 1501 1471 1388 1338 1226 1226 1226 1115 1187 1187 1115 1168 1115 1168 1149 1149 1187 1115 1082 0 0 0 0 0 657 634 623 618 618 613 603 598 598 608 598 598 598 603 598 598 603 598 593 593 588 584 584 588 584 0 0 0 707 687 629 0 0 0 0 0 584 566 545 511 474 468 462 457 454 454 448 446 443 446 435 438 438 435 432 435 432 438 435 443 0 0 0 0 0 0 0
    0 0 0 0 0 0 0 0 0 0 0 0 0 0 0 0 0 0 0 0 0 0 0 0 0 0 0 0 0 0 0 0 0 0 0 0 0 0 0 0 0 0 0 0 0 0 0 0 0 0 0 0 0 0 0 0 0 0 0 0 0 0 0 0 0 0 0 0 0 1008 1008 1051 1066 1036 1051 1247 1268 1168 1187 1168 1187 1206 1247 1268 1268 1338 1362 1362 1415 1415 1471 1443 1471 1565 1501 1565 1672 1599 1711 1635 1711 1752 1711 1752 1711 1672 1711 1672 1752 1752 1711 1795 1887 1936 1989 2044 1989 1839 1752 1711 1672 1565 1599 1565 1599 1635 1635 1711 1752 1795 1887 1936 1989 1839 1795 1795 1795 1887 1887 1839 1839 1839 1989 0 0 0 0 0 0 0 0 0 0 0 0 0 0 0 0 0 0 0 0 0 0 0 0 0 0 0 0 0 0 0 0 0 0 0 0 0 0 0 0 0 0 0 0 0 0 0 0 0 0 0 1989 1887 1752 1839 1936 1989 1989 2044 1989 2374 2044 1936 1839 1752 1795 1795 1795 1839 1795 1839 1887 1839 1887 1795 1711 1672 1635 1533 1533 1471 1533 1533 1533 1533 1471 1501 1501 1415 1362 1226 1226 1226 1115 1187 1187 1115 1168 1132 1168 1149 1149 1206 1115 1082 0 0 0 0 0 0 629 618 613 613 608 598 593 588 603 593 593 593 598 588 593 593 593 584 588 584 579 584 593 579 588 0 675 681 681 629 613 0 657 645 629 0 593 545 507 474 468 465 459 454 454 451 448 446 446 438 440 438 435 432 435 432 435 435 0 0 0 0 0 0 0 0
    0 0 0 0 0 0 0 0 0 0 0 0 0 0 0 0 0 0 0 0 0 0 0 0 0 0 0 0 0 0 0 0 0 0 0 0 0 0 0 0 0 0 0 0 0 0 0 0 0 0 0 0 0 0 0 0 0 0 0 0 0 0 0 0 0 0 0 0 0 1008 1022 1051 1082 1051 1051 1247 1291 1168 1187 1168 1187 1206 1247 1268 1247 1314 1362 1362 1415 1415 1471 1443 1471 1565 1501 1565 1635 1599 1711 1599 1672 1711 1672 1672 1672 1635 1635 1635 1711 1672 1672 1711 1711 1672 1839 1795 1839 1711 1599 1599 1599 1501 1565 1533 1565 1599 1635 1672 1711 1752 1839 1839 1839 1711 1711 1752 1752 1795 1795 1752 1752 1795 1936 0 0 0 0 0 0 0 0 0 0 0 0 0 0 0 0 0 0 0 0 0 0 0 0 0 0 0 0 0 0 0 0 0 0 0 0 0 0 0 0 0 0 0 0 0 0 0 0 0 0 0 0 0 0 1936 2044 2102 2102 2230 2044 2299 1989 1887 1795 1752 1711 1752 1752 1795 1795 1795 1839 1795 1795 1795 1752 1672 1635 1533 1533 1471 1501 1501 1501 1471 1443 1471 1501 1362 1338 1187 1226 1206 1115 1168 1168 1115 1168 1149 1168 1168 1168 1206 1115 1098 0 0 0 0 0 0 623 613 608 608 608 598 588 588 603 588 588 593 593 588 588 593 588 584 593 584 579 579 588 574 0 0 0 700 714 0 0 0 629 613 623 608 593 553 507 471 471 468 459 457 454 451 448 446 448 440 440 440 435 432 435 435 435 435 440 0 0 0 0 0 0 0
    0 0 0 0 0 0 0 0 0 0 0 0 0 0 0 0 0 0 0 0 0 0 0 0 0 0 0 0 0 0 0 0 0 0 0 0 0 0 0 0 0 0 0 0 0 0 0 0 0 0 0 0 0 0 0 0 0 0 0 0 0 0 0 0 0 0 0 0 0 994 1008 1036 1082 1066 1082 1247 1268 1187 1206 1187 1206 1206 1247 1268 1247 1314 1362 1362 1415 1415 1471 1443 1471 1565 1501 1565 1635 1599 1672 1565 1672 1635 1635 1635 1635 1599 1635 1599 1672 1635 1635 1599 1471 1415 1338 1533 1672 1533 1533 1533 1635 1565 1599 1599 1635 1635 1635 1711 1752 1711 1795 1752 1711 1635 1635 1672 1711 1711 1711 1711 1711 1795 1936 0 0 0 0 0 0 0 0 0 0 0 0 0 0 0 0 0 0 0 0 0 0 0 0 0 0 0 0 0 0 0 0 0 0 0 0 0 0 0 0 0 0 0 0 0 0 0 0 0 0 0 0 0 0 0 0 2299 2374 2453 2299 2374 1989 1839 1752 1711 1672 1672 1711 1752 1752 1752 1795 1795 1795 1752 1752 1672 1599 1501 1533 1443 1501 1501 1471 1443 1415 1415 1471 1338 1314 1168 1206 1206 1115 1168 1168 1115 1168 1149 1168 1168 1168 1206 1132 1098 0 0 0 0 0 0 618 613 608 608 608 598 584 584 603 584 588 588 588 579 584 588 588 584 593 588 584 584 584 561 566 584 0 0 0 0 0 0 613 0 629 608 593 549 497 462 468 465 457 454 454 451 448 448 448 440 438 440 432 432 432 432 432 435 435 0 0 0 0 0 0 0
    0 0 0 0 0 0 0 0 0 0 0 0 0 0 0 0 0 0 0 0 0 0 0 0 0 0 0 0 0 0 0 0 0 0 0 0 0 0 0 0 0 0 0 0 0 0 0 0 0 0 0 0 0 0 0 0 0 0 0 0 0 0 0 0 0 0 0 0 0 994 994 1036 1066 1082 1115 1226 1268 1187 1187 1187 1206 1206 1247 1268 1247 1314 1362 1362 1415 1415 1471 1443 1471 1565 1501 1565 1635 1565 1635 1533 1599 1599 1565 1565 1565 1565 1565 1565 1635 1599 1599 1533 1388 1362 1314 1443 1533 1533 1565 1599 1711 1635 1672 1672 1672 1672 1635 1672 1672 1672 1752 1672 1599 1565 1599 1635 1672 1635 1635 1635 1672 1752 0 0 0 0 0 0 0 0 0 0 0 0 0 0 0 0 0 0 0 0 0 0 0 0 0 0 0 0 0 0 0 0 0 0 0 0 0 0 0 0 0 0 0 0 0 0 0 0 0 0 0 0 0 0 0 0 0 0 2453 2628 2374 2374 1989 1795 1711 1672 1635 1672 1711 1711 1711 1711 1752 1752 1752 1752 1795 1672 1599 1533 1599 1533 1565 1565 1533 1471 1415 1443 1471 1338 1314 1168 1187 1206 1115 1168 1168 1115 1168 1168 1187 1168 1168 1206 1149 1098 0 0 0 0 0 0 613 608 603 603 603 593 579 579 598 579 579 579 584 574 574 584 579 574 588 584 584 579 570 553 549 557 553 557 561 566 557 566 588 593 598 593 570 545 500 465 468 465 454 454 454 451 448 448 451 440 440 440 432 432 430 432 432 435 435 443 0 0 0 0 0 0
    0 0 0 0 0 0 0 0 0 0 0 0 0 0 0 0 0 0 0 0 0 0 0 0 0 0 0 0 0 0 0 0 0 0 0 0 0 0 0 0 0 0 0 0 0 0 0 0 0 0 0 0 0 0 0 0 0 0 0 0 0 0 0 0 0 0 0 0 0 1022 1022 1066 0 0 1168 1226 1268 1187 1206 1206 1206 1206 1247 1268 1268 1314 1362 1388 1415 1415 1471 1443 1471 1533 1471 1533 1565 1533 1565 1501 1533 1501 1501 1501 1533 1533 1533 1501 1533 1501 1471 1415 1338 1338 1314 1415 1501 1501 1599 1672 1752 1711 1752 1752 1711 1672 1635 1599 1599 1599 1672 1533 1471 1471 1533 1599 1635 1599 1565 1599 1672 1752 0 0 0 0 0 0 0 0 0 0 0 0 0 0 0 0 0 0 0 0 0 0 0 0 0 0 0 0 0 0 0 0 0 0 0 0 0 0 0 0 0 0 0 0 0 0 0 0 0 0 0 0 0 0 0 0 0 0 0 2628 2299 2374 1936 1795 1711 1672 1635 1635 1672 1711 1711 1711 1711 1752 1752 1752 1887 1711 1565 1471 1635 1565 1599 1635 1599 1501 1443 1533 1533 1362 1314 1168 1187 1206 1132 1149 1168 1115 1168 1187 1187 1187 1168 1206 1149 1098 0 0 0 0 0 0 608 603 603 598 598 588 574 574 593 570 574 574 584 574 574 579 574 570 579 574 566 566 557 537 533 537 537 537 537 545 541 545 566 570 579 579 557 541 497 465 465 462 451 451 451 451 448 446 448 440 440 440 432 432 430 432 435 435 438 440 0 0 0 0 0 0
    0 0 0 0 0 0 0 0 0 0 0 0 0 0 0 0 0 0 0 0 0 0 0 0 0 0 0 0 0 0 0 0 0 0 0 0 0 0 0 0 0 0 0 0 0 0 0 0 0 0 0 0 0 0 0 0 0 0 0 0 0 0 0 0 0 0 0 0 0 1051 1036 1051 0 0 0 1168 1247 1206 1226 1226 1226 1226 1268 1291 1268 1314 1362 1388 1415 1415 1443 1443 1443 1501 1443 1501 1501 1471 1533 1471 1471 1471 1471 1471 1501 1501 1501 1471 1501 1443 1388 1388 1338 1291 1291 1362 1443 1443 1599 1711 1795 1752 1795 1795 1752 1635 1635 1533 1565 1565 1565 1443 1443 1443 1471 1533 1565 1501 1471 1533 1635 0 0 0 0 0 0 0 0 0 0 0 0 0 0 0 0 0 0 0 0 0 0 0 0 0 0 0 0 0 0 0 0 0 0 0 0 0 0 0 0 0 0 0 0 0 0 0 0 0 0 0 0 0 0 0 0 0 0 0 0 0 2725 2628 2164 1839 1711 1672 1635 1635 1711 1711 1711 1711 1752 1752 1752 1752 1989 1711 1533 1471 1565 1533 1599 1599 1565 1501 1443 1565 1565 1362 1314 1187 1206 1206 1149 1149 1168 1132 1187 1187 1187 1187 1168 1206 1168 1115 1168 0 0 0 0 0 608 603 603 598 598 588 570 574 593 566 570 574 579 574 570 579 574 566 579 574 561 561 549 533 529 533 533 533 533 537 537 537 557 557 557 557 545 541 493 465 462 462 448 451 451 448 448 446 448 443 440 440 432 432 430 432 432 435 435 438 0 0 0 0 0 0
    0 0 0 0 0 0 0 0 0 0 0 0 0 0 0 0 0 0 0 0 0 0 0 0 0 0 0 0 0 0 0 0 0 0 0 0 0 0 0 0 0 0 0 0 0 0 0 0 0 0 0 0 0 0 0 0 0 0 0 0 0 0 0 0 0 0 0 0 0 1022 1022 1022 1036 1036 0 0 1226 1187 1226 1226 1226 1247 1268 1291 1291 1314 1362 1388 1415 1415 1415 1415 1415 1471 1415 1443 1415 1415 1443 1415 1415 1415 1415 1415 1443 1443 1443 1443 1443 1362 1338 1338 1291 1268 1268 1338 1362 1388 1533 1635 1795 1752 1795 1795 1711 1672 1672 1533 1599 1533 1501 1415 1415 1415 1443 1471 1471 1415 1415 1501 1635 0 0 0 0 0 0 0 0 0 0 0 0 0 0 0 0 0 0 0 0 0 0 0 0 0 0 0 0 0 0 0 0 0 0 0 0 0 0 0 0 0 0 0 0 0 0 0 0 0 0 0 0 0 0 0 0 0 0 0 0 0 0 0 2230 1795 1565 1599 1565 1599 1672 1711 1711 1711 1752 1752 1752 1795 1989 1672 1443 1388 1471 1443 1533 1533 1443 1415 1415 1565 1599 1388 1338 1187 1206 1226 1168 1149 1168 1132 1187 1206 1206 1187 1187 1206 1187 1132 1187 0 0 0 0 0 608 603 608 603 603 593 579 579 598 570 570 574 579 570 570 574 570 566 579 570 561 557 549 533 525 529 529 533 529 533 533 533 553 553 549 545 537 533 490 468 459 459 448 451 451 448 448 446 448 446 440 440 432 432 430 432 432 435 435 435 0 0 0 0 0 0
    0 0 0 0 0 0 0 0 0 0 0 0 0 0 0 0 0 0 0 0 0 0 0 0 0 0 0 0 0 0 0 0 0 0 0 0 0 0 0 0 0 0 0 0 0 0 0 0 0 0 0 0 0 0 0 0 0 0 0 0 0 0 0 0 0 0 0 0 0 1022 1022 1022 1022 1022 1051 0 1168 1168 1206 1226 1226 1247 1268 1291 1291 1314 1338 1362 1388 1388 1388 1388 1388 1443 1362 1362 1338 1362 1388 1388 1388 1388 1362 1388 1388 1443 1415 1443 1415 1362 1338 1338 1314 1291 1291 1338 1362 1362 1443 1533 1752 1752 1752 1839 1672 1635 1635 1565 1599 1501 1443 1388 1362 1388 1415 1415 1388 1362 1362 1471 0 0 0 0 0 0 0 0 0 0 0 0 0 0 0 0 0 0 0 0 0 0 0 0 0 0 0 0 0 0 0 0 0 0 0 0 0 0 0 0 0 0 0 0 0 0 0 0 0 0 0 0 0 0 0 0 0 0 0 0 0 0 0 0 0 1599 1599 1599 1501 1565 1672 1711 1711 1711 1795 1711 1752 1795 1887 1635 1388 1338 1415 1415 1471 1471 1388 1362 1362 1501 1599 1362 1314 1206 1187 1226 1168 1149 1187 1149 1187 1206 1206 1206 1187 1206 1206 1149 1187 0 0 0 0 0 613 608 613 608 608 598 588 588 603 579 579 579 584 570 566 574 570 566 570 561 553 549 549 533 529 529 529 529 529 529 529 529 545 537 533 514 497 504 487 471 457 462 448 451 451 448 448 448 448 446 440 440 432 432 430 432 432 432 435 435 438 0 0 0 0 0
    0 0 0 0 0 0 0 0 0 0 0 0 0 0 0 0 0 0 0 0 0 0 0 0 0 0 0 0 0 0 0 0 0 0 0 0 0 0 0 0 0 0 0 0 0 0 0 0 0 0 0 0 0 0 0 0 0 0 0 0 0 0 0 0 0 0 0 0 0 1036 1036 1036 1036 1036 1066 0 1132 1149 1206 1226 1226 1247 1268 1314 1291 1291 1314 1314 1338 1338 1338 1338 1338 1388 1338 1338 1314 1362 1388 1388 1388 1362 1338 1362 1388 1415 1415 1415 1388 1338 1338 1338 1291 1268 1268 1314 1338 1314 1388 1415 1672 1711 1795 1839 1635 1565 1565 1565 1533 1415 1362 1338 1338 1362 1362 1338 1338 1314 1338 1443 0 0 0 0 0 0 0 0 0 0 0 0 0 0 0 0 0 0 0 0 0 0 0 0 0 0 0 0 0 0 0 0 0 0 0 0 0 0 0 0 0 0 0 0 0 0 0 0 0 0 0 0 0 0 0 0 0 0 0 0 0 0 0 0 0 0 0 1533 1388 1471 1672 1711 1752 1752 1795 1752 1711 1795 1839 1599 1338 1314 1362 1362 1415 1388 1338 1338 1314 1388 1443 1291 1268 1206 1187 1226 1187 1149 1187 1149 1206 1226 1206 1206 1187 1206 1206 1168 1206 1115 0 0 0 0 618 618 623 618 618 608 598 598 613 593 593 588 593 579 570 579 570 566 570 561 553 549 545 533 529 529 529 529 529 529 529 525 537 529 521 481 477 481 481 465 454 462 451 451 451 448 448 448 451 448 440 440 432 435 432 432 432 435 435 435 438 0 0 0 0 0
    0 0 0 0 0 0 0 0 0 0 0 0 0 0 0 0 0 0 0 0 0 0 0 0 0 0 0 0 0 0 0 0 0 0 0 0 0 0 0 0 0 0 0 0 0 0 0 0 0 0 0 0 0 0 0 0 0 0 0 0 0 0 0 0 0 0 0 0 0 1051 1036 1036 1036 1051 0 0 1098 0 1187 1226 1226 1247 1291 1314 1291 1291 1291 1291 1291 1291 1291 1291 1314 1314 1314 1314 1291 1338 1362 1362 1362 1314 1314 1314 1362 1388 1338 1362 1338 1291 1291 1291 1268 1247 1247 1291 1291 1291 1314 1314 1599 1795 1839 1887 1635 1565 1501 1501 1443 1338 1291 1291 1291 1338 1314 1314 1291 1268 1314 1415 0 0 0 0 0 0 0 0 0 0 0 0 0 0 0 0 0 0 0 0 0 0 0 0 0 0 0 0 0 0 0 0 0 0 0 0 0 0 0 0 0 0 0 0 0 0 0 0 0 0 0 0 0 0 0 0 0 0 0 0 0 0 0 0 0 0 0 0 0 1415 1635 1711 1752 1752 1752 1711 1672 1752 1839 1565 1338 1314 1362 1362 1388 1388 1338 1314 1291 1338 1362 1268 1247 1187 1168 1206 1187 1132 1187 1168 1206 1226 1206 1206 1206 1187 1206 1168 1187 1115 0 0 0 0 634 629 634 623 623 613 608 608 623 603 598 598 598 579 566 579 570 566 570 561 553 545 545 529 529 525 529 529 529 529 529 525 537 529 511 477 477 477 477 462 451 459 451 451 451 448 448 448 451 448 438 440 432 435 432 432 432 435 435 438 438 0 0 0 0 0
    0 0 0 0 0 0 0 0 0 0 0 0 0 0 0 0 0 0 0 0 0 0 0 0 0 0 0 0 0 0 0 0 0 0 0 0 0 0 0 0 0 0 0 0 0 0 0 0 0 0 0 0 0 0 0 0 0 0 0 0 0 0 0 0 0 0 0 0 0 1051 1051 0 1051 0 1066 0 1082 1098 1132 1187 1187 1247 1268 1314 1291 1291 1291 1291 1291 1291 1291 1291 1291 1247 1268 1247 1247 1291 1291 1314 1291 1247 1268 1268 1314 1314 1247 1291 1247 1226 1247 1247 1226 1226 1206 1247 1247 1268 1291 1291 1362 1599 1752 1839 1443 1471 1415 1388 1362 1268 1247 1247 1268 1291 1268 1247 1247 1247 1291 0 0 0 0 0 0 0 0 0 0 0 0 0 0 0 0 0 0 0 0 0 0 0 0 0 0 0 0 0 0 0 0 0 0 0 0 0 0 0 0 0 0 0 0 0 0 0 0 0 0 0 0 0 0 0 0 0 0 0 0 0 0 0 0 0 0 0 0 0 0 0 1635 1752 1795 1887 1839 1672 1635 1711 1795 1565 1338 1314 1362 1362 1415 1415 1338 1314 1268 1291 1314 1268 1226 1168 1149 1206 1187 1115 1187 1149 1187 1206 1206 1206 1187 1187 1206 1149 1187 0 0 0 0 634 645 634 645 629 634 618 618 618 639 613 613 608 603 584 566 579 570 566 566 557 553 545 545 533 529 529 529 529 529 529 525 518 529 518 500 477 474 474 474 462 448 459 451 451 454 448 448 448 448 448 0 0 430 432 432 432 432 435 435 438 443 0 0 0 0 0
    0 0 0 0 0 0 0 0 0 0 0 0 0 0 0 0 0 0 0 0 0 0 0 0 0 0 0 0 0 0 0 0 0 0 0 0 0 0 0 0 0 0 0 0 0 0 0 0 0 0 0 0 0 0 0 0 0 0 0 0 0 0 0 0 0 0 0 0 0 1066 1051 0 1066 1066 1066 1051 1082 1098 1098 1168 1168 1247 1268 1314 1291 1291 1291 1291 1268 1291 1268 1247 1247 1206 1226 1206 1226 1247 1247 1268 1226 1187 1226 1187 1247 1206 1149 1187 1168 1149 1187 1206 1206 1187 1187 1226 1226 1247 1268 1247 1268 1291 1338 1415 1268 1338 1314 1314 1268 1206 1206 1206 1247 1268 1226 1206 1206 1247 1268 0 0 0 0 0 0 0 0 0 0 0 0 0 0 0 0 0 0 0 0 0 0 0 0 0 0 0 0 0 0 0 0 0 0 0 0 0 0 0 0 0 0 0 0 0 0 0 0 0 0 0 0 0 0 0 0 0 0 0 0 0 0 0 0 0 0 0 0 0 0 0 0 0 2628 2537 1989 1711 1672 1752 1795 1565 1338 1291 1362 1388 1415 1415 1338 1291 1291 1314 1362 1268 1226 1149 1132 1187 1187 1115 1168 1132 1187 1206 1206 1206 1187 1187 1206 1132 1168 1098 0 0 0 645 657 645 651 634 639 623 623 629 651 623 618 613 613 588 566 574 570 566 561 557 553 549 545 537 537 533 533 533 533 529 525 514 521 500 490 465 471 471 471 465 448 459 451 454 454 448 448 446 446 448 0 0 430 435 432 435 435 438 438 438 448 0 0 0 0 0
    0 0 0 0 0 0 0 0 0 0 0 0 0 0 0 0 0 0 0 0 0 0 0 0 0 0 0 0 0 0 0 0 0 0 0 0 0 0 0 0 0 0 0 0 0 0 0 0 0 0 0 0 0 0 0 0 0 0 0 0 0 0 0 0 0 0 0 0 0 1066 0 0 1066 1051 1066 1051 1066 1082 1098 1149 1115 1247 1268 1314 1291 1291 1268 1268 1268 1291 1247 1226 1206 1149 1187 1149 1168 1187 1149 1168 1149 1132 1168 1115 1149 1132 1098 1115 1115 1115 1149 1168 1168 1132 1132 1168 1187 1187 1206 1168 1149 1187 1247 1247 1187 1314 1291 1268 1226 1168 1168 1187 1226 1226 1187 1149 1168 1226 0 0 0 0 0 0 0 0 0 0 0 0 0 0 0 0 0 0 0 0 0 0 0 0 0 0 0 0 0 0 0 0 0 0 0 0 0 0 0 0 0 0 0 0 0 0 0 0 0 0 0 0 0 0 0 0 0 0 0 0 0 0 0 0 0 0 0 0 0 0 0 0 0 0 0 2725 2044 1672 1565 1752 1795 1533 1338 1314 1362 1388 1415 1443 1338 1291 1291 1314 1338 1268 1226 1149 1132 1168 1187 1115 1168 1132 1187 1206 1206 1187 1187 1168 1187 1132 1168 1098 1036 0 0 0 669 663 663 639 651 629 629 634 663 629 623 623 629 593 570 574 570 561 561 553 553 553 549 541 541 541 541 537 537 533 529 518 518 493 487 459 468 468 468 465 446 457 451 454 454 448 448 448 448 448 0 0 430 432 430 432 432 435 435 435 0 0 0 0 0 0
    0 0 0 0 0 0 0 0 0 0 0 0 0 0 0 0 0 0 0 0 0 0 0 0 0 0 0 0 0 0 0 0 0 0 0 0 0 0 0 0 0 0 0 0 0 0 0 0 0 0 0 0 0 0 0 0 0 0 0 0 0 0 0 0 0 0 0 0 0 1051 1036 1066 1066 1051 1066 1051 1066 1082 1066 1098 1066 1226 1247 1314 1291 1291 1268 1268 1291 1291 1247 1206 1149 1115 1132 1115 1132 1132 1098 1115 1098 1115 1115 1098 1132 1115 1098 1115 1115 1098 1132 1149 1132 1098 1098 1115 1115 1132 1132 1098 1066 1115 1187 1187 1149 1291 1268 1226 1187 1132 1149 1187 1206 1206 1168 1132 1168 1206 0 0 0 0 0 0 0 0 0 0 0 0 0 0 0 0 0 0 0 0 0 0 0 0 0 0 0 0 0 0 0 0 0 0 0 0 0 0 0 0 0 0 0 0 0 0 0 0 0 0 0 0 0 0 0 0 0 0 0 0 0 0 0 0 0 0 0 0 0 0 0 0 0 0 0 0 0 1635 1501 1711 1752 1501 1314 1314 1362 1362 1388 1415 1338 1291 1268 1291 1291 1268 1247 1149 1149 1168 1187 1115 1168 1149 1168 1187 1206 1187 1187 1168 1187 1115 1132 1098 1036 0 0 669 681 669 669 645 657 639 639 639 669 634 629 629 645 598 579 579 570 561 557 553 549 553 553 545 545 545 545 545 545 541 533 525 518 497 487 462 468 468 468 465 446 459 454 454 454 448 448 448 448 451 435 0 430 432 427 430 427 430 430 432 0 0 0 0 0 0
    0 0 0 0 0 0 0 0 0 0 0 0 0 0 0 0 0 0 0 0 0 0 0 0 0 0 0 0 0 0 0 0 0 0 0 0 0 0 0 0 0 0 0 0 0 0 0 0 0 0 0 0 0 0 0 0 0 0 0 0 0 0 0 0 0 0 0 0 0 1036 1036 0 1066 1051 1066 1051 1066 1082 1051 1066 1036 1115 1206 1268 1268 1247 1226 1247 1291 1291 1226 1168 1115 1098 1132 1115 1132 1115 1082 1098 1082 1098 1115 1082 1132 1098 1098 1115 1098 1098 1115 1132 1115 1066 1066 1082 1082 1098 1098 1066 1051 1098 1149 1168 1132 1247 1206 1132 1098 1082 1098 1132 1132 1132 1115 1098 1149 1187 0 0 0 0 0 0 0 0 0 0 0 0 0 0 0 0 0 0 0 0 0 0 0 0 0 0 0 0 0 0 0 0 0 0 0 0 0 0 0 0 0 0 0 0 0 0 0 0 0 0 0 0 0 0 0 0 0 0 0 0 0 0 0 0 0 0 0 0 0 0 0 0 0 0 0 0 0 0 0 1711 1752 1415 1187 1268 1338 1338 1338 1362 1314 1268 1247 1291 1291 1268 1247 1149 1149 1168 1187 1149 1187 1149 1168 1187 1206 1168 1187 1149 1149 1082 1098 1066 1022 919 0 675 687 675 669 651 663 645 639 645 675 634 629 629 651 598 588 584 570 561 557 553 549 549 549 545 545 545 549 545 545 545 537 529 518 497 487 465 471 471 471 468 448 459 454 454 457 451 448 448 448 451 435 0 430 432 427 430 427 430 0 432 0 0 0 0 0 0
    0 0 0 0 0 0 0 0 0 0 0 0 0 0 0 0 0 0 0 0 0 0 0 0 0 0 0 0 0 0 0 0 0 0 0 0 0 0 0 0 0 0 0 0 0 0 0 0 0 0 0 0 0 0 0 0 0 0 0 0 0 0 0 0 0 0 0 0 0 1051 1051 0 1082 1066 1066 1066 1066 1082 1051 1051 1008 1008 1082 1168 1187 1187 1187 1206 1268 1268 1206 1149 1098 1115 1149 1115 1149 1115 1115 0 1098 1098 1115 1082 1132 1115 1115 1115 1098 1098 1115 1115 1098 1051 1051 1066 1066 1082 1082 1051 1051 1098 1168 1206 1168 1247 1168 1066 1066 1051 1066 1082 1082 1082 1066 1066 1132 0 0 0 0 0 0 0 0 0 0 0 0 0 0 0 0 0 0 0 0 0 0 0 0 0 0 0 0 0 0 0 0 0 0 0 0 0 0 0 0 0 0 0 0 0 0 0 0 0 0 0 0 0 0 0 0 0 0 0 0 0 0 0 0 0 0 0 0 0 0 0 0 0 0 0 0 0 0 0 0 0 0 1415 1187 1247 1338 1362 1388 1388 1362 1291 1268 1291 1314 1291 1247 1168 1149 1168 1187 1149 1187 1149 1149 1168 1187 1149 1168 1149 1132 1066 1066 1051 1022 0 0 0 687 669 663 645 657 645 645 645 675 639 629 629 651 603 593 588 566 561 553 553 549 549 549 545 545 545 549 545 545 541 537 533 518 497 487 0 468 468 468 468 448 459 454 457 457 451 448 448 448 451 438 0 430 432 430 430 427 430 427 432 432 0 0 0 0 0
    0 0 0 0 0 0 0 0 0 0 0 0 0 0 0 0 0 0 0 0 0 0 0 0 0 0 0 0 0 0 0 0 0 0 0 0 0 0 0 0 0 0 0 0 0 0 0 0 0 0 0 0 0 0 0 0 0 0 0 0 0 0 0 0 0 0 0 0 0 0 0 0 1098 1098 1098 1098 1098 1098 1051 1051 1008 994 1051 1066 1082 1098 1082 1132 1247 1247 1187 1132 1098 1115 1168 1132 1168 1149 0 0 1098 1082 1098 1082 1115 1098 1098 1082 1082 1082 1098 1098 1082 1036 1051 1051 1051 1066 1098 1051 1082 1098 1187 1226 1187 1206 1098 1036 1036 1022 1051 1051 1051 1036 1036 1051 1132 0 0 0 0 0 0 0 0 0 0 0 0 0 0 0 0 0 0 0 0 0 0 0 0 0 0 0 0 0 0 0 0 0 0 0 0 0 0 0 0 0 0 0 0 0 0 0 0 0 0 0 0 0 0 0 0 0 0 0 0 0 0 0 0 0 0 0 0 0 0 0 0 0 0 0 0 0 0 0 0 0 0 0 1206 1247 1362 1443 1501 1599 1415 1291 1268 1291 1291 1291 1291 1187 1187 1168 1187 1168 1187 1149 1149 1149 1168 1132 1132 1115 1098 1051 1051 1036 0 0 0 0 681 663 657 639 657 645 645 645 675 639 629 629 645 603 588 584 561 557 553 553 549 553 549 545 545 545 545 541 545 541 533 529 518 497 487 0 468 468 468 465 448 459 454 457 459 454 451 451 448 451 438 0 432 432 430 430 427 430 425 430 427 0 0 0 0 0
    0 0 0 0 0 0 0 0 0 0 0 0 0 0 0 0 0 0 0 0 0 0 0 0 0 0 0 0 0 0 0 0 0 0 0 0 0 0 0 0 0 0 0 0 0 0 0 0 0 0 0 0 0 0 0 0 0 0 0 0 0 0 0 0 0 0 0 0 0 1066 1082 1098 1098 1098 1115 1098 1098 1098 1051 1051 1008 994 1022 1008 1022 0 1036 1098 1168 1187 1149 1115 1082 1082 1132 1115 1132 1115 1098 1082 1066 1066 1082 1066 1098 1066 1082 1082 1066 1066 1082 1082 1066 1036 1051 1051 1051 1066 1098 1051 1082 1098 1187 1206 1187 1149 1051 1022 1022 1022 1036 1022 1022 1008 1008 1036 0 0 0 0 0 0 0 0 0 0 0 0 0 0 0 0 0 0 0 0 0 0 0 0 0 0 0 0 0 0 0 0 0 0 0 0 0 0 0 0 0 0 0 0 0 0 0 0 0 0 0 0 0 0 0 0 0 0 0 0 0 0 0 0 0 0 0 0 0 0 0 0 0 0 0 0 0 0 0 0 0 0 0 0 0 0 1752 1887 1936 1887 1672 1362 1314 1314 1388 1362 1314 1187 1206 1168 1187 1168 1187 1149 1149 1132 1168 1115 1132 1098 1098 1051 1051 0 0 0 0 0 675 657 651 639 657 645 645 645 675 639 629 623 639 603 588 584 553 557 549 553 549 553 545 545 545 545 545 541 541 537 529 529 518 497 490 468 468 468 468 465 448 459 454 457 459 454 451 451 448 454 438 438 432 432 430 430 427 427 425 430 425 0 0 0 0 0
    0 0 0 0 0 0 0 0 0 0 0 0 0 0 0 0 0 0 0 0 0 0 0 0 0 0 0 0 0 0 0 0 0 0 0 0 0 0 0 0 0 0 0 0 0 0 0 0 0 0 0 0 0 0 0 0 0 0 0 0 0 0 0 0 0 0 0 0 0 1051 1066 1098 1098 1098 1115 1115 1098 1098 1066 1051 1022 994 1022 1008 1008 1008 1022 1051 1051 1082 1066 1066 1036 994 1051 1066 1066 1051 1051 1036 1036 1036 1066 1051 1066 1051 1066 1066 1066 1066 1066 1066 1036 1008 1022 1022 1022 1022 1066 1008 1051 1066 1115 1132 1098 1051 1022 981 994 994 1008 994 994 981 994 1022 0 0 0 0 0 0 0 0 0 0 0 0 0 0 0 0 0 0 0 0 0 0 0 0 0 0 0 0 0 0 0 0 0 0 0 0 0 0 0 0 0 0 0 0 0 0 0 0 0 0 0 0 0 0 0 0 0 0 0 0 0 0 0 0 0 0 0 0 0 0 0 0 0 0 0 0 0 0 0 0 0 0 0 0 0 0 0 0 1936 1936 1795 1795 1599 1533 1672 1501 1338 1187 1226 1187 1206 1187 1206 1149 1149 1132 1168 1098 1115 1082 1066 1036 1036 1036 0 0 0 0 0 663 651 639 657 651 639 645 675 634 623 623 634 598 588 584 553 557 553 557 553 553 545 545 545 545 541 537 533 529 525 525 514 497 490 474 471 468 468 465 448 459 457 457 459 454 451 451 448 454 438 438 432 432 430 430 427 427 422 427 420 0 0 0 0 0
    0 0 0 0 0 0 0 0 0 0 0 0 0 0 0 0 0 0 0 0 0 0 0 0 0 0 0 0 0 0 0 0 0 0 0 0 0 0 0 0 0 0 0 0 0 0 0 0 0 0 0 0 0 0 0 0 0 0 0 0 0 0 0 0 0 0 0 0 0 1036 1051 1066 1082 1098 1115 1098 1098 1098 1066 1051 1008 994 1022 994 1008 1008 1008 1008 1008 994 994 981 955 876 955 1022 1022 1008 994 981 981 1008 1036 1036 1066 1051 1066 1066 1066 1066 1066 1066 1036 1008 994 994 994 994 1022 931 931 994 1036 1066 1036 994 968 955 981 981 994 981 968 968 994 1008 0 0 0 0 0 0 0 0 0 0 0 0 0 0 0 0 0 0 0 0 0 0 0 0 0 0 0 0 0 0 0 0 0 0 0 0 0 0 0 0 0 0 0 0 0 0 0 0 0 0 0 0 0 0 0 0 0 0 0 0 0 0 0 0 0 0 0 0 0 0 0 0 0 0 0 0 0 0 0 0 0 0 0 0 0 0 0 0 0 2044 2102 2102 2164 2102 2044 1839 1443 1247 1247 1187 1206 1226 1226 1187 1168 1149 1168 1098 1098 1066 1051 1022 1022 0 0 0 0 0 0 669 657 645 663 651 639 639 669 629 618 613 623 598 593 588 557 561 553 561 557 553 545 541 541 541 537 533 529 525 521 521 514 497 490 474 471 468 465 462 446 459 454 454 457 451 448 451 448 454 438 438 432 432 430 430 427 427 422 427 418 0 0 0 0 0
    0 0 0 0 0 0 0 0 0 0 0 0 0 0 0 0 0 0 0 0 0 0 0 0 0 0 0 0 0 0 0 0 0 0 0 0 0 0 0 0 0 0 0 0 0 0 0 0 0 0 0 0 0 0 0 0 0 0 0 0 0 0 0 0 0 0 0 0 0 1022 1036 1051 1066 1082 1098 1082 1082 1066 0 1036 994 994 1022 994 1008 1022 1008 994 1008 1008 994 981 968 897 955 981 994 981 955 943 931 968 1022 1022 1066 1066 1082 1098 1098 1098 1082 1066 1066 1022 994 994 981 968 955 886 876 897 943 994 968 908 897 919 955 955 968 943 931 943 968 0 0 0 0 0 0 0 0 0 0 0 0 0 0 0 0 0 0 0 0 0 0 0 0 0 0 0 0 0 0 0 0 0 0 0 0 0 0 0 0 0 0 0 0 0 0 0 0 0 0 0 0 0 0 0 0 0 0 0 0 0 0 0 0 0 0 0 0 0 0 0 0 0 0 0 0 0 0 0 0 0 0 0 0 0 0 0 0 0 0 0 0 2230 2299 2164 2044 1887 1501 1314 1268 1206 1226 1226 1226 1226 1206 1168 1187 1115 1115 1066 1051 1022 1022 1008 0 908 0 0 0 669 657 639 657 645 634 634 663 623 618 613 613 598 593 588 561 566 557 561 561 553 541 541 537 537 533 529 525 521 518 518 511 497 490 0 471 468 465 462 446 459 454 454 454 451 448 448 448 454 438 438 435 432 432 430 427 427 425 430 422 0 0 0 0 0
    0 0 0 0 0 0 0 0 0 0 0 0 0 0 0 0 0 0 0 0 0 0 0 0 0 0 0 0 0 0 0 0 0 0 0 0 0 0 0 0 0 0 0 0 0 0 0 0 0 0 0 0 0 0 0 0 0 0 0 0 0 0 0 0 0 0 0 0 0 994 1022 1036 1036 1051 1066 1066 1051 0 0 0 981 968 1008 968 968 994 968 931 1008 1008 994 981 981 908 955 955 981 943 919 908 886 908 994 994 1051 1051 1082 1115 1115 1115 1098 1066 1066 1036 1022 1008 981 968 943 886 876 897 908 943 886 865 876 886 943 943 931 919 908 931 981 0 0 0 0 0 0 0 0 0 0 0 0 0 0 0 0 0 0 0 0 0 0 0 0 0 0 0 0 0 0 0 0 0 0 0 0 0 0 0 0 0 0 0 0 0 0 0 0 0 0 0 0 0 0 0 0 0 0 0 0 0 0 0 0 0 0 0 0 0 0 0 0 0 0 0 0 0 0 0 0 0 0 0 0 0 0 0 0 0 0 0 0 0 0 2044 1989 1839 1533 1362 1314 1247 1247 1268 1247 1247 1226 1168 1187 1115 1115 1051 1051 1008 1008 994 1008 908 0 0 657 657 639 629 639 639 629 629 657 623 613 608 608 598 593 588 561 570 557 561 566 553 545 537 537 537 529 525 521 514 514 514 507 497 490 0 471 468 465 462 446 457 451 451 451 448 448 448 446 451 438 438 432 432 432 0 0 430 427 432 427 0 0 0 0 0
    0 0 0 0 0 0 0 0 0 0 0 0 0 0 0 0 0 0 0 0 0 0 0 0 0 0 0 0 0 0 0 0 0 0 0 0 0 0 0 0 0 0 0 0 0 0 0 0 0 0 0 0 0 0 0 0 0 0 0 0 0 0 0 0 0 0 0 0 0 968 1008 1022 1022 1022 0 0 0 0 0 981 955 968 1008 943 931 931 897 876 1022 1022 1008 1008 1008 955 981 968 981 955 943 908 886 886 943 968 1008 994 1036 1098 1149 1132 1066 1022 1008 1022 981 994 968 943 908 876 865 886 886 897 855 855 855 876 919 908 897 886 886 919 0 0 0 0 0 0 0 0 0 0 0 0 0 0 0 0 0 0 0 0 0 0 0 0 0 0 0 0 0 0 0 0 0 0 0 0 0 0 0 0 0 0 0 0 0 0 0 0 0 0 0 0 0 0 0 0 0 0 0 0 0 0 0 0 0 0 0 0 0 0 0 0 0 0 0 0 0 0 0 0 0 0 0 0 0 0 0 0 0 0 0 0 0 0 0 0 0 1839 1599 1415 1338 1291 1291 1291 1291 1291 1268 1168 1187 1132 1115 1051 1051 1008 994 994 1022 931 0 0 639 634 629 623 629 629 623 623 645 618 613 608 608 598 593 588 561 570 557 561 566 553 541 537 537 533 525 521 514 511 511 507 504 493 490 0 474 468 468 459 443 457 451 451 451 448 446 446 446 448 435 435 435 432 432 0 0 432 430 0 0 0 0 0 0 0
    0 0 0 0 0 0 0 0 0 0 0 0 0 0 0 0 0 0 0 0 0 0 0 0 0 0 0 0 0 0 0 0 0 0 0 0 0 0 0 0 0 0 0 0 0 0 0 0 0 0 0 0 0 0 0 0 0 0 0 0 0 0 0 0 0 0 0 0 0 955 981 1008 994 1008 0 0 0 968 981 955 931 931 994 931 943 943 897 908 981 994 981 968 968 943 955 955 968 943 931 908 876 886 931 943 968 968 981 1022 1051 1051 1008 968 943 968 955 981 955 943 908 897 897 919 908 886 855 845 855 876 897 886 876 865 876 908 0 0 0 0 0 0 0 0 0 0 0 0 0 0 0 0 0 0 0 0 0 0 0 0 0 0 0 0 0 0 0 0 0 0 0 0 0 0 0 0 0 0 0 0 0 0 0 0 0 0 0 0 0 0 0 0 0 0 0 0 0 0 0 0 0 0 0 0 0 0 0 0 0 0 0 0 0 0 0 0 0 0 0 0 0 0 0 0 0 0 0 0 0 0 0 0 0 0 0 1533 1362 1338 1247 1291 1291 1291 1291 1168 1149 1132 1098 1051 1051 1008 1008 994 1022 931 0 0 629 629 629 618 623 629 618 618 639 613 608 603 608 593 593 588 561 570 557 561 566 553 541 533 533 533 521 518 514 504 504 504 504 490 490 0 474 468 468 459 443 454 451 448 448 446 446 446 443 0 0 0 435 432 432 432 0 432 430 0 0 0 0 0 0 0
    0 0 0 0 0 0 0 0 0 0 0 0 0 0 0 0 0 0 0 0 0 0 0 0 0 0 0 0 0 0 0 0 0 0 0 0 0 0 0 0 0 0 0 0 0 0 0 0 0 0 0 0 0 0 0 0 0 0 0 0 0 0 0 0 0 0 0 0 0 943 968 0 0 0 0 0 0 931 908 897 876 865 981 886 0 876 876 897 931 955 931 919 919 908 919 919 931 919 897 886 876 886 908 897 919 897 886 876 943 955 908 897 897 931 931 0 0 0 0 919 943 943 919 897 855 855 855 876 876 865 855 855 865 897 0 0 0 0 0 0 0 0 0 0 0 0 0 0 0 0 0 0 0 0 0 0 0 0 0 0 0 0 0 0 0 0 0 0 0 0 0 0 0 0 0 0 0 0 0 0 0 0 0 0 0 0 0 0 0 0 0 0 0 0 0 0 0 0 0 0 0 0 0 0 0 0 0 0 0 0 0 0 0 0 0 0 0 0 0 0 0 0 0 0 0 0 0 0 0 0 0 0 0 0 0 1565 1388 1443 1443 1471 1388 1247 1187 1149 1098 1036 1066 1008 1008 1008 1022 955 919 0 0 639 639 623 629 629 618 618 634 613 608 603 603 593 593 584 561 566 557 561 566 553 545 533 533 529 518 511 511 500 500 500 500 490 487 481 474 468 471 462 443 454 451 446 448 446 443 443 443 0 0 0 0 430 432 430 0 432 432 0 0 0 0 0 0 0
    0 0 0 0 0 0 0 0 0 0 0 0 0 0 0 0 0 0 0 0 0 0 0 0 0 0 0 0 0 0 0 0 0 0 0 0 0 0 0 0 0 0 0 0 0 0 0 0 0 0 0 0 0 0 0 0 0 0 0 0 0 0 0 0 0 0 0 0 0 931 943 968 943 943 0 0 919 886 855 865 855 865 876 836 817 836 855 865 886 919 908 908 908 897 908 908 919 908 886 876 865 876 876 865 865 855 845 826 865 855 865 876 0 0 0 0 0 0 0 931 955 968 931 908 865 855 855 876 876 855 845 845 855 0 0 0 0 0 0 0 0 0 0 0 0 0 0 0 0 0 0 0 0 0 0 0 0 0 0 0 0 0 0 0 0 0 0 0 0 0 0 0 0 0 0 0 0 0 0 0 0 0 0 0 0 0 0 0 0 0 0 0 0 0 0 0 0 0 0 0 0 0 0 0 0 0 0 0 0 0 0 0 0 0 0 0 0 0 0 0 0 0 0 0 0 0 0 0 0 0 0 0 0 0 0 0 0 1565 1565 1565 1471 1388 1314 1268 1149 1051 1051 1008 1008 1008 1022 968 943 0 0 0 651 623 629 629 618 613 629 608 608 603 603 593 593 579 561 566 557 557 570 553 545 537 533 529 518 511 507 497 500 497 497 490 490 481 477 471 474 465 443 451 448 446 446 443 443 443 440 0 0 0 0 430 432 430 0 432 0 0 0 0 0 0 0 0
    0 0 0 0 0 0 0 0 0 0 0 0 0 0 0 0 0 0 0 0 0 0 0 0 0 0 0 0 0 0 0 0 0 0 0 0 0 0 0 0 0 0 0 0 0 0 0 0 0 0 0 0 0 0 0 0 0 0 0 0 0 0 0 0 0 0 0 0 0 886 897 897 886 876 865 876 855 855 836 836 836 826 826 799 791 808 845 845 865 908 897 908 908 897 908 908 908 908 886 876 855 855 855 845 836 826 826 817 826 836 855 876 0 0 0 0 0 0 931 943 968 968 931 908 865 855 855 865 865 845 836 836 845 0 0 0 0 0 0 0 0 0 0 0 0 0 0 0 0 0 0 0 0 0 0 0 0 0 0 0 0 0 0 0 0 0 0 0 0 0 0 0 0 0 0 0 0 0 0 0 0 0 0 0 0 0 0 0 0 0 0 0 0 0 0 0 0 0 0 0 0 0 0 0 0 0 0 0 0 0 0 0 0 0 0 0 0 0 0 0 0 0 0 0 0 0 0 0 0 0 0 0 0 0 0 0 0 0 1501 1533 1501 1415 1338 1338 1187 1066 1036 994 994 981 1008 968 943 0 0 0 687 623 634 623 613 608 623 608 608 603 603 593 593 584 566 570 557 557 570 557 545 537 533 529 518 511 507 497 500 497 497 490 490 481 477 471 474 468 443 451 448 443 443 443 440 440 440 0 0 0 0 430 432 432 0 432 0 0 0 0 0 0 0 0
    0 0 0 0 0 0 0 0 0 0 0 0 0 0 0 0 0 0 0 0 0 0 0 0 0 0 0 0 0 0 0 0 0 0 0 0 0 0 0 0 0 0 0 0 0 0 0 0 0 0 0 0 0 0 0 0 0 0 0 0 0 0 0 0 0 0 0 0 0 855 865 855 865 855 0 855 845 845 836 826 817 808 782 750 766 766 0 0 855 897 886 908 919 908 908 886 897 886 865 855 836 836 826 817 817 808 817 808 826 826 845 865 0 0 0 981 955 968 931 943 968 968 931 908 865 855 855 865 855 836 826 836 836 0 0 0 0 0 0 0 0 0 0 0 0 0 0 0 0 0 0 0 0 0 0 0 0 0 0 0 0 0 0 0 0 0 0 0 0 0 0 0 0 0 0 0 0 0 0 0 0 0 0 0 0 0 0 0 0 0 0 0 0 0 0 0 0 0 0 0 0 0 0 0 0 0 0 0 0 0 0 0 0 0 0 0 0 0 0 0 0 0 0 0 0 0 0 0 0 0 0 0 0 0 0 0 0 0 0 0 1565 1471 1388 1388 1291 1314 1098 994 994 981 1008 968 943 0 0 0 0 618 629 618 613 608 618 608 608 603 603 593 593 588 570 574 561 557 566 553 545 533 533 525 518 511 507 497 500 497 500 490 490 484 477 474 477 471 443 448 448 443 443 440 440 440 440 0 0 0 0 430 432 432 0 435 435 0 0 0 0 0 0 0
    0 0 0 0 0 0 0 0 0 0 0 0 0 0 0 0 0 0 0 0 0 0 0 0 0 0 0 0 0 0 0 0 0 0 0 0 0 0 0 0 0 0 0 0 0 0 0 0 0 0 0 0 0 0 0 0 0 0 0 0 0 0 0 0 0 0 0 0 0 836 845 836 836 0 0 0 0 0 0 826 808 817 774 735 743 728 0 0 0 886 886 908 897 897 897 886 876 876 855 845 817 808 817 808 808 808 808 799 808 808 826 855 865 897 943 981 955 968 943 955 981 981 943 908 865 865 855 855 845 826 817 817 0 0 0 0 0 0 0 0 0 0 0 0 0 0 0 0 0 0 0 0 0 0 0 0 0 0 0 0 0 0 0 0 0 0 0 0 0 0 0 0 0 0 0 0 0 0 0 0 0 0 0 0 0 0 0 0 0 0 0 0 0 0 0 0 0 0 0 0 0 0 0 0 0 0 0 0 0 0 0 0 0 0 0 0 0 0 0 0 0 0 0 0 0 0 0 0 0 0 0 0 0 0 0 0 0 0 0 0 0 1565 1565 1501 1501 1388 1247 0 1008 981 1036 1008 0 0 0 0 0 0 618 613 608 603 613 608 608 608 608 593 598 588 570 570 557 553 561 545 541 533 533 525 521 514 511 500 504 500 504 493 493 487 481 477 481 474 446 448 448 443 443 440 440 440 438 0 432 0 435 430 432 432 0 0 435 0 0 0 0 0 0 0</data></depth>
</opencv_storage>
