<?xml version="1.0"?>
<opencv_storage>
<gps_time_stamp>283173</gps_time_stamp>
<gps_x>-1.3747467994689941e+001</gps_x>
<gps_y>1.1250651359558105e+001</gps_y>
<gps_z>-2.3139362335205078e+000</gps_z>
<image_time_stamp>274058</image_time_stamp>
<depth type_id="opencv-matrix">
  <rows>87</rows>
  <cols>320</cols>
  <dt>s</dt>
  <data>
    0 0 0 0 0 0 0 0 0 0 0 0 0 0 0 0 0 0 0 0 0 0 0 0 0 0 0 0 0 0 0 0 0 0 0 0 0 0 0 0 0 0 0 0 0 0 0 0 0 0 0 0 0 0 0 0 0 0 0 0 0 0 0 0 0 0 0 0 0 2537 0 0 2453 2537 2102 2102 1989 0 0 0 0 0 0 0 0 0 0 0 0 0 0 0 0 0 1887 0 1936 1989 2044 1989 2230 2044 2044 2164 0 0 0 2374 2044 0 0 0 0 0 1839 0 0 1752 1795 1839 1936 1887 1936 1936 1936 1936 1989 1989 1936 1887 1989 2102 1989 2230 2230 2102 2164 2164 107 0 1989 2299 1795 1752 1795 1752 1752 1635 1711 1711 1711 1752 1795 1795 1795 1795 1887 1839 1839 1839 1752 1711 1752 1672 1711 1711 1635 1672 1672 1672 1672 1635 1711 1672 1635 1711 1672 1533 1599 1711 1711 1989 1936 0 0 0 0 1839 1839 1795 1711 1635 1711 1672 1752 1711 1711 1752 1752 1711 1711 1672 1672 0 0 0 1989 1989 2230 2374 2299 2044 1936 1839 1795 1795 1752 1887 1887 1795 1795 1795 1752 1752 1599 1565 1362 1247 1206 1115 1066 1066 1051 1022 1036 1036 1036 1036 1036 1051 1036 1036 1115 1051 1066 1066 1066 1066 1051 1082 1098 1036 1082 0 0 0 0 0 0 425 427 422 420 0 0 0 0 0 981 968 955 994 0 0 0 0 0 0 0 0 0 0 0 0 0 0 0 0 0 0 0 0 0 0 0 0 0 908 955 897 943 943 943 955 955 943 955 943 981 955 955 955 931 931 943 0 0 0 0 0
    0 0 0 0 0 0 0 0 0 0 0 0 0 0 0 0 0 0 0 0 0 0 0 0 0 0 0 0 0 0 0 0 0 0 0 0 0 0 0 0 0 0 0 0 0 0 0 0 0 0 0 0 0 0 0 0 0 0 0 0 0 0 0 0 0 0 0 0 0 2537 2628 2725 2453 2725 2374 2299 2164 2164 0 0 0 0 0 0 0 0 0 0 0 0 0 0 1887 1887 1887 1839 1936 1936 2044 1989 2299 2102 2102 2164 0 0 0 2230 2044 0 0 0 0 0 1887 0 0 1795 1795 1839 1936 1887 1936 1936 1887 1887 1887 1936 1887 1887 1989 2044 1989 2164 2164 2102 2102 2102 107 0 1989 2230 1795 1752 1795 1752 1795 1635 1711 1711 1711 1752 1752 1752 1752 1752 1839 1839 1839 1795 1752 1711 1752 1672 1711 1752 1635 1672 1672 1672 1635 1635 1711 1635 1599 1711 1672 1501 1565 1672 1672 1989 1936 0 0 0 0 1839 1795 1795 1672 1635 1711 1672 1752 1711 1752 1752 1752 1752 1752 1711 1672 2102 0 0 1936 1936 2164 2230 2230 2044 1887 1795 1752 1752 1672 1839 1839 1752 1711 1711 1672 1635 1443 1362 1314 1226 1187 1098 1066 1066 1051 1008 1036 1022 1036 1036 1036 1051 1036 1036 1115 1051 1066 1066 1066 1082 1051 1082 1082 1036 1066 1051 1036 1036 1008 0 0 0 0 0 0 0 0 968 0 981 981 968 955 981 981 0 0 0 0 0 0 430 0 0 0 0 0 0 0 0 0 0 0 0 0 0 0 0 955 897 943 897 943 943 943 955 955 955 968 955 994 968 968 981 955 943 955 0 0 0 0 0
    0 0 0 0 0 0 0 0 0 0 0 0 0 0 0 0 0 0 0 0 0 0 0 0 0 0 0 0 0 0 0 0 0 0 0 0 0 0 0 0 0 0 0 0 0 0 0 0 0 0 0 0 0 0 0 0 0 0 0 0 0 0 0 0 0 0 0 0 0 2537 2537 2725 2374 2628 2374 2299 2230 2230 0 0 1989 0 0 0 0 0 0 0 0 0 0 0 1839 1839 1839 0 1887 1936 2044 1989 2374 2102 2102 2164 2725 2044 2044 2299 2164 2164 2230 0 0 1887 1887 0 0 0 1795 1839 1936 1887 1887 1887 1839 1887 1887 1936 1936 1887 1989 2044 1989 2164 2164 2102 2044 2102 0 0 1989 2230 1795 1795 1839 1839 1839 1672 1752 1752 1752 1752 0 1795 1752 1752 1839 1795 1795 1795 1711 1711 1752 1635 1711 1752 1635 1672 1672 1672 1635 1635 1711 1635 1599 1711 1672 1471 1565 1672 1672 1989 1936 0 0 0 0 1795 1795 1752 1672 1635 1711 1672 1752 1711 1752 1752 1795 1795 1887 1887 1936 2374 2299 1936 1989 1936 2044 2102 2102 1989 1839 1752 1711 1672 1599 1752 1752 1672 1599 1599 1501 1471 1338 1291 1268 1187 1149 1082 1066 1066 1051 1008 1036 1022 1022 1022 1036 1036 1022 1036 1115 1066 1066 1082 1066 1066 1051 1066 1066 1022 1036 1036 1022 1036 1008 0 0 994 1008 994 981 981 968 981 981 981 981 955 943 968 968 0 0 0 0 0 0 427 0 0 0 425 425 0 0 0 0 0 425 420 0 0 0 0 955 897 943 908 943 943 943 955 968 955 981 968 994 981 981 994 968 955 955 0 0 0 0 0
    0 0 0 0 0 0 0 0 0 0 0 0 0 0 0 0 0 0 0 0 0 0 0 0 0 0 0 0 0 0 0 0 0 0 0 0 0 0 0 0 0 0 0 0 0 0 0 0 0 0 0 0 0 0 0 0 0 0 0 0 0 0 0 0 0 0 0 0 0 2453 2374 2453 2230 2537 2374 2374 2299 0 0 0 0 0 0 0 0 0 0 0 0 0 0 0 1839 0 0 0 1936 1936 2044 2044 2453 2102 2164 2230 2830 2164 2230 2453 2299 2374 2299 1989 1989 1887 1936 0 0 0 1752 1752 1887 1839 1839 1839 1795 1887 1887 1936 1887 1839 1989 1989 1936 2164 2102 2044 2044 2044 0 1989 1989 2164 1795 1795 1839 1839 1887 1752 1795 1795 0 0 0 0 0 1795 1839 1752 1752 1795 1711 1711 1752 1672 1711 1752 1635 1672 1672 1672 1672 1635 1711 1635 1635 1711 1672 1471 1599 1672 1672 1989 1936 0 0 0 0 1795 1795 0 1672 1672 1752 1711 1752 1752 1752 1752 1795 1795 2044 2230 2230 2537 2537 2164 2230 2102 2102 2164 2044 2044 1839 1752 1672 1635 1533 1599 1635 1565 1501 1471 1388 1362 1291 1247 1226 1149 1115 1082 1066 1066 1051 1008 1022 1022 1022 1022 1022 1022 1022 1022 1098 1066 1066 1066 1066 1066 1051 1051 1051 1022 1036 1022 1022 1022 1008 1008 1008 994 1008 994 981 981 968 968 968 968 981 955 943 968 968 0 0 0 0 0 0 425 0 0 0 0 0 0 968 968 968 0 0 0 0 0 0 0 943 897 943 908 955 955 955 955 968 968 981 981 1008 994 994 994 968 968 955 0 0 0 0 0
    0 0 0 0 0 0 0 0 0 0 0 0 0 0 0 0 0 0 0 0 0 0 0 0 0 0 0 0 0 0 0 0 0 0 0 0 0 0 0 0 0 0 0 0 0 0 0 0 0 0 0 0 0 0 0 0 0 0 0 0 0 0 0 0 0 0 0 0 0 2537 2537 2628 2453 2830 2725 2830 2628 2725 0 0 0 0 2453 0 0 2299 2164 0 0 0 0 0 1887 0 0 0 1936 1989 2044 2044 2537 2164 2230 2299 2830 2230 2374 2453 2374 2374 2230 1989 1989 1839 1936 0 0 0 1672 1711 0 0 1795 1795 1752 1839 1839 1887 1887 1839 1989 1989 1936 2102 2044 1989 1989 1989 0 0 1936 2102 1795 1752 1839 1839 1887 1752 1795 1839 1795 1839 1839 1839 1839 1795 1839 1752 1752 1752 1672 1711 1752 1635 1711 1752 1635 1672 1672 1672 1635 1635 1711 1635 1635 1711 1672 1533 1672 1711 1711 2044 1936 0 1839 0 1839 1795 1795 0 1672 1672 1752 1711 1752 1711 1752 1752 1795 1795 2044 2164 2230 2453 2374 2044 2164 2102 2102 2044 1887 1887 1752 1711 1599 1565 1443 1471 1501 1471 1388 1362 1314 1291 1268 1206 1187 1132 1115 1066 1066 1066 1051 994 1022 1008 1008 1008 1008 1008 1008 1022 1098 1051 1066 1066 1066 1082 1051 1051 1051 1022 1036 1022 1022 1022 1008 1008 994 981 994 981 968 968 968 968 968 968 981 955 955 968 0 0 0 0 0 420 418 422 0 0 0 0 0 0 968 968 955 931 0 0 943 943 943 897 943 897 943 908 955 955 955 968 968 968 981 981 1008 994 994 994 968 955 955 0 0 0 0 0
    0 0 0 0 0 0 0 0 0 0 0 0 0 0 0 0 0 0 0 0 0 0 0 0 0 0 0 0 0 0 0 0 0 0 0 0 0 0 0 0 0 0 0 0 0 0 0 0 0 0 0 0 0 0 0 0 0 0 0 0 0 0 0 0 0 0 0 0 0 2537 2537 2628 2453 2830 2943 2943 2725 2830 0 2830 2628 2628 2453 2374 2299 2374 2299 2374 2102 0 0 0 1989 0 1936 0 1989 2044 2102 2102 2537 2164 2230 2299 2830 2102 2299 2453 2374 2299 2102 1936 1936 0 0 0 0 0 0 1752 0 0 1711 1672 1635 1795 1839 1887 1887 1839 1989 1989 1936 2102 2044 1989 1989 0 107 0 1936 2102 1795 1752 1839 1839 1887 1752 1795 1795 1795 1795 1839 1839 1795 1795 1839 1795 1795 1795 1711 1752 1795 1672 1711 1752 1635 1635 1635 1672 1635 1599 1672 1599 1599 1711 1672 1501 1711 1752 1752 2044 1989 1839 1839 0 1839 1795 1795 1795 1672 1672 1711 1672 1711 1672 1711 1711 1752 1752 1887 1887 1936 2164 2044 1936 2044 2044 1989 1887 1752 1752 1672 1672 1565 1501 1443 1415 1443 1415 1338 1314 1268 1247 1226 1168 1168 1115 1115 1082 1082 1082 1051 994 1022 1008 1008 1008 1008 1008 1008 1022 1082 1066 1051 1066 1066 1082 1051 1051 1051 1022 1036 1022 1008 1008 994 994 994 981 994 968 968 968 955 955 968 968 968 955 943 0 0 0 0 0 0 418 415 422 0 0 0 0 0 0 968 955 955 931 955 943 943 931 931 897 943 886 943 908 955 955 955 968 968 968 981 981 1008 994 994 994 968 955 943 0 0 0 0 0
    0 0 0 0 0 0 0 0 0 0 0 0 0 0 0 0 0 0 0 0 0 0 0 0 0 0 0 0 0 0 0 0 0 0 0 0 0 0 0 0 0 0 0 0 0 0 0 0 0 0 0 0 0 0 0 0 0 0 0 0 0 0 0 0 0 0 0 0 0 2628 2628 2725 2537 2830 3066 3066 2830 2830 2725 2725 2537 2628 2374 2299 2299 2374 2374 2537 2299 2299 2044 1887 2044 1989 1989 1936 2044 2102 2164 2164 2628 2299 2299 2374 2830 2164 2374 2453 2453 2374 2230 2044 2044 1989 2299 0 0 0 0 1839 0 0 1672 1672 1599 1752 1839 1887 1887 1839 1989 1989 1936 2102 2044 1936 1936 0 107 0 1887 2102 1795 1752 1839 1887 1887 1752 1839 1839 1839 1839 1839 1839 1839 1795 1839 1795 1795 1795 1711 1752 1795 1672 1752 1752 1635 1635 1635 1672 1599 1599 1672 1565 1565 1672 1635 1501 1711 1752 1752 2044 1989 1839 1887 0 1887 1839 1839 0 1711 1672 1752 1672 1711 1672 1635 1672 1711 1711 1839 1795 0 2044 0 1936 2044 1989 1936 1795 1711 1711 1672 1672 1565 1501 1443 1388 1415 1362 1291 1268 1226 1226 1226 1168 1168 1132 1132 1098 1098 1098 1051 994 1022 1008 1008 994 994 994 1008 1008 1082 1066 1066 1066 1066 1098 1051 1051 1036 1022 1022 1022 1008 1008 994 994 994 981 994 981 981 968 968 955 968 968 968 955 943 968 955 955 0 0 0 0 0 422 0 0 0 0 0 1008 981 968 968 943 955 943 943 943 931 897 931 886 943 908 955 955 955 955 968 968 994 981 1008 994 994 0 0 968 968 0 0 0 0 0
    0 0 0 0 0 0 0 0 0 0 0 0 0 0 0 0 0 0 0 0 0 0 0 0 0 0 0 0 0 0 0 0 0 0 0 0 0 0 0 0 0 0 0 0 0 0 0 0 0 0 0 0 0 0 0 0 0 0 0 0 0 0 0 0 0 0 0 0 0 2628 2628 2725 2628 2830 3199 3199 2943 2830 2628 2628 2374 2453 2299 2164 2230 2374 2299 2537 2453 2628 2299 1887 2164 2044 2044 1989 2102 0 2164 2164 2628 2299 2299 2374 2725 2044 2164 2299 2299 2164 2102 1989 2044 1936 2374 0 0 0 1672 0 0 1501 1635 1672 1672 1795 1887 1887 1936 1936 2044 2044 1936 2102 2044 1936 1989 107 107 0 1887 2044 1795 1795 1936 1887 1936 1795 1887 1887 1887 1887 1887 1887 1887 1839 1887 1795 1795 1795 1711 1795 1795 1711 1752 1795 1672 1672 1672 1711 1672 1635 1672 1599 1599 1711 1672 1533 1672 1752 1752 2044 1989 1887 1936 1887 1936 1887 1887 1839 1711 1711 1752 1672 1711 1672 1672 1672 1711 1752 1887 1887 1839 2102 0 1936 2044 1989 1887 1635 1672 1672 1672 1635 1533 1501 1443 1388 1388 1338 1268 1247 1226 1226 1226 1168 1187 1168 1168 1115 1115 1132 1066 0 1022 1008 994 994 994 994 994 1008 1066 1051 1051 1066 1066 1082 1051 1066 1036 1022 1036 1022 1022 1008 1008 994 994 981 994 981 968 968 955 955 968 968 968 955 943 955 968 955 0 0 0 0 0 422 0 0 0 0 0 0 994 981 968 943 955 943 943 943 931 897 931 897 943 919 955 955 955 968 981 968 994 981 1008 994 994 0 0 0 0 0 0 0 0 0
    0 0 0 0 0 0 0 0 0 0 0 0 0 0 0 0 0 0 0 0 0 0 0 0 0 0 0 0 0 0 0 0 0 0 0 0 0 0 0 0 0 0 0 0 0 0 0 0 0 0 0 0 0 0 0 0 0 0 0 0 0 0 0 0 0 0 0 0 0 2628 2628 2830 2725 2830 3199 3199 2943 2725 2628 2628 2374 2453 2299 2164 2230 2374 2374 2628 2453 2725 2628 1989 2299 2164 2102 2044 2164 2164 2230 2164 2725 2230 2299 2374 2628 1989 2102 2164 2299 2164 2102 1936 0 0 0 0 0 0 0 0 0 0 1711 1711 1711 1795 1839 1887 1936 1936 2044 1989 1887 2044 1989 1936 1989 0 0 0 0 2044 1839 1839 1989 1936 1989 1795 1887 1887 1887 1839 1887 1887 1839 1839 1936 1839 1839 1839 1795 1839 1839 1795 1795 1795 1711 1711 1711 1711 1672 1672 1672 1599 1599 1711 1672 1565 1672 1752 1752 1989 1989 1887 1936 1887 1936 1887 1887 1887 1752 1711 1795 1711 1711 1672 1672 1672 1711 1711 1795 1752 1711 1936 0 1795 1887 1795 1795 1471 1599 1635 1635 1599 1501 1471 1443 1415 1415 1362 1291 1268 1247 1247 1247 1187 1206 1187 1187 1149 1149 1168 1082 0 1022 1008 994 994 994 994 981 994 1051 1036 1036 1051 1051 1082 1051 1066 1036 1022 1036 1022 1022 1008 1008 1008 994 981 994 981 981 968 968 955 968 955 968 968 943 955 955 955 0 955 0 0 0 422 0 0 0 420 418 0 981 981 968 943 955 943 931 931 931 897 931 897 943 919 955 968 968 968 981 981 994 994 1051 1008 994 0 0 0 0 0 0 0 0 0
    0 0 0 0 0 0 0 0 0 0 0 0 0 0 0 0 0 0 0 0 0 0 0 0 0 0 0 0 0 0 0 0 0 0 0 0 0 0 0 0 0 0 0 0 0 0 0 0 0 0 0 0 0 0 0 0 0 0 0 0 0 0 0 0 0 0 0 0 0 2725 2725 2830 2725 2830 3199 3066 2943 2725 2628 2628 2299 2374 2299 2164 2299 2299 2374 2628 2537 2830 2725 2044 2453 2299 2164 2102 2230 2230 2230 2230 2725 2164 2230 2299 2537 1936 2102 2044 2164 2102 2102 0 0 0 0 0 0 0 0 0 0 0 1752 1752 1752 1839 1839 1839 1887 1936 2044 1989 1887 1989 1936 1936 1936 0 0 0 0 2044 1887 1887 1989 1936 1936 1795 1887 1887 1887 1839 0 1839 1839 1795 1887 1795 1839 1839 1795 1887 1839 1795 1795 1839 1752 1752 1752 1752 1711 1711 1711 1635 1672 1711 1672 1599 1672 1752 1752 1936 1936 1839 1887 1887 1887 1887 1887 0 1752 1752 1839 1752 1711 1672 1711 1672 1711 1711 1839 1711 1672 1839 1565 1711 1711 1672 1635 1443 1599 1599 1635 1599 1501 1501 1443 1415 1443 1362 1314 1291 1247 1268 1268 1226 1226 1206 1206 1187 1187 1187 1082 0 1022 1008 994 994 994 994 981 994 1051 1036 1036 1051 1051 1082 1051 1066 1036 1036 1036 1022 1022 1022 1008 1008 994 994 994 981 981 981 968 955 968 955 968 968 955 968 968 968 981 968 0 0 0 0 0 0 0 0 0 0 981 968 968 943 955 943 943 943 931 897 931 897 955 931 968 968 968 968 981 981 1008 994 1082 1008 1008 0 0 0 0 0 0 0 0 0
    0 0 0 0 0 0 0 0 0 0 0 0 0 0 0 0 0 0 0 0 0 0 0 0 0 0 0 0 0 0 0 0 0 0 0 0 0 0 0 0 0 0 0 0 0 0 0 0 0 0 0 0 0 0 0 0 0 0 0 0 0 0 0 0 0 0 0 0 0 2943 2830 2943 2830 2943 3066 2943 2830 2725 2537 2537 2230 2374 2299 2164 2299 2299 2374 2628 2537 2830 2830 2102 2453 2374 2299 2164 2299 2299 2230 2230 2725 2102 2164 2164 2453 1839 1989 1887 1887 1887 0 1752 0 0 397 381 381 0 0 0 0 1711 1795 1795 1795 1887 1839 1887 1936 1936 2044 1989 1887 1936 1936 1887 0 0 0 0 0 1989 1887 1887 1989 1936 1936 1887 1989 1936 1936 1887 1887 1887 1887 1839 1887 1795 1839 1887 1839 1887 1887 1839 1887 1887 0 1795 0 1795 1752 1752 1752 1711 1711 1752 1711 1635 1711 1795 1711 1936 1887 1795 1839 1887 1887 1887 1839 0 1795 1752 1887 1752 1672 1672 1672 1672 1752 1672 1839 1672 1672 1839 1533 1752 1711 1711 1599 1471 1672 1635 1635 1635 1533 1533 1471 1443 1443 1388 1314 1291 1268 1268 1268 1247 1226 1226 1226 1206 1206 1206 1098 0 1036 1008 994 994 994 994 981 1008 1051 1036 1051 1066 1066 1082 1051 1066 1036 1036 1051 1036 1022 1022 1008 1008 994 994 994 981 968 968 968 955 955 955 968 968 955 968 968 968 981 968 968 968 968 0 981 981 0 0 0 1022 994 981 981 955 981 955 955 955 943 897 931 897 955 931 968 968 968 981 994 994 1008 1008 1115 1008 0 0 0 0 0 0 0 0 0 0
    0 0 0 0 0 0 0 0 0 0 0 0 0 0 0 0 0 0 0 0 0 0 0 0 0 0 0 0 0 0 0 0 0 0 0 0 0 0 0 0 0 0 0 0 0 0 0 0 0 0 0 0 0 0 0 0 0 0 0 0 0 0 0 0 0 0 0 0 0 0 2943 0 2830 2943 3066 2943 2943 2628 2453 2453 2164 2230 2230 2102 2230 2230 2230 2537 2453 2830 2943 2164 2537 2453 2374 2299 2299 2299 2230 2230 2725 2044 2102 2102 2230 1795 1887 1752 0 1752 0 1533 0 0 399 385 0 0 0 0 0 1752 1795 1795 1795 1839 1839 1839 1936 1989 2044 1936 1839 1887 1887 1887 0 0 0 0 0 1989 1887 1887 1936 1887 1887 1887 1936 1936 1936 1887 1887 1887 1887 1839 1936 1839 1887 1887 1936 1936 1936 1936 1989 1936 1936 1887 1887 1839 1839 1795 1795 1752 1752 1795 1711 1711 1795 1839 1711 1887 1887 1839 1887 1887 1887 1887 1887 0 1839 1795 1936 1795 1711 1672 1635 1672 1672 1599 1672 1533 1533 1635 1443 1711 1711 1711 1533 1533 1672 1635 1635 1635 1565 1533 1471 1471 1443 1388 1314 1314 1268 1291 1291 1268 1247 1226 1247 1226 1226 1226 1115 0 1022 1008 994 981 994 994 981 994 1051 1036 1051 1066 1066 1098 1066 1082 1051 1051 1051 1036 1022 1008 1008 1008 994 981 981 968 968 968 968 955 955 955 955 955 955 968 968 968 981 968 968 981 968 994 994 994 1008 0 0 1036 1022 994 994 968 994 981 968 955 955 908 943 908 955 931 968 968 968 981 994 994 1008 1008 1168 1036 0 0 0 0 0 0 0 0 0 0
    0 0 0 0 0 0 0 0 0 0 0 0 0 0 0 0 0 0 0 0 0 0 0 0 0 0 0 0 0 0 0 0 0 0 0 0 0 0 0 0 0 0 0 0 0 0 0 0 0 0 0 0 0 0 0 0 0 0 0 0 0 0 0 0 0 0 0 0 0 0 0 0 2830 2943 3199 2943 2943 2628 0 2299 2102 2164 2230 2102 2299 2230 2299 2628 2628 2943 3066 2299 2628 2453 2374 2299 2299 2299 2164 2164 2628 1989 1989 1989 2044 1752 1752 1599 0 1388 0 1314 1149 0 0 0 0 0 0 1887 0 1795 1839 1839 1839 1839 1752 1839 1887 1936 1989 1936 1752 1839 1839 1839 0 0 0 0 0 1989 1887 1887 1936 1936 1839 1839 1887 1887 0 0 1839 1839 1839 1887 1936 1887 1936 1989 1989 1936 1936 1989 2044 1936 0 1887 1839 1839 1887 1839 1752 1752 1752 1752 1711 1711 1795 1795 1752 1887 1839 1839 1887 1887 1936 1887 1887 1989 1839 1839 1936 1752 1599 1599 1599 1635 1635 1565 1635 1565 1565 1635 1533 1711 1711 1752 1471 1533 1672 1599 1635 1635 1565 1533 1471 1471 1443 1388 1314 1314 1268 1291 1291 1268 1268 1247 1247 1247 1226 1247 1115 0 1022 1008 981 981 981 994 981 994 1036 1036 1036 1066 1066 1098 1066 1082 1051 1051 1051 1036 1022 1008 994 994 994 981 981 968 968 968 968 943 955 943 955 955 955 955 968 968 981 968 981 981 981 994 1008 994 0 0 0 1036 1022 994 1008 981 994 994 981 981 981 0 943 0 968 943 968 981 981 981 994 994 1008 1008 1206 1051 0 0 0 0 0 0 0 0 0 0
    0 0 0 0 0 0 0 0 0 0 0 0 0 0 0 0 0 0 0 0 0 0 0 0 0 0 0 0 0 0 0 0 0 0 0 0 0 0 0 0 0 0 0 0 0 0 0 0 0 0 0 0 0 0 0 0 0 0 0 0 0 0 0 0 0 0 0 0 0 0 3066 3199 2943 2943 3066 2943 2943 2628 2299 2164 2102 2164 2164 2164 2299 2230 2374 2628 2725 3066 3066 2374 2628 2453 2453 2299 2299 2299 2164 2164 2628 1936 1936 1936 1989 1752 1711 1565 0 1338 1168 1268 1115 0 0 0 0 0 0 1887 1887 1839 1887 1887 1887 1887 1795 1839 1936 1936 1989 1936 1752 1839 1839 0 0 0 0 0 0 2102 1989 1936 2044 2044 0 1839 1936 1887 0 1839 1839 1839 1839 1887 1989 1936 1989 1989 1989 1936 1936 2044 1989 1936 0 1839 1839 1839 1887 1887 1795 1795 1752 1795 1711 1752 1795 1795 1752 1839 1839 1839 1887 1887 1936 1887 1887 0 1839 1839 1887 1752 1635 1635 1635 1672 1635 1599 1672 1635 1672 1672 1672 1711 1752 1752 1501 1599 1672 1635 1672 1635 1599 1565 1501 1501 1443 1388 1338 1314 1291 1291 0 1291 1268 1247 1247 1247 1247 1268 1132 1022 1036 1008 981 981 981 994 994 994 1022 1022 1036 1066 1066 1082 1051 1066 1051 1051 1051 1036 1022 1008 994 994 994 968 981 968 968 968 968 943 955 943 955 955 943 955 955 955 981 968 981 981 981 1008 1022 1022 0 0 0 0 0 0 0 0 0 0 0 994 0 0 955 919 968 943 968 981 981 981 994 994 1008 1022 1226 1098 0 0 0 0 1115 0 0 0 0 0
    0 0 0 0 0 0 0 0 0 0 0 0 0 0 0 0 0 0 0 0 0 0 0 0 0 0 0 0 0 0 0 0 0 0 0 0 0 0 0 0 0 0 0 0 0 0 0 0 0 0 0 0 0 0 0 0 0 0 0 0 0 0 0 0 0 0 0 0 0 0 3199 3345 2943 2943 3066 2830 2830 2537 2230 2102 2044 2102 2164 2164 2299 2230 2299 2628 2725 2943 3066 2374 2628 2453 2453 2299 2299 2230 2164 2164 2628 1936 1936 1936 1989 1795 1795 1672 0 1362 1149 1247 1098 0 0 0 0 0 2044 1936 1936 1936 1989 1989 1989 1936 1887 1936 1989 2044 2044 1936 1752 1887 1887 0 0 0 0 0 0 2164 1989 1989 2102 2044 0 1887 1936 1936 0 1887 1887 1887 1839 1887 1936 1887 1989 1989 1989 1936 1936 2044 1989 1989 0 1887 1887 1887 1989 1989 1839 1839 1795 1795 1752 1752 1752 1795 1752 1839 1839 1839 1887 1887 1887 1887 1887 0 1839 1887 1887 1752 1672 1672 1711 0 1711 1795 1839 1752 1752 1711 1711 1752 1752 1752 1599 1672 1752 1672 1711 1672 1635 1599 1501 1501 1443 1388 1338 1338 1291 1314 0 0 1291 1268 1268 1268 1247 1268 1168 1036 1036 1008 994 994 994 994 994 994 1022 1008 1022 1051 1051 1066 1051 1066 1051 1066 1051 1036 1022 1008 994 994 994 981 981 968 968 955 968 943 955 943 955 955 943 943 955 955 981 968 968 981 981 1008 1022 1022 0 0 0 0 0 0 0 0 0 0 0 0 0 0 955 931 968 943 981 981 981 981 994 1008 1022 1036 1226 1132 0 0 0 0 0 0 0 0 0 0
    0 0 0 0 0 0 0 0 0 0 0 0 0 0 0 0 0 0 0 0 0 0 0 0 0 0 0 0 0 0 0 0 0 0 0 0 0 0 0 0 0 0 0 0 0 0 0 0 0 0 0 0 0 0 0 0 0 0 0 0 0 0 0 0 0 0 0 0 0 0 3199 3199 2830 2830 2830 2537 2725 2453 2102 2102 2044 2102 2164 2164 2299 2164 2299 2537 2725 2943 3066 2299 2537 2537 2453 2299 2299 2230 2164 2164 2537 1936 1936 1936 1989 1795 1795 1672 1415 1388 1206 0 0 0 0 0 0 1936 1936 1936 1936 1936 1989 1989 1989 1936 1936 1989 1989 2044 2044 1936 1752 1839 1887 0 0 0 0 0 0 2164 2044 2044 2164 2044 1936 1936 1936 1936 0 1887 1887 1887 1839 1887 1887 1887 1936 1989 1936 1887 1936 2044 1989 1989 0 1887 1887 1936 1989 1936 1887 1887 1839 1839 1752 1839 1711 1795 1795 1839 1839 1839 1839 1839 1887 1839 0 78 0 1839 1795 1711 1672 1672 1795 2299 0 1936 1936 1887 1887 1795 1839 1795 1795 1795 1711 1752 1795 1711 1752 0 1672 1599 1501 1501 1415 1388 1338 1338 1291 1314 0 1314 1291 1268 1268 1268 1247 1268 1149 1036 1036 1008 994 994 994 994 994 994 1008 1008 1008 1036 1036 1051 1036 1066 1051 1082 1066 1066 1036 1022 1008 994 994 981 981 968 968 955 955 931 955 943 955 943 943 943 955 955 981 968 968 968 981 994 1008 1008 0 0 0 0 0 418 0 422 422 0 0 0 0 0 955 931 968 943 981 981 981 981 994 1008 1022 1051 1226 1132 0 0 0 0 0 0 0 0 0 0
    0 0 0 0 0 0 0 0 0 0 0 0 0 0 0 0 0 0 0 0 0 0 0 0 0 0 0 0 0 0 0 0 0 0 0 0 0 0 0 0 0 0 0 0 0 0 0 0 0 0 0 0 0 0 0 0 0 0 0 0 0 0 0 0 0 0 0 0 0 0 3066 0 2725 2628 2453 2164 2453 2230 2102 2102 2102 2102 2164 2164 2299 2164 2230 2453 2628 2830 2943 2164 2537 2537 2453 2299 2299 2230 2164 2164 2537 1936 1989 1989 1989 1795 1752 1635 1388 1443 0 0 0 0 0 0 0 1839 1887 1936 1936 1936 1989 1989 1989 1887 1936 1989 1936 1936 1989 1887 1752 1839 1839 1795 1752 0 0 0 0 2164 2044 2044 2164 1989 1936 1936 1936 1887 1887 1839 1887 1887 1887 1887 1887 1887 1936 1989 1936 1936 1936 1989 1936 1989 0 1887 1887 1887 1936 1887 1887 1936 1936 1936 1839 1839 1752 1795 1795 1839 1795 1795 1795 1839 1795 1795 0 0 1752 1795 1752 1672 1672 1672 0 2102 0 1936 1936 1887 1887 1795 1839 1795 1795 1795 1752 1795 1795 1711 1752 0 1672 1599 1533 1501 1415 1388 1362 1338 1314 1314 0 1314 1291 1247 1247 1247 1226 1247 1149 1036 1036 1008 994 994 994 994 994 994 1008 994 1008 1036 1022 1036 1022 1051 1051 1066 1066 1066 1036 1022 1008 1008 1008 994 994 981 981 968 968 931 955 943 955 955 943 943 955 955 981 968 968 968 981 981 0 0 0 0 0 0 422 420 422 425 425 427 420 0 0 0 955 931 968 943 981 981 981 981 994 1008 1036 1051 1247 1187 0 0 0 0 0 0 0 0 0 0
    0 0 0 0 0 0 0 0 0 0 0 0 0 0 0 0 0 0 0 0 0 0 0 0 0 0 0 0 0 0 0 0 0 0 0 0 0 0 0 0 0 0 0 0 0 0 0 0 0 0 0 0 0 0 0 0 0 0 0 0 0 0 0 0 0 0 0 0 0 0 3066 2943 2628 2537 2299 2102 2299 2164 2044 2044 2102 2102 2164 2164 2299 2102 2164 2453 2537 2725 2830 2102 2453 2537 2453 2374 2299 2230 2164 2102 2537 1936 1936 1989 1936 1795 1672 1599 0 1635 0 0 0 0 0 0 1989 1839 1887 1887 1936 1887 1936 1936 1936 1887 1936 2044 1936 1989 1989 1936 1795 1887 1887 1839 1795 0 0 0 0 2102 1989 2044 2102 1887 1887 1936 1936 1887 1887 1839 1887 1887 1887 1936 1887 1887 1936 1936 1936 1887 1936 1989 1936 1936 0 1887 1887 1936 1936 1887 1887 1989 1989 1989 1887 1839 1752 1795 1839 1839 1752 1795 1795 1795 1795 1795 0 1752 1752 1795 1752 1672 1711 0 0 2299 0 2044 1989 1887 1887 1752 1795 1795 1795 1711 1711 1795 1795 1711 0 0 1711 1599 1533 1501 1415 1388 1362 1338 0 1314 1314 1314 1291 1247 1247 1247 1226 1247 1132 1036 1036 1008 994 1008 994 1008 994 994 1022 1008 1008 1036 1022 1036 1022 1036 1036 1051 1051 1051 0 1008 0 1008 1008 994 994 981 981 955 968 931 955 943 955 943 943 943 968 955 981 968 955 968 968 981 1008 1008 0 0 0 0 0 0 422 425 425 427 420 422 418 0 955 931 968 943 968 981 981 981 994 1008 1036 1066 1268 1247 0 0 0 0 0 0 0 0 0 0
    0 0 0 0 0 0 0 0 0 0 0 0 0 0 0 0 0 0 0 0 0 0 0 0 0 0 0 0 0 0 0 0 0 0 0 0 0 0 0 0 0 0 0 0 0 0 0 0 0 0 0 0 0 0 0 0 0 0 0 0 0 0 0 0 0 0 0 0 0 2830 2830 2830 2374 2374 2230 2044 2230 2164 2044 2044 2102 2102 2164 2164 2230 2102 2102 2374 2537 2628 2830 2044 2453 2537 0 0 2299 2230 2164 2102 2537 1936 1936 1989 1989 1887 1672 0 0 0 0 2164 2102 0 1989 0 1989 1839 1887 1887 1936 1887 1936 1936 1936 1887 1936 2102 1989 1989 2044 1989 1887 1936 1936 1887 1839 0 0 0 1795 2164 1989 2044 2044 1887 1839 1936 1936 1936 1887 1887 1887 1887 1936 1936 1887 1936 1936 1936 1936 1936 1989 1989 1936 1936 0 1887 1887 1936 1936 1839 1839 1989 1989 1989 1887 1839 1672 1752 1839 1839 1752 1795 1795 1839 1795 1839 0 1752 1752 1839 1711 1635 1672 1711 0 2102 0 1887 1936 1887 1839 1752 1795 1795 1752 1672 1672 1795 1795 1711 0 0 1711 1599 1565 1501 1415 1415 1362 1338 0 1314 1314 1314 1291 1247 1247 1247 1226 1247 1132 1036 1036 1022 1008 1008 994 1008 994 994 1008 994 994 1022 1008 1022 1008 1022 1022 0 1051 0 422 0 422 0 0 0 0 0 0 0 968 919 955 931 955 943 943 943 955 943 968 943 943 955 968 981 994 1008 0 0 0 0 0 0 422 0 425 427 418 0 415 0 931 931 968 943 968 968 968 981 981 994 1022 1066 0 0 0 0 0 0 0 0 0 0 0 0
    0 0 0 0 0 0 0 0 0 0 0 0 0 0 0 0 0 0 0 0 0 0 0 0 0 0 0 0 0 0 0 0 0 0 0 0 0 0 0 0 0 0 0 0 0 0 0 0 0 0 0 0 0 0 0 0 0 0 0 0 0 0 0 0 0 0 0 0 0 2628 2628 2537 2102 2230 2102 2044 2230 2164 2044 2044 2102 2164 2164 2164 2164 2044 2044 2230 2537 2537 2628 2044 2374 2537 2453 0 2299 2164 2164 2102 2537 1989 1989 2044 2102 2044 0 1989 2164 2230 2374 2374 2299 2537 2299 2230 2230 1989 1936 1936 1989 1936 1989 1989 1936 1936 1989 2044 1989 1989 2102 1989 1887 1936 1936 1887 1887 0 0 1795 1795 2102 1989 2044 2044 1887 1887 1936 1936 1936 1887 1887 1887 1887 1936 1936 1887 1936 1936 1936 1936 1936 1989 1989 1936 0 0 1887 1887 1936 1887 1839 1839 1989 1989 1936 1887 1839 1672 1752 1839 1839 1752 1795 1795 1839 1795 1839 0 1752 1752 1887 1711 1599 1672 1752 1839 2102 0 1936 1989 1887 1887 1795 1795 1795 1795 1599 1672 1752 1752 1672 0 0 1672 1599 1599 1501 1388 1415 1388 1362 1314 1314 1314 1314 1291 1268 1247 1247 1206 1226 1115 1036 1036 1036 1022 1022 1008 1008 994 994 1008 994 981 1008 1008 0 0 0 0 0 0 427 420 422 422 0 422 0 0 0 0 0 0 919 955 931 943 943 943 943 955 931 968 943 943 968 968 981 981 0 0 0 0 0 0 420 422 425 422 427 418 418 411 0 919 919 955 931 968 968 968 981 981 994 1022 1066 0 0 0 0 0 0 1066 0 0 0 0 0
    0 0 0 0 0 0 0 0 0 0 0 0 0 0 0 0 0 0 0 0 0 0 0 0 0 0 0 0 0 0 0 0 0 0 0 0 0 0 0 0 0 0 0 0 0 0 0 0 0 0 0 0 0 0 0 0 0 0 0 0 0 0 0 0 0 0 0 0 0 2374 2374 2230 1989 2102 2044 1989 2102 2102 2044 2044 2164 2299 2230 2230 2164 2102 2102 2230 2537 2453 2453 1989 2374 2537 2374 0 2299 2164 2164 2102 2537 1989 1989 2044 2102 2044 1936 2044 2164 2299 2299 2374 2453 2725 2628 2830 2628 2299 1989 1989 2044 1989 2044 2102 1989 1936 1989 2044 1989 1989 2102 1989 1887 1936 1936 1839 1839 0 0 1795 1752 2164 2044 2102 2044 1936 1936 1936 1936 1936 1887 1887 1887 1887 1887 1887 1887 1936 1936 1936 1936 1936 1989 1989 1887 0 1887 1887 1887 1887 1839 1839 1839 1989 1936 1936 1887 1839 1635 1711 1839 1839 1752 1795 1795 1795 1795 1839 0 1752 1711 1839 1672 1599 1635 1752 0 2374 0 2299 2044 1936 1936 1839 1795 1839 1795 1533 1711 1752 1752 1672 1711 1672 1672 1599 1635 1471 1388 1415 1388 1362 1338 1314 1314 1314 1291 1268 1226 1247 1206 1206 1098 1051 1051 1036 1036 1036 1008 1008 1008 994 1008 994 981 0 0 0 0 0 0 425 427 425 420 422 422 420 425 420 0 420 0 418 0 908 943 931 943 943 943 943 955 931 968 943 943 955 968 968 968 0 0 0 0 0 0 420 422 0 425 0 0 0 411 0 919 919 955 931 955 968 968 968 968 994 1008 1008 0 0 0 0 0 0 1098 0 0 0 0 0
    0 0 0 0 0 0 0 0 0 0 0 0 0 0 0 0 0 0 0 0 0 0 0 0 0 0 0 0 0 0 0 0 0 0 0 0 0 0 0 0 0 0 0 0 0 0 0 0 0 0 0 0 0 0 0 0 0 0 0 0 0 0 0 0 0 0 0 0 0 2299 2299 2164 1936 2044 2044 1989 2044 2044 2044 2044 2164 2299 2230 2164 2102 2044 2044 2102 2299 2230 2299 1989 2299 2537 2374 0 2299 2164 2164 2164 2537 1989 1989 2102 2102 1989 0 1989 2102 2230 2230 2299 2299 2537 2628 2943 2628 2453 2044 2044 2102 1989 2102 2044 1936 1936 1989 2044 1989 1936 2102 1936 1887 1936 1887 1795 0 0 0 1752 1752 2102 2044 2044 1989 1936 1936 1936 1936 1936 1887 1839 1887 1839 1887 1839 1839 1887 1887 1887 1887 1936 1989 1989 1936 0 1887 1887 1936 1887 1839 1839 1839 1989 1936 1936 1936 1839 1635 1752 1839 1839 1752 1795 1795 1795 1752 1839 0 1711 1635 1795 1672 1599 1635 1752 0 2830 0 0 2374 2044 1989 1887 1795 1795 1752 1471 1711 1752 1752 1711 1752 1672 1711 1599 1672 1471 1388 1415 1388 1362 1338 1314 1314 1291 1268 1268 1226 1226 1187 1187 1098 1051 1051 1051 1036 1051 1008 1022 1008 994 1008 981 981 0 0 0 0 0 0 425 425 425 420 422 422 420 422 420 420 420 418 418 0 908 943 931 955 955 943 943 968 943 968 943 943 955 955 968 968 968 968 0 0 0 0 0 420 0 0 0 0 0 0 968 908 919 943 931 955 955 955 968 968 994 1008 1008 0 0 0 0 0 0 1098 0 0 0 0 0
    0 0 0 0 0 0 0 0 0 0 0 0 0 0 0 0 0 0 0 0 0 0 0 0 0 0 0 0 0 0 0 0 0 0 0 0 0 0 0 0 0 0 0 0 0 0 0 0 0 0 0 0 0 0 0 0 0 0 0 0 0 0 0 0 0 0 0 0 0 2299 2299 2164 1989 2044 2044 1989 2044 1989 2044 2044 2164 2374 2230 2164 0 1989 2044 1989 2164 2164 2164 1989 2299 2537 2374 0 2299 2164 2164 2164 2537 1989 1989 2102 2164 1989 0 1989 2044 2230 2299 2299 2299 2537 2628 2943 2628 2537 2164 2044 2164 1989 2102 2044 1936 1989 1989 1989 1989 1936 2102 1936 1887 1936 1887 1795 0 0 0 1711 1711 1936 1936 1936 1936 1887 1936 1936 1936 1936 1887 1839 1887 1839 1887 1839 1839 1887 1887 1887 1936 1936 2044 1989 1936 0 1887 1887 1989 1936 1795 1839 1839 1989 1989 1936 1936 1887 1672 1752 1887 1839 1711 1752 1752 1752 1752 1795 0 1672 1599 1795 1672 1635 1635 1752 0 0 0 3504 2628 1989 1936 1936 1795 1795 1711 1415 1752 1752 1752 1711 1752 1711 1711 1635 1711 1471 1388 1415 1388 1338 1314 1314 1291 1291 1268 1247 1206 1226 1187 1168 1082 1051 1051 1066 1051 1051 1008 1022 1008 994 1008 981 968 0 0 0 0 0 0 422 425 422 418 420 420 418 422 420 420 420 418 418 0 919 955 943 955 955 955 955 968 955 981 955 943 955 955 968 968 968 968 0 0 0 0 0 0 0 0 0 0 0 0 955 908 919 943 919 955 955 955 955 968 981 994 994 0 0 0 0 0 0 0 0 0 0 0 0
    0 0 0 0 0 0 0 0 0 0 0 0 0 0 0 0 0 0 0 0 0 0 0 0 0 0 0 0 0 0 0 0 0 0 0 0 0 0 0 0 0 0 0 0 0 0 0 0 0 0 0 0 0 0 0 0 0 0 0 0 0 0 0 0 0 0 0 0 0 2299 2299 2164 1989 2102 2044 1989 2044 1989 2044 2044 2102 2299 2230 2102 0 1989 2044 1989 2164 2164 2164 1989 2299 2537 2374 0 2374 2164 2164 2164 2537 1936 1936 2102 2102 1936 0 1936 2044 2299 2230 2299 2299 2537 2537 2943 2537 2537 2164 2044 2164 2044 2102 2044 1989 1989 1989 1989 1936 1887 2102 1936 1887 1887 1839 1795 0 0 0 1752 1711 1839 1839 1887 1887 1887 1936 1936 1887 1887 1887 1839 1839 1839 1887 1887 1887 1887 1887 1887 1936 1989 2044 1989 0 0 1887 1887 1989 1887 1795 1795 1795 1936 1989 1936 1936 1887 1672 1752 1887 1839 1711 1711 1711 1711 1711 1795 0 1672 1565 1752 1635 1635 1672 1711 1711 0 0 0 0 1711 1795 1887 1752 1711 1672 1388 1711 1711 1752 1711 1711 1711 1711 1635 1672 1471 1388 1415 1362 1338 1314 1291 1268 1268 1247 1226 1187 1187 1168 1132 1066 1051 1051 1066 1051 1051 1008 1022 1008 994 1008 981 968 0 0 0 0 0 0 422 422 422 418 420 420 418 422 420 420 420 418 418 0 931 968 955 968 968 968 955 981 955 994 968 955 968 968 968 968 981 968 0 0 0 0 0 0 0 0 0 0 0 0 955 908 919 943 919 943 955 955 955 955 981 994 994 0 0 0 0 0 0 1115 0 0 0 0 0
    0 0 0 0 0 0 0 0 0 0 0 0 0 0 0 0 0 0 0 0 0 0 0 0 0 0 0 0 0 0 0 0 0 0 0 0 0 0 0 0 0 0 0 0 0 0 0 0 0 0 0 0 0 0 0 0 0 0 0 0 0 0 0 0 0 0 0 0 0 2299 2374 2299 2044 2102 2044 1936 2102 1989 2044 2044 2102 2299 2164 2164 0 0 0 0 2164 2164 2164 2044 2299 2537 2374 0 2374 2164 2164 2164 2537 1887 1887 1989 2102 1936 0 1989 2102 2374 2374 2453 2453 2537 2628 3066 2537 2537 2374 2102 2164 2044 2102 1989 1989 2044 1989 1989 1936 1887 2102 1936 1936 1936 1839 1839 0 0 0 1752 1752 1795 1752 1887 1839 1887 1887 1887 1839 1839 1839 1839 1839 1839 1887 1839 1887 1887 1887 1839 1936 1989 2044 1989 0 0 0 1839 1989 1795 1752 1795 1795 1887 1936 1936 1936 1839 1672 1752 1839 1839 0 1752 1752 1711 1711 1795 1752 1672 1599 1752 1672 1635 1672 1711 1635 1711 1599 0 1599 1471 1565 1672 1599 1533 1533 1388 1672 1672 1711 1672 1711 1672 1672 1635 1672 1443 1388 1415 1362 1314 1314 1291 1268 1268 1226 1226 1168 1168 1149 1115 1066 1051 1051 1066 1051 1066 1022 1022 1008 1008 1008 981 968 0 0 0 0 0 0 422 422 422 418 418 420 415 420 418 418 418 418 418 0 931 968 955 981 968 968 968 981 968 994 968 968 968 981 968 981 968 968 981 968 994 0 0 0 0 0 0 0 0 0 955 908 919 943 919 943 955 955 955 968 981 994 994 0 0 0 0 0 0 1187 0 0 0 0 0
    0 0 0 0 0 0 0 0 0 0 0 0 0 0 0 0 0 0 0 0 0 0 0 0 0 0 0 0 0 0 0 0 0 0 0 0 0 0 0 0 0 0 0 0 0 0 0 0 0 0 0 0 0 0 0 0 0 0 0 0 0 0 0 0 0 0 0 0 0 2374 2537 2374 0 2230 2102 1989 2164 1989 2102 2044 2102 2299 2164 2164 0 0 0 0 2230 2230 2230 2044 2299 2537 2374 0 2374 2164 2102 2102 2537 1887 1887 1936 2044 1887 0 1936 1989 2299 2374 2537 2453 2628 2725 3066 2537 2628 2537 2230 2230 2102 2164 1989 1989 2102 1989 1989 1936 1887 2102 1989 1989 1936 1839 1839 1839 1887 0 1752 1752 1795 1711 1887 1795 1887 1887 1839 1839 1839 1839 1795 1839 1795 1839 1839 1839 1839 1839 1839 1936 1936 2044 0 0 0 0 1795 1989 1795 1752 1795 1752 1795 1795 1887 1887 1795 1635 1752 1839 1839 1711 1752 1752 1711 1711 1795 1752 1711 1635 1795 1711 1672 1672 1672 1599 1635 1533 1443 1599 1501 1599 1672 1672 1635 1533 1415 1672 1672 1672 1672 1672 1672 1672 1635 1672 1471 1415 1415 1388 1338 1314 1314 1268 1268 1226 1226 1168 1168 1168 1115 1066 1066 1051 1082 1066 1082 1036 1036 1022 0 1008 994 968 0 0 0 0 0 0 422 422 422 418 420 420 415 420 415 418 418 418 418 0 931 968 955 981 968 968 968 981 968 994 981 968 981 981 968 968 968 955 981 955 994 0 0 0 0 0 0 0 0 0 955 897 919 943 931 955 955 955 968 968 994 994 994 0 0 0 0 0 0 1206 0 0 0 0 0
    0 0 0 0 0 0 0 0 0 0 0 0 0 0 0 0 0 0 0 0 0 0 0 0 0 0 0 0 0 0 0 0 0 0 0 0 0 0 0 0 0 0 0 0 0 0 0 0 0 0 0 0 0 0 0 0 0 0 0 0 0 0 0 0 0 0 0 0 0 2374 2628 2537 0 2374 2299 0 0 1989 2164 2102 2044 2230 2102 2164 0 0 0 0 2230 2230 2230 2102 2299 2537 2374 0 2374 2164 2164 2164 2537 1887 1887 1936 2102 1936 1887 1887 1936 2044 2102 2299 2230 2374 2537 3066 2374 2537 2537 2230 2299 2102 2164 1989 1989 2102 1989 1989 1989 1887 2102 1989 2044 1989 1839 1839 1839 1839 0 1752 1752 1752 1672 1839 1752 1936 1936 1887 1887 1887 1839 1839 1839 1839 1795 1795 1795 1795 1795 1795 1936 1989 2044 0 0 0 0 0 2102 1795 1752 1795 1752 1795 1795 1795 1839 1752 1635 1752 1752 1795 1672 1752 1752 1711 1752 1795 1752 1711 1672 1839 1752 1711 1711 1672 1599 1635 1501 1443 1533 1501 1672 1752 1711 1711 1533 1471 1711 1672 1672 1672 1672 1672 1672 1672 1672 1471 1415 1443 1388 1338 1314 1291 1268 1268 1226 1226 1168 1168 1168 1115 1066 1082 1066 1098 1082 1082 1036 1036 1036 0 1008 994 968 0 981 994 0 0 0 422 422 0 418 420 420 413 418 415 418 418 415 0 981 919 968 955 981 968 981 968 981 981 994 981 981 981 994 968 981 968 955 968 955 981 0 0 0 0 0 1051 1051 0 0 981 919 943 955 943 955 968 968 968 968 994 994 1008 0 0 1226 0 1226 1226 1206 0 0 0 0 0
    0 0 0 0 0 0 0 0 0 0 0 0 0 0 0 0 0 0 0 0 0 0 0 0 0 0 0 0 0 0 0 0 0 0 0 0 0 0 0 0 0 0 0 0 0 0 0 0 0 0 0 0 0 0 0 0 0 0 0 0 0 0 0 0 0 0 0 0 0 2374 2537 2537 0 0 0 0 0 0 0 2044 2044 2164 2102 2164 2044 2044 2102 1989 2230 2230 2230 2102 2299 2537 2374 0 2374 2164 2164 2164 2537 1936 1936 1989 2102 1936 1887 1887 1887 1989 2102 2299 2230 2299 0 0 0 2537 2537 2230 2230 2102 2102 1989 2044 2102 1989 1989 1989 1936 2102 1989 2044 1989 0 1839 1839 1839 0 1752 1752 1711 1635 1795 1672 1936 1936 1887 1887 1839 1839 1795 1839 1839 1752 1752 1795 1752 1795 1752 1936 2044 2044 0 0 0 0 1887 2374 1795 1795 1839 1795 1795 1752 1795 1839 1752 1672 1752 1752 1795 1711 1752 1752 1752 1795 1795 1752 1752 1752 1936 1752 1752 1752 1672 1635 0 1533 1443 1471 1443 1635 1711 1711 1672 1471 1533 1711 1711 1672 1672 1672 1672 1672 1672 1672 1443 1443 1443 1388 1314 1314 1291 1268 1247 1206 1206 1149 1149 1168 1115 1066 1082 1066 1098 1082 1082 1051 1036 1036 0 1008 994 968 981 981 994 994 1008 0 422 0 0 0 0 0 413 418 415 418 415 0 0 968 908 968 955 981 968 981 981 994 981 1008 994 994 994 994 981 994 968 943 968 943 981 0 0 0 0 0 1051 1051 0 0 981 931 955 955 955 968 968 968 968 981 994 994 1008 0 1291 1187 1206 1206 1226 1226 0 0 0 0 0
    0 0 0 0 0 0 0 0 0 0 0 0 0 0 0 0 0 0 0 0 0 0 0 0 0 0 0 0 0 0 0 0 0 0 0 0 0 0 0 0 0 0 0 0 0 0 0 0 0 0 0 0 0 0 0 0 0 0 0 0 0 0 0 0 0 0 0 0 0 2374 2537 2453 0 0 0 0 0 0 0 2044 2044 2164 2164 2164 2044 2044 2164 1989 2230 2230 2230 2102 2299 2537 2374 0 2374 2164 2164 2164 2537 1936 1936 1989 2164 1936 1887 0 0 1887 2044 2374 2299 2299 0 0 0 2537 2453 2164 2230 2102 2102 2044 2044 2102 1989 1989 1989 1936 2102 1989 2102 1989 0 0 0 1839 0 1752 1752 1711 1599 1795 1635 1839 1887 1839 1795 1752 1752 1711 1752 1795 1711 1711 1752 1711 1752 1752 1936 0 0 0 0 0 0 0 0 1752 1752 1795 1752 1752 1711 1795 1795 1711 1711 1752 1752 1795 1711 1795 1795 1795 1795 1839 1795 1795 1795 1989 1795 1795 1795 1672 1635 0 1501 1443 1443 1471 1635 1711 1672 1635 1415 1599 1711 1711 1672 1672 1672 1672 1672 1711 1635 1443 1443 1471 1388 1314 1314 1268 1247 1247 1187 1168 1132 1132 1149 1115 1066 1098 1066 1098 1082 1082 1051 1051 1036 0 1008 1008 968 981 981 994 994 994 0 0 0 0 0 0 0 415 420 415 418 415 0 0 968 919 981 968 981 981 994 981 994 994 1008 994 1008 1008 1008 981 994 968 943 968 943 968 0 0 0 0 0 0 0 0 0 981 931 955 955 955 968 968 968 981 981 1008 1008 1036 1168 1247 1187 1206 1206 1226 1226 0 0 0 0 0
    0 0 0 0 0 0 0 0 0 0 0 0 0 0 0 0 0 0 0 0 0 0 0 0 0 0 0 0 0 0 0 0 0 0 0 0 0 0 0 0 0 0 0 0 0 0 0 0 0 0 0 0 0 0 0 0 0 0 0 0 0 0 0 0 0 0 0 0 0 2299 2453 2374 2299 2102 2230 0 0 1936 2102 2044 2044 2102 2164 2102 2044 2044 2164 1989 2230 2230 2299 2102 2374 2537 2374 0 2374 2164 2164 2164 2628 1989 1989 2044 2299 2102 1989 0 1989 2044 2453 2537 2374 0 2453 2453 0 2453 2374 2164 2164 2102 1989 1989 2102 2102 1989 1989 1989 1936 2102 2044 2164 1989 0 0 0 0 0 1795 1752 1711 1599 1795 1635 1752 1795 1752 1672 1672 1672 1635 1672 1752 1672 1599 1672 1635 1672 1635 1887 0 0 0 0 0 0 0 0 1752 1711 1752 1711 1752 1711 1795 1795 1635 1711 1795 1752 1795 1711 1839 1795 1795 1839 0 1795 1839 1795 2102 1795 1795 1795 1533 1565 0 1314 1314 1388 1533 1711 1752 1752 1635 1388 1635 1711 1711 1672 1672 1672 1672 1672 1711 1635 1471 1471 1471 1388 1314 1291 1268 1247 1226 1168 1149 1115 1115 1149 1115 1051 1098 1066 1098 1082 1082 1051 1051 1051 0 1008 0 981 981 981 994 994 981 0 0 0 0 0 0 0 413 420 415 415 415 0 0 981 931 981 968 981 981 981 981 994 994 1008 994 1008 1008 1008 981 1008 981 943 968 955 968 0 0 0 0 0 0 0 0 0 0 943 955 968 955 968 981 981 981 994 1008 1008 1066 1168 1206 1187 1187 1187 1187 1206 0 0 0 0 0
    0 0 0 0 0 0 0 0 0 0 0 0 0 0 0 0 0 0 0 0 0 0 0 0 0 0 0 0 0 0 0 0 0 0 0 0 0 0 0 0 0 0 0 0 0 0 0 0 0 0 0 0 0 0 0 0 0 0 0 0 0 0 0 0 0 0 0 0 0 2299 2453 2374 2230 2102 2230 1936 0 1936 2164 2044 2044 2102 2164 2102 2044 2044 2164 1989 2299 2299 2299 2102 2374 2537 2374 2374 2374 2164 2230 2230 2628 1989 2044 2164 2299 2230 2102 2044 2102 2164 2537 2537 2374 2230 2299 2230 2102 2299 2299 2230 2164 2102 1936 1989 2102 2102 1989 1936 1989 1936 2102 2102 2230 2044 0 0 0 0 0 1795 0 1711 1599 1795 1711 1752 0 1711 1599 1599 1635 1599 1635 1711 1599 1471 1565 1471 1533 1388 0 0 0 0 0 0 0 0 0 0 1711 1752 1711 1752 1711 1795 1752 1599 1672 1752 1672 1752 1711 1795 1795 1795 1839 1839 1795 1887 1839 2164 1795 1752 1752 1362 1388 0 0 1314 1415 1565 1795 1795 1795 1711 1388 1635 1711 1711 1635 1672 1672 1672 1672 1752 1635 1471 1501 1501 1415 1314 1291 1247 1226 1206 1149 1115 1082 1098 1115 1082 1036 1082 1051 1082 1082 1082 1066 1051 1051 0 1008 0 981 994 981 994 994 981 0 0 0 0 0 0 0 0 420 418 418 415 0 0 981 931 981 968 981 968 981 968 994 981 1008 981 994 994 1008 981 1008 981 955 968 955 968 968 0 0 0 0 0 0 0 415 0 943 955 968 955 968 981 981 981 994 1022 1022 1082 1168 1187 1168 1168 1168 1187 1187 0 0 0 0 0
    0 0 0 0 0 0 0 0 0 0 0 0 0 0 0 0 0 0 0 0 0 0 0 0 0 0 0 0 0 0 0 0 0 0 0 0 0 0 0 0 0 0 0 0 0 0 0 0 0 0 0 0 0 0 0 0 0 0 0 0 0 0 0 0 0 0 0 0 0 2299 2453 2374 2299 2164 2230 1936 2102 1936 2102 2044 2044 2102 2102 2102 2044 2044 2230 1989 2299 2299 2299 2102 2374 2537 2374 2374 2453 2230 2230 2164 2628 1989 2044 2102 2230 2164 2044 2044 2044 2102 0 2299 2164 2044 2102 2044 1989 2164 2164 2230 2164 2044 1887 1989 2102 2102 1989 1936 1989 1989 2164 2102 2299 2044 0 1989 1989 0 0 1839 0 1711 1635 1839 1752 1795 0 1711 1533 1501 1565 1443 1533 1599 1501 1362 0 1314 0 0 0 0 0 0 0 0 0 0 0 0 0 1711 1672 1711 1711 1795 1711 1533 1635 1711 1672 1752 1711 1795 1795 1795 1839 1839 1839 1887 1887 2164 1795 1711 1711 1338 1471 0 0 1672 1599 1752 1936 2044 1887 1795 1388 1635 1672 1711 1599 1635 1635 1635 1635 1711 1599 1471 1501 1533 1415 0 1314 0 0 0 0 1098 1066 1082 1098 1066 1036 1082 1051 1082 1082 1082 1066 1051 1051 0 1008 1036 981 994 981 994 994 994 1008 0 0 0 0 0 0 0 0 420 418 415 0 0 968 908 981 955 968 968 981 968 981 981 994 981 994 994 1008 981 1008 981 955 981 955 955 0 0 0 0 0 0 0 0 0 994 943 968 968 968 968 981 981 981 994 1022 1022 1098 1168 1187 1168 1168 1168 1168 1168 0 0 0 0 0
    0 0 0 0 0 0 0 0 0 0 0 0 0 0 0 0 0 0 0 0 0 0 0 0 0 0 0 0 0 0 0 0 0 0 0 0 0 0 0 0 0 0 0 0 0 0 0 0 0 0 0 0 0 0 0 0 0 0 0 0 0 0 0 0 0 0 0 0 0 2299 2453 2299 2230 2102 2164 1936 2102 1936 2102 2044 2044 2102 2102 2102 2044 2102 2230 1989 2230 2230 2230 2044 2374 2453 2299 2374 2374 2230 2164 2164 2628 1989 1989 2044 2044 1989 1936 0 0 2044 0 0 2044 0 1989 1989 1989 2102 2102 2164 2102 1989 1936 1989 2102 2102 1936 1936 1989 1989 2164 2044 2230 2044 1989 1989 1989 0 1989 1887 0 1711 1672 1887 1795 1839 0 1711 1565 1565 1565 1443 1471 1501 1443 1338 0 1268 0 0 0 0 0 0 0 0 0 0 0 0 0 1672 1672 1711 1672 1752 1672 1471 1635 1672 1635 1752 1711 1795 1795 1795 1887 1839 1887 1936 1887 2164 1795 1711 1672 0 1711 0 0 2102 1839 2374 2230 2374 2102 1839 1415 1635 1672 1672 1599 1635 1635 1635 1635 1711 1565 1471 1501 1565 1443 1362 1314 0 0 0 0 1098 1066 1082 1098 1066 1036 1082 1051 1066 1082 1082 1066 1051 1066 1098 1008 1051 994 994 994 1008 994 994 1008 0 0 0 0 0 0 0 0 0 0 0 955 931 955 908 968 955 968 968 981 968 994 981 1008 994 1008 1008 1008 981 1008 981 955 981 968 968 0 0 0 0 0 0 0 0 0 994 931 968 968 968 968 981 981 981 994 1022 1022 1098 1168 1187 1168 1168 1168 1168 1168 0 0 0 0 0
    0 0 0 0 0 0 0 0 0 0 0 0 0 0 0 0 0 0 0 0 0 0 0 0 0 0 0 0 0 0 0 0 0 0 0 0 0 0 0 0 0 0 0 0 0 0 0 0 0 0 0 0 0 0 0 0 0 0 0 0 0 0 0 0 0 0 0 0 0 2299 2453 2299 2230 2102 2164 1989 2102 1936 2164 2044 2044 2102 2164 2102 2044 2102 2230 1989 2164 2164 2164 2044 2299 2453 2299 2299 2374 2230 2230 2230 2628 2044 2044 2044 1989 1887 1752 0 0 0 0 0 0 0 1936 1936 1989 2044 2044 2102 2164 1989 1936 2044 2044 2044 1936 1936 1989 1989 2164 2044 2230 2044 1989 1989 1989 1989 1989 1887 0 1752 1711 1887 1839 1887 0 1711 1672 1672 1635 1471 1471 1471 1415 1314 1226 1206 0 0 0 0 0 0 0 0 0 0 0 0 0 0 1635 1672 1635 1711 1635 1443 1635 1672 1635 1711 1711 1795 1795 1795 1887 1839 1887 1989 1936 2230 1795 0 0 0 0 0 2374 2374 2044 2725 2453 2453 2164 1839 1443 1635 1635 1672 1565 1599 1635 1599 1599 1711 1533 1501 1533 1565 1471 1362 1338 0 0 0 0 1098 1066 1082 1082 1066 1022 1082 1036 1066 1066 1066 1051 1051 1051 0 1008 1051 994 994 1008 1008 994 981 994 994 994 1008 981 981 994 968 981 0 0 0 919 897 943 897 968 955 955 968 981 968 994 994 1008 994 1008 1008 994 968 994 968 943 968 955 968 968 0 0 994 0 1036 0 0 0 1008 931 968 968 968 968 981 981 981 994 1022 1022 1115 1149 1168 1149 1168 1168 1168 1168 0 0 0 0 0
    0 0 0 0 0 0 0 0 0 0 0 0 0 0 0 0 0 0 0 0 0 0 0 0 0 0 0 0 0 0 0 0 0 0 0 0 0 0 0 0 0 0 0 0 0 0 0 0 0 0 0 0 0 0 0 0 0 0 0 0 0 0 0 0 0 0 0 0 0 2230 2374 2230 2164 2044 2164 1989 2102 1936 2164 2044 2102 2164 2164 2102 2044 2102 2299 1989 2102 2164 2102 1989 2230 2374 2230 2299 2453 2299 2230 2230 2725 2102 2102 2164 1989 1887 0 0 0 0 0 0 0 1887 1936 1887 1936 1936 1936 1989 2044 1887 1936 2044 2044 2044 1936 1936 1989 1989 2230 2044 2230 2102 1989 2044 2044 1989 1989 1887 0 1752 1711 1839 1795 1839 0 1711 1711 1711 1711 1501 1443 0 1338 1226 1168 1098 0 0 0 0 0 0 0 0 0 0 0 0 0 0 0 0 0 0 1672 1415 1672 1711 1672 1752 1752 1839 1795 1795 1887 1839 1839 1936 1887 2044 1752 1672 0 0 0 0 2537 2453 2164 2725 2453 2453 2044 1839 1443 1635 1635 1635 1565 1599 1635 1599 1599 1711 1533 1533 1533 1599 1501 1388 1338 1291 0 0 0 1082 1051 1082 1082 1066 1022 1066 1036 1051 1066 1066 1051 1051 1051 0 994 1051 994 994 1008 994 981 981 994 994 994 994 968 955 981 955 955 919 0 0 897 886 919 886 955 955 955 968 981 968 994 994 1008 994 1008 1008 994 968 994 968 931 0 0 955 968 0 0 994 0 1051 1008 0 0 1022 943 968 968 968 968 981 981 981 981 1022 1036 1115 1149 1168 1149 1168 1168 1168 1168 0 0 0 0 0
    0 0 0 0 0 0 0 0 0 0 0 0 0 0 0 0 0 0 0 0 0 0 0 0 0 0 0 0 0 0 0 0 0 0 0 0 0 0 0 0 0 0 0 0 0 0 0 0 0 0 0 0 0 0 0 0 0 0 0 0 0 0 0 0 0 0 0 0 0 2164 2230 2102 2102 1989 2044 1936 2044 1887 2102 1989 2044 2102 2164 2044 2044 2102 2299 1989 2164 2164 2102 1989 2230 2374 2230 2299 2453 2299 2299 2299 2830 2164 2102 2164 1887 1839 0 0 2044 2044 2164 0 0 0 1989 1936 1989 1989 1936 1989 1989 1795 1887 2044 1989 1989 1936 1936 1989 1989 2230 2102 2230 2102 2044 2044 2044 1989 1989 1887 0 1752 1752 1795 1795 0 0 1672 1711 1752 1711 1501 0 0 1268 1149 1132 1082 0 0 0 0 0 0 0 0 0 0 0 0 0 0 0 0 0 0 0 0 1752 1752 1711 1795 1795 1795 1795 1795 1887 1839 1839 1887 1839 1887 1752 1711 0 0 2164 2044 2374 2374 2164 2537 2374 2374 1989 1887 1471 1635 1635 1635 1565 1599 1635 1635 1635 1752 1565 1565 1565 1635 1565 1443 1362 1314 0 0 0 1066 1051 1082 1082 1066 1022 1066 1036 1051 1051 1051 1051 1051 1051 0 0 0 981 994 994 994 981 968 981 981 981 981 955 943 981 943 943 908 908 897 908 897 931 886 943 955 955 968 968 955 981 981 1008 981 994 994 981 968 994 955 919 0 0 943 943 955 955 968 0 1022 968 0 0 1022 943 968 968 968 968 981 981 981 994 1036 1036 1115 1149 1168 1149 1168 1168 1168 1168 0 0 0 0 0
    0 0 0 0 0 0 0 0 0 0 0 0 0 0 0 0 0 0 0 0 0 0 0 0 0 0 0 0 0 0 0 0 0 0 0 0 0 0 0 0 0 0 0 0 0 0 0 0 0 0 0 0 0 0 0 0 0 0 0 0 0 0 0 0 0 0 0 0 0 2044 2164 2044 2044 1989 2044 1989 2044 1887 2044 1989 2044 2102 2164 2044 2044 2102 2299 1989 2102 2102 2102 1989 2230 2299 2164 2230 2453 2299 2299 2374 2830 2374 2299 2374 1989 1936 1936 0 1989 1989 2044 1989 0 2102 2044 2044 2164 2102 2044 2102 1989 1839 1887 1989 1989 1936 1936 1936 1936 2044 2230 2044 2230 2102 2044 2102 2102 2044 2044 1936 1989 1795 1752 1795 1795 0 0 1672 1599 1711 1635 1388 1291 0 1226 1132 1149 1082 0 0 0 0 0 0 0 0 0 0 0 0 0 0 0 0 0 0 0 0 1711 1752 1711 1795 1752 1795 1752 1752 1839 1795 1795 1839 1711 1752 1672 1565 0 0 2230 2044 2374 2374 2164 2537 2374 2374 1989 1887 1533 1635 1635 1635 1565 1599 1635 1635 1635 1752 1565 1599 1599 1635 1599 1471 1362 0 0 0 0 1051 1036 1066 1066 1066 1022 1066 1036 1051 1051 1051 1051 1051 1051 0 0 0 981 994 981 981 955 955 955 955 968 981 955 943 981 955 955 919 919 886 855 855 886 865 908 919 931 943 955 955 968 968 994 968 955 943 931 919 994 943 897 0 0 919 943 943 919 919 897 968 908 931 981 994 908 968 968 968 981 994 994 994 1008 1132 1066 1168 1187 1187 1149 1168 1168 1149 1149 0 0 0 0 0
    0 0 0 0 0 0 0 0 0 0 0 0 0 0 0 0 0 0 0 0 0 0 0 0 0 0 0 0 0 0 0 0 0 0 0 0 0 0 0 0 0 0 0 0 0 0 0 0 0 0 0 0 0 0 0 0 0 0 0 0 0 0 0 0 0 0 0 0 0 2044 2164 2044 2102 1989 2044 1989 2044 1887 2044 1989 2044 2102 2102 2044 1989 2102 2374 1989 2044 2044 2044 1936 2164 2299 2102 2230 2453 2374 2374 2453 2943 2628 2537 2537 1936 1936 0 0 1936 1936 1989 1936 0 2102 2164 2164 2299 2230 2230 2299 2044 1936 1989 2044 1989 1989 1936 1936 1936 2044 2230 2044 2164 2102 2102 2102 2102 2044 2044 1936 2044 1795 1795 1795 1795 0 0 1672 1711 0 1711 1362 0 0 1206 0 0 0 0 0 0 0 0 0 0 0 0 0 0 0 0 0 0 0 0 0 0 0 1711 1752 1711 1795 1795 1752 1752 1752 1839 1795 1795 1795 1599 1599 1635 1533 1711 1672 1989 1936 2230 2299 2102 2453 2374 2299 1989 1887 1533 1672 1635 1635 1565 1599 1635 1635 1635 1711 1565 1599 1599 1635 1635 1533 1388 0 0 0 0 1066 1036 1082 1082 1066 1036 1066 1051 1051 1051 1051 1051 1051 1051 0 0 0 981 994 981 968 943 931 931 931 943 955 919 908 955 908 908 876 0 0 799 808 845 845 865 876 897 919 955 943 955 955 981 931 0 0 0 0 0 0 0 0 0 0 0 0 0 886 0 955 897 0 1008 1022 919 981 981 981 981 994 994 994 1008 1187 1098 1206 1206 1206 1168 1187 1187 1168 1168 0 0 0 0 0
    0 0 0 0 0 0 0 0 0 0 0 0 0 0 0 0 0 0 0 0 0 0 0 0 0 0 0 0 0 0 0 0 0 0 0 0 0 0 0 0 0 0 0 0 0 0 0 0 0 0 0 0 0 0 0 0 0 0 0 0 0 0 0 0 0 0 0 0 0 1936 2044 1936 1989 1936 1989 1936 1936 1887 2044 2044 2044 2102 2164 2044 1989 2102 2374 1989 1989 2044 1989 1936 2102 2230 2044 2164 2453 2374 2299 2374 2830 2374 2230 2102 1672 1711 1565 1565 0 0 1936 0 0 2164 2299 2374 2374 2374 2299 2374 2044 1989 2044 1989 1989 1989 1936 1936 1936 2102 2230 1989 2164 2044 2102 2102 2102 2102 2044 1989 0 1887 1989 1795 1839 1839 1839 1752 0 1887 1887 1795 0 0 0 0 0 0 0 0 0 0 2628 2725 0 0 0 0 0 0 0 0 0 0 0 0 0 0 1795 1839 1795 1795 0 1795 1795 1795 1839 1795 1795 1795 1599 1635 1711 1635 1752 1711 1839 1887 2044 2102 2044 2230 2164 2230 1989 1887 1565 1672 1635 1635 1565 1599 1635 1635 1635 1711 1565 1565 1565 1599 1599 1443 1338 0 0 0 0 1082 1051 1115 1115 1082 1036 1066 1036 1036 1036 1036 1036 1036 1036 0 994 1008 955 981 968 955 931 908 897 897 908 908 886 865 886 845 694 774 791 750 758 766 799 799 826 855 876 886 931 919 931 931 968 886 0 0 0 0 0 0 0 0 0 0 0 0 0 855 799 943 0 0 0 1036 919 981 994 981 994 1008 1008 1008 1022 1226 1115 1226 1206 1206 1168 1168 1168 1149 1149 0 0 0 0 0
    0 0 0 0 0 0 0 0 0 0 0 0 0 0 0 0 0 0 0 0 0 0 0 0 0 0 0 0 0 0 0 0 0 0 0 0 0 0 0 0 0 0 0 0 0 0 0 0 0 0 0 0 0 0 0 0 0 0 0 0 0 0 0 0 0 0 0 0 0 1839 1887 1839 1887 1839 1936 1936 1936 1887 2102 2044 2102 2102 2164 2102 1989 2102 2374 1989 1936 1936 1936 1887 2044 2164 2044 2102 2299 2374 2299 2374 2830 2230 2044 1936 1635 1635 1443 1415 1672 1795 1936 1989 0 2164 2374 2453 2453 2374 2299 2230 1989 1936 2044 1936 1936 1989 1936 1936 1936 2102 2230 1989 2164 2044 2102 2102 2102 2102 2044 1989 2164 1887 2102 1795 1795 0 1795 1752 1887 1936 1936 0 0 0 0 2725 2943 0 0 0 0 0 2628 2830 2830 3066 0 0 0 0 0 0 0 0 0 0 0 0 0 1839 1711 0 0 1795 1795 1795 1839 1752 1752 1795 1635 1672 1752 1752 1752 1795 1839 1887 1989 2102 1989 2102 2044 2102 1936 1887 1565 1672 1635 1635 1565 1599 1635 1635 1599 1711 1565 1565 1565 1565 1533 1388 0 0 0 0 1149 1149 1082 1168 1149 1098 1036 1066 1036 1022 1022 1022 1008 1008 1008 0 968 994 943 981 955 919 897 876 865 865 865 855 845 808 728 700 687 694 714 707 714 721 728 758 766 826 836 845 886 876 886 876 968 876 774 0 0 663 634 700 714 714 714 714 721 735 0 0 774 0 0 1362 0 1036 943 994 1008 994 1008 1022 1008 1051 1226 1226 1168 1226 1206 1206 1168 1187 1187 1168 1149 0 0 0 0 0
    0 0 0 0 0 0 0 0 0 0 0 0 0 0 0 0 0 0 0 0 0 0 0 0 0 0 0 0 0 0 0 0 0 0 0 0 0 0 0 0 0 0 0 0 0 0 0 0 0 0 0 0 0 0 0 0 0 0 0 0 0 0 0 0 0 0 0 0 0 1795 1795 1752 1795 1795 1887 1887 1887 1887 2044 2102 2102 2102 2164 2102 1989 2102 2374 1936 1887 1887 1887 1887 1989 2102 1989 2044 2230 2374 2299 2374 2725 2230 1989 1887 1672 1672 1533 1565 1795 0 2044 2230 2299 2299 2453 2537 2453 2374 2374 2164 1989 1936 2044 1936 1936 1989 1936 1936 1936 2164 2230 1989 2164 2044 2102 2102 2102 2164 2044 1989 2164 1887 2102 1795 1752 1711 0 1752 0 1936 1989 0 0 0 0 0 0 0 0 0 0 0 2725 2943 2943 3345 8177 7359 0 0 0 0 0 0 0 0 0 0 0 1887 1599 0 0 1795 1752 1795 1839 1752 1711 1795 1672 1711 1752 1839 1795 1839 1887 1887 1989 2044 1936 1989 1936 1989 1887 1839 1533 1672 1635 1635 1565 1565 1599 1599 1599 1711 1533 1533 1533 1501 1443 1314 1268 1206 1226 0 1168 1187 1115 1206 1187 1115 1051 1066 1051 1036 1022 1022 1008 1008 1008 1036 968 981 931 955 908 876 865 855 836 836 836 791 750 714 700 694 681 687 694 694 700 714 714 735 735 774 766 774 0 0 0 0 0 0 0 681 0 639 634 0 714 721 721 721 721 735 743 799 758 0 0 1415 0 1082 968 0 0 0 0 1187 1132 1226 1314 1247 1206 1247 1206 1206 1168 1168 1168 1149 1132 0 0 0 0 0
    0 0 0 0 0 0 0 0 0 0 0 0 0 0 0 0 0 0 0 0 0 0 0 0 0 0 0 0 0 0 0 0 0 0 0 0 0 0 0 0 0 0 0 0 0 0 0 0 0 0 0 0 0 0 0 0 0 0 0 0 0 0 0 0 0 0 0 0 0 1711 1711 1672 1711 1711 1839 1839 1795 1887 2044 2102 2102 2102 2230 2044 1989 2044 2374 1936 1839 1887 1839 1887 1989 2102 1989 2102 2299 2374 2299 2374 2628 2374 2102 2044 1752 1752 1672 1672 1795 1887 2044 2230 2230 2374 2453 2537 2453 2453 2374 2164 1989 1989 2044 1936 1936 1989 1989 1936 1936 2164 2230 1989 2230 2044 2164 2102 2102 2164 1989 1989 2102 1887 2044 1752 1635 1599 0 1599 0 1989 1989 0 0 0 0 0 0 0 0 0 0 0 2537 0 0 0 0 6133 0 0 0 0 0 0 0 0 0 0 0 1887 0 0 0 1752 1752 1752 1839 1752 1711 1887 1752 1795 1839 1936 1887 1839 1795 1839 1936 1989 1887 1936 1839 1887 1839 1839 1471 1635 1635 1635 1565 1565 1599 1599 1599 1711 1533 1501 1501 1471 0 1291 0 0 1226 0 0 1187 1132 1206 1187 1132 1066 1082 1066 1036 1022 1022 1008 994 994 1022 955 955 876 886 855 845 836 826 782 750 766 743 728 714 700 694 687 687 700 700 700 714 707 721 728 735 728 735 774 817 782 0 0 0 750 700 629 663 663 721 721 728 728 728 728 735 743 799 758 0 0 1388 1268 1168 0 0 0 0 1599 1388 1314 1338 1362 1291 1247 1268 1226 1206 1168 1168 1149 1132 1098 0 0 0 0 0
    0 0 0 0 0 0 0 0 0 0 0 0 0 0 0 0 0 0 0 0 0 0 0 0 0 0 0 0 0 0 0 0 0 0 0 0 0 0 0 0 0 0 0 0 0 0 0 0 0 0 0 0 0 0 0 0 0 0 0 0 0 0 0 0 0 0 0 0 0 1672 1635 1635 1672 1635 1752 1795 1795 1887 2044 2102 2102 2102 2230 2044 1989 2044 2374 1936 1887 1936 1887 1936 1989 2102 2044 2102 2299 2374 2230 2374 2453 2374 2044 1989 1795 1795 1711 1711 1795 1887 2044 2164 2230 2374 2453 2453 2453 2374 2374 2102 2044 2044 1989 1936 1936 1989 1989 1936 1989 2230 2230 2044 2230 2102 2164 2102 2102 2164 1989 1989 2164 1887 2102 1752 1599 1501 0 1314 1501 0 0 0 0 0 0 0 0 0 0 0 0 0 0 0 0 0 0 0 0 0 0 0 0 0 0 162 162 0 0 1839 0 0 0 1752 1752 1752 1795 1752 1711 1887 1795 1795 1887 1936 1887 1795 1752 1839 1887 1936 1887 1936 1839 1887 1887 1839 1443 1635 1635 1635 1565 1565 1599 1599 1599 1711 1533 1501 1471 1443 0 0 0 0 0 0 0 1187 1098 1149 1149 1098 1066 1066 1051 1036 1022 1022 1008 994 981 1008 919 886 836 845 817 0 758 714 714 714 714 707 700 700 694 687 687 687 694 694 694 707 707 714 721 735 721 728 743 743 750 735 0 0 0 0 634 687 694 728 721 728 728 728 735 743 750 799 766 0 0 1338 1226 1132 0 1388 0 1839 1672 1599 1533 1443 1415 1291 1268 1291 1268 1226 1187 1168 1149 1115 1082 0 0 0 0 0
    0 0 0 0 0 0 0 0 0 0 0 0 0 0 0 0 0 0 0 0 0 0 0 0 0 0 0 0 0 0 0 0 0 0 0 0 0 0 0 0 0 0 0 0 0 0 0 0 0 0 0 0 0 0 0 0 0 0 0 0 0 0 0 0 0 0 0 0 0 1711 1635 1635 1635 1599 1711 1752 1752 1887 2044 2102 2102 2102 2230 2044 2044 2044 2374 1936 1839 1887 1887 1936 1989 2044 1989 2102 2164 2299 2230 2374 2453 2453 2230 2164 1989 1887 1887 1839 1839 1936 2044 2230 2164 2299 2453 2453 2453 2453 2374 2044 1989 2044 1989 1887 1936 1936 1936 1936 1989 2230 2164 2044 2230 2102 2164 2164 2164 2230 1989 1989 2164 1936 2164 1752 1672 1672 0 0 0 0 0 0 0 0 0 0 0 0 0 0 0 0 0 0 0 0 0 0 0 0 0 0 163 0 162 163 162 0 0 1795 0 0 0 1711 1711 1752 1795 1752 1711 1839 1752 1752 1795 1839 1795 1752 1752 1795 1839 1936 1887 1936 1839 1936 1936 1839 1415 1635 1635 1635 1565 1565 1599 1599 1565 1711 1501 1471 1443 1388 0 0 0 0 0 0 0 0 0 1115 1115 1082 1051 1066 1051 1022 1008 1008 981 955 955 968 876 836 799 758 721 728 728 707 707 707 714 707 700 700 687 681 681 681 687 681 681 694 694 700 714 714 700 700 707 0 735 0 0 0 0 0 0 0 707 735 728 735 735 735 743 758 758 799 774 886 943 1132 1082 1051 0 1291 0 1752 1635 1471 1501 1443 1443 1338 1291 1314 1291 1247 1206 1187 1149 1098 1066 0 0 0 0 0
    0 0 0 0 0 0 0 0 0 0 0 0 0 0 0 0 0 0 0 0 0 0 0 0 0 0 0 0 0 0 0 0 0 0 0 0 0 0 0 0 0 0 0 0 0 0 0 0 0 0 0 0 0 0 0 0 0 0 0 0 0 0 0 0 0 0 0 0 0 1711 1635 1635 1635 1599 1672 1752 1752 1936 2102 2102 2102 2102 2230 2102 2044 2044 2453 1839 1711 1795 1752 1839 1839 1936 1936 1989 2044 2230 2164 2299 2299 2453 2299 2299 2164 2102 2044 1989 1936 1989 2102 2164 2164 2299 2374 2374 2374 2374 2230 1989 1989 2102 2044 1887 1936 1936 1936 1936 1989 2299 2164 2044 2230 2102 2164 2164 2164 2230 1989 1989 2230 1989 2230 1752 1795 2044 0 0 0 0 0 0 0 0 0 0 0 0 0 0 0 0 0 0 0 0 0 0 300 0 0 168 163 162 162 163 163 0 0 1795 0 0 0 1752 1711 1752 1795 1711 1672 1795 1711 1711 1752 1752 1711 1711 1672 1711 1752 1839 1795 1839 1795 1887 1936 1839 1415 1635 1635 1635 1565 1565 1565 1565 1565 1711 1501 1443 1388 1362 97 0 0 1115 1098 0 1082 1082 1051 1082 1082 1066 1036 1036 1036 1008 994 981 955 886 886 897 836 782 735 700 700 700 707 694 694 694 694 694 694 694 681 675 681 681 687 681 687 687 687 694 707 707 694 694 700 694 0 0 0 1022 981 0 0 0 707 743 735 743 743 743 750 774 766 808 791 908 968 1051 1036 1051 1066 1187 1168 1268 1314 1291 1314 1338 1362 1291 1291 1314 1291 1247 1247 1206 1149 1098 1051 0 0 0 0 0
    0 0 0 0 0 0 0 0 0 0 0 0 0 0 0 0 0 0 0 0 0 0 0 0 0 0 0 0 0 0 0 0 0 0 0 0 0 0 0 0 0 0 0 0 0 0 0 0 0 0 0 0 0 0 0 0 0 0 0 0 0 0 0 0 0 0 0 0 0 1711 1635 1635 1635 1599 1752 1795 1795 1936 2164 2164 2164 2164 2299 2102 2044 2044 2453 1795 1711 1752 1752 1795 1752 1887 1887 1989 1989 2164 2102 2164 2164 2299 2230 2164 2102 2102 2044 2044 1936 2044 2102 2164 2164 2230 2374 2374 2374 2374 2164 1989 2044 2102 2044 1936 1936 1989 1936 1989 1989 2230 2164 2044 2230 2102 2164 2164 2164 2299 1989 1989 2230 1989 2230 1795 1936 2044 0 0 0 0 0 0 0 0 0 0 0 0 0 0 0 0 0 0 0 0 0 309 302 0 302 0 164 163 163 163 163 0 0 1839 0 0 0 1752 1752 1795 1795 1711 1672 1795 1711 1711 1752 1752 1711 1711 1672 1711 1752 1795 1795 1839 1711 1752 1795 1752 1362 1565 1565 1565 1533 1533 1533 1501 1501 1635 1415 1388 1338 1314 0 0 1168 1066 1051 1036 1051 1051 1036 1051 1051 1036 1008 1022 1022 981 955 943 897 855 845 845 774 700 700 681 687 687 687 675 681 681 687 687 694 687 681 669 681 681 687 687 687 700 700 707 721 728 707 707 766 0 0 0 1036 1036 1022 0 0 0 714 750 743 750 750 750 758 774 766 799 782 886 0 1082 1051 1098 1268 1206 1149 1187 1187 1187 1268 1268 1268 1247 1247 1291 1268 1247 1226 1206 1149 1098 1036 0 0 0 0 0
    0 0 0 0 0 0 0 0 0 0 0 0 0 0 0 0 0 0 0 0 0 0 0 0 0 0 0 0 0 0 0 0 0 0 0 0 0 0 0 0 0 0 0 0 0 0 0 0 0 0 0 0 0 0 0 0 0 0 0 0 0 0 0 0 0 0 0 0 0 1711 1635 1599 1599 1599 1752 1795 1795 1936 2164 2164 2164 2164 2299 2102 1989 2044 2453 1839 1711 1795 1795 1795 1795 1936 1936 1989 2044 2164 2102 2164 2164 2299 2164 2164 2164 2102 2102 2164 2044 2102 2230 2230 2164 2299 2374 2374 2374 2453 2102 2044 2044 2102 1989 1887 1936 1936 1936 1989 1936 2164 2164 2044 2164 2102 2164 2102 2164 2299 1989 1989 2299 2044 2299 1795 2044 2044 2102 1936 2044 0 0 0 0 7359 0 0 0 0 0 0 0 448 0 0 0 0 0 0 300 0 300 0 0 0 164 164 0 0 0 0 0 0 0 1752 1752 1795 1795 1711 1672 1795 1711 1672 1752 1752 1711 1752 1711 1752 1795 1936 1887 1795 1752 1795 1839 1752 1388 1599 1599 1599 1565 1501 1471 1443 1443 1565 1362 1338 1247 1226 0 0 1115 1051 994 981 994 994 1008 1022 1022 1008 955 981 968 931 908 876 855 826 799 774 735 687 687 669 669 669 669 657 675 675 687 687 694 694 681 675 687 694 700 694 694 707 700 714 735 782 735 0 0 0 1036 1036 1051 1066 1036 919 0 836 735 774 750 766 758 758 766 774 766 799 774 0 0 0 0 0 0 0 0 1168 1149 1168 1247 1247 1206 1206 1206 1226 1187 1115 1098 1066 1051 1051 1022 0 0 0 0 0
    0 0 0 0 0 0 0 0 0 0 0 0 0 0 0 0 0 0 0 0 0 0 0 0 0 0 0 0 0 0 0 0 0 0 0 0 0 0 0 0 0 0 0 0 0 0 0 0 0 0 0 0 0 0 0 0 0 0 0 0 0 0 0 0 0 0 0 0 0 1752 1635 1599 1635 1635 1752 1839 1839 1936 2102 2102 2102 2102 2230 2044 1936 1989 2453 1795 1711 1795 1795 1795 1795 1936 1936 2044 2102 2230 2164 2230 2230 2374 2299 2299 2230 2230 2299 2299 2102 2164 2230 2230 2164 2299 2299 2299 2299 2299 2044 1989 2044 1989 1936 1887 1887 1887 1936 1989 1936 2164 2164 2044 2164 2102 2164 2102 2102 2299 1887 1887 2230 1989 2164 1752 2102 2102 2164 1989 2102 0 0 0 0 0 0 0 0 0 0 0 0 446 0 0 0 0 0 0 0 0 0 0 0 0 0 0 131 0 0 1839 0 0 1752 1752 1752 1752 1795 1711 1672 1795 1672 1672 1711 1752 1711 1752 1752 1795 1936 1989 1887 1752 1635 1635 1711 1635 1362 1501 1565 1599 1565 1471 1415 1388 1388 1443 1314 1314 1168 1132 1098 1082 1115 1036 931 931 955 919 955 943 981 968 897 886 865 855 855 836 826 782 743 728 714 681 681 669 669 675 675 663 681 681 687 694 694 694 687 687 694 687 687 687 687 694 681 687 700 694 0 0 1098 1149 1082 1082 1082 1098 1036 968 0 0 758 791 766 766 766 758 766 774 766 791 758 0 0 0 0 0 0 0 0 0 0 0 0 0 0 0 1168 1187 1149 1115 1115 1066 1036 1022 981 0 0 0 0 0
    0 0 0 0 0 0 0 0 0 0 0 0 0 0 0 0 0 0 0 0 0 0 0 0 0 0 0 0 0 0 0 0 0 0 0 0 0 0 0 0 0 0 0 0 0 0 0 0 0 0 0 0 0 0 0 0 0 0 0 0 0 0 0 0 0 0 0 0 0 1752 1672 1635 1672 1635 1752 1839 1839 1887 2044 2102 2102 2102 2164 1989 1936 1936 2453 1795 1672 1795 1795 1795 1795 1936 1936 2102 2164 2299 2164 2230 2299 2453 2453 2374 2374 2230 2299 2374 2102 2102 2164 2102 2102 2164 2230 2164 2164 2102 1936 1936 2044 1989 1936 1887 1887 1887 1936 2044 1989 2164 2164 2044 2102 2102 2164 2102 2102 2299 1839 1839 0 2044 1989 1711 1887 1936 1989 1839 0 0 0 0 0 0 0 0 0 0 0 0 0 443 0 0 0 0 0 0 0 0 0 0 0 0 0 0 0 0 0 1839 0 0 1752 1752 1752 1752 1795 1711 1672 1795 1672 1672 1711 1752 1711 1752 1711 0 1989 1887 1752 1635 1501 1415 1415 1415 1314 1415 1501 1565 1533 1443 1415 1362 1362 1388 1291 1291 1132 1098 1082 1082 1098 1022 897 897 897 876 908 876 908 897 855 836 817 817 808 791 782 750 721 707 700 675 675 669 681 675 681 675 681 681 694 694 694 700 700 700 707 707 700 700 700 735 721 700 700 675 0 1247 1226 1226 1149 1115 1098 1098 1036 0 0 0 0 799 766 774 774 758 766 782 766 791 750 0 0 0 0 0 0 0 0 0 0 0 0 0 0 0 0 0 0 0 0 0 0 968 931 0 0 0 0 0
    0 0 0 0 0 0 0 0 0 0 0 0 0 0 0 0 0 0 0 0 0 0 0 0 0 0 0 0 0 0 0 0 0 0 0 0 0 0 0 0 0 0 0 0 0 0 0 0 0 0 0 0 0 0 0 0 0 0 0 0 0 0 0 0 0 0 0 0 0 1752 1711 1672 1672 1635 1711 1795 1795 1839 2044 2044 2044 2044 2102 1989 1936 1936 2453 1795 1711 1795 1795 1795 1795 1887 1887 2044 2102 2230 2102 2230 2230 2453 2453 2453 2374 2374 2299 2374 2230 2164 2164 2044 2044 2102 2102 2164 2102 1989 1936 1936 2044 1989 1989 1936 1936 1936 1936 2044 2044 2164 2164 2044 2102 2164 2164 2164 2164 2299 1795 1795 0 0 0 0 0 1887 0 0 1839 0 0 0 0 0 0 0 0 0 0 0 457 451 0 0 0 0 0 0 0 0 0 0 0 0 0 0 0 0 0 1839 0 1752 1752 1752 1711 1752 1795 1711 1672 1795 1672 1635 1672 1711 1672 1752 1635 1711 1839 1795 1711 1501 1415 1338 1338 1338 1291 1362 1415 1533 1533 1443 1388 1338 1338 1362 1268 1226 1066 1036 1036 1051 1066 994 876 897 876 865 886 855 865 855 836 817 808 799 791 766 750 735 721 707 700 681 687 681 681 681 687 681 694 694 700 700 707 714 714 728 728 728 735 728 735 743 782 0 0 0 1268 1314 1247 1226 1149 1098 1082 1082 1036 0 0 0 0 799 766 766 774 758 766 774 766 791 750 0 0 0 0 0 0 0 0 0 0 0 0 0 0 0 0 0 0 0 0 0 0 0 0 0 0 0 0 0
    0 0 0 0 0 0 0 0 0 0 0 0 0 0 0 0 0 0 0 0 0 0 0 0 0 0 0 0 0 0 0 0 0 0 0 0 0 0 0 0 0 0 0 0 0 0 0 0 0 0 0 0 0 0 0 0 0 0 0 0 0 0 0 0 0 0 0 0 0 1795 1752 1711 1711 1672 1711 1795 1795 1839 1989 2044 2102 2102 2164 2044 1887 1887 2453 1795 1711 1795 1752 1795 1752 1839 1839 1936 1989 2102 2044 2102 2164 2299 2299 2299 2453 2374 2374 2453 2230 2230 2164 2044 2102 2044 2044 2044 1989 1936 1887 1936 2044 1936 1936 1936 1936 1936 1936 2044 2044 2230 2164 2044 2102 2164 2230 2164 2164 2299 1795 1752 0 0 0 0 0 0 0 0 1839 2044 1936 0 0 2374 2453 2102 1989 0 0 0 465 0 0 0 0 0 0 0 0 0 0 1599 0 0 0 0 0 0 0 1839 0 1752 1752 1752 1711 1752 1752 1672 1635 1752 1599 1533 1565 1635 1599 1711 1565 1635 1795 1752 1565 1415 1362 1314 1314 1314 1268 1338 1388 1501 1533 1415 1338 1291 1291 1314 1226 1149 1051 1008 1008 1022 1022 955 865 886 865 855 865 845 845 836 826 808 799 791 774 750 743 728 714 707 707 687 694 687 694 694 694 700 707 707 707 707 721 721 728 758 743 735 735 735 743 750 0 1362 1338 1362 1314 1338 1268 1247 1149 1098 1082 1066 1036 0 0 0 0 0 766 766 774 758 766 774 758 791 743 0 0 0 0 0 0 0 0 0 0 0 0 0 0 0 0 0 0 0 0 0 0 0 0 0 0 0 0 0
    0 0 0 0 0 0 0 0 0 0 0 0 0 0 0 0 0 0 0 0 0 0 0 0 0 0 0 0 0 0 0 0 0 0 0 0 0 0 0 0 0 0 0 0 0 0 0 0 0 0 0 0 0 0 0 0 0 0 0 0 0 0 0 0 0 0 0 0 0 1839 1795 1795 1795 1752 1752 1839 1839 1839 1989 2044 1989 1989 2044 2044 1887 1887 2299 1839 1795 1795 1795 1795 1752 1795 1795 1936 1989 2044 2044 2102 2230 2299 2230 2230 2299 2230 2299 2299 2102 2164 2102 2044 2102 2044 2102 2102 1989 1936 1887 1887 1936 1887 1887 1887 1887 1887 1989 2044 2044 2299 2230 2102 2102 2164 2164 2164 2164 2230 1795 1711 0 0 0 0 0 0 0 0 1839 1989 1989 2102 2044 2230 2230 2044 1989 2102 1936 1839 0 0 1672 1565 1533 0 0 0 0 0 0 1672 1795 0 2102 0 0 1672 1936 1887 0 1795 1795 1752 1711 1711 1752 1672 1599 1711 1501 1415 1443 1533 1471 1635 1415 1471 1711 1672 0 1362 1362 1291 1314 1291 1268 1291 1338 1501 1501 1388 1314 1149 1226 1247 1187 1098 1036 994 994 1008 1008 955 865 886 865 855 865 845 826 817 817 799 791 782 766 743 735 728 721 714 707 694 700 694 700 700 700 707 714 714 721 721 728 728 735 766 743 743 743 743 750 766 1362 1362 1338 1362 1314 1362 1268 1247 1187 1132 1098 1098 1036 0 0 0 0 0 766 0 766 758 766 774 758 0 0 0 0 0 0 0 0 0 0 0 0 0 0 0 0 0 0 0 0 0 0 0 0 0 0 0 0 0 0 0
    0 0 0 0 0 0 0 0 0 0 0 0 0 0 0 0 0 0 0 0 0 0 0 0 0 0 0 0 0 0 0 0 0 0 0 0 0 0 0 0 0 0 0 0 0 0 0 0 0 0 0 0 0 0 0 0 0 0 0 0 0 0 0 0 0 0 0 0 0 1887 1839 1839 1887 1839 1839 1887 1795 1795 1887 1936 1936 1936 1936 1936 1887 1936 2102 1936 1887 1887 1887 1887 1839 1839 1839 2044 2102 2102 2102 2044 2164 2164 2044 2102 2102 2102 2102 2164 2044 2102 2044 2044 2102 2044 2102 2102 1989 1936 1887 1936 1989 1936 1936 1936 1936 1989 2044 2102 2044 2299 2299 2102 2102 2102 2164 2164 2164 2164 1752 1672 0 0 0 0 0 0 0 1711 1752 1887 1989 1989 1936 2164 2164 1989 1936 1989 1936 1887 1839 1795 1711 1599 1635 1565 0 0 0 0 1752 1752 1887 1989 2164 2102 1989 1752 1989 1887 0 1795 1795 1752 1711 1711 1752 1672 1599 1672 1415 1338 1338 1443 1362 1443 0 0 0 0 0 1362 1338 1291 1291 1268 1247 1247 1291 1443 1471 1338 1098 0 1066 1098 1082 1051 1036 981 994 994 1008 955 876 886 876 865 876 845 826 817 808 799 791 774 758 743 743 735 728 721 707 694 700 694 700 700 700 707 714 721 728 728 728 721 735 758 758 735 728 728 743 758 1338 1338 0 1291 1247 1291 1226 1226 1206 1206 1149 1187 1051 0 0 0 0 0 0 0 758 750 750 758 750 0 0 0 0 0 0 0 0 0 0 0 0 0 0 0 0 0 0 0 0 0 0 0 0 0 0 0 0 0 0 0
    0 0 0 0 0 0 0 0 0 0 0 0 0 0 0 0 0 0 0 0 0 0 0 0 0 0 0 0 0 0 0 0 0 0 0 0 0 0 0 0 0 0 0 0 0 0 0 0 0 0 0 0 0 0 0 0 0 0 0 0 0 0 0 0 0 0 0 0 0 1936 1887 1887 1936 1887 1887 1887 1887 1839 1887 1936 1936 1936 1936 1989 1936 1936 2044 2044 1936 1936 1989 1936 1839 1887 1936 2164 2102 2102 2102 1989 2102 2102 1989 1989 2044 2044 2044 2102 2044 2044 2044 1989 2044 2044 2044 1989 1989 1936 1887 1936 1989 1936 1936 1936 1936 1936 2044 2044 2044 2230 2230 2102 2044 2102 2102 2102 2102 2164 1752 1672 0 0 0 0 0 0 1711 1672 1711 1795 1936 1936 1887 2102 2044 1936 1936 1989 1936 1839 1839 1839 1711 1599 1635 1533 1471 0 0 0 0 1752 1936 1989 2102 2102 2044 1795 1989 1887 0 1839 1839 1752 1752 1711 1752 1635 1565 1635 1362 1291 1291 1362 1268 0 0 0 0 0 0 1291 1291 1268 1268 1247 1247 1226 1226 1314 0 0 865 817 981 1022 1022 1008 1008 968 981 994 1008 968 876 897 865 855 865 836 817 799 791 782 782 774 766 750 750 743 735 728 714 694 700 700 707 707 707 714 721 735 743 743 735 728 743 774 766 735 728 735 735 750 1388 1362 0 0 1168 1168 1187 1149 1149 1187 1149 0 0 0 0 0 0 0 0 0 0 0 0 0 0 0 0 0 0 0 0 2374 0 0 0 0 0 0 0 0 0 0 0 0 0 0 0 0 0 0 0 0 0 0 0 0
    0 0 0 0 0 0 0 0 0 0 0 0 0 0 0 0 0 0 0 0 0 0 0 0 0 0 0 0 0 0 0 0 0 0 0 0 0 0 0 0 0 0 0 0 0 0 0 0 0 0 0 0 0 0 0 0 0 0 0 0 0 0 0 0 0 0 0 0 0 1936 1936 1936 1989 1936 1936 1887 1887 1839 1887 1936 1936 1887 1936 1936 1936 1887 2044 2102 1989 1989 2044 1989 1887 1936 1989 2230 2164 2164 2102 2044 2164 2102 1989 1989 2044 2044 1989 2102 2044 1989 1989 1936 1989 1936 1989 1936 1936 1887 1839 1887 1936 1887 1887 1887 1936 1936 1989 2044 2044 2230 2230 2102 2044 2044 2102 2102 2102 2164 1752 1672 0 0 0 0 0 0 1752 1711 1752 1839 1989 1989 1936 2102 2102 1989 1989 1989 1989 1887 1887 1887 1711 1635 1672 1565 1443 0 0 0 0 0 1989 2044 2102 2044 2044 1839 1989 1887 1839 1839 1839 1752 1752 1711 1752 1635 1565 1599 1362 1291 1268 1291 1066 0 0 0 0 0 0 1291 1291 1247 1268 1268 1247 1226 1226 0 0 0 845 799 931 931 943 955 968 943 968 981 994 968 876 886 845 826 836 817 799 791 774 774 774 774 766 750 750 743 735 735 707 700 707 707 714 707 714 721 728 743 743 743 735 728 750 750 743 714 714 714 714 721 0 0 0 0 1098 1036 1115 1066 1098 1168 1132 0 0 0 0 0 387 0 0 0 0 0 0 0 0 0 0 0 0 0 0 0 0 0 0 0 0 0 0 0 0 0 0 0 0 525 507 507 507 504 0 0 0 0 0 0
    0 0 0 0 0 0 0 0 0 0 0 0 0 0 0 0 0 0 0 0 0 0 0 0 0 0 0 0 0 0 0 0 0 0 0 0 0 0 0 0 0 0 0 0 0 0 0 0 0 0 0 0 0 0 0 0 0 0 0 0 0 0 0 0 0 0 0 0 0 1936 1936 1989 1989 1936 1936 1887 1887 1795 1839 1936 1887 1887 1887 1936 1936 1936 2044 2102 1989 2044 2102 2044 1936 1936 1989 2164 2102 2102 2044 1989 2102 2102 1936 1936 1989 1989 1989 2044 1989 1989 1936 1936 1989 1936 1936 1936 1887 1887 1839 1839 1887 1839 1839 1887 1887 1887 1989 2044 2044 2230 2230 2102 2044 2044 2102 2102 2102 2164 1752 1672 0 0 0 0 0 0 0 1752 1711 1795 1989 1989 1936 2102 2102 1989 1989 1989 2044 1936 1887 1887 1752 1672 1711 1599 1443 0 191 0 0 1936 1989 2102 2164 2102 2044 1887 2044 1936 1839 1887 1887 1795 1795 1752 1795 1672 1599 1635 1362 1291 1268 0 1008 826 808 808 766 0 0 1226 1226 1168 1132 1132 1132 1098 1082 0 968 817 728 707 0 855 855 886 931 955 1008 0 1839 1362 0 0 0 808 808 799 774 766 758 758 766 774 750 743 743 743 735 735 707 700 707 707 714 707 721 721 728 735 743 743 743 735 750 750 735 707 707 700 700 700 0 681 0 634 0 0 0 0 0 0 0 293 288 0 0 0 0 799 782 0 0 0 750 735 0 0 0 0 0 0 0 0 0 0 0 0 0 0 0 0 0 0 0 0 0 521 504 500 500 497 0 0 0 0 0 0
    0 0 0 0 0 0 0 0 0 0 0 0 0 0 0 0 0 0 0 0 0 0 0 0 0 0 0 0 0 0 0 0 0 0 0 0 0 0 0 0 0 0 0 0 0 0 0 0 0 0 0 0 0 0 0 0 0 0 0 0 0 0 0 0 0 0 0 0 0 1989 1989 1989 2044 1936 1936 1887 1887 1839 1887 1936 1887 1887 1936 1989 1989 1936 2044 2164 2044 2044 2164 2102 1936 1989 1989 2102 2044 2044 2044 1936 2044 1989 1887 1887 1936 1989 1936 2044 1989 1989 1936 1936 1936 1936 1936 1936 1887 1887 1839 1839 1887 1839 1839 1887 1936 1936 1989 2044 2044 2230 2230 2102 2044 2102 2102 2102 2102 2164 1752 1672 0 0 0 0 0 0 1711 1599 1565 1565 1936 1936 1936 2102 2044 1989 1989 2044 2044 1936 1936 1936 1752 1672 1711 1599 1443 1388 0 0 1936 1989 2044 2102 2164 2102 2102 1887 2044 1936 1887 1936 1887 1795 1795 1752 1839 1672 0 1635 1291 1098 1008 1008 955 845 808 799 782 758 774 0 0 955 931 931 955 955 955 994 876 808 799 0 0 0 0 876 981 0 0 0 0 1051 994 908 826 826 836 836 774 758 750 766 766 766 750 735 743 750 750 750 700 700 714 714 721 714 721 728 728 743 750 750 743 735 750 758 721 700 694 694 694 694 707 669 0 651 0 0 0 0 663 669 0 0 293 0 714 728 743 766 766 766 774 766 758 743 750 0 0 743 735 766 735 876 855 0 865 0 0 0 0 0 0 537 514 0 0 0 493 493 493 0 0 0 0 0 0 0
    0 0 0 0 0 0 0 0 0 0 0 0 0 0 0 0 0 0 0 0 0 0 0 0 0 0 0 0 0 0 0 0 0 0 0 0 0 0 0 0 0 0 0 0 0 0 0 0 0 0 0 0 0 0 0 0 0 0 0 0 0 0 0 0 0 0 0 0 0 1936 1989 1989 2044 1936 1936 1887 1887 1839 1887 1936 1936 1887 1936 2044 2044 1989 2044 2230 2102 2102 2230 2164 1989 1989 1989 2102 2044 2044 2044 1887 1989 1989 1887 1839 1936 1936 1936 1989 1989 1989 1936 1936 1989 1936 1936 1936 1887 1887 1839 1839 1887 1887 1887 1887 1936 1936 1989 2044 2044 2230 2230 2164 2044 2102 2044 2102 2102 2230 1752 1672 0 0 0 0 0 0 0 0 1752 0 2044 1989 1936 2164 2044 1989 1989 2044 2102 1936 1989 1989 1752 1711 1752 1599 1415 1362 0 0 0 2044 2044 2164 2230 2164 2102 1936 2044 1936 1887 1936 1887 1795 1839 1795 0 0 0 0 1187 1008 955 981 931 865 817 799 791 758 735 728 714 721 750 758 766 791 799 808 808 799 0 0 0 0 0 0 0 0 0 0 994 968 931 919 845 855 865 855 808 782 743 774 774 758 758 743 750 750 758 758 700 707 721 721 721 721 721 735 743 758 758 750 750 743 758 766 714 694 687 681 681 681 687 657 0 645 598 0 0 0 645 651 645 0 0 714 728 728 743 758 750 758 766 758 758 743 750 743 735 743 728 743 735 855 845 836 836 845 0 0 0 529 545 541 504 0 0 0 0 490 490 0 0 0 0 0 0 0
    0 0 0 0 0 0 0 0 0 0 0 0 0 0 0 0 0 0 0 0 0 0 0 0 0 0 0 0 0 0 0 0 0 0 0 0 0 0 0 0 0 0 0 0 0 0 0 0 0 0 0 0 0 0 0 0 0 0 0 0 0 0 0 0 0 0 0 0 0 1989 1989 2044 2102 1989 1989 1936 1936 1887 1887 1936 1936 1887 1936 2044 2044 1989 1989 2230 2102 2164 2299 2299 2044 2044 2044 2164 2102 2102 2102 1936 2102 2044 1887 1839 1887 1936 1887 1936 1936 1936 1887 1887 1936 1936 1936 1887 1887 1887 1795 1839 1887 1839 1839 1887 1936 1936 1989 2044 2044 2230 2230 2164 2044 2102 2044 2044 2044 2299 1752 1672 0 0 0 0 0 0 0 0 0 0 2164 2044 1936 2164 2102 1989 1989 2044 2102 1936 1989 0 1752 1711 1752 1635 1415 0 0 0 0 2164 2102 2164 2230 2164 2102 1936 2102 1989 1887 1936 1887 1795 0 0 0 0 0 0 1036 981 931 955 908 876 817 799 808 758 714 728 721 714 750 750 758 774 774 791 791 791 0 0 0 0 0 0 0 0 0 0 0 0 0 0 0 0 0 0 0 0 0 758 774 766 766 758 766 766 774 782 700 687 714 721 721 721 721 735 743 750 758 750 750 743 750 766 721 700 694 687 681 681 687 657 0 0 603 0 0 0 645 657 651 0 0 714 721 721 735 743 743 750 750 743 743 735 750 735 728 735 721 728 728 0 845 0 0 0 0 0 0 533 561 549 0 0 0 0 0 0 0 0 0 0 0 0 0 0
    0 0 0 0 0 0 0 0 0 0 0 0 0 0 0 0 0 0 0 0 0 0 0 0 0 0 0 0 0 0 0 0 0 0 0 0 0 0 0 0 0 0 0 0 0 0 0 0 0 0 0 0 0 0 0 0 0 0 0 0 0 0 0 0 0 0 0 0 0 1989 1989 2044 2164 2044 2044 1936 1936 1887 1887 1936 1887 1839 1887 1989 2044 2044 2044 2164 2102 2164 2299 2299 2044 2044 2044 2230 2230 2230 2453 2044 2299 2164 1887 1887 1887 1887 1887 1936 1936 1936 1839 1887 1936 1936 1989 1936 1887 1887 1839 1839 1839 1839 1839 1887 1887 1936 1936 2044 2044 2230 2164 2164 2044 2044 2044 2044 2044 2374 1752 1672 0 0 0 0 0 0 0 0 0 0 0 1989 1936 2164 2044 1989 1989 2044 2102 1936 0 0 1711 1672 0 0 0 0 0 0 2102 2164 2044 2102 2164 2102 2102 1936 2102 1989 1936 1989 1887 1795 0 0 0 0 0 0 0 943 886 931 886 865 808 808 817 791 0 735 735 721 758 758 758 774 774 782 782 782 826 0 0 0 0 0 0 0 0 0 0 0 0 0 0 0 0 0 0 0 0 0 782 766 766 758 774 774 782 791 687 669 707 714 721 721 721 735 743 750 750 750 750 743 750 758 728 700 694 687 681 675 681 657 0 0 0 0 0 0 681 675 669 687 0 714 721 714 728 735 735 735 743 735 735 728 743 728 728 735 721 721 721 0 817 758 766 0 0 0 0 0 579 553 0 381 0 0 0 0 0 0 694 0 0 0 0 0
    0 0 0 0 0 0 0 0 0 0 0 0 0 0 0 0 0 0 0 0 0 0 0 0 0 0 0 0 0 0 0 0 0 0 0 0 0 0 0 0 0 0 0 0 0 0 0 0 0 0 0 0 0 0 0 0 0 0 0 0 0 0 0 0 0 0 0 0 0 1989 1989 2044 2102 2044 0 1936 1887 1839 0 1936 1887 1839 0 1989 2044 2044 2044 2299 2164 0 2299 2299 0 454 0 0 2102 0 0 0 0 0 0 0 1989 1936 1936 1989 2044 1887 1839 1887 1887 1887 1936 1887 1839 1839 1795 1839 1887 1839 1795 1839 1936 1936 1936 1989 1989 2102 2164 2102 1989 2044 2044 1989 2044 2453 1752 1711 0 0 0 0 0 0 0 0 0 0 0 1989 1989 2164 2044 1989 1989 2044 2102 0 178 0 1711 0 0 0 0 0 0 0 0 2164 2044 2044 2044 2044 2044 1936 2102 1936 1887 1936 1887 0 0 0 0 0 0 0 0 919 876 919 876 876 817 808 0 0 0 735 743 721 758 750 758 766 766 782 782 774 826 0 0 0 0 0 0 0 0 0 0 0 0 0 0 0 0 0 0 0 0 0 0 766 766 750 774 774 782 774 681 687 721 721 721 721 721 735 750 758 758 750 750 758 758 766 743 700 700 687 681 669 669 639 0 0 0 0 0 0 0 694 700 707 721 721 721 714 721 728 728 728 728 721 728 721 735 721 721 728 721 721 721 0 782 735 750 750 0 0 0 0 584 557 0 383 0 0 0 0 0 700 694 0 0 0 0 0
    0 0 0 0 0 0 0 0 0 0 0 0 0 0 0 0 0 0 0 0 0 0 0 0 0 0 0 0 0 0 0 0 0 0 0 0 0 0 0 0 0 0 0 0 0 0 0 0 0 0 0 0 0 0 0 0 0 0 0 0 0 0 0 0 0 0 0 0 0 1989 2044 2044 2102 2044 2102 1936 2102 1936 1936 1989 1936 1887 2044 2102 2299 2044 0 0 0 0 0 0 0 0 0 0 0 0 0 0 0 0 0 0 0 0 0 2102 2230 1989 1752 1839 1839 1839 1887 1795 1839 1795 1752 1795 1795 1752 1752 1795 1839 1795 1839 1936 1936 2102 2102 2102 1989 1989 1989 1989 2044 2453 1752 0 0 0 0 0 0 0 0 0 0 0 0 1989 2044 2230 2102 2044 2044 2044 0 0 179 179 0 0 0 0 0 0 0 0 0 0 1989 1989 2044 2044 2044 1936 2102 1936 1887 0 0 0 0 0 0 0 0 0 0 886 855 919 876 897 817 817 0 0 0 728 743 721 758 750 758 766 766 782 782 774 826 0 0 0 0 0 0 0 0 0 0 0 0 0 0 0 0 0 0 0 0 0 0 799 791 758 766 758 782 758 669 707 728 728 728 721 721 743 750 758 758 750 758 758 766 782 750 721 735 714 707 687 669 639 0 0 0 0 0 0 743 707 714 714 728 721 721 714 721 721 721 721 728 721 728 721 735 721 721 735 728 728 735 0 799 774 791 808 0 0 0 0 0 0 0 385 0 0 0 0 0 694 694 0 0 0 0 0
    0 0 0 0 0 0 0 0 0 0 0 0 0 0 0 0 0 0 0 0 0 0 0 0 0 0 0 0 0 0 0 0 0 0 0 0 0 0 0 0 0 0 0 0 0 0 0 0 0 0 0 0 0 0 0 0 0 0 0 0 0 0 0 0 0 0 0 0 0 1989 1989 2102 2102 1989 0 1887 1989 1839 0 2044 1795 0 0 0 0 0 0 0 0 0 0 0 0 0 0 0 0 0 0 0 0 0 0 0 0 0 0 0 0 1989 1672 1752 1795 1839 1839 1795 1795 1752 1635 0 1795 1795 1752 1795 1887 1839 1887 2102 1936 2102 2164 2102 1989 2044 1989 1989 1989 2374 0 0 0 0 0 0 0 0 0 0 0 0 0 0 0 0 0 0 0 0 0 0 0 0 0 0 0 0 0 0 0 0 0 0 0 1989 2044 2044 2044 1936 2044 1936 0 0 0 0 0 0 0 0 0 0 876 886 865 919 876 908 826 826 0 0 0 728 743 721 758 750 758 766 766 782 782 774 817 0 0 0 0 0 0 613 574 0 728 735 750 743 743 735 750 758 1008 968 897 876 845 845 0 0 0 0 0 0 618 714 735 735 735 728 721 743 750 758 758 750 750 750 758 782 750 728 735 714 707 700 681 634 0 0 0 0 817 0 766 721 721 721 728 728 728 721 728 728 721 728 728 721 728 728 735 728 728 735 735 728 750 758 808 0 0 855 0 981 0 0 0 0 0 383 0 0 0 0 0 687 687 0 0 0 0 0
    0 0 0 0 0 0 0 0 0 0 0 0 0 0 0 0 0 0 0 0 0 0 0 0 0 0 0 0 0 0 0 0 0 0 0 0 0 0 0 0 0 0 0 0 0 0 0 0 0 0 0 0 0 0 0 0 0 0 0 0 0 0 0 0 0 0 0 0 0 0 0 0 0 0 0 0 0 0 0 0 0 0 0 0 0 0 0 0 0 0 0 0 0 0 0 0 0 0 0 0 0 0 0 0 0 0 0 0 0 0 0 1887 1989 2044 0 0 1887 1839 1711 1839 1795 1752 1752 1839 1839 1887 0 2230 2044 2230 2230 2102 1989 2044 1936 1936 1936 0 0 0 0 0 0 0 0 0 0 0 0 0 0 0 0 0 0 103 103 103 0 0 0 0 0 0 0 0 0 0 0 0 0 0 0 0 0 0 0 1989 2102 1936 0 0 0 0 0 0 0 0 855 845 855 865 845 876 855 897 817 826 0 0 0 728 743 721 758 750 758 766 766 782 774 766 808 728 0 700 663 618 618 618 623 608 728 743 766 758 758 750 766 782 994 955 943 931 931 919 908 0 0 0 0 0 0 735 758 758 758 750 721 743 750 758 750 743 750 750 750 782 750 743 758 743 758 750 0 0 886 865 836 0 826 0 782 728 728 721 735 728 728 721 728 728 721 728 735 721 728 728 735 728 728 743 735 721 766 774 0 0 808 855 0 955 908 0 0 0 0 385 0 0 355 0 0 687 687 0 0 0 0 0
    0 0 0 0 0 0 0 0 0 0 0 0 0 0 0 0 0 0 0 0 0 0 0 0 0 0 0 0 0 0 0 0 0 0 0 0 0 0 0 0 0 0 0 0 0 0 0 0 0 0 0 0 0 0 0 0 0 0 0 0 0 0 0 0 0 0 0 0 0 0 0 0 0 0 0 0 0 0 0 0 0 0 0 0 0 0 0 0 0 0 0 0 4 0 0 0 0 0 0 0 0 0 0 0 0 0 0 0 0 0 0 0 0 0 0 0 0 0 0 0 0 0 0 0 0 0 0 0 0 0 0 0 0 0 0 0 0 0 0 0 0 0 0 0 0 0 0 0 0 0 0 0 0 0 0 0 0 0 0 0 0 0 0 0 0 0 0 0 0 0 0 0 0 0 0 0 0 0 0 0 0 0 0 0 808 855 826 855 845 836 845 845 836 845 826 876 817 817 0 0 0 728 743 721 758 750 758 766 766 774 766 750 799 707 714 694 657 623 629 634 657 657 728 743 774 766 766 774 782 799 955 943 908 897 908 897 886 886 0 0 0 0 0 758 774 774 774 774 728 750 750 758 750 743 743 743 743 782 758 750 774 782 799 799 826 0 0 919 845 0 817 0 791 735 735 728 735 735 728 721 728 721 721 721 728 721 728 728 735 728 735 735 735 721 774 766 0 791 791 0 0 897 0 0 0 0 0 389 0 0 0 0 0 687 687 0 0 0 0 0
    0 0 0 0 0 0 0 0 0 0 0 0 0 0 0 0 0 0 0 0 0 0 0 0 0 0 0 0 0 0 0 0 0 0 0 0 0 0 0 0 0 0 0 0 0 0 0 0 0 0 0 0 0 0 0 0 0 0 0 0 0 0 0 0 0 0 0 0 0 0 0 0 0 0 0 0 0 0 0 0 0 0 0 0 0 0 0 0 0 0 0 0 0 0 0 0 0 0 0 0 0 0 0 0 0 0 0 0 0 0 0 0 0 0 0 0 0 0 0 0 0 0 0 0 0 0 0 0 0 0 0 0 0 0 0 0 0 0 0 0 0 0 0 0 0 0 0 0 0 0 0 0 0 0 0 0 0 0 0 0 0 0 0 0 0 0 0 0 0 0 0 0 0 0 0 0 0 0 0 0 0 0 0 865 836 865 836 855 845 836 845 855 836 845 826 886 817 826 0 0 0 0 758 721 758 758 758 766 758 766 750 743 782 707 707 694 663 645 639 639 663 663 721 728 758 766 766 791 799 808 943 931 897 886 876 886 865 865 865 855 0 0 0 782 791 782 782 782 735 750 750 758 743 735 743 743 735 774 750 750 782 791 799 799 0 0 0 0 0 0 0 0 782 735 743 735 743 743 728 721 721 721 721 721 721 714 721 721 735 721 728 735 735 721 782 0 0 0 0 0 0 0 0 0 0 0 0 389 0 0 0 0 0 681 687 0 0 0 0 0
    0 0 0 0 0 0 0 0 0 0 0 0 0 0 0 0 0 0 0 0 0 0 0 0 0 0 0 0 0 0 0 0 0 0 0 0 0 0 0 0 0 0 0 0 0 0 0 0 0 0 0 0 0 0 0 0 0 0 0 0 0 0 0 0 0 0 0 0 0 0 0 0 0 0 0 0 0 0 0 0 0 0 0 0 0 0 0 0 0 0 0 0 0 0 0 0 0 0 0 0 0 0 0 0 0 0 0 0 0 0 0 0 0 0 0 0 0 0 0 0 0 0 0 0 0 0 0 0 0 0 0 0 0 0 0 0 0 0 0 0 0 0 0 0 0 0 0 0 0 0 0 0 0 0 0 0 0 0 0 0 0 0 0 0 0 0 0 0 0 0 0 0 0 0 0 0 0 0 0 0 0 0 0 876 855 865 836 865 855 845 845 855 836 845 826 886 817 817 0 0 0 0 0 721 766 758 758 758 750 758 743 735 750 700 700 687 669 657 645 645 663 663 707 721 750 758 758 782 791 808 897 886 876 865 855 845 836 845 845 836 836 0 750 791 799 791 791 791 735 750 758 750 735 735 735 735 735 774 750 766 808 808 808 0 0 0 0 0 0 0 0 817 782 743 743 743 743 743 728 714 714 714 707 707 714 707 714 721 728 721 728 728 735 0 0 0 0 0 0 0 0 943 0 1051 0 0 0 0 0 0 0 0 0 681 694 0 0 0 0 0
    0 0 0 0 0 0 0 0 0 0 0 0 0 0 0 0 0 0 0 0 0 0 0 0 0 0 0 0 0 0 0 0 0 0 0 0 0 0 0 0 0 0 0 0 0 0 0 0 0 0 0 0 0 0 0 0 0 0 0 0 0 0 0 0 0 0 0 0 0 0 0 0 0 0 0 0 0 0 0 0 0 0 0 0 0 0 0 0 0 0 0 0 0 0 0 0 0 0 0 0 0 0 0 0 0 0 0 0 0 0 0 0 0 0 0 0 0 0 0 0 0 0 0 0 0 0 0 0 0 0 0 0 0 0 0 0 0 0 0 0 0 0 0 0 0 0 0 0 0 0 0 0 0 0 0 0 0 0 0 0 0 0 0 0 0 0 0 0 0 0 0 0 0 0 0 0 0 0 0 0 0 0 0 886 865 876 836 865 855 855 855 865 845 845 836 897 826 836 0 0 0 0 0 0 766 750 750 735 735 735 721 714 714 694 687 675 669 657 645 645 675 687 714 721 750 766 774 791 791 799 876 876 865 865 845 845 836 845 845 826 826 808 782 808 808 808 808 799 743 758 758 750 735 735 735 735 728 774 750 782 0 0 0 0 0 0 0 0 0 0 0 0 782 743 750 743 743 743 728 721 714 714 707 707 707 700 707 714 721 714 728 728 743 0 0 0 0 0 0 0 0 0 0 1051 1051 0 0 0 618 0 0 0 0 694 700 0 0 0 0 0
    0 0 0 0 0 0 0 0 0 0 0 0 0 0 0 0 0 0 0 0 0 0 0 0 0 0 0 0 0 0 0 0 0 0 0 0 0 0 0 0 0 0 0 0 0 0 0 0 0 0 0 0 0 0 0 0 0 0 0 0 0 0 0 0 0 0 0 0 0 0 0 0 0 0 0 0 0 0 0 0 0 0 0 0 0 0 0 0 0 0 0 0 0 0 0 0 0 0 0 0 0 0 0 0 0 0 0 0 0 0 0 0 0 0 0 0 0 0 0 0 0 0 0 0 0 0 0 0 0 0 0 0 0 0 0 0 0 0 0 0 0 0 0 0 0 0 0 0 0 0 0 0 0 0 0 0 0 0 0 0 0 0 0 0 0 0 0 0 0 0 0 0 0 0 0 0 0 0 0 0 0 0 0 897 886 897 845 865 855 845 845 855 836 826 826 845 817 817 817 808 0 0 0 0 0 0 0 0 714 714 707 700 700 694 687 687 681 669 663 669 687 700 721 735 766 782 782 799 799 817 855 855 855 855 845 845 826 836 836 826 826 817 791 808 808 817 808 799 743 758 750 743 728 728 728 728 728 766 743 0 0 0 0 0 0 0 0 0 0 0 0 0 0 791 766 743 743 743 728 728 714 707 707 700 707 700 714 721 721 721 728 728 743 0 0 0 0 0 0 0 0 0 0 1036 1051 0 0 0 0 0 0 0 0 0 700 0 0 0 0 0
    0 0 0 0 0 0 0 0 0 0 0 0 0 0 0 0 0 0 0 0 0 0 0 0 0 0 0 0 0 0 0 0 0 0 0 0 0 0 0 0 0 0 0 0 0 0 0 0 0 0 0 0 0 0 0 0 0 0 0 0 0 0 0 0 0 0 0 0 0 0 0 0 0 0 0 0 0 0 0 0 0 0 0 0 0 0 0 0 0 0 0 0 0 0 0 0 0 0 0 0 0 0 0 0 0 0 0 0 0 0 0 0 0 0 0 0 0 0 0 0 0 0 0 0 0 0 0 0 0 0 0 0 0 0 0 0 0 0 0 0 0 0 0 0 0 0 0 0 0 0 0 0 0 0 0 0 0 0 0 0 0 0 0 0 0 0 0 0 0 0 0 0 0 0 0 0 0 0 0 0 0 0 0 943 968 968 855 865 855 855 845 855 836 826 826 836 817 817 808 808 808 799 799 791 791 0 0 0 0 700 687 681 687 681 681 687 681 669 651 663 687 700 721 743 766 791 799 799 791 808 836 836 836 836 826 826 826 826 826 808 817 808 791 799 799 799 808 791 743 750 743 735 721 721 721 721 714 758 721 0 0 0 0 0 0 0 0 0 0 0 0 0 0 0 0 743 743 750 735 735 714 714 721 714 721 707 721 721 721 728 728 721 728 735 0 0 817 0 0 0 0 0 0 1051 0 0 0 0 0 0 0 687 0 700 687 0 0 0 0 0
    0 0 0 0 0 0 0 0 0 0 0 0 0 0 0 0 0 0 0 0 0 0 0 0 0 0 0 0 0 0 0 0 0 0 0 0 0 0 0 0 0 0 0 0 0 0 0 0 0 0 0 0 0 0 0 0 0 0 0 0 0 0 0 0 0 0 0 0 0 0 0 0 0 0 0 0 0 0 0 0 0 0 0 0 0 0 0 0 0 0 0 0 0 0 0 0 0 0 0 0 0 0 0 0 0 0 0 0 0 0 0 0 0 0 0 0 0 0 0 0 0 0 0 0 0 0 0 0 0 0 0 0 0 0 0 0 0 0 0 0 0 0 0 0 0 0 0 0 0 0 0 0 0 0 0 0 0 0 0 0 0 0 0 0 0 0 0 0 0 0 0 0 0 0 0 0 0 0 0 0 0 0 0 1022 1022 1022 886 886 886 876 876 876 855 836 836 845 817 808 808 808 808 799 791 791 791 808 743 735 721 714 694 694 694 687 687 687 687 681 675 694 700 714 721 735 766 782 791 808 791 799 826 826 817 817 817 817 808 817 808 799 808 808 791 799 799 799 799 799 743 750 735 721 707 707 707 707 707 743 707 0 0 0 0 0 0 471 0 0 0 0 0 0 0 0 0 0 0 0 721 728 714 721 721 714 714 707 714 721 721 714 721 714 721 728 0 774 799 0 0 0 0 0 0 0 0 0 0 0 0 0 728 707 694 700 681 0 0 0 0 0
    0 0 0 0 0 0 0 0 0 0 0 0 0 0 0 0 0 0 0 0 0 0 0 0 0 0 0 0 0 0 0 0 0 0 0 0 0 0 0 0 0 0 0 0 0 0 0 0 0 0 0 0 0 0 0 0 0 0 0 0 0 0 0 0 0 0 0 0 0 0 0 0 0 0 0 0 0 0 0 0 0 0 0 0 0 0 0 0 0 0 0 0 0 0 0 0 0 0 0 0 0 0 0 0 0 0 0 0 0 0 0 0 0 0 0 0 0 0 0 0 0 0 0 0 0 0 0 0 0 0 0 0 0 0 0 0 0 0 0 0 0 0 0 0 0 0 0 0 0 0 0 0 0 0 0 0 0 0 0 0 0 0 0 0 0 0 0 0 0 0 0 0 0 0 0 0 0 0 0 0 0 0 0 1022 1022 1008 876 876 876 865 865 865 845 826 826 845 817 808 808 799 799 799 791 782 774 799 735 728 721 714 700 700 700 700 700 700 707 700 694 714 721 721 735 743 774 774 782 808 791 799 817 808 808 799 808 799 799 799 791 791 799 791 791 791 791 799 799 808 743 750 728 707 694 700 700 700 700 728 700 0 0 0 0 0 0 0 459 0 0 0 0 0 0 0 0 0 0 0 700 714 707 707 714 707 700 700 714 714 714 714 714 714 721 728 0 0 0 0 0 0 0 0 0 0 0 0 0 0 0 0 728 707 700 700 681 0 0 0 0 0
    0 0 0 0 0 0 0 0 0 0 0 0 0 0 0 0 0 0 0 0 0 0 0 0 0 0 0 0 0 0 0 0 0 0 0 0 0 0 0 0 0 0 0 0 0 0 0 0 0 0 0 0 0 0 0 0 0 0 0 0 0 0 0 0 0 0 0 0 0 0 0 0 0 0 0 0 0 0 0 0 0 0 0 0 0 0 0 0 0 0 0 0 0 0 0 0 0 0 0 0 0 0 0 0 0 0 0 0 0 0 0 0 0 0 0 0 0 0 0 0 0 0 0 0 0 0 0 0 0 0 0 0 0 0 0 0 0 0 0 0 0 0 0 0 0 0 0 0 0 0 0 0 0 0 0 0 0 0 0 0 0 0 0 0 0 0 0 0 0 0 0 0 0 0 0 0 0 0 0 0 0 0 0 1022 1022 994 876 886 876 876 876 876 855 845 836 845 817 817 817 808 799 808 799 791 782 799 735 728 721 714 700 707 707 707 707 700 707 707 700 721 721 721 735 750 774 766 774 799 782 782 799 791 791 782 791 791 791 791 774 782 791 782 799 791 791 791 791 817 743 750 721 700 694 694 700 700 694 728 700 0 0 0 0 0 0 468 457 459 465 468 465 0 0 0 0 0 0 0 0 721 700 707 707 700 700 700 714 714 714 714 0 0 728 735 766 0 0 0 0 0 0 0 0 0 0 0 0 0 0 0 728 707 694 687 675 0 0 0 0 0
    0 0 0 0 0 0 0 0 0 0 0 0 0 0 0 0 0 0 0 0 0 0 0 0 0 0 0 0 0 0 0 0 0 0 0 0 0 0 0 0 0 0 0 0 0 0 0 0 0 0 0 0 0 0 0 0 0 0 0 0 0 0 0 0 0 0 0 0 0 0 0 0 0 0 0 0 0 0 0 0 0 0 0 0 0 0 0 0 0 0 0 0 0 0 0 0 0 0 0 0 0 0 0 0 0 0 0 0 0 0 0 0 0 0 0 0 0 0 0 0 0 0 0 0 0 0 0 0 0 0 0 0 0 0 0 0 0 0 0 0 0 0 0 0 0 0 0 0 0 0 0 0 0 0 0 0 0 0 0 0 0 0 0 0 0 0 0 0 0 0 0 0 0 0 0 0 0 0 0 0 0 0 0 0 994 994 886 876 876 886 876 865 855 845 845 845 817 817 808 808 808 808 799 791 782 808 750 735 728 728 714 714 714 714 714 707 714 714 714 735 743 735 758 774 791 774 782 791 774 766 782 782 774 774 782 774 782 782 766 782 782 782 791 791 791 791 791 817 750 750 721 694 687 694 694 700 694 714 700 0 0 0 0 0 0 0 446 0 0 0 462 0 0 0 0 0 0 0 0 0 694 694 694 681 687 687 707 707 707 0 0 0 728 0 0 0 0 0 0 0 0 0 0 0 0 0 0 0 0 0 0 707 675 675 669 0 0 0 0 0
    0 0 0 0 0 0 0 0 0 0 0 0 0 0 0 0 0 0 0 0 0 0 0 0 0 0 0 0 0 0 0 0 0 0 0 0 0 0 0 0 0 0 0 0 0 0 0 0 0 0 0 0 0 0 0 0 0 0 0 0 0 0 0 0 0 0 0 0 0 0 0 0 0 0 0 0 0 0 0 0 0 0 0 0 0 0 0 0 0 0 0 0 0 0 0 0 0 0 0 0 0 0 0 0 0 0 0 0 0 0 0 0 0 0 0 0 0 0 0 0 0 0 0 0 0 0 0 0 0 0 0 0 0 0 0 0 0 0 0 0 0 0 0 0 0 0 0 0 0 0 0 0 0 0 0 0 0 0 0 0 0 0 0 0 0 0 0 0 0 0 0 0 0 0 0 0 0 0 0 0 0 0 0 919 981 981 876 876 865 876 876 865 855 845 845 845 817 817 808 808 808 808 799 799 774 799 758 735 735 728 714 721 721 714 714 714 721 721 721 743 750 743 766 774 791 766 782 782 766 758 782 766 766 766 774 774 774 782 766 782 782 782 782 791 782 782 782 826 750 743 707 687 687 694 700 700 700 721 707 721 728 0 0 0 0 0 0 0 0 0 459 0 0 0 0 0 0 0 0 0 687 681 687 663 675 669 687 694 694 0 0 0 0 0 0 0 0 0 0 0 0 0 0 0 0 477 0 0 0 0 0 0 0 608 629 0 0 0 0 0
    0 0 0 0 0 0 0 0 0 0 0 0 0 0 0 0 0 0 0 0 0 0 0 0 0 0 0 0 0 0 0 0 0 0 0 0 0 0 0 0 0 0 0 0 0 0 0 0 0 0 0 0 0 0 0 0 0 0 0 0 0 0 0 0 0 0 0 0 0 0 0 0 0 0 0 0 0 0 0 0 0 0 0 0 0 0 0 0 0 0 0 0 0 0 0 0 0 0 0 0 0 0 0 0 0 0 0 0 0 0 0 0 0 0 0 0 0 0 0 0 0 0 0 0 0 0 0 0 0 0 0 0 0 0 0 0 0 0 0 0 0 0 0 0 0 0 0 0 0 0 0 0 0 0 0 0 0 0 0 0 0 0 0 0 0 0 0 0 0 0 0 0 0 0 0 0 0 0 0 0 0 0 0 886 955 968 865 855 865 876 865 865 845 845 845 845 817 817 808 808 808 808 808 799 774 799 758 750 743 728 721 721 721 721 721 721 728 728 735 743 758 750 774 782 799 782 791 791 782 782 791 774 774 774 774 774 774 774 758 774 782 782 782 791 774 782 782 826 750 721 694 681 687 694 700 700 694 714 707 721 721 0 0 0 0 0 0 0 0 0 0 0 0 0 0 0 0 0 0 0 687 681 681 657 675 657 681 687 687 0 0 0 0 0 0 0 0 0 0 0 0 0 0 0 0 481 0 0 0 0 0 0 593 593 613 0 0 0 0 0
    0 0 0 0 0 0 0 0 0 0 0 0 0 0 0 0 0 0 0 0 0 0 0 0 0 0 0 0 0 0 0 0 0 0 0 0 0 0 0 0 0 0 0 0 0 0 0 0 0 0 0 0 0 0 0 0 0 0 0 0 0 0 0 0 0 0 0 0 0 0 0 0 0 0 0 0 0 0 0 0 0 0 0 0 0 0 0 0 0 0 0 0 0 0 0 0 0 0 0 0 0 0 0 0 0 0 0 0 0 0 0 0 0 0 0 0 0 0 0 0 0 0 0 0 0 0 0 0 0 0 0 0 0 0 0 0 0 0 0 0 0 0 0 0 0 0 0 0 0 0 0 0 0 0 0 0 0 0 0 0 0 0 0 0 0 0 0 0 0 0 0 0 0 0 0 0 0 0 0 0 0 0 845 876 931 943 865 855 855 876 876 855 845 836 845 845 826 826 808 808 808 808 808 799 774 799 774 766 750 743 728 728 728 728 728 728 735 735 743 758 766 758 774 791 791 782 791 791 774 774 782 766 766 766 766 766 766 774 750 766 774 774 782 791 774 774 774 826 750 700 675 675 681 687 700 700 694 714 707 714 707 700 700 707 687 0 675 663 0 0 0 0 0 0 0 0 0 0 0 0 687 681 681 645 669 651 681 681 687 0 0 0 707 0 0 0 0 0 0 0 0 0 0 0 0 0 0 0 0 0 566 593 588 593 613 0 0 0 0 0
    0 0 0 0 0 0 0 0 0 0 0 0 0 0 0 0 0 0 0 0 0 0 0 0 0 0 0 0 0 0 0 0 0 0 0 0 0 0 0 0 0 0 0 0 0 0 0 0 0 0 0 0 0 0 0 0 0 0 0 0 0 0 0 0 0 0 0 0 0 0 0 0 0 0 0 0 0 0 0 0 0 0 0 0 0 0 0 0 0 0 0 0 0 0 0 0 0 0 0 0 0 0 0 0 0 0 0 0 0 0 0 0 0 0 0 0 0 0 0 0 0 0 0 0 0 0 0 0 0 0 0 0 0 0 0 0 0 0 0 0 0 0 0 0 0 0 0 0 0 0 0 0 0 0 0 0 0 0 0 0 0 0 0 0 0 0 0 0 0 0 0 0 0 0 0 0 0 0 0 0 0 826 826 845 876 886 855 855 865 876 886 876 865 855 855 865 836 836 817 817 808 817 808 791 774 799 774 766 750 743 735 735 735 735 728 735 735 743 743 758 758 758 774 782 782 774 782 782 766 774 774 758 758 758 758 758 766 766 743 766 774 774 774 791 774 774 774 817 774 694 657 663 675 687 700 700 694 714 714 721 707 700 707 714 0 0 687 0 0 0 0 0 0 0 0 0 0 0 0 0 694 687 681 645 669 663 687 687 694 0 0 0 721 0 0 0 0 0 0 0 0 0 0 0 0 0 0 0 0 0 579 588 593 603 618 0 0 0 0 0
    0 0 0 0 0 0 0 0 0 0 0 0 0 0 0 0 0 0 0 0 0 0 0 0 0 0 0 0 0 0 0 0 0 0 0 0 0 0 0 0 0 0 0 0 0 0 0 0 0 0 0 0 0 0 0 0 0 0 0 0 0 0 0 0 0 0 0 0 0 0 0 0 0 0 0 0 0 0 0 0 0 0 0 0 0 0 0 0 0 0 0 0 0 0 0 0 0 0 0 0 0 0 0 0 0 0 0 0 0 0 0 0 0 0 0 0 0 0 0 0 0 0 0 0 0 0 0 0 0 0 0 0 0 0 0 0 0 0 0 0 0 0 0 0 0 0 0 0 0 0 0 0 0 0 0 0 0 0 0 0 0 0 0 0 0 0 0 0 0 0 0 0 0 0 0 0 0 0 0 0 808 808 808 817 845 855 845 865 865 886 897 886 876 876 876 876 845 845 826 826 817 826 808 791 774 791 782 766 758 743 743 743 743 750 735 735 750 750 758 766 774 774 782 791 791 782 782 782 766 774 774 750 758 750 750 750 758 766 743 758 766 766 774 782 774 774 766 808 782 700 663 651 675 681 694 700 700 721 728 735 714 700 707 714 0 0 0 0 0 0 0 0 0 0 0 0 0 0 0 694 694 687 675 651 675 687 700 700 700 0 0 0 735 766 0 0 0 0 0 0 0 0 0 0 0 0 0 0 0 0 584 588 598 613 623 0 0 0 0 0
    0 0 0 0 0 0 0 0 0 0 0 0 0 0 0 0 0 0 0 0 0 0 0 0 0 0 0 0 0 0 0 0 0 0 0 0 0 0 0 0 0 0 0 0 0 0 0 0 0 0 0 0 0 0 0 0 0 0 0 0 0 0 0 0 0 0 0 0 0 0 0 0 0 0 0 0 0 0 0 0 0 0 0 0 0 0 0 0 0 0 0 0 0 0 0 0 0 0 0 0 0 0 0 0 0 0 0 0 0 0 0 0 0 0 0 0 0 0 0 0 0 0 0 0 0 0 0 0 0 0 0 0 0 0 0 0 0 0 0 0 0 0 0 0 0 0 0 0 0 0 0 0 0 0 0 0 0 0 0 0 0 0 0 0 0 0 0 0 0 0 0 0 0 0 0 0 0 0 0 0 791 799 799 808 826 836 836 865 855 876 886 876 876 876 876 886 855 865 845 836 826 836 826 799 766 799 782 766 758 743 750 750 750 750 743 743 758 758 766 766 774 774 791 799 799 791 799 791 774 782 774 750 758 750 750 750 758 766 743 750 766 758 774 782 774 766 766 799 791 714 714 687 687 675 681 694 687 0 0 721 694 694 0 0 0 0 0 743 0 0 0 0 0 0 0 0 0 0 0 0 687 681 663 657 681 707 707 707 714 0 0 0 750 0 0 0 0 0 0 0 0 0 0 0 0 0 0 0 0 0 584 588 598 618 634 0 0 0 0 0
    0 0 0 0 0 0 0 0 0 0 0 0 0 0 0 0 0 0 0 0 0 0 0 0 0 0 0 0 0 0 0 0 0 0 0 0 0 0 0 0 0 0 0 0 0 0 0 0 0 0 0 0 0 0 0 0 0 0 0 0 0 0 0 0 0 0 0 0 0 0 0 0 0 0 0 0 0 0 0 0 0 0 0 0 0 0 0 0 0 0 0 0 0 0 0 0 0 0 0 0 0 0 0 0 0 0 0 0 0 0 0 0 0 0 0 0 0 0 0 0 0 0 0 0 0 0 0 0 0 0 0 0 0 0 0 0 0 0 0 0 0 0 0 0 0 0 0 0 0 0 0 0 0 0 0 0 0 0 0 0 0 0 0 0 0 0 0 0 0 0 0 0 0 0 0 0 0 0 0 0 791 791 799 799 808 817 817 865 865 886 886 886 886 886 897 919 876 897 865 855 855 855 845 817 774 799 791 774 766 758 758 758 758 758 743 750 758 750 766 758 766 774 791 799 799 791 799 791 774 782 782 758 758 750 750 750 758 766 735 743 766 758 766 782 774 766 766 791 791 728 735 707 700 663 663 681 675 675 0 0 687 687 707 721 0 0 0 750 0 0 0 0 0 0 0 0 0 0 0 0 0 0 645 0 681 707 707 707 721 0 0 758 750 0 0 0 0 0 0 0 0 0 0 0 0 557 549 0 0 0 584 588 603 618 639 0 0 0 0 0
    0 0 0 0 0 0 0 0 0 0 0 0 0 0 0 0 0 0 0 0 0 0 0 0 0 0 0 0 0 0 0 0 0 0 0 0 0 0 0 0 0 0 0 0 0 0 0 0 0 0 0 0 0 0 0 0 0 0 0 0 0 0 0 0 0 0 0 0 0 0 0 0 0 0 0 0 0 0 0 0 0 0 0 0 0 0 0 0 0 0 0 0 0 0 0 0 0 0 0 0 0 0 0 0 0 0 0 0 0 0 0 0 0 0 0 0 0 0 0 0 0 0 0 0 0 0 0 0 0 0 0 0 0 0 0 0 0 0 0 0 0 0 0 0 0 0 0 0 0 0 0 0 0 0 0 0 0 0 0 0 0 0 0 0 0 0 0 0 0 0 0 0 0 0 0 0 0 0 0 0 799 799 808 808 808 817 817 865 865 865 876 876 886 886 897 943 908 897 876 865 876 865 845 817 766 799 791 782 774 766 766 774 766 766 750 758 766 758 766 758 766 774 791 799 799 782 799 791 774 782 774 758 750 750 743 743 750 758 735 743 758 750 758 782 766 766 766 782 791 721 735 707 694 645 639 663 645 651 0 0 675 681 0 721 0 0 0 0 0 0 0 0 0 0 0 0 0 0 0 0 0 0 0 0 675 0 707 0 714 0 0 758 743 0 0 0 0 0 0 0 0 0 0 0 588 561 557 0 0 0 0 0 613 623 651 0 0 0 0 0
    0 0 0 0 0 0 0 0 0 0 0 0 0 0 0 0 0 0 0 0 0 0 0 0 0 0 0 0 0 0 0 0 0 0 0 0 0 0 0 0 0 0 0 0 0 0 0 0 0 0 0 0 0 0 0 0 0 0 0 0 0 0 0 0 0 0 0 0 0 0 0 0 0 0 0 0 0 0 0 0 0 0 0 0 0 0 0 0 0 0 0 0 0 0 0 0 0 0 0 0 0 0 0 0 0 0 0 0 0 0 0 0 0 0 0 0 0 0 0 0 0 0 0 0 0 0 0 0 0 0 0 0 0 0 0 0 0 0 0 0 0 0 0 0 0 0 0 0 0 0 0 0 0 0 0 0 0 0 0 0 0 0 0 0 0 0 0 0 0 0 0 0 0 0 0 0 0 0 0 791 817 817 817 817 817 817 817 908 897 897 931 943 943 931 943 968 968 955 943 943 931 908 865 826 758 791 782 782 782 766 774 774 766 774 750 758 766 758 766 750 766 774 782 791 782 782 791 782 774 782 774 758 750 750 735 735 743 758 735 735 758 743 758 782 766 766 766 774 791 721 728 700 687 639 629 663 639 0 0 0 0 0 0 0 0 0 0 0 0 0 0 0 0 0 0 0 0 0 0 0 0 0 0 0 0 0 0 0 714 0 0 750 735 0 0 0 0 0 0 0 0 0 0 0 0 557 0 0 0 0 0 0 623 629 657 0 0 0 0 0
    0 0 0 0 0 0 0 0 0 0 0 0 0 0 0 0 0 0 0 0 0 0 0 0 0 0 0 0 0 0 0 0 0 0 0 0 0 0 0 0 0 0 0 0 0 0 0 0 0 0 0 0 0 0 0 0 0 0 0 0 0 0 0 0 0 0 0 0 0 0 0 0 0 0 0 0 0 0 0 0 0 0 0 0 0 0 0 0 0 0 0 0 0 0 0 0 0 0 0 0 0 0 0 0 0 0 0 0 0 0 0 0 0 0 0 0 0 0 0 0 0 0 0 0 0 0 0 0 0 0 0 0 0 0 0 0 0 0 0 0 0 0 0 0 0 0 0 0 0 0 0 0 0 0 0 0 0 0 0 0 0 0 0 0 0 0 0 0 0 0 0 0 0 0 0 0 0 0 0 791 817 826 826 826 826 826 826 931 931 919 943 943 943 943 955 981 994 994 981 994 981 968 886 836 766 799 791 782 782 774 774 782 774 782 758 766 774 766 766 758 766 782 782 791 791 791 791 782 774 782 766 758 750 743 735 735 743 750 728 728 750 735 758 774 766 774 766 766 791 721 728 700 681 639 618 675 645 0 0 0 0 0 0 0 0 0 0 0 0 0 0 0 0 0 0 0 0 0 0 0 0 0 0 0 0 0 714 0 728 0 728 758 735 0 0 0 0 0 0 0 0 0 0 0 0 0 0 0 0 0 0 0 0 0 663 0 0 0 0 0
    0 0 0 0 0 0 0 0 0 0 0 0 0 0 0 0 0 0 0 0 0 0 0 0 0 0 0 0 0 0 0 0 0 0 0 0 0 0 0 0 0 0 0 0 0 0 0 0 0 0 0 0 0 0 0 0 0 0 0 0 0 0 0 0 0 0 0 0 0 0 0 0 0 0 0 0 0 0 0 0 0 0 0 0 0 0 0 0 0 0 0 0 0 0 0 0 0 0 0 0 0 0 0 0 0 0 0 0 0 0 0 0 0 0 0 0 0 0 0 0 0 0 0 0 0 0 0 0 0 0 0 0 0 0 0 0 0 0 0 0 0 0 0 0 0 0 0 0 0 0 0 0 0 0 0 0 0 0 0 0 0 0 0 0 0 0 0 0 0 0 0 0 0 0 0 0 0 0 0 791 817 817 826 826 826 826 826 968 968 968 994 994 981 968 981 981 994 994 994 1008 1008 994 919 836 774 799 791 782 782 774 782 782 774 791 766 766 774 766 766 758 766 782 774 782 782 774 782 774 758 766 758 750 743 735 728 728 735 743 728 728 743 735 758 766 774 774 766 758 791 721 735 700 681 634 613 645 0 0 0 0 0 0 0 0 0 0 0 0 0 0 0 0 0 0 0 0 0 0 0 0 0 0 623 0 0 0 721 721 735 0 743 766 750 791 0 0 0 0 0 2453 0 0 0 0 0 0 0 0 0 0 0 0 0 0 669 0 0 0 0 0
    0 0 0 0 0 0 0 0 0 0 0 0 0 0 0 0 0 0 0 0 0 0 0 0 0 0 0 0 0 0 0 0 0 0 0 0 0 0 0 0 0 0 0 0 0 0 0 0 0 0 0 0 0 0 0 0 0 0 0 0 0 0 0 0 0 0 0 0 0 0 0 0 0 0 0 0 0 0 0 0 0 0 0 0 0 0 0 0 0 0 0 0 0 0 0 0 0 0 0 0 0 0 0 0 0 0 0 0 0 0 0 0 0 0 0 0 0 0 0 0 0 0 0 0 0 0 0 0 0 0 0 0 0 0 0 0 0 0 0 0 0 0 0 0 0 0 0 0 0 0 0 0 0 0 0 0 0 0 0 0 0 0 0 0 0 0 0 0 0 0 0 0 0 0 0 0 0 0 0 0 808 808 826 826 826 836 836 994 1008 994 1022 1008 994 968 968 968 981 981 994 1008 1022 1008 955 836 782 808 791 782 791 782 782 782 782 791 774 774 782 766 766 750 766 782 774 782 782 774 782 774 766 766 758 750 743 728 728 721 728 735 728 721 735 735 750 758 766 766 766 750 791 721 735 707 681 634 608 0 0 3679 2943 2537 0 0 0 0 0 0 0 0 0 0 0 0 0 0 0 0 0 0 0 0 0 0 623 669 707 728 721 728 743 743 750 774 758 799 0 0 0 0 0 2299 2164 0 0 0 0 0 0 0 0 0 0 0 0 0 687 0 0 0 0 0
    0 0 0 0 0 0 0 0 0 0 0 0 0 0 0 0 0 0 0 0 0 0 0 0 0 0 0 0 0 0 0 0 0 0 0 0 0 0 0 0 0 0 0 0 0 0 0 0 0 0 0 0 0 0 0 0 0 0 0 0 0 0 0 0 0 0 0 0 0 0 0 0 0 0 0 0 0 0 0 0 0 0 0 0 0 0 0 0 0 0 0 0 0 0 0 0 0 0 0 0 0 0 0 0 0 0 0 0 0 0 0 0 0 0 0 0 0 0 0 0 0 0 0 0 0 0 0 0 0 0 0 0 0 0 0 0 0 0 0 0 0 0 0 0 0 0 0 0 0 0 0 0 0 0 0 0 0 0 0 0 0 0 0 0 0 0 0 0 0 0 0 0 0 0 0 0 0 0 0 0 817 817 836 836 836 845 865 994 1008 1008 1022 994 968 955 955 968 968 968 981 1008 1022 1008 994 855 782 808 791 782 791 791 791 791 791 799 791 782 791 774 774 750 766 782 782 782 791 782 791 782 774 774 758 750 735 721 721 714 721 735 728 721 735 728 743 758 758 758 758 743 782 728 758 714 687 639 0 0 0 4599 3199 2628 0 0 0 0 0 0 0 0 0 0 0 0 0 0 0 0 0 0 0 0 0 0 0 0 707 721 721 728 735 743 750 766 750 0 0 0 0 0 0 0 0 0 0 0 0 0 0 0 0 0 0 0 0 0 0 0 0 0 0 0</data></depth>
</opencv_storage>
