<?xml version="1.0"?>
<opencv_storage>
<gps_time_stamp>302972</gps_time_stamp>
<gps_x>-1.2415143966674805e+001</gps_x>
<gps_y>1.0978771209716797e+001</gps_y>
<gps_z>-2.0265495777130127e+000</gps_z>
<image_time_stamp>293861</image_time_stamp>
<depth type_id="opencv-matrix">
  <rows>78</rows>
  <cols>320</cols>
  <dt>s</dt>
  <data>
    0 0 0 0 0 0 0 0 0 0 0 0 0 0 0 0 0 0 0 0 0 0 0 0 0 0 0 0 0 0 0 0 0 0 0 0 0 0 0 0 0 0 0 0 0 0 0 0 0 0 0 0 0 0 0 0 0 0 0 0 0 0 0 0 0 0 0 0 0 1247 1247 1226 1247 1247 1268 1268 1291 1314 1362 1388 1443 1501 1501 1501 1501 1565 1565 1471 1533 1533 1565 1565 1599 1672 1635 1672 1711 1672 1711 1711 1795 1839 1839 1795 1795 1839 1839 1839 1839 1887 1887 1989 2164 2230 1989 2230 2044 2230 2164 2299 2299 2230 2230 2537 2230 2725 2374 2943 3066 3066 3066 3066 3199 3345 3199 3504 3873 3504 4329 4599 5661 0 0 0 0 0 0 0 0 0 0 0 0 0 0 0 0 0 0 0 0 0 0 0 0 0 0 0 0 0 0 0 0 6133 8177 8177 7359 7359 7359 6690 6133 6133 7359 6690 6133 6690 5256 4088 4599 3345 3199 3066 2830 2725 2164 2537 2453 2230 2299 2164 2164 2230 2102 2230 2044 2102 2044 2044 2044 2102 2102 2230 1989 1936 1839 1795 1711 1711 1565 1415 1471 1443 1415 1471 1471 1388 1314 0 1314 1268 1187 1206 1149 1082 1082 1132 1051 1036 1051 1115 1022 1008 994 968 931 919 886 886 886 876 865 865 845 855 855 855 845 865 865 876 876 886 865 836 826 826 758 694 694 694 0 95 95 675 669 663 687 675 675 0 663 675 639 639 639 623 608 598 593 593 593 579 570 570 561 561 557 545 549 0 545 541 545 0 537 525 533 518 518 514 518 511 504 497 493 0 0 0 0 0
    0 0 0 0 0 0 0 0 0 0 0 0 0 0 0 0 0 0 0 0 0 0 0 0 0 0 0 0 0 0 0 0 0 0 0 0 0 0 0 0 0 0 0 0 0 0 0 0 0 0 0 0 0 0 0 0 0 0 0 0 0 0 0 0 0 0 0 0 0 1226 1247 1226 1247 1247 1268 1268 1314 1338 1362 1415 1471 1533 1533 1533 1501 1599 1599 1471 1533 1565 1599 1565 1599 1672 1672 1672 1711 1672 1711 1711 1795 1839 1839 1795 1839 1839 1839 1839 1839 1887 1887 1936 2102 2164 1989 2164 2044 2230 2102 2299 2299 2299 2299 2537 2230 2725 2374 2943 3066 3066 3066 3066 3066 3345 3199 3504 3873 3345 3873 4088 5256 8177 0 0 0 0 0 0 0 0 0 0 0 0 0 0 0 0 0 0 0 0 0 0 0 0 0 0 0 0 0 0 0 7359 8177 8177 8177 8177 8177 6690 6690 6690 7359 7359 6690 6133 4906 3873 4599 3345 3199 2943 2725 2725 2164 2453 2374 2164 2299 2164 2230 2230 2102 2299 2102 2102 2102 2044 2044 2102 2044 2230 1989 1887 1795 1795 1711 1672 1565 1388 1501 1443 1415 1443 1443 1388 1291 0 1314 1247 1168 1206 1168 1082 1098 1149 1066 1051 1051 1115 1022 1008 994 968 919 919 908 886 886 876 865 855 845 855 855 855 845 865 865 876 876 886 855 836 826 826 750 694 694 694 0 95 95 675 669 663 681 669 675 0 657 669 634 634 639 0 608 593 588 0 593 574 570 566 557 557 557 0 549 0 541 537 537 0 533 525 529 518 518 514 514 511 504 493 490 0 0 0 0 0
    0 0 0 0 0 0 0 0 0 0 0 0 0 0 0 0 0 0 0 0 0 0 0 0 0 0 0 0 0 0 0 0 0 0 0 0 0 0 0 0 0 0 0 0 0 0 0 0 0 0 0 0 0 0 0 0 0 0 0 0 0 0 0 0 0 0 0 0 0 1226 1226 1226 1247 1247 1268 1268 1314 1338 1388 1443 1501 1565 1565 1565 1533 1599 1599 1533 1565 1565 1599 1565 1599 1672 1672 1711 1711 1672 1711 1711 1752 1795 1795 1795 1795 1795 1839 1839 1839 1887 1887 1936 2102 2102 1936 2164 2044 2230 2102 2299 2299 2299 2299 2537 2230 2725 2374 2943 3066 3066 3066 3066 0 3199 3199 3504 3873 3345 3679 3679 4329 7359 8177 0 0 0 0 0 0 0 0 0 0 0 0 0 0 0 0 0 0 0 0 0 0 0 0 0 0 0 0 0 0 0 0 0 0 0 8177 7359 7359 6690 7359 7359 6690 6133 4906 4088 4329 3345 3199 2943 2725 2725 2164 2453 2299 2102 2299 2230 2230 2230 2102 2299 2102 2102 2102 2044 1989 2044 2044 2164 1936 1887 1795 1795 1711 1711 1565 1388 1501 1471 1415 1443 1415 1362 1291 0 1291 1247 1168 1206 1168 1098 1098 1149 1066 1051 1066 1115 1022 1008 994 955 919 908 897 886 886 886 876 865 855 876 865 876 855 865 876 876 886 897 855 836 817 817 750 694 694 694 0 95 95 675 669 663 681 669 669 0 657 669 634 639 639 0 0 598 593 0 598 579 574 566 561 557 553 0 549 0 537 533 533 533 533 521 529 518 518 514 514 507 500 490 487 0 0 0 0 0
    0 0 0 0 0 0 0 0 0 0 0 0 0 0 0 0 0 0 0 0 0 0 0 0 0 0 0 0 0 0 0 0 0 0 0 0 0 0 0 0 0 0 0 0 0 0 0 0 0 0 0 0 0 0 0 0 0 0 0 0 0 0 0 0 0 0 0 0 0 1206 1226 1206 1226 1226 1247 1268 1314 1338 1388 1471 1565 1599 1635 1599 1533 1635 1599 1533 1565 1565 1565 1533 1565 1672 1672 1711 1711 1672 1711 1672 1752 1795 1795 1795 1795 1795 1887 1887 1887 1887 1936 1936 2102 2102 1936 2102 2044 2230 2102 2299 2299 2299 2299 2537 2299 2628 2374 2830 3066 3066 3066 3066 2943 3199 3066 3345 3873 3345 3504 3504 3679 6690 7359 8177 0 0 0 0 0 0 0 0 0 0 0 0 0 0 0 0 0 0 0 0 0 0 0 0 0 0 0 0 0 0 0 0 8177 8177 8177 6690 6690 6690 7359 6690 6133 5661 4906 4088 4088 3345 3199 3066 2830 2830 2164 2453 2299 2102 2299 2230 2299 2230 2102 2299 2102 2102 2164 2044 1989 1989 2044 2164 1936 1887 1795 1795 1711 1711 1599 1415 1565 1501 1415 1443 1415 1362 1268 0 1268 1247 1149 1187 1168 1098 1098 1149 1082 1066 1066 1098 1008 1008 994 955 908 908 886 886 876 886 865 855 855 865 865 865 845 865 865 865 876 876 845 826 808 817 750 694 694 0 0 95 95 675 663 663 681 663 669 0 651 669 634 645 651 0 0 0 598 0 0 584 579 566 561 557 553 0 545 537 537 533 533 529 529 521 525 514 514 507 507 500 493 487 484 0 0 0 0 0
    0 0 0 0 0 0 0 0 0 0 0 0 0 0 0 0 0 0 0 0 0 0 0 0 0 0 0 0 0 0 0 0 0 0 0 0 0 0 0 0 0 0 0 0 0 0 0 0 0 0 0 0 0 0 0 0 0 0 0 0 0 0 0 0 0 0 0 0 0 1206 1206 1206 1206 1226 1247 1247 1314 1362 1415 1471 1565 1635 1635 1635 1533 1635 1565 1565 1565 1565 1565 1533 1533 1635 1635 1711 1711 1635 1672 1672 1711 1752 1795 1795 1795 1839 1936 1936 1936 1936 1936 1936 2102 2102 1936 2102 2044 2230 2102 2230 2299 2230 2299 2537 2299 2628 2374 2830 3066 3066 3066 3066 2943 3066 3066 3345 3679 3345 3504 3345 3504 6133 7359 8177 0 0 0 0 0 0 0 0 0 0 0 0 0 0 0 0 0 0 0 0 0 0 0 0 0 0 0 0 0 0 0 0 0 0 8177 7359 7359 7359 7359 6690 6133 5661 4599 3873 3873 3345 3066 3066 2943 2943 2453 2628 2537 2230 2453 2299 2374 2374 2164 2374 2164 2164 2230 2044 2044 2044 2102 2164 1936 1936 1795 1795 1711 1711 1599 1415 1599 1501 1388 1415 1388 1338 1247 0 1268 1226 1149 1187 1168 1098 1098 1168 1082 1066 1066 1098 1008 994 994 955 908 908 908 897 886 886 865 865 865 876 876 865 845 855 865 865 865 865 836 808 799 808 750 694 694 0 0 95 95 675 663 663 681 663 663 219 0 669 639 645 651 0 639 0 0 0 0 0 579 566 557 553 549 537 545 537 533 529 529 529 529 518 521 507 507 500 500 497 490 484 481 0 0 0 0 0
    0 0 0 0 0 0 0 0 0 0 0 0 0 0 0 0 0 0 0 0 0 0 0 0 0 0 0 0 0 0 0 0 0 0 0 0 0 0 0 0 0 0 0 0 0 0 0 0 0 0 0 0 0 0 0 0 0 0 0 0 0 0 0 0 0 0 0 0 0 1206 1206 1206 1226 1247 1247 1268 1314 1362 1415 1501 1599 1635 1635 1635 1533 1635 1565 1599 1565 1565 1565 1533 1533 1635 1635 1711 1711 1635 1672 1672 1711 1752 1839 1795 1839 1839 1989 1989 1936 1989 1936 1936 2102 2102 1936 2102 2102 2230 2102 2230 2299 2230 2299 2537 2374 2628 2374 2830 2943 3066 3066 3066 2830 3066 3066 3345 3679 3504 3504 3504 3504 5661 6690 7359 0 0 0 0 0 0 0 0 0 0 0 0 0 0 0 0 0 0 0 0 0 0 0 0 0 0 0 0 0 0 0 0 0 0 0 7359 7359 7359 7359 6690 5661 5256 4599 3679 3679 3199 3066 2943 2830 2943 2537 2628 2628 2299 2453 2374 2374 2374 2164 2374 2164 2102 2164 1989 1989 1989 2044 2044 1887 1936 1839 1839 1752 1711 1635 1415 1599 1501 1388 1388 1362 1314 1226 0 1247 1206 1132 1187 1168 1098 1115 1168 1082 1066 1066 1115 1008 994 994 943 919 908 908 897 886 886 865 865 865 865 865 865 845 845 845 855 855 845 826 799 791 799 750 694 694 0 0 95 95 675 663 657 681 657 663 0 651 663 639 645 651 645 645 0 0 865 0 0 579 561 557 549 549 533 545 537 533 529 529 525 525 518 518 504 504 497 497 493 490 481 0 0 0 0 0 0
    0 0 0 0 0 0 0 0 0 0 0 0 0 0 0 0 0 0 0 0 0 0 0 0 0 0 0 0 0 0 0 0 0 0 0 0 0 0 0 0 0 0 0 0 0 0 0 0 0 0 0 0 0 0 0 0 0 0 0 0 0 0 0 0 0 0 0 0 0 1206 1226 1206 1226 1268 1268 1268 1338 1388 1443 1533 1599 1635 1635 1672 1565 1635 1565 1599 1599 1565 1565 1565 1565 1599 1635 1711 1711 1635 1672 1672 1711 1752 1839 1795 1839 1839 1989 1989 1936 1989 1936 1936 2044 2044 1936 2044 2102 2230 2102 2230 2299 2299 2299 2537 2453 2628 2374 2830 2943 3066 3066 3066 2830 2943 2943 3345 3679 3504 3504 3504 3504 5256 6690 7359 8177 8177 8177 8177 8177 0 0 0 0 0 0 0 0 0 0 0 0 0 0 0 0 0 0 0 0 0 0 0 0 0 0 0 0 0 0 8177 8177 8177 7359 6133 5256 4599 4329 3504 3679 3199 3066 3066 2830 2943 2725 2628 2725 2299 2453 2374 2374 2374 2164 2299 2230 2102 2164 1989 1989 1936 2044 1936 1795 1795 1752 1752 1672 1672 1599 1415 1635 1471 1362 1338 1338 1314 1206 0 1226 1187 1132 1168 1168 1098 1115 1168 1082 1066 1066 1098 1008 994 981 955 919 908 908 897 886 897 876 876 865 876 876 865 845 836 836 836 836 826 808 791 774 782 750 694 694 0 0 95 95 675 663 657 675 657 663 0 645 663 634 645 645 0 645 0 0 876 0 0 574 557 557 549 549 537 545 537 533 533 529 525 525 518 518 504 500 497 493 490 487 481 0 0 0 0 0 0
    0 0 0 0 0 0 0 0 0 0 0 0 0 0 0 0 0 0 0 0 0 0 0 0 0 0 0 0 0 0 0 0 0 0 0 0 0 0 0 0 0 0 0 0 0 0 0 0 0 0 0 0 0 0 0 0 0 0 0 0 0 0 0 0 0 0 0 0 0 1226 1226 1226 1247 1268 1291 1291 1338 1388 1415 1471 1599 1599 1599 1635 1565 1635 1533 1565 1565 1565 1565 1565 1565 1599 1635 1752 1711 1635 1672 1672 1711 1752 1839 1795 1839 1795 1989 1989 1989 1989 1989 1989 2044 2044 1936 2044 2102 2230 2102 2299 2299 2299 2299 2537 2537 2628 2453 2830 2943 3066 2943 3066 2830 2943 2830 3199 3504 3504 3504 3504 3504 5256 6133 7359 7359 7359 7359 7359 7359 0 0 0 0 0 0 0 0 0 0 0 0 0 0 0 0 0 0 0 0 0 0 0 0 0 0 0 0 0 0 0 0 0 7359 6133 4906 4329 3873 3345 3504 3199 3066 3066 2830 3066 2830 2725 2830 2374 2453 2374 2374 2453 2230 2230 2230 2102 2164 1989 1989 1936 1989 1887 1795 1752 1711 1711 1635 1635 1565 1443 1635 1471 1362 1314 1291 1291 1187 0 1226 1168 1115 1149 1168 1115 1115 1168 1082 1082 1082 1098 1008 994 994 968 931 931 931 919 919 919 876 876 876 876 876 865 845 826 826 826 826 817 791 774 766 782 750 0 694 694 0 95 95 675 663 657 675 657 663 681 651 669 634 645 645 0 639 0 0 876 0 0 574 557 557 549 549 533 545 537 533 533 529 525 529 518 518 507 504 497 493 490 487 477 0 0 0 0 0 0
    0 0 0 0 0 0 0 0 0 0 0 0 0 0 0 0 0 0 0 0 0 0 0 0 0 0 0 0 0 0 0 0 0 0 0 0 0 0 0 0 0 0 0 0 0 0 0 0 0 0 0 0 0 0 0 0 0 0 0 0 0 0 0 0 0 0 0 0 0 1247 1247 1247 1268 1291 1291 1314 1362 1362 1388 1443 1565 1565 1565 1565 1533 1635 1501 1565 1565 1565 1533 1565 1565 1565 1635 1711 1711 1635 1672 1672 1711 1711 1795 1795 1795 1795 1989 1989 1989 1989 1989 1936 2102 2102 1936 2044 2164 2230 2164 2299 2299 2299 2299 2628 2628 2628 2537 2943 2943 3066 3066 3066 2830 2943 2830 3199 3504 3504 3679 3679 3679 4906 5661 6690 7359 6690 6690 6690 6690 0 0 0 0 0 0 0 0 0 0 0 0 0 0 0 0 7359 6690 0 0 0 0 0 0 0 0 0 0 0 8177 8177 0 8177 7359 6133 4906 4329 3873 3345 3679 3345 3199 3199 2943 3066 2943 2830 2830 2453 2537 2374 2374 2453 2230 2230 2230 2102 2164 1989 2044 1887 1989 1839 1795 1752 1672 1711 1635 1635 1565 1443 1635 1471 1362 1268 1291 1268 1168 0 1206 1149 1115 1149 1168 1115 1115 1168 1082 1066 1082 1082 1008 1008 994 968 943 943 943 943 919 908 876 876 876 876 876 865 845 817 817 817 817 808 782 766 758 774 758 0 694 694 0 95 95 669 663 657 675 657 657 681 651 669 639 645 645 645 639 613 603 0 0 0 579 561 566 0 549 537 545 541 537 533 529 529 529 521 521 507 504 493 493 490 487 477 471 0 0 0 0 0
    0 0 0 0 0 0 0 0 0 0 0 0 0 0 0 0 0 0 0 0 0 0 0 0 0 0 0 0 0 0 0 0 0 0 0 0 0 0 0 0 0 0 0 0 0 0 0 0 0 0 0 0 0 0 0 0 0 0 0 0 0 0 0 0 0 0 0 0 0 1247 1247 1247 1268 1291 1291 1314 1362 1362 1388 1415 1533 1533 1533 1533 1501 1599 1501 1565 1565 1533 1533 1565 1565 1565 1599 1711 1672 1599 1672 1672 1672 1711 1795 1752 1752 1752 1936 1936 1936 1989 1989 1989 2102 2164 1989 2044 2164 2299 2164 2299 2374 2299 2299 2628 2628 2628 2628 2943 2943 3066 2943 3066 2943 2943 2943 3199 3504 3504 3679 3873 3679 4906 5661 6690 7359 6133 6133 6133 6133 0 0 0 0 0 0 0 0 0 0 0 0 0 0 0 6690 0 0 0 0 0 0 0 0 0 0 0 0 0 8177 8177 0 8177 7359 6133 4906 4906 4599 3504 3873 3504 3345 3345 3066 3199 3066 2830 2943 2537 2537 2374 2374 2374 2230 2230 2230 2102 2230 1989 2102 1936 1989 1795 1795 1752 1711 1672 1635 1672 1565 1443 1635 1443 1362 1247 1268 1268 1149 1187 1187 1132 1115 1132 1168 1115 1115 1168 1082 1066 1098 1082 1008 1008 1008 981 955 943 943 919 919 919 886 886 876 886 886 876 845 799 817 808 808 799 774 766 758 766 758 0 694 694 0 0 95 669 663 657 675 657 657 681 651 675 645 645 645 645 645 618 608 0 603 0 588 570 570 0 553 541 549 545 541 537 533 533 533 525 525 511 504 493 490 487 484 474 471 0 0 0 0 0
    0 0 0 0 0 0 0 0 0 0 0 0 0 0 0 0 0 0 0 0 0 0 0 0 0 0 0 0 0 0 0 0 0 0 0 0 0 0 0 0 0 0 0 0 0 0 0 0 0 0 0 0 0 0 0 0 0 0 0 0 0 0 0 0 0 0 0 0 0 1268 1268 1268 1291 1314 1291 1314 1362 1362 1362 1388 1501 1471 1471 1501 1471 1565 1501 1565 1565 1565 1533 1565 1565 1533 1565 1672 1672 1599 1672 1672 1672 1672 1752 1752 1752 1752 1936 1936 1936 1989 1989 1989 2164 2230 1989 2102 2230 2299 2164 2299 2374 2299 2299 2628 2725 2725 2628 2943 2943 3066 2943 3066 2943 2943 2943 3199 3504 3504 3873 4088 3679 4906 5256 6133 6690 6133 5661 5661 5661 0 0 0 0 0 0 0 0 0 0 0 0 0 0 0 7359 8177 8177 8177 8177 0 0 7359 7359 0 0 0 0 0 8177 8177 0 0 8177 6690 5256 5661 5661 3873 4329 3679 3504 3345 3199 3345 3066 2943 2943 2537 2537 2374 2299 2374 2164 2102 2164 2044 2164 1989 2102 1936 2044 1795 1795 1752 1711 1672 1635 1672 1565 1471 1635 1443 1362 1226 1268 1247 1149 1187 1187 1132 1115 1132 1168 1115 1098 1149 1066 1066 1098 1066 1008 1008 1008 994 981 955 955 919 931 919 897 897 886 886 886 886 855 791 808 808 808 791 766 758 758 766 758 0 694 0 0 0 95 669 663 657 675 657 657 681 657 675 651 645 651 651 645 629 608 608 603 593 588 0 0 0 553 541 549 545 541 541 537 537 537 533 529 514 504 493 487 487 484 0 0 0 0 0 0 0
    0 0 0 0 0 0 0 0 0 0 0 0 0 0 0 0 0 0 0 0 0 0 0 0 0 0 0 0 0 0 0 0 0 0 0 0 0 0 0 0 0 0 0 0 0 0 0 0 0 0 0 0 0 0 0 0 0 0 0 0 0 0 0 0 0 0 0 0 0 1268 1291 1291 1291 1314 1314 1314 1362 1362 1338 1362 1415 1415 1415 1443 1443 1533 1471 1565 1565 1533 1533 1565 1565 1533 1565 1672 1672 1599 1635 1672 1672 1672 1752 1752 1752 1752 1936 1936 1936 1989 2044 1989 2299 2374 2044 2102 2299 2374 2230 2374 2374 2299 2299 2537 2725 2725 2725 3066 2943 3066 2943 3066 2943 2943 2830 3199 3345 3504 3873 4329 3679 4906 5256 6133 6690 6133 5661 5661 5661 0 0 0 0 0 0 0 0 0 0 0 0 0 0 0 0 0 8177 8177 8177 0 0 6690 6690 8177 7359 8177 8177 7359 6690 7359 0 0 8177 7359 5661 6133 6133 3873 4599 3679 3504 3504 3345 3504 3199 2943 2943 2537 2537 2374 2299 2299 2164 2102 2164 1989 2164 2044 2164 1989 2164 0 1936 1795 1752 1672 1635 1672 1565 1471 1635 1415 1362 1226 1247 1247 1132 1187 1168 1115 1115 1132 1168 1115 1098 1149 1066 1082 1098 1066 1022 1022 1008 1022 1008 968 968 943 943 931 908 908 886 897 897 886 855 782 808 799 799 791 766 758 750 766 758 0 694 0 0 0 95 669 663 663 675 657 663 687 663 681 663 645 645 645 645 623 608 603 598 588 584 0 0 0 0 0 0 545 541 0 0 541 545 537 533 514 0 493 0 487 0 0 0 0 0 0 0 0
    0 0 0 0 0 0 0 0 0 0 0 0 0 0 0 0 0 0 0 0 0 0 0 0 0 0 0 0 0 0 0 0 0 0 0 0 0 0 0 0 0 0 0 0 0 0 0 0 0 0 0 0 0 0 0 0 0 0 0 0 0 0 0 0 0 0 0 0 0 1268 1291 1291 1314 1314 1314 1338 1362 1388 1338 1362 1388 1388 1388 1415 1415 1471 1443 1533 1565 1565 1533 1599 1599 1565 1565 1672 1672 1599 1635 1672 1672 1635 1711 1752 1752 1752 1936 1936 1936 1989 2044 2044 2374 2453 2102 2164 2374 2374 2230 2374 2374 2299 2299 2537 2830 2725 2628 3066 2943 3066 2830 3066 2943 2830 2830 3199 3345 3504 3873 4599 3873 5256 5661 6690 7359 6690 6133 6133 6133 0 0 0 0 0 0 0 0 0 0 0 0 0 0 0 0 0 7359 7359 7359 8177 8177 6133 6690 7359 6690 7359 7359 6690 6133 6133 8177 8177 7359 6690 5256 5661 6133 3679 4599 3873 3504 3504 3345 3504 3199 3066 0 2628 2537 2453 2299 2299 2164 2044 2164 2044 2164 2044 2102 1989 2164 0 1936 1795 1752 1672 1635 1635 1565 1443 1599 1415 1338 1247 1268 1247 1149 1187 1168 1132 1115 1132 1168 1115 1098 1149 1082 1082 1115 1051 1022 1022 1022 1022 1008 968 968 943 943 931 908 908 886 897 897 876 855 774 799 799 799 782 758 758 750 766 766 0 694 694 0 0 95 669 669 663 681 663 669 687 669 681 669 639 639 634 634 613 603 598 593 584 0 0 0 0 0 0 0 0 0 0 0 0 549 545 537 521 0 493 0 0 0 0 0 0 0 0 0 0
    0 0 0 0 0 0 0 0 0 0 0 0 0 0 0 0 0 0 0 0 0 0 0 0 0 0 0 0 0 0 0 0 0 0 0 0 0 0 0 0 0 0 0 0 0 0 0 0 0 0 0 0 0 0 0 0 0 0 0 0 0 0 0 0 0 0 0 0 0 1268 1268 1268 1291 1314 1314 1314 1338 1362 1338 1338 1388 1388 1388 1388 1388 1443 1443 1533 1533 1565 1533 1599 1599 1599 1565 1672 1672 1635 1672 1672 1672 1672 1711 1752 1711 1752 1839 1887 1887 1989 2044 2044 2374 2453 2102 2164 2374 2374 2230 2374 2374 2299 2299 2537 2725 2628 2628 3066 2943 3066 2725 3066 2943 2830 2830 3066 3345 3504 4088 5256 4088 5661 6133 6690 8177 7359 6133 6133 6133 0 0 0 0 0 0 0 0 0 0 0 0 0 0 0 0 0 7359 0 8177 8177 0 6133 6690 7359 6690 6690 6690 6133 6133 6133 8177 8177 7359 6690 5661 6133 6133 3873 4599 3873 3679 3504 3345 3345 3066 2830 2830 2537 2453 2374 2299 2299 2164 2044 2102 1989 2102 1989 1989 1936 1989 0 1936 1795 1752 1711 1635 1635 1533 1443 1599 1415 1338 1268 1268 1247 1149 1187 1168 1132 1132 1149 1168 1115 1098 1149 1082 1098 1115 1051 1036 1036 1022 1036 1036 981 981 943 943 919 908 908 886 897 897 876 855 766 799 799 791 782 758 758 750 766 766 0 694 694 0 0 95 675 669 663 681 669 669 0 675 687 681 639 639 623 623 608 593 588 588 584 0 0 0 0 0 0 0 0 0 0 0 0 557 549 0 0 0 0 886 0 0 0 0 0 0 0 0 0
    0 0 0 0 0 0 0 0 0 0 0 0 0 0 0 0 0 0 0 0 0 0 0 0 0 0 0 0 0 0 0 0 0 0 0 0 0 0 0 0 0 0 0 0 0 0 0 0 0 0 0 0 0 0 0 0 0 0 0 0 0 0 0 0 0 0 0 0 0 1247 1268 1268 1268 1291 1291 1291 1314 1338 1338 1338 1362 1362 1362 1362 1388 1415 1415 1501 1533 1533 1533 1565 1599 1599 1533 1672 1672 1635 1672 1672 1672 1672 1711 1752 1711 1752 1795 1839 1887 1989 2044 2044 2374 2537 2164 2230 2374 2453 2299 2374 2374 2374 2299 2537 2725 2725 2725 3345 3066 3199 2725 3066 3066 2943 2943 3066 3345 3504 4088 5256 4088 5661 6133 6690 8177 8177 6690 6133 6133 0 0 0 0 0 0 0 0 0 0 0 0 0 0 0 0 0 8177 8177 8177 8177 8177 6133 6690 6690 6133 6690 6690 6133 6133 6133 8177 7359 7359 7359 6133 6133 6133 4088 4906 4088 3873 3679 3345 3345 3066 2830 2830 2537 2453 2374 2299 2230 2102 1989 2102 1936 2044 1936 1989 1887 1989 1936 2044 1839 1752 1672 1599 1599 1501 1415 1565 1415 1338 1291 1291 1268 1149 1206 1168 1132 1149 1149 1168 1115 1098 1132 1082 1098 1098 1036 1036 1036 1036 1051 1051 994 994 955 968 943 919 908 886 897 897 886 855 766 799 799 799 791 766 758 750 766 766 0 694 694 675 0 0 0 669 669 687 669 675 0 687 687 694 645 651 623 623 603 593 588 584 584 0 0 0 0 0 0 0 0 0 0 0 0 557 553 545 0 865 0 897 919 919 0 886 0 0 0 0 0
    0 0 0 0 0 0 0 0 0 0 0 0 0 0 0 0 0 0 0 0 0 0 0 0 0 0 0 0 0 0 0 0 0 0 0 0 0 0 0 0 0 0 0 0 0 0 0 0 0 0 0 0 0 0 0 0 0 0 0 0 0 0 0 0 0 0 0 0 0 1226 1247 1247 1268 1268 1291 1291 1291 1314 1338 1338 1362 1362 1362 1362 1362 1415 1415 1501 1533 1533 1533 1565 1599 1599 1533 1672 1672 1635 1635 1672 1672 1672 1672 1752 1752 1752 1795 1839 1887 1989 2102 2044 2453 2628 2230 2299 2453 2453 2299 2374 2453 2374 2299 2537 2725 2725 2725 3504 3199 3199 2830 3199 3199 3066 3066 3199 3345 3504 4088 5256 4088 5661 6133 6690 8177 8177 6690 6133 6133 0 0 0 0 0 0 0 0 0 0 0 0 0 0 0 0 0 7359 7359 8177 8177 8177 6133 6690 6690 6133 6690 6690 6690 6133 6133 8177 7359 7359 7359 6133 6690 6133 4329 4906 4088 3873 3679 3345 3345 2943 2830 2830 2537 2453 2374 2299 2230 2102 1989 2044 1936 1989 1887 1887 1839 1936 1936 1989 1887 1752 1672 1599 1565 1471 1388 1501 1415 1338 1314 1291 1268 1168 1206 1168 1149 1149 1149 1168 1115 1098 1132 1082 1098 1098 1036 1036 1036 1036 1051 1051 994 994 968 968 955 919 919 886 897 897 886 855 766 799 799 799 791 766 758 750 766 766 694 694 694 675 0 0 0 675 669 687 675 681 0 694 694 707 663 675 639 629 608 598 588 584 584 0 0 0 0 0 0 0 0 0 0 0 553 557 553 541 0 0 0 908 931 0 0 0 0 0 0 0 0
    0 0 0 0 0 0 0 0 0 0 0 0 0 0 0 0 0 0 0 0 0 0 0 0 0 0 0 0 0 0 0 0 0 0 0 0 0 0 0 0 0 0 0 0 0 0 0 0 0 0 0 0 0 0 0 0 0 0 0 0 0 0 0 0 0 0 0 0 0 1206 1247 1247 1247 1268 1268 1268 1268 1314 1338 1338 1338 1362 1362 1362 1362 1415 1443 1501 1533 1565 1565 1565 1599 1635 1533 1672 1672 1635 1635 1672 1672 1672 1672 1752 1752 1752 1795 1839 1887 1989 2102 2102 2453 2628 2374 2299 2453 2453 2299 2374 2453 2374 2299 2453 2628 2725 2830 3679 3345 3345 2943 3199 3199 3199 3066 3199 3345 3504 4088 5256 4329 6133 6133 6690 0 0 6690 6133 6133 0 0 0 0 0 0 0 0 0 0 0 0 0 0 0 0 8177 7359 6690 7359 7359 8177 6133 6690 6690 6133 6690 6690 6690 6133 5661 8177 7359 7359 7359 6133 6690 6690 4599 4906 4088 3679 3504 3345 3199 2830 2725 2725 2453 2453 2299 2299 2164 2102 1989 1936 1887 1936 1839 1839 1795 1839 1936 1989 1936 0 1672 0 1501 1443 1362 1471 1415 1362 1338 1291 1268 1187 1226 1168 1149 1149 1149 1168 1098 1098 1115 1066 1098 1082 1051 1036 1036 1036 1051 1051 994 994 955 968 955 908 919 886 897 897 886 855 766 799 799 799 791 766 758 750 758 758 694 694 694 681 0 0 681 675 675 687 681 681 0 694 694 721 681 694 669 657 623 603 598 593 588 0 0 0 0 0 0 0 0 0 0 557 557 557 553 0 0 0 0 908 0 0 0 0 0 0 0 0 0
    0 0 0 0 0 0 0 0 0 0 0 0 0 0 0 0 0 0 0 0 0 0 0 0 0 0 0 0 0 0 0 0 0 0 0 0 0 0 0 0 0 0 0 0 0 0 0 0 0 0 0 0 0 0 0 0 0 0 0 0 0 0 0 0 0 0 0 0 0 1206 1247 1247 1247 1268 1268 1268 1268 1291 1338 1314 1338 1362 1362 1388 1388 1415 1443 1501 1501 1533 1565 1565 1565 1635 1565 1672 1635 1635 1635 1672 1672 1672 1672 1795 1752 1795 1839 1887 1887 1989 2164 2164 2453 2725 2453 2374 2453 2453 2299 2374 2453 2374 2299 2453 2628 2725 2830 3504 3199 3345 2943 3199 3066 3199 3199 3199 3199 3345 4088 5256 4329 6133 6690 6690 0 0 7359 6133 6133 0 0 0 0 0 0 0 0 0 0 8177 8177 0 0 0 0 6690 6133 6133 6690 7359 7359 6133 6133 6690 6133 6690 7359 6690 6133 6133 8177 7359 8177 8177 6133 6690 6690 4599 4906 4088 3679 3504 3345 3066 2830 2725 2725 2453 2453 2374 2374 2164 2102 1989 1936 1839 1839 1795 1795 1752 1795 1936 1936 1887 0 1672 389 0 1388 1314 1388 1388 1338 1314 1268 1268 1187 1206 1168 1168 1149 1132 1168 1098 1098 1115 1066 1098 1082 1051 1051 1036 1036 1051 1051 994 994 955 968 955 919 908 886 897 897 886 855 758 799 799 799 791 766 758 743 758 758 694 0 0 0 0 0 0 681 675 694 687 687 0 694 694 728 687 700 687 675 0 613 603 593 593 0 0 0 0 0 0 0 0 0 0 561 557 557 549 0 0 0 0 919 0 0 0 0 0 0 0 0 0
    0 0 0 0 0 0 0 0 0 0 0 0 0 0 0 0 0 0 0 0 0 0 0 0 0 0 0 0 0 0 0 0 0 0 0 0 0 0 0 0 0 0 0 0 0 0 0 0 0 0 0 0 0 0 0 0 0 0 0 0 0 0 0 0 0 0 0 0 0 1206 1247 1226 1247 1247 1268 1268 1247 1291 1314 1314 1314 1362 1388 1388 1362 1388 1415 1471 1501 1533 1533 1533 1565 1599 1565 1672 1672 1635 1635 1672 1672 1672 1672 1795 1795 1795 1839 1887 1887 1936 2044 2044 2374 2628 2374 2299 2374 2453 2299 2374 2374 2374 2299 2453 2628 2725 2830 3504 3199 3345 3066 3199 3066 3199 3199 3199 3199 3345 3873 4906 4088 6690 6690 6690 0 0 7359 6690 6690 0 0 0 0 0 0 5661 0 0 6133 6690 7359 7359 7359 7359 6133 5661 5256 5661 6133 6133 6690 5661 6133 6690 6133 7359 7359 7359 6690 6690 8177 7359 8177 8177 6133 6133 6133 4329 4599 4088 3679 3345 3345 3066 2830 2628 2628 2453 2374 2299 2374 2164 2044 1936 1887 1795 1795 1752 1711 1711 1752 1936 1887 1887 1752 1672 0 0 1362 1291 1362 1362 1338 1291 1268 1247 1168 1206 1149 1168 1132 1132 1149 1082 1082 1098 1066 1082 1066 1051 1036 1036 1036 1036 1036 994 994 955 981 968 931 919 886 919 908 897 845 750 799 799 799 791 766 758 743 758 758 694 0 0 0 0 0 0 681 681 0 687 694 0 0 0 728 694 707 694 0 0 0 603 593 593 0 0 0 0 0 0 0 0 0 566 566 553 557 549 0 0 0 0 919 0 0 0 0 0 0 0 0 0
    0 0 0 0 0 0 0 0 0 0 0 0 0 0 0 0 0 0 0 0 0 0 0 0 0 0 0 0 0 0 0 0 0 0 0 0 0 0 0 0 0 0 0 0 0 0 0 0 0 0 0 0 0 0 0 0 0 0 0 0 0 0 0 0 0 0 0 0 0 1187 1226 1226 1226 1247 1268 1268 1247 1291 1314 1314 1314 1388 1443 1415 1362 1388 1415 1443 1471 1501 1533 1533 1533 1599 1599 1672 1635 1635 1635 1635 1672 1672 1711 1795 1795 1839 1839 1887 1887 1936 1989 1989 2230 2537 2374 2299 2299 2453 2299 2374 2374 2453 2299 2453 2628 2725 2725 3345 3066 3345 3066 3199 3066 3199 3199 3199 3199 3199 3873 4599 4088 0 7359 7359 0 0 8177 7359 7359 0 0 0 0 0 6133 6133 0 0 7359 0 0 8177 8177 8177 6690 6133 5256 6133 6133 6133 6690 6133 6690 6690 6690 7359 8177 7359 7359 7359 0 8177 8177 8177 6133 6133 5661 4329 4329 3873 3679 3504 3345 2943 2830 2628 2628 2453 2374 2299 2374 2164 2102 1989 1887 1795 1795 1752 1711 1672 1752 1887 1887 1839 1711 1672 0 1314 1338 1291 1362 1362 1338 1291 1268 1247 1187 1206 1168 1168 1132 1132 1149 1082 1082 1098 1066 1082 1066 1051 1051 1036 1036 1036 1036 994 994 968 981 981 943 931 897 931 931 931 845 743 799 799 799 791 766 750 743 758 758 700 0 0 0 0 0 0 0 0 0 694 694 0 0 0 728 694 700 694 0 0 0 0 0 593 0 0 0 0 0 0 0 0 0 566 561 549 557 545 0 0 0 0 919 0 0 0 0 0 0 0 0 0
    0 0 0 0 0 0 0 0 0 0 0 0 0 0 0 0 0 0 0 0 0 0 0 0 0 0 0 0 0 0 0 0 0 0 0 0 0 0 0 0 0 0 0 0 0 0 0 0 0 0 0 0 0 0 0 0 0 0 0 0 0 0 0 0 0 0 0 0 0 1187 1226 1226 1226 1247 1247 1247 1247 1291 1338 1338 1338 1471 1501 1471 1388 1388 1443 1443 1471 1501 1533 1501 1533 1565 1635 1672 1672 1672 1635 1672 1711 1711 1711 1795 1839 1839 1839 1887 1887 1936 1936 1989 2102 2374 2299 2230 2299 2374 2299 2374 2374 2453 2299 2453 2628 2725 2725 3345 3066 3345 3066 3199 3066 3199 3199 3199 3066 3199 3679 4599 4088 0 0 0 0 0 8177 7359 7359 0 0 0 0 4906 6133 6133 0 0 6690 8177 0 7359 8177 7359 6133 5661 5256 6133 5661 5661 6690 5661 6133 6690 6690 7359 7359 8177 7359 7359 0 7359 7359 7359 5661 5661 4906 4329 3873 3873 3679 3345 3199 2943 2725 2628 2628 2374 2453 2299 2374 2164 2102 1989 1936 1839 1839 1711 1672 1672 1711 0 0 0 1711 1672 0 1291 1291 1291 1362 1362 1338 1291 1268 1268 1187 1226 1168 1168 1132 1132 1149 1082 1082 1082 1066 1066 1066 1051 1051 0 1036 1051 1051 994 994 981 994 994 955 943 886 943 943 943 845 743 799 799 799 791 766 750 743 758 766 700 76 76 76 0 0 0 0 0 357 694 700 0 0 0 735 694 700 0 0 0 0 0 0 593 0 0 0 0 0 0 0 0 0 566 561 541 549 541 0 0 0 0 931 0 0 0 0 0 0 0 0 0
    0 0 0 0 0 0 0 0 0 0 0 0 0 0 0 0 0 0 0 0 0 0 0 0 0 0 0 0 0 0 0 0 0 0 0 0 0 0 0 0 0 0 0 0 0 0 0 0 0 0 0 0 0 0 0 0 0 0 0 0 0 0 0 0 0 0 0 0 0 1187 1226 1206 1226 1226 1247 1247 1247 1291 1338 1338 1338 1533 1565 1599 1415 1388 1443 1443 1471 1471 1501 1501 1501 1533 1635 1635 1635 1672 1672 1711 1752 1752 1795 1795 1839 1839 1887 1887 1887 1887 1936 1989 2044 2299 2230 2230 2299 2374 2299 2374 2374 2537 2374 2537 2628 2725 2830 3345 3066 3345 3066 3199 3066 3199 3199 3199 3199 3199 0 4329 4088 0 0 0 0 0 8177 8177 8177 0 0 0 5661 4906 5661 5661 7359 0 6690 8177 0 7359 8177 7359 6133 5661 5661 6133 6133 6133 6690 5661 6690 6690 6690 7359 8177 7359 7359 7359 8177 7359 7359 7359 5661 5661 5256 4599 3873 3873 3873 3345 3199 2830 2725 2628 2628 2374 2374 2299 2374 2230 2044 1989 1936 1839 0 1711 1672 1635 1711 1839 0 0 1672 1635 0 1291 1314 1291 1338 1338 1338 1268 1247 1247 1168 1206 1168 1149 1115 1115 1132 1082 1082 1082 1066 1051 1082 1066 1051 0 0 1051 1066 1008 1008 994 1008 1008 981 955 908 955 943 955 855 743 799 799 799 791 766 750 743 758 766 700 0 0 0 728 0 0 0 0 0 0 0 0 0 0 743 707 707 0 0 0 0 0 0 0 0 0 0 0 0 0 0 0 0 566 561 0 545 0 0 0 0 0 931 0 0 0 0 0 0 0 0 0
    0 0 0 0 0 0 0 0 0 0 0 0 0 0 0 0 0 0 0 0 0 0 0 0 0 0 0 0 0 0 0 0 0 0 0 0 0 0 0 0 0 0 0 0 0 0 0 0 0 0 0 0 0 0 0 0 0 0 0 0 0 0 0 0 0 0 0 0 0 1206 1226 1226 1226 1247 1247 1247 1247 1291 1314 1314 1314 1501 1533 1672 1443 1362 1443 1471 1471 1471 1501 1501 1501 1533 1635 1599 1635 1635 1635 1711 1752 1752 1795 1839 1839 1887 1887 1936 1936 1936 1936 1989 2044 2230 2164 2164 2230 2374 2299 2374 2374 2537 2453 2537 2725 2830 2830 3345 3066 3345 3199 3199 3066 3199 3199 3199 3199 3199 3679 3873 3873 0 0 0 0 0 0 0 0 0 0 0 5661 5256 5661 6133 7359 0 6690 8177 8177 6690 7359 7359 5661 5661 5256 5256 5661 5661 6133 5256 6133 6690 6133 6690 7359 7359 6690 6690 8177 6690 6690 7359 5661 5661 4906 4599 4088 3873 3873 3345 3066 2943 2725 2628 2628 2374 2374 2299 2299 2230 2044 1989 1989 1839 0 1711 0 1635 1672 1795 0 0 1672 1635 1338 1338 1338 1291 1338 1338 1338 1247 1247 1247 1168 1206 1168 1132 1098 1082 1132 1066 1066 1066 1051 1036 1082 1066 0 0 0 1051 1066 1008 1022 994 1008 994 968 931 897 955 943 943 855 743 799 799 799 791 766 750 743 758 774 707 714 714 714 735 0 0 0 0 0 700 0 0 0 0 743 707 0 0 0 0 0 0 0 0 2537 0 0 2102 0 0 0 0 0 0 0 897 0 0 0 0 0 955 931 0 0 0 886 0 0 0 0 0
    0 0 0 0 0 0 0 0 0 0 0 0 0 0 0 0 0 0 0 0 0 0 0 0 0 0 0 0 0 0 0 0 0 0 0 0 0 0 0 0 0 0 0 0 0 0 0 0 0 0 0 0 0 0 0 0 0 0 0 0 0 0 0 0 0 0 0 0 0 1226 1247 1226 1226 1247 1247 1247 1247 1291 1291 1291 1291 1471 1501 1635 1471 1362 1471 1471 1471 1471 1501 1501 1501 1533 1635 1599 1635 1635 1635 1711 1752 1752 1795 1839 1839 1887 1887 1936 1936 1936 1936 1936 2044 2164 2164 2102 2230 2374 2299 2374 2374 2453 2453 2537 2725 2830 2830 3345 3066 3345 3199 3199 3066 3345 3345 3199 3199 3199 3504 3873 3873 8177 0 0 0 0 0 0 0 0 0 5661 6133 6690 7359 7359 0 0 7359 0 7359 6690 7359 6690 5661 5256 5256 5661 5661 5661 6133 5256 6133 6690 6133 6690 7359 6690 6690 6690 7359 6133 6133 6690 5256 5256 4599 4599 4088 3873 3679 3345 3066 2943 2830 2628 2628 2374 2453 2299 2374 2230 2044 1989 1989 1839 1839 1711 1672 1635 1711 1839 0 1795 1711 1672 1415 1362 1362 1291 1338 1338 1338 1226 1226 1247 1187 1226 1168 0 1098 1082 1115 1066 1066 1066 1051 1036 1082 1066 0 0 0 1051 1066 1008 1022 981 994 968 943 908 886 931 919 931 855 758 799 799 799 791 766 750 743 758 774 707 728 728 721 743 728 0 95 0 0 707 0 0 0 0 735 0 0 0 0 0 0 0 0 2628 2537 2628 2537 2044 0 0 0 0 865 0 876 908 931 0 0 0 919 955 931 943 943 0 897 0 0 0 0 0
    0 0 0 0 0 0 0 0 0 0 0 0 0 0 0 0 0 0 0 0 0 0 0 0 0 0 0 0 0 0 0 0 0 0 0 0 0 0 0 0 0 0 0 0 0 0 0 0 0 0 0 0 0 0 0 0 0 0 0 0 0 0 0 0 0 0 0 0 0 1226 1247 1226 1226 1247 1247 1247 1247 1291 1268 1268 1291 1443 1443 1533 1471 1362 1471 1471 1471 1471 1501 1501 1501 1533 1635 1599 1635 1635 1672 1711 1711 1752 1752 1839 1795 1839 1887 1936 1936 1936 1887 1936 1989 2102 2044 2102 2230 2299 2230 2374 2374 2453 2453 2537 2725 2725 2725 3345 3199 3345 3199 3199 3066 3345 3345 3345 3199 3199 3504 3679 3679 8177 8177 8177 0 0 7359 5661 5661 7359 4906 3679 6133 8177 0 0 0 0 0 0 0 0 0 8177 6133 5661 5661 5661 5661 5661 6133 4906 5661 6690 6133 6690 7359 6690 6133 6690 7359 6133 6133 6133 5256 4906 4599 4599 3873 3873 3679 3199 3066 2943 2943 2725 2725 2374 2453 2374 2374 2299 2044 1989 0 1839 1887 1752 0 1635 1711 1795 0 1795 1711 1672 1471 1415 1388 1291 1338 1338 1338 1206 1247 1247 1187 1226 1168 194 1082 1066 1115 1066 1066 1066 1051 1036 1098 1082 0 0 0 1051 1051 994 1008 981 994 943 931 897 886 931 919 931 855 774 808 799 808 791 766 750 743 758 782 714 735 735 721 743 735 0 0 0 0 707 0 0 0 0 735 0 0 0 0 0 0 0 2725 2628 2537 2628 2537 2044 0 0 0 955 886 897 886 908 931 943 908 955 919 955 931 943 931 0 897 0 0 0 0 0
    0 0 0 0 0 0 0 0 0 0 0 0 0 0 0 0 0 0 0 0 0 0 0 0 0 0 0 0 0 0 0 0 0 0 0 0 0 0 0 0 0 0 0 0 0 0 0 0 0 0 0 0 0 0 0 0 0 0 0 0 0 0 0 0 0 0 0 0 0 1226 1247 1247 1226 1247 1247 1247 1268 1291 1268 1268 1291 1471 1443 1471 1471 1338 1471 1471 1471 1471 1471 1501 1501 1533 1599 1599 1635 1635 1672 1711 1711 1752 1752 1839 1795 1839 1887 1887 1936 1936 1936 1936 1989 2044 2044 2044 2164 2230 2164 2299 2374 2453 2453 2537 2725 2628 2628 3199 3066 3199 3199 3199 3066 3345 3345 3345 3199 3199 3504 3504 3679 8177 8177 6133 0 0 5256 4088 4088 5256 3873 3504 6133 8177 8177 0 0 0 0 0 0 0 0 8177 6690 6690 6133 5661 5661 6133 6133 4906 5661 6690 6133 6690 6690 6690 6133 6690 7359 6133 6133 6690 5256 4906 4329 4329 3679 3679 3679 3199 3066 2943 2943 2725 2725 2453 2537 2374 2453 2299 2044 1989 1989 1839 1887 1711 0 1599 1672 1795 1752 1711 1711 1672 1533 1443 1415 1291 1338 1314 1314 1187 1226 1247 1168 1226 1168 194 0 0 0 1082 1066 1066 1066 1036 1098 1082 1098 1082 1051 1051 1051 994 1008 968 994 931 931 897 897 943 931 931 865 791 808 808 808 799 766 750 743 758 782 721 743 743 728 750 735 0 0 0 0 707 0 0 0 0 735 0 0 0 0 0 0 0 2725 2628 2453 2628 2537 2044 0 0 0 968 886 908 886 908 919 943 908 955 919 943 931 943 943 908 908 0 0 0 0 0
    0 0 0 0 0 0 0 0 0 0 0 0 0 0 0 0 0 0 0 0 0 0 0 0 0 0 0 0 0 0 0 0 0 0 0 0 0 0 0 0 0 0 0 0 0 0 0 0 0 0 0 0 0 0 0 0 0 0 0 0 0 0 0 0 0 0 0 0 0 1247 1247 1247 1226 1247 1247 1268 1291 1291 1291 1291 1338 1471 1443 1443 1471 1338 1471 1471 1471 1471 1471 1501 1501 1533 1599 1599 1635 1635 1672 1711 1711 1752 1752 1839 1795 1839 1887 1887 1936 1936 1936 1936 1989 2102 2044 2044 2230 2299 2164 2299 2374 2453 2453 2537 2725 2537 2537 3066 3066 3199 3199 3199 3066 3345 3345 3345 3199 3199 3504 3679 3504 7359 7359 4906 5256 7359 3873 3679 3679 4088 3679 3345 5256 7359 7359 0 0 0 0 0 0 0 0 0 7359 7359 6690 6133 6133 6133 6690 4906 6133 6690 6133 6690 6690 6690 6133 6133 7359 6690 6133 6690 5661 4906 4329 4599 3679 3873 3679 3345 3066 3066 3066 2725 2725 2453 2537 2374 2453 2299 2044 1989 2044 1887 1887 1752 0 1635 1711 1795 1795 1752 1711 1711 1635 1533 1533 1338 1362 1338 1338 1206 1268 1268 1206 1247 1187 194 0 0 0 1082 1082 1066 1066 1051 1098 1082 1115 1098 1051 1036 1036 994 994 968 981 931 943 919 919 955 943 955 876 799 817 808 808 799 766 750 743 766 791 721 750 750 728 758 743 721 714 714 0 707 0 0 0 0 743 0 0 0 0 0 0 0 2725 2628 2453 2628 2537 2044 0 0 0 994 908 919 886 908 919 931 908 943 919 943 931 943 943 919 908 0 0 0 0 0
    0 0 0 0 0 0 0 0 0 0 0 0 0 0 0 0 0 0 0 0 0 0 0 0 0 0 0 0 0 0 0 0 0 0 0 0 0 0 0 0 0 0 0 0 0 0 0 0 0 0 0 0 0 0 0 0 0 0 0 0 0 0 0 0 0 0 0 0 0 1247 1247 1247 1226 1247 1268 1268 1291 1291 1291 1291 1338 1443 1415 1415 1443 1338 1471 1443 1471 1471 1471 1501 1501 1533 1599 1599 1635 1635 1672 1711 1711 1752 1752 1839 1795 1839 1887 1887 1936 1936 1936 1936 1989 2102 2044 2102 2230 2299 2230 2374 2374 2453 2453 2537 2725 2628 2628 3066 3066 3199 3199 3199 3066 3345 3345 3345 3345 3345 3679 3679 3679 6690 6690 4599 4088 5256 3504 3504 3504 3679 3504 3199 3873 5661 6690 0 0 0 0 0 0 0 0 0 0 0 8177 6690 6690 6690 6690 5256 6133 6690 5661 6133 6690 6690 6133 6133 7359 6133 5661 6690 5661 4599 4599 4599 3873 3873 3679 3345 3066 3066 3066 2725 2725 2453 2537 2374 2453 2374 0 2044 2102 1887 1936 1752 1752 1635 1672 1795 1752 1752 1711 1711 1672 1565 1565 1362 1415 1388 1362 1268 1314 1314 1247 1291 1206 194 0 0 0 1098 1082 1082 1066 1051 1098 1098 1132 1115 1051 1051 1051 994 994 968 968 919 943 919 931 968 955 955 876 808 817 808 808 799 774 750 743 766 791 728 750 750 735 758 743 728 714 714 0 700 0 0 0 0 743 0 0 0 0 0 0 0 2725 2628 2537 0 0 0 0 0 1115 1008 931 931 886 908 0 931 897 0 908 943 931 943 943 931 919 0 0 0 0 0
    0 0 0 0 0 0 0 0 0 0 0 0 0 0 0 0 0 0 0 0 0 0 0 0 0 0 0 0 0 0 0 0 0 0 0 0 0 0 0 0 0 0 0 0 0 0 0 0 0 0 0 0 0 0 0 0 0 0 0 0 0 0 0 0 0 0 0 0 0 1247 1247 1247 1247 1268 1268 1268 1291 1291 1291 1268 1314 1388 1362 1362 1415 1338 1471 1443 1471 1471 1471 1501 1501 1533 1599 1599 1672 1635 1672 1711 1711 1752 1752 1887 1795 1839 1887 1887 1989 1989 1936 1936 1989 2102 2102 2102 2230 2299 2230 2374 2374 2453 2453 2537 2725 2537 2537 2943 3066 3199 3199 3199 3066 3345 3345 3345 3345 3504 3679 3679 3504 5661 5661 4088 3679 4088 3345 3345 3345 3345 3199 3066 3504 4599 5256 7359 8177 0 0 0 0 0 0 0 0 0 8177 6690 6690 7359 6690 5661 6690 6690 6133 6133 6690 6690 6133 5661 6133 5256 5256 5661 4906 4329 4329 4329 3679 3873 3679 3345 3066 3066 3066 2725 2725 2453 2537 2453 2453 2374 0 2044 2102 1936 1936 1752 1752 1635 1672 1795 1752 1752 1711 1752 1711 1599 1599 1388 1415 1415 1388 1291 1338 1338 1268 1314 1226 193 0 0 0 1115 1082 1082 1066 1066 1115 1098 1149 1132 1066 1051 1066 1008 1008 981 968 919 943 919 931 968 955 968 886 817 826 817 817 799 774 750 743 766 791 728 758 758 735 758 750 728 721 721 0 700 0 0 0 0 750 0 0 0 0 0 0 0 2725 2628 0 219 0 0 0 0 1168 0 943 0 886 0 0 0 0 0 908 943 919 943 943 931 931 0 0 0 0 0
    0 0 0 0 0 0 0 0 0 0 0 0 0 0 0 0 0 0 0 0 0 0 0 0 0 0 0 0 0 0 0 0 0 0 0 0 0 0 0 0 0 0 0 0 0 0 0 0 0 0 0 0 0 0 0 0 0 0 0 0 0 0 0 0 0 0 0 0 0 1247 1247 1247 1247 1268 1268 1268 1291 1268 1247 1247 1291 1362 1338 1338 1388 1338 1443 1443 1471 1471 1443 1471 1501 1533 1599 1565 1635 1635 1635 1672 1711 1752 1752 1887 1795 1839 1887 1887 1989 2044 1936 1936 1989 2102 2102 2102 2230 2230 2230 2299 2453 2374 2374 2453 2537 2453 2453 2725 2725 2943 3066 3199 3066 3345 3345 3345 3504 3504 3679 3679 3504 4906 4599 3873 3345 3504 3199 3345 3199 3199 3199 3066 3345 4088 4906 6690 7359 0 0 0 0 0 0 0 0 0 0 7359 6690 8177 7359 6133 6690 7359 6690 6690 6690 6690 6690 6133 6690 6133 5661 5661 5256 4599 4599 4088 3679 3679 3504 3345 3066 3066 3066 2725 2725 2537 2628 2453 2453 2374 0 2102 2164 1989 1989 1795 1795 1635 1711 1795 1795 1795 1752 1752 1711 1672 1635 1471 1443 1443 1415 1314 1362 1362 1314 1338 1247 193 0 0 0 1115 1098 1098 1082 1066 1115 1115 1149 1149 1066 1066 1066 1022 1022 994 981 919 943 919 943 968 968 968 886 826 0 0 817 808 774 750 743 758 791 728 758 758 743 766 750 735 721 721 0 700 0 0 0 0 0 0 0 140 140 0 0 0 2830 0 0 219 0 0 0 0 1187 0 955 0 0 0 5256 0 0 0 0 931 919 943 943 931 931 0 0 0 0 0
    0 0 0 0 0 0 0 0 0 0 0 0 0 0 0 0 0 0 0 0 0 0 0 0 0 0 0 0 0 0 0 0 0 0 0 0 0 0 0 0 0 0 0 0 0 0 0 0 0 0 0 0 0 0 0 0 0 0 0 0 0 0 0 0 0 0 0 0 0 1247 1247 1247 1247 1268 1268 1268 1291 1268 1247 1247 1291 1338 1338 1338 1362 1338 1443 1443 1471 1471 1443 1471 1501 1533 1599 1565 1635 1635 1635 1672 1672 1752 1752 1839 1839 1839 1887 1887 1989 2044 1989 1936 1989 2102 2102 2102 2230 2230 2230 2299 2374 2374 2299 2453 2453 2374 2374 2537 2628 2725 2725 3066 3066 3345 3345 3345 3504 3679 3679 3679 3504 3873 3873 3504 3066 3199 3066 3199 3066 3066 3066 2943 3199 3679 4599 6133 7359 0 0 0 0 0 0 0 0 0 0 7359 7359 8177 7359 6690 7359 8177 7359 7359 7359 8177 8177 7359 7359 6690 6133 6690 6133 4599 4599 4088 3679 3504 3345 3199 3066 3066 3066 2725 2725 2537 2628 2453 2537 2374 0 2102 2230 1989 2044 1839 1839 1711 1752 1839 1839 1839 1752 1795 1752 1711 1672 1501 1443 1443 1443 1362 1415 1388 1338 1362 1291 0 0 0 0 1132 1098 1098 1082 1082 1115 1115 1168 1149 1082 1066 1082 1051 1022 1008 994 919 955 919 943 968 955 968 897 0 0 0 817 808 782 750 743 758 799 728 758 758 743 766 750 735 721 721 0 700 0 0 0 0 0 0 0 140 140 0 0 0 2830 0 0 218 0 0 0 0 1168 0 0 0 0 4906 4599 5256 0 0 0 0 0 0 0 931 931 0 0 0 0 0
    0 0 0 0 0 0 0 0 0 0 0 0 0 0 0 0 0 0 0 0 0 0 0 0 0 0 0 0 0 0 0 0 0 0 0 0 0 0 0 0 0 0 0 0 0 0 0 0 0 0 0 0 0 0 0 0 0 0 0 0 0 0 0 0 0 0 0 0 0 1247 1247 1247 1247 1268 1268 1291 1291 1268 1247 1247 1314 1362 1362 1362 1388 1338 1443 1443 1471 1471 1443 1471 1501 1565 1565 1565 1635 1635 1635 1672 1635 1711 1711 1795 1795 1839 1839 1887 1989 2044 1989 1936 1989 2044 2102 2102 2230 2230 2230 2230 2374 2374 2230 2374 2374 2374 2374 2453 2537 2537 2628 2943 2943 3345 3345 3345 3504 3504 3504 3504 3345 3504 3504 3345 2943 3066 2943 3066 2943 3066 2943 2943 3199 3504 4088 6133 7359 0 0 0 0 0 0 0 0 0 0 0 8177 0 8177 8177 8177 8177 8177 8177 8177 0 0 8177 8177 8177 6690 6690 6690 4599 4599 4088 3679 3504 3345 3345 3066 3066 3066 2725 2725 2537 2628 2374 2453 2374 2299 2102 2230 2044 2102 1936 1936 1752 1795 1887 1887 1887 1795 1795 1752 1752 1711 1533 1471 1471 1471 1362 1443 1443 1362 1388 1314 0 0 0 0 1168 1115 1132 1098 1098 1115 1115 1168 1168 1098 1066 1082 1066 1036 0 994 931 955 931 943 968 955 968 897 0 0 0 0 808 782 750 743 758 799 728 758 758 743 766 750 735 721 721 0 700 0 0 0 0 0 0 0 140 140 0 0 2725 2830 0 0 218 0 0 0 0 1149 0 0 0 3873 4599 4329 0 0 0 0 931 919 943 0 931 931 0 0 0 0 0
    0 0 0 0 0 0 0 0 0 0 0 0 0 0 0 0 0 0 0 0 0 0 0 0 0 0 0 0 0 0 0 0 0 0 0 0 0 0 0 0 0 0 0 0 0 0 0 0 0 0 0 0 0 0 0 0 0 0 0 0 0 0 0 0 0 0 0 0 0 1247 1247 1247 1247 1268 1291 1291 1338 1291 1268 1268 1362 1388 1388 1362 1388 1338 1443 1415 1501 1471 1443 1471 1501 1565 1565 1599 1635 1635 1599 1635 1635 1711 1711 1795 1795 1795 1839 1839 1936 2044 2044 1936 1989 2102 2102 2102 2299 2230 2230 2164 2374 2374 2164 2374 2299 2299 2299 2374 2453 2537 2537 2830 2830 3066 3199 3199 3345 3504 3504 3504 3199 3345 3345 3199 2830 2943 2830 3066 2943 2943 2943 2943 3199 3345 3873 4906 6133 8177 0 0 0 0 0 0 0 0 0 0 0 0 8177 8177 8177 8177 8177 8177 8177 8177 0 8177 8177 8177 7359 7359 7359 4599 4906 3873 3679 3504 3504 3345 3199 3066 3066 2725 2830 2537 2537 2299 2453 2299 2230 2102 2164 1989 2044 1887 1936 1752 1839 1887 1887 1887 1795 1795 1752 1752 1711 1565 1471 1471 1471 1388 1471 1471 1388 1415 1338 0 0 0 0 1168 1149 0 1098 1115 1132 1132 1187 1187 1115 1082 1082 1098 1051 0 0 0 981 943 955 981 968 0 0 0 0 0 0 808 782 750 743 758 791 728 758 758 743 758 750 728 721 721 0 700 0 0 0 0 0 0 0 140 140 2830 0 2725 2830 0 0 217 0 0 0 0 1132 0 0 0 3873 4329 4088 0 0 0 0 931 919 943 0 931 931 0 0 0 0 0
    0 0 0 0 0 0 0 0 0 0 0 0 0 0 0 0 0 0 0 0 0 0 0 0 0 0 0 0 0 0 0 0 0 0 0 0 0 0 0 0 0 0 0 0 0 0 0 0 0 0 0 0 0 0 0 0 0 0 0 0 0 0 0 0 0 0 0 0 0 1247 1247 1268 1268 1291 1291 1314 1338 1314 1314 1291 1388 1388 1415 1388 1388 1338 1415 1415 1501 1471 1443 1471 1501 1565 1565 1565 1635 1599 1599 1635 1599 1672 1711 1795 1795 1795 1839 1839 1936 2044 2044 1989 2044 2102 2164 2164 2299 2299 2230 2102 2299 2299 2044 2299 2164 2164 2299 2299 2453 2537 2537 2830 2830 2943 3066 3199 3199 3345 3345 3199 3066 3066 3199 3199 2830 2943 2830 3066 2943 2943 2943 3066 3199 3345 3504 3873 4329 5256 0 0 0 0 0 0 0 0 0 8177 8177 0 8177 8177 8177 8177 7359 8177 7359 8177 8177 7359 8177 8177 7359 8177 7359 5661 5661 3873 3873 3504 3504 3504 3199 3066 3066 2830 2830 2537 2628 2299 2374 2230 2299 2102 2164 1989 2044 1936 1989 1795 1887 1936 1936 1887 1839 1839 1795 1795 1752 1565 1471 1471 1471 1388 1501 1501 1388 1443 1362 0 0 0 0 1187 1168 0 1115 1132 1149 1149 1187 1187 1132 1082 1098 1115 1066 0 0 0 981 943 0 0 0 0 0 0 0 0 0 808 782 743 743 758 791 728 758 758 735 750 743 728 714 714 0 700 694 0 0 0 0 0 0 140 140 0 0 2725 2830 0 0 217 0 0 0 0 1132 0 0 0 3679 4329 4088 4599 4329 0 0 0 0 0 0 0 931 0 0 0 0 0
    0 0 0 0 0 0 0 0 0 0 0 0 0 0 0 0 0 0 0 0 0 0 0 0 0 0 0 0 0 0 0 0 0 0 0 0 0 0 0 0 0 0 0 0 0 0 0 0 0 0 0 0 0 0 0 0 0 0 0 0 0 0 0 0 0 0 0 0 0 1247 1247 1247 1268 1291 1291 1314 1338 1314 1291 1291 1362 1362 1388 1362 1362 1338 1415 1415 1501 1501 1443 1471 1501 1533 1533 1565 1599 1565 1565 1599 1599 1635 1711 1752 1795 1795 1839 1839 1936 1989 2044 1989 2044 2102 2230 2230 2374 2299 2299 2102 2299 2299 1989 2230 2164 2164 2299 2299 2453 2537 2537 2830 2830 2943 3066 3199 3345 3199 3199 3199 3066 3066 3199 3199 2943 3066 2943 3066 2943 3066 2943 3066 3199 3345 3504 3679 4329 4599 8177 0 0 0 0 0 0 0 0 8177 8177 8177 8177 8177 8177 8177 7359 7359 7359 7359 7359 7359 7359 8177 7359 8177 7359 6133 6133 4088 4088 3504 3504 3504 3199 3199 2943 2725 2830 2537 2628 2299 2374 2230 2299 2164 2164 2044 2102 1989 2102 1887 1989 2044 2044 1989 1936 1887 1887 1839 1752 1565 1443 1443 1471 1388 1501 1501 1415 1443 1362 0 0 0 0 1206 0 0 1115 1132 1149 1149 1206 1187 1149 1098 1098 1132 1082 0 0 0 994 943 0 0 0 0 0 0 0 0 0 817 782 750 735 758 791 728 750 750 735 743 735 721 714 0 0 694 687 0 0 0 0 0 0 140 140 0 0 0 2830 0 0 217 0 0 0 0 1115 0 0 3873 3679 4088 3873 4329 4088 0 0 0 0 931 0 0 931 0 0 0 0 0
    0 0 0 0 0 0 0 0 0 0 0 0 0 0 0 0 0 0 0 0 0 0 0 0 0 0 0 0 0 0 0 0 0 0 0 0 0 0 0 0 0 0 0 0 0 0 0 0 0 0 0 0 0 0 0 0 0 0 0 0 0 0 0 0 0 0 0 0 0 1247 1226 1247 1268 1291 1291 1314 1338 1291 1291 1268 1338 1338 1362 1338 1362 1338 1388 1415 1533 1501 1471 1471 1471 1533 1501 1533 1565 1501 1565 1599 1565 1599 1672 1752 1752 1795 1839 1839 1887 1936 2044 1989 1989 2102 2230 2299 2374 2299 2299 2044 2299 2299 1989 2230 2102 2102 2230 2299 2453 2537 2537 2830 2725 2943 3066 3199 3345 3199 3066 3066 3066 3199 3345 3066 3066 3066 3066 3066 3066 3066 3066 3066 3199 3345 3504 3504 4088 4599 6690 8177 0 0 0 0 0 0 0 8177 8177 7359 8177 7359 7359 7359 7359 7359 7359 7359 8177 7359 7359 8177 7359 8177 7359 6690 6133 4088 4088 3345 3504 3345 3199 3066 2830 2725 2725 2537 2537 2299 2299 2230 2299 2230 2164 2044 2164 1989 2102 1887 2044 2044 2044 1989 1936 1887 1887 1887 1795 1565 1443 1443 1443 1388 1501 1501 1415 1471 1362 0 0 0 0 1206 1187 0 1132 1132 1132 1149 1187 1168 1149 1098 1098 1149 1082 0 0 0 1008 943 0 0 0 0 0 0 0 0 0 817 782 750 743 758 791 728 743 743 728 735 728 714 700 0 0 694 681 0 0 0 0 0 0 140 140 0 0 0 2830 0 0 216 0 0 0 0 0 0 0 0 3504 3873 3679 4088 4088 0 0 919 0 931 919 0 919 0 0 0 0 0
    0 0 0 0 0 0 0 0 0 0 0 0 0 0 0 0 0 0 0 0 0 0 0 0 0 0 0 0 0 0 0 0 0 0 0 0 0 0 0 0 0 0 0 0 0 0 0 0 0 0 0 0 0 0 0 0 0 0 0 0 0 0 0 0 0 0 0 0 0 1226 1226 1247 1268 1291 1291 1314 1314 1291 1291 1268 1338 1314 1362 1362 1362 1338 1388 1415 1533 1501 1471 1471 1471 1501 1501 1501 1533 1443 1533 1565 1533 1533 1672 1711 1752 1752 1839 1839 1887 1936 2102 1989 1989 2102 2230 2299 2299 2230 2230 1989 2230 2299 1936 2164 2044 2102 2230 2230 2453 2537 2537 2830 2725 2830 3199 3199 3345 3066 3066 3199 3199 3199 3345 3066 3066 3199 3199 3066 3066 3199 3066 3199 3345 3345 3504 3504 4088 4906 7359 0 0 0 0 0 0 0 0 7359 7359 6690 7359 7359 7359 7359 7359 7359 7359 7359 8177 7359 8177 8177 8177 8177 8177 7359 6690 3873 3873 3199 3345 3345 3066 2943 2830 2725 2725 2537 2537 2299 2299 2299 2299 2230 2102 2044 2164 2044 2164 1989 2102 2102 2102 2102 1989 1936 1936 1887 1839 1599 1443 1443 1443 1388 1533 1501 1415 1471 1388 0 0 0 0 1206 1187 0 1132 1115 1132 1132 0 0 1149 1082 1098 1132 1082 0 0 0 0 943 0 0 931 955 0 0 0 0 0 0 782 750 743 758 799 728 735 735 728 728 721 0 694 118 118 687 675 0 0 0 0 0 0 140 140 0 0 0 2830 0 0 0 0 415 0 0 0 0 0 0 0 3873 3679 0 0 897 0 919 908 931 908 0 908 0 0 0 0 0
    0 0 0 0 0 0 0 0 0 0 0 0 0 0 0 0 0 0 0 0 0 0 0 0 0 0 0 0 0 0 0 0 0 0 0 0 0 0 0 0 0 0 0 0 0 0 0 0 0 0 0 0 0 0 0 0 0 0 0 0 0 0 0 0 0 0 0 0 0 1247 1247 1268 1268 1291 1291 1314 1338 1291 1291 1291 1338 1338 1362 1362 1388 1362 1388 1415 1565 1501 1471 1501 1471 1501 1471 1501 1501 1415 1501 1533 1533 1501 1635 1672 1711 1752 1839 1795 1839 1887 2102 1989 1989 2044 2164 2230 2299 2230 2164 1989 2164 2230 1936 2230 2044 2102 2230 2230 2537 2537 2537 2830 2725 2830 3199 3199 3345 3066 3199 3345 3345 3345 3504 3199 3199 3345 3345 3199 3199 3199 3345 3345 3504 3504 3679 3679 4088 5256 7359 8177 0 0 0 0 0 0 8177 7359 7359 6690 7359 6690 6690 6690 6690 6690 6690 7359 7359 7359 8177 8177 8177 8177 8177 8177 7359 3873 3873 3066 3345 3199 3066 2943 2725 2725 2725 2537 2537 2299 2299 2299 2299 2299 2102 2044 2230 2102 2164 2044 2164 2164 2164 2164 2044 1936 1936 1887 1839 1565 1415 1415 1415 1362 1533 1501 1415 1471 1388 0 0 0 0 1206 1187 0 1132 1115 1132 1132 0 0 1132 1082 1082 1132 1082 0 0 0 0 943 0 0 931 955 897 0 0 0 0 0 791 758 743 766 799 728 735 735 721 721 714 0 687 118 118 681 669 675 0 0 0 0 0 140 140 0 0 0 2725 0 0 0 0 415 0 0 92 0 0 0 0 3873 0 0 0 897 886 919 919 931 908 0 908 0 0 0 0 0
    0 0 0 0 0 0 0 0 0 0 0 0 0 0 0 0 0 0 0 0 0 0 0 0 0 0 0 0 0 0 0 0 0 0 0 0 0 0 0 0 0 0 0 0 0 0 0 0 0 0 0 0 0 0 0 0 0 0 0 0 0 0 0 0 0 0 0 0 0 1247 1247 1268 1268 1291 1291 1314 1338 1314 1314 1291 1362 1362 1388 1388 1388 1388 1362 1415 1565 1533 1501 1501 1471 1501 1471 1533 1471 1388 1501 1533 1533 1443 1635 1672 1711 1711 1795 1795 1839 1839 2044 1989 1989 2044 2102 2164 2230 2164 2164 1936 2102 2164 1936 2164 2044 2044 2230 2230 2537 2537 2453 2830 2725 2830 3066 3066 3345 3066 3345 3679 3504 3504 3679 3345 3345 3504 3345 3199 3345 3345 3504 3504 3504 3679 3679 3679 3873 4906 6690 8177 8177 0 0 0 0 8177 8177 7359 7359 6690 7359 6133 6690 6690 6690 6690 6690 6690 7359 7359 8177 8177 8177 8177 8177 8177 6690 3873 4088 3199 3199 3066 2943 2830 2628 2628 2725 2453 2537 2374 2230 2299 2299 2299 2044 2044 2299 2102 2164 2102 2164 2164 2164 2230 2044 1936 1887 1887 1839 1565 1388 1388 1388 1362 1533 1501 1415 1471 1388 0 0 0 0 1206 1187 1187 1132 1115 1115 1115 0 0 1132 1066 1082 1115 1082 0 0 0 0 955 955 968 943 955 897 0 0 0 0 0 791 774 750 774 799 735 728 728 721 0 0 0 681 118 118 681 669 669 0 0 0 0 0 140 140 0 0 0 2628 0 0 0 0 415 0 0 0 0 0 0 0 0 0 876 855 897 886 919 919 931 908 0 0 0 0 0 0 0
    0 0 0 0 0 0 0 0 0 0 0 0 0 0 0 0 0 0 0 0 0 0 0 0 0 0 0 0 0 0 0 0 0 0 0 0 0 0 0 0 0 0 0 0 0 0 0 0 0 0 0 0 0 0 0 0 0 0 0 0 0 0 0 0 0 0 0 0 0 1226 1226 1247 1247 1268 1268 1291 1314 1291 1291 1268 1338 1338 1388 1362 1388 1388 1338 1388 1565 1533 1471 1471 1471 1471 1443 1533 1471 1388 1501 1533 1533 1443 1635 1672 1672 1672 1752 1752 1795 1795 2044 1989 1989 2044 2164 2164 2230 2230 2164 1989 2102 2230 1936 2164 2102 2044 2230 2230 2537 2537 2453 2830 2725 2725 3066 3066 3345 3066 3345 3679 3504 3504 3873 3504 3679 3679 3679 3345 3504 3679 3873 3873 3873 3873 3873 3873 4088 5256 6133 7359 7359 8177 0 0 0 8177 8177 7359 6690 6690 6690 5661 6133 6133 6133 6690 6690 6690 7359 7359 0 8177 8177 7359 7359 7359 5661 3679 3679 3066 3066 2943 2725 2725 2537 2628 2628 2453 2453 2374 2230 2299 2299 2299 2044 2044 2299 2102 2164 2102 2164 2164 2164 2299 2044 1936 1887 1887 1839 1565 1362 1362 1362 1338 1533 1501 1415 1471 1388 0 0 0 0 1187 1187 1187 1132 1115 1115 1115 0 0 1132 1066 1066 1098 1066 0 0 0 0 943 955 968 931 955 897 0 0 0 0 0 0 791 758 782 808 735 0 0 0 0 0 0 681 118 118 675 663 663 0 0 0 210 0 0 0 0 0 0 0 0 0 0 0 418 0 0 0 0 0 0 0 0 0 876 855 897 886 919 919 931 919 931 0 0 0 0 0 0
    0 0 0 0 0 0 0 0 0 0 0 0 0 0 0 0 0 0 0 0 0 0 0 0 0 0 0 0 0 0 0 0 0 0 0 0 0 0 0 0 0 0 0 0 0 0 0 0 0 0 0 0 0 0 0 0 0 0 0 0 0 0 0 0 0 0 0 0 0 1226 1226 1226 1226 1268 1268 1268 1291 1268 1268 1247 1291 1291 1314 1338 1338 1338 1314 1388 1533 1501 1443 1471 1443 1443 1443 1533 1501 1388 1533 1565 1565 1443 1635 1672 1672 1672 1752 1752 1795 1795 2044 2044 1989 2044 2164 2164 2230 2230 2164 1989 2102 2299 1936 2164 2102 2044 2230 2230 2537 2537 2453 2830 2725 2725 3066 3066 3504 3199 3504 3873 3679 3679 3873 3679 4088 4088 4088 3679 3873 4088 4329 4599 4088 4329 4088 4088 4599 5661 6133 6690 7359 8177 8177 8177 0 8177 7359 7359 7359 6133 6690 5661 6690 6133 6133 6690 6690 6690 7359 7359 0 8177 8177 7359 7359 7359 6133 3873 3873 3066 2943 2943 2725 2628 2453 2628 2628 2374 2537 2453 2230 2374 2299 2453 2102 2102 2374 2102 2164 2164 2164 2164 2164 2299 2044 1936 1887 1887 1887 1565 1338 1338 1338 1338 1533 1501 1415 1443 1362 0 0 0 0 1206 1206 1206 1149 1115 1115 1115 0 0 1132 1066 1066 1082 0 0 0 0 0 943 955 955 931 955 897 0 0 0 0 92 91 799 766 782 808 735 0 0 0 0 0 0 675 118 117 675 657 657 687 0 0 211 0 0 0 0 0 0 0 0 0 0 0 418 413 0 0 0 0 209 0 0 845 865 855 897 897 919 919 931 919 931 919 0 0 0 0 0
    0 0 0 0 0 0 0 0 0 0 0 0 0 0 0 0 0 0 0 0 0 0 0 0 0 0 0 0 0 0 0 0 0 0 0 0 0 0 0 0 0 0 0 0 0 0 0 0 0 0 0 0 0 0 0 0 0 0 0 0 0 0 0 0 0 0 0 0 0 1226 1226 1226 1226 1247 1247 1247 1291 1247 1247 1226 1268 1291 1291 1291 1291 1314 1291 1388 1501 1501 1443 1443 1443 1443 1415 1533 1501 1388 1533 1599 1565 1443 1635 1672 1672 1672 1752 1711 1752 1752 2102 2044 1989 2044 2164 2230 2230 2230 2164 2044 2102 2299 1989 2230 2164 2044 2230 2230 2537 2537 2453 2830 2725 2725 0 3199 3504 3199 3504 3873 3679 3679 3873 3873 4088 4329 4599 3873 4329 4599 4906 5256 4599 5256 4906 4599 5256 6133 6133 6690 7359 7359 7359 7359 0 7359 7359 6690 6690 6133 6690 5661 6133 6133 6133 6133 6690 6690 7359 6690 0 8177 8177 7359 7359 7359 6133 4088 3873 3345 3066 2943 2725 2628 2453 2628 2628 2374 2537 2537 2299 2453 2374 2537 2164 2164 2453 2164 2164 2164 2164 2164 2164 2299 2044 1936 1887 1887 1887 1565 1338 1338 1338 1314 1533 1501 1415 1443 1362 0 0 0 0 1187 1187 1187 1149 1115 1115 1115 0 0 1115 1066 1066 1082 0 0 0 0 0 943 955 968 931 955 908 0 0 0 0 92 91 817 782 791 817 743 0 0 0 0 0 0 669 118 117 675 657 657 0 0 0 0 663 669 0 0 142 0 0 0 0 0 579 0 0 0 0 0 0 208 0 0 0 865 855 897 897 931 931 943 931 943 931 0 0 0 0 0
    0 0 0 0 0 0 0 0 0 0 0 0 0 0 0 0 0 0 0 0 0 0 0 0 0 0 0 0 0 0 0 0 0 0 0 0 0 0 0 0 0 0 0 0 0 0 0 0 0 0 0 0 0 0 0 0 0 0 0 0 0 0 0 0 0 0 0 0 0 1226 1247 1226 1206 1247 1226 1247 1268 1226 1226 1206 1247 1268 1268 1291 1291 1291 1268 1362 1471 1471 1415 1443 1443 1443 1415 1533 1501 1388 1533 1599 1565 1443 1635 1672 1672 1672 1752 1711 1752 1752 2044 2044 1936 2102 2164 2230 2164 2230 2164 2102 2102 2374 1989 2230 2230 2102 2299 2230 2537 2537 2453 2725 2725 2725 0 0 3504 3199 3504 4088 3873 3679 4088 4088 4599 4599 5256 4329 4599 5256 5661 6133 5256 6133 6133 5661 6690 7359 7359 8177 8177 8177 8177 7359 0 7359 7359 7359 6690 6133 6690 5256 6133 5661 6690 6133 6690 6690 7359 6690 0 8177 8177 7359 7359 6690 6133 4088 4088 3504 3066 3066 2725 2628 2453 2628 2628 2374 2537 2537 2299 2453 2453 2537 2164 2164 2453 2164 2164 2164 2164 2164 2164 2299 2044 1936 1887 1887 1887 1565 1362 1362 1362 1338 1533 1533 1415 0 0 0 0 0 0 1187 1187 1187 1149 1115 1115 1115 0 0 1115 1066 1066 1082 1066 0 0 0 0 943 955 968 931 955 908 855 897 0 0 92 91 826 791 799 826 743 0 0 0 0 95 95 663 118 117 669 657 651 0 215 218 0 669 675 669 681 143 0 0 0 0 0 584 0 0 0 0 0 0 0 0 209 0 0 0 897 897 931 931 943 931 943 931 0 0 0 0 0
    0 0 0 0 0 0 0 0 0 0 0 0 0 0 0 0 0 0 0 0 0 0 0 0 0 0 0 0 0 0 0 0 0 0 0 0 0 0 0 0 0 0 0 0 0 0 0 0 0 0 0 0 0 0 0 0 0 0 0 0 0 0 0 0 0 0 0 0 0 1226 1247 1206 1187 1226 1226 1226 1268 1226 1226 1206 1247 1268 1268 1268 1291 1268 1268 1362 1471 1471 1415 1443 1415 1443 1415 1533 1533 1388 1533 1599 1599 1443 1635 1672 1672 1672 1752 1711 1752 1752 2044 2044 1936 2044 2164 2164 2164 2164 2230 2102 2164 2374 2044 2299 2230 2102 2299 2230 2537 2537 2453 2725 2725 2725 0 0 3345 3199 3504 4088 3873 3873 4329 4329 4906 5256 5661 5256 5256 6133 6133 6690 6133 7359 6690 6690 8177 0 0 0 0 0 8177 8177 0 7359 7359 7359 6690 5661 6690 5256 6133 5661 6690 6133 6690 6690 7359 6690 0 8177 0 6690 7359 6690 6133 4329 4088 3679 3066 3066 2725 2628 2537 2628 2725 2453 2537 2628 2299 2537 2453 2537 2164 2164 2453 2164 2164 2164 2164 2164 2164 2299 2044 1936 1887 1887 1887 1565 1362 1362 1362 1338 1533 1501 1415 0 0 0 0 0 0 1187 1187 1187 1149 1115 1115 1115 1168 1082 1115 1066 1066 1082 0 0 0 0 0 943 955 955 931 955 908 855 908 908 0 92 91 836 808 817 826 750 0 0 0 0 95 95 663 657 657 669 651 651 0 216 0 0 675 681 675 0 144 0 629 0 0 0 588 579 588 0 0 0 0 0 209 209 0 0 0 0 897 931 931 943 931 943 943 0 0 0 0 0
    0 0 0 0 0 0 0 0 0 0 0 0 0 0 0 0 0 0 0 0 0 0 0 0 0 0 0 0 0 0 0 0 0 0 0 0 0 0 0 0 0 0 0 0 0 0 0 0 0 0 0 0 0 0 0 0 0 0 0 0 0 0 0 0 0 0 0 0 0 1247 1247 1206 1187 1226 1226 1226 1268 1226 1226 1226 1268 1291 1291 1291 1291 1291 1268 1362 1443 1443 1415 1415 1415 1443 1415 1533 1533 1388 1565 1599 1599 1443 1635 1672 1672 1672 1752 1711 1711 1752 2044 1989 1936 2102 2164 2164 2164 2164 2230 2102 2164 2374 2102 2299 2299 2164 2374 2230 2537 2537 2453 2725 2725 2725 0 0 3345 3199 3679 4088 3873 3873 4088 4329 5256 5256 6133 5661 5661 6133 6690 7359 7359 8177 8177 8177 0 0 0 0 0 0 8177 8177 0 7359 7359 7359 6690 6133 6690 5256 6133 5661 6690 6133 6690 6690 7359 6690 0 8177 0 6690 7359 6690 6133 4329 4088 3504 3066 3066 2725 2725 2537 2725 2830 2453 2628 2628 2374 2628 2453 2537 2230 2164 2453 2164 2164 2164 2164 2164 2164 2299 2044 1936 1887 1887 1887 1565 1362 1362 1362 1338 1533 1501 1415 0 0 0 0 0 1247 1206 1187 1187 1149 1115 1132 1115 1187 1098 1115 1066 1066 1098 0 0 0 0 0 931 943 955 919 955 908 855 919 919 943 0 855 845 0 0 836 750 0 0 0 0 95 95 663 657 657 669 651 651 216 216 0 0 681 687 681 0 144 657 629 623 0 0 588 584 593 598 0 0 0 0 209 209 0 0 0 0 908 931 0 943 0 943 0 0 0 0 0 0
    0 0 0 0 0 0 0 0 0 0 0 0 0 0 0 0 0 0 0 0 0 0 0 0 0 0 0 0 0 0 0 0 0 0 0 0 0 0 0 0 0 0 0 0 0 0 0 0 0 0 0 0 0 0 0 0 0 0 0 0 0 0 0 0 0 0 0 0 0 1247 1247 1187 1168 1226 1226 1226 1268 1226 1226 1226 1268 1314 1268 1291 1291 1291 1268 1362 1443 1443 1415 1415 1415 1443 1415 1565 1533 1415 1565 1599 1599 1443 1635 1711 1711 1672 1752 1711 1711 1752 1989 1989 1887 2102 2164 2230 2164 2230 2299 2164 2230 2374 2164 2299 2299 2164 2374 2230 2537 2537 2453 2725 2725 2725 3066 3066 3345 3199 3679 4088 3873 3873 4088 4329 5256 5256 6133 5661 6133 6690 6690 8177 7359 8177 8177 0 0 0 0 0 0 0 0 8177 0 8177 7359 8177 7359 6133 6690 5256 6133 5661 6690 6133 6690 6690 7359 7359 0 8177 0 6690 7359 6690 6133 4088 4088 3504 3066 3066 2725 2725 2537 2725 2830 2453 2628 2725 2374 2628 2537 2628 2230 2164 2453 2164 2164 2164 2164 2164 2164 2299 2044 1936 1887 1887 1887 1565 1362 1362 1362 1338 1501 1501 1415 0 0 0 0 0 1247 1206 1206 1206 1168 1132 1149 1132 1206 1115 1132 1082 1082 1098 0 0 0 0 0 919 0 955 919 955 908 855 919 919 943 0 865 855 0 0 836 750 0 0 0 0 95 95 663 657 657 669 651 651 216 217 0 0 687 694 681 0 145 657 629 623 618 0 593 588 593 598 0 0 0 0 209 208 0 0 0 0 0 0 500 0 0 0 0 0 0 0 0 0
    0 0 0 0 0 0 0 0 0 0 0 0 0 0 0 0 0 0 0 0 0 0 0 0 0 0 0 0 0 0 0 0 0 0 0 0 0 0 0 0 0 0 0 0 0 0 0 0 0 0 0 0 0 0 0 0 0 0 0 0 0 0 0 0 0 0 0 0 0 1226 1247 1187 1168 1206 1226 1206 1268 1206 1206 1206 1268 1291 1268 1268 1291 1291 1291 1388 1443 1443 1415 1443 1443 1443 1443 1565 1533 1415 1565 1599 1599 1443 1672 1711 1711 1672 1752 1711 1711 1752 0 1936 1887 2164 2230 2299 2230 2299 2299 2230 2230 2374 2164 2374 2299 2230 2374 2299 2537 2537 2537 2830 2830 2830 3066 3066 3504 3345 3679 3873 3873 3679 4088 4329 5256 4906 6133 5661 6133 6690 7359 8177 8177 0 0 0 0 0 0 0 0 0 0 8177 8177 8177 7359 7359 7359 6133 6690 5661 6133 6133 6690 6690 6690 7359 7359 7359 0 8177 0 7359 7359 7359 6133 4329 4088 3504 2943 3066 2725 2725 2628 2725 2830 2537 2628 2725 2374 2628 2537 2628 2230 2164 2374 2164 2164 2164 2164 2164 2102 2230 1989 1936 1887 1887 1839 1533 1338 1338 1338 1338 1501 1501 1415 0 1362 0 0 0 1247 1206 1206 1206 1187 1149 1168 1149 1206 1149 1132 1082 1082 1098 0 0 0 0 0 0 0 955 919 943 908 855 931 931 955 908 876 855 0 91 845 750 0 0 0 0 0 95 663 657 657 669 651 651 216 216 0 0 694 694 687 681 0 663 629 623 623 608 593 588 593 598 593 598 608 0 0 207 0 0 0 0 0 507 504 504 504 0 500 0 0 0 0 0
    0 0 0 0 0 0 0 0 0 0 0 0 0 0 0 0 0 0 0 0 0 0 0 0 0 0 0 0 0 0 0 0 0 0 0 0 0 0 0 0 0 0 0 0 0 0 0 0 0 0 0 0 0 0 0 0 0 0 0 0 0 0 0 0 0 0 0 0 0 1226 1226 1168 1149 1206 1206 1206 1247 1206 1206 1206 1268 1291 1247 1247 1291 1291 1291 1388 1443 1443 1415 1443 1443 1443 1443 1565 1533 1415 1565 1599 1599 1443 1672 1711 1711 1672 1752 1711 1752 1752 0 1936 1887 2230 2230 2299 2230 2299 2299 2230 2299 2374 2230 2374 2374 2299 2374 2374 2628 2537 2628 2943 2943 2943 3199 3066 3345 3345 3679 3679 3679 3504 3679 4329 4906 4906 5661 5661 6133 6690 7359 8177 8177 0 0 0 0 0 0 0 0 0 0 8177 8177 7359 7359 7359 6690 6690 6690 5661 6690 6133 6690 6690 7359 7359 8177 7359 0 8177 0 7359 8177 7359 6690 4599 4329 3873 3199 3199 2830 2725 2725 2830 2943 2537 2725 2830 2453 2725 2628 2628 2230 2164 2374 2164 2164 2164 2102 2102 2102 2230 1989 1936 1887 1839 1839 1565 1338 1338 1338 1338 1471 1471 1415 0 1362 0 0 0 1247 1226 1226 1226 1187 1168 1187 1168 1226 1168 1149 1098 1098 1115 0 0 0 0 0 0 0 0 908 931 897 855 931 919 955 908 876 855 0 91 0 750 0 0 0 0 0 95 663 657 657 669 651 651 0 216 0 0 700 700 694 687 0 663 629 629 623 608 598 593 593 598 598 598 608 629 0 0 0 0 0 521 0 511 504 507 504 504 504 0 0 0 0 0
    0 0 0 0 0 0 0 0 0 0 0 0 0 0 0 0 0 0 0 0 0 0 0 0 0 0 0 0 0 0 0 0 0 0 0 0 0 0 0 0 0 0 0 0 0 0 0 0 0 0 0 0 0 0 0 0 0 0 0 0 0 0 0 0 0 0 0 0 0 1226 1226 1168 1149 1206 1206 1206 1247 1206 1206 1226 1268 1291 1268 1268 1314 1338 1314 1388 1443 1443 1443 1443 1443 1443 1443 1565 1501 1415 1565 1599 1599 1443 1672 1711 1752 1672 1752 1752 1752 1752 0 1887 1839 2164 2230 2299 2164 2299 2230 2230 2230 2374 2230 2374 2374 2299 2374 2453 2628 2628 2725 2943 3066 3066 3199 3199 3345 3199 3504 3504 3679 3504 3504 4088 4599 4599 5661 5661 6133 6133 7359 8177 7359 0 0 0 0 0 0 0 0 0 0 8177 8177 8177 7359 7359 7359 6690 7359 6133 6690 6133 6690 6690 7359 7359 8177 8177 0 0 0 7359 8177 7359 7359 4906 4599 4088 3345 3345 2943 2830 2830 3066 3066 2628 2725 2830 2453 2725 2628 2628 2299 2164 2374 2164 2164 2164 2102 2102 2102 2164 1989 1887 1887 0 1795 1565 1338 1338 1338 1338 1471 1471 1388 290 1362 0 0 0 1247 1226 1226 1226 1206 1168 1187 1168 1226 1187 1149 1098 1098 1115 0 0 0 0 0 0 0 0 908 931 897 865 931 931 955 919 876 855 91 91 0 750 0 0 0 0 0 95 663 657 657 669 651 651 0 216 0 721 707 707 0 694 0 669 634 634 629 608 598 593 598 598 598 603 618 634 0 0 0 98 0 525 0 514 507 507 504 504 504 0 0 0 0 0
    0 0 0 0 0 0 0 0 0 0 0 0 0 0 0 0 0 0 0 0 0 0 0 0 0 0 0 0 0 0 0 0 0 0 0 0 0 0 0 0 0 0 0 0 0 0 0 0 0 0 0 0 0 0 0 0 0 0 0 0 0 0 0 0 0 0 0 0 0 1247 1247 1168 1149 1206 1206 1206 1247 1206 1206 1226 1291 1314 1291 1291 1338 1388 1338 1415 1443 1471 1443 1471 1443 1443 1443 1565 1501 1388 1565 1599 1599 1443 1672 1752 1752 1711 1752 1752 1752 1752 0 1839 1839 2164 2164 2230 2102 2299 2230 2230 2230 2299 2230 2374 2299 2299 2374 2537 2628 2628 2830 3066 3066 3199 3345 3199 3345 3199 3504 3345 3504 3345 3504 3873 4599 4599 5661 5661 6133 6133 7359 7359 7359 0 8177 0 0 0 0 0 0 8177 8177 8177 8177 8177 7359 7359 7359 6690 6690 6133 6690 6133 6690 6690 7359 7359 8177 8177 0 0 0 7359 7359 7359 7359 4906 4599 4088 0 3345 2943 2830 2830 3066 3066 2628 2830 2830 2537 2725 2725 2725 2299 2164 2374 2164 2164 2164 2044 2044 2044 2102 1936 1887 1887 0 1795 1565 1314 1314 1314 1314 1443 1443 1388 290 0 0 1268 1206 1226 1226 1206 1206 1206 1168 1187 1168 1226 1187 1149 1115 1098 1132 493 504 0 0 0 0 0 0 0 931 908 865 931 931 955 919 876 855 91 91 0 750 0 0 0 0 95 95 663 657 657 669 651 651 0 216 0 728 714 714 0 0 0 675 645 639 634 0 598 598 598 598 603 603 618 629 645 608 0 0 0 529 0 518 507 507 504 504 504 0 0 0 0 0
    0 0 0 0 0 0 0 0 0 0 0 0 0 0 0 0 0 0 0 0 0 0 0 0 0 0 0 0 0 0 0 0 0 0 0 0 0 0 0 0 0 0 0 0 0 0 0 0 0 0 0 0 0 0 0 0 0 0 0 0 0 0 0 0 0 0 0 0 0 1247 1247 1149 1149 1187 1206 1206 1247 1206 1226 1247 1291 1362 1314 1338 1388 1443 1338 1443 1471 1471 1471 1471 1443 1443 1443 1599 1501 1362 1599 1599 1599 1443 1711 1752 1752 1711 1752 1752 1752 1752 0 1795 1795 2102 2102 2230 2102 2299 2230 2230 2230 2299 2230 2374 2374 2374 2453 2628 2725 2725 3066 3066 3199 3199 3345 3199 3345 3345 3504 3345 3504 3345 3345 3873 4599 4599 5661 5661 6133 6133 7359 7359 7359 8177 7359 8177 0 0 0 0 0 0 8177 0 0 8177 7359 7359 7359 6690 6690 6133 6690 6690 7359 7359 8177 8177 8177 8177 0 0 0 7359 7359 7359 7359 4906 4599 3873 0 3345 2943 2830 2830 3066 3066 2725 2830 2943 2537 2830 2725 2725 2299 2164 2374 2164 2164 2164 2044 2044 1989 2102 1887 1839 1887 0 1752 1565 1314 1314 1314 1314 1415 1388 1362 289 1314 0 0 1206 1226 1206 1206 1206 1187 1168 1187 1168 1226 1187 1149 1115 1098 1132 0 0 0 0 0 0 0 0 0 931 908 865 931 931 955 919 876 855 91 91 0 750 0 0 0 0 0 95 95 95 657 669 651 651 0 216 0 743 728 721 714 0 0 0 657 651 634 618 603 598 598 598 598 603 613 613 618 598 0 0 0 533 0 518 511 507 504 504 504 0 0 0 0 0
    0 0 0 0 0 0 0 0 0 0 0 0 0 0 0 0 0 0 0 0 0 0 0 0 0 0 0 0 0 0 0 0 0 0 0 0 0 0 0 0 0 0 0 0 0 0 0 0 0 0 0 0 0 0 0 0 0 0 0 0 0 0 0 0 0 0 0 0 0 1247 1226 1149 1149 1187 1206 1187 1247 1226 1226 1247 1314 1388 1362 1388 1443 1533 1362 1443 1471 1471 1471 1471 1443 1415 1415 1599 1501 1362 1599 1599 1635 1443 1711 1752 1752 1711 1752 1752 1752 1752 0 1795 1795 2044 2102 2230 2102 2299 2230 2230 2230 2299 2299 2374 2374 2453 2537 2725 2943 2830 3199 3199 3345 3345 3504 3199 3345 3345 3504 3345 3679 3345 3345 3679 4599 4599 5256 5661 6690 6133 7359 7359 7359 7359 7359 7359 0 0 0 8177 8177 7359 7359 8177 8177 8177 7359 7359 6690 6133 6690 6690 6133 6690 6690 7359 8177 8177 0 8177 0 0 0 8177 8177 7359 7359 4599 4599 3679 0 3199 2943 2830 2830 3199 3199 2725 2830 2943 2628 2830 2725 2725 2299 2164 2374 2164 2164 2164 1989 1989 1989 2044 1887 1839 1839 0 1672 1565 1314 1314 1314 1314 1362 1362 1338 288 0 0 0 1187 1206 1206 1206 1206 1206 1168 1187 1187 1247 1187 1168 1115 1115 1132 0 0 0 0 0 0 0 0 0 919 908 865 931 919 955 919 876 855 91 91 0 750 0 0 0 0 0 95 95 95 657 669 651 657 0 216 0 750 735 728 721 0 0 0 669 663 645 623 603 598 598 593 598 598 608 603 603 588 570 566 0 0 0 0 511 511 504 504 504 0 0 0 0 0
    0 0 0 0 0 0 0 0 0 0 0 0 0 0 0 0 0 0 0 0 0 0 0 0 0 0 0 0 0 0 0 0 0 0 0 0 0 0 0 0 0 0 0 0 0 0 0 0 0 0 0 0 0 0 0 0 0 0 0 0 0 0 0 0 0 0 0 0 0 1226 1206 1132 1132 1168 1187 1187 1247 1206 1226 1247 1314 1388 1388 1443 1533 1599 1362 1443 1501 1471 1471 1471 1443 1415 1415 1565 1501 1338 1599 1599 1635 1443 1711 1752 1752 1711 1752 1752 1752 1752 0 1795 1795 2044 2102 2164 2102 2299 2230 2230 2230 2299 2299 2374 2374 2537 2537 2943 3066 2943 3345 3199 3504 3504 3504 3345 3345 3345 3504 3345 3679 3345 3345 3504 4599 4329 5256 6133 6690 6133 7359 8177 8177 8177 7359 7359 8177 8177 7359 7359 7359 6690 6690 7359 7359 7359 6690 7359 6133 5661 6133 6133 6133 6133 6690 6690 8177 8177 0 0 0 0 0 8177 8177 7359 7359 4599 4329 3873 0 3199 2943 2943 2943 3199 3199 2725 2830 2943 2628 2830 2725 2725 2299 2164 2374 2164 2164 2164 1936 1936 1936 1989 1839 1795 1839 0 1635 1599 1291 1291 1291 1314 1338 1338 1314 287 1268 0 0 1168 1206 1206 1206 1206 1206 1187 1206 1187 1247 1206 1168 1115 1115 1149 0 0 0 0 0 0 0 0 0 919 908 865 919 919 955 908 876 855 91 91 0 750 0 0 0 0 0 95 95 95 657 669 651 657 0 0 728 750 735 0 721 0 0 0 675 675 651 629 608 603 603 593 598 598 608 603 598 588 574 570 561 0 0 0 514 511 507 504 504 0 0 0 0 0
    0 0 0 0 0 0 0 0 0 0 0 0 0 0 0 0 0 0 0 0 0 0 0 0 0 0 0 0 0 0 0 0 0 0 0 0 0 0 0 0 0 0 0 0 0 0 0 0 0 0 0 0 0 0 0 0 0 0 0 0 0 0 0 0 0 0 0 0 0 1187 1187 1115 1132 1149 1187 1187 1247 1226 1226 1247 1314 1388 1415 1471 1565 1635 1362 1471 1501 1471 1471 1471 1443 1415 1415 1565 1471 1338 1599 1599 1635 1443 1711 1752 1752 1672 1752 1752 1752 1711 0 1795 1795 1989 2044 2102 2102 2230 2164 2164 2230 2299 2299 2453 2374 2628 2628 3066 3199 3066 3504 3199 3504 3679 3504 3345 3345 3345 3504 3345 3679 3199 3199 3504 4599 4329 5256 6133 6690 6690 7359 8177 8177 7359 8177 7359 8177 8177 7359 7359 7359 6690 7359 7359 7359 7359 6690 6690 5661 5256 6133 5661 5661 6133 6133 6690 7359 8177 0 0 0 0 0 7359 8177 7359 7359 4329 4329 3873 0 3199 2943 2943 2943 3345 3345 2830 2830 3066 2725 2830 2725 2725 2299 2164 2374 2164 2164 2164 1936 1936 1936 1989 1795 1752 1795 0 1599 1599 1291 1291 1291 1314 1314 1291 0 285 1247 0 0 1168 1187 1206 1206 1206 1206 1187 1206 1187 1247 1206 1168 1115 1115 1149 1098 1115 0 0 968 0 919 0 0 919 908 865 919 908 955 908 876 855 91 91 0 743 0 0 0 0 675 95 95 95 657 669 651 657 687 0 728 750 735 0 728 0 0 0 681 675 657 639 608 608 603 593 598 598 603 598 593 584 574 574 566 0 0 0 514 511 507 504 504 0 0 0 0 0
    0 0 0 0 0 0 0 0 0 0 0 0 0 0 0 0 0 0 0 0 0 0 0 0 0 0 0 0 0 0 0 0 0 0 0 0 0 0 0 0 0 0 0 0 0 0 0 0 0 0 0 0 0 0 0 0 0 0 0 0 0 0 0 0 0 0 0 0 0 1168 1168 1115 1132 1149 1187 1187 1247 1226 1226 1247 1314 1388 1443 1471 1599 1635 1362 1471 1501 1471 1471 1443 1443 1415 1415 1565 1443 1314 1599 1599 1599 1415 1711 1752 1752 1672 1752 1752 1752 1711 0 1839 1795 1989 2044 2102 2044 2230 2164 2164 2164 2299 2299 2453 2453 2725 2725 3199 3345 3066 3345 3199 3504 3679 3504 3345 3199 3199 3504 3345 3679 3199 3199 3504 4599 4599 5256 6133 7359 6690 7359 8177 8177 7359 8177 7359 8177 8177 7359 7359 7359 6690 6690 6690 7359 6690 6133 6133 5661 5256 5661 5661 5661 6133 6133 6690 7359 0 0 0 0 0 0 8177 8177 8177 7359 4088 4329 3873 0 3345 3066 3066 3066 3345 3345 0 2830 3066 2725 2830 2725 2725 2299 2164 2374 2164 2164 2164 1887 1887 1887 1936 1795 1752 1752 0 0 1599 1291 1291 1291 1314 1268 1291 1291 0 1247 1168 0 0 1187 1206 1206 1206 1187 1168 1206 1187 1247 1206 1168 1115 1115 1149 1098 1115 0 994 981 0 931 0 0 919 908 865 919 908 955 897 876 855 91 91 92 743 0 681 681 657 675 0 95 95 657 669 651 657 687 0 728 758 743 0 0 0 0 0 681 681 663 639 613 608 603 593 598 598 603 598 593 588 574 574 574 545 0 0 518 511 507 504 504 0 0 0 0 0
    0 0 0 0 0 0 0 0 0 0 0 0 0 0 0 0 0 0 0 0 0 0 0 0 0 0 0 0 0 0 0 0 0 0 0 0 0 0 0 0 0 0 0 0 0 0 0 0 0 0 0 0 0 0 0 0 0 0 0 0 0 0 0 0 0 0 0 0 0 1168 1149 1115 1132 1149 1187 1187 1247 1226 1247 1247 1314 1388 1443 1471 1599 1599 1388 1471 1501 1471 1443 1443 1415 1415 1415 1533 1388 1291 1599 1599 1599 1415 1711 1752 1752 1672 1752 1711 1711 1711 0 1839 1839 1936 1989 2102 2044 2230 2164 2164 2164 2299 2299 2453 2374 2725 2725 3199 3199 3066 3345 3199 3504 3679 3504 3345 3199 3199 3504 3345 3873 3199 3199 3504 4329 4599 5256 6133 7359 6690 7359 7359 7359 7359 7359 6690 7359 7359 6690 7359 7359 6690 6690 6690 6690 6133 6133 5661 5256 5256 5256 5661 5661 5661 6133 6690 7359 8177 0 0 0 0 0 7359 8177 8177 7359 4329 4329 3873 3345 3345 3066 3199 3199 3345 3345 0 2943 3066 2725 2943 2725 2725 2299 2164 2374 2164 2164 2164 1887 1887 1887 1887 1752 1711 1752 0 0 1599 1314 1314 1314 1314 1247 1268 1268 1206 1226 1149 0 0 1168 1187 1187 1187 1187 1168 1187 1187 0 1206 1168 1115 1115 1149 1098 1132 1051 994 981 0 943 0 919 919 919 865 919 908 955 897 876 855 91 91 92 743 0 681 681 657 675 0 95 95 657 669 657 657 687 0 735 774 0 0 0 0 0 0 687 681 663 645 613 613 603 593 598 598 608 603 593 588 574 579 574 0 0 0 518 511 507 504 504 0 0 0 0 0
    0 0 0 0 0 0 0 0 0 0 0 0 0 0 0 0 0 0 0 0 0 0 0 0 0 0 0 0 0 0 0 0 0 0 0 0 0 0 0 0 0 0 0 0 0 0 0 0 0 0 0 0 0 0 0 0 0 0 0 0 0 0 0 0 0 0 0 0 0 1149 1149 1115 1149 1168 1187 1187 1247 1247 1247 1247 1314 1388 1443 1471 1565 1599 1388 1471 1501 1471 1443 1443 1443 1415 1415 1565 1415 1291 1599 1599 1599 1415 1672 1752 1752 1672 1752 1711 1711 1711 0 1839 1839 1936 1989 2102 2044 2164 2164 2164 2164 2230 2299 2453 2374 2725 2725 3066 3199 2943 3345 3199 3504 3679 3504 3345 3199 3345 3504 3504 3873 3199 3199 3504 4329 4599 5256 6133 7359 7359 7359 7359 7359 7359 7359 6690 7359 6690 6133 7359 7359 6690 6690 6690 7359 6133 6133 6133 5256 5256 5256 5661 5661 5661 6133 6690 7359 8177 8177 8177 0 0 0 8177 8177 8177 7359 4329 4329 3873 3345 3345 3066 3199 3066 3345 3345 0 2830 3066 2725 2830 2725 2725 2299 2164 2374 2102 2102 2102 1839 1839 1839 1839 1752 1711 1711 0 0 1599 1314 1314 1314 1314 1206 1247 1247 1206 1206 1132 0 0 1168 1187 1187 1187 1187 1168 1187 1187 0 1187 1168 1115 1115 1168 1115 1149 1051 994 981 0 943 0 919 919 919 876 919 908 943 897 876 855 91 91 92 0 0 681 681 657 669 0 95 95 657 675 657 657 0 0 743 0 0 0 0 0 0 0 0 0 663 651 613 608 603 593 598 598 603 603 593 588 574 574 574 0 0 0 518 511 507 504 504 0 0 0 0 0
    0 0 0 0 0 0 0 0 0 0 0 0 0 0 0 0 0 0 0 0 0 0 0 0 0 0 0 0 0 0 0 0 0 0 0 0 0 0 0 0 0 0 0 0 0 0 0 0 0 0 0 0 0 0 0 0 0 0 0 0 0 0 0 0 0 0 0 0 0 1168 1168 1132 1168 1187 1206 1206 1268 1247 1247 1268 1314 1362 1443 1471 1565 1599 1388 1471 1533 1471 1471 1471 1443 1443 1415 1565 1415 1291 1565 1565 1599 1388 1672 1711 1752 1672 1711 1711 1711 1711 0 1839 1839 1936 1989 2164 2044 2230 2164 2164 2164 2299 2299 2537 2453 2725 2725 3066 3199 2943 3345 3066 3504 3504 3504 3345 3345 3345 3679 3504 4088 3345 3345 3679 4329 4599 5256 6133 7359 7359 7359 7359 8177 7359 7359 6690 7359 6133 6133 6690 7359 6690 6133 6133 6690 6133 6133 5661 5256 5256 5256 5661 5661 5661 6133 6690 6690 8177 8177 8177 0 0 0 8177 8177 8177 7359 4599 4329 4088 3345 3199 2943 3199 3066 3345 3199 0 2830 2943 2628 2830 2628 2628 2299 2164 2299 2044 2044 2102 1795 1795 1795 1795 1711 1711 1672 0 0 1565 1338 1338 1338 1314 1187 1247 1247 1187 1206 1132 0 0 1168 1187 1187 1187 1187 1168 1187 1187 0 1187 1168 1132 1115 1187 1132 1168 1066 1008 994 0 955 955 931 919 919 876 919 908 943 897 876 855 91 91 0 0 0 681 681 657 669 657 95 95 663 675 663 663 0 215 750 0 0 0 0 0 0 0 0 0 663 645 608 608 598 593 593 593 603 598 593 588 574 574 566 0 0 525 518 511 507 504 504 0 0 0 0 0
    0 0 0 0 0 0 0 0 0 0 0 0 0 0 0 0 0 0 0 0 0 0 0 0 0 0 0 0 0 0 0 0 0 0 0 0 0 0 0 0 0 0 0 0 0 0 0 0 0 0 0 0 0 0 0 0 0 0 0 0 0 0 0 0 0 0 0 0 0 1168 1149 1149 1187 1187 1226 1226 1268 1268 1268 1268 1314 1388 1471 1443 1599 1599 1388 1471 1533 1471 1471 1471 1471 1443 1443 1565 1443 1314 1599 1565 1565 1388 1672 1711 1752 1672 1711 1711 1752 1711 0 1839 1839 1989 1989 2164 2044 2230 2230 2164 2164 2299 2230 2537 2374 2725 2725 2943 3066 2830 3199 3066 3345 3504 3504 3345 3345 3345 3679 3504 4088 3504 3504 3679 4329 4329 5256 5661 7359 6690 7359 6690 6690 6690 7359 6690 6690 6133 6133 6690 6690 6690 6133 6133 6133 5661 5661 5661 4906 5256 5256 5661 5661 5661 6133 6690 7359 8177 8177 0 0 0 0 0 0 0 8177 5256 4599 4088 3345 3345 3066 3199 3066 3345 3199 0 2830 2943 2628 2830 2628 2628 2299 2164 2299 2044 2044 2044 1795 1795 1795 1795 1711 1711 1672 0 0 1599 1362 1362 1362 1338 1187 1247 1247 1187 1187 1115 0 0 1149 1187 1187 1187 1168 1168 1187 1187 0 1206 1168 1132 1132 1187 1132 1168 1082 1022 1008 0 955 955 931 919 931 876 919 908 955 897 876 0 91 91 0 0 675 675 675 651 669 657 95 95 663 675 663 669 0 215 758 0 0 0 0 0 0 0 0 0 663 645 608 603 598 593 593 593 598 598 593 588 574 570 561 537 0 525 518 511 511 504 504 0 0 0 0 0
    0 0 0 0 0 0 0 0 0 0 0 0 0 0 0 0 0 0 0 0 0 0 0 0 0 0 0 0 0 0 0 0 0 0 0 0 0 0 0 0 0 0 0 0 0 0 0 0 0 0 0 0 0 0 0 0 0 0 0 0 0 0 0 0 0 0 0 0 0 1168 1168 1168 1206 1206 1226 1226 1268 1268 1268 1268 1314 1388 1443 1443 1599 1599 1388 1471 1533 1471 1471 1471 1501 1471 1443 1565 1443 1314 1565 1565 1565 1388 1672 1711 1752 1711 1711 1711 1752 1711 0 1839 1839 1989 1989 2164 2044 2230 2230 2164 2164 2299 2230 2453 2374 2628 2628 2830 3066 2830 3199 3199 3345 3504 3504 3345 3345 3345 3679 3504 4088 3504 3504 3873 4599 4329 5256 5661 7359 7359 7359 6690 6133 6133 6690 6133 6133 5661 5661 6133 6133 6133 5661 5661 5661 5256 5661 5256 4906 5256 5256 5256 5256 5661 6133 6133 6690 8177 8177 0 0 0 0 0 0 0 0 6133 4906 4329 3345 3345 3066 3199 3066 3199 3199 0 2830 2943 2628 2725 2628 2628 2299 2164 2299 2044 2044 1989 1795 1795 1795 1795 1711 1752 1711 0 0 1599 1388 1388 1388 1362 1206 1247 1247 1187 1187 1115 0 0 1149 1187 1187 1187 1168 1168 1187 1168 0 1206 1168 1132 1132 1187 1132 1168 1082 1022 1022 0 968 955 931 931 931 876 919 908 955 897 886 0 91 91 0 0 675 675 675 651 669 657 95 95 663 681 669 669 0 0 758 0 0 0 0 0 0 152 0 0 663 639 608 603 598 593 598 593 603 598 598 593 579 579 561 537 0 525 518 511 511 507 507 0 0 0 0 0
    0 0 0 0 0 0 0 0 0 0 0 0 0 0 0 0 0 0 0 0 0 0 0 0 0 0 0 0 0 0 0 0 0 0 0 0 0 0 0 0 0 0 0 0 0 0 0 0 0 0 0 0 0 0 0 0 0 0 0 0 0 0 0 0 0 0 0 0 0 1206 1187 1206 1226 1226 1247 1247 1291 1268 1268 1268 1314 1362 1443 1415 1599 1565 1388 1471 1533 1501 1471 1501 1501 1471 1471 1599 1443 1314 1599 1565 1565 1388 1672 1711 1752 1711 1711 1711 1752 1752 0 1887 1839 1989 1989 2164 2044 2230 2164 2102 2164 2299 2230 2453 2374 2628 2537 2725 2943 2830 3199 3199 3345 3504 3504 3345 3504 3345 3873 3504 4088 3504 3504 3873 4329 4088 5256 5661 6690 6133 6690 5661 4906 5661 5661 5661 5661 4906 5256 5661 5661 6133 5256 5661 5661 4906 6133 5256 4599 5256 5256 5256 5256 5661 6133 6690 7359 0 0 0 0 0 0 0 0 0 0 6690 5256 4329 3345 3345 3066 3066 3066 3066 3066 0 2725 2830 2628 2725 2628 2537 2374 2164 2299 2044 2044 1989 1795 1795 1795 1795 1711 1752 0 0 0 1635 1388 1415 1415 1362 1226 1268 1247 1187 1187 1132 0 0 1149 1187 1168 1168 1168 1149 1187 1168 0 1187 1168 1132 1132 1187 1149 1168 1082 1036 1022 0 968 968 931 931 931 876 919 919 955 908 886 91 91 91 0 728 675 675 675 651 669 657 95 95 669 687 675 675 0 0 766 0 0 0 0 0 0 152 0 0 657 639 608 598 598 598 598 598 603 603 603 598 584 588 557 537 0 525 518 511 514 507 511 0 0 0 0 0
    0 0 0 0 0 0 0 0 0 0 0 0 0 0 0 0 0 0 0 0 0 0 0 0 0 0 0 0 0 0 0 0 0 0 0 0 0 0 0 0 0 0 0 0 0 0 0 0 0 0 0 0 0 0 0 0 0 0 0 0 0 0 0 0 0 0 0 0 0 1226 1206 1226 1247 1226 1247 1247 1291 1268 1268 1291 1314 1338 1415 1388 1565 1533 1362 1471 1533 1501 1501 1501 1533 1501 1471 1599 1443 1291 1599 1599 1565 1388 1672 1711 1752 1711 1752 1752 1752 1752 0 1887 1839 1989 1989 2164 2044 2230 2164 2102 2164 2299 2164 2453 2299 2628 2453 2628 2830 2725 3066 3066 3345 3345 3345 3345 3504 3345 3873 3504 3873 3679 3679 3873 4329 4088 5256 4906 5661 4906 4599 4329 4088 4906 4906 4906 4906 4329 4906 5256 5661 6133 5256 5661 5661 4906 6133 5661 4906 5661 5256 5661 5661 5661 6133 6690 7359 0 0 0 0 0 0 0 0 0 0 7359 5661 4088 3345 3345 3066 3066 3066 0 0 0 2725 2830 2537 2628 2537 2453 2299 2164 2299 2044 2102 2044 1795 1795 1795 1795 1672 1711 1672 0 0 1635 1415 1443 1443 1388 1291 1291 1291 1206 1206 1149 0 0 1149 1187 1168 1168 1168 1149 1187 1168 1226 1187 1168 1149 1149 1206 1168 1187 1082 1036 1036 0 981 968 943 931 931 876 931 919 955 908 886 855 91 91 0 728 669 675 675 651 669 657 95 95 675 687 681 681 0 0 766 0 0 0 0 0 0 152 152 0 657 634 603 598 593 598 598 598 603 603 603 603 584 588 0 533 0 521 518 511 514 507 511 0 0 0 0 0
    0 0 0 0 0 0 0 0 0 0 0 0 0 0 0 0 0 0 0 0 0 0 0 0 0 0 0 0 0 0 0 0 0 0 0 0 0 0 0 0 0 0 0 0 0 0 0 0 0 0 0 0 0 0 0 0 0 0 0 0 0 0 0 0 0 0 0 0 0 1226 1206 1226 1247 1247 1247 1268 1291 1268 1268 1291 1314 1314 1388 1362 1501 1471 1362 1471 1533 1501 1501 1501 1533 1501 1501 1635 1443 1291 0 1599 1599 1388 1635 1711 1752 1752 1752 1752 1752 1752 0 1887 1887 1989 1989 2164 2044 2230 2230 2164 2164 2299 2164 2453 2299 2537 2374 2537 2725 2725 2943 3066 3199 3199 3345 3345 3345 3345 3873 3504 3873 3504 3504 3679 4088 3873 4599 4088 4599 4088 3873 3873 3873 4088 4329 4329 4329 4088 4329 4906 5256 5661 5256 5661 5661 4906 6690 6133 4906 5661 5256 5661 5661 5661 6133 6690 7359 0 0 0 0 0 0 0 0 0 0 8177 6133 4088 3345 3199 2943 2943 2943 2943 2943 2537 2628 2725 2453 2628 2537 2453 2299 2164 2299 2044 2102 2102 1839 1795 1795 1752 1672 1711 1635 1565 1533 1599 1471 1471 1501 1388 1314 1314 1314 0 1226 1149 0 0 1149 1187 1168 1168 1168 1149 1187 1168 1226 1206 1187 1149 1168 1206 1168 1187 1098 0 0 0 981 968 931 919 919 865 919 919 955 897 876 855 0 0 0 728 675 675 675 651 663 657 95 95 0 694 687 687 721 735 766 0 0 0 0 0 0 152 152 0 663 639 603 598 593 598 598 598 603 603 608 603 588 584 0 533 0 521 518 511 514 507 511 0 0 0 0 0
    0 0 0 0 0 0 0 0 0 0 0 0 0 0 0 0 0 0 0 0 0 0 0 0 0 0 0 0 0 0 0 0 0 0 0 0 0 0 0 0 0 0 0 0 0 0 0 0 0 0 0 0 0 0 0 0 0 0 0 0 0 0 0 0 0 0 0 0 0 1247 1226 1247 1268 1268 1268 1268 1314 1268 1268 1291 1314 1291 1338 1362 1443 1443 1362 1471 1533 1501 1501 1501 1565 1533 1501 1635 1443 1268 0 0 1635 1388 1635 1711 1752 1752 1752 1752 1752 1752 0 1887 1887 1989 1989 2164 2102 2230 2230 2164 2164 2230 2164 2374 2230 2453 2164 2374 2628 2628 2830 2943 3066 3199 3199 3345 3345 3345 3679 3504 3679 3504 3504 3504 3873 3679 4088 3679 3679 3504 3679 3504 3679 3873 4088 4088 4088 3873 4088 4599 5256 5256 5256 5256 5661 4599 6690 6133 4906 5661 5661 5661 5661 5661 6133 6133 6690 0 0 0 0 0 0 0 0 0 8177 9199 6690 4088 3199 3066 2830 2830 2725 2725 2830 2453 2537 2628 2374 2537 2453 2374 2299 2164 2374 2044 2102 2044 1839 1752 1795 1752 1672 1711 1672 1635 1565 1635 1533 1533 1565 1415 1338 1338 1314 0 1247 1168 0 0 1168 1187 1168 1168 1168 1149 1187 1187 1226 1206 1187 1168 1168 1206 1187 1187 1115 1066 0 0 981 968 931 919 908 865 919 908 955 897 876 855 836 0 836 728 675 675 675 651 669 663 95 95 0 694 694 694 721 735 774 0 0 0 0 0 0 152 0 0 669 645 608 598 598 603 598 598 603 603 608 603 584 0 0 529 525 521 518 511 511 507 511 0 0 0 0 0
    0 0 0 0 0 0 0 0 0 0 0 0 0 0 0 0 0 0 0 0 0 0 0 0 0 0 0 0 0 0 0 0 0 0 0 0 0 0 0 0 0 0 0 0 0 0 0 0 0 0 0 0 0 0 0 0 0 0 0 0 0 0 0 0 0 0 0 0 0 1268 1247 1268 1291 1291 1291 1291 1338 1291 1291 1314 1338 1314 1338 1362 1415 1415 1362 1471 1501 1471 1501 1501 1533 1533 1533 1672 1443 1291 1635 1635 1635 1415 1635 1711 1752 1752 1752 1752 1752 1752 0 1887 1887 2044 1989 2230 2102 2230 2230 2164 2164 2299 2164 2374 2164 2299 2102 2299 2537 2537 2725 2943 2943 3066 3199 3199 3345 3345 3679 3504 3679 3345 3504 3504 3679 3504 3873 3504 3504 3504 3679 3504 3679 3679 4088 4088 3873 3679 4088 4329 4599 4906 5256 4906 4906 4906 6690 6133 4599 5661 5256 5256 5256 5661 5661 5661 6690 8177 8177 0 0 0 0 0 0 8177 8177 8177 6690 3873 3066 2943 2830 2725 2725 2628 2628 2374 2453 2537 2299 2453 2374 2299 2230 2164 2374 2044 2102 1989 1839 1752 1752 1711 1672 1711 1672 1672 1599 1635 1599 1565 1635 1443 1362 1362 1338 1268 1247 1187 0 1168 1187 1187 1168 1168 1187 1149 1187 1187 1226 1206 1187 1168 1187 1226 1187 1206 1115 0 0 0 968 955 931 908 897 855 919 908 955 897 886 865 836 0 836 728 675 675 675 651 669 663 95 95 0 700 0 0 728 735 766 0 0 0 0 296 0 152 0 0 669 651 608 603 603 603 603 598 603 603 608 603 579 0 0 529 525 518 514 511 511 507 511 0 0 0 0 0
    0 0 0 0 0 0 0 0 0 0 0 0 0 0 0 0 0 0 0 0 0 0 0 0 0 0 0 0 0 0 0 0 0 0 0 0 0 0 0 0 0 0 0 0 0 0 0 0 0 0 0 0 0 0 0 0 0 0 0 0 0 0 0 0 0 0 0 0 0 1268 1268 1291 1291 1291 1291 1291 1338 1314 1314 1338 1362 1338 1338 1362 1415 1415 1362 1443 1471 1471 1501 1501 1533 1501 1501 1635 1415 1291 1635 1635 1599 1415 1635 1711 1752 1752 1752 1752 1795 1795 0 1936 1936 2102 2044 2230 2164 2299 2230 2164 2230 2299 2102 2374 2230 2299 2102 2230 2453 2453 2628 2830 2830 2943 3066 3199 3345 3345 3679 3504 3504 3345 3504 3345 3504 3345 3679 3504 3504 3345 3679 3504 3679 3679 4329 4088 3873 3679 3873 4088 4329 4599 4906 4088 4329 4599 6133 5661 4088 4906 4906 4906 5256 5256 5661 5661 6133 8177 0 0 0 0 0 0 8177 8177 8177 7359 6133 3873 3199 3066 2943 2830 2830 2628 2725 2374 2453 2537 2299 2374 2374 2230 2299 2164 2374 2044 2102 1989 1839 1795 1795 1752 1711 1752 1711 1711 1672 1672 1672 1635 1672 1501 1415 1388 1362 1268 1268 1206 1206 1168 1187 1187 1168 1168 1187 1168 1206 1206 1247 1226 1206 1187 1187 1226 1187 1206 1115 0 0 0 955 955 919 897 886 855 908 908 943 908 886 865 836 836 0 728 675 675 675 657 669 669 0 0 687 700 707 0 728 728 758 0 0 0 0 297 0 0 0 0 669 657 608 603 603 608 608 603 608 608 608 603 579 0 0 525 521 518 514 511 511 507 511 0 0 0 0 0
    0 0 0 0 0 0 0 0 0 0 0 0 0 0 0 0 0 0 0 0 0 0 0 0 0 0 0 0 0 0 0 0 0 0 0 0 0 0 0 0 0 0 0 0 0 0 0 0 0 0 0 0 0 0 0 0 0 0 0 0 0 0 0 0 0 0 0 0 0 1268 1247 1268 1268 1268 1268 1291 1314 1291 1314 1338 1362 1338 1338 1362 1415 1415 1362 1443 1471 1443 1471 1471 1501 1501 1501 1635 1415 1291 1635 1635 1599 1443 1635 1711 1752 1752 1752 1752 1752 1795 0 1936 1936 2102 2044 2230 2164 2299 2230 2230 2230 2374 2102 2374 2230 2299 2102 2230 2374 2374 2537 2830 2830 2943 3066 3199 3345 3345 3679 3504 3504 3345 3345 3199 3504 3345 3345 3345 3345 3345 3679 3504 3504 3504 3873 3679 3504 3504 3679 3679 3873 4088 4329 3504 4088 4088 5661 5256 3873 4599 4599 4599 4906 4906 5256 5661 6133 8177 0 0 0 0 0 0 0 0 8177 6690 6133 3679 3066 3066 2943 2830 2830 2628 2725 2453 2453 2537 2374 2453 2374 2299 2374 2299 2453 2230 2299 2102 1887 1839 1839 1795 1711 1752 1752 1752 1711 1711 1672 1635 1672 1533 1443 1415 1362 1268 1268 1226 1206 1168 1168 1187 1168 1168 1187 1149 1206 1226 1247 1247 1206 1187 1187 1226 1187 1187 1098 1066 1051 0 955 943 908 886 876 845 897 897 931 897 886 865 845 836 836 728 675 675 675 657 675 675 0 0 687 707 707 707 728 0 0 0 0 0 0 0 0 0 0 0 669 663 618 613 608 623 613 603 608 603 603 598 561 0 0 525 521 514 514 511 514 507 511 0 0 0 0 0
    0 0 0 0 0 0 0 0 0 0 0 0 0 0 0 0 0 0 0 0 0 0 0 0 0 0 0 0 0 0 0 0 0 0 0 0 0 0 0 0 0 0 0 0 0 0 0 0 0 0 0 0 0 0 0 0 0 0 0 0 0 0 0 0 0 0 0 0 0 1268 1268 1268 1268 1268 1268 1268 1291 1291 1291 1314 1338 1338 1338 1362 1415 1388 1362 1443 1443 1443 1471 1471 1501 1501 1501 1635 1415 1291 1635 1635 1599 1443 1599 1711 1752 1752 1752 1752 1752 1795 0 1936 1936 2102 2044 2164 2164 2299 2230 2230 2230 2374 2102 2299 2230 2230 2102 2230 2299 2374 2453 2830 2725 2830 2943 3199 3345 3345 3679 3345 3345 3199 3345 3199 3345 3199 3199 3345 3345 3345 3679 3679 3873 3504 3873 3679 3504 3504 3504 3679 3679 3873 4329 3345 3873 3873 5661 5256 3873 4329 4599 4329 4906 4906 5256 5256 5661 7359 0 0 0 0 0 0 8177 8177 8177 5661 4906 3504 2943 2943 2830 2725 2830 2537 2628 2374 2374 2453 2230 2374 2374 2299 2374 2374 2537 2299 2453 2299 1989 1936 1887 1795 1711 1752 1711 1752 1711 1711 1672 1635 1672 1565 1471 1415 1362 1291 1268 1247 1206 1187 1168 1187 1149 1168 1187 1149 1206 1226 1247 1247 1226 1206 1206 1206 1168 1149 1066 1051 1036 876 919 908 886 865 855 836 886 886 919 886 876 865 845 836 845 735 675 675 675 663 675 675 687 687 687 700 707 0 721 0 735 707 714 0 714 0 0 0 0 675 669 663 629 618 613 623 608 598 598 0 0 579 0 0 0 521 521 514 514 507 511 507 511 0 0 0 0 0
    0 0 0 0 0 0 0 0 0 0 0 0 0 0 0 0 0 0 0 0 0 0 0 0 0 0 0 0 0 0 0 0 0 0 0 0 0 0 0 0 0 0 0 0 0 0 0 0 0 0 0 0 0 0 0 0 0 0 0 0 0 0 0 0 0 0 0 0 0 1268 1268 1268 1268 1268 1268 1291 1291 1291 1314 1314 1338 1338 1338 1362 1388 1388 1362 1415 1443 1415 1443 1471 1471 1471 1471 1635 1415 1247 1635 1635 1599 1471 1599 1711 1711 1752 1795 1752 1752 1795 0 1936 1936 2102 2044 2164 2164 2299 2164 2230 2230 2374 2164 2374 2299 2299 2102 2230 2299 2374 2374 2725 2628 2725 2943 3066 3199 3199 3504 3345 3345 3066 3199 3066 3199 3199 3199 3345 3345 3504 3679 3679 4088 3504 3873 3873 3504 3504 3504 3679 3679 3679 4088 3199 3679 3679 5256 4599 3679 4088 4329 4329 4906 4906 5256 5256 5661 7359 0 0 0 0 0 0 8177 8177 7359 4906 4599 3504 3066 2943 2830 2830 2830 2628 2628 2453 2453 2374 2230 2374 2299 2299 2374 2374 2537 2374 2537 2453 2044 1936 1887 1795 1711 1711 1711 1711 1672 1672 1672 1599 1635 1565 1533 1443 1362 1291 1291 1268 1226 1206 1187 1187 1168 1187 1206 1168 1226 1247 1268 1291 1268 1226 1247 1226 1187 1149 1051 1022 994 855 886 886 876 865 855 836 876 876 897 876 865 855 836 836 836 735 681 681 681 669 681 681 687 687 687 707 707 0 721 714 721 700 707 707 707 687 687 687 0 0 657 651 629 618 613 618 603 593 588 0 0 566 0 0 0 521 521 511 514 507 511 507 511 0 0 0 0 0
    0 0 0 0 0 0 0 0 0 0 0 0 0 0 0 0 0 0 0 0 0 0 0 0 0 0 0 0 0 0 0 0 0 0 0 0 0 0 0 0 0 0 0 0 0 0 0 0 0 0 0 0 0 0 0 0 0 0 0 0 0 0 0 0 0 0 0 0 0 1268 1268 1291 1268 1268 1268 1268 1291 1291 1314 1314 1314 1338 1338 1362 1388 1388 1388 1415 1443 1415 1443 1471 1471 1471 1471 1635 1388 1226 1635 1635 1565 1501 1599 1711 1711 1752 1795 1752 1752 1795 1989 1989 1989 2164 2102 2164 2164 2299 2164 2230 2230 2299 2164 2299 2230 2230 2102 2230 2230 2299 2299 2628 2537 2628 2725 2943 3066 3066 3199 3199 3199 3066 3066 3066 3199 3199 3199 3345 3345 3504 3679 3679 4088 3504 3873 3679 3504 3504 3504 3873 3679 3679 4088 3066 3504 3504 4329 4088 3504 3873 4088 4329 4599 4599 5256 4906 5256 7359 0 0 0 0 0 0 8177 8177 7359 4088 4329 3504 3066 3066 2943 2830 2830 2628 2725 2537 2453 2374 2299 2374 2299 2374 2453 2453 2537 2374 2537 2453 2102 1989 1887 1795 1711 1711 1711 1711 1711 1672 1711 1635 1635 1565 1565 1471 1362 1314 1314 1291 1247 1226 1206 1187 1168 1206 1226 1187 1247 1291 1314 1338 1314 1291 1314 1247 1226 1132 1022 981 943 845 876 876 876 855 836 826 865 865 876 865 855 845 826 826 836 743 681 687 687 681 687 681 694 694 694 707 707 707 721 707 714 700 700 700 700 681 675 681 0 0 645 645 623 613 613 618 593 584 584 0 570 561 0 0 0 521 521 511 514 507 511 507 507 0 0 0 0 0
    0 0 0 0 0 0 0 0 0 0 0 0 0 0 0 0 0 0 0 0 0 0 0 0 0 0 0 0 0 0 0 0 0 0 0 0 0 0 0 0 0 0 0 0 0 0 0 0 0 0 0 0 0 0 0 0 0 0 0 0 0 0 0 0 0 0 0 0 0 1268 1291 1291 1268 1268 1268 1291 1291 1314 1314 1314 1338 1362 1362 1388 1415 1388 1388 1415 1443 1415 1443 1471 1471 1471 1471 1635 1415 1226 1635 1635 1565 1501 1599 1711 1711 1752 1795 1752 1795 1795 2044 2044 1989 2230 2102 2230 2164 2299 2230 2230 2230 2299 2164 2299 2230 2230 2164 2230 2230 2230 2230 2537 2537 2537 2725 2943 2943 2943 3199 3066 3066 2943 3066 2943 3066 3199 3199 3345 3345 3345 3679 3504 4088 3345 3873 3679 3504 3504 3504 3679 3504 3345 3679 2830 3066 3199 3504 3504 3199 3504 3873 4088 4599 4329 4906 4599 5256 6690 8177 8177 0 0 0 8177 7359 8177 7359 3873 3873 3504 3066 3066 2943 2830 2830 2628 2725 2628 2537 2299 2374 2374 2374 2374 2453 2453 2453 2299 2537 2374 2102 1989 1839 1795 1752 1752 1711 1752 1711 1672 1752 1672 1599 1565 1501 1443 1362 1314 1314 1291 1268 1247 1226 1187 1187 1206 1226 1206 1226 1268 1314 1338 1291 1268 1314 1206 1149 1098 1008 968 919 845 865 865 865 845 826 817 855 855 865 855 845 845 826 826 836 743 687 694 694 687 694 687 694 694 694 707 707 707 714 707 707 700 694 694 0 669 663 675 0 0 639 639 623 613 608 613 588 579 579 0 561 557 0 0 0 521 521 511 514 507 511 507 507 0 0 0 0 0
    0 0 0 0 0 0 0 0 0 0 0 0 0 0 0 0 0 0 0 0 0 0 0 0 0 0 0 0 0 0 0 0 0 0 0 0 0 0 0 0 0 0 0 0 0 0 0 0 0 0 0 0 0 0 0 0 0 0 0 0 0 0 0 0 0 0 0 0 0 1291 1291 1291 1268 1291 1291 1291 1291 1338 1314 1314 1338 1362 1362 1388 1415 1415 1388 1415 1443 1443 1471 1501 1501 1471 1471 1635 1415 1268 1635 1635 1533 1501 1599 1711 1711 1752 1795 1795 1795 1839 2102 2044 2044 2299 2164 2164 2230 2299 2230 2230 2230 2299 2164 2299 2230 2164 2102 2164 2230 2164 2230 2537 2453 2537 2725 2943 2943 2943 3199 2943 2943 2830 3066 2943 3066 3066 3066 3345 3345 3345 3679 3504 3679 3345 3873 3679 3345 3199 3199 3199 3199 3066 3066 2628 2830 2830 2943 2943 3066 3199 3679 3873 4599 4329 4599 4599 4906 6133 7359 8177 0 0 0 7359 7359 8177 7359 3873 3873 3504 3199 3066 2943 2943 2943 2725 2725 2628 2537 2230 2374 2453 2299 2374 2453 2374 2453 2299 2537 2230 2044 1989 1839 1795 1752 1752 1752 1752 1711 1711 1795 1752 1599 1599 1501 1443 1362 1314 1291 1291 1268 1247 1226 1187 1187 1206 1206 1187 1187 1247 1268 1291 1247 1187 1226 1082 0 0 981 919 886 855 855 865 855 845 826 817 845 845 845 855 845 845 826 826 836 750 694 700 700 694 700 694 700 700 700 714 714 707 714 694 694 694 681 681 0 657 651 663 651 0 634 634 623 608 603 613 584 570 574 0 0 0 0 0 529 518 518 511 514 507 511 504 504 0 0 0 0 0
    0 0 0 0 0 0 0 0 0 0 0 0 0 0 0 0 0 0 0 0 0 0 0 0 0 0 0 0 0 0 0 0 0 0 0 0 0 0 0 0 0 0 0 0 0 0 0 0 0 0 0 0 0 0 0 0 0 0 0 0 0 0 0 0 0 0 0 0 0 1268 1291 1268 1247 1268 1268 1291 1291 1314 1314 1314 1338 1362 1388 1388 1415 1415 1415 1415 1471 1443 1471 1533 1533 1501 1471 1635 1443 1291 1599 1635 1501 1501 1599 1711 1711 1795 1795 1795 1795 1887 2164 2102 2044 2374 2164 2164 2164 2299 2164 2230 2299 2299 2164 2299 2299 2230 2164 2230 2230 2164 2230 2537 2453 2537 2725 2830 2830 2830 3199 2830 2830 2830 2943 2830 2943 3066 3066 3345 3345 3345 3679 3504 3679 3345 3679 3504 3066 3066 3066 2943 2943 2830 2830 2537 2725 2830 2725 2830 2943 3066 3504 3679 4329 4088 4329 4599 4906 5256 8177 8177 0 0 0 6690 6133 8177 8177 4088 3873 3679 3199 3199 3066 2943 2943 2725 2725 2628 2453 2164 2374 2374 2299 2374 2374 2374 2374 2299 2537 2230 2102 2044 1887 1887 1752 1795 1752 1752 1752 1711 1795 1752 1599 1635 1533 1443 1362 1314 1291 1291 1247 1226 1206 1187 1187 1206 1206 1187 1168 1247 1268 1268 1247 1168 1226 1051 994 981 955 919 897 876 876 876 865 855 826 826 845 845 845 845 836 836 817 817 826 758 700 707 714 700 707 700 714 707 707 721 721 714 714 694 687 694 681 675 0 645 639 651 639 0 0 629 618 603 598 603 579 561 566 0 0 0 0 0 529 518 518 511 514 507 507 504 500 0 0 0 0 0
    0 0 0 0 0 0 0 0 0 0 0 0 0 0 0 0 0 0 0 0 0 0 0 0 0 0 0 0 0 0 0 0 0 0 0 0 0 0 0 0 0 0 0 0 0 0 0 0 0 0 0 0 0 0 0 0 0 0 0 0 0 0 0 0 0 0 0 0 0 1226 1268 1247 1226 1247 1247 1268 1291 1314 1291 1291 1314 1362 1388 1388 1415 1415 1388 1415 1471 1471 1471 1533 1533 1501 1471 1635 1443 1291 1565 1635 1501 1501 1599 1711 1711 1795 1839 1795 1795 1936 2164 2164 2102 2374 2164 2102 2164 2299 2164 2230 2230 2299 2164 2299 2299 2299 2230 2230 2299 2164 2230 2537 2374 2537 2725 2725 2725 2725 3066 2725 2725 2725 2725 2628 2830 2943 3066 3345 3345 3345 3504 3504 3873 3679 3873 3504 3066 2943 2830 2830 2725 2725 2628 2374 2628 2725 2725 2830 2943 3066 3345 3679 4906 4599 4906 5256 5256 6133 0 0 0 0 0 7359 7359 0 0 4906 3873 3679 3345 3199 2943 2830 2830 2628 2628 2628 2537 2230 2374 2374 2299 2374 2374 2374 2374 2299 2453 2299 2230 2164 1989 1989 1795 1839 1795 1795 1752 1711 1795 1711 1565 1599 1533 1415 1338 1314 1291 1268 1247 1226 1187 1168 1187 1226 1187 1187 1168 1226 1247 1268 1226 1132 1149 1022 994 981 968 943 908 897 886 876 865 855 826 817 836 826 826 826 826 836 817 808 817 766 707 714 721 707 714 707 714 707 714 735 735 721 728 0 0 714 0 0 0 0 0 639 0 0 0 0 613 593 588 593 570 561 566 0 0 0 0 0 0 518 518 507 511 504 507 500 500 0 0 0 0 0
    0 0 0 0 0 0 0 0 0 0 0 0 0 0 0 0 0 0 0 0 0 0 0 0 0 0 0 0 0 0 0 0 0 0 0 0 0 0 0 0 0 0 0 0 0 0 0 0 0 0 0 0 0 0 0 0 0 0 0 0 0 0 0 0 0 0 0 0 0 1226 1247 1247 1226 1247 1247 1268 1291 1291 1291 1291 1314 1338 1362 1362 1388 1388 1388 1415 1443 1443 1471 1501 1501 1471 1471 1635 1443 1291 1533 1635 1501 1533 1599 1711 1711 1795 1795 1795 1795 1936 2102 2164 2044 2299 2102 2102 2102 2230 2230 2164 2230 2230 2164 2299 2230 2230 2230 2230 2299 2164 2164 2453 2374 2537 2628 2628 2628 2537 2943 2628 2537 2628 2537 2453 2725 2830 2943 3199 3199 3345 3345 3504 3679 3504 3504 3066 2830 2725 2628 2537 2453 2453 2299 2164 2537 2537 2628 2725 2830 2943 3345 4088 5661 5256 5661 6133 0 0 0 0 0 0 0 8177 8177 0 0 4906 3345 3504 3199 3066 2725 2725 2725 2453 2537 2537 2453 2230 2374 2299 2299 2374 2299 2299 2299 2299 2453 2230 2230 2102 1936 1989 1795 1795 1752 1711 1672 1635 1711 1672 1471 1471 1443 1388 1314 1314 1291 1291 1268 1226 1206 1168 1187 1226 1168 1187 1132 1206 1226 1226 1168 1082 1132 1022 994 994 981 943 908 897 897 886 876 855 817 808 826 817 817 808 817 826 808 808 808 766 714 721 728 721 721 714 721 714 721 758 750 735 735 700 700 721 714 694 694 663 639 634 629 0 0 0 0 588 588 588 570 561 561 0 0 0 0 0 525 521 521 511 511 504 504 500 497 0 0 0 0 0
    0 0 0 0 0 0 0 0 0 0 0 0 0 0 0 0 0 0 0 0 0 0 0 0 0 0 0 0 0 0 0 0 0 0 0 0 0 0 0 0 0 0 0 0 0 0 0 0 0 0 0 0 0 0 0 0 0 0 0 0 0 0 0 0 0 0 0 0 0 1206 1226 1226 1226 1226 1247 1268 1291 1291 1291 1291 1314 1362 1388 1362 1388 1362 1362 1388 1443 1443 1443 1471 1501 1471 1443 1599 1415 1314 1501 1599 1501 1533 1599 1711 1711 1839 1839 1795 1795 1989 2102 2164 2044 2299 2044 2102 2102 2230 2230 2164 2164 2164 2164 2230 2164 2230 2164 2230 2230 2164 2164 2374 2299 2453 2537 2374 2374 2299 2725 2537 2374 2537 2230 2230 2453 2725 2830 3066 3066 3066 3199 3345 3504 4329 3679 3345 2943 2830 2628 2453 2299 2299 2044 2044 2374 2453 2537 2628 2725 2725 2943 0 0 0 0 0 0 0 0 0 0 0 0 0 0 0 0 4906 3199 3679 3679 3199 2725 2628 2725 2374 2537 2453 2374 2164 2299 2230 2230 2299 2230 2230 2230 2164 2299 2102 2164 1989 1887 1989 1795 1795 1795 1711 1672 1565 1672 1635 1443 1443 1415 1362 1314 1314 1291 1291 1291 1291 1226 1206 1226 1247 1206 1206 1132 1132 1149 1187 1149 1066 1098 1008 981 981 994 968 931 919 897 886 876 865 826 799 817 808 808 799 808 808 799 799 808 774 728 735 743 721 721 721 728 721 728 782 774 774 774 714 707 728 714 694 694 669 629 0 0 0 0 598 598 584 584 584 570 561 566 553 549 545 0 533 525 521 521 507 511 504 504 497 493 0 0 0 0 0
    0 0 0 0 0 0 0 0 0 0 0 0 0 0 0 0 0 0 0 0 0 0 0 0 0 0 0 0 0 0 0 0 0 0 0 0 0 0 0 0 0 0 0 0 0 0 0 0 0 0 0 0 0 0 0 0 0 0 0 0 0 0 0 0 0 0 0 0 0 1187 1206 1226 1226 1226 1226 1268 1268 1291 1291 1314 1314 1362 1388 1362 1362 1362 1362 1388 1415 1443 1443 1471 1471 1471 1443 1599 1415 1314 1471 1599 1501 1533 1599 1711 1711 1839 1839 1839 1839 1989 2102 2164 2102 2299 2044 2164 2102 2299 2299 2164 2230 2164 2164 2230 2164 2230 2164 2164 2230 2102 2164 2230 2164 2299 2299 2044 1989 1989 2299 2230 2164 2230 2102 2102 2299 2537 2725 2943 2830 2943 3066 3345 3504 4599 3504 3066 2830 2725 2628 2453 2299 2299 2044 2102 2299 2453 2537 2628 2725 0 0 0 0 0 0 0 0 0 0 0 0 0 0 0 0 0 0 0 0 6133 4599 3199 2628 2453 2628 2299 2453 2299 2299 2102 2230 2164 2164 2164 2102 2102 2102 2044 2102 1989 2044 1936 1839 1936 1795 1795 1795 1752 1672 1565 1599 1599 1415 1388 1362 1338 1268 1291 1291 1291 1291 1291 1268 1247 1268 1268 1247 1226 1115 1168 1168 1168 1168 1082 1132 1036 1008 1051 1036 994 968 955 943 931 919 897 845 817 817 817 808 791 808 808 799 799 808 782 750 750 758 735 735 735 766 758 774 808 817 836 826 791 743 750 721 694 681 657 623 618 613 603 593 593 588 579 584 584 574 566 570 561 553 549 541 537 521 518 518 507 507 504 500 497 490 0 0 0 0 0
    0 0 0 0 0 0 0 0 0 0 0 0 0 0 0 0 0 0 0 0 0 0 0 0 0 0 0 0 0 0 0 0 0 0 0 0 0 0 0 0 0 0 0 0 0 0 0 0 0 0 0 0 0 0 0 0 0 0 0 0 0 0 0 0 0 0 0 0 0 1168 1187 1206 1206 1206 1226 1247 1268 1268 1291 1291 1314 1362 1388 1362 1388 1388 1388 1388 1415 1443 1443 1471 1471 1471 1443 1599 1415 1362 1471 1599 1471 1533 1565 1672 1672 1839 1795 1839 1839 1936 2044 2102 2102 2299 2164 2164 2164 2374 2374 2230 2299 2164 2164 2164 2102 2164 2164 2164 2164 2044 2102 2102 2102 2230 2102 1887 1839 1887 2044 2044 1989 2044 1936 1936 2102 2299 2453 2628 2725 2725 2943 3345 3345 4906 3504 2943 2725 2628 2628 2453 2299 2299 2044 2044 2164 2230 2374 2453 0 0 0 0 0 0 0 0 0 0 0 0 0 0 0 0 0 0 0 0 0 0 0 3199 2725 2453 2628 2230 2453 2230 2164 2044 2230 2044 2102 2102 1989 2044 2044 1989 2044 1989 1989 1887 1795 1936 1795 1795 1795 1752 1672 1565 1599 1599 1388 1362 1314 1291 1268 1268 1268 1291 1268 1291 1268 1247 1247 1226 1206 1187 1082 1132 1115 1115 1115 1066 1066 1022 1008 1036 1036 1008 994 981 955 955 943 908 845 808 817 817 808 782 808 808 808 799 808 799 774 774 782 750 743 750 774 774 782 817 817 886 897 855 808 791 728 694 681 663 623 613 613 598 593 593 588 579 588 584 584 574 574 566 557 553 545 533 518 514 511 507 504 504 500 493 490 0 0 0 0 0</data></depth>
</opencv_storage>
