<?xml version="1.0"?>
<opencv_storage>
<gps_time_stamp>280585</gps_time_stamp>
<gps_x>-1.3990584373474121e+001</gps_x>
<gps_y>1.1304420471191406e+001</gps_y>
<gps_z>-2.3134574890136719e+000</gps_z>
<image_time_stamp>271459</image_time_stamp>
<depth type_id="opencv-matrix">
  <rows>77</rows>
  <cols>320</cols>
  <dt>s</dt>
  <data>
    0 0 0 0 0 0 0 0 0 0 0 0 0 0 0 0 0 0 0 0 0 0 0 0 0 0 0 0 0 0 0 0 0 0 0 0 0 0 0 0 0 0 0 0 0 0 0 0 0 0 0 0 0 0 0 0 0 0 0 0 0 0 0 0 0 0 0 0 0 0 0 2102 0 1989 1839 0 0 0 0 0 0 2628 0 2453 2453 0 0 0 0 0 0 0 0 0 0 0 2453 2102 2374 2102 2102 2102 2299 2374 2453 2453 2628 2537 2830 2628 0 0 0 0 0 0 2230 2230 2374 2299 2230 2299 2374 2230 2230 1936 1936 1711 1752 1839 1887 1936 1989 1989 2102 2164 2299 2374 2453 2374 2374 2374 2374 2230 2102 2164 2102 2102 2044 1936 1936 1839 1989 2230 2102 2299 2230 2299 2374 2453 2453 2453 2537 2453 2299 2044 2164 2299 2299 2299 2374 2230 2374 2453 2628 2537 2628 2725 2830 2725 2725 2725 2453 2453 2628 2299 2230 2102 2299 2374 2299 2230 2102 2164 2299 2044 2299 2230 2230 2164 2164 2299 2299 2230 2628 2164 2102 2044 2230 2537 2044 2164 2044 2102 2230 0 0 0 0 0 0 2453 2102 0 0 1752 0 0 0 0 1887 2164 2164 1989 2044 2044 2102 2044 2044 2164 2044 2102 2044 1839 1936 1887 1839 1839 1795 1795 1752 1752 1795 1711 1672 1752 1711 1711 1711 1711 1752 1711 1752 1795 1795 1839 1672 1533 1388 1388 1501 1501 1415 1443 1443 1388 1443 1443 1443 1415 1415 1415 1388 1362 1415 1338 1314 1314 1226 1149 1115 1132 1098 1168 1226 1247 1187 1226 1187 1168 1066 1036 1036 1036 1022 1036 1036 1022 1022 1022 994 955 994 994 968 0 0 0 0 0
    0 0 0 0 0 0 0 0 0 0 0 0 0 0 0 0 0 0 0 0 0 0 0 0 0 0 0 0 0 0 0 0 0 0 0 0 0 0 0 0 0 0 0 0 0 0 0 0 0 0 0 0 0 0 0 0 0 0 0 0 0 0 0 0 0 0 0 0 0 0 0 0 0 0 0 0 0 0 2537 0 0 3066 2725 2628 2537 0 0 0 0 0 0 0 0 209 0 0 2453 2102 2453 2299 2374 2299 2537 2628 2725 2830 2943 2830 3066 2830 0 2725 0 0 2102 0 2102 2164 2299 2230 2102 2230 2230 2230 2164 1936 1887 1752 1795 1839 1887 1936 1989 2044 2102 2230 2374 2374 2537 2453 2453 2453 2374 2299 2164 2230 2164 2164 2102 1936 1989 1887 2044 2299 2102 2230 2230 2299 2374 2374 2374 2374 2453 2374 2230 2044 2164 2299 2299 2299 2299 2230 2230 2453 2537 2453 2537 2628 2830 2725 2830 2830 2628 2537 2725 2374 2230 2102 2299 2374 2230 2230 2102 2102 2230 1989 2164 2164 2102 2102 2102 2164 2164 2102 2537 2102 2102 2044 2230 0 0 1936 1839 1795 0 579 561 0 566 0 0 2453 0 0 0 1711 1752 0 0 0 1711 2044 2044 1936 2044 2044 2044 2044 1989 2102 1989 1989 2044 1839 1936 1887 1839 1839 1795 1795 1795 1795 1839 1711 1672 1752 1711 1711 1711 1711 1711 1711 1795 1839 1839 1839 1711 1599 1471 1388 1501 1501 1415 1443 1443 1388 1415 1415 1443 1388 1388 1415 1388 1362 1415 1314 1314 1291 1226 1168 1115 1132 1115 1149 1168 1168 1098 1132 1132 1098 1051 1036 1022 1036 1022 1036 1022 1022 1008 1008 994 955 994 994 968 0 0 0 0 0
    0 0 0 0 0 0 0 0 0 0 0 0 0 0 0 0 0 0 0 0 0 0 0 0 0 0 0 0 0 0 0 0 0 0 0 0 0 0 0 0 0 0 0 0 0 0 0 0 0 0 0 0 0 0 0 0 0 0 0 0 0 0 0 0 0 0 0 0 0 0 0 0 0 0 0 0 0 0 0 0 0 3066 2725 0 2537 0 0 0 0 0 0 0 0 0 0 0 2374 2230 2537 2453 2453 2374 2628 2725 2830 2943 2943 2943 3199 0 0 0 0 0 2044 2044 2044 2164 2230 2164 2102 2164 2164 2164 2102 1936 1887 1711 1752 1839 1887 1936 1989 2044 2102 2299 2453 2453 2537 2453 2453 2453 2453 2374 2164 2230 2164 2164 2102 1989 1989 1936 2044 2230 2044 2102 2102 2164 2164 2164 2230 2164 2230 2164 2102 2044 2164 2374 2299 2299 2374 2230 2374 2537 2537 2453 2537 2725 2830 2830 2943 2830 2628 2537 2725 2374 2230 2044 2164 2230 2102 2164 2044 2102 2102 1989 2102 2044 2044 2044 2044 2102 2102 2102 2453 2044 2102 2044 2230 2230 1887 1887 1839 1795 0 0 0 570 0 0 0 0 0 0 0 0 0 0 1711 0 0 2044 1989 1936 1989 1989 1989 1989 1989 2044 1989 1989 1989 1839 1936 1936 1887 1887 1839 1839 1839 1795 1839 1752 1711 1752 1752 1752 1711 1711 1752 1752 1839 1887 1936 0 0 1635 1533 1388 1501 1501 1415 1415 1415 1388 1415 1415 1415 1388 1388 1388 1388 1362 1388 1314 1314 1291 1226 1187 1132 1149 1149 1149 1132 1115 1066 1082 1098 1082 1051 1036 1036 1036 1022 1036 1022 1022 1008 1008 994 968 994 1008 968 0 0 0 0 0
    0 0 0 0 0 0 0 0 0 0 0 0 0 0 0 0 0 0 0 0 0 0 0 0 0 0 0 0 0 0 0 0 0 0 0 0 0 0 0 0 0 0 0 0 0 0 0 0 0 0 0 0 0 0 0 0 0 0 0 0 0 0 0 0 0 0 0 0 0 0 0 0 0 0 0 0 0 0 0 0 0 0 0 0 0 0 0 0 0 0 0 0 2230 2230 2299 2299 2453 2299 2453 2453 2453 2299 2537 2628 2725 2943 2943 0 3066 0 0 0 0 0 2044 2044 2044 2102 2164 2164 2102 2164 2102 2164 1989 1936 1839 1711 1752 1795 1887 1887 1936 2044 2164 2453 2537 2537 2628 2537 2537 2537 2453 2374 2164 2230 2164 2164 2164 2044 2102 2044 2164 2230 2164 2164 2164 2164 2164 2164 2164 2102 2102 2044 1989 2044 2102 2299 2299 2299 2374 2299 2374 2537 2537 2537 2537 2725 2830 2830 2943 2830 2628 2537 2628 2374 2164 2044 2102 2102 2044 2102 2044 2102 2102 1989 2044 2044 2044 1989 2044 2044 2044 2044 2299 2102 2102 2164 2374 2230 1989 1989 1887 1839 0 0 0 0 0 0 0 2725 0 0 4599 0 0 0 0 0 0 1989 1936 1887 1989 1989 1936 1989 1989 1989 1936 1989 2044 1887 1989 1989 1887 1887 1887 1887 1887 1795 1887 1752 1711 1752 1752 1752 1711 1711 1752 1752 1887 1936 1936 0 0 1599 1471 1362 1471 1471 1415 1388 1415 1388 1388 1415 1415 1388 1362 1388 1388 1362 1362 1314 1291 1291 1226 1206 1149 1149 1132 1115 1115 1082 1051 1066 1082 1082 1051 1036 1051 1036 1036 1036 1022 1022 1008 1008 981 968 994 1008 968 0 0 0 0 0
    0 0 0 0 0 0 0 0 0 0 0 0 0 0 0 0 0 0 0 0 0 0 0 0 0 0 0 0 0 0 0 0 0 0 0 0 0 0 0 0 0 0 0 0 0 0 0 0 0 0 0 0 0 0 0 0 0 0 0 0 0 0 0 0 0 0 0 0 0 0 2374 2230 0 0 0 0 0 0 0 0 0 2537 2374 2374 2374 2230 0 0 2230 2102 2164 2230 2299 2230 2299 2299 2537 2230 2453 2374 2374 2164 2374 2453 2725 2943 2943 2943 3199 0 0 0 0 0 2044 2102 2102 2102 2230 2230 2102 2164 2102 2102 1936 1887 1839 1711 1711 1795 1839 1887 1936 1989 2102 2299 2537 2537 2628 2537 2537 2537 2453 2374 2164 2230 2164 2230 2230 2164 2230 2102 2230 2230 2164 2164 2164 2102 2164 2102 2102 2044 2044 2044 1989 2044 2102 2299 2299 2374 2453 2374 2453 2537 2537 2537 2453 2725 2725 2725 2830 2830 2537 2453 2628 2299 2102 2044 2102 2102 2102 2102 2164 2164 2102 2044 1989 1989 1989 1989 1989 2044 1989 1989 2044 2164 2164 2230 2537 2299 2102 2102 2044 2044 0 0 0 0 0 0 0 0 2628 2830 0 0 593 584 0 570 0 1936 1887 1887 1989 1936 1936 1989 1989 1989 1936 1936 2044 1887 1989 1989 1936 1887 1887 1887 1887 1839 1887 1752 1711 1752 1752 1752 1752 1711 1795 1887 1989 2102 0 0 0 0 1443 1362 1443 1443 1388 1362 1388 1362 1388 1388 1388 1362 1362 1362 1362 1362 1362 1291 1291 1291 1226 1206 1149 1132 1132 1115 1115 1082 1051 1082 1082 1082 1066 1051 1051 1051 1051 1051 1036 1022 1008 1008 981 968 994 994 968 0 0 0 0 0
    0 0 0 0 0 0 0 0 0 0 0 0 0 0 0 0 0 0 0 0 0 0 0 0 0 0 0 0 0 0 0 0 0 0 0 0 0 0 0 0 0 0 0 0 0 0 0 0 0 0 0 0 0 0 0 0 0 0 0 0 0 0 0 0 0 0 0 0 0 2230 2453 2299 2374 2453 2537 0 0 0 2725 0 0 2628 2453 2299 2299 2230 2230 2044 2164 2102 2164 2164 2299 2230 2374 2299 2453 2453 2537 2453 2537 2230 2374 2453 2725 2943 2943 2943 3066 0 0 2725 0 0 2044 2102 2102 2164 2299 2299 2164 2230 2102 2102 1887 1839 1795 1711 1711 1795 1795 1887 1936 1936 2044 2164 2453 2453 2537 2453 2537 2537 2453 2374 2230 2230 2230 2299 2299 2299 2374 2299 2299 2299 2230 2164 2164 2102 2102 2102 2102 1936 1989 1989 1989 2102 2164 2374 2299 2453 2537 2453 2453 2537 2453 2453 2374 2628 2628 2628 2725 2628 2374 2374 2537 2374 2102 2044 2164 2164 2102 2102 2164 2102 2044 2044 1989 1989 1989 1989 1989 1989 1989 1989 1936 2164 2230 2299 2628 2374 2230 2102 1989 1887 0 0 0 0 0 0 0 0 0 3504 0 0 584 579 570 566 0 1887 1839 1887 1989 1936 1936 1989 1989 1989 1936 1936 2044 1887 1989 1989 1936 1887 1936 1936 1936 1839 1887 1795 1752 1795 1795 1795 1752 1711 1887 2044 0 0 0 0 0 0 0 1362 1415 1415 1388 1338 1362 1362 1388 1388 1388 1362 1362 1362 1362 1338 1338 1291 1291 1291 1226 1206 1132 1132 1132 1115 1115 1082 1066 1082 1082 1082 1066 1066 1066 1051 1051 1066 1036 1036 1008 1008 981 968 994 994 968 0 0 0 0 0
    0 0 0 0 0 0 0 0 0 0 0 0 0 0 0 0 0 0 0 0 0 0 0 0 0 0 0 0 0 0 0 0 0 0 0 0 0 0 0 0 0 0 0 0 0 0 0 0 0 0 0 0 0 0 0 0 0 0 0 0 0 0 0 0 0 0 0 0 0 2299 2537 2453 2628 2628 2725 2830 2725 2943 2830 2943 2943 2537 2374 2164 2164 2230 0 2044 2102 2164 2164 2230 2374 2374 2374 2299 2537 2628 2628 2537 2628 2374 2453 2374 2628 2830 2943 2943 3199 0 3066 2943 2830 2628 2164 2164 2102 2230 2374 2299 2230 2164 2044 2102 1936 1936 1887 1752 1752 1795 1887 1887 1936 1989 2044 2102 2453 2374 2453 2453 2453 2374 2299 2164 2102 2044 2102 2230 2164 2299 2374 2374 2374 2374 2299 2164 2164 2102 2102 2102 2102 1989 1989 2044 1989 2299 2230 2374 2374 2453 2453 2453 2453 2628 2453 2453 2374 2537 2537 2537 2628 2628 2374 2374 2628 2374 2102 2044 2164 2102 2044 2044 2230 2102 2044 2044 1989 1989 1936 1989 1989 1989 1989 1989 1839 2299 2230 2453 2830 2537 2453 2102 1887 1711 1599 0 1471 1599 1443 0 1533 0 0 0 0 0 0 0 0 561 0 1839 1752 1887 1989 1936 1936 1936 1989 1936 1936 1936 1989 1887 1989 1989 1936 1887 1936 1936 1936 1839 1839 1752 1752 1752 1752 1752 1711 1711 1887 2299 0 0 0 0 0 0 0 1338 1388 1388 1362 1338 1362 1338 1362 1362 1362 1362 1338 1338 1362 1338 1314 1291 1291 1291 1226 1187 1149 1115 1132 1115 1115 1082 1066 1115 1098 1098 1082 1066 1082 1066 1066 1066 1036 1051 1008 1008 981 968 981 994 968 0 0 0 0 0
    0 0 0 0 0 0 0 0 0 0 0 0 0 0 0 0 0 0 0 0 0 0 0 0 0 0 0 0 0 0 0 0 0 0 0 0 0 0 0 0 0 0 0 0 0 0 0 0 0 0 0 0 0 0 0 0 0 0 0 0 0 0 0 0 0 0 0 0 0 2374 2628 2537 2628 2725 0 0 2725 2943 2830 3066 2943 2537 2453 2102 2102 2299 2374 2102 2102 2230 2230 2230 2453 2453 2453 2374 2537 2725 2628 2628 2725 2453 2453 2374 2537 2725 2943 2943 3066 2943 3066 3066 3066 3066 2299 2230 2102 2230 2299 2299 2164 2102 1989 1989 1936 1936 1936 1839 1839 1887 2044 2044 2044 2044 2102 2102 2374 2299 2299 2374 2374 2299 2230 2102 2044 1989 2102 2164 0 2299 2453 2374 2453 2374 2374 2230 2230 2164 2164 2102 2102 1989 1989 2164 2044 2374 2299 2374 2453 2453 2453 2453 2374 2453 2299 2299 2230 2299 2374 2374 2537 2453 2299 2299 2537 2374 2164 2044 2164 2044 1989 1989 2164 2044 1989 2044 1936 1936 1936 1989 1989 1936 1989 1989 1795 2299 2230 2628 2725 2299 2299 2044 1936 1711 1565 1443 1471 1599 1415 1388 1471 0 0 0 0 0 0 0 0 0 553 0 1672 1887 1989 1936 1936 1936 1936 1936 1936 1936 1989 1887 1989 1989 1936 1887 1936 1936 1936 1839 1839 1752 1711 1752 1752 1752 1672 1672 1887 2628 0 0 0 0 0 0 0 1338 1362 1362 1362 1314 1362 1338 1362 1362 1362 1362 1338 1338 1362 1314 1314 1291 1268 1268 1226 1187 1149 1132 1149 1149 1149 1115 1098 1132 1098 1098 1082 1082 1082 1066 1066 1066 1036 1051 1008 994 968 955 981 994 955 0 0 0 0 0
    0 0 0 0 0 0 0 0 0 0 0 0 0 0 0 0 0 0 0 0 0 0 0 0 0 0 0 0 0 0 0 0 0 0 0 0 0 0 0 0 0 0 0 0 0 0 0 0 0 0 0 0 0 0 0 0 0 0 0 0 0 0 0 0 0 0 0 0 0 2453 2628 2537 2628 2725 0 2943 2725 2943 2830 2943 2943 2537 2537 2164 2164 2537 2628 2299 2164 2374 2374 2374 2537 2537 2537 2453 2537 2830 2725 2725 2830 2537 2537 2453 2628 2830 2943 2830 2830 2725 2943 3066 2943 0 2164 2164 2102 2230 2299 2299 2164 2102 1989 1989 1989 2044 1989 1936 1936 2044 2164 2102 2164 2044 2044 2044 2164 2164 2102 2299 2374 2299 2299 2230 2230 2102 2164 2230 2164 2299 2374 2374 2453 2374 2374 2299 2299 2230 2164 2102 2102 1936 1936 2230 2102 2374 2453 2374 2453 2453 2453 2374 2299 2374 2299 2164 2102 2044 2102 2102 2230 2230 2230 2164 2453 2230 2102 1989 2044 1936 1936 1887 2044 1989 1936 2044 1936 1936 1936 1989 1989 1936 1936 1989 1795 2299 2299 2628 2537 2230 2230 2044 1989 1795 1672 1533 1565 1672 1443 1443 1471 0 0 0 0 0 0 0 0 549 557 0 1599 1887 1989 1887 1887 1936 1936 1936 1887 1887 1936 1887 1936 1936 1887 1887 1887 1887 1936 1839 1839 1752 1752 1752 1752 1752 1635 1635 0 0 0 2299 0 0 0 0 0 1314 1338 1362 1338 1314 1362 1338 1362 1362 1362 1362 1338 1338 1362 1314 1291 1268 1268 1268 1226 1206 1187 1168 1168 1187 1168 1149 1115 1168 1115 1098 1098 1082 1066 1066 1066 1051 1008 1022 981 968 943 943 968 981 955 0 0 0 0 0
    0 0 0 0 0 0 0 0 0 0 0 0 0 0 0 0 0 0 0 0 0 0 0 0 0 0 0 0 0 0 0 0 0 0 0 0 0 0 0 0 0 0 0 0 0 0 0 0 0 0 0 0 0 0 0 0 0 0 0 0 0 0 0 0 0 0 0 0 0 2453 2628 2537 2628 2725 0 2943 2628 2943 2725 2943 2943 2725 2725 2453 2453 2830 2830 2628 2230 2453 2537 2453 2628 2628 2537 2453 2537 2943 2830 2830 2943 2628 2537 2374 2453 2628 2725 2628 2453 2374 2537 2374 2374 2453 2164 2102 2044 2299 2374 2374 2299 2102 2044 1989 2044 2102 2044 2044 2044 2102 2230 2102 2374 2102 2044 2044 2044 2044 1989 2164 2374 2299 2230 2164 2230 2102 2102 2230 2164 2299 2374 2374 2453 2374 2453 2374 2374 2230 2164 2102 2102 1936 1989 2374 2164 2299 2537 2374 2537 2537 2537 2453 2374 2374 2374 2102 2102 1989 1989 1936 1989 2044 2102 2102 2230 2164 2044 1989 1989 1936 1936 1887 2044 2044 1936 2044 1936 1936 1936 1989 1989 1936 1936 2044 1795 2299 2299 2725 2537 2537 2453 2164 2102 1887 1795 1711 1672 1795 1599 0 0 0 0 0 0 0 0 0 0 549 557 0 1599 1936 1936 1887 1887 1936 1936 1936 1887 1887 1936 1887 1936 1936 1887 1887 1887 1887 1936 1795 1795 1795 1752 1752 1752 1752 1635 1635 0 0 0 0 0 0 116 0 0 1314 1314 1362 1362 1314 1362 1362 1362 1362 1362 1362 1338 1338 1338 1314 1291 1268 1268 1268 1226 1206 1206 1187 1187 1206 1187 1168 1132 1187 1115 1115 1098 1082 1066 1051 1051 1036 994 1008 955 931 908 931 931 931 919 0 0 0 0 0
    0 0 0 0 0 0 0 0 0 0 0 0 0 0 0 0 0 0 0 0 0 0 0 0 0 0 0 0 0 0 0 0 0 0 0 0 0 0 0 0 0 0 0 0 0 0 0 0 0 0 0 0 0 0 0 0 0 0 0 0 0 0 0 0 0 0 0 0 0 2453 2628 2537 2725 2725 2943 3066 2725 3066 2830 2943 2943 2725 2725 2537 2537 3066 2943 2725 2299 2537 2537 2537 2628 2628 2537 2453 2537 2943 2943 2830 2943 2628 2453 2230 2230 2299 2374 2299 2102 2102 2164 2044 2044 2164 2102 2044 2044 2230 2374 2453 2374 2102 2044 1936 2044 2102 2102 2044 2044 2102 2299 2102 2537 2102 2044 1936 1989 2044 1936 2164 2299 2164 2164 2102 2230 2102 2102 2299 2299 2537 2537 2453 2537 2374 2537 2453 2453 2374 2230 2164 2164 1936 2044 2374 2230 2230 2537 2374 2453 2537 2537 2537 2453 2453 2537 2230 2374 2230 2102 2044 2044 1936 2044 1989 2044 2102 1989 1989 1989 1936 1936 1936 2102 2102 1936 2044 1989 1989 1989 2044 2044 1989 1989 2164 1989 2299 2299 2830 2628 2943 2830 2537 2230 1936 1795 1795 1672 1839 1635 0 0 0 0 0 0 0 0 0 0 541 557 0 0 1936 1936 1887 1887 1936 1936 1936 1936 1936 1887 1887 1936 1936 1887 1839 1887 1887 1887 1795 1795 1795 1752 1752 1752 1752 1635 1635 0 0 0 0 0 0 0 0 1338 1247 1314 1362 1362 1314 1388 1362 1362 1362 1362 1362 1338 1338 1338 1314 1291 1291 1268 1291 1247 1226 1226 1206 1206 1226 1206 1206 1168 1206 1149 1132 1132 1098 1066 1051 1051 1022 968 981 943 919 897 908 897 886 876 0 0 0 0 0
    0 0 0 0 0 0 0 0 0 0 0 0 0 0 0 0 0 0 0 0 0 0 0 0 0 0 0 0 0 0 0 0 0 0 0 0 0 0 0 0 0 0 0 0 0 0 0 0 0 0 0 0 0 0 0 0 0 0 0 0 0 0 0 0 0 0 0 0 0 2453 2628 2628 2725 2830 3066 3066 2830 3066 2830 2943 2943 2830 2830 2628 2725 3199 3066 2943 2453 2628 2628 2537 2628 2628 2537 2453 2537 2943 2830 2830 2943 2725 2453 2230 2164 2164 2299 2164 2044 2102 2102 2044 0 2044 2102 2044 0 0 2453 2537 2299 2044 2102 1936 2044 2102 2102 2044 2044 2102 2299 2102 2628 2044 2044 1989 2230 2102 1887 2230 2374 2164 2230 2299 2374 2230 2374 2537 2537 2725 2725 2628 2628 2537 2725 2725 2628 2628 2537 2453 2628 2102 2374 2628 2453 2299 2537 2374 2537 2537 2537 2537 2453 2453 2628 2230 2374 2164 2044 1989 1989 1936 2044 1989 2044 2044 1989 1936 1989 1936 1989 1936 2102 2102 1936 2044 2044 2044 1989 2102 2102 2044 2044 2230 2164 2299 2299 2943 2299 2943 2943 2725 2299 1989 1839 0 1752 0 1635 0 0 0 0 0 0 0 0 0 0 0 553 0 0 1936 1936 1887 1887 1936 1936 1936 1936 1936 1887 1887 1887 1887 1839 1839 1839 1839 1887 1795 1795 1795 1752 1752 1752 1752 1635 1635 1795 0 115 0 0 0 0 0 1338 1291 1314 1362 1362 1338 1388 1362 1362 1388 1362 1388 1338 1338 1338 1314 1291 1291 1268 1291 1247 1226 1226 1206 1206 1206 1206 1187 1168 1206 1149 1132 1115 1098 1066 1036 1036 1008 955 955 919 897 886 886 876 855 855 0 0 0 0 0
    0 0 0 0 0 0 0 0 0 0 0 0 0 0 0 0 0 0 0 0 0 0 0 0 0 0 0 0 0 0 0 0 0 0 0 0 0 0 0 0 0 0 0 0 0 0 0 0 0 0 0 0 0 0 0 0 0 0 0 0 0 0 0 0 0 0 0 0 0 2453 2628 2537 2725 2725 2943 3066 2830 3066 2943 2943 2943 2830 2830 2725 2725 3345 3199 3066 2453 2628 2725 2537 2725 2628 2537 2453 2537 2943 2830 2830 3199 2943 2628 2374 2230 2299 2374 2230 2044 2102 2044 2044 0 0 1936 1887 0 0 2299 2453 2164 1989 2102 1989 2102 2164 2164 2102 2102 2164 2374 2164 2725 1989 2044 2044 2628 2044 1839 2299 2374 2164 2374 2453 2453 2453 2628 2830 2830 0 0 2725 2725 2628 2725 2725 2628 2725 2628 2628 2830 2299 2725 2830 2725 2299 2537 2453 2537 2537 2628 2537 2453 2374 2628 2230 2453 2164 1989 1989 1936 1936 2102 2044 2164 2044 2044 1989 2102 2044 2044 1989 2102 2102 1936 2044 2102 2044 1989 2102 2102 2044 2044 2230 2230 2230 2230 2830 1989 3066 3066 2943 2299 0 0 0 0 0 0 0 0 0 0 0 0 0 0 0 0 0 549 0 0 1989 1989 1887 1887 1936 1936 1936 1936 1887 1839 1839 1839 1839 0 1795 1795 1839 1839 1795 1795 1795 1752 1752 1752 1795 1672 1635 1795 0 0 0 0 0 0 0 1362 1314 1314 1362 1362 1338 1388 1362 1362 1362 1362 1388 1338 1338 1338 1314 1291 1314 1291 1314 1268 1226 1226 1226 1206 1206 1206 1187 1149 1206 1132 1132 1115 1082 1051 1036 1022 994 943 943 908 886 876 876 865 845 845 0 0 0 0 0
    0 0 0 0 0 0 0 0 0 0 0 0 0 0 0 0 0 0 0 0 0 0 0 0 0 0 0 0 0 0 0 0 0 0 0 0 0 0 0 0 0 0 0 0 0 0 0 0 0 0 0 0 0 0 0 0 0 0 0 0 0 0 0 0 0 0 0 0 0 2453 2628 2537 2725 2628 2943 2943 2725 2943 2830 2830 2830 2830 2943 2725 2830 3504 3345 3199 2537 2725 2725 0 2725 2725 2537 2453 2453 2943 2943 2943 3345 3199 2830 2537 2374 2299 2299 2164 2044 2044 1989 1989 1887 1887 1839 1795 1839 1839 2044 2230 2044 1989 2164 1989 2164 2164 2164 2102 2164 2230 2374 2164 2725 1936 1989 0 0 0 1839 2299 2374 2102 2374 2537 2453 2628 0 3345 3199 3199 0 2725 2628 2628 2628 2628 2628 2628 2628 2725 2830 2537 2830 2830 2725 2230 2537 2453 2537 2537 2537 2537 2374 2374 2628 2230 2453 2164 1936 1936 1887 1887 2044 2102 2164 2102 2102 2044 2164 2102 2102 1989 2044 2102 1936 2044 2102 2044 1989 2102 2102 2044 2044 2230 2299 2164 2164 2830 1887 0 3199 3345 0 0 0 0 0 0 0 0 0 0 0 0 0 0 0 0 0 0 549 0 0 1936 1936 1887 1839 1887 1887 1887 1887 1887 1839 1839 1795 1839 1795 1795 1795 1795 1795 1795 1795 1795 1795 1752 1795 1795 1711 1672 1839 0 0 1672 1711 1711 1599 1388 1388 1338 1314 1362 1362 1362 1388 1362 1388 1362 1362 1388 1338 1338 1338 1314 1291 1314 1314 1338 1268 1247 1226 1226 1206 1226 1206 1206 1168 1206 1149 1115 1098 1082 1051 1022 1008 981 931 943 897 876 876 865 855 836 836 0 0 0 0 0
    0 0 0 0 0 0 0 0 0 0 0 0 0 0 0 0 0 0 0 0 0 0 0 0 0 0 0 0 0 0 0 0 0 0 0 0 0 0 0 0 0 0 0 0 0 0 0 0 0 0 0 0 0 0 0 0 0 0 0 0 0 0 0 0 0 0 0 0 0 2453 2537 2537 2725 2628 2830 2830 2628 2725 2725 2725 2725 2830 2830 2725 2830 3504 3504 3345 2537 2725 2725 0 0 0 2537 2453 2453 2943 2943 2943 3504 3345 2943 2628 2374 2299 2230 2164 1989 1989 1936 1936 1887 1839 1795 1795 1795 1752 1887 1989 1936 1936 2164 1989 2164 2230 2164 2164 2164 2230 2374 2164 2725 1989 2230 2725 0 1936 2044 2374 2374 2230 2453 2453 2453 2628 0 3199 3066 3066 2725 2537 2537 2453 2537 2628 2628 2628 2628 2725 2943 2725 2943 2943 2725 2164 2537 2453 2453 2537 2537 2453 2374 2299 2725 2230 2453 2164 1936 1887 1936 1887 2044 2044 2164 2044 2102 2044 2164 2102 2044 1936 2044 2044 1887 2044 2044 2044 1989 2102 2102 2044 2044 2230 2230 2164 2164 2725 1989 2537 2830 3066 0 0 0 0 0 0 0 0 0 0 0 0 0 0 0 0 0 0 0 0 0 1887 1887 1887 1795 1887 1887 1887 1887 1887 1839 1839 1795 1839 1795 1752 1752 1795 1795 1795 1752 1795 1795 1795 1795 1839 1711 1672 1795 0 1635 1635 1672 1672 1501 1388 1415 1362 1338 1388 1388 1362 1388 1388 1388 1362 1362 1415 1338 1338 1338 1314 1291 1314 1314 1338 1268 1247 1247 1247 1226 1226 1226 1206 1187 1206 1132 1098 1082 1051 1022 994 981 955 919 919 886 865 865 855 855 836 836 0 0 0 0 0
    0 0 0 0 0 0 0 0 0 0 0 0 0 0 0 0 0 0 0 0 0 0 0 0 0 0 0 0 0 0 0 0 0 0 0 0 0 0 0 0 0 0 0 0 0 0 0 0 0 0 0 0 0 0 0 0 0 0 0 0 0 0 0 0 0 0 0 0 0 2453 2453 2453 2628 2537 2725 2830 2628 2725 2725 2725 2725 2725 2830 2725 2830 3504 3504 3199 2628 2725 2725 0 0 0 2537 2453 2453 3066 3066 3066 4088 3679 3199 2943 2537 2299 2164 2102 1989 1936 1887 1936 0 0 1795 1752 1752 1752 1839 1936 1887 1936 2164 1989 2164 2230 2164 2164 2164 2299 2453 2164 2725 2044 2230 2453 2830 2044 2102 2374 2374 2374 2453 2537 2537 2628 2830 3066 3066 3066 2628 2453 2537 2453 2537 2628 2628 2725 2725 2830 3066 2943 3199 3066 3066 2102 2537 2453 2453 2537 2537 2453 2299 2230 2725 2102 2299 2164 1936 1887 1936 1887 2102 2102 2299 2164 2164 2044 2164 2102 2102 1936 2044 2102 1887 2044 2044 1989 1936 2102 2102 2044 2044 2164 2164 2164 2164 2725 2044 2453 2725 2830 2725 2830 2628 2628 0 0 0 0 0 0 0 0 0 0 0 0 0 0 0 0 0 1839 1887 1839 1752 1887 1887 1887 1887 1839 1839 1839 1795 1839 1795 1752 1752 1795 1795 1752 1752 1795 1795 1795 1795 1839 1711 1635 1752 1672 1599 1565 1565 1533 1388 1362 1415 1362 1338 1388 1388 1388 1415 1415 1415 1362 1362 1415 1338 1338 1338 1314 1291 1314 1314 1338 1268 1247 1247 1247 1226 1226 1206 1187 1149 1149 1066 1036 1022 994 981 943 943 919 897 897 876 865 865 855 845 836 826 0 0 0 0 0
    0 0 0 0 0 0 0 0 0 0 0 0 0 0 0 0 0 0 0 0 0 0 0 0 0 0 0 0 0 0 0 0 0 0 0 0 0 0 0 0 0 0 0 0 0 0 0 0 0 0 0 0 0 0 0 0 0 0 0 0 0 0 0 0 0 0 0 0 0 2374 2453 2453 2628 2537 2725 2830 2628 2725 2725 2725 2725 2725 2830 2830 2725 3345 3504 3199 2628 2725 2725 0 0 0 2537 2453 2453 2943 3066 3066 4329 3679 3345 3199 2725 2453 2164 2044 1936 1936 1887 1887 1839 1795 1795 1752 1795 1795 1887 1989 1887 1936 2230 2044 2230 2230 2164 2164 2164 2230 2453 2164 2725 1989 2164 2299 2725 2164 2102 2374 2374 2453 2453 2453 2537 2537 2628 2943 2943 2943 2628 2299 2453 2453 2537 2628 2628 2628 2628 2725 2943 2830 3199 3199 3066 2102 2453 2453 2453 2537 2537 2453 2299 2230 2725 2102 2230 2230 1936 1936 2044 1989 2164 2299 2453 2374 2230 2102 2230 2102 2102 1936 2044 2102 1887 2044 1989 1989 1936 2044 2044 2044 2044 2164 2102 2164 2164 2628 2102 2537 2725 2830 2830 3199 2943 2830 2830 3066 0 0 0 0 0 0 0 3873 0 0 0 0 0 0 0 1839 1887 1887 1752 1887 1887 1887 1887 1839 1839 1839 1752 1839 1795 1752 1752 1795 1795 1752 1752 1839 1795 1795 1795 1795 1711 1635 1711 1635 1501 1471 1443 1443 1362 1362 1388 1388 1338 1415 1415 1388 1415 1415 1415 1362 1362 1415 1338 1338 1338 1314 1291 1338 1314 1362 1268 1268 1226 1247 1206 1226 1187 1132 1098 1066 1022 1008 981 968 943 919 919 897 897 886 865 865 855 845 845 836 826 0 0 0 0 0
    0 0 0 0 0 0 0 0 0 0 0 0 0 0 0 0 0 0 0 0 0 0 0 0 0 0 0 0 0 0 0 0 0 0 0 0 0 0 0 0 0 0 0 0 0 0 0 0 0 0 0 0 0 0 0 0 0 0 0 0 0 0 0 0 0 0 0 0 0 2374 2374 2453 2628 2537 2725 2725 2628 2628 2628 2628 2628 2725 2725 2725 2725 3199 3345 3199 2628 2725 2725 2628 2725 2725 2537 2453 2453 2943 2943 2943 4088 3504 3199 3066 2628 2374 2044 2044 1887 1936 1887 1887 1839 1795 1752 1711 1711 1752 0 1936 0 1989 2299 2044 2299 2299 2230 2164 2230 2299 2453 2164 2628 2102 2299 2299 2725 2374 2164 2453 2374 2453 2453 2453 2537 2537 2628 2830 2830 2943 2628 2299 2453 2374 2453 2537 2537 2628 2628 2725 2943 2943 3199 3199 3066 2102 2453 2453 2453 2537 2537 2453 2374 2299 2725 2164 2299 2537 2044 2044 2164 2044 2374 2453 2628 2537 2374 2299 2453 2299 2164 1936 2164 2164 1887 2044 1989 1989 1936 2044 2044 2044 2044 2164 2044 2164 2164 2725 2164 2725 2943 3199 3345 4088 3504 3066 3066 3504 0 0 0 0 0 0 0 3504 0 0 0 0 0 0 0 1839 1887 1887 1711 1839 1887 1887 1887 1839 1839 1795 1752 1839 1795 1752 1752 1795 1795 1752 1752 1839 1795 1752 1795 1795 1711 1635 1711 1635 1471 1443 1443 1415 1362 1362 1388 1388 1362 1415 1415 1388 1415 1415 1415 1362 1362 1415 1338 1338 1338 1338 1314 1338 1338 1362 1291 1268 1226 1226 1206 1187 1132 1082 1051 1008 994 981 955 943 931 919 919 897 897 886 865 865 865 845 845 836 826 0 0 0 0 0
    0 0 0 0 0 0 0 0 0 0 0 0 0 0 0 0 0 0 0 0 0 0 0 0 0 0 0 0 0 0 0 0 0 0 0 0 0 0 0 0 0 0 0 0 0 0 0 0 0 0 0 0 0 0 0 0 0 0 0 0 0 0 0 0 0 0 0 0 0 2374 2374 2453 2628 2537 2628 2725 2537 2628 2628 2628 2628 2628 2628 2628 2628 3066 3199 3199 2628 2725 2725 2628 2725 2725 2537 2453 2453 2943 2830 2943 3873 3345 3199 3066 2537 2374 1989 1989 1887 1887 1795 1795 1711 1711 1672 1635 1599 1672 0 0 0 1936 2299 2044 2299 2299 2230 2164 2230 2299 2453 2164 2628 2164 2299 2299 2725 2453 2164 2453 2374 2374 2453 2453 2537 2537 2537 2830 2725 2830 2453 2164 2374 2299 2453 2453 2537 2537 2537 2725 2943 2943 3199 3199 3066 2102 2453 2453 2374 2453 2453 2453 2374 2230 2830 2164 2299 2628 1989 1989 2102 1989 2299 2374 2725 2628 2453 2537 2628 2537 2537 2102 2453 2453 1887 2044 1936 1936 1936 2044 2044 1989 2044 2164 2044 2230 2230 2725 2230 2725 2725 3199 3679 5256 4906 3679 3873 4329 4329 0 0 0 3199 0 0 0 0 0 0 0 0 1752 0 0 1887 1839 1752 1839 1839 1887 1839 1839 1839 1795 1752 1839 1795 1752 1711 1752 1795 1752 1752 1839 1752 1752 1795 1795 1711 1599 1672 1635 1471 1471 1443 1415 1362 1362 1415 1415 1362 1415 1415 1388 1415 1415 1415 1362 1338 1415 1338 1338 1338 1338 1314 1338 1338 1388 1291 1268 1226 1226 1168 1132 1082 1036 1022 968 968 955 943 931 931 919 919 897 908 897 865 865 865 845 836 836 826 0 0 0 0 0
    0 0 0 0 0 0 0 0 0 0 0 0 0 0 0 0 0 0 0 0 0 0 0 0 0 0 0 0 0 0 0 0 0 0 0 0 0 0 0 0 0 0 0 0 0 0 0 0 0 0 0 0 0 0 0 0 0 0 0 0 0 0 0 0 0 0 0 0 0 2374 2374 2453 2537 2453 2628 2628 2453 2628 2537 2537 2537 2537 2537 2628 2537 2943 3066 3066 2537 2725 2725 0 2725 2725 2537 2453 2453 2943 2830 2830 3873 3345 3199 0 2537 2374 1795 1887 1795 1795 0 1752 1635 1635 1635 1599 1635 0 0 0 0 1936 2299 2102 2299 2299 2230 2164 2230 2299 2453 2164 2628 2102 2164 2164 2628 2374 2102 2453 2374 2453 2453 2453 2537 2453 2537 2830 2725 2830 2453 2164 2374 2299 2453 2453 2453 2537 2537 2628 2943 2943 3066 3066 3066 2102 2453 2453 2374 2453 2453 2453 2299 2230 2725 2044 2044 0 1795 1795 1936 1887 2044 2164 2537 2537 2537 2628 2943 2725 3066 0 2725 2725 1887 2044 1936 1936 1887 1989 2044 1989 1989 2102 1989 2299 2230 2725 2230 2537 2230 2453 0 0 3873 3345 3504 4088 3873 0 3679 3345 3345 0 0 0 0 0 0 0 0 0 0 0 1839 1839 1711 1839 1839 1839 1839 1795 1839 1795 1711 1839 1795 1752 1752 1795 1795 1752 1752 1839 1752 1752 1752 1795 1672 1599 1672 1599 1471 1471 1443 1443 1388 1362 1415 1415 1362 1415 1415 1388 1388 1415 1415 1362 1338 1415 1338 1338 1338 1338 1314 1338 1338 1362 1268 1247 1226 1206 1132 1098 1051 1008 994 931 943 943 931 931 931 919 919 897 919 897 865 855 855 836 836 826 826 0 0 0 0 0
    0 0 0 0 0 0 0 0 0 0 0 0 0 0 0 0 0 0 0 0 0 0 0 0 0 0 0 0 0 0 0 0 0 0 0 0 0 0 0 0 0 0 0 0 0 0 0 0 0 0 0 0 0 0 0 0 0 0 0 0 0 0 0 0 0 0 0 0 0 2374 2374 2453 2537 2453 2537 2453 2374 2537 2453 2453 2453 2453 2537 2537 2453 2943 2943 3066 2537 2725 2725 0 2725 2830 2628 2453 2453 2943 2943 2943 3873 3345 3199 0 0 0 1672 1752 1752 1711 0 1711 1635 1599 1599 1565 0 0 0 0 0 1936 2230 2044 2299 2230 2230 2164 2230 2299 2453 2164 2628 0 0 0 2725 2537 2164 2453 2374 2453 2453 2453 2537 2453 2537 2830 2628 2725 2453 2230 2453 2299 2374 2374 2453 2453 2537 2628 2830 2943 2943 3066 2943 2164 2453 2453 2299 2453 2374 2453 2230 2164 2628 1989 1936 0 1711 1672 1795 1795 1936 2044 2537 2725 2830 2830 2943 2830 3199 0 2943 2943 1887 2044 0 1936 1887 1989 2044 2044 2044 2164 1989 2374 2299 2830 2453 2725 2299 0 0 0 3679 3504 3679 3873 3873 0 3873 3345 3199 0 0 0 0 0 0 0 0 0 0 0 1839 1839 1711 1839 1839 1839 1839 1795 1839 1795 1711 1839 1795 1752 1752 1795 1795 1752 1752 1839 1752 1711 1752 1752 1672 1599 1635 1565 1443 1443 1443 1443 1388 1362 1443 1443 1362 1415 1415 1415 1415 1415 1415 1362 1338 1388 1338 1338 1314 1314 1291 1314 1314 1338 1268 1247 1206 1187 1115 1082 1022 981 981 919 931 943 931 919 931 931 919 908 931 897 865 855 845 836 826 826 817 0 0 0 0 0
    0 0 0 0 0 0 0 0 0 0 0 0 0 0 0 0 0 0 0 0 0 0 0 0 0 0 0 0 0 0 0 0 0 0 0 0 0 0 0 0 0 0 0 0 0 0 0 0 0 0 0 0 0 0 0 0 0 0 0 0 0 0 0 0 0 0 0 0 0 2374 2374 2453 2537 2374 2537 2453 2299 2453 2374 2453 2453 2453 2453 2537 2453 2830 2943 0 2453 2628 2628 0 2725 0 2628 2537 2537 3066 3066 3199 3504 3066 3066 0 0 0 1672 0 0 0 0 0 1599 0 0 1533 0 0 0 0 0 1887 2230 2044 2299 2230 2164 2164 2230 2299 2453 2230 2725 0 0 0 2943 2830 2299 2537 2453 2537 2537 2453 2537 2453 2537 2830 2830 2830 2628 2299 2537 2374 2453 2453 2453 2453 2453 2537 2830 2830 2943 3066 3066 2299 2537 2537 2374 2453 2374 2453 2230 2164 2628 1936 1839 0 1635 1635 1711 1795 0 1989 2830 2830 2943 2943 2830 2725 3199 0 3066 3066 1936 2102 0 1936 1936 2044 2044 2044 2044 0 0 2537 2453 2943 2628 2943 2537 0 3679 3873 4329 3873 4329 4599 0 0 0 3504 3345 0 0 0 0 0 0 0 0 227 1752 0 1887 1839 1752 1839 1839 1839 1839 1795 1839 1839 1752 1887 1839 1795 1795 1795 1795 1752 1752 1839 1752 1711 1752 1752 1635 1599 1599 1533 1443 1443 1443 1443 1388 1362 1443 1443 1362 1415 1415 1415 1415 1415 1415 1362 1338 1388 1338 1314 1314 1314 1291 1314 1314 1338 1268 1247 1206 1187 1132 1082 1022 981 981 897 931 931 931 919 919 919 919 897 931 897 865 855 845 826 817 817 817 0 0 0 0 0
    0 0 0 0 0 0 0 0 0 0 0 0 0 0 0 0 0 0 0 0 0 0 0 0 0 0 0 0 0 0 0 0 0 0 0 0 0 0 0 0 0 0 0 0 0 0 0 0 0 0 0 0 0 0 0 0 0 0 0 0 0 0 0 0 0 0 0 0 0 2299 2374 2453 2453 2374 2537 2374 2299 2453 2374 2453 2453 2453 2453 2537 2453 2725 2830 0 0 0 0 0 0 0 2628 2537 2537 3066 3066 3199 3504 2943 1936 0 1752 0 1533 0 0 0 0 0 1471 0 0 1471 1471 0 0 0 0 1887 2230 2044 2299 2230 2164 2164 2230 2299 2537 2374 2830 0 0 0 3199 3066 2537 2628 2537 2537 2537 2537 2537 2537 2537 2830 3066 2943 2725 2453 2628 2453 2453 2453 2453 2453 2453 2537 2830 2830 2943 3199 3066 2453 2628 2628 2374 2453 2453 2453 2230 2102 2537 1936 1839 0 1672 1672 1752 1839 0 1936 2830 2830 2830 2830 2725 2537 3199 3066 2943 2943 1989 2164 0 1989 1989 2044 2102 2044 2044 0 0 2628 2453 2943 2628 2943 2628 0 3504 4329 4906 4599 5661 0 0 0 0 4329 3504 3066 2537 2299 0 0 0 0 0 0 1839 1839 1936 1887 1795 1839 1839 1839 1839 1839 1887 1839 1752 1887 1839 1795 1795 1839 1839 1752 1752 1839 1752 1711 1711 1711 1635 1599 1599 1565 1471 1443 1443 1443 1388 1362 1415 1443 1362 1388 1415 1415 1388 1415 1415 1362 1338 1388 1338 1314 1314 1314 1291 1314 1291 1314 1268 1247 1206 1168 1115 1066 1022 968 968 886 919 931 919 908 919 919 919 897 931 897 855 855 845 836 826 826 817 0 0 0 0 0
    0 0 0 0 0 0 0 0 0 0 0 0 0 0 0 0 0 0 0 0 0 0 0 0 0 0 0 0 0 0 0 0 0 0 0 0 0 0 0 0 0 0 0 0 0 0 0 0 0 0 0 0 0 0 0 0 0 0 0 0 0 0 0 0 0 0 0 0 0 2299 2299 2374 2453 2374 2537 2374 2374 2453 2374 2453 2453 2453 2453 2537 2453 2830 2830 0 0 0 0 0 0 0 2628 2453 2453 2943 2943 2943 3199 2537 1839 1635 1672 0 1471 0 0 0 0 1501 1443 0 0 0 1533 0 0 0 0 1936 2230 2044 2299 2299 2164 2164 2230 2299 2537 2453 2830 0 0 3199 3345 3199 2628 2725 2537 2628 2628 2537 2537 2537 2628 2830 3066 2830 2830 2453 2628 2453 2453 2453 2537 2453 2453 2537 2830 2725 2943 3199 3066 2453 2628 2537 2374 2453 2374 2453 2164 2044 2537 1936 1887 0 1711 1711 1795 1839 0 1839 2628 2943 2830 2830 2628 2374 3199 3066 2943 2943 1989 2164 1989 2044 2044 2102 2102 2102 2102 2374 2102 2628 2537 2943 2628 2830 2628 0 0 6690 0 0 0 0 0 0 0 0 3504 2725 2164 2164 0 0 0 0 0 0 1936 1936 1989 1936 1839 1887 1887 1887 1839 1839 1887 1839 1752 1887 1839 1839 1795 1839 1839 1795 1752 1839 1752 1672 1711 1711 1635 1599 1599 1565 1501 1443 1443 1443 1388 1362 1415 1443 1362 1388 1415 1388 1388 1415 1388 1362 1338 1388 1362 1338 1338 1338 1291 1314 1314 1314 1268 1247 1187 1115 1066 1036 968 943 955 876 908 919 919 908 919 931 919 897 931 897 865 855 855 836 826 826 826 0 0 0 0 0
    0 0 0 0 0 0 0 0 0 0 0 0 0 0 0 0 0 0 0 0 0 0 0 0 0 0 0 0 0 0 0 0 0 0 0 0 0 0 0 0 0 0 0 0 0 0 0 0 0 0 0 0 0 0 0 0 0 0 0 0 0 0 0 0 0 0 0 0 0 2299 2299 2453 2453 2374 2537 2374 2299 2537 2374 2453 2453 2453 2453 2537 2453 2830 2830 0 0 0 0 0 0 0 2537 2374 2374 2943 2725 2725 2943 2299 1936 1752 1887 0 1711 0 2044 0 0 1635 1672 0 0 0 0 0 0 0 0 1936 2230 2044 2299 2299 2164 2164 2230 2299 2628 2453 2943 0 0 3345 3504 3199 2725 2725 2628 2628 2628 2537 2537 2628 2628 2943 3066 2943 2830 2628 2725 2537 2537 2537 2537 2453 2537 2537 2830 2725 2830 3066 3066 2374 2537 2537 2299 2453 2299 2453 2102 1989 2453 1989 1936 0 1752 1711 1752 1795 1887 1795 2102 3066 2943 3066 2830 2830 3199 3066 3066 2943 1989 2230 1989 2102 2102 2164 2164 2164 2164 2374 2230 2725 2537 2943 2628 2725 2725 0 0 0 0 0 0 0 0 0 0 0 3199 2164 2102 2102 0 0 0 0 0 2230 2044 1989 1989 1936 1887 1887 1887 1887 1887 1839 1887 1839 1752 1887 1839 1839 1839 1839 1839 1795 1795 1839 1752 1672 1711 1711 1635 1599 1599 1565 1501 1443 1471 1443 1415 1362 1415 1415 1338 1362 1415 1388 1388 1415 1388 1362 1362 1388 1362 1338 1338 1362 1314 1338 1338 1338 1291 1268 1206 1082 1022 994 919 919 931 876 908 919 908 908 919 931 919 897 943 908 865 865 865 836 836 836 836 0 0 0 0 0
    0 0 0 0 0 0 0 0 0 0 0 0 0 0 0 0 0 0 0 0 0 0 0 0 0 0 0 0 0 0 0 0 0 0 0 0 0 0 0 0 0 0 0 0 0 0 0 0 0 0 0 0 0 0 0 0 0 0 0 0 0 0 0 0 0 0 0 0 0 2299 2299 2453 2374 2374 2453 2299 2299 2453 2374 2453 2453 2374 2374 2537 2453 2830 2830 0 2299 0 0 0 0 0 2537 2374 2299 2830 2537 2628 2830 1989 1887 1711 1839 0 1752 1989 2044 0 0 1752 1839 0 0 0 0 0 0 0 0 1936 2230 2044 2299 2299 2164 2164 2230 2299 2628 2453 2943 0 0 3504 3679 3199 2725 2725 2628 2628 2628 2537 2537 2537 2628 2943 3199 2830 2943 2628 2725 2537 2537 2537 2537 2453 2628 2537 2830 2725 2830 3066 3066 2453 2537 2453 2299 2453 2299 2453 2102 1989 2453 2044 1989 2164 1752 1711 1752 1752 1795 1711 0 0 3199 3199 3066 3066 3199 3199 3066 3066 1989 2299 2044 2164 2102 2230 2230 2230 2230 2453 2299 2725 2628 2943 2725 0 0 5661 0 0 0 0 0 0 0 0 0 0 0 1887 1989 1936 0 0 0 0 0 2164 2164 2044 1989 1936 1936 1936 1936 1887 1887 1839 1887 1839 1752 1887 1887 1839 1839 1839 1839 1795 1795 1887 1752 1672 1711 1711 1635 1599 1635 1599 1501 1471 1471 1443 1415 1388 1388 1415 1338 1362 1388 1388 1362 1388 1388 1362 1362 1388 1388 1338 1338 1362 1338 1338 1338 1362 1338 1291 1247 1115 994 931 876 886 908 865 897 908 908 908 931 943 931 897 955 919 865 865 876 836 836 836 845 0 0 0 0 0
    0 0 0 0 0 0 0 0 0 0 0 0 0 0 0 0 0 0 0 0 0 0 0 0 0 0 0 0 0 0 0 0 0 0 0 0 0 0 0 0 0 0 0 0 0 0 0 0 0 0 0 0 0 0 0 0 0 0 0 0 0 0 0 0 0 0 0 0 0 2299 2299 2453 2374 2299 2453 2299 2299 2453 2374 2453 2453 2374 2374 2537 2537 2830 2943 0 0 0 0 0 0 0 2537 0 2299 2830 2453 2453 2725 1936 1839 1672 1839 1795 1752 1989 2164 0 0 0 1887 0 0 0 0 0 0 0 0 1936 2230 2044 2299 2299 2230 2164 2230 2374 0 0 3066 0 0 3679 4088 3345 2830 2725 2628 2725 2725 2537 2537 2628 2725 3066 3199 2830 2830 2628 2725 2628 2537 2537 2537 2453 2628 2537 2830 2628 2725 2943 2943 2374 2453 2453 2299 2453 2299 2537 2102 1989 2374 2102 2044 2164 1795 1752 1752 1795 1795 1711 0 0 3345 3199 3066 3199 3345 3345 3199 3066 2044 2374 2044 2230 2230 2230 2230 2230 2230 2537 2374 2830 2628 2943 2725 0 0 3679 0 3679 0 0 0 9199 0 0 0 0 2374 1839 1936 1936 1839 0 0 0 0 2164 2374 2230 1989 1989 1989 1989 1989 1936 1936 1887 1887 1887 1795 1887 1887 1839 1839 1887 1887 1839 1795 1887 1752 1711 1711 1711 1635 1635 1635 1599 1501 1443 1443 1443 1415 1362 1362 1388 1314 1362 1388 1388 1362 1388 1388 1362 1362 1388 1388 1338 1338 1362 1338 1338 1362 1362 1415 1362 0 0 968 865 845 855 876 855 886 908 897 908 931 955 943 908 955 919 836 0 0 0 0 0 0 0 0 0 0 0
    0 0 0 0 0 0 0 0 0 0 0 0 0 0 0 0 0 0 0 0 0 0 0 0 0 0 0 0 0 0 0 0 0 0 0 0 0 0 0 0 0 0 0 0 0 0 0 0 0 0 0 0 0 0 0 0 0 0 0 0 0 0 0 0 0 0 0 0 0 2299 2299 2453 2374 2299 2453 2299 2299 2453 2374 2453 2453 2374 2374 2537 2537 2830 0 0 0 0 0 96 0 0 0 0 2374 2943 2537 2537 2725 2164 1936 1711 1936 1989 1887 2102 2164 0 0 1989 2044 0 0 1936 0 0 0 0 1839 1936 2230 2044 2299 2374 2230 2164 2230 2374 0 0 3199 0 0 3873 4329 3504 2943 2725 2725 2725 2725 2537 2537 2628 2725 3066 3199 2830 2830 0 2725 2628 2628 2537 2628 2453 2628 2537 2830 2628 2725 2943 2943 2374 2453 2453 2299 2374 2299 2453 2102 1936 2299 2044 2044 2230 1936 1839 1839 1887 2044 0 1936 0 3199 3199 0 3066 3199 3345 3199 3066 2044 2374 2102 2299 2230 2299 2299 2299 2299 2537 2374 2725 2537 2830 2628 2725 0 0 0 2628 0 0 0 0 2453 2102 1887 0 2044 1887 1989 1989 1936 1989 2164 2453 2164 2299 2628 2453 2044 2044 2044 1989 1989 1989 1936 1887 1936 1936 1839 1887 1887 1887 1887 1936 1887 1839 1839 1887 1752 1711 1711 1711 1635 1635 1635 1599 1533 1443 1443 1415 1388 1362 1338 1362 1314 1338 1388 1388 1362 1415 1388 1362 1362 1388 1388 1338 1338 1362 1314 1314 1362 1338 1443 1471 0 0 919 836 826 836 855 845 865 886 886 908 968 1008 981 0 0 0 0 0 0 0 0 0 0 0 0 0 0 0
    0 0 0 0 0 0 0 0 0 0 0 0 0 0 0 0 0 0 0 0 0 0 0 0 0 0 0 0 0 0 0 0 0 0 0 0 0 0 0 0 0 0 0 0 0 0 0 0 0 0 0 0 0 0 0 0 0 0 0 0 0 0 0 0 0 0 0 0 0 2230 2299 2374 2374 2299 2453 2230 2299 2374 2374 2453 2453 2374 2374 2537 2537 0 0 97 0 0 96 96 96 96 0 0 0 2943 2725 2725 2830 2537 2102 1839 2230 2299 2102 2374 2299 2164 1989 1989 1989 0 0 1936 0 0 0 1795 1839 1936 2230 2044 2299 2374 2230 2230 2230 2374 0 0 3345 0 0 4088 4329 3504 2943 2725 2628 2725 2725 2453 2453 2537 2725 3066 3199 2830 2943 2725 2830 2628 2628 2628 2628 2453 2628 2537 2830 2628 2725 3066 2943 2374 2374 2374 2230 2299 2230 2374 2044 1887 2164 2102 2044 2299 1989 1936 1936 1989 2453 2453 0 3345 3199 3199 0 2830 3066 3066 2943 2943 1989 2374 2102 2299 2299 2299 2299 2299 2299 2537 2374 2725 2453 2628 2628 2537 0 0 0 2453 0 0 0 0 2164 0 0 0 1989 1936 1989 2044 1989 2102 2164 2374 2164 2299 2628 2537 2102 2102 2102 2044 2044 1989 1989 1887 1936 1989 1839 1887 1936 1887 1887 1936 1936 1839 1839 1839 1752 1711 1711 1672 1635 1635 1635 1599 1533 1443 1443 1415 1388 1362 1314 1338 1291 1338 1388 1388 1362 1415 1388 1362 1362 1388 1388 1338 1362 1388 1314 1314 1388 1338 1501 1599 0 0 919 836 826 836 876 836 0 0 6690 0 0 0 0 0 0 0 0 0 0 0 0 0 0 0 0 0 0 0
    0 0 0 0 0 0 0 0 0 0 0 0 0 0 0 0 0 0 0 0 0 0 0 0 0 0 0 0 0 0 0 0 0 0 0 0 0 0 0 0 0 0 0 0 0 0 0 0 0 0 0 0 0 0 0 0 0 0 0 0 0 0 0 0 0 0 0 0 0 2164 2230 2374 2299 2299 2537 2299 2374 2453 2453 2537 2537 2453 2374 2537 2537 0 0 97 0 96 96 96 96 96 96 96 0 2943 2725 2830 2830 2943 2537 2628 2628 2628 2374 2453 2299 2164 1936 1887 1936 1936 0 1936 1752 0 0 1839 1839 1936 2299 2102 2374 2374 2299 2230 2299 2374 2725 2537 3199 2943 3345 3679 3873 3345 2830 2628 2628 2628 2628 2453 2374 2537 2725 3066 3199 2830 2943 2725 2830 2628 2628 2628 2628 2453 2628 2453 2830 2628 2725 2943 2943 2299 2230 2299 2102 2164 2102 2230 1989 1839 1989 2299 2164 2537 2102 1936 1936 1989 2299 1887 2628 0 3066 3199 0 2830 2943 3066 2943 2830 1989 2374 2102 2374 2299 2230 2299 2299 2299 2537 2299 2628 2230 2374 2453 1887 1839 0 0 0 0 2164 2299 0 2044 1887 1839 1936 1936 1887 1989 2044 1989 2044 2102 2299 2164 2299 2628 2537 2102 2164 2164 2102 2102 2044 1989 1887 1936 1989 1839 1887 1887 1887 1887 1936 1936 1839 1795 1795 1752 1711 1711 1672 1635 1635 1672 1635 1533 1443 1443 1415 1388 1338 1291 1314 1268 1314 1388 1362 1362 1415 1388 1362 1388 1388 1388 1362 1362 1388 1338 1314 1415 1362 1565 1672 0 1936 0 0 0 0 0 0 0 0 0 0 0 0 0 0 0 0 0 1795 1839 1752 1471 0 0 0 0 0 0 0
    0 0 0 0 0 0 0 0 0 0 0 0 0 0 0 0 0 0 0 0 0 0 0 0 0 0 0 0 0 0 0 0 0 0 0 0 0 0 0 0 0 0 0 0 0 0 0 0 0 0 0 0 0 0 0 0 0 0 0 0 0 0 0 0 0 0 0 0 0 2164 2230 2299 2299 2374 2537 2374 2453 0 0 2725 2725 2628 2453 2628 2628 2830 0 0 0 0 96 96 96 96 0 0 0 2830 2628 2628 2830 2943 2628 2830 2725 2725 2453 2453 2230 2044 1936 1887 1936 1887 1936 1936 0 0 0 1936 0 1936 2299 2102 2374 2374 2299 2299 2299 2374 2628 2453 2943 2453 0 2830 3066 2943 2628 2453 2453 2537 2537 2299 2299 2374 2537 2830 3066 2537 2725 2628 2725 2537 2628 2628 2628 2453 2628 2537 2830 2628 2628 2830 2830 2164 2044 2044 1989 2044 1989 2102 1887 1795 1795 2628 2374 2830 2453 2102 2102 2102 2230 2044 2102 2725 2628 0 0 2943 3066 3066 2943 2943 1989 2453 2102 2299 2299 2164 2230 2230 2230 2453 2164 2537 2044 2102 2230 1752 1599 1443 1338 0 1362 0 1887 0 1887 1839 1752 1887 1887 1887 1936 1989 1989 1989 2044 2230 2102 2230 2628 2537 2044 2102 2102 2102 2102 2044 1989 1887 1936 1936 1839 1887 1887 1839 1839 1887 1887 1795 1795 1795 1752 1711 1711 1672 1635 1635 1672 1635 1533 1443 1443 1388 1388 1362 1291 1291 1268 1314 1362 1362 1338 1388 1388 1362 1388 1388 1388 1362 1362 1415 1338 1338 1415 1362 1533 1635 0 1887 0 0 0 0 0 0 0 0 0 0 0 0 0 0 1672 1565 1635 1635 1711 1672 1471 0 0 0 0 0 0 0
    0 0 0 0 0 0 0 0 0 0 0 0 0 0 0 0 0 0 0 0 0 0 0 0 0 0 0 0 0 0 0 0 0 0 0 0 0 0 0 0 0 0 0 0 0 0 0 0 0 0 0 0 0 0 0 0 0 0 0 0 0 0 0 0 0 0 0 0 0 2102 2102 2102 2164 2374 0 0 0 0 0 2943 2830 2830 2725 2830 2628 0 0 96 0 96 96 0 96 96 0 0 2230 2830 2453 2453 2725 2725 2537 0 2628 2537 2230 2299 2164 1989 1887 1887 1887 1887 1936 1936 0 0 0 2044 1936 1989 2374 2102 2374 2374 2374 2299 2299 2299 2628 2299 2725 2044 2102 2164 2537 2453 2374 2299 2299 2299 2374 2102 2230 2230 2299 2537 2628 2230 2453 2453 2628 2453 2628 2628 2628 2537 2725 2628 2830 2628 2537 2725 2725 2102 1936 1989 1936 1936 1936 1989 1839 1752 1752 2830 2537 3066 2628 2299 2102 2164 2299 2164 2230 2725 2374 3066 2830 2943 2943 3066 3066 3066 1989 2453 2102 2374 2299 2164 2230 2230 2164 2374 2102 2374 1936 1936 2044 1672 1443 1362 1314 1291 1314 1565 1599 1415 1672 1795 1672 1887 1887 1839 1936 1989 1936 1936 2044 2164 2102 2164 2628 2453 2044 2102 2102 2044 2044 1989 1989 1839 1887 1936 1839 1839 1887 1839 1839 1887 1887 1795 1752 1795 1752 1672 1672 1635 1599 1565 1599 1599 1471 1388 1388 1362 1362 1338 1291 1291 1268 1314 1362 1362 1338 1388 1388 1362 1388 1388 1388 1362 1362 1415 1362 1338 1443 1388 1599 1672 1839 0 0 0 0 0 0 0 0 0 0 0 0 0 0 0 1599 1501 1565 1565 1635 1599 1443 0 0 0 0 0 0 0
    0 0 0 0 0 0 0 0 0 0 0 0 0 0 0 0 0 0 0 0 0 0 0 0 0 0 0 0 0 0 0 0 0 0 0 0 0 0 0 0 0 0 0 0 0 0 0 0 0 0 0 0 0 0 0 0 0 0 0 0 0 0 0 0 0 0 0 0 0 2299 0 0 0 0 0 0 0 0 0 3066 2830 2943 2943 3066 2374 0 0 96 95 96 96 0 0 96 0 0 0 2830 2453 2453 2725 0 2537 0 2725 2453 2164 0 0 0 0 0 0 0 0 0 0 0 0 2044 1936 1989 2374 2164 2453 2453 2453 2374 2374 2374 2628 2230 2628 1989 1989 1989 2164 2230 2230 2164 2230 2230 2299 2044 2164 2044 2044 2164 2453 2044 2299 2299 2725 0 0 0 2725 2628 2943 2725 0 2628 2453 2537 2628 2044 1887 1936 1887 1887 1887 1936 1887 1752 1752 2725 2453 2830 2537 2230 2102 2164 2230 2230 2374 2830 2537 0 0 3066 3066 3199 3066 2943 1989 2453 2102 2374 2230 2164 2230 2164 2164 2299 2044 2230 1839 1887 1887 1565 1362 1314 1291 1291 1291 1338 1314 1291 1415 0 1795 1936 1887 1887 1936 1936 1936 1936 1989 2164 2102 2102 2628 2453 2044 2102 2102 2044 2044 1989 1989 1839 1887 1887 1839 1839 1839 1839 1795 1839 1887 1752 1752 1752 1752 1672 1635 1599 1565 1533 1565 1501 1388 1362 1362 1338 1338 1314 1268 1291 1268 1314 1362 1362 1338 1388 1415 1388 1388 1362 1388 1388 1388 1415 1362 1338 1443 1388 1565 1672 1795 0 0 0 0 0 0 0 0 0 0 0 0 0 0 0 0 1533 1599 1565 1672 1599 1415 0 0 0 0 0 0 0
    0 0 0 0 0 0 0 0 0 0 0 0 0 0 0 0 0 0 0 0 0 0 0 0 0 0 0 0 0 0 0 0 0 0 0 0 0 0 0 0 0 0 0 0 0 0 0 0 0 0 0 0 0 0 0 0 0 0 0 0 0 0 0 0 0 0 0 0 0 0 0 0 0 0 0 0 0 0 0 0 0 0 0 2628 2164 0 0 0 95 96 95 0 0 0 121 121 121 0 0 2628 2725 0 2628 0 0 2374 2102 0 0 0 0 0 0 1711 1711 0 0 0 1989 1989 1936 1989 2374 2230 2537 2537 2537 2453 2374 2453 2628 2299 2628 2044 1989 1989 2102 2230 2230 2164 2230 2230 2299 2044 2164 2044 1989 1989 2164 1936 2102 2044 0 0 0 0 0 0 0 0 0 0 2299 2299 2537 2044 1887 1936 1887 1887 1887 1936 1887 1795 1752 2628 2453 2725 2628 2453 2374 2453 2374 2453 2537 2830 2725 3066 2943 2830 2943 3199 3199 2830 1989 2453 2102 2374 2230 2164 2164 2164 2102 2230 1989 2102 1795 1795 1795 1443 1338 1291 1291 1268 1268 1291 1291 1291 1314 1989 0 1936 1936 1887 1936 1936 1936 1936 1989 2102 2164 2230 2725 2537 2102 2102 2102 2044 2044 1989 1936 1839 1887 1887 1839 1839 1839 1839 1795 1839 1839 1752 1711 1752 1711 1635 1599 1533 1533 1471 1471 1415 1338 1314 1314 1314 1314 1314 1268 1314 1268 1314 1362 1362 1362 1415 1415 1388 1388 1362 1388 1388 1388 1415 1362 1338 1443 1388 1533 1635 1672 0 0 0 0 1338 1362 1314 1247 1132 0 0 0 0 0 0 0 1533 1599 1565 0 0 1415 0 0 0 0 0 0 0
    0 0 0 0 0 0 0 0 0 0 0 0 0 0 0 0 0 0 0 0 0 0 0 0 0 0 0 0 0 0 0 0 0 0 0 0 0 0 0 0 0 0 0 0 0 0 0 0 0 0 0 0 0 0 0 0 0 0 0 0 0 0 0 0 0 0 0 0 0 0 0 0 0 0 0 0 0 0 0 0 0 2537 2537 2453 2102 0 0 0 0 95 95 0 0 0 121 121 121 0 0 2830 0 0 0 0 0 2374 0 0 0 0 0 0 1795 1752 1752 1752 1887 1839 2164 2044 2044 2044 2453 2299 2628 2628 2628 2537 2537 2537 0 2453 2725 2102 2044 1989 2164 2299 2230 2164 2230 2164 2230 0 0 2044 0 1989 2164 0 2044 0 0 0 0 0 0 0 0 0 0 0 0 2164 2537 2044 1839 1839 1839 1839 1839 1887 1887 1752 1752 2537 2374 2628 2628 2453 2537 2537 2374 2453 2537 2725 2537 2830 2537 2537 2725 2943 2943 2628 1989 2453 2102 2374 2230 2102 2164 2102 2102 2102 1936 1989 1752 1711 1752 1415 1338 1291 1268 1268 1268 1268 1247 1247 1268 0 0 1936 1887 1887 1989 1936 1936 1936 1989 2102 2230 2453 2725 2628 2299 2164 2164 2044 2044 1989 1936 1839 1887 1887 1839 1839 1839 1839 1795 1839 1839 1711 1711 1711 1711 1565 1501 1443 1471 1415 1415 1362 1314 1314 1314 1314 1314 1314 1268 1338 1314 1314 1362 1362 1362 1415 1415 1388 1388 1362 1388 1388 1388 1415 1362 1338 1443 1388 1501 1635 1599 0 0 1066 0 1314 1314 1291 1187 1098 1098 1098 0 0 0 0 385 0 0 0 0 0 0 0 0 0 0 0 0 0
    0 0 0 0 0 0 0 0 0 0 0 0 0 0 0 0 0 0 0 0 0 0 0 0 0 0 0 0 0 0 0 0 0 0 0 0 0 0 0 0 0 0 0 0 0 0 0 0 0 0 0 0 0 0 0 0 0 0 0 0 0 0 0 0 0 0 0 0 0 0 0 0 1388 1268 0 0 0 0 0 0 0 0 0 2537 2102 0 0 0 0 0 95 95 96 0 0 121 121 0 0 0 0 0 0 0 2725 2453 0 0 0 0 0 0 1887 1839 1839 1887 1989 2102 2537 2374 2230 2102 2537 2374 2628 2725 2628 2537 2537 0 0 2537 2725 2164 2044 1989 2164 2230 2230 2164 2164 2102 2164 1989 0 1989 1936 1989 1989 0 1936 0 1989 0 0 0 0 0 0 0 0 0 0 0 2537 2044 1711 0 1752 1795 1795 1839 1887 1752 1752 2374 2299 2453 2453 2230 2374 2299 2299 2230 2299 2453 2299 2299 2102 2299 2537 2628 2628 2299 1989 2374 2102 2374 2164 2102 2102 2044 2044 2044 1887 1887 1711 1635 1672 1443 1362 1314 1291 1291 1268 1291 1247 1247 1268 0 0 1989 1936 1887 1989 1936 1989 1989 1989 2230 2299 0 2943 2943 2537 2374 2374 2102 2102 2044 1989 1887 1936 1936 1887 1839 1839 1839 1795 1839 1795 1711 1672 1672 1635 1471 1388 1388 1388 1388 1388 1362 1338 1362 1388 1388 1415 1415 1338 1415 1388 1338 1338 1362 1362 1388 1415 1388 1388 1362 1388 1415 1388 1443 1388 1362 1471 1388 1501 1635 1471 0 0 1149 0 1314 1314 1291 1187 1082 1098 1082 0 0 0 0 0 0 0 0 0 0 0 0 0 0 0 0 0 0
    0 0 0 0 0 0 0 0 0 0 0 0 0 0 0 0 0 0 0 0 0 0 0 0 0 0 0 0 0 0 0 0 0 0 0 0 0 0 0 0 0 0 0 0 0 0 0 0 0 0 0 0 0 0 0 0 0 0 0 0 0 0 0 0 0 0 0 0 0 1599 0 0 1443 0 0 0 0 0 0 0 0 0 0 0 2102 0 0 0 0 0 95 95 96 96 0 121 0 0 0 0 0 0 0 0 2943 2725 2374 0 2230 0 0 0 1936 1887 1887 1989 2102 2164 2299 2374 2230 2102 2453 2374 2628 2725 2628 2537 2628 0 0 2628 2830 2164 1989 1989 2102 2164 2164 2164 2164 2102 2164 1989 2044 2044 1989 1989 1936 1795 1887 1887 1936 2044 0 0 1936 0 2374 2628 2725 2628 2102 1936 2628 2044 1672 1752 1752 1795 1839 1887 1936 1795 1887 2299 2299 2453 2453 2230 2374 2164 2299 2102 2164 2230 2044 1887 1936 2044 2299 2374 2374 2044 1936 2374 2044 2299 2102 2044 2044 1989 1936 1936 1795 1752 1635 1533 1599 1415 1388 1338 1314 1338 1268 1268 1226 1206 1226 0 0 0 1936 1936 2044 1936 1989 1887 1936 1989 0 0 0 0 0 0 2628 2164 2164 2102 2102 1989 2044 1989 1887 1839 1839 1839 1795 1795 1795 1672 1672 1599 1533 1388 1338 1338 1338 1362 1388 1362 1362 1388 1443 1533 1565 1533 1443 1501 1471 1338 1338 1362 1338 1388 1388 1388 1388 1388 1415 1443 1415 1471 1415 1388 1501 1443 1533 1672 1565 0 0 0 1362 1338 1338 1314 1187 1051 1051 1051 0 0 0 0 0 0 1471 0 0 0 0 645 0 0 0 0 0 0
    0 0 0 0 0 0 0 0 0 0 0 0 0 0 0 0 0 0 0 0 0 0 0 0 0 0 0 0 0 0 0 0 0 0 0 0 0 0 0 0 0 0 0 0 0 0 0 0 0 0 0 0 0 0 0 0 0 0 0 0 0 0 0 0 0 0 0 0 0 1635 0 0 0 0 0 0 0 0 0 0 0 0 0 0 2164 0 96 96 95 95 95 95 96 96 0 121 0 0 0 0 0 0 0 0 2943 2628 2299 2374 2299 0 0 0 1989 1936 1989 2044 2164 2230 2374 2453 2299 2164 2537 2453 2725 2830 2725 2628 0 0 0 2725 0 2164 1989 1989 2102 2102 2102 2044 2102 2044 2044 1989 1989 1989 1936 1989 1936 1839 1936 1936 1989 2102 2044 2044 2044 2102 2374 2628 2628 2537 2164 0 2628 2102 0 1795 1752 1795 1839 1839 1936 1795 1887 2230 2230 2374 2453 2299 2453 2299 2374 2102 2044 1989 1887 1795 1839 1936 2102 2164 2164 1989 1936 2374 2044 2230 2044 1989 1989 1887 1887 1839 1711 1672 1565 1501 1533 1415 1415 1362 1338 1362 1291 1268 1226 1206 1226 1247 1247 0 0 0 0 0 0 0 0 0 0 0 0 0 0 0 0 0 0 2230 2230 2102 2102 2044 1936 1887 1839 1795 1711 1752 1672 1599 1501 1415 0 1314 1268 1314 1314 1362 1362 1362 1388 1415 1471 1599 1565 1635 1533 1533 1533 1362 0 1362 1338 1388 1388 1388 1388 1388 1415 1443 1415 1471 1443 1443 1565 1533 1599 1752 0 0 0 0 0 1388 1362 0 0 0 0 0 0 0 0 0 0 0 0 0 0 0 0 0 0 0 0 0 0 0
    0 0 0 0 0 0 0 0 0 0 0 0 0 0 0 0 0 0 0 0 0 0 0 0 0 0 0 0 0 0 0 0 0 0 0 0 0 0 0 0 0 0 0 0 0 0 0 0 0 0 0 0 0 0 0 0 0 0 0 0 0 0 0 0 0 0 0 0 0 0 0 0 0 0 0 0 0 0 0 0 0 0 0 0 2299 0 96 96 95 95 95 95 96 96 0 0 0 0 0 0 0 0 2299 2628 2725 2453 2230 2374 2230 0 0 0 1989 1989 2044 2044 2230 2374 2537 2537 2453 2164 2537 2453 2830 2830 2725 2628 0 0 122 0 0 2299 1989 1989 2044 2044 2044 1989 2044 1989 1989 1936 1936 1989 1936 1936 1936 1839 1887 1936 1989 2044 1989 2044 2044 2164 2299 2537 2537 2453 2230 0 2725 2102 0 1795 1711 0 0 1839 1887 1839 1887 2164 2230 2374 2453 2299 2453 2374 2374 2164 2102 1989 1887 1795 1839 1936 2044 2102 2102 1989 1936 2299 1989 2102 1989 1936 1887 1839 0 0 1599 1599 1501 1443 1471 1388 1415 1388 1388 1471 1314 1291 1247 1206 1226 1247 1247 1247 1206 1226 0 0 0 0 0 0 0 0 0 0 0 0 0 0 0 0 0 2044 0 0 0 0 0 0 0 0 0 0 1247 0 1187 1247 1226 1314 1314 1362 1362 1388 1415 1443 1471 1599 1533 1635 1501 1533 1565 1388 0 1362 1338 1388 1388 1388 1388 1388 1415 1471 1443 1501 1471 1443 1599 1565 1635 1795 0 0 0 0 0 0 0 0 462 0 0 0 0 0 0 0 0 0 0 0 0 0 0 0 0 0 0 0 0 0
    0 0 0 0 0 0 0 0 0 0 0 0 0 0 0 0 0 0 0 0 0 0 0 0 0 0 0 0 0 0 0 0 0 0 0 0 0 0 0 0 0 0 0 0 0 0 0 0 0 0 0 0 0 0 0 0 0 0 0 0 0 0 0 0 0 0 0 0 0 0 0 0 0 0 0 0 0 0 0 0 0 0 0 0 0 0 96 96 95 95 95 96 96 96 2537 0 0 0 0 0 0 1752 0 0 2537 2164 2164 2374 2299 0 0 0 2102 2102 2102 2164 2230 2374 2453 2453 2374 2164 2453 2453 2725 2830 2725 2725 0 0 122 0 0 2374 1989 1989 1989 2044 1989 1989 1989 1989 1989 1936 1936 1989 1936 1989 1936 1887 1887 1936 1989 2044 1989 2044 2044 2164 2230 2537 2453 2299 2230 0 2725 2102 0 1795 0 0 0 1839 1887 1795 1839 2044 2164 2299 2453 2164 2374 2374 2374 2299 2102 1887 1839 1839 1887 1936 2044 1989 2044 1936 1936 2102 1936 1989 1887 1839 1839 1711 0 0 1533 1565 1471 1415 1443 1388 1443 1388 1388 1501 1314 1338 1268 1206 1226 1247 1247 1226 1206 1206 0 0 0 0 0 0 0 0 0 0 0 0 0 0 0 0 0 0 0 0 0 0 0 0 0 0 0 0 1132 1168 1132 1226 1226 1314 1314 1362 1362 1388 1415 1471 1471 1599 1533 1635 1501 1501 1533 1388 0 1362 1338 1388 1388 1388 1388 1388 1415 1471 1443 1533 1501 1471 1599 1635 1672 1839 0 0 0 0 0 0 0 0 0 0 0 0 0 0 0 0 0 0 0 0 0 0 0 0 0 0 0 0 0 0
    0 0 0 0 0 0 0 0 0 0 0 0 0 0 0 0 0 0 0 0 0 0 0 0 0 0 0 0 0 0 0 0 0 0 0 0 0 0 0 0 0 0 0 0 0 0 0 0 0 0 0 0 0 0 0 0 0 0 0 0 0 0 0 0 0 0 0 0 0 0 0 0 0 0 0 0 0 0 0 0 0 0 0 0 0 0 0 96 95 95 95 95 96 96 2537 0 0 0 0 0 0 1672 1338 0 0 0 0 0 0 0 0 2453 2164 2164 2230 2230 2299 2299 2453 2453 2374 2164 2453 2453 2830 2943 2830 2725 0 0 122 0 0 2453 1936 1989 1989 2044 1989 1989 1989 1989 1989 1989 1989 2102 1989 2044 1989 1936 1936 1989 2044 2102 1989 2044 2044 2230 2230 2537 2374 2230 2299 2102 2628 2044 0 1752 1711 0 0 1887 1887 1839 1887 2102 2164 2299 2374 2164 2374 2374 2299 2230 1989 1795 1839 1839 1887 1989 2044 2044 1989 1887 1887 1936 1839 1887 1839 1795 1752 1599 1635 1635 1443 1501 1443 1415 1415 1388 1443 1415 1415 1533 1314 1338 1268 1187 1187 1206 1187 1149 1149 1149 0 0 0 0 0 0 0 0 0 0 0 0 0 0 0 0 0 0 0 0 0 0 0 0 0 0 0 1206 1149 1168 1168 1226 1226 1314 1314 1362 1388 1415 1443 1501 1501 1599 1533 1635 1501 1501 1533 1415 1338 1362 1338 1362 1388 1388 1388 1388 1415 1471 1443 1533 1533 1471 1599 1672 1672 1936 0 0 0 0 0 1415 0 0 0 0 0 0 0 0 0 0 6690 0 0 0 0 0 955 955 931 0 0 0 0 0
    0 0 0 0 0 0 0 0 0 0 0 0 0 0 0 0 0 0 0 0 0 0 0 0 0 0 0 0 0 0 0 0 0 0 0 0 0 0 0 0 0 0 0 0 0 0 0 0 0 0 0 0 0 0 0 0 0 0 0 0 0 0 0 0 0 0 0 0 0 0 0 0 0 0 0 0 0 0 0 0 0 0 0 0 2164 0 96 96 95 95 95 95 96 95 2537 2299 2374 0 0 0 0 1672 1362 0 0 0 0 0 0 2537 2453 2537 2374 2374 2374 2299 2299 2299 2299 2453 2374 2102 2374 2453 2725 2830 2725 2725 2830 0 0 0 0 2537 1989 2102 1989 2044 1989 1936 1989 1989 1989 2044 1936 2164 2044 2044 2044 1936 1936 2044 2044 2102 2044 2044 2102 2230 2230 2537 2299 2230 2453 2164 2725 2102 0 1752 1672 0 0 1887 1936 1839 1887 2102 2164 2299 2374 2164 2453 2374 2374 2374 2044 1887 1887 1936 1936 1989 2044 1989 1887 1795 1795 1839 1752 1752 1711 1635 1599 1471 1533 1501 1388 1443 1415 1415 1415 1415 1471 1415 1415 1533 1314 1338 1268 1206 1187 1226 1206 1206 1206 1206 1206 1247 1226 1206 1206 0 1206 1187 1226 1247 1247 1247 1291 1291 1362 1415 1388 0 0 0 588 0 0 0 0 0 0 0 1149 1168 1187 1226 1226 1314 1314 1362 1388 1415 1443 1501 1533 1635 1565 1672 1533 1533 1565 1443 1362 1388 1362 1362 1388 1388 1388 1388 1415 1471 1443 1533 1533 1501 1599 1672 1711 1936 0 0 0 0 0 0 0 0 0 0 0 0 0 0 0 0 7359 0 0 6690 0 0 0 0 931 0 0 0 0 0
    0 0 0 0 0 0 0 0 0 0 0 0 0 0 0 0 0 0 0 0 0 0 0 0 0 0 0 0 0 0 0 0 0 0 0 0 0 0 0 0 0 0 0 0 0 0 0 0 0 0 0 0 0 0 0 0 0 0 0 0 0 0 0 0 0 0 0 0 0 0 0 0 0 0 0 0 0 0 0 0 0 0 0 0 0 0 0 95 94 95 95 95 96 0 2537 2299 2374 2943 2628 2537 0 1672 0 0 0 0 0 0 0 2628 2453 2628 2374 2374 2374 2374 2374 2299 2299 2374 2374 2102 2374 2374 2628 2830 2725 2725 2725 0 0 0 0 2537 1989 2164 1989 1989 1989 1887 1989 1989 1989 2044 1936 2164 2102 2102 2044 1989 1936 2044 2044 2102 2044 2044 2044 2230 2230 2453 2230 2299 2537 2299 2830 2102 0 1752 1672 0 0 1887 1936 1887 1936 2102 2164 2374 2453 2164 2453 2453 2453 2374 1936 1795 1839 1887 1887 1887 1887 1839 1795 1752 1752 1752 1672 1635 1599 1565 1501 1388 1443 1443 1362 1443 1388 1388 1415 1415 1471 1415 1415 1533 1338 1362 1314 1268 1247 1268 1268 1247 1247 1247 1247 1268 1247 1226 1226 1149 1226 1226 1247 1268 1268 1268 1314 1291 1362 1388 1362 0 1268 0 0 0 1226 0 0 0 0 0 1149 0 1187 1226 1226 1291 1314 1362 1388 1415 1471 1533 1533 1635 1599 1672 1599 1565 1599 1471 1388 1415 1362 1388 1388 1388 1388 1415 1415 1471 1443 1501 1533 1471 1599 1672 1711 1989 0 0 0 0 0 0 0 0 0 0 0 0 0 0 0 0 0 0 0 0 0 0 0 0 0 0 0 0 0 0
    0 0 0 0 0 0 0 0 0 0 0 0 0 0 0 0 0 0 0 0 0 0 0 0 0 0 0 0 0 0 0 0 0 0 0 0 0 0 0 0 0 0 0 0 0 0 0 0 0 0 0 0 0 0 0 0 0 0 0 0 0 0 0 0 0 0 0 0 0 0 0 2374 2374 2299 2102 0 0 0 0 0 0 0 0 0 0 0 0 95 94 95 95 95 95 0 2537 2299 2374 2830 2537 2453 0 1711 0 1711 0 0 0 0 0 0 2374 0 2299 2374 2453 2453 2374 2230 2299 2299 2299 2102 2299 2374 2537 2725 2725 2628 2725 0 0 0 0 2453 1989 2164 1989 1936 1936 1887 1989 1989 1989 2044 1936 2164 2102 2102 2044 1989 1936 2044 2044 2102 2044 2102 2044 2230 2164 2453 2230 2230 2374 2164 2830 2102 1711 1752 1672 0 0 1887 1936 1887 1936 2164 2230 2374 2453 2230 2453 2453 2537 2374 1989 1887 1887 1887 1887 1936 1887 1887 1839 1795 1752 1711 1635 1565 1533 1501 1443 1362 1415 1388 1338 1415 1388 1415 1415 1443 1471 1443 1415 1565 1362 1415 1338 1314 1291 1291 1291 1268 1268 1247 1268 1268 1268 1226 1226 1168 1247 1247 1247 1291 0 0 1314 1314 1362 1388 1362 1362 1291 0 0 0 1247 1206 1226 1226 0 0 1149 0 1187 1226 1226 1291 1291 1362 1388 1443 1471 1533 1565 1635 1599 1672 1635 1599 1599 1533 1415 1415 1362 1388 1415 1415 1415 1415 1415 1501 1443 1501 1501 1443 1565 1672 1672 1887 0 0 0 0 0 0 0 0 0 0 0 0 0 0 0 0 0 0 0 0 0 0 0 0 0 0 0 0 0 0
    0 0 0 0 0 0 0 0 0 0 0 0 0 0 0 0 0 0 0 0 0 0 0 0 0 0 0 0 0 0 0 0 0 0 0 0 0 0 0 0 0 0 0 0 0 0 0 0 0 0 0 0 0 0 0 0 0 0 0 0 0 0 0 0 0 0 0 0 0 2453 2628 2628 2830 2628 2453 2537 3066 0 3345 3199 0 0 0 0 0 0 0 94 94 95 95 95 0 2537 2537 2299 2374 2830 2453 2374 0 1711 1752 1711 1711 1635 0 0 2044 0 0 0 2044 0 2164 2299 2230 2164 2230 2299 2230 2102 2299 2299 2537 2725 2628 2628 2725 2725 0 0 0 2374 1989 2164 1989 1936 1989 1936 1989 1989 1989 2044 1936 2164 2164 2102 2102 2044 1989 2102 2102 2164 2044 2102 2102 2230 2164 2453 2164 2230 2374 2102 2830 2102 1711 1752 1711 0 0 1887 1936 1839 1936 2164 2230 2374 2453 2230 2453 2537 2628 2537 2164 2044 2044 2164 2230 2230 1936 1936 1887 1839 1752 1711 1635 1599 1533 1533 1443 1388 1415 1388 1362 1443 1415 1415 1415 1443 1471 1443 1415 1565 1362 1415 1338 1314 1314 1291 1291 1291 1268 1268 1268 1268 1268 1226 1247 1206 1268 1268 1291 1314 1314 1314 1338 1338 1362 1362 1362 1338 1291 1291 0 1268 1247 1226 1247 1247 1291 1168 1168 0 1187 1206 1206 1268 1291 1338 1388 1443 1471 1533 1565 1635 1599 1672 1635 1635 1635 1565 1471 1471 1388 1388 1443 1415 1415 1415 1415 1471 1443 1501 1471 1415 1501 1672 1599 1887 0 0 0 0 0 0 0 0 0 0 0 0 0 0 0 0 0 0 6690 6690 0 0 0 0 0 0 0 0 0 0
    0 0 0 0 0 0 0 0 0 0 0 0 0 0 0 0 0 0 0 0 0 0 0 0 0 0 0 0 0 0 0 0 0 0 0 0 0 0 0 0 0 0 0 0 0 0 0 0 0 0 0 0 0 0 0 0 0 0 0 0 0 0 0 0 0 0 0 0 0 2628 2628 2628 2830 2725 2830 2830 2943 2943 3066 2943 2943 2830 2830 2943 2537 0 0 95 94 95 95 95 0 2537 2453 2299 2299 2725 2374 2299 2628 1711 1711 1711 1711 1672 1672 1711 1795 0 1989 2044 1989 1989 2230 2374 2230 2164 2299 2299 2230 2102 2299 2299 2453 2725 2628 2628 2725 2725 0 0 2725 2453 1989 2164 1989 1936 1989 1936 1989 2044 2044 2044 1936 2164 2164 2102 2164 2044 1989 2102 2164 2230 2102 2164 2164 2230 2230 2537 2164 2164 2374 2044 2725 2044 1711 1752 1711 0 0 1887 1936 1839 1887 2164 2230 2453 2453 2230 2453 2628 2725 2537 2299 2164 2164 2453 2628 2537 1989 1989 1936 1839 1795 1752 1635 1599 1565 1565 1471 1415 1443 1415 1362 1443 1415 1415 1415 1443 1443 1443 1415 1533 1362 1415 1338 1338 1314 1314 1314 1291 1291 1268 1268 1268 1268 1247 1268 1247 1291 1314 1314 1338 1338 1338 1362 1338 1388 1362 1362 1362 1314 1314 1314 1291 1268 1291 1291 1291 1314 1206 1187 1168 1206 1206 1206 1268 1268 1338 1362 1443 1471 1533 1533 1635 1599 1672 1635 1635 1635 1565 1501 1471 1388 1388 1443 1415 1415 1415 1415 1471 1443 1471 1471 1388 1443 1599 1471 1795 0 0 0 0 0 0 0 0 0 0 0 0 0 0 0 0 6690 6690 6690 6690 0 0 0 5256 0 0 0 0 0 0
    0 0 0 0 0 0 0 0 0 0 0 0 0 0 0 0 0 0 0 0 0 0 0 0 0 0 0 0 0 0 0 0 0 0 0 0 0 0 0 0 0 0 0 0 0 0 0 0 0 0 0 0 0 0 0 0 0 0 0 0 0 0 0 0 0 0 0 0 0 2725 2725 2725 2725 2628 2943 2943 2943 2830 2943 2830 2830 2830 2725 2943 2628 0 0 96 95 95 95 95 0 2537 2453 2230 2299 2725 2299 2230 2537 1752 1752 1752 1711 1672 1672 1711 1795 0 1936 0 0 0 2230 2453 2164 2102 2230 2164 2164 2102 2299 2299 2374 2628 2628 2628 2628 2725 0 2830 2725 2453 2044 2164 2044 1936 2044 1989 2044 2102 2102 2044 1936 2164 2230 2164 2164 2044 1989 2164 2164 2230 2102 2164 2164 2230 2230 2537 2102 2102 2230 2044 2537 2102 1752 1795 1752 0 1936 1936 1936 1839 1887 2164 2230 2453 2453 2230 2453 2537 2725 2628 2374 2374 2299 2628 2725 2628 1989 2044 1989 1887 1795 1752 1672 1672 1599 1599 1471 1443 1443 1443 1388 1471 1415 1443 1415 1443 1443 1443 1415 1533 1388 1415 1338 1338 1338 1314 1314 1291 1291 1268 1268 1291 1291 1268 1291 1268 1314 1314 1314 1338 1338 1338 1362 1338 1388 1362 1362 1362 1314 1338 1338 1314 1314 1314 1314 1314 1338 1247 1206 1168 1206 1206 1206 1247 1268 1314 1362 1443 1471 1501 1533 1599 1599 1672 1635 1635 1635 1599 1565 1471 1388 1388 1415 1415 1388 1415 1388 1443 1415 1443 1443 1362 1388 1565 1338 0 0 0 0 0 0 855 0 0 0 0 0 0 0 0 0 0 0 6690 6690 6690 6133 0 0 0 0 0 0 0 0 0
    0 0 0 0 0 0 0 0 0 0 0 0 0 0 0 0 0 0 0 0 0 0 0 0 0 0 0 0 0 0 0 0 0 0 0 0 0 0 0 0 0 0 0 0 0 0 0 0 0 0 0 0 0 0 0 0 0 0 0 0 0 0 0 0 0 0 0 0 0 2628 2628 2628 2628 2537 2830 2725 2725 2725 2830 2725 2725 2725 2725 2830 2725 0 3345 0 95 95 95 95 0 2628 2453 2230 2299 2725 2299 2230 2628 1795 1752 1711 1672 1635 1599 1635 1711 1711 1795 1711 1752 1752 2044 2374 2102 2044 2164 2102 2164 2102 2299 2230 2299 2628 2628 2537 2725 2725 2830 2725 2628 2453 2044 2230 2102 1989 2102 2044 2102 2164 2164 2102 1989 2230 2374 2230 2230 2164 1989 2230 2230 2299 2102 2164 2164 2230 2164 2537 2102 2102 2164 1989 2453 2102 1795 1795 1795 1887 1989 1936 1989 1839 1887 2230 2299 2537 2453 2230 2537 2537 2830 2628 2453 2537 2374 2725 2830 2725 1989 2044 1989 1887 1839 1752 1711 1672 1635 1635 1501 1501 1471 1471 1415 1471 1443 1471 1415 1471 1443 1443 1443 1533 1388 1443 1362 1338 1338 1314 1314 1291 1291 1268 1268 1291 1291 1268 1291 1268 1291 1314 1314 1338 1338 1338 1338 1338 1362 1338 1338 1362 1338 1338 1338 1338 1338 1362 1338 1338 1338 1226 1206 1168 1226 1206 1206 1226 1247 1291 1338 1443 1443 1501 1533 1599 1599 1672 1672 1635 1635 1635 1599 1501 1388 1362 1415 1388 1388 1415 1388 1443 1415 1415 1443 1388 1388 1565 1291 0 0 0 0 0 897 865 0 0 0 0 0 0 0 0 0 0 0 0 6690 6690 0 0 0 0 0 0 0 0 0 0
    0 0 0 0 0 0 0 0 0 0 0 0 0 0 0 0 0 0 0 0 0 0 0 0 0 0 0 0 0 0 0 0 0 0 0 0 0 0 0 0 0 0 0 0 0 0 0 0 0 0 0 0 0 0 0 0 0 0 0 0 0 0 0 0 0 0 0 0 0 2628 2537 2628 2628 2537 2830 2830 2725 2725 2725 2725 2725 2725 2725 2830 2725 3679 3504 3199 95 95 95 95 0 2628 2453 2299 2299 2725 2374 2374 2628 1839 1839 1795 1711 1672 1599 1599 1635 1635 1635 1599 1635 1672 1936 2164 2102 2044 2164 2102 2164 2164 2299 2299 2374 2628 2628 2537 2725 2725 0 2725 2628 2453 2102 2230 2164 1989 2102 2044 2164 2164 2164 2164 1989 2230 2374 2299 2299 2230 2102 2230 2230 2374 2164 2230 2164 2164 2164 2537 2044 2044 2102 1936 2374 2044 1887 1839 1839 1936 1989 1989 2102 1887 2044 2374 2374 2628 2453 2299 2537 2537 2830 2537 2374 2628 2453 2830 2830 2453 1936 1989 1936 1839 1795 1752 1711 1711 1635 1672 1533 1533 1533 1501 1415 1501 1443 1471 1443 1501 1443 1443 1443 1533 1388 1443 1362 1338 1338 1314 1314 1291 1291 1268 1268 1291 1291 1268 1268 1247 1291 1314 1314 1338 1338 1338 1362 1362 1388 1362 1362 1362 1362 1338 1338 1338 1338 1362 1362 1338 1338 1206 1187 1168 1226 1187 1187 1206 1226 1268 1338 1415 1443 1471 1501 1599 1599 1635 1672 1635 1635 1635 1635 1501 1415 1362 1415 1415 1388 1415 1415 1443 1415 1415 1471 1388 1388 1599 1291 0 0 0 0 0 897 0 0 0 0 0 0 0 0 0 0 0 0 0 0 7359 0 0 0 0 0 0 0 0 0 0
    0 0 0 0 0 0 0 0 0 0 0 0 0 0 0 0 0 0 0 0 0 0 0 0 0 0 0 0 0 0 0 0 0 0 0 0 0 0 0 0 0 0 0 0 0 0 0 0 0 0 0 0 0 0 0 0 0 0 0 0 0 0 0 0 0 0 0 0 0 2725 2628 2725 2830 2725 3066 2943 2830 2830 2830 2725 2725 2725 2830 2943 2830 3873 3679 3345 0 95 95 95 2725 2628 2537 2299 2374 2830 2453 2374 2628 1936 1887 1839 1795 1752 1635 1672 1711 1672 1711 1672 1672 1711 1936 2102 2044 2044 2102 2044 2164 2164 2299 2230 2299 2628 2628 2537 2725 2628 2725 2628 2537 2453 2102 2230 2164 1989 2102 2102 2164 2164 2164 2102 1989 2230 2374 2299 2299 2230 2164 2299 2299 2453 2230 2230 2164 2164 2230 2453 2044 2044 2044 1936 2374 2044 1936 1887 1887 1989 2044 2044 2102 1887 2102 2374 2374 2725 2453 2299 2537 2537 3199 2453 2374 2725 2453 0 2830 2102 1887 1936 1887 1839 1839 1752 1711 1711 1635 1672 1533 1533 1533 1501 1443 1501 1443 1501 1443 1533 1443 1443 1443 1533 1415 1443 1362 1338 1338 1338 1338 1314 1291 1291 1291 1291 1314 1291 1291 1268 1314 1338 1314 1338 1362 1362 1388 1388 1415 1388 1415 1443 1415 1362 1388 1338 1362 1415 1415 1388 1338 0 1187 1149 1226 1187 1187 1168 1206 1247 1314 1415 1443 1443 1501 1599 1635 1635 1672 1635 1599 1672 1672 1599 1471 1388 1443 1443 1415 1443 1415 1471 1443 1443 1501 1415 1415 1599 1338 0 0 0 0 0 0 0 0 0 0 0 0 0 0 0 0 0 0 0 0 0 0 0 0 0 0 0 0 0 0 0
    0 0 0 0 0 0 0 0 0 0 0 0 0 0 0 0 0 0 0 0 0 0 0 0 0 0 0 0 0 0 0 0 0 0 0 0 0 0 0 0 0 0 0 0 0 0 0 0 0 0 0 0 0 0 0 0 0 0 0 0 0 0 0 0 0 0 0 0 0 2830 2725 2830 2943 2943 3345 3066 3066 2943 2943 2943 2830 2830 2943 3066 3066 4088 3873 3504 0 95 95 95 2725 2725 2537 2299 2374 2830 2537 2453 2725 2044 1936 1887 1795 1795 1672 1711 1752 1752 1795 1711 1752 1795 1989 2102 2044 2044 2102 1989 2164 2164 2299 2230 2230 2537 2537 2453 2628 2628 0 2537 2537 2453 2102 2164 2102 1989 2164 2164 2164 2164 2164 2102 2044 2230 2299 2299 2299 2299 2230 2299 2374 2453 2299 2299 2164 2164 2299 2453 2044 2044 1989 1936 2299 2044 1989 1936 1936 2044 2044 2102 2164 1936 2164 2374 2374 2830 2453 2299 2374 2628 3679 2102 0 0 2230 0 2537 1936 1936 1936 1936 1887 1839 1752 1752 1752 1672 1672 1533 1565 1533 1533 1471 1501 1471 1501 1443 1533 1443 1443 1443 1533 1415 1443 1362 1362 1338 1362 1338 1314 1314 1314 1291 1314 1314 1291 1291 1268 1314 1338 1338 1362 1362 1362 1415 1415 1471 1415 1443 1533 1443 1388 1362 1338 1388 1388 1388 1362 1338 1187 1187 1149 1226 1187 1187 1168 1206 1247 1314 1415 1443 1471 1501 1599 1635 1672 1711 1635 1599 1672 1711 1672 1565 1443 1501 1501 1443 1471 1443 1501 1471 1471 1533 1443 1443 1672 1415 0 0 0 0 0 0 0 0 0 0 0 0 0 0 0 0 0 0 0 0 0 0 0 0 0 0 0 0 0 0 0
    0 0 0 0 0 0 0 0 0 0 0 0 0 0 0 0 0 0 0 0 0 0 0 0 0 0 0 0 0 0 0 0 0 0 0 0 0 0 0 0 0 0 0 0 0 0 0 0 0 0 0 0 0 0 0 0 0 0 0 0 0 0 0 0 0 0 0 0 0 2943 2830 2943 2943 3066 3504 3199 3199 3066 3066 3066 2943 2943 2943 3199 3199 4088 4088 3679 0 0 0 0 2830 2725 2537 2374 2374 2830 2628 2537 2943 2230 1989 1839 1752 1795 1672 1795 1795 1795 1839 1795 1839 1936 2102 2164 2102 2102 2044 1989 2164 2299 2299 2230 2230 2537 2537 2537 2628 2628 0 2537 2537 2537 2102 2164 2044 2044 2164 2230 2164 2164 2164 2102 2102 2230 2299 2299 2299 2230 2230 2299 2453 2453 2299 2299 2230 2164 2374 2537 2102 2102 2044 1936 2299 2044 1989 1989 1936 2044 2102 2102 2164 1989 2230 2299 2299 2725 2374 2299 2374 2628 3504 0 0 0 2230 2537 2453 1936 1989 1989 1936 1936 1887 1795 1752 1752 1711 1672 1533 1565 1533 1533 1471 1471 1471 1501 1443 1533 1443 1443 1443 1533 1443 1443 1388 1362 1338 1338 1338 1314 1314 1314 1291 1314 1314 1291 1291 1268 1314 1338 1314 1338 1338 1362 1388 1388 1443 1388 1415 1471 1338 1268 1206 1226 0 0 1314 1291 1291 1149 1168 1132 1226 1206 1206 1187 1226 1247 1338 1415 1443 1443 1471 1565 1635 1635 1711 1599 1565 1672 1711 1565 1533 1415 1471 1471 1443 1443 1443 1471 1471 1471 1533 1471 1471 1672 1599 0 0 0 0 0 0 0 0 0 0 0 0 0 0 0 0 0 0 0 0 0 0 0 0 0 0 0 0 0 0 0
    0 0 0 0 0 0 0 0 0 0 0 0 0 0 0 0 0 0 0 0 0 0 0 0 0 0 0 0 0 0 0 0 0 0 0 0 0 0 0 0 0 0 0 0 0 0 0 0 0 0 0 0 0 0 0 0 0 0 0 0 0 0 0 0 0 0 0 0 0 2943 2725 2943 2943 3199 3504 3199 3199 3066 3066 3066 2943 2943 2943 3199 3199 4088 4088 3504 0 0 118 118 0 2830 2537 2374 2374 2830 2628 2628 2943 2374 1936 1795 1752 1752 1672 1795 1795 1839 1839 1839 1887 1989 2230 2299 2230 2299 2044 2044 2164 2374 2299 2230 2164 2537 2537 2537 2628 2628 0 2537 2537 2628 2164 2102 2044 2044 2164 2230 2164 2164 2164 2044 2102 2230 2299 2299 2299 2230 2230 2299 2453 2374 2374 2374 2230 2230 2453 2537 2164 2230 2102 1936 2299 2044 2044 2044 1989 2102 2102 2164 2230 2044 2374 2299 2299 2830 2453 2453 2453 0 3679 0 0 0 2374 2628 2453 1887 2044 1989 1936 1936 1887 1795 1752 1752 1711 1672 1533 1565 1533 1501 1471 1443 1443 1471 1415 1533 1443 1443 1443 1501 1443 1443 1388 1362 1338 1338 1338 1338 1314 1314 1314 1338 1338 1314 1314 1268 1314 1314 1314 1338 1338 1362 1388 1388 1443 1388 1443 1471 0 1247 1098 1132 0 0 0 1247 1247 1132 1149 1132 1226 1206 1206 1187 1247 1268 1338 1388 1415 1443 1471 1533 1599 1635 1672 1565 1533 1672 1635 1338 1443 1362 1388 1415 1388 1415 1415 1443 1471 1471 1501 1471 1501 1672 1599 0 0 0 0 0 0 0 0 0 0 0 0 0 0 0 0 0 0 0 0 0 0 0 0 0 0 0 0 0 0 0
    0 0 0 0 0 0 0 0 0 0 0 0 0 0 0 0 0 0 0 0 0 0 0 0 0 0 0 0 0 0 0 0 0 0 0 0 0 0 0 0 0 0 0 0 0 0 0 0 0 0 0 0 0 0 0 0 0 0 0 0 0 0 0 0 0 0 0 0 0 0 2830 2943 2943 3199 3504 3199 3066 2943 3066 3066 2830 2943 2943 3066 3066 4088 3873 3504 0 118 118 117 0 2830 2537 2374 2453 2943 2725 2725 3066 2628 1989 1795 1795 1839 1795 1887 1839 1839 1887 1887 1936 2164 2374 2453 2453 2537 2102 2164 2299 2374 2299 2230 2102 2453 2453 2537 2628 2537 2453 2453 2453 2628 2102 2044 1989 2044 2164 2230 2102 2164 2164 2044 2164 2230 2299 2299 2299 2299 2299 2299 2453 2374 2374 2374 2230 2230 2537 2537 2230 2374 2230 1989 2299 2044 2102 2102 1989 2102 2102 2164 2230 2044 2374 2299 2299 2830 2453 2537 2537 0 3679 0 0 0 2374 2537 2453 1887 2102 1989 1936 1936 1887 1795 1752 1752 1711 1672 1533 1565 1533 1501 1501 1443 1415 1443 1415 1471 1415 1415 1415 1471 1443 1443 1388 1388 1338 1362 1362 1338 1314 1338 1338 1338 1338 1314 1314 1247 1314 1314 1314 1314 1338 1338 1362 1388 1471 1443 1501 1565 0 1291 0 0 0 0 0 1247 0 1149 1168 1132 1226 1206 1206 1187 1247 1268 1314 1362 1415 1415 1443 1533 1635 1635 1635 1501 1533 1635 1533 1291 1388 1338 1362 1388 1362 1388 1415 1443 1471 1471 1533 1501 1533 1672 0 0 0 0 0 0 0 0 0 0 0 0 0 0 0 0 0 0 0 0 0 0 0 0 0 0 0 0 0 0 0 0
    0 0 0 0 0 0 0 0 0 0 0 0 0 0 0 0 0 0 0 0 0 0 0 0 0 0 0 0 0 0 0 0 0 0 0 0 0 0 0 0 0 0 0 0 0 0 0 0 0 0 0 0 0 0 0 0 0 0 0 0 0 0 0 0 0 0 0 0 0 3066 2830 2943 2830 3066 3199 3066 3066 2943 2943 3066 2943 2943 2943 3199 3199 3873 3873 3504 0 0 118 117 0 2830 2537 2453 2453 2943 2725 2725 3066 2725 2230 1887 1936 1936 1887 1936 1887 0 1936 0 1989 2299 2374 2453 2453 2537 2102 2164 2374 2374 2230 2164 2164 2537 2453 2537 2628 2537 2453 2453 2453 2628 2102 1989 2044 2164 2164 2230 2102 2164 2164 2044 2164 2230 2299 2299 2299 2299 2299 2374 2453 2374 2453 2374 2230 2299 2537 2453 2299 2453 2299 1989 2299 2102 2164 2164 2044 2164 2164 2164 2230 2102 2374 2230 2299 2830 2537 2628 2628 0 0 0 0 0 2374 2453 2299 1887 2102 1989 1936 1936 1887 1795 1752 1752 1711 1672 1533 1565 1533 1501 1501 1415 1415 1415 1388 1471 1415 1415 1415 1443 1471 1443 1415 1362 1338 1338 1362 1338 1314 1314 1338 1338 1338 1314 1291 1226 1291 1314 1314 1314 1314 1338 1362 1362 1471 0 1471 1501 0 0 0 0 0 0 0 0 1168 1082 1132 1115 1206 1206 1206 1187 1247 1268 1314 1338 1388 1415 1443 1533 1635 1672 1635 1501 1533 1635 1533 1314 1388 1362 1362 1415 1388 1388 1388 1415 1471 1471 1501 1471 1501 1635 1672 0 0 0 0 0 0 0 0 0 0 0 0 0 0 0 0 0 0 0 0 0 0 0 0 0 1066 0 0 0 0 0
    0 0 0 0 0 0 0 0 0 0 0 0 0 0 0 0 0 0 0 0 0 0 0 0 0 0 0 0 0 0 0 0 0 0 0 0 0 0 0 0 0 0 0 0 0 0 0 0 0 0 0 0 0 0 0 0 0 0 0 0 0 0 0 0 0 0 0 0 0 3066 2725 2830 2830 2943 2943 2943 2830 2830 2943 2943 2830 2830 2943 3066 3199 3679 3679 3345 0 0 118 117 2725 2725 2537 2453 2453 2943 2830 2830 3066 2725 2102 1887 1936 1936 1887 1936 1936 1936 1936 1936 1989 2299 2374 2453 2453 2374 2102 2164 2374 2374 2230 2164 2164 2537 2537 2628 2628 2628 0 2537 2537 2628 2102 1989 2044 2230 2164 2230 2102 2164 2164 2102 2230 2230 2230 2299 2299 2299 2299 2299 2374 2299 2453 2374 2299 2374 2628 2537 2374 2537 2453 2044 2299 2102 2230 2164 2044 2164 2164 2164 2230 2102 2374 2102 2230 2830 2537 2628 2628 3066 0 0 0 0 2628 2628 2230 1839 2044 1989 1887 1887 1839 1752 1752 1752 1752 1672 1533 1565 1501 1501 1471 1415 1388 1415 1388 1443 1388 1388 1388 1443 1471 1415 1388 1338 1291 1314 1314 1314 1291 1314 0 1338 0 1314 1291 1247 1314 1314 1314 1314 1314 1338 1388 1388 1471 0 0 0 0 0 0 0 0 0 1132 1098 1115 1082 1115 1098 1206 1206 1206 1187 1247 1268 1314 1338 1415 1415 1443 1565 1672 1672 1635 1501 1533 1635 1471 1314 1415 1443 1415 1471 1415 1388 1415 1443 1501 1471 1471 1471 1443 1565 1635 0 0 0 0 0 0 0 0 0 0 0 0 0 0 0 0 0 0 0 0 0 0 0 0 1082 1082 0 0 0 0 0
    0 0 0 0 0 0 0 0 0 0 0 0 0 0 0 0 0 0 0 0 0 0 0 0 0 0 0 0 0 0 0 0 0 0 0 0 0 0 0 0 0 0 0 0 0 0 0 0 0 0 0 0 0 0 0 0 0 0 0 0 0 0 0 0 0 0 0 0 0 3066 2725 2830 2830 2943 2943 2830 2830 2943 2943 2943 2830 2830 2830 2943 3066 3345 3345 3199 2725 0 0 118 2725 2725 2537 2453 2453 2943 2830 2725 2943 2453 1989 1839 1839 1887 1887 1936 1989 2102 2102 1989 2102 2374 2374 2537 2453 2230 2102 2164 2374 2374 2230 2164 2164 2537 2628 2628 2628 2628 0 2537 2628 2628 2102 1936 2102 2299 2230 2230 2102 2230 2164 2102 2230 2230 2230 2299 2230 2299 2299 2299 2374 2299 2453 2374 2299 2453 2725 2537 2453 2628 2628 2102 2299 2102 2230 2164 2044 2102 2102 2102 2164 2102 2299 2044 2164 2725 2374 2453 2628 0 0 0 0 0 2725 2725 2102 1711 1989 1936 0 1887 1839 1752 1711 1752 1752 1672 1533 1565 1501 1471 1471 1388 1388 1388 1362 1415 1388 1388 1388 1415 1471 1415 1388 1314 1268 1314 0 0 0 0 0 0 0 0 0 0 0 1338 1314 1338 1338 1362 1415 1388 1533 0 0 1501 0 0 0 0 0 0 0 0 0 1082 1115 1098 1206 1206 1187 1187 1247 1268 1314 1314 1415 1415 1443 1565 1672 1672 1635 1501 1501 1565 1443 1362 1415 1501 1443 1565 1471 1443 1471 1501 1501 1501 1443 1415 1415 1471 1565 1533 0 0 0 0 0 0 0 0 0 0 0 0 0 0 0 0 0 0 0 0 0 0 0 1115 1082 0 0 0 0 0
    0 0 0 0 0 0 0 0 0 0 0 0 0 0 0 0 0 0 0 0 0 0 0 0 0 0 0 0 0 0 0 0 0 0 0 0 0 0 0 0 0 0 0 0 0 0 0 0 0 0 0 0 0 0 0 0 0 0 0 0 0 0 0 0 0 0 0 0 0 3199 2725 2830 2830 2943 2830 2830 2830 2943 2943 2943 2830 2830 2830 2830 2943 3066 3199 3066 2628 2725 0 0 2628 2628 2537 2453 2453 2943 2725 2537 2830 2299 1887 1795 1752 0 1936 2044 2299 2537 2537 2299 2299 2537 2537 2628 2537 2230 2102 2230 2299 2374 2230 2230 2164 2537 2628 2725 2628 2628 2628 2628 2628 2628 2102 1989 2164 2299 2299 2230 2102 2230 2164 2164 2299 2230 2230 2299 2230 2299 2299 2299 2374 2299 2453 2299 2299 2453 2628 2374 2374 2628 2537 2102 2230 2102 2299 2164 2044 2102 2102 2102 2102 2102 2299 2044 2164 2725 2453 2453 2537 2725 2725 2102 0 2299 2628 2537 2044 1752 2044 1936 0 1887 1839 1752 1752 1752 1752 1672 1533 1565 1471 1443 1443 1362 1362 1362 1362 1388 1388 1362 1362 1388 1471 1415 1415 1338 1314 1362 0 0 0 0 0 0 0 0 0 0 0 1338 1314 1338 1338 1362 1415 1388 1533 1471 1501 1443 0 1268 0 0 0 0 1168 0 1168 1115 1168 1098 1206 1206 1206 1187 1247 1268 1291 1314 1388 1415 1443 1599 1711 1711 1672 1501 1501 1533 1443 1362 1415 1533 1501 1599 1501 1471 1501 1501 1471 1443 1415 1362 1362 1388 1443 1388 0 0 0 0 0 0 0 0 0 0 0 0 0 0 0 0 0 0 0 0 0 0 0 1098 1082 0 0 0 0 0
    0 0 0 0 0 0 0 0 0 0 0 0 0 0 0 0 0 0 0 0 0 0 0 0 0 0 0 0 0 0 0 0 0 0 0 0 0 0 0 0 0 0 0 0 0 0 0 0 0 0 0 0 0 0 0 0 0 0 0 0 0 0 0 0 0 0 0 0 0 2943 2725 2725 2725 2830 2830 2725 2830 2830 2830 2943 2830 2725 2830 2830 2830 2943 2943 2943 2453 2628 2725 2537 2628 2628 2453 2374 2374 2943 2628 2453 2830 2044 1795 1711 1635 1711 1839 1936 2230 0 0 2453 2537 2537 2537 2628 2628 2230 2164 2299 2299 2299 2299 2299 2164 2537 2725 2725 2628 2628 2628 2628 2725 2725 2044 1989 2230 2299 2299 2230 2102 2230 2164 2164 2299 2230 2299 2299 2230 2299 2299 2299 2374 2374 2453 2299 2299 2453 2537 2374 2374 2628 2453 2164 2164 2102 2299 2164 2044 2102 2102 2102 2102 2102 2299 2044 2164 2725 2453 2537 2628 2725 2725 2453 2537 2537 2628 2628 2044 1839 2044 1936 0 1936 1839 1795 1752 1752 1795 1672 1533 1533 1443 1415 1388 1314 1338 1338 1338 1338 1362 1362 1362 1388 1471 1443 1415 1388 1362 1388 0 0 0 0 0 0 0 0 0 0 1338 1338 1314 1314 1338 1338 1362 1338 1471 1362 1388 1388 0 1268 1149 0 0 0 1168 0 1168 1115 1168 1098 1226 1226 1206 1206 1247 1268 1291 1291 1388 1388 1443 1635 1752 1752 1711 1565 1533 1501 1443 1388 1388 1471 1471 1501 1471 1443 1471 1471 1443 1415 1362 1338 1338 1338 1362 1338 1388 0 0 0 0 0 0 0 0 0 0 0 0 0 0 0 0 0 0 0 0 0 0 0 0 0 0 0 0 0
    0 0 0 0 0 0 0 0 0 0 0 0 0 0 0 0 0 0 0 0 0 0 0 0 0 0 0 0 0 0 0 0 0 0 0 0 0 0 0 0 0 0 0 0 0 0 0 0 0 0 0 0 0 0 0 0 0 0 0 0 0 0 0 0 0 0 0 0 0 2943 2725 2537 2628 2725 2725 2628 2725 2725 2725 2725 2830 2628 2725 2628 2725 2830 2830 2830 2374 2537 2628 2453 2537 2537 2374 2374 2374 2830 2453 2374 2628 1936 1752 1599 1533 1533 1711 0 0 0 0 2725 2725 2628 2537 2628 2628 2230 2230 2374 2374 2374 2374 2374 2230 2537 2725 2725 2628 0 2628 2725 2725 2830 2102 2044 2374 2374 2299 2164 2102 2230 2102 2164 2299 2230 2299 2299 2230 2299 2299 2374 2299 2374 2453 2299 2299 2453 2537 2299 2374 2537 2374 2164 2102 2044 2299 2164 1989 2102 2102 2102 2102 2102 2299 2044 2164 2725 2453 2537 2628 2725 2628 2453 2537 2537 2628 2628 1989 1839 1989 1936 1887 1936 1839 1795 1752 1752 1752 1672 1533 1501 1443 1415 1362 1314 1314 1314 1314 1338 1362 1362 1362 1388 1443 1443 1415 1362 1362 1388 1388 0 0 0 0 0 0 0 0 0 0 1314 1314 1314 1314 1338 1338 1314 1415 1314 1338 1338 1291 1268 1168 1149 0 0 1168 0 1149 1098 1187 1082 1226 1226 1206 1206 1247 1268 1291 1291 1388 1388 1415 1672 1752 1752 1711 1565 1533 1471 1443 1415 1415 1443 1443 1443 1415 1415 1443 1443 1415 1388 1338 1314 1314 1314 1314 1314 1338 0 0 0 0 0 0 0 0 0 0 0 0 0 0 0 0 0 0 0 0 0 0 0 0 0 0 0 0 0
    0 0 0 0 0 0 0 0 0 0 0 0 0 0 0 0 0 0 0 0 0 0 0 0 0 0 0 0 0 0 0 0 0 0 0 0 0 0 0 0 0 0 0 0 0 0 0 0 0 0 0 0 0 0 0 0 0 0 0 0 0 0 0 0 0 0 0 0 0 2830 2628 2453 2628 2725 2628 2628 2628 2628 2537 2628 2830 2537 2628 2628 2628 2725 2725 2725 2299 2537 2628 2453 2453 2453 2374 2374 2374 2830 2299 2164 2374 1839 1711 1565 1599 1565 0 0 0 0 0 2537 2537 2453 2374 2537 2537 2230 2299 2374 2299 2299 2299 2374 2230 2628 2725 2725 2628 0 2725 2725 2830 2725 2102 2102 2453 2374 2299 2230 2102 2230 2102 2230 2299 2164 2299 2299 2230 2374 2299 2374 2299 2453 2453 2299 2299 2453 2453 2230 2299 2374 2230 2102 2044 2044 2230 2102 1989 2102 2044 2044 2102 2102 2230 2044 2164 2725 2453 2537 2725 2725 2725 2453 2537 2628 2628 2628 1936 1839 1989 1936 1887 1887 1839 1795 1752 1752 1752 1672 1533 1471 1415 1388 1338 1291 1314 1314 1314 1314 1362 1338 1362 1388 1415 1415 1388 1362 1362 1415 1415 1388 0 0 0 0 0 0 0 1247 0 1314 1314 1314 1314 1314 1314 1314 1388 1314 1314 1338 1291 0 0 1206 0 0 1187 0 0 1098 1247 1082 1226 1226 1206 1206 1247 1268 1291 1268 1388 1362 1415 1672 1752 1711 1672 1565 1533 1501 1471 1471 1443 1471 1533 1471 1443 1471 1501 1533 1443 1388 1362 1338 1314 1291 1291 1291 1291 1314 0 0 0 0 1565 0 0 0 0 0 0 0 0 0 0 0 0 0 0 0 0 0 0 0 0 0 0 0
    0 0 0 0 0 0 0 0 0 0 0 0 0 0 0 0 0 0 0 0 0 0 0 0 0 0 0 0 0 0 0 0 0 0 0 0 0 0 0 0 0 0 0 0 0 0 0 0 0 0 0 0 0 0 0 0 0 0 0 0 0 0 0 0 0 0 0 0 0 2830 2628 2374 2537 2628 2628 2537 2537 2537 2453 2537 2725 2374 2628 2537 2628 2725 2725 2725 2299 2537 2628 2453 2453 2453 2299 2299 2299 2725 2230 2164 2299 1887 1752 1752 1795 1752 0 0 0 0 0 2453 2537 2374 2299 2453 2374 2164 2230 2299 2299 2230 2299 2299 2299 2725 2725 2725 2725 2725 2725 2830 2830 2725 2102 2164 2537 2374 2374 2230 2164 2299 2164 2230 2299 2164 2299 2299 2230 2374 2299 2374 2299 2453 2374 2299 2299 2453 2374 2230 2299 2299 2164 2102 2044 2102 2164 2102 1989 2102 2102 2044 2102 2102 2164 2044 2102 2628 2374 2453 2628 2628 2830 2628 2628 2537 2537 2537 1887 1887 1989 1936 1887 1887 1839 1795 1795 1795 1752 1672 1533 1471 1415 1388 1314 1291 1314 1314 1314 1291 1338 1338 1338 1388 1388 1388 1362 1338 1338 1362 0 0 0 0 0 0 0 0 0 1226 1314 1314 1314 1314 1314 1314 1314 1314 1388 1314 1314 1338 1291 1314 1247 1226 0 1206 1206 0 0 1168 1268 1066 1226 1247 1206 1226 1247 1268 1291 1268 1388 1362 1388 1672 1752 1672 1635 1565 1533 1501 1471 1501 1471 1501 1565 1501 1533 1565 1565 1635 1533 1443 1388 1362 1314 1291 1268 1268 1247 1268 1206 0 0 0 1533 0 0 0 0 0 0 0 0 0 0 0 0 0 0 0 0 0 0 0 0 0 0 0
    0 0 0 0 0 0 0 0 0 0 0 0 0 0 0 0 0 0 0 0 0 0 0 0 0 0 0 0 0 0 0 0 0 0 0 0 0 0 0 0 0 0 0 0 0 0 0 0 0 0 0 0 0 0 0 0 0 0 0 0 0 0 0 0 0 0 0 0 0 0 2537 2299 2537 2628 2628 2537 2537 2537 2453 2537 2725 2299 2628 2537 2628 2725 2628 2628 2299 2537 2628 2453 2453 2453 2299 2299 2299 2725 2164 2102 2230 1887 1752 1752 1752 1711 0 0 0 0 0 2374 2453 2230 2230 2453 2299 2164 2230 2299 2230 2230 2299 2374 2374 2725 2830 2725 2725 2725 2725 2830 2830 2725 2164 2299 2537 2453 2453 2299 2230 2299 2164 2299 2230 2164 2299 2299 2230 2374 2230 2374 2299 2453 2374 2230 2299 2537 2230 2230 2230 2164 2164 2102 2044 2102 2164 2102 1989 2102 2102 2102 2102 2102 2164 2102 2102 2537 2230 2453 2628 2628 2830 2830 2725 2537 2537 2537 1887 1887 1936 1936 1936 1936 1839 1839 1839 1795 1795 1672 1533 1415 1388 1362 1291 1291 1291 1314 1291 1291 1338 1338 1338 1388 1362 1362 1314 1314 1314 1362 1338 0 0 0 0 0 0 0 0 1226 1314 1314 1291 1338 1314 1314 1314 1314 1388 1314 1338 1314 1291 1291 1247 1247 1247 1206 1206 0 0 0 1291 1066 1247 1247 1226 1226 1268 1268 1291 1268 1388 1338 1362 1635 1711 1599 1635 1565 1501 1471 1471 1501 1501 1471 1565 1501 1533 1599 1565 1635 1533 1471 1415 1388 1338 1314 1314 1291 1291 1338 1247 0 0 0 1471 0 0 0 0 0 0 0 0 0 0 0 0 0 0 0 0 0 0 0 0 0 0 0
    0 0 0 0 0 0 0 0 0 0 0 0 0 0 0 0 0 0 0 0 0 0 0 0 0 0 0 0 0 0 0 0 0 0 0 0 0 0 0 0 0 0 0 0 0 0 0 0 0 0 0 0 0 0 0 0 0 0 0 0 0 0 0 0 0 0 0 0 0 0 2537 2299 2453 2628 2628 2537 2537 2537 2453 2453 2628 2299 2537 2537 2537 2628 2628 2628 2299 2537 2628 2374 2453 2453 2299 2299 2299 2725 2102 2102 2230 1795 1711 1599 1565 1533 1599 1599 0 0 0 2299 2374 2164 2230 2374 2230 2164 2299 2299 2230 2230 2374 2374 2453 2830 2830 2725 2725 2725 2830 2830 2943 2725 2164 2453 2628 2453 2537 2374 2299 2299 2164 2374 2230 2164 2299 2230 2164 2299 2164 2299 2230 2453 2230 2164 2230 2453 2230 2230 2230 2164 2102 2102 2044 2102 2102 2102 1989 2164 2102 2102 2164 2164 2164 2164 2164 2537 2299 2537 2628 2725 2943 2943 2943 2725 2725 2628 1887 1936 1989 1936 1936 1936 1887 1887 1887 1887 1795 1711 1533 1388 1362 1314 1268 1268 1291 1314 1291 1291 1338 1338 1338 1388 1362 1362 1291 1314 1291 1338 0 0 0 0 0 0 0 0 0 1226 0 1314 1314 1338 1314 1314 1314 1338 1388 1338 1362 1338 1291 1338 1291 1291 1314 1268 0 0 0 0 1314 1098 1268 1268 0 1268 1268 1291 1291 1291 1388 1338 1362 1599 1672 1565 1565 1533 1471 1471 1443 1501 1471 1471 1565 1501 1533 1599 1533 1635 1501 1471 1415 1388 1314 1314 1314 1314 1291 1338 1247 0 0 0 1443 0 0 0 0 0 0 0 0 0 0 0 0 0 0 0 0 0 0 0 0 0 0 0
    0 0 0 0 0 0 0 0 0 0 0 0 0 0 0 0 0 0 0 0 0 0 0 0 0 0 0 0 0 0 0 0 0 0 0 0 0 0 0 0 0 0 0 0 0 0 0 0 0 0 0 0 0 0 0 0 0 0 0 0 0 0 0 0 0 0 0 0 0 0 2453 2230 2453 2628 2628 2537 2537 2537 2453 2453 2628 2299 2537 2453 2537 2628 2628 2628 2299 2453 2628 2374 2374 2453 2299 2299 2230 2628 2102 2102 2299 0 1672 1471 1443 1388 0 1471 0 0 0 2453 2453 2230 2299 2453 2230 2230 2299 2374 2230 2230 2374 2374 2537 2943 2830 2725 2725 2725 2830 2830 2943 2725 2230 2628 2628 2537 2628 2374 2374 2299 2164 2374 2164 2164 2299 2230 2164 2299 2164 2299 2164 2374 2164 2164 2230 2374 2164 2164 2164 2102 2102 2044 2044 2102 2044 2164 2044 2164 2164 2164 2164 2164 2230 2299 2230 2628 2230 2537 2725 2830 3066 3066 3066 2943 2830 2830 1887 1989 2044 2044 1989 1989 1936 1936 1936 2044 1795 1711 1533 0 1338 1291 1247 1268 1291 1314 1291 1291 1362 1362 1362 1415 1362 1388 1314 1314 1291 1314 0 0 1247 0 0 588 0 0 0 1226 0 1291 1291 1338 1314 1314 1314 1314 1388 1338 1362 1314 1291 1362 0 1388 1388 1314 1314 1388 0 0 1362 1115 1291 1291 0 0 0 1291 1314 1291 1388 1338 1362 1599 1635 1501 1533 1501 1443 1471 1443 1471 1471 1471 1533 1471 1501 1599 1501 1599 1443 1415 1388 1362 1291 1291 1314 1338 1268 1314 1226 0 0 0 0 0 0 0 0 0 0 0 0 0 0 0 0 0 0 0 0 0 0 0 0 0 0 0
    0 0 0 0 0 0 0 0 0 0 0 0 0 0 0 0 0 0 0 0 0 0 0 0 0 0 0 0 0 0 0 0 0 0 0 0 0 0 0 0 0 0 0 0 0 0 0 0 0 0 0 0 0 0 0 0 0 0 0 0 0 0 0 0 0 0 0 0 0 0 2299 2164 2374 2628 2628 2453 2537 2537 2453 2453 2628 2230 2537 2453 2537 2628 2628 2537 2230 2453 2628 2374 2374 2453 2299 2299 2230 2628 2102 2102 2453 0 0 1443 1415 1362 0 0 1362 0 0 2537 2628 2299 2299 2453 2230 2230 2374 2374 2230 2230 2374 2374 2537 2943 2725 2725 2830 2725 2830 2830 2943 2725 2230 2830 2725 2537 2725 2374 2374 2299 2102 2453 2102 2102 2299 2230 2164 2299 2102 2230 2164 2299 2164 2102 2164 2299 2044 2102 2044 1989 2044 1989 2044 2102 2044 2230 2102 2299 2230 2230 2299 2230 2299 2374 2230 2628 2299 2628 2725 3066 3066 3199 3199 2943 2943 3066 1887 2102 2164 2102 2044 2044 1989 1989 1989 2230 1795 1752 1533 0 1338 1291 1247 1268 1268 1314 1291 1291 1362 1362 1362 1415 1338 1362 1291 1268 1268 1268 1247 1268 1247 1291 1226 0 0 0 0 1206 0 1268 1291 1314 1291 1291 1291 1291 1362 1314 1314 1291 1247 0 0 1338 1338 1247 0 1362 1471 1388 1362 1132 1291 1291 1268 1291 1291 1314 1314 1291 1415 1362 1388 1599 1635 1533 1565 1501 1443 1471 1443 1501 1471 1471 1533 1471 1471 1565 1471 1565 1388 1388 1362 1362 1291 1268 1291 1314 1206 1187 1115 981 968 0 0 0 0 0 0 0 0 0 0 0 0 0 0 0 0 0 0 0 0 0 0 0 0 0
    0 0 0 0 0 0 0 0 0 0 0 0 0 0 0 0 0 0 0 0 0 0 0 0 0 0 0 0 0 0 0 0 0 0 0 0 0 0 0 0 0 0 0 0 0 0 0 0 0 0 0 0 0 0 0 0 0 0 0 0 0 0 0 0 0 0 0 0 0 0 0 2164 2374 2537 2628 2453 2537 2537 2374 2453 2537 2230 2537 2453 2537 2537 2628 2537 2230 2453 2628 2374 2374 2537 2299 2299 2230 2628 2164 2230 2537 0 0 1501 1533 1471 0 1443 1415 1443 0 2537 2537 2230 2299 2374 2164 2299 2374 2299 2230 2230 2374 2374 2628 2943 2628 2725 2725 2725 0 2830 2943 2628 2230 2943 2725 2537 2943 2537 2537 2299 2102 2628 1989 2044 2537 2230 2230 2299 2044 2164 2164 2299 0 2044 2164 2230 2102 2230 2044 1936 2044 1936 2102 2102 2044 2230 2102 2299 2230 2299 2299 2230 2299 2453 2299 2628 2230 2830 2725 3199 3199 3199 3199 3066 3066 3066 1887 2164 2230 2164 2044 2044 1989 2044 2044 2374 1795 1711 1533 0 1338 1291 1268 1268 1291 1314 1291 1268 1338 1338 1338 1362 1291 1291 1247 1226 1206 1187 1187 1206 1206 1206 1098 0 1206 1247 1187 1168 1247 1268 1268 1314 1291 1291 1291 1291 1338 1314 1314 1268 1247 0 0 0 0 1206 0 0 1599 1501 1388 1247 1314 1314 1291 1314 1314 1338 1338 1291 1443 1388 1415 1599 1635 1501 1533 1501 1443 1501 1471 1501 1501 1471 1533 1471 1471 1565 1443 1533 1388 1415 1388 1388 1314 1314 1314 1415 0 0 1082 981 981 0 0 0 0 0 0 0 0 0 0 0 0 0 0 0 0 0 0 0 0 0 0 0 0 0
    0 0 0 0 0 0 0 0 0 0 0 0 0 0 0 0 0 0 0 0 0 0 0 0 0 0 0 0 0 0 0 0 0 0 0 0 0 0 0 0 0 0 0 0 0 0 0 0 0 0 0 0 0 0 0 0 0 0 0 0 0 0 0 0 0 0 0 0 0 0 0 2164 2299 2537 2628 2453 2453 2453 2374 2453 2537 2230 2453 2374 2537 2537 2628 2628 2299 2453 2628 2374 2374 2537 2299 2299 2299 2628 2230 2299 2628 2537 1936 1533 1635 1711 0 0 0 0 0 2453 2453 2374 2374 2299 2164 2299 2374 2299 2164 2164 2299 2299 2628 2943 2537 2628 2725 0 0 2725 2830 2628 2299 2943 2725 2453 0 2725 2830 2299 2164 2830 1989 0 0 2537 0 2299 1936 2102 2044 0 0 0 2044 2164 0 0 0 1989 2164 1936 2299 2299 1989 2299 2164 2299 2230 2299 2299 2230 2230 2537 2230 2628 2230 2830 2628 3199 3066 3066 3066 2830 2830 2725 1936 2230 2230 2230 2044 2044 2044 2044 2044 2453 1795 1711 1533 0 0 1291 1268 1291 1291 1314 1291 1291 1338 1338 1314 0 1291 1291 1247 1206 1187 1206 1187 1187 1149 1115 1066 1051 1098 1115 1098 1115 1206 1247 1268 1314 1291 1291 1291 1291 1338 1314 1291 1268 1206 1206 1115 1168 0 0 0 0 0 1388 1388 1247 1338 1338 1338 1362 1362 1362 1362 1362 1533 1443 1443 1565 1599 1471 1533 1501 1443 1501 1471 1501 1501 1471 1533 1501 1501 1565 1443 1533 1415 1443 1415 1501 1388 1362 1388 1599 0 0 1082 0 994 0 0 0 0 0 0 0 0 0 0 0 0 0 0 0 0 0 0 0 0 0 0 0 0 0
    0 0 0 0 0 0 0 0 0 0 0 0 0 0 0 0 0 0 0 0 0 0 0 0 0 0 0 0 0 0 0 0 0 0 0 0 0 0 0 0 0 0 0 0 0 0 0 0 0 0 0 0 0 0 0 0 0 0 0 0 0 0 0 0 0 0 0 0 0 0 2102 2164 2299 2453 2537 2374 2453 2453 2374 2374 2453 2230 2453 2374 2453 2537 2628 2628 2299 2537 2628 2374 2453 2537 2374 2299 2299 2725 2299 2374 2725 2725 2374 1711 0 0 0 0 0 0 2044 2299 2453 2453 2537 2230 2164 2374 2374 2299 2164 2164 2299 2299 2628 2830 2453 2628 2628 2628 0 2725 2725 2537 2299 2943 2628 0 5256 0 3504 0 0 0 0 0 0 0 0 0 1672 0 0 0 0 0 0 2164 0 0 0 0 0 1936 2453 2453 1989 2299 2164 2299 2299 2299 2374 2230 2230 2628 2299 2628 2299 3066 2725 3199 3066 3199 3199 2943 2830 2628 1936 2299 2299 2230 2102 2102 2044 2102 2102 2537 1795 1795 1565 0 0 1291 1268 1268 1291 1314 1291 1268 1314 1314 1314 0 1268 1268 1226 1206 1187 1187 1168 1132 1098 1066 1022 1022 1036 1036 1036 1082 1187 1247 1247 1314 1291 1291 1268 1291 1314 1314 1314 1268 1187 1168 1051 0 0 0 0 1132 0 1415 1415 1314 1362 1362 1362 1388 1388 1388 1388 1415 1533 1471 1471 1533 1565 1501 1533 1471 1443 1501 1471 1501 1501 1471 1501 1501 1501 1565 1443 1533 1415 1471 1443 1635 1533 1415 1443 1635 0 0 1051 0 0 0 0 0 0 0 0 0 0 0 0 0 0 0 0 0 0 0 0 0 0 0 0 0 0 0
    0 0 0 0 0 0 0 0 0 0 0 0 0 0 0 0 0 0 0 0 0 0 0 0 0 0 0 0 0 0 0 0 0 0 0 0 0 0 0 0 0 0 0 0 0 0 0 0 0 0 0 0 0 0 0 0 0 0 0 0 0 0 0 0 0 0 0 0 0 2164 2044 2164 2230 2453 2537 2299 2374 2374 2299 2374 2374 2164 2374 2299 2453 2537 2628 2628 2299 2537 2628 2374 2453 2537 2374 2299 2299 2725 2299 2374 2830 2830 2537 0 1795 1887 0 0 0 1839 2102 2299 2453 2537 2628 2164 2164 2374 2374 2299 2164 2164 2299 2299 2537 2830 2374 2628 2537 2628 2725 2628 2628 2537 2299 2830 2299 0 6690 0 0 0 0 0 0 0 0 0 0 0 0 0 0 427 0 0 0 0 0 300 290 283 0 1936 2628 2725 1989 2374 2299 2374 2299 2299 2374 2230 2230 2628 2230 2537 2230 2725 2537 2830 2725 2943 2943 2830 2725 2628 1936 2299 2299 2230 2044 2102 2102 2102 2102 2537 1839 1839 1599 0 0 1291 1268 1268 1291 1314 1291 1268 1314 1291 1291 0 1268 1247 1206 1168 1132 1098 1082 1082 1051 1022 994 981 994 994 1022 1051 1132 1226 1247 1314 1314 1291 1291 1291 1314 1314 1314 1247 1149 1082 994 0 0 0 0 1149 1415 1471 1443 1338 1388 1388 1388 1415 1415 1415 1415 1443 1533 1443 1443 1471 1501 1471 1471 1443 1388 1471 1471 1501 1471 1471 1471 1501 1501 1565 1443 1501 1415 1471 1443 1635 1443 1415 1443 1599 0 0 0 0 0 0 0 0 0 0 0 0 0 0 0 0 0 0 0 0 0 0 0 0 0 0 0 0 0 0
    0 0 0 0 0 0 0 0 0 0 0 0 0 0 0 0 0 0 0 0 0 0 0 0 0 0 0 0 0 0 0 0 0 0 0 0 0 0 0 0 0 0 0 0 0 0 0 0 0 0 0 0 0 0 0 0 0 0 0 0 0 0 0 0 0 0 0 0 0 2164 2044 2164 2230 2374 2453 2299 2374 2374 2230 2374 2374 2164 2374 2299 2453 2537 2725 2628 2299 2537 2725 2453 2453 2537 2374 2299 2299 2725 2299 2374 2830 0 2299 1711 1672 1795 0 0 0 1936 2230 2374 2537 2628 2628 2102 2164 2374 2299 2230 2164 2102 2299 2299 2537 2725 2299 2537 2537 2537 2628 2537 2537 2537 2230 2830 2164 0 0 0 0 0 0 0 0 0 0 2102 0 0 0 0 446 427 406 0 0 0 0 0 289 281 0 0 2830 2830 1989 2374 2299 2374 2299 2299 2374 2230 2230 2725 2230 2453 2102 2453 2374 2537 2537 2725 2725 2725 2725 2537 1989 2299 2299 2230 2044 2102 2102 2102 2164 2628 1887 1839 1599 0 0 1291 1291 1291 1291 1314 1291 1291 1291 1291 1268 1247 1247 1206 1149 1098 1066 1051 1051 1036 1022 994 968 955 981 981 1008 1036 1082 1206 1226 1338 1338 1314 1291 1291 1338 1338 1314 1226 1115 1066 955 0 0 0 0 0 1443 1501 1471 1362 1415 1443 1471 1471 1471 1471 1471 1501 1533 1471 1471 1443 1443 1443 1443 1415 1388 1471 1443 1471 1471 1443 1443 1471 1471 1501 1415 1471 1415 1501 1443 1672 1501 1415 1471 0 0 0 0 0 0 0 0 0 0 0 0 0 0 0 0 0 0 0 0 0 0 0 0 0 0 0 0 0 0 0
    0 0 0 0 0 0 0 0 0 0 0 0 0 0 0 0 0 0 0 0 0 0 0 0 0 0 0 0 0 0 0 0 0 0 0 0 0 0 0 0 0 0 0 0 0 0 0 0 0 0 0 0 0 0 0 0 0 0 0 0 0 0 0 0 0 0 0 0 0 2102 2044 2230 2164 2299 2374 2299 2299 2299 2230 2374 2299 2164 2374 2299 2453 2537 2725 2725 2374 2537 2725 2453 2537 2628 2453 2374 2299 2830 2299 2374 2830 0 2230 1711 1672 1795 0 0 0 2164 2628 2537 2725 2725 2628 2102 2164 2374 2230 2164 2164 2102 2299 2299 2453 2628 2299 2453 2453 2453 2537 2453 2453 2537 2230 2725 1989 0 0 1672 0 0 0 0 0 0 0 2537 0 2943 0 0 0 0 404 0 0 0 0 0 289 279 0 1226 0 2830 1989 2374 2374 2374 2374 2374 2453 2299 2299 2830 2374 2453 2164 2230 2230 2453 2453 2628 2628 2628 2628 2453 1989 2299 2299 2230 2044 2102 2102 2164 2164 2628 1839 1839 1599 0 0 1314 1314 1291 1291 1314 1291 1291 1291 1268 1226 1206 1187 1132 1082 1051 1051 1036 1022 1008 994 981 943 931 955 955 981 994 1036 1149 1187 1338 1338 1314 1268 1247 1291 1314 1268 1187 1098 1051 955 943 0 0 0 0 1443 1501 1533 1471 1533 1635 1635 1565 1501 1471 1471 1443 1415 1415 1415 1388 1415 1415 1388 1362 1362 1443 1415 1443 1415 1415 1415 1471 1471 1501 1415 1443 1415 1533 1471 1672 1565 1471 1501 0 0 0 0 0 0 0 0 0 0 0 0 0 0 0 0 0 0 0 0 0 0 0 0 0 0 0 0 0 0 0
    0 0 0 0 0 0 0 0 0 0 0 0 0 0 0 0 0 0 0 0 0 0 0 0 0 0 0 0 0 0 0 0 0 0 0 0 0 0 0 0 0 0 0 0 0 0 0 0 0 0 0 0 0 0 0 0 0 0 0 0 0 0 0 0 0 0 0 0 0 2164 2044 2230 2164 2299 2374 2299 2299 2299 2230 2374 2299 2230 2299 2299 2453 2537 2725 2725 2299 2537 2628 2537 2537 2628 2453 2374 2299 2830 2299 2374 2725 0 2044 1752 1711 1887 0 0 2374 2628 2830 2725 2830 2943 2537 2164 2230 2299 2230 2164 2102 2102 2299 2374 2374 2537 2230 2453 2374 2453 2537 2374 2374 2453 2164 2725 1989 0 0 0 0 0 0 0 0 0 0 0 0 3199 0 0 0 0 389 0 0 0 0 0 284 276 271 0 0 2830 1989 2374 2374 2374 2374 2374 2453 2299 2299 2943 2453 2374 2230 2102 2102 2299 2453 2628 2537 2537 2537 2299 1989 2299 2299 2230 2044 2102 2164 2164 2164 2537 1839 1839 1565 0 0 1291 1291 1268 1268 1291 1268 1247 1247 1206 1149 1115 1132 1082 1051 1036 1022 1008 1008 994 981 968 931 919 943 943 968 968 1008 1066 1066 1247 1268 1247 1168 1168 1187 1226 1168 1098 1051 1036 981 1008 919 0 0 1268 1362 1471 1533 1565 1635 1839 1839 1711 1501 1443 1443 1388 1314 1314 1314 1268 1291 1314 1291 1291 1314 1362 1362 1388 1415 1388 1388 1443 1443 1471 1415 1443 1415 1501 1471 1635 1533 1471 1501 0 0 0 0 0 0 0 0 0 0 0 0 0 0 0 0 0 0 0 0 0 0 0 0 0 0 0 0 0 0 0
    0 0 0 0 0 0 0 0 0 0 0 0 0 0 0 0 0 0 0 0 0 0 0 0 0 0 0 0 0 0 0 0 0 0 0 0 0 0 0 0 0 0 0 0 0 0 0 0 0 0 0 0 0 0 0 0 0 0 0 0 0 0 0 0 0 0 0 0 0 2164 2102 2230 2164 2299 2374 2299 2230 2299 2230 2374 2299 2230 2299 2299 2374 2537 2725 2725 2299 2537 2725 2537 2537 2628 2537 2374 2374 2830 2374 2374 2628 2374 2102 1936 0 0 0 0 0 2725 2830 2830 2943 2943 2453 2164 2299 2299 2230 2164 2102 2102 2299 2374 2299 2453 2230 2374 2374 2453 2453 2374 2299 2453 2164 2725 1989 0 0 0 0 0 0 0 0 0 0 0 0 0 0 490 0 0 375 0 0 0 0 0 283 276 270 0 0 2830 1989 2374 2374 2374 2374 2374 2453 2299 2299 2943 2537 2537 2537 2374 2164 2230 2374 2453 2453 2374 2374 2102 1936 2299 2299 2230 2044 2164 2164 2164 2164 2537 1795 1711 1443 0 1338 1268 1247 1226 1226 1247 1226 1206 1187 1098 1051 1066 1082 1051 1036 1008 1008 1008 1008 994 981 968 931 931 955 955 968 955 1008 1051 1036 1082 1149 1187 0 1066 1066 1082 1066 1022 1022 1022 981 1022 0 1051 0 1247 1338 1388 1471 1599 1672 1839 1887 1839 1471 1362 1388 1338 1226 1149 1247 1187 1206 1247 1247 1226 1247 1338 1338 1314 1338 1338 1338 1388 1388 1388 1338 1362 1415 1501 1471 1599 1501 1471 1533 1635 0 1501 0 0 0 0 0 0 0 0 0 0 0 0 0 0 0 0 0 0 0 0 0 0 0 0 0 0 0 0
    0 0 0 0 0 0 0 0 0 0 0 0 0 0 0 0 0 0 0 0 0 0 0 0 0 0 0 0 0 0 0 0 0 0 0 0 0 0 0 0 0 0 0 0 0 0 0 0 0 0 0 0 0 0 0 0 0 0 0 0 0 0 0 0 0 0 0 0 0 2230 2164 2299 2164 2374 2374 2299 2164 2299 2230 2374 2299 2230 2299 2299 2374 2628 2725 2725 2374 2628 2725 2628 2628 2725 2537 2453 2453 2830 2453 2453 2628 2299 2102 1989 1887 0 0 0 2537 2628 2725 2725 2830 2943 2374 2230 2374 2230 2164 2164 2164 2102 2299 2453 2230 2374 2164 2374 2299 2374 2453 2299 2230 2453 2164 2725 2044 0 0 0 0 0 0 0 0 0 0 0 0 0 0 0 379 375 375 371 0 0 0 0 0 276 271 0 0 2830 1989 2374 2374 2374 2374 2374 2453 2299 2299 2943 2453 2453 2537 2102 1989 2102 2164 2230 2230 2164 2164 1989 1936 2299 2299 2230 2102 2164 2164 2164 2164 2453 1795 1533 1362 1314 1314 1247 1206 1187 1206 1206 1187 1149 1132 1066 1036 1036 1051 1036 1022 1008 1008 994 1008 981 968 968 931 931 955 955 981 968 1022 1098 1098 1338 0 1247 1022 1051 1036 1036 1022 1008 1008 1022 981 1036 1051 1082 1115 1247 1314 1362 1443 1599 1635 1839 1887 1839 1443 1314 1314 1291 1187 1066 1149 1132 1132 1168 1187 1187 1187 1268 1314 1268 1268 1291 1314 1338 1338 1314 1291 1291 1362 1501 1471 1599 1501 1471 1471 1565 1599 1388 0 1206 1168 1066 0 0 0 0 0 0 0 0 0 0 0 0 0 0 0 0 0 0 0 0 0 0 0 0
    0 0 0 0 0 0 0 0 0 0 0 0 0 0 0 0 0 0 0 0 0 0 0 0 0 0 0 0 0 0 0 0 0 0 0 0 0 0 0 0 0 0 0 0 0 0 0 0 0 0 0 0 0 0 0 0 0 0 0 0 0 0 0 0 0 0 0 0 0 2299 2164 2299 2230 2453 2374 2299 2102 2299 2230 2374 2299 2299 2299 2299 2374 2628 2725 2725 2453 2628 2725 2628 2628 2725 2628 2453 2453 2830 2453 2453 2628 2374 2164 1989 0 0 0 0 2537 2628 2628 2628 2725 2725 2230 2230 2374 2164 2102 2102 2102 2044 2299 2453 2164 2299 2164 2374 2299 2299 2374 2230 2164 2453 2102 2628 1989 0 0 0 0 0 0 0 0 0 0 0 0 0 0 0 381 375 379 375 0 0 0 0 0 0 0 1082 0 2943 1989 2453 2453 2374 2374 2374 2453 2299 2230 2830 2230 2230 2453 2044 1936 2102 2164 2230 2299 2164 2164 1989 1936 2374 2374 2299 2164 2230 2230 2230 2164 2299 1752 1362 1291 1247 1268 1206 1168 1132 1132 1132 1098 1082 1066 1036 1008 1008 1022 1008 1008 994 994 981 994 968 955 955 931 931 919 919 943 908 0 1314 1226 1338 0 1247 0 0 1051 1036 1036 1008 1022 1036 994 1051 1066 1098 0 1268 1314 1338 1362 1443 1501 1711 1795 1752 1388 1268 1268 1268 1168 1066 1115 1115 1115 1115 1149 1132 1132 1206 1268 1247 1226 1268 1291 1314 1314 1291 1291 1268 1338 1533 1533 1635 1501 1443 1443 1388 1314 1226 1168 1132 1149 1115 1149 1115 0 0 0 0 0 0 0 0 0 0 0 0 0 0 0 0 0 0 0 0 0 0
    0 0 0 0 0 0 0 0 0 0 0 0 0 0 0 0 0 0 0 0 0 0 0 0 0 0 0 0 0 0 0 0 0 0 0 0 0 0 0 0 0 0 0 0 0 0 0 0 0 0 0 0 0 0 0 0 0 0 0 0 0 0 0 0 0 0 0 0 0 2299 2164 2299 2164 2453 2374 2299 2102 2299 2230 2374 2299 2299 2230 2299 2299 2628 2725 2725 2453 2628 2725 2725 2628 2725 2628 2537 2453 2943 2537 2537 2628 2725 2453 2230 1936 0 0 0 2537 2628 2628 2628 2628 2628 2230 2230 2374 2102 2102 2102 2102 2044 2299 2537 2164 2374 2164 2299 2230 2299 2374 2164 2164 2374 2044 2628 1887 0 0 0 0 0 0 0 0 0 0 0 0 0 0 0 377 377 377 377 0 0 0 0 0 0 0 1051 0 2943 1989 2453 2453 2453 2374 2374 2453 2299 2230 2725 2164 2164 2374 2044 1936 2044 2230 2299 2537 2374 2299 1989 1936 2374 2299 2230 2102 2164 2164 2164 2102 2102 1635 1291 1268 1187 1226 1187 1149 1098 1098 1098 1066 1051 1051 1022 1008 994 1008 1008 994 994 981 981 994 955 955 955 931 931 919 886 919 855 0 0 1268 1338 0 1247 1082 0 1066 1036 1022 1008 1022 1051 994 1082 1132 1226 1291 1314 1314 1338 1362 1388 1388 1388 1443 1314 1226 1066 1132 1206 1098 1051 1082 1098 1098 1098 1115 1115 1115 1168 1226 1206 1187 1226 1268 1291 1268 1268 1247 1247 1314 1443 1471 1533 1471 1443 1415 1338 1206 1132 1098 1082 1098 1082 1098 1082 0 0 0 0 0 0 0 0 0 0 0 0 0 0 0 0 0 0 0 0 0 0</data></depth>
</opencv_storage>
