<?xml version="1.0"?>
<opencv_storage>
<gps_time_stamp>276987</gps_time_stamp>
<gps_x>-1.3922740936279297e+001</gps_x>
<gps_y>1.1277950286865234e+001</gps_y>
<gps_z>-2.2186405658721924e+000</gps_z>
<image_time_stamp>267858</image_time_stamp>
<depth type_id="opencv-matrix">
  <rows>81</rows>
  <cols>320</cols>
  <dt>s</dt>
  <data>
    0 0 0 0 0 0 0 0 0 0 0 0 0 0 0 0 0 0 0 0 0 0 0 0 0 0 0 0 0 0 0 0 0 0 0 0 0 0 0 0 0 0 0 0 0 0 0 0 0 0 0 0 0 0 0 0 0 0 0 0 0 0 0 0 0 0 0 0 0 2102 2230 2537 2299 2374 2453 2374 2453 2453 2453 2374 2102 2628 2830 3066 3066 2943 2943 2943 3066 2943 2943 2725 2830 2943 2830 3873 3873 3504 3504 3345 3345 3199 3199 3345 2943 2830 2943 2830 3199 3066 2943 2943 2830 2943 3066 2943 2943 2830 2725 2830 2628 0 2374 2102 2164 2044 2044 2164 2453 2725 2830 2299 2628 2628 2628 120 0 2628 2453 2453 2943 2628 0 8177 3873 3504 3345 2943 2725 2299 2299 2164 2164 2102 1989 1989 0 0 1936 2230 2044 2299 2299 2299 2374 2453 2537 2725 2628 3345 3199 3199 3066 2830 0 2725 2725 2628 2374 2453 2628 3066 3066 3345 3504 3504 3504 3504 3504 3345 3066 3345 2628 2299 2628 2830 2453 2725 2725 2725 2725 2830 2943 2725 2628 3199 2830 2628 2725 2628 2453 2044 2044 0 1672 1599 1565 1565 2044 2044 2230 2164 1936 2164 2164 2299 2230 2299 2230 2230 2299 2453 2374 2374 2164 2628 2102 2230 2299 2230 2628 2299 2453 2299 2102 2102 2230 2374 2164 2230 2299 2164 2230 2299 2230 2299 2230 2537 2453 2230 2164 2299 2230 2230 2164 2299 2164 1989 2102 2164 2044 2102 2044 1989 1936 1936 2044 1839 1752 1711 1672 1672 1711 1565 1565 1565 1443 1471 1635 1565 1565 1565 1565 1565 1533 1599 1599 1415 1415 1362 1314 1291 1247 1206 1168 1115 1149 1115 1051 1082 1051 1051 1051 1051 1066 0 0 0 0 0
    0 0 0 0 0 0 0 0 0 0 0 0 0 0 0 0 0 0 0 0 0 0 0 0 0 0 0 0 0 0 0 0 0 0 0 0 0 0 0 0 0 0 0 0 0 0 0 0 0 0 0 0 0 0 0 0 0 0 0 0 0 0 0 0 0 0 0 0 0 2230 2374 2628 2453 2453 2537 2453 2628 2537 2453 2453 2044 2537 2830 3066 3199 2943 2943 2943 3066 2943 2943 2725 2830 2830 2725 3873 3679 3345 3345 3199 3345 3066 3199 3345 2943 2830 2943 2830 3066 3066 2943 2830 2725 2830 2943 2943 2943 2830 2830 3066 2830 0 2537 2164 2230 1989 1989 2044 2453 2830 2943 2374 0 0 0 120 0 0 2537 2453 2943 2537 2943 5661 3504 3345 3345 2943 2830 2299 2299 2230 2230 2230 2102 2230 0 0 1936 2299 2102 2374 2374 2374 2374 2453 2537 2830 2725 3199 2943 2943 2830 2725 2628 2537 2725 2537 2374 2374 2537 2830 2830 3199 3199 3345 3345 3504 3504 3345 3199 3504 2725 2299 2725 2830 2374 2725 2725 2725 2725 2830 2943 0 2725 3345 2830 2628 2725 2628 2453 2102 2102 1936 1887 1887 1839 0 2164 2102 2230 2164 1936 2230 2164 2374 2230 2299 2299 2299 2299 2374 2299 2453 2164 2628 2044 2102 2230 2164 2628 2299 2453 2164 1989 2044 2164 2374 2230 2299 2374 2230 2299 2374 2299 2374 2230 2453 2453 2230 2230 2299 2230 2299 2230 2374 2230 1989 2102 2164 2044 2102 2044 1989 1936 1936 1989 1839 1752 1711 1672 1672 1711 1599 1599 1599 1471 1471 1635 1565 1565 1565 1565 1565 1533 1599 1565 1443 1415 1388 1338 1291 1247 1226 1187 1149 1149 1132 1051 1098 1082 1066 1051 1066 1066 0 0 0 0 0
    0 0 0 0 0 0 0 0 0 0 0 0 0 0 0 0 0 0 0 0 0 0 0 0 0 0 0 0 0 0 0 0 0 0 0 0 0 0 0 0 0 0 0 0 0 0 0 0 0 0 0 0 0 0 0 0 0 0 0 0 0 0 0 0 0 0 0 0 0 2374 2453 2725 2628 2537 2628 2628 2725 2628 2453 2537 1989 2453 2943 3345 3345 2943 2943 2943 3066 2943 2830 2537 2628 2725 2537 3679 3504 3199 3345 3199 3199 3066 3199 3504 2943 0 2943 2830 3066 2943 2943 2830 2537 2628 2830 2830 2943 2830 2943 4088 3199 4906 0 0 0 2164 2044 0 2537 3066 3066 0 0 0 0 120 0 0 2537 2453 2830 2537 2943 4599 3199 3199 3199 2943 2725 2374 2374 2374 2453 2537 2628 2830 0 0 1989 2374 2164 2374 2374 2374 2374 2453 2537 2830 2628 3066 2725 2725 2725 2537 2453 0 2537 2453 2299 2299 2537 2725 2725 3066 3066 3066 3199 3199 3345 3066 3066 3066 2628 2230 2725 2830 2374 2628 2725 2725 2830 2830 2943 0 2628 3504 2943 2725 2725 2628 2374 1989 1989 1936 1936 1887 1839 1839 2044 2044 2164 2044 1936 2299 2164 2374 2230 2299 2230 2230 2299 2374 2230 2374 2102 2453 1839 1839 1989 2102 2453 2102 2230 2164 1989 2044 2164 2374 2230 2299 2374 2230 2374 2374 2299 2453 2230 2453 2374 2230 2230 2230 2230 2299 2230 2374 2230 1989 2102 2164 2044 2044 2044 1989 1936 1936 1989 1887 1795 1752 1711 1711 1752 1635 1635 1635 1471 1501 1635 1565 1565 1565 1565 1565 1533 1599 1565 1443 1443 1388 1338 1314 1247 1226 1206 1168 1168 1149 1066 1115 1082 1066 1051 1066 1051 0 0 0 0 0
    0 0 0 0 0 0 0 0 0 0 0 0 0 0 0 0 0 0 0 0 0 0 0 0 0 0 0 0 0 0 0 0 0 0 0 0 0 0 0 0 0 0 0 0 0 0 0 0 0 0 0 0 0 0 0 0 0 0 0 0 0 0 0 0 0 0 0 0 0 2537 2628 2830 2725 2628 2725 2725 2943 2628 2537 2725 1989 0 3504 3679 3504 3066 3066 2943 2943 2943 2725 2299 2537 2628 2374 3504 3504 3199 3199 3066 0 3066 3199 3504 3066 0 2943 2830 3066 2943 2943 2725 2374 2453 2830 2725 2830 0 8177 7359 5661 7359 4599 5661 3873 0 2453 0 2628 3199 3066 0 0 0 0 120 0 0 2537 2453 2830 2537 2830 3504 3066 3066 3199 2830 2725 2537 2453 2453 2537 2830 3066 3345 0 0 0 2453 2164 2453 2374 2374 2374 2453 2537 2725 2628 2943 2628 2537 2725 2374 0 0 2453 2374 2299 2374 2537 2628 2725 2943 2943 2943 3066 3066 3199 2943 2943 2943 2537 2299 2830 2943 2374 2628 2725 2725 2725 2830 2943 0 2537 3504 2943 2628 2537 2453 2044 1839 1887 1936 1936 1887 1839 1839 2044 1989 2102 1936 1936 2374 2102 2374 2230 2299 2230 2230 2299 2374 2164 2374 2044 2453 1795 1839 1887 1936 2230 1989 1989 1989 1887 1989 2102 2299 2230 2299 2453 2299 2374 2374 2299 2453 2164 2374 2299 2164 2164 2230 2230 2299 2230 2374 2230 2044 2044 2164 2044 2044 2044 1989 1936 1936 1936 1936 1795 1795 1752 1711 1752 1672 1672 1672 1471 1471 1599 1533 1565 1533 1533 1565 1533 1599 1599 1471 1471 1443 1388 1362 1268 1268 1226 1187 1168 1168 1082 1149 1098 1098 1066 1066 1036 0 0 0 0 0
    0 0 0 0 0 0 0 0 0 0 0 0 0 0 0 0 0 0 0 0 0 0 0 0 0 0 0 0 0 0 0 0 0 0 0 0 0 0 0 0 0 0 0 0 0 0 0 0 0 0 0 0 0 0 0 0 0 0 0 0 0 0 0 0 0 0 0 0 0 2537 2725 2830 2830 2725 2725 2830 3066 2830 2725 3345 3066 5256 4906 4088 3873 3199 3066 2830 0 0 2628 2102 2453 2628 2230 3345 3345 0 0 2943 0 3066 3199 3345 2943 0 2943 2830 2943 2943 2943 2725 2299 2374 2725 2725 0 7359 7359 6690 6133 7359 6133 0 0 0 0 0 0 3504 3199 0 0 0 120 120 0 0 2628 2537 2830 2628 2943 3345 3066 3199 3199 2943 2830 2725 2830 2725 2725 0 3504 3679 3345 0 2044 2453 2230 2453 2453 2374 2453 2453 2537 2725 2628 2943 2628 2453 2628 2299 2230 0 2453 2374 2374 2374 2537 2628 2725 2830 2830 2830 2830 2943 3066 2943 2830 2830 2453 2230 2628 2830 2230 2537 2628 2628 2628 2725 2830 2628 2453 3199 2830 2537 2374 2299 2044 1887 1887 1989 1989 1989 1936 1936 2102 2102 2230 1936 1989 2374 2102 2374 2230 2299 2230 2230 2299 2299 2164 2453 1989 2374 1795 1795 1795 1795 2044 1887 1839 1795 1752 1887 2044 2230 2102 2299 2374 2230 2374 2374 2299 2374 2164 2374 2299 2164 2164 2230 2164 2299 2164 2374 2299 2044 2044 2164 2044 2044 1989 1936 1936 1887 1936 1887 1795 1795 1752 1752 1752 1711 1711 1711 1443 1471 1599 1533 1533 1533 1533 1565 1565 1599 1599 1501 1533 1501 1471 1471 1338 1362 1268 1226 1168 0 0 0 0 0 0 0 0 0 0 0 0 0
    0 0 0 0 0 0 0 0 0 0 0 0 0 0 0 0 0 0 0 0 0 0 0 0 0 0 0 0 0 0 0 0 0 0 0 0 0 0 0 0 0 0 0 0 0 0 0 0 0 0 0 0 0 0 0 0 0 0 0 0 0 0 0 0 0 0 0 0 0 2628 2725 2725 2725 2725 2725 2725 3066 2830 2725 4329 3066 4329 4329 3679 3873 3199 3199 0 0 0 0 0 0 2725 2164 3199 3199 2830 2943 2943 87 0 3066 3199 2943 2830 2943 2830 2943 2830 2830 2628 2230 2299 2725 2830 3345 5256 5661 6133 5661 6690 6133 0 0 0 0 0 0 3873 3199 0 0 0 0 120 0 0 2725 2628 2830 2628 0 3504 3199 3345 3345 3066 2943 2830 0 0 0 0 3504 3504 3504 3066 2044 2453 2230 2374 2453 2374 2453 2453 2453 2725 2537 2830 2537 2453 2628 2299 2299 0 2537 2453 2374 2374 0 2537 2628 2725 2725 2628 2725 2725 2943 2830 2725 2628 2374 2164 2299 2725 2102 2453 2537 2537 2537 2628 2725 2628 2374 3199 2628 2299 2299 2299 2102 1989 1989 2299 2164 2230 2164 2102 2299 2230 2374 1936 2044 2374 2044 2299 2230 2230 2230 2230 2299 2230 2102 2374 1936 2230 1752 1711 1672 1635 1795 1752 1711 1711 1711 1839 2044 2230 2102 2299 2374 2230 2374 2374 2299 2374 2164 2374 2230 2164 2164 2164 2164 2299 2164 2374 2230 2044 2044 2102 1989 1989 1989 1936 1887 1839 1887 1887 1795 1795 1752 1752 1752 1752 1795 1795 1501 1501 1635 1565 1533 1565 1533 1599 1565 1599 1599 1533 1565 1565 1565 1599 1471 1599 1635 0 0 5256 0 0 0 0 0 0 0 0 0 0 0 0
    0 0 0 0 0 0 0 0 0 0 0 0 0 0 0 0 0 0 0 0 0 0 0 0 0 0 0 0 0 0 0 0 0 0 0 0 0 0 0 0 0 0 0 0 0 0 0 0 0 0 0 0 0 0 0 0 0 0 0 0 0 0 0 0 0 0 0 0 0 2537 2628 2628 2725 2628 2628 2725 3066 2725 2628 4599 3504 3504 4088 3679 5256 5256 7359 0 0 0 0 0 0 2628 2044 2943 0 2725 2830 2830 87 0 0 0 2943 2830 2943 2830 2943 2830 2830 2725 2230 2374 2830 2830 3504 4906 5256 5661 6133 6690 5661 0 5256 0 0 0 0 3679 3199 0 0 0 0 0 0 0 2725 2725 2830 2628 0 0 3345 3345 3345 0 0 2943 3199 0 0 0 3199 3199 3199 3066 2044 2453 2230 2374 2453 2374 2374 2453 2453 2725 2453 2725 2537 2374 2537 2374 2374 2374 2453 2453 2374 2453 2537 2453 2537 2537 2537 2453 2537 2537 2725 2628 2537 2453 2453 2102 2453 2830 2102 2453 2537 2537 2537 2628 2725 2628 2374 3066 2725 2537 2453 2374 2299 2102 2044 2374 2164 2230 2164 2044 2230 2164 2164 1936 2044 2299 2044 2230 2164 2230 2164 2164 2230 2164 2044 2374 1887 1989 1711 1635 1635 1599 1795 1752 1711 1752 1752 1887 2044 2230 2164 2299 2374 2230 2374 2374 2299 2374 2102 2299 2230 2164 2164 2164 2164 2299 2102 2299 2230 2044 1989 2102 1989 1989 1936 1936 1887 1839 1839 1839 1795 1795 1752 1752 1795 1795 1839 1839 1711 1565 1635 1565 1565 1565 1565 1599 1565 1565 1599 1565 1565 1599 1599 1635 1533 1635 1752 2230 3345 0 0 0 0 0 0 0 0 0 0 0 0 0
    0 0 0 0 0 0 0 0 0 0 0 0 0 0 0 0 0 0 0 0 0 0 0 0 0 0 0 0 0 0 0 0 0 0 0 0 0 0 0 0 0 0 0 0 0 0 0 0 0 0 0 0 0 0 0 0 0 0 0 0 0 0 0 0 0 0 0 0 0 2628 2725 2725 2830 2725 2830 2830 3066 2725 2628 4329 3504 3199 3504 3066 9199 0 0 0 0 0 0 0 0 2537 1989 2725 0 2537 2725 2725 0 0 0 0 2943 2830 2943 2943 2943 2830 2830 2725 2374 2374 2830 2830 3345 5661 5661 6133 6690 6690 6133 0 0 0 0 0 0 3504 3199 3199 3199 0 0 0 0 0 2725 2725 2830 2537 0 0 0 0 0 2453 0 0 2943 0 0 0 3066 3066 3066 2943 2102 2453 2299 2374 2453 2374 2374 2453 2453 2725 2537 2725 2537 2374 2537 2453 2453 2453 2453 2453 2453 2537 2628 2453 2628 2453 2453 2374 2453 2453 2453 2453 2537 2374 2453 2044 0 2943 2102 2537 2537 2537 2537 2537 2628 2537 2374 2943 2537 2628 2628 2628 2537 2453 2299 2453 2230 2164 2102 2044 2164 2164 2164 1887 2044 2230 1989 2164 2102 2164 2102 2102 2164 2044 1936 2230 1839 1839 1672 1635 1599 1599 1795 1752 1711 1752 1795 1887 2102 2299 2164 2299 2374 2230 2374 2374 2299 2374 2102 2299 2230 2164 2164 2164 2102 2299 2102 2299 2230 1989 1989 2044 1936 1936 1887 1887 1839 1795 1795 1795 1752 1795 1752 1752 1795 1795 1887 1887 1795 1635 1672 1599 1599 1599 1565 1599 1565 1565 1599 1565 1565 1599 1565 1635 1565 1635 1752 2164 2725 2830 0 0 0 0 0 0 0 0 0 0 0 0
    0 0 0 0 0 0 0 0 0 0 0 0 0 0 0 0 0 0 0 0 0 0 0 0 0 0 0 0 0 0 0 0 0 0 0 0 0 0 0 0 0 0 0 0 0 0 0 0 0 0 0 0 0 0 0 0 0 0 0 0 0 0 0 0 0 0 0 0 0 2628 2830 2943 2943 2943 2943 2943 3199 2830 2725 4088 3345 3066 3199 2943 0 0 0 0 0 0 0 0 0 2453 1936 2537 2628 2453 2628 2628 0 0 0 3199 2943 2830 3066 2943 0 2830 2830 2725 2453 2537 2943 2943 3873 5256 5256 5661 5661 6133 5256 4599 0 3873 3504 3345 2628 3345 3066 3066 3066 0 0 2830 0 0 2725 2725 2725 2374 0 0 0 0 0 2164 0 0 2830 2725 2725 2628 3066 3066 3066 2943 2102 2453 2299 2374 2453 2374 2374 2453 2453 2725 2537 2725 2537 2374 2628 2453 2537 2537 2537 2537 2537 2628 2725 2537 2725 2453 2537 2453 2453 2374 2374 2453 2537 2299 2453 1989 0 3066 2164 2537 2453 2453 2453 2453 2537 2453 2230 2725 2299 2453 2537 2537 2537 2628 2374 2628 2299 2164 2102 2102 2164 2164 2164 1887 1989 2102 1936 2044 1989 1989 1989 1989 2044 1936 1839 2044 1752 1752 1672 1635 1599 1599 1752 1711 1672 1711 1711 1839 2102 2374 2230 2299 2453 2299 2453 2453 2374 2453 2102 2299 2230 2102 2102 2102 2102 2230 2044 2230 2164 1989 1936 1989 1887 1887 1839 1839 1839 1795 1795 1795 1752 1795 1795 1795 1795 1795 1839 1887 1839 1711 1711 1635 1599 1599 1565 1565 1565 1565 1599 1533 1565 1599 1565 1635 1565 1635 1752 2102 2725 2830 0 0 0 0 0 0 0 0 0 0 0 0
    0 0 0 0 0 0 0 0 0 0 0 0 0 0 0 0 0 0 0 0 0 0 0 0 0 0 0 0 0 0 0 0 0 0 0 0 0 0 0 0 0 0 0 0 0 0 0 0 0 0 0 0 0 0 0 0 0 0 0 0 0 0 0 0 0 0 0 0 0 2725 2943 3199 3199 3199 3199 3345 3345 2943 2830 4329 3345 3066 3345 2943 0 0 5661 0 0 0 0 0 2537 2628 1936 2453 2628 2453 2537 2537 2830 2830 0 3199 3066 2943 3066 3066 0 0 0 2830 2628 2725 3199 3199 3873 4088 4088 4599 4599 5256 4599 4088 0 3679 3504 0 0 3199 3066 0 3066 0 2830 2830 0 0 2725 2725 2725 2374 2628 2725 2374 2299 2299 2164 0 0 2830 2725 2725 2628 2943 2830 2943 2943 2102 2453 2230 2299 2374 2299 2299 2374 2374 2628 2374 2628 2537 2374 2628 2453 2537 2628 2628 2537 2628 2725 2830 2628 2725 2453 2537 2374 2453 2374 2299 2299 2453 2230 2374 1936 0 3066 2164 2537 2453 2453 2453 2453 2453 2453 2230 2628 2230 2453 2453 2453 2453 2628 2299 2537 2164 2102 2044 2044 2044 2044 2044 1839 1989 1989 1839 1936 1936 1887 1887 1887 1887 1795 1752 1839 1711 1672 1672 1672 1599 1599 1711 1672 1672 1711 1711 1752 2102 2374 2164 2299 2453 2230 2299 2374 2164 2230 2044 2102 2102 2044 2044 2044 2044 2230 2044 2102 2102 1887 1887 1887 1795 1839 1795 1795 1795 1752 1752 1795 1752 1795 1795 1795 1795 1795 1839 1839 1839 1752 1711 1635 1599 1599 1565 1565 1533 1565 1599 1565 1565 1599 1565 1635 1565 1635 1795 2164 2830 2943 0 0 0 0 0 0 0 0 0 0 0 0
    0 0 0 0 0 0 0 0 0 0 0 0 0 0 0 0 0 0 0 0 0 0 0 0 0 0 0 0 0 0 0 0 0 0 0 0 0 0 0 0 0 0 0 0 0 0 0 0 0 0 0 0 0 0 0 0 0 0 0 0 0 0 0 0 0 0 0 0 0 2725 3066 3199 3199 3199 3199 3504 0 2943 3066 4599 3679 3504 3679 3504 3504 5661 4599 0 0 0 0 0 2628 2725 1989 2453 2537 2374 2537 2537 2830 2830 2830 3199 3066 2943 3199 3199 0 2943 0 2943 0 0 3873 3679 4088 3873 3873 4088 4088 4599 4329 4088 0 3873 3679 0 0 3199 3066 0 3066 0 2725 2725 0 0 2725 2725 2725 2453 2725 2830 2537 2453 2537 2299 2537 0 2943 2943 2725 2628 2830 2943 3066 2943 2164 2453 2230 2299 2374 2299 2299 2299 2299 2537 2299 2628 2628 2374 2628 2453 2628 2628 2628 2628 2628 2725 2830 2628 2725 2374 2453 2374 2374 2299 2230 2299 2374 2164 2374 1936 0 3066 2230 2537 2453 2453 2453 2453 2453 2453 2164 2537 2230 2374 2374 2453 2453 2537 2164 2453 2102 2044 1936 2044 1989 1989 1887 1839 1936 1887 1795 1887 1887 1839 1795 1795 1795 1752 1711 1752 1672 1599 1672 1672 1599 1599 1711 1635 1635 1711 1711 1711 0 0 0 0 0 0 0 1533 1635 1711 1752 1839 1887 1887 1887 1989 1936 2230 1989 1989 1989 1795 1672 1672 1711 1752 1752 1795 1795 1752 1752 1795 1752 1795 1795 1795 1752 1795 1839 1839 1839 1795 1711 1635 1599 1599 1565 1565 1533 1565 1599 1565 1565 1599 1599 1635 1599 1672 1795 2230 3066 2943 0 0 0 0 0 0 0 0 0 0 0 0
    0 0 0 0 0 0 0 0 0 0 0 0 0 0 0 0 0 0 0 0 0 0 0 0 0 0 0 0 0 0 0 0 0 0 0 0 0 0 0 0 0 0 0 0 0 0 0 0 0 0 0 0 0 0 0 0 0 0 0 0 0 0 0 0 0 0 0 0 0 2830 3199 3345 3345 3345 3345 3679 3199 2943 3066 3873 3345 3199 3199 3066 0 5661 5661 0 7359 0 0 0 0 2830 1989 2453 2537 2374 2537 2453 2725 2830 2725 3199 3066 2943 3199 3199 0 0 0 3066 0 0 4599 4088 4329 3873 3679 3873 3873 4599 4088 3873 3873 3679 3679 3504 0 3199 3066 0 0 0 2830 2830 0 0 0 2830 2830 2628 2943 0 0 0 2830 2628 0 0 3199 0 2725 2537 2725 2830 2725 2725 2164 2453 2230 2299 2374 2299 2299 2374 2299 2537 2230 2628 2628 2299 2537 2453 2537 2628 2628 2628 2628 2628 2830 2537 2725 2374 2453 2374 2374 2374 2230 2299 2453 2230 2453 2044 0 3066 2374 2628 2453 2453 2453 2374 2374 2374 2164 2537 2230 2374 2299 2374 2453 2537 2230 2374 2102 2044 1989 2102 1989 1936 1887 1839 1887 1887 1795 1839 1839 1752 1752 1752 1752 1711 1672 1711 1599 1565 1672 1711 1599 1599 1711 1599 1599 1599 1635 1565 0 0 0 0 1338 0 1338 1338 1388 1415 1501 1565 1533 1599 0 0 0 0 0 0 0 1388 0 0 1635 1672 1711 1752 1752 1752 1752 1795 1795 1795 1795 1795 1752 1795 1839 1887 1839 1839 1752 1672 1635 1599 1565 1565 1533 1565 1599 1565 1565 1599 1599 1635 1599 1672 1795 2374 3504 3345 4088 0 0 0 0 0 0 0 0 0 0 0
    0 0 0 0 0 0 0 0 0 0 0 0 0 0 0 0 0 0 0 0 0 0 0 0 0 0 0 0 0 0 0 0 0 0 0 0 0 0 0 0 0 0 0 0 0 0 0 0 0 0 0 0 0 0 0 0 0 0 0 0 0 0 0 0 0 0 0 0 0 2943 3199 3345 3345 3345 3345 3873 3066 2943 2943 3066 2830 2830 2830 2830 0 0 0 0 6133 6690 6690 0 0 2943 2044 2537 2537 2453 2537 2453 2725 2725 2725 3199 3066 2943 3066 3199 0 0 0 3066 0 3345 4088 3873 3873 3679 3504 3679 3504 3873 3679 3504 3504 3504 3504 3504 0 3199 3066 2943 2943 2830 2830 2830 0 2830 2725 2830 2830 2725 0 0 0 0 3199 3066 2943 0 3199 3066 2628 2453 2628 2628 2628 2725 2164 2453 2230 2299 2374 2230 2299 2374 2299 2453 2230 2628 2628 2299 2537 2374 2537 2628 2628 2537 2537 2628 2725 2537 2725 2374 2453 2374 2299 2374 2230 2299 2453 2230 2537 2102 0 3066 2374 2628 2453 2453 2453 2374 2374 2374 2164 2537 2299 2374 2453 2453 2537 2628 2453 2453 2102 2044 1989 2102 1989 1989 1936 1887 1887 1839 1795 1839 1795 1711 1672 1711 1711 1672 1635 1672 1565 1533 1672 1672 1565 1565 1635 1565 1599 1635 1635 1565 1635 1443 1388 1388 1362 1338 1338 1338 1362 1388 1443 1443 1415 1471 0 0 0 0 0 0 0 0 0 0 1501 1565 1635 1711 1752 1711 1752 1795 1795 1795 1795 1795 1752 1795 1839 1839 1839 1839 1752 1711 1635 1635 1565 1565 1533 1533 1599 1565 1565 1599 1599 1635 1599 1635 1752 2044 3504 3345 0 0 0 0 0 0 0 0 0 0 0 0
    0 0 0 0 0 0 0 0 0 0 0 0 0 0 0 0 0 0 0 0 0 0 0 0 0 0 0 0 0 0 0 0 0 0 0 0 0 0 0 0 0 0 0 0 0 0 0 0 0 0 0 0 0 0 0 0 0 0 0 0 0 0 0 0 0 0 0 0 0 2830 3199 3345 3345 3345 3345 4088 3066 2943 2943 2943 2830 2943 2725 2830 2830 3199 3066 3066 3199 3345 3504 3066 2943 2943 2102 2537 2537 2453 2537 2374 2725 2628 2725 3066 2943 2830 2943 3066 0 0 3066 3066 3066 3504 4088 3679 3345 3345 3345 3345 3199 3345 3199 3199 3345 3345 3504 3504 0 3345 3066 2943 2943 2725 2725 2725 2628 2725 2628 2725 2830 2628 2943 3066 3345 3066 2943 3066 2830 0 2943 2830 2628 2453 2537 2628 2628 2628 2230 2453 2230 2299 2299 2230 2299 2299 2299 2453 2230 2628 2628 2374 2537 2374 2537 2628 2628 2537 2453 2537 2725 2537 2628 2299 2374 2299 2299 2374 2230 2299 2374 2230 2453 2044 0 3066 2374 2628 2537 2453 2453 2374 2374 2374 2164 2537 2299 2453 2537 2537 2537 2628 2537 2453 2164 2044 1989 2102 1936 2044 1989 1887 1887 1839 1795 1795 1795 1672 1635 1672 1672 1635 1599 1635 1533 1533 1711 1672 1565 1565 1599 1565 1635 1635 1635 1599 1672 1533 1443 1443 1388 1338 1338 1338 1362 1362 1415 1415 1415 1471 0 0 603 0 0 0 0 0 0 0 1443 1565 1599 1711 1752 1752 1752 1795 1795 1839 1795 1795 1752 1795 1795 1839 1839 1839 1752 1711 1635 1635 1565 1533 1533 1533 1599 1565 1565 1599 1599 1635 1599 1635 1711 1936 3345 3199 0 0 0 0 0 0 0 0 0 0 0 0
    0 0 0 0 0 0 0 0 0 0 0 0 0 0 0 0 0 0 0 0 0 0 0 0 0 0 0 0 0 0 0 0 0 0 0 0 0 0 0 0 0 0 0 0 0 0 0 0 0 0 0 0 0 0 0 0 0 0 0 0 0 0 0 0 0 0 0 0 0 2830 3199 3345 3345 3345 3345 4088 3066 3066 3066 3199 3066 2943 2943 3199 3066 3199 3066 2943 3066 3199 3345 3199 2943 2943 2164 2537 2537 2453 2537 2374 2725 2628 2628 3066 2830 2830 2943 0 0 2943 3066 3066 3066 3679 4088 3679 3504 3345 3199 3345 3066 3066 2943 3066 3345 3199 3199 3504 0 3345 3199 2943 2943 2725 2725 2725 2628 2628 2537 2628 2830 2537 2830 0 3345 3066 2943 3066 2943 2943 2943 2725 2628 2537 2537 2628 2628 2537 2230 2453 2230 2299 2299 2230 2299 2299 2299 2453 2230 2628 2628 2299 2453 2374 2453 2537 2537 2537 2453 2537 2725 2537 2725 2299 2374 2299 2299 2374 2164 2230 2299 2164 2453 2102 2725 3066 2374 2628 2537 2374 2453 2453 2374 2299 2164 2537 2299 2374 2537 2453 2537 2628 2537 2374 2102 2044 2044 2164 1936 2044 1989 1936 1887 1839 1795 1795 1795 1635 1635 1635 1635 1635 1635 1635 1533 1565 1711 1672 1565 1565 1565 1565 1635 1635 1635 1599 1672 1533 1443 1443 1388 1338 1338 1338 1338 1338 1388 1362 0 0 0 0 598 0 0 0 0 0 0 0 1443 1565 1635 1711 1752 1752 1795 1795 1839 1839 1795 1795 1752 1752 1795 1795 1795 1795 1752 1711 1635 1635 1565 1533 1533 1533 1599 1565 1565 1599 1599 1635 1599 1635 1672 0 0 0 0 0 0 0 0 0 0 0 0 0 0 0
    0 0 0 0 0 0 0 0 0 0 0 0 0 0 0 0 0 0 0 0 0 0 0 0 0 0 0 0 0 0 0 0 0 0 0 0 0 0 0 0 0 0 0 0 0 0 0 0 0 0 0 0 0 0 0 0 0 0 0 0 0 0 0 0 0 0 0 0 0 2943 3199 3345 3345 3345 3504 4329 3066 3199 3199 3199 3066 3066 3066 3199 2943 3199 2943 2943 3199 3199 3504 3199 3066 3066 2164 2537 2537 2537 2453 2374 2725 2628 2628 2943 2725 2725 2830 0 0 0 3199 3345 3679 4906 4906 3873 3679 3504 3345 3345 2943 2830 2830 2943 3199 3066 3066 3345 3066 3504 3199 2943 2943 2725 2725 2725 2628 2628 2537 2537 2830 2453 2725 2537 2628 0 0 0 2943 3066 3066 2725 2628 2537 2537 2628 2628 2453 2299 2453 2299 2299 2299 2299 2299 2374 2374 2453 2164 2537 2725 2299 2453 2453 2537 2628 2537 2537 2453 2537 2725 2628 2628 2230 2374 2374 2299 2374 2230 2230 2299 2164 2453 2044 2453 2943 2374 2628 2453 2374 2453 2374 2299 2299 2164 2453 2230 2374 2537 2374 2453 2628 2537 2453 2164 2102 2102 2374 1989 2102 1989 1936 1887 1839 1795 1795 1795 1635 1635 1635 1635 1635 1635 1635 1533 1565 1711 1635 1565 1565 1533 1565 1599 1599 1599 1599 1635 1501 1443 1471 1415 1338 1338 1338 1338 1338 1388 1338 1362 0 0 0 0 0 0 0 0 0 0 1314 1443 1599 1635 1711 1752 1752 1795 1839 1839 1839 1795 1795 1752 1752 1752 1795 1795 1795 1752 1752 1672 1672 1599 1533 1533 1565 1599 1565 1565 1635 1599 1635 1635 1599 1599 0 0 0 0 0 0 0 0 0 0 0 0 0 0 0
    0 0 0 0 0 0 0 0 0 0 0 0 0 0 0 0 0 0 0 0 0 0 0 0 0 0 0 0 0 0 0 0 0 0 0 0 0 0 0 0 0 0 0 0 0 0 0 0 0 0 0 0 0 0 0 0 0 0 0 0 0 0 0 0 0 0 0 0 0 0 3199 3345 3345 3345 3504 4088 3066 3199 3345 3504 3199 3345 3345 3679 3199 3679 3199 3199 3345 3873 3679 3679 3345 3199 2299 2628 2628 2537 2453 2374 2628 2453 2537 2830 2537 2628 2628 0 0 0 3199 3345 3873 4906 4599 3873 3504 3504 3345 3504 2943 2830 2830 3066 3199 3066 3066 3345 3199 3679 3345 3066 2943 2725 2725 2725 2628 2537 2453 2453 2830 2374 2628 2374 0 0 0 3199 3066 3679 3504 2943 2725 2725 2725 2830 2628 2537 2374 2537 2299 2230 2299 2230 2299 2374 2299 2299 2164 2537 2725 2230 2453 2453 2537 2537 2537 2537 2453 2537 2628 2628 2628 2299 2453 2374 2374 2453 2299 2299 2299 2230 2453 2102 2230 2830 2299 2537 2453 2299 2453 2374 2374 2374 2230 2537 2299 2299 2537 2299 2374 2537 2537 2374 2164 2164 2230 2537 1989 2102 1989 1936 1887 1839 1839 1795 1795 1635 1635 1635 1635 1635 1635 1599 1533 1565 1672 1635 1565 1565 1533 1565 1599 1599 1599 1599 1635 1533 1471 1471 1443 1362 1362 1338 1362 1338 1415 1362 1443 0 0 0 0 0 0 0 0 0 0 1338 1443 1599 1635 1711 1752 1752 1795 1839 1839 1839 1839 1795 1752 1752 1752 1795 1795 1795 1795 1752 1672 1711 1599 1533 1565 1565 1599 1599 1565 1635 1599 1635 1635 1565 1599 0 0 0 0 0 0 0 0 0 0 0 0 0 0 0
    0 0 0 0 0 0 0 0 0 0 0 0 0 0 0 0 0 0 0 0 0 0 0 0 0 0 0 0 0 0 0 0 0 0 0 0 0 0 0 0 0 0 0 0 0 0 0 0 0 0 0 0 0 0 0 0 0 0 0 0 0 0 0 0 0 0 0 0 0 0 3199 3345 3199 3345 3345 3873 3066 3345 3345 3504 3345 3679 3679 4329 3873 4906 3873 3873 3873 4906 4088 3873 3504 3199 2453 2628 2628 2628 2453 2374 2537 2374 2453 2725 2453 2453 2537 0 0 2830 3199 3345 3873 4329 4088 3679 3345 3345 3345 3504 0 2830 2830 3199 3504 3345 0 0 3504 4599 3504 3199 2943 2725 0 2725 2537 2453 2453 2453 2830 2299 2537 2299 0 0 3199 3199 3066 3679 3345 2943 2725 2725 2628 2725 2537 2537 2453 2537 2299 2230 2230 2230 2230 2374 2299 2230 2102 2537 2628 2230 2374 2453 2453 2453 2537 2453 2374 2453 2628 2537 2537 2299 2453 2374 2374 2453 2374 2299 2299 2230 2453 2102 2164 2725 2230 2537 2453 2374 2537 2453 2453 2453 2299 2628 2453 2453 2628 2299 2453 2453 2537 2299 2164 2230 2299 2628 1989 2102 2044 1936 1887 1839 1839 1839 1839 1672 1672 1672 1672 1672 1635 1599 1533 1533 1672 1635 1533 1565 1533 1565 1599 1599 1599 1599 1635 1501 1501 1471 1443 1388 1388 1362 1388 1362 1471 1362 1471 0 0 0 0 0 0 0 0 0 774 1338 1443 1565 1599 1711 1711 1752 1795 1839 1839 1839 1839 1795 1752 1795 1795 1795 1795 1839 1795 1795 1711 1711 1635 1565 1565 1599 1635 1599 1599 1635 1635 1672 1711 1635 0 0 0 0 0 0 0 0 0 0 0 0 0 0 0 0
    0 0 0 0 0 0 0 0 0 0 0 0 0 0 0 0 0 0 0 0 0 0 0 0 0 0 0 0 0 0 0 0 0 0 0 0 0 0 0 0 0 0 0 0 0 0 0 0 0 0 0 0 0 0 0 0 0 0 0 0 0 0 0 0 0 0 0 0 0 2725 3066 3199 3066 3066 3345 3504 3066 3345 3345 3504 3345 3679 3679 4599 4329 5661 4906 4906 4599 6133 4329 3873 3504 3199 2453 2628 2628 2628 2453 2374 2537 2299 2374 2628 2374 2374 2453 0 0 2830 3199 3199 3679 4088 3679 3504 3199 3199 3345 0 0 0 0 0 3679 0 0 0 3873 5256 3873 0 2943 2830 0 2830 2628 2374 2374 2374 2830 2299 2453 2230 0 0 2943 2830 2943 3345 3066 2830 2725 2725 2725 2830 2453 2537 2453 2537 2299 2230 2230 2230 2230 2374 2299 2230 2164 2537 2628 2164 2374 2453 2374 2374 2453 2374 2299 2299 2537 2453 2374 2299 2453 2374 2374 2453 2374 2299 2299 2299 2453 2102 2102 2725 2164 2453 2453 2374 2537 2537 2537 2537 2374 2725 2537 2537 2628 2374 2537 2453 2628 2374 2230 2374 2453 2725 2044 2102 2044 1936 1936 1887 1887 1887 1839 1711 1672 1672 1672 1672 1635 1599 1533 1533 1672 1599 1533 1565 1533 1599 1599 1599 1599 1599 1635 1533 1533 1501 1471 1415 1415 1388 1415 1388 1501 1388 0 0 0 0 0 0 0 0 0 0 728 1362 1415 1565 1565 1672 1711 1752 1795 1839 1887 1839 1839 1839 1795 1839 1795 1795 1795 1795 1839 1795 1711 1752 1635 1565 1599 1599 1635 1635 1599 1672 1635 1672 1752 1672 0 0 0 0 0 0 0 0 0 0 0 0 0 0 0 0
    0 0 0 0 0 0 0 0 0 0 0 0 0 0 0 0 0 0 0 0 0 0 0 0 0 0 0 0 0 0 0 0 0 0 0 0 0 0 0 0 0 0 0 0 0 0 0 0 0 0 0 0 0 0 0 0 0 0 0 0 0 0 0 0 0 0 0 0 0 2628 2830 2943 2943 2943 3066 3345 2943 3199 3199 3345 3199 3679 3679 4599 4329 5661 4906 4906 4599 6133 4088 3873 3504 3066 2453 2628 2628 2628 2453 2374 2537 2230 2374 2628 2374 2374 2453 0 0 2830 3199 3066 3504 3873 3504 3504 3199 3199 3199 0 0 0 0 0 3345 0 0 0 3873 5256 3873 0 2943 2830 0 2830 2628 2374 2374 2374 2830 2299 2299 2044 1989 2299 2453 2164 2628 2943 2725 2537 2628 2628 2628 2725 2374 2453 2453 2537 2299 2164 2230 2230 2299 2453 2299 2164 2164 2537 2628 2164 2299 2374 2299 2299 2374 2230 2230 2299 2453 2453 2299 2299 2453 2374 2453 2453 2453 2374 2374 2374 2537 2164 2102 2628 2102 2453 2374 2299 2537 2453 2453 2537 2453 0 0 0 2725 2453 2537 2628 2725 2374 2230 2537 2537 2537 2044 2044 2102 1989 1936 1887 1887 1887 1887 1711 1672 1672 1672 1672 1635 1599 1533 1533 1672 1599 1533 1565 1533 1599 1599 1599 1599 1599 1635 1533 1565 1533 1533 1471 1443 1415 1471 1415 1565 1415 0 0 0 0 0 0 0 0 0 0 0 1388 1415 1533 1533 1635 1672 1711 1795 1839 1887 1839 1839 1839 1839 1839 1839 1795 1795 1795 1795 1795 1711 1752 1635 1565 1599 1599 1635 1635 1635 1672 1672 1752 1795 1711 0 0 0 0 0 0 0 0 0 0 0 0 0 0 0 0
    0 0 0 0 0 0 0 0 0 0 0 0 0 0 0 0 0 0 0 0 0 0 0 0 0 0 0 0 0 0 0 0 0 0 0 0 0 0 0 0 0 0 0 0 0 0 0 0 0 0 0 0 0 0 0 0 0 0 0 0 0 0 0 0 0 0 0 0 0 2453 2628 2725 2725 2725 2830 3066 2943 3199 3199 3345 3199 3679 3679 4599 4329 5661 4906 4599 4599 6133 4088 3679 3345 3066 2453 2628 2628 2628 2453 2453 2537 2299 2453 2725 2453 2453 0 0 0 2943 3345 3066 3504 3873 3345 3345 3199 3199 3199 0 0 0 0 0 0 0 0 0 3679 5256 3873 3504 2943 2943 0 2943 2628 2374 2453 2374 2830 2299 2164 1989 0 2044 2044 1936 2164 2164 2102 2299 2537 2537 2537 2628 2374 2537 2628 2725 2374 2230 2299 2299 2299 2453 2299 2164 2164 2537 2628 2164 2299 2453 2299 2299 2453 2230 2299 2299 2537 2453 2299 2374 2453 2374 2453 2453 2537 2374 2299 2453 2537 2164 2044 2537 2044 2374 2299 2299 2453 2453 2453 2537 2453 0 0 0 2725 2453 2453 2628 2830 2453 2374 2725 2725 2453 2102 2102 2102 1989 1989 1936 1936 1936 1887 1752 1711 1672 1672 1672 1635 1635 1533 1533 1672 1599 1533 1565 1533 1599 1599 1599 1599 1599 1672 1565 1599 1565 1565 1533 1501 1471 1533 1471 1635 1471 1599 1599 1635 1672 0 0 0 0 0 0 0 1388 1415 1501 1471 1565 1635 1672 1752 1839 1839 1795 1839 1839 1795 1795 1795 1795 1795 1752 1795 1795 1711 1752 1672 1599 1599 1635 1635 1672 1635 1711 1711 1795 1887 1887 0 0 0 0 0 0 0 0 0 0 0 0 0 0 0 0
    0 0 0 0 0 0 0 0 0 0 0 0 0 0 0 0 0 0 0 0 0 0 0 0 0 0 0 0 0 0 0 0 0 0 0 0 0 0 0 0 0 0 0 0 0 0 0 0 0 0 0 0 0 0 0 0 0 0 0 0 0 0 0 0 0 0 0 0 0 2299 2453 2628 2628 2628 2725 2943 2943 3066 3199 3345 3199 3504 3679 4329 4088 5256 4599 4329 4329 5661 3873 3679 3345 3066 2374 2628 2537 2537 2453 2537 2628 2374 2537 2830 2537 2628 0 0 0 2943 3345 3066 3504 3873 3345 3345 3199 3199 3199 0 0 0 0 0 2943 0 0 0 3679 5256 4088 3679 3066 0 0 0 2628 2453 2537 2453 2943 2453 2230 2102 1839 2044 1989 1887 1989 2044 1936 2230 2453 2453 2453 2453 2374 2453 2537 2628 2299 2230 2299 2299 2299 2453 2299 2102 2164 2537 2537 2164 2299 2453 2299 2374 2453 2230 2299 2374 2537 2537 2374 2453 2537 2453 2537 2537 2537 2374 2374 2453 2453 2164 2044 2374 1989 2299 2230 2230 2453 2374 2374 2537 2453 0 2537 2628 2628 2374 2453 2725 2943 2628 2725 2943 3066 2299 2230 2102 2102 1989 1989 1936 1936 1936 1887 1752 1711 1672 1672 1672 1635 1635 1533 1565 1672 1599 1565 1565 1533 1565 1599 1599 1599 1565 1635 1533 1565 1565 1565 1533 1533 1471 1533 1471 1635 1471 1599 1599 1599 1635 0 1672 0 0 0 0 687 1415 1415 1471 1443 1533 1599 1672 1752 1839 1795 1795 1795 1839 1795 1795 1795 1752 1752 1752 1839 1795 1752 1795 1711 1635 1635 1635 1672 1672 1635 1711 1672 1795 1887 1887 0 0 0 0 0 0 0 0 0 0 0 0 0 0 0 0
    0 0 0 0 0 0 0 0 0 0 0 0 0 0 0 0 0 0 0 0 0 0 0 0 0 0 0 0 0 0 0 0 0 0 0 0 0 0 0 0 0 0 0 0 0 0 0 0 0 0 0 0 0 0 0 0 0 0 0 0 0 0 0 0 0 0 0 0 0 2299 2453 2628 2628 2628 2725 2943 2830 3066 3066 3199 3199 3504 3504 3873 4088 5256 4599 4599 4329 6133 3873 3679 3504 3066 2453 2628 2537 2537 2453 2628 2628 2453 2628 2943 2725 2830 0 0 0 3199 3199 3066 3504 3679 3345 3345 3199 3199 3199 0 0 2830 2725 0 2943 0 0 0 3679 4906 4088 3679 3199 3199 0 0 2725 2628 2628 2628 3066 2628 2299 2102 1887 2044 1936 1887 1989 1989 1989 2299 2374 2374 2374 2230 2299 2453 2537 2628 2230 2230 2299 2299 2374 2453 2230 2102 2164 2537 2374 2164 2374 2453 2230 2374 2374 2230 2299 2374 2537 2453 2374 2453 2537 2453 2537 2537 2628 2453 2453 2537 2453 2164 2044 2299 1989 2230 2164 2230 2374 2374 2374 2453 2453 2725 2537 0 2628 2453 2537 2725 2943 2628 2628 2943 2943 2102 2299 2102 2164 2044 1989 1936 1936 1936 1936 1752 1711 1672 1672 1672 1635 1635 1565 1565 1711 1635 1565 1599 1533 1599 1599 1565 1565 1565 1635 1501 1565 1533 1565 1533 1501 1471 1533 1471 1599 1471 1565 1599 1599 1635 1672 1672 1672 1672 0 1415 0 1443 1415 1443 1443 1501 1599 1635 1711 1795 1795 1795 1795 1839 1795 1795 1795 1752 1752 1752 1839 1795 1752 1795 1711 1635 1635 1672 1672 1672 1672 1711 1672 1752 1839 1795 0 0 0 0 0 0 0 0 0 0 0 0 0 0 0 0
    0 0 0 0 0 0 0 0 0 0 0 0 0 0 0 0 0 0 0 0 0 0 0 0 0 0 0 0 0 0 0 0 0 0 0 0 0 0 0 0 0 0 0 0 0 0 0 0 0 0 0 0 0 0 0 0 0 0 0 0 0 0 0 0 0 0 0 0 0 2299 2374 2628 2628 2628 2725 2830 2628 2830 2943 2943 3066 3345 3504 3679 4088 4906 4599 4599 4329 5661 3679 3504 3504 3066 2537 2725 2628 2628 2537 2628 2628 2537 2725 2943 2725 2830 0 0 0 3199 3199 3066 3345 3504 0 3345 3066 3066 3199 0 0 2725 2725 0 0 0 0 4088 3679 4906 4088 3679 3345 3345 0 0 2830 2725 2725 2628 3199 2628 2299 2164 1936 2044 1989 1887 1989 1989 1936 2164 2299 2230 2299 2102 2230 2453 2537 2628 2230 2230 2299 2299 2374 2453 2164 2102 2164 2628 2230 2164 2374 2453 2230 2374 2374 2230 2374 2453 2537 2453 2374 2537 2537 2453 2537 2537 2628 2453 2537 2628 2453 2164 2044 2164 1989 2230 2102 2230 2299 2299 2299 2453 2453 2725 2537 0 2628 2537 2628 2830 2830 2628 2628 2830 2830 2044 2299 2102 2164 2044 2044 1936 1936 1936 1936 1752 1711 1711 1672 1672 1635 1635 1565 1565 1711 1672 1599 1599 1533 1565 1565 1565 1565 1533 1599 1471 1533 1501 1533 1533 1501 1501 1533 1471 1599 1471 1565 1599 1635 1635 1672 1635 1635 0 0 1415 0 1443 1443 1443 1415 1501 1599 1599 1711 1795 1795 1795 1795 1839 1795 1795 1795 1752 1752 1752 1795 1752 1752 1795 1752 1672 1672 1672 1672 1711 1672 1711 1672 1752 1839 1795 0 0 0 0 0 0 0 0 0 0 0 0 0 0 0 0
    0 0 0 0 0 0 0 0 0 0 0 0 0 0 0 0 0 0 0 0 0 0 0 0 0 0 0 0 0 0 0 0 0 0 0 0 0 0 0 0 0 0 0 0 0 0 0 0 0 0 0 0 0 0 0 0 0 0 0 0 0 0 0 0 0 0 0 0 0 2230 2299 2537 2453 2453 2537 2725 2537 2628 2725 2830 2943 3345 3345 3504 4329 5256 4906 4906 4329 5256 3504 3504 3504 3066 2725 2725 2725 2725 2628 2725 2725 2725 2830 2943 2830 2830 0 0 0 3199 2943 2943 3066 3199 0 3199 3066 3066 0 0 0 2725 0 0 0 3199 0 3873 3679 4906 4088 3504 3345 3345 0 0 2830 2725 2725 2628 3199 2725 2374 2230 2044 2044 1989 1936 1989 2044 1936 2164 2230 2164 2230 2102 2299 2537 2628 2725 2230 2299 2374 2374 2453 2374 2102 2102 2164 2628 2164 2164 2374 2374 2230 2374 2374 2230 2374 2453 2537 2374 2374 2537 2537 2453 2628 2537 2628 2453 2537 2628 2299 2164 2102 2102 1989 2164 2102 2230 2299 2299 2299 2453 2453 2725 2537 0 2628 2537 2628 2830 2830 2628 2628 2830 2725 2044 2299 2102 2164 2044 2044 1989 1989 1989 1989 1752 1752 1711 1672 1672 1635 1635 1565 1565 1711 1672 1635 1599 1533 1565 1533 1565 1533 1501 1565 1443 1533 1471 1501 1501 1501 1501 1533 1501 1635 1501 1599 1635 1599 1635 0 1635 1635 0 0 1415 0 1443 1443 1415 1388 1471 1599 1635 1711 1839 1795 1795 1795 1839 1839 1795 1839 1795 1752 1752 1795 1752 1752 1795 1752 1672 1672 1672 1711 1672 1672 1711 1711 1795 1887 1839 0 3199 0 0 0 0 0 0 0 0 0 0 0 0 0 0
    0 0 0 0 0 0 0 0 0 0 0 0 0 0 0 0 0 0 0 0 0 0 0 0 0 0 0 0 0 0 0 0 0 0 0 0 0 0 0 0 0 0 0 0 0 0 0 0 0 0 0 0 0 0 0 0 0 0 0 0 0 0 0 0 0 0 0 0 0 2164 2230 2453 2374 2374 2453 2628 2453 2453 2628 2725 2830 3066 3199 3066 3873 4599 4329 4599 4329 4599 3504 3345 3504 3066 2830 2830 2725 2725 2830 2830 2830 0 2943 3066 3066 3066 0 0 3199 3345 2943 2943 3066 3066 3066 3199 3066 2943 2943 3199 2830 2725 2628 0 0 2943 3066 3504 3504 4329 3873 3504 3345 3345 0 0 2830 2725 2725 2628 3199 2725 2537 2299 2044 2102 2044 1936 1936 2044 1936 2102 2102 2164 2164 2164 2374 2537 2537 2725 2299 2374 2374 2374 2453 2374 2102 2102 2164 2628 2164 2230 2453 2374 2230 2453 2374 2299 2374 2453 2537 2374 2374 2537 2453 2453 2537 2537 2537 2374 2537 2537 2230 2230 2164 2102 1989 2164 2102 2299 2299 2299 2299 2453 2537 2725 2537 0 2628 2628 2725 2943 2943 2725 2725 2830 2537 2044 2299 2102 2164 2044 2044 1989 1989 1989 1989 1752 1752 1711 1672 1672 1635 1635 1565 1533 1711 1711 1672 1565 1533 1565 1533 1533 1533 1443 1501 1415 1471 1443 1471 1471 1471 1471 1501 1471 1599 1533 1599 1599 1533 1599 1635 1599 0 0 0 1415 0 1443 1443 1415 1388 1501 1599 1635 1711 1839 1795 1795 1795 1887 1839 1795 1839 1795 1752 1752 1752 1711 1711 1711 1711 1635 1599 1635 1672 1672 1672 1711 1711 1795 1887 1839 0 3199 3345 0 0 0 0 0 0 0 0 0 0 0 0 0
    0 0 0 0 0 0 0 0 0 0 0 0 0 0 0 0 0 0 0 0 0 0 0 0 0 0 0 0 0 0 0 0 0 0 0 0 0 0 0 0 0 0 0 0 0 0 0 0 0 0 0 0 0 0 0 0 0 0 0 0 0 0 0 0 0 0 0 0 0 2102 2102 2374 2230 2299 2374 2628 2453 2453 2537 2725 2725 2943 2943 2943 3679 4088 4329 4329 4329 4329 3504 3679 3679 3066 3066 2943 2830 2943 2943 0 3066 3199 3345 3345 3199 3199 0 0 3345 3504 3066 3066 3199 3199 3199 3199 3066 2943 2943 3066 2725 2628 2628 2830 2725 2943 2943 0 3199 3679 3504 3199 3199 0 0 118 2830 2725 2725 2725 3345 2830 2725 2453 2102 2164 2044 1936 1936 2044 1989 2102 2102 2164 2102 2164 2374 2537 2628 2725 2299 2374 2374 2374 2374 2230 2102 2102 2102 2453 2102 2299 2453 2374 2230 2453 2374 2299 2374 2537 2537 2374 2453 2537 2453 2453 2537 2628 2537 2453 2537 2537 2299 2299 2230 2102 1989 2230 2044 2299 2299 2299 2299 2453 2537 2725 2537 2943 2628 2628 2830 2830 2725 2628 2628 2830 2374 2044 2299 2102 2102 2102 2044 1989 1989 2044 1989 1752 1752 1672 1672 1672 1635 1635 1565 1533 1752 1795 0 1711 1565 1565 1565 0 1533 1415 1471 1388 1443 1443 1443 1471 1471 1471 1501 1471 1599 1565 1599 1635 1533 1565 1635 1599 1599 1599 0 1443 1362 1443 1443 1443 1415 1501 1599 1635 1711 1839 1839 1795 1839 1887 1839 1795 1795 1752 1752 1711 1711 1635 1672 1672 1711 1599 1533 1565 1599 1599 1599 1672 1672 1711 1752 1839 0 3345 3345 0 0 0 0 0 0 0 0 0 0 0 0 0
    0 0 0 0 0 0 0 0 0 0 0 0 0 0 0 0 0 0 0 0 0 0 0 0 0 0 0 0 0 0 0 0 0 0 0 0 0 0 0 0 0 0 0 0 0 0 0 0 0 0 0 0 0 0 0 0 0 0 0 0 0 0 0 0 0 0 0 0 0 1989 1989 2299 2164 2164 2299 2537 2453 2374 2537 2725 2725 2830 2830 2943 3504 3873 4088 4329 4088 4088 3679 4329 4329 3199 3504 3199 3066 3066 3199 3199 3199 3345 3679 3504 3345 3345 3504 0 3679 3873 3199 3345 3345 3345 3199 3345 3199 2943 2943 2943 2628 2537 2537 2725 2628 2830 0 0 0 3345 3345 0 3066 3199 0 118 2830 2725 2725 2725 3504 2830 2943 2628 2453 2537 2164 2044 1936 2044 2044 2102 2164 2164 2102 2164 2453 2537 2628 2725 2299 2374 2374 2374 2374 2164 2102 2102 2102 2453 2102 2299 2453 2374 2230 2453 2374 2299 2374 2537 2453 2374 2453 2537 2453 2453 2628 2628 2537 2537 2628 2537 2374 2374 2299 2044 1989 2164 2044 2230 2299 2230 2299 2453 2537 2725 2537 2943 2628 2628 2830 2725 2628 2537 2537 2725 2164 2044 2299 2102 2102 2102 2102 1989 2044 2102 1989 1752 1752 1711 1672 1672 1672 1635 1565 1533 1752 0 0 0 1533 1501 1501 0 1533 0 1415 1362 1415 1415 1415 1471 1443 1471 1501 1501 1599 1565 1599 1672 1565 1599 1635 1599 1599 1599 0 1443 1362 1471 1471 1443 1415 1533 1635 1635 1711 1839 1839 1839 1839 1887 1839 1752 1795 1711 1672 1672 1635 1565 1599 1635 1635 1533 1471 1501 1565 1501 1501 1533 1443 1565 1672 1795 0 3199 3199 0 0 0 0 0 0 0 0 0 0 0 0 0
    0 0 0 0 0 0 0 0 0 0 0 0 0 0 0 0 0 0 0 0 0 0 0 0 0 0 0 0 0 0 0 0 0 0 0 0 0 0 0 0 0 0 0 0 0 0 0 0 0 0 0 0 0 0 0 0 0 0 0 0 0 0 0 0 0 0 0 0 0 1989 1989 2299 2102 2102 2299 2537 2453 2374 2537 2725 2725 2725 2725 2830 3504 3679 4088 4329 4329 3873 3679 4599 4329 3345 3873 3504 3199 3199 3199 3345 3199 3504 3873 3504 3345 3504 3679 3345 3679 4329 3345 3345 3345 3504 3345 3345 3199 2943 2943 2943 2628 2537 2537 2628 2537 0 0 0 0 3199 3345 0 3066 3066 0 0 0 2628 2725 2725 3345 2830 2830 2628 0 2830 2374 2230 2044 2164 2164 2230 2230 2230 2102 2230 2453 2537 2537 2628 2230 2374 2299 2374 2374 2102 2044 2102 2044 2374 2044 2374 2453 2374 2299 2537 2374 2374 2374 2628 2453 2299 2537 2628 2453 2537 2628 2628 2537 2453 2628 2374 2299 2299 2230 2044 1989 2164 2102 2230 2299 2230 2299 2374 2453 2628 2537 2830 2725 2725 2830 2725 2628 2537 2628 2628 2102 2102 2299 2102 2164 2102 2102 2044 2044 2164 1989 1752 1752 1711 1672 1672 1672 1599 1565 1533 1752 0 0 1795 1599 1501 1501 0 1501 0 1338 1314 1362 1415 1415 1443 1443 1443 1471 1471 1565 1565 1599 1672 1533 1599 1635 1635 1635 0 0 1471 1362 1471 1471 1443 1415 1565 1635 1672 1752 1839 1839 1839 1839 1936 1839 1752 1795 1711 1672 1635 1635 1533 1565 1599 1635 1533 1501 1533 1565 1501 1471 1443 1388 1443 0 0 0 3504 3345 0 0 0 0 0 0 0 0 0 0 0 0 0
    0 0 0 0 0 0 0 0 0 0 0 0 0 0 0 0 0 0 0 0 0 0 0 0 0 0 0 0 0 0 0 0 0 0 0 0 0 0 0 0 0 0 0 0 0 0 0 0 0 0 0 0 0 0 0 0 0 0 0 0 0 0 0 0 0 0 0 0 0 1936 1936 2230 1989 2044 2299 2537 2453 2374 2537 2725 2725 2725 2725 2943 3679 3873 4088 4329 4088 3873 3679 4599 4088 3345 4329 3873 3345 3345 3345 3345 3199 3679 4088 3504 3345 3504 3504 3504 3873 4329 3504 3504 3504 3679 3504 3504 3345 2943 2943 2943 2628 2537 2537 2628 2537 0 0 0 0 3199 3199 0 0 0 2830 117 0 0 2537 2628 3066 2725 2628 2628 0 3066 2628 2537 2164 2453 2453 2374 2299 2374 2164 2299 2537 2537 2453 2537 2164 2299 2230 2299 2230 2044 2044 2102 2044 2299 2044 2299 2453 2299 2299 2453 2374 2374 2374 2537 2374 2299 2537 2537 2453 2537 2537 2628 2453 2453 2628 2230 2164 2230 2164 2044 2044 2164 2102 2230 2299 2299 2299 2453 2453 2628 2628 2830 2830 2830 2943 2725 2628 2628 2537 2628 2044 2102 2230 2102 2164 2102 2102 2044 2102 2230 1989 1752 1711 1711 1672 1672 1672 1599 1533 1533 1711 0 0 0 0 1471 1443 1443 1471 0 1314 1314 1362 1388 1388 1415 1415 1415 1443 1471 1565 1565 1565 1672 1533 1599 1635 1635 1635 0 0 1471 0 1471 1471 1443 1415 1565 1635 1672 1752 1887 1839 1839 1887 1989 1887 1752 1795 1711 1635 1599 1599 1533 1565 1565 1599 1501 1533 1565 1599 1501 1565 1501 1415 1471 1533 0 0 0 0 0 0 0 579 0 0 0 0 0 0 0 0 0
    0 0 0 0 0 0 0 0 0 0 0 0 0 0 0 0 0 0 0 0 0 0 0 0 0 0 0 0 0 0 0 0 0 0 0 0 0 0 0 0 0 0 0 0 0 0 0 0 0 0 0 0 0 0 0 0 0 0 0 0 0 0 0 0 0 0 0 0 0 1887 1887 2102 1936 1989 2374 2537 2537 2453 2537 2725 2725 2830 2725 2830 3679 3873 4088 4329 4088 3873 3679 4599 3873 3199 4599 4088 3345 3345 3345 3504 3345 3679 4088 3504 3345 3504 3504 3504 3873 4329 3504 3504 3504 3679 3504 3504 3345 2943 2943 2943 2628 2537 2537 0 0 0 185 0 0 3199 3199 0 0 0 2830 117 0 2537 2537 2537 2943 2537 2537 2628 0 2830 2628 2628 2164 2453 2537 2453 2374 2374 2230 2453 2628 2537 2628 2628 2230 2374 2299 2299 2230 2102 2164 2164 2102 2374 2044 2299 2537 2299 2299 2537 2374 2374 2374 2537 2374 2230 2453 2453 2374 2453 2453 2453 2374 2299 2537 2102 2164 2230 2164 2044 2102 2164 2164 2230 2299 2299 2374 2453 2537 2628 2628 2830 2830 2830 2943 2628 2628 2628 2537 2537 2044 2164 2230 2164 2164 2102 2102 2044 2102 2299 1989 1711 1711 1672 1635 1672 1635 1565 1533 1501 1711 1752 1711 0 0 0 0 0 1501 1362 1314 1314 1362 1388 1388 1415 1415 1415 1443 1471 1565 1565 1599 1711 1533 1599 1711 1635 1672 0 0 1471 0 1501 1471 1471 1443 1565 1635 1672 1711 1887 1887 1887 1887 2044 1887 1752 1752 1672 1635 1599 1565 1501 1533 1565 1565 1501 1533 1599 1635 1533 1635 1565 1501 1599 1533 0 0 0 0 0 0 0 0 588 0 0 0 0 0 0 0 0
    0 0 0 0 0 0 0 0 0 0 0 0 0 0 0 0 0 0 0 0 0 0 0 0 0 0 0 0 0 0 0 0 0 0 0 0 0 0 0 0 0 0 0 0 0 0 0 0 0 0 0 0 0 0 0 0 0 0 0 0 0 0 0 0 0 0 0 0 0 1839 0 0 0 0 0 2453 2537 2453 2628 2725 2725 2830 2725 2943 3504 3873 4088 4329 4088 3873 3679 4599 3679 3199 4599 4088 3504 3504 0 3504 3345 3679 4088 3345 3199 3504 3504 3504 3873 4599 3504 3504 3679 3873 3345 3345 3199 2830 2830 2943 2628 2537 2537 0 0 0 185 0 2830 3066 3066 0 0 0 2830 117 117 2453 2453 2453 2830 2537 2537 2628 0 2453 2299 2230 1989 2453 2537 2453 2453 2374 2299 2537 2628 2628 2628 2628 2299 2453 2374 2374 2230 0 2164 2230 2102 2374 2102 2374 2628 2374 2453 2537 2453 2453 2453 2628 2374 2164 2453 2453 2374 2453 2374 2374 2299 2299 2453 2102 2164 2374 2230 2164 2164 2164 2230 2299 2374 2299 2374 2453 2453 2628 2725 2830 2830 2943 3066 2725 2725 2725 2725 2725 1989 2299 2299 2164 2102 2102 2102 2044 2102 2374 1936 1711 1672 1672 1635 1635 1635 1533 1471 1471 1635 1672 1388 1338 1206 1226 0 1415 1471 1388 1338 1338 1362 1388 1388 1443 1443 1415 1443 1471 1565 1599 1599 1672 1533 1533 1711 1635 1672 0 0 1533 1362 1501 1501 1471 1443 1599 1635 1672 1711 1887 1887 1887 1936 2102 1936 1795 1795 1711 1599 1565 1565 1501 1533 1565 1565 1533 1533 1599 1672 1533 1635 1533 1501 1599 1471 0 0 0 0 0 0 0 0 0 0 0 0 0 0 0 0 0
    0 0 0 0 0 0 0 0 0 0 0 0 0 0 0 0 0 0 0 0 0 0 0 0 0 0 0 0 0 0 0 0 0 0 0 0 0 0 0 0 0 0 0 0 0 0 0 0 0 0 0 0 0 0 0 0 0 0 0 0 0 0 0 0 0 0 0 0 0 1795 0 0 0 0 0 2453 2628 2537 2628 2830 2830 2830 2725 2943 3504 4088 4088 4329 4088 3873 3679 4906 3679 3199 4599 4088 3504 3504 0 3504 3345 3679 4329 3504 3345 3504 3679 3679 4088 4906 3504 3504 3679 3873 3345 3199 0 2725 2830 2830 2628 2537 2537 75 0 0 185 0 2943 3199 0 0 0 0 0 117 117 2537 2453 2537 2830 2537 2628 0 0 0 2230 2044 1989 2537 2628 2453 2453 2299 2299 2628 2628 2537 2628 2725 2299 2453 2453 2374 2164 2164 2230 2230 2102 2374 2164 2374 2725 2537 2725 2725 2628 2537 2628 2628 2374 2230 2453 2374 2299 2453 2453 2374 2299 2299 2453 2044 2299 2453 2230 2299 2230 2102 2230 2230 2374 2299 2374 2453 2453 2537 2725 2830 2943 2943 3066 2943 2830 2943 2830 2830 1989 2374 2299 2164 2102 2102 2102 2044 2102 2374 1936 1711 1672 1672 1635 1635 1599 1533 1471 1471 1635 1599 1362 1338 1247 1206 1115 0 1362 1314 1291 1291 1338 1362 1388 1443 1443 1415 1443 1471 1533 1565 1565 1672 1533 0 0 0 0 0 1599 1635 1362 1533 1501 1471 1443 1599 1672 1711 1752 1887 1887 1887 1989 2230 1936 1795 1795 1672 1565 1501 1533 1471 1533 1565 1565 1533 1533 1565 1672 1533 1599 1471 1415 1443 1338 0 0 1115 0 0 0 0 553 0 0 0 0 0 0 0 0 0
    0 0 0 0 0 0 0 0 0 0 0 0 0 0 0 0 0 0 0 0 0 0 0 0 0 0 0 0 0 0 0 0 0 0 0 0 0 0 0 0 0 0 0 0 0 0 0 0 0 0 0 0 0 0 0 0 0 0 0 0 0 0 0 0 0 0 0 0 0 1752 0 0 0 0 406 2537 2628 2628 2725 2830 2830 2943 2725 0 3504 4088 4329 4599 4088 4088 3679 0 3504 3199 4599 3873 3345 3345 0 3504 3345 3679 0 0 0 3679 3679 3679 4088 5256 3679 3504 3679 3873 3199 3066 0 2628 2725 2725 2537 2537 2537 0 0 75 0 0 2943 3199 0 0 144 0 0 117 117 2537 2453 2537 2943 2628 2725 0 0 0 2453 2164 2164 2628 2628 2537 2537 2230 2299 2537 2628 2453 2453 2628 2230 2374 2374 2230 2164 0 0 2230 2102 2374 2164 2374 2725 2725 2943 3066 2943 2830 2830 2830 2537 2374 2537 2374 2374 2374 2453 2374 2374 2537 2537 2102 2453 2628 2299 2453 2299 2102 2230 2230 2374 2299 2374 2453 2374 2537 2830 2830 2943 3066 3066 2943 2830 2943 2943 2830 1989 2374 2299 2164 2102 2102 2044 2044 2102 2374 1887 1711 1672 1672 1635 1635 1599 1533 1471 1471 1599 1565 1314 1314 1268 1247 1187 1268 1314 1291 1268 1291 1314 1362 1362 1415 1415 1388 1415 1443 1471 1533 1501 1533 1388 0 0 0 0 0 0 1839 1471 1635 1599 1565 1501 1672 1711 1711 1752 1887 1887 1887 1989 2230 1936 1795 1752 1635 1565 1471 1533 1471 1533 1565 1565 1533 1533 1565 1635 1501 1565 1415 1362 1314 1291 1268 0 0 529 553 541 549 545 0 0 0 0 0 0 0 0 0
    0 0 0 0 0 0 0 0 0 0 0 0 0 0 0 0 0 0 0 0 0 0 0 0 0 0 0 0 0 0 0 0 0 0 0 0 0 0 0 0 0 0 0 0 0 0 0 0 0 0 0 0 0 0 0 0 0 0 0 0 0 0 0 0 0 0 0 0 0 0 0 0 0 0 0 2537 2628 2628 2725 2830 2830 2830 2725 0 3345 3873 4329 4329 4088 3873 3679 0 3345 3199 4088 3679 0 3345 0 3345 3199 3504 124 123 123 3504 3679 3679 4088 4906 3504 3345 3504 3679 2943 2943 2830 2628 2628 2725 2537 2537 2537 2725 2537 75 0 0 3066 3345 3199 0 144 549 0 117 117 2628 2537 2628 2943 2725 2830 7359 5256 3504 2830 2453 2374 2830 2725 2725 2830 2299 2453 2628 2628 2453 2453 2725 2164 2374 2374 2164 2102 0 0 2230 2102 2299 2102 2299 2725 2830 3504 5661 6133 0 0 0 0 0 2453 2230 2374 2299 2374 2230 2299 2628 2628 2374 2830 2943 2374 2537 2374 2044 2230 2230 2299 2299 2299 2453 2299 2537 2830 2830 2943 2943 2830 2830 2725 2830 2725 2628 1989 2374 2299 2164 2102 2102 2102 2044 2102 2453 1887 1711 1672 1672 1599 1599 1599 1501 1443 1443 1533 1415 1268 1268 1247 1226 1168 1206 1247 1226 1247 1268 1291 1314 1338 1388 1388 1362 1388 1415 1443 1471 1443 1501 1388 0 0 0 4599 0 0 1887 1533 1672 1635 1599 1533 1672 1711 1752 1752 1936 1887 1936 1989 2164 1936 1795 1752 1672 1565 1471 1565 1501 1565 1565 1599 1565 1565 1565 1635 1501 1533 1388 0 0 0 0 525 521 514 541 537 537 0 0 0 0 0 0 0 0 0 0
    0 0 0 0 0 0 0 0 0 0 0 0 0 0 0 0 0 0 0 0 0 0 0 0 0 0 0 0 0 0 0 0 0 0 0 0 0 0 0 0 0 0 0 0 0 0 0 0 0 0 0 0 0 0 0 0 0 0 0 0 0 0 0 0 0 0 0 0 0 0 1752 1936 1839 1887 2374 2453 2537 2628 2628 2725 2725 2830 2725 2943 3199 3504 3873 3873 3679 3504 3345 3679 3066 3066 3873 3504 0 3199 0 0 0 3345 124 123 123 3345 3504 3504 3873 4599 3345 3199 3504 3679 2943 2830 2725 2537 2628 2725 2537 2537 2628 2725 2628 75 0 0 3199 3504 3345 0 0 553 0 117 117 2628 2537 2628 2943 2830 2830 6133 4329 3504 2943 2537 2537 2830 2830 2725 2830 2374 2628 2725 2725 2453 2628 2830 2299 2453 2374 2164 2102 0 0 2230 2044 2299 2044 0 2830 0 5661 8177 0 0 0 0 0 0 0 0 2299 0 0 2044 0 0 0 0 3199 3066 2299 2537 2374 1989 2230 2164 2299 2230 2230 2374 2230 2374 2830 2628 2830 2943 2725 2830 2830 2830 2830 2537 1989 2374 2299 2164 2164 2164 2102 2044 2164 2453 1936 1752 1672 1672 1599 1599 1533 1471 1415 1415 1443 1338 1247 1206 1187 1168 1149 1168 1206 1206 1226 1226 1247 1291 1314 1362 1362 1362 1362 1388 1415 1443 1415 1443 1388 0 0 0 3345 2725 2830 1936 1599 1672 1672 1672 1635 1711 1752 1752 1752 1936 1936 1887 1989 2102 1887 1839 1752 1711 1599 1533 1599 1565 1565 1599 1599 1599 1599 1565 1599 1443 1443 0 0 0 0 545 525 514 511 529 533 533 533 0 0 0 0 0 0 0 0 0
    0 0 0 0 0 0 0 0 0 0 0 0 0 0 0 0 0 0 0 0 0 0 0 0 0 0 0 0 0 0 0 0 0 0 0 0 0 0 0 0 0 0 0 0 0 0 0 0 0 0 0 0 0 0 0 0 0 0 0 0 0 0 0 0 0 0 0 0 0 0 1795 1936 1887 1936 2299 2374 2453 2628 2628 2725 2725 2725 2725 2830 3066 3345 3504 3679 3345 3345 3066 3345 2943 3066 3679 3504 0 3199 0 0 3199 3345 124 124 124 3199 3199 3345 3504 3873 3066 3066 3345 3504 2830 2830 2628 2537 2628 2725 2628 2537 2537 2725 2628 0 0 0 3345 3504 3504 3199 3345 557 0 117 117 0 2537 2628 2943 2830 2830 6690 3504 2943 2628 2299 2453 2725 2725 2725 2537 2374 2628 2628 2628 2453 2628 2830 2374 2537 2374 2102 2102 0 0 2230 2044 2230 2044 0 2725 0 6133 8177 0 0 0 0 0 0 0 0 0 0 0 0 1132 0 0 0 0 0 2164 2628 2537 1989 2230 2164 2230 2230 2230 2299 2102 2230 2830 2453 2830 2943 2830 2943 2830 2943 2943 2537 2102 2453 2374 2230 2164 2164 2164 2102 2164 2453 1887 1752 1672 1672 1599 1565 1533 1443 1388 1388 1443 1314 1247 1206 1187 1168 1168 1206 1226 1206 1247 1247 1247 1291 1291 1338 1338 1338 1338 1362 1362 1388 1388 1388 1314 0 0 0 3679 2943 2830 2044 1711 1752 1752 1711 1672 1752 1752 1752 1752 1887 1887 1887 1887 1989 1887 1839 1752 1711 1635 1565 1635 1599 1599 1635 1635 1635 1599 1565 1599 1388 0 0 0 0 0 537 521 511 507 525 529 533 525 0 541 0 561 0 0 0 0 0
    0 0 0 0 0 0 0 0 0 0 0 0 0 0 0 0 0 0 0 0 0 0 0 0 0 0 0 0 0 0 0 0 0 0 0 0 0 0 0 0 0 0 0 0 0 0 0 0 0 0 0 0 0 0 0 0 0 0 0 0 0 0 0 0 0 0 0 0 0 1795 1795 1989 1936 1989 2299 2299 2374 2628 2537 2725 2725 2725 2628 2830 2830 3066 3199 3345 3199 3066 2943 3066 2943 3066 3679 3345 0 3199 0 3345 3199 3345 124 0 2830 3066 3199 3199 3345 3345 2830 2943 3199 3345 2830 2725 2628 2628 2725 2725 2628 2537 2537 2725 2628 2943 2943 3066 3345 3679 3679 3345 3345 0 0 117 117 2830 2725 2725 3199 2943 2943 6690 3199 2230 2453 2230 2453 2725 2725 2725 2374 2299 2628 2628 2628 2453 2628 2830 2453 2537 2374 2102 2102 0 0 2230 2044 2164 2102 0 2628 0 0 0 0 0 8177 6690 0 0 0 0 0 0 0 0 1149 0 0 0 0 0 0 2628 2537 1989 2230 2164 2230 2230 2230 2299 2102 2230 2830 2537 2943 2943 2830 2943 2943 3066 3066 2453 2102 2453 2374 2230 2164 2164 2102 2044 2164 2374 1839 1672 1635 1635 1533 1533 1471 1415 1362 1362 1415 1291 1226 1206 1187 1187 1187 1226 1247 1247 1268 1268 1268 1268 1268 1314 1314 1291 1291 1314 1314 1338 1338 1314 1291 0 0 0 3345 3066 2374 1936 1711 1711 1672 1635 1565 1672 1672 1672 1672 1795 1752 1795 1795 1887 1839 1795 1752 1752 1635 1533 1635 1599 1599 1599 1599 1599 1565 1533 1599 1338 0 0 0 0 0 533 521 511 511 525 525 529 521 533 533 545 541 0 0 0 0 0
    0 0 0 0 0 0 0 0 0 0 0 0 0 0 0 0 0 0 0 0 0 0 0 0 0 0 0 0 0 0 0 0 0 0 0 0 0 0 0 0 0 0 0 0 0 0 0 0 0 0 0 0 0 0 0 0 0 0 0 0 0 0 0 0 0 0 0 0 0 1795 1839 1989 1936 1989 2230 2230 2374 2537 2453 2628 2725 2628 2628 2830 2830 2943 3066 3199 3066 2943 2830 2943 2830 2943 3504 3345 3066 3066 3199 3345 3199 3345 3199 2943 2830 2943 2943 2943 2943 2943 2725 2725 2943 3066 2830 2725 2537 2628 2725 2725 2628 2453 2537 2725 2725 3066 3066 3066 3504 3873 3873 3504 3504 3873 0 0 0 2830 2830 2830 3345 3066 3066 6690 3199 2044 2299 2299 2537 2628 2628 2628 2230 2299 2628 2537 2537 2374 2537 2830 2453 2537 2374 2102 2164 0 0 2230 2044 2102 2102 2299 2537 0 5256 0 0 0 7359 6690 0 0 0 0 0 0 0 0 1168 0 0 0 0 0 2299 2628 2453 1989 2230 2164 2230 2230 2230 2299 2044 2164 2830 2537 2830 2943 2830 3066 2943 3066 2943 2374 2164 2453 2374 2230 2102 2102 2102 2044 2164 2299 1795 1599 1599 1565 1501 1471 1443 1388 1338 1338 1388 1268 1226 1226 1226 1206 1226 1268 1268 1268 1291 1291 1268 1268 1247 1291 1268 1247 1247 1268 1268 1268 1291 1291 1268 0 0 0 3199 2943 2164 1887 1711 1711 1599 1471 1471 1533 1565 1565 1599 1672 1635 1672 1711 1752 1752 1752 1711 1711 1599 1533 1599 1533 1565 1533 1565 1533 1501 1471 0 0 0 0 0 493 504 533 521 514 514 525 529 529 514 525 525 537 0 0 0 0 0 0
    0 0 0 0 0 0 0 0 0 0 0 0 0 0 0 0 0 0 0 0 0 0 0 0 0 0 0 0 0 0 0 0 0 0 0 0 0 0 0 0 0 0 0 0 0 0 0 0 0 0 0 0 0 0 0 0 0 0 0 0 0 0 0 0 0 0 0 0 0 1795 1795 1936 1936 1989 2164 2164 2299 2537 2453 2537 2628 2628 2725 2830 2830 2943 3066 3199 3066 3066 2943 2943 2830 2943 3345 3345 3066 3066 3066 3199 3199 3199 3066 2830 2725 2830 2830 2830 2725 2628 2453 2628 2725 2830 2725 2537 2537 2537 2628 2725 2725 2453 2628 2830 2830 3199 3199 3199 3504 3873 4329 3504 3679 3873 3504 0 0 2943 2830 2830 3504 3199 3066 7359 3345 2044 2102 2299 2453 2537 2537 2537 2230 2374 2537 2537 2453 2374 2453 2725 2453 2537 2374 2164 2164 0 0 2230 1989 2102 2164 2299 2628 3066 5661 7359 0 0 8177 6690 0 0 0 0 0 0 0 1226 1206 0 0 360 0 0 2299 2628 2453 1989 2230 2164 2164 2164 2164 2230 2044 2102 2830 2230 2230 2725 2628 2830 2725 2830 2628 2044 2044 2299 2230 2164 2044 2044 1989 1989 2102 2102 1711 1415 1501 1471 1443 1415 1415 1362 1338 1362 1415 1291 1268 1268 1268 1268 1268 1291 1291 1268 1314 1291 1268 1247 1226 1268 1247 1226 1247 1247 1247 1247 1268 1268 0 2628 2453 2374 2725 2725 2044 1795 1672 1672 1565 1388 1443 1471 1471 1501 1533 1599 1565 1599 1672 1672 1672 1711 1672 1672 1533 1443 1471 1471 1443 1415 1443 1388 1362 0 0 0 0 0 541 525 525 533 525 521 518 529 529 525 507 525 521 533 533 0 0 0 0 0
    0 0 0 0 0 0 0 0 0 0 0 0 0 0 0 0 0 0 0 0 0 0 0 0 0 0 0 0 0 0 0 0 0 0 0 0 0 0 0 0 0 0 0 0 0 0 0 0 0 0 0 0 0 0 0 0 0 0 0 0 0 0 0 0 0 0 0 0 0 1795 1795 1936 1936 1989 2102 2102 2164 2453 2453 2537 2628 2628 2725 2943 2830 3066 3066 3199 3066 3066 2943 2943 2830 2943 3345 3199 2943 3066 2943 3066 3066 3066 2943 2725 2628 2725 2628 2725 2537 2453 2374 2453 2537 2628 2537 2453 2453 2537 2628 2725 2830 2453 2725 2830 2943 3345 3504 3345 3679 3873 4599 3504 3679 3873 3345 0 0 2943 2830 2830 3345 3199 3199 6133 3504 2830 2164 2374 2537 2628 2628 2537 2299 2453 2628 2537 2537 2374 2537 2830 2628 2537 2299 2164 2230 0 0 2230 1989 2044 2164 2299 2628 3345 4329 5256 3679 3873 5661 0 0 0 0 0 0 0 0 1291 1206 0 381 362 345 0 0 2537 2453 1989 2230 2230 2164 2164 2230 2299 2102 2164 2830 2102 2044 2628 2230 2374 2374 2453 2102 1839 1887 2102 2044 1989 1936 1887 1887 1887 1989 1887 1533 1314 1388 1388 1362 1388 1362 1338 1338 1362 1415 1291 1247 1268 1268 1268 1268 1268 1268 1247 1291 1268 1226 1187 1149 1226 1206 1206 1226 1247 1247 1268 1268 1291 0 2230 2230 2102 2537 2537 1989 1752 1635 1599 1471 1362 1362 1415 1388 1415 1443 1501 1471 1501 1565 1599 1599 1635 1599 1599 1471 1415 1415 1415 1362 1362 1362 1338 0 0 0 0 0 0 574 541 537 541 533 529 525 537 533 529 514 537 525 529 521 0 0 0 0 0
    0 0 0 0 0 0 0 0 0 0 0 0 0 0 0 0 0 0 0 0 0 0 0 0 0 0 0 0 0 0 0 0 0 0 0 0 0 0 0 0 0 0 0 0 0 0 0 0 0 0 0 0 0 0 0 0 0 0 0 0 0 0 0 0 0 0 0 0 0 1795 1795 1936 1936 1936 2044 2044 2102 2374 2299 2537 2628 2628 2725 2943 2830 2943 2943 3066 2943 2943 2943 2830 2830 2943 3345 3199 2943 2943 2943 3066 3066 3066 2830 2628 2628 2725 2628 2628 2537 2374 2374 2537 2537 2628 2537 2374 2537 2537 2628 2725 2830 2374 2725 2830 2943 3199 3345 3199 3504 3679 4599 3504 3504 3679 3345 3199 3504 2943 2830 2830 3199 3199 3066 3679 3066 2628 2164 2374 2537 2537 2628 2374 2299 2537 2537 2537 2453 2374 2537 2725 2628 2537 2299 2230 2230 0 0 2230 1989 2044 2230 2299 2537 3199 3679 4599 3504 3679 4088 0 0 0 0 0 0 0 0 0 0 0 379 366 352 0 0 2537 2453 1989 2299 2230 2230 2230 2299 2374 2164 2164 2830 2102 2044 2299 1989 1989 1989 2044 1936 1752 1839 1989 1936 1887 1887 1839 1839 1839 1936 1795 1415 1314 1362 1362 1338 1338 1338 1314 1291 1314 1314 1226 1226 1206 1226 1247 1291 1314 1314 1314 1415 1443 1338 1314 1291 1314 1291 1291 1268 1268 1291 1314 1314 1314 1314 1672 1887 1795 1887 2044 1887 1711 1565 1565 1471 1338 1362 1388 1362 1388 1415 1443 1443 1443 1471 1501 1533 1565 1533 1501 1415 1362 1362 1362 1338 0 0 0 0 0 0 791 735 651 588 553 545 545 537 537 537 545 541 533 521 545 533 533 514 0 0 0 0 0
    0 0 0 0 0 0 0 0 0 0 0 0 0 0 0 0 0 0 0 0 0 0 0 0 0 0 0 0 0 0 0 0 0 0 0 0 0 0 0 0 0 0 0 0 0 0 0 0 0 0 0 0 0 0 0 0 0 0 0 0 0 0 0 0 0 0 0 0 0 1839 1839 1936 1989 1989 2044 1989 2044 2299 2164 2453 2537 2453 2830 2943 2830 2943 2943 3066 2943 2830 2830 2830 2830 2830 3199 3066 2830 2943 2830 3066 3066 3066 2830 2725 2628 2725 2628 2628 2537 2299 2374 2537 2628 2628 2628 2453 2628 2628 2725 2830 2830 2374 2830 2830 3066 3199 3345 3199 3504 3679 4599 3199 3199 3345 3199 3066 3199 2943 2830 2725 3066 2943 2943 2943 2830 2537 2230 2453 2537 2453 2537 2230 2230 2537 2537 2453 2453 2374 2453 2725 2725 2537 2299 2299 2299 2230 2299 2230 1989 2044 2299 2230 2453 3066 3504 4088 3345 3199 3199 0 0 0 0 0 0 0 0 0 0 0 0 0 0 0 0 2453 2374 1989 2299 2230 2230 2299 2299 2453 2230 2230 2830 2164 2102 2164 1887 1887 1887 1989 1887 1711 1839 1936 1887 1839 1839 1795 1795 1752 1839 1711 1362 1314 1362 1338 1338 1338 1338 1314 1291 1314 1314 1226 1226 1187 1187 1226 1314 1362 1388 1501 1635 1599 1565 1565 1443 1471 1388 1362 1291 1338 1388 1415 1338 1415 1565 1752 1887 1752 1599 1533 1672 1471 1415 1415 1388 1314 1338 1362 1362 1388 1388 1415 1415 1415 1443 1471 1471 1533 1471 1443 1388 1362 1338 1338 0 0 0 0 0 0 0 0 721 651 593 557 545 549 541 541 541 545 545 537 533 553 541 0 518 0 0 0 0 0
    0 0 0 0 0 0 0 0 0 0 0 0 0 0 0 0 0 0 0 0 0 0 0 0 0 0 0 0 0 0 0 0 0 0 0 0 0 0 0 0 0 0 0 0 0 0 0 0 0 0 0 0 0 0 0 0 0 0 0 0 0 0 0 0 0 0 0 0 0 1887 1839 1936 1989 1989 2044 1989 2044 2230 2102 2453 2537 2453 2943 3066 2943 2943 2943 3066 3066 2943 2830 2830 2830 2830 3066 2943 2830 2830 2725 3066 3066 3066 2830 2725 2725 2830 2725 2725 2537 2299 2374 2628 2628 2725 2725 2453 2628 2725 2725 2830 2830 2374 2725 2830 3066 3066 3199 3066 3199 3345 4329 3066 2943 3066 3066 3066 3199 2943 2943 2830 3066 3066 2943 2830 2628 2453 2230 2374 2453 2374 2453 2230 2299 2537 2453 2453 2374 2299 2374 2628 2725 2453 2299 2374 2453 2374 2453 2374 2044 2102 2453 2374 2537 3873 4088 4088 3199 3199 3066 0 0 0 0 0 0 0 0 0 0 0 0 0 0 0 1887 2299 2299 1936 2299 2230 2230 2299 2374 2453 2299 2230 2830 2164 2164 2299 1887 1887 1887 1989 1887 1711 1795 1887 1887 1795 1752 1672 1672 1635 1752 1501 1314 1291 1338 1338 1338 1362 1338 1314 1314 1338 1362 1291 1226 1098 1149 1187 1338 1443 1471 1533 1565 1599 1635 1672 1635 1635 1501 1415 1362 1415 1533 1471 1314 1338 0 1839 1839 1635 1415 1338 1338 1362 1338 1314 1314 1268 1314 1338 1338 1362 1362 1415 1415 1388 1415 1443 1443 1501 1443 1415 1362 1338 1338 1314 1098 919 817 0 0 0 0 735 714 645 598 557 545 549 545 549 545 549 545 541 537 553 541 0 514 0 0 0 0 0
    0 0 0 0 0 0 0 0 0 0 0 0 0 0 0 0 0 0 0 0 0 0 0 0 0 0 0 0 0 0 0 0 0 0 0 0 0 0 0 0 0 0 0 0 0 0 0 0 0 0 0 0 0 0 0 0 0 0 0 0 0 0 0 0 0 0 0 0 0 1839 1839 1887 1936 1936 1989 1989 1989 2164 2044 2374 2628 2453 3066 3066 3066 3066 3066 3199 3345 3199 3066 2943 2943 2830 2943 2725 2725 2725 2537 2943 3066 3066 2830 2725 2830 2830 2725 2725 2537 2299 2374 2628 2725 2725 2725 2453 2725 2725 2725 2725 2725 2299 2628 2725 2943 2943 2943 2943 3066 3066 4329 2830 2725 2830 3066 3066 3199 3066 3066 3066 3199 3199 2943 2830 2628 2537 2374 2453 2537 2453 2537 2374 2453 2537 2453 2453 2374 2299 2374 2628 2725 2453 2374 2537 0 0 0 2453 2164 2164 2628 2537 2537 0 6690 0 3199 3199 0 0 0 0 0 0 0 0 0 0 0 0 0 0 0 0 1887 2164 2102 1887 2164 2164 2164 2230 2374 2453 2230 2230 2943 2299 2164 2299 1795 0 1795 1887 1839 1635 1752 1795 1795 1752 1711 1599 1599 1565 1599 1388 1291 1268 1314 1314 1314 1338 1314 1314 1314 1314 1338 1268 1247 1168 1206 1226 1291 1443 1533 1599 1565 1599 1635 1711 1672 1635 1501 1388 0 0 0 1599 1291 0 0 1989 1839 1501 1291 1226 1149 0 1268 1268 1291 1226 1247 1314 1314 1338 1338 1362 1362 1362 1415 1443 1415 1443 1415 1388 1338 1338 1314 1247 1036 876 799 758 758 0 743 721 707 657 603 566 545 549 549 549 549 549 545 537 529 545 533 518 500 0 0 0 0 0
    0 0 0 0 0 0 0 0 0 0 0 0 0 0 0 0 0 0 0 0 0 0 0 0 0 0 0 0 0 0 0 0 0 0 0 0 0 0 0 0 0 0 0 0 0 0 0 0 0 0 0 0 0 0 0 0 0 0 0 0 0 0 0 0 0 0 0 0 0 1887 1839 1887 1936 1936 1989 1989 2044 2230 2102 2299 2628 2453 3066 3199 3199 3066 3199 3345 3345 3345 3199 2830 2830 2725 2725 2299 2628 2628 2374 2830 2943 2943 2628 2725 2830 2725 2725 2725 2537 2230 2299 2537 2725 2725 2725 2453 2725 2725 2725 2725 2725 2299 2628 2725 2943 2830 2830 2943 2830 2943 4088 2725 2230 2453 2830 3066 3066 3066 3066 3066 3199 3199 2943 2830 2725 2628 2537 2537 2628 2537 2537 2453 2537 2628 2453 2374 2374 2299 2453 2725 2830 2453 2537 2628 0 0 0 2537 2299 2299 2725 0 0 0 7359 0 0 0 0 0 0 0 0 0 0 0 0 0 0 0 0 0 0 0 1839 2044 1989 1839 2102 2044 2102 2164 2299 2453 2230 2230 2830 2299 2164 2164 1635 1471 1711 1795 1795 1599 1711 1752 1752 1711 1672 1533 1501 1471 1501 1314 1268 1268 1314 1314 1338 1338 1314 1338 1314 1338 1338 1291 1268 1206 1206 1226 1268 1314 1533 1565 1471 1501 1471 1599 1599 1533 1443 1362 1291 0 0 1711 0 1338 0 0 0 0 0 1206 1051 0 0 1187 1206 1115 1149 1247 1268 1314 1314 1338 1338 1338 1388 1415 1388 1415 1388 1388 1338 1314 1247 1098 981 845 799 750 750 750 743 721 714 681 613 579 545 549 553 553 549 549 545 533 518 0 521 0 0 0 0 0 0 0
    0 0 0 0 0 0 0 0 0 0 0 0 0 0 0 0 0 0 0 0 0 0 0 0 0 0 0 0 0 0 0 0 0 0 0 0 0 0 0 0 0 0 0 0 0 0 0 0 0 0 0 0 0 0 0 0 0 0 0 0 0 0 0 0 0 0 0 0 0 1839 1795 1839 1839 1887 1887 1936 1936 2102 1989 2299 2628 2537 3066 3066 3199 3199 3345 3345 3345 3199 3066 2537 2628 2537 2453 2102 2537 2537 2299 2628 2830 2830 2628 2628 2725 2725 2628 2725 2537 2230 2299 2453 2628 2725 2628 2453 2725 2725 2725 2830 2830 2374 2725 2830 3066 2943 2943 2943 2943 2943 3504 2628 2102 2230 2628 2830 2830 2943 3066 2943 3199 3066 2943 2830 2830 2725 2628 2628 2628 2628 2537 2453 2537 2537 2453 2374 2299 2299 2453 2725 2830 2453 2537 2725 2830 0 0 2628 2453 2453 0 3504 3873 4906 4329 4088 3345 0 3066 3066 2943 0 2943 2943 0 0 2725 0 0 0 0 0 2164 1887 1839 1989 1936 1839 2044 2044 2044 2102 2230 2374 2164 2230 2830 2299 2044 1839 1443 1291 1501 1672 1672 1471 1635 1672 1711 1672 1635 1471 1443 1443 1471 1314 1291 1291 1338 1338 1362 1362 1338 1338 1362 1338 1338 1291 1291 1226 1187 1206 1226 1187 1415 1501 1388 1415 1362 1443 1443 1443 1388 1338 1291 1533 0 1795 1388 0 0 694 618 0 0 462 0 0 0 474 0 1066 1066 1187 1206 1268 1291 1314 1314 1314 1338 1362 1338 1338 1338 1314 1291 1268 1149 1022 931 836 791 728 735 735 735 721 714 694 623 584 545 549 553 553 545 553 549 533 497 0 0 468 465 0 0 0 0 0
    0 0 0 0 0 0 0 0 0 0 0 0 0 0 0 0 0 0 0 0 0 0 0 0 0 0 0 0 0 0 0 0 0 0 0 0 0 0 0 0 0 0 0 0 0 0 0 0 0 0 0 0 0 0 0 0 0 0 0 0 0 0 0 0 0 0 0 0 0 1839 1711 1752 1795 1839 1839 1839 1839 1839 1839 2230 2453 2537 2725 2725 3199 3199 3345 3345 3345 3199 0 2044 2299 2299 2164 2044 2537 2537 2299 2628 2725 2725 2628 2628 2725 2628 2537 2725 2537 2299 2299 2453 2537 2628 2537 2453 2725 2725 2725 2830 2830 2374 2725 2725 2943 2830 2725 2830 2725 2725 3066 2537 2164 2230 2628 2830 2830 2943 2943 2830 3066 2943 2943 2830 2830 2725 2725 2725 2830 2725 2628 2628 2725 2628 2537 2374 2299 2299 2537 2830 2830 2453 2628 2725 2943 2943 0 2725 2453 2537 3679 3873 4329 4329 4088 3679 3066 2943 2943 2830 2830 2725 2830 2725 2830 2943 2830 2943 2943 0 0 2453 2102 1887 1839 1936 1887 1795 1936 1936 1936 2044 2164 2230 2102 2230 2830 2044 0 1635 1338 1206 1338 1388 1415 1388 1501 1565 1599 1599 1565 1443 1443 1443 1443 1314 1314 1338 1338 1338 1388 1362 1362 1362 1362 1362 1338 1291 1291 1206 1132 1149 1149 1036 0 1443 1338 1362 1338 1415 1443 1443 1388 1362 1314 1533 1672 0 0 0 791 687 608 584 0 487 0 521 500 490 481 0 0 0 0 0 1247 1291 1291 1291 1291 1314 1291 1268 1226 1082 1051 0 0 943 865 826 774 714 721 728 721 714 714 714 639 584 541 0 553 545 537 0 0 0 0 0 0 457 454 0 0 0 0 0
    0 0 0 0 0 0 0 0 0 0 0 0 0 0 0 0 0 0 0 0 0 0 0 0 0 0 0 0 0 0 0 0 0 0 0 0 0 0 0 0 0 0 0 0 0 0 0 0 0 0 0 0 0 0 0 0 0 0 0 0 0 0 0 0 0 0 0 0 0 1887 1839 1839 1839 1839 1839 1839 1752 1795 1795 2102 2230 2537 2628 2628 3066 3066 3345 3345 3345 3199 0 0 2164 2230 2102 2044 2628 2628 2299 2628 2725 2725 2725 2628 2725 2628 2537 2725 2537 2299 2299 2453 2537 2628 2537 2453 2628 2628 2628 2725 2830 2374 2628 2628 2830 2725 2628 2725 2628 2628 2830 2453 2230 2230 2628 2830 2830 2830 2943 2830 2943 2943 2830 2725 2725 2725 2830 2830 2943 2830 2725 2628 2628 2628 2537 2374 2299 2299 2537 2725 2830 2537 2628 2830 2943 2943 3066 2725 2537 2537 4906 4329 4599 3873 3679 3345 2725 2725 2725 2628 2725 2628 2725 2725 2725 2943 2725 2943 2943 0 0 2374 1989 1887 1839 1839 1839 1752 1887 1887 1887 1989 2102 2164 2102 2299 2830 1989 0 1314 1291 1132 1008 1226 1314 1338 1415 1443 1471 1471 1471 1415 1443 1533 1565 1362 1388 1388 1388 1362 1415 1388 1362 1362 1362 1338 1314 1291 1268 1168 1082 1098 1082 1022 0 1443 1314 1362 1338 1415 1415 1415 1388 1338 1291 1388 1388 1501 0 0 750 663 598 545 521 500 493 518 504 490 481 0 0 0 0 0 0 0 1206 1149 1132 1187 1082 1036 1008 955 908 855 0 0 750 782 735 700 0 714 714 714 707 728 639 579 537 0 0 0 0 0 0 0 0 0 0 454 446 0 0 0 0 0
    0 0 0 0 0 0 0 0 0 0 0 0 0 0 0 0 0 0 0 0 0 0 0 0 0 0 0 0 0 0 0 0 0 0 0 0 0 0 0 0 0 0 0 0 0 0 0 0 0 0 0 0 0 0 0 0 0 0 0 0 0 0 0 0 0 0 0 0 0 1887 1887 1887 1839 1887 1887 1839 1795 1839 1795 1936 1989 2453 2537 2453 2943 3066 3199 3345 3345 3199 0 0 1989 2230 2044 2044 2628 2628 2374 2725 2725 2830 2725 2725 2725 2628 2628 2725 2537 2230 2299 2374 2537 2537 2453 2453 2628 2628 2628 2725 2830 2453 2537 2537 2725 2537 2453 2725 2628 2537 2830 2453 2299 2299 2725 2943 2943 2943 3066 2943 3066 2943 2943 2830 2830 2725 2830 2830 2943 2943 2725 2725 2725 2725 2628 2453 2374 2374 2537 2725 2830 2537 2628 2725 2943 2943 2943 2725 2453 2537 6133 4906 4906 3504 3504 3199 2453 2725 2628 2628 2628 2628 2725 2628 2628 2943 2725 2943 2943 3066 3199 2453 2044 1936 1887 1936 1887 1795 1887 1839 1839 1989 2102 2044 1936 2044 2628 1795 0 1247 1187 1098 1022 1036 1082 1314 1362 1388 1415 1415 1443 1443 1501 1672 1599 1443 1501 1501 1471 1415 1471 1415 1388 1362 1388 1314 1291 1268 1268 1187 1082 1098 1082 1022 0 1443 1314 1362 1314 1388 1388 1362 1362 1314 1291 1338 1314 1388 0 0 721 639 593 0 525 500 490 507 490 481 474 465 0 0 0 663 687 681 681 0 0 0 826 836 0 791 766 743 681 618 639 651 645 629 608 0 634 675 675 0 0 0 474 462 0 0 0 0 0 0 0 459 462 468 451 0 0 0 0 0
    0 0 0 0 0 0 0 0 0 0 0 0 0 0 0 0 0 0 0 0 0 0 0 0 0 0 0 0 0 0 0 0 0 0 0 0 0 0 0 0 0 0 0 0 0 0 0 0 0 0 0 0 0 0 0 0 0 0 0 0 0 0 0 0 0 0 0 0 0 1887 1887 1887 1839 1887 1887 1839 1795 1839 1795 1887 1887 2374 2453 2453 2943 3199 3345 3504 3504 0 0 0 5 2044 1936 0 2628 2628 2374 2628 2725 2725 2725 2725 2725 2628 2537 2628 2537 2230 2299 2374 2453 2537 2453 2453 2725 2725 2628 2725 2830 2453 2537 2537 2628 2453 2374 2628 2628 2453 2725 2453 2453 2453 2830 2943 2943 2943 3066 2943 3066 2943 2830 2830 2830 2725 2830 2830 2943 2943 2830 2830 2725 2725 2725 2537 2453 2453 2628 2830 2830 2453 2628 2725 2830 2943 2943 2725 2453 2537 6690 5661 4599 3345 3345 3199 2299 2725 2628 2537 2628 2628 2725 2628 2628 2943 2830 3066 3066 3199 3199 2537 2102 1936 1887 1795 1795 1752 1795 1752 1752 1795 1795 1795 1795 1795 1936 1471 1066 1115 1082 1036 1036 1022 1036 1206 1226 1314 1338 1362 1415 1443 1533 1672 1565 1471 1533 1501 1471 1415 1471 1443 1415 1415 1443 1338 1338 1314 1291 1187 1082 1082 1051 1051 1022 1291 1098 1268 1247 1291 1291 1291 1291 1268 1247 1291 1247 0 0 799 707 623 579 533 507 487 481 493 487 477 471 462 0 613 629 669 681 681 675 681 728 721 707 694 629 618 618 0 618 593 598 598 593 593 557 557 579 0 0 0 0 474 0 457 0 0 0 0 0 0 0 462 465 474 457 0 0 0 0 0
    0 0 0 0 0 0 0 0 0 0 0 0 0 0 0 0 0 0 0 0 0 0 0 0 0 0 0 0 0 0 0 0 0 0 0 0 0 0 0 0 0 0 0 0 0 0 0 0 0 0 0 0 0 0 0 0 0 0 0 0 0 0 0 0 0 0 0 0 0 1839 1839 1839 1752 1795 1795 1795 1795 1795 1752 1795 1839 2453 2453 2537 2830 3066 3345 3345 3504 3199 0 0 0 2102 1989 0 2725 2628 2453 2628 2725 2725 2628 2628 2628 2537 2453 2537 2453 2230 2230 2299 2374 2537 2453 2453 2725 2725 2725 2725 2943 2537 2628 2453 2628 2453 2299 2628 2628 2453 2725 2537 2628 2628 2943 3066 2943 3066 3199 3066 3199 2943 2830 2830 2830 2725 2830 2943 2943 2943 2830 2830 2830 2725 2725 2537 2453 2453 2628 2830 2830 2537 2628 2725 2943 2943 2943 2725 2453 2537 6690 5661 4599 3199 3199 3199 2299 2725 2628 2537 2628 2628 2725 2628 2628 2943 2725 2943 3066 3066 3199 2537 2044 1887 1839 1752 1752 1711 1711 1672 1672 1672 1711 1635 1672 1565 1565 1314 1149 1082 1051 1082 1082 1066 1082 1247 1291 1338 1338 1415 1471 1471 1533 1672 1533 1501 1533 1565 1443 1388 1443 1443 1415 1388 1415 1314 1291 1291 1268 1149 1036 1022 994 994 955 0 0 0 1149 1206 1247 1247 1226 1226 1206 1247 1187 0 0 0 675 613 561 533 507 490 484 493 487 481 474 0 0 618 657 675 687 681 681 687 743 735 721 700 629 0 603 579 603 579 574 584 584 584 553 557 566 0 0 0 0 0 0 0 0 0 0 0 0 446 454 457 459 468 0 0 0 0 0 0
    0 0 0 0 0 0 0 0 0 0 0 0 0 0 0 0 0 0 0 0 0 0 0 0 0 0 0 0 0 0 0 0 0 0 0 0 0 0 0 0 0 0 0 0 0 0 0 0 0 0 0 0 0 0 0 0 0 0 0 0 0 0 0 0 0 0 0 0 0 1839 1795 1795 1711 1752 1795 1795 1752 1795 1752 1795 1795 2537 2453 2537 2725 2943 3066 3066 3345 0 0 0 0 0 2044 0 0 2725 2453 2628 2628 2725 2628 2628 2537 2374 2374 2453 2453 2230 2164 2230 2299 2453 2453 2537 2725 2725 2725 2943 3066 2830 2725 2537 2725 0 2299 2628 2628 2453 2725 2628 2725 2628 2943 3066 2943 2943 2943 2830 2943 2830 2830 2830 2830 2725 2943 3066 3066 3066 2830 2943 2830 2725 2830 2537 2453 2453 2628 2830 2830 2537 2628 2725 2943 2943 0 2725 2374 2453 7359 5661 3679 2943 3066 3066 2164 2628 2537 2537 2628 2537 2628 2628 2537 2830 2725 2830 2943 3066 3066 2537 1989 1887 1839 1711 1672 1635 1635 1635 1565 1599 1599 1533 1565 1501 1471 1415 1291 1268 1206 1168 1132 1098 1168 1314 1314 1362 1388 1415 1533 1533 1533 1635 1471 1471 1501 1501 1471 1362 1415 1388 1388 1362 1362 1268 1226 1247 1268 1132 1022 1008 897 0 0 0 0 0 0 0 0 0 0 0 1168 1206 0 0 0 0 0 603 561 541 529 497 487 493 481 477 471 0 0 608 629 669 675 669 669 687 791 799 766 714 651 0 0 0 603 570 561 579 584 598 549 553 553 537 0 0 0 529 0 0 0 0 0 0 0 440 443 446 446 451 0 0 0 0 0 0
    0 0 0 0 0 0 0 0 0 0 0 0 0 0 0 0 0 0 0 0 0 0 0 0 0 0 0 0 0 0 0 0 0 0 0 0 0 0 0 0 0 0 0 0 0 0 0 0 0 0 0 0 0 0 0 0 0 0 0 0 0 0 0 0 0 0 0 0 0 1839 1839 1795 1711 1752 1795 1795 1795 1795 1752 1795 1795 2374 2299 2230 2453 2628 2830 2537 0 0 0 0 1565 0 0 0 0 2830 2537 2725 2725 2830 2725 2628 2537 2453 2374 2537 2453 2299 2230 2230 2299 2374 2299 2453 2725 2725 2725 3066 3199 3066 3066 2725 2725 2537 2299 2725 2725 2453 2628 2537 2628 2537 2830 2830 2725 2830 2830 2628 2628 2628 2628 2725 2830 2725 2943 3066 3066 3066 2830 2830 2725 2725 2725 2537 2453 2374 2628 2830 2830 2537 2628 2725 2943 2943 0 2628 2299 2374 3504 3345 3345 2943 3066 3199 2230 2628 2537 2537 2537 2537 2628 2537 2537 2830 2725 2830 2943 3199 3066 2537 1989 1887 1839 1672 1635 1599 1565 1565 1501 1565 1533 1471 1533 1501 1471 1443 1291 1268 1226 1168 1168 1168 1226 1338 1338 1388 1388 1415 1533 1565 1533 1599 1443 1415 1443 1443 1443 1362 1388 1362 1362 1362 1388 1268 1247 1247 0 0 994 0 0 0 0 0 0 0 0 0 0 0 0 0 0 0 0 0 574 570 0 593 557 541 533 507 497 497 487 481 477 0 593 608 618 634 645 639 645 669 766 799 808 0 675 681 687 634 618 570 566 584 598 603 541 545 545 533 533 545 541 533 533 525 525 0 0 0 459 440 440 443 443 448 443 0 0 0 0 0
    0 0 0 0 0 0 0 0 0 0 0 0 0 0 0 0 0 0 0 0 0 0 0 0 0 0 0 0 0 0 0 0 0 0 0 0 0 0 0 0 0 0 0 0 0 0 0 0 0 0 0 0 0 0 0 0 0 0 0 0 0 0 0 0 0 0 0 0 0 1936 1887 1887 1795 1795 1839 1795 1795 1839 1795 1839 1839 2102 2044 1989 2102 2164 2164 1936 1711 0 0 1443 1415 1672 1711 0 0 2943 2537 2830 2830 2943 2830 2830 2628 2537 2537 2628 2537 2374 2299 2299 2299 2299 2299 2374 2537 2537 2453 2830 3199 3199 3066 2725 2830 2628 2230 2725 2725 2374 2453 2537 2725 2537 2725 2725 2628 2628 2725 2453 2453 2537 2537 2725 2943 2628 2830 3066 3066 3066 2943 2830 2725 2725 2830 2628 2537 2453 2628 2725 2725 2537 2628 2628 2830 2830 2830 2628 2230 2374 0 2943 3066 2830 3066 3066 2230 2628 2537 2537 2628 2537 2628 2537 2453 2830 2725 2943 3066 3199 3199 2628 1989 0 1839 1635 1599 1599 1501 1565 1471 1533 1501 1471 1501 1501 1443 1443 1338 1338 1268 1226 1226 1291 1314 1362 1362 1388 1415 1443 1533 1565 1533 1599 1388 1415 1415 1415 1415 1338 1314 1291 1291 1314 1291 1115 994 0 0 0 0 545 541 0 566 0 0 0 500 500 493 497 493 0 0 0 0 0 557 549 561 561 545 541 537 525 518 514 518 511 490 484 566 598 603 608 613 613 623 675 845 845 826 721 694 694 700 669 623 593 584 608 608 603 0 545 545 533 529 537 537 529 529 521 521 507 0 0 457 438 438 443 438 443 438 0 0 0 0 0
    0 0 0 0 0 0 0 0 0 0 0 0 0 0 0 0 0 0 0 0 0 0 0 0 0 0 0 0 0 0 0 0 0 0 0 0 0 0 0 0 0 0 0 0 0 0 0 0 0 0 0 0 0 0 0 0 0 0 0 0 0 0 0 0 0 0 0 0 0 1887 1887 1887 1795 1795 1839 1839 1839 1887 1795 1795 1795 1936 1887 1839 1936 1887 1839 1752 1565 1338 1338 1338 1362 1415 1443 0 0 0 2230 2830 2830 2943 2830 2830 2725 2628 2537 2725 2453 2453 2374 2299 2230 2102 2164 2230 2374 2374 2164 2374 2830 3066 2943 2230 2537 2374 2164 2628 2628 2164 2102 2374 2725 2453 2628 2628 2537 2537 2628 2230 2164 2453 2453 2374 2537 2537 2830 3066 3199 3066 3066 2943 2943 2830 2830 2725 2628 2537 2628 2725 2725 2537 2628 2628 2725 2725 2725 2628 2164 2299 0 0 0 0 3504 3199 2164 2628 2453 2453 2537 2537 2628 2537 2453 2830 2537 2830 2943 0 3199 2628 1936 0 1795 1635 1599 1599 1501 1533 1471 1533 1501 1443 1471 1471 1443 1415 1362 1362 1291 1268 1268 1338 1338 1388 1415 1415 1443 1443 1501 1565 1533 1599 1388 1415 1415 1415 1388 1362 1291 1268 1268 1291 1066 943 808 687 561 0 553 537 537 525 533 525 504 493 493 504 500 500 490 511 497 493 511 525 545 537 545 545 541 541 545 541 541 533 541 537 525 0 603 608 613 629 634 629 651 0 897 876 855 0 0 0 0 700 663 623 608 0 613 613 549 549 545 529 533 533 537 529 529 518 514 500 484 462 451 435 432 438 432 435 430 0 0 0 0 0
    0 0 0 0 0 0 0 0 0 0 0 0 0 0 0 0 0 0 0 0 0 0 0 0 0 0 0 0 0 0 0 0 0 0 0 0 0 0 0 0 0 0 0 0 0 0 0 0 0 0 0 0 0 0 0 0 0 0 0 0 0 0 0 0 0 0 0 0 0 1887 1887 1887 1839 1839 1839 1839 1839 1887 1795 1752 1752 1839 1752 1711 1752 1711 1635 1565 1443 1338 1362 1314 1338 1338 0 0 0 1635 1839 2537 2725 2830 2725 2725 2628 2537 2537 2628 2374 2374 2374 2230 2230 1989 1989 2102 2299 2299 2230 2230 2725 2830 2943 2725 2628 2725 0 0 0 2102 1989 0 2725 2537 2628 2628 0 0 2537 0 0 0 2374 2299 2230 2230 2537 2943 3066 2943 2943 2830 2830 2830 2830 2725 2725 2628 2725 2725 2830 2628 2628 2628 2725 2628 2628 2628 2102 0 0 0 0 0 0 0 2164 2628 2453 2453 2537 2453 2537 2453 2299 0 0 0 0 0 0 2830 0 0 1795 1599 1599 1599 1501 1565 1443 1533 1533 1443 1471 1443 1415 1388 1362 1388 1314 1291 1291 1338 1338 1415 1443 1443 1443 1443 1471 1533 1533 1533 1362 1388 1388 1362 1362 1338 1291 1247 1226 1247 1008 855 750 681 0 593 557 541 541 529 521 507 493 484 484 493 493 493 487 500 487 484 490 493 0 537 537 533 529 529 529 521 525 507 493 487 481 0 618 629 651 681 681 675 694 865 908 919 897 897 886 855 897 836 0 687 639 639 639 629 603 570 553 537 537 537 537 529 525 504 493 487 468 446 438 432 425 427 427 430 425 0 0 0 0 0
    0 0 0 0 0 0 0 0 0 0 0 0 0 0 0 0 0 0 0 0 0 0 0 0 0 0 0 0 0 0 0 0 0 0 0 0 0 0 0 0 0 0 0 0 0 0 0 0 0 0 0 0 0 0 0 0 0 0 0 0 0 0 0 0 0 0 0 0 0 1887 1887 1839 1795 1795 1839 1839 1887 1936 1795 1711 1752 1795 1711 1672 1711 1635 1565 1533 1443 1388 1388 1314 1338 1338 1314 0 1362 1415 1635 1752 2725 2830 2725 2628 2628 2537 2453 2537 2374 2374 2299 2102 2164 1887 1887 1989 2299 2453 2374 2453 2628 2628 0 0 0 0 0 0 0 0 0 0 0 0 0 0 0 0 0 0 0 0 0 0 2374 1989 2230 2628 2725 2943 2943 2725 2943 2943 3199 0 2830 2830 2725 2725 2830 2374 2453 2453 2453 2453 2453 2537 0 0 0 0 0 0 0 0 0 0 2537 2537 2537 0 0 0 0 238 0 0 0 0 0 0 0 0 1711 1501 1501 1501 1443 1501 1443 1471 1501 1443 1471 1443 1415 1388 1362 1362 1314 1291 1291 1338 1362 1415 1443 1443 1443 1471 1471 1501 1501 1471 1362 1388 1362 1338 1314 1291 1247 1187 1168 0 0 826 707 639 613 598 570 549 549 537 521 514 497 0 529 518 493 490 0 497 481 481 484 477 0 549 553 541 0 533 0 518 533 497 474 484 481 481 0 681 707 721 721 714 728 865 908 955 943 908 897 855 897 0 0 681 639 639 629 623 598 570 553 537 537 529 518 504 497 484 477 459 443 435 432 425 420 420 422 427 425 0 0 0 0 0
    0 0 0 0 0 0 0 0 0 0 0 0 0 0 0 0 0 0 0 0 0 0 0 0 0 0 0 0 0 0 0 0 0 0 0 0 0 0 0 0 0 0 0 0 0 0 0 0 0 0 0 0 0 0 0 0 0 0 0 0 0 0 0 0 0 0 0 0 0 1839 1839 1795 1752 1795 1795 1795 1839 1887 1752 1711 1752 1752 1711 1672 1711 1635 1599 1565 1501 1443 1443 1338 1362 1362 1338 1338 1362 1388 1471 1533 1989 2299 2230 2102 2102 2102 1989 1936 0 0 0 0 0 0 0 0 0 0 0 0 0 0 0 0 0 0 0 0 0 0 0 0 0 0 0 0 0 0 0 0 0 0 0 0 0 0 0 0 0 0 0 0 2725 2628 2830 2725 2725 0 0 0 0 0 0 0 0 0 0 0 0 0 0 0 0 0 0 0 0 0 0 0 0 0 0 0 0 0 0 0 0 0 0 0 0 0 1599 1415 1415 1443 1388 1471 1415 1443 1471 1415 1443 1443 1415 1388 1362 1362 1314 1291 1291 1338 1362 1388 1443 1415 1443 1471 1471 1501 1471 1471 1338 1362 1338 1314 1291 1268 1206 1082 1082 1082 0 808 694 623 613 603 574 553 553 541 521 500 487 0 541 518 493 490 0 497 0 474 481 465 0 588 603 566 0 0 0 518 533 514 0 0 0 0 0 0 728 735 743 714 750 865 908 931 865 808 0 0 728 700 675 639 618 618 618 613 593 557 549 537 525 504 487 484 477 462 451 443 438 435 432 427 422 420 422 425 420 0 0 0 0 0
    0 0 0 0 0 0 0 0 0 0 0 0 0 0 0 0 0 0 0 0 0 0 0 0 0 0 0 0 0 0 0 0 0 0 0 0 0 0 0 0 0 0 0 0 0 0 0 0 0 0 0 0 0 0 0 0 0 0 0 0 0 0 0 0 0 0 0 0 0 1839 1839 1795 1795 1795 1795 1795 1795 1839 1752 1635 1711 1711 1672 1635 1672 1672 1599 1599 1533 1471 1443 1338 1362 1362 1338 1338 1362 1388 1443 1533 1752 1795 1795 1795 1752 1795 1795 0 0 0 0 0 0 0 0 0 0 0 0 0 0 0 0 0 0 0 0 0 0 0 0 0 0 0 0 0 0 0 0 0 0 0 0 0 0 0 0 0 0 0 0 0 0 0 0 0 0 0 0 0 0 0 0 0 0 0 0 0 0 0 0 0 0 0 0 0 0 0 0 0 0 0 0 0 0 0 0 0 0 0 0 0 0 0 1599 1443 1388 1415 1362 1443 1388 1443 1443 1415 1415 1443 1388 1362 1362 1362 1314 1291 1314 1338 1362 1415 1471 1443 1471 1471 1471 1471 1471 1443 1338 1338 1314 1291 1268 1247 1187 1036 1036 1036 886 782 687 618 613 603 579 553 553 541 521 490 481 0 0 0 0 537 0 557 557 603 593 618 598 588 0 561 0 608 598 0 0 0 0 0 0 0 0 0 0 817 855 826 845 865 908 908 845 721 694 694 700 694 681 669 651 651 669 687 603 557 549 529 504 484 477 471 462 454 448 443 438 435 432 427 418 415 418 420 418 0 0 0 0 0
    0 0 0 0 0 0 0 0 0 0 0 0 0 0 0 0 0 0 0 0 0 0 0 0 0 0 0 0 0 0 0 0 0 0 0 0 0 0 0 0 0 0 0 0 0 0 0 0 0 0 0 0 0 0 0 0 0 0 0 0 0 0 0 0 0 0 0 0 0 1839 1839 1795 1752 1795 1795 1752 1795 1795 1711 1635 1672 1672 1672 1635 1672 1635 1599 1599 1533 1471 1443 1338 1362 1362 1338 1338 1362 1388 1415 1533 1752 1752 1752 1795 1795 1752 1752 1711 0 0 0 0 0 0 0 0 0 0 0 0 0 0 0 0 0 0 0 0 0 0 0 0 0 0 0 0 0 0 0 0 0 0 0 0 0 0 0 0 0 0 0 0 0 0 0 0 0 0 0 0 0 0 0 0 0 0 0 0 0 0 0 0 0 0 0 0 0 0 0 0 0 0 0 0 0 0 0 0 0 0 0 0 0 1501 1635 1501 1388 1415 1362 1443 1388 1415 1443 1388 1415 1443 1388 1362 1362 1388 1314 1291 1338 1362 1388 1443 1443 1443 1471 1443 1443 1443 1443 1415 0 0 1291 1226 1226 1206 1115 1008 1008 994 855 0 681 613 613 603 579 553 557 541 529 0 0 0 603 613 618 618 608 588 570 598 593 623 618 613 0 0 0 0 0 0 0 0 0 0 0 0 0 0 0 0 0 886 897 886 865 845 750 687 669 681 681 675 657 634 629 639 669 681 603 541 533 504 493 477 471 465 454 451 446 443 438 435 432 425 415 411 413 415 413 0 0 0 0 0
    0 0 0 0 0 0 0 0 0 0 0 0 0 0 0 0 0 0 0 0 0 0 0 0 0 0 0 0 0 0 0 0 0 0 0 0 0 0 0 0 0 0 0 0 0 0 0 0 0 0 0 0 0 0 0 0 0 0 0 0 0 0 0 0 0 0 0 0 0 1795 1795 1752 1752 1795 1795 1711 1711 1752 1672 1599 1635 1635 1635 1599 1672 1635 1599 1565 1533 1471 1443 1338 1338 1362 1338 1338 1362 1388 1388 1471 1672 1752 1711 1752 1752 1752 1752 1711 0 0 0 0 0 0 0 0 0 0 0 0 0 0 0 0 0 0 0 0 0 0 0 0 0 0 0 0 0 0 0 0 0 0 0 0 0 0 0 0 0 0 0 0 0 0 0 0 0 0 0 0 0 0 0 0 0 0 0 0 0 0 0 0 0 0 0 0 0 0 0 0 0 0 0 0 0 0 0 0 0 0 0 0 0 1635 1711 1635 1533 1565 1443 1533 1443 1443 1471 1415 1415 1415 1362 1338 1362 1388 1338 1314 1362 1362 1388 1443 1443 1443 1443 1415 1415 1415 0 0 281 280 0 1168 1132 1168 1098 994 855 0 0 728 675 618 629 613 593 574 574 557 545 579 588 588 570 561 588 603 608 608 603 0 0 0 0 0 0 0 0 0 0 0 0 0 0 0 0 0 0 0 0 0 0 0 0 0 0 0 694 675 657 645 634 639 663 663 639 0 0 0 0 0 468 493 490 477 471 457 448 446 443 440 438 435 430 422 413 408 411 411 411 0 0 0 0 0
    0 0 0 0 0 0 0 0 0 0 0 0 0 0 0 0 0 0 0 0 0 0 0 0 0 0 0 0 0 0 0 0 0 0 0 0 0 0 0 0 0 0 0 0 0 0 0 0 0 0 0 0 0 0 0 0 0 0 0 0 0 0 0 0 0 0 0 0 0 1711 1752 1711 1711 1752 1752 1711 1711 1711 1635 1533 1599 1565 1599 1565 1635 1672 1565 1533 1471 1443 1415 1291 1314 1338 1314 1314 1338 1362 1338 1415 1635 1672 1635 1672 1752 1752 1752 1711 0 0 0 0 0 0 0 0 0 0 0 0 0 0 0 0 0 0 0 0 0 0 0 0 0 0 0 0 0 0 0 0 0 0 0 0 0 0 0 0 0 0 0 0 0 0 0 0 0 0 0 0 0 0 0 0 0 0 0 0 0 0 0 0 0 0 0 0 0 0 0 0 0 0 0 0 0 0 0 0 0 0 0 0 0 1752 1795 1795 1752 1752 1711 1672 1565 1501 1533 1443 1443 1415 1362 1314 1362 1388 1388 1362 1415 1388 1415 1471 1471 1443 1471 1443 1415 0 0 0 0 0 0 1115 1051 1115 1098 968 0 0 808 728 694 675 669 645 608 598 603 579 561 579 579 598 593 593 0 0 0 0 0 0 0 0 0 0 0 0 0 0 0 0 0 0 0 0 0 0 0 0 0 0 0 0 0 0 0 0 0 432 420 0 0 0 0 0 0 0 0 0 0 0 471 481 484 474 468 448 443 440 440 438 432 430 425 418 408 406 408 408 408 0 0 0 0 0
    0 0 0 0 0 0 0 0 0 0 0 0 0 0 0 0 0 0 0 0 0 0 0 0 0 0 0 0 0 0 0 0 0 0 0 0 0 0 0 0 0 0 0 0 0 0 0 0 0 0 0 0 0 0 0 0 0 0 0 0 0 0 0 0 0 0 0 0 0 1599 1635 1599 1635 1672 1672 1635 1635 1635 1533 1443 1533 1471 1501 1471 1533 1565 1501 1471 1388 1388 1362 1291 1314 1338 1314 1291 1338 1338 1314 1362 1501 1565 1471 1565 1672 1672 1711 1711 0 0 0 0 0 0 0 0 0 0 0 0 0 0 0 0 0 0 0 0 0 0 0 0 0 0 0 0 0 0 0 0 0 0 0 0 0 0 0 0 0 0 0 0 0 0 0 0 0 0 0 0 0 0 0 0 0 0 0 0 0 0 0 0 0 0 0 0 0 0 0 0 0 0 0 0 0 0 0 0 0 0 0 0 0 1839 1839 1887 1936 1936 1936 1936 1752 1565 1565 1443 1471 1388 1314 1291 1338 1362 1388 1362 1415 1362 1415 1443 1471 1443 1471 0 0 0 0 0 0 0 1115 1051 1008 1036 1082 931 0 0 0 0 0 694 675 645 598 561 593 584 584 588 0 0 0 0 0 0 0 0 0 0 0 0 0 0 0 0 0 0 0 0 0 0 0 0 507 497 493 490 493 493 487 484 484 457 432 415 411 406 408 406 415 0 0 0 438 468 487 484 481 471 459 462 474 474 465 446 440 438 435 427 425 422 420 413 408 406 408 408 408 0 0 0 0 0
    0 0 0 0 0 0 0 0 0 0 0 0 0 0 0 0 0 0 0 0 0 0 0 0 0 0 0 0 0 0 0 0 0 0 0 0 0 0 0 0 0 0 0 0 0 0 0 0 0 0 0 0 0 0 0 0 0 0 0 0 0 0 0 0 0 0 0 0 0 1471 1501 1501 1533 1599 1599 1565 1501 1533 1415 1388 1443 1388 1443 1388 1415 1471 1443 1415 1362 1362 1362 1291 1291 1338 1291 1268 1314 1338 1268 1314 1388 1501 1415 1443 1599 1599 1635 1672 0 0 0 0 0 0 0 0 0 0 0 0 0 0 0 0 0 0 0 0 0 0 0 0 0 0 0 0 0 0 0 0 0 0 0 0 0 0 0 0 0 0 0 0 0 0 0 0 0 0 0 0 0 0 0 0 0 0 0 0 0 0 0 0 0 0 0 0 0 0 0 0 0 0 0 0 0 0 0 0 0 0 0 0 0 1839 1795 1839 1887 1887 1887 1936 1839 1599 1635 1635 1672 1443 1314 1247 1314 1338 1362 1338 1388 1338 1388 1415 1415 1443 0 0 0 0 0 0 0 0 0 968 0 0 0 0 0 541 533 529 533 533 0 603 574 553 0 0 0 0 0 0 0 0 0 0 0 0 0 0 0 0 0 0 0 0 0 0 0 0 0 0 0 490 507 497 493 490 493 493 487 484 481 454 430 411 404 399 399 397 397 402 0 427 432 446 477 477 477 471 459 462 477 471 462 443 435 430 425 422 420 418 415 411 408 408 408 408 408 0 0 0 0 0
    0 0 0 0 0 0 0 0 0 0 0 0 0 0 0 0 0 0 0 0 0 0 0 0 0 0 0 0 0 0 0 0 0 0 0 0 0 0 0 0 0 0 0 0 0 0 0 0 0 0 0 0 0 0 0 0 0 0 0 0 0 0 0 0 0 0 0 0 0 1415 1415 1415 1443 1471 1471 1415 1362 0 0 1291 1338 1291 1338 1314 1314 1388 1388 1362 1314 1338 1338 1268 1268 1314 1268 1226 1291 1314 1247 1268 1338 1471 1388 1415 1565 1565 1635 1672 0 0 0 0 0 0 0 0 0 0 0 0 0 0 0 0 0 0 0 0 0 0 0 0 0 0 0 0 0 0 0 0 0 0 0 0 0 0 0 0 0 0 0 0 0 0 0 0 0 0 0 0 0 0 0 0 0 0 0 0 0 0 0 0 0 0 0 0 0 0 0 0 0 0 0 0 0 0 0 0 0 0 0 0 0 1839 1795 1839 1839 1887 1839 1887 1839 1599 0 2537 2102 1752 1291 1098 1268 1291 1338 1338 1362 1314 1362 1388 1388 0 0 0 0 0 0 0 0 728 0 0 0 553 0 0 629 584 553 533 533 529 525 0 0 0 0 0 0 0 0 0 0 0 0 0 0 0 0 0 0 0 0 0 0 0 0 0 0 0 0 268 0 471 497 493 490 490 493 490 484 481 471 443 406 402 402 395 395 393 395 397 399 415 427 440 468 474 471 468 462 465 477 471 451 435 427 422 420 418 413 413 411 411 408 406 408 408 411 0 0 0 0 0
    0 0 0 0 0 0 0 0 0 0 0 0 0 0 0 0 0 0 0 0 0 0 0 0 0 0 0 0 0 0 0 0 0 0 0 0 0 0 0 0 0 0 0 0 0 0 0 0 0 0 0 0 0 0 0 0 0 0 0 0 0 0 0 0 0 0 0 0 0 1362 1362 1338 1388 1362 1338 1338 1268 0 1187 1168 1206 1187 1226 1226 1206 1291 1314 1314 1268 1291 1268 1226 1247 0 1268 1226 1291 1314 1247 1291 1362 1443 1362 1388 1565 1565 1635 1672 0 0 0 0 0 0 0 0 0 0 0 0 0 0 0 0 0 0 0 0 0 0 0 0 0 0 0 0 0 0 0 0 0 0 0 0 0 0 0 0 0 0 0 0 0 0 0 0 0 0 0 0 0 0 0 0 0 0 0 0 0 0 0 0 0 0 0 0 0 0 0 0 0 0 0 0 0 0 0 0 0 0 0 0 0 1887 1887 1887 1936 1989 1936 2299 2230 0 2374 2537 2102 1752 1291 1247 1314 1362 1388 1362 1362 1338 1388 1415 1388 0 0 0 0 0 0 0 0 0 0 629 593 553 537 533 561 541 529 521 0 0 0 0 0 0 0 0 0 0 0 0 0 0 0 0 0 0 0 0 0 0 0 0 0 0 0 427 0 0 0 0 462 465 490 487 484 487 490 487 481 474 465 440 413 406 402 395 393 391 393 395 397 408 422 438 459 468 468 465 462 468 471 457 443 430 420 415 413 411 408 408 408 408 406 406 408 408 411 0 0 0 0 0
    0 0 0 0 0 0 0 0 0 0 0 0 0 0 0 0 0 0 0 0 0 0 0 0 0 0 0 0 0 0 0 0 0 0 0 0 0 0 0 0 0 0 0 0 0 0 0 0 0 0 0 0 0 0 0 0 0 0 0 0 0 0 0 0 0 0 0 0 0 1314 0 0 1314 1268 1268 1226 1149 1082 1098 1082 1098 1115 1149 1149 1115 1187 1268 1247 1226 1226 1226 1168 1187 0 0 0 0 0 1187 1149 1362 1415 1314 1338 1471 1471 1565 0 0 0 0 0 0 0 0 0 0 0 0 0 0 0 0 0 0 0 0 0 0 0 0 0 0 0 0 0 0 0 0 0 0 0 0 0 0 0 0 0 0 0 0 0 0 0 0 0 0 0 0 0 0 0 0 0 0 0 0 0 0 0 0 0 0 0 0 0 0 0 0 0 0 0 0 0 0 0 0 0 0 0 0 0 0 1989 1936 1989 2044 2044 2044 2453 2230 0 2374 2537 2102 1752 1291 1338 1388 1415 1471 1388 1388 1338 1415 1443 0 0 0 0 0 0 0 0 613 603 598 593 584 549 537 529 529 521 514 0 0 0 0 0 0 0 0 0 0 0 0 0 0 0 0 0 0 0 0 0 0 0 0 0 0 0 0 427 0 446 446 448 459 454 484 484 481 484 484 484 471 462 459 440 404 402 399 393 391 389 391 395 397 408 422 438 457 468 465 462 457 457 454 446 435 422 408 406 404 404 404 404 406 404 404 406 408 411 413 0 0 0 0 0
    0 0 0 0 0 0 0 0 0 0 0 0 0 0 0 0 0 0 0 0 0 0 0 0 0 0 0 0 0 0 0 0 0 0 0 0 0 0 0 0 0 0 0 0 0 0 0 0 0 0 0 0 0 0 0 0 0 0 0 0 0 0 0 0 0 0 0 0 0 1226 0 0 0 1115 1115 1098 1066 1036 1051 1036 1051 1082 1082 1066 1051 1082 1187 1149 1168 1168 1168 1132 0 0 0 0 0 0 1187 1115 0 1362 1187 1008 0 0 0 0 0 0 0 0 0 0 0 0 0 0 0 0 0 0 0 0 0 0 0 0 0 0 0 0 0 0 0 0 0 0 0 0 0 0 0 0 0 0 0 0 0 0 0 0 0 0 0 0 0 0 0 0 0 0 0 0 0 0 0 0 0 0 0 0 0 0 0 0 0 0 0 0 0 0 0 0 0 0 0 0 0 0 0 0 0 0 1936 1936 2044 2044 2044 2299 2230 0 2374 2537 2299 1887 1565 1501 1565 1471 1471 1415 1362 1314 0 0 0 0 0 0 0 0 0 598 593 588 588 574 570 541 529 521 507 514 511 511 518 514 514 518 0 0 0 0 0 0 0 0 0 0 0 0 0 0 0 0 0 0 0 0 0 0 0 427 0 448 448 454 468 462 484 484 481 484 484 484 471 459 457 0 399 399 397 393 391 389 393 395 399 408 422 438 457 465 465 457 448 448 448 440 430 411 404 402 402 402 402 402 402 404 406 406 408 411 413 0 0 0 0 0
    0 0 0 0 0 0 0 0 0 0 0 0 0 0 0 0 0 0 0 0 0 0 0 0 0 0 0 0 0 0 0 0 0 0 0 0 0 0 0 0 0 0 0 0 0 0 0 0 0 0 0 0 0 0 0 0 0 0 0 0 0 0 0 0 0 0 0 0 0 0 0 0 0 1066 1082 1066 1051 1022 1036 1022 1036 1051 1066 1051 1036 1051 1149 1115 1149 1149 1168 1132 0 0 0 0 0 1291 1226 1206 1314 1338 1206 1051 0 0 0 0 0 0 0 0 0 0 0 0 0 0 0 0 0 0 0 0 0 0 0 0 0 0 0 0 0 0 0 0 0 0 0 0 0 0 0 0 0 0 0 0 0 0 0 0 0 0 0 0 0 0 0 0 0 0 0 0 0 0 0 0 0 0 0 0 0 0 0 0 0 0 0 0 0 0 0 0 0 0 0 0 0 0 0 0 0 0 0 1989 2102 2102 2102 2164 2230 0 0 0 0 2537 2164 1887 1635 1415 1388 1362 1291 1115 0 0 0 0 0 0 0 0 584 584 579 574 574 557 566 541 529 525 507 511 511 507 514 514 511 518 507 525 0 0 0 0 0 0 0 0 0 0 0 0 0 0 0 0 0 0 0 0 0 427 0 448 448 454 468 462 484 484 481 484 484 484 471 459 457 0 399 399 397 393 391 389 395 395 399 406 420 435 457 462 462 457 448 448 446 440 430 413 404 402 402 404 402 404 404 406 406 406 411 411 413 0 0 0 0 0
    0 0 0 0 0 0 0 0 0 0 0 0 0 0 0 0 0 0 0 0 0 0 0 0 0 0 0 0 0 0 0 0 0 0 0 0 0 0 0 0 0 0 0 0 0 0 0 0 0 0 0 0 0 0 0 0 0 0 0 0 0 0 0 0 0 0 0 0 0 0 0 0 1066 1036 1036 1036 1036 1008 1022 1008 1008 1036 1036 1036 1022 1036 1149 1098 1168 1168 1168 1149 0 1226 1168 1082 0 1115 1066 1066 1051 1168 0 0 0 0 0 0 0 0 0 0 0 0 0 0 0 0 0 0 0 0 0 0 0 0 0 0 0 0 0 0 0 0 0 0 0 0 0 0 0 0 0 0 0 0 0 0 0 0 0 0 0 0 0 0 0 0 0 0 0 0 0 0 0 0 0 0 0 0 0 0 0 0 0 0 0 0 0 0 0 0 0 0 0 0 0 0 0 0 0 0 0 0 0 0 0 2537 2374 2230 2102 0 0 0 0 0 2628 1936 1443 0 0 0 0 0 0 0 0 0 598 579 593 584 579 579 579 574 570 557 561 537 525 525 511 507 507 507 514 514 507 518 504 521 497 493 0 0 0 0 0 0 0 0 0 0 0 0 0 0 0 0 0 0 0 427 0 448 451 454 468 462 484 484 481 484 484 484 471 459 457 0 399 399 397 391 387 389 395 397 402 430 438 448 465 465 465 462 451 446 438 432 422 408 406 404 404 404 404 406 406 406 406 408 411 413 415 0 0 0 0 0
    0 0 0 0 0 0 0 0 0 0 0 0 0 0 0 0 0 0 0 0 0 0 0 0 0 0 0 0 0 0 0 0 0 0 0 0 0 0 0 0 0 0 0 0 0 0 0 0 0 0 0 0 0 0 0 0 0 0 0 0 0 0 0 0 0 0 0 0 0 0 0 0 1051 1022 1051 1051 1036 0 1022 1008 1022 1036 1036 1036 1022 1051 1149 1132 1168 1168 1149 1149 1168 1206 1149 1036 0 1066 1051 1066 0 0 0 0 0 0 0 0 0 0 0 0 0 0 0 0 0 0 0 0 0 0 0 0 0 0 0 0 0 0 0 0 0 0 0 0 0 0 0 0 0 0 0 0 0 0 0 0 0 0 0 0 0 0 0 0 0 0 0 0 0 0 0 0 0 0 0 0 0 0 0 0 0 0 0 0 0 0 0 0 0 0 0 0 0 0 0 0 0 0 0 0 0 0 0 0 0 0 0 0 0 0 0 2453 2628 0 2537 1887 1362 0 0 0 0 0 639 629 618 608 603 584 593 588 579 579 574 574 566 553 557 537 525 525 507 504 507 507 514 514 504 514 497 511 500 487 487 484 0 0 0 0 0 0 0 0 0 0 0 0 0 0 0 0 0 427 0 451 451 454 465 459 477 481 474 474 474 471 454 443 0 0 395 393 393 387 383 387 397 0 0 462 462 477 474 465 462 457 443 438 430 422 408 406 406 404 404 404 406 406 408 408 408 411 413 413 418 0 0 0 0 0
    0 0 0 0 0 0 0 0 0 0 0 0 0 0 0 0 0 0 0 0 0 0 0 0 0 0 0 0 0 0 0 0 0 0 0 0 0 0 0 0 0 0 0 0 0 0 0 0 0 0 0 0 0 0 0 0 0 0 0 0 0 0 0 0 0 0 0 0 0 225 0 0 1008 981 1008 1022 1008 0 1008 1008 1022 1022 1036 1036 1008 1022 1082 1036 1066 1082 1098 1066 1051 1098 1022 0 700 0 0 0 0 0 0 0 0 0 0 0 0 0 0 0 0 0 0 0 0 0 0 0 0 0 0 0 0 0 0 0 0 0 0 0 0 0 0 0 0 0 0 0 0 0 0 0 0 0 0 0 0 0 0 0 0 0 0 0 0 0 0 0 0 0 0 0 0 0 0 0 0 0 0 0 0 0 0 0 0 0 0 0 0 0 0 0 0 0 0 0 0 0 0 0 0 0 0 0 0 0 0 0 0 0 0 0 0 0 0 0 0 0 0 0 0 0 623 623 613 608 598 584 593 584 579 574 570 570 561 549 557 537 521 525 507 504 504 504 507 511 504 514 493 504 493 487 487 490 477 474 468 0 0 0 0 0 0 0 0 0 0 0 0 0 408 430 0 448 448 451 459 454 465 474 468 471 462 454 0 0 0 0 377 389 389 381 377 381 0 0 497 493 504 497 490 477 477 468 448 438 422 408 404 406 406 404 404 406 406 406 408 408 408 411 413 415 418 0 0 0 0 0
    0 0 0 0 0 0 0 0 0 0 0 0 0 0 0 0 0 0 0 0 0 0 0 0 0 0 0 0 0 0 0 0 0 0 0 0 0 0 0 0 0 0 0 0 0 0 0 0 0 0 0 0 0 0 0 0 0 0 0 0 0 0 0 0 0 0 0 0 0 0 0 943 994 981 981 1022 1008 994 1008 1008 1008 994 1008 1008 981 968 981 955 968 943 0 791 700 687 0 0 0 0 0 0 0 0 0 0 0 0 0 0 0 0 0 0 0 0 0 0 0 0 0 0 0 0 0 0 0 0 0 0 0 0 0 0 0 0 0 0 0 0 0 0 0 0 0 0 0 0 0 0 0 0 0 0 0 0 0 0 0 0 0 0 0 0 0 0 0 0 0 0 0 0 0 0 0 0 0 0 0 0 0 0 0 0 0 0 0 0 0 0 0 0 0 0 0 0 0 0 0 0 0 0 0 0 0 0 0 0 0 0 0 0 0 0 0 0 613 618 613 608 598 579 593 584 574 574 570 566 557 545 553 537 518 525 504 504 504 500 504 507 500 511 493 504 497 490 493 500 487 481 468 471 471 0 0 371 0 0 0 0 0 0 0 0 415 432 440 454 451 451 454 448 446 448 446 438 404 395 387 373 379 377 379 379 373 371 375 0 545 537 537 541 545 537 533 525 497 474 443 425 408 402 404 406 406 404 402 404 406 406 408 408 408 411 413 415 418 0 0 0 0 0
    0 0 0 0 0 0 0 0 0 0 0 0 0 0 0 0 0 0 0 0 0 0 0 0 0 0 0 0 0 0 0 0 0 0 0 0 0 0 0 0 0 0 0 0 0 0 0 0 0 0 0 0 0 0 0 0 0 0 0 0 0 0 0 0 0 0 0 0 0 0 0 886 994 968 981 1036 1022 0 1022 1036 1008 1008 1008 1022 981 955 994 968 994 968 876 0 0 0 0 0 0 0 0 0 0 0 0 0 0 0 0 0 0 0 0 0 0 0 0 0 0 0 0 0 0 0 0 0 0 0 0 0 0 0 0 0 0 0 0 0 0 0 0 0 0 0 0 0 0 0 0 0 0 0 0 0 0 0 0 0 0 0 0 0 0 0 0 0 0 0 0 0 0 0 0 0 0 0 0 0 0 0 0 0 0 0 0 0 0 0 0 0 0 0 0 0 0 0 0 0 0 0 0 0 0 0 0 0 0 0 0 0 0 0 0 0 0 0 613 608 608 598 588 574 584 579 566 566 561 557 549 541 541 529 511 521 500 500 500 497 497 500 497 507 493 500 493 490 493 507 481 474 459 457 0 427 393 381 395 395 0 0 0 0 0 0 0 0 0 474 474 471 465 454 448 446 0 0 0 389 381 383 377 377 0 0 0 0 0 557 557 557 566 566 557 549 545 549 521 477 435 406 402 402 404 404 404 404 402 404 406 406 408 408 408 411 413 415 418 0 0 0 0 0
    0 0 0 0 0 0 0 0 0 0 0 0 0 0 0 0 0 0 0 0 0 0 0 0 0 0 0 0 0 0 0 0 0 0 0 0 0 0 0 0 0 0 0 0 0 0 0 0 0 0 0 0 0 0 0 0 0 0 0 0 0 0 0 0 0 0 0 0 0 0 0 865 919 886 955 1022 1008 360 357 1051 1008 1008 1036 994 931 0 0 0 0 0 0 0 0 0 0 0 0 0 0 0 0 0 0 0 0 0 0 0 0 0 0 0 0 0 0 0 0 0 0 0 0 0 0 0 0 0 0 0 0 0 0 0 0 0 0 0 0 0 0 0 0 0 0 0 0 0 0 0 0 0 0 0 0 0 0 0 0 0 0 0 0 0 0 0 0 0 0 0 0 0 0 0 0 0 0 0 0 0 0 0 0 0 0 0 0 0 0 0 0 0 0 0 0 0 0 0 0 0 0 0 0 0 0 0 0 0 0 0 0 0 0 0 0 608 613 603 603 588 584 570 579 570 557 557 557 549 541 533 533 525 504 518 500 497 497 493 493 497 493 504 490 493 497 497 497 514 484 477 465 462 0 0 397 389 383 389 393 0 0 0 0 0 0 0 0 500 493 484 474 459 0 0 0 0 379 369 362 366 366 0 0 694 0 608 593 598 598 598 598 593 574 579 588 593 533 0 427 402 402 404 406 406 406 404 404 406 406 408 411 408 411 413 413 418 418 0 0 0 0 0
    0 0 0 0 0 0 0 0 0 0 0 0 0 0 0 0 0 0 0 0 0 0 0 0 0 0 0 0 0 0 0 0 0 0 0 0 0 0 0 0 0 0 0 0 0 0 0 0 0 0 0 0 0 0 0 0 0 0 0 0 0 0 0 0 0 0 0 0 0 430 0 855 876 855 865 845 808 0 0 0 0 0 0 0 0 0 0 0 0 0 0 0 0 0 0 0 0 0 0 0 0 0 0 0 0 0 0 0 0 0 0 0 0 0 0 0 0 0 0 0 0 0 0 0 0 0 0 0 0 0 0 0 0 0 0 0 0 0 0 0 0 0 0 0 0 0 0 0 0 0 0 0 0 0 0 0 0 0 0 0 0 0 0 0 0 0 0 0 0 0 0 0 0 0 0 0 0 0 0 0 0 0 0 0 0 0 0 0 0 0 0 0 0 0 0 0 0 0 0 0 0 0 0 0 0 0 0 0 0 0 0 0 0 613 618 603 603 588 584 570 579 570 553 553 549 541 537 529 529 518 504 518 500 497 497 493 490 497 497 504 490 493 497 497 497 514 487 477 468 465 471 446 420 395 389 385 383 518 518 521 521 518 507 507 511 490 493 490 490 487 490 493 490 0 955 943 897 931 886 836 743 728 700 639 613 613 608 608 613 608 593 598 608 598 529 0 420 404 402 408 420 415 411 408 408 408 411 411 411 411 411 413 415 418 418 0 0 0 0 0
    0 0 0 0 0 0 0 0 0 0 0 0 0 0 0 0 0 0 0 0 0 0 0 0 0 0 0 0 0 0 0 0 0 0 0 0 0 0 0 0 0 0 0 0 0 0 0 0 0 0 0 0 0 0 0 0 0 0 0 0 0 0 0 0 0 0 0 0 0 0 0 0 0 0 0 0 0 0 0 0 0 0 0 0 0 0 0 0 0 0 0 0 0 0 0 0 0 0 0 0 0 0 0 0 0 0 0 0 0 0 0 0 0 0 0 0 0 0 0 0 0 0 0 0 0 0 0 0 0 0 0 0 0 0 0 0 0 0 0 0 0 0 0 0 0 0 0 0 0 0 0 0 0 0 0 0 0 0 0 0 0 0 0 0 0 0 0 0 0 0 0 0 0 0 0 0 0 0 0 0 0 0 0 0 0 0 0 0 0 0 0 0 0 0 0 0 0 0 0 0 0 0 0 0 0 0 0 0 0 0 0 0 0 608 603 588 593 584 579 570 574 566 549 549 541 533 529 525 521 511 500 511 497 493 493 490 490 493 493 497 487 490 490 490 490 497 481 477 468 468 468 457 435 404 0 399 0 504 497 511 518 511 504 504 521 487 0 0 0 0 0 0 0 634 0 0 0 0 876 845 758 735 707 657 629 623 618 618 623 623 593 603 669 687 598 529 0 399 387 413 438 422 418 415 411 411 413 413 413 411 413 415 415 418 420 0 0 0 0 0
    0 0 0 0 0 0 0 0 0 0 0 0 0 0 0 0 0 0 0 0 0 0 0 0 0 0 0 0 0 0 0 0 0 0 0 0 0 0 0 0 0 0 0 0 0 0 0 0 0 0 0 0 0 0 0 0 0 0 0 0 0 0 0 0 0 0 0 0 0 0 0 0 0 0 0 0 0 0 0 0 0 0 0 0 0 0 0 0 0 0 0 0 0 0 0 0 0 0 0 0 0 0 0 0 0 0 0 0 0 0 0 0 0 0 0 0 0 0 0 0 0 0 0 0 0 0 0 0 0 0 0 0 0 0 0 0 0 0 0 0 0 0 0 0 0 0 0 0 0 0 0 0 0 0 0 0 0 0 0 0 0 0 0 0 0 0 0 0 0 0 0 0 0 0 0 0 0 0 0 0 0 0 0 0 0 0 0 0 0 0 0 0 0 0 0 0 0 0 0 0 0 0 0 0 0 0 0 0 0 0 0 0 0 603 588 584 584 579 570 566 566 557 545 541 533 525 525 518 514 504 500 504 497 490 490 487 487 490 490 490 484 484 487 487 487 487 474 471 459 457 459 448 440 435 443 438 448 484 484 490 497 493 490 490 490 487 0 0 0 0 0 420 422 0 163 0 0 0 0 855 817 774 714 0 0 0 0 623 623 634 593 613 669 687 598 529 0 438 422 420 427 420 418 413 411 411 413 413 413 413 413 415 415 418 420 0 0 0 0 0
    0 0 0 0 0 0 0 0 0 0 0 0 0 0 0 0 0 0 0 0 0 0 0 0 0 0 0 0 0 0 0 0 0 0 0 0 0 0 0 0 0 0 0 0 0 0 0 0 0 0 0 0 0 0 0 0 0 0 0 0 0 0 0 0 0 0 0 0 0 0 0 0 0 0 0 0 0 0 0 0 0 0 0 0 0 0 0 0 0 0 0 0 0 0 0 0 0 0 0 0 0 0 0 0 0 0 0 0 0 0 0 0 0 0 0 0 0 0 0 0 0 0 0 0 0 0 0 0 0 0 0 0 0 0 0 0 0 0 0 0 0 0 0 0 0 0 0 0 0 0 0 0 0 0 0 0 0 0 0 0 0 0 0 0 0 0 0 0 0 0 0 0 0 0 0 0 0 0 0 0 0 0 0 0 0 0 0 0 0 0 0 0 0 0 0 0 0 0 0 0 0 0 0 0 0 0 0 0 0 0 0 0 0 598 574 579 574 574 566 561 561 553 541 537 529 518 518 511 507 497 497 500 493 490 490 484 487 490 490 490 484 481 484 484 484 481 471 465 454 451 454 446 440 443 448 451 448 477 477 481 484 484 481 481 477 481 477 474 465 425 406 420 415 0 162 159 629 0 0 897 855 817 0 0 0 0 0 0 584 0 593 613 675 687 598 529 0 438 413 418 422 420 415 413 411 411 413 413 413 413 413 415 415 418 420 0 0 0 0 0
    0 0 0 0 0 0 0 0 0 0 0 0 0 0 0 0 0 0 0 0 0 0 0 0 0 0 0 0 0 0 0 0 0 0 0 0 0 0 0 0 0 0 0 0 0 0 0 0 0 0 0 0 0 0 0 0 0 0 0 0 0 0 0 0 0 0 0 0 0 0 0 0 0 0 0 0 0 0 0 0 0 0 0 0 0 0 0 0 0 0 0 0 0 0 0 0 0 0 0 0 0 0 0 0 0 0 0 0 0 0 0 0 0 0 0 0 0 0 0 0 0 0 0 0 0 0 0 0 0 0 0 0 0 0 0 0 0 0 0 0 0 0 0 0 0 0 0 0 0 0 0 0 0 0 0 0 0 0 0 0 0 0 0 0 0 0 0 0 0 0 0 0 0 0 0 0 0 0 0 0 0 0 0 0 0 0 0 0 0 0 0 0 0 0 0 0 0 0 0 0 0 0 0 0 0 0 0 0 0 0 0 0 566 579 566 570 570 566 561 561 557 545 537 533 521 514 511 507 504 493 497 497 493 487 487 481 484 487 487 484 481 477 481 481 481 481 468 465 451 451 454 446 440 443 448 457 446 471 471 474 481 481 477 477 474 481 474 465 451 432 427 430 427 427 0 0 0 0 0 968 955 0 468 457 443 0 0 0 0 608 603 613 0 0 0 0 474 438 402 413 422 420 415 413 413 413 413 413 413 413 415 415 418 420 420 0 0 0 0 0</data></depth>
</opencv_storage>
