<?xml version="1.0"?>
<opencv_storage>
<gps_time_stamp>289572</gps_time_stamp>
<gps_x>-1.2363491058349609e+001</gps_x>
<gps_y>1.1133501052856445e+001</gps_y>
<gps_z>-2.2398753166198730e+000</gps_z>
<image_time_stamp>280457</image_time_stamp>
<depth type_id="opencv-matrix">
  <rows>83</rows>
  <cols>320</cols>
  <dt>s</dt>
  <data>
    0 0 0 0 0 0 0 0 0 0 0 0 0 0 0 0 0 0 0 0 0 0 0 0 0 0 0 0 0 0 0 0 0 0 0 0 0 0 0 0 0 0 0 0 0 0 0 0 0 0 0 0 0 0 0 0 0 0 0 0 0 0 0 0 0 0 0 0 0 0 0 0 0 0 0 0 0 0 0 0 0 0 0 0 0 0 0 1501 1533 1533 1501 1471 1501 1388 0 0 0 0 0 0 0 0 0 0 1415 0 0 0 0 0 0 0 0 0 1098 1051 1066 0 0 1066 1168 1149 1098 1082 1098 1082 1098 1115 1187 0 1132 0 0 0 0 0 1187 0 0 1291 0 0 0 1206 1226 1149 1149 1168 1149 1149 1168 1149 1206 1206 1247 1247 1268 1291 1291 1247 0 0 1168 1168 1115 1115 1115 1098 1082 1066 1082 1098 1132 1149 1168 1168 1132 1187 1168 1098 1098 0 0 1051 0 1168 1132 1206 1206 1187 1149 1187 1168 1149 1168 1098 1115 1115 1115 1115 1115 1115 1098 1115 1149 1132 1098 1082 1082 1115 1098 1098 1098 1115 1115 1115 1149 1149 1082 1115 1149 1082 1082 1082 1132 1132 1168 1187 1149 1098 1115 1051 1066 1036 1036 1051 1051 1066 1115 1098 1149 1149 1206 1187 1187 1187 1115 1082 1082 1066 1008 1022 1022 955 981 981 981 981 981 994 1008 1008 1082 1066 1098 1082 1082 1098 1187 0 0 0 0 0 0 0 0 0 0 0 0 0 0 0 0 0 0 0 0 0 0 0 0 0 0 0 0 0 0 0 0 0 0 0 0 0 0 0 0 0 0 0 0 0 0 0 0 0 0 0
    0 0 0 0 0 0 0 0 0 0 0 0 0 0 0 0 0 0 0 0 0 0 0 0 0 0 0 0 0 0 0 0 0 0 0 0 0 0 0 0 0 0 0 0 0 0 0 0 0 0 0 0 0 0 0 0 0 0 0 0 0 0 0 0 0 0 0 0 0 0 0 0 0 0 0 0 0 0 0 0 0 0 0 0 0 0 0 0 0 1501 1471 1443 1471 1388 0 0 0 0 0 0 1471 0 0 0 1415 0 0 0 0 0 1187 1149 1115 0 1132 1082 1168 1098 1115 0 1115 1115 1098 1082 1082 1082 1098 1098 1168 1115 1115 0 1098 0 0 1115 1066 0 0 0 0 0 0 0 0 1168 1168 1187 1168 1168 1187 1168 1226 1247 1268 1268 1291 0 0 1226 0 1187 1168 1149 1115 1115 1132 1115 1115 1082 1098 1082 1115 1149 1149 1132 1098 1115 1115 1082 1098 0 0 1036 1066 1132 1115 1187 1206 1168 1132 1187 1187 1149 1168 1115 1115 1132 1115 1132 1115 1115 1115 1115 1149 1132 1098 1082 1082 1115 1115 1098 1098 1115 1115 1132 1149 1168 1098 1132 1168 1115 1098 1098 1132 1132 1132 1149 1132 1082 1098 1036 1051 1036 1036 1051 1051 1082 1132 1115 1149 1187 1226 1206 1187 1226 1115 1082 1066 1036 994 1008 1022 968 994 994 994 994 994 1008 1022 1022 1115 1082 1115 1082 1082 1098 1206 0 0 0 1187 0 0 0 0 0 0 0 0 0 0 0 0 0 0 0 0 0 0 0 0 0 0 0 0 0 0 0 0 0 0 0 0 0 0 0 0 0 0 0 0 0 0 0 0 0 0 0
    0 0 0 0 0 0 0 0 0 0 0 0 0 0 0 0 0 0 0 0 0 0 0 0 0 0 0 0 0 0 0 0 0 0 0 0 0 0 0 0 0 0 0 0 0 0 0 0 0 0 0 0 0 0 0 0 0 0 0 0 0 0 0 0 0 0 0 0 0 0 0 0 1362 0 0 1314 0 0 1338 1338 0 0 0 0 0 0 0 0 0 1443 1443 1415 1443 1388 0 0 0 0 0 0 1443 0 0 0 0 0 0 0 0 0 1168 1168 1149 1149 1168 1149 1226 0 1149 0 1115 1115 1098 1098 1098 1082 1115 1115 1187 0 1132 1115 1115 0 0 1098 1036 0 0 0 0 1268 1338 0 0 1206 1168 1187 1187 1168 1187 1168 1226 1226 1247 1247 1268 1268 1247 1226 0 1187 1168 1168 1132 1149 1149 1168 1168 1132 1149 1132 1149 1187 1168 1168 1115 1132 1115 1098 1098 1098 1082 1051 1066 1098 1115 1168 1187 1168 1132 1206 1187 1168 1168 1115 1098 1132 1115 1132 1115 1115 1115 1115 1132 1149 1098 1098 1098 1115 1115 1115 1115 1132 1132 1132 1149 1168 1098 1115 1187 1149 1098 1115 1115 1098 1098 1098 1098 1066 1082 1036 1051 1036 1051 1082 1082 1115 1187 1149 1168 1187 1226 1187 1168 1187 1082 1036 1051 1008 994 994 1008 955 994 994 994 994 994 1008 1036 1036 1149 1098 1115 1098 1098 1115 1226 0 0 0 0 0 0 0 0 0 0 0 0 0 0 0 0 0 0 0 0 0 0 0 0 0 0 0 0 0 0 0 0 0 0 0 0 0 0 0 0 0 0 0 0 0 0 0 0 0 0 0
    0 0 0 0 0 0 0 0 0 0 0 0 0 0 0 0 0 0 0 0 0 0 0 0 0 0 0 0 0 0 0 0 0 0 0 0 0 0 0 0 0 0 0 0 0 0 0 0 0 0 0 0 0 0 0 0 0 0 0 0 0 0 0 0 0 0 0 0 0 0 0 1415 1362 1362 0 1338 1338 1388 1362 1362 1338 0 0 0 0 0 0 0 0 1415 0 0 1415 1388 0 0 0 0 0 0 0 0 0 0 0 0 0 0 0 0 1168 1187 1168 1168 1206 1206 1226 1187 1168 1149 1132 1149 1132 1115 1132 1115 1149 1168 1226 0 1168 1168 1149 0 1168 1149 1066 1115 1098 1149 1206 1226 1268 1187 0 1168 1132 1168 1149 1149 1168 1149 1206 1206 1226 1226 1226 1226 1226 1206 1226 1187 1187 1187 1149 1149 1168 1187 1187 1149 1149 1149 1149 1187 1168 1168 1132 1132 1115 1098 1098 1098 1066 1051 1051 1066 1082 1132 1149 1168 1132 1206 1187 1168 1168 1115 1098 1132 1132 1132 1132 1115 1115 1132 1149 1168 1098 1098 1098 1132 1149 1115 1132 1149 1132 1149 1168 1168 1115 1132 1187 1168 1098 1098 1066 1066 1036 1051 1051 1036 1051 1036 1051 1051 1051 1098 1098 1132 1206 1149 1168 1187 1226 1187 1132 1132 1051 0 1022 1008 994 981 994 955 994 994 994 994 994 1008 1036 1036 1168 1098 1115 1098 1098 1149 1268 0 0 1291 0 0 0 0 0 0 0 0 0 286 0 0 0 0 0 0 0 0 0 0 0 0 0 0 0 0 0 0 0 0 0 0 0 0 0 0 0 0 0 0 0 0 0 0 0 0 0 0
    0 0 0 0 0 0 0 0 0 0 0 0 0 0 0 0 0 0 0 0 0 0 0 0 0 0 0 0 0 0 0 0 0 0 0 0 0 0 0 0 0 0 0 0 0 0 0 0 0 0 0 0 0 0 0 0 0 0 0 0 0 0 0 0 0 0 0 0 0 0 0 1415 1388 1362 0 1362 1338 1415 1388 1388 0 0 0 0 0 0 0 0 0 0 0 0 0 0 0 0 0 0 0 0 1599 0 0 1672 1533 1471 1388 1362 0 1314 1206 1226 1226 1226 1268 1291 1247 1226 1187 1187 1149 1149 1168 1132 1132 1132 1168 0 0 0 1187 1187 1187 1206 1206 1206 1168 1187 1168 1168 1187 1206 1187 1115 1115 1098 1066 1098 1115 1115 1132 1132 1187 1187 1187 1206 1226 1206 1187 1168 1187 1149 1149 1168 1115 1132 1132 1168 1168 1132 1149 1132 1132 1187 1187 1187 1168 1168 1168 1132 1115 1115 1082 1051 1051 1051 1051 1098 1098 1132 1082 1187 1149 1149 1149 1132 1082 1149 1132 1149 1132 1132 1132 1132 1149 1187 1098 1115 1098 1132 1149 1115 1132 1149 1149 1168 1168 1187 1132 1132 1187 1149 1082 1082 1036 1051 1022 1022 1022 1008 1036 1022 1036 0 0 1115 1115 1149 1206 1149 1149 1168 1206 1149 1098 1098 1036 0 1022 1008 994 968 994 968 994 994 994 994 994 1008 1022 1036 1168 1098 1115 1098 1115 1168 1268 0 0 1338 0 0 0 0 0 0 0 0 0 287 0 0 0 0 0 0 0 0 0 0 0 0 0 0 0 0 0 0 0 0 0 0 0 0 0 0 0 0 0 0 0 0 0 0 0 0 0 0
    0 0 0 0 0 0 0 0 0 0 0 0 0 0 0 0 0 0 0 0 0 0 0 0 0 0 0 0 0 0 0 0 0 0 0 0 0 0 0 0 0 0 0 0 0 0 0 0 0 0 0 0 0 0 0 0 0 0 0 0 0 0 0 0 0 0 0 0 0 0 1388 1415 1415 1388 1338 1362 1362 1415 1415 1415 1362 0 0 0 0 0 0 0 0 0 0 0 0 0 0 0 0 0 0 0 1599 1599 0 1635 1471 1471 1388 1415 0 1338 1247 1247 1247 1247 1291 1291 1226 1206 1187 0 0 1168 1168 1149 1132 1168 1187 0 0 0 1206 0 0 1268 1247 1268 1247 1226 1206 1206 1206 1206 1168 1115 1098 1082 1066 1082 1098 1098 1115 1149 1187 1187 1187 1226 1226 1206 1187 1168 1187 1168 1168 1206 1149 1168 1149 1187 1187 1132 1132 1115 1115 1149 1149 1168 1149 1168 1168 1149 1132 1132 1098 1066 1066 1051 1051 1066 1051 1066 1022 1115 1115 1115 1132 1132 1082 1149 1132 1149 1149 1132 1132 1132 1149 1187 1098 1098 1115 1132 1168 1132 1149 1168 1168 1168 1187 1187 1132 1132 1187 1132 1082 1066 1036 1051 1022 1022 1022 1022 1051 1036 1051 0 0 1115 1115 1132 1187 1132 1132 1132 1168 1149 1082 1082 1036 0 1008 1008 994 968 994 968 981 994 994 994 981 994 1022 1022 1168 1115 1115 1115 1132 1206 0 1268 1291 1338 1415 1362 1362 0 0 0 0 0 293 286 0 0 0 0 0 0 0 0 0 0 0 0 0 0 0 0 0 0 0 0 0 0 0 0 0 0 0 0 0 0 0 0 0 0 0 0 0 0
    0 0 0 0 0 0 0 0 0 0 0 0 0 0 0 0 0 0 0 0 0 0 0 0 0 0 0 0 0 0 0 0 0 0 0 0 0 0 0 0 0 0 0 0 0 0 0 0 0 0 0 0 0 0 0 0 0 0 0 0 0 0 0 0 0 0 0 0 0 1415 1362 1362 1388 1362 1338 1362 1362 1415 1443 1415 1388 0 0 0 0 0 1247 0 0 0 0 0 0 0 0 0 0 0 0 0 0 0 0 1565 1443 1443 1362 1415 1388 1362 1268 1268 1268 1268 1291 1268 1226 1206 1187 0 0 1187 1187 1149 1149 1187 0 0 0 0 1247 0 1291 1314 1268 1268 1247 1226 1206 1206 1226 1206 1187 1149 1132 1115 1082 1098 1115 1098 0 1149 1187 1187 1206 1226 1247 1226 1206 1168 1206 1168 1187 1226 1187 1187 1168 1206 1206 1149 1149 1132 1115 1132 1132 1168 1149 1187 1206 1168 1149 1149 1115 1082 1082 1036 1036 1036 1022 1051 1008 1115 1115 1115 1132 1149 1082 1149 1149 1149 1149 1132 1132 1132 1132 1187 1082 1082 1115 1132 1149 1115 1149 1168 1187 1168 1187 1187 1149 1149 1187 1149 1098 1082 1066 1066 1051 1022 1022 1022 1066 1051 1066 1082 1082 1149 1132 1132 1168 1098 1115 1098 1149 1115 1066 1066 1036 1022 1008 1008 994 968 994 968 981 994 994 994 981 994 1022 1022 1132 1115 1115 1115 1132 1226 0 1268 1291 1291 1338 1314 1338 0 0 0 0 0 292 285 0 0 0 0 0 1226 0 0 0 0 0 0 0 0 0 0 0 0 0 0 0 0 0 0 0 0 0 0 0 0 0 0 0 0 0 0 0 0
    0 0 0 0 0 0 0 0 0 0 0 0 0 0 0 0 0 0 0 0 0 0 0 0 0 0 0 0 0 0 0 0 0 0 0 0 0 0 0 0 0 0 0 0 0 0 0 0 0 0 0 0 0 0 0 0 0 0 0 0 0 0 0 0 0 0 0 0 0 0 1291 1338 1362 1338 1338 1362 1362 1415 1443 1415 1415 1388 0 0 0 0 0 0 0 1247 0 1268 0 0 0 0 0 0 0 0 0 0 0 0 0 1362 1314 1338 1314 1314 1247 1268 1247 1268 1268 1247 1226 1247 0 0 0 0 0 0 0 0 0 0 0 0 1247 0 1291 1314 1268 1268 1247 1226 1206 1206 1226 1206 1187 1168 1149 1132 1098 1098 1115 1098 0 1149 1187 1206 1206 1247 1247 1226 1226 1187 1206 1187 1187 1226 1187 1206 1168 1206 1206 1149 1168 1149 1132 1149 1132 1168 1168 1187 1206 1187 1168 1187 1132 1149 1115 1051 1036 0 0 1036 1008 1066 1082 1098 1115 1149 1066 1149 1132 1149 1149 1115 1132 1132 1115 1187 1082 1082 1098 1132 1149 1115 1149 1168 1187 1168 1187 1187 1149 1149 1187 1149 1098 1098 1082 1082 1066 1051 1051 1051 1082 1066 1082 1098 1098 0 1168 1149 1187 1132 1132 1132 1168 1149 1098 1098 1066 0 0 1022 1008 994 1008 994 994 994 994 994 994 1008 1022 1022 1098 1115 1115 1115 1149 1247 1268 1226 1226 1226 1247 1226 1268 0 0 0 0 0 0 0 0 0 0 0 1206 1206 0 0 0 0 0 0 0 0 0 0 0 0 0 0 0 0 0 0 0 0 0 0 0 0 0 0 0 0 0 0 0 0
    0 0 0 0 0 0 0 0 0 0 0 0 0 0 0 0 0 0 0 0 0 0 0 0 0 0 0 0 0 0 0 0 0 0 0 0 0 0 0 0 0 0 0 0 0 0 0 0 0 0 0 0 0 0 0 0 0 0 0 0 0 0 0 0 0 0 0 0 0 0 1291 1338 1388 1362 1362 1362 1362 1415 1443 1415 1415 1362 0 0 0 0 1187 1206 1206 1206 1247 1268 0 0 0 0 0 0 0 1206 0 0 0 0 0 1291 1291 1291 1268 1268 1226 1247 1226 1247 1247 0 0 0 0 0 0 0 0 0 0 0 0 0 0 0 0 0 1362 1338 1268 1247 1247 1226 1226 1226 1247 1206 1187 1187 1132 1115 1082 1082 1082 1066 0 0 1187 1187 1187 1226 1247 1226 1226 1187 1206 1187 1206 1226 1206 1206 1187 1206 1206 1168 1168 1168 1132 1132 1132 1149 1149 1168 1206 1187 1187 1206 1187 1206 1187 1082 1082 0 1066 1066 1022 1082 1098 1082 1115 1187 1066 1132 1149 1149 1132 1115 1132 1132 1115 1187 1115 1082 1098 1132 1149 1098 1132 1168 1168 1168 1187 1187 1149 1149 1187 1149 1098 1098 1082 1066 1066 1051 1051 1051 1098 1082 1098 1132 1132 0 1206 1187 1226 1187 1168 1132 1187 1168 1115 1098 1098 0 1036 1051 1022 1022 1022 1022 1008 1008 1008 1008 994 1008 1008 1008 1051 1098 1115 1115 1149 1247 1247 1187 1206 1187 1226 1226 1247 1362 1362 0 0 0 0 0 0 0 0 0 0 1115 0 0 0 0 0 0 0 0 0 0 0 0 0 0 0 0 0 0 0 0 0 0 0 0 0 0 0 0 0 0 0 0
    0 0 0 0 0 0 0 0 0 0 0 0 0 0 0 0 0 0 0 0 0 0 0 0 0 0 0 0 0 0 0 0 0 0 0 0 0 0 0 0 0 0 0 0 0 0 0 0 0 0 0 0 0 0 0 0 0 0 0 0 0 0 0 0 0 0 0 0 0 0 1291 1362 1388 1388 1388 1388 1388 1471 1471 1471 1443 1362 0 0 0 0 1226 0 1226 1226 0 1291 0 0 0 0 0 0 0 1187 1187 1226 1226 0 0 1247 1268 1268 1247 1268 1226 1247 1206 1226 1226 1247 0 0 0 1338 1362 1415 0 0 0 0 168 168 0 0 0 0 1362 1338 1268 1268 1247 1226 1226 1226 1247 1206 1168 1168 1115 1082 1066 1066 1051 1051 0 0 1149 1149 1149 1226 1247 1226 1226 1187 1206 1206 1206 1247 1206 1226 1187 1206 1206 1187 1168 1168 1132 1115 1115 1115 1132 1132 1168 1132 1132 1168 1168 1187 1206 1098 1098 1082 1082 1082 1036 1115 1082 1051 1098 1168 1066 1132 1132 1132 1132 1115 1132 1132 1115 1187 1132 1098 1098 1149 1168 1098 1149 1168 1168 1149 1168 1187 1149 1149 1187 1149 1098 1098 1082 1082 1066 1036 1036 1051 1082 1066 1115 1149 1149 0 1226 1206 1226 1187 1168 1132 1168 1149 1115 1115 1132 1066 1051 1082 1036 1036 1036 1036 1022 1022 1008 1008 1008 1008 1008 1008 1008 1098 1098 1098 1149 1268 1247 1168 1187 1206 1226 1268 1268 1338 1338 1415 0 0 0 0 0 0 0 0 0 1082 0 0 0 0 0 0 0 0 0 0 0 0 0 0 0 0 0 0 0 0 0 0 0 0 0 0 0 0 0 0 0 0
    0 0 0 0 0 0 0 0 0 0 0 0 0 0 0 0 0 0 0 0 0 0 0 0 0 0 0 0 0 0 0 0 0 0 0 0 0 0 0 0 0 0 0 0 0 0 0 0 0 0 0 0 0 0 0 0 0 0 0 0 0 0 0 0 0 0 0 0 0 0 1338 1388 1415 1415 1415 1443 1415 1501 1501 1501 1501 1388 0 0 0 0 0 0 1247 1247 0 1291 0 0 0 0 1226 1187 0 1187 1187 1226 1247 1268 1291 1268 1268 1247 1247 1268 1226 1226 1226 1247 1247 1268 1268 0 1338 1362 1415 1415 0 0 0 0 0 0 0 0 0 0 1388 1362 1291 1268 1247 1247 1247 1226 1247 1206 1168 1168 1132 1098 1082 1066 1066 1051 0 1066 1098 1098 1098 1187 1226 1206 1226 1226 1226 1226 1247 1247 1226 1226 1187 1206 1206 1187 1187 1168 1149 1132 1115 1132 1149 1149 1149 1132 1132 1149 1149 1187 1206 1098 1098 1098 1098 1098 1066 1132 1098 1051 1098 1168 1066 1132 1132 1132 1132 1115 1132 1132 1115 1187 1132 1098 1115 1149 1168 1098 1149 1168 1168 1149 1187 1168 1149 1149 1187 1132 1082 1082 1082 1082 1066 1036 1036 1051 1098 1082 1115 1132 1115 1187 1187 1149 1168 1132 1115 1098 1132 1132 1115 1098 1132 1082 1082 1115 1051 1066 1051 1036 1008 1008 1008 1008 994 1008 994 994 994 1082 1098 1098 1187 1268 1268 1206 1226 1226 1226 1268 1268 1314 1314 1362 0 0 0 0 0 0 0 0 0 1082 0 0 0 0 0 0 0 0 0 0 0 0 0 0 0 0 0 0 0 0 0 0 0 0 0 0 0 0 0 0 0 0
    0 0 0 0 0 0 0 0 0 0 0 0 0 0 0 0 0 0 0 0 0 0 0 0 0 0 0 0 0 0 0 0 0 0 0 0 0 0 0 0 0 0 0 0 0 0 0 0 0 0 0 0 0 0 0 0 0 0 0 0 0 0 0 0 0 0 0 0 0 0 1338 1362 1388 1388 1415 1415 1415 1471 1471 1471 1471 0 0 0 0 0 0 0 0 1247 0 1268 0 0 0 1226 1206 1187 0 1206 1226 1247 1268 1291 0 1268 1291 1247 1247 1268 1226 1226 1206 1247 1268 1268 0 1338 1362 1415 1471 1443 0 0 0 0 0 0 0 1226 0 0 1388 1362 1314 1268 1268 1247 1247 1247 1247 1206 1149 1168 1149 1098 1082 1066 1066 1051 0 1066 1098 1082 1115 1206 1226 1226 1247 1226 1226 1226 1247 1247 1206 1206 1187 1187 1187 1168 1168 1168 1149 1132 1115 1115 1149 1149 1168 1132 1149 1149 1168 1206 1226 1132 1132 1132 1132 1115 1098 1206 1149 1098 1115 1187 1082 1132 1132 1132 1132 1132 1132 1149 1115 1187 1132 1082 1115 1132 1132 1082 1115 1149 1149 1149 1187 1168 1149 1149 1187 1115 1082 1051 1066 1066 1051 1036 1036 1051 1082 1082 1115 1098 1082 1132 1132 1066 1082 1082 1066 1066 1098 1115 1082 1082 1115 1082 1082 1132 1051 1082 1066 1051 1008 1008 1008 1008 994 1008 994 981 981 1082 1082 1082 1206 1291 1291 1206 1206 1226 1206 1247 1247 1291 0 0 0 0 0 0 0 0 0 0 0 0 0 0 0 0 0 0 0 0 0 0 0 0 0 0 0 0 0 0 0 0 0 0 0 0 0 0 0 0 0 0 0 0
    0 0 0 0 0 0 0 0 0 0 0 0 0 0 0 0 0 0 0 0 0 0 0 0 0 0 0 0 0 0 0 0 0 0 0 0 0 0 0 0 0 0 0 0 0 0 0 0 0 0 0 0 0 0 0 0 0 0 0 0 0 0 0 0 0 0 0 0 0 0 1314 1338 1362 1362 1415 1415 1415 1471 1501 1501 1533 1415 0 0 0 0 1338 1338 0 0 1362 1314 0 0 0 1247 1226 1206 0 1226 1226 1268 1268 1314 0 1268 1268 1226 1226 1247 1226 1206 1187 1226 1247 1268 0 1388 1415 1471 1565 1501 0 0 0 0 0 0 1247 1226 1226 1268 1362 1362 1314 1291 1268 1268 1268 1268 1247 1226 1168 1187 1149 1115 1082 1082 1082 1066 0 1115 1132 1132 0 0 1247 1226 1247 1206 1226 1206 1226 1206 1206 1206 1187 1187 1187 1168 1187 1168 1168 1132 1132 1115 1149 1149 1168 1132 1168 1168 1187 1226 1268 1187 1187 1149 1149 1149 1132 1268 1168 1149 1132 1206 1098 1149 1149 1132 1132 1132 1149 1149 1115 1168 1115 1082 1098 1132 1098 1082 1115 1149 1149 1149 1187 1168 1132 1149 1187 1115 1082 1051 1066 1066 1066 1036 1036 1066 1098 1082 1115 1098 1066 1115 1098 1066 0 0 1036 1051 1066 1082 1066 1066 1082 1066 1082 1115 1036 1082 1082 1051 1008 1008 1008 1008 1008 1008 981 968 968 1082 1082 1082 1206 1268 1247 1168 1149 1187 1187 1226 1226 1268 0 0 0 0 0 0 0 0 0 0 0 0 1051 0 0 0 0 0 0 0 0 0 0 0 0 0 0 0 0 0 0 0 0 0 0 0 0 0 0 0 0 0 0 0
    0 0 0 0 0 0 0 0 0 0 0 0 0 0 0 0 0 0 0 0 0 0 0 0 0 0 0 0 0 0 0 0 0 0 0 0 0 0 0 0 0 0 0 0 0 0 0 0 0 0 0 0 0 0 0 0 0 0 0 0 0 0 0 0 0 0 0 0 0 0 1291 1314 1362 1338 1388 1388 1388 1415 1443 1501 1599 1501 0 0 0 0 1388 1388 1388 1362 1388 1338 0 0 0 0 0 0 0 1247 1247 1291 0 0 0 0 1268 1206 1206 1226 1187 1187 1149 1187 1226 1247 0 1501 1599 1599 1672 1565 0 0 0 0 0 1226 1226 1187 1206 1247 1314 1338 1314 1268 1268 1268 1268 1268 1247 1226 1168 1187 1168 1132 1098 1098 1098 0 0 0 0 0 0 0 0 1268 1268 1226 1226 1206 1206 1206 1206 1206 1187 1187 1206 1187 1206 1168 1168 1132 1132 1115 1149 1132 1149 1149 1168 1168 1187 1226 1268 1206 1226 1168 1132 1132 1098 1291 1149 1132 1115 1187 1115 1149 1149 1132 1132 1149 1149 1168 1115 1168 1132 1082 1115 1115 1082 1082 1115 1149 1149 1132 1187 1149 1132 1149 1168 1098 1066 1051 1066 1066 1066 1051 1051 1098 1098 1098 1132 1098 1051 1098 1098 1066 0 1051 1022 1036 1051 1082 1051 1066 1066 1051 1066 1098 1036 1082 1082 1051 1008 1008 1008 1008 1008 1022 994 968 968 1082 1082 1082 1226 0 0 1168 1149 1168 1168 1206 1206 0 0 0 0 0 0 0 0 0 0 0 0 0 0 0 0 0 0 0 0 0 0 0 0 0 0 0 0 0 0 0 0 0 0 0 0 0 0 0 0 0 0 0 0 0
    0 0 0 0 0 0 0 0 0 0 0 0 0 0 0 0 0 0 0 0 0 0 0 0 0 0 0 0 0 0 0 0 0 0 0 0 0 0 0 0 0 0 0 0 0 0 0 0 0 0 0 0 0 0 0 0 0 0 0 0 0 0 0 0 0 0 0 0 0 0 0 1268 1314 1314 1362 1388 1362 1388 1415 1471 0 0 0 0 0 0 1443 0 0 0 1415 1362 0 0 0 0 0 0 0 0 1291 0 0 0 0 0 0 0 0 1206 1187 1187 1149 1206 1226 1291 1501 1565 0 1599 1635 1565 0 0 0 1187 0 1187 1187 1149 1149 1206 1247 1291 1268 1247 1247 1247 1247 1268 1226 1206 1168 1187 1168 1132 1098 1115 1098 0 0 0 0 1226 1268 0 0 1291 1268 1226 1206 1187 1187 1187 1187 1187 1187 1187 1206 1187 1206 1187 1187 1149 1132 1132 1149 1132 1132 1149 1168 1149 1187 1206 1247 1226 1226 1206 1149 1168 1149 1268 1149 1132 1098 1187 1149 1149 1149 1132 1132 1149 1149 1168 1115 1149 1149 1115 1149 1149 1098 1098 1115 1132 1149 1149 1168 1149 1132 1168 1149 1098 1082 1051 1066 1066 1066 1066 1051 1098 1082 1098 1132 1066 1036 1066 1066 1051 1036 1051 1022 1036 1051 1066 1051 1066 1082 1051 1082 1098 1036 1098 1098 1051 1008 1008 1008 1008 1022 1022 981 968 968 1082 1082 1082 0 0 0 1132 1098 1098 1115 1168 1132 0 0 0 0 0 0 0 0 0 0 0 0 0 0 0 0 0 0 0 0 0 0 0 0 0 0 0 0 0 0 0 0 0 0 0 0 0 0 0 0 0 0 0 0 0
    0 0 0 0 0 0 0 0 0 0 0 0 0 0 0 0 0 0 0 0 0 0 0 0 0 0 0 0 0 0 0 0 0 0 0 0 0 0 0 0 0 0 0 0 0 0 0 0 0 0 0 0 0 0 0 0 0 0 0 0 0 0 0 0 0 0 0 0 0 0 0 1247 1314 1291 1338 1362 1362 1362 0 0 0 0 0 0 0 0 0 0 0 0 0 0 0 0 0 0 0 0 0 0 0 0 0 0 0 0 0 0 0 1206 1187 1187 1149 1226 1247 1338 1443 1501 1565 1533 1565 1533 0 0 1187 1149 1132 1149 1168 1132 1132 1168 1226 1268 1247 1247 1247 1247 1247 1268 1247 1226 1168 1206 1168 1115 1098 1098 1098 1115 1132 1187 1206 1206 1247 1226 1268 1247 1247 1206 1187 1168 1168 1168 1187 1187 1187 1187 1206 1187 1206 1187 1187 1149 1132 1115 1132 1098 1115 1132 1149 1132 1168 1206 1226 1206 1226 1206 1168 1168 1187 1226 1132 1115 1098 1168 1168 1149 1132 1115 1132 1149 1149 1187 1132 1168 1168 1149 1187 1168 1098 1115 1115 1132 1132 1132 1149 1132 1115 1149 1115 1082 1066 1036 1051 1066 1051 1066 1036 1082 1082 1082 1115 1066 1051 1082 1098 1066 1036 1066 1022 1036 1051 1051 1022 1051 1066 1036 1082 1115 1036 1098 1098 1066 1008 1008 1008 1008 1022 1022 981 968 968 1082 1082 1082 0 0 0 0 0 1098 1082 1168 1132 0 0 0 0 0 0 0 0 0 0 0 0 0 0 0 0 0 0 0 0 0 0 0 0 0 0 0 0 0 0 0 0 0 0 0 0 0 0 0 0 0 0 0 0 0
    0 0 0 0 0 0 0 0 0 0 0 0 0 0 0 0 0 0 0 0 0 0 0 0 0 0 0 0 0 0 0 0 0 0 0 0 0 0 0 0 0 0 0 0 0 0 0 0 0 0 0 0 0 0 0 0 0 0 0 0 0 0 0 0 0 0 0 0 0 0 0 1268 1314 0 0 1338 1338 0 0 0 0 0 73 73 0 0 0 0 0 0 0 0 0 0 0 0 0 0 1268 0 1314 1338 0 0 0 0 1268 1226 0 1206 1187 1187 1149 1206 1247 1338 1362 1415 1471 1501 1533 1471 0 1226 1168 1132 1115 1115 1132 1115 1115 1132 0 1291 1268 1247 1268 1268 1291 1291 1247 1226 1187 1226 1187 1132 1115 1115 1115 1115 1149 1187 1187 1206 1226 1206 1226 1226 1226 1206 1187 1168 1168 1168 1206 1187 1187 1187 1206 1187 1206 1187 1187 1149 1132 1115 1132 1098 1115 1115 1132 1115 1168 1187 1206 1206 1206 1187 1149 1149 1168 1187 1115 1115 1115 1168 1187 1149 1132 1132 1132 1149 1149 1187 1132 1149 1149 1149 1187 1168 1115 1115 1115 1115 1115 1115 1132 1115 1082 1132 1082 1066 1051 1022 1036 1051 1036 1066 1022 1051 1066 1082 1115 1082 1066 1098 1115 1082 1051 1051 1008 1022 1036 1022 955 981 0 0 1066 1098 1022 1082 1098 1051 1008 1008 1008 1008 1022 1022 981 968 968 1082 1082 1066 2453 0 0 0 0 0 0 0 0 0 0 0 0 0 0 0 0 0 0 0 0 0 0 0 0 0 0 0 0 0 0 0 0 0 0 0 0 0 0 0 0 0 0 0 0 0 0 0 0 0 0 0 0 0
    0 0 0 0 0 0 0 0 0 0 0 0 0 0 0 0 0 0 0 0 0 0 0 0 0 0 0 0 0 0 0 0 0 0 0 0 0 0 0 0 0 0 0 0 0 0 0 0 0 0 0 0 0 0 0 0 0 0 0 0 0 0 0 0 0 0 0 0 0 0 1338 1247 0 0 0 1314 0 0 0 0 0 0 73 73 0 0 0 0 0 0 223 0 0 0 0 0 0 0 1268 1291 1291 0 0 0 0 0 1247 1206 1206 1187 1187 1168 1149 1206 1247 1314 1338 1388 1388 1533 1501 0 0 1168 1132 1098 1098 1082 1115 1098 1098 1115 0 1268 1268 1247 1268 1268 1291 1291 1247 1247 1206 1247 1206 1149 1132 1149 1132 1149 1168 1187 1187 1206 1206 1206 1226 1226 1226 1206 1206 1168 1187 1187 1206 1187 1206 1187 1206 1187 1206 1168 1187 1149 1149 1132 1149 1115 1115 1132 1132 1115 1149 1168 1187 1168 1168 1168 1115 1132 1149 1168 1115 1115 1115 1168 1168 1168 1132 1115 1132 1149 1168 1187 1149 1168 1149 1168 1206 1187 1132 1132 1132 1132 1115 1132 1132 1098 1082 1132 1098 1082 1051 1022 1036 1051 1036 1066 1008 1008 1051 1066 1098 1066 1051 1082 1066 1051 1022 1008 981 994 1022 994 931 943 1008 0 1051 1082 1022 1082 1082 1051 994 1008 1008 994 1008 1008 981 968 968 1082 1082 1082 2537 2725 0 694 657 645 0 0 0 0 0 0 0 0 0 0 0 0 0 0 0 0 0 0 0 943 0 0 0 0 0 0 0 0 0 0 0 0 0 0 0 0 0 0 0 0 0 0 0 0 0 0 0 0
    0 0 0 0 0 0 0 0 0 0 0 0 0 0 0 0 0 0 0 0 0 0 0 0 0 0 0 0 0 0 0 0 0 0 0 0 0 0 0 0 0 0 0 0 0 0 0 0 0 0 0 0 0 0 0 0 0 0 0 0 0 0 0 0 0 0 0 0 0 0 0 0 0 0 0 0 0 0 0 0 0 0 0 73 0 0 0 0 0 0 0 0 0 0 0 0 0 0 0 0 0 0 0 0 0 0 1268 1187 1206 1168 1168 1168 1149 1206 1247 1314 1314 1362 1291 0 1471 0 1206 1115 1098 1082 1082 1051 1082 1066 1082 1098 0 1247 1247 1247 1268 1268 1268 1291 1247 1268 1226 1268 1226 1187 1168 1168 1149 1168 1168 1187 1187 1206 1206 1206 1226 1226 1226 1206 1206 1187 1187 1187 1206 1206 1206 1206 1206 1206 1206 1187 1187 1168 1168 1149 1149 1132 1115 1149 1132 1115 1132 1149 1168 1132 1149 1149 1098 1115 1132 1168 1132 1115 1132 1168 1168 1168 1149 1132 1132 1149 1187 1187 1149 1187 1149 1187 1226 1187 1115 1132 1132 1132 1098 1132 1115 1098 1066 1132 1098 1066 1051 1022 1036 1036 1036 1066 1008 981 0 1066 1082 1051 1051 1066 1051 1036 1008 994 968 994 1022 994 943 968 1022 0 1036 1051 1022 1051 1066 1036 981 994 994 994 1008 1008 994 968 968 1082 1082 1098 2374 2453 2230 694 651 634 0 0 0 0 0 0 0 0 0 0 0 0 0 0 0 0 0 0 0 0 0 0 0 0 0 0 0 0 0 0 0 0 0 0 0 0 0 0 0 0 0 0 0 0 0 0 0 0
    0 0 0 0 0 0 0 0 0 0 0 0 0 0 0 0 0 0 0 0 0 0 0 0 0 0 0 0 0 0 0 0 0 0 0 0 0 0 0 0 0 0 0 0 0 0 0 0 0 0 0 0 0 0 0 0 0 0 0 0 0 0 0 0 0 0 0 0 0 0 0 0 0 0 0 0 0 0 0 0 0 0 0 0 0 0 0 0 0 0 0 0 0 0 0 0 0 0 0 1338 1338 1362 1338 0 0 0 1247 1187 1206 1168 1168 1168 1132 1226 1247 1362 1362 1415 0 0 0 0 0 1115 1098 1066 1066 1036 1082 1066 1066 0 0 1206 1226 1247 1268 1268 1268 1291 1247 1268 1268 1291 1226 1206 1168 1168 1149 1168 1168 1168 1168 1187 1206 1187 1206 1226 1206 1206 1187 1187 1168 1187 1206 1187 1206 1206 1206 1206 1206 1187 1187 1168 1168 1168 1168 1149 1115 1149 1149 1132 1132 1149 1168 1149 1149 1168 1098 1132 1132 1168 1132 1115 1149 1168 1168 1168 1149 1149 1132 1149 1187 1168 1149 1187 1149 1206 1226 1187 1115 1149 1132 1115 1098 1132 1115 1098 1066 1132 1082 1066 1051 1036 1036 1022 1036 1098 994 955 0 1051 1066 1036 1036 1051 1036 1022 994 994 955 981 1008 981 943 955 0 0 1022 1022 1008 1036 1036 1036 981 994 994 981 994 1008 994 968 968 1082 1082 1098 2453 2453 2299 694 634 618 0 0 0 2102 0 0 0 0 0 0 0 0 0 0 0 0 0 0 0 0 0 0 0 0 0 0 0 0 0 0 0 0 0 0 0 0 0 0 0 0 0 0 0 0 0 0 0 0
    0 0 0 0 0 0 0 0 0 0 0 0 0 0 0 0 0 0 0 0 0 0 0 0 0 0 0 0 0 0 0 0 0 0 0 0 0 0 0 0 0 0 0 0 0 0 0 0 0 0 0 0 0 0 0 0 0 0 0 0 0 0 0 0 0 0 0 0 0 0 0 0 0 0 0 0 0 0 75 0 1533 1501 0 0 0 0 0 0 0 0 0 0 0 0 0 0 0 0 0 0 1338 1362 1338 1338 1338 0 1268 1206 1226 1187 1206 1187 1149 1226 1291 1415 1388 1388 1338 0 1443 1415 1268 1206 1149 1132 1115 1066 1098 1082 1082 0 0 1187 1206 1226 1268 1247 1247 1268 1206 1247 1247 1291 1206 1168 1168 1149 1149 1168 1168 1149 1168 1187 1206 1187 1226 1226 1206 1206 1187 1187 1168 1187 1206 1187 1206 1187 1206 1226 1187 1187 1187 1168 1168 1168 1168 1149 1115 1149 1132 1132 1149 1149 1149 1149 1149 1149 1115 1149 1115 1149 1132 1098 1149 1168 1149 1168 1149 1149 1132 1149 1206 1149 1149 1206 1168 1226 1247 1206 1149 1187 1168 1149 1115 1149 1115 1098 1066 1149 1082 1082 1082 1066 1066 1066 1115 1187 1036 0 0 1066 1066 1036 1008 1036 1008 1008 994 981 955 968 968 968 943 943 981 0 1008 1008 1008 1036 1036 1022 968 981 994 981 994 994 994 968 968 1082 1082 1082 2725 0 2453 0 0 0 0 0 0 0 0 0 0 0 0 0 0 0 0 0 0 0 0 0 0 0 0 418 0 0 0 0 0 0 0 0 0 0 0 0 0 0 0 0 0 0 0 0 0 0 0 0 0 0
    0 0 0 0 0 0 0 0 0 0 0 0 0 0 0 0 0 0 0 0 0 0 0 0 0 0 0 0 0 0 0 0 0 0 0 0 0 0 0 0 0 0 0 0 0 0 0 0 0 0 0 0 0 0 0 0 0 0 0 0 0 0 0 0 0 0 0 0 0 0 0 0 0 0 0 0 0 0 75 0 0 1362 1388 0 0 0 0 1415 1415 0 0 0 0 0 0 0 0 0 0 0 1314 1338 1362 1314 1314 1291 1247 1206 1226 1187 1206 1168 1115 1206 1338 1415 1362 1388 1338 1338 1388 1362 1268 1226 1187 1206 1187 1132 1168 1115 1149 1168 1226 1187 1168 1187 1206 1168 1206 1187 1168 1168 1187 1226 1206 1168 1168 1149 1149 1168 1168 1168 1168 1187 1187 1206 1226 1226 1206 1226 1187 1206 1168 1187 1187 1187 1206 1187 1206 1226 1187 1206 1187 1168 1187 1168 1168 1149 1115 1149 1132 1132 1149 1149 1149 1149 1132 1168 1115 1132 1098 1149 1132 1098 1149 1149 1149 1149 1149 1149 1132 1132 1206 1132 1132 1206 1168 1226 1247 1226 1168 1206 1206 1168 1132 1149 1115 1098 1066 1132 1082 1098 1066 1082 1082 1082 1168 1206 1115 1115 0 1098 1066 1036 1008 1036 994 994 981 968 955 955 897 955 931 931 981 0 1008 1008 1008 1022 1022 1022 955 981 981 968 981 994 994 968 968 1082 1066 1082 2537 0 2299 0 0 0 0 0 0 0 0 0 0 0 0 0 0 0 0 0 0 0 0 0 0 0 0 420 0 0 0 0 0 0 0 0 0 0 0 0 0 0 0 0 0 0 0 0 0 0 0 0 0 0
    0 0 0 0 0 0 0 0 0 0 0 0 0 0 0 0 0 0 0 0 0 0 0 0 0 0 0 0 0 0 0 0 0 0 0 0 0 0 0 0 0 0 0 0 0 0 0 0 0 0 0 0 0 0 0 0 0 0 0 0 0 0 0 0 0 0 0 0 0 1115 0 1132 0 0 0 0 0 0 0 0 0 0 0 0 1388 1338 1338 1362 1338 0 0 0 0 0 0 0 1132 0 0 0 1291 1291 1314 1268 1291 1247 1206 1168 1187 1168 1187 1149 1115 1168 1314 1388 1338 1388 1314 1291 1338 1314 1291 1268 1247 1268 1226 1226 1247 1206 1226 1206 1247 1226 1168 1168 1187 1149 1187 1149 1168 1168 1206 1206 1206 1187 1187 1168 1168 1168 1149 1149 1168 1168 1187 1187 1206 1206 1206 1226 1187 1206 1187 1187 1206 1206 1206 1187 1206 1226 1187 1206 1187 1187 1187 1168 1168 1149 1115 1149 1115 1115 1149 1132 1149 1149 1132 1168 1115 1132 1098 1149 1149 1098 1149 1168 1149 1149 1149 1149 1115 1132 1206 1115 1132 1206 1149 1206 1247 1226 1187 1206 1226 1168 1132 1149 1115 1098 1066 1132 1082 1098 1082 1082 1098 1082 1132 1206 1082 1066 1036 1051 1036 1008 981 994 981 981 981 981 981 968 931 955 931 897 955 0 994 994 1008 1008 1008 1008 943 968 981 968 981 981 994 968 968 1082 1066 1082 2374 0 0 0 0 0 0 0 0 931 943 908 0 0 1599 0 0 0 0 0 0 0 0 0 0 0 0 415 0 0 0 0 0 0 0 0 0 0 0 0 0 0 0 0 0 0 0 0 0 0 0 0 0 0
    0 0 0 0 0 0 0 0 0 0 0 0 0 0 0 0 0 0 0 0 0 0 0 0 0 0 0 0 0 0 0 0 0 0 0 0 0 0 0 0 0 0 0 0 0 0 0 0 0 0 0 0 0 0 0 0 0 0 0 0 0 0 0 0 0 0 0 0 0 1132 1149 1187 1268 1247 1226 1291 0 0 0 0 1314 1247 1268 1291 1338 1338 1314 1338 1338 1291 0 0 0 0 0 0 1115 0 1247 1247 1268 1247 1291 1247 1247 1206 1187 1132 1168 1168 1187 1168 1132 1149 1268 1338 1247 1314 1247 1247 1268 1268 1268 1247 1226 1268 1247 1268 1268 1268 1291 1247 1268 1247 1206 1187 1187 1168 1206 1149 1187 1187 1206 1206 1206 1187 1187 1168 1168 1168 1149 1149 1149 1168 1168 1187 1187 1187 1187 1206 1187 1206 1187 1187 1187 1206 1206 1187 1206 1226 1187 1206 1187 1168 1187 1168 1168 1149 1115 1149 1115 1115 1132 1132 1132 1132 1115 1149 1115 1132 1098 1168 1149 1098 1168 1168 1132 1149 1149 1168 1115 1132 1206 1098 1115 1187 1132 1168 1187 1187 1168 1187 1206 1168 1115 1149 1132 1115 1066 1132 1098 1115 1098 1115 1098 1082 1115 1206 1066 1051 0 1036 1022 994 968 981 994 994 994 994 1008 0 994 981 955 919 943 897 994 994 994 981 1008 1008 943 968 981 968 981 981 994 981 981 1098 1066 1066 2164 0 0 0 0 0 0 0 0 943 943 943 0 0 0 0 0 0 0 0 0 0 0 886 0 0 0 415 0 0 0 0 0 0 0 0 0 0 0 0 0 0 0 0 0 0 0 0 0 0 0 0 0 0
    0 0 0 0 0 0 0 0 0 0 0 0 0 0 0 0 0 0 0 0 0 0 0 0 0 0 0 0 0 0 0 0 0 0 0 0 0 0 0 0 0 0 0 0 0 0 0 0 0 0 0 0 0 0 0 0 0 0 0 0 0 0 0 0 0 0 0 0 0 1149 1168 1168 1206 1247 1247 1291 0 0 0 1115 1268 1226 1226 1247 1314 1314 1291 1314 1314 1247 1268 0 1206 0 0 1066 1082 1066 1132 1098 1187 1149 1187 1187 1187 1168 1149 1115 1149 1168 1187 1168 1132 1115 1226 1291 1187 1268 1226 1226 1247 1247 1247 1247 1247 1291 1268 1314 1314 1314 1314 1291 1291 1268 1206 1168 1168 1168 1187 1149 1187 1168 1187 1206 1206 1187 1187 1168 1168 1168 1149 1149 1168 1168 1187 1206 1206 1206 1206 1226 1187 1206 1187 1187 1187 1187 1206 1187 1187 1206 1187 1187 1187 1187 1187 1187 1187 1168 1132 1168 1132 1132 1132 1115 1132 1132 1115 1149 1115 1132 1098 1187 1168 1098 1168 1168 1149 1149 1168 1168 1115 1132 1226 1098 1098 1187 1115 1098 1115 1132 1187 1187 1206 1187 1187 1226 1206 1187 1115 1187 1168 1187 1149 1168 1149 1098 1187 0 0 0 0 981 981 955 908 886 968 968 994 1008 1022 1022 1022 1008 981 955 968 931 994 994 1008 968 1008 1008 955 981 981 968 981 981 994 981 981 1098 1066 1066 2044 2102 0 0 0 908 0 0 0 931 908 931 0 0 0 0 1362 0 0 0 1415 0 0 0 0 0 0 0 0 0 0 0 0 0 0 0 0 0 0 0 0 0 0 0 0 0 0 0 0 0 0 0 0 0
    0 0 0 0 0 0 0 0 0 0 0 0 0 0 0 0 0 0 0 0 0 0 0 0 0 0 0 0 0 0 0 0 0 0 0 0 0 0 0 0 0 0 0 0 0 0 0 0 0 0 0 0 0 0 0 0 0 0 0 0 0 0 0 0 0 0 0 0 0 1168 1132 1132 1132 1226 1247 1314 0 1338 0 0 1338 1268 1247 1268 1291 1314 1291 1291 1314 1226 1247 1168 1168 1098 1098 1082 1082 1082 1132 1115 1168 1115 1149 1132 1132 1132 1115 1082 1115 1115 1132 1132 1082 1066 1187 1247 1149 1226 1206 1226 1226 1247 1247 1226 1226 1291 1268 1314 1314 1314 1314 1291 1268 1247 1206 1132 1132 1132 1168 1132 1168 1149 1187 1187 1206 1206 1187 1168 1168 1187 1168 1168 1168 1168 1187 1206 1206 1206 1187 1226 1187 1206 1187 1187 1187 1206 1206 1187 1206 1226 1187 1206 1187 1187 1187 1187 1187 1168 1132 1168 1132 1149 1149 1115 1132 1115 1115 1149 1098 1132 1098 1206 1187 1082 1168 1168 1149 1149 1168 1168 1132 1132 1226 1098 1098 1187 1115 1051 1066 1066 1187 1226 1247 1226 1247 1268 1247 1247 0 0 1226 1226 0 1206 1168 1132 1226 0 0 0 1008 981 955 955 908 876 955 943 994 1008 1036 1036 1022 1022 994 981 994 955 1008 1008 1008 968 1008 1008 955 981 994 981 981 994 1008 994 994 1115 1051 1066 0 0 0 0 0 0 0 0 865 865 826 845 0 0 0 0 0 1362 1338 0 1415 0 0 0 0 0 0 0 0 0 0 0 0 0 0 0 0 0 0 0 0 0 0 0 0 0 0 0 0 0 0 0 0 0
    0 0 0 0 0 0 0 0 0 0 0 0 0 0 0 0 0 0 0 0 0 0 0 0 0 0 0 0 0 0 0 0 0 0 0 0 0 0 0 0 0 0 0 0 0 0 0 0 0 0 0 0 0 0 0 0 0 0 0 0 0 0 0 0 0 0 0 0 0 1187 1132 1149 1168 1247 1247 1268 0 0 0 0 1362 1268 1268 1268 1291 1314 1291 1268 1291 1247 1247 1187 1187 1115 1132 1098 1115 1115 1149 1132 1187 1132 1149 1098 1115 1115 1098 1066 1098 1098 1098 1098 1082 1066 1187 1247 1132 1226 1206 1226 1226 1247 1247 1226 1226 1291 1268 1314 1314 1314 1314 1268 1268 1247 1187 1132 1132 1132 1168 1115 1168 1149 1187 1187 1206 1206 1187 1187 1187 1187 1168 1168 1187 1168 1187 1206 1206 1187 1168 1206 1168 1206 1187 1187 1187 1206 1226 1206 1226 1247 1206 1226 1206 1206 1206 1187 1187 1168 1132 1149 1132 1149 1149 1115 1132 1132 1132 1149 1115 1149 1098 1226 1226 1082 1187 1187 1168 1168 1168 1187 1132 1132 1226 1132 1115 1187 1149 1036 1066 1036 1291 1268 0 1268 1314 1314 1268 1268 0 0 0 1247 0 1206 1168 1132 1206 0 0 0 0 981 955 955 897 886 955 943 994 994 1036 1036 0 0 994 981 994 955 1022 1022 1022 968 1008 1008 968 994 994 981 994 994 1022 1008 994 1132 1051 1051 0 994 0 0 0 0 876 0 865 855 817 0 876 0 0 0 0 1388 1388 1415 0 0 0 0 0 0 0 0 0 0 0 0 0 0 0 0 0 0 0 0 0 0 0 0 0 0 0 0 0 0 0 0 0 0
    0 0 0 0 0 0 0 0 0 0 0 0 0 0 0 0 0 0 0 0 0 0 0 0 0 0 0 0 0 0 0 0 0 0 0 0 0 0 0 0 0 0 0 0 0 0 0 0 0 0 0 0 0 0 0 0 0 0 0 0 0 0 0 0 0 0 0 0 0 1226 1168 1168 1149 1226 1206 1226 1226 1247 0 1268 1338 1268 1268 1291 1314 1314 1291 1268 1291 1247 1247 1168 1168 0 0 1149 1149 1149 1168 1187 1206 1149 1149 1098 1115 1115 1082 1082 1098 1098 1098 1082 1066 1051 1168 1247 1132 1206 1206 1226 1226 1247 1247 1226 1226 1291 1268 1314 1291 1314 1314 1291 1291 1247 1206 1149 1132 1132 1168 1115 1168 1132 1168 1168 1206 1187 1187 1168 1187 1187 1168 1187 1187 1168 1187 1206 1187 1168 1149 1206 1149 1206 1187 1187 1187 1206 1226 1206 1226 1247 1226 1247 1226 1206 1206 1206 1206 1187 1168 1149 1115 1149 1168 1149 1168 1168 1168 1187 1149 1187 1149 1247 1247 1098 1187 1187 1168 1168 1187 1187 1149 1149 1226 1149 1115 1168 1168 1066 1098 0 0 1314 1362 1314 1338 1338 1314 1291 0 1268 1247 1247 1247 1226 1187 1132 1132 0 0 0 1036 0 981 1008 931 955 994 0 1008 0 1022 994 981 994 981 981 981 955 1022 1022 1022 968 1022 1022 981 1008 1008 1008 1008 1008 1036 1022 1008 1149 1036 1036 0 1008 0 0 876 886 876 876 865 855 826 0 876 0 0 0 0 0 0 0 0 0 0 0 0 0 0 0 0 0 0 0 0 0 0 0 0 0 0 0 0 0 0 0 0 0 0 0 0 0 0 0 0 0
    0 0 0 0 0 0 0 0 0 0 0 0 0 0 0 0 0 0 0 0 0 0 0 0 0 0 0 0 0 0 0 0 0 0 0 0 0 0 0 0 0 0 0 0 0 0 0 0 0 0 0 0 0 0 0 0 0 0 0 0 0 0 0 0 0 0 0 0 0 1226 1149 1132 1115 1187 1168 1187 1187 1206 1226 1247 1314 1268 1268 1268 1291 1314 1291 1291 1314 1268 1247 1168 0 0 0 0 0 1149 1149 1168 1206 1149 1149 1098 1115 1115 1082 1082 1082 1098 1098 1082 1082 1066 1149 1247 1115 1206 1206 1226 1206 1226 1226 1226 1206 1291 1247 1291 1291 1338 1338 1314 1291 1268 1247 1187 1149 1149 1168 1132 1168 1132 1132 1132 1187 1187 1168 1168 1187 1187 1168 1187 1187 1168 1187 1206 1187 1149 1168 1206 1168 1206 1187 1206 1206 1226 1268 1226 1247 1268 1247 1268 1247 1226 1226 1206 1226 1187 1187 1168 1132 1187 1206 1168 1187 1187 1226 1206 1206 1168 1187 1268 1268 1115 1187 1206 1187 1168 1187 1187 1149 1149 1206 1168 1115 1168 1187 1066 1115 0 1388 1388 1471 1443 1415 1388 1388 1338 0 0 1291 1291 1268 1268 1206 1168 0 0 0 0 1036 0 1008 0 0 0 1082 1098 1066 1066 1051 1022 994 1008 994 994 981 955 1036 1036 1036 981 1036 1022 994 1022 1036 1022 1022 1022 1066 1036 1036 1149 1036 1036 1268 1008 0 0 876 876 865 855 836 826 808 0 855 0 0 0 0 0 0 0 0 0 0 0 0 0 0 0 0 0 0 0 0 0 0 0 0 0 0 0 0 0 0 0 0 0 0 0 0 0 0 0 0 0
    0 0 0 0 0 0 0 0 0 0 0 0 0 0 0 0 0 0 0 0 0 0 0 0 0 0 0 0 0 0 0 0 0 0 0 0 0 0 0 0 0 0 0 0 0 0 0 0 0 0 0 0 0 0 0 0 0 0 0 0 0 0 0 0 0 0 0 0 0 1226 1115 1115 1115 1187 1168 1187 1187 1187 1226 1268 1268 1268 1268 1268 1291 1291 1291 1268 1291 1268 1247 1149 1098 0 0 0 0 1132 1115 1098 1168 1132 1115 1082 1098 1115 1082 1082 1098 1098 1098 1082 1082 1082 1132 1226 1115 1187 1187 1206 1206 1226 1226 1206 1206 1291 1247 1291 1268 1314 1314 1268 1291 1268 1247 1206 1168 1168 1187 1149 1187 1132 1149 1132 1187 1187 1168 1168 1168 1187 1168 1187 1187 1168 1187 1187 1168 1149 1149 1206 1168 1226 1206 1226 1226 1268 1291 1268 1291 1291 1268 1268 1247 1247 1247 1226 1247 1206 1206 1187 1187 1247 1268 1187 1291 0 0 0 0 0 1268 1291 1291 1149 1187 1206 1187 1187 1206 1187 1149 1149 1206 1206 1132 1168 1206 1082 0 0 1443 1443 1565 1533 1471 1443 1443 1362 0 0 0 0 0 0 0 0 0 0 0 0 0 0 0 0 0 0 1132 1132 1082 1098 1066 1022 1022 1008 1008 1008 994 981 1036 1036 1036 994 1051 1036 1008 1051 1051 1036 1036 1036 1082 1051 1051 1168 1036 1036 1187 1008 931 0 876 886 865 0 826 799 791 0 0 0 0 0 0 0 0 0 0 0 300 0 0 0 0 0 0 0 0 0 0 0 0 0 0 0 0 0 0 0 0 0 0 0 0 0 0 0 0 0 0 0
    0 0 0 0 0 0 0 0 0 0 0 0 0 0 0 0 0 0 0 0 0 0 0 0 0 0 0 0 0 0 0 0 0 0 0 0 0 0 0 0 0 0 0 0 0 0 0 0 0 0 0 0 0 0 0 0 0 0 0 0 0 0 0 0 0 0 0 0 0 1247 1132 1115 1082 1168 1132 1115 1098 1098 0 1247 1247 1268 1291 1314 1314 1338 1291 1268 1268 1268 1226 1132 1082 0 0 0 0 0 0 1132 1226 1149 1115 1082 1115 1132 1098 1098 1132 1115 1132 1115 1082 1098 1132 1206 1098 1187 1187 1187 1187 1206 1206 1206 1187 1291 1247 1268 1268 1314 1291 1226 1268 1291 1268 1226 1187 1226 1226 1187 1226 1187 1168 1149 1168 1187 1168 1168 1168 1187 1168 1168 1187 1168 1168 1168 1115 1149 1115 1187 1168 1226 1226 1247 1268 1314 1338 1291 1291 1291 1268 1268 1247 1247 1247 1206 1226 1187 1206 1168 1187 0 1268 1206 1338 0 0 0 0 0 1314 1338 1314 1168 1168 1206 1206 1187 1206 1187 1149 1149 1206 1206 1132 1149 1206 1066 0 0 1471 1443 1501 1533 1471 0 0 0 0 0 0 0 0 0 0 0 0 226 0 0 1036 0 0 0 1082 0 1132 1132 1098 1149 1132 1066 1082 1051 1036 1022 994 994 1036 1036 1036 994 1051 1051 1022 1066 1082 1051 1051 1066 1115 1051 1066 1187 1022 1022 1098 1008 908 0 0 0 0 0 0 0 0 0 943 1098 0 0 0 0 0 0 0 0 0 0 0 0 0 0 0 0 0 0 0 0 0 0 0 0 0 0 0 0 0 0 0 0 0 0 0 0 0 0 0 0
    0 0 0 0 0 0 0 0 0 0 0 0 0 0 0 0 0 0 0 0 0 0 0 0 0 0 0 0 0 0 0 0 0 0 0 0 0 0 0 0 0 0 0 0 0 0 0 0 0 0 0 0 0 0 0 0 0 0 0 0 0 0 0 0 0 0 0 0 0 0 1149 1132 0 0 0 0 0 0 0 0 0 1314 1338 1362 1362 1388 1338 1268 1291 1247 1226 1115 0 0 0 0 0 1187 1206 1168 1314 1247 1187 1132 1168 1206 1168 1149 1187 1149 1149 1115 1082 1115 1115 1187 1098 1168 1168 1168 1168 1206 1187 1206 1168 1291 1247 1268 1247 1362 1268 1206 1268 1314 1291 1291 1206 1268 1268 1226 1247 1187 1149 1132 1168 1187 1168 1168 1168 1168 1168 1187 1206 1168 1149 1115 1082 1098 1066 1098 1098 0 1149 0 0 1314 1338 1291 1291 1268 1268 1268 1247 1226 1247 1206 1226 1206 1226 1168 1206 0 1291 0 0 0 0 0 0 0 1362 1362 1338 1206 1168 1226 1206 1206 1206 1187 1149 1149 1187 1226 1132 1132 1206 0 0 0 0 0 0 0 1415 1362 1338 0 0 0 0 0 0 0 0 0 0 226 0 0 1036 0 0 1115 1082 0 1132 1115 1082 1168 1132 1066 1082 1051 1036 1022 1008 0 1051 1036 1036 1008 1066 1066 1036 1082 1098 1066 1066 1066 1132 1066 1066 1187 1022 1022 1008 1008 886 0 0 0 0 0 0 0 0 0 0 0 0 0 0 0 0 0 0 0 0 0 0 0 0 0 0 0 0 0 0 0 0 0 0 0 0 0 0 0 0 0 0 0 0 0 0 0 0 0 0 0
    0 0 0 0 0 0 0 0 0 0 0 0 0 0 0 0 0 0 0 0 0 0 0 0 0 0 0 0 0 0 0 0 0 0 0 0 0 0 0 0 0 0 0 0 0 0 0 0 0 0 0 0 0 0 0 0 0 0 0 0 0 0 0 0 0 0 0 0 0 0 0 0 0 0 0 0 0 0 0 0 0 1362 1388 1415 1388 1415 1338 1268 1247 1206 0 1098 0 0 0 0 0 0 0 1206 1314 1314 1226 1187 1226 1314 1226 1206 1247 1187 1168 1098 1066 1132 1098 1187 1098 1168 1168 1187 1168 1206 1187 1206 1168 1291 1247 1247 1226 1415 1268 1226 1314 1443 1565 1388 0 1338 1338 1268 1268 1187 1132 1115 1168 1187 1187 1187 1168 1187 1168 1187 1226 1187 0 0 1082 1082 1082 1132 1149 0 0 0 0 0 1362 1314 1314 1291 1291 1268 1247 1247 1268 1226 1268 1268 1314 1268 0 0 0 0 0 5661 0 0 0 0 1415 1443 1362 1268 1149 1226 1226 1206 1206 1187 1149 1149 1187 1247 1149 1132 1226 0 0 0 0 0 0 0 0 1314 0 0 0 0 0 0 0 0 0 0 0 0 0 0 1022 0 0 0 1115 0 1168 1098 1051 1149 1082 1022 1051 1022 1022 1022 1008 1022 1051 1051 1051 1022 1082 1082 1051 1098 1115 1082 1082 1082 1132 1066 1082 1187 1008 1008 1008 1008 897 0 0 0 0 0 0 0 0 0 0 0 0 0 0 0 0 0 0 0 0 0 0 0 0 0 0 0 0 0 0 0 0 681 0 0 0 0 0 0 0 0 0 0 0 0 0 0 0 0 0 0
    0 0 0 0 0 0 0 0 0 0 0 0 0 0 0 0 0 0 0 0 0 0 0 0 0 0 0 0 0 0 0 0 0 0 0 0 0 0 0 0 0 0 0 0 0 0 0 0 0 0 0 0 0 0 0 0 0 0 0 0 0 0 0 0 0 0 0 0 0 0 0 0 0 0 0 0 0 0 0 1415 0 1443 1443 1501 1443 1443 1388 1314 1314 0 0 0 0 0 0 0 0 0 1388 1338 1388 1415 1338 0 0 1338 1314 1268 1291 1226 1187 1115 1051 1149 1082 1187 1098 1168 1168 1168 1168 1206 1187 1206 1168 1268 1206 1206 1206 1471 0 0 1672 0 1839 1752 0 1635 1672 1501 1338 1226 1149 1132 1168 1187 1187 1187 1187 1187 1187 1206 1226 0 0 0 0 1098 1082 0 0 0 0 0 0 0 1388 1338 1314 1291 0 0 0 0 0 0 0 0 0 0 0 0 0 0 0 0 0 0 0 0 1501 1471 1415 1314 1132 1226 1226 1206 1206 1187 1149 1149 1168 1247 1168 1149 1247 0 0 0 0 0 0 0 0 0 0 0 0 0 0 0 0 0 0 0 0 0 0 0 1022 1022 0 1187 1098 1066 1132 1098 1022 1036 1022 994 1036 1008 1008 1008 1008 1008 1051 1051 1051 1022 1098 1082 1051 1115 1132 1098 1082 1098 1149 1082 1082 1187 1008 1008 1008 1066 968 0 0 0 0 0 0 0 0 0 0 0 0 0 0 0 0 0 0 0 0 0 0 0 0 0 0 0 0 0 0 687 0 0 0 0 0 0 0 0 0 0 0 283 0 0 0 0 0 0 0 0
    0 0 0 0 0 0 0 0 0 0 0 0 0 0 0 0 0 0 0 0 0 0 0 0 0 0 0 0 0 0 0 0 0 0 0 0 0 0 0 0 0 0 0 0 0 0 0 0 0 0 0 0 0 0 0 0 0 0 0 0 0 0 0 0 0 0 0 0 0 0 0 0 0 0 0 0 0 0 0 0 0 1388 1415 1501 1471 1443 1415 1388 1362 1388 1443 0 0 0 0 0 0 1533 1471 1501 1501 1635 1471 1443 1388 1388 1338 1338 1314 1247 1226 1149 1066 1187 1082 1187 1098 1168 1168 1168 1168 1206 1187 1226 1168 1268 1226 1226 1247 1887 0 2230 1936 1989 1989 1989 0 0 0 0 0 0 1168 1132 1168 1187 1187 1187 1168 1187 1168 1187 1226 0 0 0 0 0 0 0 0 0 0 0 0 0 1362 0 0 0 0 0 0 0 0 0 0 0 3679 4599 0 0 0 0 6133 7359 0 0 0 0 0 1443 1415 1314 1098 1226 1226 1206 1206 1187 1149 1149 1168 1268 1168 1168 1268 0 0 0 0 0 0 0 0 0 0 0 0 0 0 0 0 0 968 0 0 0 0 994 1008 1036 1082 1226 1168 1168 1226 1149 1051 1082 1082 1022 1051 1022 1008 1022 994 1008 1051 1051 1051 1022 1098 1098 1066 1115 1132 1098 1082 1098 1149 1082 1082 1187 1008 1008 1008 1206 1051 0 0 0 0 0 0 0 0 0 0 0 0 629 0 675 0 0 0 0 0 0 0 0 0 0 0 0 0 0 0 0 0 0 0 0 0 0 0 0 0 285 283 280 283 0 0 0 0 0 0 0
    0 0 0 0 0 0 0 0 0 0 0 0 0 0 0 0 0 0 0 0 0 0 0 0 0 0 0 0 0 0 0 0 0 0 0 0 0 0 0 0 0 0 0 0 0 0 0 0 0 0 0 0 0 0 0 0 0 0 0 0 0 0 0 0 0 0 0 0 0 0 0 0 0 836 0 0 994 955 981 1051 0 0 1338 1501 1443 1443 1415 1415 1415 1443 1565 0 0 0 0 1565 0 1565 1533 1565 1533 1711 1565 0 1415 1388 1362 1362 1314 1291 1247 1187 1066 1206 1082 1187 1098 1168 1168 1168 1149 1187 1168 1226 1168 1291 1247 1247 1268 1936 2374 2453 0 0 0 0 0 0 0 0 0 0 1149 1115 1168 1168 1168 1168 1149 1168 1149 0 1206 0 0 0 0 0 0 0 0 0 0 0 0 0 0 0 0 0 0 0 0 0 0 0 0 3873 3873 4599 0 0 0 5661 5661 6690 0 0 0 0 0 1415 1415 1314 1082 1206 1206 1187 1187 1168 1149 1149 1149 1268 1149 1132 1247 0 0 0 0 0 0 0 0 0 0 0 0 0 0 0 0 0 981 0 0 994 0 1022 1036 1066 1226 1268 1206 1226 1268 1206 1098 1206 1206 1082 1098 1066 1036 1036 1008 0 1036 1036 1036 1022 1082 1082 1051 1115 1132 1098 1082 1098 1149 1082 1082 1206 1008 1022 1022 1268 1206 1082 0 1268 1247 1291 0 0 0 0 0 0 0 0 0 0 0 0 0 0 0 0 0 0 2943 0 0 0 0 0 0 0 193 193 0 0 0 0 0 0 0 284 0 280 281 0 0 0 0 0 0 0
    0 0 0 0 0 0 0 0 0 0 0 0 0 0 0 0 0 0 0 0 0 0 0 0 0 0 0 0 0 0 0 0 0 0 0 0 0 0 0 0 0 0 0 0 0 0 0 0 0 0 0 0 0 0 0 0 0 0 0 0 0 0 0 0 0 0 0 0 0 1268 0 0 0 886 0 0 994 955 981 1008 1008 1051 1226 1415 1362 1388 1338 1388 1338 1388 1501 0 0 0 0 1599 0 1635 1599 1599 1565 0 1672 0 0 1415 1388 1362 1338 1314 1268 1247 1098 1247 1098 1187 1098 1168 1168 1168 1149 1187 1168 1226 1187 1291 1291 1291 1314 2102 2830 2725 0 0 0 0 0 0 0 0 0 0 1115 1098 1149 1149 1149 1149 1149 1149 1149 0 0 0 0 0 0 0 0 0 0 0 0 0 0 0 0 0 1168 0 0 0 0 239 239 238 242 0 3679 4599 0 0 0 5256 5661 6133 4599 0 0 0 0 1443 1415 1314 1066 1206 1187 1168 1187 1168 1132 1132 1132 1268 1132 1132 1247 1187 0 0 0 0 0 0 0 1022 1022 0 0 0 0 0 0 0 994 0 1051 0 0 1066 1082 1082 0 1338 1268 1314 1314 1247 1168 1247 1247 1168 1168 1098 1066 1051 1008 0 1036 1022 1022 1008 1082 1082 1051 1115 1132 1098 1082 1098 1149 1098 1082 1206 1022 1022 1036 1291 0 0 0 0 1268 1314 0 0 0 0 0 0 0 0 0 0 0 0 0 0 0 0 3345 3679 3066 0 0 0 0 0 634 0 0 193 0 0 0 0 0 0 0 283 0 0 0 0 0 0 0 0 0 0
    0 0 0 0 0 0 0 0 0 0 0 0 0 0 0 0 0 0 0 0 0 0 0 0 0 0 0 0 0 0 0 0 0 0 0 0 0 0 0 0 0 0 0 0 0 0 0 0 0 0 0 0 0 0 0 0 0 0 0 0 0 0 0 0 0 0 0 0 0 0 0 0 0 0 0 1051 1022 0 994 1008 1008 1036 1132 1338 1314 1338 1291 0 0 0 0 0 0 0 0 0 0 1672 1635 1635 0 1711 0 0 0 0 0 1388 1338 1314 1268 1226 1098 1226 1098 1187 1098 1149 1168 1149 1149 1187 1168 1226 1187 1338 1338 1338 1388 2628 3199 3066 0 0 0 0 0 0 0 0 0 0 1098 1082 1149 1132 1149 1149 1149 1168 1168 0 0 0 0 0 0 0 0 0 0 0 0 0 0 0 0 1066 1168 1149 1149 0 0 0 0 0 0 3873 3679 4599 0 0 5256 5256 5256 5661 4599 3504 0 0 0 1471 1443 1314 1051 1187 1187 1168 1168 1168 1132 1132 1132 1268 1115 1115 1226 1132 0 0 0 0 1082 0 1022 1008 994 0 0 955 0 0 0 1022 1008 1022 1051 1022 1051 1066 1066 1036 1066 1226 1168 1187 1226 1168 1098 1206 1247 1168 1168 1082 1051 1036 981 0 1022 1008 1008 994 1066 1066 1051 1098 1115 1098 1082 1082 1132 1082 1082 1206 1022 1022 1036 1314 0 0 0 1291 1268 1291 1206 1226 0 0 0 0 0 651 645 651 0 0 0 0 0 0 0 0 0 0 0 0 0 0 0 0 0 192 192 0 0 0 0 0 0 281 0 0 0 0 0 0 0 0 0 0
    0 0 0 0 0 0 0 0 0 0 0 0 0 0 0 0 0 0 0 0 0 0 0 0 0 0 0 0 0 0 0 0 0 0 0 0 0 0 0 0 0 0 0 0 0 0 0 0 0 0 0 0 0 0 0 0 0 0 0 0 0 0 0 0 0 0 0 0 0 0 0 1338 0 0 0 1066 1036 994 1008 1022 994 1022 1082 1314 1291 1338 1268 0 0 0 0 0 0 0 0 0 0 1672 1635 1635 0 1711 0 1565 1471 0 0 1388 1362 1338 1291 1268 1115 1226 1098 1168 1098 1149 1168 1168 1149 1187 1187 1247 1206 1388 1362 1388 1471 3066 3504 3504 3066 3345 3199 3066 3066 0 0 0 0 0 1066 1066 1132 1132 1149 1149 1168 1187 1187 0 0 0 0 0 0 0 0 0 0 0 0 0 0 0 0 1066 1168 1149 1149 0 0 0 0 0 0 3679 3504 4088 4599 4906 4599 4906 4906 5256 4599 3504 0 0 0 0 1471 1314 1051 1187 1187 1168 1168 1168 1132 1132 1132 1268 1082 1082 1187 1036 0 0 0 0 0 0 0 0 994 0 0 0 968 1022 1022 1022 1022 1036 1051 1036 1051 1066 1051 1036 1036 1066 1051 1051 1082 1082 1051 1098 1132 1098 1098 1051 1008 994 955 0 994 1008 994 994 1051 1051 1036 1098 1098 1082 1066 1082 1115 1082 1082 1187 1022 1036 1051 1314 1226 0 1268 1268 1226 1247 1098 0 0 0 0 0 0 645 639 634 0 0 0 0 0 0 0 0 0 0 0 0 0 0 0 0 0 0 0 0 0 0 0 283 0 0 0 0 0 477 477 0 0 0 0 0
    0 0 0 0 0 0 0 0 0 0 0 0 0 0 0 0 0 0 0 0 0 0 0 0 0 0 0 0 0 0 0 0 0 0 0 0 0 0 0 0 0 0 0 0 0 0 0 0 0 0 0 0 0 0 0 0 0 0 0 0 0 0 0 0 0 0 0 0 0 1338 0 1314 1098 0 1115 1132 1082 1066 1066 1066 1022 1036 1082 1206 1206 0 0 0 0 0 0 0 0 0 0 0 0 1672 1635 1635 0 1711 0 1565 0 0 0 0 1362 1338 1291 1268 1115 1226 1098 1168 1098 1168 1168 1168 1168 1206 1187 1247 1226 1443 1388 1415 0 3199 3345 3345 2943 3199 3066 3199 3199 0 0 425 0 0 1051 1051 1132 1115 1132 1149 1168 1206 1206 1206 0 7359 0 0 0 0 0 0 0 0 0 0 0 0 0 0 0 0 0 0 0 0 0 0 0 0 3345 3873 4088 4599 4329 4599 4906 5256 4599 3679 0 0 0 0 1314 1291 1051 1187 1168 1149 1168 1168 1115 1132 1115 1247 1066 1066 1149 1022 1008 0 0 0 0 0 0 0 0 0 0 0 0 0 0 1022 1022 1036 1051 1036 0 1066 1022 1036 0 0 1036 1066 1098 1066 1036 1051 1082 1066 1066 1036 1008 1008 968 994 1022 1022 1022 1008 1051 1051 1036 1082 1098 1082 1051 1066 1098 1082 1082 1187 1036 1036 1066 1291 1206 0 1206 1187 1098 1051 994 0 0 919 0 0 0 639 634 0 0 0 0 0 0 0 0 0 0 0 0 0 0 0 0 0 0 0 0 0 0 0 0 0 0 0 471 465 468 471 474 0 0 0 0 0
    0 0 0 0 0 0 0 0 0 0 0 0 0 0 0 0 0 0 0 0 0 0 0 0 0 0 0 0 0 0 0 0 0 0 0 0 0 0 0 0 0 0 0 0 0 0 0 0 0 0 0 0 0 0 0 0 0 0 0 0 0 0 0 0 0 0 0 0 0 0 0 1268 1115 1115 1132 1187 1115 1098 1115 1082 1022 1036 1066 0 0 0 0 0 0 0 0 0 0 0 0 0 0 1711 1635 0 0 0 0 0 0 0 0 0 0 1314 1291 1268 1132 1226 1082 1168 1115 1168 1168 1168 1168 1206 1206 1268 1247 1565 1443 1471 0 3345 3345 3504 3066 3199 3066 3199 3066 3199 0 427 0 0 1066 1051 1132 1115 1132 1149 1187 1206 1206 1206 0 7359 0 0 0 0 0 0 0 0 0 0 0 0 0 0 0 0 0 0 0 0 0 0 166 0 3345 3679 4088 4599 4329 4599 4906 5661 5256 3873 0 0 0 0 0 1247 1036 1168 1168 1132 1149 1168 1132 1132 1115 1247 1066 1082 1168 1022 1008 1022 1036 1051 0 1008 994 955 931 968 0 0 0 0 0 1008 1036 1036 1051 1051 1082 1115 1187 1132 0 1314 1268 1291 1226 1187 1066 1082 1149 1098 1098 1066 1022 1036 1008 1022 1051 1051 1051 1022 1036 1051 1036 1066 1082 1066 1051 1066 1082 1082 1066 1168 1051 1051 1082 1291 1206 1168 1168 1115 1066 1022 981 0 0 886 0 0 0 0 0 0 0 0 0 0 0 0 0 0 3873 0 0 0 0 0 645 0 0 0 0 0 0 0 0 0 0 477 468 465 468 468 471 0 0 0 0 0
    0 0 0 0 0 0 0 0 0 0 0 0 0 0 0 0 0 0 0 0 0 0 0 0 0 0 0 0 0 0 0 0 0 0 0 0 0 0 0 0 0 0 0 0 0 0 0 0 0 0 0 0 0 0 0 0 0 0 0 0 0 0 0 0 0 0 0 0 0 1115 1066 1149 1066 1082 1082 1149 1098 1115 1149 1098 1036 1066 1082 0 0 0 0 0 0 0 0 0 0 0 0 0 0 1635 1599 1599 0 0 0 1533 0 0 0 0 0 1291 1247 1247 1115 1206 1082 1168 1115 1168 1187 1187 1168 1226 1206 1268 1268 1635 1533 1533 0 3679 3504 3679 3199 3504 3345 3504 3199 3199 0 0 0 0 1082 1051 1132 1115 1132 1168 1187 1206 1206 1206 0 6690 0 0 0 0 0 0 0 0 0 0 0 0 0 0 0 0 0 0 0 0 0 0 166 165 3199 3504 3873 4329 4329 4906 5256 5661 5256 3873 0 0 0 0 1168 1187 1036 1149 1149 1132 1149 1168 1132 1132 1115 1247 1066 1082 1187 1008 1008 1008 1022 1022 0 0 0 955 955 0 0 0 0 0 0 0 1051 1066 1051 1066 1115 1132 1206 1149 1291 1247 1268 1291 1268 1247 1187 1168 0 1149 1168 1115 1066 1082 1022 1036 1066 1066 1051 1022 1022 1051 1036 1051 1051 1051 1036 1051 1066 1066 1051 1132 1066 1066 1082 1268 1168 1132 1132 1115 1066 1036 981 0 0 886 0 0 0 0 0 0 0 0 0 0 0 0 0 0 0 0 629 639 639 0 645 0 0 0 0 0 0 0 0 0 477 477 468 465 468 471 471 0 0 0 0 0
    0 0 0 0 0 0 0 0 0 0 0 0 0 0 0 0 0 0 0 0 0 0 0 0 0 0 0 0 0 0 0 0 0 0 0 0 0 0 0 0 0 0 0 0 0 0 0 0 0 0 0 0 0 0 0 0 0 0 0 0 0 0 0 0 0 0 0 0 0 1082 0 1149 1066 1098 1098 1168 0 0 1206 1132 1066 1115 1115 0 0 0 0 0 0 0 0 1338 1314 1338 1247 0 1338 1415 1415 1471 1415 1533 0 1471 0 0 0 0 0 1247 1226 1226 1115 1206 1082 1168 1115 1168 1187 1187 1187 1226 1226 1291 1291 1672 1635 1635 0 3679 3679 3873 3345 3504 3504 3679 3345 3345 0 0 0 0 1066 1051 1132 1115 1132 1168 1187 1226 1206 0 0 4329 8177 0 0 0 0 0 0 0 0 0 0 0 0 0 0 0 0 0 0 0 0 164 166 165 0 3679 3679 4088 3873 4599 4599 5256 4906 3873 0 0 0 0 1149 1149 1036 1149 1149 1115 1149 1168 1132 1132 1132 1268 1066 1082 1226 994 981 994 994 994 0 0 0 0 0 0 0 0 0 1051 1051 0 1082 1066 1051 1082 1149 1168 1268 1187 1314 0 1314 1314 1291 1291 0 1226 0 1187 1187 1168 1115 1115 0 0 1066 1066 1051 1022 1008 1036 1036 1036 1051 1036 1022 1036 1051 1066 1051 1098 1082 1066 1082 1268 1149 1098 1098 1098 1036 1008 968 0 0 0 0 0 0 0 0 0 0 0 0 0 0 0 0 0 0 0 623 629 634 0 0 0 0 0 0 0 0 0 0 0 477 477 471 468 471 474 474 0 0 0 0 0
    0 0 0 0 0 0 0 0 0 0 0 0 0 0 0 0 0 0 0 0 0 0 0 0 0 0 0 0 0 0 0 0 0 0 0 0 0 0 0 0 0 0 0 0 0 0 0 0 0 0 0 0 0 0 0 0 0 0 0 0 0 0 0 0 0 0 0 0 0 0 0 1226 1132 1187 1206 0 0 0 0 1168 1082 1115 1082 0 0 0 0 0 0 0 0 1314 1291 1268 1187 1168 1226 1291 1314 0 1362 0 0 1471 1388 1291 0 1268 1291 1268 1226 1226 1132 1226 1098 1187 1132 1187 1206 1206 1187 1247 1247 1291 1291 1711 1672 1635 0 4088 3873 4088 3504 3679 3504 3679 3504 3345 0 0 0 0 0 1051 0 0 1132 1168 1187 1226 1206 1206 0 3504 6133 0 0 0 0 0 0 0 0 0 0 0 0 162 164 163 0 0 0 0 0 0 166 164 0 3345 3199 3679 0 3873 3873 4599 4906 3679 0 0 0 0 1115 1132 1036 1149 1149 1115 1132 1168 1132 1132 1132 1268 1082 1098 0 994 0 994 1008 1008 0 994 981 0 0 0 0 968 968 1036 1036 0 1082 1066 1066 1098 1187 1206 0 1206 0 0 0 1314 1247 1247 0 0 1291 1206 1206 0 0 0 0 0 1066 1066 1051 1022 981 1036 1022 1036 1036 1022 1022 1036 1051 1066 1051 1082 1098 1066 1082 1268 1132 1051 1066 1098 1022 981 0 0 0 0 0 0 0 0 0 0 0 265 0 0 0 0 0 0 0 0 0 0 0 0 0 0 0 0 0 0 0 0 490 487 487 487 477 471 474 477 477 0 0 0 0 0
    0 0 0 0 0 0 0 0 0 0 0 0 0 0 0 0 0 0 0 0 0 0 0 0 0 0 0 0 0 0 0 0 0 0 0 0 0 0 0 0 0 0 0 0 0 0 0 0 0 0 0 0 0 0 0 0 0 0 0 0 0 0 0 0 0 0 0 0 0 0 0 0 0 0 1362 0 0 0 0 1247 0 0 0 0 0 0 0 0 0 0 0 1291 1291 1247 1132 1132 1168 1115 0 0 0 0 0 1471 1388 1314 0 1291 1314 1268 1226 1247 1115 1226 1098 1187 1132 1187 1206 1206 1206 1247 1247 1314 1338 1711 1672 1672 3679 4329 4088 4329 3504 3679 3504 3679 3504 3345 0 0 0 0 0 1051 0 0 1149 1168 1187 1226 1206 0 0 2943 4088 8177 0 0 0 0 0 0 0 0 0 0 0 162 164 163 0 0 0 0 0 163 166 164 0 3504 3199 4088 2628 0 3504 4599 5256 3679 0 0 0 0 1098 1115 1036 1132 1132 1115 1132 1168 1132 1132 1132 1268 1098 1115 0 0 0 1036 1036 1036 1051 1051 1066 0 0 0 0 994 994 1022 0 0 1036 1022 1008 1066 1187 1206 0 1168 0 0 0 1226 1187 0 0 1206 0 1206 1206 1187 0 0 981 0 1066 1051 1051 1022 955 1036 1022 1022 1036 1022 1022 1036 1036 1066 1036 1066 1115 1066 1066 1268 1149 1066 1098 1149 0 0 0 0 0 0 0 0 0 0 0 0 0 0 0 0 0 0 0 1187 0 0 0 0 0 0 0 0 0 0 0 497 493 490 493 490 493 493 484 477 477 481 477 0 0 0 0 0
    0 0 0 0 0 0 0 0 0 0 0 0 0 0 0 0 0 0 0 0 0 0 0 0 0 0 0 0 0 0 0 0 0 0 0 0 0 0 0 0 0 0 0 0 0 0 0 0 0 0 0 0 0 0 0 0 0 0 0 0 0 0 0 0 0 0 0 0 0 0 0 0 0 0 0 0 0 0 0 1314 0 0 0 0 0 0 0 0 0 0 0 1247 1247 1187 1115 1115 1149 1115 0 0 0 0 1443 1471 1443 1338 0 0 1338 1268 1226 1206 1098 1187 1082 1168 1132 1187 1206 1206 1206 1268 1268 1338 1388 1711 1711 1711 0 4329 4329 4329 3504 3679 3504 3679 3504 3345 0 0 0 0 0 1036 0 0 0 1168 1187 1226 1206 1187 0 0 3199 5661 7359 7359 0 0 0 0 0 0 0 0 0 162 164 164 164 0 0 0 0 0 166 165 0 3873 3345 4906 2453 0 0 0 5661 3504 0 0 0 1098 1098 1115 1036 1132 1132 1115 1132 1168 1132 1132 1132 1268 1098 1115 0 0 0 1082 1082 1098 1098 1149 1132 1206 0 1115 0 0 0 1036 0 0 1008 994 981 0 0 1226 0 1168 0 0 0 1206 1149 1132 0 0 0 1187 0 1168 0 0 955 0 1066 1066 1066 1022 931 1036 1036 1022 1036 1022 1022 1036 1036 1066 1036 1051 1132 1051 1066 1268 1149 1098 1082 1132 0 0 0 4906 0 0 0 0 0 0 0 0 0 0 0 0 0 0 0 1206 0 0 0 0 0 0 0 0 0 0 493 500 497 497 493 490 497 497 490 481 484 481 477 0 0 0 0 0
    0 0 0 0 0 0 0 0 0 0 0 0 0 0 0 0 0 0 0 0 0 0 0 0 0 0 0 0 0 0 0 0 0 0 0 0 0 0 0 0 0 0 0 0 0 0 0 0 0 0 0 0 0 0 0 0 0 0 0 0 0 0 0 0 0 0 0 0 0 1168 0 0 0 0 1388 0 0 0 0 0 0 0 0 0 0 0 0 0 0 0 0 1226 1247 1206 1132 1149 1187 1168 0 1187 1247 1268 1599 1599 1565 1362 0 0 1314 1247 1206 1206 1082 1206 1082 1187 1149 1206 1226 1226 1226 1268 1268 1362 1443 1752 1752 1711 0 4599 4329 4599 3679 3679 3504 3873 3679 3345 0 0 0 0 0 1051 0 0 0 1168 1187 1226 1187 1187 1268 0 2628 3504 4906 4329 0 0 0 0 0 0 0 1533 1362 162 165 164 164 0 0 0 0 0 0 0 0 3873 0 4906 2230 0 0 0 0 0 0 0 0 1098 1098 1115 1051 1132 1132 1115 1132 1168 1149 1132 1149 1268 1132 1149 0 0 0 1132 1132 1115 1115 1149 1132 1206 1168 1115 1098 0 0 1022 0 0 981 994 981 1036 1187 1226 1247 1206 0 0 1187 1226 1187 1149 0 0 1247 1149 1187 1168 1051 1036 955 1008 1082 1082 1082 1036 943 1036 1036 1022 1036 1036 1022 1036 1036 1082 1036 1051 1149 1051 1051 0 1132 1082 1022 0 0 0 0 5256 0 0 0 0 0 0 0 0 0 0 0 0 0 0 0 1206 0 0 0 0 0 0 459 457 471 487 497 504 504 500 500 497 504 504 493 490 493 487 0 0 0 0 0 0
    0 0 0 0 0 0 0 0 0 0 0 0 0 0 0 0 0 0 0 0 0 0 0 0 0 0 0 0 0 0 0 0 0 0 0 0 0 0 0 0 0 0 0 0 0 0 0 0 0 0 0 0 0 0 0 0 0 0 0 0 0 0 0 0 0 0 0 0 0 1149 1149 1206 1168 0 0 0 0 0 1599 0 0 0 0 0 0 0 0 0 0 0 0 0 0 1268 1206 1206 1226 1206 1247 1226 1226 0 0 1752 1672 1388 0 1226 1268 1206 1187 1187 1082 1206 1082 1187 1149 1206 1226 1247 1226 1291 1291 1388 1471 1752 1752 1752 0 0 4599 4906 3873 3873 3873 4088 3873 3504 0 0 0 0 0 1051 0 0 1149 1168 1187 1206 1187 1187 1268 0 2044 0 0 0 0 0 0 0 0 0 0 1501 1338 0 165 164 0 0 0 1206 1168 1149 0 0 0 6690 6690 0 0 0 1887 1565 0 0 0 0 0 1115 1098 1115 1051 1132 1132 1115 1132 1187 1149 1149 1149 1268 1168 1168 0 0 0 1206 1187 1149 1132 1168 1168 1206 1168 1115 1098 1036 0 1008 981 968 968 981 968 1008 1187 1226 1268 1226 0 1168 1247 1268 1247 1226 0 0 1291 1206 1226 1206 1132 1082 955 1022 1082 1082 1082 1036 943 1036 1036 1022 1051 1036 1036 1036 1051 1098 1051 1051 1168 1051 1051 0 1226 0 0 0 0 0 0 0 0 0 0 0 422 425 0 0 0 0 0 0 0 0 0 0 0 0 0 0 0 0 465 462 477 493 497 507 507 500 504 507 514 514 514 514 514 504 504 0 0 0 0 0
    0 0 0 0 0 0 0 0 0 0 0 0 0 0 0 0 0 0 0 0 0 0 0 0 0 0 0 0 0 0 0 0 0 0 0 0 0 0 0 0 0 0 0 0 0 0 0 0 0 0 0 0 0 0 0 0 0 0 0 0 0 0 0 0 0 0 0 0 0 1168 0 1268 0 0 0 0 0 0 1672 0 0 0 0 0 0 0 0 0 0 0 0 0 1338 1268 1206 1226 1226 1206 1206 1187 1187 1149 0 1752 1711 1388 0 1206 1168 1168 1187 1187 1082 1206 1098 1187 1168 1226 1247 1247 1247 1291 1291 1388 1471 1752 1752 1752 0 0 5256 5661 4906 4599 4599 4599 4599 3873 0 0 0 0 0 1051 0 0 1149 1168 1187 1206 1187 1187 1268 0 0 0 0 0 0 0 0 0 0 0 0 1415 1338 0 165 164 0 1226 1226 1206 1168 1132 0 0 0 0 0 0 0 0 1839 1533 1314 1187 1066 1066 1036 1132 1115 1115 1051 1132 1132 1115 1132 1187 1149 1149 1168 1268 1187 1187 0 0 0 1226 1206 1168 1149 1206 1226 1247 1206 1168 1149 1082 0 0 994 955 955 968 955 994 1168 1247 1291 1268 1291 1247 1314 1291 1268 1268 0 0 1291 1226 1247 1206 1132 1066 919 1008 1066 1051 1051 1022 943 1036 1036 1022 1051 1051 1036 1051 1051 1098 1051 1066 1187 1051 1051 0 1415 0 0 0 0 0 0 0 0 0 0 0 418 418 0 0 0 0 0 0 0 0 210 0 0 0 0 0 0 511 471 468 477 497 497 507 500 500 507 514 521 521 525 521 525 518 518 0 0 0 0 0
    0 0 0 0 0 0 0 0 0 0 0 0 0 0 0 0 0 0 0 0 0 0 0 0 0 0 0 0 0 0 0 0 0 0 0 0 0 0 0 0 0 0 0 0 0 0 0 0 0 0 0 0 0 0 0 0 0 0 0 0 0 0 0 0 0 0 0 0 0 0 0 1388 0 0 0 0 0 0 1533 0 0 0 0 0 0 0 0 0 0 0 0 0 0 1247 1187 1206 1187 1168 1168 1149 1149 1082 0 1795 1711 0 0 0 1132 1149 1187 1226 1098 1247 1115 1206 1168 1226 1247 1247 1247 1291 1291 1388 1471 1752 1752 1752 0 0 5256 6133 5661 5256 5661 5256 5256 4329 0 0 0 0 0 1066 1168 1149 1168 1168 1168 1206 1187 1168 1268 1226 0 0 0 0 0 0 0 0 0 0 0 1338 1314 0 0 0 0 1226 1226 1206 1168 1132 0 1115 0 0 0 0 0 0 1887 1501 1314 1206 1115 1098 1051 1132 1132 1132 1066 1149 1149 1132 1132 1187 1168 1168 1168 1291 1206 1206 0 0 0 1247 1247 1226 1187 1226 1247 1268 1226 1187 1187 1132 0 0 0 968 968 968 968 994 1115 1226 1247 1268 1268 1226 1268 1268 1226 1247 1187 0 1314 1226 1226 1149 1098 1036 931 994 1022 1022 1022 1008 943 1036 1036 1022 1066 1066 1051 1051 1066 1115 1066 1066 1187 1036 1036 0 1415 0 0 0 0 0 0 0 0 0 0 0 0 0 0 0 0 0 0 0 0 0 0 0 0 0 0 525 529 514 477 477 0 497 497 504 497 504 518 521 525 525 533 529 529 525 525 0 0 0 0 0
    0 0 0 0 0 0 0 0 0 0 0 0 0 0 0 0 0 0 0 0 0 0 0 0 0 0 0 0 0 0 0 0 0 0 0 0 0 0 0 0 0 0 0 0 0 0 0 0 0 0 0 0 0 0 0 0 0 0 0 0 0 0 0 0 0 0 0 0 0 1471 1599 1565 1711 1711 0 1711 1672 1599 1314 0 0 0 0 0 0 0 0 0 0 0 0 0 0 1206 1168 1168 1168 1149 1115 1098 1115 0 0 1887 1752 0 0 0 1268 1206 1247 1268 1132 1268 1115 1206 1187 1247 1247 1247 1247 1291 1291 1415 1443 1752 1711 1752 0 0 5256 6133 6133 5256 6133 5661 5661 4599 0 0 0 0 0 1066 1168 1168 1168 1168 1168 1187 1187 1168 1268 1247 0 1206 0 0 0 0 0 0 0 1206 0 1314 1314 0 0 0 1226 1206 1206 1187 1168 1132 1226 1098 0 0 7359 0 4088 0 1887 1415 1268 1206 1168 1098 1066 1149 1132 1132 1066 1149 1149 1132 1149 1187 1168 1168 1168 1291 1247 1226 0 0 0 1291 0 0 1187 1206 1247 1268 1226 1187 1206 1132 0 0 994 955 955 955 968 981 1022 1115 1132 1206 1226 1149 1226 1268 1187 1247 1132 0 0 1206 1247 1149 1115 1022 955 1008 1022 1008 1008 994 943 1036 1051 1036 1082 1082 1066 1066 1082 1132 1082 1082 1187 1022 1022 0 1443 1501 1443 0 0 0 0 0 0 0 0 0 0 0 0 1752 0 0 0 0 0 0 0 0 0 525 525 529 533 521 484 484 490 497 500 507 504 511 521 529 529 533 537 533 533 525 521 0 0 0 0 0
    0 0 0 0 0 0 0 0 0 0 0 0 0 0 0 0 0 0 0 0 0 0 0 0 0 0 0 0 0 0 0 0 0 0 0 0 0 0 0 0 0 0 0 0 0 0 0 0 0 0 0 0 0 0 0 0 0 0 0 0 0 0 0 0 0 0 0 0 0 1443 1443 1443 1443 1533 1635 1533 1415 1314 1268 1132 0 0 0 0 0 0 0 0 0 0 0 0 1338 0 1187 0 0 1149 0 1066 1051 0 0 0 0 0 0 0 1314 1268 1291 1291 1132 1268 1115 1206 1187 1247 1268 1247 1247 1291 1291 1415 1443 1752 1672 1711 0 0 5256 5661 5661 4906 6133 5661 5661 4906 0 0 0 0 0 1082 1149 1168 1168 1168 1168 1187 1187 1187 1268 1268 1247 1226 0 0 0 0 0 0 1291 1268 1314 1268 1291 1132 0 1187 1206 1206 1206 1187 1187 1149 1226 1082 0 6690 5256 6133 3345 0 0 1338 1206 1168 1168 1098 1066 1149 1149 1132 1066 1149 1149 1132 1149 1187 1149 1168 1168 1291 1247 1226 1268 0 0 0 0 0 1206 1206 1247 1268 1226 1168 1187 1115 1036 994 968 919 908 931 955 968 981 1022 1051 1098 1149 1098 1168 1187 1132 1226 1098 1187 1268 1168 1226 1115 1082 1022 981 1008 1022 1008 994 994 955 1051 1051 1036 1098 1098 1082 1066 1082 1132 1082 1082 1206 1022 1022 0 1415 1443 1388 0 0 0 0 0 0 0 0 0 0 0 0 0 0 0 0 0 0 0 0 0 0 533 533 533 541 529 490 487 490 493 497 504 500 514 525 529 529 533 533 529 525 518 511 0 0 0 0 0
    0 0 0 0 0 0 0 0 0 0 0 0 0 0 0 0 0 0 0 0 0 0 0 0 0 0 0 0 0 0 0 0 0 0 0 0 0 0 0 0 0 0 0 0 0 0 0 0 0 0 0 0 0 0 0 0 0 0 0 0 0 0 0 0 0 0 0 0 0 1291 0 0 0 0 0 0 1291 1247 1206 1082 0 0 0 0 0 0 0 0 0 0 0 0 1362 0 0 0 0 1168 0 1051 1022 0 0 0 0 0 0 0 1314 1268 1291 1268 1132 1247 1115 1206 1187 1247 1268 1247 1268 1291 1291 1388 1443 1752 1599 1672 1672 0 4088 5256 5256 4599 5661 5661 5661 5256 3504 0 0 0 0 1098 1149 1168 1168 1168 1168 1187 1187 1187 1247 1268 1247 1226 0 0 0 1501 1415 1338 1291 1291 1291 1226 1268 1132 1226 1187 1206 1206 1206 1187 1187 1149 1226 1082 0 0 3679 3873 3066 0 0 1268 1168 1149 1149 1098 1082 1149 1149 1149 1082 1149 1149 1132 1149 1187 1149 1149 1149 1291 1247 1226 1247 1314 1362 0 0 0 1187 1187 1226 1206 1168 1132 1149 1115 1036 0 0 897 876 897 931 955 955 994 1022 1066 1149 1115 1187 1206 1187 1247 1132 1187 1168 1115 1187 1098 1066 1022 994 1022 1036 1022 1008 994 968 1051 1066 1051 1098 1098 1082 1082 1098 1132 1098 1098 1206 1022 1022 1022 1388 1415 1338 0 0 0 0 0 0 0 0 0 0 0 0 0 553 0 0 0 0 0 537 541 0 537 537 537 541 537 525 511 507 504 500 511 514 521 525 533 537 533 533 525 518 504 493 0 0 0 0 0
    0 0 0 0 0 0 0 0 0 0 0 0 0 0 0 0 0 0 0 0 0 0 0 0 0 0 0 0 0 0 0 0 0 0 0 0 0 0 0 0 0 0 0 0 0 0 0 0 0 0 0 0 0 0 0 0 0 0 0 0 0 0 0 0 0 0 0 0 0 1247 0 0 0 0 0 0 1226 1187 1168 1051 0 0 0 0 0 0 0 0 0 0 0 0 1388 1338 0 0 0 1187 0 1066 1008 994 0 0 0 0 0 0 1291 1226 1291 1268 1132 1247 1115 1206 1187 1247 1268 1247 1268 1291 1291 1388 1415 1711 1533 1635 1635 0 3199 0 4088 4329 5661 5661 5661 5256 3504 0 0 0 1115 1115 1168 1168 1168 1168 1168 1187 1187 1187 1247 1268 1247 1226 0 1415 0 1362 1362 1314 1268 1268 1268 1206 1247 1115 1226 1168 1187 1187 1187 1187 1187 1149 1247 1082 0 0 0 0 3345 0 0 1149 1098 1149 1168 1115 1082 1187 1168 1187 1098 1149 1149 1149 1132 1168 1132 1132 1132 1268 1226 1206 1226 1291 1314 1247 0 1268 1132 1168 1168 1132 1115 1098 1132 1132 0 0 0 0 0 0 0 981 968 994 1022 1066 1187 1132 1206 1226 1187 1247 1132 1168 1082 1051 1115 1066 1051 1022 1008 1022 1036 1022 1008 1008 994 1066 1082 1051 1115 1115 1098 1082 1098 1149 1098 1098 1206 1022 1022 1022 1362 1362 0 0 0 0 0 0 0 0 0 0 1149 0 0 549 566 0 0 0 0 545 545 545 545 541 545 545 545 545 533 521 518 511 504 514 518 525 529 537 537 533 525 514 504 493 487 0 0 0 0 0
    0 0 0 0 0 0 0 0 0 0 0 0 0 0 0 0 0 0 0 0 0 0 0 0 0 0 0 0 0 0 0 0 0 0 0 0 0 0 0 0 0 0 0 0 0 0 0 0 0 0 0 0 0 0 0 0 0 0 0 0 0 0 0 0 0 0 0 0 0 1168 1226 0 0 0 1115 1206 1226 1226 1206 1115 1115 0 0 0 0 0 279 0 0 0 0 0 1415 1362 0 0 0 1168 0 1066 1008 981 955 897 0 0 0 1187 1036 1226 1314 1314 1149 1268 1115 1206 1187 1247 1268 1268 1268 1291 1268 1388 1388 1711 1443 1501 1565 1839 0 0 0 0 5256 5256 5661 5256 3504 0 0 0 1132 1132 1168 1187 1187 1168 1168 1187 1187 1187 1247 1268 1247 0 0 1362 1247 1291 1338 1291 1247 1268 1247 1187 1247 1115 1206 1168 1187 1187 1187 1187 1206 1168 1247 1098 0 0 0 0 0 0 0 1115 1066 1168 1187 1132 1115 1206 1206 1206 1115 1168 1168 1168 1149 1187 1132 1132 1132 1268 1226 1206 1206 1338 1338 0 0 0 1115 1132 0 0 0 0 0 0 0 0 0 0 0 0 0 1008 968 994 1008 1051 1168 1115 0 0 1115 1226 1115 1149 1036 0 1066 1066 1036 1022 1008 1022 1036 1022 1008 1022 1008 1082 1098 1051 1115 1115 1098 1082 1098 1132 1082 1098 1187 1022 1022 1022 1338 1362 0 0 0 0 0 0 0 1206 0 1226 1226 0 0 0 588 0 0 0 0 553 549 549 549 545 549 553 549 553 537 529 521 518 500 511 518 525 529 533 533 525 511 500 493 493 490 0 0 0 0 0
    0 0 0 0 0 0 0 0 0 0 0 0 0 0 0 0 0 0 0 0 0 0 0 0 0 0 0 0 0 0 0 0 0 0 0 0 0 0 0 0 0 0 0 0 0 0 0 0 0 0 0 0 0 0 0 0 0 0 0 0 0 0 0 0 0 0 0 0 0 1168 1206 0 0 0 1132 1206 1247 1268 1226 1206 1187 1187 1206 0 0 0 280 0 0 0 0 0 1415 1362 0 0 0 0 981 1051 1008 981 955 908 0 0 0 0 0 1226 1314 1314 1132 1268 1098 1187 1187 1247 1268 1268 1268 1268 1268 1388 1388 1672 1338 1338 1388 1672 0 0 0 0 5661 5661 6133 5661 3504 0 0 0 1149 1149 1187 1187 1187 1187 1168 1187 1187 1206 1226 1247 1247 0 0 1226 1206 1206 1247 1268 1226 1226 1187 1132 1206 1115 1206 1168 1187 1187 1187 1187 1206 1168 1247 1098 0 0 0 0 0 0 0 1226 1082 1187 1206 1149 1149 1226 1226 1226 1115 1187 1168 1168 1168 1187 1132 1132 1132 1268 1226 1226 1226 1362 1362 0 1471 1471 0 0 0 0 0 0 0 0 0 0 0 0 836 845 0 981 955 994 981 0 1132 1098 0 0 0 1206 1132 1187 0 0 1066 1066 1036 1008 1008 1008 1022 1022 1008 1022 1022 1082 1098 1051 1115 1115 1098 1082 1098 1132 1082 1082 1187 1022 1022 1036 1314 1338 1338 0 0 0 0 0 0 1226 1291 1291 0 0 0 0 579 566 0 545 541 553 549 553 549 549 549 553 549 557 541 533 525 521 504 507 511 521 518 525 521 507 497 497 493 490 487 0 0 0 0 0
    0 0 0 0 0 0 0 0 0 0 0 0 0 0 0 0 0 0 0 0 0 0 0 0 0 0 0 0 0 0 0 0 0 0 0 0 0 0 0 0 0 0 0 0 0 0 0 0 0 0 0 0 0 0 0 0 0 0 0 0 0 0 0 0 0 0 0 0 0 0 1226 0 0 0 1187 0 0 1291 1268 1268 1247 1247 0 1206 0 0 0 0 0 0 0 0 0 0 0 0 0 0 981 1051 1008 981 968 931 0 0 0 0 0 0 1338 1314 1132 1247 1098 1187 1187 1247 1268 1268 1268 1268 1268 1362 1362 1599 1314 1291 1314 1471 2537 0 0 0 0 5661 6133 6133 3345 0 0 0 1168 1187 1187 1187 1206 1187 1187 1187 1206 1226 1226 1247 1247 1187 0 1206 1226 1226 1247 1291 1247 1247 1206 1149 1226 1115 1206 1168 1187 1168 1168 1187 1187 1168 1247 1115 1338 0 0 0 0 0 1247 1206 1132 1206 1206 1168 1149 1206 1226 1226 1132 1187 1187 1187 1168 1187 1149 1132 1132 1268 1206 1187 1206 1314 1314 0 1415 1501 0 0 0 0 0 0 0 0 0 0 0 0 0 826 0 1008 981 1022 1008 1066 1149 1132 0 0 1187 1247 1206 1247 0 0 0 1082 1036 1008 1008 1022 1022 1022 1008 1022 1022 1082 1098 1051 1115 1115 1098 1066 1098 1115 1082 1082 1168 1036 1022 1036 1314 1314 1338 1314 0 0 1338 1314 1291 1268 1314 1291 0 0 0 0 579 570 549 553 545 557 553 553 553 549 549 553 549 557 537 537 529 521 504 504 500 514 514 514 507 500 497 493 493 490 487 0 0 0 0 0
    0 0 0 0 0 0 0 0 0 0 0 0 0 0 0 0 0 0 0 0 0 0 0 0 0 0 0 0 0 0 0 0 0 0 0 0 0 0 0 0 0 0 0 0 0 0 0 0 0 0 0 0 0 0 0 0 0 0 0 0 0 0 0 0 0 0 0 0 0 1206 1247 1206 0 0 1247 0 1314 1338 1291 1291 1268 1268 1226 1226 1226 1226 0 0 0 0 0 0 0 0 0 0 0 0 955 1022 994 968 968 0 0 0 0 0 0 0 1314 1314 1132 1247 1098 1187 1187 1247 1268 1268 1268 1268 1268 1362 1362 1533 1291 1291 1268 1338 2299 2725 0 0 0 0 6133 6690 0 0 0 0 1168 1187 1187 1206 1206 1187 1187 1206 1206 1226 1226 1247 1247 1187 1247 1226 1226 1226 1247 1268 1268 1268 1226 1168 1226 1115 1187 1168 1168 1168 1168 1168 1187 1149 1247 1098 0 1291 1247 0 0 1247 1226 1187 1132 1187 1187 1168 1149 1187 1226 1226 1132 1187 1187 1168 1168 1187 1149 1132 1132 1247 1226 1187 1187 1291 1291 1314 1415 1599 0 0 0 0 0 0 0 0 0 0 0 0 897 931 1022 1036 994 1022 1008 1051 1082 1098 0 0 1149 1206 1168 1226 0 0 0 0 1051 1008 1022 1022 1036 1036 1022 1022 1022 1082 1115 1051 1098 1098 1082 1066 1082 1115 1066 1066 1149 1036 1036 1051 1291 1314 1314 1314 0 1362 1314 1268 1226 1247 0 0 0 0 0 0 593 579 553 561 549 557 557 557 557 553 553 553 545 557 537 533 529 518 504 504 504 514 514 504 504 500 497 497 493 493 490 0 0 0 0 0
    0 0 0 0 0 0 0 0 0 0 0 0 0 0 0 0 0 0 0 0 0 0 0 0 0 0 0 0 0 0 0 0 0 0 0 0 0 0 0 0 0 0 0 0 0 0 0 0 0 0 0 0 0 0 0 0 0 0 0 0 0 0 0 0 0 0 0 0 0 1149 1206 1168 0 0 0 0 1291 1314 1314 1314 1338 1314 1268 1268 1247 1268 0 0 0 0 0 0 0 0 0 0 0 0 0 0 1022 0 994 0 994 994 1206 1149 1066 1187 1291 1314 1115 1226 1098 1187 1187 1247 1268 1247 1268 1268 1268 1362 1362 1471 1291 1247 1247 1268 0 0 0 0 0 0 0 0 0 1291 1247 1206 1187 1206 1206 1206 1206 1206 1187 1206 1206 1226 1226 1226 1247 1206 1247 1226 1247 1206 1187 1226 1268 1247 1226 1168 1226 1115 1187 1168 1168 1149 1149 1149 1168 1132 1226 1082 0 0 1291 0 1291 1247 1226 1187 1149 1187 1187 1168 1149 1187 1226 1226 1149 1168 1187 1168 1168 1168 1149 1115 1115 1226 1226 1168 1168 1291 0 1338 0 1533 0 1206 0 0 0 0 0 0 0 0 0 0 994 0 1036 1051 1022 1022 1008 1022 1051 1066 1036 1051 1098 1149 1082 1115 1036 0 0 0 1022 994 1008 1022 1036 1051 1022 1036 1036 1098 1115 1051 1082 1082 1082 1066 1082 1098 1066 1051 1115 1036 1036 1051 1314 1314 1314 1291 0 1388 1338 1268 1168 0 0 0 0 0 598 584 593 579 561 566 553 561 557 557 557 553 553 553 545 557 537 533 529 518 504 504 511 511 518 507 511 504 504 500 500 497 493 0 0 0 0 0
    0 0 0 0 0 0 0 0 0 0 0 0 0 0 0 0 0 0 0 0 0 0 0 0 0 0 0 0 0 0 0 0 0 0 0 0 0 0 0 0 0 0 0 0 0 0 0 0 0 0 0 0 0 0 0 0 0 0 0 0 0 0 0 0 0 0 0 0 0 1132 1168 1132 1149 1168 1206 1226 1247 1291 1314 1338 1362 1314 1268 1268 0 0 0 0 0 0 0 0 0 0 1291 1291 0 1206 0 1226 0 1132 1051 0 1036 1008 1132 1115 0 1098 1226 1206 1082 1226 1082 1187 1168 1226 1247 1247 1247 1268 1268 1338 1338 1415 1268 1247 1206 1226 1226 1187 0 0 0 1226 1206 1291 1226 1268 1226 1187 1187 1206 1206 1206 1206 1206 1187 1206 1206 1226 1226 1206 1226 1187 1226 1206 1226 1206 1187 1206 1247 1226 1226 1168 1226 1115 1187 1168 1168 1132 1132 1149 1149 1098 1226 1051 0 0 0 0 0 1226 1206 1187 1149 1187 1187 1187 1168 1187 1226 1226 1168 1168 1187 1168 1168 1168 1149 1115 1115 1187 1206 1098 1098 1268 1226 0 0 1415 1291 1247 1115 1132 1051 1082 1066 1051 1066 1066 1066 1098 1036 0 0 1066 1051 1051 1036 1036 1066 1066 1051 1066 1082 1098 1051 1051 1008 0 0 0 1008 994 1022 1036 1051 1066 1036 1051 1036 1098 1115 1051 1066 1066 1066 1051 1066 1082 1051 1051 1082 1051 1051 1066 1291 1268 1291 1247 0 1415 0 0 0 0 0 0 0 0 0 579 593 579 561 566 553 561 557 557 553 549 549 549 541 549 533 529 525 518 504 504 514 511 518 507 511 507 507 504 504 500 497 0 0 0 0 0
    0 0 0 0 0 0 0 0 0 0 0 0 0 0 0 0 0 0 0 0 0 0 0 0 0 0 0 0 0 0 0 0 0 0 0 0 0 0 0 0 0 0 0 0 0 0 0 0 0 0 0 0 0 0 0 0 0 0 0 0 0 0 0 0 0 0 0 0 0 1149 1149 1132 1149 1168 1226 1226 1247 1314 1314 1314 1338 1338 0 0 0 0 0 0 0 0 0 0 0 1291 1247 1268 1291 1206 1187 1247 1226 1206 1132 0 1066 1036 1098 1066 1008 1008 0 1115 1066 1247 1082 1187 1168 1226 1247 1247 1247 1268 1247 1314 1314 1388 1268 1226 1187 1206 1206 1149 1149 1206 1098 1206 1206 1268 1206 1247 1226 1187 1187 1206 1206 1206 1206 1206 1187 1206 1206 1226 1206 1187 1206 1168 1206 1187 1206 1206 1168 1187 1247 1226 1206 1168 1226 1115 1168 1149 1149 1132 1115 1132 1115 1082 1187 1008 0 0 1226 0 0 1226 1206 1187 1168 1206 1187 1187 1187 1187 1226 1226 1168 1149 1187 1168 1168 1149 1149 1115 1098 1149 1206 1098 1082 1247 1206 1247 1291 1338 1291 1247 1115 1132 1066 1098 1066 1051 1098 1132 1206 1247 1206 0 0 1132 1115 1098 1066 1051 1082 1082 1051 1082 1098 1098 1051 1082 1008 0 0 0 1036 1036 1051 1082 1082 1082 1051 1066 1051 1098 1098 1051 1051 1051 1051 1036 1051 1066 1036 1036 1051 1066 1066 1082 1291 1268 1291 0 1415 1471 1362 0 0 0 0 0 651 0 0 613 613 598 579 574 553 561 561 557 553 549 549 549 541 549 533 529 525 521 514 511 518 511 518 507 514 507 507 507 507 500 500 0 0 0 0 0
    0 0 0 0 0 0 0 0 0 0 0 0 0 0 0 0 0 0 0 0 0 0 0 0 0 0 0 0 0 0 0 0 0 0 0 0 0 0 0 0 0 0 0 0 0 0 0 0 0 0 0 0 0 0 0 0 0 0 0 0 0 0 0 0 0 0 0 0 0 1115 1115 1115 0 1187 1226 1247 1268 1338 1362 1362 1362 1338 0 0 0 0 0 0 0 0 0 0 0 1268 1247 1247 1268 1226 1226 1268 1268 1247 1206 0 1168 1082 1168 0 0 981 0 0 0 1268 1082 1206 1168 1226 1247 1247 1247 1247 1247 1314 1291 1362 1268 1206 1168 1168 1168 1115 1132 1187 1098 1206 1206 1247 1206 1247 1226 1187 1187 1206 1206 1206 1206 1206 1206 1206 1206 1206 1206 1168 1187 1149 1187 1149 1168 1187 1149 1168 1226 1206 1206 1168 1226 1115 1149 1149 1149 1115 1115 1115 1098 1066 1132 994 943 0 1132 0 0 1206 1206 1206 1187 1206 1206 1206 1206 1168 1226 1226 1168 1132 1187 1168 1168 1149 1168 1115 1115 1149 1206 1082 1066 1226 1206 1247 1291 1291 1268 1226 1115 1149 1082 1132 1082 1082 1168 1268 1314 1338 1338 1291 0 1206 1187 1168 1115 1082 1098 1098 1066 1082 1098 1098 1051 1082 1022 0 0 0 0 1066 1082 1098 1098 1082 1066 1082 1051 1082 1098 1051 1036 1051 1051 1036 1051 1066 1036 1022 1036 1066 1066 1082 1291 1132 1168 1291 0 1443 0 0 0 0 0 645 651 651 629 623 613 608 593 584 561 570 566 561 557 553 549 549 541 549 533 533 529 525 525 518 525 511 521 507 514 507 507 507 507 504 504 0 0 0 0 0
    0 0 0 0 0 0 0 0 0 0 0 0 0 0 0 0 0 0 0 0 0 0 0 0 0 0 0 0 0 0 0 0 0 0 0 0 0 0 0 0 0 0 0 0 0 0 0 0 0 0 0 0 0 0 0 0 0 0 0 0 0 0 0 0 0 0 0 0 0 0 0 0 0 1187 1247 1247 1247 1314 1314 0 0 0 0 0 0 0 0 1206 1206 1187 1168 1187 1187 1226 1226 0 0 0 1247 1291 1291 1291 1247 0 1268 1268 1268 0 0 0 0 0 0 1268 1082 1206 1168 1226 1247 1226 1226 1247 1226 1291 1268 1362 1247 1187 1168 1168 1168 1115 1132 1187 1132 1226 1206 1247 1206 1247 1226 1187 1187 1206 1206 1206 1206 1226 1206 1206 1206 1226 1206 1168 1187 1149 1187 1149 1168 1187 1132 1168 1226 1206 1206 1149 1226 1115 1149 1149 1149 1098 1098 1098 1082 1051 1082 1008 943 0 1149 0 0 1226 1206 1226 1206 1206 1206 1206 1206 1132 1226 1206 1168 1132 1187 1187 1168 1149 1168 1115 1115 1149 1226 1115 1098 1247 1247 1291 1314 1291 1291 1268 1168 1206 1098 1168 1132 1132 1206 1268 1291 1338 1314 1291 1247 1206 1206 0 1132 1098 1098 1082 1066 1082 1098 1098 1066 1115 1066 1066 0 0 0 1082 1098 1098 1098 1066 1051 1066 1051 1082 1098 1051 1036 1036 1036 1036 1051 1051 1036 1022 1022 1082 1066 1082 1268 1098 1036 1051 0 0 0 0 634 663 651 651 651 651 634 629 613 613 598 588 570 579 574 570 561 557 549 545 541 545 537 537 533 529 529 521 525 514 521 507 514 511 511 511 511 507 507 0 0 0 0 0
    0 0 0 0 0 0 0 0 0 0 0 0 0 0 0 0 0 0 0 0 0 0 0 0 0 0 0 0 0 0 0 0 0 0 0 0 0 0 0 0 0 0 0 0 0 0 0 0 0 0 0 0 0 0 0 0 0 0 0 0 0 0 0 0 0 0 0 0 0 0 0 0 0 0 0 1226 0 0 0 0 0 0 0 0 0 0 0 0 1206 1187 1168 1187 1187 1226 1226 1247 1247 1226 1247 1291 1291 1291 1268 0 1268 0 1247 0 0 0 0 0 1082 1247 1066 1187 1149 1206 1226 1226 1226 1226 1226 1291 1268 1362 1247 1206 1187 1187 1168 1115 1149 1187 1149 1226 1226 1247 1206 1247 1206 1187 1187 1187 1206 1206 1206 1206 1187 1226 1226 1226 1206 1187 1206 1168 1206 1168 1187 1187 1149 1168 1226 1206 1187 1132 1206 1132 1132 1115 1115 1082 1066 1082 1066 1036 0 1022 981 1115 1149 0 1247 1206 1187 1187 1206 1206 1187 1187 1168 1082 1187 1187 1149 1098 1168 1168 1149 1149 1187 1132 1132 1149 1247 1115 1098 1206 1247 1268 1268 1247 1247 1226 1168 1187 1098 1132 1115 1098 1187 1206 1247 1314 1291 1291 1247 1226 1226 0 0 0 1098 1098 1098 1115 1115 1132 1098 1168 1149 1187 0 0 0 1115 1098 1115 1098 1066 1051 1066 1051 1066 1098 1066 1022 1036 1036 1036 1051 1051 1051 1022 1022 1115 1082 1082 1268 1115 1036 0 886 735 634 639 639 657 657 651 651 651 639 634 618 613 603 593 579 584 579 579 566 557 549 545 541 545 541 537 533 533 533 521 525 511 521 507 514 511 511 511 511 507 507 0 0 0 0 0
    0 0 0 0 0 0 0 0 0 0 0 0 0 0 0 0 0 0 0 0 0 0 0 0 0 0 0 0 0 0 0 0 0 0 0 0 0 0 0 0 0 0 0 0 0 0 0 0 0 0 0 0 0 0 0 0 0 0 0 0 0 0 0 0 0 0 0 0 0 0 0 0 0 0 0 0 0 0 0 0 0 0 0 0 0 0 0 0 1206 1187 1168 1187 1168 1206 1206 1226 1247 1226 1247 1291 1291 1291 1268 0 0 0 1291 0 0 0 0 0 1115 1268 1082 1206 1132 1206 1206 1206 1206 1226 1206 1268 1247 1338 1247 1226 1206 1206 1168 1149 1168 1206 1149 1226 1206 1226 1206 1226 1206 1168 1168 1187 1187 1206 1206 1206 1187 1226 1226 1226 1226 1206 1226 1187 1206 1206 1206 1206 1168 1187 1226 1206 1206 1187 1206 1168 1132 1115 1132 1066 1051 1051 1036 1022 1008 1036 1036 1098 1132 1187 1206 1168 1149 1149 1168 1168 1168 1149 1115 1066 1149 1168 1149 1082 1149 1149 1149 1149 1168 1132 1132 1132 1247 1098 1082 1168 1226 1226 1226 1187 1206 1187 1115 1149 1098 1098 1098 1098 1206 1226 1247 1314 1268 1268 1247 1226 1226 1206 1168 1132 1098 1098 1115 1115 1115 1132 1115 1187 1226 1268 0 0 0 1168 1168 1168 1115 1066 1066 1066 1051 1051 1098 1066 1022 1036 1051 1036 1051 1066 1051 1022 1036 1149 1082 1098 1247 1132 1036 981 845 728 634 639 639 657 657 651 651 651 639 639 623 618 608 598 588 588 584 584 566 561 553 549 549 549 545 541 537 537 533 521 525 511 521 507 514 511 511 511 514 507 511 0 0 0 0 0
    0 0 0 0 0 0 0 0 0 0 0 0 0 0 0 0 0 0 0 0 0 0 0 0 0 0 0 0 0 0 0 0 0 0 0 0 0 0 0 0 0 0 0 0 0 0 0 0 0 0 0 0 0 0 0 0 0 0 0 0 0 0 0 0 0 0 0 0 0 0 0 0 0 0 0 0 0 0 0 0 0 0 0 0 0 0 0 0 1187 1168 1149 1187 1149 1206 1187 1206 1226 1226 1226 1268 1268 1268 1268 0 0 0 0 0 0 0 0 1291 1149 1291 1082 1206 1132 1187 1206 1206 1206 1206 1187 1247 1206 1314 1247 1206 1206 1187 1149 1132 1168 1187 1149 1206 1187 1206 1187 1206 1187 1168 1168 1168 1168 1187 1187 1206 1149 1187 1187 1206 1206 1206 1206 1187 1206 1206 1206 1206 1168 1168 1226 1187 1187 1187 1226 1206 1168 1149 1168 1066 1051 1051 1036 1022 994 1051 1066 1082 1132 1187 1206 1149 1132 1132 1149 1115 1132 1115 1066 1066 1115 1149 1149 1066 1149 1149 1132 1132 1168 1149 1115 1115 1247 1082 1082 1149 1206 1206 1187 1149 1149 1132 1098 1098 1066 1066 1066 1066 1206 1226 1247 1291 1247 1247 1247 1206 1187 1187 1149 1115 1082 1082 1098 1098 1098 1115 1115 1187 1206 1268 1268 1132 1187 1206 1226 1226 1132 1066 1066 1066 1066 1051 1115 1066 1022 1051 1066 1051 1066 1066 1066 1036 1051 1168 1082 1082 1226 1098 994 865 0 721 634 645 639 657 657 657 657 651 645 639 623 623 608 598 588 588 588 579 561 561 557 553 553 553 549 545 545 541 537 525 525 511 521 507 514 511 511 511 514 507 511 0 0 0 0 0
    0 0 0 0 0 0 0 0 0 0 0 0 0 0 0 0 0 0 0 0 0 0 0 0 0 0 0 0 0 0 0 0 0 0 0 0 0 0 0 0 0 0 0 0 0 0 0 0 0 0 0 0 0 0 0 0 0 0 0 0 0 0 0 0 0 0 0 0 0 0 0 0 0 0 0 0 0 0 0 0 0 0 0 0 0 0 0 0 0 1168 1149 1187 1168 1226 1206 1226 1247 1226 1226 1247 1247 1268 1247 0 0 0 0 120 0 0 0 0 1132 1314 1082 1206 1132 1187 1187 1187 1187 1206 1187 1247 1187 1291 1226 1187 1187 1187 1115 1132 1168 1187 1149 1187 1168 1187 1168 1187 1168 1149 1149 1149 1168 1168 1168 1206 1115 1149 1149 1187 1187 1187 1206 1187 1168 1168 1187 1187 1168 1168 1206 1168 1187 1206 1247 1226 1187 1168 1187 1082 1066 1066 1051 1051 1022 1051 1082 1082 1115 1168 1187 1149 1115 1115 1132 1098 1098 1082 1051 1066 1098 1149 1149 1066 1149 1149 1132 1149 1149 1149 1115 1115 1247 1082 1082 1132 1187 1168 1168 1132 1132 1115 1082 1066 1051 1036 1036 1008 1168 1247 1268 1314 1291 1314 1291 1247 1226 1226 0 1132 1098 1098 1132 1149 1132 1149 1168 1226 1247 1268 1268 1168 1187 1226 1226 1226 1149 1066 1066 1066 1066 1036 1115 1082 1022 1066 1082 1066 1066 1082 1082 1051 1051 1187 1082 1082 1187 1066 919 0 0 0 629 651 639 657 663 657 657 651 645 645 629 623 613 603 593 593 588 579 561 561 557 553 553 553 549 545 545 541 537 521 525 511 521 507 514 511 511 511 511 507 507 0 0 0 0 0
    0 0 0 0 0 0 0 0 0 0 0 0 0 0 0 0 0 0 0 0 0 0 0 0 0 0 0 0 0 0 0 0 0 0 0 0 0 0 0 0 0 0 0 0 0 0 0 0 0 0 0 0 0 0 0 0 0 0 0 0 0 0 0 0 0 0 0 0 0 0 0 0 0 0 0 0 0 0 0 0 0 0 0 0 0 0 0 0 0 0 1187 1206 1206 1226 1226 1226 1247 1226 1226 1247 1247 1247 0 0 0 0 0 120 0 0 0 0 1149 1314 1082 1206 1132 1187 1206 1187 1187 1206 1187 1226 1187 1314 1226 1206 1187 1206 1132 1149 1168 1206 1149 1168 1168 1149 1132 1168 1132 1132 1115 1132 1132 1149 1149 1187 1115 1132 1115 1168 1149 1168 1187 1168 1132 1149 1168 1187 1168 1187 1187 1187 1187 1226 1247 1247 1206 1206 1226 1082 1051 1051 0 0 0 1036 1051 1066 1082 1132 1187 1149 1115 1115 1132 1082 1098 1082 1036 1066 1082 1149 1149 1066 1149 1149 1149 1149 1149 1168 1115 1115 1247 1066 1082 1115 1149 1132 1132 1115 1115 1115 1098 1066 1051 1036 1022 994 1098 1247 1291 1338 1314 1362 1338 1291 1247 1247 0 1082 1082 1115 1168 1187 1168 1206 1226 1268 1291 1268 1268 1206 1206 1226 1247 1226 1132 1066 1082 1066 1066 1036 1115 1082 1036 1082 1098 1066 1082 1082 1098 1051 1066 1168 1051 1051 1082 0 0 700 639 681 639 657 651 657 657 657 657 657 645 645 629 629 613 603 598 598 593 584 574 570 566 561 561 557 553 553 549 545 541 525 529 511 521 507 514 511 511 511 511 504 507 0 0 0 0 0
    0 0 0 0 0 0 0 0 0 0 0 0 0 0 0 0 0 0 0 0 0 0 0 0 0 0 0 0 0 0 0 0 0 0 0 0 0 0 0 0 0 0 0 0 0 0 0 0 0 0 0 0 0 0 0 0 0 0 0 0 0 0 0 0 0 0 0 0 0 0 0 0 0 0 0 0 0 0 0 0 0 0 0 0 0 0 0 0 0 0 1206 0 0 0 0 0 1268 1247 1247 1247 1247 1226 1226 0 0 0 0 0 112 0 0 0 1168 1314 1082 1206 1132 1187 1206 1206 1206 1206 1187 1247 1226 1388 1291 1268 1247 1268 1206 1168 1187 1206 1168 1168 1168 1132 1132 1168 1149 1115 1098 1132 1132 1115 1168 1168 1098 1115 1168 1187 1187 1247 1226 1226 1149 1187 1187 1187 1168 1168 1187 1149 1149 1187 1206 1206 1168 1168 1132 1036 1008 1022 0 0 994 1008 1022 1051 1051 1098 1132 1115 1098 1082 1098 1066 1066 1051 994 1066 1066 1149 1149 1082 1149 1149 1149 1149 1149 1187 1132 1115 1226 1036 1036 1051 1082 1051 1066 1051 1051 1051 1051 1008 1008 981 981 955 994 1022 1115 0 1291 1362 1338 1291 1226 1226 0 0 0 0 1206 1226 1206 1226 1247 1268 1291 1268 1247 1187 1206 1226 1226 1206 1115 1066 1082 1082 1066 1036 1115 1098 1051 1098 1115 1082 1082 1082 1098 1066 1066 1149 1022 1022 1008 0 0 694 669 687 651 669 651 657 657 651 657 657 645 645 629 629 613 608 603 603 603 593 588 584 579 574 574 566 561 553 553 549 545 529 529 511 521 507 514 511 511 511 511 504 507 0 0 0 0 0
    0 0 0 0 0 0 0 0 0 0 0 0 0 0 0 0 0 0 0 0 0 0 0 0 0 0 0 0 0 0 0 0 0 0 0 0 0 0 0 0 0 0 0 0 0 0 0 0 0 0 0 0 0 0 0 0 0 0 0 0 0 0 0 0 0 0 0 0 0 0 0 0 0 0 0 0 0 0 0 0 0 0 0 0 0 0 0 0 0 0 0 0 0 0 0 0 1291 1268 1268 1268 1247 1206 1168 0 0 0 0 0 0 0 0 1338 1206 1291 1098 1187 1132 1206 1226 1206 1206 1226 1206 1268 1268 1415 1314 1291 1268 1291 1247 1187 1187 1206 1168 1149 1168 1132 1149 1168 1132 1115 1098 1132 1132 1132 1187 1187 1115 1149 1206 1206 1226 0 0 1268 1187 1226 1226 1206 1187 1168 1187 1132 1132 1132 1149 1149 1098 1115 1066 1022 1008 1008 1008 1022 994 1022 1008 1022 1036 1066 1098 1098 1098 1082 1082 1066 1082 1082 1036 1082 1066 1149 1149 1082 1149 1149 1149 1149 1149 1187 1115 1098 1187 1008 994 994 1008 994 994 981 1008 994 1022 981 981 955 955 955 981 994 1008 1066 1168 1338 1338 1247 1168 1115 1051 1036 0 0 1206 1226 1206 1226 1247 1247 1268 1247 1206 1187 1187 1206 1226 1187 1098 1066 1082 1082 1066 1022 1115 1098 1051 1132 1132 1098 1082 1098 1115 1066 1066 1115 1008 981 981 0 808 700 687 694 669 675 663 663 657 657 657 657 645 639 623 623 613 613 608 608 608 603 598 593 584 579 579 566 561 553 553 549 545 533 529 514 521 511 514 511 511 511 511 504 507 0 0 0 0 0
    0 0 0 0 0 0 0 0 0 0 0 0 0 0 0 0 0 0 0 0 0 0 0 0 0 0 0 0 0 0 0 0 0 0 0 0 0 0 0 0 0 0 0 0 0 0 0 0 0 0 0 0 0 0 0 0 0 0 0 0 0 0 0 0 0 0 0 0 0 0 0 0 0 0 0 1187 0 0 0 0 0 0 0 0 0 0 0 0 0 0 0 0 0 0 0 0 1314 1291 1247 1247 1206 1187 1115 0 0 0 0 0 0 0 0 1338 1247 1314 1098 1206 1149 1206 1226 1226 1226 1247 1226 1291 1291 1443 1314 1291 1268 1268 1226 1187 1187 1187 1149 1132 1132 1098 1115 1115 1098 1082 1066 1082 1098 1098 1168 1149 1098 1098 1187 1187 1206 0 0 1268 1226 1291 1268 1247 1206 1187 1187 1115 1132 1098 1098 1082 1051 1051 1022 1022 1008 1008 1008 1022 1008 1051 1036 1051 1051 1066 1098 1098 1098 1082 1082 1066 1082 1082 1051 1082 1066 1149 1149 1082 1149 1149 1149 1149 1149 1187 1115 1082 1149 994 981 994 994 994 994 968 994 981 1022 981 981 955 955 955 981 981 1008 1022 1066 1187 1291 1206 1132 1066 1022 1008 968 0 0 0 1206 1247 1247 1247 1291 1247 1187 1187 1187 1187 1206 1168 1082 1066 1066 1082 1051 1022 1115 1115 1051 1149 1149 1115 1098 1098 1115 1066 1066 1115 994 955 931 0 791 700 687 694 675 681 669 663 657 657 657 645 639 629 623 618 618 613 613 613 613 613 603 598 593 588 588 570 561 553 553 549 541 533 529 514 521 511 514 511 511 511 511 504 504 0 0 0 0 0
    0 0 0 0 0 0 0 0 0 0 0 0 0 0 0 0 0 0 0 0 0 0 0 0 0 0 0 0 0 0 0 0 0 0 0 0 0 0 0 0 0 0 0 0 0 0 0 0 0 0 0 0 0 0 0 0 0 0 0 0 0 0 0 0 0 0 0 0 0 0 0 0 1187 1168 1206 1187 1149 1132 0 1115 0 0 0 0 0 0 0 0 0 0 0 0 0 0 0 1268 1226 1247 1206 1206 1149 1187 1115 0 0 0 0 0 0 1206 1247 1247 1206 1268 1132 1206 1168 1226 1247 1247 1226 1247 1226 1291 1291 1415 1291 1268 1268 1247 1206 1168 1149 1168 1115 1098 1115 1098 1098 1098 1098 1082 1066 1082 1082 1082 1132 1115 1098 1066 1149 1149 1168 0 0 1149 1168 1226 1247 1206 1187 1168 1168 1098 1115 1082 1066 1051 1036 1022 1008 1008 1008 1008 1008 1022 1022 1036 1036 1051 1051 1066 1082 1098 1098 1082 1098 1082 1082 1082 1051 1082 1051 1132 1149 1082 1149 1149 1149 1149 1149 1168 1098 1082 1115 994 981 994 994 994 994 981 994 981 1022 994 994 968 955 955 981 981 1008 1008 1036 1066 1226 1168 1115 1066 1036 1008 968 0 1226 1268 0 1247 1268 1226 1291 1247 1168 1187 1168 1187 1206 1168 1082 1066 1066 1082 1022 1008 1098 1098 1051 1149 1149 1115 1098 1098 1132 1066 1051 1098 981 908 886 0 774 700 694 694 681 681 669 663 657 657 645 634 629 623 618 618 618 613 613 613 613 613 608 603 598 588 588 574 566 553 553 549 545 533 529 514 521 511 514 511 511 511 507 504 504 0 0 0 0 0
    0 0 0 0 0 0 0 0 0 0 0 0 0 0 0 0 0 0 0 0 0 0 0 0 0 0 0 0 0 0 0 0 0 0 0 0 0 0 0 0 0 0 0 0 0 0 0 0 0 0 0 0 0 0 0 0 0 0 0 0 0 0 0 0 0 0 0 0 0 0 0 0 1226 1206 0 1206 1168 0 0 0 0 0 0 0 0 0 0 229 0 0 0 0 0 0 0 1132 1115 1168 1149 1168 1115 1187 1149 1115 1206 1149 1168 1187 1168 1168 1187 1206 1226 1247 1149 1226 1187 1226 1247 1247 1247 1268 1247 1291 1291 1362 1291 1247 1247 1247 1187 1149 1132 1149 1098 1082 1098 1082 1098 1082 1098 1082 1082 1066 1082 1066 1098 1098 1098 1051 1082 0 1132 0 1206 1082 1149 1187 1206 1187 1187 1168 1168 1098 1098 1051 1036 1022 1008 1022 1008 1022 1008 1036 1022 1036 1036 1051 1036 1051 1022 1036 1066 1082 1098 1082 1115 1098 1098 1098 1082 1082 1036 1132 1149 1082 1149 1149 1149 1132 1149 1168 1098 1066 1098 994 994 994 994 994 981 968 994 968 1008 981 981 955 955 968 981 981 1008 1008 1022 1036 1187 1149 1098 1051 1008 994 943 0 0 1388 0 0 1268 1247 1268 1226 1168 1187 1187 1187 1206 1149 1066 1066 1066 1082 1022 1008 1098 1098 1051 1149 1149 1115 1082 1098 1115 1051 1051 1066 968 855 0 0 750 700 694 694 687 681 675 669 657 651 645 634 629 623 618 618 618 613 613 613 613 608 608 603 603 593 593 574 566 553 557 549 545 537 529 518 521 514 514 511 511 511 507 504 500 0 0 0 0 0
    0 0 0 0 0 0 0 0 0 0 0 0 0 0 0 0 0 0 0 0 0 0 0 0 0 0 0 0 0 0 0 0 0 0 0 0 0 0 0 0 0 0 0 0 0 0 0 0 0 0 0 0 0 0 0 0 0 0 0 0 0 0 0 0 0 0 0 0 0 0 0 0 1206 1187 0 1187 1168 1168 1168 1168 1149 0 1206 0 0 0 0 229 0 0 0 0 0 0 1115 1098 1082 1098 1082 1098 1082 1098 1115 1082 1149 1115 1115 1149 1132 1149 1168 1149 1187 1206 1149 1226 1206 1226 1247 1247 1247 1268 1247 1291 1268 1291 1291 1226 1206 1226 1149 1115 1098 1132 1082 1066 1082 1066 1066 1051 1082 1066 1066 1051 1082 1066 1098 1098 1098 1051 1098 1066 1132 1098 1187 1051 1115 1168 1187 1168 1168 1149 1168 1098 1082 1036 1008 994 994 994 981 994 994 1008 1008 1022 1022 1036 1036 1066 1022 1036 1066 1082 1098 1098 1115 1098 1098 1098 1115 1098 1051 1132 1149 1082 1149 1149 1149 1132 1149 1168 1098 1082 1098 1008 994 994 994 981 968 968 981 968 994 968 981 955 955 968 981 981 1008 994 1008 1008 1168 1115 1066 1022 1008 981 919 0 0 0 0 0 1268 1226 1268 1206 1149 1187 1168 1187 1206 1132 1066 1066 1066 1082 1008 1008 1098 1098 1051 1149 1149 1115 1082 1082 1098 1036 1036 0 943 836 0 0 743 700 694 687 687 681 675 669 657 651 645 634 629 623 618 613 618 613 613 613 613 608 603 603 603 593 593 574 566 553 553 549 541 537 529 518 521 514 514 511 511 511 507 504 500 0 0 0 0 0
    0 0 0 0 0 0 0 0 0 0 0 0 0 0 0 0 0 0 0 0 0 0 0 0 0 0 0 0 0 0 0 0 0 0 0 0 0 0 0 0 0 0 0 0 0 0 0 0 0 0 0 0 0 0 0 0 0 0 0 0 0 0 0 0 0 0 0 0 0 0 0 0 1168 1168 0 1187 1187 1187 1187 1206 1206 0 0 0 0 0 231 227 0 0 0 0 0 0 1098 1082 1098 1098 1082 1115 1082 1082 1098 1066 1115 1082 1082 1098 1115 1115 1149 1115 1168 1168 1149 1226 1206 1226 1247 1247 1247 1268 1268 1291 1247 1268 1268 1187 1187 0 1132 1098 1098 1115 1082 1051 1066 1051 1051 1051 1082 1066 1066 1051 1082 1066 1098 1098 1115 1066 1115 1082 1168 1082 1168 1036 1115 1149 1187 1168 1168 1168 1168 1098 1098 1036 1008 981 981 981 968 994 994 1008 1008 1022 1022 1022 1036 1066 1036 1036 1051 1066 1082 1082 1115 1115 1115 1115 1149 1098 1051 1132 1149 1082 1149 1149 1149 1132 1132 1168 1098 1066 1098 1008 1008 994 994 981 968 955 981 955 981 968 994 968 968 981 994 994 1008 1008 1008 1022 1226 1187 1132 0 0 994 0 0 0 1501 0 0 0 1247 1291 1206 1132 1168 1149 1187 1168 1098 1051 1066 1066 1066 1008 1008 1098 1082 1051 1149 1132 1098 1082 1082 1098 1036 1022 0 931 826 0 0 735 700 694 694 687 681 681 669 663 657 651 639 634 623 623 613 618 608 613 608 608 608 603 603 603 593 593 574 566 549 553 545 541 537 529 521 521 514 514 511 507 511 507 507 500 0 0 0 0 0
    0 0 0 0 0 0 0 0 0 0 0 0 0 0 0 0 0 0 0 0 0 0 0 0 0 0 0 0 0 0 0 0 0 0 0 0 0 0 0 0 0 0 0 0 0 0 0 0 0 0 0 0 0 0 0 0 0 0 0 0 0 0 0 0 0 0 0 0 0 0 0 0 0 0 0 0 1247 0 0 1268 0 0 1291 0 0 0 0 0 0 0 0 0 0 0 1098 1098 1115 1132 1098 1115 1082 1115 1115 1066 1115 1082 1082 1098 1098 1115 1132 1115 1168 1168 1168 1247 1247 1247 1268 1268 1268 1268 1268 1268 1247 1247 1268 1168 1168 1206 1149 1098 1082 1098 1082 1051 1051 1051 1051 1051 1082 1051 1066 1036 1082 1082 1098 1098 1098 1066 1115 1098 1206 1115 1206 1066 1168 1168 1206 1168 1168 1168 1168 1098 1098 1036 1008 981 981 981 981 994 1008 1022 1022 1036 1036 1036 1036 1066 1051 1036 1051 1066 1082 1082 1115 1115 1132 1115 1149 1082 1036 1132 1132 1066 1149 1149 1149 1132 1132 1149 1082 1066 1098 1008 1008 994 994 981 968 968 981 955 994 981 1008 981 981 994 994 1008 1036 1008 1008 1036 1206 1206 1149 1082 0 1008 0 0 0 0 0 0 0 0 0 1149 1098 1149 1132 1168 1149 1082 1051 1066 1066 1051 1008 1008 1082 1082 1051 1132 1132 1098 1066 1066 1082 1022 1008 0 897 817 791 766 735 707 700 694 687 681 675 675 663 657 651 645 639 623 623 613 618 608 613 608 608 603 603 603 598 593 593 574 570 553 553 549 545 537 529 521 521 518 514 514 507 511 507 507 500 0 0 0 0 0
    0 0 0 0 0 0 0 0 0 0 0 0 0 0 0 0 0 0 0 0 0 0 0 0 0 0 0 0 0 0 0 0 0 0 0 0 0 0 0 0 0 0 0 0 0 0 0 0 0 0 0 0 0 0 0 0 0 0 0 0 0 0 0 0 0 0 0 0 0 0 0 0 0 0 0 0 0 0 0 0 0 0 1268 1268 0 0 0 0 0 0 0 0 0 0 1098 1098 1115 1132 1098 1098 1082 1098 1115 1066 1098 1098 1082 1098 1098 1115 1149 1132 1187 1187 1187 1247 1268 1247 1268 1268 1247 1268 1268 1268 1226 1226 1268 1149 1149 1187 1149 1098 1098 1098 1098 1051 1051 1051 1051 1051 1066 1051 1051 1022 1066 1066 1082 1082 1098 1066 1132 1098 1206 1132 1206 1066 1187 1187 1206 1168 1187 1168 1168 1098 1115 1036 1008 994 981 981 981 994 1008 1022 1022 1036 1036 1036 1051 1066 1066 1036 1051 1066 1082 1082 1115 1098 1115 1082 1115 1051 1036 1115 1115 1066 1149 1149 1149 1132 1132 1149 1082 1066 1098 1008 1008 994 994 994 968 968 981 955 981 981 994 981 981 994 1008 1008 1051 1036 1051 1098 1226 1226 1187 1206 1226 1132 1066 1149 0 0 0 0 0 0 0 0 1066 1098 1098 1149 1149 1066 1051 1051 1066 1051 1008 994 1066 1066 1051 1115 1115 1098 1066 1066 1082 1022 981 0 865 808 774 758 728 707 700 694 687 681 675 675 669 663 657 651 639 629 629 613 618 608 613 608 608 603 603 598 598 593 593 574 570 549 553 549 545 541 533 525 525 518 514 514 507 511 507 507 500 0 0 0 0 0
    0 0 0 0 0 0 0 0 0 0 0 0 0 0 0 0 0 0 0 0 0 0 0 0 0 0 0 0 0 0 0 0 0 0 0 0 0 0 0 0 0 0 0 0 0 0 0 0 0 0 0 0 0 0 0 0 0 0 0 0 0 0 0 0 0 0 0 0 0 1226 1206 0 0 0 0 0 0 0 0 0 0 0 1268 1268 1268 0 0 0 0 0 0 0 0 0 0 1098 1098 1132 1098 1082 1066 1115 1115 1082 1098 1098 1098 1098 1115 1132 1149 1132 1187 1187 1226 1268 1268 1247 1268 1268 1247 1268 1268 1247 1187 1187 1247 1132 1132 1168 1168 1115 1132 1149 1115 1066 1082 1066 1066 1036 1066 1051 1051 1022 1066 1051 1082 1082 1098 1066 1115 1115 1206 1115 1206 1066 1187 1168 1206 1187 1187 1168 1168 1098 1115 1022 1008 981 981 981 981 994 1008 1022 1022 1036 1036 1051 1051 1066 1082 1051 1066 1066 1082 1098 1115 1115 1115 1098 1115 1051 1036 1115 1115 1066 1149 1149 1149 1132 1132 1149 1082 1066 1098 1022 1008 994 1008 994 968 981 994 968 981 994 1008 994 994 1008 1022 1022 1098 1082 1115 1168 1226 1247 1226 1226 1226 1187 1098 1098 1187 1168 1066 0 0 0 0 0 1082 1098 1098 1132 1132 1066 1051 1051 1066 1036 994 994 1051 1051 1036 1098 1098 1082 1051 1066 1066 1008 955 0 845 791 743 743 728 707 700 687 687 675 675 675 669 663 657 651 645 629 629 613 618 608 613 608 608 603 603 598 598 593 593 574 570 549 557 549 545 541 533 525 521 518 514 514 507 511 507 507 500 0 0 0 0 0
    0 0 0 0 0 0 0 0 0 0 0 0 0 0 0 0 0 0 0 0 0 0 0 0 0 0 0 0 0 0 0 0 0 0 0 0 0 0 0 0 0 0 0 0 0 0 0 0 0 0 0 0 0 0 0 0 0 0 0 0 0 0 0 0 0 0 0 0 0 1226 1226 1247 0 0 0 0 0 0 0 0 0 0 1314 1338 1338 1388 0 0 0 0 0 0 0 0 0 1098 1098 1132 1115 1082 1066 1098 1115 1082 1082 1098 1098 1098 1098 1115 1132 1115 1149 1168 1206 1268 1268 1206 1247 1247 1247 1247 1247 1226 1168 1168 1247 1132 1132 1168 1168 1132 1168 1187 1149 1082 1098 1082 1082 1051 1066 1051 1051 1022 1066 1051 1066 1082 1098 1066 1115 1115 1206 1115 1206 1066 1187 1149 1187 1168 1168 1149 1149 1098 1098 1022 1008 981 968 981 981 994 1022 1036 1036 1051 1051 1051 1066 1082 1082 1051 1082 1066 1082 1098 1132 1115 1115 1082 1098 1051 1036 1115 1115 1066 1149 1149 1149 1132 1132 1149 1098 1066 1115 1036 1022 1008 1008 1008 981 994 1008 981 994 994 1022 1008 1022 1022 1022 1022 1115 1115 1187 1226 1226 1268 1247 1268 1226 1247 1132 1132 1206 1187 1066 0 0 0 0 981 1082 1082 1082 1132 1115 1066 1051 1051 1051 1022 1008 994 1036 1036 1022 1082 1082 1066 1036 1036 1036 981 886 845 817 766 728 728 721 707 694 687 687 675 675 675 669 663 657 651 645 629 634 618 618 608 613 608 608 603 603 598 598 593 593 574 574 553 557 549 545 541 533 529 525 521 514 514 507 511 504 507 500 0 0 0 0 0
    0 0 0 0 0 0 0 0 0 0 0 0 0 0 0 0 0 0 0 0 0 0 0 0 0 0 0 0 0 0 0 0 0 0 0 0 0 0 0 0 0 0 0 0 0 0 0 0 0 0 0 0 0 0 0 0 0 0 0 0 0 0 0 0 0 0 0 0 0 1268 1268 1291 0 0 0 0 0 0 0 0 0 0 0 0 0 1388 0 0 0 0 0 0 0 0 0 1132 1098 1132 1115 1082 1051 1066 1098 1066 1082 1098 1082 1098 1098 1115 1132 1115 1149 1168 1206 1247 1268 1187 1247 1226 1226 1247 1247 1206 1149 1149 1247 1149 1149 1187 1149 1132 1187 1187 1168 1098 1098 1098 1082 1051 1082 1051 1051 1036 1051 1051 1066 1066 1082 1066 1098 1098 1187 1115 1206 1082 1168 1132 1168 1149 1168 1149 1149 1098 1115 1022 1022 981 994 994 994 1008 1036 1036 1051 1051 1066 1051 1066 1082 1098 1066 1082 1066 1082 1098 1132 1098 1098 1066 1082 1036 1036 1115 1132 1066 1149 1149 1149 1132 1132 1149 1098 1082 1149 1051 1036 1022 1022 1008 994 1008 1022 1008 1008 1008 1051 1051 1036 1036 1036 1036 1098 1132 1187 1187 1187 1247 1247 1314 0 1291 1187 0 0 1206 1098 0 0 0 0 1022 1098 1098 1098 1149 1115 1066 1051 1051 1051 1022 1008 994 1022 1022 994 1036 1036 1022 1008 1008 1008 919 836 808 791 750 728 721 714 707 700 687 687 675 675 675 669 663 657 651 645 634 639 618 623 613 613 608 608 603 603 598 598 593 588 574 574 553 561 549 549 545 533 529 525 521 514 514 507 511 507 511 500 0 0 0 0 0
    0 0 0 0 0 0 0 0 0 0 0 0 0 0 0 0 0 0 0 0 0 0 0 0 0 0 0 0 0 0 0 0 0 0 0 0 0 0 0 0 0 0 0 0 0 0 0 0 0 0 0 0 0 0 0 0 0 0 0 0 0 0 0 0 0 0 0 0 0 1291 0 1314 0 0 0 0 0 0 0 0 0 0 0 0 0 0 0 0 0 0 0 0 0 0 0 0 0 0 1115 1082 1051 1066 1082 1066 1066 1082 1082 1082 1082 1098 1132 1098 1132 1149 1187 1247 1268 1168 1226 1206 1226 1226 1247 1206 1149 1149 1247 1187 1168 1206 1187 1168 1226 1226 1206 1115 1098 1098 1082 1051 1082 1051 1051 1036 1051 1051 1066 1082 1098 1066 1098 1098 1206 1115 1206 1098 1187 1149 1168 1168 1168 1168 1168 1115 1132 1051 1051 1008 1022 1022 1022 1022 1051 1051 1066 1066 1082 1066 1066 1082 1115 1066 1098 1082 1082 1098 1132 1098 1098 1066 1066 1036 1051 1132 1132 1066 1149 1149 1149 1132 1132 1168 1115 1098 1149 1051 1051 1022 1022 1008 994 994 1022 994 1008 1008 1036 1098 1082 1098 1082 1051 1149 1247 1247 1226 1247 1291 1247 1388 0 1415 0 0 0 0 0 0 0 0 0 1036 1149 1115 1149 1187 1132 1066 1051 1051 1036 1008 994 994 1008 1008 968 981 968 943 908 865 855 836 808 782 758 735 721 721 714 714 700 687 694 669 675 669 669 663 657 651 651 639 645 623 623 613 618 608 608 603 603 598 598 593 593 579 579 553 566 553 549 545 533 533 525 521 514 514 507 511 507 511 500 0 0 0 0 0
    0 0 0 0 0 0 0 0 0 0 0 0 0 0 0 0 0 0 0 0 0 0 0 0 0 0 0 0 0 0 0 0 0 0 0 0 0 0 0 0 0 0 0 0 0 0 0 0 0 0 0 0 0 0 0 0 0 0 0 0 0 0 0 0 0 0 0 0 0 1268 0 0 0 0 0 0 0 0 0 0 0 0 0 0 0 0 0 0 0 0 0 0 0 0 0 0 0 0 1115 1082 1066 1066 1082 1082 1066 1082 1082 1082 1082 1098 1149 1115 1132 1168 1206 1247 1247 1149 1226 1206 1206 1226 1247 1206 1149 1149 1247 1187 1168 1206 1206 1187 1247 1247 1226 1132 1098 1115 1082 1051 1066 1051 1036 1022 1051 1051 1066 1082 1098 1082 1115 1132 1226 1149 1226 1115 1206 1168 1168 1149 1168 1149 1168 1115 1168 1066 1082 1036 1051 1036 1036 1036 1066 1051 1066 1066 1082 1066 1082 1098 1149 1082 1115 1098 1098 1115 1132 1098 1098 1051 1051 1036 1036 1132 1115 1066 1149 1149 1149 1149 1132 1168 1115 1098 1149 1051 1051 1036 1036 1022 994 1008 1036 1022 1022 1036 1082 1168 1149 1206 1115 1066 1168 1226 1247 1206 1226 1268 1226 1415 0 0 0 0 0 0 0 0 0 0 0 1008 1098 1082 1115 1132 1098 1066 1051 1051 1036 1022 994 981 968 968 919 886 845 836 826 799 791 791 774 750 743 735 728 721 721 714 700 687 687 669 675 669 669 669 663 657 651 639 645 629 629 613 618 608 608 603 603 598 598 593 593 579 584 557 566 553 553 549 537 533 525 525 514 518 507 511 507 511 500 0 0 0 0 0
    0 0 0 0 0 0 0 0 0 0 0 0 0 0 0 0 0 0 0 0 0 0 0 0 0 0 0 0 0 0 0 0 0 0 0 0 0 0 0 0 0 0 0 0 0 0 0 0 0 0 0 0 0 0 0 0 0 0 0 0 0 0 0 0 0 0 0 0 0 0 0 0 0 0 0 0 0 0 0 0 0 0 0 0 0 0 0 0 0 0 0 0 0 0 0 0 0 0 1187 1115 1066 1066 1082 1082 1066 1098 1082 1082 1082 1098 1149 1115 1132 1168 1206 1247 1247 1149 1226 1206 1206 1226 1247 1206 1149 1149 1268 1187 1187 1226 1226 1206 1247 1247 1226 1168 1132 1149 1115 1066 1066 1066 1051 1036 1066 1051 1066 1082 1098 1098 1132 1132 1206 1168 1226 1132 1206 1168 1168 1149 1149 1149 1149 1115 1168 1082 1098 1051 1082 1082 1066 1051 1098 1066 1082 1082 1115 1066 1082 1098 1168 1098 1115 1098 1098 1115 1149 1115 1098 1051 1051 1036 1051 1132 1132 1066 1149 1149 1149 1149 1132 1168 1115 1098 1132 1051 1051 1036 1036 1036 1008 1022 1051 1036 1051 1066 1115 1149 1132 1226 1115 1082 1132 1206 1226 1206 1226 1268 1247 1443 0 1415 0 0 0 0 0 0 0 0 1036 1051 1098 1082 1115 1115 1098 1066 1051 1066 1036 1022 981 955 931 931 886 845 826 817 799 782 791 782 774 758 750 743 735 728 721 714 700 687 694 669 675 675 669 669 663 663 657 645 651 629 634 618 618 613 608 603 603 598 598 598 593 584 584 561 570 557 553 549 537 537 525 525 514 518 507 511 507 511 500 0 0 0 0 0</data></depth>
</opencv_storage>
