<?xml version="1.0"?>
<opencv_storage>
<gps_time_stamp>310172</gps_time_stamp>
<gps_x>-1.2428044319152832e+001</gps_x>
<gps_y>1.0957946777343750e+001</gps_y>
<gps_z>-2.0338764190673828e+000</gps_z>
<image_time_stamp>301057</image_time_stamp>
<depth type_id="opencv-matrix">
  <rows>83</rows>
  <cols>320</cols>
  <dt>s</dt>
  <data>
    0 0 0 0 0 0 0 0 0 0 0 0 0 0 0 0 0 0 0 0 0 0 0 0 0 0 0 0 0 0 0 0 0 0 0 0 0 0 0 0 0 0 0 0 0 0 0 0 0 0 0 0 0 0 0 0 0 0 0 0 0 0 0 0 0 0 0 0 0 0 0 0 0 0 0 0 0 0 0 0 2374 2044 2044 2102 1989 2164 1989 2230 2044 2230 2102 2102 2230 2102 2164 2164 2230 2230 2230 2299 2374 2230 2453 2374 2537 2453 2628 2628 2628 2628 2725 2830 3199 3199 3345 3199 3345 3873 4088 4599 5256 4329 4329 4329 0 0 0 0 0 0 0 0 0 0 0 0 0 0 0 0 0 0 0 0 0 0 0 0 0 0 0 0 0 0 0 0 0 0 0 0 0 0 0 0 0 0 0 0 0 0 0 0 0 0 0 0 0 0 0 2102 2102 2102 2102 2164 2044 1989 1989 1936 1752 1795 1565 1672 1635 1599 1672 1711 1711 1711 1711 1711 1388 1362 1314 1291 1247 1168 1187 1187 1168 1206 1168 1168 1149 1098 1132 1098 1066 1082 1008 994 955 931 908 855 855 855 845 836 791 808 808 808 799 774 774 774 774 766 766 750 750 0 0 0 694 687 681 663 639 634 634 629 623 618 618 618 613 613 608 608 603 593 593 566 557 0 0 0 521 521 514 514 507 511 511 504 500 493 487 484 481 477 471 468 465 454 451 446 0 0 0 0 0 422 422 413 0 735 0 0 402 402 402 0 391 387 385 383 379 377 375 375 373 371 369 0 0 0 0 0
    0 0 0 0 0 0 0 0 0 0 0 0 0 0 0 0 0 0 0 0 0 0 0 0 0 0 0 0 0 0 0 0 0 0 0 0 0 0 0 0 0 0 0 0 0 0 0 0 0 0 0 0 0 0 0 0 0 0 0 0 0 0 0 0 0 0 0 0 0 0 0 0 0 0 0 0 0 0 0 0 2230 2044 2044 2164 1989 2164 1989 2230 2044 2230 2102 2102 2230 2102 2164 2164 2230 2299 2164 2299 2374 2230 2453 2374 2537 2453 2628 2628 2628 2628 2725 2830 3199 3199 3199 3199 3504 4088 4329 4906 5661 4599 4599 4599 0 0 0 0 0 0 0 0 0 0 0 0 0 0 0 0 0 0 0 0 0 0 0 0 0 0 0 0 0 0 0 0 0 0 0 0 0 0 0 0 0 0 0 0 0 0 0 0 0 0 0 0 0 0 0 2164 2164 2164 2164 2230 2044 1989 1989 1936 1795 1795 1501 1635 1599 1599 1672 1711 1711 1752 1711 1711 1388 1362 1314 1291 1226 1168 1168 1187 1149 1206 1149 1168 1149 1098 1115 1098 1051 1051 994 981 955 931 919 865 855 855 845 836 774 799 799 799 791 766 766 766 766 766 758 743 743 0 0 0 687 681 681 657 639 639 634 629 629 623 629 618 618 618 613 608 603 593 593 570 557 0 0 0 521 521 511 514 507 514 514 504 500 493 487 484 481 477 471 468 465 454 451 448 0 0 3504 0 0 425 425 415 0 735 0 0 402 402 399 0 391 385 385 383 379 377 377 375 375 373 369 0 0 0 0 0
    0 0 0 0 0 0 0 0 0 0 0 0 0 0 0 0 0 0 0 0 0 0 0 0 0 0 0 0 0 0 0 0 0 0 0 0 0 0 0 0 0 0 0 0 0 0 0 0 0 0 0 0 0 0 0 0 0 0 0 0 0 0 0 0 0 0 0 0 0 0 0 0 0 0 0 0 0 0 0 2299 2230 2102 2044 2164 1989 2164 1989 2230 2044 2164 2102 2102 2230 2102 2164 2164 2230 2299 2164 2299 2374 2230 2453 2374 2537 2453 2537 2628 2628 2537 2725 2725 3066 3199 3199 3199 3504 4329 4599 5256 6690 5256 4906 4906 0 0 0 0 0 0 0 0 0 0 0 0 0 0 0 0 0 0 0 0 0 0 0 0 0 0 0 0 0 0 0 0 0 0 0 0 0 0 0 0 0 0 0 0 0 0 0 0 0 0 0 0 0 0 2044 2164 2164 2164 2164 2164 2044 2044 2044 1936 1795 1795 1501 1635 1599 1599 1672 1711 1711 1711 1711 1711 1388 1362 0 1268 1226 1149 1149 1168 1149 1187 1132 1149 1149 1098 1115 1098 1036 1036 981 981 955 931 919 876 855 855 845 836 766 791 791 791 782 766 758 758 750 758 743 735 0 0 0 0 681 675 681 657 639 634 634 634 634 629 629 623 618 623 613 613 603 588 593 566 553 0 0 529 525 521 514 514 504 511 511 500 500 493 487 484 481 477 474 465 465 454 451 448 0 0 3504 0 0 0 0 418 408 735 0 0 402 402 399 0 391 385 385 383 379 377 377 377 375 373 369 0 0 0 0 0
    0 0 0 0 0 0 0 0 0 0 0 0 0 0 0 0 0 0 0 0 0 0 0 0 0 0 0 0 0 0 0 0 0 0 0 0 0 0 0 0 0 0 0 0 0 0 0 0 0 0 0 0 0 0 0 0 0 0 0 0 0 0 0 0 0 0 0 0 0 0 0 0 0 0 0 0 0 0 2044 2164 2164 2164 2102 2164 1989 2164 1989 2164 2044 2164 2102 2102 2230 2102 2164 2164 2230 2299 2164 2299 2374 2230 2453 2374 2537 2453 2537 2628 2628 2537 2725 2628 3066 3199 3199 3199 3504 4906 5256 5661 7359 6133 5661 5661 0 0 0 0 0 0 0 0 0 0 0 0 0 0 0 0 0 0 0 0 0 0 0 0 0 0 0 0 0 0 0 0 0 0 0 0 0 0 0 0 0 0 0 0 0 0 0 0 0 0 0 0 0 0 2102 2164 2164 2164 2164 2102 2044 1989 1989 1887 1795 1795 1471 1599 1599 1565 1635 1711 1672 1672 1672 1672 0 0 0 0 1226 1168 1149 1168 1149 1187 1149 1149 1149 1098 1098 1098 1036 1036 994 981 955 943 931 876 855 845 836 826 750 782 782 782 774 758 750 750 743 758 735 728 0 0 0 694 681 675 675 657 645 639 639 639 639 634 634 629 623 623 618 613 603 588 588 566 553 0 533 525 521 521 514 514 504 511 511 500 500 490 0 0 0 477 474 465 465 454 454 448 0 0 3504 3679 3679 0 0 418 408 0 0 399 399 402 399 0 391 385 385 383 381 377 379 377 377 375 371 0 0 0 0 0
    0 0 0 0 0 0 0 0 0 0 0 0 0 0 0 0 0 0 0 0 0 0 0 0 0 0 0 0 0 0 0 0 0 0 0 0 0 0 0 0 0 0 0 0 0 0 0 0 0 0 0 0 0 0 0 0 0 0 0 0 0 0 0 0 0 0 0 0 0 2299 0 0 0 0 0 0 0 0 2164 2230 2230 2164 2102 2102 1989 2102 1936 2102 1989 2164 2102 2102 2164 2102 2164 2164 2230 2299 2164 2230 2374 2164 2453 2299 2537 2453 2537 2537 2628 2537 2725 2537 2943 3199 3199 3199 3679 5661 5661 6133 8177 6690 6690 6690 0 0 0 0 0 0 0 0 0 0 0 0 0 0 0 0 0 0 0 0 0 0 0 0 0 0 0 0 0 0 0 0 0 0 0 0 0 0 5256 4599 5256 5256 5256 5661 5661 0 0 0 0 0 0 0 0 0 2164 2230 2230 2230 2164 2102 1989 1989 1887 1839 1795 1795 1533 1635 1635 1599 1635 1672 1672 1635 1635 1635 0 0 0 0 1247 1206 1149 1187 1168 1187 1149 1132 1168 1082 1082 1098 1036 1022 1008 994 968 955 955 886 865 855 845 836 758 791 782 782 782 758 750 750 743 758 735 721 0 0 0 694 681 675 675 657 651 645 639 645 639 639 634 629 629 623 613 608 598 584 584 561 549 0 533 525 521 518 514 514 504 511 511 500 497 0 0 0 0 0 471 462 465 454 454 451 0 0 0 0 3679 0 0 420 411 0 0 402 402 402 399 0 391 383 385 383 381 379 379 379 379 375 371 0 0 0 0 0
    0 0 0 0 0 0 0 0 0 0 0 0 0 0 0 0 0 0 0 0 0 0 0 0 0 0 0 0 0 0 0 0 0 0 0 0 0 0 0 0 0 0 0 0 0 0 0 0 0 0 0 0 0 0 0 0 0 0 0 0 0 0 0 0 0 0 0 0 0 2299 2453 0 0 2453 2628 2537 2943 2164 2164 2102 2102 2102 2044 2044 1936 2044 1936 2102 1989 2164 2102 2102 2164 2102 2164 2164 2230 2299 2164 2230 2374 2164 2453 2299 2537 2453 2537 2537 2628 2537 2725 2537 2943 3199 3199 3199 4088 6690 6690 6690 0 8177 7359 7359 0 0 0 0 0 0 0 0 0 0 0 0 0 0 0 0 0 0 0 0 0 0 0 0 0 0 0 0 0 0 0 0 0 0 0 0 3504 4329 4906 4599 5256 5256 5256 5661 5661 7359 0 0 0 0 0 0 0 2044 2230 2230 2230 2230 2164 2164 2044 1989 1936 1936 1936 1887 1635 1672 1672 1672 1672 1672 1635 1599 1599 1635 0 0 0 0 1247 1226 1149 1187 1168 1187 1149 1115 1168 1082 1082 1098 1022 1008 994 981 968 955 955 897 876 865 855 836 766 791 791 782 782 766 750 750 743 750 721 714 0 0 0 687 675 675 675 657 651 645 645 645 645 639 639 639 623 623 608 603 593 584 584 561 549 0 533 525 521 518 514 511 504 507 507 497 497 0 0 0 0 0 471 462 465 454 454 0 0 0 0 0 3873 0 0 422 411 0 404 402 402 402 399 0 391 383 387 383 383 379 381 381 381 375 373 0 0 0 0 0
    0 0 0 0 0 0 0 0 0 0 0 0 0 0 0 0 0 0 0 0 0 0 0 0 0 0 0 0 0 0 0 0 0 0 0 0 0 0 0 0 0 0 0 0 0 0 0 0 0 0 0 0 0 0 0 0 0 0 0 0 0 0 0 0 0 0 0 0 0 2299 2453 2230 2299 2299 2374 2230 2299 2044 2044 2044 2044 1989 1989 1989 1887 1989 1936 2102 1989 2164 2102 2044 2164 2102 2164 2164 2164 2230 2164 2230 2374 2164 2453 2299 2537 2453 2537 2537 2628 2537 2725 2628 2943 3199 3199 3199 5256 7359 8177 7359 0 8177 8177 8177 0 0 0 0 0 0 0 0 0 0 0 0 0 0 0 0 0 0 0 0 0 0 0 0 0 0 0 0 0 0 0 0 0 0 0 0 3504 4599 4906 4906 5256 5256 5661 6133 5661 7359 7359 0 0 0 0 0 0 2102 2230 2164 2164 2164 2164 2102 1989 1936 1887 1936 1936 1887 1672 1672 1672 1711 1672 1672 1635 1565 1565 1599 1415 1443 0 0 1268 1247 1168 1187 1187 1187 1149 1115 1149 1082 1066 1098 1008 994 994 981 968 955 955 908 886 865 855 845 766 791 791 791 782 766 750 750 735 743 714 707 0 0 0 687 669 669 675 657 657 651 645 651 645 645 639 634 623 618 0 598 588 579 574 557 549 0 533 521 521 518 514 511 507 507 507 497 497 0 0 0 0 0 0 459 465 454 454 451 0 0 0 0 3873 0 0 422 413 0 404 402 402 402 399 0 391 383 387 383 383 381 381 381 381 377 373 0 0 0 0 0
    0 0 0 0 0 0 0 0 0 0 0 0 0 0 0 0 0 0 0 0 0 0 0 0 0 0 0 0 0 0 0 0 0 0 0 0 0 0 0 0 0 0 0 0 0 0 0 0 0 0 0 0 0 0 0 0 0 0 0 0 0 0 0 0 0 0 0 0 0 2299 2374 2230 2299 2230 2299 2164 2230 2044 1989 1989 1989 1936 1936 1936 1887 1989 1936 2102 1989 2102 2102 2044 2164 2102 2164 2164 2164 2230 2164 2164 2374 2164 2453 2299 2537 2453 2537 2537 2628 2537 2830 2628 2943 3345 3504 3345 6133 8177 8177 8177 0 0 0 0 0 0 0 0 0 0 0 0 0 0 0 0 0 0 0 0 0 0 0 0 0 0 0 0 0 0 0 0 0 0 0 0 0 0 0 4599 3504 4599 4906 4906 5256 5256 5661 5661 5661 7359 6690 0 0 0 0 0 0 2164 2230 2164 2230 2230 2164 2102 2044 2044 1887 1989 1989 1936 1752 1711 1711 1711 1672 1672 1599 1501 1565 1565 1415 1443 1388 359 1291 1268 1187 1206 1187 1206 1149 1115 1168 1082 1066 1098 1008 994 981 968 955 955 955 908 886 876 865 845 774 791 791 782 782 766 750 750 735 735 707 707 0 0 0 681 669 675 675 663 663 657 651 657 651 651 639 645 629 0 0 598 588 579 574 557 549 0 533 521 521 514 514 511 504 507 507 497 497 0 808 791 0 0 0 0 465 454 454 451 0 0 0 0 3679 0 0 422 411 411 402 399 402 399 397 0 391 383 387 383 385 381 383 383 383 379 375 0 0 0 0 0
    0 0 0 0 0 0 0 0 0 0 0 0 0 0 0 0 0 0 0 0 0 0 0 0 0 0 0 0 0 0 0 0 0 0 0 0 0 0 0 0 0 0 0 0 0 0 0 0 0 0 0 0 0 0 0 0 0 0 0 0 0 0 0 0 0 0 0 0 0 2230 2164 2102 2164 2164 2164 2164 2164 1989 2044 2044 2044 1989 1989 1936 1887 1989 1936 2102 2044 2102 2102 2044 2164 2102 2164 2164 2164 2230 2164 2164 2374 2164 2453 2299 2537 2453 2537 2537 2628 2628 2830 2725 2943 3345 3504 3504 8177 0 0 0 0 0 0 0 0 0 0 0 0 0 0 0 0 0 0 0 0 0 0 0 0 0 0 0 0 0 0 0 0 0 0 0 0 0 0 0 0 0 0 4599 3504 4599 4599 4906 5256 5256 5661 5661 5256 6690 6133 6690 6133 0 0 0 0 2374 2299 2164 2299 2230 2164 2164 2102 2044 1936 2044 2044 1936 1839 1752 1711 1752 1672 1672 1599 1471 1501 1533 1415 1443 1388 359 0 1291 1206 1226 1206 1206 1168 1132 1168 1082 1066 1098 1008 994 994 981 955 955 955 908 886 865 865 845 766 791 791 782 782 766 750 750 735 728 700 700 0 0 0 681 669 675 675 669 669 657 651 657 657 651 639 651 623 0 0 598 584 574 570 553 545 0 533 521 521 514 514 511 504 507 507 0 0 0 0 782 791 0 0 0 462 454 454 451 446 443 0 0 0 0 425 420 411 411 404 399 402 402 399 395 393 383 387 385 385 383 385 385 385 381 379 0 0 0 0 0
    0 0 0 0 0 0 0 0 0 0 0 0 0 0 0 0 0 0 0 0 0 0 0 0 0 0 0 0 0 0 0 0 0 0 0 0 0 0 0 0 0 0 0 0 0 0 0 0 0 0 0 0 0 0 0 0 0 0 0 0 0 0 0 0 0 0 0 0 0 2230 2164 2102 2102 2102 2164 2164 2102 2044 2102 2102 2102 1989 2044 1989 1936 1989 1936 2102 2044 2102 2102 2044 2164 2102 2164 2164 2164 2230 2164 2164 2374 2164 2453 2299 2537 2537 2537 2628 2725 2628 2830 2725 2943 3504 3504 3679 0 0 0 0 0 0 0 0 0 0 0 0 0 0 0 0 0 0 0 0 0 0 0 0 0 0 0 0 0 0 0 0 0 0 0 0 0 0 0 0 0 0 0 4599 3679 5256 4906 5256 5256 5256 5661 5661 5661 6133 5661 6133 5661 5661 0 0 0 2453 2230 2164 2374 2230 2230 2164 2102 2102 1936 2102 2102 1989 1887 1752 1752 1752 1672 1672 1565 1443 1471 1501 1415 1443 1415 360 1314 1291 1226 1226 1206 1206 1168 1132 1187 1098 1082 1115 1008 994 994 981 955 955 955 908 886 865 855 836 766 799 791 782 782 766 750 750 735 728 700 694 694 0 0 681 669 675 675 669 669 663 657 663 657 645 639 645 618 603 0 588 579 574 570 553 545 0 533 521 525 514 514 511 507 0 0 0 0 0 0 782 0 0 0 0 462 454 457 451 448 443 443 0 0 430 425 420 411 411 404 402 402 402 399 395 393 385 387 385 387 385 387 387 387 383 381 0 0 0 0 0
    0 0 0 0 0 0 0 0 0 0 0 0 0 0 0 0 0 0 0 0 0 0 0 0 0 0 0 0 0 0 0 0 0 0 0 0 0 0 0 0 0 0 0 0 0 0 0 0 0 0 0 0 0 0 0 0 0 0 0 0 0 0 0 0 0 0 0 0 0 2230 2164 2102 2102 2102 2102 2164 2102 2102 2102 2102 2102 2044 2102 1989 1936 1989 1936 2102 2044 2102 2102 2044 2164 2102 2164 2102 2164 2164 2164 2164 2299 2164 2374 2374 2537 2537 2537 2628 2725 2725 2943 2830 3066 3679 3679 3873 0 0 0 0 0 0 0 0 0 0 0 0 0 0 0 0 0 0 0 0 0 0 0 0 0 0 0 0 0 0 0 0 0 0 0 0 0 0 0 0 0 0 0 4599 3679 4906 4599 5256 5256 5256 5661 5256 5256 6133 5661 6133 5661 5256 3504 0 0 2537 2164 2164 2299 2164 2230 2230 2164 2102 1936 2102 2102 1989 1887 1752 1752 1752 1672 1672 1501 1415 1443 1501 1415 1471 1415 360 1338 1314 1247 1247 1226 1226 1168 1132 1187 1098 1082 1149 1008 1008 1008 981 955 955 955 897 876 865 855 836 766 799 791 791 782 766 750 750 735 0 700 694 694 0 0 681 669 675 681 675 675 663 657 657 657 645 629 639 608 598 593 584 574 574 570 557 549 0 533 521 525 514 514 511 507 0 0 0 0 0 0 782 0 0 0 0 465 454 457 451 448 446 443 440 0 430 422 420 411 411 406 402 402 402 399 395 391 385 387 383 387 389 387 389 389 385 383 0 0 0 0 0
    0 0 0 0 0 0 0 0 0 0 0 0 0 0 0 0 0 0 0 0 0 0 0 0 0 0 0 0 0 0 0 0 0 0 0 0 0 0 0 0 0 0 0 0 0 0 0 0 0 0 0 0 0 0 0 0 0 0 0 0 0 0 0 0 0 0 0 0 0 2230 2102 2102 2102 2102 2102 2102 2102 2102 2102 2102 2102 2044 2102 1989 1936 1989 1936 2102 2044 2044 2102 2044 2164 2102 2164 2102 2164 2164 2164 2164 2299 2164 2374 2374 2628 2537 2628 2725 2830 2830 2943 2943 3199 3873 3873 4088 0 0 0 0 0 0 0 0 0 0 0 0 0 0 0 0 0 0 0 0 0 0 0 0 0 0 0 0 0 0 0 0 0 0 0 0 0 0 0 0 0 0 0 4599 3504 4906 4599 5256 4906 5256 5661 5256 5256 6133 5256 6133 5256 4906 3504 0 0 2628 2164 2230 2374 2164 2230 2230 2164 2102 1936 2102 2102 1989 1887 1752 1711 1711 1672 1635 1501 1415 1443 1471 1415 1471 1415 360 1362 1338 1268 1247 1226 1226 1187 1149 1187 1098 1098 1168 1022 1008 1008 981 968 955 955 897 886 876 865 845 774 799 799 791 782 758 750 758 735 0 700 694 694 0 0 687 675 681 681 675 681 669 663 657 657 639 629 639 608 593 593 579 574 574 570 557 549 545 537 525 0 514 514 511 507 0 0 2453 0 0 0 0 791 0 0 0 0 454 457 451 448 446 443 0 0 430 422 420 413 413 408 404 402 402 402 397 391 385 385 379 387 0 389 389 391 387 383 0 0 0 0 0
    0 0 0 0 0 0 0 0 0 0 0 0 0 0 0 0 0 0 0 0 0 0 0 0 0 0 0 0 0 0 0 0 0 0 0 0 0 0 0 0 0 0 0 0 0 0 0 0 0 0 0 0 0 0 0 0 0 0 0 0 0 0 0 0 0 0 0 0 0 2230 2164 2102 2164 2102 2164 2164 2102 2102 2102 2102 2102 2044 2044 1989 1936 1989 1989 2102 2044 2044 2102 2044 2164 2102 2164 2102 2102 2164 2164 2102 2299 2164 2374 2374 2628 2628 2628 2725 2943 2943 3066 2943 3345 3873 3873 4329 6690 0 0 0 0 8177 7359 7359 0 0 0 0 0 0 0 0 0 0 0 0 0 0 0 0 0 0 0 0 0 0 0 0 0 0 0 0 0 0 0 0 0 0 4088 4599 3504 4906 4599 5256 4906 5256 5661 5256 5256 6690 5256 6133 5256 4599 3504 0 0 2628 2164 2299 2374 2164 2299 2299 2230 2102 1936 2102 2044 1989 1887 1752 1711 1711 1672 1635 1501 1415 1443 1471 1415 1471 1415 362 1362 1338 1268 1247 1247 0 1187 1149 1187 1115 1098 1187 1008 994 994 968 943 931 943 886 886 876 876 845 782 808 808 799 791 766 0 758 735 0 0 694 687 0 0 0 675 675 681 681 681 0 663 657 657 639 629 645 603 593 593 584 579 574 574 557 549 549 0 0 0 0 0 511 511 0 0 2453 2628 0 0 0 0 0 0 0 0 454 457 448 448 443 0 0 0 427 422 420 413 413 408 404 404 404 0 0 0 0 0 0 0 0 0 0 0 391 385 0 0 0 0 0
    0 0 0 0 0 0 0 0 0 0 0 0 0 0 0 0 0 0 0 0 0 0 0 0 0 0 0 0 0 0 0 0 0 0 0 0 0 0 0 0 0 0 0 0 0 0 0 0 0 0 0 0 0 0 0 0 0 0 0 0 0 0 0 0 0 0 0 0 0 2230 2102 2102 2102 2102 2102 2164 2102 2102 2102 2102 2102 2044 2044 1989 1989 1989 1989 2102 2044 2044 2102 2102 2164 2102 2164 2102 2102 2164 2164 2102 2230 2164 2374 2453 2628 2628 2725 2830 3066 3066 3199 3199 3504 3873 3679 3873 4599 6690 8177 8177 8177 6690 6690 6690 0 0 0 0 0 0 0 0 0 0 0 0 0 0 0 0 0 0 0 0 0 0 0 0 0 0 0 0 0 0 0 0 0 0 4329 4599 3504 4906 4599 5256 4906 5256 5661 5256 5256 6690 5256 5661 4906 4599 3679 3066 0 2830 2299 2374 2453 2164 2299 2299 2230 2102 1989 2164 2102 1989 1936 1795 1752 1752 1672 1711 1533 1415 1471 1501 1415 1501 1415 0 1362 1338 1268 1247 1247 243 1187 1149 1206 1115 1098 1226 1008 968 968 943 919 908 919 886 886 876 876 855 791 808 808 808 799 766 0 766 735 0 0 687 687 0 0 0 675 681 687 687 687 0 663 657 651 639 629 639 608 593 593 584 584 579 574 561 0 549 0 0 0 0 0 511 0 0 0 2453 2537 0 0 0 0 0 0 0 0 454 454 448 448 443 443 0 0 427 422 420 413 415 408 406 404 404 0 0 0 0 0 0 0 0 728 0 0 0 0 0 0 0 0 0
    0 0 0 0 0 0 0 0 0 0 0 0 0 0 0 0 0 0 0 0 0 0 0 0 0 0 0 0 0 0 0 0 0 0 0 0 0 0 0 0 0 0 0 0 0 0 0 0 0 0 0 0 0 0 0 0 0 0 0 0 0 0 0 0 0 0 0 0 0 2230 2102 2044 2044 2044 2102 2102 2044 2102 2102 2102 2102 2044 2044 1989 1989 2044 1936 2102 2044 2044 2102 2102 2164 2102 2164 2102 2102 2164 2164 2102 2230 2230 2374 2453 2725 2725 2725 2830 3199 3199 3345 3199 3679 3679 3504 3679 3679 5256 6690 6690 7359 6133 6133 6133 6133 0 0 0 0 0 0 0 0 0 0 0 0 0 0 0 0 0 0 0 0 0 0 0 0 0 0 0 0 0 0 0 0 0 4599 4599 3504 4906 4599 5256 4906 4906 5661 4906 5256 6133 4906 5661 4906 4599 3679 3345 0 2943 2374 2374 2537 2164 2374 2374 2230 2102 1989 2164 2102 1989 1989 1795 1752 1752 1711 1752 1565 1443 1501 1533 1415 1471 1415 0 1338 1314 1247 1247 1247 0 1187 1149 1206 1115 1115 1226 1008 968 943 931 908 908 908 876 886 876 886 865 826 826 826 817 817 782 0 774 743 0 0 694 0 0 0 0 0 681 0 694 687 0 669 657 657 645 629 645 608 598 593 584 584 584 579 561 0 0 0 0 0 2374 0 0 0 0 0 2453 0 0 0 0 0 0 0 0 0 454 454 448 448 443 443 0 0 427 422 422 415 415 411 406 404 0 0 0 0 0 0 0 0 310 0 0 0 0 0 0 0 0 0 0
    0 0 0 0 0 0 0 0 0 0 0 0 0 0 0 0 0 0 0 0 0 0 0 0 0 0 0 0 0 0 0 0 0 0 0 0 0 0 0 0 0 0 0 0 0 0 0 0 0 0 0 0 0 0 0 0 0 0 0 0 0 0 0 0 0 0 0 0 0 2230 2102 2044 2044 2044 2102 2102 2044 2102 2102 2164 2102 2044 2102 1989 2044 2044 1936 2102 2044 2044 2102 2102 2164 2102 2164 2102 2102 2164 2164 2102 2164 2230 2299 2453 2725 2725 2830 2830 3199 3199 3345 3199 3504 3504 3345 3504 3504 4329 5661 6133 6690 5661 5661 5661 5661 0 0 0 0 0 0 0 0 0 0 0 0 0 0 0 0 0 0 0 0 0 0 0 0 0 0 0 0 0 0 0 0 0 4599 4599 3504 4906 4599 4906 4599 4906 5661 4906 4906 6133 4599 5256 4599 4599 3873 3504 3504 3066 2453 2453 2537 2102 2374 2374 2299 2164 1989 2164 2164 1989 2044 1839 0 0 1752 1795 1599 1501 1533 1533 1388 1443 1415 1314 1314 1291 1226 1226 1226 0 1187 1149 1206 1115 1115 1247 1008 968 931 919 908 897 897 876 886 876 897 876 836 836 836 826 826 791 0 774 743 0 92 92 92 0 0 0 0 687 0 694 694 0 669 657 657 651 634 645 608 598 593 584 584 584 574 561 0 0 0 0 0 2374 0 0 0 0 0 2374 2537 0 0 0 0 0 0 0 0 457 454 448 448 443 443 0 0 430 425 425 418 418 415 408 406 0 826 0 0 0 0 0 0 311 0 0 0 0 721 0 0 0 0 0
    0 0 0 0 0 0 0 0 0 0 0 0 0 0 0 0 0 0 0 0 0 0 0 0 0 0 0 0 0 0 0 0 0 0 0 0 0 0 0 0 0 0 0 0 0 0 0 0 0 0 0 0 0 0 0 0 0 0 0 0 0 0 0 0 0 0 0 0 0 2164 2102 2044 2044 2044 2044 2164 2044 2102 2102 2164 2102 2044 2102 1989 2044 1989 1936 2102 1989 2044 2102 2102 2164 2102 2164 2102 2102 2164 2164 2102 2164 2230 2299 2453 2725 2830 2830 0 3345 3345 3345 3199 3504 3504 3345 3345 3345 3873 5256 5256 6690 5661 5256 5256 5256 0 0 0 0 0 0 0 0 0 0 0 0 0 0 0 0 0 0 0 0 0 0 0 0 0 0 0 0 0 0 0 0 0 4599 4599 3504 4906 4599 4906 4329 4906 5256 4599 4599 5661 4088 4329 4088 4088 3679 3679 3873 3199 2453 2628 2628 2102 2374 2374 2230 2164 1989 2230 2164 1989 2102 1887 0 0 1795 1795 1635 1565 1599 1565 1388 1415 1388 1291 1291 1268 1187 1226 1206 0 1187 1149 1206 1115 1115 1226 1008 931 908 908 897 886 886 876 886 876 886 876 845 836 836 826 817 791 0 774 743 0 92 92 91 0 0 0 0 0 0 694 694 0 669 657 657 657 634 639 608 598 588 584 584 579 574 561 0 0 0 0 0 2299 2374 0 0 0 0 2374 2453 0 0 0 0 0 0 465 0 457 454 448 448 443 443 0 0 430 425 427 420 420 418 411 0 0 836 855 0 0 0 0 0 311 0 0 0 0 728 0 0 0 0 0
    0 0 0 0 0 0 0 0 0 0 0 0 0 0 0 0 0 0 0 0 0 0 0 0 0 0 0 0 0 0 0 0 0 0 0 0 0 0 0 0 0 0 0 0 0 0 0 0 0 0 0 0 0 0 0 0 0 0 0 0 0 0 0 0 0 0 0 0 0 2230 2230 2164 2102 2164 2102 2164 2044 2164 2102 2164 2102 2044 2044 1989 2044 1936 1936 2102 1989 2044 2102 2102 2164 2102 2230 2102 2102 2164 2164 2102 2164 2230 2299 2453 2830 2830 0 0 3504 3504 3504 3199 3679 3504 3345 3345 3345 3873 4906 5256 6133 5256 5256 5256 5256 0 0 0 0 0 0 0 0 0 0 0 0 0 0 0 0 0 0 0 0 0 0 0 0 0 0 0 0 0 0 0 0 0 4599 4599 3504 4906 4906 4906 4329 4906 5256 4599 4599 5661 3873 4088 4088 4088 3873 3873 4088 3199 2628 2725 2628 2164 2374 2299 2230 2164 2044 2230 2102 2044 2164 1989 0 0 1795 1839 1672 1635 1635 1599 1388 1415 1388 1291 1291 1268 1187 1206 1206 0 1187 1149 1206 1115 1098 1226 994 931 908 897 897 886 886 886 876 855 876 865 836 826 826 817 817 791 0 774 743 0 92 92 91 91 0 0 0 0 0 694 694 0 669 657 657 657 634 639 608 598 584 579 584 579 574 561 0 0 782 0 0 2299 2374 0 0 0 0 0 0 0 0 0 0 0 0 465 462 457 451 448 446 440 440 435 432 430 427 427 422 422 420 411 0 0 836 855 0 0 0 0 0 313 0 0 0 0 735 0 0 0 0 0
    0 0 0 0 0 0 0 0 0 0 0 0 0 0 0 0 0 0 0 0 0 0 0 0 0 0 0 0 0 0 0 0 0 0 0 0 0 0 0 0 0 0 0 0 0 0 0 0 0 0 0 0 0 0 0 0 0 0 0 0 0 0 0 0 0 0 0 0 0 2299 2299 2299 2230 2230 2164 2230 2102 2164 2102 2164 2044 2044 2044 1936 2044 1936 1936 2044 1989 2044 2044 2102 2164 2102 2230 2102 2164 2164 2164 2164 2102 2164 2299 2453 2830 2830 0 0 3504 3504 3504 3199 3679 3504 3345 3345 3345 3679 4599 4906 6133 4906 4906 4906 4906 0 0 0 0 0 0 0 0 0 0 0 0 0 0 0 0 0 0 0 0 0 0 0 0 0 0 0 0 0 0 0 0 0 4599 4599 3504 4906 4906 4906 4329 4906 5256 4599 4599 6133 3873 4088 4088 4088 3873 3873 4088 3345 2830 2830 2725 2230 2453 2299 2299 2164 2044 2230 2102 1989 2164 2044 1989 0 1839 1839 1711 1672 1672 1599 1415 1443 1415 1291 1291 1268 1187 1206 1206 0 1187 1149 1206 1115 1098 1206 994 943 908 897 897 886 886 886 876 865 876 865 845 826 826 826 817 799 782 766 743 728 0 0 91 91 0 0 0 0 0 694 694 0 669 651 651 657 634 639 608 598 584 579 584 574 570 0 0 0 782 0 0 2299 2299 0 0 0 0 0 0 0 0 0 0 471 471 465 462 457 451 448 446 440 438 435 432 430 427 427 422 422 422 413 791 0 0 865 0 0 0 0 0 314 0 0 0 0 0 0 0 0 0 0
    0 0 0 0 0 0 0 0 0 0 0 0 0 0 0 0 0 0 0 0 0 0 0 0 0 0 0 0 0 0 0 0 0 0 0 0 0 0 0 0 0 0 0 0 0 0 0 0 0 0 0 0 0 0 0 0 0 0 0 0 0 0 0 0 0 0 0 0 0 2374 2453 2453 2374 2374 2299 2299 2102 2164 2102 2102 2044 2044 1989 1936 2044 1936 1887 2044 1989 2044 2044 2164 2164 2102 2230 2102 2164 2164 2164 2164 2102 2164 2299 2453 2830 2830 2943 0 0 3504 3345 3199 3679 3504 3345 3345 3345 3679 4329 4906 6133 4599 4599 4599 4599 0 0 0 0 0 0 0 0 0 0 0 0 0 0 0 0 0 0 0 0 0 0 0 0 0 0 0 0 0 0 0 0 0 4599 4329 3679 4906 4906 4599 4599 4906 4906 4599 4906 5661 4088 4088 4329 3873 3873 3873 3873 3345 3066 0 2943 2453 2537 2374 2299 2230 2044 2299 2164 2044 2230 2102 2044 0 1839 1839 1711 1635 1672 1599 1415 1443 1415 1291 1291 1268 1187 1206 1206 0 1187 1132 1206 1098 1082 1187 994 943 908 908 908 897 897 897 876 865 876 876 845 826 826 817 817 799 782 766 750 728 750 0 91 91 0 0 0 0 0 694 694 0 669 651 651 657 629 634 608 598 579 579 584 574 570 0 0 0 782 0 0 2230 0 0 0 504 0 0 0 0 0 0 0 471 468 465 462 457 448 448 443 440 0 0 432 432 427 430 425 425 422 415 791 0 0 865 0 0 0 0 0 314 0 0 0 0 0 0 0 0 0 0
    0 0 0 0 0 0 0 0 0 0 0 0 0 0 0 0 0 0 0 0 0 0 0 0 0 0 0 0 0 0 0 0 0 0 0 0 0 0 0 0 0 0 0 0 0 0 0 0 0 0 0 0 0 0 0 0 0 0 0 0 0 0 0 0 0 0 0 0 0 2374 2537 2537 2374 2537 2374 2374 2230 2164 2102 2102 1989 2044 1989 1936 2044 1936 1887 2044 1989 2044 2044 2102 2164 2102 2230 2102 2230 2230 2164 2164 2164 2164 2299 2453 2725 2725 2943 0 0 3345 3199 3066 3504 3504 3345 3345 3199 3679 4329 4599 6133 4599 4599 4599 4599 0 0 0 0 0 0 0 0 0 0 0 0 0 0 0 0 0 0 0 0 0 0 0 0 0 0 0 0 0 0 0 0 3504 4599 3873 3679 4599 4599 4599 4599 4906 4906 4599 4906 5256 4329 4329 4329 3873 3873 3679 3873 3345 3199 3199 3066 2537 2628 2453 2374 2299 2102 2299 2164 2044 2164 2102 2044 0 1839 1887 1752 1672 1672 1635 1415 1415 1415 1291 1291 1268 1206 1206 1206 0 1206 1149 1206 1098 1066 1168 994 931 908 908 908 897 908 897 876 855 865 865 845 817 817 817 808 799 782 766 750 728 758 728 91 0 0 0 0 0 0 0 694 0 669 651 645 651 629 629 613 593 579 579 584 570 566 0 0 0 0 0 0 0 0 507 511 504 507 0 0 0 0 0 474 471 468 465 462 459 448 448 446 440 0 0 0 0 430 430 425 425 425 415 791 0 0 865 0 0 0 0 0 315 0 0 0 225 0 0 0 0 0 0
    0 0 0 0 0 0 0 0 0 0 0 0 0 0 0 0 0 0 0 0 0 0 0 0 0 0 0 0 0 0 0 0 0 0 0 0 0 0 0 0 0 0 0 0 0 0 0 0 0 0 0 0 0 0 0 0 0 0 0 0 0 0 0 0 0 0 0 0 0 2299 2537 2537 2299 2537 2299 2299 2230 2164 2102 2044 1989 2102 1989 1936 2044 1936 1887 2044 1989 2044 2044 2102 2164 2102 2230 2102 2230 2164 2230 2230 2164 2230 2299 2374 2725 2725 2943 3066 0 3199 3199 2943 3504 3504 3345 3345 3199 3679 4329 4599 6133 4599 4599 4599 4599 0 0 0 0 0 0 0 0 0 0 0 0 0 0 0 0 0 0 0 0 0 0 0 0 0 0 0 0 0 0 0 0 3679 4599 3873 3873 4329 4329 4599 4599 4906 4906 4599 4906 5256 4329 4599 4329 4088 3679 3504 3679 3199 3199 0 3066 2628 2628 2453 2299 2299 2044 2299 2164 2044 2164 2102 2044 0 1887 1887 1752 1635 1672 1599 1415 1388 1388 1291 1291 1268 1206 1206 1206 0 1206 1149 1206 1098 1066 1132 994 943 931 919 919 919 919 908 876 855 865 855 845 808 817 808 808 791 782 766 750 728 766 735 91 0 735 743 0 0 0 0 694 0 669 651 645 645 629 629 613 593 574 579 584 570 566 0 0 0 0 0 518 518 511 507 511 504 507 500 500 0 0 0 474 471 468 465 462 459 451 451 446 443 440 0 0 0 430 0 427 425 425 418 791 0 0 855 0 0 0 0 0 0 0 0 0 0 0 0 0 0 0 0
    0 0 0 0 0 0 0 0 0 0 0 0 0 0 0 0 0 0 0 0 0 0 0 0 0 0 0 0 0 0 0 0 0 0 0 0 0 0 0 0 0 0 0 0 0 0 0 0 0 0 0 0 0 0 0 0 0 0 0 0 0 0 0 0 0 0 0 0 0 2299 2453 2453 2230 2537 2299 2299 2230 2164 2102 2044 1989 2164 1989 1936 2044 1887 1887 1989 1989 2044 2044 2102 2164 2102 2299 2102 2230 2164 2230 2230 2230 2230 2299 2374 2725 2628 2830 2943 0 3199 3066 2943 3345 3504 3345 3345 3345 3679 4088 4599 6133 4599 4599 4599 4599 0 0 0 0 0 0 0 0 0 0 0 0 0 0 0 0 0 0 0 0 0 0 0 0 0 0 0 0 0 0 0 0 4088 4906 3679 4088 4599 4599 4599 4599 4906 4906 4599 5256 4906 4329 4599 4329 3873 3504 3345 3345 3199 3066 0 2943 2537 2537 2374 2164 2230 2044 2230 2164 2044 2164 2102 2044 1936 1887 1887 1711 1599 1635 1599 1415 1362 1362 1268 1268 1268 1206 1206 1187 1187 1206 1149 1187 1098 1066 1098 994 955 943 931 931 919 919 908 876 855 855 855 845 799 808 808 799 791 774 758 750 728 774 743 728 743 735 743 728 721 0 0 694 0 669 651 645 645 629 623 618 593 570 574 584 566 561 553 0 0 0 0 518 518 511 507 511 504 507 504 500 0 0 0 471 471 468 465 462 459 451 451 446 443 0 0 0 6690 0 0 427 425 427 418 782 0 0 855 0 0 0 0 0 0 0 0 0 0 383 0 0 0 0 0
    0 0 0 0 0 0 0 0 0 0 0 0 0 0 0 0 0 0 0 0 0 0 0 0 0 0 0 0 0 0 0 0 0 0 0 0 0 0 0 0 0 0 0 0 0 0 0 0 0 0 0 0 0 0 0 0 0 0 0 0 0 0 0 0 0 0 0 0 0 2299 2453 2453 2299 2537 2299 2374 2299 2164 2044 1989 1936 2102 1989 1887 1989 1839 1839 1989 1989 1989 2044 2102 2164 2102 2299 2044 2299 2164 2230 2230 2230 2230 2299 2374 2628 2537 2830 2943 2943 3066 2943 2943 3345 3345 3345 3345 3199 3679 4088 4599 6690 4599 4599 4599 4599 0 0 0 0 0 0 0 0 0 0 0 0 0 0 0 0 0 0 0 0 0 0 0 0 0 0 0 0 0 0 0 0 4329 4906 3679 4599 4906 4906 4906 4906 5256 4906 4906 5256 4906 4329 4599 4329 3873 3345 3066 3066 3066 0 2943 2725 2537 2537 2374 2164 2230 2102 2230 2164 2102 2102 2102 2044 1936 1887 1839 1711 1599 1599 1599 1415 1362 1362 1268 1268 1268 0 1206 1187 1187 1206 1149 1187 1115 1066 1098 994 968 955 955 943 919 931 931 876 845 845 845 836 782 799 799 791 782 774 750 750 728 774 743 728 743 735 0 0 0 0 0 687 0 663 645 639 639 0 623 618 593 570 574 584 566 561 553 545 0 0 0 518 518 511 507 511 504 507 500 497 490 0 0 471 471 468 465 462 462 451 451 448 443 0 0 0 0 774 791 0 0 0 418 782 782 791 836 808 0 0 0 0 0 0 0 0 0 383 0 0 0 0 0
    0 0 0 0 0 0 0 0 0 0 0 0 0 0 0 0 0 0 0 0 0 0 0 0 0 0 0 0 0 0 0 0 0 0 0 0 0 0 0 0 0 0 0 0 0 0 0 0 0 0 0 0 0 0 0 0 0 0 0 0 0 0 0 0 0 0 0 0 0 2299 2537 2453 2299 2453 2230 2299 2230 2102 1936 1839 1795 1989 1887 1839 1936 1839 1839 1936 2044 1989 2044 2102 2164 2102 2299 2044 2299 2230 2230 2230 2230 2230 2299 2374 2628 2537 2725 2830 2830 2943 2943 2830 3199 3345 3345 3199 3199 3679 4088 4599 6690 4599 4599 4599 4599 0 0 0 0 0 0 0 0 0 0 0 0 0 0 0 0 0 0 0 0 0 0 0 0 0 0 0 0 0 0 0 3873 4599 4906 3679 4599 4906 4906 5256 5256 5256 4906 4906 5661 5256 4599 4906 4599 4088 3199 2943 2943 2830 2830 2830 2628 2537 2453 2374 2102 2230 2102 2164 2102 2044 2044 1989 1989 1936 1839 1795 1711 1565 1599 1635 1415 1362 1362 1291 1291 1268 0 1206 1187 1187 1206 1149 1168 1115 1066 1082 994 981 968 968 943 931 931 931 865 845 836 826 826 774 791 791 782 782 766 750 750 728 766 735 728 735 728 0 0 0 0 687 687 0 663 645 634 0 0 0 0 593 570 574 584 561 557 553 545 0 529 525 518 518 511 511 511 500 504 500 493 0 481 0 471 471 465 465 459 462 454 451 448 446 0 0 0 0 774 791 791 0 0 418 782 782 782 817 791 0 0 0 0 0 0 0 0 391 383 0 0 0 0 0
    0 0 0 0 0 0 0 0 0 0 0 0 0 0 0 0 0 0 0 0 0 0 0 0 0 0 0 0 0 0 0 0 0 0 0 0 0 0 0 0 0 0 0 0 0 0 0 0 0 0 0 0 0 0 0 0 0 0 0 0 0 0 0 0 0 0 0 0 0 2299 2628 2537 2299 2537 2164 2102 2164 1989 1936 1795 1711 1839 1795 1752 1887 1839 1839 1887 2044 1989 2044 2164 2164 2102 2230 2044 2299 2230 2230 2230 2230 2230 2374 2299 2537 2453 2628 2725 2725 2725 2725 2725 3066 3199 3345 3199 3199 3679 4088 4599 6690 4599 4599 4599 4599 0 0 0 0 0 0 0 0 0 0 0 0 0 0 0 0 0 0 0 0 0 0 0 0 0 0 0 0 0 0 0 3873 4599 4906 3679 5256 5256 5256 5256 5661 5661 5256 5661 6690 5661 5256 5661 5661 4329 3199 2943 2628 2537 2725 2725 2453 2537 2453 2374 2102 2299 2044 2044 2044 1989 1936 1887 1887 1887 1795 1752 1672 1533 1565 1635 1415 1362 1362 1314 1291 1268 0 1206 1187 1168 1187 1132 1149 1115 1051 1082 1008 994 981 968 943 943 931 919 865 845 836 836 826 774 791 791 782 782 766 743 743 728 758 728 721 728 0 114 0 0 0 687 687 0 663 645 634 0 0 0 0 593 570 579 584 561 557 553 545 545 533 529 521 521 511 511 511 500 504 497 493 487 481 0 471 471 465 465 459 462 454 451 448 446 443 0 0 0 774 782 791 0 0 418 774 774 774 799 782 782 782 0 0 0 0 0 0 389 385 0 0 0 0 0
    0 0 0 0 0 0 0 0 0 0 0 0 0 0 0 0 0 0 0 0 0 0 0 0 0 0 0 0 0 0 0 0 0 0 0 0 0 0 0 0 0 0 0 0 0 0 0 0 0 0 0 0 0 0 0 0 0 0 0 0 0 0 0 0 0 0 0 0 0 2374 2725 2537 2230 2453 2164 2044 2102 1989 1887 1752 1752 1839 1795 1752 1936 1839 1887 1887 2044 1989 2102 2230 2230 2102 2230 2044 2299 2164 2230 2230 2230 2230 2299 2299 2537 2374 2537 2537 2628 2628 2628 2628 2943 3199 3199 3199 3199 3873 4329 4599 6690 4599 4599 4599 4599 0 0 0 0 0 0 0 0 0 0 0 0 0 0 0 0 0 0 0 0 0 0 0 0 0 0 0 0 0 5661 4088 5256 5661 5661 4329 6133 5661 6133 5661 6133 6133 5661 6133 6690 5661 5661 5661 6133 4329 0 2830 2453 2374 2537 2628 2299 2453 2374 2374 2102 2299 2044 2044 1989 1989 1839 1839 1839 0 1752 1711 1672 1533 1533 1635 1415 1338 1338 1314 1268 1268 0 1187 1168 1168 1187 1132 1132 1115 1051 1066 1008 994 981 968 955 943 931 919 876 845 845 836 836 774 791 791 791 782 766 743 743 728 750 721 714 728 0 114 0 0 0 0 687 0 663 645 629 0 0 0 0 593 574 584 584 561 557 553 549 545 533 529 521 521 511 511 511 504 500 497 490 487 481 0 471 471 465 465 459 462 457 451 448 446 443 443 0 0 774 774 782 0 0 415 774 774 774 799 782 782 791 0 0 0 0 0 0 391 385 0 0 0 0 0
    0 0 0 0 0 0 0 0 0 0 0 0 0 0 0 0 0 0 0 0 0 0 0 0 0 0 0 0 0 0 0 0 0 0 0 0 0 0 0 0 0 0 0 0 0 0 0 0 0 0 0 0 0 0 0 0 0 0 0 0 0 0 0 0 0 0 0 0 0 2230 2725 2453 2044 2230 2102 1989 2044 1989 1887 1752 1711 1795 1795 1795 1936 1839 1887 1887 2102 2044 2102 2230 2230 2102 2230 2044 2299 2164 2230 2230 2230 2230 2374 2299 2453 2299 2537 2537 2628 2537 2537 2628 2830 3066 3199 3199 3199 3873 4329 4599 6133 4599 4599 4599 4599 0 0 0 0 0 0 0 0 0 0 0 0 0 0 0 0 0 0 0 0 0 0 0 0 0 0 0 0 6133 6690 5256 6133 6133 5661 4906 5661 5256 5661 5661 5661 5661 5256 5661 6690 5661 5661 5661 5661 4088 0 2943 2537 2453 2537 2628 2299 2374 2374 2374 2102 2299 2044 2044 1989 1989 1795 1795 1795 1795 1752 1672 1672 1501 1533 1635 1415 1314 1314 1291 1247 1247 1187 1187 1168 1149 1187 1132 1115 1115 1066 1082 1022 994 994 968 955 943 931 908 876 845 836 836 826 774 791 782 782 774 766 743 743 728 743 707 707 721 0 0 0 0 0 0 0 242 0 651 634 629 0 0 0 598 579 584 588 561 557 553 549 545 537 529 521 521 514 514 514 507 504 500 493 490 481 0 471 471 465 465 459 462 457 454 451 448 446 443 0 0 766 766 782 774 782 0 766 774 774 791 782 791 791 0 0 0 0 0 0 389 383 0 0 0 0 0
    0 0 0 0 0 0 0 0 0 0 0 0 0 0 0 0 0 0 0 0 0 0 0 0 0 0 0 0 0 0 0 0 0 0 0 0 0 0 0 0 0 0 0 0 0 0 0 0 0 0 0 0 0 0 0 0 0 0 0 0 0 0 0 0 0 0 0 0 0 2044 2299 2164 1887 1989 1936 1936 1989 1936 1887 1752 1752 1795 1752 1795 1887 1839 1887 1887 2044 2044 2164 2230 2230 2102 2230 2044 2299 2230 2230 2230 2230 2230 2374 2299 2374 2299 2537 2453 2537 2537 2537 2537 2725 2943 3066 2943 3199 3873 4329 4599 6133 4599 4599 4599 4599 0 0 0 0 0 0 0 0 0 0 0 0 0 0 0 0 0 0 0 0 0 0 0 0 0 6133 8177 8177 6133 6133 5661 6133 6133 5256 5256 6133 5661 5661 6133 5661 5661 5661 6690 6690 5661 5256 5661 5661 4329 3199 3066 2537 2537 2537 2628 2230 2374 2299 2374 2102 2299 2044 1989 1989 1989 1752 1795 1752 1752 1711 1672 1672 1533 1533 1672 1415 1268 1291 1291 1247 1247 1187 1168 1149 1149 1187 1115 1115 1132 1066 1082 1022 1008 994 981 955 955 931 919 876 845 836 826 826 774 791 782 782 774 766 735 735 0 0 0 0 714 0 0 0 0 0 0 0 242 240 651 634 629 0 0 629 598 584 588 584 561 557 553 549 545 537 529 525 525 514 518 514 507 504 500 493 490 481 0 471 0 465 465 459 462 457 454 454 448 448 0 0 0 766 766 782 766 774 0 766 774 766 791 791 791 799 0 0 0 0 0 0 385 381 0 0 0 0 0
    0 0 0 0 0 0 0 0 0 0 0 0 0 0 0 0 0 0 0 0 0 0 0 0 0 0 0 0 0 0 0 0 0 0 0 0 0 0 0 0 0 0 0 0 0 0 0 0 0 0 0 0 0 0 0 0 0 0 0 0 0 0 0 0 0 0 0 0 0 2044 2230 2102 1887 1936 1839 1887 1936 1887 1887 1752 1752 1795 1752 1795 1936 1936 1989 1936 2044 2044 2164 2230 2299 2102 2230 2044 2299 2230 2230 2164 2230 2230 2374 2299 2374 2230 2453 2453 2537 2453 2453 2537 2628 2943 3066 2943 3199 3873 4329 4599 6133 4599 4599 4599 4599 0 0 0 0 0 0 0 0 0 0 0 0 0 0 0 0 0 0 0 0 0 0 0 0 0 5256 6690 0 6690 6133 6133 6690 6133 5661 6133 6690 6133 6690 7359 6690 6690 6690 7359 7359 5661 5256 5661 5661 4088 3345 3199 2725 2725 2537 2628 2299 2453 2374 2453 2230 2374 2102 2044 2044 2044 1795 1795 1752 1752 1711 1672 1635 1533 1533 1672 1388 1268 1268 1268 1226 1226 1168 1149 1149 1132 1168 1115 1098 1132 1066 1082 1036 1022 1022 994 968 955 943 931 886 845 836 836 836 774 791 782 782 774 758 735 735 0 0 0 0 714 0 0 0 0 0 0 0 241 239 657 639 629 629 623 629 598 588 588 584 561 557 549 549 545 541 533 525 525 514 518 514 507 504 500 490 487 477 0 471 0 465 465 459 462 459 454 454 451 448 0 0 0 766 758 774 766 774 774 766 774 766 782 791 791 799 0 0 0 0 0 0 379 375 0 0 0 0 0
    0 0 0 0 0 0 0 0 0 0 0 0 0 0 0 0 0 0 0 0 0 0 0 0 0 0 0 0 0 0 0 0 0 0 0 0 0 0 0 0 0 0 0 0 0 0 0 0 0 0 0 0 0 0 0 0 0 0 0 0 0 0 0 0 0 0 0 0 0 2102 2230 2164 1887 1887 1795 1839 1887 1887 1887 1752 1752 1752 1795 1839 1936 1936 1989 1936 2044 2102 2164 2230 2299 2102 2230 2044 2299 2230 2230 2164 2230 2230 2374 2299 2299 2230 2453 2374 2537 2453 2453 2453 2628 2943 2943 2830 3199 3873 4329 4599 6133 4906 4599 4599 4599 0 0 0 0 0 0 0 0 0 0 0 0 0 0 0 0 0 0 0 0 0 0 0 0 0 4906 6133 8177 6690 6133 6690 7359 7359 6133 7359 7359 7359 7359 8177 7359 7359 7359 8177 7359 6133 5256 5256 5256 4088 3345 3199 2830 2830 2628 2628 2453 2537 2453 2537 2374 2453 2230 2164 2102 2102 1839 1795 1752 1752 1711 1635 1635 1533 1533 1672 1388 1247 1268 1268 1206 1206 1149 1132 1132 1132 1168 1115 1098 1149 1066 1098 1051 1022 1022 1008 981 968 955 955 897 855 855 845 845 782 791 791 791 782 758 728 0 0 0 694 687 707 0 0 0 0 0 0 0 241 239 0 645 634 629 623 634 598 588 588 579 561 557 549 549 549 545 533 529 529 518 518 514 507 500 497 0 0 0 0 0 0 465 465 457 462 459 454 454 451 448 0 0 0 766 758 774 766 774 774 766 774 766 782 791 791 791 0 0 0 0 0 0 375 371 0 0 0 0 0
    0 0 0 0 0 0 0 0 0 0 0 0 0 0 0 0 0 0 0 0 0 0 0 0 0 0 0 0 0 0 0 0 0 0 0 0 0 0 0 0 0 0 0 0 0 0 0 0 0 0 0 0 0 0 0 0 0 0 0 0 0 0 0 0 0 0 0 0 0 2230 2374 2299 1936 0 1839 1839 1887 1887 1887 1795 1795 1795 1839 1839 1989 1989 2044 1989 2102 2102 2230 2230 2230 2102 2230 2044 2299 2230 2230 2164 2230 2230 2374 2299 2299 2164 2453 2374 2537 2453 2453 2453 2537 2830 0 0 0 3873 4329 4599 6133 4906 4599 4599 4599 0 0 0 0 0 0 0 0 0 0 0 0 0 0 0 0 0 0 0 0 0 0 0 0 0 4599 5661 7359 6690 6133 6690 6690 6690 6133 7359 8177 8177 8177 0 0 0 8177 0 7359 6133 5256 5256 5256 3873 3345 3345 2830 2943 2725 2725 2537 2628 2537 2537 2453 2453 2299 2164 2102 2044 1839 1795 1711 1711 1672 1635 1599 1533 1533 1672 1415 1247 1268 1268 1187 1206 1149 1132 1132 1115 1168 1115 1098 1149 1066 1115 1066 1036 1036 1036 1008 994 968 968 908 865 855 855 845 791 791 791 791 782 766 0 0 0 0 687 681 700 687 0 0 0 0 0 0 240 239 0 645 634 629 623 634 603 598 593 584 566 557 553 553 549 549 537 533 529 521 521 518 511 500 0 0 0 0 782 0 0 0 0 457 459 459 454 454 451 0 0 0 0 0 750 766 766 766 774 766 766 766 782 791 791 791 0 0 808 0 0 0 0 0 0 0 0 0 0
    0 0 0 0 0 0 0 0 0 0 0 0 0 0 0 0 0 0 0 0 0 0 0 0 0 0 0 0 0 0 0 0 0 0 0 0 0 0 0 0 0 0 0 0 0 0 0 0 0 0 0 0 0 0 0 0 0 0 0 0 0 0 0 0 0 0 0 0 0 2299 2374 2299 0 0 1795 1839 1839 1887 1936 1795 1839 1839 1887 1887 2044 2102 2102 2044 2102 2102 2230 2230 2299 2102 2230 2044 2230 2230 2230 2164 2230 2230 2374 2299 2299 2164 2453 2299 2537 2453 2374 2374 2537 0 0 0 0 3873 4599 4599 5661 5256 4599 4599 4599 0 0 0 0 0 0 0 0 0 0 0 0 0 0 0 0 0 0 0 0 0 0 0 0 0 4088 5256 6690 6133 6133 6690 7359 7359 6690 8177 8177 8177 0 0 0 0 0 0 7359 6690 6133 6133 5661 4088 3504 3345 2943 3066 2830 2830 2628 2628 2537 2628 2537 2537 2299 2230 2164 2044 1839 1795 1711 1711 1672 1635 1599 1501 1533 1672 1415 1268 1291 1291 1187 1206 1149 1132 1132 1132 1168 1115 1098 1149 1066 1132 1066 1036 1051 1036 1022 1022 994 981 919 0 865 865 845 791 799 799 791 782 766 0 0 0 0 687 675 687 687 694 0 0 694 0 0 240 239 0 651 634 629 623 634 608 603 593 588 570 561 553 553 553 549 541 537 533 0 525 518 511 0 2537 2453 0 0 791 0 0 0 0 0 459 459 454 454 0 0 0 758 0 0 743 766 758 766 774 766 766 766 774 791 782 782 791 791 791 766 782 774 0 0 0 0 0 0 0
    0 0 0 0 0 0 0 0 0 0 0 0 0 0 0 0 0 0 0 0 0 0 0 0 0 0 0 0 0 0 0 0 0 0 0 0 0 0 0 0 0 0 0 0 0 0 0 0 0 0 0 0 0 0 0 0 0 0 0 0 0 0 0 0 0 0 0 0 0 2299 2299 2299 2164 2102 1936 1936 1989 1989 1989 1936 1936 1989 1989 1989 2102 2164 2230 2102 2164 2164 2230 2230 2299 2102 2230 2044 2299 2230 2230 2164 2230 2230 2374 2299 2299 2164 2453 2299 2537 2453 2374 2453 2453 0 0 0 0 3873 4599 4599 5661 5256 4599 4599 4599 0 0 0 0 0 0 0 0 0 0 0 0 0 0 0 0 0 0 0 0 0 0 0 0 4088 4088 5256 7359 6690 6690 7359 8177 8177 7359 0 0 0 0 0 0 0 0 0 7359 6690 6133 6133 5661 4329 3679 3504 3066 3199 2943 2943 2725 2725 2628 2628 2537 2537 2299 2230 2164 2044 1887 1752 1711 1672 1635 1599 1565 1471 1501 1635 1415 1268 1291 1291 1206 1226 1168 1149 1132 1132 1187 1115 1098 1168 1082 1149 1098 1051 1051 1051 1036 1036 994 994 943 0 0 865 845 799 799 799 799 782 774 0 0 721 0 687 681 687 687 694 700 694 694 0 694 239 0 0 657 634 629 629 639 613 613 603 593 579 570 557 557 557 553 541 537 537 0 525 0 0 0 2628 2453 0 0 0 0 774 0 0 0 0 459 454 454 0 0 743 743 0 0 743 758 758 758 774 758 766 766 774 791 774 774 766 766 750 721 750 743 0 0 0 0 0 0 0
    0 0 0 0 0 0 0 0 0 0 0 0 0 0 0 0 0 0 0 0 0 0 0 0 0 0 0 0 0 0 0 0 0 0 0 0 0 0 0 0 0 0 0 0 0 0 0 0 0 0 0 0 0 0 0 0 0 0 0 0 0 0 0 0 0 0 0 0 0 2102 2230 2164 0 0 2044 2044 2102 2044 2102 1989 2102 2102 2102 2102 2164 2230 2374 2230 2230 2164 2230 2230 2299 2102 2299 2044 2299 2299 2230 2102 2230 2299 2374 2299 2299 2164 2453 2374 2537 2453 2374 2453 2453 0 0 0 0 3873 4599 4599 5661 5661 4599 4599 4599 0 0 0 0 0 0 0 0 0 0 0 0 0 0 0 0 0 0 0 0 0 0 0 5661 5256 4329 5256 7359 6690 6690 7359 8177 8177 7359 0 0 0 0 0 0 0 0 0 7359 6133 6690 6133 6133 4329 3873 3345 3066 3345 3066 2943 2830 2725 2628 2628 2628 2537 2299 2230 2164 2044 1887 1752 1711 1672 1672 1635 1565 1471 1501 1635 1443 1291 1314 1314 1226 1226 1168 1149 1149 1149 1187 1132 1115 1187 1082 1187 1115 1036 1036 1051 1051 1051 1008 1008 943 0 0 0 845 799 808 808 808 791 782 0 743 728 0 0 681 681 687 687 694 687 687 0 687 239 0 0 669 639 634 634 651 629 629 608 603 588 584 566 566 561 557 545 541 0 0 0 0 0 0 2628 2453 0 0 0 0 774 0 750 0 0 0 454 451 0 728 735 735 0 0 735 750 750 758 0 0 766 758 774 791 766 750 735 721 721 707 735 728 728 0 0 0 0 0 0
    0 0 0 0 0 0 0 0 0 0 0 0 0 0 0 0 0 0 0 0 0 0 0 0 0 0 0 0 0 0 0 0 0 0 0 0 0 0 0 0 0 0 0 0 0 0 0 0 0 0 0 0 0 0 0 0 0 0 0 0 0 0 0 0 0 0 0 0 0 1887 2044 2044 2044 2044 2044 2102 2164 1989 1989 1936 1936 1936 1936 1936 1989 2044 2230 2230 2230 2164 2230 2230 2230 2102 2230 2044 2230 2299 2230 2102 2230 2299 2374 2299 2299 2230 2453 2374 2628 2537 2453 2453 2453 0 0 0 0 3679 4329 4906 5256 5661 4599 4599 4599 0 0 0 0 0 0 0 0 0 0 0 0 0 0 0 0 0 0 0 0 0 0 0 6133 5256 4906 5661 8177 7359 7359 7359 8177 8177 7359 0 0 0 8177 0 0 0 8177 0 6690 6133 6133 6133 5661 4088 4088 3504 3199 3504 3199 3066 2943 2830 2725 2725 2628 2537 2299 2230 2164 1989 1887 1752 1672 1672 1672 1635 1565 1443 1501 1599 1443 1291 1314 1314 1226 1247 1187 1168 1168 1168 1206 1149 1115 1187 1098 1187 1098 1036 1036 1066 1051 1066 1022 1036 968 0 0 0 865 808 817 0 0 808 799 0 758 735 0 0 687 681 687 0 694 687 687 0 687 0 0 675 675 639 634 639 663 657 657 0 0 598 598 574 574 570 561 549 545 0 0 0 0 0 0 0 2453 0 0 0 0 774 743 750 728 0 0 0 0 0 721 735 728 0 735 728 743 750 0 0 0 758 750 758 791 750 0 707 694 707 694 728 721 728 0 0 0 0 0 0
    0 0 0 0 0 0 0 0 0 0 0 0 0 0 0 0 0 0 0 0 0 0 0 0 0 0 0 0 0 0 0 0 0 0 0 0 0 0 0 0 0 0 0 0 0 0 0 0 0 0 0 0 0 0 0 0 0 0 0 0 0 0 0 0 0 0 0 0 0 1711 1839 1839 1839 1839 1839 1887 1839 1752 1795 1839 1839 1887 1839 1839 1887 1989 2164 2164 2102 2164 2230 2164 2230 2102 2230 1989 2230 2230 2230 2102 2230 2299 2374 2299 2299 2230 2453 2374 2628 2537 2453 2453 2453 0 0 0 0 3504 4088 4906 5256 5661 4088 3873 3873 0 0 0 0 0 0 0 0 0 0 0 0 0 0 0 0 0 0 0 0 0 6690 7359 7359 6133 5661 6133 7359 8177 7359 8177 8177 8177 8177 0 0 0 0 0 0 0 0 0 6690 6133 6690 6133 5661 4088 4088 3504 3345 3504 3199 3066 3066 2943 2830 2725 2725 2537 2299 2164 2102 1936 1839 1672 1635 1672 1635 1599 1565 1471 1501 1599 1443 1314 1338 1338 0 1247 1187 1187 1168 1168 1206 1149 1098 1168 1098 1168 1066 1036 1036 1066 1066 1082 1036 1051 994 0 0 0 886 817 0 0 0 817 808 0 0 743 0 0 694 0 687 0 0 687 681 687 681 675 681 669 675 634 634 639 663 0 675 0 0 0 608 584 584 579 570 549 545 0 127 0 0 0 0 0 2374 0 0 0 0 782 758 758 735 735 0 0 0 0 0 728 728 0 728 728 735 743 0 0 0 750 743 743 766 735 0 694 681 687 681 728 721 728 0 0 0 0 0 0
    0 0 0 0 0 0 0 0 0 0 0 0 0 0 0 0 0 0 0 0 0 0 0 0 0 0 0 0 0 0 0 0 0 0 0 0 0 0 0 0 0 0 0 0 0 0 0 0 0 0 0 0 0 0 0 0 0 0 0 0 0 0 0 0 0 0 0 0 0 1599 1565 1501 1533 1635 1599 1565 1565 1501 1471 1711 1711 1752 1711 1752 1795 1887 2044 2044 2044 2102 2164 2102 2164 2044 2164 1989 2230 2230 2230 2102 2230 2299 2374 2299 2299 2230 2453 2374 2628 2537 2453 2453 2537 0 0 0 0 3345 4088 4599 4599 4906 3345 3504 3504 4088 2943 2943 2943 0 0 0 0 0 0 0 0 0 0 0 0 0 5661 5256 4599 5661 5661 6133 5661 4906 5256 6690 7359 8177 8177 8177 0 0 0 0 0 0 0 0 0 0 0 0 6690 6133 6690 6133 5661 4329 4088 3504 3345 3504 3345 3066 3066 2830 2830 2725 2628 2537 2230 2044 2044 1936 1795 1635 1635 1672 1635 1565 1565 1471 1501 1599 1471 1314 1362 1338 1268 1247 1187 1187 1187 1187 1206 1168 1115 1168 1098 1168 1051 1036 1036 1066 1066 1082 1051 1066 1008 0 0 0 908 836 0 0 0 0 826 0 0 758 0 721 700 0 694 0 0 681 681 687 675 669 675 657 675 629 629 639 0 0 0 0 0 0 623 598 593 588 574 553 549 0 128 0 0 0 0 0 2453 0 2230 0 0 0 774 774 735 750 743 0 0 0 0 0 0 0 0 721 0 735 0 0 408 743 728 728 743 0 0 681 663 669 675 721 721 0 0 0 0 0 0 0
    0 0 0 0 0 0 0 0 0 0 0 0 0 0 0 0 0 0 0 0 0 0 0 0 0 0 0 0 0 0 0 0 0 0 0 0 0 0 0 0 0 0 0 0 0 0 0 0 0 0 0 0 0 0 0 0 0 0 0 0 0 0 0 0 0 0 0 0 0 1533 1471 1415 1443 1501 1443 1471 1471 1471 1443 1599 1635 1672 1635 1711 1752 1795 1887 1936 1936 1989 2102 2102 2102 2044 2164 1989 2164 2230 2230 2102 2230 2299 2374 2299 2374 2230 2453 2299 2628 2537 2453 2453 2537 0 0 0 0 3345 3873 4088 3873 4088 3066 3066 3066 3199 2830 2725 2725 2943 3066 4329 0 0 0 0 0 0 0 0 3679 3345 5661 6133 5256 6133 6133 6690 6690 6690 6690 8177 6690 8177 8177 0 0 0 0 0 0 0 0 0 0 0 0 0 6690 6133 6690 6133 5661 4329 4088 3504 3345 3504 3345 3066 2943 2830 2725 2628 2537 2374 2164 1989 1936 1839 1711 1599 1635 1672 1599 1565 1599 1471 1501 1565 1471 1338 1362 1338 1268 1247 1187 1206 1187 1187 1206 1168 1115 1168 1098 1168 1066 1051 1051 1066 1066 1098 1051 1066 1008 0 0 0 919 0 0 0 0 0 836 0 0 766 0 728 707 0 694 0 0 681 675 681 669 657 675 651 675 623 629 645 0 0 0 707 0 0 639 608 598 593 579 557 549 0 0 0 0 225 0 0 2725 0 2453 0 3504 0 0 791 750 758 750 0 0 0 0 0 0 0 0 0 0 728 0 0 408 735 714 714 721 721 0 675 663 669 669 714 714 0 0 0 0 0 0 0
    0 0 0 0 0 0 0 0 0 0 0 0 0 0 0 0 0 0 0 0 0 0 0 0 0 0 0 0 0 0 0 0 0 0 0 0 0 0 0 0 0 0 0 0 0 0 0 0 0 0 0 0 0 0 0 0 0 0 0 0 0 0 0 0 0 0 0 0 0 1443 1443 1362 1415 1415 1388 1415 1415 1415 1388 1501 1599 1599 1599 1711 1711 1795 1839 1887 1887 1936 2044 2044 2044 1989 2102 1989 2164 2164 2230 2102 2230 2299 2374 2299 2374 2299 2453 2299 2628 2537 2453 2453 2453 0 0 0 0 3199 3679 4088 3679 3504 2830 2725 2830 2830 2628 2537 2537 2830 2830 3504 3066 3066 0 0 0 0 0 4088 4329 3679 5256 6133 5256 6133 5661 6133 5661 6133 6133 8177 6690 7359 8177 8177 0 0 0 0 0 0 0 0 0 0 0 0 6690 5661 6133 6133 5661 4329 4088 3504 3345 3504 3199 3066 2830 2725 2725 2537 0 2299 2044 1887 1887 1795 1672 1565 1599 1672 1599 1565 1599 1471 1501 1533 1471 1338 1362 1338 1268 1247 1187 1206 1206 1187 1187 1168 1115 1168 1098 1168 1066 1066 1066 1082 1082 1098 1051 1082 0 0 0 0 0 0 0 0 0 0 845 799 0 774 0 735 714 0 694 0 0 681 675 681 669 651 669 645 675 623 0 0 0 0 694 714 687 0 645 0 598 593 579 561 553 0 0 0 0 225 0 0 0 0 2537 0 0 0 0 799 766 782 766 0 0 0 0 0 0 0 0 0 0 728 0 0 411 0 707 0 714 721 0 675 657 669 669 714 707 0 0 0 0 0 0 0
    0 0 0 0 0 0 0 0 0 0 0 0 0 0 0 0 0 0 0 0 0 0 0 0 0 0 0 0 0 0 0 0 0 0 0 0 0 0 0 0 0 0 0 0 0 0 0 0 0 0 0 0 0 0 0 0 0 0 0 0 0 0 0 0 0 0 0 0 0 1415 1415 1338 1388 1388 1362 1388 1388 1415 1388 1443 1533 1533 1565 1672 1711 1795 1887 1887 1936 1989 1989 2044 1989 1989 2102 1989 2164 2164 2230 2102 2230 2299 2374 2374 2374 2299 2453 2299 2537 2537 2453 2453 2453 0 0 0 0 3199 3679 3873 3345 3199 2628 2537 2628 2628 2537 2453 2453 2725 2725 2830 2943 2830 2725 0 0 0 0 6133 6133 4329 5661 6133 5256 6133 5661 6133 5256 5661 6133 7359 6690 7359 7359 0 0 0 0 0 0 0 0 0 0 0 8177 8177 6133 5661 5661 6133 5661 4599 4088 3504 3345 3504 3199 2943 2725 2628 2628 2537 0 2164 2044 0 1839 1795 1672 1565 1599 1672 1599 1565 1635 1501 1501 1533 1471 1362 1338 1338 1247 1247 1187 1206 1206 1187 1187 1168 1115 1168 1098 1187 1082 1066 1066 1082 1082 1115 1051 1082 1036 0 0 0 0 0 0 0 0 0 855 808 0 0 0 750 714 0 694 80 0 681 681 681 669 651 0 0 681 623 0 0 0 0 0 714 0 0 651 0 598 593 584 561 557 0 106 0 0 225 0 0 0 826 0 0 0 0 0 808 782 791 0 0 0 0 0 0 0 0 0 0 0 0 0 0 411 0 700 0 0 721 0 669 657 675 675 0 707 0 0 0 0 0 0 0
    0 0 0 0 0 0 0 0 0 0 0 0 0 0 0 0 0 0 0 0 0 0 0 0 0 0 0 0 0 0 0 0 0 0 0 0 0 0 0 0 0 0 0 0 0 0 0 0 0 0 0 0 0 0 0 0 0 0 0 0 0 0 0 0 0 0 0 0 0 1415 1415 1338 1388 1362 1338 1388 1388 1388 1388 1443 1533 1501 1533 1672 1672 1795 1887 1936 1989 2044 2044 2044 1989 1989 2044 1989 2102 2164 2164 2102 2230 2299 2374 2374 2374 2299 2453 2299 2537 2537 2374 2453 2453 2725 0 0 3066 3199 3679 3873 3199 3066 2537 2453 2453 2537 2453 2453 2453 2628 2628 2725 2725 2725 2628 2537 0 0 7359 8177 8177 5256 6133 6690 5661 6133 5661 6133 5661 6133 6133 7359 6690 8177 8177 0 0 0 0 0 0 0 0 0 8177 8177 7359 7359 6133 5256 5256 6133 5661 4599 4329 3679 3504 3504 3199 3066 2830 2725 2725 2537 0 0 1989 0 0 1752 1635 1565 1599 1711 1599 1599 1672 1533 1501 1501 1471 1362 1338 1314 1247 1247 1168 1187 1206 1168 1187 1187 1115 1168 1098 1187 1082 1066 1066 1082 1082 1115 1066 1098 1036 0 0 0 0 886 0 0 0 865 855 808 0 0 0 758 721 0 0 80 0 0 0 687 675 651 0 0 681 623 0 0 128 0 0 721 0 0 657 0 598 593 584 561 557 0 106 0 224 225 0 0 0 826 0 0 0 0 0 817 799 0 0 0 0 0 0 0 0 0 0 0 223 0 0 0 413 0 687 0 0 728 0 0 657 0 675 0 700 0 0 0 0 0 0 0
    0 0 0 0 0 0 0 0 0 0 0 0 0 0 0 0 0 0 0 0 0 0 0 0 0 0 0 0 0 0 0 0 0 0 0 0 0 0 0 0 0 0 0 0 0 0 0 0 0 0 0 0 0 0 0 0 0 0 0 0 0 0 0 0 0 0 0 0 0 1388 1388 1338 1388 1362 1338 1388 1388 1388 1415 1443 1501 1471 1533 1672 1672 1752 1887 1936 2044 2102 2102 2044 1989 1989 2044 1989 2102 2164 2164 2102 2164 2299 2374 2299 2374 2299 2374 2299 2537 2537 2374 2453 2537 2830 0 0 3199 3199 3504 3679 3066 2830 2453 2374 2374 2453 2453 2453 2374 2537 2537 2628 2628 2725 2537 2453 2453 0 7359 8177 8177 5661 6690 6690 6133 6133 6133 6133 5661 6133 6133 7359 6690 8177 6690 9199 8177 0 0 0 0 0 7359 0 7359 7359 6690 6690 5661 4599 4906 5661 5256 4329 4088 3679 3504 3345 3199 2943 2725 2725 2725 2537 0 0 2044 0 0 1795 1672 1599 1599 1711 1635 1599 1672 1599 1501 1533 1501 1362 1314 1314 1226 1226 1168 1187 1187 1168 1168 1187 1115 1168 1098 1187 1098 1082 1082 1082 1098 1115 1066 1115 1051 0 0 1008 0 886 0 0 0 865 855 808 0 0 743 758 721 0 0 80 0 0 0 0 0 0 0 0 681 613 0 0 0 290 0 721 0 0 0 0 598 593 584 561 553 0 0 0 224 225 0 0 0 817 0 0 0 0 514 0 0 0 0 454 446 0 0 0 0 451 448 0 221 0 0 0 418 0 0 0 0 0 0 0 0 0 0 0 0 0 353 0 0 0 0 0
    0 0 0 0 0 0 0 0 0 0 0 0 0 0 0 0 0 0 0 0 0 0 0 0 0 0 0 0 0 0 0 0 0 0 0 0 0 0 0 0 0 0 0 0 0 0 0 0 0 0 0 0 0 0 0 0 0 0 0 0 0 0 0 0 0 0 0 0 0 1388 1388 1338 1388 1362 1338 1362 1388 1388 1415 1443 1501 1443 1533 1635 1672 1711 1887 1887 1989 2102 2102 2044 1989 1989 2044 1989 2102 2102 2164 2102 2164 2299 2299 2230 2299 2299 2374 2299 2453 2537 2374 2453 2537 2830 0 0 3199 3066 3199 3345 2830 2628 2299 2299 2299 2374 2453 2374 2374 2453 2537 2628 2537 2725 2537 2374 2299 0 0 0 8177 6690 7359 7359 6133 6690 6133 6133 5661 6133 6133 8177 7359 8177 7359 0 0 0 0 0 0 0 7359 8177 6690 6690 6133 6133 5256 4599 4599 5661 5256 4599 4088 3679 3504 3345 3066 2943 2628 2725 2725 2537 0 2164 2044 0 1887 1839 1711 1635 1672 1752 1672 1635 1711 1599 1501 1533 1501 1362 1314 1314 1226 1226 1168 1187 1187 1168 1168 1187 1115 1168 1098 1168 1098 1098 1098 1098 1098 1132 1082 1115 1066 0 1008 1008 981 897 908 0 876 865 855 799 0 0 743 766 728 0 0 81 0 0 0 0 0 0 0 0 675 613 0 0 0 290 289 714 0 0 0 0 598 588 584 557 553 0 0 222 223 225 223 0 0 808 0 0 0 0 507 477 462 468 448 451 446 446 0 448 448 454 451 451 0 0 0 0 0 0 0 0 0 0 0 0 0 0 0 0 0 0 353 0 0 0 0 0
    0 0 0 0 0 0 0 0 0 0 0 0 0 0 0 0 0 0 0 0 0 0 0 0 0 0 0 0 0 0 0 0 0 0 0 0 0 0 0 0 0 0 0 0 0 0 0 0 0 0 0 0 0 0 0 0 0 0 0 0 0 0 0 0 0 0 0 0 0 1388 1388 1338 1362 1338 1338 1362 1388 1362 1415 1415 1471 1443 1533 1635 1635 1711 1887 1887 1989 2164 2164 2102 2044 2044 2044 1989 2102 2102 2164 2102 2164 2230 2299 2230 2299 2299 2299 2230 2374 2453 2299 2374 2453 2725 0 2725 3066 2943 2943 3199 2374 2374 2164 2230 2164 2299 2374 2374 2374 2453 2453 2537 2537 2628 2537 2374 2299 0 0 0 8177 6690 7359 7359 6133 6690 6133 6133 5661 6133 6133 8177 6690 8177 7359 8177 0 0 0 0 0 0 7359 8177 6690 6690 6690 6133 5661 4599 4906 5661 5256 4906 4088 3873 3504 3345 3066 2830 2628 2628 2628 2453 2230 2164 2102 1887 1936 1887 1752 1711 1711 1839 1752 1711 1752 1672 1533 1565 1533 1362 1314 1314 1206 1226 1168 1187 1187 1149 1149 1187 1115 1168 1098 1168 1098 1098 1098 1098 1098 1115 1082 1115 1066 994 1008 994 968 886 886 876 876 855 845 791 0 774 735 766 728 0 707 81 0 0 0 0 0 0 0 0 0 618 0 0 0 290 289 0 0 0 0 0 598 588 579 557 0 0 0 222 223 225 224 0 0 0 0 2453 2044 0 0 471 459 459 448 451 0 446 443 446 448 454 454 457 465 468 0 0 465 0 0 4599 0 0 0 0 0 0 0 0 0 0 355 0 0 0 0 0
    0 0 0 0 0 0 0 0 0 0 0 0 0 0 0 0 0 0 0 0 0 0 0 0 0 0 0 0 0 0 0 0 0 0 0 0 0 0 0 0 0 0 0 0 0 0 0 0 0 0 0 0 0 0 0 0 0 0 0 0 0 0 0 0 0 0 0 0 0 1362 1362 1314 1362 1338 0 0 1388 1362 1415 1415 1471 1443 1501 1599 1635 1672 1887 1887 2044 2164 2230 2164 2102 2102 2102 2044 2102 2164 2164 2102 2164 2230 2299 2164 2230 2299 2230 2164 2230 2374 2230 2230 2374 2537 2453 2628 2830 2830 2453 2830 2102 2230 2102 2230 2102 2230 2299 2299 2299 2374 2374 2537 2453 2628 2537 2453 2453 2943 8177 0 0 7359 7359 8177 6690 6690 6133 6133 5256 6133 6133 8177 6690 8177 6690 8177 0 0 0 0 0 0 7359 8177 7359 6690 6690 6690 6133 4906 5256 6133 6133 5256 4599 4329 3873 3345 3066 2830 2628 2628 2628 2453 2230 2164 2164 1936 2044 1936 1795 1752 1752 1887 1795 1752 1795 1672 1533 1565 1533 1362 1291 1291 1206 1226 1168 1187 1187 1149 1149 1206 1132 1187 1115 1168 1115 1115 1115 1115 1098 1115 1082 1098 1051 968 981 968 955 876 865 865 855 845 836 791 758 758 735 766 728 0 714 0 0 0 0 0 0 0 0 0 0 623 0 0 0 292 290 0 0 0 0 0 598 588 579 557 0 0 0 0 223 225 0 0 0 0 0 2374 2164 0 0 471 462 459 451 451 448 446 443 446 448 454 457 462 468 471 471 481 481 490 0 4599 0 0 0 0 0 0 0 89 0 0 0 0 0 0 0 0
    0 0 0 0 0 0 0 0 0 0 0 0 0 0 0 0 0 0 0 0 0 0 0 0 0 0 0 0 0 0 0 0 0 0 0 0 0 0 0 0 0 0 0 0 0 0 0 0 0 0 0 0 0 0 0 0 0 0 0 0 0 0 0 0 0 0 0 0 0 1362 1362 1314 1338 1338 0 0 0 1362 1415 1415 1471 1443 1501 1599 1635 1672 1839 1887 2102 2230 2299 2230 2164 2230 2230 2164 2164 2230 2230 2164 2164 2230 2230 2164 2230 2299 2164 2102 2164 2230 2164 2164 2299 2230 2102 2374 2725 2830 2164 2453 2102 2102 2102 2164 2102 2164 2230 2230 2230 2299 2299 2453 2374 2725 2628 2628 2830 4906 8177 0 0 0 0 0 0 0 0 7359 6133 6690 6133 8177 7359 8177 6690 8177 0 0 0 0 0 0 7359 8177 7359 7359 7359 6690 6690 5661 5661 6133 6133 5661 4906 4906 4088 3504 3066 2943 2725 2628 2628 2537 2299 2230 2230 1989 2102 1989 1839 1752 1795 1887 1795 1752 1795 1672 1501 1565 1533 1362 1268 1268 1206 1226 1168 1206 1187 1168 1149 1206 1149 1187 1115 1187 1115 1115 1115 1115 1098 1115 1082 1082 1051 955 968 955 943 865 855 845 845 836 826 782 750 750 728 766 728 0 714 0 728 721 721 0 0 0 0 0 0 634 0 0 215 292 292 0 0 0 0 0 593 588 584 557 549 0 0 0 224 226 0 0 0 0 0 0 0 0 481 471 465 462 454 454 451 446 443 446 448 451 454 459 465 471 471 477 477 487 0 4329 0 0 0 0 0 0 0 0 0 0 0 0 0 0 0 0
    0 0 0 0 0 0 0 0 0 0 0 0 0 0 0 0 0 0 0 0 0 0 0 0 0 0 0 0 0 0 0 0 0 0 0 0 0 0 0 0 0 0 0 0 0 0 0 0 0 0 0 0 0 0 0 0 0 0 0 0 0 0 0 0 0 0 0 0 0 1362 1362 1314 1338 1338 0 169 0 1362 1415 1415 1471 1443 1501 1599 1599 1635 1839 1887 2164 2299 2299 2230 2230 2299 2230 2230 2230 2230 2230 2164 2164 2164 2164 2102 2102 2230 2102 2102 2102 2164 2102 2044 2230 1936 1795 1989 2102 2453 1936 2164 2044 2044 2044 2164 2044 2102 2164 2230 2164 2164 2230 2374 2374 2830 2830 2830 3504 6133 8177 0 0 0 0 0 0 0 0 7359 5661 6133 5256 7359 8177 7359 6133 7359 8177 8177 0 0 0 0 7359 8177 7359 7359 7359 6690 6690 5661 5661 6690 6690 5661 5256 5256 4329 3504 3199 3066 2830 2628 2725 2537 2374 2299 2299 2044 2164 1989 1887 1795 1839 1936 1839 1795 1795 1711 1533 1635 1565 1388 1268 1268 1206 1247 1187 1206 1187 1168 1168 1226 1149 1187 1132 1187 1115 1098 1098 1098 1082 1115 1082 1066 1036 943 955 943 931 865 845 836 836 826 817 774 743 743 728 758 721 707 714 714 728 728 728 743 0 0 0 0 0 0 221 218 215 293 292 0 290 0 0 0 593 584 584 557 549 549 222 0 224 226 0 514 0 511 0 0 0 0 481 471 468 462 454 454 451 446 440 446 446 448 451 457 459 465 465 477 474 484 0 4599 0 0 0 0 0 0 0 0 0 89 0 0 0 0 0 0
    0 0 0 0 0 0 0 0 0 0 0 0 0 0 0 0 0 0 0 0 0 0 0 0 0 0 0 0 0 0 0 0 0 0 0 0 0 0 0 0 0 0 0 0 0 0 0 0 0 0 0 0 0 0 0 0 0 0 0 0 0 0 0 0 0 0 0 0 0 1362 1362 1314 1338 1338 0 0 1388 1362 1415 1443 1471 1443 1501 1599 1599 1599 1839 1839 2102 2299 2299 2230 2230 2374 2299 2299 2230 2230 2164 2164 2102 2102 2102 2044 2102 2164 2102 2102 2102 2102 2102 2044 2164 1752 1672 1711 1752 0 1839 2044 1989 1989 2044 2102 2044 2102 2102 2164 2102 2164 2230 2299 2453 2943 3066 3066 3679 5661 6690 7359 0 0 0 0 0 0 0 8177 7359 7359 6133 8177 8177 0 7359 8177 8177 8177 8177 8177 8177 8177 6690 7359 7359 7359 7359 6690 7359 6133 6133 7359 6690 6690 5661 6133 4906 3873 3345 3199 2830 2725 2725 2628 2453 2374 2374 2102 2230 2044 1936 1839 1887 1989 1887 1839 1887 1752 1599 1672 1599 1388 1247 1268 1226 1226 1187 1206 1187 1168 1168 1226 1149 1187 1132 1168 1098 1098 1098 1082 1082 1082 1066 1051 1022 931 919 908 908 865 836 826 826 817 799 766 743 743 728 750 0 0 714 714 735 735 735 750 0 0 0 0 0 0 221 218 216 294 294 0 0 0 0 0 593 584 579 557 549 549 0 0 0 0 525 514 0 514 0 0 0 0 481 474 474 465 457 457 451 446 440 443 443 446 448 454 457 462 465 474 471 481 0 0 0 0 0 0 0 0 0 0 0 89 0 0 0 0 0 0
    0 0 0 0 0 0 0 0 0 0 0 0 0 0 0 0 0 0 0 0 0 0 0 0 0 0 0 0 0 0 0 0 0 0 0 0 0 0 0 0 0 0 0 0 0 0 0 0 0 0 0 0 0 0 0 0 0 0 0 0 0 0 0 0 0 0 0 0 0 1362 1362 1314 1338 1338 0 0 1388 1362 1443 1443 1471 1443 1533 1599 1599 1599 1839 1839 2044 2299 2299 2164 2230 2299 2299 2299 2299 2164 2102 2102 1989 1989 2044 1989 2044 2102 2044 2102 2102 2102 2102 2044 2102 1711 1635 0 1752 0 1839 2044 1989 1989 2044 2102 1989 2102 2102 2164 2164 2164 2230 2299 2453 3066 3066 3199 3873 4599 5661 6133 0 0 0 0 0 0 0 0 0 0 8177 0 0 0 0 0 8177 7359 8177 8177 8177 7359 6690 7359 7359 7359 7359 7359 7359 6133 6690 7359 7359 6690 6133 6133 4906 3873 3504 3199 2943 2725 2725 2628 2453 2374 2453 2164 2299 2102 2044 1887 1936 1989 1887 1887 1936 1795 1635 1752 1672 1388 1247 1268 1226 1247 1187 1206 1187 1168 1168 1226 1149 1168 1149 1168 1098 1098 1098 1082 1082 1082 1066 1036 1008 919 897 886 886 855 826 817 817 808 791 766 735 743 728 750 0 0 721 714 735 735 735 758 743 0 0 0 0 0 221 219 217 0 295 0 0 0 0 0 593 584 579 557 549 549 0 545 545 0 525 518 521 518 0 0 0 484 484 477 474 468 457 457 448 446 438 443 443 446 448 454 454 462 465 474 474 481 0 0 623 0 0 0 0 0 0 0 0 90 0 0 0 0 0 0
    0 0 0 0 0 0 0 0 0 0 0 0 0 0 0 0 0 0 0 0 0 0 0 0 0 0 0 0 0 0 0 0 0 0 0 0 0 0 0 0 0 0 0 0 0 0 0 0 0 0 0 0 0 0 0 0 0 0 0 0 0 0 0 0 0 0 0 0 0 1362 1362 1314 1338 1338 1314 0 1388 1362 1443 1443 1471 1471 1533 1599 1599 1599 1795 1839 1936 2230 2230 2164 2230 2299 2299 2299 2374 2230 2102 2102 1989 1936 2044 1936 2044 2102 2044 2102 2102 2164 2164 2044 2299 1795 1752 1936 1887 2044 1936 2102 2044 1989 2044 2164 1989 2102 2102 2230 2164 2164 2230 2299 2453 3066 3199 3504 4088 4599 5256 6133 0 0 0 0 0 0 0 0 0 0 0 0 0 0 8177 7359 7359 6690 7359 7359 7359 7359 6690 6690 7359 7359 7359 7359 7359 6690 6690 7359 7359 6690 5661 5661 4906 3873 3345 3066 2830 2537 2628 2537 2374 2374 2453 2164 2230 2044 2044 1887 1936 1936 1839 1839 1839 1752 1635 1752 1711 1415 1268 1291 1268 1247 1187 1226 1187 1168 1168 1226 1168 1168 1149 1168 1098 1098 1098 1082 1066 1066 1066 1022 994 908 876 876 865 855 817 817 808 799 782 766 735 743 728 743 0 0 721 714 735 743 735 758 750 0 0 0 0 0 221 219 217 0 297 0 0 0 0 0 588 579 574 557 545 549 0 545 545 537 525 518 521 521 0 0 0 487 484 477 477 468 457 454 0 443 438 440 440 443 448 454 457 465 468 474 474 481 0 645 629 0 0 0 669 669 0 0 0 90 0 0 0 0 0 0
    0 0 0 0 0 0 0 0 0 0 0 0 0 0 0 0 0 0 0 0 0 0 0 0 0 0 0 0 0 0 0 0 0 0 0 0 0 0 0 0 0 0 0 0 0 0 0 0 0 0 0 0 0 0 0 0 0 0 0 0 0 0 0 0 0 0 0 0 0 1362 1362 1314 1338 1338 1314 0 1388 1362 1443 1443 1471 1471 1533 1599 1599 1599 1795 1795 1887 2164 2102 2164 2164 2164 2299 2299 2374 2374 2164 2102 2044 1936 2044 1989 2102 2164 2102 2164 2164 2230 2299 2102 2453 1989 1887 2164 2102 2230 2044 2164 2102 2044 2044 2164 2044 2102 2102 2230 2230 2299 2299 2374 2537 3066 3199 3679 4329 4599 5256 5661 0 0 0 0 0 0 0 0 0 0 0 8177 0 0 8177 7359 7359 6133 7359 6690 6690 6690 6690 6690 7359 7359 8177 7359 8177 7359 8177 8177 8177 6690 6133 6690 5256 4088 3504 3066 2830 2453 2628 2453 2374 2299 2374 2164 2230 2044 2044 1887 1887 1887 1795 1795 1795 1752 1635 1711 1711 1415 1291 1291 1291 1247 1206 1226 1187 1168 1187 1226 1168 1149 1149 1187 1098 1098 1098 1082 1066 1051 1051 1008 968 908 876 865 865 855 817 808 808 799 782 766 735 743 728 735 0 0 714 714 728 735 728 750 750 735 0 0 0 0 221 219 217 0 0 0 721 0 0 0 588 574 574 553 545 549 0 545 545 537 525 518 521 521 0 0 0 487 487 481 481 468 454 0 0 443 438 440 440 443 446 454 457 465 468 477 474 477 0 639 629 639 663 629 663 663 0 0 90 90 0 0 0 0 0 0
    0 0 0 0 0 0 0 0 0 0 0 0 0 0 0 0 0 0 0 0 0 0 0 0 0 0 0 0 0 0 0 0 0 0 0 0 0 0 0 0 0 0 0 0 0 0 0 0 0 0 0 0 0 0 0 0 0 0 0 0 0 0 0 0 0 0 0 0 0 1362 1362 1314 1362 1362 1338 1362 1388 1388 1443 1443 1471 1471 1533 1599 1599 1599 1795 1795 1887 2102 2102 2164 2164 2102 2230 2164 2299 2299 2230 2164 2044 1989 2102 2044 2164 2164 2102 2164 2299 2299 2299 2102 2537 2164 1989 2299 2230 2299 2102 2164 2102 2044 2102 2164 2044 2102 2102 2230 2230 2374 2299 2453 2628 3199 3199 3679 4906 5256 5661 6133 0 0 0 0 0 0 0 0 0 0 0 0 8177 9199 8177 6690 7359 6133 7359 6690 7359 7359 6690 6690 7359 7359 8177 7359 0 0 0 0 8177 7359 6690 6690 5661 4599 3504 3199 2943 2537 2628 2453 2374 2299 2374 2164 2230 2044 2044 1887 1887 1839 1795 1795 1795 1752 1672 1711 1752 1443 1291 1314 1314 1268 1206 1226 1206 1187 1187 1226 1187 1149 1168 1187 1098 1098 1098 1066 1051 1036 1036 994 968 908 0 0 865 855 817 808 808 799 782 766 735 743 728 735 0 0 0 714 721 728 728 735 750 728 0 0 0 681 221 220 217 0 0 0 728 0 0 0 584 574 570 553 545 549 0 545 541 537 525 518 518 521 0 0 0 487 0 0 0 468 0 0 0 443 435 443 440 443 446 454 462 468 474 0 0 0 0 634 629 634 651 623 657 657 669 0 90 90 0 0 0 0 0 0
    0 0 0 0 0 0 0 0 0 0 0 0 0 0 0 0 0 0 0 0 0 0 0 0 0 0 0 0 0 0 0 0 0 0 0 0 0 0 0 0 0 0 0 0 0 0 0 0 0 0 0 0 0 0 0 0 0 0 0 0 0 0 0 0 0 0 0 0 0 1362 1362 1314 1362 1362 1338 1388 1415 1388 1443 1443 1501 1471 1533 1599 1599 1599 1795 1795 1839 2102 2044 2102 2164 2102 2164 2102 2230 2230 2164 2164 2044 2044 2102 2044 2299 2299 2230 2299 2299 2299 2374 2164 2537 2164 1989 2299 2230 2299 2102 2230 2164 2102 2164 2230 2102 2164 2164 2299 2299 2453 2453 2537 2830 3199 3345 3679 5256 5661 5661 6133 0 0 0 0 0 0 0 0 0 0 0 8177 8177 8177 8177 7359 8177 6690 7359 7359 7359 7359 7359 6690 7359 7359 8177 7359 0 0 0 0 8177 7359 6690 6690 6133 5256 3679 3345 2943 2453 2537 2453 2374 2299 2374 2164 2230 2044 2044 1839 1839 1795 1752 1752 1752 1711 1635 1672 1752 1443 1314 1362 1338 1291 1206 1226 1206 1187 1206 1247 1187 1149 1187 1206 1098 1098 1098 1066 1051 1036 1051 994 968 919 0 0 865 855 0 808 808 799 782 774 735 743 728 728 0 90 0 707 714 721 714 721 743 0 0 0 0 681 221 220 218 301 302 0 735 0 0 0 579 574 570 553 545 549 549 545 541 537 525 518 518 525 0 0 493 490 487 487 487 0 0 0 0 0 435 443 438 443 446 457 468 0 0 553 0 613 0 629 623 634 639 0 651 645 663 0 0 0 0 0 0 0 0 0
    0 0 0 0 0 0 0 0 0 0 0 0 0 0 0 0 0 0 0 0 0 0 0 0 0 0 0 0 0 0 0 0 0 0 0 0 0 0 0 0 0 0 0 0 0 0 0 0 0 0 0 0 0 0 0 0 0 0 0 0 0 0 0 0 0 0 0 0 0 1362 1388 1314 1362 1362 1338 1388 1415 1388 1443 1471 1501 1471 1533 1599 1599 1599 1795 1795 1839 2102 2044 2102 2164 2102 2164 2044 2102 2102 2102 2164 2044 2044 2102 2102 2374 2374 2374 2374 2374 2374 2374 2164 2628 2230 1989 2299 2299 2374 2230 2299 2164 2164 2164 2230 2164 2164 2164 2299 2299 2537 2453 2628 3066 3199 3345 3679 4599 4906 5256 5256 8177 0 0 0 0 0 0 0 0 0 8177 7359 7359 7359 8177 7359 8177 6690 7359 7359 7359 7359 7359 6690 7359 6690 8177 7359 8177 0 0 8177 8177 6690 6133 6133 5661 4906 3504 3199 2830 2374 2453 2374 2374 2299 2299 2164 2230 2044 2044 1839 1839 1795 1752 1752 1711 1711 1599 1635 1711 1443 1314 1362 1338 1268 1206 1226 1206 1187 1206 1247 1187 1149 1187 1226 1115 1132 0 1082 1082 1051 1066 1008 981 0 0 0 865 855 0 808 808 799 782 774 735 750 735 0 0 90 0 707 707 714 707 707 728 0 0 0 0 681 222 221 0 304 304 0 743 0 0 0 579 570 566 553 545 549 549 545 541 541 525 521 521 525 504 0 497 493 490 490 490 0 0 0 0 0 0 0 0 0 0 454 468 0 0 588 0 0 221 629 0 634 0 0 645 645 663 0 0 0 0 0 0 0 0 0
    0 0 0 0 0 0 0 0 0 0 0 0 0 0 0 0 0 0 0 0 0 0 0 0 0 0 0 0 0 0 0 0 0 0 0 0 0 0 0 0 0 0 0 0 0 0 0 0 0 0 0 0 0 0 0 0 0 0 0 0 0 0 0 0 0 0 0 0 0 1362 1388 1338 1362 1388 1338 1388 1415 1388 1443 1471 1501 1471 1533 1599 1599 1599 1795 1795 1839 2102 2044 2102 2164 2102 2164 1989 2044 2102 2102 2164 2044 2102 2102 2102 2453 2453 2453 2374 2374 2374 2299 2230 2628 2299 2044 2299 2374 2374 2299 2374 2230 2230 2230 2299 2230 2230 2230 2299 2374 2628 2537 2628 3066 3199 3345 3679 4088 4329 4599 4599 7359 8177 8177 8177 0 0 0 0 0 0 0 8177 7359 8177 0 7359 8177 6690 7359 7359 7359 7359 6690 6133 6690 6690 7359 6690 7359 8177 8177 0 8177 6690 6133 5661 6133 5256 3679 3066 2830 2299 2453 2374 2299 2299 2299 2164 2230 2102 2102 1887 1839 1795 1752 1752 1752 1672 1599 1635 1711 1443 1314 1388 1362 1268 1206 1226 1206 1206 1206 1226 1187 1132 1187 1226 1132 1149 0 1098 1098 1066 1082 0 981 0 0 0 865 855 0 808 808 799 782 782 743 758 735 0 0 90 0 700 700 0 694 694 0 0 0 0 0 675 222 221 309 305 305 0 766 0 0 0 574 570 566 553 545 549 545 545 541 541 529 525 521 529 511 0 500 493 493 497 0 0 0 0 0 0 0 284 0 0 0 0 0 215 0 0 0 0 0 0 0 634 0 0 645 645 0 0 0 353 0 0 0 0 0 0
    0 0 0 0 0 0 0 0 0 0 0 0 0 0 0 0 0 0 0 0 0 0 0 0 0 0 0 0 0 0 0 0 0 0 0 0 0 0 0 0 0 0 0 0 0 0 0 0 0 0 0 0 0 0 0 0 0 0 0 0 0 0 0 0 0 0 0 0 0 1362 1388 1338 1388 1388 1338 1388 1415 1388 1443 1443 1501 1471 1533 1599 1599 1635 1839 1839 1887 2102 2044 2164 2230 2164 2230 1989 2102 2102 2164 2230 2044 2102 2102 2102 2453 2453 2453 2374 2374 2374 2299 2299 2725 2453 2164 2453 2537 2453 2453 2453 2374 2374 2374 2374 2374 2374 2453 2453 2537 2725 2628 2725 2943 3066 3345 3504 3679 3873 4088 4088 5661 6690 7359 8177 0 0 0 0 0 0 0 8177 8177 8177 0 8177 8177 7359 8177 7359 8177 7359 7359 6133 6690 6690 7359 6690 6690 7359 7359 8177 8177 6133 6133 5661 6133 4599 3345 2725 2628 2164 2299 2230 2299 2299 2299 2164 2230 2102 2102 1887 1839 1752 1752 1711 1711 1672 1599 1599 1711 1471 1338 1443 1388 1291 1226 1226 1206 1206 1206 1247 1206 1149 1206 1247 1149 1168 0 1115 1115 1066 1082 0 994 0 0 0 855 845 0 808 799 799 782 782 743 758 735 0 0 90 0 694 694 694 687 687 0 0 0 0 0 675 223 221 309 305 305 0 791 0 0 0 574 570 561 553 545 549 545 541 541 0 529 525 521 533 514 0 500 493 0 500 0 0 0 0 0 285 285 284 284 0 0 0 0 216 217 216 0 0 0 0 0 0 235 235 0 639 0 352 0 352 359 0 0 0 0 0
    0 0 0 0 0 0 0 0 0 0 0 0 0 0 0 0 0 0 0 0 0 0 0 0 0 0 0 0 0 0 0 0 0 0 0 0 0 0 0 0 0 0 0 0 0 0 0 0 0 0 0 0 0 0 0 0 0 0 0 0 0 0 0 0 0 0 0 0 0 1362 1388 1338 1388 1388 1338 1388 1415 1388 1443 1443 1501 1471 1533 1635 1599 1635 1839 1839 1887 2102 2102 2164 2230 2230 2299 1989 2102 2102 2164 2230 2044 2164 2102 2102 2453 2453 2453 2374 2374 2374 2374 2374 2830 2628 2299 2628 2725 2628 2628 2628 2453 2453 2374 2453 2374 2453 2537 2537 2628 2725 2725 2830 2943 3066 3066 3345 3679 3679 4088 4088 5256 6690 8177 8177 0 0 0 0 0 0 0 8177 8177 8177 0 8177 8177 8177 8177 8177 8177 8177 8177 6690 6690 6690 7359 6690 6690 7359 7359 7359 7359 6133 6133 5661 6133 4329 3199 2537 2537 2102 2230 2164 2230 2299 2230 2164 2299 2164 2164 1839 1839 1752 1711 1711 1711 1635 1533 1565 1711 1501 1362 1471 1388 0 0 1247 1226 1226 1226 1247 1206 1168 1206 1247 1149 1168 0 1132 1115 1066 1082 0 0 0 0 183 855 845 0 808 799 799 782 782 743 758 743 0 0 90 0 694 694 694 687 681 0 0 0 0 0 0 223 221 310 306 306 0 808 0 0 0 579 570 561 553 545 549 545 0 0 0 529 525 521 533 514 0 0 493 493 504 0 0 0 0 0 0 0 285 284 0 0 0 0 218 218 217 0 0 0 0 225 0 237 237 0 639 0 352 0 352 357 0 0 0 0 0
    0 0 0 0 0 0 0 0 0 0 0 0 0 0 0 0 0 0 0 0 0 0 0 0 0 0 0 0 0 0 0 0 0 0 0 0 0 0 0 0 0 0 0 0 0 0 0 0 0 0 0 0 0 0 0 0 0 0 0 0 0 0 0 0 0 0 0 0 0 1362 1388 1338 1388 1388 1338 1388 1415 1388 1443 1471 1501 1471 1533 1635 1599 1635 1839 1839 1887 2102 2044 2164 2230 2230 2374 1989 2164 2164 2164 2230 2102 2164 2102 2102 2537 2537 2453 2374 2453 2453 2453 2453 2943 2725 2537 2725 2830 2725 2725 2725 2628 2537 2453 2537 2537 2537 2628 2628 2725 2830 2725 2943 3066 3066 3066 3345 3679 3873 4599 4599 4599 6133 7359 7359 8177 8177 0 0 0 0 0 8177 8177 8177 0 8177 8177 8177 0 8177 8177 8177 8177 7359 7359 6690 7359 6690 7359 7359 7359 6690 7359 6690 6690 6133 6133 4599 3199 2537 2628 2102 2230 2164 2299 2299 2230 2164 2299 2164 2164 1839 1839 0 1711 1711 1711 1599 1501 1533 1711 1501 1362 1501 1415 0 0 0 1247 1226 1247 0 1226 1168 1226 1247 1187 1187 0 1132 1132 1082 1098 0 0 0 0 183 0 845 0 808 799 799 782 782 743 758 743 0 0 90 90 687 687 687 681 681 0 0 0 0 0 0 223 221 310 305 305 0 826 0 0 0 579 574 561 553 545 549 545 0 0 0 529 525 521 529 514 0 0 490 490 504 0 0 0 0 0 0 0 285 285 0 0 0 0 219 219 218 0 393 389 381 0 0 238 238 237 0 0 350 0 350 357 0 0 0 0 0
    0 0 0 0 0 0 0 0 0 0 0 0 0 0 0 0 0 0 0 0 0 0 0 0 0 0 0 0 0 0 0 0 0 0 0 0 0 0 0 0 0 0 0 0 0 0 0 0 0 0 0 0 0 0 0 0 0 0 0 0 0 0 0 0 0 0 0 0 0 1362 1388 1338 1388 1415 1362 1388 1415 1388 1471 1471 1501 1471 1533 1599 1599 1599 1887 1887 1887 2164 2102 2164 2230 2299 2453 1989 2164 2164 2164 2230 2102 2230 2102 2164 2537 2537 2453 2453 2453 2537 2537 2537 3066 2943 2725 2830 2943 2830 2830 2830 2725 2725 2628 2628 2725 2725 2830 2830 2830 2943 2830 3066 3345 3345 3345 3504 3873 4088 4599 4906 4329 5661 6690 6690 7359 7359 0 0 0 0 9199 0 8177 0 0 0 0 0 0 8177 8177 8177 8177 7359 7359 6690 7359 6690 7359 7359 7359 6690 7359 6690 6690 6133 6690 4906 3199 2453 2628 2102 2230 2164 2299 2299 2299 2164 2299 2164 2164 1887 1887 0 1752 1711 1711 1599 1471 1533 1711 1501 1362 1501 1415 0 0 0 1247 1247 0 0 1226 1187 1226 1247 1187 1187 0 1149 1149 1082 1098 0 0 0 0 183 0 845 0 808 799 799 782 791 743 766 743 0 0 90 90 687 681 681 675 675 0 0 0 0 0 0 223 221 0 304 304 0 836 0 0 0 579 574 566 557 545 549 545 0 0 0 529 521 518 0 507 0 0 0 0 0 758 0 385 387 0 288 286 0 0 0 0 0 0 221 219 0 397 395 393 385 0 0 239 239 238 0 350 352 0 352 357 0 0 0 0 0
    0 0 0 0 0 0 0 0 0 0 0 0 0 0 0 0 0 0 0 0 0 0 0 0 0 0 0 0 0 0 0 0 0 0 0 0 0 0 0 0 0 0 0 0 0 0 0 0 0 0 0 0 0 0 0 0 0 0 0 0 0 0 0 0 0 0 0 0 0 1362 1388 1338 1388 1415 1362 1388 1443 1415 1471 1471 1501 1471 1533 1599 1599 1599 1887 1887 1936 2164 2164 2230 2230 2374 2453 1989 2230 2164 2164 2230 2164 2230 2164 2164 2537 2537 2453 2453 2453 2537 2537 2628 3066 2943 2943 2943 3066 2943 2943 3066 2943 2943 2830 2830 2830 2830 2943 2943 2943 3199 3066 3345 3873 4088 4088 3873 4599 4599 4906 4906 4088 5661 5661 6133 6690 6690 8177 8177 8177 0 8177 0 0 0 0 0 0 0 0 0 0 8177 8177 8177 7359 6690 7359 6690 7359 7359 7359 7359 7359 6690 6690 6133 6690 4906 3199 2453 2628 2164 2299 2164 2299 2299 2299 2164 2374 2230 2230 1936 1936 0 1795 1752 1752 1599 1471 1501 1711 1471 1362 1501 1415 0 0 0 0 0 0 0 1226 1187 1226 1247 1206 1206 0 1168 1149 1098 1098 0 0 0 0 183 0 855 0 808 808 799 782 799 743 766 743 0 0 90 90 687 687 681 675 669 687 675 651 0 645 0 223 221 219 0 0 0 0 0 0 0 584 579 566 557 545 553 549 0 0 0 529 521 518 0 0 0 808 0 0 0 758 743 385 387 0 289 0 0 0 0 0 0 0 0 219 0 399 397 395 389 0 0 240 240 238 350 350 352 0 352 357 0 0 0 0 0
    0 0 0 0 0 0 0 0 0 0 0 0 0 0 0 0 0 0 0 0 0 0 0 0 0 0 0 0 0 0 0 0 0 0 0 0 0 0 0 0 0 0 0 0 0 0 0 0 0 0 0 0 0 0 0 0 0 0 0 0 0 0 0 0 0 0 0 0 0 1362 1388 1338 1388 1415 1362 1388 1443 1415 1471 1471 1501 1471 1533 1599 1599 1599 1887 1887 1989 2164 2164 2299 2230 2374 2453 2044 2230 2230 2230 2230 2164 2230 2164 2164 2537 2537 2453 2453 2453 2628 2628 2628 3066 3066 3066 3066 3199 3066 3066 3199 0 3066 3066 0 0 3066 3345 3199 3345 3679 3504 4088 5256 5256 5256 4599 5256 4906 5256 5256 4088 4906 5256 5256 6133 6133 7359 7359 7359 8177 7359 8177 0 0 0 0 0 0 0 8177 8177 8177 7359 7359 7359 7359 7359 6690 7359 7359 7359 7359 7359 6690 6690 6133 6133 4906 3199 2537 2725 2164 2299 2164 2299 2299 2299 2164 2374 2230 2230 1936 1936 0 1795 1752 1752 1599 1471 1501 1672 1471 1362 1501 1415 0 0 0 0 0 0 0 1226 1187 1226 1247 1206 1206 0 1187 1168 1115 1115 1082 0 0 0 183 0 855 0 817 808 808 791 799 750 774 750 735 0 90 90 0 687 0 675 675 687 675 651 0 639 0 223 221 220 0 0 0 0 0 0 0 584 579 566 561 549 553 549 0 0 0 0 518 514 782 799 791 808 791 0 0 758 743 0 389 0 0 0 0 0 0 0 0 0 0 219 0 0 399 395 389 0 0 241 241 238 352 350 352 0 0 357 0 0 0 0 0
    0 0 0 0 0 0 0 0 0 0 0 0 0 0 0 0 0 0 0 0 0 0 0 0 0 0 0 0 0 0 0 0 0 0 0 0 0 0 0 0 0 0 0 0 0 0 0 0 0 0 0 0 0 0 0 0 0 0 0 0 0 0 0 0 0 0 0 0 0 1388 1388 1362 1388 1415 1362 1388 1443 1415 1471 1471 1501 1471 1533 1599 1599 1599 1887 1887 1989 2230 2164 2299 2230 2374 2453 2044 2299 2230 2230 2230 2164 2230 2164 2230 2537 2453 2453 2537 2537 2628 2628 2725 3199 3066 3199 3199 3199 3199 3199 3345 0 3345 3199 3066 3199 3504 3873 3504 3873 4599 4329 5256 6133 6133 6133 5256 6133 5661 6133 5661 4599 5256 4906 5256 5661 6133 6690 6690 6690 7359 7359 0 0 0 0 0 0 0 0 8177 0 8177 7359 8177 7359 7359 7359 6690 7359 6690 7359 7359 6690 6690 6690 6133 6133 4906 3345 2628 2725 2230 2374 2164 2299 2299 2299 2164 2374 2230 2230 1936 1936 0 1795 1752 1752 1599 1471 1501 1672 1443 1362 1501 1415 0 0 0 0 0 0 0 1226 1187 1226 1226 1206 1206 1187 1187 1168 1115 1115 1098 0 0 0 183 0 865 0 0 817 0 799 808 758 782 758 743 0 90 90 0 0 0 681 675 687 675 651 669 639 0 223 221 220 0 0 0 0 0 0 0 584 579 570 561 549 553 549 0 0 0 0 518 511 791 799 791 808 791 0 0 758 750 0 391 0 0 0 0 0 0 0 0 0 0 219 0 0 402 397 391 0 0 240 241 238 0 353 355 0 0 359 0 0 0 0 0
    0 0 0 0 0 0 0 0 0 0 0 0 0 0 0 0 0 0 0 0 0 0 0 0 0 0 0 0 0 0 0 0 0 0 0 0 0 0 0 0 0 0 0 0 0 0 0 0 0 0 0 0 0 0 0 0 0 0 0 0 0 0 0 0 0 0 0 0 0 1388 1388 1362 1388 1415 1362 1388 1443 1415 1471 1471 1501 1471 1533 1599 1599 1599 1839 1887 1989 2164 2164 2299 2230 2374 2453 2044 2299 2299 2230 2230 2164 2230 2230 2230 2537 2453 2374 2453 2537 2628 2725 2725 3066 3066 3066 3066 3066 3199 3345 3345 0 3504 3345 3504 3679 4329 5661 4329 5256 5661 5661 6133 6690 6690 6690 5661 6690 6133 6690 6133 5256 5256 5256 5661 5661 6133 6133 6690 6690 7359 7359 0 0 0 0 0 0 0 0 8177 8177 8177 7359 7359 7359 7359 7359 6133 7359 6690 6690 6690 6690 6133 6133 5661 6133 4906 3345 2830 2830 2299 2453 2164 2299 2299 2299 2164 2374 2230 2230 1936 1989 0 1795 1752 1752 1599 1471 1501 1711 1471 1362 1471 1415 0 0 0 0 0 0 0 1206 1168 1206 1206 1187 1187 1168 1187 1187 1115 1115 1098 0 0 0 0 0 876 0 0 826 0 808 817 766 782 766 743 743 90 90 0 0 0 681 675 687 675 645 663 629 0 0 221 220 0 0 0 0 0 0 0 588 584 570 566 553 553 549 0 0 0 0 514 507 799 808 799 808 791 799 750 758 758 0 0 0 0 0 0 0 0 440 0 0 0 0 0 0 406 399 0 0 0 0 239 0 0 0 0 0 0 362 0 0 0 0 0
    0 0 0 0 0 0 0 0 0 0 0 0 0 0 0 0 0 0 0 0 0 0 0 0 0 0 0 0 0 0 0 0 0 0 0 0 0 0 0 0 0 0 0 0 0 0 0 0 0 0 0 0 0 0 0 0 0 0 0 0 0 0 0 0 0 0 0 0 0 1415 1415 1362 1388 1388 1362 1388 1443 1388 1471 1471 1471 1471 1533 1599 1635 1599 1839 1839 1989 2164 2164 2299 2230 2374 2453 2044 2374 2299 2230 2299 2230 2230 2230 2230 2537 2453 2374 2537 2537 2537 2725 2725 3066 3066 3066 3066 3066 3345 3504 3504 4088 4088 3873 4329 4599 5661 7359 5661 6133 6690 6690 6690 7359 6690 6690 6133 7359 7359 7359 7359 6133 6133 5661 6133 6133 6133 6133 6690 6690 7359 7359 0 0 0 0 0 0 0 0 8177 8177 8177 7359 7359 6690 7359 6690 6133 7359 6690 6690 6690 6133 5661 5661 5661 5661 4599 3345 2943 2943 0 2453 2164 2299 2299 2299 2164 2374 2230 2230 1936 1989 0 1795 1752 1752 1599 1471 1501 1711 1471 1362 1443 1388 178 179 0 0 0 0 0 1206 1168 1206 1187 1187 1187 1168 1187 1187 1115 1132 1098 0 0 0 0 0 876 0 845 836 0 817 826 782 791 766 750 750 90 90 0 0 0 681 675 687 675 645 0 0 0 0 221 220 0 0 0 0 0 0 0 588 584 574 566 553 553 549 0 0 0 0 514 504 799 808 799 817 799 808 774 774 766 791 0 0 0 0 0 0 0 440 0 0 0 0 0 0 413 402 0 0 0 0 0 0 0 0 0 0 0 364 0 0 0 0 0
    0 0 0 0 0 0 0 0 0 0 0 0 0 0 0 0 0 0 0 0 0 0 0 0 0 0 0 0 0 0 0 0 0 0 0 0 0 0 0 0 0 0 0 0 0 0 0 0 0 0 0 0 0 0 0 0 0 0 0 0 0 0 0 0 0 0 0 0 0 1415 1415 1388 1388 1415 1362 1388 1443 1415 1471 1471 1501 1501 1533 1599 1635 1599 1795 1795 1936 2102 2102 2299 2230 2299 2374 2044 2374 2374 2299 2299 2299 2299 2299 2299 2628 2453 2374 2537 2537 2628 2725 2725 2943 3066 3066 3066 2943 3345 3345 3679 4599 4906 4906 5661 6133 7359 0 6690 7359 8177 8177 7359 0 7359 7359 7359 0 0 8177 8177 7359 6690 6133 6133 6133 6133 6133 6690 6690 7359 7359 0 8177 0 0 0 0 0 0 8177 8177 8177 7359 7359 6690 7359 6690 6133 7359 6690 6690 6690 6133 5661 5661 5661 5256 4906 3504 0 2943 0 2537 2230 2299 2299 2299 2164 2374 2230 2230 1936 1989 0 1795 1795 1752 1599 1471 1501 1711 1471 1362 1415 1388 178 179 0 0 0 0 0 1206 1149 1187 1168 1187 1187 1168 1187 1187 1132 1132 1098 0 0 0 0 919 886 865 855 845 0 826 836 782 791 774 758 758 90 90 0 0 0 0 0 0 681 651 0 0 0 598 221 220 0 0 0 0 0 0 0 588 584 574 570 553 553 549 0 0 0 0 511 500 799 808 799 817 808 817 791 782 774 791 0 0 0 0 0 0 0 440 0 0 0 0 0 0 0 0 0 0 221 0 0 0 645 0 0 0 0 369 0 0 0 0 0
    0 0 0 0 0 0 0 0 0 0 0 0 0 0 0 0 0 0 0 0 0 0 0 0 0 0 0 0 0 0 0 0 0 0 0 0 0 0 0 0 0 0 0 0 0 0 0 0 0 0 0 0 0 0 0 0 0 0 0 0 0 0 0 0 0 0 0 0 0 1443 1443 1388 1415 1415 1388 1415 1443 1415 1471 1471 1501 1501 1533 1599 1599 1599 1795 1795 1887 2044 2102 2230 2164 2230 2299 2044 2374 2374 2299 2299 2299 2299 2374 2299 2628 2537 2374 2537 2537 2537 2725 2628 2943 2943 2943 2943 2943 3199 3345 3504 4088 4906 5256 6133 7359 8177 0 8177 0 0 0 0 0 8177 8177 8177 0 0 8177 0 7359 7359 6133 6690 6133 6133 6690 6690 6690 8177 7359 0 8177 0 0 0 0 0 0 7359 8177 7359 6690 7359 6690 7359 6690 6133 7359 6690 6690 6690 6133 5661 5661 5661 5256 5256 3504 0 2943 2453 2537 2230 2230 2299 2299 2164 2374 2230 2230 1936 1989 1839 1795 1795 1752 1599 1471 1501 1711 1501 1362 1388 1362 0 0 177 0 1206 0 0 1187 1149 1187 1168 1168 1168 1168 1206 1206 1132 1132 1115 0 0 0 931 919 897 876 865 855 0 836 836 791 791 782 750 766 0 90 0 0 0 0 0 0 681 651 0 0 0 598 221 220 0 0 0 0 0 0 0 588 584 570 570 553 553 545 0 0 0 0 511 500 0 808 0 0 0 0 0 0 774 0 0 0 0 293 0 0 0 438 0 0 0 0 217 0 0 0 0 0 220 0 0 0 645 0 369 0 0 373 0 0 0 0 0
    0 0 0 0 0 0 0 0 0 0 0 0 0 0 0 0 0 0 0 0 0 0 0 0 0 0 0 0 0 0 0 0 0 0 0 0 0 0 0 0 0 0 0 0 0 0 0 0 0 0 0 0 0 0 0 0 0 0 0 0 0 0 0 0 0 0 0 0 0 1443 1443 1415 1415 1415 1388 1415 1443 1415 1471 1471 1501 1501 1501 1599 1599 1599 1752 1752 1887 1989 1989 2230 2164 2164 2230 1989 2374 2374 2299 2299 2299 2299 2374 2299 2628 2453 2374 2537 2537 2537 2628 2628 2830 2830 2830 2830 2830 3066 3199 3345 3873 4599 4906 6133 7359 8177 0 8177 8177 0 0 0 0 8177 8177 7359 0 0 8177 0 8177 8177 6133 6690 6690 6133 6690 6690 6690 8177 7359 0 8177 0 0 0 0 0 0 7359 8177 8177 7359 7359 7359 7359 7359 6690 8177 7359 7359 7359 6690 5661 5661 5661 5661 5256 3679 0 2943 2453 2537 2230 2230 2230 2230 2102 2374 2230 2230 1936 1936 1839 1795 1795 1752 1599 1501 1501 1711 1501 1362 1362 1338 0 0 177 0 1187 1168 1168 1187 1132 1168 1149 1168 1168 1149 1187 1206 1132 1149 1115 0 0 955 931 931 908 886 876 865 865 845 845 799 791 782 750 766 0 90 0 0 113 0 0 0 687 657 0 0 0 598 0 220 0 0 0 0 0 0 0 588 584 570 570 557 549 0 0 529 0 0 514 500 3066 0 3066 3066 3199 3679 0 474 0 0 0 0 0 0 0 0 0 0 0 0 0 0 0 0 0 0 0 0 219 0 0 0 651 0 371 371 371 375 0 0 0 0 0
    0 0 0 0 0 0 0 0 0 0 0 0 0 0 0 0 0 0 0 0 0 0 0 0 0 0 0 0 0 0 0 0 0 0 0 0 0 0 0 0 0 0 0 0 0 0 0 0 0 0 0 0 0 0 0 0 0 0 0 0 0 0 0 0 0 0 0 0 0 1443 1443 1415 1415 1415 1362 1415 1443 1388 1471 1443 1501 1501 1533 1599 1599 1599 1752 1752 1887 1936 1989 2164 2164 2164 2164 1989 2299 2374 2299 2299 2299 2299 2374 2299 2628 2453 2374 2537 2453 2453 2628 2537 2725 2830 2830 2830 2830 3066 3199 3345 3679 4329 4599 5661 6690 8177 0 7359 8177 0 0 8177 8177 8177 7359 7359 8177 8177 7359 8177 8177 8177 7359 7359 7359 6690 7359 7359 7359 8177 7359 0 8177 0 0 0 0 0 0 8177 8177 8177 7359 7359 7359 8177 7359 7359 8177 7359 7359 7359 6690 5661 5661 5661 5661 5256 3679 2943 2943 2374 2537 2230 2164 2230 2230 2102 2374 2164 2230 1887 1936 1839 1839 1795 1752 1599 1533 1533 1711 1565 1388 1362 1338 0 0 176 0 1187 1149 1149 1187 1132 1168 1149 1168 1149 1149 1187 1206 1132 1132 1115 0 0 955 943 931 908 897 886 865 876 845 845 799 791 791 750 766 743 90 0 0 113 0 0 0 0 0 0 0 0 603 0 220 0 0 0 0 0 0 0 588 579 570 570 557 549 0 0 529 0 222 518 504 2943 3199 2943 2943 3199 3504 0 474 471 0 0 0 0 0 0 0 0 0 0 0 0 0 0 0 0 0 0 0 0 645 639 634 651 657 371 0 0 0 0 0 0 0 0
    0 0 0 0 0 0 0 0 0 0 0 0 0 0 0 0 0 0 0 0 0 0 0 0 0 0 0 0 0 0 0 0 0 0 0 0 0 0 0 0 0 0 0 0 0 0 0 0 0 0 0 0 0 0 0 0 0 0 0 0 0 0 0 0 0 0 0 0 0 1443 1471 1415 1415 1415 1362 1415 1415 1388 1471 1443 1501 1533 1533 1635 1635 1635 1795 1752 1887 1936 1936 2102 2102 2102 2102 1936 2299 2299 2230 2299 2299 2299 2374 2299 2628 2453 2299 2453 2453 2453 2537 2537 2628 2725 2830 2830 2830 3199 3345 3345 3679 4088 4599 5661 6133 7359 8177 7359 8177 8177 8177 7359 7359 7359 6690 6690 7359 6690 7359 8177 8177 8177 8177 8177 8177 7359 7359 7359 7359 8177 7359 0 8177 0 0 0 0 0 0 8177 0 8177 8177 8177 7359 8177 8177 7359 8177 7359 7359 7359 6690 5661 5661 5661 5661 5661 3679 2943 2943 0 0 0 2164 2164 2164 2102 2299 2164 2164 1887 1936 1887 1839 1839 1795 1635 1565 1565 1752 1599 1388 1314 0 177 178 176 0 1168 1132 1132 1168 1132 1149 1149 1149 1149 1149 1187 1206 1132 1132 1115 0 1036 955 931 931 919 897 886 865 876 845 845 799 0 791 750 766 743 90 721 0 113 0 0 143 142 0 0 0 0 608 0 220 0 0 0 0 0 0 0 593 579 570 566 557 549 0 0 529 0 221 0 511 2943 3066 2943 2830 3066 3345 0 477 474 0 0 0 0 0 0 0 0 0 0 0 0 0 0 0 0 0 0 0 0 663 651 634 657 657 371 0 0 0 0 0 0 0 0
    0 0 0 0 0 0 0 0 0 0 0 0 0 0 0 0 0 0 0 0 0 0 0 0 0 0 0 0 0 0 0 0 0 0 0 0 0 0 0 0 0 0 0 0 0 0 0 0 0 0 0 0 0 0 0 0 0 0 0 0 0 0 0 0 0 0 0 0 0 1471 1471 1443 1443 1471 1388 1415 1443 1388 1471 1443 1501 1533 1565 1635 1635 1672 1795 1795 1887 1887 1936 2044 2102 2102 2044 1936 2230 2299 2230 2299 2299 2299 2374 2299 2537 2453 2299 2453 2453 2374 2537 2453 2537 2725 2725 2830 2830 3199 3199 3345 3679 3873 4599 5256 5661 7359 7359 7359 8177 7359 7359 7359 6690 6690 6133 6133 6690 6133 6133 7359 7359 0 8177 8177 8177 7359 7359 8177 8177 8177 8177 0 8177 8177 0 0 0 0 0 8177 0 8177 8177 8177 8177 8177 7359 7359 8177 7359 7359 6690 6690 6133 6133 6133 6133 5661 3679 2830 2830 0 0 0 2102 2164 2164 2044 2299 2102 2164 1887 1936 1936 1887 1839 1795 1672 1565 1599 1752 1635 1388 1291 0 176 178 176 0 1168 1132 1132 1187 1149 1149 1149 1149 1149 1149 1187 1206 1132 1132 1115 0 1036 955 931 931 919 897 886 865 865 845 836 799 0 782 743 766 743 90 728 0 0 0 0 143 142 0 0 0 0 613 0 220 216 0 0 0 0 0 0 593 579 566 566 557 545 0 0 0 0 221 0 0 2830 2943 2830 2725 2943 3199 0 477 477 0 0 0 0 0 0 0 0 0 0 0 0 0 0 0 0 0 0 0 0 669 663 634 657 0 375 0 0 0 0 0 0 0 0
    0 0 0 0 0 0 0 0 0 0 0 0 0 0 0 0 0 0 0 0 0 0 0 0 0 0 0 0 0 0 0 0 0 0 0 0 0 0 0 0 0 0 0 0 0 0 0 0 0 0 0 0 0 0 0 0 0 0 0 0 0 0 0 0 0 0 0 0 0 1471 1501 1471 1471 1501 1388 1443 1443 1388 1471 1471 1533 1533 1599 1672 1672 1711 1795 1795 1887 1936 1936 2044 2102 2044 1989 1887 2230 2299 2164 2299 2374 2374 2374 2374 2537 2453 2299 2453 2374 2374 2453 2453 2453 2628 2628 2830 2830 3066 3199 3345 3504 3873 4329 4906 5256 6690 7359 7359 7359 7359 7359 6690 6133 6133 5661 5661 6133 5661 5661 6133 6690 0 0 0 0 7359 8177 8177 8177 0 8177 0 8177 8177 0 8177 0 8177 0 8177 0 0 8177 8177 8177 8177 8177 7359 8177 8177 8177 7359 7359 6133 6133 6133 6133 5661 3679 2725 2830 0 0 0 2102 2164 2164 2044 2299 2102 2164 1887 1936 1936 1887 1839 1795 1672 1599 1635 1752 1672 1388 1247 0 176 177 176 0 1168 1132 1132 1187 1149 1168 1149 1149 1149 1149 1187 1206 1115 1115 1115 0 1036 955 931 931 919 886 886 855 865 836 826 791 774 774 735 758 743 0 728 0 0 743 0 0 0 0 0 0 0 634 0 220 217 0 0 735 0 0 0 0 579 566 566 557 0 0 0 0 0 220 0 0 2725 2830 2628 2537 2830 3066 0 474 477 0 0 0 0 0 0 0 0 0 0 0 0 0 474 0 0 0 0 0 0 0 669 634 0 0 375 373 0 381 0 0 0 0 0
    0 0 0 0 0 0 0 0 0 0 0 0 0 0 0 0 0 0 0 0 0 0 0 0 0 0 0 0 0 0 0 0 0 0 0 0 0 0 0 0 0 0 0 0 0 0 0 0 0 0 0 0 0 0 0 0 0 0 0 0 0 0 0 0 0 0 0 0 0 1501 1533 1471 1501 1533 1415 1471 1443 1388 1471 1443 1533 1533 1599 1672 1711 1752 1839 1839 1936 1936 1936 2044 2102 2044 1989 1887 2230 2230 2164 2299 2374 2374 2374 2374 2537 2453 2299 2453 2374 2374 2453 2453 2453 2628 2628 2725 2830 3066 3199 3345 3504 3679 4329 4906 5256 6690 6690 6690 7359 6690 7359 6690 6133 5661 5256 5661 6133 5661 5661 6133 6690 8177 0 0 0 7359 8177 9199 8177 0 8177 0 8177 7359 0 8177 0 8177 0 0 0 0 0 8177 8177 8177 8177 7359 8177 8177 8177 7359 7359 6133 6133 6133 6133 5256 3504 2628 2830 2374 0 0 2102 2164 2164 2102 2299 2102 2164 1887 1887 1936 1839 1839 1795 1672 1599 1635 1752 1711 1388 1206 0 0 177 176 0 1187 1132 1132 1187 1168 1168 1149 1149 1132 1132 1168 1187 1115 1098 1115 0 1036 955 919 919 908 886 886 845 0 826 817 791 758 758 735 743 735 0 728 721 735 743 0 0 0 0 0 0 0 657 221 220 217 296 0 0 750 0 0 0 579 566 566 553 0 0 0 0 0 219 218 0 2537 2725 2537 2374 2830 3199 0 474 477 0 0 0 465 457 446 451 448 0 0 0 0 471 468 0 0 0 0 0 0 0 663 629 0 0 375 373 0 377 0 0 0 0 0
    0 0 0 0 0 0 0 0 0 0 0 0 0 0 0 0 0 0 0 0 0 0 0 0 0 0 0 0 0 0 0 0 0 0 0 0 0 0 0 0 0 0 0 0 0 0 0 0 0 0 0 0 0 0 0 0 0 0 0 0 0 0 0 0 0 0 0 0 0 1533 1533 1501 1533 1565 1443 1501 1471 1415 1471 1443 1565 1565 1635 1711 1752 1839 1887 1839 1936 1936 1936 2044 2102 2102 1989 1887 2230 2230 2102 2230 2374 2374 2374 2374 2537 2453 2299 2453 2374 2374 2374 2374 2374 2537 2537 2628 2725 2943 3066 3199 3199 3504 4088 4599 4906 6133 6133 6690 6690 6133 6690 6133 5661 5661 5256 5661 5661 5256 5661 6133 6133 8177 0 0 9199 7359 8177 8177 8177 8177 8177 8177 7359 7359 8177 8177 0 8177 0 0 0 0 0 0 0 8177 8177 8177 8177 8177 8177 7359 8177 6690 6133 6133 6133 5661 3679 2628 2830 2374 0 2374 2102 2230 2230 2102 2299 2102 2164 1887 1887 1936 1839 1795 1795 1711 1635 1635 1752 1752 1362 1206 0 0 177 176 0 1187 1149 1149 1206 1168 1168 1168 1149 1132 1132 1168 1187 1115 1098 1098 0 1022 955 919 919 908 886 876 836 0 817 808 791 743 750 728 735 0 0 728 721 735 743 0 0 0 728 0 0 0 669 221 220 217 297 299 0 766 0 0 0 579 561 561 553 0 0 0 0 0 219 218 0 0 2628 2537 2299 0 3199 0 0 477 0 0 0 465 459 451 454 448 0 0 0 0 0 465 0 0 0 0 0 0 0 0 0 0 369 375 373 371 375 0 0 0 0 0
    0 0 0 0 0 0 0 0 0 0 0 0 0 0 0 0 0 0 0 0 0 0 0 0 0 0 0 0 0 0 0 0 0 0 0 0 0 0 0 0 0 0 0 0 0 0 0 0 0 0 0 0 0 0 0 0 0 0 0 0 0 0 0 0 0 0 0 0 0 1533 1533 1533 1533 1599 1501 1533 1501 1443 1471 1443 1599 1599 1672 1752 1795 1887 1936 1887 1989 1936 1936 2044 2102 2102 1989 1887 2230 2164 2102 2230 2374 2374 2374 2374 2537 2453 2299 2453 2374 2299 2374 2374 2299 2537 2537 2628 2725 2943 2943 3066 3199 3504 3873 4329 4599 5661 5661 6133 6133 6133 6133 5661 5661 5256 5256 5256 5661 5256 5661 5661 6133 7359 8177 8177 8177 6690 6690 7359 7359 7359 7359 7359 7359 6690 7359 8177 0 8177 0 0 0 8177 0 0 0 8177 0 8177 8177 8177 8177 8177 8177 6690 6690 6133 6133 6133 3873 2628 2943 2374 2537 2453 2164 2299 2299 2102 2299 2102 2164 1887 1887 1936 1795 1795 1795 1711 1635 1635 1711 1752 1362 0 0 0 0 0 1206 1206 1149 1149 1206 1187 0 1168 1149 1132 1132 1168 1187 1098 1082 1098 1008 1022 955 908 908 897 876 865 836 0 817 808 782 743 750 728 735 0 0 721 721 728 0 0 0 0 728 0 0 0 675 221 220 217 297 299 0 774 0 0 0 579 561 561 553 0 0 0 0 215 219 219 0 0 2628 2537 2230 0 3345 0 477 477 0 0 474 462 459 454 454 0 0 0 0 0 0 465 0 0 0 0 0 0 0 0 0 0 369 375 373 371 373 0 0 0 0 0
    0 0 0 0 0 0 0 0 0 0 0 0 0 0 0 0 0 0 0 0 0 0 0 0 0 0 0 0 0 0 0 0 0 0 0 0 0 0 0 0 0 0 0 0 0 0 0 0 0 0 0 0 0 0 0 0 0 0 0 0 0 0 0 0 0 0 0 0 0 1533 1533 1533 1533 1599 1501 1533 1501 1443 1471 1415 1599 1635 1752 1839 1839 1989 1989 1936 1989 1989 1989 2102 2102 2102 1989 1887 2164 2164 2044 2230 2374 2374 2374 2374 2537 2453 2299 2374 2374 2299 2374 2374 2299 2537 2537 2628 2725 2943 2943 3066 3066 3504 3873 4329 4599 4906 5256 5661 5661 5661 6133 5661 5256 5256 5256 5256 5661 5256 6133 5661 6133 7359 8177 7359 7359 6133 6690 6690 6690 6690 7359 7359 6690 6690 7359 7359 0 8177 8177 8177 8177 8177 0 8177 8177 8177 8177 8177 7359 8177 8177 8177 8177 7359 6690 6133 6133 6133 3679 2725 3066 2453 2628 2537 2230 2374 2374 2164 2299 2102 2164 1887 1887 1887 1795 1795 1795 1752 1635 1635 1711 1752 1362 0 0 1206 0 0 1206 1206 1168 1168 1206 1187 561 1168 1149 1132 1132 1149 1168 1098 1082 1098 1008 1008 955 897 897 886 876 0 0 0 808 799 782 743 750 735 728 0 0 721 721 0 0 0 0 743 721 0 0 0 681 222 220 217 299 0 0 782 0 0 0 579 566 561 553 0 0 0 0 0 221 219 0 0 2628 2537 2299 0 0 0 477 477 481 0 471 462 457 454 454 0 0 0 0 457 468 462 0 0 0 0 0 0 369 0 0 0 367 375 375 371 371 0 0 0 0 0
    0 0 0 0 0 0 0 0 0 0 0 0 0 0 0 0 0 0 0 0 0 0 0 0 0 0 0 0 0 0 0 0 0 0 0 0 0 0 0 0 0 0 0 0 0 0 0 0 0 0 0 0 0 0 0 0 0 0 0 0 0 0 0 0 0 0 0 0 0 1565 1533 1533 1565 1599 1533 1565 1533 1501 1533 1471 0 0 0 1887 1887 1989 2044 1989 2102 2102 2044 2164 2164 2164 1989 1887 2164 2164 2044 2230 2374 2374 2374 2374 2453 2374 2299 2374 2374 2299 2374 2374 2230 2537 2537 2628 2830 2943 2943 3066 3066 3345 3873 4088 4329 4599 5256 5256 5256 5256 5661 5256 5256 4906 5256 5256 5661 5256 6690 6133 6690 7359 8177 7359 6690 5661 6133 6690 6690 6690 6690 6690 6690 6690 7359 7359 8177 8177 8177 8177 7359 7359 8177 7359 7359 7359 8177 7359 7359 8177 8177 8177 8177 7359 6690 6133 6133 6133 3679 2725 3066 2628 2725 2628 2299 2453 2453 2230 2374 2164 2230 1936 1839 1887 1795 1752 1795 1752 1672 1635 1672 1752 1338 0 0 1226 0 0 1226 1226 1168 1168 1226 1206 561 1168 1149 1115 1132 1149 1168 1098 1082 1098 1008 1008 955 886 886 876 865 0 0 0 808 791 782 743 758 735 728 0 0 714 714 0 0 0 0 728 721 0 687 675 681 222 221 217 299 0 0 791 0 0 0 584 570 566 557 545 0 0 0 0 221 221 0 0 0 0 0 0 0 481 477 477 477 471 468 459 454 454 451 448 448 0 454 454 465 457 0 0 0 0 0 0 369 364 364 367 367 373 375 371 371 0 0 0 0 0
    0 0 0 0 0 0 0 0 0 0 0 0 0 0 0 0 0 0 0 0 0 0 0 0 0 0 0 0 0 0 0 0 0 0 0 0 0 0 0 0 0 0 0 0 0 0 0 0 0 0 0 0 0 0 0 0 0 0 0 0 0 0 0 0 0 0 0 0 0 1565 1565 1565 1599 1635 1565 1599 1599 1599 1635 0 0 0 0 1936 1936 2044 2102 2044 2102 2164 2102 2230 2164 2164 1989 1887 2164 2164 2044 2230 2374 2374 2374 2453 2453 2453 2299 2374 2374 2299 2374 2374 2299 2537 2453 2628 2725 2830 2830 2943 2943 3345 3679 3873 4329 4329 5256 5661 5661 5256 5661 5256 5256 5256 5661 5661 6133 5661 6690 6690 6690 7359 8177 7359 6690 5661 6133 6690 6133 6690 6690 7359 6690 6690 7359 7359 7359 7359 7359 7359 6690 7359 7359 7359 7359 7359 7359 7359 7359 8177 8177 8177 8177 7359 6690 6133 5661 5661 3679 2830 3199 2725 2830 2830 2453 2628 2628 2374 2453 2230 2299 1936 1839 1887 1752 1711 1752 1752 1635 1635 1635 1795 1338 0 0 1247 0 0 1226 1226 1187 1187 1226 1206 566 1168 1149 1115 1132 1149 1168 1098 1066 1082 1008 994 955 886 876 876 865 0 0 0 808 791 791 743 758 735 728 0 0 0 707 0 0 0 0 721 714 687 687 675 681 222 221 217 297 0 0 799 0 0 0 588 574 566 557 545 549 0 0 0 0 221 0 0 0 0 0 487 0 477 477 474 474 468 462 457 451 454 451 446 446 0 451 451 457 451 435 0 0 0 0 0 375 367 366 367 369 375 377 373 371 0 0 0 0 0
    0 0 0 0 0 0 0 0 0 0 0 0 0 0 0 0 0 0 0 0 0 0 0 0 0 0 0 0 0 0 0 0 0 0 0 0 0 0 0 0 0 0 0 0 0 0 0 0 0 0 0 0 0 0 0 0 0 0 0 0 0 0 0 0 0 0 0 0 0 1565 1599 1565 1599 1635 1565 1599 1635 0 0 0 0 0 0 1936 1989 2044 2044 2044 2102 2164 2102 2230 2164 2164 1989 1887 2164 2164 2044 2164 2374 2374 2374 2453 2537 2453 2299 2374 2374 2299 2374 2374 2230 2453 2453 2537 2725 2725 2725 2830 2830 3199 3679 3873 4329 4329 4906 5661 5661 5661 6133 5661 5661 5256 5661 6133 6690 6133 7359 6690 7359 7359 8177 7359 6690 5661 6133 6690 6133 6690 6690 6690 6690 6690 6690 6133 6133 6690 6690 6690 6133 6690 6690 7359 7359 7359 8177 7359 7359 8177 8177 8177 8177 7359 6690 6133 5661 5256 3679 2830 3345 2830 2943 3066 2628 2725 2725 2537 2537 2299 2299 1989 1839 1839 1711 1672 1711 1711 1635 1599 1565 1795 1362 1226 0 1268 0 0 1247 1247 1206 0 1247 1206 570 1187 1149 1115 1132 1149 1168 1098 1066 0 994 994 943 886 876 876 865 0 0 0 808 791 791 743 758 735 721 0 0 0 700 0 0 0 0 0 707 681 681 669 681 222 221 217 296 0 0 0 0 0 0 593 574 566 557 545 549 0 0 0 0 0 518 511 0 497 484 487 0 477 474 474 471 465 459 454 451 451 448 446 446 443 448 448 451 448 432 0 0 0 0 0 387 375 367 371 369 377 379 373 371 0 0 0 0 0
    0 0 0 0 0 0 0 0 0 0 0 0 0 0 0 0 0 0 0 0 0 0 0 0 0 0 0 0 0 0 0 0 0 0 0 0 0 0 0 0 0 0 0 0 0 0 0 0 0 0 0 0 0 0 0 0 0 0 0 0 0 0 0 0 0 0 0 0 0 1599 1599 1565 1599 1635 1565 1599 1672 0 0 0 0 0 1887 1936 1989 2044 2044 1989 2102 2164 2102 2230 2164 2164 1989 1887 2164 2164 2102 2164 2453 2453 2453 2453 2537 2537 2374 2374 2453 2299 2374 2374 2230 2453 2453 2453 2725 2725 2628 2830 2830 3199 3504 3679 4329 4088 4906 5661 5661 5661 6133 6133 6133 5661 6133 6690 7359 6690 7359 7359 7359 7359 8177 7359 6690 6133 6133 6690 6690 6690 6690 6690 6690 6133 6133 5661 5661 6133 5661 6133 5661 6133 6133 7359 7359 7359 8177 8177 8177 8177 0 8177 8177 7359 6690 6133 5661 5661 4329 3066 3679 3066 3199 3199 0 2830 2830 2628 2628 2374 2374 1989 1839 1839 1711 1672 1672 1711 1599 1565 1533 1752 1362 1247 181 1291 1291 1206 1247 0 0 0 1247 1206 0 1187 1168 1115 1132 1149 1168 1098 1066 0 994 981 943 886 876 876 865 0 0 0 808 791 799 743 758 735 721 714 0 0 694 0 73 687 681 0 700 675 681 663 681 0 221 217 0 0 0 0 0 0 0 598 579 570 561 545 549 0 217 0 0 0 518 511 521 497 484 487 484 474 474 471 468 459 451 451 446 448 448 443 443 443 446 446 0 0 0 0 714 634 0 0 391 377 367 371 369 375 377 373 371 0 0 0 0 0
    0 0 0 0 0 0 0 0 0 0 0 0 0 0 0 0 0 0 0 0 0 0 0 0 0 0 0 0 0 0 0 0 0 0 0 0 0 0 0 0 0 0 0 0 0 0 0 0 0 0 0 0 0 0 0 0 0 0 0 0 0 0 0 0 0 0 0 0 0 1599 1599 1565 1599 1635 1565 1599 1672 0 0 0 0 0 1887 1936 1989 2044 2044 1989 2102 2102 2102 2230 2164 2164 1989 1887 2164 2164 2044 2164 2453 2453 2453 2453 2537 2537 2374 2374 2453 2299 2299 2374 2230 2453 2453 2453 2725 2725 2628 2830 2830 3066 3504 3679 4088 3873 4329 5661 5256 5661 5661 5661 5661 5661 6133 6690 7359 7359 8177 8177 7359 7359 8177 8177 7359 6690 6690 6690 6690 6690 6690 7359 6133 6133 5661 5661 5661 5661 5661 5661 5256 5661 6133 6690 7359 7359 7359 8177 7359 8177 8177 8177 7359 7359 7359 6690 6133 6133 5661 3504 4088 3345 3504 3345 0 2943 2943 2725 2725 2453 2374 2044 1839 1839 1711 1672 1672 1711 1599 1533 1501 1711 1362 1268 0 1314 1268 1206 1247 0 0 0 1247 1206 1149 1187 1168 1115 1132 1149 1168 1098 1066 0 994 981 943 886 876 876 865 0 0 0 808 799 799 743 766 743 721 714 0 0 694 0 73 681 675 694 687 669 675 651 675 0 220 217 0 0 0 0 0 0 0 0 584 574 566 549 549 549 0 0 0 0 521 514 521 504 490 490 484 477 477 471 465 457 446 448 443 448 446 440 443 443 446 446 0 687 0 0 0 0 0 0 391 381 369 375 371 377 377 375 371 0 0 0 0 0
    0 0 0 0 0 0 0 0 0 0 0 0 0 0 0 0 0 0 0 0 0 0 0 0 0 0 0 0 0 0 0 0 0 0 0 0 0 0 0 0 0 0 0 0 0 0 0 0 0 0 0 0 0 0 0 0 0 0 0 0 0 0 0 0 0 0 0 0 0 1565 1565 1565 1599 1599 1565 1599 1672 0 0 0 0 0 1936 1936 1989 2044 2044 1989 2044 2102 2044 2164 2164 2164 2044 1887 2164 2164 2102 2164 2453 2453 2453 2453 2537 2537 2374 2374 2453 2299 2299 2374 2230 2453 2453 2453 2725 2725 2725 2830 2830 3066 3345 3504 3873 3679 4329 5661 5256 5661 5661 6133 5661 5661 6690 6690 7359 7359 8177 8177 7359 8177 8177 8177 7359 7359 7359 7359 7359 7359 7359 7359 6133 6133 5661 5256 5256 5256 4906 5256 4906 5256 5661 6690 6690 6690 7359 7359 7359 8177 8177 7359 7359 7359 6690 6133 6133 6133 5661 3679 4599 3504 3504 3345 0 0 0 2830 2725 2537 2453 2044 1839 1839 1711 1672 1672 1711 1599 1533 1501 1711 1388 1291 0 1338 1268 1226 0 181 181 0 1247 1206 1149 1206 1187 1115 1132 1149 1168 1098 1066 0 994 981 955 886 876 876 865 0 0 0 0 808 808 750 766 743 721 0 90 89 687 681 73 681 675 694 687 663 675 0 0 0 220 216 0 0 0 0 0 0 0 0 588 579 566 549 549 549 0 0 0 533 525 518 525 511 493 497 0 481 481 474 465 457 446 448 443 446 443 0 0 0 0 0 681 675 0 0 0 0 0 395 393 385 371 379 373 377 379 375 371 0 0 0 0 0
    0 0 0 0 0 0 0 0 0 0 0 0 0 0 0 0 0 0 0 0 0 0 0 0 0 0 0 0 0 0 0 0 0 0 0 0 0 0 0 0 0 0 0 0 0 0 0 0 0 0 0 0 0 0 0 0 0 0 0 0 0 0 0 0 0 0 0 0 0 1533 1533 1533 1565 1599 1533 1565 1672 1752 0 0 1936 1936 1936 1989 2044 2044 2044 1989 2044 2102 2044 2164 2164 2102 1989 1887 2164 2164 2102 2164 2453 2453 2453 2453 2537 2537 2374 2374 2453 2299 2299 2374 2230 2453 2453 2537 2830 2725 2725 2830 2830 3066 3345 3504 3873 3679 4088 5661 5256 5256 5661 6133 5661 5256 6133 6133 6690 6690 8177 8177 7359 8177 0 0 8177 8177 8177 8177 8177 7359 7359 7359 6133 6133 5661 5256 4906 5256 4906 4906 4599 5256 5256 6133 6690 6690 6690 7359 7359 7359 8177 6690 6690 7359 6690 6133 6133 5661 5256 3873 4906 3679 3679 3504 0 3066 3066 2830 2725 2537 2453 2044 1839 1839 0 1672 1672 1711 1635 1565 0 1711 1415 1314 1415 1362 0 1226 1247 0 0 0 1247 1226 1149 1206 1187 1132 1132 1149 1149 1098 1066 0 994 968 943 876 876 876 865 855 0 0 0 808 817 758 774 743 721 0 90 89 687 681 0 681 675 694 687 663 681 0 0 0 219 216 0 0 0 0 0 0 0 0 588 584 570 553 553 549 0 0 0 533 525 518 525 514 497 497 0 481 481 474 468 465 451 454 443 446 443 0 0 0 0 0 0 663 0 0 0 0 0 397 395 391 375 385 375 377 379 375 373 0 0 0 0 0</data></depth>
</opencv_storage>
