<?xml version="1.0"?>
<opencv_storage>
<gps_time_stamp>280082</gps_time_stamp>
<gps_x>-1.3983633995056152e+001</gps_x>
<gps_y>1.1273083686828613e+001</gps_y>
<gps_z>-2.2902007102966309e+000</gps_z>
<image_time_stamp>270958</image_time_stamp>
<depth type_id="opencv-matrix">
  <rows>83</rows>
  <cols>320</cols>
  <dt>s</dt>
  <data>
    0 0 0 0 0 0 0 0 0 0 0 0 0 0 0 0 0 0 0 0 0 0 0 0 0 0 0 0 0 0 0 0 0 0 0 0 0 0 0 0 0 0 0 0 0 0 0 0 0 0 0 0 0 0 0 0 0 0 0 0 0 0 0 0 0 0 0 0 0 0 2044 2537 2537 1989 2537 2537 2230 2374 2374 2299 2374 2453 2374 2374 2374 2453 2453 2374 0 2453 2299 2830 0 0 0 0 0 0 0 0 0 0 2725 0 0 2374 0 0 0 0 0 0 0 0 0 0 0 0 0 0 0 2628 2453 2453 2943 2830 0 0 0 0 1752 1839 1839 1989 2230 2164 2102 2164 2102 2102 2102 2044 2164 2164 2164 2299 2102 2628 2725 2537 2725 2628 2628 2628 0 0 2537 2453 2537 2164 2164 2102 2230 2102 2230 2164 2164 2164 2044 2164 2230 2044 2044 1936 1936 1989 2102 2102 2102 2102 2164 2230 2230 2374 2453 2374 2628 2299 2725 2164 0 1887 0 0 1887 1887 0 1752 1795 1887 1936 2044 2102 1839 1887 2164 2453 0 0 0 0 1247 0 1936 1936 1936 2102 1839 1795 1989 1887 1887 1839 1752 1635 1672 1672 0 1533 1471 1471 1443 1443 1443 1388 1362 1501 1362 1314 1268 1206 1226 0 0 0 0 0 0 0 0 0 0 0 0 0 0 0 0 0 0 0 0 2044 0 0 0 0 0 0 1226 1226 1226 1291 1338 1362 1443 1443 1362 1338 1268 1268 1247 1247 1268 1268 1314 1338 1362 1388 1415 1501 1599 1565 1672 1752 1599 1635 1362 0 0 1314 1291 1314 1314 1291 1291 1291 1268 1268 1268 1268 1247 1247 1268 1268 0 0 0 0 0
    0 0 0 0 0 0 0 0 0 0 0 0 0 0 0 0 0 0 0 0 0 0 0 0 0 0 0 0 0 0 0 0 0 0 0 0 0 0 0 0 0 0 0 0 0 0 0 0 0 0 0 0 0 0 0 0 0 0 0 0 0 0 0 0 0 0 0 0 0 0 2044 2453 2374 1989 2537 2628 2299 2374 2453 2299 2374 2453 2299 2374 2299 2374 2374 2374 0 2453 2299 2830 2537 2628 2943 2830 0 0 3199 0 3066 2830 2725 2628 2628 2374 2537 0 0 0 0 0 0 0 0 0 0 104 104 0 2537 2537 2453 2453 2830 2628 0 2628 0 2102 2044 1936 1936 2164 2453 2230 0 2164 2102 2102 2102 2044 2102 2102 2164 2299 2102 2453 2537 2453 2628 2628 2537 2537 2537 2725 2537 2453 2537 2164 2230 2044 2230 2102 2164 2164 2102 2164 2044 2102 2299 2044 2044 2044 1989 2044 2102 2164 2164 2102 2164 2299 2230 2374 2453 2374 2628 2374 2725 2164 0 1887 0 0 1936 1936 0 1795 1839 1936 1989 2044 2102 1887 1989 2044 2164 0 0 0 0 1247 0 1936 1989 2044 2044 1752 1672 1839 1795 1795 1711 1599 1471 1533 1533 1443 1443 1415 1415 1415 1415 1415 1362 1362 1501 1338 1314 1268 1187 1226 0 0 0 0 0 0 0 0 0 0 0 0 0 0 1501 1443 1415 0 0 0 0 0 0 0 1187 1206 1187 1187 1168 1187 1226 1247 1268 1314 1314 1206 1226 1168 1226 1206 1226 1268 1268 1314 1338 1362 1415 1415 1533 1599 1565 1711 1711 1672 1672 1415 0 1338 1338 1314 1314 1314 1291 1291 1291 1291 1268 1268 1291 1268 1268 1314 1291 0 0 0 0 0
    0 0 0 0 0 0 0 0 0 0 0 0 0 0 0 0 0 0 0 0 0 0 0 0 0 0 0 0 0 0 0 0 0 0 0 0 0 0 0 0 0 0 0 0 0 0 0 0 0 0 0 0 0 0 0 0 0 0 0 0 0 0 0 0 0 0 0 0 0 0 0 2628 2628 2230 2725 2830 2453 2537 2537 2374 2537 2537 2374 2374 2374 2374 2374 2374 0 2374 2299 2725 2453 2537 2830 2830 3345 3199 3199 3504 3066 2830 2725 2628 2537 2374 2453 2453 2299 0 0 2102 0 0 2374 0 0 0 0 0 2537 2537 2453 2453 2830 2537 2537 2628 2164 2102 2102 1936 2044 2453 2628 2453 0 2299 2164 2102 2164 2102 2102 2164 2164 2299 2102 2374 2453 2453 2628 2537 2537 2537 2537 2725 2537 2537 2537 2102 2299 2044 2299 2164 2164 2164 2164 2164 2044 2102 2299 2102 2044 2102 2044 2044 2102 2102 2102 2102 2102 2230 2164 2299 2299 2230 2628 2299 2725 2164 0 1887 0 0 1936 1936 1887 1839 1887 1936 1989 2044 2102 1887 1989 2102 2230 1936 0 1599 1711 0 1839 1887 1887 1936 1839 1672 1635 1711 1672 1635 1501 1443 1388 1443 1443 1388 1415 1388 1388 1388 1388 1415 1388 1388 1533 1314 1314 1291 1226 1206 1226 1206 1226 1187 1206 0 0 0 1338 0 1247 0 1291 1314 1338 1338 1314 1338 0 1443 1415 1362 0 1247 1149 1168 1149 1149 1132 1149 1187 1206 1247 1268 1268 1115 1187 1132 1206 1168 1187 1247 1247 1314 1338 1362 1415 1443 1533 1599 1565 1711 1711 1711 1711 1443 1362 1362 1338 1338 1338 1338 1314 1314 1314 1291 1291 1291 1291 1291 1291 1338 1314 0 0 0 0 0
    0 0 0 0 0 0 0 0 0 0 0 0 0 0 0 0 0 0 0 0 0 0 0 0 0 0 0 0 0 0 0 0 0 0 0 0 0 0 0 0 0 0 0 0 0 0 0 0 0 0 0 0 0 0 0 0 0 0 0 0 0 0 0 0 0 0 0 0 0 0 0 2725 2830 2830 2830 2943 2628 2628 2628 2537 2628 2628 2374 2374 2374 2374 2374 2374 0 2299 2374 2725 2537 2725 2943 3066 3504 3345 3345 3504 3345 3199 3066 2830 2628 2537 2628 2628 2537 0 0 2299 0 0 2628 0 0 0 104 0 2537 2537 2453 2453 2830 2537 2628 2628 2374 2374 2537 2102 2299 2725 2725 2628 0 2374 2164 2102 2230 2164 2102 2164 2164 2230 2044 2299 2374 2374 2628 2537 2537 2537 2537 2725 2628 2628 2537 2164 2374 2164 2299 2230 2230 2230 2164 2164 2044 2164 2299 2102 2102 2102 2044 2044 2164 2164 2102 2102 2102 2230 2164 2299 2299 2164 2537 2230 2725 2164 0 1936 0 1887 1989 1936 1936 1839 1887 1989 1989 2102 2102 1887 1989 2044 2230 1936 1711 1471 1711 1533 1752 1839 1839 1887 1839 1711 1672 1672 1635 1599 1443 1415 1388 1415 1415 1362 1388 1388 1388 1415 1415 1443 1388 1388 1533 1338 1338 1314 1268 1226 1226 1226 1247 1226 1226 1226 1247 1268 1338 1338 1247 1268 1291 1291 1314 1314 1291 1291 1291 1362 1338 1338 1291 1247 1149 1149 1149 1149 1149 1115 1168 1187 1206 1226 1226 1082 1168 1098 1187 1168 1187 1226 1247 1291 1338 1362 1415 1443 1565 1599 1565 1711 1711 1752 1752 1533 1415 1388 1362 1338 1338 1338 1314 1314 1314 1291 1291 1291 1291 1291 1291 1338 1338 0 0 0 0 0
    0 0 0 0 0 0 0 0 0 0 0 0 0 0 0 0 0 0 0 0 0 0 0 0 0 0 0 0 0 0 0 0 0 0 0 0 0 0 0 0 0 0 0 0 0 0 0 0 0 0 0 0 0 0 0 0 0 0 0 0 0 0 0 0 0 0 0 0 0 0 0 2725 2943 2943 2943 0 2725 2725 2628 2537 2628 2628 2374 2374 2374 2374 2374 2453 0 2374 2453 2725 2628 2725 3066 3199 3345 3345 3345 3504 3504 3504 3504 3066 3066 2830 2943 2943 0 0 3199 0 0 0 2943 0 0 104 104 0 2628 2628 2453 2453 2830 2628 2628 2725 2453 2628 2725 2164 2374 2725 2725 2628 0 2374 2164 2102 2299 2164 2164 2230 2164 2230 2102 2299 2299 2374 2628 2537 2537 2537 2537 2830 2725 2725 2537 2230 2453 2164 2299 2164 2230 2164 2164 2164 2044 2164 2299 2164 2102 2102 2044 2102 2164 2164 2102 2102 2102 2164 2164 2230 2230 2164 2453 2044 2830 2164 0 1989 1839 1887 1989 1989 1989 1887 1936 1989 1989 2102 2102 1887 1989 2044 2299 1989 1711 1533 1839 1795 1887 1887 1839 1936 1887 1795 1752 1672 1635 1599 1471 1443 1415 1443 1443 1362 1415 1415 1415 1415 1415 1443 1388 1388 1533 1338 1362 1314 1314 1247 1247 1268 1268 1247 1247 1247 1268 1268 1314 1291 1247 1268 1291 1291 1314 1291 1291 1291 1291 1314 1291 1291 1291 1247 1149 1149 1149 1149 1149 1098 1168 1168 1187 1206 1206 1066 1168 1098 1187 1168 1187 1226 1247 1291 1338 1362 1443 1443 1565 1599 1599 1711 1672 1711 1752 1599 1501 1443 1388 1362 1362 1338 1314 1314 1314 1291 1291 1291 1314 1314 1314 1388 1388 0 0 0 0 0
    0 0 0 0 0 0 0 0 0 0 0 0 0 0 0 0 0 0 0 0 0 0 0 0 0 0 0 0 0 0 0 0 0 0 0 0 0 0 0 0 0 0 0 0 0 0 0 0 0 0 0 0 0 0 0 0 0 0 0 0 0 0 0 0 0 0 0 0 0 0 0 0 2943 0 2943 2943 2830 2725 2628 2537 2628 2537 2453 2374 2374 2374 2374 0 0 2453 2537 2725 2725 2725 3066 3066 3066 3066 3066 3199 3199 3504 3679 3066 3199 3066 3066 3066 3066 3345 3199 2943 0 0 3066 2537 0 104 0 0 2628 2537 2453 2453 2830 2537 2628 2725 2230 2628 2830 2102 2230 0 0 0 0 2628 2299 2299 2453 2299 2230 2299 2230 2230 2102 2299 2299 2453 2628 2628 2537 2628 2628 2830 2830 2830 2537 2230 2453 2102 2230 2164 2164 2102 2102 2164 1989 2164 2299 2230 2164 2164 2044 2102 2164 2230 2102 2102 2102 2164 2164 2299 2230 2164 2453 2164 2830 2164 0 2044 1887 1936 2044 1989 1989 1887 1936 1989 1989 2102 2102 1936 2044 2164 2453 2453 1752 1711 2044 2044 2164 2102 1887 2044 1989 1839 1795 1711 1672 1635 1565 1501 1443 1471 1443 1388 1443 1415 1415 1415 1443 1443 1388 1388 1533 1338 1388 1338 1338 1268 1291 1291 1291 1268 1268 1268 1268 1268 1291 1268 1226 1247 1268 1268 1291 1291 1291 1291 1291 1338 1314 1291 1291 1247 1168 1149 1168 1132 1132 1082 1168 1149 1168 1206 1187 1066 1168 1115 1206 1168 1206 1247 1247 1291 1338 1362 1443 1471 1565 1599 1599 1711 1672 1711 1752 1635 1565 1501 1443 1388 1362 1362 1314 1314 1338 1291 1291 1291 1314 1314 1362 1443 1443 0 0 0 0 0
    0 0 0 0 0 0 0 0 0 0 0 0 0 0 0 0 0 0 0 0 0 0 0 0 0 0 0 0 0 0 0 0 0 0 0 0 0 0 0 0 0 0 0 0 0 0 0 0 0 0 0 0 0 0 0 0 0 0 0 0 0 0 0 0 0 0 0 0 0 0 0 0 3066 0 2943 2943 2830 2830 2628 2537 2628 2537 2453 2374 2374 2299 2374 2537 0 2453 2628 2830 2830 2830 3066 3199 2943 2943 3199 3199 3345 3504 3679 3066 3199 3066 3066 3066 3066 0 3066 2830 0 3504 3199 2628 0 104 0 0 0 2537 2374 2453 2830 2453 2537 2628 2164 2537 2725 2164 2102 0 0 0 0 0 2374 2299 2628 2453 2299 2299 2230 2230 2164 2299 2299 2453 2628 2628 2628 2628 2725 0 2943 2943 2537 2230 2453 2102 2230 2164 2102 2102 2102 2102 1989 2102 2299 2230 2164 2230 2044 2164 2164 2230 2102 2102 2102 2230 2164 2374 2164 2164 2453 2164 2725 2164 2164 2102 1936 1989 2044 2044 2044 1887 1989 1989 1989 2164 2102 1936 2044 2164 2537 2628 0 0 2374 2453 2537 2453 1936 2102 1989 1887 1839 1752 1711 1635 1599 1533 1471 1471 1471 1388 1443 1415 1415 1415 1443 1415 1388 1388 1501 1314 1388 1338 1338 1314 1291 1291 1291 1291 1268 1268 1268 1268 1268 1247 1226 1247 1268 1268 1291 1291 1268 1268 1291 1291 1291 1291 1291 1226 1132 1149 1149 1132 1115 1082 1149 1149 1149 1187 1187 1066 1187 1115 1206 1187 1226 1247 1247 1291 1338 1362 1443 1471 1565 1599 1565 1672 1672 1711 1711 1635 1599 1533 1443 1415 1362 1362 1338 1338 1338 1314 1291 1314 1338 1338 1362 1471 1471 0 0 0 0 0
    0 0 0 0 0 0 0 0 0 0 0 0 0 0 0 0 0 0 0 0 0 0 0 0 0 0 0 0 0 0 0 0 0 0 0 0 0 0 0 0 0 0 0 0 0 0 0 0 0 0 0 0 0 0 0 0 0 0 0 0 0 0 0 0 0 0 0 0 0 549 0 0 3199 3199 2943 3066 2943 2830 2725 2628 2725 2453 2453 2374 2374 2374 2374 2537 2628 2537 2830 2943 3066 3066 3199 3345 3066 3066 3345 3679 3679 3873 3873 3199 3199 3199 3199 2943 2943 2830 2943 2830 3679 3504 3199 0 0 0 0 0 0 2537 2374 2374 2725 2374 2453 2537 2374 2725 2943 2537 2628 0 0 2943 0 0 2628 2453 2628 2628 2299 2374 2164 2230 2164 2299 2299 2537 2725 2725 2725 2830 0 0 0 3066 2628 2299 2453 2102 2230 2164 2164 2164 2102 2164 1989 2102 2299 2230 2164 2299 2102 2230 2230 2374 2164 2164 2164 2230 2230 2537 2230 2230 2453 2102 2628 2102 2230 2102 1989 2044 2102 2102 2102 1936 2044 2044 2044 2230 2102 1936 2102 2164 2537 2537 0 0 2299 2453 2537 2374 1936 2102 1989 1887 1795 1752 1711 1672 1635 1533 1501 1471 1471 1388 1443 1415 1415 1388 1415 1388 1362 1362 0 1291 1362 1338 1362 1338 1314 1314 1314 1291 1291 1268 1291 1291 1291 1268 1247 1268 1268 1268 1314 1314 1268 1291 1291 1291 1291 1291 1291 1226 1115 1132 1132 1115 1098 1082 1132 1132 1168 1187 1226 1082 1206 1132 1226 1206 1226 1247 1247 1291 1338 1362 1443 1471 1533 1565 1565 1672 1635 1711 1711 1635 1635 1565 1471 1443 1388 1362 1338 1338 1362 1338 1338 1338 1362 1362 1388 1533 1501 0 0 0 0 0
    0 0 0 0 0 0 0 0 0 0 0 0 0 0 0 0 0 0 0 0 0 0 0 0 0 0 0 0 0 0 0 0 0 0 0 0 0 0 0 0 0 0 0 0 0 0 0 0 0 0 0 0 0 0 0 0 0 0 0 0 0 0 0 0 0 0 0 0 0 0 511 0 3199 3199 2943 2943 2943 2725 2725 2628 2725 2453 2537 2374 2374 2374 2453 2628 2725 2628 2943 3066 3345 3199 3345 3679 3199 3199 3504 4329 4088 4088 4088 3199 3199 3199 3199 2943 2830 2830 2830 2830 3679 3504 3199 0 2943 0 0 0 0 2537 2374 2374 2725 2374 2453 2537 2299 2628 2725 2628 0 0 3199 3199 3345 0 0 2628 2725 2725 2453 2453 2230 2299 2230 2374 2299 2628 2830 2725 2725 2830 130 0 0 3199 2628 2374 2537 2164 2299 2299 2164 2164 2164 2164 1989 2164 2299 2230 2164 2299 2102 2230 2230 2374 2164 2230 2164 2230 2164 2453 2164 2164 2299 2044 2453 2102 2230 2164 2044 2164 2164 2164 2230 2044 2164 2102 2102 2374 2102 1989 2164 2164 2453 2102 1795 1839 2299 2537 2628 2299 1887 2044 1989 1839 1795 1752 1752 1672 1672 1565 1533 1501 1501 1388 1443 1415 1415 1388 1415 1362 1362 1362 0 1291 1338 1338 1338 1314 1314 1314 1314 1314 1291 1291 1291 1291 1291 1268 1247 1268 1268 1268 1291 1314 1291 1291 1291 1314 1291 1291 1291 1226 1115 1132 0 1115 1115 1098 1149 1149 1187 1206 1247 1082 1226 1149 1226 1206 1226 1247 1247 1291 1338 1362 1443 1443 1501 1565 1533 1635 1635 1672 1672 1635 1672 1599 1533 1471 1415 1388 1362 1362 1388 1362 1362 1362 1388 1388 1415 1533 1533 0 0 0 0 0
    0 0 0 0 0 0 0 0 0 0 0 0 0 0 0 0 0 0 0 0 0 0 0 0 0 0 0 0 0 0 0 0 0 0 0 0 0 0 0 0 0 0 0 0 0 0 0 0 0 0 0 0 0 0 0 0 0 0 0 0 0 0 0 0 0 0 0 0 0 0 504 0 3345 3199 2943 2830 2830 2628 2628 2537 2628 2374 2537 2374 2374 2374 2453 0 0 0 3199 3199 3345 3199 3345 3873 3199 3199 3504 4599 4329 3873 3873 3199 3199 3199 3199 2943 2830 2830 2830 2725 3504 3504 3199 0 2830 2943 0 0 0 2537 2453 2374 2830 2453 2453 2453 2164 2374 2374 2374 2725 0 3199 3199 3345 0 0 2725 2830 2725 2453 2453 2102 2230 2230 2299 2299 2628 2725 2830 2725 0 130 0 0 3199 2725 2453 2537 2230 2374 2299 2230 2164 2164 2102 2044 2164 2299 2230 2230 2230 2164 2230 2230 2374 2164 2230 2102 2164 2164 2453 2102 2102 2230 1989 2374 2044 2230 2230 2044 2230 2230 2230 2299 2102 2299 2164 2164 2453 2102 2044 2164 2102 2374 1989 1839 1989 2537 2628 2725 2230 1936 2044 1936 1839 1795 1752 1752 1711 1672 1565 1565 1533 1533 1415 1471 1415 1415 1388 1415 1362 1362 1362 0 1291 1338 1338 1338 1314 1314 1314 1314 1291 1291 1291 1291 1291 1291 1268 1247 1247 1247 1247 1268 1268 1268 1268 1268 1291 1268 1268 1268 1206 1098 1115 0 1098 0 1066 1115 1115 1132 1168 1206 1082 1226 1168 1226 1206 1247 1247 1247 1291 1338 1362 1443 1443 1501 1533 1533 1599 1635 1672 1672 1635 1672 1599 1533 1471 1415 1388 1362 1362 1388 1388 1362 1388 1415 1415 1443 1565 1565 0 0 0 0 0
    0 0 0 0 0 0 0 0 0 0 0 0 0 0 0 0 0 0 0 0 0 0 0 0 0 0 0 0 0 0 0 0 0 0 0 0 0 0 0 0 0 0 0 0 0 0 0 0 0 0 0 0 0 0 0 0 0 0 0 0 0 0 0 0 0 0 0 0 0 0 504 0 3345 0 2943 2830 2830 2537 2537 2537 2628 2299 2537 2374 2374 2374 2453 0 0 0 3199 3199 3345 3199 3345 3873 3199 3199 3504 4329 4329 3873 3873 3066 3199 3199 3199 3066 2943 2830 2943 2830 3679 3504 3199 0 2830 0 0 0 0 2628 2453 2374 2830 2453 2453 2453 2102 2230 2230 2230 2537 2830 3066 3199 3345 3066 2725 2725 2830 2830 2628 2453 2164 2299 2299 2299 2230 2628 2830 2830 2725 0 130 0 0 3199 2725 2453 2453 2230 2299 2299 2230 2164 2164 2102 2044 2164 2230 2299 2230 2230 2164 2230 2299 2374 2164 2230 2102 2102 2164 2374 2044 1989 2044 1936 2299 2044 2230 2230 2044 2164 2164 2164 2299 2044 2299 2044 2102 2374 2044 1989 2102 2164 2453 1989 2102 2164 2628 2725 2725 2164 1989 2044 1989 1887 1839 1795 1795 1752 1711 1599 1599 1565 1533 1415 1471 1415 1415 1388 1443 1362 1362 1362 0 0 1362 1338 1362 1338 1314 1314 1314 1314 1291 1291 1314 1291 1291 1268 1226 1247 1247 1247 1247 1268 1247 1247 1247 1268 1268 1268 1268 1226 1115 1132 0 1066 0 1036 1082 1082 1098 1132 1206 1082 1247 1187 1247 1226 1247 1268 1268 1291 1338 1362 1415 1443 1533 1533 1533 1599 1635 1672 1635 1635 1711 1599 1533 1443 1388 1362 1338 1362 1388 1388 1388 1415 1443 1443 1471 1599 1599 0 0 0 0 0
    0 0 0 0 0 0 0 0 0 0 0 0 0 0 0 0 0 0 0 0 0 0 0 0 0 0 0 0 0 0 0 0 0 0 0 0 0 0 0 0 0 0 0 0 0 0 0 0 0 0 0 0 0 0 0 0 0 0 0 0 0 0 0 0 0 0 0 0 0 0 504 0 3504 0 2830 2725 2725 2453 2453 2453 2453 2230 2537 2374 2374 2374 2537 0 0 0 3345 3199 3504 3199 3345 3873 3199 3199 3345 4088 4088 3873 3873 3066 3199 3199 3199 3199 2943 2943 2943 2830 3873 3504 3345 0 2943 0 0 0 0 2537 2374 2374 2830 2537 2537 2453 2164 2299 2230 2230 2628 2830 2943 3066 3199 2830 2628 2830 2830 2725 2725 2374 2230 2299 2374 2374 2164 2628 2725 2725 2725 0 130 0 0 3199 2725 2453 2299 2230 2299 2299 2164 2164 2164 2102 2044 2230 2230 2299 2230 2230 2164 2230 2299 2374 2230 2299 2164 2164 2299 2453 2102 2044 2044 1936 2299 2044 2299 2230 2102 2164 2164 2230 2299 2102 2374 2044 2102 2453 2102 2102 2102 2299 2537 2299 2453 2453 2628 2725 2725 2044 1989 2044 2044 1936 1887 1839 1839 1795 1795 1635 1599 1565 1533 1443 1471 1415 1443 1388 1443 1362 1362 1362 0 0 1362 1338 1362 1338 1338 1338 1314 1314 1314 1314 1314 1291 1291 1268 1226 1247 1247 1247 1247 1268 1247 1247 1268 1291 1268 1268 1291 1247 1187 1187 1187 1132 1132 1066 1115 1098 0 1168 1226 1098 1247 1226 1268 1247 1268 1291 1291 1291 1362 1362 1443 1443 1533 1533 1565 1599 1635 1672 1672 1672 1752 1672 1599 1415 1388 1362 1338 1362 1388 1388 1388 1415 1443 1471 1501 1599 1599 0 0 0 0 0
    0 0 0 0 0 0 0 0 0 0 0 0 0 0 0 0 0 0 0 0 0 0 0 0 0 0 0 0 0 0 0 0 0 0 0 0 0 0 0 0 0 0 0 0 0 0 0 0 0 0 0 0 0 0 0 0 0 0 0 0 0 0 0 0 0 0 0 0 0 0 507 3504 3504 0 2830 2628 2628 2299 2374 2374 2374 2164 2628 2453 2453 2374 2628 0 0 0 3345 3199 3504 3345 3504 3873 3066 3066 3199 4088 4088 3679 3679 2943 3199 3199 3199 3199 2943 2830 2943 2830 3873 3504 3199 0 2830 0 0 0 0 2537 2374 2374 2830 2453 2453 2374 2164 2230 2164 2299 2725 0 0 0 3066 2453 2537 2725 2725 2725 2628 2299 2230 2299 2453 2374 2164 2537 2725 2725 2725 2830 0 0 2830 3066 2628 2374 2164 2164 2299 2299 2164 2164 2164 2102 2102 2230 2230 2230 2230 2230 2230 2230 2299 2374 2299 2299 2164 2164 2374 2453 2102 2164 2164 1989 2299 2044 2299 2230 2102 2230 2230 2230 2299 2102 2374 2044 2164 2537 2102 2102 2164 2374 2628 2374 2537 2537 2628 2725 2830 1936 2044 2044 2044 1989 1887 1887 1887 1795 1795 1635 1599 1565 1533 1443 1471 1415 1443 1388 1443 1362 1362 1362 1415 1314 1362 1338 1362 1362 1338 1338 1338 1314 1314 1314 1314 1291 1268 1247 1226 1247 1247 1247 1247 1268 1247 1268 1268 1291 1268 1268 1268 1247 1206 1226 1226 1187 1168 1115 1168 1168 1187 1226 1268 1115 1268 1247 1291 1268 1291 1314 1314 1314 1388 1415 1471 1471 1565 1565 1565 1599 1635 1672 1635 1672 1752 1672 1635 1415 1388 1338 1314 1362 1388 1388 1415 1415 1443 1443 1471 1565 1565 0 0 0 0 0
    0 0 0 0 0 0 0 0 0 0 0 0 0 0 0 0 0 0 0 0 0 0 0 0 0 0 0 0 0 0 0 0 0 0 0 0 0 0 0 0 0 0 0 0 0 0 0 0 0 0 0 0 0 0 0 0 0 0 0 0 0 0 0 0 0 0 0 0 0 0 0 3679 3504 0 2830 2725 2725 2299 2453 2374 2374 2230 2628 2453 2453 2453 2725 0 2830 2830 3199 3199 3504 3345 3504 4088 2943 2943 2943 3679 3679 3199 3345 2725 2943 3066 3066 2943 2830 2725 2830 2725 3504 3345 3199 0 2830 0 0 2725 0 2537 2453 2374 2830 2453 2453 2374 2164 2230 2164 2453 2830 0 0 0 0 2628 2628 2830 2725 2725 2628 2230 2230 2374 2453 2374 2102 2453 2628 2628 2725 2830 2830 2830 2725 2943 2628 2299 2102 2164 2299 2230 2164 2164 2164 2102 2102 2230 2230 2230 2230 2164 2230 2230 2299 2299 2299 2299 2164 2164 2453 2453 2102 2230 2230 1989 2299 2044 2299 2164 2102 2230 2230 2230 2299 2164 2374 2102 2230 2537 2102 2102 2164 2374 2374 1887 1989 2230 2453 2537 2537 1887 2044 1989 2044 1936 1887 1839 1839 1795 1795 1635 1599 1565 1501 1443 1443 1415 1415 1388 1443 1362 1362 1362 1415 1314 1362 1338 1362 1338 1338 1338 1314 1314 1314 1338 1338 1314 1291 1268 1226 1247 1268 1247 1247 1268 1247 1247 1268 1291 1268 1268 1268 1247 1226 1268 1268 1226 1206 1149 1187 1187 1206 1247 1291 1115 1268 1268 1291 1291 1314 1338 1314 1314 1443 1443 1471 1501 1565 1565 1565 1599 1672 1672 1599 1672 1752 1711 1635 1415 1443 1388 1362 1388 1443 1415 1443 1443 1471 1443 1443 1501 1471 0 0 0 0 0
    0 0 0 0 0 0 0 0 0 0 0 0 0 0 0 0 0 0 0 0 0 0 0 0 0 0 0 0 0 0 0 0 0 0 0 0 0 0 0 0 0 0 0 0 0 0 0 0 0 0 0 0 0 0 0 0 0 0 0 0 0 0 0 0 0 0 0 0 0 0 3679 3873 3504 0 2943 2830 2725 2374 2453 2453 2453 2299 2628 2453 2453 2453 2725 0 2830 2830 3199 3199 3679 3504 3679 5256 3345 4329 3199 4329 4088 2943 3066 2537 2830 2830 2830 2830 2628 2537 2725 2628 3199 3199 3066 2725 2830 2830 0 2830 2830 2628 2537 2453 2830 2537 2537 2453 2299 2299 2299 2537 2830 2830 2830 3066 3066 2537 2725 2830 2725 2725 2537 2230 2299 2453 2453 2299 2102 2374 2537 2537 2628 2725 2725 2628 2628 2943 2628 2164 2044 2164 2374 2230 2164 2164 2164 2102 2164 2230 2230 2230 2230 2164 2230 2230 2299 2299 2299 2299 2164 2164 2374 2299 2044 2164 2164 1936 2299 2044 2299 2164 2164 2230 2230 2230 2299 2164 2374 2102 2299 2453 2102 2102 2230 2374 2102 1887 1887 2044 2164 2299 2044 1795 1989 1936 1989 1936 1839 1839 1795 1752 1795 1599 1599 1565 1501 1443 1443 1415 1415 1388 1443 1362 1362 1362 1415 1338 1362 1338 1362 1338 1338 1338 1314 1314 1338 1338 1338 1314 1291 1268 1226 1247 1268 1247 1247 1247 1226 1247 1247 1268 1247 1226 1247 1226 1206 1247 1247 1206 1206 1168 0 1187 0 0 1314 1115 1291 1291 1291 1291 1314 1338 1338 1338 1471 1471 1471 1501 1599 1599 1599 1635 1672 1672 1635 1711 1752 1565 1565 1415 1471 0 1388 1415 1471 1471 1501 1501 1501 1471 1471 1533 1471 0 0 0 0 0
    0 0 0 0 0 0 0 0 0 0 0 0 0 0 0 0 0 0 0 0 0 0 0 0 0 0 0 0 0 0 0 0 0 0 0 0 0 0 0 0 0 0 0 0 0 0 0 0 0 0 0 0 0 0 0 0 0 0 0 0 0 0 0 0 0 0 0 0 0 3504 3873 3873 3504 0 0 0 0 2374 2453 2374 2453 2299 2628 2537 2537 2537 2830 2830 2830 2830 3199 3345 3679 3679 4088 5256 3873 5256 3066 3679 3679 2943 2943 2628 2725 2830 2725 2830 2537 2537 2628 2628 3066 3066 2943 2725 2830 2943 0 0 2830 2725 2628 2537 2830 2537 2537 2537 2453 2374 2453 2830 3066 3199 3199 3345 3066 2725 2830 2830 2830 2830 2537 2230 2299 2453 2453 2299 2044 2374 2453 2537 2628 2628 2628 2537 2537 2943 2537 2102 2102 2230 2374 2230 2164 2164 2230 2102 2164 2230 2164 2230 2164 2164 2230 2230 2230 2230 2299 2299 2164 2230 2374 2164 1989 2102 2102 1936 2299 2044 2299 2164 2164 2230 2230 2164 2299 2164 2374 2102 2299 2374 2044 2102 2164 2230 1887 1839 1795 1936 1989 2102 1936 1795 1989 1887 1936 1936 1839 1839 0 1752 1795 1599 1599 1565 1501 1443 1443 1415 1415 1388 1443 1362 1362 1362 1415 1338 1362 1338 1338 1338 1338 1362 1338 1314 1338 1362 1362 1338 1314 1291 1247 1247 1268 1247 1226 1226 1226 1226 1247 1268 1247 1226 1247 1247 1247 1268 1268 0 0 0 0 1226 0 0 1314 1098 1268 1291 1291 1291 1314 1338 1338 1338 1501 1471 1471 1501 1599 1635 1599 1635 1672 1672 1635 1711 1711 1443 1501 1388 1443 1415 1415 1443 1501 1501 1565 1533 1565 1501 1501 1533 1443 0 0 0 0 0
    0 0 0 0 0 0 0 0 0 0 0 0 0 0 0 0 0 0 0 0 0 0 0 0 0 0 0 0 0 0 0 0 0 0 0 0 0 0 0 0 0 0 0 0 0 0 0 0 0 0 0 0 0 0 0 0 0 0 0 0 0 0 0 0 0 0 0 0 0 3504 3504 3679 3345 0 2830 2725 2628 2299 2453 2299 2374 2374 2628 2537 2537 2537 2830 2943 2830 2830 3199 3199 3504 3504 3873 4329 3679 4329 2943 3345 3199 2943 2943 2628 2725 2725 0 2830 2537 2537 2628 2628 3066 2943 2943 2725 2830 2943 0 0 2830 2725 2725 2628 2830 2537 2537 2628 2453 2299 2374 0 3199 3199 3345 3345 3199 2628 2725 2830 2725 2830 2374 2230 2374 2374 2453 2299 2044 2374 2453 2537 2537 2537 2537 2453 2537 2943 2628 2102 2102 2299 2374 2230 2164 2164 2230 2102 2230 2230 2164 2230 2164 2164 2230 2164 2230 2230 2299 2230 2102 2230 2299 2044 1989 2102 2164 1936 2230 2044 2299 2164 2164 2230 2230 2164 2299 2164 2374 2044 2299 2164 1989 2044 2102 2102 1887 1839 1795 1936 1989 2164 1936 1887 1989 0 1989 1936 1887 1839 1839 1795 1795 1635 1635 1599 1501 1443 1443 1415 1415 1388 1443 1362 1362 1362 1415 1338 1362 1338 1338 1314 1314 1338 1314 1314 1338 1388 1362 1314 1314 1268 1226 1226 1247 1226 1206 1226 1226 1226 1247 1247 1247 1247 1247 1247 1268 1314 0 0 0 0 0 1268 0 0 1291 1098 1268 1291 1291 1247 1268 1314 1314 1338 1501 1443 1443 1501 1635 1635 1635 1635 1672 1635 1599 1711 1711 1443 1501 1388 1415 1415 1443 1471 1501 1501 1533 1501 1565 1533 1471 1443 1388 0 0 0 0 0
    0 0 0 0 0 0 0 0 0 0 0 0 0 0 0 0 0 0 0 0 0 0 0 0 0 0 0 0 0 0 0 0 0 0 0 0 0 0 0 0 0 0 0 0 0 0 0 0 0 0 0 0 0 0 0 0 0 0 0 0 0 0 0 0 0 0 0 0 0 3504 3504 3504 3199 2830 2830 2725 2628 2374 2453 2374 2453 2453 2725 2628 2725 2628 2943 3066 2830 2943 2943 3066 3199 3199 3504 3504 3504 3679 2943 3066 3066 2830 2830 2537 2725 2725 2628 2725 2537 2453 2628 2628 2943 2943 2830 2725 2830 2943 0 0 2943 2830 2830 2830 2943 2628 2628 2725 2537 2299 0 0 3199 3199 3199 3345 3066 2725 2628 2628 2628 2628 2299 2299 2374 2374 2374 2299 2044 2299 2374 2453 2537 2374 2374 2374 2453 2943 2537 1989 2102 2374 2374 2230 2102 2164 2164 2102 2230 2164 2164 2164 2164 2164 2164 2164 2230 2164 2299 2164 2102 2230 2230 1936 1936 2102 2164 1936 2230 2044 2299 2102 2230 2230 2230 2164 2230 2164 2374 2044 2299 2044 1936 1989 2044 1989 1839 1839 1795 1887 1989 2164 1936 1887 2044 0 1989 1989 1887 1887 1839 1839 1795 1635 1635 1599 1501 1443 1443 1415 1415 1388 1471 1388 1388 1388 1443 1362 1388 1362 1362 1291 1314 0 0 0 0 1415 1388 1314 1291 1247 1206 1206 1247 1226 1226 1226 1206 1226 1247 1247 1247 1226 1247 1247 1268 1314 1314 0 1291 1247 0 1268 0 0 1268 1098 1268 1268 1268 1247 1268 1314 1314 1338 1501 1443 1443 1501 1635 1635 1635 1672 1672 1635 1599 1752 1711 1533 1565 1415 1415 0 0 1443 1501 1501 1501 1471 1533 1501 1443 1388 1362 0 0 0 0 0
    0 0 0 0 0 0 0 0 0 0 0 0 0 0 0 0 0 0 0 0 0 0 0 0 0 0 0 0 0 0 0 0 0 0 0 0 0 0 0 0 0 0 0 0 0 0 0 0 0 0 0 0 0 0 0 0 0 0 0 0 0 0 0 0 0 0 0 0 0 3345 3199 3345 2943 2725 2725 2725 2628 2374 2453 2374 2453 2628 2830 2725 2725 2725 3066 0 2830 2943 2943 2943 3199 3199 3504 3199 3345 3345 2943 3066 3066 2830 2830 2537 2725 2628 2537 2628 2453 2453 2537 2725 2943 2943 2830 2943 2943 3199 0 0 0 0 2943 2943 2943 2830 2725 0 0 0 0 0 0 0 0 0 3199 2830 2537 2453 2537 2537 2230 2299 2374 2299 2299 2299 2102 2230 2299 2453 2453 2230 2299 2299 2374 2830 2453 1989 2102 2374 2374 2230 2102 2164 2164 2102 2230 2164 2164 2164 2102 2164 2164 2164 2164 2164 2299 2102 2102 2299 2230 1989 1989 2164 2230 1936 2230 2044 2299 2102 2230 2230 2230 2164 2230 2164 2299 2044 2374 1989 1887 1936 1989 1989 1839 1795 1752 1839 1887 2044 1887 1936 2044 1936 2044 1989 1936 1887 1887 1887 1839 1635 1672 1599 1533 1443 1443 1415 1415 1388 1471 1388 1362 1362 1443 1362 1362 1338 1314 1268 1268 0 0 0 0 0 0 0 0 1226 1187 1206 1247 1226 1226 1226 1226 1226 1247 1268 1268 1247 1247 1247 1268 1291 1291 0 1291 1268 1291 1268 0 0 1268 1115 1247 1268 1268 1247 1268 1291 1314 1338 1501 1443 1443 1501 1635 1672 1635 1672 1635 1599 1599 1711 1711 1565 1599 1443 0 0 0 1471 1533 1501 1501 1443 1471 1443 1388 1314 1338 0 0 0 0 0
    0 0 0 0 0 0 0 0 0 0 0 0 0 0 0 0 0 0 0 0 0 0 0 0 0 0 0 0 0 0 0 0 0 0 0 0 0 0 0 0 0 0 0 0 0 0 0 0 0 0 0 0 0 0 0 0 0 0 0 0 0 0 0 0 0 0 0 0 0 3066 2943 3066 2628 2628 2725 2628 2628 2453 2453 2374 2453 2628 2830 2725 2830 2725 3066 109 2830 3066 2943 2943 3199 3345 3679 3199 3504 3504 3066 3066 3066 2830 2725 2537 2628 2628 2453 2537 2299 2374 2453 2628 2943 2943 2943 2943 3066 3199 0 0 0 0 3199 0 3066 3066 3199 9199 0 0 0 0 0 0 0 0 3199 2830 2537 2453 2537 2453 2230 2299 2374 2299 2299 2299 2044 2230 2299 2453 2374 2230 2299 2299 2374 2943 2537 2044 2230 2374 2374 2230 2164 2230 2164 2102 2230 2102 2102 2102 2102 2164 2102 2164 2164 2230 2299 2164 2164 2374 2230 1989 1989 2230 2230 1936 2164 2044 2299 2102 2299 2299 2230 2164 2299 2164 2374 2102 2453 1989 1887 1936 1989 1989 1839 1795 1711 1795 1795 1936 1839 1936 2044 1936 2044 1989 1936 1936 1887 1887 1839 1635 1672 1635 1533 1443 1443 1415 1415 1388 1443 1362 1362 1362 1415 1338 1338 1291 1268 1247 1247 0 0 0 0 0 0 0 0 1226 1206 1206 1247 1226 1226 1226 1226 1247 1247 1268 1268 1247 1247 1226 1226 1247 1247 1268 1268 1247 1268 1268 0 0 1268 1098 1247 1247 1247 1226 1268 1268 1291 1291 1471 1415 1388 1471 1635 1635 1635 1635 1635 1599 1565 1711 1752 1565 1599 0 0 0 0 0 1565 1533 1471 1415 1415 1388 1338 1291 1314 0 0 0 0 0
    0 0 0 0 0 0 0 0 0 0 0 0 0 0 0 0 0 0 0 0 0 0 0 0 0 0 0 0 0 0 0 0 0 0 0 0 0 0 0 0 0 0 0 0 0 0 0 0 0 0 0 0 0 0 0 0 0 0 0 0 0 0 0 0 0 0 0 0 0 3066 2943 3066 2628 2628 2725 2628 2628 2537 2453 2374 2374 2725 2725 2725 2830 2725 2943 109 2830 3066 3066 2943 3199 3345 3679 3199 3679 3679 3199 3066 3066 2830 2725 2537 2628 2537 2453 2453 2299 2299 2374 2537 2830 2943 2830 3066 3066 3345 3345 0 0 3199 3345 3873 3199 3199 3504 5661 0 0 0 0 0 0 2725 0 3066 2830 2537 2453 2537 2374 2230 2299 2374 2299 2299 2299 2044 2230 2299 2453 2374 2299 2374 2374 2453 2943 2628 2230 2299 2453 2374 2230 2164 2230 2102 2102 2230 2102 2102 2102 2044 2102 2102 2164 2102 2230 2230 2102 2164 2374 2164 1989 1936 2102 2164 1887 2102 1989 2230 2102 2230 2230 2164 2164 2299 2164 2374 2102 2453 1989 1936 1989 1989 1936 1839 1752 1711 1795 1795 1887 1839 1936 1989 1936 1989 1989 1936 1936 1887 1936 1839 1635 1672 1635 1565 1443 1443 1415 1415 1388 1443 1362 1362 1362 1415 1314 1314 1268 1247 1206 1226 1206 1226 1206 0 0 0 0 1268 1206 1206 1206 1247 1226 1226 1226 1226 1247 1247 1268 1268 1247 1268 1247 1226 1247 1247 1268 1268 1247 0 1247 0 0 1226 1066 1206 1226 1226 1206 1247 1247 1268 1291 1415 1362 1362 1443 1599 1635 1599 1599 1599 1565 1501 1711 1752 1471 0 0 0 0 0 0 1565 1471 1415 1362 1362 1314 1291 1268 1268 0 0 0 0 0
    0 0 0 0 0 0 0 0 0 0 0 0 0 0 0 0 0 0 0 0 0 0 0 0 0 0 0 0 0 0 0 0 0 0 0 0 0 0 0 0 0 0 0 0 0 0 0 0 0 0 0 0 0 0 0 0 0 0 0 0 0 0 0 0 0 0 0 0 0 3199 3066 3066 2628 2725 2725 2537 2537 2537 2453 2453 2374 2725 2725 2725 2830 2725 2830 109 2725 3066 2943 2943 0 3345 3504 3199 3504 3504 3199 3199 3199 2943 2830 2628 2725 2628 2453 2453 2299 2374 2374 2537 2830 2943 2830 3066 3199 3345 3345 0 3345 3345 3504 4329 3199 3199 3504 6690 0 0 0 0 0 0 2537 0 2943 2943 2537 2537 2537 2299 2230 2374 2374 2299 2230 2299 2044 2230 2299 2453 2374 2374 2453 2537 2537 3066 2830 2453 2453 2453 2453 2230 2102 2164 2102 2102 2164 2044 2044 2044 2044 2102 2044 2102 2044 2164 2164 2102 2102 2374 2044 1936 1839 2044 2044 1887 2102 1989 2230 2044 2230 2230 2164 2102 2230 2164 2299 2044 2374 1989 1936 1989 1989 1989 1887 1839 1795 1839 1839 1936 1839 1989 1989 1936 1989 1989 1936 1887 1887 1989 1795 1635 1672 1635 1565 1415 1471 1415 1415 1388 1415 1362 1362 1362 1415 1291 1291 1268 1247 1206 1226 1206 1226 1247 1226 0 0 0 1268 1187 1187 1187 1226 1226 1226 1247 1226 1247 1268 1268 1291 1268 1268 1247 1206 1247 1206 1206 1226 1187 0 0 0 0 1168 1051 1187 1226 1206 1187 1226 1247 1247 1268 1362 1338 1338 1415 1599 1599 1533 1501 1501 1471 1388 1501 1471 1338 1471 0 0 0 0 0 0 1501 1415 1362 1362 1291 1291 1226 0 0 0 0 0 0
    0 0 0 0 0 0 0 0 0 0 0 0 0 0 0 0 0 0 0 0 0 0 0 0 0 0 0 0 0 0 0 0 0 0 0 0 0 0 0 0 0 0 0 0 0 0 0 0 0 0 0 0 0 0 0 0 0 0 0 0 0 0 0 0 0 0 0 0 0 3199 3199 3199 2537 2628 2628 2537 2537 2537 2374 2374 2299 2725 2725 2628 2725 2725 0 109 2725 3066 2943 2830 3066 3199 3504 3199 3504 3504 3199 3199 3199 3066 0 0 0 2628 2537 2537 2299 2374 2374 2537 2830 2830 2830 3066 3199 3504 3345 0 0 3345 3504 4599 3199 3199 3199 0 0 0 0 0 0 0 2230 2628 2830 2830 2537 2453 2537 2230 2230 2374 2374 2230 2164 2299 2044 2230 2299 2453 2374 2453 2537 2628 2628 3199 2943 2628 2537 2453 2453 2230 2164 2164 2102 2164 2164 2044 2044 1989 1989 2102 2044 2102 0 0 2164 2102 2164 2453 1989 1936 1839 2102 2102 1936 2044 1989 2164 2044 2102 2164 2102 2102 2164 2102 2230 2044 2299 2044 1936 2044 2044 2044 1989 1887 1839 1887 1887 1936 1752 1989 1989 1936 1989 1936 1936 1887 1887 2044 1795 1635 1672 1672 1599 1415 1471 1415 1388 1388 1415 1362 1362 1362 1415 1291 1338 1291 1268 1226 1247 1226 1247 1247 1226 1226 0 0 1247 1168 1168 1187 1226 1226 1226 1247 1247 1247 1268 1291 1291 1268 1268 1247 1206 1226 1168 1187 1187 1168 0 0 0 0 0 1051 1187 1206 1206 1187 1226 1226 1247 1247 1338 1314 1291 1388 1599 1533 1443 1415 1415 1388 1338 1362 1338 1362 1443 1471 1471 0 0 0 1711 1672 1443 1362 1362 1338 1291 1226 0 0 0 0 0 0
    0 0 0 0 0 0 0 0 0 0 0 0 0 0 0 0 0 0 0 0 0 0 0 0 0 0 0 0 0 0 0 0 0 0 0 0 0 0 0 0 0 0 0 0 0 0 0 0 0 0 0 0 0 0 0 0 0 0 0 0 0 0 0 0 0 0 0 0 0 3066 3066 3066 2374 2628 2537 2374 2453 2537 2374 2374 2230 2725 2628 2628 2725 2628 0 109 2725 3066 2943 2725 0 3066 3199 0 0 3199 3066 3066 0 0 0 0 0 2628 2537 2537 2299 2374 2374 2628 2943 2943 2943 3199 3199 3504 3345 0 0 3345 3504 4599 3199 3199 3504 0 0 0 0 0 0 0 1989 2102 2725 2725 2374 2374 2453 2164 2230 2374 2299 2230 2164 2230 2044 2164 2299 2453 2374 2453 2537 2628 2628 3199 3066 2725 2537 2537 2453 2299 2164 2164 2102 2164 2164 2044 2044 1989 1989 2044 2044 2102 0 0 0 0 2164 2374 2044 1936 1887 2102 2102 1936 2044 1989 2102 1989 2044 2102 2044 2044 2102 2044 2164 2044 2230 2044 1936 1936 1887 1989 1936 1839 1839 1887 1887 1936 1711 2044 1989 1989 1989 1936 1936 1936 1936 2164 1795 1599 1672 1672 1599 1415 1471 1415 1388 1388 1415 1362 1362 1362 1415 1291 1314 1291 1268 1226 1247 1226 1247 1226 1226 1226 0 0 0 1168 1187 1206 1247 1247 1247 1247 1247 1268 1268 1291 1291 1268 1268 1247 1206 1226 1187 1206 1187 1168 0 0 0 0 0 1051 1168 1206 1206 1187 1226 1226 1247 1247 1338 1291 1291 1388 1533 1471 1415 1362 1415 1388 1338 1388 1362 1415 1415 1443 1443 1443 0 1672 1635 1711 1443 1338 1314 0 1268 1226 0 0 0 0 0 0
    0 0 0 0 0 0 0 0 0 0 0 0 0 0 0 0 0 0 0 0 0 0 0 0 0 0 0 0 0 0 0 0 0 0 0 0 0 0 0 0 0 0 0 0 0 0 0 0 0 0 0 0 0 0 0 0 0 0 0 0 0 0 0 0 0 0 0 0 0 2943 2943 2943 2299 2537 2537 2374 2453 2453 2299 2374 2230 2725 2628 2628 2725 2628 0 0 2628 3066 2943 2628 0 0 0 0 0 0 0 0 0 0 0 0 0 2725 2537 2628 2374 2453 2374 2725 2943 2943 2943 3199 3345 3504 3345 0 0 3345 3345 4329 3199 3199 4088 0 0 0 0 0 0 0 1936 2044 2628 2628 2374 2374 2299 2164 2299 2374 2299 2164 2102 2230 2044 2230 2230 2374 2374 2453 2628 2628 2725 3199 2943 2830 2628 2537 2537 2374 2164 2164 2102 2230 2164 1989 1989 1936 1936 1989 1989 2044 0 0 0 0 2102 2230 1936 1887 1839 1989 1989 1887 2044 1936 1989 1936 1989 2044 1989 1989 2044 1989 2044 1989 2164 2044 1887 1887 1795 1989 1936 1839 1887 1936 2044 1936 1711 2044 1989 1989 1989 1936 1936 1936 1936 2164 1795 1599 1672 1672 1599 1415 1471 1415 1415 1388 1415 1362 1362 1362 1443 1291 1314 1268 1247 1206 1226 1187 1206 1206 1206 1206 0 0 1226 1149 1168 1206 1247 1247 1247 1268 1247 1268 1291 1291 1291 1268 1268 1247 1206 1226 1168 1187 1187 1149 1187 0 1206 0 0 0 1187 1226 1206 1206 1226 1247 1247 1268 1338 1291 1291 1388 1471 1415 1388 1362 1443 1415 1362 1415 1388 1443 1443 1443 1471 1415 1415 1599 1501 1672 1362 1338 1338 1362 1291 0 0 0 0 0 0 0
    0 0 0 0 0 0 0 0 0 0 0 0 0 0 0 0 0 0 0 0 0 0 0 0 0 0 0 0 0 0 0 0 0 0 0 0 0 0 0 0 0 0 0 0 0 0 0 0 0 0 0 0 0 0 0 0 0 0 0 0 0 0 0 0 0 0 0 0 0 2943 2943 2943 2299 2537 2537 2299 2374 2453 2299 2374 2164 2628 2537 2537 2628 2537 0 0 2628 2943 2830 2453 2725 0 2830 2830 0 0 2725 2725 0 0 0 0 2628 2628 2537 2628 2374 2453 2453 2725 2830 2943 2943 3199 3345 3504 3504 0 0 3504 3504 4599 3199 3345 5661 0 0 0 0 0 0 0 1936 2102 2537 2628 2374 2374 2299 2164 2299 2374 2299 2164 2102 2164 1989 2230 2230 2374 2453 2537 2628 2628 2725 3066 2943 2943 2628 2628 2537 2453 2230 2230 2164 2230 2102 1936 1887 1887 1887 1936 1887 1936 0 0 0 0 0 2102 1936 1887 1795 1936 1887 1839 1989 1936 1936 1887 1936 1989 1936 1989 1989 1936 1989 1989 2102 2102 1936 1887 1795 1989 1936 0 1936 2044 2230 1887 1711 2044 1989 1936 1936 1936 1936 1936 1936 2102 1795 1599 1672 1672 1599 1388 1443 1415 1388 1388 1415 1362 1362 1362 1443 1291 1338 1291 1268 1206 1226 1187 1206 1206 1206 1206 0 0 0 1149 1168 1206 1247 1247 1268 1268 1247 1268 1291 1291 1291 1268 1291 1247 1226 1226 1168 1187 1168 1132 1149 0 1168 0 0 1051 1187 1226 1206 1206 1247 1247 1247 1268 1338 1291 1291 1388 1471 1415 1415 1388 1443 1443 1388 1415 1388 1443 1443 1443 1471 1388 1362 1533 1415 1672 1362 1415 1471 1672 0 0 0 0 0 0 0 0
    0 0 0 0 0 0 0 0 0 0 0 0 0 0 0 0 0 0 0 0 0 0 0 0 0 0 0 0 0 0 0 0 0 0 0 0 0 0 0 0 0 0 0 0 0 0 0 0 0 0 0 0 0 0 0 0 0 0 0 0 0 0 0 0 0 0 0 0 0 2943 2943 2943 2374 2628 2453 2299 2374 2453 2299 2374 2164 2628 2374 2453 2537 2453 2453 2537 2537 2830 2628 2299 2537 2628 2628 2628 2628 2725 2537 2628 0 0 0 0 2628 2628 2537 2628 2374 2453 2453 2725 2830 2943 2943 3199 3345 3504 3504 3873 3345 3504 3504 4599 3199 3345 4599 0 0 0 0 0 0 2230 2044 2230 2537 2628 2537 2453 2230 2164 2374 2374 2230 2164 2044 2102 1989 2230 2164 2230 2374 2453 2537 2628 2725 3066 2943 3199 2725 2628 2628 2537 2299 2230 2164 2374 1989 1887 1795 1795 1839 1887 1839 1936 0 2102 2102 0 0 2164 1989 1887 1887 1936 1887 1839 2044 1936 1887 1839 1887 1936 1936 1936 1989 1887 1936 1989 2044 2164 1989 1936 1839 2044 1989 1989 2044 2164 2374 1887 1839 1989 1989 1936 1936 1936 1936 1887 1936 2044 1795 1599 1672 1672 1565 1388 1443 1415 1388 1388 1415 1362 1362 1362 1415 1291 1314 1268 1247 1187 1206 1187 1187 1187 1226 1226 1226 1247 1247 1149 1187 1187 1247 1247 1247 1247 1247 1268 1268 1291 1291 1268 1268 1247 1187 0 0 0 0 0 0 0 1187 0 0 1066 1187 1226 1206 1226 1247 1247 1247 1247 1314 1291 1291 1362 1471 1388 1415 1388 1443 1443 1388 1415 1388 1415 1415 1415 1443 1362 1362 1599 1471 1711 1672 1795 1752 1839 0 0 0 0 0 0 0 0
    0 0 0 0 0 0 0 0 0 0 0 0 0 0 0 0 0 0 0 0 0 0 0 0 0 0 0 0 0 0 0 0 0 0 0 0 0 0 0 0 0 0 0 0 0 0 0 0 0 0 0 0 0 0 0 0 0 0 0 0 0 0 0 0 0 0 0 0 0 3066 3066 3066 2453 2628 2453 2374 2374 2453 2230 2299 2164 2537 2374 2453 2453 2374 2374 2537 2453 2725 2453 2164 2374 2537 2537 2537 2453 2537 2453 2628 2725 2830 0 0 2537 2628 2537 2628 2374 2453 2453 2628 2830 2830 2830 3066 3345 3504 3345 3679 3345 3345 3504 4088 3066 3066 3345 0 0 0 0 0 0 2374 2164 2374 2537 2628 2628 2628 2102 2164 2374 2299 2164 2102 1989 2044 1936 2230 2102 2230 2374 2453 2537 2725 2725 3066 2943 3345 2830 0 0 2725 2453 2453 2628 2943 0 0 0 1443 1533 1635 1599 0 0 0 0 0 0 0 0 1936 1887 2044 1936 1839 2044 1936 1839 1839 1839 1887 1887 1936 1936 1839 1887 1989 2044 2230 2044 1989 1936 1989 2044 2044 2044 2164 2230 1887 1839 1989 1936 1936 1936 1887 1887 1887 1887 1989 1795 1599 1672 1635 1565 1388 1415 1388 1388 1388 1415 1362 1338 1362 1415 1268 1314 1291 1247 1206 1206 1187 1168 1187 1226 1226 1206 1226 1226 1149 1187 1187 1247 1226 1247 1268 1247 1268 1268 1268 1291 1268 1268 1247 0 0 0 0 0 0 0 0 1168 0 0 1066 1187 1226 1206 1226 1247 1247 1247 1247 1314 1291 1291 1362 1471 1415 1443 1388 1471 1443 1388 1415 1388 1443 1415 1415 1443 1362 1362 1599 1471 1752 1795 1887 1795 1989 1936 2725 0 0 0 0 0 0
    0 0 0 0 0 0 0 0 0 0 0 0 0 0 0 0 0 0 0 0 0 0 0 0 0 0 0 0 0 0 0 0 0 0 0 0 0 0 0 0 0 0 0 0 0 0 0 0 0 0 0 0 0 0 0 0 0 0 0 0 0 0 0 0 0 0 0 0 0 3199 3199 3066 2453 2725 2453 2374 2374 2453 2230 2299 2164 2537 2374 2453 2453 2299 2453 2537 2453 2628 2299 2044 2230 2374 2374 2374 2299 2453 2374 2537 2725 2725 2628 0 2537 2537 2537 2537 2299 2374 2374 2537 2725 2725 2725 2943 3199 3345 3199 3504 3199 3345 3345 3873 2943 2943 0 0 0 0 0 0 0 0 2374 2537 2628 2725 2628 2537 2102 2230 2374 2299 2164 2102 1989 1989 1936 2164 2044 2164 2299 2374 2537 2628 2628 3066 2943 3504 2830 0 0 2830 2453 2453 2725 0 0 0 0 0 0 0 0 0 0 0 529 533 533 525 0 0 1989 2102 1936 1839 2102 1887 1839 1839 1795 1887 1887 1887 1936 1795 1795 1989 1989 2374 2102 1989 1936 1936 2044 2044 2044 2299 2230 1887 1887 1936 1936 1887 1936 1887 1887 1887 1887 1936 1795 1565 1672 1635 1533 1388 1415 1415 1388 1388 1415 1362 1338 1338 1388 1268 1291 1268 1247 1206 1206 1187 1187 1187 1206 1226 1206 1226 1226 1168 1206 1206 1247 1247 1247 1268 1247 1268 1268 1268 1291 1268 1268 1247 0 0 0 0 0 0 0 0 0 1314 1247 1098 1206 1247 1226 1226 1268 1268 1247 1268 1338 1314 1314 1388 1471 1415 1443 1388 1471 1443 1388 1415 1388 1443 1443 1415 1443 1362 1362 1599 1415 1752 0 1936 1887 2453 2164 2725 0 0 0 0 0 0
    0 0 0 0 0 0 0 0 0 0 0 0 0 0 0 0 0 0 0 0 0 0 0 0 0 0 0 0 0 0 0 0 0 0 0 0 0 0 0 0 0 0 0 0 0 0 0 0 0 0 0 0 0 0 0 0 0 0 0 0 0 0 0 0 0 0 0 0 0 3199 3199 3199 2537 2725 2453 2453 2453 2453 2299 2374 2230 2537 2299 2453 2374 2299 2453 2537 2374 2628 2164 1989 2102 2164 2230 2230 2102 2230 2164 2453 2537 2628 2537 2453 2453 2537 2453 2537 2230 2374 2374 2453 2628 2628 2628 2830 0 3199 3066 3199 3199 3199 3199 3679 2830 2725 0 0 0 0 0 0 0 2453 2453 2628 2628 2725 2628 2453 2164 2299 2374 2299 2102 2102 1989 1989 1936 2164 2044 2164 2299 2374 2453 2628 2628 2943 2943 3504 2830 0 0 3066 2725 2537 0 0 0 0 0 0 0 0 0 0 0 0 525 525 525 521 518 0 0 2628 2102 1635 2230 1936 1752 1795 1752 1839 1839 1887 1936 1795 1752 2044 2044 2374 2102 1989 1936 1936 2102 2102 2102 2374 2299 1887 1887 1936 1936 1887 1887 1887 1887 1887 1887 1839 1752 1565 1672 1635 1501 1362 1415 1415 1388 1388 1415 1362 1338 1338 1388 1268 1291 1247 1247 1226 1226 1168 1187 1149 1168 1187 1187 1187 1168 1132 1206 1206 1247 1226 1226 1247 1247 1247 1247 1247 1268 1247 1247 1206 1082 0 0 0 0 0 0 0 0 1501 1565 1247 1268 1291 1268 1247 1291 1291 1268 1268 1338 1314 1338 1415 1443 1415 1443 1415 1471 1443 1388 1415 1388 1443 1443 1415 1443 1362 1362 1565 1388 1752 0 1989 0 0 2299 0 0 0 0 0 0 0
    0 0 0 0 0 0 0 0 0 0 0 0 0 0 0 0 0 0 0 0 0 0 0 0 0 0 0 0 0 0 0 0 0 0 0 0 0 0 0 0 0 0 0 0 0 0 0 0 0 0 0 0 0 0 0 0 0 0 0 0 0 0 0 0 0 0 0 0 0 3066 3066 3066 2628 2830 2453 2453 2453 2453 2299 2374 2299 2537 2299 2453 2374 2374 2453 2453 2374 2537 2230 1989 2102 2164 2164 2164 2102 2230 2164 2299 2453 2537 2453 2299 2374 2453 2453 2453 2164 2374 2374 2374 2628 2628 2537 2725 2943 3066 3066 3066 3066 3066 3066 3504 2830 2725 0 0 0 1268 0 0 0 2374 2374 2628 2628 2830 2725 2299 2164 2299 2374 2299 2102 2102 1989 1989 1936 2102 1989 2164 2230 2299 2374 2537 2537 2943 2943 3345 2830 0 3345 3345 3066 0 0 0 0 0 0 0 0 0 0 0 0 0 521 0 514 514 0 0 0 0 0 0 2374 1936 1635 1752 1752 1795 1839 1839 1887 1752 1711 2102 2044 2299 2044 1936 1989 1887 2044 2164 2102 2299 2230 1839 1887 1936 1936 1887 1887 1887 1887 1887 1936 1839 1795 1565 1672 1635 1501 1362 1415 1415 1388 1388 1415 1362 1338 1338 1362 1247 1268 1226 1226 1206 1168 1115 1132 1082 1098 1132 1115 1115 1098 1115 1206 1187 1226 1206 1206 1226 1226 1226 1226 1226 1226 1226 1226 1168 1036 0 0 0 0 0 0 0 0 1711 1752 1291 1338 1338 1314 1314 1338 1338 1314 1314 1388 1362 1388 1415 1443 1415 1415 1415 1443 1443 1388 1443 1415 1471 1443 1443 1443 1362 1362 1565 1338 1711 0 1936 0 0 0 0 0 0 0 0 0 0
    0 0 0 0 0 0 0 0 0 0 0 0 0 0 0 0 0 0 0 0 0 0 0 0 0 0 0 0 0 0 0 0 0 0 0 0 0 0 0 0 0 0 0 0 0 0 0 0 0 0 0 0 0 0 0 0 0 0 0 0 0 0 0 0 0 0 0 0 0 2943 3066 3066 2628 2830 2537 2537 2537 2453 2374 2374 2299 2537 2374 2453 2374 2374 2537 2453 2374 2537 2299 2044 2102 2164 2102 2164 2102 2230 2164 2299 2374 2453 2374 2230 2299 2453 2374 2374 2164 2374 2299 2299 2628 2628 2453 2725 2830 3066 2943 3066 3066 3199 3199 3504 2943 2943 0 0 0 1268 1362 0 0 2537 2453 2725 2725 2830 2830 2164 2164 2374 2299 2299 2102 2102 1989 1989 1936 2102 1989 2164 2164 2299 2374 2537 2537 2830 2830 3199 2830 3066 3345 3199 3066 0 0 0 0 0 0 0 0 0 0 0 0 0 0 0 0 500 0 0 0 0 0 981 2453 1936 1672 1752 1752 0 1839 1839 1887 1752 1672 1989 1936 2044 1887 1839 1887 1839 1989 2102 2102 2230 2102 1839 1936 1936 1936 1887 1936 1936 1936 1887 2044 1887 1839 1599 1672 1635 1471 1362 1415 1415 1415 1388 1415 1338 1338 1314 1338 1247 1226 1115 1115 1115 1115 1051 1051 1022 1022 1066 1082 1066 1066 1082 1187 1149 1206 1149 1149 1206 1187 1187 1187 1168 1206 1187 1206 1115 955 0 0 0 0 0 0 0 1795 1839 1839 1388 1471 1443 1388 1362 1362 1388 1362 1362 1415 1388 1415 1443 1443 1443 1443 1415 1471 1443 1415 1443 1415 1443 1443 1415 1388 1338 1338 1415 1268 1565 1711 1839 1795 0 0 0 0 0 0 0 0 0
    0 0 0 0 0 0 0 0 0 0 0 0 0 0 0 0 0 0 0 0 0 0 0 0 0 0 0 0 0 0 0 0 0 0 0 0 0 0 0 0 0 0 0 0 0 0 0 0 0 0 0 0 0 0 0 0 0 0 0 0 0 0 0 0 0 0 0 0 0 2943 3066 3066 2725 2943 2537 2537 2537 2537 2453 2374 2299 2537 2374 2537 2453 2453 2628 2537 2374 2537 2299 2044 2044 2164 2102 2102 2102 2164 2164 2230 2230 2374 2230 2102 2230 2299 2299 2299 2164 2374 2299 2230 2628 2537 2453 2628 2830 2943 2943 2943 3066 3199 3199 3679 2943 2943 0 0 0 0 0 0 0 2725 2628 2830 2830 2943 2725 2164 2164 2374 2230 2230 2102 2102 1989 1989 1989 2102 1989 2164 2164 2230 2374 2537 2537 2830 2830 3345 2943 3345 3679 3345 3345 0 0 0 0 0 0 0 0 0 0 0 514 0 514 0 0 0 347 0 0 0 943 981 2453 1936 1752 1795 1795 1795 1839 1839 1887 1752 1672 1887 1887 1936 1887 1839 1887 1839 1989 2102 2044 2102 2044 1839 1936 1936 1989 1887 1936 1936 1936 1936 2102 1839 1839 1565 1672 1599 1471 1388 1415 1415 1388 1388 1388 1338 1314 1291 1291 1187 1168 1066 1066 1066 1066 1022 1008 994 968 1022 1036 1036 1036 1036 1132 1115 1149 1115 1098 1168 1168 1149 1132 1115 1168 1132 1132 1051 919 845 0 0 0 0 0 0 1936 1936 1839 1635 1711 1599 1471 1415 1415 1415 1362 1362 1415 1415 1415 1415 1443 1415 1443 1415 1471 1443 1388 1415 1388 1415 1388 1362 1362 1291 1314 1314 1247 0 0 0 0 0 0 0 0 0 0 0 0 0
    0 0 0 0 0 0 0 0 0 0 0 0 0 0 0 0 0 0 0 0 0 0 0 0 0 0 0 0 0 0 0 0 0 0 0 0 0 0 0 0 0 0 0 0 0 0 0 0 0 0 0 0 0 0 0 0 0 0 0 0 0 0 0 0 0 0 0 0 0 2943 3199 3199 2830 2943 2537 2628 2537 2537 2537 2453 2374 2537 2453 2628 2537 2537 2628 2537 2453 2537 2374 2102 2102 2230 2164 2102 2044 2102 2102 2102 2102 2299 2102 1989 2102 2230 2230 2230 2102 2299 2230 2164 2537 2537 2374 2537 2725 2830 2830 2830 3066 3199 3199 3679 2943 2943 0 0 0 0 0 0 0 2628 2725 2830 2830 2830 2537 2164 2230 2374 2230 2230 2102 2102 1989 1989 1936 2102 1989 2164 2164 2230 2299 2537 2537 2830 2830 3345 2943 3679 4088 3679 0 0 0 0 0 0 0 0 0 0 518 514 511 0 0 0 0 0 0 0 0 0 943 968 2537 1936 1839 1839 1839 1839 1887 1887 1936 1752 1711 1989 1989 1989 1936 1887 1936 1839 1989 2102 2044 2044 1936 1752 1936 1936 1936 1887 1936 1936 1936 1936 2102 1839 1795 1471 1599 1533 1388 1338 1388 1362 1362 1362 1338 1291 1247 1187 1206 1115 1098 1036 1036 1036 1051 1008 994 968 919 955 1008 1008 1022 1036 1115 1098 1115 1098 1051 1098 1115 1082 1066 1066 1066 1051 1036 0 943 876 0 0 0 0 0 2230 1936 1936 1839 1711 1795 1635 1533 1471 1443 1443 1388 1362 1415 1415 1388 1415 1415 1388 1388 1388 1415 1388 1362 1388 1362 1362 1338 1314 1314 1291 1291 1291 1226 0 0 0 0 0 0 0 0 0 0 0 0 0
    0 0 0 0 0 0 0 0 0 0 0 0 0 0 0 0 0 0 0 0 0 0 0 0 0 0 0 0 0 0 0 0 0 0 0 0 0 0 0 0 0 0 0 0 0 0 0 0 0 0 0 0 0 0 0 0 0 0 0 0 0 0 0 0 0 0 0 0 0 2943 3199 3199 3066 3066 2628 2725 2628 2628 2628 2537 2374 2537 2537 2628 2537 2628 2725 2537 2453 2537 2374 2102 2102 2164 2164 2044 1989 1989 2044 1989 1936 2102 1936 1887 2044 2164 2164 2164 2044 2299 2230 2102 2537 2453 2299 2453 2628 2725 2725 2725 2943 3066 3066 3504 2830 2943 2725 0 0 0 1388 0 1711 2453 2628 0 2830 2943 2453 2230 2299 2374 2164 2164 2102 2102 1989 2044 1936 2044 1989 2164 2102 2230 2299 2537 2537 2830 2830 3504 2943 5256 4599 4906 0 0 0 1132 1098 0 0 0 0 0 0 0 507 0 0 0 0 0 0 0 5661 0 0 0 2725 1989 1887 1887 1887 1887 1936 1936 1989 1795 1752 1989 1989 2044 2044 1936 1989 1887 1989 2102 2044 2044 1936 1672 1936 1936 1936 1887 1936 1936 1936 1936 2102 1795 1599 1362 1501 1443 1338 1291 1338 1338 1314 1314 1291 1206 1082 1066 1115 1082 1066 1008 1022 1022 1036 994 981 968 931 955 1008 994 1008 1036 1098 1082 1082 1066 1008 1051 1051 1036 1022 1022 1008 1008 1008 994 955 897 0 0 0 0 0 1989 1936 1936 1839 1795 1839 1711 1599 1501 1443 1443 1388 1338 1388 1388 1362 1362 1388 1362 1388 1388 1443 1388 1338 1362 1338 1362 1338 1314 1314 1291 1291 1291 1247 1338 0 1501 0 0 0 0 0 0 0 0 0 0
    0 0 0 0 0 0 0 0 0 0 0 0 0 0 0 0 0 0 0 0 0 0 0 0 0 0 0 0 0 0 0 0 0 0 0 0 0 0 0 0 0 0 0 0 0 0 0 0 0 0 0 0 0 0 0 0 0 0 0 0 0 0 0 0 0 0 0 0 0 3066 3504 3345 3199 3199 2830 2830 2725 2830 2725 2628 2453 2628 2537 2725 2628 2725 2830 2628 2537 2725 2453 2230 2102 2164 2102 1989 1936 1936 1936 1887 1839 1989 1887 1839 2044 2164 2164 2102 2102 2299 2230 2102 2537 2453 2164 2374 2453 2628 2537 2628 2830 2830 2830 3066 2830 2830 2628 0 0 0 1388 1501 1635 2102 2453 0 2830 2830 2230 2164 2299 2374 2164 2164 2102 2102 1936 2044 1936 1989 1989 2164 2102 2164 2299 2537 2537 0 2725 3504 0 0 5661 0 0 0 0 0 0 0 0 0 0 0 0 0 511 0 0 0 0 0 0 0 5256 0 0 0 0 1989 1936 1936 1936 1936 1989 1989 2102 1795 1795 1989 1989 2044 2102 1989 2044 1936 2044 2164 2102 2102 1936 1635 1936 1887 1936 1887 1936 1936 1887 1887 1989 1752 1362 1314 1362 1338 1268 1226 1314 1291 1247 1247 1187 1082 1036 1022 1051 1051 1036 1008 1022 1022 1036 994 981 955 919 931 1008 994 1008 1022 1082 1066 1051 1036 981 1022 1036 1008 981 1008 994 1008 1008 1008 981 981 0 1362 1388 0 1533 1752 1887 1936 1839 1887 1887 1839 1711 1565 1443 1443 1362 1291 1338 1338 1314 1291 1314 1314 1314 1291 1362 1314 1314 1338 1314 1338 1314 1291 1291 1268 1268 1268 1226 1226 1206 1291 0 0 0 0 0 0 0 0 0 0
    0 0 0 0 0 0 0 0 0 0 0 0 0 0 0 0 0 0 0 0 0 0 0 0 0 0 0 0 0 0 0 0 0 0 0 0 0 0 0 0 0 0 0 0 0 0 0 0 0 0 0 0 0 0 0 0 0 0 0 0 0 0 0 0 0 0 0 0 0 2830 3504 3345 3345 3345 3066 3066 2830 2943 2830 2725 2628 2725 2628 2725 2725 2830 2830 2628 2628 2725 2537 2453 2164 2230 2164 1936 1887 1887 1936 1839 1752 1936 1839 1839 1989 2164 2164 2102 2102 2299 2164 2102 2537 2453 2164 2230 2374 2453 2453 2453 2725 2628 2628 2830 2725 2830 2628 0 0 0 1501 0 1752 2230 2453 0 2725 2725 2102 2164 2299 2299 2102 2164 2102 2044 1989 2044 1936 1989 1989 2164 2102 2164 2299 2453 2453 0 2725 3873 0 0 0 0 0 0 0 0 0 0 0 0 0 0 0 0 507 0 0 0 0 0 0 0 0 0 0 0 0 2044 2044 2044 2044 1989 2044 2044 2164 1887 1839 1989 1989 1989 2102 1936 1989 1936 2102 2453 2299 2230 1989 1711 1887 1887 1887 1839 1887 1887 1887 1795 1887 1711 1291 1226 1291 1291 1226 1149 1168 1187 1115 1098 1082 1022 1008 981 1008 1022 1022 1008 1022 1022 1036 981 981 955 919 908 968 968 968 1008 1066 1066 1051 1036 955 1022 1022 1008 994 1008 994 1008 1008 1036 994 0 0 1362 1388 1415 1471 1752 1936 1936 1887 1936 1989 1839 1752 1565 1415 1388 1338 1226 1247 1268 1247 1226 1247 1268 1268 1247 1314 1291 1268 1291 1314 1314 1291 1268 1291 1268 1268 1268 1247 1247 1247 1291 1415 0 0 0 0 0 0 0 0 0
    0 0 0 0 0 0 0 0 0 0 0 0 0 0 0 0 0 0 0 0 0 0 0 0 0 0 0 0 0 0 0 0 0 0 0 0 0 0 0 0 0 0 0 0 0 0 0 0 0 0 0 0 0 0 0 0 0 0 0 0 0 0 0 0 0 0 0 0 0 2830 3504 3345 3679 3504 3345 3199 2943 3199 0 2943 2725 2830 2725 2830 2725 2830 2830 2628 2628 2725 2537 2537 2230 2299 2230 1989 1887 1936 1936 1795 1752 1887 1839 1839 1989 2164 2164 2164 2164 2374 2230 2164 2628 2453 2102 2164 2230 2374 2453 2453 2725 2628 2725 2943 2943 3066 2725 2537 0 0 1711 1752 1795 2230 2299 2537 2628 2453 2102 2164 2299 2230 2102 2164 2102 2044 1989 2044 1936 1989 1989 2164 2044 2164 2299 2453 2453 2830 2725 5256 0 0 0 0 0 0 0 0 0 0 0 0 0 0 0 0 0 0 0 0 0 0 0 0 0 0 0 0 0 2102 2102 2102 2102 2044 2102 2102 2164 1887 1887 1989 1887 1936 2044 1839 1887 1887 2164 2725 2374 2299 1989 1711 1887 1887 1839 1795 1839 1839 1839 1711 1752 1471 1247 1149 1187 1226 1149 1082 1066 1066 1022 1008 1008 994 981 968 981 994 1008 994 1008 994 1022 955 968 955 943 886 855 865 845 876 968 808 766 0 897 1022 1022 1008 994 1008 994 1008 1008 1036 981 994 0 0 0 0 0 0 1936 1936 1936 1936 1936 1839 1711 1501 1362 1338 1314 1187 1149 1226 1206 1187 1187 1226 1226 1206 1268 1268 1247 1247 1268 1268 1268 1247 1247 1247 1247 1247 1268 1268 1268 1314 1635 2044 1989 2044 0 0 0 0 0 0
    0 0 0 0 0 0 0 0 0 0 0 0 0 0 0 0 0 0 0 0 0 0 0 0 0 0 0 0 0 0 0 0 0 0 0 0 0 0 0 0 0 0 0 0 0 0 0 0 0 0 0 0 0 0 0 0 0 0 0 0 0 0 0 0 0 0 0 0 0 2537 3504 3345 3504 3345 3345 3199 2943 3199 3199 3066 2830 2943 2943 2943 2830 3066 2830 2628 2628 2725 2628 2628 2453 2537 2453 2044 1936 1936 1989 1839 1711 1887 1795 1795 1989 2164 2164 2164 2164 2374 2230 2164 2725 2537 2164 2102 2230 2299 2453 2537 2725 2725 2830 3066 3066 3199 2830 2628 2453 0 0 1887 1887 2230 2299 2628 2830 2374 2102 2230 2299 2230 2102 2164 2102 2044 1989 2044 1887 1989 1989 2102 2044 2102 2299 2453 2453 2830 2628 0 0 0 0 0 0 0 0 0 0 0 0 0 0 0 0 0 0 0 0 0 0 0 0 0 0 0 0 0 2943 2164 2102 2230 2164 2044 2102 2102 2164 1936 1936 1936 1795 1795 1887 1711 1672 1752 0 2537 2044 1887 1887 1565 1839 1839 1795 1711 1711 1752 1795 1635 1599 1362 1226 1132 1149 1187 1115 1066 1036 1022 994 981 981 981 968 968 968 968 994 994 994 994 994 908 931 919 919 876 826 836 799 836 0 750 687 0 0 1036 1022 1008 994 1008 994 1022 1008 1082 0 0 0 1443 1388 1362 0 0 0 1839 1711 1533 0 1635 1599 1388 1291 1268 1268 1149 1098 1149 1149 1132 1132 1149 1168 1149 1206 1226 1226 1206 1247 1247 1247 1226 1247 1226 1226 1226 1268 1291 1268 1314 1599 2044 1936 1839 1752 0 0 0 0 0
    0 0 0 0 0 0 0 0 0 0 0 0 0 0 0 0 0 0 0 0 0 0 0 0 0 0 0 0 0 0 0 0 0 0 0 0 0 0 0 0 0 0 0 0 0 0 0 0 0 0 0 0 0 0 0 0 0 0 0 0 0 0 0 0 0 0 0 0 0 2230 3504 3345 3066 3066 3199 3066 2830 3199 3199 3066 2830 2943 2943 2943 2830 3066 2943 2725 2725 2830 2628 2725 2453 2628 2537 2102 1989 1989 1989 1839 1752 1887 1795 1795 1989 2164 2164 2164 2164 2374 2164 2164 2725 2453 2230 2044 2102 2299 2453 2537 2725 2725 2830 3066 3066 3345 2943 2725 0 0 0 2299 2044 2453 2453 2830 2830 2299 2164 2299 2299 2230 2102 2164 2102 2044 1989 2044 1887 1989 1989 2102 1989 2102 2299 2537 2453 2830 2628 0 0 0 0 0 0 0 0 0 0 0 0 0 0 0 0 0 0 0 0 0 0 766 0 0 0 0 0 0 2943 2230 2164 2299 2230 2102 2164 2164 2164 1936 1989 2044 1839 1795 1839 1635 1388 1672 1752 2230 1936 1839 1887 1599 1795 1795 1711 1599 1533 1565 1599 1443 1362 1291 1187 1082 1082 1115 1082 1036 1022 994 981 968 968 968 968 968 955 968 1008 994 1008 994 981 897 876 886 931 865 799 766 714 0 0 0 0 0 0 1036 1036 1008 994 1008 994 1008 0 1082 0 0 0 0 0 1415 0 0 0 1839 1711 1388 0 1501 1388 1314 1132 1132 1149 1082 1051 1082 1098 1098 1098 1115 1115 1115 1149 1187 1187 1149 1206 1226 1226 1206 1226 1206 1206 1206 1247 1268 1247 1268 1443 0 1936 1672 1443 0 0 0 0 0
    0 0 0 0 0 0 0 0 0 0 0 0 0 0 0 0 0 0 0 0 0 0 0 0 0 0 0 0 0 0 0 0 0 0 0 0 0 0 0 0 0 0 0 0 0 0 0 0 0 0 0 0 0 0 0 0 0 0 0 0 0 0 0 0 0 0 0 0 0 2230 3345 3199 3066 2725 2943 2943 2628 3066 3066 2943 2830 2943 2943 2943 2830 3066 2830 2537 2537 2628 2537 2628 2453 2628 2537 2164 2044 2044 2044 1839 1752 1887 1795 1795 1989 2164 2164 2164 2164 2299 2164 2164 2725 2453 2164 2044 2164 2230 2453 2453 2628 2725 2830 3066 3199 3345 3066 2943 3504 3066 3066 2725 2453 2628 2628 2830 2830 2299 2230 2374 2299 2230 2102 2164 2102 2044 2044 2044 1887 1989 2044 2044 1989 2102 2374 2537 2453 0 0 0 0 0 0 0 0 0 0 0 0 0 0 0 0 0 0 0 0 0 0 0 0 0 0 0 0 0 0 0 2943 2230 2164 2299 2230 2164 2230 2164 2230 1989 2044 2164 1887 1839 1839 1565 1291 1565 0 2628 1887 0 0 1565 1711 1795 1711 1565 1443 1443 1501 1388 1314 1268 1168 1082 1082 1098 1066 1036 1022 994 981 968 981 981 981 981 981 981 1022 1022 1022 1022 1008 968 943 981 0 0 1752 1795 1795 1795 1795 1672 1795 0 1132 1066 1022 994 994 1008 981 1008 0 0 0 0 0 0 0 0 1206 0 0 0 0 0 0 0 1338 1314 1098 1098 1082 1051 1022 1051 1066 1066 1066 1082 1098 1098 1149 1187 1168 1132 1168 1206 1187 1168 1187 1187 1168 1187 1226 1226 1206 1247 0 0 0 1471 1291 0 0 0 0 0
    0 0 0 0 0 0 0 0 0 0 0 0 0 0 0 0 0 0 0 0 0 0 0 0 0 0 0 0 0 0 0 0 0 0 0 0 0 0 0 0 0 0 0 0 0 0 0 0 0 0 0 0 0 0 0 0 0 0 0 0 0 0 0 0 0 0 0 0 0 2230 2943 2943 2725 2453 2725 2725 2537 2830 2943 2830 2725 2830 2830 2725 2725 2943 2725 2453 2453 2453 2453 2537 2453 2537 2453 2230 2044 2044 2164 1936 1795 1989 1887 1839 2102 2230 2230 2230 2164 2299 2230 2164 2725 2453 2164 2044 2164 2299 2453 2453 2628 2725 2830 3066 3199 3199 2943 2943 3066 2943 2628 2537 2453 2628 2628 2725 2628 2299 2230 2453 2299 2230 2164 2164 2102 2102 2044 2044 1887 2044 2044 2044 2044 2102 0 2453 2453 0 0 0 0 0 1989 0 0 0 0 0 0 0 0 0 0 0 0 0 0 0 0 0 0 0 0 0 0 0 0 0 2943 2102 2044 2230 2230 2102 2164 2164 2230 1989 2044 2230 1887 1887 1887 1565 1268 0 0 0 1936 0 0 1565 1635 1752 1672 1501 1362 1362 1388 1362 1268 1247 1168 1082 1066 1082 1051 1022 1008 981 981 968 981 981 981 994 994 994 1051 1066 1066 1051 1022 981 968 1008 1599 1795 1839 1887 1887 1839 1936 1839 1887 0 0 1066 1022 994 1008 994 981 994 994 0 0 0 0 0 0 0 0 0 0 0 0 0 0 1066 0 1226 1066 1066 1066 1036 1022 1036 1051 1051 1051 1066 1066 1082 1115 1168 1168 1115 1168 1187 1168 1132 1149 1149 1132 1149 1187 1168 1149 1206 1268 1268 0 1338 1226 0 0 0 0 0
    0 0 0 0 0 0 0 0 0 0 0 0 0 0 0 0 0 0 0 0 0 0 0 0 0 0 0 0 0 0 0 0 0 0 0 0 0 0 0 0 0 0 0 0 0 0 0 0 0 0 0 0 0 0 0 0 0 0 0 0 0 0 0 0 0 0 0 0 0 2102 2725 2725 2453 2299 2628 2628 2374 2628 2830 2725 2725 2725 2725 2628 2628 2943 2628 2374 2453 2299 2374 2453 2299 2453 2374 2230 2044 2044 2230 2102 1936 2299 2044 1887 2230 2374 2374 2374 2299 2374 2230 2230 2725 2453 2164 2044 2102 2230 2374 2374 2537 2628 2725 2943 3066 3066 2943 2830 2830 2830 2537 2453 2453 2537 2537 2628 2537 2299 2299 2453 2374 2164 2164 2164 2102 2102 2102 2044 1936 2044 2102 2044 2044 2102 2374 2453 2374 0 0 0 2453 2164 1989 1936 1936 0 0 0 0 0 0 0 0 0 2628 0 0 0 2453 2164 2299 0 0 0 0 0 0 0 2830 1989 1989 2164 2164 2102 2102 2164 2230 1989 2044 2164 1839 1839 1887 1533 1247 0 0 0 2102 0 0 1672 1471 1711 1635 1415 1314 1291 1314 1338 1226 1226 1149 1082 1066 1066 1036 1022 1008 994 981 968 968 994 1008 1008 1022 1022 1082 1082 1098 1098 1036 994 981 1022 1471 1795 1839 1887 1936 1839 2044 1887 1887 0 0 1066 1022 1008 1008 994 981 994 981 1008 0 0 0 0 0 0 0 0 0 0 0 0 0 1098 1051 0 0 1036 1036 1022 1008 1022 1051 1051 1036 1051 1066 1066 1082 1132 1132 1082 1115 1168 1132 1098 1115 1115 1098 1098 1149 1115 1082 1132 1187 1168 1206 1247 1149 0 0 0 0 0
    0 0 0 0 0 0 0 0 0 0 0 0 0 0 0 0 0 0 0 0 0 0 0 0 0 0 0 0 0 0 0 0 0 0 0 0 0 0 0 0 0 0 0 0 0 0 0 0 0 0 0 0 0 0 0 0 0 0 0 0 0 0 0 0 0 0 0 0 0 2102 2537 2628 2230 2299 2537 2537 2374 2537 2725 2628 2628 2725 2628 2537 2537 2830 2537 2299 2374 2164 2374 2453 2299 2453 2453 2374 2102 2044 2374 2374 2044 2537 2230 1936 2299 2453 2453 2374 2299 2374 2230 2230 2628 2299 2102 1989 2044 2102 2230 2299 2453 2537 2725 2830 2943 3066 3066 2943 2830 2943 2830 2628 2725 2725 2725 2628 2453 2374 2299 2299 2299 2102 2102 2102 2102 2102 2164 2102 1989 2102 2102 2102 2102 2164 2453 2453 2374 0 2537 2537 2537 2230 2044 2044 2102 2044 1989 2164 2299 2299 2725 2830 2453 2628 2628 2628 2628 2628 2537 2299 2230 2299 2102 1936 0 0 0 0 2453 1936 1887 2102 2102 2044 2044 2102 2164 1989 1989 2164 1839 1795 1752 1415 1206 1115 0 4599 2102 0 0 1752 1362 1635 1501 1362 1268 1268 1268 1314 1187 1206 1168 1098 1082 1066 1051 1036 1022 994 981 981 981 1022 1051 1051 1051 1051 1098 1115 1098 1132 1051 1022 1008 1066 1565 1795 1839 1887 1887 1795 1936 1887 1795 0 0 1036 1008 994 1008 994 981 994 994 1022 0 1051 0 0 0 0 0 0 0 0 0 0 0 1051 1008 968 994 994 1008 1008 1008 1022 1036 1036 1036 1051 1051 1051 1066 1082 1082 1051 1066 1098 1066 1066 1098 1082 1066 1066 1098 1066 1066 1132 1149 1132 1149 1187 1132 0 0 0 0 0
    0 0 0 0 0 0 0 0 0 0 0 0 0 0 0 0 0 0 0 0 0 0 0 0 0 0 0 0 0 0 0 0 0 0 0 0 0 0 0 0 0 0 0 0 0 0 0 0 0 0 0 0 0 0 0 0 0 0 0 0 0 0 0 0 0 0 0 0 0 2102 2537 2537 2164 2299 2537 2453 2374 2453 2628 2537 2537 2628 2537 2374 2453 2628 2374 2299 2299 0 0 0 5 2374 2453 2453 2299 2230 2537 2628 2299 2628 2453 2044 2374 2374 2453 2374 2299 2374 2230 2230 2628 2164 2044 1887 1887 1989 2044 2102 2299 2537 2725 2943 2943 3199 3066 2943 2943 2943 2943 2725 2830 2943 2830 2725 2628 2453 2453 2374 2299 2164 2164 2164 2164 2164 2230 2164 2044 2164 2164 2164 2164 2230 2453 2453 2374 0 2628 2537 2537 2299 2102 2230 2374 2299 1989 2299 2374 2374 2628 2725 2453 2537 2537 2725 2628 2628 2537 2299 2230 2299 2102 1936 1887 1795 1711 1533 2044 1887 1839 1989 1989 1989 2044 2044 2102 1936 1936 2044 1795 1501 1362 1247 1082 1022 1051 0 0 0 0 1533 1314 1415 1388 1291 1149 1187 1226 1268 1168 1187 1168 1098 1098 1098 1066 1036 1022 1008 994 994 994 1036 1051 1051 1051 1066 1098 1098 1082 1115 1051 1022 1008 1051 1415 1795 1887 1887 1839 1795 1936 1936 0 0 994 994 994 981 994 994 994 994 1008 1036 1036 1022 0 0 0 0 0 0 1795 0 0 0 0 0 845 886 968 968 981 994 981 1008 1022 1022 1022 1022 1036 1036 1036 1051 1036 1022 1036 1066 1051 1036 1066 1066 1066 1066 1115 1082 1066 1132 1187 1168 1168 1187 1149 0 0 0 0 0
    0 0 0 0 0 0 0 0 0 0 0 0 0 0 0 0 0 0 0 0 0 0 0 0 0 0 0 0 0 0 0 0 0 0 0 0 0 0 0 0 0 0 0 0 0 0 0 0 0 0 0 0 0 0 0 0 0 0 0 0 0 0 0 0 0 0 0 0 0 2102 2537 2628 2230 2299 2537 2453 2374 2453 2537 2453 2453 2537 2537 2299 2374 2453 2230 2230 2299 2164 2374 2374 2299 2374 2374 2453 2453 2374 2453 2628 2453 2628 2537 2230 2453 2453 2453 2453 2374 2453 2299 2299 2628 2230 2044 1887 1795 1936 1989 2044 2230 2628 2943 3066 3066 3345 3345 3199 3066 3066 2943 2830 2830 2943 2830 2725 2628 2453 2453 2453 2299 2230 2164 2164 2230 2164 2299 2230 2044 2230 2230 2230 2230 2299 2537 2453 2374 2943 2628 2537 2537 2374 2164 2299 2453 2374 1989 2299 2299 2299 2537 2628 2453 2537 2537 2725 2628 2628 2628 2374 2230 2453 2230 2044 1936 1795 1752 1599 1936 1887 1752 0 0 1936 1936 1936 1989 1839 1839 1936 1635 1226 1115 1115 1051 1022 1036 1051 1066 1098 1036 1268 1206 1115 0 1149 1051 1098 1168 1206 1115 1115 1132 1115 1082 1082 1051 1022 1022 994 994 994 1008 1036 1066 1066 1066 1066 1082 1082 1082 1098 1066 1022 1022 1051 1338 1752 1839 1839 1795 1752 1887 0 0 1022 994 994 994 994 1008 994 994 1008 1008 1036 1066 1022 0 0 1635 1599 0 0 1752 1711 0 0 0 0 845 876 955 931 955 968 968 994 1008 1008 994 1008 1008 1022 1022 1022 1008 968 981 1022 1022 1022 1036 1036 1051 1051 1115 1082 1066 1098 1132 1132 1149 1168 1115 0 0 0 0 0
    0 0 0 0 0 0 0 0 0 0 0 0 0 0 0 0 0 0 0 0 0 0 0 0 0 0 0 0 0 0 0 0 0 0 0 0 0 0 0 0 0 0 0 0 0 0 0 0 0 0 0 0 0 0 0 0 0 0 0 0 0 0 0 0 0 0 0 0 0 2102 2453 2628 2230 2374 2537 2453 2374 2374 2537 2374 2374 2453 2453 2230 2299 2374 2164 2164 2230 2164 2299 2230 2230 2299 2299 2453 2453 2374 2453 2628 2537 2628 2628 2374 2537 2453 2537 2537 2374 2453 2299 2299 2628 2299 2164 1936 1887 2044 2102 2164 2374 2725 2830 2943 2943 3345 3504 3345 3066 3066 2943 2830 2830 2830 2725 2628 2537 2453 2453 2453 2299 2230 2164 2230 2230 2230 2374 2299 2102 2299 2299 2299 2299 2374 2537 2453 2374 2943 2628 2537 2537 2374 2164 2299 2453 2374 1989 2299 2230 2299 2453 2537 2374 2374 2453 2628 2628 2628 2537 2374 2164 2374 2299 2102 1887 1839 1795 1635 1839 1839 1672 0 0 0 0 1887 1936 1795 1839 1887 1565 1187 1082 1098 1051 1022 1022 1051 1051 1066 1022 0 0 0 1098 1066 1036 1066 1206 1247 1168 1098 1168 1115 1098 1132 1115 1036 1008 1022 1036 1036 1036 1066 1082 1082 1082 1066 1066 1066 1066 1082 1066 1022 1022 1066 1291 1672 1795 1752 1752 1672 1887 0 1082 1022 1008 994 994 994 1008 1008 994 1008 1008 1022 1066 1022 0 0 1599 1533 0 0 0 1711 0 0 0 0 876 897 955 919 931 955 955 968 994 994 981 981 994 994 994 994 994 943 919 981 981 994 1036 1022 1036 1036 1082 1066 1051 1082 1115 1082 1115 1132 1098 0 0 0 0 0
    0 0 0 0 0 0 0 0 0 0 0 0 0 0 0 0 0 0 0 0 0 0 0 0 0 0 0 0 0 0 0 0 0 0 0 0 0 0 0 0 0 0 0 0 0 0 0 0 0 0 0 0 0 0 0 0 0 0 0 0 0 0 0 0 0 0 0 0 0 2044 2374 2628 2164 2374 2537 2453 2374 2374 2453 2299 2299 2374 2299 2102 2230 2230 2102 2164 2230 2102 2230 2102 2102 2164 2230 2374 2453 2374 2453 2725 2628 2725 2725 2453 2628 2537 2537 2537 2374 2453 2299 2374 2537 2299 2164 1936 1795 1989 1989 1989 2164 2537 2537 2628 2725 3199 3504 3345 3066 3066 2830 2830 2830 2830 2725 2628 2537 2453 2374 2374 2299 2230 2164 2164 2230 2230 2374 2299 2164 2374 2374 2374 2374 2453 2537 2537 2453 3066 2830 2725 2725 2537 2299 2537 2628 2537 1989 2299 2230 2230 2374 2453 2299 2374 2453 2628 2537 2628 2537 2299 2102 2299 2230 2044 1839 1795 1752 1635 1711 1752 1635 0 0 0 0 1839 1936 1795 1795 1887 1471 1066 1051 1066 1036 1022 1022 1022 1036 1036 994 0 0 0 0 1036 1036 1066 1168 1206 1168 1168 1226 1226 1226 1247 1247 1206 1051 1132 1149 1115 1066 1066 1098 1098 1098 1082 1066 1066 1066 1082 1082 1022 1022 1066 1291 1533 1752 1672 1635 1565 1752 1247 1051 1008 1008 981 994 994 994 994 994 994 1008 1008 1036 1008 0 0 1565 1471 0 0 0 1672 0 0 0 0 908 897 955 919 931 943 955 968 968 968 968 955 981 981 981 994 968 919 919 955 955 981 1022 1022 1036 1036 1066 1066 1051 1082 1115 1082 1098 1115 1082 0 0 0 0 0
    0 0 0 0 0 0 0 0 0 0 0 0 0 0 0 0 0 0 0 0 0 0 0 0 0 0 0 0 0 0 0 0 0 0 0 0 0 0 0 0 0 0 0 0 0 0 0 0 0 0 0 0 0 0 0 0 0 0 0 0 0 0 0 0 0 0 0 0 0 2044 2453 2628 2102 2453 2537 2453 2374 2374 2453 2299 2230 2374 2230 2102 2230 2230 2044 2164 2230 2102 2230 2102 2102 2102 2164 2374 2453 2374 2537 2725 2725 2725 2725 2628 2628 2537 2628 2628 2453 2453 2374 2374 2537 2299 2164 1887 1752 1887 1936 1839 1989 2299 2374 2537 2453 2830 3345 3199 2943 3066 2830 2725 2725 2830 2725 2628 2453 2453 2374 2374 2299 2230 2164 2164 2230 2230 2374 2374 2164 2453 2374 2374 2453 2453 2628 2537 2453 3199 3066 2943 3066 2725 2537 2830 2943 2725 1989 2374 2230 2299 2453 2453 2374 2374 2453 2725 2628 2725 2628 2453 2230 2453 2374 2044 1839 1752 1711 1565 1533 1565 1415 0 0 0 0 0 0 0 0 0 0 1022 1022 1051 1036 1022 1022 1008 1022 1008 981 955 876 836 1022 1036 1051 1066 1149 1168 1168 1226 1314 1338 1338 1338 1314 1314 1168 1247 1247 1206 1098 1082 1115 1115 1098 1098 1051 1066 1051 1066 1098 1036 1036 1082 1314 1471 1672 1635 1533 1443 1362 1187 1036 994 994 981 994 994 994 994 981 994 994 1008 1008 994 968 968 0 0 0 0 0 1599 0 0 0 0 886 876 955 919 931 955 955 968 968 968 968 955 968 981 968 994 955 943 968 994 981 994 1036 1051 1051 1051 1082 1066 1051 1098 1132 1098 1115 1115 1098 0 0 0 0 0
    0 0 0 0 0 0 0 0 0 0 0 0 0 0 0 0 0 0 0 0 0 0 0 0 0 0 0 0 0 0 0 0 0 0 0 0 0 0 0 0 0 0 0 0 0 0 0 0 0 0 0 0 0 0 0 0 0 0 0 0 0 0 0 0 0 0 0 0 0 0 2299 2453 2044 2453 2453 2374 2374 2453 2453 2299 2299 2374 2230 2164 2299 2299 2044 2230 2299 2164 2230 2044 2102 2102 2164 2374 2374 2299 2453 2725 2725 2725 2725 2725 2725 2628 2628 2628 2453 2537 2374 2374 2453 2374 2164 1887 1752 1839 1936 1887 1989 2230 2164 2299 2299 2725 3199 3199 2830 3066 2830 2628 2725 2830 2725 2537 2453 2453 2374 2374 2299 2230 2102 2164 2164 2230 2374 2453 2230 2453 2453 2453 2453 2537 2537 2453 2374 3066 3066 3066 3066 2725 2628 3066 3066 2830 2044 2453 2299 2374 2453 2537 2374 2374 2537 2725 2628 0 2725 0 2374 2628 2537 2164 1887 1795 1711 1565 1443 1362 1314 1291 1291 0 0 1268 1268 1268 1268 0 0 1051 1008 1036 1022 1022 1008 994 1008 994 968 931 876 886 1022 1036 1051 1066 1098 1115 1132 1206 1291 1314 1314 1314 1291 1268 1149 1226 1226 1168 1082 1066 1082 1082 1082 1082 1051 1051 1051 1066 1098 1051 1051 1066 1226 1314 1362 1388 1338 1314 1098 1066 1036 994 994 994 994 994 994 994 981 981 994 994 994 994 943 955 0 0 0 0 0 0 0 0 0 0 845 855 931 908 931 943 943 968 968 968 968 955 981 981 994 1008 955 968 0 1036 1008 1051 1115 1168 1149 1132 1132 1082 1066 1132 1132 1098 1115 1115 1098 0 0 0 0 0
    0 0 0 0 0 0 0 0 0 0 0 0 0 0 0 0 0 0 0 0 0 0 0 0 0 0 0 0 0 0 0 0 0 0 0 0 0 0 0 0 0 0 0 0 0 0 0 0 0 0 0 0 0 0 0 0 0 0 0 0 0 0 0 0 0 0 0 0 0 0 2230 2725 1989 2537 2537 2374 2453 2537 2453 2374 2299 2537 2299 2299 2453 2374 2044 2164 2230 2102 2230 2044 2044 2044 2164 2299 2374 2299 2374 2628 2537 2628 2725 2628 2628 2537 2628 2628 2453 2537 2374 2374 2299 2299 2230 1887 1711 1795 1936 1936 2102 2230 2164 2230 2299 2943 4599 3345 2725 3066 2943 2725 2830 2943 2725 2537 2453 2453 2374 2374 2299 2230 2102 2164 2230 2230 2374 2453 2299 2537 2453 2537 2537 2537 2537 2453 2374 2943 2830 3066 3066 2725 0 3066 3199 2830 2044 2537 2374 2453 2537 2537 2453 2453 2537 2830 0 0 0 574 2453 0 2628 2453 1989 1839 1752 1599 1388 1268 1268 1247 1247 1247 1247 1226 1226 1206 1247 1206 0 0 1008 1022 1008 1008 1008 994 994 994 955 897 876 855 968 1022 1022 1051 1132 1187 1206 1247 1314 1314 1314 1291 1247 1187 1098 1206 1206 1187 1082 1066 1082 1082 1082 1082 1036 1036 1051 1066 1098 1066 1066 1051 1187 1247 1226 1291 1168 1066 0 1036 1022 1008 1008 994 994 994 994 994 981 981 994 994 994 994 955 981 0 0 0 0 0 0 0 0 0 0 845 855 931 908 919 943 943 955 955 955 968 955 968 994 994 994 943 968 1022 1036 1022 1115 1206 1247 1247 1247 1226 1149 1115 1168 1149 1098 1115 1115 1115 0 0 0 0 0
    0 0 0 0 0 0 0 0 0 0 0 0 0 0 0 0 0 0 0 0 0 0 0 0 0 0 0 0 0 0 0 0 0 0 0 0 0 0 0 0 0 0 0 0 0 0 0 0 0 0 0 0 0 0 0 0 0 0 0 0 0 0 0 0 0 0 0 0 0 0 0 3199 2299 2725 2725 2537 2628 2628 2537 2374 2374 2537 2374 2374 2628 2230 2102 2230 2299 2230 2299 2102 2102 2044 2164 2374 2453 2374 2374 2537 2453 2537 2537 2537 2537 2374 2453 2453 2374 2537 2299 2299 2230 2102 2102 1839 1635 1711 1752 1752 1936 1936 1936 2102 2230 3504 0 4906 3345 3345 3199 2943 2943 3066 2830 2628 2537 2453 2374 2299 2230 2230 2102 2164 2230 2164 2453 2537 2299 2537 2537 2537 2537 2537 2537 2537 2374 0 0 0 0 0 0 0 3199 2943 1989 2453 2299 2299 2453 0 0 0 2453 2725 2628 561 579 579 0 0 2628 2537 1989 1839 1711 0 1314 1226 1247 1206 1206 1206 1206 1187 1187 1187 1247 1168 0 0 1022 0 1008 1008 994 994 981 968 943 908 886 876 968 994 1008 1051 1168 1226 1247 1268 1388 1388 1362 1338 1291 1226 1132 1187 1187 1187 1098 1051 1066 1082 1082 1066 1022 1022 1036 1051 1149 1098 1098 1115 1247 1314 1268 1314 1168 1066 0 1051 1036 1022 1008 994 1008 1008 1008 1008 981 994 994 994 1008 994 968 1008 981 1132 0 0 0 0 0 0 0 0 855 865 919 919 919 931 943 955 955 955 955 955 968 981 981 981 943 955 994 1008 1008 1132 1247 1291 1291 1291 1268 1247 1187 1206 1168 1115 1132 1115 1115 0 0 0 0 0
    0 0 0 0 0 0 0 0 0 0 0 0 0 0 0 0 0 0 0 0 0 0 0 0 0 0 0 0 0 0 0 0 0 0 0 0 0 0 0 0 0 0 0 0 0 0 0 0 0 0 0 0 0 0 0 0 0 0 0 0 0 0 0 0 0 0 0 0 0 0 0 0 0 3066 3066 2830 2943 2830 2725 2453 2374 2453 2374 2453 2628 2230 2164 2230 2299 2230 2299 2102 2102 2044 2164 2299 2453 2374 2374 2537 2453 2453 2537 2537 2537 2374 2453 2537 2374 2537 2299 2374 2299 0 0 0 0 0 0 0 0 0 0 0 0 0 0 6133 4329 3199 2943 0 0 3066 2830 2537 2628 2453 2374 2453 2299 2374 2164 2230 2299 2102 2453 2537 2164 2537 2453 2537 2537 2453 2537 2537 2374 0 0 0 0 0 0 0 0 2725 0 2299 0 2230 2299 2299 2299 2164 2230 0 2453 0 0 588 0 0 2725 2628 1989 1839 0 0 1268 1168 1206 1187 1168 1168 1168 1149 1132 1132 1187 1132 1098 1098 1036 1022 1022 1022 1008 981 968 955 943 919 897 886 968 994 1022 1051 1132 1206 1247 1268 1415 1388 1338 1314 1291 1247 1187 1187 1187 1187 1115 1036 1066 1066 1066 1066 1008 1008 1022 1036 1187 1149 1132 1206 1291 1314 1291 1314 1168 1082 1036 1066 1036 1022 1022 994 1008 1008 1008 1008 981 981 994 981 994 981 955 981 955 0 0 0 0 0 0 0 0 826 855 865 908 919 919 931 943 955 943 943 943 943 955 968 955 955 943 968 994 1008 1022 1132 1247 1268 1291 1314 1291 1268 1247 1247 1226 1168 1168 1115 1082 0 0 0 0 0
    0 0 0 0 0 0 0 0 0 0 0 0 0 0 0 0 0 0 0 0 0 0 0 0 0 0 0 0 0 0 0 0 0 0 0 0 0 0 0 0 0 0 0 0 0 0 0 0 0 0 0 0 0 0 0 0 0 0 0 0 0 0 0 0 0 0 0 0 0 0 0 0 0 0 0 0 0 0 0 0 0 0 0 2453 2453 2164 2102 2044 2102 2044 2164 2044 2102 2044 2044 2164 2374 2299 2299 2453 2453 2453 2537 2628 2725 2537 2628 2725 0 0 0 0 0 0 0 0 0 0 0 0 0 0 0 0 0 0 0 0 0 0 2102 2374 2230 2537 2374 2374 2299 2164 2230 2374 2230 2299 2102 2164 2102 2044 2453 2374 2102 2453 2453 2453 2453 2453 2537 2537 0 0 0 0 0 0 0 0 0 0 120 0 0 2164 2164 2164 2164 2044 0 210 0 0 0 0 0 0 0 2725 1989 0 0 0 1247 1132 1168 1168 1149 1132 1149 1132 1132 1115 1168 1149 1132 1115 1082 1036 1036 1036 994 981 968 955 919 931 931 955 994 1022 1022 1036 1098 1168 1226 1247 1362 1362 1338 1291 1268 1226 1187 1206 1187 1168 1115 1051 1082 1082 1082 1082 1022 1022 1036 1066 1247 1268 1268 1388 1388 1362 1338 1314 1187 1132 1051 1082 1051 1036 1036 1008 1008 1008 1008 1008 981 981 981 955 968 968 943 968 931 981 981 955 943 0 0 0 0 855 886 876 919 919 919 931 943 943 943 931 931 931 931 943 931 931 919 955 1008 1022 1066 1187 1226 1268 1291 1314 1291 1291 1247 1247 1206 1168 1149 1082 1051 0 0 0 0 0
    0 0 0 0 0 0 0 0 0 0 0 0 0 0 0 0 0 0 0 0 0 0 0 0 0 0 0 0 0 0 0 0 0 0 0 0 0 0 0 0 0 0 0 0 0 0 0 0 0 0 0 0 0 0 0 0 0 0 0 0 0 0 0 0 0 0 0 0 0 1711 0 0 0 0 0 0 0 0 0 0 0 0 0 0 0 0 0 0 0 0 0 0 0 0 0 0 0 0 0 0 0 0 0 0 0 0 0 0 0 0 0 0 0 0 0 0 0 0 0 0 0 0 0 0 0 0 0 0 0 0 0 0 0 0 0 0 0 2044 2164 2299 2164 2230 2102 2164 2102 2044 2537 2453 2164 2537 2537 2537 2537 0 0 0 0 0 0 0 0 0 0 0 0 0 0 0 0 0 0 0 0 0 0 0 0 0 0 0 0 0 0 0 1989 1839 0 0 1226 1098 1115 1149 1132 1115 1132 1132 1115 1115 1168 1168 1149 1132 1132 1066 1051 1066 1008 994 981 955 943 955 981 1008 1022 1022 1036 1051 1098 1115 1187 1187 1338 1338 1314 1247 1226 1206 1187 1187 1168 1132 1098 1051 1098 1098 1098 1082 1022 1022 1036 1051 1291 1314 1338 1443 1415 1388 1314 1314 1206 1206 1082 1115 1066 1051 1036 1022 1022 1008 994 994 968 968 955 943 955 955 955 981 943 968 968 943 931 886 886 0 826 836 897 876 908 919 919 919 931 943 931 919 919 908 897 908 897 886 897 955 1022 1051 1098 1187 1226 1247 1268 1268 1268 1247 1226 1226 1206 1149 1168 1066 1036 0 0 0 0 0
    0 0 0 0 0 0 0 0 0 0 0 0 0 0 0 0 0 0 0 0 0 0 0 0 0 0 0 0 0 0 0 0 0 0 0 0 0 0 0 0 0 0 0 0 0 0 0 0 0 0 0 0 0 0 0 0 0 0 0 0 0 0 0 0 0 0 0 0 0 1533 1415 1388 0 0 0 0 0 0 0 0 0 0 0 0 0 0 0 0 0 0 0 0 0 0 0 0 0 0 0 0 0 0 0 0 0 0 0 0 0 0 0 0 0 0 0 0 0 0 0 0 0 0 0 0 0 0 0 0 0 0 0 0 0 0 0 0 0 0 0 0 0 0 0 0 0 0 0 0 0 0 0 0 0 0 0 0 0 0 0 0 0 0 0 0 0 0 0 0 0 0 0 0 0 0 0 0 0 0 0 0 0 0 0 0 0 0 0 0 1168 1082 1098 1132 1132 1098 1132 1132 1132 1132 1168 1168 1149 1132 1149 1082 1066 1082 1022 1008 994 981 981 994 1022 1036 1051 1051 1051 1066 1098 1098 1168 1149 1314 1314 1291 1226 1206 1168 1168 1187 1168 1098 1066 1036 1066 1115 1115 1115 1022 0 0 0 1362 0 0 1599 1565 1443 1338 1338 1247 1187 1082 1132 1082 1051 1051 1051 1036 1008 981 981 955 955 943 943 955 955 955 981 955 968 968 943 931 886 886 845 817 836 876 876 908 931 919 919 919 931 919 897 897 886 865 876 876 865 886 968 1036 1066 1098 1187 1226 1247 1247 1247 1226 1226 1206 1206 1187 1168 1149 1066 1022 0 0 0 0 0
    0 0 0 0 0 0 0 0 0 0 0 0 0 0 0 0 0 0 0 0 0 0 0 0 0 0 0 0 0 0 0 0 0 0 0 0 0 0 0 0 0 0 0 0 0 0 0 0 0 0 0 0 0 0 0 0 0 0 0 0 0 0 0 0 0 0 0 0 0 1501 1388 1338 1338 0 0 0 0 0 0 0 0 0 0 0 0 0 0 0 0 0 0 0 0 0 0 0 0 0 0 0 0 0 0 0 0 0 0 0 0 0 0 0 0 0 0 0 0 0 0 0 0 0 0 0 0 0 0 0 0 0 0 0 0 0 0 0 0 0 0 0 0 0 0 0 0 0 0 0 0 0 0 0 0 0 0 0 0 0 0 0 0 0 0 0 0 0 0 0 0 0 0 0 0 0 0 0 0 0 0 0 0 0 0 0 0 0 0 0 1149 1082 1098 1132 1132 1115 1149 1149 1149 1149 1168 1187 1168 1149 1168 1082 1066 1066 1022 1022 1008 981 981 1008 1036 1036 1066 1066 1066 1082 1098 1115 1132 1115 1268 1268 1247 1187 1115 1115 1115 1132 1115 1082 1036 1022 1022 1132 1149 1115 0 0 0 0 1415 1443 1471 1599 1711 1501 1314 0 1149 1149 1051 1149 1082 1051 1051 1066 1066 1036 994 994 955 955 955 943 955 955 955 981 955 968 955 931 919 876 855 845 826 845 886 886 919 943 931 919 931 931 919 897 897 886 876 886 897 886 908 955 1022 1066 1082 1132 1206 1226 1226 1226 1206 1206 1187 1187 1187 1168 1149 1098 1036 0 0 0 0 0
    0 0 0 0 0 0 0 0 0 0 0 0 0 0 0 0 0 0 0 0 0 0 0 0 0 0 0 0 0 0 0 0 0 0 0 0 0 0 0 0 0 0 0 0 0 0 0 0 0 0 0 0 0 0 0 0 0 0 0 0 0 0 0 0 0 0 0 0 0 1362 1314 1291 1291 1247 0 0 0 0 0 0 0 0 0 0 0 0 0 0 0 0 0 0 0 0 0 0 0 0 0 0 0 0 0 0 0 0 0 0 0 0 0 0 0 0 0 0 0 0 0 0 0 0 0 0 0 0 0 0 0 0 0 0 0 0 0 0 0 0 0 0 0 0 0 0 0 0 0 0 0 0 0 0 0 0 0 0 0 0 0 0 0 0 0 0 0 0 0 0 0 0 0 0 0 0 0 0 0 0 0 0 0 0 0 0 0 0 0 0 1149 1082 1115 1149 1149 1132 1168 1168 1168 1168 1187 1187 1168 1149 1168 1098 1066 1082 1036 1036 1022 1008 994 1008 1036 1051 1066 1066 1082 1082 1115 1132 1168 1168 1291 1291 1247 1187 1098 1132 1115 1149 1115 1098 1051 1036 1051 1206 1187 1132 0 0 0 0 1388 1415 1388 1443 1635 1388 1226 1247 1132 1132 1082 1168 1098 1082 1082 1098 1082 1036 994 994 968 955 955 955 955 955 955 981 955 981 955 943 943 886 897 855 826 865 897 908 931 943 931 919 931 931 919 908 886 886 876 897 919 908 919 968 1022 1051 1082 1098 1168 1206 1226 1206 1187 1187 1187 1168 1187 1168 1149 1098 1036 0 0 0 0 0
    0 0 0 0 0 0 0 0 0 0 0 0 0 0 0 0 0 0 0 0 0 0 0 0 0 0 0 0 0 0 0 0 0 0 0 0 0 0 0 0 0 0 0 0 0 0 0 0 0 0 0 0 0 0 0 0 0 0 0 0 0 0 0 0 0 0 0 0 0 1314 1291 1268 1268 1226 1206 0 0 0 0 0 0 0 0 0 0 0 0 0 0 0 0 0 0 0 0 0 0 0 0 0 0 0 0 0 0 0 0 0 0 0 0 0 0 0 0 0 0 0 0 0 0 0 0 0 0 0 0 0 0 0 0 0 0 0 0 0 0 0 0 0 0 0 0 0 0 0 0 0 0 0 0 0 0 0 0 0 0 0 0 0 0 0 0 0 0 0 0 0 0 0 0 0 0 0 0 0 0 0 0 0 0 0 0 0 0 0 0 0 1132 1082 1098 1149 1149 1115 1168 1187 1168 1187 1187 1206 1168 1168 1187 1115 1082 1098 1051 1051 1051 1036 1022 1036 1051 1066 1082 1082 1098 1115 1132 1149 1168 1168 1291 1291 1268 1226 1115 1149 1149 1168 1149 1115 1051 1036 1066 1226 1098 0 0 700 707 0 0 1415 1443 1415 1565 1362 1226 1206 1098 1082 1051 1115 1066 1066 1051 1066 1051 1008 981 981 955 955 955 943 955 955 968 981 0 0 955 0 0 897 0 0 836 865 886 919 943 943 931 919 931 919 908 908 886 886 886 908 931 931 955 981 1008 1022 1051 1066 1098 1149 1187 1168 1168 1149 1149 1149 1132 1149 1098 1066 1022 0 0 0 0 0
    0 0 0 0 0 0 0 0 0 0 0 0 0 0 0 0 0 0 0 0 0 0 0 0 0 0 0 0 0 0 0 0 0 0 0 0 0 0 0 0 0 0 0 0 0 0 0 0 0 0 0 0 0 0 0 0 0 0 0 0 0 0 0 0 0 0 0 0 0 1268 1226 1206 1206 1187 1187 0 0 0 0 0 0 0 0 0 0 0 0 0 0 0 0 0 0 0 0 0 0 0 0 0 0 0 0 0 0 0 0 0 0 0 0 0 0 0 0 0 0 0 0 0 0 0 0 0 0 0 0 0 0 0 0 0 0 0 0 0 0 0 0 0 0 0 0 0 0 0 0 0 0 0 0 0 0 0 0 0 0 0 0 0 0 0 0 0 0 0 0 0 0 0 0 0 0 0 0 0 0 0 0 0 0 0 0 0 0 0 0 0 1132 1098 1098 1149 1149 1115 1187 1187 1187 1187 1187 1206 1168 1168 1187 1149 1082 1115 1066 1066 1051 1036 1036 1051 1066 1066 1082 1098 1098 1115 1149 1149 1168 1187 1291 1291 1247 1247 1115 1168 1149 1168 1149 1115 1051 1036 1066 1247 0 0 721 0 728 0 0 1443 1501 1471 1711 1415 0 0 1132 1082 1036 1082 1051 1036 1008 1022 1008 955 955 968 955 955 955 943 955 955 968 968 0 0 0 0 0 0 0 0 0 855 886 919 943 943 931 931 931 931 919 919 897 908 919 931 943 955 968 994 994 1008 1022 1036 1066 1098 1132 1132 1132 1132 1132 1115 1098 1098 1082 1036 994 0 0 0 0 0
    0 0 0 0 0 0 0 0 0 0 0 0 0 0 0 0 0 0 0 0 0 0 0 0 0 0 0 0 0 0 0 0 0 0 0 0 0 0 0 0 0 0 0 0 0 0 0 0 0 0 0 0 0 0 0 0 0 0 0 0 0 0 0 0 0 0 0 0 0 1168 1132 1132 1168 1168 1187 1206 0 0 0 0 0 0 0 0 0 0 0 0 0 0 0 0 0 0 0 0 0 0 0 0 0 0 0 0 0 0 0 0 0 0 0 0 0 0 0 0 0 0 0 0 0 0 0 0 0 0 0 0 0 0 0 0 0 0 0 0 0 0 0 0 0 0 0 0 0 0 0 0 0 0 0 0 0 0 0 0 0 0 0 0 0 0 0 0 0 0 0 0 0 0 0 0 0 0 0 0 0 0 0 0 0 0 0 0 0 0 0 1036 1132 1149 1082 1149 1168 1132 1187 1206 1187 1206 1187 1226 1187 1168 1206 1149 1098 1115 1082 1066 1066 1051 1051 1051 1066 1082 1098 1115 1115 1132 1149 1149 1168 1168 1247 1247 1226 1226 1098 1149 1115 1132 1115 1082 1036 1008 1022 1247 1008 817 714 0 782 782 0 0 0 0 0 0 0 0 1187 1115 1066 1098 1066 1022 968 0 0 919 943 955 943 943 943 955 955 955 955 968 0 0 0 0 0 0 0 0 0 836 876 919 931 943 931 931 931 931 931 943 919 943 955 955 968 981 994 994 1008 1022 1022 1036 1066 1082 1098 1098 1098 1098 1098 1082 1082 1082 1066 1036 1008 0 0 0 0 0
    0 0 0 0 0 0 0 0 0 0 0 0 0 0 0 0 0 0 0 0 0 0 0 0 0 0 0 0 0 0 0 0 0 0 0 0 0 0 0 0 0 0 0 0 0 0 0 0 0 0 0 0 0 0 0 0 0 0 0 0 0 0 0 0 0 0 0 0 0 1051 1051 1066 1082 1132 1149 1187 1206 0 0 0 0 0 0 0 0 0 0 0 0 0 0 0 0 0 0 0 0 0 0 0 0 0 0 0 0 0 0 0 0 0 0 0 0 0 0 0 0 0 0 0 0 0 0 0 0 0 0 0 0 0 0 0 0 0 0 0 0 0 0 0 0 0 0 0 0 0 0 0 0 0 0 0 0 0 0 0 0 0 0 0 0 0 0 0 0 0 0 0 0 0 0 0 0 0 0 0 0 0 0 0 0 0 0 0 0 0 1206 1082 1187 1206 1115 1187 1206 1149 1206 1226 1206 1226 1206 1247 1187 1187 1206 1168 1115 1132 1098 1082 1082 1066 1082 1066 1082 1098 1098 1115 1115 1132 1149 1149 1149 1149 1187 1187 1187 1187 1066 1098 1082 1098 1098 1082 1036 1008 1008 1206 1008 0 721 0 0 799 0 0 0 0 0 0 0 0 0 0 1132 1187 0 0 0 0 0 931 0 955 943 943 943 955 955 955 955 0 0 0 0 0 0 0 0 0 0 826 876 931 943 931 931 931 931 931 931 943 931 943 968 955 968 981 994 994 1008 1022 1036 1036 1051 1066 1082 1082 1082 1082 1082 1066 1066 1066 1051 1036 1008 0 0 0 0 0
    0 0 0 0 0 0 0 0 0 0 0 0 0 0 0 0 0 0 0 0 0 0 0 0 0 0 0 0 0 0 0 0 0 0 0 0 0 0 0 0 0 0 0 0 0 0 0 0 0 0 0 0 0 0 0 0 0 0 0 0 0 0 0 0 0 0 0 0 0 1008 1022 1036 1051 1098 1115 1132 1168 0 0 0 0 0 0 0 0 0 0 0 0 0 0 0 0 0 0 0 0 0 0 0 0 0 0 0 0 0 0 0 0 0 0 0 0 0 0 0 0 0 0 0 0 0 0 0 0 0 0 0 0 0 0 0 0 0 0 0 0 0 0 0 0 0 0 0 0 0 0 0 0 0 0 0 0 0 0 0 0 0 0 0 0 0 0 0 0 0 0 0 0 0 0 0 0 0 0 0 0 0 0 0 0 0 0 0 0 0 1291 1168 1247 1268 1187 1206 1226 1187 1206 1247 1226 1247 1247 1247 1206 1187 1206 1168 1115 1132 1115 1098 1082 1082 1098 1082 1082 1115 1115 1132 1115 1149 1149 1149 1149 1149 1149 1168 1149 1168 1036 1066 1051 1051 1066 1066 1022 994 1008 1206 1008 0 0 0 865 826 0 0 0 0 0 0 0 0 0 0 0 1206 0 0 0 634 0 0 0 943 943 943 943 955 955 955 0 0 0 0 0 0 0 0 0 0 0 826 886 955 955 943 943 931 931 931 943 955 943 955 968 968 981 994 994 994 1008 1008 1022 1022 1036 1051 1051 1066 1066 1066 1066 1051 1051 1036 1036 1022 994 0 0 0 0 0
    0 0 0 0 0 0 0 0 0 0 0 0 0 0 0 0 0 0 0 0 0 0 0 0 0 0 0 0 0 0 0 0 0 0 0 0 0 0 0 0 0 0 0 0 0 0 0 0 0 0 0 0 0 0 0 0 0 0 0 0 0 0 0 0 0 0 0 0 0 994 1008 1022 1022 1066 1082 1115 1168 0 0 0 0 0 0 0 0 0 0 0 0 0 0 0 0 0 0 0 0 0 0 0 0 0 0 0 0 0 0 0 0 0 0 0 0 0 0 0 0 0 0 0 0 0 0 0 0 0 0 0 0 0 0 0 0 0 0 0 0 0 0 0 0 0 0 0 0 0 0 0 0 0 0 0 0 0 0 0 0 0 0 0 0 0 0 0 0 0 0 0 0 0 0 0 0 0 0 0 0 0 0 0 0 0 0 0 0 1338 1291 1247 1268 1291 1247 1247 1268 1226 1247 1291 1268 1268 1268 1268 1206 1206 1226 1187 1098 1132 1115 1098 1082 1098 1098 1082 1098 1132 1132 1149 1132 1149 1168 1168 1149 1168 1149 1168 1132 1149 1036 1082 1051 1051 1066 1082 1036 1008 1008 1187 1008 0 750 0 0 817 0 0 845 0 0 1206 0 0 0 0 0 0 0 0 0 0 0 0 0 943 931 943 943 955 0 943 0 0 0 0 0 0 0 0 0 0 0 0 908 968 968 955 943 931 943 943 943 955 955 968 981 981 994 994 1008 994 1008 1008 1008 1008 1022 1036 1036 1051 1051 1051 1051 1051 1036 1036 1036 1022 1008 0 0 0 0 0
    0 0 0 0 0 0 0 0 0 0 0 0 0 0 0 0 0 0 0 0 0 0 0 0 0 0 0 0 0 0 0 0 0 0 0 0 0 0 0 0 0 0 0 0 0 0 0 0 0 0 0 0 0 0 0 0 0 0 0 0 0 0 0 0 0 0 0 0 0 968 994 1008 1008 1036 1066 1098 1168 0 0 0 0 0 0 0 0 0 0 0 0 0 0 0 0 0 0 0 0 0 0 0 0 0 0 0 0 0 0 0 0 0 0 0 0 0 0 0 0 0 0 0 0 0 0 0 0 0 0 0 0 0 0 0 0 0 0 0 0 0 0 0 0 0 0 0 0 0 0 0 0 0 0 0 0 0 0 0 0 0 0 0 0 0 0 0 0 0 0 0 0 0 0 0 0 0 0 0 0 0 0 0 0 0 0 0 0 1362 1338 1314 1338 1338 1338 1338 1362 1338 1338 1338 1338 1362 1338 1314 1247 1226 1226 1187 1115 1132 1132 1115 1098 1115 1098 1098 1098 1149 1132 1149 1149 1168 1168 1168 1168 1206 1149 1168 1115 1149 1036 1082 1051 1066 1066 1098 1051 1022 1036 0 1008 0 758 0 826 817 0 0 845 1051 0 1132 0 0 0 0 0 0 0 0 0 629 0 0 0 943 931 0 0 0 0 0 0 3199 0 0 0 0 0 0 0 0 0 0 0 968 968 955 943 931 943 943 955 968 968 981 994 994 1008 1008 1008 994 994 994 994 994 1008 1008 1022 1022 1022 1022 1036 1022 1022 1022 1022 1008 1008 0 0 0 0 0
    0 0 0 0 0 0 0 0 0 0 0 0 0 0 0 0 0 0 0 0 0 0 0 0 0 0 0 0 0 0 0 0 0 0 0 0 0 0 0 0 0 0 0 0 0 0 0 0 0 0 0 0 0 0 0 0 0 0 0 0 0 0 0 0 0 0 0 0 0 931 968 981 1008 1036 1051 1066 1149 0 0 0 0 0 0 0 0 0 0 0 0 0 0 0 0 0 0 0 0 0 0 0 0 0 0 0 0 0 0 0 0 0 0 0 0 0 0 0 0 0 0 0 0 0 0 0 0 0 0 0 0 0 0 0 0 0 0 0 0 0 0 0 0 0 0 0 0 0 0 0 0 0 0 0 0 0 0 0 0 0 0 0 0 0 0 0 0 0 0 0 0 0 0 0 0 0 0 0 0 0 0 0 0 0 0 0 0 1362 1314 1338 1338 1362 1362 1362 1388 1362 1338 1362 1362 1388 1388 1338 1247 1247 1247 1206 1115 1168 1149 1132 1132 1132 1149 1115 1115 1168 1149 1168 1168 1187 1187 1187 1187 1206 1149 1187 1115 1149 1051 1098 1082 1082 1098 1132 1082 1051 1066 0 0 0 774 808 808 808 808 826 0 0 0 1082 0 0 1268 0 0 0 0 0 0 675 0 0 0 0 931 0 0 0 0 0 0 3345 0 0 0 0 0 0 0 0 0 0 0 968 955 943 943 931 943 955 968 981 981 981 994 994 1008 1008 1008 994 994 981 994 994 994 994 994 994 1008 994 1022 1008 1008 1008 1008 994 994 0 0 0 0 0
    0 0 0 0 0 0 0 0 0 0 0 0 0 0 0 0 0 0 0 0 0 0 0 0 0 0 0 0 0 0 0 0 0 0 0 0 0 0 0 0 0 0 0 0 0 0 0 0 0 0 0 0 0 0 0 0 0 0 0 0 0 0 0 0 0 0 0 0 0 919 955 968 994 1022 1036 1051 1098 0 0 0 0 0 0 0 0 0 0 0 0 0 0 0 0 0 0 0 0 0 0 0 0 0 0 0 0 0 0 0 0 0 0 0 0 0 0 0 0 0 0 0 0 0 0 0 0 0 0 0 0 0 0 0 0 0 0 0 0 0 0 0 0 0 0 0 0 0 0 0 0 0 0 0 0 0 0 0 0 0 0 0 0 0 0 0 0 0 0 0 0 0 0 0 0 0 0 0 0 0 0 0 0 0 0 0 0 1362 1314 1338 1338 1338 1338 1338 1415 1338 1314 1362 1362 1388 1415 1362 1247 1247 1247 1206 1132 1168 1168 1132 1132 1149 1168 1149 1149 1187 1168 1187 1168 1187 1187 1168 1168 1187 1132 1115 1082 1115 1051 1066 1066 1066 1082 1098 1082 1036 1066 0 1082 0 0 0 817 808 808 826 826 0 931 981 0 0 0 0 0 0 0 728 694 700 645 0 0 943 943 0 0 0 0 955 0 0 0 0 0 0 0 0 0 618 0 0 0 968 955 943 943 943 943 955 968 981 981 994 994 994 994 994 994 981 981 968 981 981 968 981 981 981 994 981 1008 994 981 994 994 981 968 0 0 0 0 0
    0 0 0 0 0 0 0 0 0 0 0 0 0 0 0 0 0 0 0 0 0 0 0 0 0 0 0 0 0 0 0 0 0 0 0 0 0 0 0 0 0 0 0 0 0 0 0 0 0 0 0 0 0 0 0 0 0 0 0 0 0 0 0 0 0 0 0 0 0 919 955 968 994 1008 1022 1036 1082 0 0 0 0 0 0 0 0 0 0 0 0 0 0 0 0 0 0 0 0 0 0 0 0 0 0 0 0 0 0 0 0 0 0 0 0 0 0 0 0 0 0 0 0 0 0 0 0 0 0 0 0 0 0 0 0 0 0 0 0 0 0 0 0 0 0 0 0 0 0 0 0 0 0 0 0 0 0 0 0 0 0 0 0 0 0 0 0 0 0 0 0 0 0 0 0 0 0 0 0 0 0 0 0 0 0 0 0 1362 1362 1362 1388 1388 1362 1388 1533 1471 1314 1338 1362 1388 1415 1362 1268 1226 1247 1206 1168 1187 1168 1149 1132 1132 1187 1168 1149 1187 1149 1187 1168 1168 1187 1149 1149 1187 1098 1098 1066 1082 1051 1051 1051 1051 1051 1066 1082 1036 1051 0 1206 1226 0 0 0 0 0 855 876 968 955 968 943 0 0 0 2299 1839 0 0 0 0 0 0 0 943 943 0 0 0 0 0 0 0 1752 0 0 0 0 0 0 618 634 0 0 981 968 955 968 943 955 968 994 994 994 1008 1008 994 1008 1008 1008 981 968 955 968 955 955 968 968 968 981 968 981 968 968 981 981 968 968 0 0 0 0 0
    0 0 0 0 0 0 0 0 0 0 0 0 0 0 0 0 0 0 0 0 0 0 0 0 0 0 0 0 0 0 0 0 0 0 0 0 0 0 0 0 0 0 0 0 0 0 0 0 0 0 0 0 0 0 0 0 0 0 0 0 0 0 0 0 0 0 0 0 0 908 943 943 968 994 994 994 0 0 0 0 0 0 0 0 0 0 0 0 0 0 0 0 0 0 0 0 0 0 0 0 0 0 0 0 0 0 0 0 0 0 0 0 0 0 0 0 0 0 0 0 0 0 0 0 0 0 0 0 0 0 0 0 0 0 0 0 0 0 0 0 0 0 0 0 0 0 0 0 0 0 0 0 0 0 0 0 0 0 0 0 0 0 0 0 0 0 0 0 0 0 0 0 0 0 0 0 0 0 0 0 0 0 0 0 0 1415 1415 1415 1443 1415 1415 1415 1599 1501 1338 1338 1362 1388 1415 1362 1291 1206 1226 1168 1187 1206 1187 1187 1168 1168 1206 1206 1187 1206 1168 1187 1168 1168 1168 1132 1132 1168 1082 1082 1051 1066 1051 1051 1036 1036 1051 1066 1066 1115 1051 0 1226 0 0 0 0 0 0 0 994 1022 994 1008 994 994 994 0 0 0 0 0 0 0 0 0 0 0 931 0 0 0 0 0 0 0 0 0 0 0 0 0 0 0 0 0 0 981 968 955 968 943 955 968 994 1008 1008 1008 1022 1008 1008 1008 1008 968 955 931 943 943 931 943 943 943 955 955 968 955 955 981 968 955 955 0 0 0 0 0
    0 0 0 0 0 0 0 0 0 0 0 0 0 0 0 0 0 0 0 0 0 0 0 0 0 0 0 0 0 0 0 0 0 0 0 0 0 0 0 0 0 0 0 0 0 0 0 0 0 0 0 0 0 0 0 0 0 0 0 0 0 0 0 0 0 0 0 0 0 886 919 897 943 943 931 931 0 0 0 0 0 0 0 0 0 0 0 0 0 0 0 0 0 0 0 0 0 0 0 0 0 0 0 0 0 0 0 0 0 0 0 0 0 0 0 0 0 0 0 0 0 0 0 0 0 0 0 0 0 0 0 0 0 0 0 0 0 0 0 0 0 0 0 0 0 0 0 0 0 0 0 0 0 0 0 0 0 0 0 0 0 0 0 0 0 0 0 0 0 0 0 0 0 0 0 0 0 0 0 0 0 0 0 0 0 1471 1443 1471 1471 1471 1443 1471 1599 1501 1362 1362 1362 1362 1388 1338 1291 1187 1206 1149 1206 1226 1226 1226 1247 1226 1268 1291 1226 1247 1187 1206 1187 1168 1168 1115 1098 1149 1066 1066 1022 1036 1022 1051 1066 1066 1066 1132 1149 1314 1247 1268 1247 1291 1415 1362 1443 1501 1388 1388 1268 1247 1098 1082 0 1008 994 955 0 0 0 0 0 0 0 0 0 0 0 0 0 0 0 0 0 0 0 0 0 0 0 0 0 0 1132 1036 1036 1008 981 968 981 943 968 968 1008 1008 1022 1022 1022 1008 1008 1008 1008 955 943 919 931 931 919 931 931 919 943 943 955 943 943 968 943 931 943 0 0 0 0 0
    0 0 0 0 0 0 0 0 0 0 0 0 0 0 0 0 0 0 0 0 0 0 0 0 0 0 0 0 0 0 0 0 0 0 0 0 0 0 0 0 0 0 0 0 0 0 0 0 0 0 0 0 0 0 0 0 0 0 0 0 0 0 0 0 0 0 0 0 0 876 897 897 955 908 0 0 0 0 0 0 0 0 0 0 0 0 0 0 0 0 0 0 0 0 0 0 0 0 0 0 0 0 0 0 0 0 0 0 0 0 0 0 0 0 0 0 0 0 0 0 0 0 0 0 0 0 0 0 0 0 0 0 0 0 0 0 0 0 0 0 0 0 0 0 0 0 0 0 0 0 0 0 0 0 0 0 0 0 0 0 0 0 0 0 0 0 0 0 0 0 0 0 0 0 0 0 0 0 0 0 0 0 0 0 0 0 1415 1443 1471 1471 1415 1443 1565 1533 1388 1415 1443 1443 1443 1388 1314 1268 1268 1226 1247 1247 1268 1268 1314 1291 1314 1314 1247 1268 1206 1206 1206 1187 1206 1132 1115 1168 1066 1066 1022 1036 1051 1066 1098 1098 1115 1206 1187 1362 1291 1268 1268 1314 1415 1362 1599 1599 1443 1415 1291 0 0 1115 1022 1036 1008 994 1008 0 0 1051 0 0 0 0 0 0 0 0 0 0 0 0 0 0 0 0 0 0 0 0 0 0 0 0 0 1149 1008 1008 1008 968 981 994 1022 1022 1022 1022 1022 1008 1008 994 994 955 943 919 931 919 908 919 919 908 931 931 943 908 897 943 897 886 0 0 0 0 0 0
    0 0 0 0 0 0 0 0 0 0 0 0 0 0 0 0 0 0 0 0 0 0 0 0 0 0 0 0 0 0 0 0 0 0 0 0 0 0 0 0 0 0 0 0 0 0 0 0 0 0 0 0 0 0 0 0 0 0 0 0 0 0 0 0 0 0 0 0 0 836 845 836 855 0 0 0 0 0 0 0 0 0 0 0 0 0 0 0 0 0 0 0 0 0 0 0 0 0 0 0 0 0 0 0 0 0 0 0 0 0 0 0 0 0 0 0 0 0 0 0 0 0 0 0 0 0 0 0 0 0 0 0 0 0 0 0 0 0 0 0 0 0 0 0 0 0 0 0 0 0 0 0 0 0 0 0 0 0 0 0 0 0 0 0 0 0 0 0 0 0 0 0 0 0 0 0 0 0 0 0 0 0 0 0 0 0 0 1415 1443 1443 1415 1443 1471 1533 1388 1415 1471 1443 1443 1443 1338 1338 1338 1338 1338 1338 1362 1388 1443 1443 1471 1415 1314 1314 1268 1268 1247 1226 1206 1149 1132 1168 1082 0 1036 1066 1066 1098 1132 1149 1187 1226 1206 1291 1268 1268 1268 1338 1443 1388 1599 1565 1338 0 1132 1051 1051 1051 1008 1022 1008 1008 1022 1036 1066 1066 1051 1066 1051 1115 1036 1008 886 791 0 0 0 0 0 0 0 0 0 1533 0 1362 0 0 0 0 0 0 0 0 0 0 0 981 1022 1022 1022 1022 1022 1008 1008 994 994 943 0 0 0 908 897 908 908 886 919 897 908 876 865 908 0 0 0 0 0 0 0 0
    0 0 0 0 0 0 0 0 0 0 0 0 0 0 0 0 0 0 0 0 0 0 0 0 0 0 0 0 0 0 0 0 0 0 0 0 0 0 0 0 0 0 0 0 0 0 0 0 0 0 0 0 0 0 0 0 0 0 0 0 0 0 0 0 0 0 0 0 0 817 808 0 0 0 0 0 0 0 0 0 0 0 0 0 0 0 0 0 0 0 0 0 0 0 0 0 0 0 0 0 0 0 0 0 0 0 0 0 0 0 0 0 0 0 0 0 0 0 0 0 0 0 0 0 0 0 0 0 0 0 0 0 0 0 0 0 0 0 0 0 0 0 0 0 0 0 0 0 0 0 0 0 0 0 0 0 0 0 0 0 0 0 0 0 0 0 0 0 0 0 0 0 0 0 0 0 0 0 0 0 0 0 0 0 0 0 0 0 0 1501 1415 1471 1471 1533 1388 1415 1443 1415 1415 1415 1314 1314 1314 1388 1443 1471 1599 1599 1599 1599 1599 1443 1314 1314 1291 1291 1268 1247 1226 1115 1098 208 205 0 0 1066 1082 1115 1168 1168 1206 1226 1226 1291 1268 1247 1247 1268 1362 1338 1443 0 0 0 1115 1022 0 1036 1008 1022 1008 1008 1022 1036 1082 1082 1066 1066 1051 1082 1022 994 886 808 0 0 0 0 0 0 0 0 0 1471 1415 1314 1268 1362 1226 0 0 0 0 603 579 0 0 0 0 0 0 0 0 0 994 994 0 0 0 0 897 886 876 886 876 865 886 876 876 0 0 0 0 0 192 0 0 0 0 0
    0 0 0 0 0 0 0 0 0 0 0 0 0 0 0 0 0 0 0 0 0 0 0 0 0 0 0 0 0 0 0 0 0 0 0 0 0 0 0 0 0 0 0 0 0 0 0 0 0 0 0 0 0 0 0 0 0 0 0 0 0 0 0 0 0 0 0 0 0 0 0 0 0 0 0 0 0 0 0 0 0 0 0 0 0 0 0 0 0 0 0 0 0 0 0 0 0 0 0 0 0 0 0 0 0 0 0 0 0 0 0 0 0 0 0 0 0 0 0 0 0 0 0 0 0 0 0 0 0 0 0 0 0 0 0 0 0 0 0 0 0 0 0 0 0 0 0 0 0 0 0 0 0 0 0 0 0 0 0 0 0 0 0 0 0 0 0 0 0 0 0 0 0 0 0 0 0 0 0 0 0 0 0 0 0 0 0 0 0 0 0 0 1443 1415 1388 1415 1443 1415 1415 1415 1314 1314 1268 1338 1501 1599 1839 1752 1672 1635 1672 1471 1338 1291 1291 1268 1247 1206 1187 1082 1051 0 0 0 0 0 1098 1115 1187 1168 1206 1206 1226 1268 1247 1226 1206 1206 1291 1247 0 1291 1115 1168 1066 0 994 1008 1008 1008 994 994 1008 1022 1051 1066 1051 1051 1036 1036 1008 994 955 876 908 886 897 0 0 0 0 1247 1226 1206 1187 1149 1132 1098 0 0 0 0 0 0 0 0 0 0 0 0 0 0 0 0 0 0 0 0 0 0 0 0 0 0 0 0 0 0 0 0 0 0 0 0 0 0 0 0 0 0
    0 0 0 0 0 0 0 0 0 0 0 0 0 0 0 0 0 0 0 0 0 0 0 0 0 0 0 0 0 0 0 0 0 0 0 0 0 0 0 0 0 0 0 0 0 0 0 0 0 0 0 0 0 0 0 0 0 0 0 0 0 0 0 0 0 0 0 0 0 0 0 0 0 0 0 0 0 0 0 0 0 0 0 0 0 0 0 0 0 0 0 0 0 0 0 0 0 0 0 0 0 0 0 0 0 0 0 0 0 0 0 0 0 0 0 0 0 0 0 0 0 0 0 0 0 0 0 0 0 0 0 0 0 0 0 0 0 0 0 0 0 0 0 0 0 0 0 0 0 0 0 0 0 0 0 0 0 0 0 0 0 0 0 0 0 0 0 0 0 0 0 0 0 0 0 0 0 0 0 0 0 0 0 0 0 0 0 0 0 0 0 0 0 0 0 0 1415 1415 1415 1415 1314 1314 1268 1338 1501 1388 1362 1362 1362 1415 1501 1388 1314 1268 1226 1226 1226 1226 1168 1036 0 0 0 0 0 0 0 1115 1187 1149 1206 1206 1226 1247 1226 1206 1187 1187 1247 1226 1247 1187 1098 1066 1051 994 994 1008 994 1008 994 994 1008 1008 1022 1036 1022 1022 1008 1008 994 981 968 943 943 908 919 919 955 931 955 994 1008 0 0 0 0 0 0 0 0 0 0 0 0 0 0 0 0 0 0 0 0 0 0 0 0 0 0 0 0 0 0 0 0 0 0 0 0 0 0 0 0 0 0 0 0 0 0 0
    0 0 0 0 0 0 0 0 0 0 0 0 0 0 0 0 0 0 0 0 0 0 0 0 0 0 0 0 0 0 0 0 0 0 0 0 0 0 0 0 0 0 0 0 0 0 0 0 0 0 0 0 0 0 0 0 0 0 0 0 0 0 0 0 0 0 0 0 0 0 0 0 0 0 0 0 0 0 0 0 0 0 0 0 0 0 0 0 0 0 0 0 0 0 0 0 0 0 0 0 0 0 0 0 0 0 0 0 0 0 0 0 0 0 0 0 0 0 0 0 0 0 0 0 0 0 0 0 0 0 0 0 0 0 0 0 0 0 0 0 0 0 0 0 0 0 0 0 0 0 0 0 0 0 0 0 0 0 0 0 0 0 0 0 0 0 0 0 0 0 0 0 0 0 0 0 0 0 0 0 0 0 0 0 0 0 0 0 0 0 0 0 0 0 0 0 0 0 0 0 0 0 0 1314 1501 1388 1362 1362 1415 1388 1338 1388 0 0 0 0 0 529 490 462 462 462 462 0 0 0 0 1187 1226 1187 1206 1187 1206 1226 1206 1187 1168 1168 1168 1132 1187 1082 1051 1036 1036 981 994 1008 994 994 994 994 1008 994 1008 1008 1008 1008 994 994 994 981 981 994 968 919 908 886 897 876 886 931 0 0 0 0 0 0 0 0 0 0 0 0 0 0 0 0 0 0 0 0 0 0 0 0 0 0 0 0 0 0 0 0 0 0 0 0 0 237 0 0 0 0 0 0 0 0 0 0
    0 0 0 0 0 0 0 0 0 0 0 0 0 0 0 0 0 0 0 0 0 0 0 0 0 0 0 0 0 0 0 0 0 0 0 0 0 0 0 0 0 0 0 0 0 0 0 0 0 0 0 0 0 0 0 0 0 0 0 0 0 0 0 0 0 0 0 0 0 0 0 0 0 0 0 0 0 0 0 0 0 0 0 0 0 0 0 0 0 0 0 0 0 0 0 0 0 0 0 0 0 0 0 0 0 0 0 0 0 0 0 0 0 0 0 0 0 0 0 0 0 0 0 0 0 0 0 0 0 0 0 0 0 0 0 0 0 0 0 0 0 0 0 0 0 0 0 0 0 0 0 0 0 0 0 0 0 0 0 0 0 0 0 0 0 0 0 0 0 0 0 0 0 0 0 0 0 0 0 0 0 0 0 0 0 0 0 0 0 0 0 0 0 0 0 0 0 0 0 0 0 0 0 0 0 0 0 0 0 0 0 0 0 0 0 0 0 0 0 0 0 0 0 0 0 0 0 1226 1226 1187 1206 1187 1187 1206 1187 1168 1149 1149 1149 1098 1098 1082 1008 1008 994 931 955 981 981 981 968 981 981 981 994 994 994 994 994 981 981 968 968 955 931 876 876 855 855 0 0 0 0 0 0 0 0 0 0 0 0 263 262 264 0 279 0 0 0 0 286 0 0 0 0 0 0 0 0 0 0 0 0 0 0 0 0 0 0 0 0 0 0 0 0 0 0 0 0 0
    0 0 0 0 0 0 0 0 0 0 0 0 0 0 0 0 0 0 0 0 0 0 0 0 0 0 0 0 0 0 0 0 0 0 0 0 0 0 0 0 0 0 0 0 0 0 0 0 0 0 0 0 0 0 0 0 0 0 0 0 0 0 0 0 0 0 0 0 0 0 0 0 0 0 0 0 0 0 0 0 0 0 0 0 0 0 0 0 0 0 0 0 0 0 0 0 0 0 0 0 0 0 0 0 0 0 0 0 0 0 0 0 0 0 0 0 0 0 0 0 0 0 0 0 0 0 0 0 0 0 0 0 0 0 0 0 0 0 0 0 0 0 0 0 0 0 0 0 0 0 0 0 0 0 0 0 0 0 0 0 0 0 0 0 0 0 0 0 0 0 0 0 0 0 0 0 0 0 0 0 0 0 0 0 0 0 0 0 0 0 0 0 0 0 0 0 0 0 0 0 0 0 0 0 0 0 0 0 0 0 0 0 0 0 0 0 0 0 0 0 0 0 0 0 0 0 0 0 0 1187 1187 1187 1187 1187 1168 1168 1149 1132 1132 1098 1082 1051 1022 994 981 908 931 968 968 968 968 981 981 968 981 981 981 981 968 968 955 931 931 897 897 865 855 0 0 0 0 0 0 0 0 0 0 0 0 266 268 266 264 264 271 274 271 0 258 0 0 268 264 0 0 0 0 0 0 0 0 0 0 0 0 0 0 0 0 0 0 0 0 0 0 0 0 0 0 0
    0 0 0 0 0 0 0 0 0 0 0 0 0 0 0 0 0 0 0 0 0 0 0 0 0 0 0 0 0 0 0 0 0 0 0 0 0 0 0 0 0 0 0 0 0 0 0 0 0 0 0 0 0 0 0 0 0 0 0 0 0 0 0 0 0 0 0 0 0 0 0 0 0 0 0 0 0 0 0 0 0 0 0 0 0 0 0 0 0 0 0 0 0 0 0 0 0 0 0 0 0 0 0 0 0 0 0 0 0 0 0 0 0 0 0 0 0 0 0 0 0 0 0 0 0 0 0 0 0 0 0 0 0 0 0 0 0 0 0 0 0 0 0 0 0 0 0 0 0 0 0 0 0 0 0 0 0 0 0 0 0 0 0 0 0 0 0 0 0 0 0 0 0 0 0 0 0 0 0 0 0 0 0 0 0 0 0 0 0 0 0 0 0 0 0 0 0 0 0 0 0 0 0 0 0 0 0 0 0 0 0 0 0 0 0 0 0 0 0 0 0 0 0 0 0 0 0 0 0 0 1149 1149 1149 1149 1132 1149 1149 1115 1115 1082 1082 1051 1022 1008 994 908 931 955 968 968 968 981 981 955 968 968 955 955 943 931 931 897 897 0 0 0 0 0 0 0 0 0 0 0 0 0 0 257 0 270 269 266 266 271 277 277 276 269 0 0 0 270 263 0 0 0 0 285 284 0 0 0 0 0 0 283 0 0 0 0 0 0 0 0 0 0 0 0 0 0
    0 0 0 0 0 0 0 0 0 0 0 0 0 0 0 0 0 0 0 0 0 0 0 0 0 0 0 0 0 0 0 0 0 0 0 0 0 0 0 0 0 0 0 0 0 0 0 0 0 0 0 0 0 0 0 0 0 0 0 0 0 0 0 0 0 0 0 0 0 0 0 0 0 0 0 0 0 0 0 0 0 0 0 0 0 0 0 0 0 0 0 0 0 0 0 0 0 0 0 0 0 0 0 0 0 0 0 0 0 0 0 0 0 0 0 0 0 0 0 0 0 0 0 0 0 0 0 0 0 0 0 0 0 0 0 0 0 0 0 0 0 0 0 0 0 0 0 0 0 0 0 0 0 0 0 0 0 0 0 0 0 0 0 0 0 0 0 0 0 0 0 0 0 0 0 0 0 0 0 0 0 0 0 0 0 0 0 0 0 0 0 0 0 0 0 0 0 0 0 0 0 0 0 0 0 0 0 0 0 0 0 0 0 0 0 0 0 0 0 0 0 0 0 0 0 0 0 0 0 0 0 1149 1132 1132 1132 1132 1132 1115 1115 1082 1082 1051 1036 1022 994 908 908 931 955 943 943 955 955 919 931 919 908 908 897 886 886 876 0 0 0 0 0 0 0 0 0 0 0 0 0 0 251 260 263 270 272 269 271 272 276 275 275 273 265 0 0 267 0 0 0 0 0 0 290 288 289 287 0 0 0 0 0 0 0 0 0 0 0 0 0 0 0 0 0 0
    0 0 0 0 0 0 0 0 0 0 0 0 0 0 0 0 0 0 0 0 0 0 0 0 0 0 0 0 0 0 0 0 0 0 0 0 0 0 0 0 0 0 0 0 0 0 0 0 0 0 0 0 0 0 0 0 0 0 0 0 0 0 0 0 0 0 0 0 0 0 0 0 0 0 0 0 0 0 0 0 0 0 0 0 0 0 0 0 0 0 0 0 0 0 0 0 0 0 0 0 0 0 0 0 0 0 0 0 0 0 0 0 0 0 0 0 0 0 0 0 0 0 0 0 0 0 0 0 0 0 0 0 0 0 0 0 0 0 0 0 0 0 0 0 0 0 0 0 0 0 0 0 0 0 0 0 0 0 0 0 0 0 0 0 0 0 0 0 0 0 0 0 0 0 0 0 0 0 0 0 0 0 0 0 0 0 0 0 0 0 0 0 0 0 0 0 0 0 0 0 0 0 0 0 0 0 0 0 0 0 0 0 0 0 0 0 0 0 0 0 0 0 0 0 0 0 0 0 0 0 0 0 1132 1115 1115 1115 1115 1098 1115 1082 1082 1066 1051 1036 1008 943 943 943 955 931 919 908 908 876 876 865 855 865 865 865 0 0 0 0 0 0 0 0 0 0 0 260 258 258 259 253 0 264 271 275 275 274 276 276 278 276 0 0 0 0 0 0 0 0 0 0 0 0 0 0 0 0 0 0 238 0 0 0 0 0 0 0 0 0 0 0 0 0 0 0
    0 0 0 0 0 0 0 0 0 0 0 0 0 0 0 0 0 0 0 0 0 0 0 0 0 0 0 0 0 0 0 0 0 0 0 0 0 0 0 0 0 0 0 0 0 0 0 0 0 0 0 0 0 0 0 0 0 0 0 0 0 0 0 0 0 0 0 0 0 0 0 0 0 0 0 0 0 0 0 0 0 0 0 0 0 0 0 0 0 0 0 0 0 0 0 0 0 0 0 0 0 0 0 0 0 0 0 0 0 0 0 0 0 0 0 0 0 0 0 0 0 0 0 0 0 0 0 0 0 0 0 0 0 0 0 0 0 0 0 0 0 0 0 0 0 0 0 0 0 0 0 0 0 0 0 0 0 0 0 0 0 0 0 0 0 0 0 0 0 0 0 0 0 0 0 0 0 0 0 0 0 0 0 0 0 0 0 0 0 0 0 0 0 0 0 0 0 0 0 0 0 0 0 0 0 0 0 0 0 0 0 0 0 0 0 0 0 0 0 0 0 0 0 0 0 0 0 0 0 0 0 0 1115 1098 1098 1098 1098 1098 1098 1082 1066 1051 1036 1022 994 955 943 943 919 886 865 865 865 855 855 845 0 0 0 0 0 0 0 0 0 0 273 265 263 264 261 260 258 259 261 258 0 270 275 276 276 276 276 0 279 0 0 0 0 0 0 0 0 0 0 0 0 0 0 0 0 0 0 0 239 0 0 0 0 0 0 0 309 0 0 0 0 0 0 0
    0 0 0 0 0 0 0 0 0 0 0 0 0 0 0 0 0 0 0 0 0 0 0 0 0 0 0 0 0 0 0 0 0 0 0 0 0 0 0 0 0 0 0 0 0 0 0 0 0 0 0 0 0 0 0 0 0 0 0 0 0 0 0 0 0 0 0 0 0 0 0 0 0 0 0 0 0 0 0 0 0 0 0 0 0 0 0 0 0 0 0 0 0 0 0 0 0 0 0 0 0 0 0 0 0 0 0 0 0 0 0 0 0 0 0 0 0 0 0 0 0 0 0 0 0 0 0 0 0 0 0 0 0 0 0 0 0 0 0 0 0 0 0 0 0 0 0 0 0 0 0 0 0 0 0 0 0 0 0 0 0 0 0 0 0 0 0 0 0 0 0 0 0 0 0 0 0 0 0 0 0 0 0 0 0 0 0 0 0 0 0 0 0 0 0 0 0 0 0 0 0 0 0 0 0 0 0 0 0 0 0 0 0 0 0 0 0 0 0 0 0 0 0 0 0 0 0 0 0 0 0 0 0 1098 1098 1098 1098 1098 1082 1066 1066 1051 1036 1022 994 943 931 908 876 836 817 817 0 0 0 0 0 0 0 0 0 0 0 0 0 0 277 273 269 265 263 261 260 0 265 0 0 278 278 277 277 0 0 0 0 0 0 0 0 0 0 0 0 0 0 0 0 0 0 0 0 0 0 0 0 0 0 0 0 0 0 0 0 0 0 0 0 0 0 0</data></depth>
</opencv_storage>
