<?xml version="1.0"?>
<opencv_storage>
<gps_time_stamp>290193</gps_time_stamp>
<gps_x>-1.2359862327575684e+001</gps_x>
<gps_y>1.1118915557861328e+001</gps_y>
<gps_z>-2.2054767608642578e+000</gps_z>
<image_time_stamp>281056</image_time_stamp>
<depth type_id="opencv-matrix">
  <rows>83</rows>
  <cols>320</cols>
  <dt>s</dt>
  <data>
    0 0 0 0 0 0 0 0 0 0 0 0 0 0 0 0 0 0 0 0 0 0 0 0 0 0 0 0 0 0 0 0 0 0 0 0 0 0 0 0 0 0 0 0 0 0 0 0 0 0 0 0 0 0 0 0 0 0 0 0 0 0 0 0 0 0 0 0 0 1247 1291 1268 1268 1247 1268 1268 1268 1268 1314 1314 1314 1338 1388 1388 1415 1388 1362 1338 1338 0 0 0 0 0 0 0 0 1051 0 0 1036 1022 994 994 994 994 1008 0 1226 1247 1247 1226 1226 1149 1115 1149 1168 1051 1132 1115 1115 1132 1149 1187 1187 1168 1268 1268 1314 1314 1247 1247 1226 1206 1226 1168 1149 1168 1132 1187 1149 1149 1187 1149 1226 1187 1206 1206 1187 1187 1187 1168 1187 1149 1187 1115 1132 1132 1149 1149 1115 1098 1149 1082 1098 1115 1098 1115 1098 1115 1115 1082 1115 1132 1082 1115 1098 1098 1098 1115 1132 1115 1082 1132 1082 1082 1098 1082 1036 1066 1082 1132 1115 1168 1132 1082 1066 1051 1082 1066 1036 1098 1098 1082 1098 1115 1132 1115 1115 1206 1066 1066 1149 1036 1008 981 1036 1051 1149 1115 1149 1132 1149 1098 1149 1115 1098 1082 1082 1051 1036 1036 0 981 955 955 931 908 897 931 943 968 968 994 968 968 968 981 994 994 1008 1022 1022 1036 1051 1051 1036 1022 981 876 955 955 943 865 943 943 908 968 981 981 955 968 994 994 981 1036 968 931 931 0 0 0 0 0 0 0 0 0 0 0 0 0 0 0 0 0 0 0 0 0 0 0 0 0 0 0 0 0 0 0 0 0 0 0 0 0 0 0 0 0
    0 0 0 0 0 0 0 0 0 0 0 0 0 0 0 0 0 0 0 0 0 0 0 0 0 0 0 0 0 0 0 0 0 0 0 0 0 0 0 0 0 0 0 0 0 0 0 0 0 0 0 0 0 0 0 0 0 0 0 0 0 0 0 0 0 0 0 0 0 1168 1226 1206 1206 1206 1206 1226 1226 1226 1268 1268 1291 1338 1362 1388 1388 1362 1338 1314 1314 1247 1132 1066 0 0 0 0 0 0 0 0 1022 1008 994 1008 0 1008 0 0 0 0 0 1206 1206 1098 1066 1132 1132 1051 1132 1115 1115 1132 1149 1187 1168 1168 1268 1247 1291 1314 1247 1247 1226 1206 1226 1187 1168 1187 1149 1187 1149 1149 1187 1149 1206 1168 1206 1206 1187 1168 1187 1168 1187 1132 1187 1115 1132 1149 1149 1168 1132 1115 1168 1115 1132 1132 1132 1132 1115 1132 1132 1082 1115 1115 1082 1115 1098 1115 1098 1115 1168 1115 1098 1187 1132 1132 1149 0 0 1082 1082 1132 1149 1187 1168 1066 1051 1066 1082 1082 1051 1098 1098 1098 1098 1132 1149 1115 1115 1206 1066 1082 1132 1066 1036 994 1008 1036 1098 1098 1132 1132 1132 1098 1132 1115 1098 1082 1082 1051 1036 0 0 981 955 968 955 0 919 955 955 981 1008 0 994 981 981 1008 1022 1022 1036 1051 1036 1066 1051 1066 1036 1008 1008 886 968 968 955 865 943 943 919 968 981 981 955 968 1008 981 981 1022 968 919 931 0 0 0 0 0 0 0 0 0 0 0 0 0 0 0 0 0 0 0 0 0 0 0 0 0 0 0 0 0 0 0 0 0 0 0 0 0 0 0 0 0
    0 0 0 0 0 0 0 0 0 0 0 0 0 0 0 0 0 0 0 0 0 0 0 0 0 0 0 0 0 0 0 0 0 0 0 0 0 0 0 0 0 0 0 0 0 0 0 0 0 0 0 0 0 0 0 0 0 0 0 0 0 0 0 0 0 0 0 0 0 1206 1226 1206 1187 1187 1187 1187 1187 1187 1187 1187 1226 1291 1338 1362 1338 1338 1314 1268 1247 1187 1066 1051 1051 0 0 0 0 0 0 0 0 994 994 1008 0 0 0 0 0 0 0 0 1149 1066 1051 1115 1115 1051 1132 1115 1115 1132 1149 1187 1168 1168 1247 1226 1268 1291 1247 1247 1226 1206 1226 1187 1168 1187 1149 1187 1168 1149 1168 1149 1206 1132 1187 1206 1168 1168 1187 1168 1187 1149 1206 1115 1132 1168 1168 1168 1149 1132 1187 1132 1149 1168 1149 1149 1115 1149 1149 1082 1115 1115 1082 1098 1098 1098 1098 1098 1168 1132 1149 1247 1226 1226 0 0 0 1098 1066 1066 1082 1082 1098 1022 1036 1051 1082 1082 1036 1115 1098 1098 1098 1149 1132 1115 1115 1206 1082 1082 1132 1098 1066 1008 1008 1022 1066 1082 1115 1132 1132 1098 1132 1115 1098 1082 0 1051 0 0 0 968 943 955 943 0 908 931 955 981 0 1022 994 994 994 1008 1051 1022 1066 1082 0 1132 1082 1115 1066 1008 1022 0 968 968 955 865 943 955 931 968 994 981 955 968 1008 994 981 1022 968 919 931 0 0 0 0 0 0 0 0 0 0 0 0 0 0 0 0 0 0 0 0 0 0 0 0 0 0 0 0 0 0 0 0 0 0 0 0 0 0 0 0 0
    0 0 0 0 0 0 0 0 0 0 0 0 0 0 0 0 0 0 0 0 0 0 0 0 0 0 0 0 0 0 0 0 0 0 0 0 0 0 0 0 0 0 0 0 0 0 0 0 0 0 0 0 0 0 0 0 0 0 0 0 0 0 0 0 0 0 0 0 0 1247 1247 1226 1206 1226 1226 1226 1206 1206 1187 1187 1226 1291 1338 1338 1338 1314 1268 1247 1226 1187 1082 1066 1051 0 0 0 0 0 0 0 0 1008 1022 1115 0 0 0 0 0 0 0 0 1132 1051 1051 1115 1115 1051 1132 1115 1098 1132 1149 1187 1168 1168 1247 1206 1226 1291 1226 1268 1247 1247 1247 1206 1206 1206 1168 1226 1187 1168 1168 1149 1206 1115 1187 1187 1149 1149 1168 1168 1168 1132 1206 1115 1132 1187 1168 1149 1149 1132 1206 1187 1206 1206 1187 1206 1132 1168 1187 1082 1115 1115 1082 1098 1098 1098 1098 1098 1187 1149 1187 0 1314 0 0 0 0 1149 1066 1036 1036 1051 1051 1008 1036 1051 1082 1082 1051 1115 1115 1098 1115 1132 1132 1115 1115 1226 1082 1082 1132 1149 1115 1051 1022 1051 1132 1066 1115 1115 1115 1098 1132 1115 1098 1082 0 1051 0 0 0 955 931 955 919 0 0 931 943 994 1022 1022 994 981 981 981 0 1008 0 0 0 0 1132 0 1115 1051 1036 0 981 968 968 865 943 955 931 981 994 994 968 981 1008 994 994 1022 968 919 931 0 0 0 0 0 0 0 0 0 0 0 0 0 0 0 0 0 0 817 0 0 0 0 0 0 0 0 0 0 0 0 0 0 0 0 0 0 0 0 0 0
    0 0 0 0 0 0 0 0 0 0 0 0 0 0 0 0 0 0 0 0 0 0 0 0 0 0 0 0 0 0 0 0 0 0 0 0 0 0 0 0 0 0 0 0 0 0 0 0 0 0 0 0 0 0 0 0 0 0 0 0 0 0 0 0 0 0 0 0 0 0 1268 1268 1247 1268 1268 1247 1206 1206 1206 1206 1247 1291 1338 1338 1338 1314 1291 1247 1226 1187 1115 1098 1066 1022 0 0 0 0 0 0 0 0 1082 1187 0 0 0 0 1291 0 0 0 1132 1051 1051 1132 1132 1066 1132 1115 1115 1132 1149 1187 1149 1149 1226 1168 1206 1268 1226 1268 1291 1314 1291 1247 1268 1268 1226 1291 1247 1206 1149 1168 1206 1098 1168 1168 1132 1149 1168 1168 1168 1132 1226 1098 1132 1206 1149 1115 1132 1149 1206 1247 1226 1247 1206 1247 1115 1168 1187 1066 1115 1115 1098 1098 1098 1098 1098 1098 1187 1149 1206 1752 1599 1752 0 0 0 0 1066 0 0 1036 1036 981 1036 1051 1066 1066 1036 1115 1115 1098 1098 1132 1132 1115 1115 1226 1098 1098 1132 1168 1149 1149 1066 1082 1082 1066 1098 1098 1098 1098 1115 1098 1098 1082 1066 1036 1008 1008 968 943 919 931 908 0 0 0 0 0 0 1036 1008 994 994 994 1036 1008 1082 0 0 0 1187 0 0 1098 1051 0 994 981 968 876 955 968 943 981 994 994 968 981 1008 994 994 1008 968 919 919 0 0 0 0 0 0 0 0 0 0 0 0 0 0 0 0 0 808 799 826 0 0 0 0 0 0 0 0 0 0 0 0 0 0 0 0 0 0 0 0 0
    0 0 0 0 0 0 0 0 0 0 0 0 0 0 0 0 0 0 0 0 0 0 0 0 0 0 0 0 0 0 0 0 0 0 0 0 0 0 0 0 0 0 0 0 0 0 0 0 0 0 0 0 0 0 0 0 0 0 0 0 0 0 0 0 0 0 0 0 0 0 0 1314 1268 1291 1268 1247 1206 1206 1187 1187 1187 1247 1291 1291 1314 1314 1268 1247 1226 1206 1149 1115 1082 0 0 0 0 0 0 0 0 0 0 0 0 0 0 0 0 0 0 0 1115 1066 1051 1132 1132 1066 1149 1132 1115 1149 1149 1187 1149 1149 1226 1149 1168 1268 1206 1291 1338 1362 1362 1338 1443 1338 1338 1338 1291 1268 1132 1168 1206 1082 1168 1149 1132 1149 1149 1168 1132 1132 1226 1066 1098 1206 0 0 0 1149 1168 1291 1291 1338 1338 1314 1115 1168 1187 1066 1115 1115 1098 1098 1098 1115 1098 1098 1206 1149 0 1795 1711 0 0 2628 3066 0 0 0 0 0 1008 968 1036 1051 1082 1082 1036 1115 1115 1098 1098 1132 1132 1115 1115 1226 1098 1098 1115 1187 1168 1187 0 1066 1022 1036 1066 1066 1066 1082 1082 1066 1082 1066 1051 1008 994 994 955 931 931 943 919 0 0 0 0 0 0 1066 1036 1022 1036 1008 1082 1022 1115 0 0 0 1226 1226 1187 1132 1066 0 994 994 981 876 955 968 955 994 1008 1008 981 981 1022 994 994 1008 981 919 931 0 994 886 0 0 0 0 0 0 0 0 0 0 0 0 0 0 799 799 826 0 0 0 0 0 0 0 0 0 0 0 0 0 0 0 0 0 0 0 0 0
    0 0 0 0 0 0 0 0 0 0 0 0 0 0 0 0 0 0 0 0 0 0 0 0 0 0 0 0 0 0 0 0 0 0 0 0 0 0 0 0 0 0 0 0 0 0 0 0 0 0 0 0 0 0 0 0 0 0 0 0 0 0 0 0 0 0 0 0 0 0 0 0 1291 1314 1268 1247 1206 1187 1132 1066 1066 1132 1132 1066 1206 1247 0 0 0 0 0 0 0 0 0 0 0 0 0 0 0 0 0 0 0 0 0 0 0 0 0 0 0 1051 1051 1132 1132 1082 1149 1149 1098 1149 1149 1187 1149 1149 1226 1149 1149 1268 1187 1314 1388 1415 1443 1471 1565 1443 1443 1471 1415 1314 1082 1149 1187 1066 1149 1132 1115 1132 1132 1149 1132 1115 1226 1066 1132 1226 0 0 0 1168 1226 1291 1314 1388 1533 1362 1132 1206 1206 1066 1132 1115 1098 1098 1098 1115 1098 1098 1206 1149 1226 1795 1711 1752 0 0 2725 0 0 0 0 0 1022 981 1022 1066 1098 1098 1051 1115 1115 1115 1115 1132 1132 1115 1115 1226 1115 1098 1132 1206 1187 0 0 0 1036 1036 1066 1066 1066 1082 1082 1051 1066 1066 1036 1022 1008 994 955 943 955 955 0 0 0 0 0 0 0 1082 1051 1036 1051 0 0 0 0 0 0 0 0 0 0 1149 1066 0 1008 994 994 886 968 981 968 994 1008 1008 981 994 1022 994 994 1008 981 931 943 1066 994 897 0 0 0 0 0 0 0 0 0 0 0 0 0 0 782 766 808 0 0 0 0 0 0 0 0 0 0 0 0 0 0 0 0 0 0 0 0 0
    0 0 0 0 0 0 0 0 0 0 0 0 0 0 0 0 0 0 0 0 0 0 0 0 0 0 0 0 0 0 0 0 0 0 0 0 0 0 0 0 0 0 0 0 0 0 0 0 0 0 0 0 0 0 0 0 0 0 0 0 0 0 0 0 0 0 0 0 0 0 0 0 1314 1362 1268 1247 1132 0 0 1008 1008 0 1022 0 0 1226 0 0 0 0 0 0 0 0 0 0 0 0 0 0 0 0 0 0 1268 1268 0 0 0 0 0 0 1066 1051 1051 1132 1132 1082 1149 1149 1115 1149 1149 1187 1149 1149 1226 1168 1168 1268 1206 1338 1388 1443 1471 1533 1635 1599 1711 1635 1599 0 0 1115 1168 1051 1149 1115 1115 1132 1132 1149 1132 1115 1226 1066 1149 0 0 0 0 0 0 0 1314 1415 1635 1362 1115 1206 1206 1082 1115 1115 1098 1115 1115 1115 1098 1098 1206 1168 1226 1711 1599 1565 1599 0 0 0 0 0 0 0 1022 981 1022 1082 1098 1098 1051 1115 1115 1115 1098 1132 1115 1115 1115 1247 1115 1098 1132 1187 1187 0 1132 0 1051 1051 1066 1082 1082 1082 1082 1051 1066 0 1036 1022 994 994 955 943 968 955 931 0 0 0 0 0 1149 1115 1066 1066 1066 0 0 0 0 0 0 0 1247 0 0 1187 1066 0 1008 994 994 886 981 994 981 1008 1008 1008 981 994 1022 994 994 1008 981 943 943 1066 994 897 0 0 0 0 0 0 0 0 0 0 0 0 0 0 758 735 750 0 0 0 0 0 0 0 0 0 0 0 0 0 0 0 0 0 0 0 0 0
    0 0 0 0 0 0 0 0 0 0 0 0 0 0 0 0 0 0 0 0 0 0 0 0 0 0 0 0 0 0 0 0 0 0 0 0 0 0 0 0 0 0 0 0 0 0 0 0 0 0 0 0 0 0 0 0 0 0 0 0 0 0 0 0 0 0 0 0 0 0 0 0 0 1471 1314 1268 0 0 0 0 0 0 0 0 0 1247 0 0 0 0 0 0 0 0 0 0 0 0 0 0 0 0 0 1268 1268 1247 1247 1226 0 0 0 0 1051 1051 1051 1132 1149 1082 1149 1149 1115 1149 1149 1187 1149 1149 1226 1168 1168 1268 1226 1362 1388 1443 1501 1565 1672 1752 1839 1795 0 0 0 1115 1168 1051 1132 1115 1115 1115 1115 1132 1115 1115 1226 1066 1149 0 0 0 0 0 0 0 1443 1599 1795 1388 1132 1226 1226 1082 1115 1115 1098 1098 1115 1115 1098 1098 1187 1168 1268 1565 1471 1471 1471 1338 1443 0 0 0 1051 1036 1066 994 1022 1132 1132 1149 1051 1115 1115 1115 1098 1132 1082 1098 1098 1226 1132 1115 1132 1187 0 0 0 0 0 1036 1066 1066 1066 1066 1051 1022 0 0 1008 1008 968 981 955 955 1008 981 994 1051 1051 1036 1082 1115 1132 1115 1098 1082 1098 0 0 0 0 0 0 0 0 0 0 1149 1066 0 1008 994 994 897 981 994 994 994 1008 1008 981 994 1008 994 994 994 994 955 943 1036 981 876 0 0 0 0 0 0 0 0 0 0 0 0 0 0 750 743 750 0 0 0 0 0 0 0 0 0 0 0 0 0 0 0 0 0 0 0 0 0
    0 0 0 0 0 0 0 0 0 0 0 0 0 0 0 0 0 0 0 0 0 0 0 0 0 0 0 0 0 0 0 0 0 0 0 0 0 0 0 0 0 0 0 0 0 0 0 0 0 0 0 0 0 0 0 0 0 0 0 0 0 0 0 0 0 0 0 0 0 0 0 0 1533 1533 1362 1314 0 0 0 0 0 0 994 0 0 0 0 0 0 0 0 0 0 0 0 0 0 0 0 0 0 0 0 1291 1268 1247 1226 0 0 0 0 0 0 1036 1051 1132 1149 1082 1149 1149 1115 1149 1149 1187 1149 1149 1226 1168 1168 1247 1226 1314 1314 1362 1388 1443 1672 1795 0 0 0 0 721 1115 1149 1036 1132 1115 1115 1115 1115 1132 1115 1115 1206 1082 1149 0 0 0 0 0 0 0 0 0 1887 1443 0 1247 1247 1098 1115 1115 1098 1098 1115 1115 1115 1098 1168 1187 1291 1443 1415 1443 1471 1443 1501 1635 1533 0 1206 1115 1168 1149 1036 1187 1187 1187 1066 1098 1098 1098 1082 1115 1066 1082 1082 1206 1132 1115 1132 1187 0 0 0 0 0 0 0 0 1036 1036 1022 981 0 1008 981 981 943 955 943 968 1036 994 1022 1051 1066 1066 1098 1132 1149 1115 1115 1098 1132 1115 0 0 0 0 1268 0 1247 0 0 1082 0 0 1008 994 981 897 981 994 994 994 1008 1008 981 981 1008 994 981 981 994 955 955 1008 981 897 0 0 0 0 0 0 0 0 0 0 0 0 0 0 0 750 750 728 0 0 0 0 0 0 0 0 0 0 0 0 0 0 0 0 0 0 0 0
    0 0 0 0 0 0 0 0 0 0 0 0 0 0 0 0 0 0 0 0 0 0 0 0 0 0 0 0 0 0 0 0 0 0 0 0 0 0 0 0 0 0 0 0 0 0 0 0 0 0 0 0 0 0 0 0 0 0 0 0 0 0 0 0 0 0 0 0 0 0 0 1711 1635 1565 1362 1314 0 0 0 0 0 981 943 0 0 0 0 0 0 0 0 0 0 0 0 0 0 0 0 0 0 0 0 0 1247 1206 1187 0 0 0 0 0 0 1036 1051 1149 1149 1098 1149 1149 1115 1149 1149 1187 1149 1149 1226 1168 1168 1247 1226 1291 1268 0 0 0 0 0 0 0 0 0 735 1115 1168 1036 1132 1115 1115 1115 1132 1132 1115 1115 1206 1098 1187 0 0 0 0 0 0 0 0 2453 1936 1533 0 1291 1247 1115 1082 1115 1098 1098 1115 1115 1115 1098 1149 1206 1314 1388 1388 1415 1443 1471 1565 1711 1599 0 1314 0 0 0 1036 1187 1187 1187 1066 1082 1082 1082 1066 1082 1036 1051 1051 1187 1132 1115 1132 1187 0 0 0 0 0 0 0 0 0 1036 0 0 0 1008 968 968 919 908 931 968 1036 981 994 1022 1051 1066 1098 1132 1132 1115 1132 1115 1149 0 0 0 0 0 0 0 0 1066 0 1066 0 0 1008 994 994 908 981 994 994 981 994 994 981 981 994 981 968 981 994 955 955 1008 981 919 943 0 0 0 0 0 0 0 0 0 0 0 0 0 0 0 0 0 0 0 0 0 0 0 0 0 0 0 0 0 0 0 0 0 0 0 0 0
    0 0 0 0 0 0 0 0 0 0 0 0 0 0 0 0 0 0 0 0 0 0 0 0 0 0 0 0 0 0 0 0 0 0 0 0 0 0 0 0 0 0 0 0 0 0 0 0 0 0 0 0 0 0 0 0 0 0 0 0 0 0 0 0 0 0 0 0 0 0 1936 1795 1795 1672 1443 0 0 0 0 1008 919 943 897 0 0 0 0 0 0 0 0 0 0 0 170 0 0 0 0 0 0 1247 1247 1247 1226 1168 1168 1115 0 0 0 0 1036 1051 1066 1149 1149 1098 1149 1149 1132 1149 1149 1187 1149 1149 1226 1168 1168 1247 1226 1291 0 0 0 0 0 0 0 0 0 0 758 0 1149 1036 1115 1098 1115 1115 1132 1132 1132 1115 1206 1098 1187 0 0 0 0 0 0 0 0 2628 1936 1565 0 0 1206 1115 1082 1115 1115 1115 1115 1132 1132 1132 1168 1226 0 1338 1314 1415 1388 1415 1599 0 0 0 0 0 0 0 0 1168 1168 1168 1051 1051 1051 1051 1036 1051 1022 1036 1036 1098 1098 1098 1132 1187 1168 0 0 0 0 0 0 0 0 1051 0 0 0 0 981 994 943 919 943 994 1036 968 968 1008 1051 1082 1115 1168 1168 1149 1168 1149 1187 0 0 0 855 886 876 0 0 1036 0 1051 0 0 1008 994 994 919 981 994 994 968 994 981 968 968 981 981 968 968 994 955 955 0 994 919 0 0 0 0 0 0 0 0 0 0 0 0 0 0 0 0 0 0 0 0 0 0 0 0 0 0 0 0 0 0 0 0 0 0 0 0 0 0
    0 0 0 0 0 0 0 0 0 0 0 0 0 0 0 0 0 0 0 0 0 0 0 0 0 0 0 0 0 0 0 0 0 0 0 0 0 0 0 0 0 0 0 0 0 0 0 0 0 0 0 0 0 0 0 0 0 0 0 0 0 0 0 0 0 0 0 0 0 0 1936 1752 0 0 0 0 0 0 0 981 0 919 876 886 0 0 0 0 0 0 0 0 0 0 0 0 0 0 0 0 0 1226 1206 1226 1206 1115 1132 1098 0 0 1022 1036 1022 1051 1066 1149 1149 1098 1149 1149 1132 1149 1149 1206 1149 1149 1226 1168 1168 1226 1247 0 0 0 0 0 0 0 0 0 0 808 799 0 1115 1036 1115 1098 1115 1115 1115 1132 1132 1115 1206 1098 1206 0 0 0 8177 5661 0 0 0 0 0 0 0 0 1168 1098 1098 1132 1115 1132 1132 1149 1149 1149 1187 1226 0 0 0 0 0 0 0 3066 0 0 0 0 0 0 0 1149 1149 1168 1051 1036 1036 1036 1022 1022 994 1008 1008 1008 1082 1082 1098 1168 1132 0 0 0 0 0 0 0 1115 0 0 0 0 1022 981 994 943 886 955 1022 1051 994 994 1022 1066 1098 1132 1168 1187 1149 1168 1115 1168 1132 0 0 919 981 0 0 0 1036 1051 1051 0 0 1008 1008 994 943 968 994 994 955 981 981 955 968 981 968 955 955 994 955 955 0 0 0 0 0 0 0 6690 0 0 0 0 0 0 0 0 0 0 0 0 0 0 0 0 0 0 0 0 0 0 0 0 0 0 0 0 0 0 0 0 0
    0 0 0 0 0 0 0 0 0 0 0 0 0 0 0 0 0 0 0 0 0 0 0 0 0 0 0 0 0 0 0 0 0 0 0 0 0 0 0 0 0 0 0 0 0 0 0 0 0 0 0 0 0 0 0 0 0 0 0 0 0 0 0 0 0 0 0 0 0 0 1795 1672 0 0 0 0 0 0 0 0 0 0 908 0 0 0 0 0 0 0 0 0 0 0 0 0 0 0 0 0 0 1226 1206 1226 1206 1115 1115 0 0 0 1008 1022 1022 1051 1066 1149 1149 1098 1149 1149 1132 1149 1149 1206 1149 1149 1247 1168 1168 1226 1247 0 0 5661 4906 4329 3873 0 0 0 0 0 836 886 1115 1036 1115 1098 1115 1115 1115 1115 1132 1098 1206 1115 0 0 0 8177 7359 4329 4329 0 0 0 0 0 0 0 1149 1098 1098 1132 1115 1115 1115 1132 1149 1132 1187 1206 1187 0 0 0 0 0 0 3504 3504 0 0 0 0 0 0 1132 1132 1132 1051 994 1008 1008 1008 1008 981 981 994 994 1082 1066 1098 1149 1115 0 0 0 0 0 0 0 0 0 0 0 0 994 981 0 955 0 0 1098 1115 1036 1051 1036 1066 1082 1098 1149 1149 1098 1149 1115 1168 1115 0 0 845 0 0 0 0 876 0 0 0 0 1008 1008 1008 955 968 994 994 943 968 968 955 955 968 968 943 943 994 955 955 0 0 0 0 0 6133 7359 5661 6690 0 0 0 0 0 0 0 443 0 0 0 0 0 0 0 0 0 0 0 0 0 0 0 0 0 0 0 0 0 0 0 0
    0 0 0 0 0 0 0 0 0 0 0 0 0 0 0 0 0 0 0 0 0 0 0 0 0 0 0 0 0 0 0 0 0 0 0 0 0 0 0 0 0 0 0 0 0 0 0 0 0 0 0 0 0 0 0 0 0 0 0 0 0 0 0 0 0 0 0 0 0 1752 1752 1672 0 0 0 0 0 0 0 0 0 0 0 0 0 0 0 0 0 0 0 0 0 0 0 0 0 0 0 0 0 1268 1226 1247 1226 1132 0 0 0 0 994 1008 1022 1036 1051 1132 1132 1098 1149 1149 1132 1132 1149 1206 1149 1149 1247 1168 1168 1206 1268 0 0 6133 6133 5661 5256 5256 0 3873 0 0 855 886 1132 1036 1098 1082 1115 1115 1115 1115 1132 1098 1206 1132 0 6690 6690 4906 5661 3873 0 0 0 0 0 0 0 0 1132 1082 1082 1115 1098 1115 1115 1115 1132 1115 1149 0 0 0 0 0 0 0 0 3873 4088 3679 0 0 156 0 0 1098 1115 1115 1036 943 994 994 981 981 968 968 968 968 1082 1082 1132 1168 1132 1149 0 0 0 0 0 0 0 0 0 0 0 0 0 1082 0 0 1168 1149 1149 1066 1066 1036 1051 1066 1066 1082 1082 1051 1066 1051 1082 1036 0 0 0 817 817 808 808 855 0 0 0 0 994 1008 994 968 955 994 994 931 968 955 943 943 955 968 931 931 994 955 955 0 0 0 3504 3679 4906 5661 5256 5256 0 0 0 0 0 0 0 0 0 0 0 0 0 0 0 0 0 0 0 0 0 0 0 0 0 0 0 0 0 0 0 0
    0 0 0 0 0 0 0 0 0 0 0 0 0 0 0 0 0 0 0 0 0 0 0 0 0 0 0 0 0 0 0 0 0 0 0 0 0 0 0 0 0 0 0 0 0 0 0 0 0 0 0 0 0 0 0 0 0 0 0 0 0 0 0 0 0 0 0 0 0 1752 1711 1599 0 0 0 0 0 0 0 0 0 0 0 1036 0 0 0 0 0 0 0 0 0 0 0 0 0 0 0 0 0 0 1247 0 1226 1149 1132 1098 0 0 994 994 1008 1036 1051 1132 1132 1082 1149 1149 1149 1132 1149 1206 1149 1149 1247 1149 1149 1168 1268 0 0 6690 6690 0 5661 0 6133 3679 0 0 0 1022 1132 1051 1115 1098 1115 1115 1115 1132 1149 1115 1206 1149 0 8177 7359 6133 5661 4329 0 0 0 0 0 0 981 1036 1115 1082 1082 1115 1082 1098 1098 1098 1098 1082 1132 0 0 0 0 0 0 0 4329 3873 3873 3873 3873 3199 0 0 0 1066 1082 1082 1036 897 968 968 968 968 968 955 955 968 1082 1082 1115 1149 1098 1149 0 0 0 0 0 0 0 0 0 0 0 0 0 0 0 0 1226 1187 1187 1098 1066 1051 1066 1066 1051 1066 1082 1036 1051 1051 1051 0 0 0 826 826 817 817 0 919 955 1022 981 968 994 1008 994 981 931 981 981 919 955 955 943 943 955 955 931 931 994 943 943 0 0 0 0 4088 6133 6690 0 0 0 0 0 0 0 0 0 0 0 0 0 0 0 0 0 0 0 0 0 0 0 0 0 0 0 0 0 0 0 0 0 0
    0 0 0 0 0 0 0 0 0 0 0 0 0 0 0 0 0 0 0 0 0 0 0 0 0 0 0 0 0 0 0 0 0 0 0 0 0 0 0 0 0 0 0 0 0 0 0 0 0 0 0 0 0 0 0 0 0 0 0 0 0 0 0 0 0 0 0 0 0 0 1711 1599 0 0 0 0 0 0 0 0 0 1051 1022 1051 1051 0 0 0 0 0 0 0 981 0 0 0 0 0 0 0 0 0 1268 1291 1247 1168 1149 0 0 0 994 994 1008 1051 1051 1149 1149 1098 1149 1149 1149 1132 1149 1206 1149 1149 1247 1132 1132 1115 0 0 0 0 0 0 0 0 0 0 0 0 0 1036 1149 1051 1115 1098 1115 1115 1132 1132 1168 1132 1226 1149 0 0 0 8177 6690 5256 0 0 0 0 943 994 981 1022 1098 1066 1066 1098 1082 1082 1082 1082 1082 0 0 0 0 0 0 0 0 0 4906 4329 4599 4329 4088 3199 0 0 0 0 1036 1051 1022 876 955 955 955 955 955 943 943 955 1066 1066 1098 1115 0 0 0 0 0 0 0 0 0 0 0 0 0 0 0 0 0 0 1268 1206 1187 1115 1082 1082 1098 1098 1082 1082 1082 1051 1051 1051 1036 0 0 0 0 0 0 826 836 897 955 0 994 0 1008 1008 1008 994 919 981 981 908 955 943 931 931 943 955 919 919 981 943 943 968 0 0 0 0 0 0 0 0 931 931 0 0 0 0 0 0 0 0 0 0 0 0 0 0 0 0 0 0 0 0 0 0 0 0 0 0 0 0 0 0
    0 0 0 0 0 0 0 0 0 0 0 0 0 0 0 0 0 0 0 0 0 0 0 0 0 0 0 0 0 0 0 0 0 0 0 0 0 0 0 0 0 0 0 0 0 0 0 0 0 0 0 0 0 0 0 0 0 0 0 0 0 0 0 0 0 0 0 0 0 0 1752 1672 0 0 0 0 0 0 0 0 0 1051 1051 1066 1066 1051 0 1051 1036 0 0 0 981 981 0 0 0 0 0 0 0 0 1268 0 1268 1206 0 0 0 0 981 1008 1022 1066 1066 1149 1149 1098 1149 1149 1149 1149 1149 1206 1149 1132 1247 1132 1115 1115 0 0 0 0 0 0 0 0 0 0 0 1036 1022 1036 1132 1051 1115 1115 1115 1115 1132 1132 1168 1132 1226 1149 0 0 0 0 7359 5661 4599 0 0 0 0 981 968 1022 1115 1066 1066 1098 1082 1082 1082 1066 1082 1051 0 0 0 0 0 0 0 0 5661 5256 6133 5661 5256 3345 0 0 0 0 1008 1022 1022 876 955 955 943 955 968 943 943 955 1066 1066 1082 1115 0 0 0 0 0 0 0 0 0 0 0 0 0 0 0 0 968 0 1226 1206 1168 1098 1066 1082 1098 1098 1082 1082 1082 1066 1051 1066 1036 981 0 0 836 845 836 845 855 908 968 1008 994 0 1008 1022 1008 994 919 981 981 908 955 943 931 931 943 955 919 919 981 931 931 955 0 0 955 0 0 0 968 943 943 931 0 0 0 0 0 0 0 0 0 0 0 0 0 0 0 0 0 0 0 0 0 0 0 0 0 0 0 0 0 0
    0 0 0 0 0 0 0 0 0 0 0 0 0 0 0 0 0 0 0 0 0 0 0 0 0 0 0 0 0 0 0 0 0 0 0 0 0 0 0 0 0 0 0 0 0 0 0 0 0 0 0 0 0 0 0 0 0 0 0 0 0 0 0 0 0 0 0 0 0 1672 1711 1635 1711 0 0 0 0 0 0 0 0 1082 1082 1098 1082 0 0 0 1036 1022 994 994 968 955 955 931 968 981 1051 1132 0 0 0 0 0 0 0 0 0 0 0 1022 1022 1082 1066 1149 1149 1098 1149 1149 1168 1149 1149 1206 1149 1149 1247 1115 1115 1115 0 0 0 0 0 0 0 0 0 0 0 1008 0 1036 1132 1051 1115 1115 1115 1115 1132 1149 1168 1132 1247 0 0 8177 8177 0 7359 5661 4329 0 845 0 919 994 968 1022 1132 1066 1066 1098 1082 1082 1082 1082 1082 1051 0 0 0 0 0 0 0 0 6133 5661 6133 5661 5256 3504 0 0 0 0 981 1008 1008 876 943 955 943 955 968 943 943 955 1066 1066 1082 1115 0 0 0 0 0 0 0 0 0 0 0 0 0 0 0 0 955 0 1187 1149 1115 1098 1051 1082 1098 1082 1066 1066 1082 1066 1051 1082 1036 994 0 0 836 865 836 855 865 943 981 1036 1008 1008 1022 1036 1022 1008 919 981 981 908 955 943 931 919 943 955 919 919 981 919 931 943 994 0 955 0 0 981 968 955 955 931 0 0 0 0 0 0 0 0 0 0 0 0 0 0 0 0 0 0 0 0 0 0 0 0 0 0 0 0 0 0
    0 0 0 0 0 0 0 0 0 0 0 0 0 0 0 0 0 0 0 0 0 0 0 0 0 0 0 0 0 0 0 0 0 0 0 0 0 0 0 0 0 0 0 0 0 0 0 0 0 0 0 0 0 0 0 0 0 0 0 0 0 0 0 0 0 0 0 0 0 1635 1635 0 1635 0 0 0 0 0 0 0 1132 1132 1132 1132 1115 0 0 0 1051 0 0 994 968 968 981 0 1008 0 1098 1168 0 1314 0 0 1314 1291 1291 1388 0 0 1098 1051 1022 1098 1066 1149 1149 1098 1149 1149 1168 1149 1149 1206 1149 1149 1247 1132 1115 1115 0 0 0 0 0 0 0 0 0 0 0 0 0 1036 1115 1051 1115 1115 1115 1115 1132 1149 1168 1132 1247 0 0 8177 0 0 0 0 0 0 0 865 897 994 968 1036 1168 1066 1066 1115 1082 1082 1082 1082 1082 1066 0 0 0 0 0 0 0 0 6133 5661 6133 6133 5256 3679 0 0 0 259 0 994 994 876 943 943 943 955 968 955 955 955 1082 1082 1098 1168 0 0 0 0 0 0 0 0 0 0 0 0 0 0 0 0 0 0 0 0 1082 1115 1051 1082 1082 1051 1051 1051 1066 1051 1036 1051 1008 981 0 0 865 908 876 897 919 955 981 1036 1008 1008 1022 1022 1008 1008 908 981 981 908 955 943 931 919 943 955 919 919 981 931 919 943 994 0 968 0 994 981 981 968 955 931 0 0 0 0 0 0 0 0 0 0 0 0 0 0 0 0 0 0 0 0 0 0 0 0 0 0 0 0 0 0
    0 0 0 0 0 0 0 0 0 0 0 0 0 0 0 0 0 0 0 0 0 0 0 0 0 0 0 0 0 0 0 0 0 0 0 0 0 0 0 0 0 0 0 0 0 0 0 0 0 0 0 0 0 0 0 0 0 0 0 0 0 0 0 0 0 0 0 0 0 0 1565 0 0 0 0 0 0 0 0 0 1149 1149 1149 1149 1115 1098 0 0 1051 0 994 994 968 968 0 0 0 0 0 0 0 1338 0 0 1388 1362 1291 1415 1338 0 1149 1051 1022 1115 1066 1149 1149 1098 1149 1149 1149 1149 1149 1206 1149 1149 1247 1132 1115 1098 0 0 0 0 0 0 0 0 0 0 0 0 0 1036 1115 1051 1115 1115 1115 1115 1132 1149 1168 1132 1247 0 0 0 8177 0 7359 0 0 0 0 865 0 1008 994 1066 1226 1066 1082 1132 1098 1098 1098 1082 1082 0 0 0 0 0 0 0 0 0 6133 6133 6690 6133 5256 3873 0 0 0 0 943 981 994 876 943 943 943 955 981 955 955 968 1082 1082 1082 0 0 0 0 0 0 0 0 0 0 0 0 0 0 0 0 0 0 0 1247 1149 1115 1149 1066 1082 1066 1036 1036 1036 1036 1036 1022 1022 994 981 981 994 943 955 931 943 955 968 994 1022 1008 994 1022 1022 1008 1008 897 981 981 908 955 943 943 919 943 955 931 919 981 931 919 931 994 0 955 0 0 955 955 955 943 919 0 0 0 0 0 0 0 0 0 0 0 0 0 0 0 0 0 0 0 0 0 0 0 0 0 0 0 0 0 0
    0 0 0 0 0 0 0 0 0 0 0 0 0 0 0 0 0 0 0 0 0 0 0 0 0 0 0 0 0 0 0 0 0 0 0 0 0 0 0 0 0 0 0 0 0 0 0 0 0 0 0 0 0 0 0 0 0 0 0 0 0 0 0 0 0 0 0 0 0 0 0 0 1471 0 0 0 0 0 0 0 1149 1149 1149 1168 1132 0 0 0 1051 0 0 994 981 981 0 0 0 0 0 0 0 0 0 0 1443 1415 1314 1471 1362 1314 1187 1098 1036 1132 1066 1149 1149 1098 1149 1149 1149 1149 1149 1206 1149 1149 1247 1132 1082 1066 0 0 0 0 0 0 0 0 0 0 0 0 0 1036 1098 1051 1115 1115 1115 1115 1132 1149 1187 1149 1247 0 0 6690 6690 8177 6690 4906 0 0 0 0 0 0 0 1187 0 1082 1098 1149 1098 1098 1098 1082 1082 0 0 0 0 6133 6690 0 0 0 6133 0 0 0 5661 3873 0 0 0 0 931 981 994 876 943 943 943 955 981 968 968 968 1082 1082 1082 0 0 0 0 0 1989 2044 0 1989 0 0 0 0 0 0 0 0 0 0 1247 0 1132 1168 1066 1082 1051 1036 1022 1022 1036 1036 1022 1022 994 981 0 981 931 931 908 919 955 955 981 1008 994 994 1008 1008 1008 994 897 981 981 919 955 955 943 931 943 968 931 931 981 931 919 931 994 886 919 886 908 908 919 919 919 897 0 0 0 0 0 0 0 0 0 0 0 0 0 0 0 0 0 0 0 0 0 0 0 0 0 0 0 0 0 0
    0 0 0 0 0 0 0 0 0 0 0 0 0 0 0 0 0 0 0 0 0 0 0 0 0 0 0 0 0 0 0 0 0 0 0 0 0 0 0 0 0 0 0 0 0 0 0 0 0 0 0 0 0 0 0 0 0 0 0 0 0 0 0 0 0 0 0 0 0 968 0 0 0 0 0 0 0 1149 0 1149 1149 1168 1187 0 1149 0 0 0 0 0 0 994 968 981 0 0 0 0 0 0 0 0 0 0 0 1415 1338 1443 1338 0 1149 1098 1036 1132 1066 1149 1149 1098 1149 1149 1168 1168 1149 1206 1149 1149 1226 1149 1082 1066 0 0 0 0 0 0 0 0 0 0 0 0 0 0 1082 1036 1115 1115 1115 1115 1132 1149 1168 1149 1247 0 0 6133 6133 8177 6133 4906 0 149 0 0 0 0 0 0 0 1098 1115 1168 1115 1115 1115 1098 1082 1051 0 0 0 5661 0 0 0 0 6133 0 0 0 0 3679 0 0 0 743 943 981 1008 886 955 955 955 968 981 968 968 968 1098 1066 1082 0 0 0 0 0 0 0 0 1989 0 0 0 0 0 0 0 0 0 1036 1149 0 0 1066 1036 1066 1051 1036 1022 1036 1051 1051 1036 1036 1008 0 0 0 908 919 897 897 943 955 968 1008 981 994 994 1008 1008 994 897 981 981 919 955 955 955 931 955 968 943 931 981 931 919 919 994 886 919 886 908 897 908 0 908 0 0 0 0 0 0 0 0 0 0 0 0 0 0 0 0 0 0 0 0 0 0 145 0 0 0 0 0 0 0 0
    0 0 0 0 0 0 0 0 0 0 0 0 0 0 0 0 0 0 0 0 0 0 0 0 0 0 0 0 0 0 0 0 0 0 0 0 0 0 0 0 0 0 0 0 0 0 0 0 0 0 0 0 0 0 0 0 0 0 0 0 0 0 0 0 0 0 0 0 0 968 968 981 0 0 1008 0 1098 1098 1115 1149 1149 1168 1187 0 1132 0 0 0 0 0 0 1008 994 1008 0 0 0 0 0 0 0 0 0 0 0 1443 1388 1443 1362 0 1187 1149 0 1168 1082 1168 1149 1115 1149 1168 1168 1168 1149 1206 1149 1132 1226 1168 1082 1066 0 0 0 0 0 0 0 0 0 0 0 0 0 0 1082 1036 1115 1098 1115 1115 1115 1149 1168 1149 1268 0 5256 5661 5661 8177 6133 4599 0 149 0 0 0 0 0 0 0 0 0 0 1132 1132 1132 1115 1098 1066 1115 0 0 6133 0 0 0 0 6133 0 0 465 0 0 0 735 0 750 968 994 1022 897 955 968 968 981 994 981 981 981 1098 1051 1051 0 0 994 0 0 0 0 0 0 0 0 0 0 0 0 0 0 0 968 0 968 931 0 1008 1082 1066 1036 1051 1082 1082 1098 1066 1098 1051 1036 0 0 955 955 931 943 955 968 994 1008 981 994 994 1008 994 994 897 981 994 931 968 968 968 943 955 981 943 943 994 931 908 908 994 897 943 908 0 943 955 0 0 0 0 0 0 0 0 0 0 0 0 0 0 342 339 343 0 0 0 0 0 0 0 145 0 0 0 0 0 0 0 0
    0 0 0 0 0 0 0 0 0 0 0 0 0 0 0 0 0 0 0 0 0 0 0 0 0 0 0 0 0 0 0 0 0 0 0 0 0 0 0 0 0 0 0 0 0 0 0 0 0 0 0 0 0 0 0 0 0 0 0 0 0 0 0 0 0 0 0 0 0 968 955 968 981 994 1036 0 1149 1132 1132 1187 1187 1187 1206 0 0 0 0 0 0 0 0 0 0 0 0 0 0 0 0 0 0 0 0 0 0 1415 1388 1415 1362 1314 1226 1187 0 1187 1098 1168 1168 1115 1149 1168 1168 1168 1149 1206 1149 1132 1226 1168 1082 0 3873 3873 4599 0 0 7359 7359 0 0 0 0 0 0 0 1066 1036 1115 1098 1115 1098 1115 1132 1168 1149 1268 0 4906 4906 5256 7359 6133 4329 0 0 0 0 0 0 0 0 0 0 0 0 0 1132 1132 1115 1098 1066 0 0 0 5661 6690 0 0 0 6133 6133 0 0 0 0 0 743 721 0 994 1022 1022 919 981 981 981 994 1008 994 994 994 1115 1051 1051 0 981 981 968 981 981 0 0 0 0 1599 1565 0 0 0 0 0 1008 1008 1008 981 955 981 1008 1066 1066 0 0 1098 1082 1098 1082 1098 1051 1036 1036 1022 968 0 943 943 943 955 981 981 968 994 994 994 994 981 897 994 994 943 981 981 981 955 968 981 955 955 994 943 908 908 994 886 919 897 943 943 968 0 0 0 0 481 0 0 0 0 0 0 0 0 0 0 0 343 0 0 0 0 0 0 0 0 0 0 0 0 0 0 0 0
    0 0 0 0 0 0 0 0 0 0 0 0 0 0 0 0 0 0 0 0 0 0 0 0 0 0 0 0 0 0 0 0 0 0 0 0 0 0 0 0 0 0 0 0 0 0 0 0 0 0 0 0 0 0 0 0 0 0 0 0 0 0 0 0 0 0 0 0 0 0 0 0 0 0 1082 0 1206 1187 1168 1206 1206 1226 1226 0 0 0 0 0 0 0 0 0 0 0 0 0 0 0 0 0 0 0 0 0 0 0 1338 1388 1338 0 1247 1187 0 1168 1082 1168 1168 1115 1149 1168 1168 1168 1149 1206 1149 1149 1206 1187 1115 0 3873 3873 4599 0 6690 6690 6690 7359 0 0 0 0 0 0 1051 1022 1098 1082 1098 1098 1098 1115 1149 1132 1247 0 3679 3873 3679 4906 4599 3679 0 0 0 0 0 0 598 0 0 0 0 0 0 0 0 0 1115 1082 0 0 0 4599 5661 5661 4906 0 5661 4906 0 0 0 0 791 766 0 0 1036 1051 1036 955 1008 1008 1008 1008 1008 1008 994 1008 1132 1036 1036 0 994 994 994 1008 1008 0 0 0 0 1388 0 1247 1187 0 1149 0 1022 1008 994 968 943 955 981 1036 1051 0 0 0 1066 1082 1066 1082 1051 1036 1036 1036 994 0 955 943 931 955 981 0 943 994 994 994 1008 981 908 994 1008 968 994 1008 1008 968 981 994 968 955 994 943 908 908 981 886 886 886 0 0 0 0 0 0 474 481 0 0 0 0 0 0 0 0 0 0 0 0 0 0 0 0 0 0 0 0 0 0 0 0 0 0 0 0
    0 0 0 0 0 0 0 0 0 0 0 0 0 0 0 0 0 0 0 0 0 0 0 0 0 0 0 0 0 0 0 0 0 0 0 0 0 0 0 0 0 0 0 0 0 0 0 0 0 0 0 0 0 0 0 0 0 0 0 0 0 0 0 0 0 0 0 0 0 0 0 981 0 1008 1022 0 1132 1132 1149 1187 1206 1226 1247 0 0 0 0 0 0 0 0 0 0 0 0 0 0 0 0 0 0 0 0 0 0 0 0 0 0 0 1226 1168 0 1168 1082 1168 1168 1115 1132 1168 1168 1168 1149 1206 1149 1149 1206 1226 1149 0 3873 3873 4599 5661 6690 6690 6690 7359 7359 0 0 0 0 0 0 0 1082 1066 1082 1082 1082 1115 1132 1132 1247 0 0 3345 3066 3504 3504 3345 0 0 0 0 0 0 588 0 0 0 0 0 0 0 0 0 1132 1082 1168 0 0 3873 4329 4088 3873 3679 4599 3679 0 462 0 0 0 0 0 1036 1051 1066 1051 994 1022 1022 1022 1036 1022 1022 1008 1008 1149 1022 1036 0 994 994 994 1022 1008 0 0 0 1501 1415 1362 1268 1226 0 1168 1036 1036 994 981 955 919 897 943 955 981 0 0 0 1036 1051 1051 1051 1036 1036 1022 1022 994 0 955 943 943 955 968 931 931 981 981 981 994 968 919 1008 1022 981 1022 1022 1022 981 994 1008 981 968 1008 955 908 908 994 886 865 0 0 0 0 0 0 0 0 0 0 0 0 0 0 0 0 0 0 0 0 0 0 0 0 0 0 0 0 0 146 0 0 0 0 0 0 0
    0 0 0 0 0 0 0 0 0 0 0 0 0 0 0 0 0 0 0 0 0 0 0 0 0 0 0 0 0 0 0 0 0 0 0 0 0 0 0 0 0 0 0 0 0 0 0 0 0 0 0 0 0 0 0 0 0 0 0 0 0 0 0 0 0 0 0 0 0 0 955 943 955 968 968 981 1036 1051 1098 1168 1187 1206 1268 1338 0 0 0 0 0 169 0 0 0 0 0 0 0 0 0 0 0 0 0 0 112 112 0 0 0 0 1187 1132 0 1168 1066 1149 1149 1115 1132 1168 1168 1187 1149 1206 1168 1168 1226 1226 1187 0 3679 3873 4599 5661 6133 6133 6690 6690 6690 6133 0 0 0 0 0 0 0 1066 1082 1082 1082 1098 1132 1132 1247 0 0 0 2830 3066 2943 3066 0 0 0 0 0 0 584 0 0 0 153 0 0 0 0 0 1132 1098 1187 1051 4599 3679 3679 3679 3345 3199 3679 3199 0 0 0 994 1008 981 1036 1051 1051 1066 1051 1008 1051 1051 1036 1051 1036 1036 1036 1036 1168 1022 1022 0 994 994 1008 1066 0 0 0 1314 1471 1415 1388 1338 1268 1338 1247 0 1066 994 968 955 908 886 897 908 943 919 943 968 1022 1036 1022 1036 1022 1022 1008 994 981 0 955 943 943 955 968 943 943 981 981 981 981 955 919 1008 1022 994 1022 1022 1022 994 1008 1008 994 981 1008 968 919 908 994 897 855 0 0 0 0 0 0 0 0 0 0 0 0 0 350 0 0 0 0 0 343 0 0 0 0 0 0 0 0 0 0 497 490 0 0 0 0 0
    0 0 0 0 0 0 0 0 0 0 0 0 0 0 0 0 0 0 0 0 0 0 0 0 0 0 0 0 0 0 0 0 0 0 0 0 0 0 0 0 0 0 0 0 0 0 0 0 0 0 0 0 0 0 0 0 0 0 0 0 0 0 0 0 0 0 0 0 0 0 943 931 931 943 931 943 968 955 994 1022 1168 1247 1362 1415 0 0 0 0 0 0 0 0 0 0 0 0 0 0 0 0 0 0 0 0 112 111 0 0 0 0 0 0 0 1168 1066 1149 1149 1115 1132 1168 1168 1187 1149 1226 1168 1187 1226 1247 1206 0 3679 4088 4906 5661 5661 6133 6133 6133 6133 5661 0 0 0 0 0 0 0 0 1082 1082 1082 1098 1132 1132 1247 1187 0 0 0 2943 2943 3066 0 0 0 0 0 0 0 0 0 0 153 0 0 0 0 1149 1132 1098 1187 1051 0 0 0 0 0 0 0 0 0 1132 0 1066 1051 1036 1051 1066 1066 1082 1066 1022 1066 1066 1066 1066 1051 1051 1051 1051 1168 1022 1036 1051 1008 0 1051 1066 1082 0 0 0 1565 1471 1471 1362 1291 1362 0 0 1051 981 968 955 919 886 886 897 943 931 955 981 1022 1036 1036 1036 1036 1022 1008 994 981 0 955 955 943 955 955 931 943 981 968 968 968 943 919 1022 1022 1008 1022 1022 1022 1008 1008 1022 994 981 1008 968 919 919 994 908 855 0 0 0 817 0 0 0 0 0 446 0 0 0 0 0 0 0 0 0 0 0 0 0 0 0 0 0 0 0 0 500 490 0 0 0 0 0
    0 0 0 0 0 0 0 0 0 0 0 0 0 0 0 0 0 0 0 0 0 0 0 0 0 0 0 0 0 0 0 0 0 0 0 0 0 0 0 0 0 0 0 0 0 0 0 0 0 0 0 0 0 0 0 0 0 0 0 0 0 0 0 0 0 0 0 0 0 0 0 931 943 943 931 919 943 931 968 981 1115 1247 1338 1362 0 1388 1338 0 0 0 0 0 0 0 0 0 0 0 0 0 0 0 0 0 0 0 0 0 0 0 0 0 0 1168 1066 1168 1149 1115 1132 1168 1168 1187 1149 1226 1187 1206 1247 1247 1206 0 0 0 0 6133 5661 6133 5661 6133 5661 5661 0 138 0 0 0 0 0 0 1082 1082 1082 1098 1115 1115 1226 1168 0 0 2628 2943 2943 3066 0 0 0 0 0 0 0 0 0 0 0 0 0 0 1149 1149 1132 1098 1187 1066 0 0 0 0 0 0 0 1599 0 1187 1051 1115 1082 1051 1051 1082 1082 1082 1082 1036 1082 1082 1082 1098 1066 1066 1066 1082 1187 1036 1051 1066 1022 1066 1132 1098 1132 1066 1168 0 1711 1533 1795 1599 0 0 0 0 981 955 943 943 908 876 876 886 955 943 968 968 1036 1051 1051 1066 1051 1036 1022 1022 981 0 943 943 931 943 943 931 943 981 968 968 968 943 931 1022 1036 1022 1036 1036 1022 1008 1008 1022 994 994 994 981 931 919 994 931 865 0 0 855 845 826 0 0 0 0 0 0 0 0 0 0 0 0 0 0 0 0 0 0 0 0 0 0 0 0 0 0 493 0 0 0 0 0
    0 0 0 0 0 0 0 0 0 0 0 0 0 0 0 0 0 0 0 0 0 0 0 0 0 0 0 0 0 0 0 0 0 0 0 0 0 0 0 0 0 0 0 0 0 0 0 0 0 0 0 0 0 0 0 0 0 0 0 0 0 0 0 0 0 0 0 0 0 0 968 931 931 931 919 919 955 955 981 1008 1115 1149 1247 1247 1206 1314 1268 1291 0 0 0 0 0 0 0 0 0 0 0 0 0 0 0 0 0 0 0 0 0 0 0 0 0 1168 1051 1149 1149 1115 1132 1187 1168 1187 1149 1226 1187 1226 1247 1247 1226 1226 0 0 0 5661 5661 6133 5661 6133 5661 5661 0 137 0 0 0 0 0 0 1082 1082 1082 1098 1115 1115 1206 1132 0 0 0 0 2830 2725 0 0 0 0 0 0 0 0 153 0 0 0 0 1149 1149 1132 1132 1098 1187 1051 0 177 177 0 0 1338 0 1338 1247 1149 1051 1132 1115 1066 1066 1098 1098 1098 1098 1051 1098 1098 1098 1115 1082 1082 1082 1098 1206 1051 1066 1098 1082 1115 1168 1115 1149 1082 1187 1206 1388 0 0 0 0 0 1051 981 968 943 931 931 897 876 876 886 0 0 1008 981 1036 1051 1051 1066 1051 1022 0 0 0 0 0 931 919 931 943 943 955 981 968 981 968 955 943 1022 1036 1022 1022 1022 1022 1008 1008 1022 994 981 994 981 931 931 994 943 876 908 886 876 876 0 0 0 0 0 0 0 0 0 0 0 0 0 0 0 518 0 0 0 0 0 0 0 0 0 0 504 493 0 0 0 0 0
    0 0 0 0 0 0 0 0 0 0 0 0 0 0 0 0 0 0 0 0 0 0 0 0 0 0 0 0 0 0 0 0 0 0 0 0 0 0 0 0 0 0 0 0 0 0 0 0 0 0 0 0 0 0 0 0 0 0 0 0 0 0 0 0 0 0 0 0 0 0 981 968 955 943 931 943 968 968 994 1008 1082 1082 1168 1132 1115 1226 1226 1247 0 0 0 0 0 0 0 0 0 0 0 0 0 0 0 0 0 1362 1362 1338 0 0 0 0 845 1132 1051 1149 1149 1115 1132 1168 1168 1187 1149 1226 1187 1226 1268 1247 1247 1226 0 3679 0 5661 5661 6133 6133 6133 5661 5661 3873 0 0 0 1066 1036 1082 1066 1082 1082 1082 1098 1115 1098 1206 1098 0 0 0 0 0 0 0 0 0 0 0 0 0 0 0 0 0 1115 1132 1115 1132 1115 1132 1082 1187 1036 0 178 178 0 0 1226 1206 1226 1187 1098 1066 1149 1115 1082 1066 1098 1098 1098 1098 1066 1098 1098 1098 1115 1098 1082 1098 1098 1206 1051 1051 1082 1066 1098 1132 1051 1132 0 0 1338 1415 1388 1388 1443 1291 1187 1066 994 981 955 931 931 908 886 897 919 1098 1115 1066 1008 1051 1051 1051 1051 1036 1022 1008 1008 1008 994 955 955 943 955 955 955 968 981 981 994 981 968 955 1022 1036 1022 1022 1022 1022 994 1008 1008 994 981 981 981 943 931 1008 955 876 897 865 0 876 0 0 0 0 0 0 0 0 0 0 0 0 0 0 0 521 0 0 0 0 0 0 0 504 0 0 504 493 0 0 0 0 0
    0 0 0 0 0 0 0 0 0 0 0 0 0 0 0 0 0 0 0 0 0 0 0 0 0 0 0 0 0 0 0 0 0 0 0 0 0 0 0 0 0 0 0 0 0 0 0 0 0 0 0 0 0 0 0 0 0 0 0 0 0 0 0 0 0 0 0 0 0 0 994 994 981 955 943 943 968 968 981 994 1022 1036 1149 1082 1098 1247 1247 1314 0 0 0 0 1443 1415 0 0 0 0 0 0 0 0 0 0 1338 1338 1362 1338 1362 1471 0 0 845 1082 1036 1149 1132 1098 1132 1168 1168 1187 1149 1226 1187 1226 1268 1247 1247 1226 0 3504 4599 5256 5256 5661 5256 5661 5256 5256 3504 0 0 0 1082 1036 1082 1066 1082 1082 1082 1082 1098 1082 1168 1082 1206 1082 0 0 0 0 0 0 1338 1206 1132 1066 0 0 0 1066 1132 1098 1115 1098 1115 1115 1115 1082 1187 1051 0 0 0 1149 0 1168 1115 1098 1098 1066 1066 1098 1098 1082 1082 1098 1098 1098 1098 1066 1115 1115 1115 1132 1115 1098 1115 1115 1206 1066 1066 1098 1082 1115 1149 1051 1115 0 0 0 1388 0 0 1471 1291 0 1008 968 968 943 931 943 943 908 968 1008 1149 1132 1066 1022 1036 1036 1036 1036 1036 1022 994 1008 1008 1008 968 968 955 955 968 968 968 981 981 994 981 968 955 1036 1036 1022 1008 1008 1008 994 994 1008 981 968 968 994 943 943 1008 968 876 897 855 865 865 865 865 0 0 0 0 0 0 0 0 0 0 0 0 0 518 514 0 0 0 0 500 511 504 500 507 507 497 0 0 0 0 0
    0 0 0 0 0 0 0 0 0 0 0 0 0 0 0 0 0 0 0 0 0 0 0 0 0 0 0 0 0 0 0 0 0 0 0 0 0 0 0 0 0 0 0 0 0 0 0 0 0 0 0 0 0 0 0 0 0 0 0 0 0 0 0 0 0 0 0 0 0 1098 1022 1022 1008 981 968 968 994 994 1008 1022 1036 1036 1132 1082 1098 1149 1168 1206 1291 1362 1388 1362 1471 1443 0 0 0 0 0 0 0 0 0 0 1362 1338 1338 1314 0 1471 0 0 836 0 1022 1132 1132 1098 1132 1168 1168 1187 1149 1226 1206 1226 1268 1247 1226 1226 0 0 3873 4088 4906 5256 4088 4906 3873 0 0 0 0 0 1115 1051 1082 1082 1098 1082 1066 1082 1098 1082 1132 1082 1132 1082 1115 1115 1051 1082 1051 1051 1098 1098 1066 1051 1036 1036 1115 1066 1115 1098 1098 1098 1098 1098 1115 1066 1149 1051 1082 1036 1115 1098 1098 1115 1098 1066 1082 1051 1066 1098 1098 1082 1082 1082 1098 1098 1098 1066 1098 1098 1115 1115 1115 1115 1115 1115 1226 1066 1066 1098 1098 1132 1206 1082 0 0 0 0 0 0 0 0 0 968 981 955 943 931 919 943 943 0 0 0 1132 1115 1066 0 0 0 0 1022 1022 1008 994 1008 1008 1008 968 968 955 968 968 968 981 981 981 994 981 981 968 1036 1036 1022 981 994 994 981 994 994 968 968 955 994 955 955 1008 994 897 0 845 0 0 855 855 0 0 0 0 0 0 0 0 0 0 0 0 0 533 541 0 0 0 507 500 507 500 500 504 507 497 0 0 0 0 0
    0 0 0 0 0 0 0 0 0 0 0 0 0 0 0 0 0 0 0 0 0 0 0 0 0 0 0 0 0 0 0 0 0 0 0 0 0 0 0 0 0 0 0 0 0 0 0 0 0 0 0 0 0 0 0 0 0 0 0 0 0 0 0 0 0 0 0 0 0 1082 1036 1022 994 981 968 955 981 981 994 1008 1022 1036 1098 1066 1082 1082 1082 1082 1187 1314 1362 1338 1471 1415 0 0 0 0 0 0 0 0 0 0 0 1206 1115 1051 0 0 931 836 845 968 1022 1132 1115 1082 1115 1168 1168 1187 1149 1226 1187 1226 1268 1226 1168 1168 1206 0 0 1226 1149 0 1247 1187 1187 1226 1206 0 0 1115 1149 1082 1115 1098 1098 1098 1082 1082 1098 1082 1132 1082 1082 1066 1066 1066 1036 1066 1036 1036 1036 1066 1036 1051 1036 1036 1098 1066 1098 1082 1098 1082 1098 1098 1098 1066 1115 1051 1066 1022 1098 1082 1082 1115 1082 1066 1082 1051 1066 1082 1098 1082 1082 1082 1098 1098 1098 1051 1098 1098 1115 1115 1115 1115 1115 1115 1226 1098 1082 1132 1115 1149 1226 1115 0 0 0 0 0 0 981 981 994 968 968 955 943 919 0 943 0 0 0 0 0 1115 1082 0 0 0 0 1022 1022 1008 994 994 1008 1008 981 981 968 968 981 981 981 994 994 981 968 981 968 1022 1036 1022 955 981 994 968 981 981 968 955 955 994 955 955 1008 994 0 0 0 0 0 845 845 836 0 0 0 0 0 0 0 0 0 0 0 0 545 549 0 0 0 507 497 504 497 497 500 507 500 0 0 0 0 0
    0 0 0 0 0 0 0 0 0 0 0 0 0 0 0 0 0 0 0 0 0 0 0 0 0 0 0 0 0 0 0 0 0 0 0 0 0 0 0 0 0 0 0 0 0 0 0 0 0 0 0 0 0 0 0 0 0 0 0 0 0 0 0 0 0 0 0 0 0 1098 1066 1036 994 981 968 955 968 981 994 1008 0 1036 1082 1051 1066 1051 1051 1066 1149 1291 1314 1314 1415 1415 0 0 0 0 0 0 0 0 0 0 0 1149 1098 1051 994 955 968 0 865 0 1036 1149 1115 1082 1115 1149 1168 1168 1132 1226 1149 1187 1247 1206 1098 1115 1132 1206 1115 1132 1115 1066 1168 1168 1168 1206 1187 1247 1187 1132 1168 1098 1132 1098 1115 1098 1082 1098 1098 1082 1115 1066 1066 1051 1051 1051 1036 1051 1036 1036 1036 1066 1036 1051 1036 1036 1066 1051 1082 1082 1082 1082 1082 1082 1098 1066 1098 1066 1066 1036 1082 1066 1066 1098 1066 1051 1066 1051 1066 1082 1098 1082 1082 1082 1098 1098 1098 1051 1098 1098 1115 1115 1132 1115 1132 1132 1226 1098 1098 1132 1132 1168 1206 1082 0 0 0 0 0 0 994 968 981 968 981 968 943 943 0 968 0 0 0 0 1132 1132 1098 1051 0 0 0 1066 1036 1036 1022 1008 1008 1008 981 968 955 0 981 994 994 1022 1008 994 968 981 968 1022 1022 1022 931 968 981 968 968 981 955 943 943 994 968 968 1008 994 0 0 845 0 876 855 845 845 0 0 0 0 0 529 0 0 553 553 557 557 557 557 561 557 0 514 497 507 497 497 500 507 500 0 0 0 0 0
    0 0 0 0 0 0 0 0 0 0 0 0 0 0 0 0 0 0 0 0 0 0 0 0 0 0 0 0 0 0 0 0 0 0 0 0 0 0 0 0 0 0 0 0 0 0 0 0 0 0 0 0 0 0 0 0 0 0 0 0 0 0 0 0 0 0 0 0 0 1115 1082 1066 0 1022 1008 994 0 0 0 0 0 0 1098 1051 1066 1082 1082 1115 1206 1268 1291 0 1388 1362 0 0 0 0 0 0 0 0 0 0 0 1187 1149 1082 0 0 0 0 876 0 1036 1149 1115 1082 1115 1149 1149 1149 1115 1206 1098 1168 1226 1168 1082 1098 1098 1132 1082 1098 1098 1066 1115 1149 1149 1187 1168 1226 1168 1132 1168 1115 1132 1098 1115 1098 1082 1098 1098 1066 1098 1066 1051 1051 1051 1051 1036 1051 1051 1036 1036 1051 1036 1036 1022 1022 1066 1051 1066 1066 1082 1066 1066 1082 1082 1051 1082 1051 1051 1036 1066 1066 1066 1082 1066 1051 1066 1051 1082 1098 1098 1082 1082 1082 1098 1098 1098 1051 1098 1115 1115 1115 1132 1115 1115 1115 1226 1098 1098 1132 1132 1168 1226 0 0 0 0 0 0 981 994 968 981 981 994 994 968 981 981 1008 0 0 0 1098 1149 1149 1098 0 0 0 0 1082 1051 1051 1036 1036 0 0 0 0 0 0 981 994 1008 1022 1022 994 981 994 981 1008 1008 1008 908 968 968 955 955 968 955 943 943 994 968 968 1008 994 897 919 855 0 886 865 855 855 0 0 0 0 514 0 0 545 553 557 561 561 566 570 570 561 0 529 511 514 504 507 504 507 497 0 0 0 0 0
    0 0 0 0 0 0 0 0 0 0 0 0 0 0 0 0 0 0 0 0 0 0 0 0 0 0 0 0 0 0 0 0 0 0 0 0 0 0 0 0 0 0 0 0 0 0 0 0 0 0 0 0 0 0 0 0 0 0 0 0 0 0 0 0 0 0 0 0 0 1149 1098 1098 0 0 0 0 0 0 0 1082 0 1082 1082 1051 1066 1082 1098 1115 1168 1206 1226 1226 0 1314 0 0 0 0 0 0 0 0 0 0 1168 1187 1132 1098 1022 0 1022 0 955 1036 1036 1149 1098 1082 1098 1132 1149 1149 1115 1187 1082 1149 1206 1149 1066 1082 1082 1098 1066 1098 1098 1066 1098 1132 1149 1187 1168 1226 1168 1132 1168 1115 1132 1098 1115 1098 1082 1082 1082 1066 1098 1051 1051 1036 1036 1051 1036 1051 1036 1036 1022 1051 1036 1051 1022 1022 1051 1051 1051 1066 1066 1051 1051 1066 1066 1036 1051 1051 1036 1036 1066 1082 1082 1098 1082 1051 1066 1066 1082 1098 1098 1082 1082 1082 1115 1115 1115 1051 1115 1115 1115 1115 1132 1115 1132 1132 1247 1098 1098 1168 1206 1226 1226 0 0 0 0 0 0 981 994 981 981 994 1008 1008 981 994 1008 1022 0 0 1098 1115 1132 1149 1098 0 0 0 0 1115 1066 1082 1066 1051 1066 1022 0 0 0 0 1022 1022 1022 1036 1036 1008 994 1008 994 994 1008 1008 908 955 968 955 955 968 955 931 931 994 968 968 994 1008 908 0 876 897 908 876 876 865 0 0 0 0 514 0 0 545 557 557 561 561 566 570 566 561 553 537 525 521 511 511 500 497 493 0 0 0 0 0
    0 0 0 0 0 0 0 0 0 0 0 0 0 0 0 0 0 0 0 0 0 0 0 0 0 0 0 0 0 0 0 0 0 0 0 0 0 0 0 0 0 0 0 0 0 0 0 0 0 0 0 0 0 0 0 0 0 0 0 0 0 0 0 0 0 0 0 0 0 1168 1115 1115 1082 0 0 0 0 0 1149 1115 0 1115 1098 1066 1082 1082 1098 1098 1149 1187 1187 1187 1226 1247 0 0 0 0 0 1268 1291 1247 0 1187 1187 1206 1149 0 0 0 0 1036 994 1066 1036 1149 1098 1098 1115 1132 1132 1149 1115 1187 1082 1132 1187 1132 1066 1066 1082 1082 1066 1098 1115 1066 1115 1149 1168 1187 1168 1226 1168 1132 1149 1115 1132 1098 1098 1098 1066 1082 1082 1051 1082 1051 1051 1036 1036 1051 1036 1051 1036 1022 1022 1051 1036 1051 1022 1022 1051 1051 1051 1051 1066 1036 1036 1051 1051 1022 1022 1036 1036 1022 1082 1098 1098 1115 1098 1066 1082 1066 1098 1098 1098 1098 1098 1066 1115 1115 1115 1051 1115 1115 1115 1115 1149 1115 1132 1132 1268 1098 1082 1149 1226 1149 1132 0 855 0 0 0 994 994 1008 1008 994 994 1008 1008 994 1008 1022 1022 1051 1082 1115 1115 1132 1132 1115 0 0 1247 0 1132 1082 1098 1066 1051 1082 1051 0 0 0 0 1036 1036 1051 1051 1036 1022 1008 1022 1008 981 1008 1008 897 955 955 943 943 955 955 931 931 994 968 968 994 1008 919 0 886 0 919 886 897 0 0 0 0 0 0 545 549 553 557 561 561 561 566 570 566 561 557 545 533 525 514 514 500 493 487 0 0 0 0 0
    0 0 0 0 0 0 0 0 0 0 0 0 0 0 0 0 0 0 0 0 0 0 0 0 0 0 0 0 0 0 0 0 0 0 0 0 0 0 0 0 0 0 0 0 0 0 0 0 0 0 0 0 0 0 0 0 0 0 0 0 0 0 0 0 0 0 0 0 0 1206 1168 1149 1115 1187 1206 0 0 0 1206 1168 0 1168 1132 1098 1098 1115 1132 1132 1168 1206 1187 1206 1206 1226 0 0 0 0 1291 1268 1268 1226 0 0 1132 0 0 0 0 0 0 1051 1008 1168 1051 1149 1098 1115 1115 1132 1149 1149 1115 1187 1082 1132 1168 1115 1066 1066 1066 1066 1066 1082 1115 1082 1115 1168 1168 1187 1187 1226 1168 1132 1149 1132 1132 1098 1098 1082 1066 1082 1066 1051 1082 1036 1036 1036 1036 1051 1036 1051 1036 1022 1022 1051 1036 1051 1022 1022 1051 1051 1036 1051 1051 1036 1036 1036 1036 1008 1008 1051 1036 1036 1098 1098 1098 1115 1098 1066 1082 1082 1098 1098 1098 1098 1098 1066 1098 1098 1098 1051 1115 1115 1115 1098 1149 1132 1132 1132 1268 1082 1066 1115 1247 0 0 0 826 799 0 0 994 994 1008 1008 994 994 1008 1022 1008 1022 1036 1036 1066 1082 1115 1098 1098 1115 1098 0 0 1247 1314 1187 1132 1132 1098 1082 1098 1066 0 0 0 0 1036 1036 1051 1036 1036 1008 1008 1036 1008 968 994 994 897 955 955 943 943 955 955 931 931 994 968 968 994 1022 0 0 876 0 908 865 0 0 0 0 553 0 545 557 561 561 566 566 566 570 570 574 570 570 566 549 541 525 514 514 500 493 490 0 0 0 0 0
    0 0 0 0 0 0 0 0 0 0 0 0 0 0 0 0 0 0 0 0 0 0 0 0 0 0 0 0 0 0 0 0 0 0 0 0 0 0 0 0 0 0 0 0 0 0 0 0 0 0 0 0 0 0 0 0 0 0 0 0 0 0 0 0 0 0 0 0 0 0 0 0 0 0 0 0 0 0 0 1206 1168 1187 1115 1098 1098 1098 1115 1115 1149 1187 1187 1206 1226 1226 0 0 0 1268 1291 1268 1247 1187 1149 1115 1098 0 0 0 0 0 0 0 1051 1291 1066 1187 1115 1115 1132 1132 1149 1149 1115 1187 1082 1149 1149 1098 1066 1066 1051 1051 1051 1082 1115 1082 1115 1168 1168 1187 1187 1226 1168 1149 1168 1149 1132 1115 1098 1082 1051 1066 1051 1036 1051 1036 1022 1036 1036 1051 1051 1051 1051 1022 1022 1051 1036 1051 1036 1036 1051 1051 1051 1066 1066 1036 1036 1051 1036 1022 1022 1036 1036 1036 1082 1082 1098 1115 1098 1066 1082 1066 1082 1082 1082 1082 1082 1051 1098 1098 1115 1051 1115 1115 1115 1115 1149 1149 1132 1132 1268 1132 1115 1187 1268 0 0 0 0 0 0 943 994 994 1008 1008 994 1008 1008 1022 1008 1022 1051 1051 1082 1082 1098 1082 1066 1066 1066 0 1291 1268 1338 1226 1187 1168 1149 1098 1098 0 0 0 0 0 1036 1036 1051 1036 1036 1008 1008 1022 1008 943 994 994 897 955 955 943 931 955 955 931 931 994 968 968 981 1008 0 0 0 0 0 0 0 0 537 566 557 553 557 561 566 566 574 574 570 579 579 579 574 574 570 553 549 537 525 521 511 507 500 0 0 0 0 0
    0 0 0 0 0 0 0 0 0 0 0 0 0 0 0 0 0 0 0 0 0 0 0 0 0 0 0 0 0 0 0 0 0 0 0 0 0 0 0 0 0 0 0 0 0 0 0 0 0 0 0 0 0 0 0 0 0 0 0 0 0 0 0 0 0 0 0 0 0 0 0 0 0 0 0 0 0 0 0 1168 1149 1149 1098 1082 1066 1082 1066 1066 1098 1132 1149 0 0 1206 0 0 0 1247 1268 1226 1206 1149 1098 1082 1082 1098 0 0 0 0 0 0 1115 1314 1082 1187 1115 1115 1115 1132 1132 1149 1115 1187 1066 1132 1132 1082 1051 1051 1036 1036 1051 1082 1098 1082 1115 1168 1168 1187 1187 1206 1149 1168 1168 1149 1132 1132 1098 1098 1051 1066 1051 1036 1051 1036 1022 1036 1036 1051 1051 1051 1051 1036 1036 1051 1022 1036 1008 1022 1036 1051 1036 1051 1066 1051 1051 1051 1036 1022 1008 1036 1036 1036 1066 1066 1082 1115 1115 1098 1098 1082 1082 1098 1098 1098 1082 1051 1082 1098 1098 1051 1132 1115 1115 1115 1149 1149 1132 1132 1268 1115 1098 1115 1268 0 0 0 845 0 876 919 968 981 1008 1008 1008 1022 1051 1051 1051 1066 1082 1066 1098 1082 1098 1066 1066 1066 1066 1022 0 1247 0 0 1206 0 0 1098 1098 0 0 0 0 0 1036 1036 1051 1036 1022 994 994 1008 994 919 981 981 886 943 955 943 931 943 955 931 931 994 955 955 968 1008 0 865 0 0 0 774 0 0 557 579 566 566 561 566 570 566 574 574 574 579 579 579 574 570 566 549 545 533 529 518 511 507 504 0 0 0 0 0
    0 0 0 0 0 0 0 0 0 0 0 0 0 0 0 0 0 0 0 0 0 0 0 0 0 0 0 0 0 0 0 0 0 0 0 0 0 0 0 0 0 0 0 0 0 0 0 0 0 0 0 0 0 0 0 0 0 0 0 0 0 0 0 0 0 0 0 0 0 0 0 0 0 0 0 0 0 0 0 1149 1132 1132 1082 1082 1051 1066 0 1051 1066 1115 0 1149 1168 1206 0 1247 0 1247 1226 1206 1206 1149 1132 1115 1098 0 0 0 0 117 116 0 0 1314 1082 1187 1115 1132 1132 1132 1132 1149 1115 1168 1051 1132 1115 1082 1051 1066 1022 1036 1051 1082 1082 1066 1082 1115 1132 1149 1149 1187 1132 1132 1132 1132 1132 1115 1098 1098 1051 1082 1036 1036 1051 1036 1036 1051 1051 1066 1066 1082 1082 1066 1051 1066 1022 1022 994 994 1008 1036 1036 1036 1051 1051 1066 1066 1066 1051 1022 1036 1036 1036 1051 1066 1082 1115 1098 1115 1115 1098 1098 1098 1082 1098 1066 1036 1066 1082 1082 1051 1115 1115 1115 1115 1132 1149 1132 1132 1268 1066 1066 0 0 0 0 897 855 865 908 931 968 981 1022 1022 1036 1066 1098 1082 1115 1098 1132 1082 1098 1098 1098 1066 1066 1051 1051 1008 0 0 0 0 1206 0 1168 1115 1115 0 0 0 0 0 1051 1036 1066 1051 1022 994 994 1008 994 908 981 981 886 943 943 943 919 943 955 931 931 981 943 943 955 994 826 836 791 0 0 714 663 608 603 598 588 593 579 574 574 566 574 570 570 579 579 579 570 566 557 545 541 533 525 518 514 511 507 0 0 0 0 0
    0 0 0 0 0 0 0 0 0 0 0 0 0 0 0 0 0 0 0 0 0 0 0 0 0 0 0 0 0 0 0 0 0 0 0 0 0 0 0 0 0 0 0 0 0 0 0 0 0 0 0 0 0 0 0 0 0 0 0 0 0 0 0 0 0 0 0 0 0 0 0 0 0 0 0 0 0 0 0 1187 1149 1149 1098 1098 1066 1066 0 1066 0 1098 1115 1132 1149 1187 1206 1187 1187 1206 1187 1206 1206 1168 1168 1149 1168 0 0 0 0 117 0 0 0 1314 1098 1187 1115 1132 1132 1132 1132 1168 1132 1187 1066 1168 1115 1066 1066 1066 1022 1022 1036 1066 1082 1082 1082 1098 1115 1132 1132 1149 1115 1115 1098 1115 1115 1098 1082 1082 1051 1066 1022 1022 1022 1022 1036 1036 1051 1051 1066 1082 1098 1098 1098 1098 1066 1036 1008 981 994 1036 1036 1022 1036 1036 1066 1066 1066 1051 1008 1036 1036 1036 1051 1051 1082 1082 1098 1098 1149 1115 1115 1098 1082 1098 1051 1036 1051 1066 1066 1036 1115 1115 1098 1098 1115 1132 1115 1115 1268 1008 968 968 0 943 897 897 886 919 943 968 968 981 1022 1022 1036 1066 1115 1082 1149 1115 1132 1098 1132 1115 1098 1066 1066 1036 1008 981 0 0 0 0 0 1187 1149 1132 1149 1115 0 0 1036 1051 1066 1051 1066 1036 1022 1008 1008 1008 994 897 968 981 886 943 943 931 919 943 955 931 931 981 943 943 943 994 826 808 721 645 639 657 634 618 608 603 593 598 584 584 574 570 574 570 570 570 570 574 561 557 549 541 541 533 529 521 514 514 511 0 0 0 0 0
    0 0 0 0 0 0 0 0 0 0 0 0 0 0 0 0 0 0 0 0 0 0 0 0 0 0 0 0 0 0 0 0 0 0 0 0 0 0 0 0 0 0 0 0 0 0 0 0 0 0 0 0 0 0 0 0 0 0 0 0 0 0 0 0 0 0 0 0 0 0 0 0 0 1226 0 0 1247 1187 1206 1206 1187 1149 1115 1115 1082 1082 1082 1066 1082 1098 1098 0 1115 1149 0 1149 1149 1168 1168 1187 1226 1187 1187 1187 1187 0 0 0 0 0 0 0 0 1314 1082 1187 1115 1149 1149 1149 1149 1187 1149 1206 1098 1206 1132 1082 1082 1082 1008 1022 1036 1066 1082 1082 1082 1098 1115 1115 1132 1149 1115 1115 1082 1115 1098 1082 1082 1066 1022 1022 994 1008 1008 1022 1022 1036 1036 1051 1082 1098 1098 1115 1115 1115 1115 1051 1022 981 981 1036 1022 1008 994 994 1008 1008 1008 0 981 981 994 1008 1022 1022 1051 1066 1082 1098 1168 1115 1098 1082 1082 1082 1051 1051 1051 1066 1066 1036 1115 1115 1098 1098 1115 1149 1115 1115 1247 994 931 943 968 931 886 886 886 931 943 968 968 968 981 981 994 1008 1022 1022 1066 1066 1098 1098 1115 1115 1115 1082 1066 1036 994 968 0 0 0 0 1132 1168 1149 1149 1149 1149 1149 1051 1051 1051 1066 1051 1051 1022 1008 1008 1008 1008 994 886 981 981 897 955 943 943 919 943 955 931 931 994 943 943 943 0 817 694 675 639 639 645 634 623 618 608 603 603 588 588 584 574 574 566 561 566 561 557 549 545 541 541 541 533 529 521 518 514 514 0 0 0 0 0
    0 0 0 0 0 0 0 0 0 0 0 0 0 0 0 0 0 0 0 0 0 0 0 0 0 0 0 0 0 0 0 0 0 0 0 0 0 0 0 0 0 0 0 0 0 0 0 0 0 0 0 0 0 0 0 0 0 0 0 0 0 0 0 0 0 0 0 0 0 0 0 0 1187 1206 0 0 0 1206 1206 1226 1168 1132 1098 1098 1066 1051 1051 1022 0 0 1082 1082 0 1132 1168 1168 1187 1206 1247 1247 1268 1226 0 1206 0 0 0 0 0 0 0 0 0 1291 1082 1187 1115 1149 1168 1168 1149 1187 1149 1206 1115 1206 1149 1082 1082 1082 1008 1008 1022 1051 1082 1082 1066 1082 1098 1098 1115 1149 1115 1098 1082 1132 1115 1132 1132 1149 1051 1115 1051 1082 1036 1051 1036 1051 1051 1082 1098 1115 1115 1149 1149 1168 1168 1066 1051 994 0 0 994 981 981 968 981 968 968 981 955 955 968 968 994 981 1008 1022 1036 1051 1051 1036 1022 1008 1022 1022 1022 1022 1036 1066 1082 1051 1115 1115 1115 1115 1115 1149 1115 1115 1247 994 897 897 931 908 886 876 886 919 943 955 968 931 943 955 955 968 981 981 994 1022 1036 1066 1082 1098 1098 1066 1051 1022 981 943 0 0 931 931 0 1098 1115 1115 1115 1115 1098 1036 1036 1036 1036 1008 1036 1008 994 994 1008 994 981 886 981 981 897 955 955 943 919 943 955 943 931 994 955 943 943 0 817 694 651 639 639 639 629 623 618 608 603 603 593 593 588 584 579 566 557 561 557 549 541 541 537 533 533 529 525 518 514 514 511 0 0 0 0 0
    0 0 0 0 0 0 0 0 0 0 0 0 0 0 0 0 0 0 0 0 0 0 0 0 0 0 0 0 0 0 0 0 0 0 0 0 0 0 0 0 0 0 0 0 0 0 0 0 0 0 0 0 0 0 0 0 0 0 0 0 0 0 0 0 0 0 0 0 0 0 0 0 1226 1226 0 0 0 0 0 1226 1187 1115 1115 1098 1051 1036 0 1008 0 0 1051 1051 0 1115 1149 1187 1206 1247 1314 1291 1291 1247 0 0 0 0 0 0 0 0 0 0 0 1268 1082 1187 1132 1132 1168 1168 1149 1187 1149 1206 1115 1206 1187 1082 1098 1098 1008 1022 1022 1051 1082 1082 1066 1082 1082 1082 1098 1115 1098 1098 1082 1132 1098 1149 1149 1168 1132 1187 1115 1187 1098 1115 1051 1082 1066 1098 1098 1115 1098 1149 1149 1168 1149 1066 1036 1008 955 981 968 955 968 943 955 955 955 968 955 955 955 943 981 931 943 931 943 955 943 955 955 955 981 994 1022 1022 1036 1066 1082 1051 1115 1115 1115 1115 1115 1168 1115 1098 1206 981 897 886 919 908 897 886 897 919 943 943 955 908 908 919 919 931 955 955 955 994 1008 1036 1066 1082 1082 1051 1036 1022 994 968 0 955 968 981 1022 1082 1082 1082 1098 1082 1098 1022 1022 1022 1022 1008 1022 994 981 981 994 994 981 886 981 981 908 968 968 955 931 955 968 943 943 994 955 943 943 0 799 681 645 639 639 639 629 629 623 613 613 603 598 598 593 593 588 566 561 561 557 553 545 541 537 537 537 529 521 518 511 514 511 0 0 0 0 0
    0 0 0 0 0 0 0 0 0 0 0 0 0 0 0 0 0 0 0 0 0 0 0 0 0 0 0 0 0 0 0 0 0 0 0 0 0 0 0 0 0 0 0 0 0 0 0 0 0 0 0 0 0 0 0 0 0 0 0 0 0 0 0 0 0 0 0 0 0 0 0 0 1268 1268 0 0 0 0 0 1226 1149 1098 0 1082 1051 1036 0 981 994 0 1051 1022 0 1066 1098 1132 1149 1206 1206 1226 1226 1187 0 0 0 0 0 0 0 0 1132 1098 1098 1226 1082 1168 1132 1132 1168 1168 1168 1187 1149 1206 1115 1168 1168 1066 1066 1066 994 1008 1022 1051 1066 1066 1066 1066 1066 1066 1082 1066 1066 1036 1036 1051 1051 1082 1082 1115 1115 1206 1149 1206 1132 0 0 1082 1051 1098 1098 1098 1098 1132 1132 1149 1149 1082 1051 1022 968 981 955 955 955 943 955 955 943 955 955 955 943 943 955 897 908 908 908 908 908 919 931 931 968 981 994 994 1022 1066 1082 1051 1115 1115 1115 1115 1115 1149 1098 1082 1115 968 897 897 919 919 908 897 908 919 931 931 943 908 908 908 908 919 931 943 931 968 981 1008 1036 1051 1066 1051 1036 1036 1008 981 994 968 1008 1008 1022 1066 1082 1066 1082 1066 1066 994 1008 1008 1008 994 1008 981 981 981 994 981 968 897 981 994 919 981 981 968 943 968 981 955 943 994 955 931 919 0 766 681 651 639 645 639 634 629 629 618 613 608 603 603 598 593 584 561 561 561 557 553 549 545 541 541 537 529 525 518 514 514 511 0 0 0 0 0
    0 0 0 0 0 0 0 0 0 0 0 0 0 0 0 0 0 0 0 0 0 0 0 0 0 0 0 0 0 0 0 0 0 0 0 0 0 0 0 0 0 0 0 0 0 0 0 0 0 0 0 0 0 0 0 0 0 0 0 0 0 0 0 0 0 0 0 0 0 0 0 1291 1247 1247 1226 0 0 0 0 1187 1098 0 0 0 0 0 968 955 968 0 1008 981 981 0 1036 1066 1082 1098 1022 1082 1082 1051 0 0 0 1036 1036 1036 1022 1066 1098 1098 1098 1187 1098 1168 1149 1132 1168 1168 1168 1187 1149 1187 1098 1132 1168 1051 1051 1051 994 1008 1008 1051 1066 1066 1051 1051 1051 1051 1051 1051 1036 1008 1008 994 1008 1022 1022 1022 0 1051 1082 1149 1115 1132 0 1098 1051 1098 1098 1098 1098 1132 1115 1132 1115 1082 1022 1008 955 968 943 943 943 931 943 943 931 955 943 955 931 943 955 897 908 908 897 897 908 908 919 919 955 968 981 981 1022 1066 1082 1051 1115 1115 1115 1115 1115 1149 1082 1066 1066 968 919 908 919 919 908 897 919 908 931 931 931 919 908 908 908 919 931 943 931 968 968 1008 1036 1036 1051 1051 1051 1036 1008 994 1008 981 1036 1022 1022 1066 1066 1066 1066 1051 1051 981 994 994 994 981 994 981 981 981 994 981 968 897 994 994 931 981 981 981 955 968 981 955 943 994 943 908 886 0 735 675 651 639 639 639 634 634 634 623 618 608 608 608 603 593 584 561 561 561 557 553 549 545 541 541 541 533 525 521 511 514 511 0 0 0 0 0
    0 0 0 0 0 0 0 0 0 0 0 0 0 0 0 0 0 0 0 0 0 0 0 0 0 0 0 0 0 0 0 0 0 0 0 0 0 0 0 0 0 0 0 0 0 0 0 0 0 0 0 0 0 0 0 0 0 0 0 0 0 0 0 0 0 0 0 0 0 0 0 1268 1226 1226 1168 0 1226 1132 0 1132 1066 0 0 0 0 994 0 943 955 0 981 955 0 0 1008 1022 1051 1066 1036 1066 0 1036 0 994 981 994 994 994 981 1008 1036 1066 1066 1149 1098 1168 1149 1115 1168 1168 1168 1187 1149 1187 1098 1115 1168 1051 1051 1051 1008 1022 1022 1051 1051 1051 1036 1022 1022 1022 1022 1022 1008 981 981 968 981 981 994 994 1008 1008 1051 1115 1115 1132 1082 1115 1066 1115 1098 1098 1115 1132 1115 1132 1115 1082 1008 994 931 943 943 931 931 931 943 943 931 955 943 955 943 943 955 886 886 897 897 897 908 908 919 908 943 968 968 968 1008 1051 1066 1051 1098 1098 1115 1098 1098 1115 1066 1051 1051 968 931 908 931 931 919 908 919 919 919 919 931 908 908 908 908 908 931 931 919 955 968 1008 1051 1066 1082 1082 1082 1066 1036 1036 1066 1036 1082 1051 1066 1082 1082 1082 1082 1066 1051 968 994 994 981 981 994 968 981 981 994 981 968 908 1008 1008 943 994 994 994 968 981 981 955 943 994 943 908 886 0 721 675 645 639 639 634 634 634 634 623 618 613 613 608 603 603 593 579 574 570 566 557 553 545 545 541 541 533 521 518 511 514 511 0 0 0 0 0
    0 0 0 0 0 0 0 0 0 0 0 0 0 0 0 0 0 0 0 0 0 0 0 0 0 0 0 0 0 0 0 0 0 0 0 0 0 0 0 0 0 0 0 0 0 0 0 0 0 0 0 0 0 0 0 0 0 0 0 0 0 0 0 0 0 0 0 0 0 0 0 1247 1226 1226 1168 1206 1247 1187 1206 1187 1098 0 0 0 1051 0 0 968 968 0 994 968 955 981 994 1008 1036 1051 1036 1036 0 1022 943 981 968 981 981 981 981 1008 1022 1051 1082 1115 1082 1168 1149 1115 1168 1168 1168 1168 1168 1187 1098 1115 1187 1051 1051 1051 1008 1022 1008 1036 1051 1051 1036 1008 1008 994 994 994 994 968 968 943 968 968 981 981 994 994 1036 1082 1132 1149 1098 1115 1066 1115 1115 1115 1115 1132 1132 1149 1115 1098 994 981 931 931 931 919 931 919 943 943 931 943 955 955 955 943 955 886 876 886 897 908 908 908 919 919 955 968 968 981 1008 1051 1051 1036 1082 1082 1098 1082 1066 1098 1051 1036 1036 968 931 908 931 931 919 908 919 908 919 919 931 908 919 908 897 908 919 931 919 955 955 981 1022 1036 1066 1066 1066 1051 1036 1036 1066 1036 1098 1066 1066 1098 1082 1066 1066 1051 1036 968 994 981 981 981 994 968 981 981 1008 981 968 931 1022 1022 955 994 994 994 968 981 981 955 943 994 931 897 886 0 707 669 639 639 634 634 634 634 634 629 618 618 613 613 608 608 598 593 588 579 574 566 561 549 549 545 545 537 525 521 511 514 511 0 0 0 0 0
    0 0 0 0 0 0 0 0 0 0 0 0 0 0 0 0 0 0 0 0 0 0 0 0 0 0 0 0 0 0 0 0 0 0 0 0 0 0 0 0 0 0 0 0 0 0 0 0 0 0 0 0 0 0 0 0 0 0 0 0 0 0 0 0 0 0 0 0 0 0 1226 0 0 1226 1187 1247 1268 1226 1226 1206 1132 0 1098 1082 1082 1036 1022 968 0 0 968 943 943 968 994 1008 1051 1082 1098 1051 1036 1022 943 981 968 981 981 981 994 1022 1022 1066 1082 1098 1082 1168 1149 1115 1168 1168 1168 1168 1168 1187 1098 1115 1187 1066 1051 1066 1022 1022 1008 1022 1036 1022 1022 968 981 968 968 968 968 955 955 931 968 968 981 994 994 994 1036 1066 1149 1168 1082 1132 1051 1115 1098 1115 1115 1132 1132 1149 1132 1115 1008 981 931 919 931 919 919 919 931 943 931 943 955 955 968 968 981 919 897 897 919 919 931 931 943 931 968 968 968 968 1008 1051 1051 1036 1082 1082 1082 1082 1066 1082 1051 1036 1022 968 931 919 931 919 919 908 919 908 919 919 931 908 919 908 897 908 919 931 919 943 943 955 981 1008 1036 1036 1036 1036 1022 1051 1082 1051 1115 1082 1082 1098 1082 1051 1051 1022 1022 955 981 981 968 981 994 968 994 994 1008 981 968 931 1022 1022 968 994 994 994 968 981 981 955 943 0 919 886 865 0 694 663 639 639 634 634 634 629 629 623 618 618 613 613 608 608 598 593 588 584 579 566 561 553 549 545 545 537 529 521 511 518 511 0 0 0 0 0
    0 0 0 0 0 0 0 0 0 0 0 0 0 0 0 0 0 0 0 0 0 0 0 0 0 0 0 0 0 0 0 0 0 0 0 0 0 0 0 0 0 0 0 0 0 0 0 0 0 0 0 0 0 0 0 0 0 0 0 0 0 0 0 0 0 0 0 0 0 0 0 0 0 0 0 1247 1268 0 1247 1226 1168 1115 1149 1132 1115 1051 1036 994 968 955 955 908 886 943 968 0 1022 1051 1098 1066 1036 1036 968 994 994 994 994 994 1008 1022 1036 1066 1082 1098 1098 1168 1168 1098 1168 1168 1168 1168 1168 1168 1098 1115 1206 1066 1066 1066 1036 1022 1022 1022 1022 1008 1008 955 955 955 943 943 955 943 943 919 955 968 981 994 1008 1008 1051 1098 1168 1168 1098 1149 1051 1132 1098 1115 1115 1132 1149 1168 1132 1132 1022 981 931 919 919 919 919 919 931 943 943 955 955 968 968 981 981 943 931 931 955 955 955 968 968 955 968 968 968 955 994 1051 1066 1036 1082 1082 1082 1082 1066 1082 1036 1022 1008 968 943 919 931 931 919 908 919 908 919 908 931 919 919 908 897 908 919 931 919 931 919 943 955 994 1022 1036 1022 1036 1036 1066 1115 1082 1115 1115 1098 1098 1082 1066 1051 1022 1008 955 968 968 968 968 981 955 981 981 994 968 968 943 1022 1022 968 1008 1008 1008 981 981 994 955 943 0 908 855 0 0 687 663 639 639 634 634 629 623 623 623 618 618 613 608 608 603 598 593 588 584 579 570 561 553 549 545 545 541 529 525 511 518 511 0 0 0 0 0
    0 0 0 0 0 0 0 0 0 0 0 0 0 0 0 0 0 0 0 0 0 0 0 0 0 0 0 0 0 0 0 0 0 0 0 0 0 0 0 0 0 0 0 0 0 0 0 0 0 0 0 0 0 0 0 0 0 0 0 0 0 0 0 0 0 0 0 0 0 1187 0 0 0 0 0 0 0 0 0 1226 1168 1132 1149 1149 1132 1066 1051 994 968 955 943 908 886 931 968 994 1022 1051 1051 1051 1036 1036 968 994 994 994 1008 1008 1008 1036 1051 1082 1098 1098 1115 1168 1168 1115 1168 1168 1168 1168 1168 1149 1082 1098 1206 1066 1051 1066 1022 1022 1008 1008 1008 981 981 931 943 943 931 919 943 919 931 919 955 955 968 981 1008 1008 1051 1082 1168 1132 1082 1168 1051 1132 1098 1115 1132 1132 1149 1168 1132 1132 1008 981 931 919 908 919 919 919 931 943 943 955 955 968 968 981 981 955 943 943 968 955 968 981 968 968 968 955 955 943 955 1051 1051 1036 1066 1066 1082 1066 1066 1066 1036 1022 1008 968 943 931 931 931 931 908 931 897 919 908 919 919 931 897 886 897 908 931 908 931 908 931 968 1022 1036 1036 1036 1036 1036 1051 1115 1082 1132 1115 1098 1098 1082 1066 1051 1022 1008 968 981 968 968 981 981 955 981 981 994 955 955 943 1022 1022 968 994 1008 994 981 981 981 955 931 0 0 845 0 694 687 663 645 639 639 634 629 623 623 623 618 618 608 608 603 603 598 598 593 584 584 574 566 557 549 549 545 541 533 525 511 518 511 0 0 0 0 0
    0 0 0 0 0 0 0 0 0 0 0 0 0 0 0 0 0 0 0 0 0 0 0 0 0 0 0 0 0 0 0 0 0 0 0 0 0 0 0 0 0 0 0 0 0 0 0 0 0 0 0 0 0 0 0 0 0 0 0 0 0 0 0 0 0 0 0 0 0 0 0 0 0 0 0 0 0 0 0 0 0 0 0 0 0 0 1036 1008 981 0 0 0 955 981 1008 0 1036 1051 1036 1036 1022 1022 968 981 981 994 994 994 1008 1022 1036 1066 1098 1098 1115 1187 1168 1098 1168 1149 1149 1149 1149 1132 1066 1082 1206 1066 1051 0 1008 1008 994 981 981 955 968 931 943 943 931 919 943 919 943 919 955 955 981 981 1008 1008 1051 1082 1168 1115 1082 1149 1036 1115 1098 1115 1132 1132 1149 1149 1132 1132 1008 0 919 908 897 908 919 908 943 943 943 955 968 981 981 981 994 955 955 968 968 968 981 994 981 981 968 955 943 943 931 0 1036 1022 1051 1051 1051 1051 1036 1051 1022 1008 1008 968 955 943 931 931 931 919 931 908 931 908 919 931 931 897 897 908 931 943 919 955 908 955 0 1051 1066 1066 1066 1051 1051 1066 1115 1082 1132 1115 1115 1098 1082 1066 1066 1022 1008 981 981 981 981 994 981 968 994 981 981 955 943 931 1008 1022 968 994 994 994 968 981 981 943 908 0 0 799 700 687 681 657 639 639 639 634 629 629 623 623 618 623 613 608 608 603 598 598 593 588 584 579 570 561 549 549 549 541 533 529 518 521 514 0 0 0 0 0
    0 0 0 0 0 0 0 0 0 0 0 0 0 0 0 0 0 0 0 0 0 0 0 0 0 0 0 0 0 0 0 0 0 0 0 0 0 0 0 0 0 0 0 0 0 0 0 0 0 0 0 0 0 0 0 0 0 0 0 0 0 0 0 0 0 0 0 0 0 0 0 0 0 0 0 0 0 0 0 0 0 0 0 0 0 0 0 0 0 0 0 0 0 0 1036 0 1036 1051 1036 1008 994 1008 968 968 981 981 994 994 994 1022 1036 1066 1098 1098 1132 1187 1168 1115 1168 1149 1149 1132 1149 1115 1051 1066 1187 1051 1036 0 994 994 981 968 968 943 955 919 943 943 931 919 943 919 943 908 955 955 981 994 1008 1008 1051 1066 1168 1082 1098 1132 1036 1115 1098 1132 1149 1132 1149 1149 1115 1132 1008 0 919 908 897 908 908 908 943 955 955 968 968 981 981 994 994 968 968 981 981 981 994 1008 994 994 994 981 955 955 931 0 1022 1022 1022 1022 1022 1036 1036 1036 1022 994 994 981 955 955 943 943 943 919 943 908 931 919 931 943 943 931 931 931 943 955 955 968 943 0 1051 1066 1082 1066 1066 1051 1036 1051 1098 1082 1115 1098 1098 1098 1066 1036 1036 1008 994 981 981 981 981 994 981 968 994 981 981 943 943 931 994 1022 955 968 981 968 955 955 955 908 876 0 817 721 694 681 669 651 634 634 634 629 629 623 618 623 618 618 613 608 603 603 598 598 598 588 588 584 570 561 549 549 545 545 537 533 518 525 518 0 0 0 0 0
    0 0 0 0 0 0 0 0 0 0 0 0 0 0 0 0 0 0 0 0 0 0 0 0 0 0 0 0 0 0 0 0 0 0 0 0 0 0 0 0 0 0 0 0 0 0 0 0 0 0 0 0 0 0 0 0 0 0 0 0 0 0 0 0 0 0 0 0 0 0 0 0 0 0 0 0 0 0 0 0 0 0 0 0 0 0 0 0 0 0 0 0 0 0 1051 0 1051 1066 1036 1008 994 994 968 955 981 981 981 981 994 1008 1022 1051 1082 1098 1132 1187 1168 1098 1149 1149 1132 1115 1132 1098 1051 1066 1187 1066 1051 1051 1008 1008 981 981 955 943 955 919 931 931 919 931 943 919 943 919 968 968 981 994 1008 1008 1036 1051 1149 1082 1132 1132 1051 1132 1098 1132 1149 1149 1149 1149 1115 1115 1008 0 919 897 897 908 919 908 943 955 968 968 981 994 994 1008 1008 981 968 981 981 994 1008 1036 1008 1008 1008 994 981 981 955 1022 1022 1022 1022 1008 1022 1022 1022 1022 1008 994 994 981 968 955 943 943 943 919 931 919 943 931 943 955 955 955 955 955 955 955 955 968 0 0 1066 1098 1115 1098 1098 1066 1082 1082 1115 1098 1115 1115 1098 1082 1066 1022 1008 981 981 981 981 981 981 1008 981 981 994 981 968 931 931 919 968 1022 897 931 931 919 908 908 897 876 845 855 774 700 687 675 663 645 634 634 634 629 623 623 618 618 618 618 608 608 603 603 598 598 598 588 588 584 570 566 549 549 545 545 537 533 521 525 518 0 0 0 0 0
    0 0 0 0 0 0 0 0 0 0 0 0 0 0 0 0 0 0 0 0 0 0 0 0 0 0 0 0 0 0 0 0 0 0 0 0 0 0 0 0 0 0 0 0 0 0 0 0 0 0 0 0 0 0 0 0 0 0 0 0 0 0 0 0 0 0 0 0 0 0 0 0 0 0 0 0 0 0 0 0 0 0 0 0 0 0 0 1098 0 0 1115 0 1098 1132 1115 1115 1098 1115 1051 1022 994 994 968 968 981 981 981 981 994 1022 1036 1051 1082 1082 1115 1168 1149 1082 1132 1132 1115 1098 1115 1082 1036 1051 1187 1066 1051 1066 1022 1008 981 968 955 943 943 919 931 931 908 919 943 919 943 931 968 968 994 1008 1008 1022 1051 1066 1168 1098 1149 1132 1066 1132 1115 1132 1168 1149 1149 1168 1132 1132 1022 0 931 897 897 908 919 919 955 968 968 981 994 994 1008 1008 1022 981 981 994 994 1008 1008 1066 1022 1036 1022 994 981 981 968 1022 1022 1022 994 1008 1008 1008 1022 1022 1008 994 994 981 968 955 955 943 943 931 931 919 943 943 955 955 968 968 968 968 968 955 955 981 0 0 1082 1132 1168 1132 1115 1066 1115 1082 1098 1098 1115 1098 1115 1098 1082 1008 1008 968 968 981 981 981 981 1008 968 981 1008 981 955 919 919 897 919 1008 855 865 865 865 855 855 855 845 826 808 735 694 681 669 657 639 634 634 634 629 623 618 613 618 618 618 608 603 603 603 598 598 598 588 588 584 570 566 549 549 545 541 537 533 518 525 514 0 0 0 0 0
    0 0 0 0 0 0 0 0 0 0 0 0 0 0 0 0 0 0 0 0 0 0 0 0 0 0 0 0 0 0 0 0 0 0 0 0 0 0 0 0 0 0 0 0 0 0 0 0 0 0 0 0 0 0 0 0 0 0 0 0 0 0 0 0 0 0 0 0 0 0 0 0 0 0 0 0 0 0 0 0 0 0 0 0 0 0 0 1066 0 1115 1132 1132 1132 1168 1132 1132 1115 1132 1066 1036 1008 994 981 968 994 994 994 994 1008 1036 1051 1066 1098 1082 1115 1168 1149 1082 1115 1115 1098 1082 1098 1066 1036 1051 1187 1066 1036 1066 1008 994 968 955 955 943 943 931 943 943 919 931 955 931 943 943 981 981 1008 1022 1036 1036 1082 1098 1187 1115 1149 1149 1066 1132 1115 1132 1149 1149 1149 1168 1115 1132 1036 994 955 908 897 919 931 931 968 981 981 994 1008 1008 1022 1022 1036 994 994 1008 1008 1008 1036 1098 1051 1082 1036 994 981 981 955 1022 1022 1022 994 994 1008 1008 1022 1022 1008 994 994 994 968 968 955 943 943 931 931 931 955 955 968 981 981 994 981 994 968 968 968 994 0 0 1036 1098 1132 1098 0 0 0 1066 1082 1098 1082 1098 1098 1098 1066 0 981 919 943 968 981 981 981 1008 955 968 994 968 931 908 897 886 865 908 826 826 826 817 817 817 808 799 766 714 707 694 681 675 657 651 639 639 639 634 623 618 613 613 618 613 603 603 598 598 593 598 593 584 588 584 570 566 549 549 545 541 537 533 518 525 518 0 0 0 0 0
    0 0 0 0 0 0 0 0 0 0 0 0 0 0 0 0 0 0 0 0 0 0 0 0 0 0 0 0 0 0 0 0 0 0 0 0 0 0 0 0 0 0 0 0 0 0 0 0 0 0 0 0 0 0 0 0 0 0 0 0 0 0 0 0 0 0 0 0 0 0 0 0 0 0 0 0 0 0 0 0 0 0 0 0 0 0 0 0 0 1115 1115 1132 1132 1187 1149 1132 1132 1149 1066 1036 1022 1008 994 981 994 994 994 994 1022 1036 1051 1066 1098 1082 1115 1149 1132 1082 1115 1098 1082 1082 1082 1066 1036 1051 1206 1066 1036 1066 994 968 943 943 955 943 943 943 955 955 943 943 955 943 955 955 981 994 1008 1022 1036 1051 1098 1115 1187 1115 1149 1149 1066 1132 1098 1115 1132 1115 1115 1132 1098 1098 1036 1008 968 931 908 943 943 943 981 981 994 1008 1008 1022 1022 1022 1036 1008 994 1008 1036 1036 1082 1168 1098 1168 1051 994 981 968 943 1022 1022 1022 994 1008 1008 1008 1022 1022 1008 994 994 981 968 968 955 943 943 931 943 943 968 968 968 981 981 994 994 994 968 955 968 981 0 1268 1066 1149 1149 1132 1168 1066 0 1082 1066 1098 1082 0 1115 1098 0 0 0 897 955 968 968 968 968 994 943 968 994 955 919 908 897 876 845 836 799 758 750 758 750 743 735 721 707 694 694 687 681 675 663 657 651 645 645 634 629 618 613 613 618 608 603 598 598 598 593 593 593 584 588 579 566 566 553 549 541 541 537 533 518 525 518 0 0 0 0 0
    0 0 0 0 0 0 0 0 0 0 0 0 0 0 0 0 0 0 0 0 0 0 0 0 0 0 0 0 0 0 0 0 0 0 0 0 0 0 0 0 0 0 0 0 0 0 0 0 0 0 0 0 0 0 0 0 0 0 0 0 0 0 0 0 0 0 0 0 0 0 0 0 0 0 0 0 0 0 0 0 0 0 0 0 0 0 0 0 0 1115 1115 1115 1132 1149 1132 1115 1115 1115 1066 1022 1008 994 981 968 994 994 994 1008 1022 1036 1051 1066 1098 1082 1115 1149 1132 1082 1115 1098 1082 1098 1082 1066 1036 1051 1206 1066 1022 0 981 955 931 931 955 955 943 955 968 981 968 968 981 968 968 968 1008 1008 1022 1036 1051 1066 1115 1115 1187 1115 1168 1149 1066 1132 1098 1098 1115 1098 1098 1115 1082 1082 1022 1022 994 955 931 968 968 968 994 1008 0 0 1022 1036 1022 1036 1036 1008 1008 1022 1036 1066 1115 1187 1168 1247 1098 1022 968 955 919 1051 1036 1036 994 1008 1022 1022 1036 0 994 981 981 981 968 968 955 955 968 955 955 955 981 981 981 994 994 1008 1008 1008 968 955 981 994 994 1168 1098 1149 1149 1149 1187 1098 1132 1082 1082 1098 0 0 0 1098 1082 0 0 897 943 968 968 981 968 981 943 968 994 955 919 908 886 865 836 817 782 735 728 743 735 728 728 714 707 694 694 694 687 681 675 669 669 657 651 639 629 623 613 613 618 608 603 598 593 598 593 593 593 584 588 579 566 570 553 549 541 541 537 533 518 525 518 0 0 0 0 0
    0 0 0 0 0 0 0 0 0 0 0 0 0 0 0 0 0 0 0 0 0 0 0 0 0 0 0 0 0 0 0 0 0 0 0 0 0 0 0 0 0 0 0 0 0 0 0 0 0 0 0 0 0 0 0 0 0 0 0 0 0 0 0 0 0 0 0 0 0 0 0 0 0 0 0 0 0 0 0 0 0 0 0 0 0 0 0 0 0 0 0 0 1132 1132 1132 1115 1115 1115 1051 1022 994 981 981 955 994 994 994 994 1022 1036 1051 1066 1098 1098 1115 1149 1132 1066 1115 1098 1082 1098 1082 1066 1036 1051 1206 1051 1022 0 968 943 919 931 943 943 943 955 981 994 994 994 994 968 981 981 1008 994 1022 1022 1036 1051 1098 1098 1149 1115 1168 1115 1066 1132 1098 1098 1115 1098 1082 1098 1082 1082 1022 1022 1008 981 968 994 994 994 1022 0 0 0 1051 1051 1036 1036 1051 1008 1008 1036 1036 1051 1115 1206 1187 1247 1082 1008 943 943 0 1051 1036 1036 0 1008 0 0 1036 0 994 981 981 981 968 968 955 955 968 955 968 968 994 994 994 1008 994 1008 1022 1008 981 981 994 1022 1036 1149 1098 1149 1149 1132 1187 1132 1168 1098 0 0 0 0 0 0 0 0 886 865 931 955 968 968 955 968 943 981 994 943 886 886 865 845 817 808 782 735 735 743 743 735 735 714 714 707 707 700 694 694 687 675 675 669 663 639 634 629 618 613 618 608 603 598 593 598 588 593 593 584 588 579 570 570 553 549 545 541 537 533 518 525 514 0 0 0 0 0
    0 0 0 0 0 0 0 0 0 0 0 0 0 0 0 0 0 0 0 0 0 0 0 0 0 0 0 0 0 0 0 0 0 0 0 0 0 0 0 0 0 0 0 0 0 0 0 0 0 0 0 0 0 0 0 0 0 0 0 0 0 0 0 0 0 0 0 0 0 0 0 0 0 0 0 0 0 0 0 0 0 0 0 0 0 0 0 0 0 0 0 0 1168 1168 1149 0 0 1149 1066 1008 981 968 981 955 994 1008 1008 1008 1022 1036 1051 1066 1082 1082 1115 1132 1115 1066 1098 1098 1082 1115 1082 1066 1051 1066 1206 1066 1036 0 981 943 908 931 943 968 968 968 994 1022 1022 1036 1022 1008 1008 1008 1036 1022 1036 1051 1051 1066 1115 1098 1149 1115 1187 1115 1066 1132 1098 1098 1098 1082 1082 1082 1066 1066 1022 1036 1022 994 994 1008 1008 1008 1036 1036 0 1036 1082 1066 1066 1066 1098 1036 1022 1051 1066 1098 1168 1247 1226 1247 1098 0 0 0 0 0 1036 1036 0 1008 0 0 0 0 994 981 981 994 981 981 968 968 981 968 968 981 994 994 994 1008 1008 1022 1036 1008 994 968 994 1008 1036 1132 1115 1187 1168 1187 0 0 0 0 0 0 0 0 0 0 0 0 0 855 919 943 968 968 955 955 943 981 994 919 865 876 865 845 826 817 782 735 735 750 735 728 735 714 714 707 707 707 700 694 694 681 687 675 669 645 634 634 623 613 618 608 603 598 593 593 588 593 593 579 588 579 570 574 557 549 545 541 537 533 518 525 514 0 0 0 0 0
    0 0 0 0 0 0 0 0 0 0 0 0 0 0 0 0 0 0 0 0 0 0 0 0 0 0 0 0 0 0 0 0 0 0 0 0 0 0 0 0 0 0 0 0 0 0 0 0 0 0 0 0 0 0 0 0 0 0 0 0 0 0 0 0 0 0 0 0 0 0 0 0 0 0 0 0 0 0 0 0 0 0 0 0 0 0 0 0 302 0 0 0 0 0 0 0 0 1149 1082 1022 968 981 994 981 1022 1022 1022 1036 1051 1066 1066 1066 1082 1082 1098 1115 1098 1066 1098 1098 1098 1115 1082 1082 1066 1082 1226 1082 1066 1268 0 0 0 1008 981 1051 994 1008 1022 1036 1036 1036 1036 1022 1022 1022 1036 1022 1051 1051 1051 1066 1115 1115 1132 1115 1206 1115 1066 1132 1098 1098 1098 1082 1082 1082 1066 1082 1036 1036 1036 1008 1022 1022 0 1022 1051 1051 1051 1066 1115 1098 1098 1098 1187 1098 1066 1082 1115 1187 1247 1268 1268 1247 1115 0 0 0 0 1051 1051 1036 981 0 130 130 0 130 1008 994 994 1022 1008 994 994 994 994 981 981 994 994 1008 1008 1008 1008 1036 1066 1036 994 994 1022 1036 1066 1149 1149 1187 1187 0 0 0 0 1187 0 0 0 0 0 0 0 865 845 865 919 943 968 968 968 968 943 968 981 908 855 865 865 845 826 817 782 750 743 766 743 728 735 714 721 714 714 707 700 700 694 687 694 681 681 657 651 639 623 613 618 603 603 598 593 593 588 588 588 579 588 579 570 574 557 553 545 541 537 533 514 521 514 0 0 0 0 0
    0 0 0 0 0 0 0 0 0 0 0 0 0 0 0 0 0 0 0 0 0 0 0 0 0 0 0 0 0 0 0 0 0 0 0 0 0 0 0 0 0 0 0 0 0 0 0 0 0 0 0 0 0 0 0 0 0 0 0 0 0 0 0 0 0 0 0 0 0 0 0 0 0 0 0 0 0 0 0 0 0 0 0 0 0 0 0 0 304 302 307 0 0 0 0 0 0 0 1187 1066 994 1008 1022 1022 1051 1051 1051 1051 1066 1082 1082 1082 1082 1082 1098 1115 1098 1066 1098 1115 1098 1149 1115 1098 1082 1115 1226 1098 1082 1314 0 0 0 1115 1066 1149 1066 1051 1051 1066 1051 1066 1051 1036 1036 1051 1051 1036 1051 1066 1066 1082 1098 1115 1115 1115 1187 1132 1066 1132 1098 1098 1098 1082 1082 1082 1066 1082 1036 1036 1036 1022 1036 1036 1036 0 1066 1066 1066 1066 1149 1132 1098 1098 1206 1132 1082 1082 1132 1168 1206 1247 1226 1206 1098 0 0 0 0 0 1036 1036 981 0 0 131 130 130 1008 1008 1008 1022 1008 1008 1008 994 994 981 994 994 1008 1008 1008 1008 1008 1022 1051 1022 1008 994 1036 1036 1082 1132 1168 1187 1187 0 0 0 0 1187 0 0 0 0 0 0 0 0 865 908 968 968 994 981 968 968 943 955 968 886 845 855 845 836 817 808 782 758 750 766 743 735 735 714 721 714 714 714 707 700 700 694 700 681 681 663 657 651 629 618 618 603 603 598 593 593 588 588 588 579 588 579 574 574 557 549 545 541 537 529 514 521 511 0 0 0 0 0
    0 0 0 0 0 0 0 0 0 0 0 0 0 0 0 0 0 0 0 0 0 0 0 0 0 0 0 0 0 0 0 0 0 0 0 0 0 0 0 0 0 0 0 0 0 0 0 0 0 0 0 0 0 0 0 0 0 0 0 0 0 0 0 0 0 0 0 0 0 0 0 0 0 0 0 0 0 0 0 0 0 0 0 0 0 0 0 0 0 0 0 0 0 0 0 0 0 0 1247 1132 1022 1036 1036 1036 1082 1082 1082 1066 1082 1115 1115 1115 1098 1098 1098 1115 1115 1082 1132 1115 1115 1168 1149 1132 1132 1168 1247 1115 1098 1291 1338 0 0 1206 1132 1168 1082 1082 1066 1082 1082 1066 1066 1051 1051 1066 1082 1051 1066 1082 1082 1098 1115 1115 1098 1098 1168 1132 1051 1132 1098 1098 1098 1082 1082 1082 1066 1098 1036 1051 1051 1036 1036 1051 1036 1036 1051 1066 1066 1066 1132 1115 1098 1098 1206 1132 1082 1082 1115 1132 1187 1226 1206 1187 1098 0 0 0 0 0 1022 1022 994 0 0 0 1036 1036 1022 1022 1022 1036 1008 1008 1008 994 994 994 994 1008 1008 1008 1008 1008 1008 1008 1036 1008 994 1008 1036 1051 1098 1115 1149 1168 1168 0 0 0 0 0 0 0 0 6133 0 0 0 0 0 955 994 994 1008 994 981 968 955 943 943 876 845 855 845 836 817 817 799 782 766 782 750 743 743 714 728 721 721 714 707 707 700 700 700 681 675 663 657 657 634 618 618 603 603 598 593 593 588 588 588 579 588 579 574 574 561 549 545 541 537 529 514 521 511 0 0 0 0 0
    0 0 0 0 0 0 0 0 0 0 0 0 0 0 0 0 0 0 0 0 0 0 0 0 0 0 0 0 0 0 0 0 0 0 0 0 0 0 0 0 0 0 0 0 0 0 0 0 0 0 0 0 0 0 0 0 0 0 0 0 0 0 0 0 0 0 0 0 0 943 931 943 0 0 0 0 0 0 0 0 0 0 0 0 0 0 301 0 0 0 0 0 0 0 0 0 0 0 1314 1206 1051 1066 1066 1051 1098 1082 1082 1082 1098 1115 1115 1115 1098 1098 1115 1115 1115 1082 1168 1149 1132 1187 1187 1187 1187 1206 1247 1132 1115 1247 1314 0 0 1187 1115 1168 1115 1149 1098 1115 1115 1098 1082 1082 1082 1098 1098 1066 1082 1082 1082 1082 1115 1115 1098 1098 1149 1132 1036 1132 1098 1098 1098 1082 1066 1082 1066 1115 1036 1051 1051 1036 1036 1051 1036 1036 1066 1066 1066 1066 1115 1115 1082 1098 1168 1115 1066 1066 1082 1082 1132 1206 1187 1149 1082 0 0 0 1051 0 1036 1022 1008 1036 1036 1036 1036 1022 1036 1022 1022 1036 1008 1008 1008 1008 1008 994 1008 1008 1022 1008 1022 1022 1022 1008 1022 994 994 1008 1036 1036 1098 1098 1098 1132 0 0 0 0 0 0 0 0 0 0 0 0 0 0 845 955 994 981 1008 1008 981 981 968 955 919 865 845 855 845 836 826 817 799 799 782 791 766 758 750 721 728 721 721 721 707 714 700 700 700 687 681 663 663 663 639 623 623 608 608 598 593 593 584 588 588 579 588 579 574 574 561 553 545 545 0 533 518 521 514 0 0 0 0 0
    0 0 0 0 0 0 0 0 0 0 0 0 0 0 0 0 0 0 0 0 0 0 0 0 0 0 0 0 0 0 0 0 0 0 0 0 0 0 0 0 0 0 0 0 0 0 0 0 0 0 0 0 0 0 0 0 0 0 0 0 0 0 0 0 0 0 0 0 0 943 943 968 0 0 0 0 0 0 0 0 0 0 244 0 0 0 0 0 0 0 0 0 0 0 0 0 0 0 1338 0 1066 1132 1098 1066 1115 1098 1115 1098 1115 1132 1132 1149 1115 1115 1132 1132 1132 1115 1187 1168 1149 1226 1226 1206 1226 1226 1247 1149 1132 1247 0 0 0 1226 1149 1187 1168 1187 1132 1168 1149 1132 1098 1082 1082 1098 1098 1082 1082 1082 1082 1082 1098 1115 1098 1098 1168 1115 1036 1132 1098 1098 1098 1082 1082 1082 1066 1115 1036 1051 1066 1036 1036 1051 1051 1036 1066 1066 1066 1066 1115 1098 1082 1082 1168 1098 1051 1051 1066 1066 1098 1187 1149 1132 1066 0 0 0 1051 0 1022 1022 1008 1036 1036 1051 1036 1022 1036 1022 1036 1051 1008 1008 1008 1008 1008 1008 1022 1022 1022 1008 1022 1022 1022 1022 1022 994 994 1008 1036 1036 1082 1066 1066 0 0 0 0 0 0 0 0 0 0 0 0 0 0 845 865 968 994 994 1008 1008 994 1008 981 968 908 855 845 845 836 836 826 817 808 799 791 791 766 766 758 721 735 728 728 728 714 714 707 700 707 687 681 669 669 669 639 629 623 608 608 598 593 593 584 588 588 579 588 579 579 574 561 553 549 545 0 533 521 525 514 0 0 0 0 0
    0 0 0 0 0 0 0 0 0 0 0 0 0 0 0 0 0 0 0 0 0 0 0 0 0 0 0 0 0 0 0 0 0 0 0 0 0 0 0 0 0 0 0 0 0 0 0 0 0 0 0 0 0 0 0 0 0 0 0 0 0 0 0 0 0 0 0 0 0 943 955 968 0 0 1206 1471 1362 1388 1388 1268 0 0 245 0 0 0 0 0 0 0 0 0 0 0 0 0 0 0 1338 0 1098 1149 1132 1082 1115 1115 1115 1115 1132 1132 1132 1132 1132 1115 1149 1132 1132 1132 1206 1206 1187 1226 1247 1247 1247 1247 1247 1168 1149 1226 0 1314 1338 1268 1206 1206 1226 1226 1149 1187 1168 1168 1132 1115 1098 1115 1115 1082 1098 1098 1082 1082 1098 1115 1098 1082 1168 1082 1036 1132 1098 1098 1098 1098 1082 1098 1082 1149 1051 1066 1082 1051 1051 1051 1051 1036 1066 1066 1066 1066 1132 1115 1082 1082 1168 1115 1066 1051 1066 1066 1098 1187 1149 1115 1066 0 0 0 1051 0 0 1022 1008 1036 1036 1051 1036 1022 1051 1036 1036 1066 1022 1008 1008 1022 1008 1022 1036 1036 1022 1022 1036 1036 1022 1022 1022 981 981 994 1036 1008 1051 1036 1022 0 0 0 0 0 0 0 0 0 0 0 0 0 876 865 897 981 1008 1008 1022 1008 1008 1022 994 981 908 855 855 845 836 836 826 817 817 808 799 799 774 774 758 728 743 728 735 735 714 721 707 700 707 687 681 669 663 669 645 629 623 0 608 598 593 593 584 588 588 579 593 579 579 579 566 553 549 545 0 537 521 525 518 0 0 0 0 0
    0 0 0 0 0 0 0 0 0 0 0 0 0 0 0 0 0 0 0 0 0 0 0 0 0 0 0 0 0 0 0 0 0 0 0 0 0 0 0 0 0 0 0 0 0 0 0 0 0 0 0 0 0 0 0 0 0 0 0 0 0 0 0 0 0 0 0 0 0 943 943 968 0 1206 1206 1471 1338 1362 1362 1268 0 0 0 0 0 0 0 0 0 208 0 0 0 0 0 0 0 0 1338 0 1149 1187 1168 1098 1115 1115 1115 1115 1132 1149 1132 1149 1132 1132 1149 1132 1149 1149 1226 1247 1206 1247 1268 1268 1268 1268 1247 1168 1168 1206 1291 1291 1314 1247 1187 1187 1187 1226 1132 1187 1168 1149 1149 1115 1098 1115 1115 1098 1082 1082 1082 1082 1098 1115 1082 1082 1132 1066 1022 1098 1082 1082 1098 1098 1082 1098 1082 1168 1066 1082 1082 1051 1051 1066 1051 1051 1066 1066 1082 1066 1132 1115 1082 1098 1168 1115 1098 1082 1098 1115 1168 1247 1168 1149 1082 1066 1051 0 1051 0 0 1008 994 1036 1051 1051 1036 1036 1066 1051 1051 1098 1036 1022 1022 1036 1008 1022 1022 1022 1022 1008 1022 1022 1022 1036 1022 981 994 994 1022 981 1022 1008 968 0 0 0 0 0 0 0 0 0 0 0 0 0 886 0 955 1008 1022 1036 1036 1022 1022 1022 1008 981 897 855 855 845 836 836 826 817 817 808 808 808 782 782 774 728 743 735 735 735 721 721 707 700 700 687 681 663 663 669 645 629 623 0 608 598 598 593 584 588 588 579 588 579 579 574 566 557 549 545 0 537 521 525 518 0 0 0 0 0
    0 0 0 0 0 0 0 0 0 0 0 0 0 0 0 0 0 0 0 0 0 0 0 0 0 0 0 0 0 0 0 0 0 0 0 0 0 0 0 0 0 0 0 0 0 0 0 0 0 0 0 0 0 0 0 0 0 0 0 0 0 0 0 0 0 0 0 0 0 931 955 981 1115 0 1226 1533 1338 1362 1314 1247 0 0 0 0 0 0 0 0 0 0 0 0 206 0 0 0 0 0 0 0 1149 1187 1168 1098 1132 1115 1115 1115 1149 1149 1115 1149 1149 1132 1149 1149 1149 1187 1247 1268 1247 1247 1268 1268 1291 1291 1247 1168 1149 1187 1268 1268 1268 1247 1206 1187 1226 1247 1149 1187 1187 1168 1187 1149 1115 1132 1132 1115 1098 1098 1082 1082 1082 1132 1082 1082 1115 1066 1008 1082 1066 1066 1066 1066 1066 1066 1082 1168 1051 1066 1082 1051 1051 1066 1051 1051 1066 1066 1082 1082 1132 1115 1082 1098 1149 1149 1132 1132 1149 1187 1206 1268 1226 1187 1115 1066 1051 0 1051 0 0 1022 1008 1051 1051 1051 1051 1066 1082 1066 1082 1132 1051 1036 1036 1036 1008 1036 1036 1022 1022 1022 1036 1022 1022 1051 1022 994 1022 1008 1036 981 1022 981 919 0 0 0 0 0 0 0 0 0 0 0 0 0 0 0 1008 1036 1051 1082 1051 1022 1022 1022 1008 968 897 855 855 855 836 836 826 817 817 817 808 808 782 791 774 728 750 735 735 735 714 714 700 700 700 687 675 663 669 669 651 634 629 0 608 598 598 593 584 588 588 579 588 579 579 574 566 557 553 549 0 537 525 525 518 0 0 0 0 0
    0 0 0 0 0 0 0 0 0 0 0 0 0 0 0 0 0 0 0 0 0 0 0 0 0 0 0 0 0 0 0 0 0 0 0 0 0 0 0 0 0 0 0 0 0 0 0 0 0 0 0 0 0 0 0 0 0 0 0 0 0 0 0 0 0 0 0 0 0 943 955 981 1051 1206 1149 0 1268 1247 1268 1187 0 1168 0 0 0 0 0 0 0 0 0 0 0 0 147 0 0 0 0 0 1132 1187 1149 1082 1115 1132 1132 1132 1149 1149 1115 1149 1168 1149 1168 1149 1149 1206 1268 1291 1268 1268 1291 1291 1291 1291 1247 1168 1168 1187 1268 1247 1247 1247 1206 1187 1247 1247 1168 1226 1206 1187 1206 1187 1115 1132 1132 1132 1098 1098 1082 1082 1082 1132 1082 1082 1082 1066 1008 1066 1051 1051 1051 1051 1036 1051 1066 1149 1051 1066 1082 1051 1066 1066 1066 1051 1066 1066 1082 1082 1132 1098 1082 1098 1149 1168 1168 1168 1187 1206 1226 1268 1247 1206 1132 1066 1066 1066 1051 0 1022 1022 1022 1066 1066 1066 1066 1066 1098 1082 1082 1149 1036 1022 1036 1036 1022 1051 1036 1022 1036 1036 1051 1036 1036 1066 1036 1022 1036 1022 1036 994 0 994 968 955 943 908 0 0 0 886 0 0 0 0 0 0 0 0 1036 1066 1082 1082 1066 1022 1008 1022 1008 968 897 855 865 855 836 836 826 817 817 817 817 808 782 799 782 735 750 735 735 735 714 714 694 694 694 681 669 663 663 669 651 634 629 0 608 598 598 593 584 588 588 584 593 579 579 574 566 557 557 553 549 0 529 525 521 0 0 0 0 0
    0 0 0 0 0 0 0 0 0 0 0 0 0 0 0 0 0 0 0 0 0 0 0 0 0 0 0 0 0 0 0 0 0 0 0 0 0 0 0 0 0 0 0 0 0 0 0 0 0 0 0 0 0 0 0 0 0 0 0 0 0 0 0 0 0 0 0 0 0 955 0 0 0 1268 1187 1268 1247 1226 1247 1168 1187 1206 1098 0 1098 1082 1098 1066 1066 1082 0 0 0 0 0 0 0 1268 1206 1132 1149 1187 1149 1098 1115 1132 1132 1132 1149 1149 1115 1168 1187 1168 1187 1149 1168 1247 1291 1314 1314 1291 1314 1314 1314 1314 1247 1168 1168 1168 1247 1206 1206 1206 1206 1168 1226 1226 1168 1226 1206 1206 1206 1187 1132 1149 1149 1168 1098 1098 1098 1082 1082 1115 1066 1066 1066 1051 1008 1066 1051 1051 1051 1066 1051 1066 1066 1168 1066 1066 1082 1051 1066 1066 1066 1051 1051 1066 1066 1066 1115 1082 1066 1082 1115 1149 1149 1187 1206 1226 1226 1268 1247 1206 1132 1066 1051 1051 1051 0 1036 1036 1022 1066 1082 1082 1082 1066 1098 1082 1082 1149 1022 1022 1022 1022 1008 1051 1036 1022 1036 1022 1036 1036 1036 1066 1036 1022 1022 1022 0 981 0 968 955 943 955 943 919 919 908 886 876 0 0 0 0 0 0 0 1051 1066 1082 1082 1051 1008 994 1008 1008 981 897 855 865 855 836 836 826 817 817 817 817 808 791 799 782 735 750 735 743 735 714 714 694 694 694 681 669 663 663 669 651 634 629 0 608 598 598 593 584 588 593 584 593 579 579 574 570 561 557 553 0 0 529 525 521 0 0 0 0 0
    0 0 0 0 0 0 0 0 0 0 0 0 0 0 0 0 0 0 0 0 0 0 0 0 0 0 0 0 0 0 0 0 0 0 0 0 0 0 0 0 0 0 0 0 0 0 0 0 0 0 0 0 0 0 0 0 0 0 0 0 0 0 0 0 0 0 0 0 0 994 0 0 1206 1268 1206 1226 1226 1187 1226 1132 1132 1149 1066 1066 1082 1066 1098 1066 1051 1066 0 0 0 0 0 1149 1187 1206 1149 1115 1149 1168 1149 1115 1115 1132 1132 1149 1168 1132 1132 1187 1187 1168 1187 1168 1168 1247 1291 1338 1338 1291 1314 1314 1314 1314 1247 1168 1168 1168 1247 1226 1187 1187 1187 1149 1247 1226 1168 1247 1226 1206 1226 1187 1132 1149 1149 1168 1098 1098 1098 1098 1082 1115 1066 1066 1066 1066 1022 1051 1051 1051 1051 1051 1051 1051 1066 1187 1082 1082 1098 1066 1082 1066 1066 1066 1051 1066 1066 1066 1082 1066 1051 1082 1098 1115 1149 1168 1187 1206 1226 1247 1247 1187 1132 1066 1051 0 1051 0 1036 1036 1036 1082 1082 1082 1098 1082 1098 1066 1082 1149 0 1022 1022 1008 1022 1066 1036 1036 1036 1036 1036 1036 1051 1082 1022 1008 1008 994 994 955 968 943 931 931 955 943 931 919 919 886 876 0 0 0 0 0 0 0 1036 1051 1051 1066 1036 1008 994 1022 1008 994 897 865 876 855 836 836 826 817 817 817 817 808 782 799 774 728 743 735 735 735 714 714 700 694 694 687 675 663 663 669 651 634 629 608 608 0 598 593 584 588 593 584 588 579 579 574 570 561 557 553 94 0 0 525 521 0 0 0 0 0
    0 0 0 0 0 0 0 0 0 0 0 0 0 0 0 0 0 0 0 0 0 0 0 0 0 0 0 0 0 0 0 0 0 0 0 0 0 0 0 0 0 0 0 0 0 0 0 0 0 0 0 0 0 0 0 0 0 0 0 0 0 0 0 0 0 0 0 0 0 0 0 0 0 1268 1187 0 1206 1149 1187 1115 1098 1115 1051 1066 1098 1082 1132 1082 1098 1098 0 0 0 0 0 1226 1247 1226 1149 1132 1168 1168 1132 1115 1115 1132 1132 1149 1149 1115 1115 1168 1187 1168 1187 1168 1168 1247 1291 1362 1338 1314 1314 1314 1314 1314 1247 1168 1187 1187 1268 1247 1226 1206 1206 1168 1247 1226 1187 1247 1226 1226 1226 1187 1149 1149 1149 1168 1098 1098 1098 1098 1098 1115 1082 1082 1082 1066 1022 1051 1051 1051 1051 1051 1051 1051 1066 1168 1082 1098 1098 1066 1082 1082 1082 1066 1066 1066 1066 1082 1098 1051 1051 1066 1082 1115 1132 1187 1187 1206 1206 1226 1206 1149 1115 1066 1051 0 1036 1008 1051 1051 1036 1082 1098 1098 1098 1082 1098 1082 1082 0 0 1008 1008 1008 1022 1066 1036 1036 1051 1051 1051 1051 1066 1115 1022 1008 1008 981 955 908 919 908 908 919 955 931 919 908 0 0 0 0 0 0 0 0 0 994 1008 1022 1036 1036 1022 994 1008 1036 1022 1008 908 865 886 855 836 836 826 817 817 817 817 799 774 791 766 728 735 728 735 735 714 714 700 694 694 687 675 669 663 669 657 629 629 608 608 0 598 593 584 588 593 584 588 579 579 570 570 561 557 553 94 0 0 0 521 0 0 0 0 0
    0 0 0 0 0 0 0 0 0 0 0 0 0 0 0 0 0 0 0 0 0 0 0 0 0 0 0 0 0 0 0 0 0 0 0 0 0 0 0 0 0 0 0 0 0 0 0 0 0 0 0 0 0 0 0 0 0 0 0 0 0 0 0 0 0 0 0 0 0 0 0 454 0 1268 1187 0 1206 1132 1132 1098 1082 1082 1051 1066 1082 1066 1098 1082 1098 1098 0 0 0 0 0 0 0 1247 1149 1149 1168 1168 1132 1115 1098 1115 1132 1149 1132 1115 1115 1168 1168 1168 1187 1168 1168 1268 1291 1362 1338 1314 1314 1291 1314 1291 1247 1168 1187 1187 1268 1226 1206 1168 1168 1132 1226 1206 1149 1226 1226 1226 1226 1187 1149 1149 1149 1168 1098 1098 1098 1098 1098 1098 1082 1082 1098 1066 1036 1051 1051 1051 1051 1051 1051 1051 1066 1132 1066 1082 1082 1066 1098 1082 1066 1066 1066 1066 1066 1082 1082 1051 1051 1082 1098 1115 1149 1206 1206 1206 1206 1226 1206 1168 1132 1066 1051 0 1036 1008 1066 1066 1051 1098 1098 1115 1115 1082 1115 1082 1082 0 0 1022 1022 1008 1036 1066 1036 1036 1051 1036 1051 1051 1082 1115 1036 1008 981 968 919 886 886 886 908 943 968 955 943 0 0 0 0 0 0 0 0 0 0 1008 1008 1036 1036 1036 1022 994 1008 1022 1022 1008 897 865 886 865 826 836 826 0 817 817 808 791 766 791 758 728 735 728 735 735 714 714 700 694 694 687 669 663 663 663 651 629 623 608 608 0 598 593 588 588 593 584 588 584 579 570 570 561 557 553 94 94 0 0 521 0 0 0 0 0
    0 0 0 0 0 0 0 0 0 0 0 0 0 0 0 0 0 0 0 0 0 0 0 0 0 0 0 0 0 0 0 0 0 0 0 0 0 0 0 0 0 0 0 0 0 0 0 0 0 0 0 0 0 0 0 0 0 0 0 0 0 0 0 0 0 0 0 0 0 0 0 0 0 0 1149 0 1132 1082 1082 1066 1066 1066 1036 1036 1066 1066 1098 1082 0 1168 0 0 0 0 0 0 0 0 1115 1132 1149 1132 1115 1098 1098 1115 1132 1149 1115 1098 1115 1168 1149 1149 1168 1149 1168 1247 1291 1362 1338 1314 1291 1291 1291 1291 1247 1149 1168 1168 1247 1206 1206 1187 1206 1168 1247 1226 1187 1247 1247 1247 1226 1168 1149 1149 1149 1168 1098 1098 1115 1115 1115 1098 1066 1082 1098 1066 1036 1051 1051 1051 1051 1051 1036 1036 1066 1098 1066 1066 1066 1082 1098 1082 1082 1066 1066 1066 1082 1098 1098 1051 1066 1082 1115 1149 1187 1226 1226 1226 1226 1226 1206 1168 1149 1082 1051 0 1036 1008 1082 1066 1051 1098 1115 1115 1115 1082 1115 1082 1082 0 0 1022 1022 1008 1036 1066 1036 1036 1051 1036 1036 1051 1098 1098 1036 1008 981 955 908 886 886 897 919 968 981 0 0 0 0 0 0 457 0 0 0 0 0 1022 1036 1051 1051 1051 1022 1008 1008 1008 1008 994 897 865 886 865 826 836 826 0 817 817 808 791 774 791 758 728 735 735 735 735 721 714 700 694 694 687 669 663 657 657 651 629 623 608 608 0 598 593 588 588 593 584 588 584 579 570 570 561 557 553 94 94 0 0 521 0 0 0 0 0
    0 0 0 0 0 0 0 0 0 0 0 0 0 0 0 0 0 0 0 0 0 0 0 0 0 0 0 0 0 0 0 0 0 0 0 0 0 0 0 0 0 0 0 0 0 0 0 0 0 0 0 0 0 0 0 0 0 0 0 0 0 0 0 0 0 0 0 0 0 0 0 0 0 0 0 0 0 1066 1066 1051 1051 1051 1036 1036 1066 1051 1082 1082 0 0 0 0 0 0 0 0 0 1149 1082 1115 1132 1098 1098 1098 1098 1115 1132 1149 1115 1098 1132 1168 1132 1149 1168 1168 1168 1268 1291 1338 1338 1314 1291 1291 1291 1291 1226 1132 1149 1168 1247 1187 1187 1206 1226 1206 1247 1247 1187 1247 1247 1247 1226 1168 1149 1149 1168 1168 1115 1098 1115 1115 1115 1098 1066 1082 1098 1051 1051 1051 1051 1051 1051 1036 1036 1036 1066 1066 1051 1051 1066 1082 1098 1082 1082 1082 1066 1082 1082 1115 1082 1066 1066 1082 1115 1149 1168 1206 1226 1226 1206 1206 1206 1168 1149 1098 1066 1051 1066 1022 1098 1098 1066 1115 1115 1115 1115 1082 1115 1066 1066 0 0 1022 1022 1008 1022 1051 1022 1022 1036 1036 1036 1051 1115 1115 1051 1036 1008 981 968 919 919 943 955 981 1008 0 0 0 0 0 471 462 0 0 0 0 1051 1036 1036 1051 1051 1051 1022 994 994 994 994 981 897 865 886 865 826 826 826 0 817 817 808 791 774 791 758 728 735 735 735 735 721 714 700 694 694 687 657 663 651 657 651 629 629 608 613 0 598 598 588 588 593 584 588 584 579 570 570 566 557 553 94 94 0 0 521 0 0 0 0 0
    0 0 0 0 0 0 0 0 0 0 0 0 0 0 0 0 0 0 0 0 0 0 0 0 0 0 0 0 0 0 0 0 0 0 0 0 0 0 0 0 0 0 0 0 0 0 0 0 0 0 0 0 0 0 0 0 0 0 0 0 0 0 0 0 0 0 0 0 0 0 0 0 0 0 0 0 0 1066 1066 1051 1066 1066 1066 1066 1098 0 0 0 0 0 1149 0 1149 1115 0 1115 1132 1098 1082 1098 1115 1082 1098 1115 1098 1115 1132 1149 1115 1115 1149 1187 1132 1132 1168 1168 1187 1247 1291 1314 1314 1314 1291 1291 1291 1268 1226 1115 1132 1149 1226 1187 1187 1206 1226 1206 1268 1247 1226 1247 1247 1247 1206 1168 1168 1168 1187 1168 1115 1115 1115 1115 1132 1082 1066 1082 1082 1051 1051 1051 1051 1051 1051 1051 1036 1036 1066 1051 1051 1051 1066 1098 1098 1082 1082 1082 1082 1082 1082 1115 1082 1066 1082 1082 1098 1115 1149 1206 1226 1206 1206 1187 1206 1168 1168 1115 1098 1066 1098 1036 1115 1115 1066 1115 1115 1115 1098 1082 1115 1051 1066 0 1022 1022 1022 1008 1022 1022 1022 1022 1036 1036 1051 1066 1132 1132 1082 1082 1022 981 981 943 955 968 968 994 1036 0 0 0 0 0 0 0 0 0 0 0 1036 1036 1036 1036 1036 1036 1008 994 994 994 994 981 897 865 886 865 826 836 826 0 817 817 817 791 774 791 758 728 735 743 735 735 721 721 707 694 0 687 651 663 651 651 651 623 629 608 0 0 598 598 588 593 593 584 588 584 579 570 570 566 557 553 94 94 0 0 521 0 0 0 0 0
    0 0 0 0 0 0 0 0 0 0 0 0 0 0 0 0 0 0 0 0 0 0 0 0 0 0 0 0 0 0 0 0 0 0 0 0 0 0 0 0 0 0 0 0 0 0 0 0 0 0 0 0 0 0 0 0 0 0 0 0 0 0 0 0 0 0 0 0 0 0 0 0 0 0 1066 1098 1082 1082 1082 1066 1066 1082 1082 1082 0 0 0 0 0 0 1168 1168 1187 1132 1098 1098 1132 1066 1082 1115 1115 1082 1082 1115 1098 1115 1149 1132 1098 1115 1168 1187 1115 1115 1168 1168 1187 1247 1291 1291 1291 1314 1291 1291 1268 1247 1206 1115 1115 1132 1206 1168 1187 1187 1226 1187 1226 1226 1187 1226 1206 1206 1168 1149 1168 1168 1187 1168 1132 1115 1132 1132 1132 1066 1066 1082 1066 1066 1082 1066 1066 1066 1066 1066 1066 1066 1082 1066 1051 1051 1066 1098 1098 1082 1082 1082 1082 1082 1098 1098 1066 1066 1082 1082 1098 1132 1168 1226 1247 1187 1187 1168 1168 1132 1149 1115 1115 1066 1098 1036 1132 1115 1066 1098 1098 1098 1082 1066 1115 1051 1051 0 1036 1036 1022 1022 1022 1008 1008 1022 1036 1036 1036 1066 1132 1115 1082 1051 994 955 968 931 955 968 968 1008 1051 0 0 0 0 0 0 0 0 0 0 0 1022 1022 1022 1022 1022 1022 994 994 1008 1008 1008 994 897 865 886 865 826 836 826 826 817 817 817 791 774 782 750 728 735 743 735 743 728 728 721 707 0 694 657 669 651 651 651 623 629 608 0 0 603 598 588 593 593 584 588 584 579 570 570 561 553 553 0 94 0 0 521 0 0 0 0 0
    0 0 0 0 0 0 0 0 0 0 0 0 0 0 0 0 0 0 0 0 0 0 0 0 0 0 0 0 0 0 0 0 0 0 0 0 0 0 0 0 0 0 0 0 0 0 0 0 0 0 0 0 0 0 0 0 0 0 0 0 0 0 0 0 0 0 0 0 0 0 0 0 0 1206 1132 1149 1115 1115 1115 1066 1066 1082 1066 1082 1149 0 0 0 0 1226 1187 1168 1187 1132 1098 1082 1098 1051 1066 1098 1098 1082 1082 1115 1098 1115 1149 1115 1098 1132 1168 1187 1098 1098 1168 1168 1187 1247 1291 1268 1268 1314 1291 1291 1268 1247 1206 1098 1098 1132 1168 1168 1168 1168 1206 1187 1206 1206 1187 1206 1168 1168 1115 1132 1168 1168 1168 1149 1115 1115 1132 1149 1132 1051 1066 1082 1066 1066 1098 1082 1082 1082 1082 1082 1082 1082 1098 1066 1051 1051 1066 1098 1098 1082 1082 1082 1082 1098 1115 1115 1082 1098 1132 1115 1168 1187 1206 1247 1268 1187 1187 1168 1149 1132 1149 1132 1115 1051 1098 1036 1132 1098 1051 1082 1082 1082 1066 1066 1098 1036 1036 1098 1036 1036 1022 1022 1022 1008 994 1008 1022 1022 1022 1051 1115 1082 1066 1051 981 968 981 968 968 981 0 1036 1066 0 1082 0 0 0 0 0 0 943 908 0 1008 1008 1008 1008 1008 1008 994 1008 1022 1022 1022 1008 908 865 897 876 826 836 826 826 817 817 817 791 766 774 750 721 735 743 743 743 735 735 735 714 0 700 663 669 651 645 645 623 629 613 0 0 603 598 588 593 593 584 588 584 579 570 570 561 553 549 0 0 529 518 521 0 0 0 0 0
    0 0 0 0 0 0 0 0 0 0 0 0 0 0 0 0 0 0 0 0 0 0 0 0 0 0 0 0 0 0 0 0 0 0 0 0 0 0 0 0 0 0 0 0 0 0 0 0 0 0 0 0 0 0 0 0 0 0 0 0 0 0 0 0 0 0 0 0 0 0 0 1362 1247 1206 1168 1168 1149 1149 1132 1082 1066 1066 1066 1082 0 0 0 0 1247 1247 1226 1226 1226 1187 1149 1115 1098 1036 1066 1082 1066 1066 1066 1098 1098 1115 1132 1098 1098 1132 1168 1187 1098 1098 1149 1168 1187 1247 1268 1268 1247 1291 1291 1291 1268 0 1187 1098 1115 1132 1187 1168 1187 1187 1226 1187 1206 1206 1187 1206 1168 1132 1098 1132 1168 1168 1168 1132 1115 1115 1132 1149 1149 1066 1082 1082 1066 1082 1098 1082 1082 1082 1082 1066 1066 1082 1082 1036 1036 1051 1066 1082 1098 1082 1082 1082 1082 1115 1149 0 0 1149 1226 1206 1338 1268 1247 1247 1268 1149 1168 1132 1098 1098 1115 1098 1115 1066 1115 1036 1132 1098 1051 1082 1082 1066 1051 1051 1082 1022 1022 1082 1036 1036 1022 1022 1008 994 981 994 994 994 1008 1051 1082 1082 1082 0 981 955 981 955 943 955 994 1036 1082 0 1082 0 0 0 0 0 0 943 876 955 994 1008 1008 994 994 994 981 1008 1022 1022 1022 1022 919 865 897 876 826 836 836 836 826 826 817 791 774 0 743 721 735 735 735 743 735 735 735 721 0 700 663 669 645 639 645 623 629 613 0 0 603 598 588 593 593 584 588 584 579 566 570 561 549 549 545 533 529 518 521 0 0 0 0 0
    0 0 0 0 0 0 0 0 0 0 0 0 0 0 0 0 0 0 0 0 0 0 0 0 0 0 0 0 0 0 0 0 0 0 0 0 0 0 0 0 0 0 0 0 0 0 0 0 0 0 0 0 0 0 0 0 0 0 0 0 0 0 0 0 0 0 0 0 0 0 0 1501 1291 1247 1226 1226 1247 1206 1206 1115 1098 1115 1115 1115 0 0 0 0 1226 1247 1247 0 1268 1226 1226 1187 1098 1036 1082 1082 1066 1051 1066 1082 1082 1098 1115 1098 1098 1149 1168 1187 1082 1098 1149 1168 1187 1226 1268 1247 1247 1291 1291 1291 1268 0 1187 1115 1115 1132 1168 1168 1187 1187 1206 1187 1187 1206 1168 1187 1149 1098 1082 1132 1168 1168 1168 1132 1132 1115 1149 1168 1149 1066 1082 1082 1066 1082 1115 1082 1082 1082 1082 1066 1066 1098 1082 1022 1051 1051 1066 1082 1082 1066 1082 1098 1098 1132 1187 0 0 1187 1268 1268 1362 1268 1247 1226 1226 1132 1149 1132 1098 1098 1098 1098 1115 1066 1115 1036 1132 1098 1051 1066 1066 1051 1051 1051 1066 1008 1008 1066 1036 1022 1008 1022 1008 981 981 994 994 994 1008 1082 1115 1115 1115 0 1008 981 994 968 955 968 1022 1036 1082 1082 1098 1115 0 1168 0 1132 0 994 931 981 1008 1008 1008 1008 994 994 981 1008 1008 1008 1008 1008 908 865 897 876 826 845 845 836 836 826 826 799 782 0 750 721 735 735 735 743 735 728 735 721 0 707 663 669 639 639 645 623 629 613 0 0 603 598 593 593 593 584 588 584 579 566 570 557 549 545 545 533 529 518 518 0 0 0 0 0</data></depth>
</opencv_storage>
