<?xml version="1.0"?>
<opencv_storage>
<gps_time_stamp>292406</gps_time_stamp>
<gps_x>-1.2352897644042969e+001</gps_x>
<gps_y>1.1116575241088867e+001</gps_y>
<gps_z>-2.1890478134155273e+000</gps_z>
<image_time_stamp>283260</image_time_stamp>
<depth type_id="opencv-matrix">
  <rows>91</rows>
  <cols>320</cols>
  <dt>s</dt>
  <data>
    0 0 0 0 0 0 0 0 0 0 0 0 0 0 0 0 0 0 0 0 0 0 0 0 0 0 0 0 0 0 0 0 0 0 0 0 0 0 0 0 0 0 0 0 0 0 0 0 0 0 0 0 0 0 0 0 0 0 0 0 0 0 0 0 0 0 0 0 0 0 0 0 0 0 0 0 0 0 0 0 919 0 968 943 919 876 931 897 943 0 0 0 0 0 0 0 0 0 0 0 1187 1149 1036 855 919 855 908 908 876 855 855 855 865 845 886 845 865 886 919 919 919 919 981 908 0 0 0 0 0 0 0 0 0 1338 0 0 0 1501 0 0 0 0 0 0 845 845 836 886 0 0 0 0 897 886 0 0 118 117 0 0 181 182 0 0 0 0 0 0 0 0 0 0 0 0 0 0 0 389 0 0 0 0 114 114 114 114 114 0 0 0 865 808 799 0 0 0 0 0 0 0 0 0 0 0 0 0 0 0 0 0 0 0 0 0 743 799 728 782 782 782 758 791 799 808 782 817 808 799 799 826 791 758 774 0 0 0 0 0 0 0 0 0 0 0 0 0 0 0 0 0 0 0 0 0 0 0 0 0 0 0 694 0 675 687 0 0 0 0 0 0 0 791 0 0 0 0 0 743 750 735 0 0 0 0 0 0 0 0 758 743 743 743 750 758 735 735 714 714 707 0 0 0 707 714 714 714 735 728 728 735 735 721 735 735 743 0 0 0 0 0
    0 0 0 0 0 0 0 0 0 0 0 0 0 0 0 0 0 0 0 0 0 0 0 0 0 0 0 0 0 0 0 0 0 0 0 0 0 0 0 0 0 0 0 0 0 0 0 0 0 0 0 0 0 0 0 0 0 0 0 0 0 0 0 0 0 0 0 0 0 0 0 0 0 0 0 0 0 0 0 919 876 908 919 908 886 865 908 908 955 943 0 0 0 0 0 0 0 0 0 1226 1187 1132 1036 855 931 855 908 908 876 855 865 865 865 845 897 855 865 886 919 919 919 919 981 908 0 0 0 0 0 1149 0 0 0 1338 1338 0 1443 1533 1635 0 0 0 0 0 845 845 836 886 886 876 876 886 897 0 0 0 119 118 0 0 0 0 0 0 0 0 0 0 0 0 0 0 0 0 0 0 0 0 0 826 817 0 114 114 114 114 114 0 0 0 855 817 799 0 0 0 0 0 0 0 0 0 0 0 0 0 0 0 0 886 0 0 0 0 774 808 728 782 791 791 766 799 799 808 782 817 808 799 799 826 791 758 766 0 0 0 0 0 0 0 0 0 0 0 0 0 0 105 0 0 0 0 0 0 0 0 0 0 0 0 694 0 681 0 0 714 0 0 0 750 766 782 0 0 0 0 0 735 750 743 0 0 0 0 0 0 0 0 758 743 743 743 743 750 735 735 714 721 714 0 0 0 714 714 714 714 735 728 721 735 728 714 728 735 735 0 0 0 0 0
    0 0 0 0 0 0 0 0 0 0 0 0 0 0 0 0 0 0 0 0 0 0 0 0 0 0 0 0 0 0 0 0 0 0 0 0 0 0 0 0 0 0 0 0 0 0 0 0 0 0 0 0 0 0 0 0 0 0 0 0 0 0 0 0 0 0 0 0 0 0 0 0 0 0 0 0 0 0 0 897 886 908 919 919 908 897 943 931 955 955 931 0 0 0 0 0 0 0 0 0 1226 1132 1036 865 931 865 908 908 876 865 865 865 876 845 897 855 865 897 908 919 908 919 981 908 0 0 0 955 1051 1082 0 0 0 1291 1268 0 1362 1471 1565 0 0 0 845 0 845 845 836 886 886 876 876 886 897 0 0 0 119 118 209 0 0 0 0 0 0 0 0 0 0 0 0 0 0 0 0 0 0 0 721 817 817 735 114 0 0 0 0 0 0 0 855 817 799 0 0 0 0 0 0 0 0 968 968 0 0 0 0 0 0 943 0 0 0 0 0 0 0 791 791 791 766 799 799 808 782 817 808 799 799 826 791 758 774 0 0 0 0 0 0 0 0 0 0 0 0 0 0 0 0 0 0 0 0 0 0 0 728 0 714 0 707 0 694 0 0 0 0 0 0 0 750 758 0 0 0 714 728 735 743 735 0 735 0 253 0 0 0 0 0 735 735 735 750 758 743 743 728 728 728 0 0 714 714 721 714 714 735 728 721 735 735 714 728 728 735 0 0 0 0 0
    0 0 0 0 0 0 0 0 0 0 0 0 0 0 0 0 0 0 0 0 0 0 0 0 0 0 0 0 0 0 0 0 0 0 0 0 0 0 0 0 0 0 0 0 0 0 0 0 0 0 0 0 0 0 0 0 0 0 0 0 0 0 0 0 0 0 0 0 0 0 0 0 0 0 0 0 0 0 943 919 886 908 931 943 931 919 955 943 955 955 919 908 0 0 0 0 0 0 0 0 0 1187 1036 0 943 865 919 919 876 876 876 876 876 855 908 865 876 897 908 908 908 908 981 908 0 0 0 931 968 1022 0 0 1226 1291 1247 0 0 1362 0 0 0 0 0 0 855 845 836 886 886 876 876 886 897 0 0 0 0 118 206 205 197 0 0 908 931 955 1008 1008 0 0 0 968 943 908 897 865 0 0 721 817 817 728 114 0 0 0 0 0 799 799 845 808 791 0 0 0 0 0 0 0 0 981 968 994 994 968 968 943 955 968 955 0 0 0 0 0 0 0 0 0 766 799 799 799 782 817 799 799 799 826 791 766 774 0 0 0 0 0 0 0 0 0 0 0 0 0 0 0 0 0 0 0 0 0 0 0 735 0 735 0 721 0 0 0 0 0 0 0 0 0 0 0 0 0 0 0 0 728 735 728 0 0 256 253 0 0 0 0 0 0 735 728 743 750 743 735 735 735 735 0 0 707 714 714 714 714 735 728 721 735 735 714 728 728 735 0 0 0 0 0
    0 0 0 0 0 0 0 0 0 0 0 0 0 0 0 0 0 0 0 0 0 0 0 0 0 0 0 0 0 0 0 0 0 0 0 0 0 0 0 0 0 0 0 0 0 0 0 0 0 0 0 0 0 0 0 0 0 0 0 0 0 0 0 0 0 0 0 0 0 0 0 0 0 0 0 0 0 943 943 919 897 919 943 955 943 943 968 955 955 955 919 0 0 0 0 0 0 0 0 0 0 0 1036 0 931 865 908 908 876 876 876 876 886 855 908 865 876 908 908 908 908 908 981 897 955 876 943 931 943 0 0 0 0 1268 1226 1226 0 0 0 0 0 0 0 0 855 845 836 886 886 865 876 886 897 0 0 0 0 0 206 205 197 0 855 876 897 955 0 0 0 0 0 981 968 943 919 876 865 0 721 817 808 728 114 0 0 0 799 808 799 799 836 808 791 0 0 0 0 0 0 0 0 981 981 1008 1008 968 968 931 943 955 931 0 845 845 0 0 111 0 0 0 774 799 799 799 782 817 799 799 791 826 782 758 774 0 0 0 0 0 0 0 0 0 0 0 0 0 0 0 0 0 0 0 0 735 758 743 750 735 758 758 735 0 0 0 0 0 0 0 0 0 0 0 0 0 0 0 0 743 0 0 0 0 256 252 0 0 0 0 0 0 743 735 750 766 743 743 743 743 735 0 657 707 707 707 707 707 728 721 714 735 735 714 728 728 735 0 0 0 0 0
    0 0 0 0 0 0 0 0 0 0 0 0 0 0 0 0 0 0 0 0 0 0 0 0 0 0 0 0 0 0 0 0 0 0 0 0 0 0 0 0 0 0 0 0 0 0 0 0 0 0 0 0 0 0 0 0 0 0 0 0 0 0 0 0 0 0 0 0 0 0 0 0 0 0 0 0 943 943 943 919 886 908 931 943 943 968 994 981 981 981 943 0 0 0 0 0 0 0 0 0 0 0 0 0 919 865 908 908 876 876 876 876 876 855 908 865 876 908 908 908 908 908 981 897 955 897 981 955 981 0 0 0 0 1247 1226 1226 1206 1268 0 0 0 0 0 0 855 845 836 876 876 865 865 876 0 0 0 0 0 0 207 205 0 845 0 876 897 0 0 0 0 0 0 994 1008 968 931 897 886 836 766 826 817 728 0 0 774 791 799 799 799 799 836 808 799 0 0 981 0 0 0 0 0 0 994 0 0 981 981 943 943 968 931 897 845 845 855 0 111 112 112 112 774 799 808 799 782 817 799 799 791 826 782 758 774 0 0 0 124 0 0 0 0 0 0 774 758 0 750 0 0 735 0 735 735 735 750 735 743 735 766 0 0 0 0 0 0 0 0 0 714 721 714 714 714 0 0 0 0 0 0 0 0 0 0 0 0 0 0 0 0 0 743 735 750 766 750 0 743 743 0 0 0 694 700 707 707 707 728 721 714 735 735 714 728 728 735 0 0 0 0 0
    0 0 0 0 0 0 0 0 0 0 0 0 0 0 0 0 0 0 0 0 0 0 0 0 0 0 0 0 0 0 0 0 0 0 0 0 0 0 0 0 0 0 0 0 0 0 0 0 0 0 0 0 0 0 0 0 0 0 0 0 0 0 0 0 0 0 0 0 0 0 0 0 0 0 0 968 943 943 955 919 886 897 931 943 943 994 1022 994 994 994 968 0 0 0 0 0 0 0 0 0 0 0 0 0 919 855 897 897 865 865 876 876 876 855 908 876 876 908 908 908 908 908 981 897 968 0 0 968 981 0 0 0 1187 1226 1206 1226 1187 1247 0 0 0 0 0 0 855 845 826 876 865 855 855 0 0 0 0 0 0 0 206 205 0 845 0 865 865 0 0 0 0 1008 994 1008 1008 981 955 908 897 845 791 826 817 728 0 0 774 791 791 799 791 791 826 808 808 0 0 0 0 0 0 0 0 0 0 0 0 0 981 943 943 0 931 897 845 855 865 845 111 112 112 112 774 808 808 799 791 817 799 791 791 826 782 750 774 0 0 0 0 0 0 0 0 0 0 766 0 0 0 0 0 728 0 735 735 735 743 0 0 0 0 0 0 0 0 0 0 0 0 0 714 714 714 707 707 707 0 0 0 0 0 0 0 0 0 250 0 0 0 0 0 0 735 728 743 766 743 0 735 735 0 0 0 694 700 700 700 700 721 721 714 735 735 721 721 728 735 0 0 0 0 0
    0 0 0 0 0 0 0 0 0 0 0 0 0 0 0 0 0 0 0 0 0 0 0 0 0 0 0 0 0 0 0 0 0 0 0 0 0 0 0 0 0 0 0 0 0 0 0 0 0 0 0 0 0 0 0 0 0 0 0 0 0 0 0 0 0 0 0 0 0 0 0 0 0 0 0 981 931 919 931 886 876 886 931 931 919 0 1022 994 994 0 0 0 0 0 0 0 0 0 0 0 0 0 0 0 908 855 886 886 865 865 876 876 876 855 908 876 886 908 908 897 897 897 981 865 0 0 0 968 0 0 0 0 1187 1226 1206 1206 1168 1206 0 0 0 0 0 845 855 845 808 865 855 855 855 0 0 0 0 0 119 0 206 0 0 855 855 855 845 908 0 0 994 1008 981 994 1008 994 968 955 908 845 791 826 817 728 782 782 766 782 791 791 791 782 826 808 799 0 0 0 0 0 0 0 0 0 0 0 0 0 0 908 0 0 897 876 855 855 865 845 0 0 0 0 0 808 808 799 791 817 799 791 791 826 782 750 766 0 0 0 0 0 0 0 0 0 0 766 0 0 0 0 750 735 743 743 743 743 743 0 0 0 0 0 0 0 0 0 0 0 0 0 707 714 707 694 694 694 0 0 0 0 0 0 0 0 256 250 0 0 0 687 0 0 721 721 735 750 0 0 0 728 0 0 645 681 694 694 694 694 721 714 707 735 728 714 721 728 735 0 0 0 0 0
    0 0 0 0 0 0 0 0 0 0 0 0 0 0 0 0 0 0 0 0 0 0 0 0 0 0 0 0 0 0 0 0 0 0 0 0 0 0 0 0 0 0 0 0 0 0 0 0 0 0 0 0 0 0 0 0 0 0 0 0 0 0 0 0 0 0 0 0 0 0 0 0 0 0 0 0 0 0 0 0 0 0 0 0 0 0 0 0 981 0 0 0 0 0 0 0 0 0 134 133 0 133 0 0 886 845 865 865 855 865 865 865 876 855 919 886 886 919 908 897 897 897 981 845 0 0 0 0 0 0 0 0 1226 1247 1226 1206 1187 1226 1168 1206 0 0 0 855 865 845 799 855 855 845 0 0 0 0 0 0 119 0 0 0 0 876 0 855 845 897 897 0 955 981 968 994 1008 994 981 981 943 845 791 826 817 721 774 774 766 782 782 791 782 782 826 808 799 0 0 0 0 1501 1388 0 0 0 0 0 0 0 0 908 0 919 897 886 855 855 865 845 0 0 0 0 0 799 808 799 791 817 799 791 791 826 782 758 766 0 0 0 0 0 0 0 0 0 0 758 743 0 758 735 758 743 743 750 750 750 750 0 0 0 0 0 0 0 0 0 0 0 0 0 0 714 707 687 687 687 0 0 0 263 0 256 256 0 0 0 0 0 0 681 0 0 0 0 0 0 0 0 0 0 0 0 651 681 694 694 694 694 714 714 707 728 728 714 721 728 728 0 0 0 0 0
    0 0 0 0 0 0 0 0 0 0 0 0 0 0 0 0 0 0 0 0 0 0 0 0 0 0 0 0 0 0 0 0 0 0 0 0 0 0 0 0 0 0 0 0 0 0 0 0 0 0 0 0 0 0 0 0 0 0 0 0 0 0 0 0 0 0 0 0 0 0 0 0 0 0 981 0 0 0 0 0 0 0 0 0 0 0 0 0 968 0 0 0 0 0 0 0 0 0 0 0 0 0 0 0 876 836 855 855 845 865 865 865 876 845 919 886 897 931 908 897 897 897 981 826 0 0 0 0 0 0 0 0 1268 1268 1247 1226 1168 1206 1149 1187 1098 0 0 855 865 845 791 845 845 836 0 0 0 0 0 0 119 0 0 0 0 876 0 855 817 865 865 886 897 943 943 981 1008 994 994 1022 981 855 799 817 808 721 774 774 758 774 782 782 782 782 826 799 799 0 0 0 0 1565 1443 1338 0 0 0 0 0 0 0 0 0 908 908 876 855 845 865 845 0 0 0 0 0 799 799 799 791 817 799 791 791 826 774 750 758 0 0 0 0 0 0 0 0 0 0 758 750 750 766 743 758 750 743 750 750 750 750 743 0 0 0 0 0 0 0 0 0 0 1415 0 0 0 714 687 687 687 681 0 0 0 0 0 0 0 0 0 0 0 0 675 0 0 0 0 0 0 0 1635 0 0 0 0 657 681 694 694 694 694 714 714 707 728 728 714 721 728 728 0 0 0 0 0
    0 0 0 0 0 0 0 0 0 0 0 0 0 0 0 0 0 0 0 0 0 0 0 0 0 0 0 0 0 0 0 0 0 0 0 0 0 0 0 0 0 0 0 0 0 0 0 0 0 0 0 0 0 0 0 0 0 0 0 0 0 0 0 0 0 0 0 0 0 943 0 0 0 0 981 0 0 0 0 0 0 0 0 0 0 0 0 0 0 0 0 0 0 0 0 0 0 0 0 0 0 0 0 0 876 826 845 845 836 855 865 865 876 845 919 897 897 931 908 897 897 897 981 826 0 0 0 0 0 0 0 0 0 1268 0 0 1115 1187 1098 1132 0 0 855 855 865 845 774 836 836 826 0 0 0 0 0 0 119 0 0 0 0 919 0 865 817 876 865 876 886 931 943 981 994 994 994 1036 1008 845 799 817 808 721 774 774 758 774 782 782 774 782 826 808 808 0 0 2044 0 1565 1443 1362 0 0 0 0 0 0 0 0 0 876 876 855 845 845 855 845 758 0 0 0 774 799 799 799 791 817 799 791 782 826 774 743 750 0 0 0 743 750 0 0 750 758 766 750 750 750 758 743 750 750 743 743 750 750 758 750 758 0 0 0 0 0 0 0 0 1388 0 0 0 707 714 694 694 687 687 694 0 0 0 0 0 0 0 0 0 0 0 0 0 0 0 0 0 0 0 0 0 0 0 687 675 687 694 694 687 694 714 714 707 728 728 714 714 728 728 0 0 0 0 0
    0 0 0 0 0 0 0 0 0 0 0 0 0 0 0 0 0 0 0 0 0 0 0 0 0 0 0 0 0 0 0 0 0 0 0 0 0 0 0 0 0 0 0 0 0 0 0 0 0 0 0 0 0 0 0 0 0 0 0 0 0 0 0 0 0 0 0 0 0 955 919 0 0 0 955 0 0 0 0 0 0 0 0 0 111 0 0 0 0 0 0 0 0 0 0 0 0 0 0 0 0 0 198 0 876 826 845 836 836 855 865 865 876 845 919 897 897 931 908 886 886 886 981 826 0 0 73 0 0 0 0 0 0 0 0 0 0 0 0 0 0 0 0 855 865 836 750 817 817 817 0 0 0 0 0 897 0 0 0 0 0 1008 0 0 0 0 876 886 876 955 968 994 1008 994 994 1036 1008 845 808 817 808 728 774 774 766 782 782 791 782 782 826 817 817 897 0 0 0 1565 1471 1388 1471 1388 0 0 0 0 0 0 0 845 855 826 836 845 845 836 758 808 808 808 774 799 799 799 791 808 799 791 782 826 766 743 743 0 0 0 0 743 0 0 743 750 750 743 750 743 758 743 750 750 743 743 750 743 750 750 766 766 0 0 0 0 0 0 0 0 0 0 707 700 707 687 694 694 687 700 721 0 0 0 0 0 0 0 0 0 681 0 0 0 8177 0 0 4599 0 0 0 707 700 694 687 687 694 694 687 694 714 714 700 721 721 714 714 721 728 0 0 0 0 0
    0 0 0 0 0 0 0 0 0 0 0 0 0 0 0 0 0 0 0 0 0 0 0 0 0 0 0 0 0 0 0 0 0 0 0 0 0 0 0 0 0 0 0 0 0 0 0 0 0 0 0 0 0 0 0 0 0 0 0 0 0 0 0 0 0 0 0 0 0 968 0 0 0 0 943 0 0 0 0 0 0 0 0 0 111 112 0 0 0 0 0 0 0 0 0 0 0 205 205 205 205 203 201 0 865 826 836 836 836 855 865 865 876 845 919 908 908 931 908 886 886 886 981 826 0 0 0 0 0 0 0 0 0 0 0 0 0 0 1247 0 0 0 0 865 855 836 750 808 808 808 0 0 0 0 0 886 0 0 1098 1098 1187 1115 0 0 0 0 0 886 0 994 1008 1008 1022 1008 1008 1036 1008 836 808 817 799 728 782 782 774 791 791 799 791 791 826 826 836 897 0 0 0 0 1471 1415 1501 1533 0 0 0 0 0 0 0 0 845 826 826 836 836 836 766 808 808 808 774 799 799 799 791 808 799 791 782 826 766 735 743 0 0 0 0 0 0 0 743 750 750 743 750 743 758 750 750 750 743 743 750 735 743 743 758 766 0 0 0 0 0 774 0 0 0 714 714 694 700 687 694 694 694 700 714 0 743 743 728 0 0 0 639 0 694 681 675 0 0 0 0 0 0 0 0 714 707 707 707 700 700 700 700 707 721 721 707 721 721 714 707 721 721 0 0 0 0 0
    0 0 0 0 0 0 0 0 0 0 0 0 0 0 0 0 0 0 0 0 0 0 0 0 0 0 0 0 0 0 0 0 0 0 0 0 0 0 0 0 0 0 0 0 0 0 0 0 0 0 0 0 0 0 0 0 0 0 0 0 0 0 0 0 0 0 0 0 0 0 0 0 0 0 943 0 0 0 0 0 0 0 0 111 112 0 0 0 0 0 0 0 0 0 0 0 0 207 207 206 205 203 201 0 865 826 836 826 826 845 865 865 865 845 919 908 908 931 919 897 886 886 981 817 0 0 0 0 687 0 0 0 0 0 0 0 0 0 1314 1338 0 0 855 865 865 836 743 799 808 799 0 0 0 0 0 886 845 0 0 1132 1226 0 0 0 0 1132 981 0 0 0 1036 1036 1036 1008 1022 1036 994 836 799 808 799 735 791 782 782 791 799 799 799 799 826 826 845 0 0 0 0 1501 1443 1415 1533 1599 0 0 0 0 0 0 0 0 845 826 826 836 836 836 774 808 808 808 774 808 808 799 791 817 799 791 791 826 774 735 743 0 0 0 0 735 0 0 743 750 758 743 750 750 766 758 758 758 750 750 766 743 750 750 0 0 0 0 0 0 0 0 0 0 0 714 714 694 700 681 694 694 694 694 700 687 714 700 0 0 0 639 634 657 687 675 0 0 0 0 0 0 721 728 728 721 721 714 714 707 707 707 707 714 721 721 707 714 714 714 707 721 721 0 0 0 0 0
    0 0 0 0 0 0 0 0 0 0 0 0 0 0 0 0 0 0 0 0 0 0 0 0 0 0 0 0 0 0 0 0 0 0 0 0 0 0 0 0 0 0 0 0 0 0 0 0 0 0 0 0 0 0 0 0 0 0 0 0 0 0 0 0 0 0 0 0 0 0 0 0 0 0 931 0 0 0 0 0 0 0 0 111 0 0 0 0 0 0 0 0 0 0 0 0 0 0 207 207 206 204 0 0 855 808 826 826 826 845 865 865 865 845 919 908 908 931 919 897 886 886 981 817 0 0 0 0 681 669 0 0 0 0 0 0 0 0 0 1362 0 0 0 865 865 836 743 799 799 799 808 0 799 0 0 876 855 0 0 1132 0 0 0 0 0 1082 981 981 908 981 0 1022 1022 1008 1008 1036 968 0 799 808 791 743 791 782 791 799 808 808 808 808 826 826 855 0 0 0 0 1565 1443 1388 1471 1471 0 0 0 0 0 943 0 0 845 836 826 836 836 826 782 808 808 808 774 808 808 808 799 817 808 799 799 826 774 735 735 750 0 735 743 743 735 0 750 758 766 750 750 758 766 758 758 758 758 750 774 750 758 766 774 0 0 0 0 0 0 0 0 0 0 721 0 0 0 0 0 0 700 700 707 687 714 707 0 0 687 663 663 675 0 0 0 0 6690 6690 0 0 707 707 0 714 714 714 714 707 707 707 707 714 721 721 714 714 714 714 707 721 714 0 0 0 0 0
    0 0 0 0 0 0 0 0 0 0 0 0 0 0 0 0 0 0 0 0 0 0 0 0 0 0 0 0 0 0 0 0 0 0 0 0 0 0 0 0 0 0 0 0 0 0 0 0 0 0 0 0 0 0 0 0 0 0 0 0 0 0 0 0 0 0 0 0 0 0 0 0 0 0 908 0 0 0 0 0 0 0 0 111 0 0 0 0 0 0 0 0 0 0 0 0 0 0 209 208 207 205 0 0 855 808 826 826 826 845 865 865 865 845 919 908 908 931 919 886 886 886 981 817 0 0 0 0 675 657 0 0 0 0 0 0 0 0 0 0 0 0 0 865 855 836 750 799 799 808 0 0 0 0 0 876 876 0 0 1206 1247 0 0 0 1247 1098 981 981 886 955 0 1022 994 994 994 1022 943 0 791 808 782 758 799 791 791 799 808 808 808 817 826 817 0 0 2537 2299 0 0 1388 1338 1338 1291 0 0 0 0 1036 968 865 0 836 836 817 826 826 826 782 799 808 799 766 808 817 808 799 817 808 808 799 836 774 728 735 750 743 735 743 750 743 774 758 766 766 750 750 758 766 758 758 750 750 750 782 758 766 774 782 791 0 0 0 0 0 0 0 0 714 721 0 0 0 0 714 721 714 707 714 694 714 700 0 0 681 657 0 0 0 0 0 0 0 6133 0 0 687 687 700 700 707 707 707 700 707 700 707 714 721 728 714 714 714 707 700 714 714 0 0 0 0 0
    0 0 0 0 0 0 0 0 0 0 0 0 0 0 0 0 0 0 0 0 0 0 0 0 0 0 0 0 0 0 0 0 0 0 0 0 0 0 0 0 0 0 0 0 0 0 0 0 0 0 0 0 0 0 0 0 0 0 0 0 0 0 0 0 0 0 0 0 0 0 0 0 0 897 908 897 0 865 0 0 0 0 112 0 0 0 0 0 0 0 0 0 0 0 0 0 0 0 0 0 209 206 0 0 855 0 826 826 826 845 865 865 876 855 908 908 908 931 919 897 897 886 981 0 0 0 0 0 675 645 639 623 0 0 0 0 0 0 0 0 0 0 845 855 855 836 758 808 808 808 0 0 0 0 0 886 919 1268 0 1187 1247 0 0 0 1226 1098 981 0 0 0 0 1008 968 981 955 981 897 0 791 808 774 774 799 791 799 808 808 817 817 817 826 817 0 0 0 0 0 0 1388 0 1314 1247 0 0 0 1022 1051 1008 876 0 836 826 808 817 817 817 774 799 799 791 766 817 817 817 808 817 817 817 808 845 774 728 728 743 743 735 743 750 750 774 758 766 766 750 750 758 766 766 758 758 750 750 782 766 766 782 774 774 0 0 0 728 735 0 0 0 714 721 0 0 0 0 714 728 0 0 0 0 0 0 0 0 687 669 663 0 0 0 0 0 6690 6133 0 687 694 694 0 694 700 707 707 707 714 707 714 721 728 743 714 707 707 707 700 714 707 0 0 0 0 0
    0 0 0 0 0 0 0 0 0 0 0 0 0 0 0 0 0 0 0 0 0 0 0 0 0 0 0 0 0 0 0 0 0 0 0 0 0 0 0 0 0 0 0 0 0 0 0 0 0 0 0 0 0 0 0 0 0 0 0 0 0 0 0 0 0 0 0 0 0 0 0 0 931 886 897 0 0 0 817 0 0 0 0 0 0 0 0 0 0 0 0 0 0 0 0 0 0 0 0 0 0 0 0 0 845 0 836 836 836 845 865 876 876 855 908 908 908 931 931 897 897 897 981 0 0 0 0 0 675 639 634 623 0 0 0 0 0 0 0 0 0 0 845 855 855 836 782 817 817 826 0 0 0 0 0 886 955 1226 0 0 1247 0 0 0 0 1132 0 0 0 0 0 1036 0 968 931 955 876 0 791 808 774 791 808 799 808 808 808 817 817 826 826 817 0 0 0 0 0 0 0 0 0 0 0 0 876 994 1008 1008 855 728 808 808 791 817 817 808 782 799 799 799 766 817 817 817 808 817 817 817 817 855 782 721 728 735 743 735 743 743 750 774 766 782 782 758 766 758 766 774 758 766 750 743 774 750 758 774 758 758 735 728 750 728 728 714 707 0 714 721 0 0 0 0 0 0 0 0 0 0 0 0 0 721 0 0 0 0 0 0 0 0 0 0 0 694 700 700 707 700 700 707 714 707 714 714 721 728 735 750 721 707 707 707 694 707 707 0 0 0 0 0
    0 0 0 0 0 0 0 0 0 0 0 0 0 0 0 0 0 0 0 0 0 0 0 0 0 0 0 0 0 0 0 0 0 0 0 0 0 0 0 0 0 0 0 0 0 0 0 0 0 0 0 0 0 0 0 0 0 0 0 0 0 0 0 0 0 0 0 0 0 0 0 0 931 876 897 876 876 876 845 0 0 0 0 0 0 0 0 0 0 0 0 0 0 0 0 0 0 0 0 0 0 0 0 0 845 836 836 845 836 855 876 876 876 865 908 908 908 931 931 897 897 897 981 0 0 0 0 0 675 639 0 0 0 0 0 0 0 0 0 0 0 0 836 836 855 836 808 817 826 836 836 0 0 0 845 886 981 1132 0 0 1268 0 0 0 0 0 955 0 0 0 0 0 886 845 836 865 836 817 782 799 766 799 0 799 808 817 817 826 826 836 826 817 855 0 817 817 808 808 817 836 836 845 826 826 817 826 826 817 799 766 791 799 782 808 808 808 791 799 808 799 774 826 826 817 808 817 817 808 808 845 774 721 721 735 743 735 735 735 743 774 774 799 799 774 782 782 782 791 774 782 750 743 766 743 750 766 750 750 735 721 743 728 735 721 707 714 721 721 735 721 743 0 0 0 0 0 0 0 0 0 0 0 0 0 0 0 0 0 0 687 0 707 721 707 714 707 714 707 707 707 714 707 714 714 721 728 735 750 721 707 707 707 694 707 707 0 0 0 0 0
    0 0 0 0 0 0 0 0 0 0 0 0 0 0 0 0 0 0 0 0 0 0 0 0 0 0 0 0 0 0 0 0 0 0 0 0 0 0 0 0 0 0 0 0 0 0 0 0 0 0 0 0 0 0 0 0 0 0 0 0 0 0 0 0 0 0 0 0 0 0 0 955 897 855 876 845 855 855 845 817 0 0 0 0 0 0 0 0 0 0 0 0 0 0 0 0 0 0 0 0 0 0 0 0 845 845 845 845 845 855 876 876 886 876 908 908 908 931 931 897 897 897 981 0 0 0 0 0 669 634 0 0 0 0 0 0 855 0 808 799 817 836 836 836 845 836 826 826 836 836 836 845 845 836 865 876 968 0 0 0 0 0 0 0 0 0 855 855 826 799 799 791 826 808 817 817 808 799 774 799 774 0 0 808 817 817 817 826 826 845 817 808 836 817 808 826 808 808 817 826 817 826 817 817 808 817 808 799 782 766 782 782 782 799 799 799 791 799 808 799 766 817 817 817 808 808 808 808 799 826 766 721 721 728 735 728 728 728 743 782 782 808 808 791 799 799 791 799 791 791 758 743 750 743 743 750 743 735 728 721 0 721 728 0 714 714 728 728 743 735 750 0 0 0 0 0 0 0 0 0 0 714 0 0 0 0 0 0 0 0 0 721 728 714 714 707 714 714 707 707 707 707 707 707 721 728 735 750 721 707 707 707 694 707 707 0 0 0 0 0
    0 0 0 0 0 0 0 0 0 0 0 0 0 0 0 0 0 0 0 0 0 0 0 0 0 0 0 0 0 0 0 0 0 0 0 0 0 0 0 0 0 0 0 0 0 0 0 0 0 0 0 0 0 0 0 0 0 0 0 0 0 0 0 0 0 0 0 0 0 0 0 931 876 845 855 836 845 845 826 808 0 0 0 0 0 0 0 0 0 0 0 0 0 0 0 0 0 0 0 0 0 0 817 817 836 855 855 855 845 855 876 876 886 886 897 908 908 931 931 897 897 897 981 0 886 0 0 0 0 0 0 0 0 0 0 0 845 826 808 782 817 836 836 836 845 836 836 836 845 845 845 845 845 845 865 855 931 931 855 0 0 0 908 0 876 799 826 836 826 808 791 791 791 799 817 808 799 791 774 799 782 808 817 808 817 817 817 826 826 836 817 808 826 817 817 826 799 808 808 808 808 817 808 808 799 799 799 791 782 774 774 782 774 791 791 791 782 791 799 791 758 817 817 817 808 808 808 799 799 836 766 721 714 728 728 721 721 728 743 791 791 817 817 0 0 0 799 0 799 791 758 750 750 743 735 735 728 714 721 0 0 721 735 728 728 728 735 743 750 758 766 0 0 0 0 0 0 0 0 0 0 0 0 0 0 0 0 0 0 0 0 0 743 721 721 714 721 714 707 707 707 707 707 707 721 721 735 750 721 707 707 707 694 707 707 0 0 0 0 0
    0 0 0 0 0 0 0 0 0 0 0 0 0 0 0 0 0 0 0 0 0 0 0 0 0 0 0 0 0 0 0 0 0 0 0 0 0 0 0 0 0 0 0 0 0 0 0 0 0 0 0 0 0 0 0 0 0 0 0 0 0 0 0 0 0 0 0 0 0 0 0 897 865 836 826 817 826 0 808 0 0 0 0 0 0 0 0 0 0 0 0 0 0 0 0 0 0 0 0 0 0 0 817 808 836 855 855 855 845 855 876 876 886 886 886 886 897 919 919 886 886 886 955 865 855 0 0 0 0 0 0 735 817 743 791 791 817 817 826 808 826 826 826 826 845 836 845 845 845 855 845 855 855 845 865 855 886 865 836 845 876 897 876 865 855 817 826 826 826 817 799 808 799 808 826 817 799 799 782 799 782 808 808 799 808 808 817 826 817 836 817 808 826 826 817 826 808 808 808 799 799 808 799 799 791 791 791 782 782 774 774 774 774 782 791 791 782 791 799 791 766 817 817 817 808 808 817 808 799 826 774 721 721 728 728 721 721 721 735 782 791 808 817 0 0 0 0 0 799 791 758 750 743 743 735 728 728 714 721 0 0 728 735 735 735 735 743 743 766 774 782 0 0 0 0 0 0 0 0 0 0 0 0 0 0 0 0 0 0 0 0 0 750 728 728 728 728 721 707 700 700 700 700 707 714 714 721 735 721 694 707 707 694 707 707 0 0 0 0 0
    0 0 0 0 0 0 0 0 0 0 0 0 0 0 0 0 0 0 0 0 0 0 0 0 0 0 0 0 0 0 0 0 0 0 0 0 0 0 0 0 0 0 0 0 0 0 0 0 0 0 0 0 0 0 0 0 0 0 0 0 0 0 0 0 0 0 0 0 0 0 886 876 865 836 817 808 817 0 0 0 0 0 0 0 0 0 0 0 0 0 0 0 0 0 0 0 0 0 0 0 0 0 836 808 836 865 865 865 845 855 865 876 876 876 876 876 886 919 908 886 886 886 931 865 855 845 855 855 826 817 826 799 808 782 808 799 826 836 836 826 836 836 826 817 836 826 845 845 845 845 845 855 855 845 876 845 865 845 836 836 845 865 855 845 845 808 817 817 817 817 808 808 799 808 826 817 799 799 782 799 782 808 808 799 808 808 808 826 817 826 817 817 826 826 817 826 808 808 808 799 799 808 799 799 782 782 782 774 774 774 774 774 766 782 791 791 782 782 791 791 766 799 817 808 799 799 808 799 799 817 766 721 721 721 714 707 707 700 714 735 750 791 782 0 0 0 791 0 782 782 750 750 735 735 728 721 721 714 714 714 0 721 728 728 735 735 743 743 766 782 791 791 0 0 0 0 0 0 0 0 0 0 0 0 0 0 0 0 0 0 0 0 743 0 0 721 721 714 694 694 694 694 687 694 707 714 714 735 714 687 700 707 694 707 707 0 0 0 0 0
    0 0 0 0 0 0 0 0 0 0 0 0 0 0 0 0 0 0 0 0 0 0 0 0 0 0 0 0 0 0 0 0 0 0 0 0 0 0 0 0 0 0 0 0 0 0 0 0 0 0 0 0 0 0 0 0 0 0 0 0 0 0 0 0 0 0 0 0 0 0 0 876 845 836 817 817 817 0 0 0 0 0 0 0 0 0 0 0 0 0 0 0 0 0 0 0 0 0 0 876 0 865 845 826 836 876 876 865 845 855 865 865 876 876 865 865 876 919 897 876 876 876 908 865 855 845 855 845 826 817 826 808 808 799 808 808 836 845 845 836 845 845 826 826 836 817 845 845 845 855 845 855 855 845 876 845 855 836 826 836 826 845 836 817 826 791 808 808 808 808 799 799 799 799 817 808 799 799 782 799 791 799 808 799 808 808 808 817 817 826 817 808 817 817 817 826 799 808 808 799 799 808 799 799 774 782 774 774 766 766 766 766 766 782 782 791 782 782 791 791 766 791 808 808 791 799 799 791 791 808 774 721 721 721 707 707 700 694 700 0 721 766 766 0 0 0 782 791 774 782 750 750 735 735 728 721 721 721 714 0 0 721 728 728 735 735 735 743 758 774 791 782 0 0 0 0 0 0 0 0 0 0 0 0 0 0 0 0 0 0 0 0 0 0 0 714 714 707 694 694 694 694 687 700 707 707 714 735 714 681 700 707 694 707 707 0 0 0 0 0
    0 0 0 0 0 0 0 0 0 0 0 0 0 0 0 0 0 0 0 0 0 0 0 0 0 0 0 0 0 0 0 0 0 0 0 0 0 0 0 0 0 0 0 0 0 0 0 0 0 0 0 0 0 0 0 0 0 0 0 0 0 0 0 0 0 0 0 0 0 0 897 876 876 855 836 836 836 845 0 0 826 0 0 0 0 0 0 0 0 0 0 0 0 0 0 0 0 0 0 886 855 876 845 826 836 876 876 865 855 855 865 865 876 886 855 865 876 908 886 876 876 865 886 855 845 845 845 836 808 808 817 799 799 799 808 808 836 845 855 845 845 845 836 826 836 826 845 845 845 845 845 845 855 845 865 836 836 826 826 826 826 836 836 817 817 799 808 808 808 817 799 808 808 799 817 808 808 799 782 799 791 799 808 799 808 808 808 817 817 826 817 817 817 817 817 826 808 808 808 799 791 799 799 799 774 782 774 774 766 774 766 766 766 782 782 791 782 782 791 791 766 782 799 799 782 791 791 774 782 799 774 728 728 728 714 707 707 687 694 687 707 743 774 0 0 808 799 799 799 799 766 758 743 735 728 728 721 721 714 0 0 721 0 728 728 735 728 735 0 758 774 0 0 0 0 0 766 0 0 0 0 0 0 0 0 0 0 0 0 0 0 0 0 0 0 721 714 707 700 700 700 707 700 707 714 707 714 728 714 681 700 707 700 707 707 0 0 0 0 0
    0 0 0 0 0 0 0 0 0 0 0 0 0 0 0 0 0 0 0 0 0 0 0 0 0 0 0 0 0 0 0 0 0 0 0 0 0 0 0 0 0 0 0 0 0 0 0 0 0 0 0 0 0 0 0 0 0 0 0 0 0 0 0 0 0 0 0 0 0 855 865 855 855 855 826 826 0 836 826 836 826 0 0 836 0 0 0 0 0 0 0 0 0 0 0 0 0 0 0 886 865 876 855 836 836 876 876 865 855 865 865 865 876 897 855 855 876 897 876 865 865 855 865 845 845 836 845 836 808 808 817 799 799 799 808 808 826 845 845 845 845 845 836 836 836 826 836 836 845 845 845 845 845 836 855 836 826 826 826 826 826 836 826 817 817 808 808 808 808 817 808 808 808 799 817 808 808 799 791 799 791 799 808 799 808 808 808 817 817 817 826 817 808 817 817 826 799 808 808 799 791 799 791 799 774 782 766 766 766 774 766 766 766 782 782 791 782 782 791 791 766 774 791 791 782 782 782 766 774 791 782 735 728 735 721 714 714 694 700 700 714 735 774 0 0 817 799 817 808 0 782 774 750 735 735 728 728 728 721 721 721 735 735 735 735 735 735 743 0 0 0 0 0 791 799 808 791 0 750 0 0 0 0 0 634 0 0 0 0 0 0 0 0 0 0 728 728 721 714 714 714 714 707 707 714 707 714 728 714 675 707 707 700 707 707 0 0 0 0 0
    0 0 0 0 0 0 0 0 0 0 0 0 0 0 0 0 0 0 0 0 0 0 0 0 0 0 0 0 0 0 0 0 0 0 0 0 0 0 0 0 0 0 0 0 0 0 0 0 0 0 0 0 0 0 0 0 0 0 0 0 0 0 0 0 0 0 0 0 0 865 865 855 855 865 836 826 836 836 836 845 845 826 845 845 865 876 897 897 0 0 0 0 0 0 0 0 0 886 897 897 886 908 865 845 836 886 886 865 865 865 865 865 876 908 845 855 865 876 855 855 855 845 845 836 836 836 836 826 808 808 817 799 799 799 808 808 826 845 845 845 845 845 836 836 836 826 836 836 836 845 836 836 836 836 845 826 826 826 826 826 817 836 826 817 817 808 808 817 817 817 808 817 808 808 817 808 799 799 791 799 791 799 799 799 808 808 808 817 808 817 826 817 808 817 817 826 799 799 808 799 791 799 791 799 774 782 774 774 774 774 774 766 766 774 782 782 782 782 791 791 774 766 791 791 782 782 782 766 774 782 791 735 735 750 728 728 728 700 714 707 714 714 735 735 766 808 799 817 808 817 799 782 766 743 735 728 721 735 721 721 728 735 743 743 743 743 0 750 0 0 782 782 782 799 799 808 799 782 782 0 0 0 0 0 0 639 0 0 0 0 0 0 0 0 0 728 728 721 721 714 714 714 714 714 714 707 707 721 707 675 707 707 707 714 707 0 0 0 0 0
    0 0 0 0 0 0 0 0 0 0 0 0 0 0 0 0 0 0 0 0 0 0 0 0 0 0 0 0 0 0 0 0 0 0 0 0 0 0 0 0 0 0 0 0 0 0 0 0 0 0 0 0 0 0 0 0 0 0 0 0 0 0 0 0 0 0 0 0 0 865 865 855 865 855 836 826 836 836 836 845 845 0 845 845 865 876 908 908 0 0 0 0 0 0 0 0 886 886 897 897 897 908 876 855 845 886 886 865 865 865 865 865 876 908 845 845 865 855 845 845 845 836 845 836 836 836 836 826 808 808 817 799 799 799 808 808 836 845 855 845 845 845 836 836 836 826 836 836 836 836 836 836 836 826 836 826 817 826 817 826 817 826 817 808 817 808 808 808 808 817 808 817 808 808 826 817 808 799 791 799 799 799 799 799 808 808 808 817 808 817 826 817 817 817 808 826 799 808 808 799 791 799 791 799 774 782 774 774 774 782 766 766 766 774 782 782 774 766 791 791 774 766 791 791 782 782 791 774 774 782 791 743 743 758 743 735 735 714 721 721 721 714 721 721 735 750 766 782 782 791 782 774 766 750 735 735 721 735 721 728 0 743 0 743 743 750 0 750 0 758 0 766 774 782 791 808 799 782 791 0 0 0 0 162 0 0 0 0 0 0 0 0 0 0 0 721 714 714 714 714 714 714 714 714 707 707 707 714 707 675 707 707 707 707 707 0 0 0 0 0
    0 0 0 0 0 0 0 0 0 0 0 0 0 0 0 0 0 0 0 0 0 0 0 0 0 0 0 0 0 0 0 0 0 0 0 0 0 0 0 0 0 0 0 0 0 0 0 0 0 0 0 0 0 0 0 0 0 0 0 0 0 0 0 0 0 0 0 0 0 876 886 876 886 876 855 845 855 855 845 855 865 845 865 865 886 897 931 931 0 0 943 0 0 0 0 0 0 0 886 886 886 897 865 855 845 886 897 865 876 876 865 876 876 908 845 845 865 845 836 836 845 836 836 836 836 836 836 817 808 799 817 799 799 808 808 817 836 845 855 845 845 845 836 845 836 826 836 826 836 836 836 836 836 826 836 826 817 817 817 817 808 826 817 808 817 808 808 808 808 817 808 817 817 808 826 817 808 799 799 799 799 799 799 799 808 808 817 817 808 817 826 826 817 817 808 817 791 799 799 791 782 791 791 791 774 774 774 766 774 782 774 774 766 782 782 782 774 766 791 799 791 766 799 799 791 791 791 774 774 782 799 743 750 750 743 743 735 714 721 714 714 707 707 707 714 728 735 743 750 758 774 766 766 750 735 735 721 735 0 0 0 0 0 0 0 0 0 0 0 0 0 743 750 766 774 791 774 758 758 743 0 0 0 0 663 634 0 0 0 0 0 0 0 0 0 0 714 714 714 714 714 707 714 714 707 707 707 714 707 675 714 714 707 707 707 0 0 0 0 0
    0 0 0 0 0 0 0 0 0 0 0 0 0 0 0 0 0 0 0 0 0 0 0 0 0 0 0 0 0 0 0 0 0 0 0 0 0 0 0 0 0 0 0 0 0 0 0 0 0 0 0 0 0 0 0 0 0 0 0 0 0 0 0 0 0 0 0 0 0 876 886 876 897 886 865 845 865 865 865 876 876 865 876 876 897 908 931 943 931 919 943 0 0 0 0 886 0 0 886 876 886 897 865 855 845 886 897 865 876 876 876 876 876 908 845 845 876 826 836 845 855 836 836 836 836 826 836 817 808 799 817 808 808 808 817 817 836 845 855 845 855 845 836 845 836 826 826 826 826 836 826 836 826 826 845 836 817 826 817 817 808 826 817 808 808 808 808 808 808 817 817 817 817 817 826 826 817 808 808 808 808 799 799 799 808 808 808 808 808 808 826 826 817 808 808 799 782 782 782 782 774 782 791 791 766 766 766 766 774 782 774 774 766 782 791 791 782 766 799 799 799 758 799 799 791 791 791 766 774 774 791 735 735 743 735 728 721 694 694 687 687 687 681 687 694 700 707 714 721 721 735 735 743 728 721 728 714 721 687 675 0 0 0 0 0 0 0 0 0 0 728 735 743 758 766 774 774 750 766 758 758 735 735 714 687 663 651 663 634 639 0 675 0 0 0 0 707 707 707 707 707 707 707 707 707 700 707 707 707 675 714 714 707 707 707 0 0 0 0 0
    0 0 0 0 0 0 0 0 0 0 0 0 0 0 0 0 0 0 0 0 0 0 0 0 0 0 0 0 0 0 0 0 0 0 0 0 0 0 0 0 0 0 0 0 0 0 0 0 0 0 0 0 0 0 0 0 0 0 0 0 0 0 0 0 0 0 0 0 0 876 886 886 886 876 865 855 865 876 865 886 886 865 886 876 886 886 897 908 886 886 919 0 0 0 0 897 0 0 886 876 886 897 865 865 845 886 897 865 886 886 876 886 886 919 855 865 919 836 845 845 865 836 836 845 836 836 836 817 808 817 826 817 817 826 826 826 845 845 855 845 845 845 836 836 836 826 826 826 817 826 817 826 826 826 836 826 817 826 817 817 782 808 799 791 799 799 799 799 808 817 808 817 817 808 817 826 817 808 799 808 799 791 799 782 799 799 799 799 799 799 808 817 808 782 782 735 721 707 728 735 728 735 735 750 735 743 735 735 743 758 750 766 758 774 774 782 758 766 799 808 799 750 791 791 782 782 774 758 766 758 791 728 728 728 0 721 707 669 669 675 675 675 675 675 681 681 687 681 687 687 700 700 721 714 707 721 707 0 639 629 0 613 608 603 598 0 0 728 735 728 735 735 750 758 766 766 774 766 791 782 782 758 774 728 694 663 651 657 639 645 657 669 663 675 675 687 707 707 707 707 707 700 707 714 714 707 707 707 700 675 714 714 707 707 707 0 0 0 0 0
    0 0 0 0 0 0 0 0 0 0 0 0 0 0 0 0 0 0 0 0 0 0 0 0 0 0 0 0 0 0 0 0 0 0 0 0 0 0 0 0 0 0 0 0 0 0 0 0 0 0 0 0 0 0 0 0 0 0 0 0 0 0 0 0 0 0 0 0 0 886 876 876 886 876 865 865 865 876 876 897 897 865 886 876 897 886 886 897 886 897 943 0 0 0 0 919 0 886 886 876 886 897 865 865 845 886 897 865 897 897 886 886 886 919 865 865 931 826 836 836 865 836 836 836 836 826 826 817 817 817 826 817 817 817 817 817 836 826 836 836 826 826 817 826 826 817 0 817 817 826 0 836 0 826 0 0 0 0 0 791 0 766 766 758 782 791 782 791 808 817 817 817 817 808 817 836 0 0 0 0 0 0 0 0 0 0 0 766 750 782 774 799 799 758 750 714 634 657 623 675 681 0 681 707 714 714 714 707 707 714 0 728 721 721 728 728 714 0 799 808 799 750 791 791 782 782 774 750 758 750 782 714 714 0 0 0 714 669 669 681 681 675 675 663 675 675 675 669 675 675 681 681 714 714 700 707 694 657 618 618 608 608 603 603 603 603 0 0 721 721 728 728 743 750 750 758 774 766 791 791 791 782 817 0 0 669 645 669 657 663 669 675 675 0 675 0 700 707 707 707 707 707 714 714 721 714 714 707 707 681 721 714 707 700 707 0 0 0 0 0
    0 0 0 0 0 0 0 0 0 0 0 0 0 0 0 0 0 0 0 0 0 0 0 0 0 0 0 0 0 0 0 0 0 0 0 0 0 0 0 0 0 0 0 0 0 0 0 0 0 0 0 0 0 0 0 0 0 0 0 0 0 0 0 0 0 0 0 0 0 886 886 876 876 876 865 865 876 886 876 897 897 876 897 876 886 876 876 886 0 0 943 0 0 0 0 0 0 0 0 0 876 876 855 865 836 886 886 865 897 897 886 886 886 919 865 865 931 826 808 817 876 826 845 836 826 808 808 791 799 799 808 782 782 782 766 750 766 743 0 0 0 750 758 0 791 0 0 0 0 0 78 0 0 0 758 0 0 0 728 735 687 707 707 707 743 758 743 782 817 817 836 836 836 836 0 0 0 0 0 0 0 0 0 629 639 639 0 681 687 0 707 766 766 721 721 675 613 613 608 613 613 608 623 634 629 639 645 634 623 634 0 0 0 618 613 0 0 0 799 817 808 750 791 791 791 782 774 750 750 750 791 707 0 0 0 707 707 669 651 663 651 663 657 645 657 657 657 663 663 675 675 669 700 700 669 681 669 629 618 618 613 613 608 608 608 603 613 651 687 714 714 721 735 743 743 750 774 766 799 791 791 791 0 766 0 0 657 681 675 681 687 694 0 0 687 0 707 707 707 707 707 707 714 721 728 721 714 714 707 687 728 721 707 700 707 0 0 0 0 0
    0 0 0 0 0 0 0 0 0 0 0 0 0 0 0 0 0 0 0 0 0 0 0 0 0 0 0 0 0 0 0 0 0 0 0 0 0 0 0 0 0 0 0 0 0 0 0 0 0 0 0 0 0 0 0 0 0 0 0 0 0 0 0 0 0 0 0 0 0 855 855 845 845 845 836 845 845 845 845 845 845 0 855 0 0 0 0 0 0 0 0 0 0 0 0 0 0 0 0 0 0 0 836 855 836 876 886 865 897 897 886 876 876 908 865 865 919 817 782 791 886 808 845 826 799 774 782 743 774 782 774 735 728 707 707 687 694 681 669 675 675 681 687 694 0 0 0 758 0 0 0 0 0 0 0 645 0 651 0 707 645 634 645 651 694 707 700 0 721 782 817 826 826 855 0 0 0 0 0 0 0 0 0 634 639 634 634 657 663 669 681 700 707 675 687 669 618 613 608 613 618 613 618 629 618 629 629 629 618 629 0 0 0 629 623 0 0 0 808 817 808 750 799 799 791 782 774 750 758 758 791 707 700 707 0 687 681 651 634 651 639 639 639 634 645 645 645 651 645 663 669 663 681 681 663 669 651 629 623 618 613 613 608 608 608 603 608 657 0 721 721 721 735 743 743 743 774 766 791 791 791 782 0 0 0 714 0 0 681 681 700 707 0 0 687 700 707 714 714 707 700 700 707 721 728 721 714 714 714 694 728 721 714 694 707 0 0 0 0 0
    0 0 0 0 0 0 0 0 0 0 0 0 0 0 0 0 0 0 0 0 0 0 0 0 0 0 0 0 0 0 0 0 0 0 0 0 0 0 0 0 0 0 0 0 0 0 0 0 0 0 0 0 0 0 0 0 0 0 0 0 0 0 0 0 0 0 0 0 0 0 0 808 808 799 808 826 826 826 836 799 758 0 0 0 0 0 735 0 0 766 766 766 0 0 0 0 0 0 0 0 0 0 0 845 836 865 876 865 897 897 886 876 876 897 865 865 919 817 782 782 955 817 0 750 735 694 707 700 0 721 714 0 700 687 687 663 675 657 645 657 657 663 669 681 0 0 735 735 750 750 0 0 0 0 0 657 0 639 608 608 623 623 623 629 639 657 669 681 681 707 766 782 743 0 0 0 0 0 0 0 623 623 629 639 645 639 639 657 663 669 675 687 669 651 675 639 608 603 598 603 608 608 613 623 613 623 629 623 618 623 623 0 0 634 623 603 0 0 799 808 791 758 799 799 791 782 782 750 758 758 791 700 675 687 687 663 669 651 634 651 639 639 639 634 645 639 639 651 639 657 669 663 681 675 657 651 645 629 618 618 613 613 608 608 608 603 608 639 700 714 721 721 735 735 728 735 758 750 774 782 782 766 799 766 0 728 0 0 0 687 0 700 0 0 687 694 700 707 707 700 700 700 707 714 728 721 714 714 714 700 735 728 714 694 707 0 0 0 0 0
    0 0 0 0 0 0 0 0 0 0 0 0 0 0 0 0 0 0 0 0 0 0 0 0 0 0 0 0 0 0 0 0 0 0 0 0 0 0 0 0 0 0 0 0 0 0 0 0 0 0 0 0 0 0 0 0 0 0 0 0 0 0 0 0 0 0 0 0 0 0 0 0 0 758 782 808 799 0 826 743 707 700 694 694 694 700 707 707 714 735 728 743 750 766 782 799 799 808 0 0 0 0 0 845 826 865 876 855 897 897 886 876 876 897 865 865 919 817 774 782 955 799 0 0 707 681 694 681 681 694 687 687 681 681 681 663 669 663 651 657 663 663 663 675 681 694 714 721 735 743 758 774 766 750 714 0 0 639 603 613 623 623 623 629 645 651 669 675 675 694 0 735 0 0 0 584 0 639 629 629 629 634 634 645 651 645 645 657 657 663 669 681 651 645 675 629 608 603 603 603 608 608 613 618 618 618 629 623 618 618 618 0 0 623 613 593 0 557 799 808 782 758 799 791 791 774 782 750 750 758 782 694 645 651 669 645 651 645 629 645 639 634 639 634 639 634 639 645 634 645 669 657 681 681 651 645 645 629 623 623 618 613 608 608 608 603 613 623 669 707 721 714 728 721 721 721 743 735 750 758 766 758 791 758 0 735 0 0 0 687 0 700 0 0 687 694 694 700 707 700 700 700 707 714 728 721 721 721 721 700 735 728 714 700 707 0 0 0 0 0
    0 0 0 0 0 0 0 0 0 0 0 0 0 0 0 0 0 0 0 0 0 0 0 0 0 0 0 0 0 0 0 0 0 0 0 0 0 0 0 0 0 0 0 0 0 0 0 0 0 0 0 0 0 0 0 0 0 0 0 0 0 0 0 0 0 0 0 0 0 0 0 0 0 0 758 791 758 0 791 728 700 694 694 694 681 694 700 700 707 714 714 728 743 766 774 799 799 799 782 0 791 782 799 836 808 855 865 855 886 897 886 876 876 886 865 865 931 817 766 774 0 774 0 694 707 669 681 663 0 669 669 669 663 669 669 651 663 657 651 657 657 663 663 669 675 681 700 714 721 728 750 758 750 750 0 0 0 634 603 613 618 629 629 634 657 657 669 675 681 700 0 728 0 0 669 598 0 645 634 634 634 639 634 645 651 645 645 657 657 663 663 681 645 645 675 629 618 613 608 613 613 613 613 618 618 618 623 623 618 618 618 0 0 623 613 603 598 574 791 799 766 750 791 791 782 774 782 750 750 750 766 687 639 639 657 639 657 651 629 651 639 639 639 634 645 639 639 657 639 663 675 663 681 675 651 645 639 629 623 623 618 618 613 613 613 608 613 634 0 714 728 714 721 714 721 721 743 735 758 766 782 808 808 766 750 735 0 714 707 694 707 700 700 707 687 694 700 700 707 700 700 707 707 714 728 728 721 721 721 707 735 728 714 700 707 0 0 0 0 0
    0 0 0 0 0 0 0 0 0 0 0 0 0 0 0 0 0 0 0 0 0 0 0 0 0 0 0 0 0 0 0 0 0 0 0 0 0 0 0 0 0 0 0 0 0 0 0 0 0 0 0 0 0 0 0 0 0 0 0 0 0 0 0 0 0 0 0 0 0 0 707 714 714 728 735 750 728 0 750 721 694 687 687 687 669 681 687 687 700 700 707 721 728 758 766 799 808 808 799 808 817 808 817 836 826 845 855 845 886 886 886 876 876 886 865 865 931 817 758 758 0 750 694 700 707 675 675 657 657 651 663 663 651 663 663 651 657 657 651 657 657 657 663 669 669 675 687 707 714 714 735 743 750 750 0 0 0 639 608 618 623 634 634 645 669 669 681 687 687 707 714 735 0 0 687 608 613 651 639 634 634 639 634 645 651 645 645 651 657 663 657 675 645 639 675 623 618 613 608 613 618 613 613 618 613 613 618 618 618 618 623 629 623 634 629 623 634 629 774 774 750 750 791 791 782 774 791 758 750 758 758 681 634 645 657 639 657 657 634 651 645 639 639 639 645 639 639 657 639 663 675 663 675 675 651 645 639 634 629 629 623 623 618 618 613 608 608 0 728 728 750 728 735 735 743 750 782 791 799 817 826 845 817 799 782 758 735 728 714 694 707 700 694 700 687 687 694 700 707 700 707 707 707 714 728 728 721 721 728 707 735 735 714 700 707 0 0 0 0 0
    0 0 0 0 0 0 0 0 0 0 0 0 0 0 0 0 0 0 0 0 0 0 0 0 0 0 0 0 0 0 0 0 0 0 0 0 0 0 0 0 0 0 0 0 0 0 0 0 0 0 0 0 0 0 0 0 0 0 0 0 0 0 0 0 0 0 0 0 0 687 714 714 721 728 743 758 743 735 766 728 707 687 687 687 663 681 687 687 694 700 707 714 728 758 766 791 808 799 791 799 799 791 799 826 0 836 845 845 886 886 876 876 876 876 865 865 908 808 743 750 791 728 687 687 681 675 675 663 663 651 657 663 645 663 657 651 657 651 651 657 657 657 663 663 663 675 687 700 700 707 728 735 750 743 721 687 651 645 613 618 623 634 639 651 675 675 687 694 700 721 728 750 0 0 0 613 618 651 639 639 639 639 639 645 651 651 645 657 657 663 657 669 645 645 675 629 623 623 618 623 618 618 618 618 613 613 613 618 613 623 623 629 629 639 634 634 651 645 758 766 743 750 782 782 782 774 799 766 758 774 766 681 651 669 669 657 669 669 639 663 651 639 639 639 639 639 639 651 634 645 675 663 669 675 657 645 645 639 634 634 629 629 623 623 623 613 651 707 721 735 743 721 728 721 735 750 791 791 808 826 845 855 826 808 791 766 750 735 721 700 707 707 694 700 687 687 694 700 707 700 707 714 707 714 728 728 721 728 735 707 735 735 721 700 707 0 0 0 0 0
    0 0 0 0 0 0 0 0 0 0 0 0 0 0 0 0 0 0 0 0 0 0 0 0 0 0 0 0 0 0 0 0 0 0 0 0 0 0 0 0 0 0 0 0 0 0 0 0 0 0 0 0 0 0 0 0 0 0 0 0 0 0 0 0 0 0 0 0 0 694 714 721 721 721 735 743 735 721 743 721 707 687 687 687 663 681 681 681 694 700 700 714 721 758 766 782 799 799 782 782 791 774 791 799 0 817 826 836 876 876 876 865 865 876 865 865 897 808 735 735 735 714 687 681 681 675 675 669 663 657 657 663 645 657 657 645 651 651 651 657 657 657 657 657 663 669 681 694 700 707 728 743 758 758 743 714 687 669 623 623 629 639 645 663 687 687 700 707 707 735 735 758 728 0 721 669 623 663 639 639 639 645 639 645 651 651 651 657 657 663 657 669 657 645 675 639 634 634 629 629 623 623 618 618 618 618 618 618 618 629 629 639 634 645 639 639 663 657 766 774 750 750 782 782 782 782 799 774 766 774 774 687 675 681 687 675 675 681 651 669 657 639 639 634 639 634 634 645 629 639 669 651 663 663 645 645 645 639 639 634 634 639 634 645 663 669 707 714 735 743 743 728 728 0 743 774 808 799 808 845 865 865 826 808 791 774 758 758 743 721 728 721 714 714 700 700 700 707 721 707 707 714 714 721 728 728 728 728 743 714 743 735 721 700 714 0 0 0 0 0
    0 0 0 0 0 0 0 0 0 0 0 0 0 0 0 0 0 0 0 0 0 0 0 0 0 0 0 0 0 0 0 0 0 0 0 0 0 0 0 0 0 0 0 0 0 0 0 0 0 0 0 0 0 0 0 0 0 0 0 0 0 0 0 0 0 0 0 0 0 675 700 707 707 707 714 714 714 700 721 707 694 681 687 687 657 681 681 681 687 700 700 707 721 750 758 782 791 791 782 782 791 774 791 791 0 817 817 836 876 886 886 876 876 876 876 865 897 808 728 721 707 707 687 681 675 675 669 669 663 657 651 657 639 651 651 645 651 651 651 657 657 657 657 657 663 669 687 694 700 714 735 750 774 766 774 758 735 700 634 623 629 639 651 675 707 707 714 714 721 743 743 766 735 728 721 694 639 669 645 645 639 651 645 651 657 651 651 663 657 669 663 669 663 657 681 651 639 645 634 634 634 634 629 629 629 629 629 629 629 639 639 651 645 651 651 651 669 675 0 766 743 750 782 782 782 782 808 782 774 782 782 700 687 694 694 681 687 687 663 669 657 639 639 634 639 634 629 645 623 629 651 639 645 651 639 639 639 639 645 645 645 657 657 675 707 707 721 721 743 750 750 721 721 0 0 774 799 0 0 845 0 865 826 799 782 774 766 766 750 735 743 735 0 0 721 714 714 721 721 707 714 721 714 721 721 728 721 728 750 714 743 743 721 700 714 0 0 0 0 0
    0 0 0 0 0 0 0 0 0 0 0 0 0 0 0 0 0 0 0 0 0 0 0 0 0 0 0 0 0 0 0 0 0 0 0 0 0 0 0 0 0 0 0 0 0 0 0 0 0 0 0 0 0 0 0 0 0 0 0 0 0 0 0 0 0 0 0 0 0 669 687 694 707 700 694 700 694 681 700 687 681 675 681 687 663 681 681 681 694 700 700 714 728 758 758 782 791 791 791 791 799 791 799 808 0 0 836 836 876 886 886 886 886 876 876 865 908 817 743 735 714 0 687 681 675 675 669 669 663 657 657 657 634 651 651 651 657 651 657 663 657 657 657 657 663 675 687 700 707 721 743 750 774 774 782 782 766 714 639 623 623 639 657 694 721 721 728 728 735 758 758 774 743 735 728 700 657 669 651 651 645 657 651 651 657 657 657 663 663 675 663 675 675 669 694 669 657 657 645 651 651 651 634 639 639 639 645 651 639 657 651 669 663 663 663 663 681 687 750 750 743 750 774 782 782 782 808 782 774 782 774 700 694 700 700 687 694 694 669 675 669 651 651 639 639 634 629 645 623 618 645 634 639 645 639 639 639 645 651 651 651 669 675 700 721 721 728 728 750 758 758 728 721 675 0 0 808 0 0 855 855 865 826 808 791 782 774 782 766 758 0 735 0 0 728 728 721 728 721 714 714 721 721 714 721 721 721 728 766 714 743 743 721 700 714 0 0 0 0 0
    0 0 0 0 0 0 0 0 0 0 0 0 0 0 0 0 0 0 0 0 0 0 0 0 0 0 0 0 0 0 0 0 0 0 0 0 0 0 0 0 0 0 0 0 0 0 0 0 0 0 0 0 0 0 0 0 0 0 0 0 0 0 0 0 0 0 0 0 0 651 681 687 707 700 687 694 694 681 700 687 687 681 687 694 675 687 687 687 694 700 707 714 728 766 774 782 799 799 799 808 817 808 817 826 845 845 845 845 886 886 897 897 897 886 886 876 908 826 774 766 728 721 694 681 675 675 669 669 663 657 651 657 634 651 651 651 657 651 657 663 657 657 663 657 663 675 687 700 714 721 743 750 782 774 782 791 774 0 639 618 623 651 675 714 735 735 750 750 758 774 774 791 766 758 750 707 669 669 663 657 645 657 651 651 657 657 663 669 669 675 669 675 681 681 700 681 669 669 663 669 675 663 639 645 663 657 663 663 657 669 669 675 675 675 675 669 687 687 743 743 735 743 774 774 782 782 808 782 774 782 774 707 700 707 707 700 700 700 675 681 675 657 657 645 645 634 634 651 623 623 645 634 639 645 645 639 639 651 657 657 663 675 687 707 728 721 728 728 750 758 750 721 721 0 0 0 808 0 0 865 855 865 836 817 799 791 782 782 774 0 0 0 0 0 735 721 721 714 721 714 721 728 721 714 721 721 721 728 774 714 743 743 721 700 714 0 0 0 0 0
    0 0 0 0 0 0 0 0 0 0 0 0 0 0 0 0 0 0 0 0 0 0 0 0 0 0 0 0 0 0 0 0 0 0 0 0 0 0 0 0 0 0 0 0 0 0 0 0 0 0 0 0 0 0 0 0 0 0 0 0 0 0 0 0 0 0 0 0 0 0 0 0 728 707 700 707 707 694 707 694 694 687 694 700 681 694 694 694 700 707 714 721 743 774 782 799 808 808 808 808 826 817 826 836 845 855 855 845 886 886 897 897 908 886 886 876 908 826 774 766 728 721 694 687 675 675 669 669 663 657 651 657 639 651 651 657 663 657 663 669 663 663 669 663 669 675 687 700 714 721 743 758 782 782 782 791 774 735 675 629 629 675 694 728 750 766 774 766 774 791 782 799 782 774 758 714 681 675 663 657 651 657 651 651 657 657 657 669 669 675 669 681 687 687 700 687 681 681 675 681 681 675 651 651 675 663 675 675 669 675 675 681 681 681 681 681 687 687 743 743 735 743 766 774 782 774 808 774 766 774 774 707 707 707 707 707 700 700 675 681 681 663 663 651 645 639 634 657 629 623 645 634 645 651 645 645 651 663 675 675 675 694 707 721 735 721 728 714 743 750 743 721 721 0 0 845 826 0 0 865 845 865 836 817 782 791 782 782 782 0 0 0 0 0 728 714 714 707 714 707 721 728 721 721 721 721 721 728 782 714 735 735 721 700 714 0 0 0 0 0
    0 0 0 0 0 0 0 0 0 0 0 0 0 0 0 0 0 0 0 0 0 0 0 0 0 0 0 0 0 0 0 0 0 0 0 0 0 0 0 0 0 0 0 0 0 0 0 0 0 0 0 0 0 0 0 0 0 0 0 0 0 0 0 0 0 0 0 0 0 0 0 0 728 707 700 707 707 707 707 700 707 694 694 707 681 687 687 694 700 700 714 721 743 782 782 799 808 808 808 808 826 826 826 836 855 855 855 845 886 886 897 886 908 886 886 876 908 826 782 774 728 728 694 687 681 675 675 669 669 663 657 657 639 651 651 651 663 657 657 663 663 663 669 669 675 681 694 707 714 728 750 766 791 791 791 782 774 743 694 645 639 707 714 758 782 791 799 791 791 799 791 808 791 791 766 714 687 675 657 657 651 657 651 645 657 651 657 669 669 681 675 681 694 694 700 694 687 681 687 687 694 687 663 663 681 675 681 681 675 681 675 687 687 681 687 681 687 687 735 743 735 743 766 774 782 774 799 766 766 774 774 721 721 714 714 714 714 707 681 687 681 669 669 651 645 639 639 657 634 629 645 634 645 645 645 645 645 663 681 687 687 707 721 735 750 728 728 714 735 735 728 707 714 694 0 817 808 766 0 845 817 845 817 799 766 0 782 782 791 0 0 0 0 0 728 714 714 707 707 707 721 728 721 714 714 721 721 728 774 714 735 728 721 694 714 0 0 0 0 0
    0 0 0 0 0 0 0 0 0 0 0 0 0 0 0 0 0 0 0 0 0 0 0 0 0 0 0 0 0 0 0 0 0 0 0 0 0 0 0 0 0 0 0 0 0 0 0 0 0 0 0 0 0 0 0 0 0 0 0 0 0 0 0 0 0 0 0 0 0 0 0 0 728 714 707 714 714 714 714 707 707 700 700 707 687 694 694 694 700 707 721 728 758 799 799 799 817 817 817 817 826 826 826 845 855 855 855 845 886 886 897 886 908 886 886 876 908 826 791 782 0 728 694 687 681 681 675 681 675 675 669 657 645 657 651 657 663 657 657 663 663 663 669 669 675 681 694 707 714 735 758 774 799 791 799 774 766 0 694 657 645 721 721 774 791 808 808 808 808 808 799 817 799 799 774 714 694 0 657 657 651 657 651 645 657 651 657 669 675 681 675 687 694 694 700 694 687 687 694 700 707 700 687 687 694 687 694 681 681 681 681 687 681 681 687 687 694 694 743 750 743 743 774 774 782 774 799 766 766 774 774 728 721 714 721 721 721 707 681 687 681 657 663 645 634 629 634 651 629 623 645 634 645 651 651 651 651 675 694 700 700 714 728 735 750 728 728 714 728 735 721 714 721 700 758 782 782 0 0 0 799 0 0 0 0 0 0 0 0 0 0 0 0 0 721 714 714 707 707 707 714 721 714 707 714 714 714 728 766 714 728 728 721 681 707 0 0 0 0 0
    0 0 0 0 0 0 0 0 0 0 0 0 0 0 0 0 0 0 0 0 0 0 0 0 0 0 0 0 0 0 0 0 0 0 0 0 0 0 0 0 0 0 0 0 0 0 0 0 0 0 0 0 0 0 0 0 0 0 0 0 0 0 0 0 0 0 0 0 0 0 0 0 735 714 707 714 714 714 707 707 707 707 707 714 694 700 700 707 707 714 728 743 774 808 799 808 817 817 826 817 817 826 826 845 855 855 855 845 886 886 897 886 908 886 886 876 908 826 791 782 0 728 694 687 681 681 681 681 681 687 675 663 663 663 657 657 663 657 657 663 669 657 669 669 675 681 700 714 721 743 766 782 799 791 799 774 774 0 0 657 639 0 728 791 799 817 817 817 817 817 808 817 799 799 766 714 700 675 657 663 651 663 651 645 657 657 657 669 675 681 675 681 694 694 700 700 694 687 700 700 714 707 700 700 700 694 694 687 687 687 681 687 687 681 687 687 694 694 743 758 750 743 774 774 782 774 799 758 758 766 766 728 721 721 721 721 721 707 681 687 675 651 657 639 634 634 634 651 629 629 645 639 657 657 663 657 663 694 707 714 0 721 728 735 750 735 728 714 728 735 721 714 714 700 721 728 743 0 0 0 0 0 0 0 0 0 0 0 0 0 0 0 0 0 728 721 721 707 707 707 714 721 714 707 714 714 714 728 758 714 728 728 714 675 700 0 0 0 0 0
    0 0 0 0 0 0 0 0 0 0 0 0 0 0 0 0 0 0 0 0 0 0 0 0 0 0 0 0 0 0 0 0 0 0 0 0 0 0 0 0 0 0 0 0 0 0 0 0 0 0 0 0 0 0 0 0 0 0 0 0 0 0 0 0 0 0 0 0 0 0 0 0 0 707 675 707 700 700 700 700 707 707 700 714 700 707 707 714 714 721 728 750 782 799 808 808 817 817 836 826 826 836 836 845 855 865 865 855 886 886 897 886 897 886 886 876 908 826 799 782 0 735 700 687 687 681 681 681 681 694 681 669 675 669 663 657 669 657 657 663 663 657 669 669 675 681 700 714 728 750 766 774 791 782 791 774 774 0 0 675 645 0 728 799 808 826 826 826 826 817 808 817 799 799 750 707 700 675 663 663 657 663 651 651 657 657 663 675 681 681 681 687 700 700 700 700 694 687 700 707 721 721 707 707 707 700 700 687 694 687 681 687 687 687 694 694 700 694 750 758 750 743 774 774 782 774 799 750 758 758 766 728 728 721 728 728 728 707 687 681 669 657 657 639 634 634 639 657 634 634 657 651 681 669 681 675 694 714 721 721 0 0 0 735 750 735 728 721 735 743 728 721 728 707 0 0 743 700 0 714 735 774 758 0 0 0 0 0 0 0 0 0 0 0 728 721 721 707 707 707 714 721 714 707 714 714 721 735 743 707 721 721 714 675 700 0 0 0 0 0
    0 0 0 0 0 0 0 0 0 0 0 0 0 0 0 0 0 0 0 0 0 0 0 0 0 0 0 0 0 0 0 0 0 0 0 0 0 0 0 0 0 0 0 0 0 0 0 0 0 0 0 0 0 0 0 0 0 0 0 0 0 0 0 0 0 0 0 0 0 0 0 0 0 714 681 700 700 700 700 700 707 707 707 714 707 714 714 714 721 721 728 743 766 791 808 808 817 817 836 826 836 845 845 855 865 876 876 855 897 897 897 886 897 876 876 876 908 826 791 782 0 750 707 694 694 687 687 687 687 700 687 669 681 669 663 657 669 657 657 663 669 657 675 675 687 687 714 721 728 750 774 774 782 782 791 766 782 0 0 669 639 0 0 0 817 826 836 836 826 817 817 0 808 799 743 707 687 669 663 663 663 663 651 651 657 663 669 675 687 687 687 700 707 714 707 707 700 694 714 714 735 735 721 721 714 707 707 700 700 694 687 694 687 687 694 694 700 694 750 758 758 743 774 774 782 766 791 758 758 758 774 735 728 728 735 735 728 707 687 681 669 657 651 639 634 634 645 663 645 657 675 681 700 700 707 707 714 728 728 728 0 0 0 0 743 735 728 728 743 743 735 721 728 714 721 735 743 700 714 714 743 774 774 750 0 0 0 0 0 0 0 0 0 714 721 721 721 700 707 714 721 721 707 707 714 714 721 728 735 707 721 721 714 675 694 0 0 0 0 0
    0 0 0 0 0 0 0 0 0 0 0 0 0 0 0 0 0 0 0 0 0 0 0 0 0 0 0 0 0 0 0 0 0 0 0 0 0 0 0 0 0 0 0 0 0 0 0 0 0 0 0 0 0 0 0 0 0 0 0 0 0 0 0 0 0 0 0 0 0 0 0 0 774 728 707 714 714 714 707 707 707 714 707 721 714 714 714 721 721 728 735 743 758 782 799 817 817 817 836 826 836 845 845 855 865 865 865 855 886 886 886 876 886 876 876 865 919 826 799 782 782 766 714 707 714 700 700 700 694 721 707 0 694 675 675 663 669 663 657 663 669 657 675 681 687 687 707 721 728 743 766 774 774 774 791 758 782 0 0 0 0 0 721 0 817 826 836 836 826 826 817 0 808 808 743 707 681 669 669 669 669 669 657 663 663 675 681 681 694 694 700 707 707 714 707 707 714 700 714 721 750 743 728 721 721 714 714 700 707 700 694 694 694 694 700 700 728 707 758 758 758 743 774 774 774 766 791 758 758 758 774 735 735 735 735 728 721 707 694 681 669 657 657 645 639 639 657 675 663 675 694 707 714 714 721 714 728 735 728 728 0 0 0 0 743 735 735 735 743 750 743 728 735 735 735 743 750 721 728 728 750 774 774 0 0 0 0 0 0 0 0 0 0 714 721 714 721 707 714 714 721 721 714 714 714 714 728 728 714 707 714 714 707 669 694 0 0 0 0 0
    0 0 0 0 0 0 0 0 0 0 0 0 0 0 0 0 0 0 0 0 0 0 0 0 0 0 0 0 0 0 0 0 0 0 0 0 0 0 0 0 0 0 0 0 0 0 0 0 0 0 0 0 0 0 0 0 0 0 0 0 0 0 0 0 0 0 0 0 0 0 0 0 799 750 728 728 728 728 714 714 714 714 714 721 714 721 714 721 728 735 735 750 758 774 791 808 817 817 826 817 826 836 845 845 855 855 855 845 886 886 886 876 876 865 865 865 919 817 791 782 791 766 721 721 728 728 721 721 721 758 728 714 707 687 687 669 675 669 657 669 675 663 675 675 681 681 707 714 728 735 758 766 774 774 791 758 791 774 0 0 0 0 728 0 808 826 826 836 826 817 817 0 799 799 743 707 675 675 669 669 675 675 663 669 669 681 681 687 700 700 700 707 707 714 700 707 714 694 721 721 750 750 728 728 721 721 721 700 707 700 694 694 694 694 700 700 743 707 758 766 766 743 774 774 774 766 791 766 766 758 782 735 735 735 735 728 721 707 687 681 669 657 651 645 639 639 663 681 675 687 700 707 714 721 728 721 728 728 728 0 0 0 0 735 0 743 743 743 743 743 743 728 743 743 735 735 743 728 728 728 743 750 750 0 0 0 0 0 0 0 0 0 0 700 714 707 721 707 714 721 728 721 714 714 714 714 735 728 707 694 0 707 707 663 687 0 0 0 0 0
    0 0 0 0 0 0 0 0 0 0 0 0 0 0 0 0 0 0 0 0 0 0 0 0 0 0 0 0 0 0 0 0 0 0 0 0 0 0 0 0 0 0 0 0 0 0 0 0 0 0 0 0 0 0 0 0 0 0 0 0 0 0 0 0 0 0 0 0 0 0 0 0 799 766 735 743 743 735 721 721 714 714 721 721 714 721 721 728 728 735 735 750 766 774 774 791 799 808 808 808 808 817 826 845 845 855 855 845 876 876 876 865 865 855 855 865 908 817 791 782 782 774 735 735 743 750 735 750 750 782 750 735 728 700 700 681 681 669 663 675 681 663 681 681 687 687 714 714 728 735 758 766 774 774 791 758 799 782 0 0 0 0 743 0 808 826 826 826 826 817 808 0 799 791 735 707 663 675 669 675 675 675 669 675 675 687 687 694 707 700 707 707 707 714 700 707 714 694 714 721 743 750 728 728 728 721 728 714 721 707 694 694 694 694 0 700 774 714 766 774 766 750 782 774 774 766 791 766 766 750 774 735 735 728 728 721 714 694 687 681 663 651 651 645 639 639 669 675 675 687 700 714 721 728 728 721 728 728 0 0 0 0 0 0 0 750 750 750 743 743 735 728 743 743 728 735 743 728 728 728 735 743 743 743 0 0 0 0 0 0 0 0 721 714 728 721 721 714 714 721 721 714 714 714 714 707 728 714 694 675 639 700 694 657 687 0 0 0 0 0
    0 0 0 0 0 0 0 0 0 0 0 0 0 0 0 0 0 0 0 0 0 0 0 0 0 0 0 0 0 0 0 0 0 0 0 0 0 0 0 0 0 0 0 0 0 0 0 0 0 0 0 0 0 0 0 0 0 0 0 0 0 0 0 0 0 0 0 0 0 0 0 0 799 0 0 0 750 750 728 728 721 721 728 728 714 721 721 728 735 735 735 743 758 774 766 782 791 791 791 799 799 808 817 836 845 845 845 845 865 865 865 855 865 845 845 845 886 817 791 782 791 782 743 743 750 758 743 750 758 774 750 743 735 700 700 694 681 669 663 675 681 669 681 681 687 687 714 714 721 735 750 750 766 766 791 758 791 791 799 0 0 0 766 808 817 826 826 826 826 817 808 826 799 782 743 714 651 681 681 687 687 681 681 681 681 700 700 707 714 707 714 707 707 721 700 707 721 694 721 721 750 750 735 735 735 728 743 728 743 735 714 0 0 700 0 735 799 721 774 774 774 750 782 782 782 766 791 766 766 750 774 735 735 728 728 721 707 694 694 675 663 651 645 639 639 645 669 675 675 694 707 728 728 735 728 721 0 0 0 0 0 0 0 0 0 0 0 0 750 743 735 728 0 0 721 728 728 721 728 728 743 743 750 750 0 0 0 0 0 0 0 0 735 735 743 743 735 714 721 721 714 707 707 707 707 700 714 700 669 663 629 694 687 651 681 0 0 0 0 0
    0 0 0 0 0 0 0 0 0 0 0 0 0 0 0 0 0 0 0 0 0 0 0 0 0 0 0 0 0 0 0 0 0 0 0 0 0 0 0 0 0 0 0 0 0 0 0 0 0 0 0 0 0 0 0 0 0 0 0 0 0 0 0 0 0 0 0 0 0 0 0 0 0 0 0 0 758 774 750 735 728 728 735 735 728 728 728 735 743 743 743 750 758 766 758 766 782 782 782 791 799 808 817 826 845 845 855 836 855 855 865 855 855 836 836 836 865 808 791 782 791 782 758 750 758 766 750 750 750 766 758 766 750 714 714 707 694 687 675 687 687 675 687 687 687 687 714 714 721 728 743 750 758 766 791 758 799 799 826 826 0 817 791 817 817 826 826 826 817 817 808 817 799 782 750 721 675 687 687 694 694 687 694 687 687 707 707 707 714 714 714 707 707 728 714 721 782 700 750 750 774 766 750 743 743 735 743 743 758 758 728 0 0 735 855 782 808 728 782 782 774 750 782 782 782 774 791 766 766 750 774 735 735 728 728 714 707 694 694 675 669 651 639 639 639 651 675 675 681 707 728 750 743 743 735 735 735 728 0 735 0 0 0 0 0 0 0 0 750 735 0 0 0 0 721 728 728 721 721 721 735 735 0 750 0 0 0 0 0 0 0 750 774 758 774 774 743 721 721 714 707 700 694 694 700 694 707 687 629 634 0 694 687 645 675 0 0 0 0 0
    0 0 0 0 0 0 0 0 0 0 0 0 0 0 0 0 0 0 0 0 0 0 0 0 0 0 0 0 0 0 0 0 0 0 0 0 0 0 0 0 0 0 0 0 0 0 0 0 0 0 0 0 0 0 0 0 0 0 0 0 0 0 0 0 0 0 0 0 0 74 0 0 0 0 0 0 782 791 782 743 735 728 735 735 735 735 735 735 743 743 743 750 750 750 750 766 774 774 766 791 799 799 817 817 836 845 845 836 855 855 855 845 845 826 817 817 845 808 791 791 791 791 766 766 766 782 766 766 758 766 774 774 766 728 721 714 707 700 694 694 700 687 694 694 694 694 714 714 728 735 743 750 758 766 791 766 808 808 855 855 855 836 817 826 836 836 836 836 826 817 817 817 808 782 758 721 687 694 694 694 694 694 694 694 687 707 714 714 721 714 721 714 714 735 728 743 826 0 0 817 817 799 774 750 758 750 750 758 766 774 750 0 817 774 0 782 791 735 782 782 782 750 782 782 782 774 791 774 766 758 782 735 735 735 728 721 707 694 694 681 675 669 651 657 669 675 694 700 707 728 750 774 758 750 743 743 743 728 0 735 0 0 0 0 0 0 0 0 0 0 0 0 0 0 735 735 728 721 721 0 728 728 0 735 0 0 0 0 0 0 808 782 799 782 791 782 743 721 721 714 700 694 687 687 687 694 700 663 608 608 588 681 681 645 675 0 0 0 0 0
    0 0 0 0 0 0 0 0 0 0 0 0 0 0 0 0 0 0 0 0 0 0 0 0 0 0 0 0 0 0 0 0 0 0 0 0 0 0 0 0 0 0 0 0 0 0 0 0 0 0 0 0 0 0 0 0 0 0 0 0 0 0 0 0 0 0 0 0 0 0 0 0 0 0 0 0 0 817 817 774 743 728 743 743 743 735 735 735 750 750 750 750 750 750 750 766 766 774 766 782 791 799 808 817 836 845 845 826 845 836 836 826 826 808 808 808 836 799 791 782 799 791 782 774 774 791 782 782 774 774 782 782 774 735 721 721 714 707 700 707 707 700 707 707 700 707 721 721 735 735 750 750 758 766 799 774 817 817 865 855 865 836 817 826 826 836 836 826 826 817 817 826 817 799 782 728 707 707 700 700 700 694 700 700 694 714 714 721 728 721 728 721 721 743 750 774 845 876 865 865 855 826 808 774 774 766 766 774 774 791 774 0 817 791 0 782 782 743 782 782 782 750 782 782 782 782 791 774 774 758 791 743 743 743 735 721 707 694 694 681 675 669 657 663 675 681 700 707 714 743 766 782 758 750 743 743 743 735 0 0 0 0 0 0 743 743 0 0 0 0 0 0 0 750 743 743 728 721 721 721 728 728 0 735 0 0 0 0 0 799 817 791 799 791 799 782 735 721 728 714 700 694 687 681 687 687 694 629 598 593 584 0 645 645 675 0 0 0 0 0
    0 0 0 0 0 0 0 0 0 0 0 0 0 0 0 0 0 0 0 0 0 0 0 0 0 0 0 0 0 0 0 0 0 0 0 0 0 0 0 0 0 0 0 0 0 0 0 0 0 0 0 0 0 0 0 0 0 0 0 0 0 0 0 0 0 0 0 0 0 0 0 0 0 0 0 0 0 836 836 817 791 774 774 766 750 750 735 743 750 750 758 758 758 750 750 766 774 774 766 782 791 799 808 817 836 845 845 817 826 826 826 817 817 799 791 791 826 799 782 791 799 791 791 782 0 791 791 791 782 782 791 791 774 743 728 721 721 721 714 714 714 714 721 721 714 714 728 728 743 743 750 750 766 774 799 791 826 0 876 855 855 836 808 817 817 826 826 817 817 817 817 826 826 826 799 743 721 721 721 714 714 700 714 700 700 721 721 721 728 728 735 728 721 743 750 774 826 855 845 845 836 826 808 791 782 782 766 774 782 791 782 782 799 766 791 766 766 750 782 782 782 750 782 782 782 782 791 774 774 766 791 750 750 743 735 721 707 700 694 681 681 681 675 687 694 700 714 735 743 766 791 799 774 766 758 743 735 735 735 0 0 735 0 0 735 735 0 0 0 0 0 0 0 0 0 743 728 721 728 728 728 721 0 735 0 758 782 826 808 774 799 791 799 791 799 782 735 728 735 714 707 700 687 681 687 681 675 618 593 574 579 588 593 618 629 0 0 0 0 0
    0 0 0 0 0 0 0 0 0 0 0 0 0 0 0 0 0 0 0 0 0 0 0 0 0 0 0 0 0 0 0 0 0 0 0 0 0 0 0 0 0 0 0 0 0 0 0 0 0 0 0 0 0 0 0 0 0 0 0 0 0 0 0 0 0 0 0 0 0 0 0 0 0 0 0 0 0 865 865 845 826 817 799 774 750 758 743 750 766 766 766 774 774 774 766 774 774 782 774 791 791 799 817 817 836 845 845 817 817 826 817 808 808 791 782 782 826 799 791 791 799 782 791 791 0 0 782 782 774 782 791 791 782 758 743 735 735 728 728 721 721 721 721 721 714 714 728 728 743 743 750 758 766 774 799 791 817 0 865 0 855 836 799 817 817 817 817 817 817 808 808 826 826 826 808 766 750 743 735 728 721 707 721 714 714 721 721 721 735 728 743 728 728 735 774 782 808 817 808 817 808 808 799 782 782 774 766 766 774 774 774 766 791 758 774 758 766 758 791 782 782 750 782 782 791 782 791 774 766 766 791 750 750 743 735 721 707 700 694 681 687 687 681 694 700 707 728 750 774 791 808 808 791 782 782 766 758 758 758 750 735 743 743 735 743 735 0 0 728 0 0 0 0 0 0 0 0 0 728 728 728 721 0 721 750 743 766 808 782 750 791 782 791 782 791 766 735 728 735 714 700 700 694 681 687 675 651 608 579 561 570 579 579 603 598 0 0 0 0 0
    0 0 0 0 0 0 0 0 0 0 0 0 0 0 0 0 0 0 0 0 0 0 0 0 0 0 0 0 0 0 0 0 0 0 0 0 0 0 0 0 0 0 0 0 0 0 0 0 0 0 0 0 0 0 0 0 0 0 0 0 0 0 0 0 0 0 0 0 0 0 0 0 0 0 0 0 943 908 886 876 845 845 826 791 758 766 758 758 774 774 766 774 774 782 774 774 782 782 774 791 799 799 817 817 845 845 845 808 817 817 817 799 799 782 774 774 817 799 791 791 799 782 791 791 0 774 791 791 782 791 791 782 782 774 750 743 735 735 735 728 728 728 735 735 728 721 735 735 750 758 766 758 774 782 799 799 817 826 845 0 836 826 791 808 808 817 808 808 817 808 808 826 826 817 808 774 766 758 758 735 735 714 728 721 728 714 721 721 735 728 743 721 721 735 782 791 808 817 808 808 799 808 791 774 782 766 758 750 766 766 758 758 774 750 766 758 766 766 791 791 791 750 791 782 791 791 791 774 766 766 791 750 750 735 735 721 714 700 694 687 694 694 694 707 714 721 743 766 774 791 817 808 799 791 782 782 774 782 774 766 750 750 750 0 750 743 0 0 0 0 0 0 0 0 0 0 0 0 0 721 721 0 0 714 728 735 750 791 766 735 774 774 782 766 774 750 728 728 728 707 700 700 687 681 687 675 639 603 574 561 566 579 584 608 608 0 0 0 0 0
    0 0 0 0 0 0 0 0 0 0 0 0 0 0 0 0 0 0 0 0 0 0 0 0 0 0 0 0 0 0 0 0 0 0 0 0 0 0 0 0 0 0 0 0 0 0 0 0 0 0 0 0 0 0 0 0 0 0 0 0 0 0 0 0 0 0 0 0 0 0 0 0 0 0 0 931 943 908 886 0 0 845 845 808 774 774 766 774 782 799 791 782 782 799 791 791 791 791 791 799 799 817 817 826 845 855 845 808 817 817 808 782 791 782 766 774 817 791 799 799 808 791 799 0 0 774 791 791 782 782 791 774 774 782 758 743 743 743 750 743 735 735 743 750 750 735 743 750 766 774 782 774 782 791 808 808 808 826 826 0 826 817 782 799 799 808 808 808 808 808 808 817 817 817 808 782 782 782 774 750 750 721 735 728 743 721 728 728 735 735 750 728 728 735 799 791 799 808 799 799 791 799 791 782 782 774 758 750 766 766 758 758 774 758 758 766 766 774 799 791 791 758 791 791 791 791 791 766 758 766 791 750 743 743 743 728 721 714 700 700 707 700 707 714 721 735 750 782 782 799 0 817 799 791 791 791 791 799 782 766 758 758 750 750 750 0 0 0 0 0 0 0 0 0 0 0 0 0 0 721 0 0 0 714 721 735 743 774 750 735 774 774 774 766 766 735 728 721 728 700 700 700 687 675 681 669 623 598 561 553 557 579 603 613 623 0 0 0 0 0
    0 0 0 0 0 0 0 0 0 0 0 0 0 0 0 0 0 0 0 0 0 0 0 0 0 0 0 0 0 0 0 0 0 0 0 0 0 0 0 0 0 0 0 0 0 0 0 0 0 0 0 0 0 0 0 0 0 0 0 0 0 0 0 0 0 0 0 0 0 0 0 0 0 0 0 0 968 955 908 0 0 0 865 817 791 774 766 782 799 808 799 791 791 799 799 799 799 799 799 799 808 826 836 836 845 855 845 799 808 808 799 774 782 774 774 774 817 791 799 799 0 791 799 0 0 0 799 791 782 782 791 774 782 791 774 750 750 750 766 750 743 743 750 766 758 743 750 750 766 782 791 782 782 791 808 808 808 826 826 817 826 817 782 799 799 808 808 808 808 808 808 817 817 817 808 782 791 782 782 758 766 735 743 735 750 721 735 735 743 743 758 743 743 743 799 782 791 799 791 799 782 799 791 791 791 782 766 758 766 766 758 758 774 758 758 766 766 774 799 799 799 758 791 791 791 791 791 766 750 766 791 750 750 750 750 735 735 728 707 707 714 707 714 721 735 743 758 782 782 799 826 817 799 791 791 799 791 799 782 766 758 758 750 750 750 743 0 0 0 0 0 0 0 0 0 0 0 0 0 0 0 0 0 694 700 714 728 750 735 728 758 758 758 750 750 728 721 721 728 707 700 700 687 675 687 669 618 593 553 553 549 593 639 623 629 0 0 0 0 0
    0 0 0 0 0 0 0 0 0 0 0 0 0 0 0 0 0 0 0 0 0 0 0 0 0 0 0 0 0 0 0 0 0 0 0 0 0 0 0 0 0 0 0 0 0 0 0 0 0 0 0 0 0 0 0 0 0 0 0 0 0 0 0 0 0 0 0 0 0 0 0 0 0 0 0 0 994 968 931 0 0 0 0 817 791 782 766 799 817 817 826 817 817 817 817 817 808 808 817 817 817 836 845 845 865 876 855 791 808 808 799 766 782 774 774 774 817 791 799 799 0 799 808 799 782 0 0 791 782 791 791 774 782 808 782 766 766 766 782 774 766 758 758 774 774 774 766 766 782 791 799 799 791 791 799 808 808 817 817 808 826 826 774 799 791 808 799 808 808 808 799 817 817 817 808 782 782 774 774 750 766 735 750 743 758 728 735 743 758 750 766 743 743 758 799 791 791 791 782 791 782 791 782 782 782 774 758 750 758 758 750 750 758 750 743 758 758 766 799 791 791 758 782 791 791 791 791 758 750 766 791 758 750 750 750 743 743 728 714 714 721 714 721 728 743 750 766 782 791 799 817 808 799 791 791 791 791 799 782 766 766 758 758 750 750 743 0 0 0 0 0 0 0 0 0 0 0 0 0 0 0 0 0 675 681 687 700 714 714 721 743 743 750 743 735 721 714 721 721 707 707 707 694 681 700 681 608 588 549 553 541 0 663 623 629 0 0 0 0 0
    0 0 0 0 0 0 0 0 0 0 0 0 0 0 0 0 0 0 0 0 0 0 0 0 0 0 0 0 0 0 0 0 0 0 0 0 0 0 0 0 0 0 0 0 0 0 0 0 0 0 0 0 0 0 0 0 0 0 0 0 0 0 0 0 0 0 0 0 0 0 0 0 0 0 0 0 0 981 0 0 0 135 0 0 782 782 799 826 836 836 836 836 836 836 826 826 826 826 826 826 817 845 855 855 865 865 855 799 817 817 799 758 774 774 774 774 817 799 791 799 0 0 0 0 799 0 0 0 799 808 799 782 782 808 791 758 758 758 782 782 774 766 766 782 791 782 782 774 791 799 808 808 799 799 808 817 817 817 817 799 817 826 766 799 791 799 799 799 808 799 799 817 817 817 808 791 774 774 782 750 774 743 758 750 758 735 743 750 766 750 766 750 750 766 799 791 791 791 782 791 782 782 782 774 782 766 758 743 758 750 750 743 750 743 735 758 758 758 791 791 791 750 782 791 782 782 791 750 750 766 791 758 750 750 750 743 750 735 721 721 728 728 728 743 750 758 774 782 782 791 817 808 799 791 782 791 791 799 782 766 758 766 758 750 750 735 0 0 0 0 0 0 0 0 0 0 0 0 0 0 0 0 0 675 681 687 700 707 714 721 735 735 735 735 728 714 714 721 721 714 714 714 700 694 714 687 608 588 553 566 541 0 681 629 629 0 0 0 0 0
    0 0 0 0 0 0 0 0 0 0 0 0 0 0 0 0 0 0 0 0 0 0 0 0 0 0 0 0 0 0 0 0 0 0 0 0 0 0 0 0 0 0 0 0 0 0 0 0 0 0 0 0 0 0 0 0 0 0 0 0 0 0 0 0 0 0 0 0 0 0 0 0 0 0 0 0 994 981 968 0 0 0 0 0 0 799 836 845 836 836 836 836 836 836 836 826 826 826 845 836 836 845 865 865 876 886 855 808 817 826 808 758 774 774 774 774 817 791 791 799 0 0 0 0 808 808 817 826 817 826 826 808 808 817 817 782 782 774 791 791 791 782 782 782 799 799 799 791 799 808 808 808 808 799 808 817 817 817 817 799 817 817 750 791 774 791 791 799 808 799 791 817 808 817 808 791 774 774 782 758 774 750 766 750 758 743 750 758 774 758 774 758 758 774 808 799 791 791 791 791 791 782 782 774 782 766 750 735 758 750 750 750 750 743 735 758 758 758 791 791 791 750 782 791 782 782 782 750 750 758 791 750 750 750 758 750 750 743 728 728 728 728 735 743 750 758 766 774 782 782 808 799 791 0 782 791 791 799 774 766 766 766 766 758 750 750 0 0 0 0 0 0 0 0 0 0 0 357 0 0 0 0 0 0 0 0 700 700 707 714 728 728 728 728 721 707 714 721 721 714 714 714 700 700 728 687 603 588 553 593 541 707 681 639 629 0 0 0 0 0
    0 0 0 0 0 0 0 0 0 0 0 0 0 0 0 0 0 0 0 0 0 0 0 0 0 0 0 0 0 0 0 0 0 0 0 0 0 0 0 0 0 0 0 0 0 0 0 0 0 0 0 0 0 0 0 0 0 0 0 0 0 0 0 0 0 0 0 0 0 181 0 0 0 0 0 0 1008 994 968 981 0 0 0 0 0 0 0 855 845 836 845 836 836 845 845 836 836 836 855 845 845 855 865 876 886 886 865 826 826 826 817 774 782 782 782 782 817 791 782 799 0 799 0 0 799 799 808 826 817 826 826 817 817 826 826 808 799 791 808 808 799 799 791 791 808 808 808 808 808 817 817 817 817 808 808 817 817 817 817 808 817 826 758 791 782 791 791 799 799 791 791 817 808 808 808 791 774 782 782 766 782 758 774 758 758 750 750 758 766 758 766 758 766 782 808 799 799 799 799 791 782 782 782 774 782 774 758 735 766 758 766 758 758 743 735 758 766 750 791 782 782 750 782 791 782 782 791 750 750 758 791 750 743 750 758 750 758 750 743 735 743 743 743 750 758 758 774 774 774 782 808 799 791 0 791 791 791 799 782 774 782 774 774 758 758 750 743 0 735 0 0 0 0 0 0 0 0 0 0 0 0 0 0 0 0 0 694 694 707 714 714 721 721 721 714 700 707 714 714 707 714 707 700 700 735 0 603 566 541 588 533 714 681 651 629 0 0 0 0 0
    0 0 0 0 0 0 0 0 0 0 0 0 0 0 0 0 0 0 0 0 0 0 0 0 0 0 0 0 0 0 0 0 0 0 0 0 0 0 0 0 0 0 0 0 0 0 0 0 0 0 0 0 0 0 0 0 0 0 0 0 0 0 0 0 0 0 0 0 0 181 0 187 185 0 0 0 1008 981 968 955 0 0 0 0 0 0 0 865 845 845 855 845 845 845 845 845 836 845 855 845 845 865 865 876 876 876 855 836 826 836 817 791 791 791 791 791 817 799 791 799 0 799 0 0 0 799 808 826 817 826 826 817 817 817 817 808 808 799 808 817 808 808 799 808 817 826 826 817 817 817 817 826 817 808 808 817 817 817 817 808 817 826 766 791 782 791 791 799 799 791 791 817 808 808 808 791 774 782 782 774 791 766 782 766 766 766 758 766 774 758 774 766 774 791 808 808 799 799 799 782 782 782 774 766 782 766 758 743 774 766 774 766 766 750 728 758 766 743 782 782 782 750 774 791 782 774 791 743 750 758 791 743 743 750 750 758 758 758 743 750 743 743 743 750 750 758 766 766 758 782 808 791 791 782 791 791 791 799 782 774 782 774 774 758 758 758 743 0 743 728 0 0 0 0 0 0 0 0 0 0 0 0 0 0 0 0 707 707 714 714 721 721 721 721 714 700 707 707 707 707 707 707 700 700 735 0 0 549 0 0 529 714 694 675 634 0 0 0 0 0
    0 0 0 0 0 0 0 0 0 0 0 0 0 0 0 0 0 0 0 0 0 0 0 0 0 0 0 0 0 0 0 0 0 0 0 0 0 0 0 0 0 0 0 0 0 0 0 0 0 0 0 0 0 0 0 0 0 0 0 0 0 0 0 0 0 0 0 0 0 181 183 0 183 0 0 0 994 981 955 955 897 908 0 0 0 0 865 876 855 855 855 855 845 855 855 845 845 855 865 855 845 865 865 876 876 876 855 836 836 836 817 799 799 799 799 799 826 808 799 799 0 0 0 0 0 808 808 817 817 817 826 817 817 817 817 808 808 799 817 817 817 817 817 808 817 826 826 826 817 826 826 826 826 817 808 817 817 817 808 808 817 826 774 799 791 799 791 799 799 791 791 817 808 808 808 791 774 782 782 774 791 774 791 774 774 774 766 774 782 766 774 766 774 791 808 799 799 799 799 782 774 774 766 758 774 766 766 758 774 774 774 774 774 758 728 766 774 743 782 782 782 750 774 782 774 774 791 743 750 758 791 743 743 750 750 758 766 758 750 758 750 750 750 758 758 766 766 766 750 774 791 774 782 766 774 774 774 782 766 758 766 758 758 750 743 743 735 750 743 728 0 0 0 707 707 700 687 0 694 0 0 0 0 0 0 700 714 714 728 728 728 728 728 728 714 700 707 700 700 700 707 700 694 707 750 0 0 533 521 0 507 721 700 694 639 0 0 0 0 0
    0 0 0 0 0 0 0 0 0 0 0 0 0 0 0 0 0 0 0 0 0 0 0 0 0 0 0 0 0 0 0 0 0 0 0 0 0 0 0 0 0 0 0 0 0 0 0 0 0 0 0 0 0 0 0 0 0 0 0 0 0 0 0 0 0 0 0 0 0 0 0 0 0 0 0 0 0 943 919 908 876 876 876 0 0 0 855 865 845 845 855 845 845 855 855 855 855 865 876 865 855 865 865 876 876 876 855 836 836 845 826 808 799 799 808 808 826 817 808 808 817 0 0 0 0 808 808 817 817 808 817 808 817 817 808 808 817 799 817 826 826 826 817 817 826 826 836 826 826 826 826 826 826 817 808 817 817 817 817 817 826 836 774 799 791 799 799 808 808 791 791 817 808 808 808 799 774 791 791 782 791 782 791 782 774 782 774 782 791 774 774 774 782 799 808 799 799 799 799 782 774 774 766 758 774 774 758 758 774 774 782 782 782 766 735 774 774 743 782 774 774 743 774 782 774 774 791 743 750 758 791 743 743 750 750 758 758 758 758 766 758 758 750 758 758 774 766 758 758 774 791 774 774 758 758 758 758 766 750 743 750 743 735 735 735 735 728 750 735 735 0 728 0 721 728 707 687 0 694 687 0 0 0 0 0 0 714 721 735 743 743 743 735 735 721 707 707 707 694 694 700 700 700 707 0 0 0 533 521 0 511 721 700 707 639 0 0 0 0 0
    0 0 0 0 0 0 0 0 0 0 0 0 0 0 0 0 0 0 0 0 0 0 0 0 0 0 0 0 0 0 0 0 0 0 0 0 0 0 0 0 0 0 0 0 0 0 0 0 0 0 0 0 0 0 0 0 0 0 0 0 0 0 0 0 0 0 0 0 0 0 0 0 0 0 0 0 0 931 908 908 876 876 0 865 0 0 865 865 845 845 845 845 855 855 855 845 845 865 876 876 865 876 876 886 886 876 855 845 836 845 826 817 808 808 817 817 826 817 799 808 817 0 0 0 0 808 808 826 826 817 826 817 817 808 808 808 808 799 817 817 826 826 826 817 826 836 845 826 826 826 826 826 826 826 808 808 817 826 817 817 836 836 791 808 799 799 799 808 808 799 799 817 808 808 808 799 774 791 791 774 791 782 791 782 774 791 782 791 799 782 782 782 782 799 808 808 808 808 808 799 782 782 774 758 774 774 758 766 774 774 782 782 782 766 728 766 766 735 774 774 766 743 766 782 766 766 791 743 758 750 782 743 750 750 750 758 758 758 766 766 758 758 758 766 758 774 774 758 766 774 774 758 758 750 758 758 750 758 750 743 750 743 735 728 721 721 721 743 735 735 721 728 728 728 735 714 687 675 687 681 0 0 0 0 0 0 714 728 735 750 743 743 743 728 721 714 714 707 700 700 707 700 700 714 0 0 0 0 541 0 0 721 707 721 0 0 0 0 0 0
    0 0 0 0 0 0 0 0 0 0 0 0 0 0 0 0 0 0 0 0 0 0 0 0 0 0 0 0 0 0 0 0 0 0 0 0 0 0 0 0 0 0 0 0 0 0 0 0 0 0 0 0 0 0 0 0 0 0 0 0 0 0 0 0 0 0 0 0 0 0 0 0 0 0 0 0 0 908 886 876 855 0 0 0 0 0 876 865 845 845 855 855 855 865 865 855 865 876 876 876 876 876 876 886 886 886 855 845 845 845 836 817 808 817 817 817 826 817 799 799 808 0 0 0 799 808 808 826 826 817 826 817 817 808 799 799 808 799 817 817 826 826 826 817 826 836 845 836 836 836 826 826 826 826 817 817 817 817 817 817 826 826 791 808 799 799 799 808 808 799 799 817 817 808 817 808 774 791 791 782 791 791 799 791 782 799 791 791 799 791 782 782 791 808 817 808 808 808 817 799 782 782 766 750 766 766 758 766 774 774 782 782 782 774 728 774 774 735 774 766 766 743 766 782 766 766 791 750 758 750 782 750 750 758 750 766 758 758 766 766 758 758 758 774 766 782 774 766 766 774 766 743 750 750 750 750 743 743 743 743 743 743 735 728 721 721 721 743 728 735 721 721 721 721 743 714 687 669 687 681 0 0 0 0 0 0 714 728 743 750 750 750 743 728 721 728 714 707 700 700 707 707 707 700 0 0 0 557 553 598 553 728 714 728 0 0 0 0 0 0
    0 0 0 0 0 0 0 0 0 0 0 0 0 0 0 0 0 0 0 0 0 0 0 0 0 0 0 0 0 0 0 0 0 0 0 0 0 0 0 0 0 0 0 0 0 0 0 0 0 0 0 0 0 0 0 0 0 0 0 0 0 0 0 0 0 0 0 0 0 0 0 0 0 0 0 140 0 0 876 855 0 0 0 855 0 845 876 865 845 845 845 845 855 855 855 845 855 865 865 876 886 876 865 886 886 876 855 845 836 836 836 826 808 817 817 826 826 826 808 808 817 0 0 0 0 808 808 826 836 826 836 817 817 799 799 799 808 808 817 817 826 826 836 826 836 845 845 845 836 836 836 836 836 836 826 826 817 826 826 817 826 817 791 799 791 799 799 808 808 799 808 826 817 826 826 817 791 799 799 791 799 799 808 799 782 799 791 791 799 791 782 791 791 808 817 808 808 817 826 799 799 799 791 766 782 782 766 766 782 774 791 791 791 782 743 782 782 735 774 774 766 743 766 774 766 766 791 750 758 750 791 750 758 758 750 766 750 758 774 766 758 766 766 774 766 791 774 766 766 774 766 750 750 750 750 750 743 743 743 743 743 743 735 735 728 721 728 750 735 743 728 728 728 721 735 714 681 669 687 687 700 0 0 721 721 721 721 735 750 750 743 743 735 728 728 728 714 707 700 707 707 707 707 700 0 0 0 549 553 588 557 728 714 743 845 0 0 0 0 0
    0 0 0 0 0 0 0 0 0 0 0 0 0 0 0 0 0 0 0 0 0 0 0 0 0 0 0 0 0 0 0 0 0 0 0 0 0 0 0 0 0 0 0 0 0 0 0 0 0 0 0 0 0 0 0 0 0 0 0 0 0 0 0 0 0 0 0 0 0 178 0 0 0 0 0 0 0 0 876 845 0 0 0 0 845 845 865 855 845 845 836 836 845 855 845 845 845 855 865 876 897 876 865 876 876 876 855 845 836 836 836 836 808 817 826 826 836 826 817 817 817 0 0 0 808 808 817 826 836 826 836 817 817 808 799 799 817 808 826 826 836 836 845 836 836 845 845 845 836 826 826 826 826 826 817 817 808 826 826 826 826 817 791 799 791 791 799 808 799 799 808 826 826 826 826 817 799 808 817 799 799 808 808 808 791 799 799 799 799 791 791 791 791 808 808 808 808 808 817 799 791 799 799 791 791 791 774 774 791 782 791 799 799 782 750 782 782 735 774 774 766 743 766 774 766 766 791 758 758 750 791 758 758 758 750 766 758 766 774 774 758 766 766 774 774 791 766 774 774 782 766 758 750 750 743 743 743 743 743 735 735 743 735 735 735 728 743 758 743 750 735 735 735 728 735 714 687 681 694 694 714 728 721 728 735 728 728 750 750 750 750 750 743 728 728 735 714 714 707 707 707 707 714 700 694 623 0 541 553 584 561 728 721 743 845 0 0 0 0 0
    0 0 0 0 0 0 0 0 0 0 0 0 0 0 0 0 0 0 0 0 0 0 0 0 0 0 0 0 0 0 0 0 0 0 0 0 0 0 0 0 0 0 0 0 0 0 0 0 0 0 0 0 0 0 0 0 0 0 0 0 0 0 0 0 0 0 0 0 0 179 0 0 0 0 0 0 0 0 0 817 774 0 808 817 836 845 855 845 836 845 836 826 845 845 845 836 855 845 855 876 886 865 855 876 876 865 855 845 836 836 836 836 808 817 817 836 845 836 826 826 826 0 826 817 808 817 817 817 826 808 817 808 817 808 799 799 808 817 826 836 836 836 845 836 836 845 845 836 836 826 836 826 826 836 817 826 817 817 817 826 826 817 791 799 791 791 799 808 799 799 808 826 826 826 836 826 808 826 826 808 808 808 817 808 808 799 799 799 808 791 791 799 799 808 817 799 808 808 817 799 791 791 791 791 791 799 782 782 791 782 791 791 791 782 758 782 791 735 774 774 766 743 766 774 766 766 799 758 758 750 791 758 766 758 750 758 758 766 774 774 766 766 774 782 782 791 766 782 782 782 774 766 758 758 750 750 743 743 743 735 743 743 728 735 735 728 743 758 750 750 735 728 728 700 707 700 681 675 694 694 714 728 721 728 728 721 728 750 758 758 750 758 743 735 743 743 721 721 714 714 714 714 728 714 0 669 0 0 566 588 570 735 728 750 845 0 0 0 0 0
    0 0 0 0 0 0 0 0 0 0 0 0 0 0 0 0 0 0 0 0 0 0 0 0 0 0 0 0 0 0 0 0 0 0 0 0 0 0 0 0 0 0 0 0 0 0 0 0 0 0 0 0 0 0 0 0 0 0 0 0 0 0 0 0 0 0 0 0 0 178 0 0 0 0 0 0 0 0 0 782 743 774 782 782 826 836 845 836 836 845 836 836 845 845 836 845 855 845 855 865 886 865 855 876 876 865 855 845 836 836 836 836 808 808 817 826 836 826 826 826 826 0 826 817 817 817 817 826 826 808 817 808 817 808 808 799 808 817 826 836 836 836 836 826 826 836 836 826 826 826 826 826 826 826 817 817 817 817 817 826 826 817 799 808 799 799 799 808 808 799 817 817 826 826 836 845 817 836 836 799 808 817 817 0 808 799 808 808 808 799 799 808 799 808 817 799 799 808 817 808 799 808 808 808 799 808 799 791 791 774 782 782 791 782 758 782 782 735 774 774 774 743 766 774 766 766 791 758 758 750 791 758 766 758 758 758 758 774 774 774 766 766 774 782 782 782 766 782 782 782 766 766 750 758 750 750 743 735 735 735 735 735 721 728 728 721 735 743 728 728 0 707 0 681 0 687 669 669 681 687 707 728 728 735 735 728 735 758 758 758 750 758 735 728 743 743 728 721 714 721 721 721 743 0 0 700 0 0 0 598 579 735 735 758 845 0 0 0 0 0
    0 0 0 0 0 0 0 0 0 0 0 0 0 0 0 0 0 0 0 0 0 0 0 0 0 0 0 0 0 0 0 0 0 0 0 0 0 0 0 0 0 0 0 0 0 0 0 0 0 0 0 0 0 0 0 0 0 0 0 0 0 0 0 0 0 0 0 0 0 0 179 0 0 0 0 0 0 0 0 0 0 0 791 799 836 836 836 836 836 836 836 836 845 845 836 845 855 845 855 876 886 865 855 886 886 876 855 845 836 836 836 826 799 799 808 826 826 826 826 826 826 836 826 808 808 826 817 826 826 817 826 817 826 826 817 817 817 817 826 836 836 826 826 808 817 826 0 0 817 817 817 817 826 826 817 817 817 817 817 817 817 799 799 799 799 791 791 799 799 799 817 817 817 826 826 865 826 836 836 791 799 808 808 808 808 799 808 808 817 799 799 799 808 808 817 799 791 808 817 808 808 817 817 817 817 0 808 791 799 782 782 791 791 782 766 791 791 743 782 774 774 743 766 774 766 766 791 758 758 743 791 766 766 758 758 758 758 774 774 766 766 774 774 774 782 782 774 791 782 774 758 758 743 750 743 743 735 728 0 0 0 735 0 0 0 0 0 728 0 0 694 694 687 669 669 675 663 657 663 669 694 714 721 728 721 721 728 743 750 758 743 750 735 728 743 743 721 721 721 721 721 728 750 700 663 0 0 0 0 593 579 743 743 758 845 0 0 0 0 0
    0 0 0 0 0 0 0 0 0 0 0 0 0 0 0 0 0 0 0 0 0 0 0 0 0 0 0 0 0 0 0 0 0 0 0 0 0 0 0 0 0 0 0 0 0 0 0 0 0 0 0 0 0 0 0 0 0 0 0 0 0 0 0 0 0 0 0 0 0 0 0 0 0 0 0 0 0 0 0 0 0 0 808 817 836 845 845 845 845 845 836 836 845 836 836 845 845 836 845 865 886 0 855 886 876 876 865 845 836 836 836 826 799 791 799 817 826 817 826 826 826 855 836 826 826 845 836 845 836 826 826 826 826 826 808 817 817 817 826 826 826 826 817 808 817 826 90 89 817 817 817 817 826 826 808 808 817 808 817 817 817 774 791 791 791 782 782 791 791 791 817 808 817 817 826 865 826 836 826 782 799 0 0 799 799 791 808 808 817 808 799 808 808 808 826 799 791 808 817 808 808 817 826 817 817 826 817 799 791 782 791 782 791 782 766 782 791 735 774 774 774 743 766 774 766 766 791 758 750 743 791 766 758 758 758 758 766 774 774 766 766 774 774 774 782 774 766 782 774 758 750 750 735 743 735 735 743 735 0 0 0 743 728 0 0 0 0 0 0 0 0 687 687 663 663 669 657 657 663 663 675 700 700 707 707 707 714 728 728 735 728 735 721 721 743 735 721 721 721 721 721 728 0 694 634 623 629 0 651 613 598 743 750 766 845 0 0 0 0 0
    0 0 0 0 0 0 0 0 0 0 0 0 0 0 0 0 0 0 0 0 0 0 0 0 0 0 0 0 0 0 0 0 0 0 0 0 0 0 0 0 0 0 0 0 0 0 0 0 0 0 0 0 0 0 0 0 0 0 0 0 0 0 0 0 0 0 0 0 0 0 0 0 0 0 0 0 0 0 0 0 0 0 817 836 845 855 845 845 855 855 845 845 845 845 836 845 845 836 845 855 865 845 855 886 876 876 855 845 836 836 845 826 791 791 791 817 826 817 817 826 0 865 855 855 845 865 865 865 855 845 836 826 836 826 808 817 817 817 826 826 826 817 808 808 817 817 90 0 817 817 817 817 817 817 808 799 817 808 808 817 817 774 799 799 799 791 782 799 791 791 817 808 808 817 817 845 817 826 799 774 799 799 799 799 791 791 799 808 817 799 799 808 808 808 817 799 791 791 808 808 799 808 817 817 817 826 826 808 799 782 791 791 791 774 766 782 791 735 774 774 774 743 766 774 766 758 791 758 750 743 791 766 758 758 766 758 766 774 774 766 766 774 774 766 774 758 766 782 766 743 743 750 743 735 743 735 743 735 0 0 0 0 735 0 0 0 0 0 0 0 694 687 681 669 663 669 657 663 657 657 663 681 687 694 694 694 714 721 721 728 721 728 721 721 743 735 721 721 721 721 721 735 774 694 629 645 657 694 694 651 0 743 758 766 845 0 0 0 0 0
    0 0 0 0 0 0 0 0 0 0 0 0 0 0 0 0 0 0 0 0 0 0 0 0 0 0 0 0 0 0 0 0 0 0 0 0 0 0 0 0 0 0 0 0 0 0 0 0 0 0 0 0 0 0 0 0 0 0 0 0 0 0 0 0 0 0 0 0 0 0 0 943 0 0 0 0 0 0 0 0 0 0 836 855 855 855 855 855 865 865 855 855 855 845 836 855 845 826 836 845 855 836 845 876 876 876 855 836 836 836 845 826 791 782 782 808 826 817 817 826 0 865 855 845 845 855 0 845 826 826 817 826 826 826 817 817 826 826 826 836 826 817 808 817 817 817 0 0 817 817 817 817 817 817 808 808 817 808 808 817 808 782 799 791 791 782 782 791 782 791 808 799 808 808 817 836 817 817 791 782 799 799 799 791 791 782 799 808 808 791 799 799 808 808 808 791 782 782 799 791 791 791 808 808 808 817 817 799 799 782 791 791 791 782 766 791 791 735 774 774 774 743 766 774 766 758 791 758 750 750 799 758 750 758 766 758 774 774 774 774 766 774 766 766 774 758 758 774 750 743 743 750 735 728 728 728 728 0 0 0 0 0 0 0 0 0 0 0 0 0 0 0 0 669 669 669 663 663 651 663 663 687 694 700 694 694 714 721 721 728 721 728 721 721 743 728 721 721 721 721 721 750 0 0 0 0 0 799 721 687 0 750 766 774 845 0 0 0 0 0
    0 0 0 0 0 0 0 0 0 0 0 0 0 0 0 0 0 0 0 0 0 0 0 0 0 0 0 0 0 0 0 0 0 0 0 0 0 0 0 0 0 0 0 0 0 0 0 0 0 0 0 0 0 0 0 0 0 0 0 0 0 0 0 0 0 0 0 0 0 0 0 908 0 0 0 0 931 0 876 855 845 855 845 855 855 855 855 855 865 865 855 855 845 845 845 855 845 826 836 845 845 836 845 886 876 876 855 836 836 836 845 836 791 774 782 808 817 817 817 826 0 855 845 845 836 845 0 826 817 817 817 826 836 836 817 826 836 845 845 845 826 826 817 826 826 817 0 808 817 817 817 826 817 817 808 808 817 808 817 817 808 782 799 791 791 782 774 782 782 791 799 791 799 808 808 826 808 808 782 782 791 791 791 782 782 782 791 808 808 791 799 808 817 808 808 791 782 782 791 791 791 791 799 799 808 808 817 799 808 791 799 791 799 782 766 791 791 735 774 774 774 743 766 774 766 758 791 750 743 750 799 758 750 758 766 758 774 774 774 774 766 774 766 766 774 750 758 774 743 743 743 750 735 728 721 0 0 0 0 0 0 0 0 0 0 0 0 0 0 0 0 0 0 675 675 681 675 681 669 675 675 694 707 707 694 700 721 728 728 735 728 728 728 728 743 728 721 721 721 721 728 782 845 0 0 855 855 836 758 714 707 750 766 774 845 0 0 0 0 0
    0 0 0 0 0 0 0 0 0 0 0 0 0 0 0 0 0 0 0 0 0 0 0 0 0 0 0 0 0 0 0 0 0 0 0 0 0 0 0 0 0 0 0 0 0 0 0 0 0 0 0 0 0 0 0 0 0 0 0 0 0 0 0 0 0 0 0 0 0 0 0 897 886 886 897 919 908 908 876 865 876 865 855 865 865 855 845 855 855 855 855 845 845 836 836 855 836 836 836 845 845 836 845 876 876 876 855 845 845 845 855 836 791 774 782 808 817 808 817 826 0 0 845 826 826 845 836 826 817 817 817 836 855 845 836 836 845 855 855 855 826 826 808 826 826 817 0 808 817 826 826 826 826 817 817 817 826 817 817 817 799 791 808 791 799 782 782 791 782 791 799 791 799 791 799 817 799 799 774 774 791 791 782 782 791 782 799 817 808 799 799 808 817 808 817 791 782 774 791 791 791 782 799 791 799 808 817 808 808 791 799 782 799 766 750 782 791 728 774 766 774 743 766 774 766 758 791 750 750 750 799 750 743 750 758 758 774 774 766 766 766 782 766 766 774 750 766 782 758 750 743 750 743 728 721 0 0 0 0 0 0 0 0 0 728 0 0 0 0 0 0 0 0 694 687 694 687 694 687 687 687 700 707 707 700 707 721 728 728 735 728 728 728 728 743 728 721 721 721 728 743 799 855 865 876 865 855 845 782 743 707 750 766 766 845 0 0 0 0 0
    0 0 0 0 0 0 0 0 0 0 0 0 0 0 0 0 0 0 0 0 0 0 0 0 0 0 0 0 0 0 0 0 0 0 0 0 0 0 0 0 0 0 0 0 0 0 0 0 0 0 0 0 0 0 0 0 0 0 0 0 0 0 0 0 0 0 0 0 0 886 886 876 865 876 876 897 897 886 865 876 886 876 865 886 876 855 855 865 855 855 865 855 845 836 845 855 836 836 836 836 836 826 845 876 876 876 855 845 845 845 855 836 791 774 774 799 817 808 817 817 817 836 836 826 826 836 826 817 808 808 817 836 855 845 836 845 855 865 865 855 826 817 808 817 826 817 808 808 826 826 826 836 826 817 817 808 826 817 817 817 808 808 817 808 808 799 791 799 791 799 799 791 799 799 799 817 808 799 782 782 791 791 782 782 791 782 791 808 808 791 799 808 817 808 817 799 791 782 791 791 791 791 799 791 799 808 817 808 0 799 808 791 808 782 750 782 791 728 774 766 766 743 766 774 766 758 791 750 750 758 791 750 743 750 758 758 774 766 758 766 766 774 766 766 766 758 774 791 766 758 750 758 750 735 728 0 0 0 0 0 0 0 0 0 728 0 0 0 0 0 0 0 0 0 694 700 687 700 687 687 675 694 700 700 694 707 721 721 728 735 721 721 721 728 735 721 721 721 721 728 758 817 886 876 886 876 876 855 826 799 0 750 766 766 845 0 0 0 0 0
    0 0 0 0 0 0 0 0 0 0 0 0 0 0 0 0 0 0 0 0 0 0 0 0 0 0 0 0 0 0 0 0 0 0 0 0 0 0 0 0 0 0 0 0 0 0 0 0 0 0 0 0 0 0 0 0 0 0 0 0 0 0 0 0 0 0 0 0 0 886 886 876 855 865 865 876 886 876 865 876 886 0 876 897 876 855 855 876 865 865 876 865 845 845 855 865 836 836 836 836 836 826 845 876 876 876 855 845 845 845 855 826 791 766 774 799 817 799 808 817 817 826 826 817 817 826 826 817 808 808 826 845 845 845 845 845 865 865 865 845 817 817 808 826 826 817 817 808 826 826 826 826 817 808 808 808 817 808 817 817 817 808 817 817 817 808 799 799 799 799 799 791 799 799 799 817 817 799 782 782 791 791 782 782 791 782 791 808 799 782 791 799 808 799 808 799 799 782 799 791 791 791 799 791 799 799 808 0 0 808 817 799 826 791 743 782 791 728 766 766 766 743 766 774 766 758 791 758 750 766 791 750 743 750 758 758 766 758 758 758 766 774 766 766 766 750 774 782 766 758 750 758 750 0 0 0 0 0 0 0 0 0 0 0 721 0 0 0 0 0 0 0 0 728 714 728 707 714 700 687 681 694 700 700 694 707 721 721 728 735 721 714 721 728 728 721 714 721 721 728 766 826 876 865 865 865 865 845 836 799 707 750 766 766 845 0 0 0 0 0
    0 0 0 0 0 0 0 0 0 0 0 0 0 0 0 0 0 0 0 0 0 0 0 0 0 0 0 0 0 0 0 0 0 0 0 0 0 0 0 0 0 0 0 0 0 0 0 0 0 0 0 0 0 0 0 0 0 0 0 0 0 0 0 0 0 0 0 0 0 0 0 865 855 865 865 876 886 886 865 886 0 0 876 886 865 855 855 865 865 865 876 865 845 855 855 865 845 845 845 845 836 826 845 876 876 876 855 845 845 845 855 826 791 774 782 808 817 808 817 817 826 826 836 826 826 836 836 826 826 817 845 855 855 845 845 855 876 876 876 836 808 808 817 826 826 817 817 817 826 836 836 826 808 808 808 799 808 799 808 799 799 808 808 799 808 799 791 799 799 799 799 791 799 799 799 817 817 799 791 791 791 791 782 782 791 782 791 799 791 782 791 799 808 799 799 791 791 782 791 782 774 774 791 774 782 782 799 782 0 808 817 0 908 0 0 791 791 721 766 766 758 750 774 774 766 766 799 758 758 774 791 750 743 750 758 758 766 750 750 750 758 766 758 758 758 750 774 774 750 743 743 750 743 0 0 0 0 0 0 0 0 0 0 0 721 0 0 0 0 0 735 0 0 758 758 766 728 728 714 700 694 700 700 694 687 700 714 721 721 735 721 714 721 728 728 721 721 721 721 728 791 836 886 865 876 876 876 845 836 808 714 750 774 774 845 0 0 0 0 0
    0 0 0 0 0 0 0 0 0 0 0 0 0 0 0 0 0 0 0 0 0 0 0 0 0 0 0 0 0 0 0 0 0 0 0 0 0 0 0 0 0 0 0 0 0 0 0 0 0 0 0 0 0 0 0 0 0 0 0 0 0 0 0 0 0 0 0 0 0 0 0 886 865 876 876 886 886 886 876 886 876 0 876 886 865 855 855 865 855 865 865 855 836 855 865 865 845 855 845 845 836 826 836 876 876 876 855 845 845 845 855 836 799 782 782 808 826 808 817 817 826 826 826 826 826 826 826 817 817 808 845 845 845 845 845 855 876 876 876 836 808 808 817 826 826 826 826 826 836 836 836 826 808 808 808 808 808 808 817 799 799 808 808 808 808 799 791 799 799 799 799 791 799 799 799 817 817 799 791 791 791 791 782 782 791 782 791 799 782 782 791 799 817 799 808 799 799 782 791 782 774 766 774 766 774 774 782 774 0 799 817 0 0 0 0 782 791 721 766 766 750 750 774 774 766 766 799 758 766 782 0 758 750 750 758 758 758 750 750 750 758 766 758 750 743 750 774 766 750 735 735 750 743 0 0 0 0 0 0 0 714 0 721 721 721 721 714 0 728 750 750 750 774 774 782 774 743 735 721 707 694 700 694 687 687 707 721 721 728 735 721 714 728 735 735 728 721 728 721 743 808 845 886 876 876 876 876 855 845 826 714 750 774 774 845 0 0 0 0 0
    0 0 0 0 0 0 0 0 0 0 0 0 0 0 0 0 0 0 0 0 0 0 0 0 0 0 0 0 0 0 0 0 0 0 0 0 0 0 0 0 0 0 0 0 0 0 0 0 0 0 0 0 0 0 0 0 0 0 0 0 0 0 0 0 0 0 0 0 0 0 0 908 897 886 886 919 908 897 876 886 0 855 876 876 855 845 845 855 855 865 865 855 845 865 876 865 855 855 855 845 836 836 836 876 876 865 845 845 845 845 855 836 799 791 791 817 826 808 817 817 826 826 826 817 817 817 817 808 799 791 817 826 826 836 845 865 897 897 886 836 808 817 826 836 826 826 826 836 845 845 845 836 817 808 817 817 817 817 826 808 808 826 817 817 817 808 799 799 808 808 799 799 799 799 799 817 817 799 799 799 799 791 791 791 791 791 791 791 782 782 799 808 817 808 808 817 817 791 799 782 774 774 774 766 774 774 782 766 791 799 799 791 0 782 0 782 782 721 766 766 750 758 774 774 766 766 799 766 766 791 0 758 750 758 758 758 758 743 750 750 750 758 758 750 743 750 774 766 766 750 750 750 750 0 728 0 0 0 707 707 707 707 707 714 714 721 721 728 728 750 750 750 774 766 774 774 743 743 0 0 700 707 700 0 700 714 728 735 743 750 728 721 735 743 735 728 728 728 728 758 826 865 876 876 876 886 876 855 845 836 714 750 774 774 845 0 0 0 0 0
    0 0 0 0 0 0 0 0 0 0 0 0 0 0 0 0 0 0 0 0 0 0 0 0 0 0 0 0 0 0 0 0 0 0 0 0 0 0 0 0 0 0 0 0 0 0 0 0 0 0 0 0 0 0 0 0 0 0 0 0 0 0 0 0 0 0 0 0 0 0 0 897 886 876 876 897 886 876 855 865 845 855 876 865 855 845 845 855 855 865 876 855 855 876 886 865 865 865 855 855 845 836 836 876 876 865 845 845 845 845 855 836 808 791 799 817 826 817 817 826 826 817 826 817 799 799 799 791 782 774 799 817 817 836 855 876 897 897 886 836 808 826 826 826 826 826 826 836 845 845 845 836 817 817 817 817 817 808 826 817 817 826 826 817 817 817 808 808 808 808 799 799 799 799 799 808 808 799 799 799 799 791 791 791 799 799 791 782 782 791 808 808 817 808 808 817 817 799 799 782 774 774 774 758 766 766 774 766 782 799 791 791 0 766 728 782 774 721 766 766 743 758 774 774 766 766 799 766 774 799 0 766 758 758 766 758 758 743 750 750 750 758 758 750 743 750 782 774 774 766 750 750 750 743 728 0 707 707 707 707 714 714 714 721 714 728 714 0 728 0 758 750 774 766 774 774 750 758 0 0 707 707 0 0 707 721 728 735 743 758 721 721 743 743 735 728 728 728 728 766 836 845 855 0 0 876 876 855 836 817 714 750 774 766 836 0 0 0 0 0
    0 0 0 0 0 0 0 0 0 0 0 0 0 0 0 0 0 0 0 0 0 0 0 0 0 0 0 0 0 0 0 0 0 0 0 0 0 0 0 0 0 0 0 0 0 0 0 0 0 0 0 0 0 0 0 0 0 0 0 0 0 0 0 0 0 0 0 0 0 207 0 908 897 876 865 886 876 876 845 845 826 845 865 855 845 836 845 845 845 865 865 845 855 876 886 876 876 876 865 855 845 836 836 865 876 865 845 845 845 845 855 845 808 799 808 826 826 817 826 826 836 826 817 817 808 808 808 791 782 782 799 817 826 836 855 876 886 897 876 836 817 826 826 826 826 826 826 0 836 836 826 817 808 808 808 799 808 808 808 808 817 826 817 817 817 817 808 808 808 808 799 808 808 799 799 808 808 0 799 799 799 791 791 799 799 799 791 782 791 791 808 808 808 808 808 826 817 799 799 791 774 774 774 766 766 774 774 766 782 799 782 791 799 766 735 774 774 721 766 766 743 766 774 774 766 766 799 766 774 799 0 766 758 758 766 758 758 743 750 750 750 758 758 743 743 750 774 766 774 758 743 750 0 750 735 721 714 714 714 721 721 728 721 728 714 721 721 0 0 0 0 743 750 758 774 774 750 758 728 714 707 0 0 681 700 714 714 721 728 743 721 721 750 743 735 735 728 728 735 782 0 0 0 0 0 0 0 0 0 791 707 743 766 766 836 0 0 0 0 0
    0 0 0 0 0 0 0 0 0 0 0 0 0 0 0 0 0 0 0 0 0 0 0 0 0 0 0 0 0 0 0 0 0 0 0 0 0 0 0 0 0 0 0 0 0 0 0 0 0 0 0 0 0 0 0 0 0 0 0 0 0 0 0 0 0 0 0 0 0 207 0 931 919 897 886 908 897 886 865 845 0 836 855 836 836 826 836 836 836 855 855 836 855 876 876 876 886 876 865 855 845 836 836 865 865 865 836 845 845 845 855 845 817 808 808 826 826 817 826 826 836 826 817 817 808 808 808 799 791 791 808 817 826 845 855 865 876 876 855 826 808 817 826 817 817 817 817 826 826 836 826 808 799 799 799 799 808 808 799 799 817 817 817 817 817 817 808 817 817 808 808 817 808 808 799 808 808 0 799 799 799 782 799 799 799 799 799 791 791 791 808 808 799 799 791 817 817 791 799 791 774 782 782 766 774 774 774 766 774 791 774 782 782 766 735 766 766 721 766 766 743 766 766 774 766 766 799 774 782 0 0 774 766 766 774 758 758 743 750 750 750 758 758 743 743 750 774 0 0 750 735 735 0 758 735 728 721 721 721 728 728 735 721 728 0 0 714 0 0 0 0 721 728 743 758 758 735 0 0 0 694 0 0 663 687 700 707 707 721 721 714 721 743 735 735 728 728 728 728 782 0 0 0 0 0 0 0 0 0 791 707 743 766 766 836 0 0 0 0 0
    0 0 0 0 0 0 0 0 0 0 0 0 0 0 0 0 0 0 0 0 0 0 0 0 0 0 0 0 0 0 0 0 0 0 0 0 0 0 0 0 0 0 0 0 0 0 0 0 0 0 0 0 0 0 0 0 0 0 0 0 0 0 0 0 0 0 0 0 0 0 0 955 931 908 897 919 908 897 876 845 0 836 845 826 826 826 826 836 845 865 855 845 865 886 876 876 886 876 855 855 845 836 826 865 865 855 836 845 845 855 855 845 817 817 817 836 826 817 817 817 836 826 826 817 817 808 808 799 799 799 817 817 817 836 855 865 865 855 845 817 808 817 817 817 817 817 817 826 826 826 817 799 791 791 799 799 799 799 782 799 817 817 808 817 817 817 808 817 817 808 817 817 808 799 799 799 799 808 799 799 799 782 799 799 799 799 799 782 791 791 808 799 791 791 791 808 817 791 799 782 774 774 782 766 774 774 774 766 774 791 774 774 782 766 750 766 774 728 766 766 743 766 766 774 766 766 799 774 782 0 782 782 766 774 782 758 750 743 750 758 758 766 758 743 750 750 758 0 0 0 0 728 0 750 735 735 728 721 721 728 728 743 721 728 0 0 0 0 0 0 0 0 0 735 750 750 728 0 0 0 687 0 0 657 687 694 700 707 714 714 707 714 735 728 728 728 728 721 728 782 0 0 0 0 0 0 0 0 0 743 707 735 758 758 836 0 0 0 0 0
    0 0 0 0 0 0 0 0 0 0 0 0 0 0 0 0 0 0 0 0 0 0 0 0 0 0 0 0 0 0 0 0 0 0 0 0 0 0 0 0 0 0 0 0 0 0 0 0 0 0 0 0 0 0 0 0 0 0 0 0 0 0 0 0 0 0 0 0 0 0 0 968 955 919 908 943 931 908 886 845 0 845 845 826 826 826 826 836 845 865 855 845 876 886 876 876 897 876 855 845 855 836 826 865 865 855 836 845 855 855 855 845 826 826 826 845 826 817 826 826 836 826 826 826 817 817 826 808 808 808 817 817 817 836 855 855 865 845 845 817 817 826 826 817 817 817 817 826 826 826 817 799 791 799 799 799 808 808 791 799 817 817 808 817 817 808 808 817 817 799 808 817 808 791 791 791 791 799 799 791 791 782 799 799 799 808 799 791 799 799 808 808 799 791 782 791 791 774 782 774 766 774 782 758 774 766 774 766 774 782 766 774 782 766 750 766 766 728 766 766 735 766 766 774 766 766 799 774 782 0 782 782 774 774 782 750 750 750 758 758 758 766 750 735 750 750 750 735 0 721 721 728 735 750 743 735 728 721 721 728 735 743 721 728 0 0 714 0 707 0 0 0 0 714 0 0 0 0 0 675 687 0 0 669 694 700 700 707 714 714 714 721 735 728 728 728 721 721 721 0 0 0 0 0 0 0 0 0 0 0 707 735 758 758 826 0 0 0 0 0
    0 0 0 0 0 0 0 0 0 0 0 0 0 0 0 0 0 0 0 0 0 0 0 0 0 0 0 0 0 0 0 0 0 0 0 0 0 0 0 0 0 0 0 0 0 0 0 0 0 0 0 0 0 0 0 0 0 0 0 0 0 0 0 0 0 0 0 0 0 0 0 0 968 919 908 955 943 931 886 845 826 845 845 836 826 826 836 836 845 876 855 855 876 886 876 876 897 865 855 855 855 845 826 855 855 845 836 855 855 865 865 855 836 836 845 855 826 826 826 826 845 836 836 826 826 826 826 817 817 817 817 826 826 845 855 865 876 855 845 826 826 826 826 826 826 826 826 826 836 826 817 808 799 808 799 808 808 808 799 808 817 808 808 808 808 808 808 808 799 799 808 817 808 782 791 782 791 799 791 791 791 782 799 799 799 808 799 799 808 808 817 817 808 808 791 791 782 766 774 774 774 774 774 758 766 766 774 758 766 766 758 766 774 766 750 766 766 728 766 766 735 766 766 774 758 758 799 774 782 808 782 774 774 782 782 758 758 758 766 766 766 774 758 750 758 758 758 743 0 0 721 735 743 758 750 743 728 714 721 721 735 735 714 721 0 0 714 728 0 0 0 0 0 0 0 0 0 0 687 657 0 0 0 675 700 700 707 707 721 721 714 721 735 721 728 728 721 721 728 0 0 0 0 0 0 0 0 404 402 0 707 728 758 758 826 0 0 0 0 0</data></depth>
</opencv_storage>
