<?xml version="1.0"?>
<opencv_storage>
<gps_time_stamp>318016</gps_time_stamp>
<gps_x>-1.2429574012756348e+001</gps_x>
<gps_y>1.0951334953308105e+001</gps_y>
<gps_z>-1.9975581169128418e+000</gps_z>
<image_time_stamp>308858</image_time_stamp>
<disparity type_id="opencv-matrix">
  <rows>88</rows>
  <cols>320</cols>
  <dt>s</dt>
  <data>
    0 0 0 0 0 0 0 0 0 0 0 0 0 0 0 0 0 0 0 0 0 0 0 0 0 0 0 0 0 0 0 0 0 0 0 0 0 0 0 0 0 0 0 0 0 0 0 0 0 0 0 0 0 0 0 0 0 0 0 0 0 0 0 0 0 0 0 0 0 52 50 46 47 46 46 45 43 43 45 45 44 48 45 44 40 42 42 41 41 45 43 44 47 51 49 48 48 48 47 50 52 48 43 41 41 40 40 40 40 39 39 40 41 41 41 41 40 40 40 40 39 39 38 37 37 38 35 35 34 34 30 31 30 30 16 14 13 12 9 9 0 0 0 9 9 10 10 12 10 14 13 13 12 12 11 10 10 10 10 10 10 10 11 11 11 12 12 11 11 11 11 10 10 12 12 12 11 11 11 12 12 12 11 9 10 13 19 22 23 26 34 36 38 39 43 42 43 44 45 44 46 49 52 48 57 57 57 58 65 61 62 66 63 67 67 67 68 66 69 69 68 -193 -193 74 76 -193 76 75 77 76 -193 -209 -193 93 93 95 97 97 99 101 100 102 102 102 103 107 109 109 109 112 117 118 119 119 119 122 125 126 131 -193 -177 -177 -177 -177 -209 139 143 142 141 146 148 148 -193 -193 149 148 149 -193 -193 -193 -209 -209 -177 -177 -177 -193 -177 -209 -209 156 155 157 -193 -193 -193 -209 -193 10 11 13 11 11 12 -193 -209 -209 523 -193 -193 530 -177 -177 -177 -177 202 0 0 0 0 0
    0 0 0 0 0 0 0 0 0 0 0 0 0 0 0 0 0 0 0 0 0 0 0 0 0 0 0 0 0 0 0 0 0 0 0 0 0 0 0 0 0 0 0 0 0 0 0 0 0 0 0 0 0 0 0 0 0 0 0 0 0 0 0 0 0 0 0 0 0 53 49 46 47 46 46 44 41 42 44 43 43 45 43 42 40 40 40 39 39 40 41 42 44 51 50 48 48 48 47 50 51 47 42 39 39 39 39 38 39 39 39 39 40 40 40 39 39 39 39 39 39 39 37 37 37 38 35 35 34 34 30 31 30 29 16 12 11 12 0 10 9 0 9 9 9 10 9 11 10 12 12 13 13 13 12 11 11 11 11 11 10 10 12 11 12 12 12 11 11 11 12 10 10 11 12 12 12 11 12 12 12 12 11 9 10 12 18 21 23 27 34 37 38 39 44 43 43 44 45 44 46 49 52 47 57 58 58 58 66 61 61 66 63 67 67 67 68 66 70 70 -193 -193 75 75 77 -193 76 74 76 -193 -209 -209 -193 -209 92 94 96 96 98 101 100 101 102 102 103 -193 108 109 108 111 116 118 118 118 118 122 125 126 131 -193 -193 -177 -177 -177 -193 138 142 141 -193 -193 148 147 -193 150 149 148 148 146 144 -193 -209 -209 -193 -177 -177 -193 -177 -193 -209 156 155 156 -193 -193 -193 -193 -193 10 11 15 11 12 12 -193 -209 -193 523 -193 -193 529 -177 -177 197 201 202 0 0 0 0 0
    0 0 0 0 0 0 0 0 0 0 0 0 0 0 0 0 0 0 0 0 0 0 0 0 0 0 0 0 0 0 0 0 0 0 0 0 0 0 0 0 0 0 0 0 0 0 0 0 0 0 0 0 0 0 0 0 0 0 0 0 0 0 0 0 0 0 0 0 0 54 50 47 47 47 46 44 40 42 44 43 43 44 43 41 40 40 40 39 39 40 40 40 42 49 51 48 48 49 48 49 51 49 42 38 38 38 38 37 37 37 37 38 39 39 39 38 38 38 38 37 37 38 36 36 36 38 36 35 35 34 29 29 29 28 14 11 11 12 9 10 9 0 9 10 10 10 10 11 11 12 12 13 13 13 13 12 12 11 11 11 11 10 12 12 12 12 12 12 11 11 13 11 10 12 13 12 12 12 13 12 12 12 11 10 11 12 18 21 24 27 34 37 38 40 44 43 44 44 46 44 46 49 52 47 57 58 58 58 66 61 61 66 64 67 67 67 69 67 71 71 -193 74 76 75 78 76 76 74 76 -193 -193 70 -193 -209 92 94 96 96 98 100 100 101 102 102 103 -193 108 108 108 110 115 117 117 118 118 122 125 127 131 -193 -193 -193 -177 -177 -193 -193 140 140 259 259 -193 -193 -193 150 149 148 147 145 143 -193 -209 -209 -193 336 -193 -193 -177 -193 -193 155 155 155 -209 -193 -193 -193 -193 10 12 15 11 12 12 10 -193 -209 523 -193 -193 -193 -177 -177 197 200 -177 0 0 0 0 0
    0 0 0 0 0 0 0 0 0 0 0 0 0 0 0 0 0 0 0 0 0 0 0 0 0 0 0 0 0 0 0 0 0 0 0 0 0 0 0 0 0 0 0 0 0 0 0 0 0 0 0 0 0 0 0 0 0 0 0 0 0 0 0 0 0 0 0 0 0 54 50 48 48 48 46 44 40 42 44 43 43 44 43 41 40 40 40 39 39 39 39 39 39 43 46 45 46 47 45 43 45 45 41 31 33 35 36 35 34 35 34 35 38 37 36 34 34 35 33 33 32 35 33 33 33 37 34 34 34 34 28 29 28 26 12 10 10 12 0 9 9 0 9 10 10 10 10 12 11 12 13 13 14 13 14 12 13 12 11 12 12 11 13 13 13 13 13 13 12 12 13 12 12 12 14 13 13 12 14 12 12 12 11 10 11 12 18 21 24 -193 33 38 39 40 44 43 44 45 46 45 46 48 51 46 57 58 58 58 66 62 62 66 64 66 68 68 69 68 73 73 -177 75 78 76 78 77 76 74 75 -193 -193 -193 -193 -209 92 94 96 96 98 100 100 100 101 101 102 -193 107 108 107 109 114 116 116 117 117 121 125 127 131 -193 132 -193 -193 -193 133 135 138 -209 259 259 -193 -193 -193 149 148 147 146 144 142 -193 -193 855 -193 -193 -177 -193 -177 -193 -209 155 155 154 -209 13 15 -193 -193 9 11 16 -177 -177 13 10 -209 -209 522 -193 193 -193 -177 196 196 199 200 0 0 0 0 0
    0 0 0 0 0 0 0 0 0 0 0 0 0 0 0 0 0 0 0 0 0 0 0 0 0 0 0 0 0 0 0 0 0 0 0 0 0 0 0 0 0 0 0 0 0 0 0 0 0 0 0 0 0 0 0 0 0 0 0 0 0 0 0 0 0 0 0 0 0 53 48 48 48 48 46 43 40 42 44 43 43 44 42 40 39 39 39 38 38 39 38 37 37 41 42 43 45 42 39 38 41 41 -209 25 26 31 -193 -193 -193 -193 29 31 36 34 29 27 28 29 27 27 26 29 28 29 29 35 32 31 33 33 27 27 27 24 10 9 9 11 0 9 9 0 10 9 11 10 11 12 11 12 13 12 14 13 14 11 12 11 11 12 12 11 13 13 13 14 14 13 12 12 13 12 11 11 14 12 12 12 13 12 12 12 11 10 11 13 18 21 24 -193 -193 -209 41 41 45 44 44 45 47 45 46 48 51 46 58 58 58 58 67 62 62 67 64 66 69 69 70 -193 74 74 -193 76 79 76 78 77 75 73 -193 -193 -177 -193 -193 -209 -209 93 95 96 98 100 99 100 101 101 102 -193 107 107 107 109 113 115 115 116 117 -193 125 127 130 -193 131 131 -193 134 131 134 136 -209 260 -177 -193 -193 -177 148 148 147 146 144 141 -193 -193 853 -193 -193 -177 -177 -193 -193 -209 155 -193 -209 -193 14 16 84 86 -209 -209 -193 -177 -177 13 -193 -209 -209 522 -193 194 193 195 196 196 198 198 0 0 0 0 0
    0 0 0 0 0 0 0 0 0 0 0 0 0 0 0 0 0 0 0 0 0 0 0 0 0 0 0 0 0 0 0 0 0 0 0 0 0 0 0 0 0 0 0 0 0 0 0 0 0 0 0 0 0 0 0 0 0 0 0 0 0 0 0 0 0 0 0 0 0 53 47 48 47 48 46 43 40 42 44 43 43 43 42 40 39 39 39 38 38 39 37 36 36 40 41 42 46 35 31 34 34 -209 -209 13 22 27 -193 -193 -193 -193 27 28 32 29 24 24 23 -209 -209 21 22 25 25 25 25 30 28 28 31 33 27 27 27 22 -193 0 0 10 0 9 9 0 10 9 10 10 11 11 11 11 13 12 14 12 13 10 11 11 11 12 12 12 13 13 14 14 14 13 12 12 13 11 11 10 12 11 12 12 13 12 12 12 12 11 12 13 18 22 -193 -177 -177 -193 -193 41 45 44 44 45 47 46 45 48 51 47 58 59 59 59 67 62 63 67 64 67 69 69 70 -177 75 75 -177 77 80 76 78 77 75 72 -193 -193 -177 -193 -193 -209 -209 92 95 95 98 100 99 101 101 101 102 -193 107 107 107 108 111 114 115 116 116 -193 124 127 129 -193 130 130 -193 134 130 133 135 -193 260 -177 -193 -193 -177 148 148 147 144 143 141 -193 -193 852 -193 -193 -193 -209 -193 -209 -209 -209 -209 -193 -193 -193 -193 85 86 -193 -193 -209 -193 -177 13 -209 -209 -209 -193 -193 194 193 196 196 196 197 197 0 0 0 0 0
    0 0 0 0 0 0 0 0 0 0 0 0 0 0 0 0 0 0 0 0 0 0 0 0 0 0 0 0 0 0 0 0 0 0 0 0 0 0 0 0 0 0 0 0 0 0 0 0 0 0 0 0 0 0 0 0 0 0 0 0 0 0 0 0 0 0 0 0 0 53 48 49 48 49 48 44 40 42 45 43 42 43 42 40 39 39 39 38 38 39 37 35 35 40 40 42 52 -209 -193 32 -209 -193 -209 0 15 23 -193 -193 -193 23 24 25 24 21 19 19 16 -193 17 14 17 20 21 19 22 26 26 26 29 32 26 25 26 -209 0 0 0 10 0 9 9 9 11 10 11 11 11 12 12 12 13 12 14 12 13 10 10 11 11 11 12 12 13 13 14 14 14 13 13 12 12 12 11 10 12 11 11 11 14 12 12 12 12 12 13 14 18 20 23 -193 -193 -193 -193 40 45 44 44 45 47 46 45 48 52 49 58 59 59 59 67 62 63 67 64 67 70 70 -193 -177 75 75 -177 77 80 77 78 77 75 72 -193 0 0 -193 -193 -209 -209 -177 94 95 98 100 99 100 101 101 102 -193 107 107 107 108 110 113 114 115 115 -193 124 126 127 133 129 129 130 133 130 132 135 -177 -177 -177 -193 -193 -177 147 147 146 144 143 141 -193 -193 -193 -193 -209 -193 -193 -193 -209 -209 -209 -209 83 83 -193 -193 85 86 -193 55 -209 -193 -177 -193 -209 -209 -209 -209 194 194 194 196 196 195 197 196 0 0 0 0 0
    0 0 0 0 0 0 0 0 0 0 0 0 0 0 0 0 0 0 0 0 0 0 0 0 0 0 0 0 0 0 0 0 0 0 0 0 0 0 0 0 0 0 0 0 0 0 0 0 0 0 0 0 0 0 0 0 0 0 0 0 0 0 0 0 0 0 0 0 0 53 48 50 48 49 47 43 41 42 43 42 41 42 41 40 39 39 39 38 38 39 37 36 35 39 40 44 57 -209 -193 -209 -209 118 -209 0 11 18 -193 17 17 17 20 22 20 11 12 12 10 11 12 11 13 15 17 13 19 23 22 24 28 29 23 22 21 0 0 0 0 0 0 0 0 0 11 10 10 10 11 11 11 11 12 11 12 11 12 9 10 10 10 11 12 12 13 13 14 14 14 14 13 13 13 12 11 11 13 11 11 11 14 12 12 12 12 13 14 15 19 20 23 -193 -193 -193 -177 41 45 45 45 45 47 46 46 49 52 50 57 59 59 59 67 62 63 67 64 67 70 70 -193 -177 76 76 156 78 81 77 78 77 74 72 -193 -193 0 -193 -193 -209 -209 90 93 94 97 99 98 99 100 100 101 -193 106 107 107 108 110 113 114 115 115 119 124 126 127 133 129 129 130 133 130 132 134 -177 -177 -177 147 -193 -193 147 147 146 143 143 -193 -193 -193 -193 -193 -209 -209 -209 -193 -209 -209 -209 -209 82 83 -193 -193 85 85 -193 55 59 -177 -209 -209 -209 -193 -193 -209 194 194 193 196 195 194 195 194 0 0 0 0 0
    0 0 0 0 0 0 0 0 0 0 0 0 0 0 0 0 0 0 0 0 0 0 0 0 0 0 0 0 0 0 0 0 0 0 0 0 0 0 0 0 0 0 0 0 0 0 0 0 0 0 0 0 0 0 0 0 0 0 0 0 0 0 0 0 0 0 0 0 0 53 47 51 48 49 47 42 36 40 40 40 40 41 41 40 39 39 39 39 39 39 38 37 37 41 40 44 56 -209 -193 -209 -209 115 -193 0 0 11 11 12 13 14 17 19 17 9 10 10 9 9 9 9 10 11 12 10 14 18 17 20 26 -193 13 12 10 0 0 0 0 0 0 9 0 9 11 10 10 10 11 10 10 11 11 10 11 10 11 9 10 10 11 11 12 12 13 13 14 14 14 14 13 13 13 12 12 11 13 11 12 11 14 13 13 13 13 14 14 16 19 20 22 26 -193 -193 -193 40 45 45 45 45 47 46 46 50 52 50 57 58 59 59 67 63 64 68 66 68 71 71 -193 -177 77 77 -193 78 81 77 78 77 74 72 -193 -209 0 -209 -193 -209 -209 90 92 94 97 98 97 97 98 99 100 -193 106 -193 -193 108 110 113 114 115 115 119 124 126 126 133 129 129 130 133 131 132 134 -177 -177 -177 146 -193 -193 147 147 146 143 143 -193 -177 -177 -193 -193 -193 -209 -209 -209 -209 -209 85 85 81 84 84 85 85 85 -193 55 60 -177 -209 -193 -193 -193 -193 -193 193 193 192 194 194 192 193 191 0 0 0 0 0
    0 0 0 0 0 0 0 0 0 0 0 0 0 0 0 0 0 0 0 0 0 0 0 0 0 0 0 0 0 0 0 0 0 0 0 0 0 0 0 0 0 0 0 0 0 0 0 0 0 0 0 0 0 0 0 0 0 0 0 0 0 0 0 0 0 0 0 0 0 53 49 53 50 52 50 -193 -209 -193 40 39 40 41 41 40 39 40 40 41 41 41 40 39 41 42 42 45 54 -177 -193 -209 -209 115 0 0 0 0 0 9 10 11 13 14 11 0 9 0 0 0 0 0 9 9 10 9 11 13 12 12 21 9 9 10 0 0 0 0 0 0 0 0 0 0 11 9 10 9 10 10 10 10 11 10 11 10 11 9 10 10 11 11 12 12 13 13 14 14 14 14 13 13 13 12 11 11 12 11 12 11 14 13 13 14 14 15 15 17 20 20 23 27 36 39 38 39 43 44 44 45 46 45 45 50 52 51 55 58 58 58 67 64 65 69 68 69 72 72 72 -177 77 78 -193 78 81 76 77 77 74 72 -193 -209 -193 -193 -193 -209 -193 90 92 93 96 97 95 95 96 -177 97 -193 -193 -193 -193 108 110 114 114 115 115 119 124 126 126 133 130 130 131 134 131 132 134 472 -177 -177 145 143 145 147 147 146 143 144 -193 -177 -177 -193 -193 -177 -209 -209 -209 -209 89 85 84 79 84 84 85 85 85 -193 55 -193 -177 -193 -177 717 -193 -193 -193 -193 191 191 192 192 191 191 190 0 0 0 0 0
    0 0 0 0 0 0 0 0 0 0 0 0 0 0 0 0 0 0 0 0 0 0 0 0 0 0 0 0 0 0 0 0 0 0 0 0 0 0 0 0 0 0 0 0 0 0 0 0 0 0 0 0 0 0 0 0 0 0 0 0 0 0 0 0 0 0 0 0 0 53 50 53 51 52 50 -193 -209 40 40 39 39 40 41 41 40 41 41 42 42 42 41 41 42 43 42 44 54 -177 -177 -209 -209 -209 0 0 0 0 0 0 9 10 11 11 10 0 9 0 0 0 0 0 0 0 0 0 10 10 10 9 9 0 0 9 0 0 0 0 0 0 0 0 0 0 11 10 10 9 11 10 10 10 12 10 11 10 11 9 10 10 11 11 12 12 13 13 13 14 14 14 13 13 12 12 12 11 12 11 12 11 15 14 14 14 14 15 15 17 20 21 23 27 36 37 37 39 42 44 44 46 47 45 46 51 52 51 54 58 58 58 66 65 66 69 69 70 74 73 73 -193 77 78 77 78 81 -193 77 76 -193 -193 -193 -209 -193 -209 -193 -209 -209 90 93 94 96 97 95 94 95 95 95 -193 -193 -177 -177 108 110 114 115 115 115 119 124 126 126 132 131 131 132 134 132 133 135 473 -177 -177 144 143 145 147 148 147 144 -193 -193 -177 -177 -209 -193 -177 -177 -209 -209 -209 88 84 84 79 84 84 85 84 84 -193 55 -209 -209 -193 -177 717 -193 -193 -193 -193 190 189 191 191 190 190 189 0 0 0 0 0
    0 0 0 0 0 0 0 0 0 0 0 0 0 0 0 0 0 0 0 0 0 0 0 0 0 0 0 0 0 0 0 0 0 0 0 0 0 0 0 0 0 0 0 0 0 0 0 0 0 0 0 0 0 0 0 0 0 0 0 0 0 0 0 0 0 0 0 0 0 53 50 52 52 51 50 46 -209 49 -193 38 39 40 40 41 40 41 42 42 42 42 42 42 43 43 42 43 53 -193 -177 -209 -209 0 0 0 0 0 0 0 9 10 11 11 10 0 9 0 0 0 0 0 0 0 0 0 9 9 9 9 9 0 9 9 0 0 0 0 0 0 0 0 0 0 10 9 9 9 11 10 10 11 12 10 10 10 10 9 10 10 11 11 11 12 13 13 13 13 13 13 13 13 12 12 12 11 12 11 12 11 14 14 14 14 14 14 14 16 19 20 23 26 36 37 37 39 41 44 44 45 46 45 46 51 52 52 52 57 58 58 66 66 66 69 70 71 74 74 74 76 77 78 78 78 80 -193 76 76 -193 -193 -193 -209 -193 -209 -209 -209 -193 91 93 94 96 97 -193 93 94 94 94 -177 -177 -177 -177 108 111 115 116 116 116 118 124 125 125 132 132 132 133 135 133 133 135 -193 -193 -193 144 143 146 147 148 147 145 -193 -193 -177 -177 -209 -193 -177 -177 -193 -209 -209 87 84 83 80 84 85 84 84 83 -193 55 -209 -209 -193 -177 718 -193 -193 515 -193 189 188 189 190 189 189 188 0 0 0 0 0
    0 0 0 0 0 0 0 0 0 0 0 0 0 0 0 0 0 0 0 0 0 0 0 0 0 0 0 0 0 0 0 0 0 0 0 0 0 0 0 0 0 0 0 0 0 0 0 0 0 0 0 0 0 0 0 0 0 0 0 0 0 0 0 0 0 0 0 0 0 54 51 52 52 51 52 -193 -209 -193 -193 36 37 39 40 40 40 41 42 42 43 43 42 42 43 43 42 43 51 -209 -177 -209 0 0 0 0 0 0 9 9 9 11 12 11 10 0 0 0 0 0 0 0 0 0 0 0 0 0 0 9 10 9 9 10 9 0 0 9 0 0 0 0 0 0 10 9 0 0 10 9 9 10 11 9 10 10 10 9 9 10 11 11 11 12 12 13 13 13 13 13 13 13 12 12 12 11 12 11 12 11 13 13 14 13 13 14 13 15 19 20 22 26 35 35 36 38 40 44 43 45 46 44 46 51 53 52 50 57 58 58 64 66 65 69 71 72 75 74 -193 -193 77 79 78 77 80 -193 -193 -193 73 73 -193 -193 -193 -193 -209 -193 -193 91 93 95 96 98 -193 -193 94 94 93 -193 -177 -177 -177 108 111 116 116 116 116 118 124 125 125 132 133 133 134 135 134 -193 136 -193 139 -193 144 144 146 147 149 148 146 -193 -193 -177 -177 -193 -193 -177 -177 -193 -193 -209 86 83 83 81 86 86 85 84 84 -193 -209 -209 -209 -177 716 719 -193 -193 513 -193 188 187 188 189 189 189 188 0 0 0 0 0
    0 0 0 0 0 0 0 0 0 0 0 0 0 0 0 0 0 0 0 0 0 0 0 0 0 0 0 0 0 0 0 0 0 0 0 0 0 0 0 0 0 0 0 0 0 0 0 0 0 0 0 0 0 0 0 0 0 0 0 0 0 0 0 0 0 0 0 0 0 55 53 53 54 51 53 -209 -209 56 -193 36 37 39 40 41 40 41 43 42 43 43 43 43 43 43 42 41 43 -209 -177 -209 0 0 0 0 0 0 0 0 9 11 11 11 10 0 9 0 0 0 0 0 0 0 0 0 0 0 0 9 10 9 10 11 10 0 9 9 0 0 0 0 0 0 9 9 0 0 9 9 9 10 10 9 9 9 9 9 9 10 11 11 11 13 12 12 13 13 13 12 13 13 12 12 12 11 12 12 12 12 14 13 14 13 13 14 13 14 18 21 23 26 34 34 34 36 39 43 43 45 46 44 46 51 53 53 49 57 58 58 63 67 65 69 71 72 76 74 -193 -193 76 78 78 77 79 -193 -193 -193 -193 73 74 -193 -193 -193 -209 -193 -209 91 93 95 96 99 -193 -193 95 95 94 -193 -177 -177 -177 108 112 116 117 117 116 118 124 126 126 132 -193 134 135 136 135 -193 137 141 140 141 144 144 146 -193 150 -193 -193 -193 -177 -177 453 -193 -193 -177 -177 -193 -193 -193 -193 81 82 81 86 87 85 84 84 -209 -209 -193 -209 -177 -177 -177 -193 -193 512 -193 187 187 188 188 188 188 188 0 0 0 0 0
    0 0 0 0 0 0 0 0 0 0 0 0 0 0 0 0 0 0 0 0 0 0 0 0 0 0 0 0 0 0 0 0 0 0 0 0 0 0 0 0 0 0 0 0 0 0 0 0 0 0 0 0 0 0 0 0 0 0 0 0 0 0 0 0 0 0 0 0 0 55 54 54 55 51 56 -193 -209 -193 -193 37 37 39 40 41 41 42 43 43 43 43 43 43 43 43 42 38 40 -209 -193 -193 0 0 0 0 0 0 0 0 9 11 11 11 10 9 10 0 0 0 0 0 0 0 0 0 0 0 0 9 11 9 10 11 10 9 10 9 0 0 0 9 0 0 9 9 9 9 10 9 9 10 10 9 9 9 9 9 10 10 11 12 11 13 13 12 13 13 13 13 13 13 12 12 13 12 13 12 13 13 14 13 14 13 13 13 14 14 19 23 24 27 34 34 34 35 39 42 42 44 45 44 46 51 53 53 47 57 57 57 62 67 65 69 72 72 -193 74 -177 -177 75 78 77 76 78 75 -193 76 74 74 75 -193 -193 -209 -209 -193 -209 91 93 -193 95 99 -193 94 95 96 94 -193 -177 -177 -177 108 112 116 117 117 117 119 125 126 127 132 -193 135 136 137 -209 897 138 143 141 141 144 145 -177 -193 -209 -193 -193 -193 209 -193 453 -193 -177 335 338 -193 -193 -193 -193 80 81 79 85 87 85 84 84 -209 -209 -177 -209 719 -177 -177 -193 -193 511 -193 187 186 187 188 188 188 188 0 0 0 0 0
    0 0 0 0 0 0 0 0 0 0 0 0 0 0 0 0 0 0 0 0 0 0 0 0 0 0 0 0 0 0 0 0 0 0 0 0 0 0 0 0 0 0 0 0 0 0 0 0 0 0 0 0 0 0 0 0 0 0 0 0 0 0 0 0 0 0 0 0 0 55 54 54 55 49 -209 -209 -209 53 -193 37 36 38 39 40 41 41 43 43 43 43 43 44 44 43 42 34 36 -209 -193 9 0 0 0 0 0 0 0 0 0 10 10 11 10 9 10 9 0 0 0 0 0 0 0 0 0 0 0 9 10 9 9 10 9 9 9 9 0 0 0 10 0 0 10 10 9 9 10 9 9 10 11 9 9 9 9 9 10 11 11 12 11 13 13 12 13 13 13 13 13 14 12 13 13 12 13 13 14 13 14 13 14 12 12 12 13 14 20 25 26 28 34 34 34 35 38 41 42 44 45 44 46 50 52 52 46 56 56 56 60 67 64 68 73 72 -193 74 -177 -177 -193 78 77 76 78 75 76 77 74 75 75 77 -193 -209 -209 -209 -209 90 93 -193 -193 -193 -193 94 96 96 94 -193 -177 -177 -177 108 112 117 117 117 117 119 125 126 127 132 -209 136 137 137 -193 -193 139 144 141 142 144 146 -177 -193 -209 -193 -177 210 210 211 -193 -177 -177 337 339 -193 -193 -209 -193 -193 -193 -193 85 89 85 84 84 -193 -193 -209 -209 718 -177 -177 -193 -193 510 -193 187 186 187 188 189 189 188 0 0 0 0 0
    0 0 0 0 0 0 0 0 0 0 0 0 0 0 0 0 0 0 0 0 0 0 0 0 0 0 0 0 0 0 0 0 0 0 0 0 0 0 0 0 0 0 0 0 0 0 0 0 0 0 0 0 0 0 0 0 0 0 0 0 0 0 0 0 0 0 0 0 0 55 54 54 54 46 -209 57 -209 45 -193 38 37 38 39 40 40 41 43 43 42 43 43 44 43 42 41 30 31 25 21 0 0 0 0 0 0 0 0 0 9 11 11 12 11 11 11 10 9 0 0 0 0 0 0 0 0 0 0 9 10 9 9 11 10 10 9 9 0 0 9 10 9 9 12 11 11 11 11 11 10 11 12 10 11 10 10 10 11 11 12 12 11 13 13 12 13 13 13 13 13 14 12 12 13 12 13 13 14 14 14 13 14 13 12 13 13 13 20 25 25 27 32 33 34 34 38 40 41 43 44 43 45 50 52 52 46 56 56 56 59 68 64 68 73 72 -193 -193 0 0 -193 77 77 -177 77 75 76 77 75 76 76 78 -193 -193 -209 -193 -193 90 93 -193 -193 -193 -193 95 96 97 94 99 -177 -177 -177 107 112 116 117 117 117 118 124 125 126 132 -177 137 137 138 -193 -193 140 145 142 142 145 -193 -193 -193 -177 -193 -177 210 210 212 -193 -177 -177 338 339 -193 -193 -209 19 -209 20 -193 -193 -193 -209 -193 83 185 -193 -209 -193 -193 -177 -177 -193 -209 510 -193 187 186 187 188 189 189 189 0 0 0 0 0
    0 0 0 0 0 0 0 0 0 0 0 0 0 0 0 0 0 0 0 0 0 0 0 0 0 0 0 0 0 0 0 0 0 0 0 0 0 0 0 0 0 0 0 0 0 0 0 0 0 0 0 0 0 0 0 0 0 0 0 0 0 0 0 0 0 0 0 0 0 55 55 53 54 46 51 56 50 42 39 39 37 38 39 40 40 41 43 42 42 42 43 43 43 41 41 29 29 26 -193 -193 9 9 0 0 0 0 0 0 10 12 12 12 12 12 13 11 10 10 0 0 0 0 0 0 0 0 0 10 11 10 10 12 11 11 10 10 10 9 10 11 9 10 12 11 11 12 12 12 11 12 13 11 12 11 11 11 11 11 12 12 11 13 13 12 13 13 13 13 13 14 13 13 14 12 13 14 14 14 15 13 14 13 13 13 13 13 19 24 26 27 32 33 34 34 37 40 41 43 44 43 45 49 52 52 46 56 56 56 58 67 63 66 71 70 -177 71 -193 -177 -177 -193 76 -193 76 75 76 78 75 76 77 79 -193 80 -209 -193 -193 -193 -193 -193 -193 -193 -193 -193 -193 98 95 -193 -177 -177 -177 107 112 116 116 117 117 117 123 125 126 132 -177 137 137 138 139 139 141 146 143 142 145 -193 -193 -193 913 -193 -177 211 210 212 -193 -177 -177 338 340 -193 -193 -193 20 -193 21 24 -209 -209 -209 -209 -209 185 -193 -193 -193 -209 -177 -177 -209 -193 510 -193 187 186 188 189 190 190 189 0 0 0 0 0
    0 0 0 0 0 0 0 0 0 0 0 0 0 0 0 0 0 0 0 0 0 0 0 0 0 0 0 0 0 0 0 0 0 0 0 0 0 0 0 0 0 0 0 0 0 0 0 0 0 0 0 0 0 0 0 0 0 0 0 0 0 0 0 0 0 0 0 0 0 54 54 53 54 45 44 52 -193 41 40 40 37 39 40 40 40 41 43 42 42 42 42 42 42 41 40 29 29 -193 -193 -193 9 9 0 0 0 0 10 10 12 13 13 13 14 13 14 12 12 11 9 0 0 0 0 0 0 0 0 10 11 11 11 12 11 12 10 11 10 9 10 11 9 10 11 11 11 12 12 12 11 12 13 12 12 11 11 11 10 11 11 11 11 13 13 12 13 13 13 14 13 15 13 14 15 13 14 15 15 14 15 13 14 13 13 13 13 12 18 23 25 27 32 32 33 34 37 40 40 43 44 43 45 49 51 52 46 56 56 56 57 66 62 64 69 69 -193 69 70 0 -193 -177 75 -177 75 75 76 78 75 77 77 79 82 80 -193 -193 -209 -193 -193 -193 -193 -193 -209 -209 -193 -193 96 -193 -177 -177 -177 107 112 116 116 117 116 117 123 125 127 132 -177 137 137 138 140 139 141 146 143 142 145 -193 -193 -193 -177 -193 -177 211 210 212 -193 -177 -177 339 340 -193 -193 -193 20 -193 21 -193 175 -209 -193 -193 -193 184 -193 -209 -193 -209 -193 -177 -193 187 -193 -193 187 186 187 189 191 191 190 0 0 0 0 0
    0 0 0 0 0 0 0 0 0 0 0 0 0 0 0 0 0 0 0 0 0 0 0 0 0 0 0 0 0 0 0 0 0 0 0 0 0 0 0 0 0 0 0 0 0 0 0 0 0 0 0 0 0 0 0 0 0 0 0 0 0 0 0 0 0 0 0 0 0 54 54 53 54 44 -193 45 38 40 -193 42 38 39 40 40 40 40 42 41 41 41 41 41 41 40 39 28 29 -209 797 -193 9 9 0 0 0 0 10 11 13 14 14 14 15 14 15 13 12 12 10 9 0 0 0 0 0 8 9 11 11 11 11 13 12 13 11 11 10 10 10 11 9 9 10 10 11 12 12 12 11 12 13 12 12 11 11 11 11 12 12 12 11 13 13 12 13 13 12 13 13 14 13 14 15 12 13 15 14 14 15 13 14 13 13 14 13 13 18 23 25 27 32 32 33 34 37 40 40 43 44 43 45 49 51 52 47 55 55 55 56 66 62 63 68 67 70 68 69 0 70 -177 -193 -177 74 74 76 78 76 77 77 79 82 80 81 85 -209 -193 -193 -177 -193 -193 -193 -209 -209 -193 97 -193 -177 -177 -177 107 111 115 116 116 116 116 123 125 127 133 -193 137 137 138 140 139 141 146 143 143 146 -193 -193 -193 -177 -193 -177 211 210 211 -193 -177 -177 339 340 -193 -193 -193 18 -193 19 -193 177 183 185 185 185 184 187 -209 -193 -209 -209 -209 -209 188 -193 -193 186 186 187 189 191 192 190 0 0 0 0 0
    0 0 0 0 0 0 0 0 0 0 0 0 0 0 0 0 0 0 0 0 0 0 0 0 0 0 0 0 0 0 0 0 0 0 0 0 0 0 0 0 0 0 0 0 0 0 0 0 0 0 0 0 0 0 0 0 0 0 0 0 0 0 0 0 0 0 0 0 0 54 54 53 53 45 -193 43 39 41 44 45 40 40 41 41 40 40 42 41 41 41 40 40 40 39 38 29 30 -193 798 -193 10 11 0 0 0 0 12 13 14 15 15 15 15 14 14 13 12 12 10 9 0 0 0 0 0 9 9 11 11 11 11 13 12 13 10 11 10 10 10 11 10 10 11 11 12 13 12 13 12 12 13 12 12 11 11 11 10 12 12 12 12 13 13 12 13 13 12 13 13 14 13 13 14 12 12 14 13 13 15 13 14 14 13 14 13 14 19 23 25 27 32 33 33 34 37 40 39 42 43 43 45 48 50 52 47 56 56 56 56 66 62 63 68 66 69 67 68 70 69 -177 -177 -177 -193 -193 76 78 76 77 77 79 81 79 80 84 -193 -193 -209 -177 -177 -209 -209 -193 -209 99 97 -193 -177 -193 -193 107 111 114 115 116 116 116 123 125 128 133 -177 137 137 138 140 139 140 145 144 143 146 -193 -193 -193 912 -193 -193 210 209 211 -193 -177 -177 340 340 -193 -193 -193 16 -209 -193 -193 178 183 185 185 185 185 188 -193 -209 -209 -209 -209 -193 188 -209 -209 186 186 187 189 191 192 190 0 0 0 0 0
    0 0 0 0 0 0 0 0 0 0 0 0 0 0 0 0 0 0 0 0 0 0 0 0 0 0 0 0 0 0 0 0 0 0 0 0 0 0 0 0 0 0 0 0 0 0 0 0 0 0 0 0 0 0 0 0 0 0 0 0 0 0 0 0 0 0 0 0 0 53 54 54 53 45 43 44 40 42 46 48 42 41 43 42 40 40 42 41 41 41 40 40 39 39 39 31 33 28 -193 -193 17 13 0 0 -193 9 13 14 15 15 14 15 15 14 14 13 12 11 10 9 9 9 0 0 0 11 10 11 12 12 12 13 12 13 10 11 10 11 11 11 11 11 11 11 12 13 12 13 12 12 12 12 12 11 11 11 10 11 11 12 12 12 13 11 13 13 13 13 13 13 13 13 13 12 12 14 13 13 15 13 14 14 14 14 13 14 19 24 26 28 33 33 33 33 37 39 39 42 43 43 45 48 50 52 46 56 56 56 56 66 62 63 67 65 68 67 68 69 68 -177 -177 -177 -177 -193 75 78 75 77 77 78 81 79 -193 -193 -193 -193 -209 -177 -177 -209 -209 -193 -193 100 97 -193 -177 -193 -193 107 110 113 114 115 115 116 122 125 127 132 904 -193 -193 137 140 -193 140 144 143 143 147 910 910 910 913 -193 -193 -193 208 210 453 -177 -177 340 340 -193 -177 -209 -193 -209 -209 -193 178 183 186 186 186 186 189 189 -209 -209 -209 -209 -193 -193 -209 -209 186 185 187 189 191 193 191 0 0 0 0 0
    0 0 0 0 0 0 0 0 0 0 0 0 0 0 0 0 0 0 0 0 0 0 0 0 0 0 0 0 0 0 0 0 0 0 0 0 0 0 0 0 0 0 0 0 0 0 0 0 0 0 0 0 0 0 0 0 0 0 0 0 0 0 0 0 0 0 0 0 0 53 54 54 53 45 43 44 40 43 46 49 42 41 43 42 40 40 42 41 41 41 40 40 39 40 39 34 36 33 -193 -193 -209 -209 -209 -193 -193 11 15 15 16 17 16 17 16 15 15 14 13 12 11 11 10 10 0 9 9 13 12 12 12 12 12 13 12 13 10 11 11 11 11 11 11 12 11 12 12 13 12 13 12 12 12 12 12 11 11 11 10 11 11 11 12 12 12 11 13 13 13 13 13 13 13 13 13 11 12 13 12 13 14 12 13 14 13 14 13 14 19 24 26 28 33 33 33 33 37 39 39 42 43 43 45 47 49 51 46 56 56 56 56 66 63 63 67 65 68 67 68 69 68 -193 -177 -177 -177 -193 75 78 -193 77 77 78 80 78 -193 -193 -193 -193 -209 -177 -177 -193 -209 -193 -193 99 97 -193 -177 -193 -193 107 110 113 114 114 114 115 121 124 127 132 904 136 -193 -193 139 -193 139 143 143 -193 -193 911 911 910 -193 -193 150 -209 208 209 -177 336 -193 340 340 -193 -193 -193 -209 -209 -209 176 177 182 186 -193 186 186 189 190 -209 -209 -209 -209 -193 -209 -209 -209 186 185 187 188 191 194 192 0 0 0 0 0
    0 0 0 0 0 0 0 0 0 0 0 0 0 0 0 0 0 0 0 0 0 0 0 0 0 0 0 0 0 0 0 0 0 0 0 0 0 0 0 0 0 0 0 0 0 0 0 0 0 0 0 0 0 0 0 0 0 0 0 0 0 0 0 0 0 0 0 0 0 53 54 54 53 45 41 40 40 41 43 45 40 40 42 42 40 40 -193 -193 40 41 40 40 39 40 39 37 37 36 33 35 34 -193 -209 -193 -193 14 17 15 16 17 16 17 16 15 15 14 13 13 13 12 12 12 9 11 10 15 14 13 13 14 13 15 13 15 11 12 12 12 11 12 12 12 11 12 12 14 12 13 12 12 12 11 11 11 10 11 10 11 11 11 11 12 12 12 13 13 12 13 13 13 13 13 13 11 11 13 12 12 14 12 12 13 13 13 12 13 19 24 26 28 34 33 34 34 37 39 39 42 42 43 44 46 49 51 46 56 56 56 56 67 63 63 67 64 67 67 68 69 68 -193 -177 -177 -177 -193 75 77 -193 76 77 -193 79 78 -193 -193 166 -193 -209 -177 -177 -193 -209 -193 -193 99 97 -193 -193 -193 105 107 110 113 113 114 114 115 121 125 128 132 905 -177 135 135 138 -193 137 141 -193 260 260 -193 911 -193 -193 -193 149 -193 -193 -209 453 -193 -193 -193 340 -193 -193 -193 292 291 -193 174 174 179 185 -209 -209 184 187 188 -209 -209 -209 -209 -209 -209 -193 -209 186 185 186 188 191 194 193 0 0 0 0 0
    0 0 0 0 0 0 0 0 0 0 0 0 0 0 0 0 0 0 0 0 0 0 0 0 0 0 0 0 0 0 0 0 0 0 0 0 0 0 0 0 0 0 0 0 0 0 0 0 0 0 0 0 0 0 0 0 0 0 0 0 0 0 0 0 0 0 0 0 0 53 54 53 53 44 38 38 38 40 42 44 40 40 43 42 40 40 -193 -193 41 41 40 40 40 41 40 38 39 38 34 37 36 34 -193 -193 22 -193 19 17 17 18 17 18 17 16 16 15 14 13 13 13 12 12 11 12 12 17 15 15 14 16 15 16 15 16 13 14 14 15 12 13 12 12 11 12 12 13 12 13 12 11 11 11 11 11 10 11 10 12 11 11 12 12 12 12 13 13 13 13 13 13 13 14 13 12 11 13 12 12 14 12 12 13 13 13 11 12 18 23 26 28 35 34 34 35 37 40 40 42 42 43 44 46 48 50 45 56 56 56 56 67 63 64 67 64 67 68 68 69 68 -193 -193 -177 -177 -193 74 76 -193 76 76 -193 78 -193 -193 -193 166 -209 -209 -177 -177 -193 101 -193 101 99 98 -193 -193 105 105 107 110 113 113 114 114 115 121 125 128 132 905 134 134 135 137 -193 -193 139 -193 260 260 -193 -193 -193 -193 -193 149 147 -209 -193 -193 -193 -209 -193 339 -177 -177 -209 -193 -193 -193 172 171 175 182 -209 -209 182 -193 -209 -209 -209 -209 -209 -209 -209 -209 -209 -209 185 186 188 191 194 194 0 0 0 0 0
    0 0 0 0 0 0 0 0 0 0 0 0 0 0 0 0 0 0 0 0 0 0 0 0 0 0 0 0 0 0 0 0 0 0 0 0 0 0 0 0 0 0 0 0 0 0 0 0 0 0 0 0 0 0 0 0 0 0 0 0 0 0 0 0 0 0 0 0 0 53 54 53 53 44 38 36 37 40 45 45 40 40 44 42 40 40 -193 782 41 42 40 40 40 41 40 39 39 39 36 37 37 35 30 -193 24 21 19 18 17 18 17 18 17 17 16 15 14 13 13 13 12 12 11 13 13 17 16 16 15 16 16 17 16 16 13 14 13 15 12 13 12 11 11 12 12 12 11 12 11 11 11 11 11 11 10 11 10 12 11 12 12 12 11 12 12 13 12 13 13 13 13 14 13 11 11 12 11 12 13 12 11 12 12 12 10 11 17 23 27 28 36 35 35 36 38 40 40 41 42 43 44 46 48 50 45 56 56 56 56 67 63 64 67 64 67 -193 68 70 68 -193 -193 149 -177 -193 74 76 -193 75 76 -193 77 76 -193 -193 -177 -209 -209 -177 -177 -193 101 -193 101 98 98 -193 -193 106 106 107 110 112 113 114 114 115 121 125 129 132 905 133 133 134 136 134 135 138 -193 261 -177 -193 -193 -177 150 -193 149 147 144 143 -193 450 -209 939 -209 -177 -177 -177 -193 -209 -209 -193 169 171 175 -193 -193 170 176 -209 -209 -209 -209 -209 -209 -209 -209 -193 -209 186 186 188 191 194 195 0 0 0 0 0
    0 0 0 0 0 0 0 0 0 0 0 0 0 0 0 0 0 0 0 0 0 0 0 0 0 0 0 0 0 0 0 0 0 0 0 0 0 0 0 0 0 0 0 0 0 0 0 0 0 0 0 0 0 0 0 0 0 0 0 0 0 0 0 0 0 0 0 0 0 53 53 53 52 43 40 38 39 42 46 45 41 41 44 42 40 40 -193 782 41 42 40 40 40 41 40 39 40 40 36 38 38 36 32 28 25 23 20 18 16 18 17 19 17 17 16 15 14 14 14 14 12 14 13 15 15 18 18 17 16 17 16 17 16 15 13 13 12 14 12 13 12 12 11 12 12 13 11 12 11 11 11 11 11 11 10 11 10 12 11 12 12 12 11 12 12 12 12 13 12 12 12 13 12 11 11 11 11 11 12 11 10 11 11 11 9 9 16 24 28 29 36 35 35 37 38 41 41 41 42 43 44 46 48 50 45 56 56 56 56 66 63 63 67 64 67 -177 69 70 69 73 -193 150 -193 76 74 76 -193 75 75 240 77 76 -193 -193 -193 -209 -209 -193 -193 -193 101 -193 101 99 98 -193 103 106 106 107 110 112 113 115 115 115 121 125 129 132 -193 132 132 133 135 132 134 136 -193 -177 -177 -193 -193 -177 150 150 149 146 143 142 141 -177 -177 939 -209 -177 -177 -177 -193 -193 -209 164 164 169 -193 -193 -193 -193 172 -193 -209 -209 -209 -209 -209 -193 858 -177 -193 -193 186 188 191 195 195 0 0 0 0 0
    0 0 0 0 0 0 0 0 0 0 0 0 0 0 0 0 0 0 0 0 0 0 0 0 0 0 0 0 0 0 0 0 0 0 0 0 0 0 0 0 0 0 0 0 0 0 0 0 0 0 0 0 0 0 0 0 0 0 0 0 0 0 0 0 0 0 0 0 0 53 53 52 52 44 42 42 42 44 47 45 42 41 43 42 40 40 -193 782 41 42 40 40 40 41 40 -193 40 40 36 38 38 37 34 31 26 25 20 19 16 18 17 19 17 17 17 16 15 15 15 15 13 15 15 17 17 19 19 18 17 18 17 16 16 15 12 12 11 14 12 13 13 12 12 13 12 13 12 12 11 11 11 12 11 11 10 11 10 12 11 12 12 12 12 12 12 12 12 13 12 12 12 12 12 11 10 10 10 10 11 10 9 10 10 10 0 0 14 24 28 29 36 35 35 36 38 41 41 41 42 43 44 46 47 49 45 55 55 55 56 66 63 63 67 64 67 381 69 70 69 73 73 152 75 77 74 76 75 75 75 -193 76 75 -193 -193 -193 -193 -209 -193 -193 -193 101 -193 101 99 99 -193 103 106 106 107 110 112 113 115 115 115 120 125 129 131 -193 131 131 132 134 131 133 135 -177 -177 -177 -193 -177 -177 149 149 148 145 143 142 141 -177 -177 939 -209 -177 -177 -177 -193 -177 -209 161 159 168 -193 84 85 -193 171 183 -209 -209 -209 -209 -209 -193 859 -177 -177 -193 187 189 191 195 196 0 0 0 0 0
    0 0 0 0 0 0 0 0 0 0 0 0 0 0 0 0 0 0 0 0 0 0 0 0 0 0 0 0 0 0 0 0 0 0 0 0 0 0 0 0 0 0 0 0 0 0 0 0 0 0 0 0 0 0 0 0 0 0 0 0 0 0 0 0 0 0 0 0 0 53 53 52 52 44 43 46 46 46 47 45 41 41 43 42 40 40 -193 782 41 42 40 40 40 41 40 -193 40 40 37 38 39 37 35 32 26 25 20 18 15 18 17 19 17 18 17 16 14 16 16 17 15 17 18 19 19 21 20 19 17 19 17 17 17 14 11 12 10 12 12 13 13 12 12 13 13 13 13 12 11 11 11 12 11 12 11 11 10 12 11 12 12 12 12 13 12 13 12 13 12 12 12 12 12 11 10 10 10 11 11 11 9 9 9 10 0 0 13 23 27 28 35 34 34 35 38 41 41 41 42 43 43 46 47 49 45 55 55 55 56 65 63 64 67 64 67 380 70 71 -193 74 74 -193 76 77 75 76 75 75 74 -193 76 75 74 77 -209 -193 -209 -209 -209 -193 -193 -193 102 99 99 99 103 106 106 107 110 112 113 115 115 115 120 126 128 129 134 130 130 131 134 131 132 135 -177 -177 -177 -209 -177 -177 149 149 147 144 143 141 140 -177 942 938 -209 -177 -177 -177 -193 -193 -209 158 156 165 -193 83 83 -193 168 -193 -209 191 -209 -209 -209 -193 -193 -177 -177 -193 187 189 192 195 196 0 0 0 0 0
    0 0 0 0 0 0 0 0 0 0 0 0 0 0 0 0 0 0 0 0 0 0 0 0 0 0 0 0 0 0 0 0 0 0 0 0 0 0 0 0 0 0 0 0 0 0 0 0 0 0 0 0 0 0 0 0 0 0 0 0 0 0 0 0 0 0 0 0 0 52 53 52 52 44 43 49 -209 46 46 43 40 41 42 41 40 -193 785 782 41 43 40 40 40 41 40 -193 40 41 37 39 39 37 35 33 26 25 19 18 14 17 16 18 17 18 17 16 15 17 17 18 17 18 18 19 20 21 20 20 17 19 17 17 16 14 11 11 10 12 11 13 12 12 12 14 13 13 13 12 11 11 11 12 12 12 12 11 11 13 12 13 13 13 13 13 13 14 13 14 13 13 13 13 12 12 11 11 11 11 11 12 10 9 10 10 9 9 12 21 25 26 33 34 34 35 37 41 41 40 42 43 43 45 46 48 44 54 54 54 56 65 63 64 67 65 68 380 71 71 -177 75 75 -193 76 78 75 77 75 75 74 -193 75 75 -193 77 -209 -193 -209 -209 -209 -193 -193 -193 -193 100 99 99 103 106 106 107 110 112 113 115 115 114 119 126 128 128 133 130 130 131 134 131 131 134 -177 -177 -177 -209 -177 -177 148 148 147 143 142 141 -193 -193 940 938 -193 -177 -177 -177 -193 -193 -209 157 155 162 -193 81 81 -193 167 -193 -209 193 -209 189 -209 -193 -193 -177 -209 -193 187 189 192 195 197 0 0 0 0 0
    0 0 0 0 0 0 0 0 0 0 0 0 0 0 0 0 0 0 0 0 0 0 0 0 0 0 0 0 0 0 0 0 0 0 0 0 0 0 0 0 0 0 0 0 0 0 0 0 0 0 0 0 0 0 0 0 0 0 0 0 0 0 0 0 0 0 0 0 0 52 52 52 52 45 -193 -209 -209 -209 45 42 40 40 41 41 40 -193 785 782 41 43 40 40 40 41 40 -193 40 41 36 38 38 37 35 33 26 -193 19 17 13 16 17 18 17 19 18 17 16 18 18 19 18 18 18 19 20 20 20 19 17 18 17 17 16 13 11 11 10 11 10 12 12 13 13 14 13 14 14 13 12 12 12 13 13 13 12 13 13 15 13 14 14 13 14 14 13 14 13 14 13 13 12 13 13 12 11 12 11 12 12 12 11 10 10 10 10 9 12 19 24 25 31 32 32 34 37 40 40 39 41 42 43 45 45 48 44 52 55 55 56 65 64 65 68 66 69 379 -193 72 375 75 75 -193 77 79 75 77 76 74 73 75 75 75 -193 77 -209 -193 -193 -209 -209 -193 -193 -193 -193 99 99 99 103 106 106 107 110 112 113 115 115 114 119 127 128 128 133 131 131 132 134 131 131 134 -177 -177 -177 -193 -193 -209 148 148 147 143 142 -193 -193 -193 -177 -177 -193 -177 -177 -193 -193 -193 -209 156 154 160 -193 80 -193 -193 166 -193 -209 195 189 190 -209 -193 -193 -177 -193 -193 187 189 191 195 197 0 0 0 0 0
    0 0 0 0 0 0 0 0 0 0 0 0 0 0 0 0 0 0 0 0 0 0 0 0 0 0 0 0 0 0 0 0 0 0 0 0 0 0 0 0 0 0 0 0 0 0 0 0 0 0 0 0 0 0 0 0 0 0 0 0 0 0 0 0 0 0 0 0 0 52 52 52 52 46 -193 -193 -209 -209 47 43 40 40 41 41 40 -193 785 783 41 42 40 40 40 41 40 -193 40 40 36 38 38 37 34 32 27 -193 19 17 13 15 17 18 17 18 18 17 16 18 18 19 18 19 19 19 20 20 20 19 17 18 17 16 16 13 11 11 10 11 10 12 12 13 13 14 13 14 14 13 13 13 13 13 13 13 13 14 14 15 14 14 14 14 14 13 13 14 13 14 13 13 12 12 13 12 11 12 11 11 11 12 11 10 10 10 11 10 12 18 22 24 29 31 31 33 37 40 40 39 41 42 43 45 45 48 45 51 55 55 56 65 65 66 69 67 70 -177 -193 73 -193 76 76 76 77 79 76 77 76 74 73 75 75 75 -193 77 -209 -193 -209 -209 -209 100 101 99 -193 99 99 99 103 106 106 107 110 112 113 115 116 114 119 127 128 128 133 132 132 132 135 132 132 135 -177 -209 -209 -193 -193 -209 148 148 147 143 143 -193 -209 -193 -177 -193 -193 -177 -177 -193 861 -193 -209 156 154 160 159 -193 -193 -193 166 187 -209 195 190 190 -193 -193 -193 -177 -193 188 187 189 191 195 196 0 0 0 0 0
    0 0 0 0 0 0 0 0 0 0 0 0 0 0 0 0 0 0 0 0 0 0 0 0 0 0 0 0 0 0 0 0 0 0 0 0 0 0 0 0 0 0 0 0 0 0 0 0 0 0 0 0 0 0 0 0 0 0 0 0 0 0 0 0 0 0 0 0 0 52 52 52 52 47 -193 -193 -209 -193 50 46 41 41 42 42 41 -193 786 783 40 42 40 40 39 40 39 -193 40 40 36 38 38 37 33 31 27 -209 18 17 12 14 17 17 17 18 18 18 16 19 19 19 19 19 19 19 20 20 19 18 16 16 15 15 15 12 10 10 10 10 10 11 11 12 12 13 13 14 14 13 14 13 13 14 14 13 14 15 16 16 15 15 15 14 15 14 13 14 12 14 13 13 12 12 12 11 11 12 11 11 11 12 11 11 11 11 11 11 12 17 22 24 28 30 30 33 36 39 40 39 42 42 42 45 45 48 47 50 56 56 -193 65 67 67 70 69 71 -193 74 74 76 77 77 77 78 80 76 78 77 74 73 75 75 75 -193 77 -209 -193 -209 -209 -209 98 -177 99 102 100 99 -193 -193 107 106 107 110 113 114 116 116 115 119 127 127 127 132 133 133 133 135 -193 896 135 -193 -209 -209 -193 -193 -177 147 148 147 143 143 324 -209 -193 -193 -193 -209 -177 -177 859 861 -177 -177 156 154 161 160 -193 -193 -193 167 186 190 195 192 191 -193 -193 -193 -193 -193 -193 187 188 190 194 196 0 0 0 0 0
    0 0 0 0 0 0 0 0 0 0 0 0 0 0 0 0 0 0 0 0 0 0 0 0 0 0 0 0 0 0 0 0 0 0 0 0 0 0 0 0 0 0 0 0 0 0 0 0 0 0 0 0 0 0 0 0 0 0 0 0 0 0 0 0 0 0 0 0 0 52 52 52 52 48 -193 -193 -193 55 52 48 42 41 42 42 41 -193 786 783 40 42 40 39 39 40 39 -193 40 40 36 38 38 37 33 31 -193 665 16 15 11 13 17 16 16 17 18 18 17 19 20 21 21 20 20 19 20 20 18 17 15 15 14 13 13 11 10 10 9 9 10 10 11 12 12 13 13 14 14 13 14 14 13 14 14 14 15 16 18 17 17 17 16 16 17 15 14 14 12 13 12 13 12 11 12 11 10 12 11 12 12 12 12 11 11 11 11 11 12 17 22 24 28 30 30 32 35 39 40 39 42 43 42 45 45 49 48 49 57 57 -209 65 68 69 71 71 73 76 75 75 78 78 78 78 78 81 77 78 78 74 72 75 74 75 -193 77 -193 -193 -193 -209 -209 -177 -177 -177 102 101 100 -193 -193 107 107 107 110 114 115 116 116 115 119 126 126 126 132 133 133 134 -193 -193 897 135 -193 138 -193 -193 -193 -177 147 148 147 143 144 324 -209 -193 -193 -193 -193 -177 -193 859 861 859 -177 157 155 164 162 160 164 163 167 186 -177 196 194 191 -193 -193 -193 -193 -193 -193 187 188 190 194 195 0 0 0 0 0
    0 0 0 0 0 0 0 0 0 0 0 0 0 0 0 0 0 0 0 0 0 0 0 0 0 0 0 0 0 0 0 0 0 0 0 0 0 0 0 0 0 0 0 0 0 0 0 0 0 0 0 0 0 0 0 0 0 0 0 0 0 0 0 0 0 0 0 0 0 52 52 52 52 48 51 -193 55 53 51 48 41 41 42 42 41 -193 786 783 40 41 39 39 38 39 38 -193 39 40 35 38 38 38 33 -193 665 665 -193 -193 10 13 16 16 16 17 18 18 17 20 21 22 21 20 20 19 19 20 18 17 15 14 14 13 13 11 9 9 0 0 9 10 10 11 11 12 13 13 14 13 14 14 13 14 14 14 15 17 19 17 19 19 18 18 19 17 15 15 13 13 13 13 12 11 11 11 10 12 12 12 12 13 12 12 12 11 11 11 11 17 -193 24 28 30 30 32 34 38 39 39 42 43 42 45 45 49 50 49 57 57 -209 65 69 70 72 -193 -177 78 77 77 79 79 79 79 79 81 76 77 77 74 72 75 74 -193 -193 -193 -193 78 85 -193 -209 -177 -177 99 102 102 101 -193 105 108 107 108 111 115 116 117 117 116 119 126 126 126 132 -193 -193 -193 900 896 897 136 139 138 -193 -193 -193 -177 146 147 147 143 144 323 -193 -193 -193 -193 -193 -177 -209 859 862 -177 -177 -193 156 165 163 161 163 163 166 -177 191 196 193 191 -209 -193 195 -193 -193 -193 187 188 189 193 195 0 0 0 0 0
    0 0 0 0 0 0 0 0 0 0 0 0 0 0 0 0 0 0 0 0 0 0 0 0 0 0 0 0 0 0 0 0 0 0 0 0 0 0 0 0 0 0 0 0 0 0 0 0 0 0 0 0 0 0 0 0 0 0 0 0 0 0 0 0 0 0 0 0 0 52 52 52 52 49 51 -193 54 52 50 47 41 41 41 42 41 -193 786 783 39 41 39 38 38 39 38 -193 39 39 35 38 39 38 -193 -193 665 665 658 665 9 13 16 16 16 17 17 18 17 20 21 21 20 19 20 19 19 19 17 16 14 13 13 12 12 10 9 9 0 0 9 9 9 11 11 12 13 13 13 13 14 14 13 14 15 15 16 18 20 19 20 20 20 19 20 19 16 16 14 14 13 13 13 11 11 10 10 12 11 13 12 13 13 12 12 12 12 12 11 17 -193 24 27 30 30 32 34 38 39 39 42 43 42 44 46 49 51 49 57 58 -193 65 70 71 72 -177 -177 79 78 78 80 79 79 79 78 81 76 77 77 -193 71 -193 -193 -193 -177 -177 -177 78 84 87 -193 -193 95 97 100 100 100 101 105 108 107 108 111 116 117 117 117 116 119 126 126 126 131 -209 -193 -193 900 896 898 136 140 139 -193 -193 740 -177 145 147 147 -193 -193 323 -193 -193 933 -193 -193 -177 -193 859 862 -177 -193 -209 157 165 163 160 161 162 165 173 187 195 -209 188 -209 -193 194 -193 -193 -193 187 188 189 192 -193 0 0 0 0 0
    0 0 0 0 0 0 0 0 0 0 0 0 0 0 0 0 0 0 0 0 0 0 0 0 0 0 0 0 0 0 0 0 0 0 0 0 0 0 0 0 0 0 0 0 0 0 0 0 0 0 0 0 0 0 0 0 0 0 0 0 0 0 0 0 0 0 0 0 0 52 52 52 53 49 51 -193 -193 51 48 45 40 40 41 41 41 41 -193 783 39 41 39 38 38 39 38 -193 39 39 35 38 39 -193 -193 667 666 666 660 666 -193 13 16 15 16 17 17 18 17 20 20 21 20 18 19 18 17 17 15 15 14 13 13 12 12 10 9 0 0 0 9 9 9 10 10 11 12 12 12 12 14 13 13 14 15 15 17 18 20 19 20 20 20 19 20 19 18 17 15 14 14 14 13 12 11 11 10 12 12 13 12 13 12 12 12 12 12 12 11 17 22 24 26 30 30 31 33 38 39 39 42 43 43 44 46 50 51 48 58 58 58 66 71 -177 -177 -177 -177 -177 79 79 81 80 80 79 78 80 76 76 76 -193 70 -193 -193 -193 -177 -177 -177 -193 84 86 -193 -193 93 95 98 98 99 101 105 108 107 108 112 116 117 117 117 116 119 125 125 125 131 -193 896 896 900 896 898 -193 -177 139 -193 -193 740 -177 -193 -193 -193 -193 323 323 324 -193 -193 -193 -193 -177 -193 859 864 -193 -193 -193 159 164 162 159 160 161 164 170 -193 -209 -193 -193 -209 -193 194 -193 -193 -193 187 188 189 192 194 0 0 0 0 0
    0 0 0 0 0 0 0 0 0 0 0 0 0 0 0 0 0 0 0 0 0 0 0 0 0 0 0 0 0 0 0 0 0 0 0 0 0 0 0 0 0 0 0 0 0 0 0 0 0 0 0 0 0 0 0 0 0 0 0 0 0 0 0 0 0 0 0 0 0 52 52 53 53 50 52 -193 53 50 47 44 40 39 41 41 41 41 -193 782 40 41 40 39 38 39 38 -193 39 40 35 38 39 -209 -193 669 668 668 664 668 -193 13 16 16 17 17 18 19 18 20 20 20 19 18 19 17 15 16 14 14 13 12 12 11 11 10 9 0 0 0 9 9 9 10 10 10 11 11 11 12 13 13 12 13 16 15 17 19 20 19 20 21 21 19 20 20 18 17 16 15 15 14 14 12 11 11 11 12 11 12 11 12 11 12 11 11 12 12 12 17 22 24 26 30 31 32 33 38 40 40 42 43 43 44 46 50 52 48 58 59 59 66 72 73 73 -193 77 -177 79 79 81 79 79 79 78 79 75 76 76 -193 70 -193 -209 -193 -177 -177 -177 -193 83 86 -193 -193 92 94 96 96 99 100 104 108 108 108 112 117 118 118 117 116 118 124 124 125 132 -177 896 -193 899 -177 897 -193 -177 -177 -193 -193 -193 -177 -193 -193 -193 -193 324 324 324 323 -193 -193 -193 -193 -193 860 -193 -209 0 0 -209 164 163 160 160 161 165 169 177 -193 -193 -209 -193 -193 193 -193 -193 -193 187 188 189 192 193 0 0 0 0 0
    0 0 0 0 0 0 0 0 0 0 0 0 0 0 0 0 0 0 0 0 0 0 0 0 0 0 0 0 0 0 0 0 0 0 0 0 0 0 0 0 0 0 0 0 0 0 0 0 0 0 0 0 0 0 0 0 0 0 0 0 0 0 0 0 0 0 0 0 0 52 52 53 53 50 51 -193 51 47 45 43 40 40 41 42 42 42 43 782 -193 42 40 40 39 39 39 39 40 40 35 38 39 -193 -193 -193 671 670 -193 -209 -193 15 18 18 19 18 20 20 19 20 20 20 18 17 18 15 14 15 13 13 13 12 12 11 12 11 10 9 9 0 9 9 9 10 10 10 11 11 11 11 13 13 12 13 17 15 18 19 20 19 21 21 21 19 21 20 18 18 17 15 15 15 14 13 11 11 11 11 11 11 11 11 11 11 11 10 11 12 12 16 22 24 26 30 32 33 34 37 40 40 42 44 44 44 47 50 52 49 58 60 60 67 72 73 74 -193 77 -177 79 79 81 79 79 79 77 78 74 75 76 71 69 -209 -209 -193 -177 -177 -177 -193 83 85 -193 -193 91 93 94 95 99 100 105 108 108 109 113 117 118 118 117 116 118 123 124 125 132 371 -193 -193 -193 895 897 -193 -177 -177 -193 140 -177 -177 -193 -193 -193 -193 324 324 325 323 -193 328 329 -193 331 -193 -209 -193 -193 -193 -193 -209 -193 -193 162 165 166 170 -193 -177 -193 180 -193 -193 192 -193 -193 -193 186 187 188 191 193 0 0 0 0 0
    0 0 0 0 0 0 0 0 0 0 0 0 0 0 0 0 0 0 0 0 0 0 0 0 0 0 0 0 0 0 0 0 0 0 0 0 0 0 0 0 0 0 0 0 0 0 0 0 0 0 0 0 0 0 0 0 0 0 0 0 0 0 0 0 0 0 0 0 0 52 52 52 53 49 49 52 47 45 43 43 40 40 42 43 43 42 44 -193 41 42 41 40 39 40 39 39 39 40 35 38 39 38 34 34 -193 -193 20 14 13 17 20 20 21 20 21 22 19 19 20 18 16 15 16 14 13 14 13 13 13 12 12 11 12 11 11 10 9 9 9 9 9 9 9 9 10 10 10 11 13 12 12 13 18 16 19 20 20 20 22 21 22 20 21 21 19 18 18 16 16 15 14 13 12 12 12 12 11 12 11 11 10 10 10 10 11 12 11 15 22 24 26 31 32 33 33 37 40 40 42 44 44 45 49 51 53 51 58 59 60 67 72 73 73 78 77 79 79 79 81 78 79 79 77 78 74 75 75 71 69 72 72 -193 -177 -193 -193 -193 83 85 84 -193 90 93 92 94 99 101 105 109 109 110 114 117 118 118 117 116 117 122 124 126 132 372 -193 138 -193 -177 -177 -193 142 140 138 140 -193 -193 144 146 147 -193 -193 324 325 -177 -177 328 330 -209 -177 -193 -209 -209 -209 -193 -209 -209 -193 -193 163 166 167 170 -193 -177 -193 177 -193 -193 -193 -193 -193 -193 186 187 189 191 192 0 0 0 0 0
    0 0 0 0 0 0 0 0 0 0 0 0 0 0 0 0 0 0 0 0 0 0 0 0 0 0 0 0 0 0 0 0 0 0 0 0 0 0 0 0 0 0 0 0 0 0 0 0 0 0 0 0 0 0 0 0 0 0 0 0 0 0 0 0 0 0 0 0 0 52 52 52 53 49 47 48 44 43 43 43 41 40 43 44 43 43 44 -193 41 43 41 40 39 40 39 39 39 40 35 38 39 38 34 35 28 28 21 14 15 20 22 21 23 22 23 24 22 20 20 18 16 14 15 14 13 14 12 13 12 12 11 11 12 11 11 10 9 9 9 9 9 9 9 9 10 10 10 11 12 12 12 13 18 16 20 20 20 20 21 21 22 20 22 21 19 19 18 16 16 15 15 13 13 12 12 12 12 12 11 11 11 10 10 10 11 12 11 16 23 25 27 31 33 34 34 37 40 40 42 44 44 45 48 51 52 50 57 58 59 66 71 72 73 78 76 78 78 78 79 77 78 78 76 77 73 74 75 71 69 72 72 75 76 -193 -193 81 84 86 85 89 90 93 92 94 100 101 105 110 110 111 114 117 118 117 117 116 117 122 124 126 133 373 138 138 138 -177 -177 -193 142 140 139 140 -193 141 143 146 146 -193 -193 324 -177 -177 -209 -209 331 -209 -177 -193 -193 -193 -193 12 12 11 -193 -193 162 -193 -193 -193 -209 -177 -177 174 -193 -193 -193 -177 -177 -193 187 188 189 191 192 0 0 0 0 0
    0 0 0 0 0 0 0 0 0 0 0 0 0 0 0 0 0 0 0 0 0 0 0 0 0 0 0 0 0 0 0 0 0 0 0 0 0 0 0 0 0 0 0 0 0 0 0 0 0 0 0 0 0 0 0 0 0 0 0 0 0 0 0 0 0 0 0 0 0 53 52 52 53 49 46 -193 42 43 44 45 42 41 45 45 45 44 45 43 42 43 42 41 40 40 39 39 40 40 35 38 40 39 35 37 29 29 21 15 19 23 24 23 26 26 30 41 -193 -193 23 21 18 16 16 15 14 14 12 13 12 12 11 11 12 11 11 10 9 10 9 9 9 9 9 9 9 9 9 10 11 11 11 12 17 15 19 18 19 19 20 20 21 19 21 21 19 19 19 17 16 15 15 14 13 12 13 12 12 12 11 11 11 10 10 10 11 12 11 17 23 25 26 30 32 34 34 37 39 41 42 45 45 45 48 50 51 50 55 57 58 64 71 71 72 77 75 77 77 77 78 77 78 78 75 77 74 75 75 71 69 72 72 76 76 81 -193 -193 85 87 87 90 91 93 92 93 99 100 105 109 111 111 115 116 117 117 116 115 116 121 124 126 133 373 138 138 139 -193 -177 138 143 141 139 140 141 141 142 144 145 -193 -193 -177 -177 -193 -209 -193 -177 -209 -177 -193 -193 15 14 15 15 15 -193 17 -193 -193 -193 -209 -209 -177 -177 -193 -177 -177 -193 -177 -177 857 187 188 190 192 193 0 0 0 0 0
    0 0 0 0 0 0 0 0 0 0 0 0 0 0 0 0 0 0 0 0 0 0 0 0 0 0 0 0 0 0 0 0 0 0 0 0 0 0 0 0 0 0 0 0 0 0 0 0 0 0 0 0 0 0 0 0 0 0 0 0 0 0 0 0 0 0 0 0 0 53 53 52 53 49 45 -193 42 45 47 49 44 43 48 47 46 46 46 44 43 44 43 42 41 41 40 40 40 40 37 38 40 40 37 39 31 31 23 21 22 26 31 25 34 41 41 42 43 42 -193 21 19 16 16 15 15 14 12 13 12 12 11 11 12 11 11 11 10 11 9 10 9 9 9 9 9 9 9 9 10 10 11 11 16 14 17 17 18 17 19 19 20 18 20 20 19 18 19 17 15 15 15 14 14 12 13 12 11 12 11 11 11 10 11 11 12 13 12 18 23 25 25 29 31 33 34 37 39 41 42 45 46 45 48 49 51 50 53 56 57 62 70 70 71 75 74 75 76 76 77 75 77 77 75 76 74 75 75 70 68 72 72 77 77 83 86 86 88 89 90 93 93 93 93 96 100 101 105 110 112 111 115 116 116 117 116 115 116 121 125 129 134 373 138 138 139 -193 895 139 143 141 -193 141 141 141 142 143 144 -193 142 -177 -177 -193 -193 -193 -177 -209 -177 -193 19 18 17 18 17 17 15 18 -193 -193 -209 689 -193 -177 -193 -193 -177 -177 -193 -193 -177 -177 187 188 191 193 194 0 0 0 0 0
    0 0 0 0 0 0 0 0 0 0 0 0 0 0 0 0 0 0 0 0 0 0 0 0 0 0 0 0 0 0 0 0 0 0 0 0 0 0 0 0 0 0 0 0 0 0 0 0 0 0 0 0 0 0 0 0 0 0 0 0 0 0 0 0 0 0 0 0 0 54 53 52 53 49 45 -193 45 50 51 53 49 46 51 50 49 48 48 47 44 46 45 43 42 42 41 41 41 42 39 40 41 41 40 42 37 36 25 24 24 34 41 41 39 43 42 43 44 43 -193 22 21 17 16 14 14 14 12 12 11 12 11 11 11 11 11 11 10 11 10 10 9 10 9 9 9 0 9 10 9 10 11 11 16 14 17 16 17 17 18 18 20 17 20 19 19 18 18 16 15 15 15 14 14 12 13 12 11 12 11 12 12 11 12 13 14 17 16 20 23 24 24 27 28 31 32 36 39 41 42 44 46 45 47 48 50 50 52 56 57 61 69 68 70 73 72 73 74 74 75 74 75 75 73 75 73 74 74 69 69 73 75 82 83 89 89 90 90 91 92 95 94 95 94 99 100 102 105 110 113 112 115 115 116 117 116 114 115 121 127 132 135 141 138 138 138 138 -193 138 143 141 -193 141 142 142 142 143 143 -209 141 -193 -193 -193 -193 -193 -177 -209 -193 -209 21 20 20 19 19 19 -193 18 -193 -193 -209 -193 -193 -177 -193 173 -177 -193 -193 -209 -193 -209 187 189 192 193 195 0 0 0 0 0
    0 0 0 0 0 0 0 0 0 0 0 0 0 0 0 0 0 0 0 0 0 0 0 0 0 0 0 0 0 0 0 0 0 0 0 0 0 0 0 0 0 0 0 0 0 0 0 0 0 0 0 0 0 0 0 0 0 0 0 0 0 0 0 0 0 0 0 0 0 53 52 52 53 49 45 -193 -193 -193 54 55 53 51 53 52 51 50 50 49 46 47 47 44 43 44 43 43 43 44 42 43 44 44 42 44 42 40 28 28 32 39 45 42 42 45 44 45 46 45 44 23 22 19 17 16 15 14 12 12 11 12 11 11 11 11 11 12 11 11 10 11 10 10 10 9 9 9 9 10 9 10 10 11 15 13 16 15 16 16 18 17 19 17 20 18 19 17 18 16 15 14 14 14 14 13 13 12 12 12 12 12 12 11 13 14 15 18 18 19 21 23 23 25 26 28 31 34 38 41 42 44 46 46 48 48 50 51 51 56 57 61 69 67 69 72 71 72 73 73 73 72 74 74 72 74 73 74 74 69 70 75 78 87 88 91 91 92 92 93 95 98 96 96 95 101 101 103 105 110 113 112 115 115 115 116 116 114 116 122 129 134 135 141 138 138 138 138 138 138 142 141 -193 142 142 142 142 142 143 -193 141 143 -209 -209 -177 -193 -209 24 -209 24 22 21 20 20 20 19 -193 19 -193 -209 -193 -193 -193 -193 173 173 -193 -193 181 -193 -209 -193 187 189 193 194 195 0 0 0 0 0
    0 0 0 0 0 0 0 0 0 0 0 0 0 0 0 0 0 0 0 0 0 0 0 0 0 0 0 0 0 0 0 0 0 0 0 0 0 0 0 0 0 0 0 0 0 0 0 0 0 0 0 0 0 0 0 0 0 0 0 0 0 0 0 0 0 0 0 0 0 52 52 52 53 51 50 -193 53 55 55 56 55 53 54 53 52 52 51 50 48 49 48 45 45 46 45 45 45 46 46 47 48 48 45 47 45 43 41 32 38 40 49 44 44 47 47 48 49 48 47 -193 23 20 19 18 17 15 12 12 11 12 11 11 11 11 12 12 11 12 10 11 10 11 10 9 9 9 10 10 10 9 10 10 12 12 15 14 16 15 17 16 19 17 19 18 19 16 18 16 14 14 14 13 14 13 13 12 12 12 13 13 14 12 14 16 16 18 19 18 21 22 23 24 25 28 30 32 38 41 42 44 46 47 48 49 50 52 52 56 57 61 69 67 69 71 70 71 71 72 72 70 72 72 70 73 73 74 73 71 71 78 84 90 91 94 94 95 96 97 98 100 98 98 97 103 103 105 107 112 114 113 115 114 115 116 115 114 116 123 131 135 136 141 138 137 138 138 138 138 142 141 139 142 143 143 142 142 143 -193 142 144 -209 -209 -177 -209 -209 24 24 24 22 22 21 21 21 20 -193 19 -193 -209 170 -193 -193 171 172 173 -193 -177 180 -209 -193 -193 188 191 194 195 196 0 0 0 0 0
    0 0 0 0 0 0 0 0 0 0 0 0 0 0 0 0 0 0 0 0 0 0 0 0 0 0 0 0 0 0 0 0 0 0 0 0 0 0 0 0 0 0 0 0 0 0 0 0 0 0 0 0 0 0 0 0 0 0 0 0 0 0 0 0 0 0 0 0 0 52 52 51 53 52 51 53 54 56 56 56 55 55 55 54 53 53 52 51 49 49 49 45 45 47 45 45 46 46 47 49 50 49 47 49 47 44 45 43 42 41 52 46 47 49 49 48 49 49 48 42 40 23 19 20 18 17 13 12 12 13 11 12 11 11 12 12 12 12 10 12 10 11 11 10 9 9 10 10 10 9 10 9 10 11 14 13 15 14 17 16 19 18 19 17 19 15 16 15 14 13 13 13 14 12 13 12 12 13 14 15 17 14 18 20 19 21 20 20 21 21 23 24 24 27 29 30 36 41 42 43 46 47 49 49 50 52 51 56 57 61 69 66 68 71 69 70 70 71 71 70 72 72 70 74 73 74 74 73 72 78 87 92 93 97 96 98 98 99 100 101 100 100 99 104 104 106 109 113 114 113 115 114 114 115 115 114 117 123 131 134 135 139 138 137 137 138 138 138 142 141 139 143 144 143 142 142 144 140 142 144 -209 -193 -209 -209 -209 24 24 24 22 -177 -177 -177 -177 20 -193 -193 -177 -177 170 171 171 171 172 173 171 175 -193 -209 0 0 -193 -193 195 196 197 0 0 0 0 0
    0 0 0 0 0 0 0 0 0 0 0 0 0 0 0 0 0 0 0 0 0 0 0 0 0 0 0 0 0 0 0 0 0 0 0 0 0 0 0 0 0 0 0 0 0 0 0 0 0 0 0 0 0 0 0 0 0 0 0 0 0 0 0 0 0 0 0 0 0 53 52 51 53 53 52 54 54 56 56 56 56 55 55 55 55 54 53 52 50 50 49 46 46 47 44 45 46 46 47 49 50 50 49 50 48 48 48 48 45 46 54 48 49 50 50 50 50 50 49 43 42 -193 20 21 19 18 14 13 12 14 11 12 12 12 12 12 12 12 10 12 10 11 11 11 10 9 10 10 10 9 10 9 9 10 13 12 15 15 17 16 18 18 19 16 19 14 16 14 13 13 13 12 14 12 13 12 12 14 16 18 20 18 21 22 21 23 22 22 23 23 23 24 24 27 29 30 36 41 42 44 46 48 49 49 50 52 51 56 56 59 68 65 66 69 67 69 69 70 70 69 72 72 71 75 74 75 74 73 73 77 85 91 92 95 94 97 97 98 99 100 99 99 99 104 103 106 109 113 115 114 115 115 114 115 115 114 117 123 129 132 134 137 137 137 137 138 138 138 141 141 139 143 144 143 142 142 143 140 141 142 138 -193 -209 -193 -193 24 24 24 22 22 -177 -177 -193 -193 -193 -193 95 -177 -193 170 171 171 172 172 171 175 -193 -193 0 0 -193 -193 -193 197 198 0 0 0 0 0
    0 0 0 0 0 0 0 0 0 0 0 0 0 0 0 0 0 0 0 0 0 0 0 0 0 0 0 0 0 0 0 0 0 0 0 0 0 0 0 0 0 0 0 0 0 0 0 0 0 0 0 0 0 0 0 0 0 0 0 0 0 0 0 0 0 0 0 0 0 53 53 52 53 55 53 54 55 56 56 56 56 56 56 56 56 55 54 52 50 50 50 47 48 49 45 46 47 46 48 50 50 50 50 52 50 51 51 51 47 50 54 50 51 51 51 50 50 50 49 43 43 41 23 23 21 20 15 14 13 14 11 12 11 12 12 12 12 13 10 12 11 12 12 11 10 10 10 10 10 9 10 9 9 9 13 12 15 14 16 16 17 18 18 16 19 14 16 14 12 13 13 12 14 12 12 12 13 14 19 21 22 21 22 24 23 23 23 22 23 23 23 24 24 27 29 31 37 42 43 45 47 49 49 48 48 51 50 56 56 58 68 64 65 68 66 68 68 69 69 68 71 71 70 74 73 74 74 72 72 76 84 90 91 94 93 96 96 97 98 98 97 98 98 102 102 106 109 112 116 115 116 115 115 116 116 116 118 123 130 131 133 136 136 136 136 137 138 137 141 141 140 143 144 144 142 142 143 140 140 141 137 -209 -209 -193 -193 25 25 25 23 -193 -193 -193 -193 -193 -193 -193 -193 -177 -193 171 171 171 172 172 -193 -193 -193 -193 0 0 0 0 -193 198 -193 0 0 0 0 0
    0 0 0 0 0 0 0 0 0 0 0 0 0 0 0 0 0 0 0 0 0 0 0 0 0 0 0 0 0 0 0 0 0 0 0 0 0 0 0 0 0 0 0 0 0 0 0 0 0 0 0 0 0 0 0 0 0 0 0 0 0 0 0 0 0 0 0 0 0 53 53 52 54 55 53 55 56 57 57 57 57 57 56 57 57 56 54 53 51 51 50 47 48 49 44 45 46 45 47 48 49 51 50 51 51 51 51 52 49 51 54 49 52 52 51 51 51 51 50 44 45 42 38 24 22 21 16 14 13 15 11 12 11 11 11 12 12 13 11 13 11 12 12 11 10 10 10 10 10 9 10 9 9 9 12 12 15 14 16 17 17 18 18 16 19 13 16 14 12 13 12 12 13 11 12 12 13 16 21 23 23 23 23 24 23 23 23 23 22 22 23 24 24 26 29 32 36 43 44 45 48 50 50 49 48 52 52 57 58 59 68 64 64 68 66 67 67 68 69 67 70 70 69 74 73 75 74 72 72 75 82 90 91 94 93 95 96 97 97 98 98 98 98 102 102 106 109 114 116 115 116 116 116 117 117 118 119 123 130 130 132 135 136 136 136 137 137 136 139 140 139 141 143 144 143 143 144 142 140 142 138 -193 -193 -193 -193 26 -193 -193 -193 159 162 163 -193 -193 -193 -177 -177 -193 173 173 174 173 173 -193 -193 -193 -209 -193 0 0 -193 0 -193 199 -193 0 0 0 0 0
    0 0 0 0 0 0 0 0 0 0 0 0 0 0 0 0 0 0 0 0 0 0 0 0 0 0 0 0 0 0 0 0 0 0 0 0 0 0 0 0 0 0 0 0 0 0 0 0 0 0 0 0 0 0 0 0 0 0 0 0 0 0 0 0 0 0 0 0 0 54 53 52 54 56 54 56 56 57 57 57 57 57 56 57 57 55 53 52 51 50 49 47 48 49 43 44 46 44 46 47 49 50 51 52 51 52 52 52 52 53 54 51 53 53 53 53 53 52 52 48 48 44 42 26 21 21 16 15 14 15 11 11 11 11 11 12 13 13 11 14 12 13 13 11 11 11 11 11 10 10 10 10 10 10 14 12 17 15 18 18 18 18 18 17 20 14 17 15 13 13 13 13 14 12 12 13 15 19 22 23 23 23 23 23 23 22 22 22 22 -193 -193 -193 24 26 29 33 36 43 45 45 48 50 51 50 49 52 54 59 59 60 68 64 64 68 66 68 66 67 68 66 69 69 67 73 69 73 73 71 72 75 80 88 89 93 93 95 95 97 97 98 98 99 98 102 102 106 110 114 116 115 116 117 117 117 117 118 120 123 131 131 132 135 136 136 136 136 136 135 138 140 139 141 142 144 144 144 146 145 142 147 144 -193 -193 -193 -193 -193 156 158 160 161 163 164 167 -193 -193 -193 -193 -193 175 175 177 175 176 176 174 179 -209 0 0 0 0 0 -193 199 -193 0 0 0 0 0
    0 0 0 0 0 0 0 0 0 0 0 0 0 0 0 0 0 0 0 0 0 0 0 0 0 0 0 0 0 0 0 0 0 0 0 0 0 0 0 0 0 0 0 0 0 0 0 0 0 0 0 0 0 0 0 0 0 0 0 0 0 0 0 0 0 0 0 0 0 54 54 54 56 57 55 56 57 58 57 57 57 56 55 57 56 53 51 51 50 49 49 47 48 50 43 44 46 44 46 47 49 50 51 51 51 51 52 53 53 53 54 51 53 54 54 54 54 53 54 51 51 46 45 33 22 23 18 16 16 16 11 11 11 12 11 13 13 13 12 14 13 13 13 12 11 11 11 12 11 10 10 10 11 12 16 13 18 16 19 19 19 19 19 18 20 15 19 15 14 14 13 14 14 14 13 14 17 20 22 23 23 23 22 23 22 21 21 22 22 22 22 24 24 26 29 33 35 43 45 45 47 50 51 50 49 52 55 60 60 62 69 65 65 68 66 68 66 67 67 65 68 69 66 72 66 73 73 73 74 78 84 89 90 93 94 96 95 96 95 97 97 99 97 100 101 106 110 114 116 116 116 117 117 117 117 119 121 123 130 130 130 134 136 136 135 136 136 135 137 139 139 140 142 144 145 146 147 147 145 150 151 155 156 155 157 158 159 161 163 164 165 167 168 169 171 -193 -193 175 177 178 179 177 179 179 178 181 -193 -193 -193 -193 195 -193 198 199 -193 0 0 0 0 0
    0 0 0 0 0 0 0 0 0 0 0 0 0 0 0 0 0 0 0 0 0 0 0 0 0 0 0 0 0 0 0 0 0 0 0 0 0 0 0 0 0 0 0 0 0 0 0 0 0 0 0 0 0 0 0 0 0 0 0 0 0 0 0 0 0 0 0 0 0 54 55 55 57 59 56 57 58 58 58 57 57 56 54 57 56 54 52 52 51 51 51 49 51 53 42 46 46 45 46 47 50 51 51 51 51 52 53 53 53 53 54 52 54 54 55 55 55 54 54 53 52 47 48 41 -193 24 20 18 18 18 11 12 12 13 12 13 14 14 13 15 15 15 15 14 12 13 13 13 12 11 11 11 12 13 17 14 19 17 19 19 19 19 19 18 21 16 19 17 15 15 15 16 16 16 15 15 18 21 22 22 22 23 22 22 22 21 21 22 22 22 23 25 25 26 29 35 35 42 46 46 47 50 51 51 49 51 55 60 60 62 69 65 65 68 66 68 65 67 67 65 68 68 66 72 65 74 76 76 74 76 79 -209 -209 -193 -193 -193 94 93 95 94 94 94 92 91 97 104 110 115 117 117 117 118 118 118 118 119 121 122 128 128 129 133 136 136 136 136 136 135 136 139 138 139 141 143 146 147 148 148 146 151 153 156 158 157 159 160 161 162 165 167 167 169 171 172 174 177 -193 179 180 180 181 180 182 182 181 183 187 188 188 192 196 199 199 200 202 0 0 0 0 0
    0 0 0 0 0 0 0 0 0 0 0 0 0 0 0 0 0 0 0 0 0 0 0 0 0 0 0 0 0 0 0 0 0 0 0 0 0 0 0 0 0 0 0 0 0 0 0 0 0 0 0 0 0 0 0 0 0 0 0 0 0 0 0 0 0 0 0 0 0 55 55 56 57 60 57 58 58 58 58 57 57 56 53 57 56 56 53 54 53 53 53 53 52 55 40 45 46 45 45 48 52 54 54 53 53 55 55 56 55 54 54 53 55 55 55 55 55 55 55 55 54 51 51 43 -193 24 21 20 19 19 12 13 13 13 12 14 14 15 13 16 17 16 18 16 16 16 15 17 15 13 13 13 15 15 18 15 19 18 19 19 19 19 19 18 20 16 19 17 17 17 16 17 17 18 17 17 19 22 22 23 22 23 22 22 23 21 21 23 23 23 24 26 26 27 30 35 34 42 46 45 46 48 49 49 48 48 54 59 60 62 69 65 65 68 66 67 64 66 66 64 67 68 64 71 62 74 78 77 76 76 -193 -209 -193 -209 -177 -209 93 92 93 93 94 91 89 89 97 107 113 117 117 118 118 119 119 118 118 120 121 122 126 126 127 131 136 136 136 136 136 135 137 140 139 139 140 142 145 147 147 148 146 150 153 156 158 156 157 159 160 162 165 166 167 169 171 173 175 -193 -193 181 181 181 182 183 185 184 183 184 187 188 190 193 196 200 200 201 204 0 0 0 0 0
    0 0 0 0 0 0 0 0 0 0 0 0 0 0 0 0 0 0 0 0 0 0 0 0 0 0 0 0 0 0 0 0 0 0 0 0 0 0 0 0 0 0 0 0 0 0 0 0 0 0 0 0 0 0 0 0 0 0 0 0 0 0 0 0 0 0 0 0 0 56 56 56 58 61 57 58 58 59 58 57 57 56 54 58 58 59 56 56 56 55 55 56 54 -193 -193 45 52 52 54 57 56 58 57 55 56 58 58 58 56 56 56 55 57 56 56 56 56 56 56 56 55 52 52 46 43 34 22 22 21 20 14 15 14 15 13 15 16 16 14 17 18 17 19 18 18 17 17 19 17 15 15 14 17 16 19 16 19 18 19 19 19 19 19 18 20 17 19 18 18 18 17 20 19 19 19 18 20 22 22 23 22 23 22 23 23 22 21 24 23 24 25 26 27 28 31 37 37 42 47 46 46 48 48 48 48 47 53 58 59 61 68 64 64 68 65 67 64 66 66 63 67 67 63 70 61 74 82 78 78 79 82 -193 -209 -193 -209 -209 93 92 92 92 93 90 89 88 92 106 113 117 118 119 118 119 120 119 119 119 121 121 125 125 125 129 136 136 136 136 135 135 137 140 139 139 140 142 145 147 147 148 145 149 -193 155 156 153 155 157 158 161 165 167 167 170 172 173 176 -193 -193 182 182 182 183 184 187 187 185 186 188 189 191 194 196 200 200 202 206 0 0 0 0 0
    0 0 0 0 0 0 0 0 0 0 0 0 0 0 0 0 0 0 0 0 0 0 0 0 0 0 0 0 0 0 0 0 0 0 0 0 0 0 0 0 0 0 0 0 0 0 0 0 0 0 0 0 0 0 0 0 0 0 0 0 0 0 0 0 0 0 0 0 0 57 58 58 59 62 59 59 60 60 58 58 57 57 54 59 60 60 57 58 57 56 57 56 54 54 42 48 56 57 58 60 59 60 59 57 58 59 58 58 57 56 56 56 58 58 57 58 58 58 58 57 57 54 54 50 46 42 -193 24 22 22 17 17 15 16 15 15 16 17 15 17 18 18 20 19 20 18 18 20 18 16 16 16 18 17 20 17 19 18 19 19 18 18 19 18 20 17 20 19 18 18 18 20 20 20 19 19 20 22 22 23 22 23 21 22 23 21 21 24 23 24 24 26 27 28 31 37 38 43 47 46 47 48 48 48 48 47 53 57 59 60 68 64 64 67 65 67 64 66 66 63 66 67 63 69 61 74 76 74 75 79 83 84 82 -193 -209 -193 91 90 90 89 91 89 88 88 90 89 -193 119 119 120 120 120 120 119 119 119 121 121 123 124 125 128 136 136 136 135 135 134 136 139 138 139 140 142 144 147 147 147 144 149 -193 155 155 153 155 157 159 162 165 167 167 171 172 174 177 -193 -193 182 183 183 184 186 189 189 188 188 190 190 193 195 195 199 199 201 205 0 0 0 0 0
    0 0 0 0 0 0 0 0 0 0 0 0 0 0 0 0 0 0 0 0 0 0 0 0 0 0 0 0 0 0 0 0 0 0 0 0 0 0 0 0 0 0 0 0 0 0 0 0 0 0 0 0 0 0 0 0 0 0 0 0 0 0 0 0 0 0 0 0 0 58 59 59 60 62 60 61 62 61 59 58 58 58 57 60 61 61 58 59 58 58 58 59 57 60 58 56 62 61 61 62 61 61 60 60 60 59 59 59 58 57 58 57 60 61 59 60 60 60 60 59 58 54 53 51 49 44 -193 30 23 22 19 18 15 16 15 15 16 17 16 18 18 19 21 20 22 20 20 21 20 16 16 17 19 18 20 17 20 18 19 19 18 18 18 18 20 17 20 19 18 18 19 21 20 20 19 19 20 22 22 22 22 23 21 21 22 20 20 23 22 23 23 26 26 27 31 37 39 43 47 46 47 48 48 48 49 47 53 56 59 60 68 64 64 67 65 67 64 66 66 63 67 67 63 70 63 74 75 74 75 77 83 85 82 -193 -209 -193 90 89 90 89 90 90 88 89 91 -193 102 119 119 119 119 120 121 119 119 119 121 121 124 125 126 129 137 137 136 136 135 134 135 138 137 138 138 140 143 147 147 148 145 150 -193 155 155 153 155 157 159 162 165 167 167 171 172 174 177 -193 -193 182 184 184 184 187 190 190 190 189 191 191 193 194 194 198 197 200 204 0 0 0 0 0
    0 0 0 0 0 0 0 0 0 0 0 0 0 0 0 0 0 0 0 0 0 0 0 0 0 0 0 0 0 0 0 0 0 0 0 0 0 0 0 0 0 0 0 0 0 0 0 0 0 0 0 0 0 0 0 0 0 0 0 0 0 0 0 0 0 0 0 0 0 58 59 59 60 61 60 62 63 62 60 59 59 58 57 59 59 60 58 59 59 59 61 65 63 68 63 62 67 64 65 64 63 64 62 63 62 60 61 61 60 59 58 58 61 62 61 61 61 61 61 60 61 54 54 52 50 45 43 41 23 22 20 19 15 17 16 15 16 17 17 18 19 20 22 22 23 22 22 22 22 18 18 19 20 19 20 18 20 18 20 19 18 18 18 18 20 17 20 19 18 19 20 22 21 21 20 20 20 22 22 22 21 22 20 21 22 20 20 23 22 23 23 26 26 28 32 37 39 43 47 46 46 47 48 48 50 48 53 -193 59 60 68 63 64 67 64 67 64 66 66 64 67 68 64 71 67 74 74 74 74 76 82 83 79 -193 -209 84 90 89 91 91 92 93 93 95 98 100 103 118 117 118 118 120 120 119 119 119 119 120 122 123 125 128 137 137 137 136 134 134 134 136 135 135 135 138 141 145 147 148 145 151 154 155 155 154 155 158 159 161 165 168 168 171 172 174 177 -193 -193 182 183 183 183 186 189 189 189 188 191 191 193 193 193 197 197 199 203 0 0 0 0 0
    0 0 0 0 0 0 0 0 0 0 0 0 0 0 0 0 0 0 0 0 0 0 0 0 0 0 0 0 0 0 0 0 0 0 0 0 0 0 0 0 0 0 0 0 0 0 0 0 0 0 0 0 0 0 0 0 0 0 0 0 0 0 0 0 0 0 0 0 0 59 60 60 60 61 61 63 64 63 60 60 59 59 57 57 57 59 59 59 59 60 63 65 66 70 67 67 70 67 67 67 66 66 63 64 63 61 63 63 62 61 60 59 63 62 61 62 62 62 62 61 61 54 53 52 49 45 43 41 24 22 22 20 17 19 17 17 18 19 18 19 21 22 23 24 25 24 24 24 23 19 18 20 20 20 21 19 20 19 20 19 18 18 18 18 20 17 20 19 20 20 21 22 21 22 20 20 21 22 22 22 20 22 19 21 22 20 19 22 22 23 23 26 26 28 32 37 40 43 46 46 46 47 48 48 50 48 53 56 58 60 67 63 63 67 64 67 64 67 66 65 68 68 65 72 70 74 74 75 74 76 83 83 79 -209 -209 82 89 87 91 92 92 94 94 96 99 101 103 116 116 118 118 120 119 118 118 118 118 119 120 120 123 126 136 136 137 135 133 134 134 135 134 134 134 135 139 142 144 146 144 150 154 155 155 155 156 159 159 162 166 168 168 171 172 174 -193 -193 -193 182 182 182 183 185 187 187 188 188 190 191 193 193 194 197 197 199 203 0 0 0 0 0
    0 0 0 0 0 0 0 0 0 0 0 0 0 0 0 0 0 0 0 0 0 0 0 0 0 0 0 0 0 0 0 0 0 0 0 0 0 0 0 0 0 0 0 0 0 0 0 0 0 0 0 0 0 0 0 0 0 0 0 0 0 0 0 0 0 0 0 0 0 60 60 60 60 62 62 63 63 62 58 59 59 59 58 57 58 60 60 60 60 62 66 68 70 73 70 71 71 69 69 69 69 68 65 67 66 65 69 69 67 62 61 60 64 62 62 63 61 61 62 61 61 53 53 51 48 45 43 41 -193 22 21 20 18 20 19 19 19 20 19 20 22 24 24 25 26 25 25 25 24 19 19 20 21 21 22 20 20 19 21 19 17 18 18 18 20 18 19 19 21 21 22 23 21 22 21 21 21 22 22 22 21 22 20 21 23 21 20 23 22 23 23 25 25 28 33 38 41 43 46 46 46 47 48 48 50 49 53 56 58 59 67 63 63 67 64 67 65 67 67 66 69 69 67 73 73 75 75 75 75 77 86 88 83 85 80 82 86 85 87 87 88 91 93 94 97 101 103 115 116 117 118 119 119 118 118 118 118 118 118 119 120 122 132 133 135 133 132 132 132 133 132 133 133 134 137 140 143 144 144 149 152 155 154 154 155 158 158 161 164 166 166 -193 170 -193 -193 -193 -193 182 182 181 182 185 186 186 187 187 189 190 192 193 193 196 196 198 202 0 0 0 0 0
    0 0 0 0 0 0 0 0 0 0 0 0 0 0 0 0 0 0 0 0 0 0 0 0 0 0 0 0 0 0 0 0 0 0 0 0 0 0 0 0 0 0 0 0 0 0 0 0 0 0 0 0 0 0 0 0 0 0 0 0 0 0 0 0 0 0 0 0 0 61 60 60 60 61 61 62 62 61 57 57 58 58 57 57 58 60 60 60 60 64 67 69 70 72 70 70 70 68 68 68 67 67 65 67 66 65 70 69 68 65 63 61 66 62 62 62 61 61 61 60 61 53 53 51 48 45 43 42 -193 22 22 21 18 21 20 20 20 21 19 21 24 27 27 26 28 26 26 26 26 19 19 20 20 21 22 20 21 20 21 19 16 18 18 17 20 18 19 19 22 21 22 23 21 22 21 21 21 23 22 23 22 23 21 22 23 22 21 23 22 24 24 25 25 28 34 38 41 43 46 46 47 47 48 48 51 50 53 56 58 59 67 63 63 67 64 67 65 68 68 67 70 70 68 73 74 75 75 75 76 80 88 89 87 87 85 85 86 85 86 86 87 89 92 94 96 100 103 114 114 116 117 119 118 117 117 117 116 117 117 118 117 122 128 129 133 132 130 131 130 130 130 131 132 133 133 139 142 143 144 148 150 153 153 152 152 153 155 158 161 -193 -209 -193 -209 -193 -193 -193 -193 -193 182 180 181 184 185 184 185 185 188 189 191 191 192 195 196 198 202 0 0 0 0 0
    0 0 0 0 0 0 0 0 0 0 0 0 0 0 0 0 0 0 0 0 0 0 0 0 0 0 0 0 0 0 0 0 0 0 0 0 0 0 0 0 0 0 0 0 0 0 0 0 0 0 0 0 0 0 0 0 0 0 0 0 0 0 0 0 0 0 0 0 0 61 60 60 59 61 61 61 61 60 56 57 57 57 55 54 56 57 58 58 58 63 67 69 70 72 70 70 70 68 68 68 67 67 65 66 65 65 69 68 68 65 64 62 66 62 62 63 61 61 61 60 60 54 53 52 48 45 43 42 -193 23 23 23 20 23 23 22 21 22 21 23 28 29 32 28 31 30 28 29 27 17 17 19 19 19 21 20 20 18 21 19 15 17 17 16 18 17 19 19 21 20 22 23 22 22 21 21 22 23 23 23 22 23 21 22 24 22 21 23 22 25 25 26 26 30 36 38 42 44 46 47 48 48 49 49 51 51 54 -209 58 59 66 64 64 68 65 67 66 69 69 69 71 71 70 74 74 75 76 75 77 81 87 88 87 87 87 87 88 87 86 87 87 89 92 95 97 102 103 115 114 116 116 118 117 116 117 116 115 116 117 118 117 122 127 127 130 132 129 130 130 129 129 131 132 132 131 138 142 142 143 147 148 151 150 147 149 148 152 157 157 -193 -209 -193 -193 -209 -209 -209 -193 -193 181 177 180 185 184 184 186 185 188 189 191 191 191 194 195 197 202 0 0 0 0 0
    0 0 0 0 0 0 0 0 0 0 0 0 0 0 0 0 0 0 0 0 0 0 0 0 0 0 0 0 0 0 0 0 0 0 0 0 0 0 0 0 0 0 0 0 0 0 0 0 0 0 0 0 0 0 0 0 0 0 0 0 0 0 0 0 0 0 0 0 0 61 60 59 59 60 60 60 60 59 55 56 57 57 56 55 56 57 57 58 58 62 65 69 70 72 70 70 70 68 68 68 66 66 64 66 65 64 68 66 66 64 63 62 67 62 62 63 61 61 61 60 60 53 53 52 48 46 44 43 42 25 25 24 22 25 25 25 23 24 23 24 35 36 39 36 37 39 37 37 34 15 15 18 18 18 21 21 21 17 22 20 14 15 14 15 -193 18 21 22 26 -209 23 24 22 23 21 21 22 23 23 23 22 -193 21 22 24 21 21 22 22 24 24 26 26 30 37 39 43 44 46 48 49 49 50 50 53 53 54 56 57 58 65 64 65 68 66 68 68 70 70 70 72 72 72 74 75 76 77 76 78 82 85 87 88 87 88 88 89 88 88 89 89 90 93 96 98 103 104 112 114 114 114 117 116 115 115 116 115 116 118 118 117 123 127 127 128 131 129 129 129 129 129 131 132 133 -193 139 142 143 143 147 146 149 148 148 150 -209 152 162 -209 -209 -209 -209 -209 -209 -209 -209 -209 -209 180 173 177 182 -209 183 188 186 189 -193 190 190 191 193 195 195 200 0 0 0 0 0
    0 0 0 0 0 0 0 0 0 0 0 0 0 0 0 0 0 0 0 0 0 0 0 0 0 0 0 0 0 0 0 0 0 0 0 0 0 0 0 0 0 0 0 0 0 0 0 0 0 0 0 0 0 0 0 0 0 0 0 0 0 0 0 0 0 0 0 0 0 62 60 60 60 60 60 61 61 60 57 57 58 58 57 56 56 56 57 57 58 61 63 69 71 72 70 71 70 68 68 68 66 66 64 65 64 63 67 65 66 63 62 61 67 63 62 64 62 61 62 61 61 54 54 52 48 47 45 44 43 27 29 26 25 27 28 29 26 29 32 36 40 42 42 41 42 43 42 42 42 -209 15 22 21 24 25 25 25 25 26 29 -193 -209 -209 -225 -225 -225 -225 -225 -225 -209 -209 21 21 21 19 20 21 21 22 22 22 -209 19 22 23 21 21 22 23 23 25 26 28 32 39 40 43 44 46 48 50 49 50 50 53 54 55 57 57 58 65 65 65 69 68 69 70 71 72 72 73 74 74 75 76 76 77 77 79 82 85 87 87 86 87 87 89 89 89 90 91 91 96 100 101 105 104 111 113 112 113 117 115 114 115 115 115 115 118 119 117 123 128 128 128 132 129 129 129 128 128 131 131 132 -209 138 143 144 144 147 147 151 -193 -193 154 -209 155 164 -209 -209 -209 -209 -209 -209 -209 -209 -209 -209 168 166 169 166 168 173 -193 184 188 -193 189 189 190 191 193 193 197 0 0 0 0 0
    0 0 0 0 0 0 0 0 0 0 0 0 0 0 0 0 0 0 0 0 0 0 0 0 0 0 0 0 0 0 0 0 0 0 0 0 0 0 0 0 0 0 0 0 0 0 0 0 0 0 0 0 0 0 0 0 0 0 0 0 0 0 0 0 0 0 0 0 0 62 61 60 60 60 60 61 62 61 58 58 59 58 57 56 55 56 56 56 57 59 62 69 71 73 70 71 70 69 69 68 67 67 65 65 64 62 67 65 67 63 61 60 68 63 63 63 61 61 61 61 60 54 54 52 48 48 47 45 44 31 37 33 27 32 37 38 36 37 40 42 43 45 43 43 43 44 43 43 43 -225 -225 -225 -225 -225 -225 -225 -225 -225 -225 -225 -225 -225 -225 -225 -225 -225 -225 -225 -225 -225 -225 -225 -225 -225 -225 -225 -225 -225 -225 -225 -225 -225 -225 -225 -225 21 21 23 24 24 27 28 32 36 40 41 43 44 45 47 49 48 49 50 54 54 55 58 58 59 65 66 67 69 69 70 71 73 73 74 74 75 75 75 77 77 79 78 81 83 85 87 87 87 88 88 90 90 90 92 93 93 99 102 102 105 105 109 112 111 112 116 114 114 114 115 115 115 119 119 118 124 128 128 128 132 129 129 128 128 127 130 131 132 -209 139 143 144 144 147 148 152 152 -193 -209 -209 -193 164 -209 -209 -209 -209 -209 -209 -209 -209 -209 -193 -193 167 168 165 164 168 -209 169 -209 -193 -193 188 189 191 193 192 196 0 0 0 0 0
    0 0 0 0 0 0 0 0 0 0 0 0 0 0 0 0 0 0 0 0 0 0 0 0 0 0 0 0 0 0 0 0 0 0 0 0 0 0 0 0 0 0 0 0 0 0 0 0 0 0 0 0 0 0 0 0 0 0 0 0 0 0 0 0 0 0 0 0 0 61 60 59 59 60 60 61 62 61 58 60 60 59 58 58 56 57 57 57 57 59 62 68 71 72 71 71 71 69 69 69 67 67 65 64 63 62 66 65 64 61 59 59 67 61 62 62 60 60 60 60 59 54 54 51 47 48 47 45 44 37 41 41 35 37 38 38 38 39 41 43 43 45 44 43 43 44 43 43 -225 -225 -225 -225 -225 -225 -225 -225 -225 -225 -225 -225 -225 -225 -225 -225 -225 -225 -225 -225 -225 -225 -225 -225 -225 -225 -225 -225 -225 -225 -225 -225 -225 -225 -225 -225 -225 -225 21 23 26 27 32 32 36 38 42 42 43 44 44 47 48 48 49 50 53 55 55 59 58 59 65 67 67 70 70 71 72 74 75 75 74 75 75 76 78 77 80 79 82 84 86 87 87 87 89 89 90 90 91 93 94 94 102 103 103 106 106 109 112 110 112 115 113 113 114 115 115 115 119 120 119 124 126 127 126 131 128 128 128 128 128 131 132 133 -209 140 146 145 144 147 147 151 -193 -193 -209 -209 -193 -209 -209 -209 -209 -193 -209 -209 -209 -209 -209 -193 -209 -193 170 -193 -193 -193 -193 -193 -209 -209 -209 -209 190 192 194 193 197 0 0 0 0 0
    0 0 0 0 0 0 0 0 0 0 0 0 0 0 0 0 0 0 0 0 0 0 0 0 0 0 0 0 0 0 0 0 0 0 0 0 0 0 0 0 0 0 0 0 0 0 0 0 0 0 0 0 0 0 0 0 0 0 0 0 0 0 0 0 0 0 0 0 0 62 61 59 60 60 61 62 63 61 59 60 61 61 60 60 58 58 59 57 57 59 61 67 70 72 71 72 70 69 69 69 68 67 65 64 62 62 65 63 60 59 58 58 66 61 61 61 59 60 60 60 59 54 54 52 48 48 48 46 45 41 42 42 39 40 40 40 41 40 42 44 45 46 45 44 44 44 43 43 -225 -225 -225 -225 -225 -225 -225 -225 -225 -225 -225 -225 -225 -225 -225 -225 -225 -225 -225 -225 -225 -225 -225 -225 -225 -225 -225 -225 -225 -225 -225 -225 -225 -225 -225 -225 -225 -225 -225 -225 28 30 35 35 38 40 43 43 45 45 45 47 49 48 49 50 53 54 54 58 58 59 65 68 68 70 72 72 74 75 76 76 75 76 76 76 78 78 80 79 82 84 86 87 87 87 89 89 91 91 92 95 96 96 102 103 103 105 106 108 110 109 111 115 113 113 114 114 115 115 119 120 119 124 125 126 126 130 128 128 128 129 128 132 132 133 -209 140 146 144 143 145 145 -193 -193 -193 -209 -209 -193 -209 -193 -193 -209 -193 -193 -209 -209 -209 -193 -209 -193 -209 -193 -209 -209 -209 -209 -209 -209 -209 -209 -209 -193 -193 193 191 194 0 0 0 0 0
    0 0 0 0 0 0 0 0 0 0 0 0 0 0 0 0 0 0 0 0 0 0 0 0 0 0 0 0 0 0 0 0 0 0 0 0 0 0 0 0 0 0 0 0 0 0 0 0 0 0 0 0 0 0 0 0 0 0 0 0 0 0 0 0 0 0 0 0 0 62 62 59 60 60 61 62 63 60 60 61 62 61 61 61 59 59 60 58 58 59 61 67 70 71 70 71 69 69 69 68 66 65 65 64 61 63 65 63 60 58 58 58 65 61 61 61 59 59 60 59 58 54 55 53 49 49 49 47 46 42 43 43 41 41 40 41 42 42 43 45 46 46 45 45 45 44 43 43 -225 -225 -225 -225 -225 -225 -225 -225 -225 -225 -225 -225 -225 -225 -225 -225 -225 -225 -225 -225 -225 -225 -225 -225 -225 -225 -225 -225 -225 -225 -225 -225 -225 -225 -225 -225 -225 -225 -225 -225 27 31 36 36 38 41 44 43 45 45 45 47 49 48 50 51 53 54 54 58 58 59 65 69 70 71 74 74 75 76 78 78 76 77 77 76 79 78 81 80 82 84 86 87 87 88 89 89 91 92 92 97 97 96 101 102 102 103 104 106 108 108 110 114 113 113 114 114 115 116 120 120 119 124 125 126 126 131 128 128 128 129 128 132 132 133 -193 139 145 143 141 142 143 -193 145 149 -209 -209 -209 -209 -209 -209 -209 -193 -193 -209 -209 -209 174 171 171 170 170 -209 -209 -209 -209 -209 -209 -209 -209 -209 -193 -193 188 188 192 0 0 0 0 0
    0 0 0 0 0 0 0 0 0 0 0 0 0 0 0 0 0 0 0 0 0 0 0 0 0 0 0 0 0 0 0 0 0 0 0 0 0 0 0 0 0 0 0 0 0 0 0 0 0 0 0 0 0 0 0 0 0 0 0 0 0 0 0 0 0 0 0 0 0 61 62 59 60 60 60 61 63 59 60 60 61 61 62 61 59 59 60 58 58 59 59 64 67 67 67 70 67 67 68 67 64 64 64 63 60 61 63 62 59 58 58 58 64 61 60 60 58 59 59 58 58 54 54 53 50 50 50 49 47 44 44 44 42 42 42 43 43 43 44 46 47 46 46 45 44 44 43 -225 -225 -225 -225 -225 -225 -225 -225 -225 -225 -225 -225 -225 -225 -225 -225 -225 -225 -225 -225 -225 -225 -225 -225 -225 -225 -225 -225 -225 -225 -225 -225 -225 -225 -225 -225 -225 -225 -225 -225 -225 -225 40 39 38 40 42 44 44 46 45 46 47 49 49 50 51 53 54 55 59 59 59 66 70 71 72 76 75 76 77 79 79 77 78 78 76 80 79 82 81 82 84 85 86 87 87 89 90 91 93 93 98 99 98 101 101 102 103 104 105 107 107 110 113 113 112 114 114 116 116 121 121 121 125 126 127 127 131 128 127 127 129 127 130 131 132 125 138 141 139 139 139 142 -193 143 149 -209 -209 -209 -209 -209 -209 -193 -209 -193 -209 -193 172 173 172 172 172 171 -193 176 -193 -209 -209 -209 -209 -209 187 188 189 189 188 -193 0 0 0 0 0
    0 0 0 0 0 0 0 0 0 0 0 0 0 0 0 0 0 0 0 0 0 0 0 0 0 0 0 0 0 0 0 0 0 0 0 0 0 0 0 0 0 0 0 0 0 0 0 0 0 0 0 0 0 0 0 0 0 0 0 0 0 0 0 0 0 0 0 0 0 61 61 59 60 60 60 61 63 59 61 61 62 62 62 62 60 59 60 59 58 0 -256 -1 5468 69 68 71 67 68 68 67 64 64 64 63 60 62 63 63 60 59 60 60 65 61 60 59 58 59 59 58 57 55 54 53 51 51 50 49 46 45 44 44 41 43 44 44 44 45 46 47 47 47 46 46 45 44 -225 -225 -225 -225 -225 -225 -225 -225 -225 -225 -225 -225 -225 -225 -225 -225 -225 -225 -225 -225 -225 -225 -225 -225 -225 -225 -225 -225 -225 -225 -225 -225 -225 -225 -225 -225 -225 -225 -225 -225 -225 -225 -225 -225 -225 40 42 45 48 46 48 48 48 48 50 49 50 51 53 54 55 59 59 60 66 71 71 72 77 76 77 77 79 80 77 78 79 76 80 79 81 81 81 83 84 85 86 87 89 90 92 94 96 100 101 100 102 102 102 103 104 105 107 107 110 113 113 113 114 114 117 117 122 123 122 127 128 129 129 132 129 128 128 129 127 128 130 130 124 137 138 136 137 136 141 146 141 148 -209 -209 -209 -209 -209 -209 -193 -209 -209 -209 170 172 173 173 174 174 173 176 179 -193 -209 -193 -193 189 190 190 191 190 190 191 194 0 0 0 0 0
    0 0 0 0 0 0 0 0 0 0 0 0 0 0 0 0 0 0 0 0 0 0 0 0 0 0 0 0 0 0 0 0 0 0 0 0 0 0 0 0 0 0 0 0 0 0 0 0 0 0 0 0 0 0 0 0 0 0 0 0 0 0 0 0 0 0 0 0 0 61 61 60 61 61 61 61 63 59 61 62 63 63 64 64 62 61 62 60 59 59 60 66 70 69 68 71 68 68 68 67 65 65 65 64 62 65 65 65 62 61 62 62 64 62 60 59 58 59 59 57 57 55 54 53 52 51 51 49 44 49 45 44 44 49 48 47 47 48 48 49 48 47 46 45 45 44 -225 -225 -225 -225 -225 -225 -225 -225 -225 -225 -225 -225 -225 -225 -225 -225 -225 -225 -225 -225 -225 -225 -225 -225 -225 -225 -225 -225 -225 -225 -225 -225 -225 -225 -225 -225 -225 -225 -225 -225 -225 -225 -225 -225 -225 -225 44 48 52 50 51 52 52 51 52 51 52 52 54 55 55 59 60 60 66 71 71 72 77 76 77 77 79 80 77 78 79 76 80 80 82 81 81 82 84 85 86 86 89 90 92 96 99 102 102 101 103 102 103 104 105 104 107 107 110 113 114 114 115 115 119 119 124 126 126 131 130 131 130 132 130 129 128 129 127 127 129 129 123 -209 -193 -209 -209 -209 -209 -209 141 151 -209 -209 -209 163 -209 -209 -193 -209 -209 -209 -193 170 171 172 172 173 173 178 180 -193 186 187 189 188 189 188 190 190 190 191 -193 0 0 0 0 0
    0 0 0 0 0 0 0 0 0 0 0 0 0 0 0 0 0 0 0 0 0 0 0 0 0 0 0 0 0 0 0 0 0 0 0 0 0 0 0 0 0 0 0 0 0 0 0 0 0 0 0 0 0 0 0 0 0 0 0 0 0 0 0 0 0 0 0 0 0 61 61 60 61 61 61 62 64 60 62 64 65 63 66 65 62 61 62 60 59 59 62 67 69 69 68 71 68 68 68 67 65 65 66 65 62 66 65 66 63 63 63 63 64 62 61 59 58 59 58 57 57 55 55 53 53 52 51 45 43 46 41 44 50 54 53 51 51 51 51 50 50 48 46 45 45 -225 -225 -225 -225 -225 -225 -225 -225 -225 -225 -225 -225 -225 -225 -225 -225 -225 -225 -225 -225 -225 -225 -225 -225 -225 -225 -225 -225 -225 -225 -225 -225 -225 -225 -225 -225 -225 -225 -225 -225 -225 -225 -225 -225 -225 -225 -225 -225 50 54 -193 53 53 53 52 52 53 53 53 54 55 55 59 61 61 66 71 71 72 77 75 76 77 79 80 77 78 79 77 81 81 82 82 81 82 85 85 85 86 88 89 92 97 100 103 103 102 103 103 103 103 105 104 106 107 110 112 115 116 117 117 121 122 125 128 128 130 130 131 130 133 130 130 129 129 127 126 127 126 121 -209 -193 -209 -209 129 140 -209 -209 -209 -209 -209 -209 -209 -209 -209 164 -193 -209 165 166 168 168 170 169 171 173 180 181 -193 -193 186 188 187 187 187 188 188 188 190 -193 0 0 0 0 0
    0 0 0 0 0 0 0 0 0 0 0 0 0 0 0 0 0 0 0 0 0 0 0 0 0 0 0 0 0 0 0 0 0 0 0 0 0 0 0 0 0 0 0 0 0 0 0 0 0 0 0 0 0 0 0 0 0 0 0 0 0 0 0 0 0 0 0 0 0 61 61 59 60 60 61 61 64 59 61 63 64 63 66 65 63 62 63 61 60 60 65 68 69 68 67 71 67 68 68 67 65 66 66 65 63 66 66 67 64 65 64 65 64 62 61 60 58 59 58 57 57 56 55 53 53 51 48 41 -193 41 44 53 58 59 56 55 54 53 53 52 51 49 46 46 -225 -225 -225 -225 -225 -225 -225 -225 -225 -225 -225 -225 -225 -225 -225 -225 -225 -225 -225 -225 -225 -225 -225 -225 -225 -225 -225 -225 -225 -225 -225 -225 -225 -225 -225 -225 -225 -225 -225 -225 -225 -225 -225 -225 -225 -225 -225 -225 -225 -225 52 -209 54 54 54 54 54 54 54 55 55 57 56 59 61 62 66 70 71 71 75 75 75 76 78 80 77 78 79 77 81 81 82 82 81 81 85 85 84 86 88 89 92 98 101 103 103 103 104 102 103 103 105 104 105 106 109 110 115 116 117 118 121 123 125 126 127 128 128 130 129 132 130 130 130 129 128 127 128 126 122 125 121 121 122 124 132 -209 133 -209 -209 -209 -209 -209 -209 -209 -209 -209 -209 -209 -209 170 169 171 172 174 175 181 182 184 -193 186 188 188 187 188 188 188 -193 189 -209 0 0 0 0 0
    0 0 0 0 0 0 0 0 0 0 0 0 0 0 0 0 0 0 0 0 0 0 0 0 0 0 0 0 0 0 0 0 0 0 0 0 0 0 0 0 0 0 0 0 0 0 0 0 0 0 0 0 0 0 0 0 0 0 0 0 0 0 0 0 0 0 0 0 0 61 61 59 60 60 61 61 63 58 60 62 64 62 66 65 64 63 65 64 63 64 68 69 69 68 68 71 67 67 68 66 65 65 65 65 62 67 67 68 67 67 66 67 65 64 62 61 59 60 59 58 58 58 57 57 56 54 52 58 -209 47 54 60 61 62 59 57 55 55 54 54 52 49 47 -225 -225 -225 -225 -225 -225 -225 -225 -225 -225 -225 -225 -225 -225 -225 -225 -225 -225 -225 -225 -225 -225 -225 -225 -225 -225 -225 -225 -225 -225 -225 -225 -225 -225 -225 -225 -225 -225 -225 -225 -225 -225 -225 -225 -225 -225 -225 -225 -225 -225 -225 -225 -225 57 57 56 56 56 56 55 56 56 58 57 60 62 62 67 70 70 71 74 74 75 75 77 79 77 78 78 77 80 81 81 81 80 80 84 84 82 85 86 89 92 97 102 104 103 103 103 102 103 103 104 104 104 106 107 109 115 116 117 118 121 123 125 126 127 129 129 130 131 132 131 131 131 130 129 128 129 126 123 125 122 121 122 123 125 129 131 131 125 129 -209 -209 -209 -209 -209 -209 -209 -209 169 170 169 171 172 174 177 181 182 184 -193 186 188 188 188 189 189 188 188 189 -193 0 0 0 0 0
    0 0 0 0 0 0 0 0 0 0 0 0 0 0 0 0 0 0 0 0 0 0 0 0 0 0 0 0 0 0 0 0 0 0 0 0 0 0 0 0 0 0 0 0 0 0 0 0 0 0 0 0 0 0 0 0 0 0 0 0 0 0 0 0 0 0 0 0 0 61 61 60 60 61 61 60 63 59 60 63 64 63 66 65 66 63 66 66 64 66 68 69 69 68 68 70 66 67 68 66 65 65 66 66 63 69 69 69 69 70 69 69 67 66 63 62 60 61 59 59 59 59 58 59 59 58 69 73 74 74 70 65 64 64 61 58 57 56 56 55 52 50 -225 -225 -225 -225 -225 -225 -225 -225 -225 -225 -225 -225 -225 -225 -225 -225 -225 -225 -225 -225 -225 -225 -225 -225 -225 -225 -225 -225 -225 -225 -225 -225 -225 -225 -225 -225 -225 -225 -225 -225 -225 -225 -225 -225 -225 -225 -225 -225 -225 -225 -225 -225 -225 -225 57 57 56 58 56 57 56 56 56 59 58 60 62 63 67 70 70 71 73 73 74 74 76 78 77 77 77 77 80 81 81 81 80 79 83 83 81 83 84 87 90 95 101 103 103 103 103 102 102 103 104 103 104 106 107 109 115 116 117 118 121 122 125 126 128 129 130 131 131 133 132 132 131 131 129 128 128 126 123 126 122 121 122 123 124 132 133 132 124 127 -209 -209 -209 -209 -209 -209 -209 -209 -209 169 167 171 171 176 180 183 184 184 186 186 188 189 189 190 189 189 189 190 193 0 0 0 0 0
    0 0 0 0 0 0 0 0 0 0 0 0 0 0 0 0 0 0 0 0 0 0 0 0 0 0 0 0 0 0 0 0 0 0 0 0 0 0 0 0 0 0 0 0 0 0 0 0 0 0 0 0 0 0 0 0 0 0 0 0 0 0 0 0 0 0 0 0 0 61 60 60 60 61 61 60 62 58 59 61 61 61 65 65 66 62 66 69 68 67 70 70 70 68 69 71 65 67 68 66 65 65 66 66 64 70 70 71 71 71 70 70 68 67 64 63 61 61 60 60 59 60 58 61 67 73 74 74 74 73 70 67 65 65 62 60 58 58 57 56 53 50 -225 -225 -225 -225 -225 -225 -225 -225 -225 -225 -225 -225 -225 -225 -225 -225 -225 -225 -225 -225 -225 -225 -225 -225 -225 -225 -225 -225 -225 -225 -225 -225 -225 -225 -225 -225 -225 -225 -225 -225 -225 -225 -225 -225 -225 -225 -225 -225 -225 -225 -225 -225 -225 -225 56 56 56 59 58 58 57 58 58 60 61 61 64 63 67 70 70 71 72 73 73 73 75 76 76 76 77 77 80 81 81 81 80 80 83 83 81 83 83 86 88 91 98 101 102 102 102 101 102 103 104 103 105 106 109 111 115 117 118 119 121 122 125 127 129 130 131 132 132 133 133 132 132 131 130 128 129 126 124 128 125 124 131 130 135 138 138 137 132 132 -193 -209 134 -209 -209 -209 -209 164 -193 167 164 -209 -209 173 179 182 182 183 185 186 188 189 189 189 189 189 189 190 195 0 0 0 0 0
    0 0 0 0 0 0 0 0 0 0 0 0 0 0 0 0 0 0 0 0 0 0 0 0 0 0 0 0 0 0 0 0 0 0 0 0 0 0 0 0 0 0 0 0 0 0 0 0 0 0 0 0 0 0 0 0 0 0 0 0 0 0 0 0 0 0 0 0 0 60 60 59 59 60 60 59 60 57 57 59 58 54 -209 -209 -209 -209 -209 -209 -209 -209 72 72 70 68 69 71 65 67 68 66 65 66 67 67 66 71 71 72 72 72 70 71 68 68 64 63 62 62 60 60 60 61 -193 72 74 75 74 74 74 71 71 68 66 66 64 61 60 59 58 57 55 -225 -225 -225 -225 -225 -225 -225 -225 -225 -225 -225 -225 -225 -225 -225 -225 -225 -225 -225 -225 -225 -225 -225 -225 -225 -225 -225 -225 -225 -225 -225 -225 -225 -225 -225 -225 -225 -225 -225 -225 -225 -225 -225 -225 -225 -225 -225 -225 -225 -225 -225 -225 -225 -225 -225 58 56 56 60 59 59 58 59 59 62 62 62 64 63 67 69 69 70 71 71 72 72 74 75 75 75 75 76 80 80 80 81 80 79 82 82 80 80 80 83 85 89 97 100 102 103 103 102 102 104 106 105 107 108 110 113 116 118 118 119 121 122 125 127 129 131 132 131 132 133 134 133 133 133 133 132 134 133 132 134 134 132 137 138 142 144 143 141 138 136 140 129 136 136 -209 -209 -209 164 -193 166 163 -209 -193 171 173 178 179 181 183 185 187 188 188 189 189 188 188 188 190 0 0 0 0 0
    0 0 0 0 0 0 0 0 0 0 0 0 0 0 0 0 0 0 0 0 0 0 0 0 0 0 0 0 0 0 0 0 0 0 0 0 0 0 0 0 0 0 0 0 0 0 0 0 0 0 0 0 0 0 0 0 0 0 0 0 0 0 0 0 0 0 0 0 0 60 59 58 59 59 60 59 61 59 58 62 63 -193 -225 -225 -209 -193 -193 95 95 -209 -209 -209 68 67 69 70 65 67 67 66 66 67 68 68 67 71 71 72 72 72 70 71 68 67 65 64 64 64 62 62 62 66 65 74 73 73 73 76 76 73 73 70 68 68 66 63 62 61 60 59 -225 -225 -225 -225 -225 -225 -225 -225 -225 -225 -225 -225 -225 -225 -225 -225 -225 -225 -225 -225 -225 -225 -225 -225 -225 -225 -225 -225 -225 -225 -225 -225 -225 -225 -225 -225 -225 -225 -225 -225 -225 -225 -225 -225 -225 -225 -225 -225 -225 -225 -225 -225 -225 -225 -225 -225 60 58 58 62 61 60 59 60 60 63 64 64 66 64 67 69 69 70 70 71 71 71 73 74 74 74 74 76 79 80 79 80 79 78 81 81 79 77 77 79 80 86 96 101 103 104 104 103 103 104 106 105 107 108 111 113 116 118 118 119 121 122 125 127 128 129 130 130 131 132 134 134 135 135 135 135 137 136 136 137 137 137 139 142 144 148 148 147 144 140 149 -193 141 138 134 -209 -209 155 158 -193 155 -209 162 168 169 172 171 174 175 181 183 -193 186 188 189 188 188 189 190 0 0 0 0 0
    0 0 0 0 0 0 0 0 0 0 0 0 0 0 0 0 0 0 0 0 0 0 0 0 0 0 0 0 0 0 0 0 0 0 0 0 0 0 0 0 0 0 0 0 0 0 0 0 0 0 0 0 0 0 0 0 0 0 0 0 0 0 0 0 0 0 0 0 0 59 58 58 58 58 60 60 62 61 60 66 67 68 -209 -193 -209 -209 -209 -209 -209 -209 -209 -209 61 62 65 68 64 67 66 67 66 68 69 69 69 72 71 72 71 71 69 69 67 65 65 65 65 64 62 65 63 67 71 74 72 72 74 76 77 74 74 71 70 69 67 66 64 63 62 60 -225 -225 -225 -225 -225 -225 -225 -225 -225 -225 -225 -225 -225 -225 -225 -225 -225 -225 -225 -225 -225 -225 -225 -225 -225 -225 -225 -225 -225 -225 -225 -225 -225 -225 -225 -225 -225 -225 -225 -225 -225 -225 -225 -225 -225 -225 -225 -225 -225 -225 -225 -225 -225 -225 -225 -225 59 58 58 63 61 61 60 61 60 64 65 65 65 64 67 69 68 70 69 70 70 70 72 73 73 74 74 76 80 79 79 80 79 79 81 81 79 77 77 79 82 87 94 97 102 103 103 102 103 104 105 105 106 108 110 112 115 117 117 119 121 121 124 126 126 127 128 129 131 132 134 134 136 136 136 136 137 137 137 137 137 138 139 142 144 148 149 149 149 150 153 148 151 146 143 146 150 154 155 -193 154 -193 155 165 166 169 167 169 169 172 174 -209 -193 186 187 187 187 188 190 0 0 0 0 0
    0 0 0 0 0 0 0 0 0 0 0 0 0 0 0 0 0 0 0 0 0 0 0 0 0 0 0 0 0 0 0 0 0 0 0 0 0 0 0 0 0 0 0 0 0 0 0 0 0 0 0 0 0 0 0 0 0 0 0 0 0 0 0 0 0 0 0 0 0 57 55 55 57 58 61 63 65 64 62 65 65 66 -209 -209 45 51 49 -193 -193 53 -193 -209 58 59 62 65 65 67 67 69 70 71 71 70 71 71 70 71 70 69 66 67 67 65 67 68 68 67 67 71 72 73 74 74 73 74 75 77 78 75 75 73 71 69 68 67 65 63 62 -225 -225 -225 -225 -225 -225 -225 -225 -225 -225 -225 -225 -225 -225 -225 -225 -225 -225 -225 -225 -225 -225 -225 -225 -225 -225 -225 -225 -225 -225 -225 -225 -225 -225 -225 -225 -225 -225 -225 -225 -225 -225 -225 -225 -225 -225 -225 -225 -225 -225 -225 -225 -225 -225 -225 -225 -225 57 57 57 63 62 61 60 61 61 65 66 66 66 65 67 68 68 70 69 69 70 71 72 73 73 74 74 76 80 79 79 80 80 79 82 82 80 78 78 80 81 85 91 92 97 100 101 101 102 103 105 105 106 108 109 111 112 115 116 118 120 121 124 124 125 127 127 128 131 133 135 135 136 136 137 136 137 136 137 137 138 138 140 144 145 148 149 149 149 150 152 151 152 151 151 151 152 154 155 154 154 156 156 163 165 167 161 -209 164 -209 -209 -209 -209 -209 -193 186 187 187 189 0 0 0 0 0
    0 0 0 0 0 0 0 0 0 0 0 0 0 0 0 0 0 0 0 0 0 0 0 0 0 0 0 0 0 0 0 0 0 0 0 0 0 0 0 0 0 0 0 0 0 0 0 0 0 0 0 0 0 0 0 0 0 0 0 0 0 0 0 0 0 0 0 0 0 57 54 57 58 59 67 69 70 70 68 68 67 68 64 55 54 55 50 48 50 53 51 -209 -209 55 57 60 64 70 69 72 73 72 72 72 72 70 69 70 70 68 68 69 68 67 69 71 71 70 72 73 74 74 74 75 74 74 76 77 78 76 75 73 71 70 69 67 66 64 -225 -225 -225 -225 -225 -225 -225 -225 -225 -225 -225 -225 -225 -225 -225 -225 -225 -225 -225 -225 -225 -225 -225 -225 -225 -225 -225 -225 -225 -225 -225 -225 -225 -225 -225 -225 -225 -225 -225 -225 -225 -225 -225 -225 -225 -225 -225 -225 -225 -225 -225 -225 -225 -225 -225 -225 -225 -225 -225 57 58 66 65 62 62 63 62 67 67 68 67 66 68 69 69 70 68 69 70 71 72 72 73 73 74 75 79 78 78 79 80 80 82 82 81 79 80 81 83 85 91 94 100 101 101 102 102 104 104 105 105 106 108 109 110 112 112 116 119 119 123 124 124 126 127 128 131 132 134 134 136 136 136 136 137 137 138 138 139 139 141 146 146 148 148 149 149 150 151 150 151 150 151 152 152 153 154 154 155 -193 156 162 166 167 -209 -209 -209 -209 -209 -209 -209 -209 -209 186 187 -193 189 0 0 0 0 0
    0 0 0 0 0 0 0 0 0 0 0 0 0 0 0 0 0 0 0 0 0 0 0 0 0 0 0 0 0 0 0 0 0 0 0 0 0 0 0 0 0 0 0 0 0 0 0 0 0 0 0 0 0 0 0 0 0 0 0 0 0 0 0 0 0 0 0 0 0 57 55 58 62 66 70 71 71 72 70 70 70 70 68 59 57 57 50 48 50 51 48 -209 -209 -209 -209 -209 -209 -209 -209 76 77 76 73 73 72 70 69 70 70 69 71 72 71 69 72 77 74 73 74 73 74 74 76 76 75 76 76 78 78 77 76 73 72 71 70 69 67 64 -225 -225 -225 -225 -225 -225 -225 -225 -225 -225 -225 -225 -225 -225 -225 -225 -225 -225 -225 -225 -225 -225 -225 -225 -225 -225 -225 -225 -225 -225 -225 -225 -225 -225 -225 -225 -225 -225 -225 -225 -225 -225 -225 -225 -225 -225 -225 -225 -225 -225 -225 -225 -225 -225 -225 -225 -225 -225 -225 58 59 66 66 62 63 65 63 66 67 68 67 66 68 69 69 70 69 70 71 72 73 73 73 73 74 76 79 77 78 78 80 80 82 83 82 80 83 83 85 86 91 94 98 100 101 101 102 103 104 104 105 106 108 110 111 113 112 116 119 119 123 123 123 125 125 126 130 131 134 133 135 137 137 136 137 137 138 139 140 140 141 145 146 148 148 148 149 151 152 151 152 151 152 153 153 153 154 154 155 155 155 159 165 165 164 160 162 165 -209 -209 -209 -209 -209 -193 186 -209 -209 0 0 0 0 0
    0 0 0 0 0 0 0 0 0 0 0 0 0 0 0 0 0 0 0 0 0 0 0 0 0 0 0 0 0 0 0 0 0 0 0 0 0 0 0 0 0 0 0 0 0 0 0 0 0 0 0 0 0 0 0 0 0 0 0 0 0 0 0 0 0 0 0 0 0 56 55 60 63 69 72 72 72 73 71 71 72 72 69 63 61 60 56 51 52 52 51 -209 -209 -209 -193 -193 114 -209 103 -209 82 86 -193 72 -193 70 69 70 71 70 73 75 75 74 80 83 79 78 76 74 75 76 77 76 76 76 77 79 79 78 76 74 73 73 72 70 68 -225 -225 -225 -225 -225 -225 -225 -225 -225 -225 -225 -225 -225 -225 -225 -225 -225 -225 -225 -225 -225 -225 -225 -225 -225 -225 -225 -225 -225 -225 -225 -225 -225 -225 -225 -225 -225 -225 -225 -225 -225 -225 -225 -225 -225 -225 -225 -225 -225 -225 -225 -225 -225 -225 -225 -225 -225 -225 -225 -225 61 61 66 68 63 64 66 63 66 67 68 67 65 67 69 70 70 68 69 71 72 73 73 72 72 73 75 78 76 78 78 81 81 83 84 84 83 85 84 87 87 90 92 93 95 99 99 100 103 104 104 105 107 109 110 112 115 115 117 119 119 122 122 121 123 123 124 126 127 132 131 134 137 137 136 137 137 138 139 140 140 141 144 145 147 147 148 149 151 152 151 151 151 151 153 153 153 153 154 155 155 155 159 164 162 -193 -193 -193 -209 168 172 177 182 184 182 -209 -209 -209 0 0 0 0 0
    0 0 0 0 0 0 0 0 0 0 0 0 0 0 0 0 0 0 0 0 0 0 0 0 0 0 0 0 0 0 0 0 0 0 0 0 0 0 0 0 0 0 0 0 0 0 0 0 0 0 0 0 0 0 0 0 0 0 0 0 0 0 0 0 0 0 0 0 0 53 54 60 64 70 72 73 72 73 71 72 72 73 70 67 64 63 59 54 53 54 54 -209 -209 -209 122 -209 -209 114 104 -209 86 -193 -193 73 -193 69 68 68 70 69 73 75 75 75 79 83 79 78 76 75 76 77 77 77 76 77 78 79 79 77 76 75 75 74 74 73 -225 -225 -225 -225 -225 -225 -225 -225 -225 -225 -225 -225 -225 -225 -225 -225 -225 -225 -225 -225 -225 -225 -225 -225 -225 -225 -225 -225 -225 -225 -225 -225 -225 -225 -225 -225 -225 -225 -225 -225 -225 -225 -225 -225 -225 -225 -225 -225 -225 -225 -225 -225 -225 -225 -225 -225 -225 -225 -225 -225 -225 -225 64 66 69 62 63 66 63 65 66 68 68 65 68 70 70 71 69 70 72 73 74 75 74 74 75 76 79 76 78 79 82 82 84 84 85 84 86 85 88 87 89 90 91 93 97 -209 100 -193 103 -209 104 106 109 111 111 114 115 117 119 119 121 121 121 122 122 123 124 125 131 131 135 -193 137 137 137 137 138 139 140 140 140 144 145 147 147 147 148 149 150 150 151 151 151 153 153 153 154 155 156 156 155 159 163 163 168 -193 -193 -193 169 171 174 176 179 178 -193 -209 -193 0 0 0 0 0
    0 0 0 0 0 0 0 0 0 0 0 0 0 0 0 0 0 0 0 0 0 0 0 0 0 0 0 0 0 0 0 0 0 0 0 0 0 0 0 0 0 0 0 0 0 0 0 0 0 0 0 0 0 0 0 0 0 0 0 0 0 0 0 0 0 0 0 0 0 48 53 -209 -193 72 77 74 73 73 72 72 73 73 70 67 65 64 60 55 55 57 57 -209 -209 -209 120 -209 -209 -209 93 85 83 82 73 74 -193 68 67 66 69 67 73 76 76 76 79 82 79 78 78 77 78 78 78 78 78 79 80 80 79 77 77 76 76 76 76 -225 -225 -225 -225 -225 -225 -225 -225 -225 -225 -225 -225 -225 -225 -225 -225 -225 -225 -225 -225 -225 -225 -225 -225 -225 -225 -225 -225 -225 -225 -225 -225 -225 -225 -225 -225 -225 -225 -225 -225 -225 -225 -225 -225 -225 -225 -225 -225 -225 -225 -225 -225 -225 -225 -225 -225 -225 -225 -225 -225 -225 -225 -225 -225 68 69 61 62 67 63 64 65 69 68 66 68 70 70 71 70 71 72 75 76 76 75 75 77 78 80 77 79 80 83 83 85 85 84 84 86 85 89 88 89 90 91 93 98 -209 100 -209 -209 -209 104 105 107 108 108 110 111 116 118 119 120 120 121 121 122 122 125 126 132 133 135 -193 137 136 136 137 137 138 139 139 140 143 144 146 146 146 147 148 149 149 150 152 152 153 154 154 155 157 159 161 158 162 167 166 170 171 171 -193 168 169 171 172 174 173 -193 -209 -209 0 0 0 0 0
    0 0 0 0 0 0 0 0 0 0 0 0 0 0 0 0 0 0 0 0 0 0 0 0 0 0 0 0 0 0 0 0 0 0 0 0 0 0 0 0 0 0 0 0 0 0 0 0 0 0 0 0 0 0 0 0 0 0 0 0 0 0 0 0 0 0 0 0 0 52 -193 -193 -193 73 77 75 74 73 72 72 73 73 70 68 66 66 64 60 57 61 59 -209 -209 -209 119 -209 -209 -209 90 85 84 83 74 75 -193 67 66 64 69 67 74 77 76 76 79 80 78 79 79 79 80 80 80 80 80 81 81 81 79 78 78 77 77 -225 -225 -225 -225 -225 -225 -225 -225 -225 -225 -225 -225 -225 -225 -225 -225 -225 -225 -225 -225 -225 -225 -225 -225 -225 -225 -225 -225 -225 -225 -225 -225 -225 -225 -225 -225 -225 -225 -225 -225 -225 -225 -225 -225 -225 -225 -225 -225 -225 -225 -225 -225 -225 -225 -225 -225 -225 -225 -225 -225 -225 -225 -225 -225 -225 -225 -225 -225 57 59 66 63 63 63 69 69 67 68 71 71 71 71 72 73 76 78 79 78 77 80 81 83 79 81 82 83 84 85 85 85 84 87 87 89 89 90 91 91 93 98 -209 100 -209 -209 -209 104 104 105 107 106 108 109 115 117 118 120 119 120 121 121 122 124 126 132 133 135 136 136 135 135 135 136 136 137 138 139 141 141 143 143 143 145 146 148 148 150 153 152 154 154 155 156 158 160 164 162 167 171 171 174 176 175 173 -193 169 170 171 171 171 -193 -209 -193 0 0 0 0 0
    0 0 0 0 0 0 0 0 0 0 0 0 0 0 0 0 0 0 0 0 0 0 0 0 0 0 0 0 0 0 0 0 0 0 0 0 0 0 0 0 0 0 0 0 0 0 0 0 0 0 0 0 0 0 0 0 0 0 0 0 0 0 0 0 0 0 0 0 0 -193 -193 -193 70 73 77 75 74 74 73 73 73 74 71 -193 68 67 68 68 61 68 64 -209 -209 -209 -209 -209 -209 -209 92 -193 85 84 78 78 -209 -209 -209 67 -193 72 75 77 76 77 79 80 80 82 82 83 84 84 83 83 83 82 82 80 79 78 77 77 -225 -225 -225 -225 -225 -225 -225 -225 -225 -225 -225 -225 -225 -225 -225 -225 -225 -225 -225 -225 -225 -225 -225 -225 -225 -225 -225 -225 -225 -225 -225 -225 -225 -225 -225 -225 -225 -225 -225 -225 -225 -225 -225 -225 -225 -225 -225 -225 -225 -225 -225 -225 -225 -225 -225 -225 -225 -225 -225 -225 -225 -225 -225 -225 -225 -225 -225 -225 -225 -225 -225 59 57 57 56 66 67 65 67 70 70 70 71 71 73 76 79 80 79 78 81 82 83 80 82 82 84 84 86 85 85 85 88 87 90 90 90 92 92 94 98 100 100 102 102 -209 103 103 104 105 105 107 108 113 115 117 118 118 118 119 120 121 123 124 129 130 133 134 133 133 132 134 134 135 136 138 138 139 140 141 141 140 143 144 145 148 150 153 153 154 155 156 157 160 162 165 167 170 173 174 175 177 176 174 170 169 169 167 166 167 168 166 167 0 0 0 0 0
    0 0 0 0 0 0 0 0 0 0 0 0 0 0 0 0 0 0 0 0 0 0 0 0 0 0 0 0 0 0 0 0 0 0 0 0 0 0 0 0 0 0 0 0 0 0 0 0 0 0 0 0 0 0 0 0 0 0 0 0 0 0 0 0 0 0 0 0 0 60 -193 65 69 72 76 75 74 75 73 73 74 74 -209 -193 72 70 71 73 85 -209 -209 77 -209 -209 -209 -209 -193 -209 89 -209 -193 -193 -193 80 -209 -209 75 -193 74 75 77 79 79 78 80 82 82 83 84 86 86 85 85 85 84 84 82 81 79 78 77 -225 -225 -225 -225 -225 -225 -225 -225 -225 -225 -225 -225 -225 -225 -225 -225 -225 -225 -225 -225 -225 -225 -225 -225 -225 -225 -225 -225 -225 -225 -225 -225 -225 -225 -225 -225 -225 -225 -225 -225 -225 -225 -225 -225 -225 -225 -225 -225 -225 -225 -225 -225 -225 -225 -225 -225 -225 -225 -225 -225 -225 -225 -225 -225 -225 -225 -225 -225 -225 -225 -225 -225 -225 -225 59 57 66 69 66 68 69 71 71 72 72 75 77 79 81 80 79 82 82 83 82 83 84 85 85 87 87 87 87 89 87 90 89 90 90 91 94 96 98 99 100 100 101 102 102 103 105 105 107 109 114 115 117 118 117 118 119 120 120 121 122 126 128 131 132 132 131 131 133 134 135 136 137 138 139 140 140 140 139 141 142 143 145 149 152 152 154 155 156 157 160 162 166 168 171 175 175 176 177 177 176 171 170 169 164 163 166 164 -209 163 0 0 0 0 0</data></disparity>
</opencv_storage>
