<?xml version="1.0"?>
<opencv_storage>
<gps_time_stamp>308086</gps_time_stamp>
<gps_x>-1.2411195755004883e+001</gps_x>
<gps_y>1.0957734107971191e+001</gps_y>
<gps_z>-2.0244631767272949e+000</gps_z>
<image_time_stamp>298957</image_time_stamp>
<disparity type_id="opencv-matrix">
  <rows>88</rows>
  <cols>320</cols>
  <dt>s</dt>
  <data>
    0 0 0 0 0 0 0 0 0 0 0 0 0 0 0 0 0 0 0 0 0 0 0 0 0 0 0 0 0 0 0 0 0 0 0 0 0 0 0 0 0 0 0 0 0 0 0 0 0 0 0 0 0 0 0 0 0 0 0 0 0 0 0 0 0 0 0 0 0 0 0 0 0 0 0 0 0 0 0 0 0 0 0 0 0 0 0 0 0 0 0 0 0 0 0 0 0 0 0 0 0 0 0 0 0 0 0 0 0 0 0 0 0 0 0 0 0 0 0 0 0 0 0 0 0 0 0 0 0 0 0 0 0 0 0 0 0 0 0 0 0 0 0 0 0 0 0 0 0 0 0 0 0 0 0 0 0 0 0 0 0 0 0 0 0 0 0 0 0 0 0 0 0 0 0 0 0 0 0 0 0 0 0 0 0 0 0 0 0 0 0 0 0 0 0 0 0 0 0 0 0 0 0 0 0 0 0 0 0 0 0 0 0 0 0 0 0 0 0 0 0 0 0 0 0 0 0 0 0 0 0 0 0 0 0 0 0 0 0 0 0 0 0 0 0 0 0 0 0 0 0 0 0 0 0 0 0 0 0 0 0 0 0 0 0 0 0 0 0 0 0 0 0 0 0 0 0 0 0 0 0 0 0 0 0 0 0 0 0 0 0 0 0 0 0 0 0 0 0 0 0 0 0 0 0 0 0 0 0 0 0 0 0 0 0 0 0 0 0 0
    0 0 0 0 0 0 0 0 0 0 0 0 0 0 0 0 0 0 0 0 0 0 0 0 0 0 0 0 0 0 0 0 0 0 0 0 0 0 0 0 0 0 0 0 0 0 0 0 0 0 0 0 0 0 0 0 0 0 0 0 0 0 0 0 0 0 0 0 0 0 0 0 0 0 0 0 0 0 0 0 0 0 0 0 0 0 0 0 0 0 0 0 0 0 0 0 0 0 0 0 0 0 0 0 0 0 0 0 0 0 0 0 0 0 0 0 0 0 0 0 0 0 0 0 0 0 0 0 0 0 0 0 0 0 0 0 0 0 0 0 0 0 0 0 0 0 0 0 0 0 0 0 0 0 0 0 0 0 0 0 0 0 0 0 0 0 0 0 0 0 0 0 0 0 0 0 0 0 0 0 0 0 0 0 0 0 0 0 0 0 0 0 0 0 0 0 0 0 0 0 0 0 0 0 0 0 0 0 0 0 0 0 0 0 0 0 0 0 0 0 0 0 0 0 0 0 0 0 0 0 0 0 0 0 0 0 0 0 0 0 0 0 0 0 0 0 0 0 0 0 0 0 0 0 0 0 0 0 0 0 0 0 0 0 0 0 0 0 0 0 0 0 0 0 0 0 0 0 0 0 0 0 0 0 0 0 0 0 0 0 0 0 0 0 0 0 0 0 0 0 0 0 0 0 0 0 0 0 0 0 0 0 0 0 0 0 0 0 0 0
    0 0 0 0 0 0 0 0 0 0 0 0 0 0 0 0 0 0 0 0 0 0 0 0 0 0 0 0 0 0 0 0 0 0 0 0 0 0 0 0 0 0 0 0 0 0 0 0 0 0 0 0 0 0 0 0 0 0 0 0 0 0 0 0 0 0 0 0 0 0 0 0 0 0 0 0 0 0 0 0 0 0 0 0 0 0 0 0 0 0 0 0 0 0 0 0 0 0 0 0 0 0 0 0 0 0 0 0 0 0 0 0 0 0 0 0 0 0 0 0 0 0 0 0 0 0 0 0 0 0 0 0 0 0 0 0 0 0 0 0 0 0 0 0 0 0 0 0 0 0 0 0 0 0 0 0 0 0 0 0 0 0 0 0 0 0 0 0 0 0 0 0 0 0 0 0 0 0 0 0 0 0 0 0 0 0 0 0 0 0 0 0 0 0 0 0 0 0 0 0 0 0 0 0 0 0 0 0 0 0 0 0 0 0 0 0 0 0 0 0 0 0 0 0 0 0 0 0 0 0 0 0 0 0 0 0 0 0 0 0 0 0 0 0 0 0 0 0 0 0 0 0 0 0 0 0 0 0 0 0 0 0 0 0 0 0 0 0 0 0 0 0 0 0 0 0 0 0 0 0 0 0 0 0 0 0 0 0 0 0 0 0 0 0 0 0 0 0 0 0 0 0 0 0 0 0 0 0 0 0 0 0 0 0 0 0 0 0 0 0
    0 0 0 0 0 0 0 0 0 0 0 0 0 0 0 0 0 0 0 0 0 0 0 0 0 0 0 0 0 0 0 0 0 0 0 0 0 0 0 0 0 0 0 0 0 0 0 0 0 0 0 0 0 0 0 0 0 0 0 0 0 0 0 0 0 0 0 0 0 43 46 43 46 42 41 41 41 41 41 39 40 38 41 41 42 42 40 40 40 39 39 38 38 36 33 35 36 33 31 30 29 31 29 28 30 27 26 27 26 26 24 26 26 22 23 23 22 22 24 24 25 23 25 26 -193 -209 0 0 -209 -209 -209 -209 -209 -209 -193 -193 -193 -209 -209 -209 103 -193 -209 -209 -193 -209 -209 205 -209 -209 -209 -209 -209 -209 -209 -209 -209 -209 -209 -209 -209 -209 -209 -209 -209 -209 -209 20 22 -193 -193 -193 -193 -209 -209 -209 -209 -209 -209 -193 -209 -209 -209 -209 -209 -209 -193 -209 -209 -209 -193 46 45 46 48 47 46 47 48 51 53 54 -209 -193 61 63 64 63 66 70 68 69 71 71 72 73 74 74 73 74 78 75 75 77 77 80 82 82 83 81 87 90 91 91 92 94 97 99 99 99 99 100 103 104 104 104 105 109 110 111 111 112 114 117 117 116 114 116 117 117 117 117 122 127 131 131 134 134 136 149 144 144 145 148 147 147 149 151 150 153 153 154 154 155 157 158 157 162 162 163 163 165 167 168 169 170 171 172 174 174 176 178 179 179 179 179 180 180 181 182 181 181 182 183 184 0 0 0 0 0
    0 0 0 0 0 0 0 0 0 0 0 0 0 0 0 0 0 0 0 0 0 0 0 0 0 0 0 0 0 0 0 0 0 0 0 0 0 0 0 0 0 0 0 0 0 0 0 0 0 0 0 0 0 0 0 0 0 0 0 0 0 0 0 0 0 0 0 0 0 43 46 43 46 42 42 41 41 41 41 40 40 38 41 41 42 42 41 40 40 39 39 38 38 36 33 34 36 33 31 29 29 31 28 28 29 27 26 26 26 26 24 26 26 22 23 23 22 22 24 24 25 23 25 26 -193 -209 0 0 -209 -209 -209 -209 -209 -209 -209 -209 -193 -193 -209 -209 -209 -209 -209 -209 -209 -209 -209 -193 -209 -209 -209 -193 -209 -193 -209 -209 -209 -209 -209 -209 -209 -209 -209 -209 -209 -209 -209 21 24 -193 -209 -193 -209 26 28 -209 -209 -209 -209 31 -209 -209 -209 -209 -209 -209 -209 -209 -209 -209 -193 47 46 47 48 46 46 46 48 51 53 54 -193 59 61 63 64 63 66 69 67 69 70 71 72 73 74 74 73 75 79 75 77 78 77 80 82 82 83 81 87 89 90 91 92 94 96 98 99 99 99 101 103 104 105 105 106 109 110 111 111 111 114 116 116 116 114 116 118 118 118 118 122 127 130 131 134 134 136 149 145 144 145 149 148 148 150 152 151 153 153 155 154 156 157 158 157 161 162 163 163 165 167 168 169 170 171 172 174 174 175 177 178 179 179 179 179 179 181 181 181 180 180 181 183 0 0 0 0 0
    0 0 0 0 0 0 0 0 0 0 0 0 0 0 0 0 0 0 0 0 0 0 0 0 0 0 0 0 0 0 0 0 0 0 0 0 0 0 0 0 0 0 0 0 0 0 0 0 0 0 0 0 0 0 0 0 0 0 0 0 0 0 0 0 0 0 0 0 0 43 46 43 46 42 41 42 41 41 41 40 41 38 41 42 42 42 41 40 40 39 39 38 38 36 33 34 35 32 30 29 28 30 28 27 29 26 26 26 26 26 24 26 26 23 24 23 23 23 25 24 25 23 25 -193 -209 -209 0 0 0 -209 -209 -209 -209 -209 -209 -193 -193 -209 -209 -209 -209 -209 -209 -209 -209 -209 -209 -209 -209 -209 -209 -209 -209 -193 -209 -209 -209 -209 -209 -209 -209 -209 -209 -209 -193 -209 -209 -209 26 26 -193 -209 -209 27 28 24 -209 -209 -193 30 -193 -209 -209 -209 -209 -209 -209 -209 -209 -209 51 48 48 49 48 47 47 47 49 52 53 54 -209 60 62 63 64 64 65 68 66 68 70 71 72 73 74 74 73 76 80 75 78 78 78 80 82 83 83 81 87 89 90 91 93 94 96 98 99 99 100 102 104 105 105 105 106 109 110 110 110 111 114 116 116 116 114 116 118 118 119 118 122 128 131 132 134 134 136 148 144 144 145 149 149 149 150 152 152 153 154 155 155 156 158 158 158 161 162 162 163 165 167 168 169 170 172 173 174 174 175 176 177 178 178 178 178 178 180 180 179 179 179 180 181 0 0 0 0 0
    0 0 0 0 0 0 0 0 0 0 0 0 0 0 0 0 0 0 0 0 0 0 0 0 0 0 0 0 0 0 0 0 0 0 0 0 0 0 0 0 0 0 0 0 0 0 0 0 0 0 0 0 0 0 0 0 0 0 0 0 0 0 0 0 0 0 0 0 0 43 45 43 46 42 41 42 41 41 42 40 41 38 41 42 41 42 41 40 40 39 39 39 38 36 32 33 34 32 29 28 28 29 27 27 28 26 26 26 26 26 -193 26 27 24 25 24 24 23 24 24 25 23 25 24 -209 -209 -193 0 -193 -209 -193 -209 -209 -209 -209 -209 -209 -209 -209 -209 -209 -209 62 -209 -209 -209 -209 -209 -209 -209 -209 -209 -209 -193 -209 -209 -209 -209 -209 -209 -209 -209 -209 -209 50 -209 -209 -209 -193 26 -193 -209 -209 -209 -209 21 -209 -193 -209 30 -193 -209 -209 -209 -209 -209 -209 -209 -209 -209 49 47 48 49 47 47 46 47 49 52 53 54 -193 60 61 63 65 64 65 68 65 68 69 71 71 73 74 74 74 76 81 76 78 79 78 80 82 83 84 82 88 89 90 91 93 95 96 98 99 99 101 102 104 105 105 105 106 109 111 110 110 110 114 117 117 117 115 116 118 119 119 119 123 129 133 133 136 135 136 148 146 146 146 150 150 150 151 153 153 153 154 155 155 156 158 159 158 161 161 162 163 165 167 167 169 170 172 173 174 174 174 175 176 178 177 176 177 177 179 179 178 178 177 179 180 0 0 0 0 0
    0 0 0 0 0 0 0 0 0 0 0 0 0 0 0 0 0 0 0 0 0 0 0 0 0 0 0 0 0 0 0 0 0 0 0 0 0 0 0 0 0 0 0 0 0 0 0 0 0 0 0 0 0 0 0 0 0 0 0 0 0 0 0 0 0 0 0 0 0 42 46 43 46 42 41 42 42 42 42 41 41 38 42 42 42 42 42 41 40 40 39 39 38 36 32 32 34 32 29 28 28 29 26 26 27 26 26 26 26 26 -193 26 27 25 25 23 24 22 24 24 23 22 25 24 32 -209 -209 -209 -193 -209 -209 -209 -209 -209 -209 -209 -209 -209 -209 -209 -209 -209 67 -209 -209 -209 -209 -209 -209 -209 -209 -209 -209 -193 -209 -209 -209 -209 -209 -209 -209 -209 -209 -209 50 -209 -209 -209 -209 26 -209 -209 -209 -209 -193 21 -209 -209 -209 31 33 -193 -209 -209 -209 -209 -209 -209 -193 -209 46 46 48 49 47 46 46 47 49 52 53 53 56 60 61 63 65 64 65 68 65 67 70 71 71 73 74 74 74 76 81 76 79 80 78 80 82 83 84 83 88 88 90 91 93 95 96 98 99 99 101 102 104 105 106 106 106 110 111 110 111 111 114 117 117 117 116 117 119 120 120 -193 122 129 133 133 137 135 137 148 147 147 148 150 151 151 151 154 153 154 154 155 155 156 159 159 158 161 161 162 163 165 166 167 169 170 172 172 173 173 174 175 176 177 177 176 176 177 178 180 179 178 177 180 181 0 0 0 0 0
    0 0 0 0 0 0 0 0 0 0 0 0 0 0 0 0 0 0 0 0 0 0 0 0 0 0 0 0 0 0 0 0 0 0 0 0 0 0 0 0 0 0 0 0 0 0 0 0 0 0 0 0 0 0 0 0 0 0 0 0 0 0 0 0 0 0 0 0 0 42 46 43 46 42 42 42 42 42 42 41 41 38 42 42 41 42 42 41 40 39 39 39 38 37 32 32 33 32 29 28 28 28 26 26 27 26 26 26 26 26 25 26 27 25 25 23 24 22 24 24 23 22 25 25 30 39 -209 -209 -209 -193 45 47 45 44 -209 -209 -193 -209 -209 -209 -209 -209 -209 -209 -193 -193 -209 -209 -209 -193 -209 -193 -193 -193 -209 -209 -209 -209 -209 -209 -209 -209 -193 -193 51 -209 -209 -209 -209 -209 -209 -209 -209 -209 -209 -193 -209 -209 -209 29 -193 -193 -209 -209 -209 -209 -193 -193 -193 -193 43 44 47 48 46 46 46 47 49 52 52 53 56 60 61 63 65 64 65 68 65 67 70 71 71 73 74 74 74 77 81 76 79 80 78 80 82 84 84 83 87 88 90 91 93 95 96 98 99 100 102 102 104 106 106 106 107 110 111 111 111 111 114 117 117 117 116 117 120 120 121 -193 123 130 133 133 136 135 137 149 148 149 149 151 152 152 152 154 154 154 155 156 156 156 159 160 159 161 162 162 163 165 167 168 169 170 171 172 173 173 174 175 175 176 176 175 176 176 178 180 179 178 178 180 182 0 0 0 0 0
    0 0 0 0 0 0 0 0 0 0 0 0 0 0 0 0 0 0 0 0 0 0 0 0 0 0 0 0 0 0 0 0 0 0 0 0 0 0 0 0 0 0 0 0 0 0 0 0 0 0 0 0 0 0 0 0 0 0 0 0 0 0 0 0 0 0 0 0 0 42 46 43 46 42 42 42 42 42 42 41 41 39 42 42 41 42 41 40 39 39 38 38 38 37 33 32 33 32 29 28 28 28 25 25 26 26 26 26 27 26 26 27 27 26 25 24 24 22 24 24 22 21 22 22 27 31 -209 -209 -209 39 44 47 46 45 -209 -193 -193 -209 -209 -193 -193 -209 -209 -209 -193 -209 -209 -209 -193 -193 -193 -193 -193 -209 -209 -209 -193 -209 -209 -209 -209 -209 -193 -193 50 -209 -209 -209 -193 -193 -209 -209 -209 -209 -209 -209 -209 -209 -209 29 -193 -193 -209 -209 -209 -209 -193 -193 114 42 43 44 47 47 45 46 46 47 49 52 52 53 56 59 60 62 64 64 64 68 65 67 70 71 72 74 74 74 74 77 81 76 80 80 78 81 83 84 85 84 88 88 90 91 93 95 96 97 99 100 101 102 104 106 106 106 107 110 112 111 111 111 114 117 117 117 116 116 120 121 121 121 124 131 133 134 137 136 138 149 150 150 151 152 -193 153 153 154 154 154 155 156 156 156 160 160 160 162 162 162 163 165 167 168 169 170 171 172 173 173 173 174 174 175 176 175 175 175 176 179 179 178 179 181 -193 0 0 0 0 0
    0 0 0 0 0 0 0 0 0 0 0 0 0 0 0 0 0 0 0 0 0 0 0 0 0 0 0 0 0 0 0 0 0 0 0 0 0 0 0 0 0 0 0 0 0 0 0 0 0 0 0 0 0 0 0 0 0 0 0 0 0 0 0 0 0 0 0 0 0 42 47 43 46 42 42 42 42 42 42 41 42 39 42 42 40 41 40 40 39 38 38 38 37 37 33 32 32 32 30 28 28 28 25 25 26 26 26 26 27 27 26 27 27 26 26 24 24 22 22 23 21 20 19 15 22 23 -209 -209 -177 -209 45 50 51 45 -209 -209 -209 -209 -209 -193 -209 -209 -209 -209 -209 -209 -209 -209 -193 -193 -209 -209 -209 -209 -209 -209 -209 -209 -209 -209 -209 -193 -193 -193 49 48 -209 -209 -193 -193 -209 -209 -209 -193 -209 -209 -193 28 -193 30 -193 30 -209 -193 -209 -209 -193 -193 -193 41 42 44 47 46 45 45 46 47 50 52 52 54 56 59 60 61 64 65 65 68 66 68 71 71 72 74 73 74 74 76 80 76 79 80 77 80 82 84 85 84 87 87 89 91 93 95 96 97 99 100 101 102 104 107 107 107 108 111 112 111 111 111 113 116 116 116 115 116 120 122 122 123 125 132 134 135 138 137 139 150 151 151 152 152 154 154 154 155 154 154 155 156 156 155 160 160 161 162 162 163 163 166 167 168 169 169 170 171 173 173 172 173 173 174 174 174 174 174 175 178 178 178 179 181 -193 0 0 0 0 0
    0 0 0 0 0 0 0 0 0 0 0 0 0 0 0 0 0 0 0 0 0 0 0 0 0 0 0 0 0 0 0 0 0 0 0 0 0 0 0 0 0 0 0 0 0 0 0 0 0 0 0 0 0 0 0 0 0 0 0 0 0 0 0 0 0 0 0 0 0 42 47 43 46 43 42 43 42 42 43 41 42 38 41 41 39 40 40 39 38 38 37 37 37 37 33 33 32 32 30 29 28 28 26 26 27 27 27 26 27 27 26 27 27 26 25 24 24 22 22 22 20 19 18 14 17 17 17 9 0 -209 -193 -193 -209 -209 -209 -209 -209 -193 -193 -193 -209 -209 -209 -209 -209 -209 -209 -193 -193 -193 -209 -193 -209 -209 -209 -209 -209 -209 -209 -209 -209 -193 -209 -209 49 -209 -209 -209 -193 -193 -193 -193 -193 -193 -209 -209 -209 28 -193 30 -209 28 -209 -193 -193 -209 -209 -193 -193 41 42 45 48 46 45 45 46 47 50 51 52 55 57 59 60 61 64 66 66 69 67 69 71 72 72 74 73 -193 73 75 78 75 78 80 77 80 83 85 85 84 87 87 89 91 93 95 96 97 99 100 101 102 105 108 107 108 108 111 113 111 111 111 112 115 116 116 115 115 120 121 122 123 124 130 133 134 138 137 139 150 152 152 153 152 156 154 154 155 155 154 155 156 155 155 160 160 160 161 162 162 163 165 166 167 168 169 170 171 172 172 172 172 172 173 174 173 173 174 175 178 178 179 179 182 -209 0 0 0 0 0
    0 0 0 0 0 0 0 0 0 0 0 0 0 0 0 0 0 0 0 0 0 0 0 0 0 0 0 0 0 0 0 0 0 0 0 0 0 0 0 0 0 0 0 0 0 0 0 0 0 0 0 0 0 0 0 0 0 0 0 0 0 0 0 0 0 0 0 0 0 42 48 43 46 43 42 43 42 42 43 41 42 38 41 41 39 39 39 39 38 38 37 37 36 37 32 33 32 32 30 29 28 29 27 26 27 28 27 27 27 27 27 26 27 26 25 24 24 22 22 22 20 17 16 13 13 13 13 0 0 -193 -193 -193 -193 -209 -209 -193 -209 -193 -193 -193 -193 -209 -209 -209 -209 -209 -209 -209 -209 -209 -209 -209 -209 -209 -209 -209 -209 -209 -193 -209 -209 -209 -209 -209 -209 -209 -209 -209 -193 -193 -209 -193 -209 -209 -209 -209 -209 -193 -193 30 -193 -193 -209 -193 -209 -209 -209 -209 40 41 42 44 47 45 45 45 46 48 51 51 52 54 56 58 59 60 64 65 65 69 67 69 72 72 72 74 73 -193 -193 75 77 74 78 79 77 81 83 85 85 85 87 87 90 91 93 94 96 98 100 100 102 102 105 109 108 109 109 112 113 111 111 111 111 115 115 116 114 114 120 120 121 122 123 125 128 132 137 135 138 149 152 152 153 153 157 154 155 155 155 154 155 156 155 154 159 159 160 161 163 162 164 165 166 166 167 168 169 170 171 171 171 171 172 173 174 173 173 175 176 178 179 180 180 -193 -209 0 0 0 0 0
    0 0 0 0 0 0 0 0 0 0 0 0 0 0 0 0 0 0 0 0 0 0 0 0 0 0 0 0 0 0 0 0 0 0 0 0 0 0 0 0 0 0 0 0 0 0 0 0 0 0 0 0 0 0 0 0 0 0 0 0 0 0 0 0 0 0 0 0 0 42 48 43 46 42 42 43 42 42 42 41 42 38 41 41 38 38 38 38 38 37 37 37 35 36 33 33 32 32 31 29 29 29 28 27 28 28 28 28 28 27 27 26 27 26 25 24 23 22 21 21 19 16 15 12 12 12 12 8 0 0 -193 -193 -193 -193 -209 -193 -209 -209 -193 0 -193 -193 -209 -209 -209 -209 -209 -209 -209 -209 -209 -209 -209 -209 183 -209 -209 -209 -209 -209 -209 -209 -209 -209 -209 -209 -209 -209 -209 -193 -209 -209 -209 -209 -209 -209 -209 -209 -209 -209 -209 -209 -209 -193 -209 -209 -209 37 37 39 41 42 45 44 44 45 46 49 50 51 53 55 56 58 59 60 64 65 66 69 68 70 73 72 72 74 73 73 -193 74 75 73 77 80 76 82 84 86 86 86 87 88 90 92 93 95 97 99 99 100 101 102 -193 110 108 109 109 112 114 111 111 111 111 115 115 115 114 113 120 120 121 122 122 124 127 132 135 134 137 149 152 152 153 153 157 154 154 155 155 154 155 155 155 154 158 160 161 162 163 162 164 165 165 166 167 167 168 169 170 170 170 171 171 172 173 173 173 177 177 180 180 181 181 -209 -209 0 0 0 0 0
    0 0 0 0 0 0 0 0 0 0 0 0 0 0 0 0 0 0 0 0 0 0 0 0 0 0 0 0 0 0 0 0 0 0 0 0 0 0 0 0 0 0 0 0 0 0 0 0 0 0 0 0 0 0 0 0 0 0 0 0 0 0 0 0 0 0 0 0 0 42 49 43 46 42 42 43 42 42 42 41 42 38 41 41 37 38 38 38 37 37 37 37 36 36 33 34 33 32 31 30 29 30 30 28 28 29 28 28 28 27 27 26 27 26 25 24 23 22 21 22 19 16 15 13 13 15 15 13 -177 -193 -209 45 47 -193 -209 -209 -209 -209 -209 -193 -209 -209 -209 -209 -209 -209 -209 -209 -209 -209 -209 -209 -209 -209 182 -209 -209 -209 -209 -209 -209 -209 -209 -209 -209 -209 -209 -209 -193 17 -193 -209 -209 -209 -209 -209 -209 -209 -209 -209 -209 -209 -209 -209 -209 -209 -209 37 36 38 40 42 44 43 44 45 46 49 50 51 53 55 56 57 58 59 63 64 65 69 69 71 73 72 72 74 73 74 -193 74 74 73 77 81 76 83 85 87 87 87 88 89 90 92 93 95 98 99 99 100 101 101 -193 -193 108 109 109 112 114 111 111 111 111 115 115 115 114 112 120 121 121 122 122 124 126 130 133 132 136 149 152 151 152 152 157 154 154 154 -193 -193 155 155 156 153 158 159 160 161 162 162 163 163 165 165 166 166 167 168 169 169 169 170 170 171 172 173 174 178 179 181 182 183 183 185 186 0 0 0 0 0
    0 0 0 0 0 0 0 0 0 0 0 0 0 0 0 0 0 0 0 0 0 0 0 0 0 0 0 0 0 0 0 0 0 0 0 0 0 0 0 0 0 0 0 0 0 0 0 0 0 0 0 0 0 0 0 0 0 0 0 0 0 0 0 0 0 0 0 0 0 41 49 42 46 42 42 43 42 42 42 41 42 37 42 41 36 37 37 37 37 37 37 37 36 36 33 35 33 33 32 31 30 30 31 29 29 29 28 29 28 28 27 26 26 26 25 24 23 22 21 22 19 16 15 13 13 17 16 16 0 8 -209 -209 -193 -209 -209 -209 -209 -209 -209 -209 -209 -209 -209 -209 -209 -209 -209 -209 -209 -209 -209 -209 -209 -209 -209 -209 -209 -209 -209 -209 -209 -209 -209 -209 -209 -209 -209 -209 11 15 18 -209 -209 -209 -209 -209 -209 -209 -209 -209 -209 -209 -209 -209 -209 -209 -193 36 36 39 40 41 43 43 44 45 46 48 49 51 52 54 56 56 57 58 62 63 63 68 70 72 74 72 72 74 73 74 -193 73 74 73 77 81 77 84 85 86 87 87 87 89 90 92 94 97 100 100 102 102 103 103 107 114 109 109 109 112 115 111 111 111 111 115 115 115 114 112 120 121 122 122 122 124 126 127 130 131 135 147 152 151 152 152 157 154 154 -193 -193 -177 155 156 156 153 158 159 160 160 162 161 162 161 164 165 165 165 166 166 169 169 169 169 169 170 172 173 174 179 -193 -193 -193 -193 -193 185 187 0 0 0 0 0
    0 0 0 0 0 0 0 0 0 0 0 0 0 0 0 0 0 0 0 0 0 0 0 0 0 0 0 0 0 0 0 0 0 0 0 0 0 0 0 0 0 0 0 0 0 0 0 0 0 0 0 0 0 0 0 0 0 0 0 0 0 0 0 0 0 0 0 0 0 41 50 42 46 42 41 43 42 42 42 41 42 37 42 42 35 37 36 37 37 37 37 37 36 36 34 35 34 33 32 31 30 30 32 30 30 29 28 29 28 28 27 26 26 25 25 25 22 23 21 21 19 16 15 13 13 15 15 15 9 10 -209 -209 -209 -209 -193 -209 -209 -209 -209 -209 -209 -209 -209 -209 -209 -209 -209 -209 -209 -209 -209 -209 -209 -193 -209 -209 -209 -209 -209 -209 -209 -209 -209 -193 -209 -209 -209 -209 -193 12 16 -209 -209 -209 -209 -209 -209 -209 -209 -193 -209 -209 -209 -177 -209 -209 34 35 36 38 40 40 43 42 44 45 47 48 49 52 53 55 56 56 57 58 61 62 61 68 71 72 74 71 71 74 74 74 -193 73 73 73 78 82 77 84 85 86 87 87 87 89 91 92 95 98 100 101 103 103 105 105 108 114 108 109 109 111 114 111 111 111 110 115 115 115 115 113 121 122 122 123 122 124 126 126 128 130 134 144 151 150 150 152 157 154 -193 -193 -193 -177 156 156 156 154 159 159 159 160 161 161 161 162 164 164 165 165 165 165 168 167 167 168 169 170 172 174 174 -193 -193 -193 -193 -193 -193 186 187 0 0 0 0 0
    0 0 0 0 0 0 0 0 0 0 0 0 0 0 0 0 0 0 0 0 0 0 0 0 0 0 0 0 0 0 0 0 0 0 0 0 0 0 0 0 0 0 0 0 0 0 0 0 0 0 0 0 0 0 0 0 0 0 0 0 0 0 0 0 0 0 0 0 0 41 51 42 46 42 41 43 42 42 42 41 42 37 42 42 33 36 36 36 36 37 37 37 36 36 34 35 35 34 33 32 31 31 33 30 30 30 29 29 28 28 28 26 26 25 25 24 22 22 21 21 17 15 14 13 12 14 13 14 0 0 -209 -209 -209 -193 -193 -193 -209 -209 -209 -209 -209 -209 -209 -209 -209 -209 -209 -209 -209 -209 -209 -209 -193 -193 -193 -193 -193 -193 -209 -193 418 412 -193 -209 -209 -209 -209 -209 -193 8 -193 -209 -209 -209 -209 -209 -209 -209 -209 -209 -209 -209 -193 -209 -209 -209 35 36 36 39 40 40 42 42 44 45 47 48 50 52 53 55 55 56 57 57 60 60 60 67 71 72 73 70 71 74 73 74 -193 72 73 73 78 82 78 84 85 86 87 87 88 90 91 93 96 99 100 102 104 104 106 106 109 113 108 109 108 110 114 110 110 110 110 115 115 115 115 114 121 122 122 122 122 123 125 125 127 127 134 142 150 148 149 151 157 154 -193 -193 -193 531 156 157 157 154 159 159 160 160 162 161 162 162 163 164 165 165 165 164 167 166 166 168 169 170 172 -193 176 -209 -193 -193 -193 -193 186 186 188 0 0 0 0 0
    0 0 0 0 0 0 0 0 0 0 0 0 0 0 0 0 0 0 0 0 0 0 0 0 0 0 0 0 0 0 0 0 0 0 0 0 0 0 0 0 0 0 0 0 0 0 0 0 0 0 0 0 0 0 0 0 0 0 0 0 0 0 0 0 0 0 0 0 0 42 51 42 47 42 41 43 42 42 42 41 42 37 43 43 33 35 35 36 35 36 37 37 36 36 34 36 35 34 34 32 31 31 34 31 31 30 29 29 28 28 28 26 25 25 24 24 22 22 21 21 16 15 14 12 11 13 12 13 0 -193 11 -209 -193 0 -193 -193 -209 -209 -209 -209 -209 -209 -209 -193 -209 -209 -209 -209 -209 26 -209 -209 -193 -193 -209 -193 -193 -193 0 -193 -193 -193 0 0 0 0 0 -193 -193 0 12 -209 -209 -209 -209 -209 -209 -209 -209 -209 -209 -209 -209 -209 -209 -209 35 36 36 39 40 40 42 41 43 46 47 48 51 52 53 55 55 55 57 58 60 60 60 66 71 72 72 69 70 73 73 73 73 71 72 -193 77 82 77 84 85 86 86 87 88 90 91 93 97 99 102 103 105 105 108 108 109 112 108 109 108 110 113 110 110 110 110 115 115 115 116 116 121 123 123 123 122 124 125 125 126 126 132 139 149 146 147 151 -193 155 -193 -193 -193 531 157 157 157 154 160 159 159 160 162 162 162 163 164 164 165 166 166 163 167 166 166 -193 169 171 174 -209 -193 -193 -193 -193 185 185 186 187 188 0 0 0 0 0
    0 0 0 0 0 0 0 0 0 0 0 0 0 0 0 0 0 0 0 0 0 0 0 0 0 0 0 0 0 0 0 0 0 0 0 0 0 0 0 0 0 0 0 0 0 0 0 0 0 0 0 0 0 0 0 0 0 0 0 0 0 0 0 0 0 0 0 0 0 43 52 43 47 42 42 43 42 42 42 41 42 37 43 44 -225 33 34 35 35 35 36 37 36 35 35 36 35 34 34 33 32 32 35 31 31 30 29 29 28 28 28 25 25 24 24 24 22 22 22 21 16 15 14 12 11 12 12 12 0 -209 11 -209 0 -193 -193 -209 -209 -209 -209 -209 -209 -209 -209 -193 -193 -209 -209 -209 -209 25 -193 -209 -193 -193 -193 0 0 0 0 0 0 0 0 0 0 0 0 -193 -193 0 0 0 -209 -209 -209 -209 -209 -209 -209 -209 -209 -209 -209 -209 -209 -209 33 35 36 39 40 39 41 41 44 46 47 48 51 52 53 54 54 55 56 57 59 58 59 63 70 70 71 68 70 72 73 73 73 71 73 -193 77 81 78 84 85 86 86 87 88 89 91 93 97 99 102 104 106 106 109 108 108 112 108 109 109 110 113 110 110 110 109 115 115 116 116 117 121 123 123 123 122 124 125 125 125 126 131 137 148 144 144 150 -193 155 -193 -193 -193 531 157 158 158 155 160 159 159 159 162 162 162 163 163 163 165 166 166 162 166 166 166 -193 171 173 -193 90 92 91 90 -193 187 186 188 188 189 0 0 0 0 0
    0 0 0 0 0 0 0 0 0 0 0 0 0 0 0 0 0 0 0 0 0 0 0 0 0 0 0 0 0 0 0 0 0 0 0 0 0 0 0 0 0 0 0 0 0 0 0 0 0 0 0 0 0 0 0 0 0 0 0 0 0 0 0 0 0 0 0 0 0 44 52 44 48 42 42 44 43 42 42 41 42 37 43 44 -225 31 31 33 33 34 35 36 35 35 35 35 35 35 34 34 33 32 35 32 31 31 30 29 28 28 28 25 25 25 25 24 23 23 23 22 17 16 14 12 11 13 12 14 9 -209 15 -209 9 -209 -209 -209 -209 -209 -209 -209 -209 -209 -193 -209 -193 -209 -209 -209 -209 -209 -209 -209 -209 -209 -193 -193 -193 0 0 0 0 0 0 0 0 0 0 0 0 0 0 0 -193 -209 -209 -209 -209 -209 -209 -209 -209 -193 -209 -209 -209 36 33 35 36 39 40 39 41 41 44 47 47 49 50 52 53 53 53 54 55 56 57 57 57 61 69 68 70 67 70 72 73 73 73 72 74 74 78 80 78 84 85 85 85 87 87 89 90 92 94 97 101 103 106 106 108 106 107 111 108 109 109 110 113 110 111 110 109 116 116 116 117 118 122 123 123 123 123 124 126 126 126 126 132 137 148 143 143 150 -193 -193 -193 532 -193 530 157 157 158 155 160 159 158 159 162 162 162 163 163 163 166 166 166 163 166 167 167 -193 172 -193 -193 92 93 92 91 -193 188 -177 189 189 190 0 0 0 0 0
    0 0 0 0 0 0 0 0 0 0 0 0 0 0 0 0 0 0 0 0 0 0 0 0 0 0 0 0 0 0 0 0 0 0 0 0 0 0 0 0 0 0 0 0 0 0 0 0 0 0 0 0 0 0 0 0 0 0 0 0 0 0 0 0 0 0 0 0 0 45 53 45 48 43 42 44 43 42 42 41 42 36 42 43 -225 -225 31 32 33 34 34 35 36 35 34 35 35 35 34 33 33 32 35 32 31 31 30 29 29 28 28 26 26 25 25 25 24 23 23 22 17 17 15 13 13 15 14 15 11 -209 -209 -209 10 -209 -209 -209 -209 -209 -209 -209 -209 -209 -209 -209 -209 -193 -209 -209 -209 -209 -209 -209 -209 -209 -193 -193 -193 -193 0 0 0 0 0 0 0 0 0 0 0 0 0 0 -193 -209 -209 -209 -209 -209 110 -209 110 114 -209 -209 -209 34 32 35 36 38 39 39 41 42 45 48 48 50 51 53 53 54 54 55 56 57 57 57 57 60 69 65 69 66 70 72 73 73 73 72 74 75 77 79 79 84 84 85 85 87 88 89 91 92 94 97 100 -193 105 105 106 105 106 111 109 109 109 110 113 111 -177 -177 -177 -177 117 117 119 120 122 124 124 123 123 125 127 126 126 127 133 138 148 143 142 149 -193 -193 532 532 532 530 156 157 157 154 159 159 158 159 161 162 162 163 163 163 166 166 166 163 166 167 168 170 173 -193 -193 93 -177 93 92 -193 189 188 190 189 191 0 0 0 0 0
    0 0 0 0 0 0 0 0 0 0 0 0 0 0 0 0 0 0 0 0 0 0 0 0 0 0 0 0 0 0 0 0 0 0 0 0 0 0 0 0 0 0 0 0 0 0 0 0 0 0 0 0 0 0 0 0 0 0 0 0 0 0 0 0 0 0 0 0 0 46 53 45 48 43 42 44 43 43 42 41 42 36 42 43 -225 -225 31 31 32 34 34 34 36 36 34 35 35 35 34 33 33 32 34 32 31 31 30 29 29 29 28 26 26 25 25 24 24 23 22 23 17 19 16 14 15 18 17 18 13 -193 -209 -209 11 -209 -209 -209 -209 -209 -209 -209 -209 -209 -209 -209 -209 1008 -193 -209 -193 -193 -209 -209 -209 -209 -209 -193 -193 -193 0 0 0 0 0 0 0 0 0 0 0 0 0 0 -193 -209 -209 -193 -177 -209 109 -209 109 114 -209 -209 -209 33 32 35 37 39 40 40 42 43 46 48 49 50 51 53 52 53 53 54 55 56 56 56 56 59 68 63 67 66 70 72 72 72 73 72 74 75 77 78 78 84 84 84 85 87 88 89 91 92 93 96 100 102 104 104 105 105 105 111 109 109 109 110 113 113 -177 -177 -177 -177 119 119 120 121 122 124 124 123 123 125 127 126 127 128 133 137 147 142 141 149 -193 532 532 532 531 530 155 156 156 154 159 158 158 158 162 162 162 164 164 163 166 166 167 163 167 169 169 172 176 177 179 -177 -177 94 -193 187 189 188 191 190 192 0 0 0 0 0
    0 0 0 0 0 0 0 0 0 0 0 0 0 0 0 0 0 0 0 0 0 0 0 0 0 0 0 0 0 0 0 0 0 0 0 0 0 0 0 0 0 0 0 0 0 0 0 0 0 0 0 0 0 0 0 0 0 0 0 0 0 0 0 0 0 0 0 0 0 47 53 46 49 43 42 44 43 43 43 41 42 36 42 43 -225 -225 31 31 31 33 34 33 35 36 34 35 35 34 34 33 33 32 34 32 31 31 30 29 29 29 28 26 26 25 25 24 24 23 22 23 17 20 17 14 17 20 19 18 13 -209 -209 -209 9 -209 -193 -193 -209 -209 -209 -209 -209 86 -209 -209 -209 1008 1008 -209 -209 -209 -209 -209 -209 -209 0 0 0 -193 0 0 0 0 0 0 0 0 0 0 0 0 0 0 0 -209 -209 -193 -177 -209 -193 -209 -209 -209 -209 -209 36 33 32 35 37 39 40 40 42 44 47 48 49 50 51 52 52 53 53 55 55 56 56 56 56 59 67 62 67 67 71 72 72 72 73 73 75 76 77 78 78 83 84 83 85 86 87 89 91 92 94 96 100 101 103 103 104 105 105 110 108 109 109 110 112 115 115 116 -177 -177 121 121 122 122 122 124 124 124 124 125 127 126 126 128 132 137 147 142 141 148 -193 -193 -193 532 531 529 -193 155 155 154 159 159 159 159 162 163 163 164 164 164 166 166 167 163 167 170 171 174 179 179 180 -193 -193 -193 186 187 189 189 191 191 193 0 0 0 0 0
    0 0 0 0 0 0 0 0 0 0 0 0 0 0 0 0 0 0 0 0 0 0 0 0 0 0 0 0 0 0 0 0 0 0 0 0 0 0 0 0 0 0 0 0 0 0 0 0 0 0 0 0 0 0 0 0 0 0 0 0 0 0 0 0 0 0 0 0 0 48 53 47 49 44 43 44 43 43 43 41 42 37 42 44 -225 -225 31 32 31 32 33 33 33 36 34 34 35 34 34 34 33 32 34 32 32 31 31 30 29 29 28 26 26 26 25 24 24 23 23 23 19 21 17 16 18 21 20 19 13 -209 -209 -209 0 -209 0 -193 -209 -209 85 -209 -193 85 -193 -209 -209 1008 1008 -193 -209 -209 -209 -209 -209 -193 0 0 0 0 0 0 0 0 0 0 0 0 0 0 0 0 0 0 0 -193 -209 -193 -177 -209 -209 -209 -209 -209 -209 -193 36 34 33 36 37 39 40 40 42 45 47 48 48 50 51 52 52 53 52 55 55 55 55 55 56 57 66 62 66 68 71 72 72 72 73 73 75 77 77 78 78 83 83 82 84 86 87 89 90 91 93 95 98 99 101 101 102 103 104 109 108 108 109 109 112 116 117 118 118 -177 123 122 123 123 122 124 124 124 124 125 127 127 128 130 134 137 148 142 141 147 -193 150 -193 -193 531 528 -193 -193 154 153 158 159 159 159 162 164 163 164 164 164 166 166 167 164 167 171 172 175 180 180 -193 -193 -193 -193 186 186 189 189 191 191 193 0 0 0 0 0
    0 0 0 0 0 0 0 0 0 0 0 0 0 0 0 0 0 0 0 0 0 0 0 0 0 0 0 0 0 0 0 0 0 0 0 0 0 0 0 0 0 0 0 0 0 0 0 0 0 0 0 0 0 0 0 0 0 0 0 0 0 0 0 0 0 0 0 0 0 47 53 47 49 44 43 44 43 43 43 42 42 38 43 44 -225 28 30 33 31 30 31 32 32 34 34 33 34 34 34 34 33 32 34 32 32 31 31 30 29 29 29 26 26 26 25 24 24 24 23 23 21 21 18 19 19 21 21 19 15 -209 -209 -209 -209 -209 -193 -193 -209 -209 76 -193 77 79 -209 -209 -209 -193 -209 -193 -209 -209 -209 -209 -209 -193 0 0 0 0 0 0 0 0 0 0 0 0 0 0 0 0 0 0 0 0 -209 -193 -177 -209 -209 -209 -209 -209 -209 36 36 34 34 36 38 39 40 41 43 46 48 48 48 50 51 51 52 52 52 55 55 55 55 56 57 58 67 62 66 -193 71 72 73 72 74 74 76 77 77 78 78 83 83 81 84 86 86 88 90 90 93 94 97 98 99 99 101 102 104 109 108 109 109 110 113 118 119 -193 120 -177 123 123 123 123 121 123 123 123 124 125 128 129 131 133 136 138 148 142 142 147 -193 149 149 149 531 528 -193 -193 153 -193 158 158 158 158 162 164 163 164 164 164 166 166 166 164 167 172 173 176 181 181 -193 -193 -193 -193 -193 186 189 189 191 191 193 0 0 0 0 0
    0 0 0 0 0 0 0 0 0 0 0 0 0 0 0 0 0 0 0 0 0 0 0 0 0 0 0 0 0 0 0 0 0 0 0 0 0 0 0 0 0 0 0 0 0 0 0 0 0 0 0 0 0 0 0 0 0 0 0 0 0 0 0 0 0 0 0 0 0 48 53 47 49 44 43 44 43 43 43 42 42 38 42 44 28 29 29 34 31 29 29 31 32 33 34 34 34 34 33 34 33 32 34 32 32 31 31 30 29 29 29 26 27 26 25 25 25 24 23 24 23 22 19 22 20 22 22 20 18 -209 -209 -209 -209 -209 9 13 -209 -209 -209 71 74 -193 -209 -209 -177 -209 -209 -209 -209 -209 -209 -209 -209 -209 -209 0 9 0 0 0 0 0 0 0 0 0 0 0 0 0 0 0 0 -193 -209 -193 -177 -209 -193 -193 -209 -209 -193 34 33 32 33 36 38 39 40 41 44 47 48 48 49 50 50 51 52 52 53 55 55 55 57 58 59 59 67 63 -193 0 -193 -193 73 73 74 74 76 78 77 78 78 82 82 80 83 85 86 87 -193 -209 -209 -209 94 94 96 98 100 102 104 110 109 110 110 111 114 119 120 -193 121 122 124 123 123 124 121 122 123 123 124 125 128 130 132 135 137 138 147 142 142 146 151 148 148 148 -193 527 151 151 -209 -193 157 158 158 158 162 163 163 164 164 163 166 166 166 164 166 171 174 176 181 181 182 -193 -193 184 185 186 188 189 190 191 193 0 0 0 0 0
    0 0 0 0 0 0 0 0 0 0 0 0 0 0 0 0 0 0 0 0 0 0 0 0 0 0 0 0 0 0 0 0 0 0 0 0 0 0 0 0 0 0 0 0 0 0 0 0 0 0 0 0 0 0 0 0 0 0 0 0 0 0 0 0 0 0 0 0 0 48 52 47 48 44 43 44 43 43 43 41 42 38 42 43 29 32 32 33 32 30 29 30 32 32 33 33 33 34 33 34 34 32 33 32 31 31 30 30 29 29 29 27 27 26 25 25 25 25 24 24 24 22 20 23 21 23 22 21 20 -209 -209 -209 -209 -209 9 14 19 -209 -209 71 74 75 74 -209 -177 -209 -209 -209 -209 -209 -209 -209 -209 -209 -209 -209 -193 0 0 0 0 0 0 0 0 0 0 0 0 0 0 0 0 -193 -209 -177 -193 -209 -193 -193 -193 -193 -193 33 32 31 33 37 38 40 41 41 45 48 49 48 49 50 50 50 51 52 52 54 54 54 56 58 -193 58 66 -193 0 0 0 -177 73 -177 -177 75 77 78 77 78 78 82 82 79 83 85 85 86 -209 -209 -209 -209 93 93 94 97 98 101 103 110 111 110 111 111 115 119 120 120 121 122 124 124 123 123 121 121 122 123 124 124 128 131 134 136 138 138 146 142 142 144 150 146 146 147 149 -193 149 150 -193 -193 157 158 158 158 162 163 163 163 163 162 165 165 165 163 165 171 173 175 181 181 182 -193 -193 184 185 186 188 188 190 191 192 0 0 0 0 0
    0 0 0 0 0 0 0 0 0 0 0 0 0 0 0 0 0 0 0 0 0 0 0 0 0 0 0 0 0 0 0 0 0 0 0 0 0 0 0 0 0 0 0 0 0 0 0 0 0 0 0 0 0 0 0 0 0 0 0 0 0 0 0 0 0 0 0 0 0 47 52 46 48 44 43 44 43 43 43 41 42 38 42 43 32 35 36 36 35 32 30 30 31 32 32 33 33 34 33 33 33 32 33 32 31 31 30 30 29 29 29 27 27 26 25 25 25 25 24 24 24 22 20 23 21 23 23 22 22 -209 -209 -209 -209 -209 9 15 20 -193 -193 -193 74 74 74 76 -193 -193 126 -209 -209 -209 -209 -209 -209 -209 -209 -209 -209 -209 -209 -209 -209 0 0 0 0 -225 0 0 -225 0 -225 -225 -209 -209 -193 103 -193 -209 34 37 36 -193 -193 34 32 32 34 37 39 40 41 42 47 48 50 48 50 49 49 50 51 51 52 53 54 53 56 -193 -209 59 -193 0 0 0 0 -177 -177 -177 -177 75 77 79 76 78 78 81 82 79 84 85 85 86 -209 -209 -193 92 92 92 93 95 97 99 103 109 111 110 111 111 115 119 119 120 121 122 124 123 123 123 120 120 122 123 124 124 128 132 134 136 138 138 146 142 142 144 149 145 145 145 148 145 147 149 149 -193 157 158 158 158 161 163 162 163 163 161 165 165 165 163 164 170 173 175 180 180 181 182 183 183 184 185 188 188 190 191 192 0 0 0 0 0
    0 0 0 0 0 0 0 0 0 0 0 0 0 0 0 0 0 0 0 0 0 0 0 0 0 0 0 0 0 0 0 0 0 0 0 0 0 0 0 0 0 0 0 0 0 0 0 0 0 0 0 0 0 0 0 0 0 0 0 0 0 0 0 0 0 0 0 0 0 46 51 46 47 43 43 44 43 43 43 41 42 38 42 43 34 37 38 38 -193 34 32 30 31 32 31 32 33 33 33 33 33 32 32 32 31 31 30 30 30 29 29 27 27 26 25 25 25 24 23 24 23 22 20 23 21 24 24 23 23 -209 -209 -209 15 15 10 16 -193 -193 -193 -193 72 74 73 -225 -225 -225 127 -225 -225 -193 -193 -193 -209 -193 -193 -209 -193 -209 -225 -209 -225 -225 -225 -225 -225 -225 -225 -225 -225 -225 -225 -225 10 -209 -209 -209 -225 -225 32 36 35 -225 -193 34 33 33 35 38 39 40 41 42 49 48 50 48 50 49 49 49 51 51 52 53 54 54 57 60 -193 -193 0 -193 0 0 0 -177 74 -177 -177 75 77 79 76 79 78 81 82 80 85 86 86 -209 -209 -209 -209 -209 -193 92 93 95 96 99 102 107 110 109 110 111 116 120 120 120 121 122 124 123 123 123 119 120 121 122 123 124 127 131 134 135 136 137 144 142 142 142 149 144 144 145 147 145 147 148 149 -193 157 158 158 158 161 163 162 162 162 161 164 165 165 163 164 170 173 175 180 180 181 182 182 183 184 185 187 188 189 190 192 0 0 0 0 0
    0 0 0 0 0 0 0 0 0 0 0 0 0 0 0 0 0 0 0 0 0 0 0 0 0 0 0 0 0 0 0 0 0 0 0 0 0 0 0 0 0 0 0 0 0 0 0 0 0 0 0 0 0 0 0 0 0 0 0 0 0 0 0 0 0 0 0 0 0 45 50 45 47 43 43 44 43 43 43 41 42 38 42 43 33 37 38 39 -209 -209 -193 31 32 32 32 32 33 33 34 33 34 32 32 33 31 31 30 30 30 29 29 28 27 26 -193 -193 24 24 23 23 23 22 20 23 20 23 24 23 22 21 26 25 20 19 -193 19 -193 -193 71 71 72 73 74 -225 -225 -225 -225 -225 -225 -225 -225 -225 -225 -225 -225 -225 -225 -225 -225 -225 -225 -225 -225 -225 -225 -225 -225 -225 -225 -225 -225 -225 -225 -225 -225 -225 -225 -225 -225 -225 -225 -225 38 33 33 34 36 38 39 40 41 42 49 48 50 48 50 48 48 48 50 50 52 52 54 -193 58 60 61 -193 0 -193 -193 0 -177 -193 74 73 75 75 77 79 77 79 78 80 83 80 85 86 86 -209 -209 -209 -209 -209 -209 -209 -209 -209 95 99 102 105 109 109 109 110 115 119 119 120 121 122 123 123 123 123 117 120 121 122 122 123 125 128 133 134 136 136 143 141 142 142 148 144 144 144 147 145 146 148 149 -193 157 158 158 158 161 163 162 162 162 160 164 165 165 163 164 170 174 175 181 181 180 181 182 182 184 185 187 188 189 191 192 0 0 0 0 0
    0 0 0 0 0 0 0 0 0 0 0 0 0 0 0 0 0 0 0 0 0 0 0 0 0 0 0 0 0 0 0 0 0 0 0 0 0 0 0 0 0 0 0 0 0 0 0 0 0 0 0 0 0 0 0 0 0 0 0 0 0 0 0 0 0 0 0 0 0 44 49 45 46 43 43 44 43 43 43 41 42 38 42 43 32 38 39 -209 -209 -209 -209 35 35 34 33 32 34 34 34 33 33 32 32 33 31 31 30 30 30 29 28 28 27 26 -193 -193 24 23 23 23 23 21 19 22 18 23 22 22 21 20 26 26 -193 -193 -225 22 -225 -225 -225 -225 -225 -225 -225 -225 -225 -225 -225 -225 -225 -225 -225 -225 -225 -225 -225 -225 -225 -225 -225 -225 -225 -225 -225 -225 -225 -225 -225 -225 -225 -225 -225 -225 -225 -225 -225 -225 -225 -225 -225 -225 -225 -225 38 34 34 35 37 38 39 40 41 42 50 48 50 47 50 48 48 48 51 50 52 52 55 -193 59 61 62 62 0 66 68 -177 -193 74 75 74 75 75 77 80 77 80 78 80 83 80 85 85 -193 -209 -209 -209 -209 -209 -209 -209 -209 -209 95 98 101 104 108 108 108 109 115 119 118 119 120 121 122 122 122 122 115 118 120 120 121 122 124 128 133 134 136 136 143 142 142 142 148 144 144 144 147 145 146 148 -193 -193 157 158 158 158 161 163 162 162 162 160 165 165 165 164 164 170 174 175 181 181 180 182 182 182 184 185 187 188 190 191 192 0 0 0 0 0
    0 0 0 0 0 0 0 0 0 0 0 0 0 0 0 0 0 0 0 0 0 0 0 0 0 0 0 0 0 0 0 0 0 0 0 0 0 0 0 0 0 0 0 0 0 0 0 0 0 0 0 0 0 0 0 0 0 0 0 0 0 0 0 0 0 0 0 0 0 44 50 45 46 43 43 43 43 43 43 41 41 38 41 42 -225 -225 -225 -225 -209 -209 -209 -193 36 34 34 31 34 34 33 34 33 32 32 33 31 31 30 30 30 29 28 28 27 26 24 -193 23 23 23 23 22 21 18 21 15 21 21 20 18 16 25 -225 -225 -225 -225 -225 -225 -225 -225 -225 -225 -225 -225 -225 -225 -225 -225 -225 -225 -225 -225 -225 -225 -225 -225 -225 -225 -225 -225 -225 -225 -225 -225 -225 -225 -225 -225 -225 -225 -225 -225 -225 -225 -225 -225 -225 -225 -225 -225 -225 -225 -225 -225 36 36 37 38 39 40 42 42 42 51 47 50 48 50 49 49 49 51 51 53 53 57 -193 60 62 64 63 -193 66 68 -193 72 -193 74 74 75 75 77 80 77 80 78 79 83 81 85 85 -209 -209 -209 -209 -209 -209 -209 -209 -209 -209 -193 -193 100 103 108 108 108 109 115 118 117 118 119 119 121 121 121 121 112 117 119 120 121 122 125 129 133 134 135 136 141 142 142 143 149 144 145 145 148 146 147 149 -193 -193 157 158 158 158 160 163 162 162 163 160 165 165 165 164 164 170 173 174 181 181 181 182 -193 183 -209 186 188 189 190 192 192 0 0 0 0 0
    0 0 0 0 0 0 0 0 0 0 0 0 0 0 0 0 0 0 0 0 0 0 0 0 0 0 0 0 0 0 0 0 0 0 0 0 0 0 0 0 0 0 0 0 0 0 0 0 0 0 0 0 0 0 0 0 0 0 0 0 0 0 0 0 0 0 0 0 0 44 50 45 46 43 43 43 43 42 43 41 41 38 41 42 -225 -225 -225 -225 -225 -209 41 -209 -193 37 35 33 33 35 34 33 34 33 31 33 31 31 30 30 30 29 28 29 27 26 24 25 23 23 23 23 22 20 17 20 14 20 19 19 15 13 -225 -225 -225 -225 -225 -225 -225 -225 -225 -225 -225 -225 -225 -225 -225 -225 -225 -225 -225 -225 -225 -225 -225 -225 -225 -225 -225 -225 -225 -225 -225 -225 -225 -225 -225 -225 -225 -225 -225 -225 -225 -225 -225 -225 -225 -225 -225 -225 -225 -225 -225 -225 38 36 36 37 38 39 40 42 42 43 52 47 51 48 50 50 49 50 52 51 54 54 58 58 60 63 64 64 66 66 67 -177 71 -193 74 73 75 75 77 79 77 80 78 78 82 81 84 85 -209 -209 -209 -209 -209 -209 -209 -209 -209 -209 94 -193 100 103 109 108 108 109 114 118 116 117 118 118 120 120 119 118 110 117 118 120 121 123 126 129 132 133 134 135 140 141 141 142 149 145 145 146 148 147 147 149 -193 -193 158 158 158 158 160 163 161 162 162 159 164 165 165 164 163 170 172 174 181 181 180 182 -193 -193 90 -193 188 189 191 192 -177 0 0 0 0 0
    0 0 0 0 0 0 0 0 0 0 0 0 0 0 0 0 0 0 0 0 0 0 0 0 0 0 0 0 0 0 0 0 0 0 0 0 0 0 0 0 0 0 0 0 0 0 0 0 0 0 0 0 0 0 0 0 0 0 0 0 0 0 0 0 0 0 0 0 0 44 49 45 46 43 43 44 43 43 43 41 41 38 41 42 -225 -225 -225 -225 -225 -193 43 -193 -209 -193 37 33 32 36 34 33 34 33 31 33 31 31 30 30 30 29 28 29 27 26 24 24 23 23 22 23 21 19 17 18 14 19 18 18 13 -225 -225 -225 -225 -225 -225 -225 -225 -225 -225 -225 -225 -225 -225 -225 -225 -225 -225 -225 -225 -225 -225 -225 -225 -225 -225 -225 -225 -225 -225 -225 -225 -225 -225 -225 -225 -225 -225 -225 -225 -225 -225 -225 -225 -225 -225 -225 -225 -225 -225 -225 -225 -225 37 36 36 37 39 39 39 42 42 43 52 47 51 48 50 50 49 49 51 51 54 54 58 58 60 63 64 63 65 65 67 -177 70 71 -193 -193 74 74 77 78 76 79 78 77 82 81 83 83 -209 -209 -209 -209 -209 -209 -209 -209 -209 -209 95 -193 100 103 -193 108 109 109 114 118 116 117 117 117 119 118 118 117 109 117 119 120 122 123 125 128 131 131 133 134 138 140 140 141 149 146 146 147 148 148 148 150 -193 -209 158 158 158 158 160 163 161 161 162 159 164 165 165 164 163 170 172 173 180 181 180 182 -177 -193 89 -193 189 190 192 193 193 0 0 0 0 0
    0 0 0 0 0 0 0 0 0 0 0 0 0 0 0 0 0 0 0 0 0 0 0 0 0 0 0 0 0 0 0 0 0 0 0 0 0 0 0 0 0 0 0 0 0 0 0 0 0 0 0 0 0 0 0 0 0 0 0 0 0 0 0 0 0 0 0 0 0 45 49 45 46 44 43 44 43 43 43 41 42 39 41 41 -225 -225 -225 -225 -225 43 42 42 -193 -193 38 34 32 35 34 33 34 33 31 33 31 31 30 30 30 29 28 29 26 26 25 24 23 23 22 23 21 19 16 17 14 18 18 18 12 -225 -225 -225 -225 -225 -225 -225 -225 -225 -225 -225 -225 -225 -225 -225 -225 -225 -225 -225 -225 -225 -225 -225 -225 -225 -225 -225 -225 -225 -225 -225 -225 -225 -225 -225 -225 -225 -225 -225 -225 -225 -225 -225 -225 -225 -225 -225 -225 -225 -225 -225 -225 -225 36 36 36 38 39 39 39 41 42 43 52 47 50 47 50 50 49 49 51 51 54 53 58 58 60 63 65 64 66 66 67 -193 70 70 -209 -193 -193 -193 76 77 75 78 78 76 81 81 82 83 86 -209 88 -193 -209 -209 -209 -209 -209 93 96 99 99 103 -193 107 108 108 114 118 115 116 116 116 118 118 117 116 109 119 120 121 123 124 126 128 130 131 132 134 137 139 140 141 149 147 147 148 149 -193 150 151 -193 153 158 158 159 159 159 163 161 161 162 158 164 164 165 165 162 170 173 173 180 180 180 182 -193 -193 90 -193 190 192 193 195 195 0 0 0 0 0
    0 0 0 0 0 0 0 0 0 0 0 0 0 0 0 0 0 0 0 0 0 0 0 0 0 0 0 0 0 0 0 0 0 0 0 0 0 0 0 0 0 0 0 0 0 0 0 0 0 0 0 0 0 0 0 0 0 0 0 0 0 0 0 0 0 0 0 0 0 45 49 46 47 44 44 45 44 43 43 42 42 40 41 41 -225 -225 -225 -225 -225 42 41 41 41 -193 -209 35 33 34 35 33 33 33 31 33 31 31 30 30 30 29 28 30 27 26 25 24 23 23 22 22 21 18 17 16 13 17 17 17 -225 -225 -225 -225 -225 -225 -225 -225 -225 -225 -225 -225 -225 -225 -225 -225 -225 -225 -225 -225 -225 -225 -225 -225 -225 -225 -225 -225 -225 -225 -225 -225 -225 -225 -225 -225 -225 -225 -225 -225 -225 -225 -225 -225 -225 -225 -225 -225 -225 -225 -225 -225 -225 -225 36 36 37 38 39 38 39 40 42 43 52 46 50 47 49 50 49 49 51 51 54 54 58 59 60 64 67 66 67 67 67 70 69 70 -193 -193 -193 -193 76 77 75 78 79 76 81 82 83 83 87 88 89 91 91 92 -209 -209 -209 93 96 98 99 102 -193 107 107 107 112 117 115 115 116 115 117 117 116 115 109 119 121 122 123 124 126 129 130 131 132 133 137 139 140 141 149 148 149 149 150 -193 151 -209 -193 154 158 159 159 159 159 162 161 160 162 158 164 164 165 165 161 170 173 173 179 180 180 182 -193 -193 91 -193 190 193 194 196 196 0 0 0 0 0
    0 0 0 0 0 0 0 0 0 0 0 0 0 0 0 0 0 0 0 0 0 0 0 0 0 0 0 0 0 0 0 0 0 0 0 0 0 0 0 0 0 0 0 0 0 0 0 0 0 0 0 0 0 0 0 0 0 0 0 0 0 0 0 0 0 0 0 0 0 46 49 47 47 45 44 45 44 43 43 42 42 41 41 41 -225 -225 -225 -225 41 42 41 41 41 -193 40 36 34 34 35 33 32 33 31 33 31 31 30 30 29 30 28 30 27 26 25 24 23 23 22 22 20 18 17 15 13 16 16 16 -225 -225 -225 -225 -225 -225 -225 -225 -225 -225 -225 -225 -225 -225 -225 -225 -225 -225 -225 -225 -225 -225 -225 -225 -225 -225 -225 -225 -225 -225 -225 -225 -225 -225 -225 -225 -225 -225 -225 -225 -225 -225 -225 -225 -225 -225 -225 -225 -225 -225 -225 -225 -225 38 35 36 36 37 38 38 38 40 41 43 51 46 50 47 49 50 49 50 52 52 55 55 59 60 61 64 67 67 67 67 67 69 69 70 -177 -209 -193 -193 76 77 76 78 80 76 81 81 82 82 86 88 89 91 91 92 92 -209 94 95 97 100 100 102 107 106 107 107 111 117 114 114 115 114 117 116 116 115 109 119 121 122 124 125 127 129 130 130 132 133 136 139 140 141 149 149 150 150 151 -177 -193 154 155 155 158 159 159 159 158 162 161 160 162 158 164 164 165 165 162 170 173 172 179 179 180 -193 -177 94 92 -193 190 193 194 197 196 0 0 0 0 0
    0 0 0 0 0 0 0 0 0 0 0 0 0 0 0 0 0 0 0 0 0 0 0 0 0 0 0 0 0 0 0 0 0 0 0 0 0 0 0 0 0 0 0 0 0 0 0 0 0 0 0 0 0 0 0 0 0 0 0 0 0 0 0 0 0 0 0 0 0 46 49 47 47 46 44 45 44 44 44 43 42 41 41 41 -225 -225 -225 47 41 41 41 41 41 40 39 36 34 34 33 33 31 33 31 33 31 31 30 30 29 30 28 30 27 26 25 24 23 23 22 22 20 18 17 15 13 16 16 16 -225 -225 -225 -225 -225 -225 -225 -225 -225 -225 -225 -225 -225 -225 -225 -225 -225 -225 -225 -225 -225 -225 -225 -225 -225 -225 -225 -225 -225 -225 -225 -225 -225 -225 -225 -225 -225 -225 -225 -225 -225 -225 -225 -225 -225 -225 -225 -225 -225 -225 -225 -225 -225 37 35 36 36 37 37 38 38 39 41 42 49 46 49 47 49 51 49 50 52 52 55 56 59 60 60 64 67 66 67 67 67 69 68 69 -177 -193 -193 -193 75 76 75 78 80 76 80 80 81 81 85 86 88 90 90 92 93 93 95 96 98 100 100 103 108 107 107 107 110 116 113 114 115 113 117 116 116 116 110 120 121 123 124 125 127 129 130 131 132 133 136 139 140 141 149 150 -193 -193 -193 -177 154 155 157 156 159 159 159 159 158 162 160 161 162 159 164 165 165 166 163 170 174 171 178 179 180 -193 -177 94 92 -193 -193 193 194 197 196 0 0 0 0 0
    0 0 0 0 0 0 0 0 0 0 0 0 0 0 0 0 0 0 0 0 0 0 0 0 0 0 0 0 0 0 0 0 0 0 0 0 0 0 0 0 0 0 0 0 0 0 0 0 0 0 0 0 0 0 0 0 0 0 0 0 0 0 0 0 0 0 0 0 0 47 49 47 47 46 44 46 44 44 44 43 43 42 41 42 -225 -225 46 47 41 41 41 41 40 40 38 35 34 33 31 33 31 32 30 33 31 31 30 30 29 30 29 30 27 27 25 25 23 23 22 22 20 18 18 16 12 16 16 16 -225 -225 -225 -225 -225 -225 -225 -225 -225 -225 -225 -225 -225 -225 -225 -225 -225 -225 -225 -225 -225 -225 -225 -225 -225 -225 -225 -225 -225 -225 -225 -225 -225 -225 -225 -225 -225 -225 -225 -225 -225 -225 -225 -225 -225 -225 -225 -225 -225 -225 -225 -225 -225 36 35 36 36 37 37 37 37 40 41 41 48 46 49 48 49 51 50 51 52 53 55 57 59 60 61 64 67 66 66 67 66 69 68 69 -193 -193 72 71 75 76 75 78 80 76 80 80 80 80 85 86 88 90 90 92 93 94 95 97 98 101 102 104 109 107 108 108 111 117 114 114 115 113 117 116 116 116 111 120 122 123 124 125 127 130 130 131 132 133 136 139 140 141 149 -209 -193 -193 -193 -177 155 156 158 157 159 159 160 160 158 162 160 161 162 159 164 165 165 166 163 170 173 171 176 179 -193 -193 93 94 92 -193 -193 194 194 -177 -177 0 0 0 0 0
    0 0 0 0 0 0 0 0 0 0 0 0 0 0 0 0 0 0 0 0 0 0 0 0 0 0 0 0 0 0 0 0 0 0 0 0 0 0 0 0 0 0 0 0 0 0 0 0 0 0 0 0 0 0 0 0 0 0 0 0 0 0 0 0 0 0 0 0 0 47 49 48 47 47 45 46 45 44 44 43 43 42 41 42 33 42 45 46 40 40 40 39 39 38 37 35 35 34 31 32 32 32 30 32 31 30 30 30 29 29 29 30 27 27 26 25 23 23 23 22 21 18 18 15 12 15 15 15 -225 -225 -225 -225 -225 -225 -225 -225 -225 -225 -225 -225 -225 -225 -225 -225 -225 -225 -225 -225 -225 -225 -225 -225 -225 -225 -225 -225 -225 -225 -225 -225 -225 -225 -225 -225 -225 -225 -225 -225 -225 -225 -225 -225 -225 -225 -225 -225 -225 -225 -225 -225 -225 35 35 36 36 36 37 37 38 40 42 42 47 46 48 48 48 51 50 51 53 54 55 57 59 60 61 64 66 66 66 66 66 69 67 68 -193 -193 71 71 74 75 74 77 79 76 80 80 81 80 85 86 89 91 92 93 94 96 97 99 100 102 104 105 110 108 108 109 112 117 114 114 115 114 117 116 116 116 113 120 122 123 125 126 127 130 130 131 132 133 135 139 139 140 148 -209 -193 -193 -193 -193 155 157 159 158 159 160 160 160 158 162 160 161 162 159 164 165 165 166 163 170 173 171 174 177 -193 -193 94 94 92 -193 -193 194 194 -177 -177 0 0 0 0 0
    0 0 0 0 0 0 0 0 0 0 0 0 0 0 0 0 0 0 0 0 0 0 0 0 0 0 0 0 0 0 0 0 0 0 0 0 0 0 0 0 0 0 0 0 0 0 0 0 0 0 0 0 0 0 0 0 0 0 0 0 0 0 0 0 0 0 0 0 0 47 48 48 47 47 45 46 45 45 44 44 43 43 42 43 -193 42 47 46 40 39 39 38 39 38 37 35 35 35 32 32 32 31 30 32 31 30 29 29 29 28 28 29 27 27 26 25 23 23 23 22 20 18 18 15 12 15 15 15 -225 -225 -225 -225 -225 -225 -225 -225 -225 -225 -225 -225 -225 -225 -225 -225 -225 -225 -225 -225 -225 -225 -225 -225 -225 -225 -225 -225 -225 -225 -225 -225 -225 -225 -225 -225 -225 -225 -225 -225 -225 -225 -225 -225 -225 -225 -225 -225 -225 -225 -225 -225 36 33 34 36 35 36 37 36 38 41 43 43 46 47 48 48 48 51 50 51 52 54 55 56 58 59 61 63 66 66 66 67 67 69 67 68 71 -193 71 -193 73 73 73 76 78 75 79 80 81 80 85 86 88 91 92 93 95 96 99 100 102 103 105 106 110 108 108 109 112 116 114 114 115 114 117 116 116 116 114 120 122 123 124 125 127 130 130 131 132 133 135 139 139 140 147 -193 152 153 -193 -193 155 158 159 159 159 160 160 160 158 162 160 161 162 160 164 166 165 166 164 170 174 171 174 176 -193 -209 94 95 92 91 -193 -193 -193 -209 -177 0 0 0 0 0
    0 0 0 0 0 0 0 0 0 0 0 0 0 0 0 0 0 0 0 0 0 0 0 0 0 0 0 0 0 0 0 0 0 0 0 0 0 0 0 0 0 0 0 0 0 0 0 0 0 0 0 0 0 0 0 0 0 0 0 0 0 0 0 0 0 0 0 0 0 47 48 48 47 48 45 47 45 45 45 44 44 44 42 44 -193 42 47 44 39 37 38 38 38 37 37 36 36 36 33 33 32 31 30 31 30 29 28 28 28 28 28 29 27 26 25 25 22 22 22 22 20 18 17 15 11 14 14 14 -225 -225 -225 -225 -225 -225 -225 -225 -225 -225 -225 -225 -225 -225 -225 -225 -225 -225 -225 -225 -225 -225 -225 -225 -225 -225 -225 -225 -225 -225 -225 -225 -225 -225 -225 -225 -225 -225 -225 -225 -225 -225 -225 -225 -225 -225 -225 -225 -225 -225 -225 -225 35 33 34 36 35 36 37 36 38 40 42 42 44 46 47 48 47 50 50 50 52 53 54 56 57 59 60 62 66 66 67 68 68 70 68 68 71 70 70 -193 72 72 72 75 77 75 79 81 81 80 85 86 88 90 91 92 95 96 100 101 103 104 105 106 110 109 109 109 113 116 114 114 115 114 116 116 116 116 115 120 122 123 123 125 126 129 130 131 133 133 135 140 140 140 147 152 152 152 152 -193 155 158 159 159 159 160 160 160 158 162 160 161 162 160 164 166 166 166 164 170 174 171 174 175 175 -209 -193 95 92 92 -193 -193 -209 -209 -209 0 0 0 0 0
    0 0 0 0 0 0 0 0 0 0 0 0 0 0 0 0 0 0 0 0 0 0 0 0 0 0 0 0 0 0 0 0 0 0 0 0 0 0 0 0 0 0 0 0 0 0 0 0 0 0 0 0 0 0 0 0 0 0 0 0 0 0 0 0 0 0 0 0 0 48 48 48 47 48 45 47 46 45 45 45 44 45 42 44 -193 -193 48 43 37 35 37 37 38 37 37 37 36 36 33 33 31 31 30 31 30 29 28 28 28 28 28 29 -193 27 26 26 22 22 22 22 20 17 17 15 11 14 14 14 -225 -225 -225 -225 -225 -225 -225 -225 -225 -225 -225 -225 -225 -225 -225 -225 -225 -225 -225 -225 -225 -225 -225 -225 -225 -225 -225 -225 -225 -225 -225 -225 -225 -225 -225 -225 -225 -225 -225 -225 -225 -225 -225 -225 -225 -225 -225 -225 -225 -225 -225 -225 34 33 34 36 35 37 36 36 38 39 42 42 43 46 46 48 47 50 50 50 52 53 53 55 56 59 60 62 65 66 67 69 69 70 68 69 71 70 70 -193 71 71 71 75 76 74 78 81 82 80 85 86 87 89 91 91 95 96 100 101 103 104 105 107 110 109 110 110 112 116 114 114 114 113 116 116 117 117 115 120 122 123 123 124 126 130 131 132 133 134 135 141 140 140 146 152 150 151 152 -193 154 157 158 159 158 160 160 160 158 162 160 161 161 161 164 166 166 166 165 170 174 172 173 175 174 -209 -193 -193 93 92 93 -193 -209 -209 -193 0 0 0 0 0
    0 0 0 0 0 0 0 0 0 0 0 0 0 0 0 0 0 0 0 0 0 0 0 0 0 0 0 0 0 0 0 0 0 0 0 0 0 0 0 0 0 0 0 0 0 0 0 0 0 0 0 0 0 0 0 0 0 0 0 0 0 0 0 0 0 0 0 0 0 48 48 48 46 48 45 47 46 45 45 45 44 45 42 44 -193 42 53 -209 -209 36 39 38 39 38 37 37 36 36 33 34 31 31 30 30 30 29 28 29 28 28 28 29 28 27 26 26 22 22 21 21 19 16 16 15 11 13 13 13 -225 -225 -225 -225 -225 -225 -225 -225 -225 -225 -225 -225 -225 -225 -225 -225 -225 -225 -225 -225 -225 -225 -225 -225 -225 -225 -225 -225 -225 -225 -225 -225 -225 -225 -225 -225 -225 -225 -225 -225 -225 -225 -225 -225 -225 -225 -225 -225 -225 -225 -225 -225 33 33 34 36 35 37 36 36 39 40 42 42 43 46 45 48 47 49 51 50 52 53 53 55 56 58 59 61 63 64 66 69 69 71 68 69 71 70 70 -193 70 70 69 74 75 73 78 82 83 81 86 87 88 89 91 92 96 98 101 102 104 105 107 108 110 109 111 110 112 115 114 113 114 114 116 115 117 117 117 121 122 123 124 124 127 131 131 132 134 134 135 142 140 140 145 151 149 150 151 -193 153 157 157 158 158 160 160 160 158 162 160 162 161 161 164 166 166 166 165 169 174 172 172 174 171 -209 -193 -193 -193 94 95 -193 -209 -193 199 0 0 0 0 0
    0 0 0 0 0 0 0 0 0 0 0 0 0 0 0 0 0 0 0 0 0 0 0 0 0 0 0 0 0 0 0 0 0 0 0 0 0 0 0 0 0 0 0 0 0 0 0 0 0 0 0 0 0 0 0 0 0 0 0 0 0 0 0 0 0 0 0 0 0 49 48 48 46 49 46 47 46 45 45 45 44 46 42 45 -209 42 54 -209 -209 37 40 39 39 39 37 37 36 35 32 34 31 31 30 30 30 29 28 29 28 28 27 29 27 27 26 25 21 21 21 21 19 16 15 14 10 12 12 12 -225 -225 -225 -225 -225 -225 -225 -225 -225 -225 -225 -225 -225 -225 -225 -225 -225 -225 -225 -225 -225 -225 -225 -225 -225 -225 -225 -225 -225 -225 -225 -225 -225 -225 -225 -225 -225 -225 -225 -225 -225 -225 -225 -225 -225 -225 -225 -225 -225 -225 -225 35 32 32 33 35 34 37 35 36 38 39 41 42 42 45 44 48 47 49 51 51 52 53 53 56 56 58 60 60 62 62 65 68 68 70 68 69 71 70 -193 69 69 69 67 73 74 72 77 82 83 81 85 86 87 89 91 93 98 99 102 103 104 106 108 108 109 110 111 110 112 115 113 113 114 114 116 116 118 118 118 121 123 123 124 124 127 131 132 133 135 135 136 144 141 141 145 151 148 148 150 -193 152 156 156 158 158 159 160 160 158 162 160 162 161 161 164 166 166 166 166 169 174 173 172 174 170 -193 -193 -193 -193 96 97 -193 -193 198 198 0 0 0 0 0
    0 0 0 0 0 0 0 0 0 0 0 0 0 0 0 0 0 0 0 0 0 0 0 0 0 0 0 0 0 0 0 0 0 0 0 0 0 0 0 0 0 0 0 0 0 0 0 0 0 0 0 0 0 0 0 0 0 0 0 0 0 0 0 0 0 0 0 0 0 49 48 48 46 49 46 47 46 46 45 45 45 46 42 45 -209 -209 -193 -209 -209 -209 -209 38 39 39 37 37 35 35 32 34 32 31 30 30 30 29 28 29 28 28 27 28 27 26 25 25 21 20 20 21 18 15 14 13 10 11 11 11 -225 -225 -225 -225 -225 -225 -225 -225 -225 -225 -225 -225 -225 -225 -225 -225 -225 -225 -225 -225 -225 -225 -225 -225 -225 -225 -225 -225 -225 -225 -225 -225 -225 -225 -225 -225 -225 -225 -225 -225 -225 -225 -225 -225 -225 -225 -225 -225 -225 -225 -225 34 32 32 33 35 35 38 36 37 39 39 41 41 41 45 43 47 46 48 51 50 51 53 52 56 55 59 60 59 60 61 64 68 68 71 69 69 71 70 -193 70 69 69 66 72 72 69 76 82 83 80 84 86 87 90 93 94 98 98 102 103 106 107 109 109 109 111 112 111 112 114 114 114 114 115 115 116 118 118 118 121 122 122 123 124 126 132 133 134 136 137 137 145 141 141 144 150 147 147 149 -193 151 155 155 157 157 159 160 160 158 162 161 162 161 161 164 166 166 166 -193 169 174 174 172 173 170 179 -209 -193 -193 96 97 -193 -193 197 198 0 0 0 0 0
    0 0 0 0 0 0 0 0 0 0 0 0 0 0 0 0 0 0 0 0 0 0 0 0 0 0 0 0 0 0 0 0 0 0 0 0 0 0 0 0 0 0 0 0 0 0 0 0 0 0 0 0 0 0 0 0 0 0 0 0 0 0 0 0 0 0 0 0 0 49 48 49 46 49 46 47 46 46 45 46 45 47 42 46 -209 -209 -193 -209 -209 -209 -209 39 39 38 37 37 35 35 32 34 32 32 30 31 30 29 28 29 27 28 27 27 26 26 25 24 20 19 19 20 17 14 13 12 9 10 10 10 -225 -225 -225 -225 -225 -225 -225 -225 -225 -225 -225 -225 -225 -225 -225 -225 -225 -225 -225 -225 -225 -225 -225 -225 -225 -225 -225 -225 -225 -225 -225 -225 -225 -225 -225 -225 -225 -225 -225 -225 -225 -225 -225 -225 -225 -225 -225 -225 -225 -225 -225 33 32 32 33 34 36 39 37 39 40 40 42 42 42 45 43 47 46 48 50 50 51 53 52 55 55 58 60 58 60 61 65 70 70 72 70 71 72 71 -177 -193 68 68 65 71 71 67 75 82 83 80 84 85 87 90 93 94 97 98 102 104 106 108 109 109 110 112 112 111 112 114 114 114 114 114 115 116 118 118 118 121 123 122 124 124 127 133 133 134 137 137 138 146 141 141 143 149 146 146 148 151 150 153 154 156 157 159 160 160 159 162 161 162 161 161 163 166 165 -193 -193 -193 173 174 171 173 -193 177 -209 -193 -193 96 -193 -193 -193 196 197 0 0 0 0 0
    0 0 0 0 0 0 0 0 0 0 0 0 0 0 0 0 0 0 0 0 0 0 0 0 0 0 0 0 0 0 0 0 0 0 0 0 0 0 0 0 0 0 0 0 0 0 0 0 0 0 0 0 0 0 0 0 0 0 0 0 0 0 0 0 0 0 0 0 0 49 48 49 46 50 46 47 47 46 45 46 45 47 42 46 -209 -209 -209 -209 -193 -209 -209 40 39 38 38 38 35 36 32 35 32 32 30 31 30 29 28 29 27 28 26 27 26 25 25 23 19 18 18 19 15 13 12 12 0 0 0 0 -225 -225 -225 -225 -225 -225 -225 -225 -225 -225 -225 -225 -225 -225 -225 -225 -225 -225 -225 -225 -225 -225 -225 -225 -225 -225 -225 -225 -225 -225 -225 -225 -225 -225 -225 -225 -225 -225 -225 -225 -225 -225 -225 -225 -225 -225 -225 -225 -225 -225 -225 32 32 33 33 34 36 39 37 39 40 41 43 42 42 45 43 47 46 48 50 49 50 52 51 54 53 57 58 57 59 60 65 71 71 73 71 72 73 71 -177 -193 68 68 65 70 70 66 75 81 82 80 82 85 87 90 93 94 97 99 103 105 107 108 108 109 111 112 112 111 111 114 114 114 114 114 116 116 118 118 118 121 123 123 124 125 128 133 133 134 136 137 138 147 142 142 143 149 145 145 147 150 148 152 153 -193 156 158 160 161 159 162 162 162 161 161 163 166 165 -193 -193 -209 172 174 171 173 -193 176 -193 -193 -193 97 -193 -193 194 195 196 0 0 0 0 0
    0 0 0 0 0 0 0 0 0 0 0 0 0 0 0 0 0 0 0 0 0 0 0 0 0 0 0 0 0 0 0 0 0 0 0 0 0 0 0 0 0 0 0 0 0 0 0 0 0 0 0 0 0 0 0 0 0 0 0 0 0 0 0 0 0 0 0 0 0 49 48 50 46 50 47 48 47 46 45 46 45 47 42 45 -209 -209 -193 -209 -209 -209 -209 42 41 39 38 38 35 36 32 35 31 32 30 31 30 30 28 29 27 28 27 27 26 26 25 23 19 18 17 19 14 12 12 11 0 0 0 0 -225 -225 -225 -225 -225 -225 -225 -225 -225 -225 -225 -225 -225 -225 -225 -225 -225 -225 -225 -225 -225 -225 -225 -225 -225 -225 -225 -225 -225 -225 -225 -225 -225 -225 -225 -225 -225 -225 -225 -225 -225 -225 -225 -225 -225 -225 -225 -225 -225 -225 35 32 32 32 33 34 36 39 37 39 40 40 42 42 41 44 43 46 45 48 49 48 49 51 49 53 52 57 57 57 59 60 66 72 72 73 72 73 74 71 -193 -193 68 69 66 70 70 67 75 81 82 81 84 86 88 91 93 94 98 100 103 105 106 107 108 109 110 111 111 110 111 114 114 114 114 115 116 117 119 119 118 121 124 124 125 126 128 132 133 134 136 137 138 147 142 142 143 149 145 145 146 149 147 151 152 -209 -193 158 160 160 -193 162 163 163 162 160 162 166 164 -193 -177 -193 172 174 171 173 -193 176 180 -193 -193 98 -193 190 192 194 195 0 0 0 0 0
    0 0 0 0 0 0 0 0 0 0 0 0 0 0 0 0 0 0 0 0 0 0 0 0 0 0 0 0 0 0 0 0 0 0 0 0 0 0 0 0 0 0 0 0 0 0 0 0 0 0 0 0 0 0 0 0 0 0 0 0 0 0 0 0 0 0 0 0 0 49 48 50 46 50 47 48 47 46 45 46 45 47 42 45 -193 -209 -193 -209 -209 -209 -209 43 41 39 37 38 34 35 31 35 31 32 30 31 30 30 28 29 27 29 27 27 26 26 25 24 20 19 17 19 14 11 11 10 0 0 0 0 -225 -225 -225 -225 -225 -225 -225 -225 -225 -225 -225 -225 -225 -225 -225 -225 -225 -225 -225 -225 -225 -225 -225 -225 -225 -225 -225 -225 -225 -225 -225 -225 -225 -225 -225 -225 -225 -225 -225 -225 -225 -225 -225 -225 -225 -225 -225 -225 -225 -225 34 32 32 32 32 33 36 39 37 39 40 39 40 41 41 44 42 46 45 47 49 48 50 51 50 54 53 57 57 57 59 60 65 72 72 73 72 73 74 72 -193 -193 69 70 69 71 71 70 75 81 81 81 84 87 88 91 93 96 98 100 102 103 105 106 108 108 109 111 111 110 110 114 114 113 114 114 115 117 119 119 118 121 124 124 126 127 127 131 133 134 135 136 137 146 142 142 142 149 144 144 146 149 147 150 151 -209 -209 157 159 -193 -177 162 163 163 162 160 162 165 163 -193 -193 -193 172 175 171 174 171 177 180 182 -193 -193 -193 189 190 192 193 0 0 0 0 0
    0 0 0 0 0 0 0 0 0 0 0 0 0 0 0 0 0 0 0 0 0 0 0 0 0 0 0 0 0 0 0 0 0 0 0 0 0 0 0 0 0 0 0 0 0 0 0 0 0 0 0 0 0 0 0 0 0 0 0 0 0 0 0 0 0 0 0 0 0 49 48 50 46 50 47 48 47 46 45 46 45 47 42 45 -193 -209 -193 -209 -209 -209 -209 -209 39 37 34 37 32 35 31 35 31 32 30 31 30 30 28 29 27 28 27 27 26 26 25 24 20 19 17 19 14 11 11 10 0 0 0 0 -225 -225 -225 -225 -225 -225 -225 -225 -225 -225 -225 -225 -225 -225 -225 -225 -225 -225 -225 -225 -225 -225 -225 -225 -225 -225 -225 -225 -225 -225 -225 -225 -225 -225 11 0 0 0 0 0 -225 -225 -225 -225 -225 -225 -225 -225 -225 -225 33 32 32 32 32 33 36 39 38 40 40 40 40 41 40 44 42 46 45 47 49 48 50 52 50 54 53 57 57 57 59 59 65 72 71 72 73 73 74 72 72 72 70 71 71 72 72 73 75 80 81 82 84 87 88 91 94 96 97 99 101 103 104 105 107 107 108 111 111 110 110 114 114 113 115 115 116 118 120 120 119 121 124 125 126 127 127 131 133 134 135 136 136 145 141 141 142 149 144 144 145 148 146 149 150 -193 -209 157 158 -193 -177 162 164 162 162 159 161 165 162 163 -193 165 172 175 172 175 172 178 181 182 182 185 187 188 189 191 192 0 0 0 0 0
    0 0 0 0 0 0 0 0 0 0 0 0 0 0 0 0 0 0 0 0 0 0 0 0 0 0 0 0 0 0 0 0 0 0 0 0 0 0 0 0 0 0 0 0 0 0 0 0 0 0 0 0 0 0 0 0 0 0 0 0 0 0 0 0 0 0 0 0 0 49 47 50 46 50 47 48 47 46 46 46 45 47 42 45 -209 -209 -193 -209 -209 -209 -209 33 36 35 32 36 31 34 30 34 31 31 30 31 29 31 28 29 27 28 26 27 26 25 24 24 20 19 17 19 14 11 10 10 0 0 0 0 -225 -225 -225 -225 -225 -225 -225 -225 -225 -225 -225 -225 -225 -225 -225 -225 -225 -225 -225 -225 -225 -225 -225 -225 -225 -225 -225 -225 -225 -225 -225 -225 -225 15 14 10 10 10 10 0 0 -225 -225 -225 -225 -225 -225 -225 -225 -225 31 31 31 30 31 32 35 39 38 40 39 40 40 40 40 43 42 45 45 47 48 48 51 52 51 55 54 57 58 58 60 59 64 71 69 71 73 73 73 73 73 73 71 73 73 73 73 74 75 81 82 83 85 88 89 92 95 97 98 99 101 103 104 106 107 107 108 111 110 110 110 114 114 114 115 115 116 119 120 120 119 121 124 124 126 127 126 130 133 134 135 137 137 146 142 142 142 149 144 144 145 148 146 148 149 -193 -209 156 158 -193 -177 -193 -193 162 162 158 161 165 161 162 164 164 171 174 172 175 173 178 181 182 183 185 186 188 189 191 193 0 0 0 0 0
    0 0 0 0 0 0 0 0 0 0 0 0 0 0 0 0 0 0 0 0 0 0 0 0 0 0 0 0 0 0 0 0 0 0 0 0 0 0 0 0 0 0 0 0 0 0 0 0 0 0 0 0 0 0 0 0 0 0 0 0 0 0 0 0 0 0 0 0 0 49 47 50 46 50 47 48 47 46 46 46 45 47 42 45 -209 -193 -209 -209 -209 -209 32 29 33 33 30 35 30 34 30 34 31 31 30 31 29 31 28 28 27 28 26 26 26 25 23 24 19 18 17 19 14 11 10 10 0 0 0 0 -225 -225 -225 -225 -225 -225 -225 -225 -225 -225 -225 -225 -225 -225 -225 -225 -225 -225 -225 -225 -225 -225 -225 -225 -225 -225 -225 -225 -225 -225 -225 -225 22 15 15 12 11 11 11 9 10 0 -225 -225 -225 -225 -225 -225 -225 34 31 31 31 30 32 32 34 39 38 40 38 39 39 38 39 42 41 45 44 47 47 49 52 53 52 55 55 58 58 59 61 60 64 70 68 71 72 73 73 74 73 73 72 74 74 73 75 75 75 82 82 83 85 88 90 92 95 96 97 99 101 102 103 105 106 106 108 110 109 109 109 113 114 114 115 115 116 120 120 120 119 120 123 123 124 125 125 128 132 134 137 138 139 147 144 143 143 149 144 144 145 148 145 147 148 -193 -209 155 156 -193 -177 -193 -193 -193 161 156 159 164 159 161 164 164 171 174 172 176 174 179 181 183 183 185 186 188 189 192 194 0 0 0 0 0
    0 0 0 0 0 0 0 0 0 0 0 0 0 0 0 0 0 0 0 0 0 0 0 0 0 0 0 0 0 0 0 0 0 0 0 0 0 0 0 0 0 0 0 0 0 0 0 0 0 0 0 0 0 0 0 0 0 0 0 0 0 0 0 0 0 0 0 0 0 48 47 50 46 50 47 47 47 46 46 47 45 47 42 44 -209 -193 -209 -209 -209 -209 29 27 32 32 29 35 30 34 30 34 31 31 30 32 29 31 28 28 27 28 26 26 26 25 23 24 19 18 17 18 14 10 10 10 0 0 0 0 -225 -225 -225 -225 -225 -225 -225 -225 -225 -225 -225 -225 -225 -225 -225 -225 -225 -225 -225 -225 -225 -225 -225 -225 -225 -225 -225 -225 -225 -225 -225 -225 22 15 15 13 12 12 12 11 12 0 -225 -225 -225 -225 -225 -225 -225 33 31 31 31 31 33 33 34 39 38 39 39 39 39 38 39 42 41 45 44 47 46 48 52 52 51 55 54 57 57 59 61 60 64 70 67 70 72 72 73 74 74 74 73 75 76 74 76 76 75 83 83 84 85 89 91 93 95 95 96 99 101 102 103 104 105 106 107 109 108 108 108 112 114 114 115 116 117 121 121 120 120 120 123 123 124 125 125 127 131 134 136 137 138 144 144 143 143 149 145 144 145 148 145 146 148 -193 -209 -193 -193 -193 -177 -193 -193 -193 160 -193 158 163 157 160 163 164 171 174 173 177 175 180 182 183 183 185 186 187 190 193 195 0 0 0 0 0
    0 0 0 0 0 0 0 0 0 0 0 0 0 0 0 0 0 0 0 0 0 0 0 0 0 0 0 0 0 0 0 0 0 0 0 0 0 0 0 0 0 0 0 0 0 0 0 0 0 0 0 0 0 0 0 0 0 0 0 0 0 0 0 0 0 0 0 0 0 48 47 50 46 50 47 47 47 46 46 47 45 47 42 44 -209 12 -209 -209 -209 -209 29 27 32 32 29 36 30 35 30 34 31 31 30 32 29 31 28 29 27 28 26 26 25 25 23 24 19 18 16 19 14 10 10 10 0 0 0 0 -225 -225 -225 -225 -225 -225 -225 -225 -225 -225 -225 -225 -225 -225 -225 -225 -225 -225 -225 -225 -225 -225 -225 -225 -225 -225 -225 -225 -225 -225 -225 15 22 15 16 14 13 13 12 12 13 9 11 -225 -225 -225 -225 -225 -225 30 30 31 30 31 32 33 33 38 38 39 39 40 38 38 39 42 41 45 45 47 46 48 51 52 50 54 53 56 55 59 60 60 64 69 66 69 72 72 72 74 74 -193 74 76 77 75 78 78 76 83 83 84 86 90 91 93 94 95 96 99 100 101 102 103 105 104 106 108 107 107 107 112 114 113 115 116 118 121 121 120 120 120 123 124 125 125 125 126 130 133 134 136 136 142 143 142 142 149 145 145 145 148 145 145 147 -193 -209 -209 -193 -209 -177 -193 -193 -193 -193 -193 157 162 156 159 162 163 171 174 174 178 178 181 183 -193 184 -209 185 187 190 -193 196 0 0 0 0 0
    0 0 0 0 0 0 0 0 0 0 0 0 0 0 0 0 0 0 0 0 0 0 0 0 0 0 0 0 0 0 0 0 0 0 0 0 0 0 0 0 0 0 0 0 0 0 0 0 0 0 0 0 0 0 0 0 0 0 0 0 0 0 0 0 0 0 0 0 0 48 47 50 46 50 47 47 48 46 46 47 45 47 42 44 -209 -193 -193 -209 30 27 30 27 31 31 28 36 29 35 30 34 31 32 30 32 29 32 28 29 27 28 26 26 26 26 23 24 20 19 16 19 14 10 9 10 0 0 0 0 -225 -225 -225 -225 -225 -225 -225 -225 -225 -225 -225 -225 -225 -225 -225 -225 -225 -225 -225 -225 -225 -225 -225 -225 -225 -225 -225 -225 -225 -225 -225 15 21 15 17 14 14 14 13 13 13 10 12 10 13 -225 -225 -225 295 28 29 30 30 31 32 32 32 37 38 38 38 39 37 38 39 42 41 44 45 47 46 49 52 52 51 54 53 56 56 59 61 60 63 69 66 69 71 72 72 75 75 -193 -193 77 79 76 79 79 76 83 84 86 87 91 92 93 94 96 97 98 99 100 101 102 104 103 104 106 106 106 107 110 113 111 114 115 116 120 120 120 119 118 123 124 124 125 124 125 128 132 132 134 135 141 143 142 142 149 145 145 146 148 145 146 147 -193 -209 -209 -193 -209 -177 -193 -193 -193 -193 -193 156 162 155 159 162 164 171 175 176 179 180 182 183 -193 -193 -209 -209 -209 -193 -209 -193 0 0 0 0 0
    0 0 0 0 0 0 0 0 0 0 0 0 0 0 0 0 0 0 0 0 0 0 0 0 0 0 0 0 0 0 0 0 0 0 0 0 0 0 0 0 0 0 0 0 0 0 0 0 0 0 0 0 0 0 0 0 0 0 0 0 0 0 0 0 0 0 0 0 0 47 46 50 46 50 47 47 48 47 46 47 45 47 42 44 -193 27 27 27 30 28 -193 -193 31 32 28 36 29 35 30 34 31 31 30 32 29 32 28 29 27 28 26 26 25 26 23 24 20 19 16 18 13 10 9 9 0 0 0 0 -225 -225 -225 -225 -225 -225 -225 -225 -225 -225 -225 -225 -225 -225 -225 -225 -225 -225 -225 -225 -225 -225 -225 -225 -225 -225 -225 -225 -225 -225 -225 15 21 15 17 14 14 14 13 13 13 10 12 10 12 13 -225 -225 294 28 29 30 31 31 31 31 31 36 37 36 36 38 36 36 38 41 41 44 45 47 46 49 52 52 51 54 53 56 55 59 61 60 63 69 65 68 71 71 72 -193 -193 436 -193 78 80 76 80 80 76 84 85 87 88 91 93 94 95 96 97 97 98 99 100 102 103 102 103 105 105 106 106 109 113 110 113 115 115 119 119 119 118 116 122 123 123 124 123 124 126 130 131 134 135 139 142 141 142 149 146 146 147 149 146 146 148 -193 -209 -209 -193 -209 -193 -193 -193 -193 -193 155 155 162 156 159 163 165 171 176 176 180 181 183 -193 -193 -193 -177 -177 -177 -177 -177 -209 0 0 0 0 0
    0 0 0 0 0 0 0 0 0 0 0 0 0 0 0 0 0 0 0 0 0 0 0 0 0 0 0 0 0 0 0 0 0 0 0 0 0 0 0 0 0 0 0 0 0 0 0 0 0 0 0 0 0 0 0 0 0 0 0 0 0 0 0 0 0 0 0 0 0 47 46 50 46 50 47 47 48 47 46 47 45 47 41 42 40 27 27 28 28 28 -209 -193 30 31 29 37 29 35 30 33 30 31 30 31 29 31 28 28 27 27 26 26 25 25 23 24 20 19 16 18 13 9 0 0 0 0 0 0 -225 -225 -225 -225 -225 -225 -225 -225 -225 -225 -225 -225 -225 -225 -225 -225 -225 -225 -225 -225 -225 -225 -225 -225 -225 -225 -225 -225 -225 -225 -225 15 21 15 17 15 14 14 13 14 14 10 13 10 13 15 20 294 293 28 28 29 31 30 31 30 30 36 37 36 36 38 36 36 38 41 -177 44 45 48 47 50 53 53 52 55 55 57 57 59 62 61 63 69 65 68 71 71 71 -177 436 436 -193 78 80 77 80 80 77 84 85 87 88 91 93 94 95 96 96 97 98 99 100 101 102 101 102 106 106 106 106 109 113 110 112 114 114 118 118 118 117 114 121 121 122 122 122 123 125 129 130 134 135 140 144 142 142 149 147 147 148 150 147 147 149 -193 -193 -193 -193 -193 -193 -193 -193 -193 -193 -193 -193 -193 -209 161 165 166 171 177 176 180 182 183 184 -209 -209 -177 -177 -177 -177 -177 -177 0 0 0 0 0
    0 0 0 0 0 0 0 0 0 0 0 0 0 0 0 0 0 0 0 0 0 0 0 0 0 0 0 0 0 0 0 0 0 0 0 0 0 0 0 0 0 0 0 0 0 0 0 0 0 0 0 0 0 0 0 0 0 0 0 0 0 0 0 0 0 0 0 0 0 47 46 50 46 50 46 47 48 47 46 47 44 46 41 41 38 28 28 30 31 32 37 32 34 32 29 37 30 35 30 34 31 31 30 32 29 31 28 29 27 27 26 26 25 25 23 24 21 19 16 18 12 0 0 0 0 0 0 0 -225 -225 -225 -225 -225 -225 -225 -225 -225 -225 -225 -225 -225 -225 -225 -225 -225 -225 -225 -225 -225 -225 -225 -225 -225 -225 -225 -225 -225 -225 -225 15 21 15 16 14 15 15 13 14 14 11 13 11 14 16 19 -193 290 27 27 27 29 30 31 31 31 36 37 35 36 37 37 37 38 41 -177 43 45 48 48 50 53 53 52 56 56 57 57 59 62 60 63 68 65 67 70 70 -193 -177 435 436 -193 78 79 77 80 81 77 84 85 86 87 90 93 94 95 95 96 97 98 99 99 99 101 100 101 103 104 104 104 107 112 109 112 113 113 117 117 117 116 112 121 121 121 121 122 122 125 129 131 134 135 140 146 142 142 149 148 148 149 150 148 148 150 -193 -193 -209 -193 -193 -177 -193 -193 -193 -193 -193 -177 -177 -193 163 166 167 171 176 175 179 182 184 184 -209 -209 -177 -177 -177 -177 -193 -193 0 0 0 0 0
    0 0 0 0 0 0 0 0 0 0 0 0 0 0 0 0 0 0 0 0 0 0 0 0 0 0 0 0 0 0 0 0 0 0 0 0 0 0 0 0 0 0 0 0 0 0 0 0 0 0 0 0 0 0 0 0 0 0 0 0 0 0 0 0 0 0 0 0 0 47 46 50 45 50 46 47 48 47 46 47 44 46 41 41 39 30 31 34 35 36 39 37 37 34 33 37 31 35 30 33 31 31 30 32 29 31 29 29 28 28 27 26 26 26 24 24 22 19 16 18 11 0 0 0 0 0 0 0 -225 -225 -225 -225 -225 -225 -225 -225 -225 -225 -225 -225 -225 -225 -225 -225 -225 -225 -225 -225 -225 -225 -225 -225 -225 -225 -225 -225 -225 -225 18 15 21 15 17 15 15 15 14 15 15 11 14 12 14 16 19 22 -177 -193 26 27 29 30 31 32 31 35 36 35 36 37 37 37 38 -177 -177 44 46 50 50 51 54 54 53 56 57 57 58 59 62 61 63 68 64 67 70 69 -193 437 435 435 -193 77 79 76 79 81 77 84 85 86 86 90 93 94 94 95 96 97 98 98 98 99 100 100 100 102 103 103 104 107 112 109 111 113 113 116 117 117 116 112 121 121 122 122 123 123 125 131 133 136 137 140 146 142 142 148 149 149 149 151 149 149 151 -193 -193 -193 154 -193 -177 -193 -193 -193 -193 156 -177 -177 -193 165 168 167 170 176 174 179 182 184 185 -209 -209 -177 -177 -177 -177 -177 -193 0 0 0 0 0
    0 0 0 0 0 0 0 0 0 0 0 0 0 0 0 0 0 0 0 0 0 0 0 0 0 0 0 0 0 0 0 0 0 0 0 0 0 0 0 0 0 0 0 0 0 0 0 0 0 0 0 0 0 0 0 0 0 0 0 0 0 0 0 0 0 0 0 0 0 47 45 50 45 50 46 47 48 47 46 47 44 46 41 40 39 30 31 34 35 38 40 39 39 36 37 37 33 35 30 33 32 31 30 31 29 31 29 29 29 28 27 27 26 26 24 24 22 19 15 17 10 0 0 0 0 0 0 0 -225 -225 -225 -225 -225 -225 -225 -225 -225 -225 -225 -225 -225 -225 -225 -225 -225 -225 -225 -225 -225 -225 -225 -225 -225 -225 -225 -225 -225 -225 17 15 21 15 16 15 16 16 14 15 15 11 15 13 15 16 19 22 -193 28 27 28 29 30 30 32 31 34 35 36 36 37 38 38 39 -177 -177 45 46 51 51 52 54 54 54 56 57 57 57 58 62 60 63 68 64 66 69 69 70 435 433 434 -193 77 78 76 80 81 78 84 85 85 87 90 93 93 94 95 96 97 97 98 97 97 99 98 98 100 101 101 102 105 113 109 111 113 113 116 117 117 116 112 121 122 122 123 124 124 126 130 132 134 135 138 143 141 141 148 150 149 149 151 -193 150 152 -193 152 154 154 -193 -177 -193 -193 -193 -193 158 -193 -177 -209 166 169 167 170 176 174 178 182 -209 -209 -209 -209 -177 -177 -177 -177 -177 -193 0 0 0 0 0
    0 0 0 0 0 0 0 0 0 0 0 0 0 0 0 0 0 0 0 0 0 0 0 0 0 0 0 0 0 0 0 0 0 0 0 0 0 0 0 0 0 0 0 0 0 0 0 0 0 0 0 0 0 0 0 0 0 0 0 0 0 0 0 0 0 0 0 0 0 46 45 50 45 50 46 47 48 47 46 47 44 46 40 40 39 31 31 34 35 37 39 39 38 36 37 37 34 35 31 33 32 32 31 32 29 30 29 29 29 28 27 27 26 26 25 24 23 19 15 16 0 0 0 0 0 0 0 0 -225 -225 -225 -225 -225 -225 -225 -225 -225 -225 -225 -225 -225 -225 -225 -225 -225 -225 -225 -225 -225 -225 -225 -225 -225 -225 -225 -225 -225 -225 16 16 21 15 16 15 16 16 14 16 15 12 16 14 17 17 20 22 23 27 26 28 29 29 29 32 31 33 35 36 36 38 39 39 39 -177 43 45 46 50 51 51 53 53 53 55 56 56 57 57 61 60 62 68 64 66 69 68 69 433 431 -177 -193 77 78 77 80 81 78 83 84 84 86 90 92 93 93 95 96 95 95 96 96 97 98 96 96 100 101 103 102 105 114 109 111 113 113 115 116 117 116 112 121 122 122 122 123 124 125 130 131 132 133 136 141 139 139 146 150 149 149 -193 -193 151 153 153 153 155 156 156 -177 -193 -193 -193 -193 159 -193 -193 -209 167 169 167 169 176 173 178 -193 -193 -193 -193 -193 -209 -209 -193 -177 -193 -193 0 0 0 0 0
    0 0 0 0 0 0 0 0 0 0 0 0 0 0 0 0 0 0 0 0 0 0 0 0 0 0 0 0 0 0 0 0 0 0 0 0 0 0 0 0 0 0 0 0 0 0 0 0 0 0 0 0 0 0 0 0 0 0 0 0 0 0 0 0 0 0 0 0 0 47 45 50 45 50 46 47 48 47 46 46 44 45 40 39 38 32 32 34 34 35 36 37 36 35 36 36 34 34 32 34 33 32 31 32 29 30 30 29 29 28 27 27 26 26 25 24 24 19 16 16 0 0 0 0 0 0 0 0 -225 -225 -225 -225 -225 -225 -225 -225 -225 -225 -225 -225 -225 -225 -225 -225 -225 -225 -225 -225 -225 -225 -225 -225 -225 -225 -225 -225 -225 -225 16 16 21 16 16 15 17 16 14 16 16 13 17 16 19 18 21 22 23 25 25 27 28 28 29 32 31 32 34 36 36 38 39 40 39 43 44 45 46 50 51 51 52 53 53 55 56 56 57 57 62 60 61 67 63 65 68 67 69 431 -177 -177 -193 76 77 76 79 81 78 83 84 84 85 89 91 92 93 94 95 95 95 96 97 96 98 95 96 100 104 -193 -193 105 115 109 111 113 112 115 116 116 116 111 120 121 121 121 122 123 124 128 130 131 133 135 141 139 139 145 150 148 149 151 -193 151 153 154 154 156 157 157 -193 158 162 160 160 160 -193 -193 -209 -193 -193 167 169 175 173 177 -177 -193 -193 -193 -193 -193 -193 -209 -193 -193 -193 0 0 0 0 0
    0 0 0 0 0 0 0 0 0 0 0 0 0 0 0 0 0 0 0 0 0 0 0 0 0 0 0 0 0 0 0 0 0 0 0 0 0 0 0 0 0 0 0 0 0 0 0 0 0 0 0 0 0 0 0 0 0 0 0 0 0 0 0 0 0 0 0 0 0 48 46 51 46 51 47 47 48 47 46 46 44 45 39 38 38 33 33 34 34 34 35 35 35 34 35 34 34 34 32 33 33 32 31 32 30 30 30 29 30 28 28 27 26 26 25 25 24 20 18 16 0 0 0 0 0 0 0 0 -225 -225 -225 -225 -225 -225 -225 -225 -225 -225 -225 -225 -225 -225 -225 -225 -225 -225 -225 -225 -225 -225 -225 -225 -225 -225 -225 -225 -225 -225 16 16 21 15 16 15 17 15 14 16 16 12 18 17 19 18 21 22 23 25 24 27 28 28 28 32 31 31 34 36 35 38 40 40 40 43 45 46 47 51 52 51 52 53 53 54 56 55 57 57 62 61 61 67 63 65 68 66 68 429 -193 -193 -177 75 76 75 78 80 77 82 84 83 85 88 92 92 93 94 95 95 95 98 98 96 96 -193 97 104 -193 -209 -209 105 117 110 111 113 112 115 116 116 116 110 119 120 120 120 121 121 124 128 130 132 133 135 142 139 139 145 150 148 148 150 -193 151 154 154 154 156 157 158 159 158 161 160 160 160 -193 -193 -209 -193 -209 167 168 174 172 176 -177 -193 -193 -193 -193 -193 -193 -209 -193 -209 68 0 0 0 0 0
    0 0 0 0 0 0 0 0 0 0 0 0 0 0 0 0 0 0 0 0 0 0 0 0 0 0 0 0 0 0 0 0 0 0 0 0 0 0 0 0 0 0 0 0 0 0 0 0 0 0 0 0 0 0 0 0 0 0 0 0 0 0 0 0 0 0 0 0 0 48 46 51 46 51 46 47 48 47 46 46 43 45 39 38 38 33 33 34 34 34 34 35 35 34 34 34 34 33 32 33 33 32 31 33 30 30 30 29 30 28 28 28 26 26 25 25 25 20 19 17 0 0 0 0 0 0 0 0 -225 -225 -225 -225 -225 -225 -225 -225 -225 -225 -225 -225 -225 -225 -225 -225 -225 -225 -225 -225 -225 -225 -225 -225 -225 -225 -225 -225 -225 -225 16 16 21 14 15 14 16 14 13 15 15 12 18 17 19 18 21 22 23 25 24 27 28 28 29 33 31 31 33 36 35 38 40 41 40 43 46 46 47 51 52 51 51 53 53 54 56 55 57 56 62 61 61 67 64 64 68 65 67 -177 70 71 -177 -193 75 74 77 80 77 81 83 82 84 87 91 92 93 93 94 94 96 98 99 98 -209 -209 106 109 109 110 110 108 118 111 112 114 112 115 116 116 116 110 118 119 119 120 121 121 123 127 130 132 133 135 143 139 140 144 150 147 148 150 -193 151 154 154 154 156 157 158 159 157 161 160 160 160 -193 -193 -193 -193 -209 166 168 173 171 175 -177 -193 -193 -193 -193 -209 -209 -209 -209 -209 -193 0 0 0 0 0
    0 0 0 0 0 0 0 0 0 0 0 0 0 0 0 0 0 0 0 0 0 0 0 0 0 0 0 0 0 0 0 0 0 0 0 0 0 0 0 0 0 0 0 0 0 0 0 0 0 0 0 0 0 0 0 0 0 0 0 0 0 0 0 0 0 0 0 0 0 48 45 51 46 50 46 47 48 47 46 46 43 45 39 39 38 33 32 33 33 33 34 34 34 34 34 33 34 33 32 33 33 32 31 33 30 30 31 29 30 28 28 28 26 26 25 25 25 21 21 19 0 0 0 0 0 0 0 0 -225 -225 -225 -225 -225 -225 -225 -225 -225 -225 -225 -225 -225 -225 -225 -225 -225 -225 -225 -225 -225 -225 -225 -225 -225 -225 -225 -225 -225 -225 15 17 20 15 14 15 16 14 14 15 15 13 17 18 19 19 21 22 23 25 25 27 28 28 28 33 31 31 33 36 35 37 -177 41 40 43 47 46 48 50 52 51 51 53 53 53 56 54 57 55 62 61 61 66 64 64 68 65 67 -193 70 70 529 530 -193 74 77 79 77 81 83 81 83 86 90 91 92 93 94 95 96 98 99 -193 -209 -209 106 110 111 112 112 110 119 113 113 114 113 116 117 117 116 112 117 120 120 120 122 121 124 130 132 133 134 136 143 139 140 143 150 146 146 149 -193 150 153 154 154 156 157 158 159 157 161 159 160 160 -193 -193 -193 165 -209 -193 167 171 170 174 -177 -193 -193 -193 -193 -177 -177 -177 -209 -209 -209 0 0 0 0 0
    0 0 0 0 0 0 0 0 0 0 0 0 0 0 0 0 0 0 0 0 0 0 0 0 0 0 0 0 0 0 0 0 0 0 0 0 0 0 0 0 0 0 0 0 0 0 0 0 0 0 0 0 0 0 0 0 0 0 0 0 0 0 0 0 0 0 0 0 0 48 45 51 45 50 46 46 48 47 46 46 44 45 40 40 39 34 33 34 33 33 33 34 33 33 33 32 33 32 32 33 33 32 31 34 30 31 31 30 30 28 28 28 26 26 25 25 24 21 22 20 12 0 0 0 0 0 0 0 -225 -225 -225 -225 -225 -225 -225 -225 -225 -225 -225 -225 -225 -225 -225 -225 -225 -225 -225 -225 -225 -225 -225 -225 -225 -225 -225 -225 -225 -225 15 18 19 15 15 15 16 14 14 15 14 13 16 16 19 18 21 21 23 26 25 27 28 28 28 33 31 31 32 36 35 37 -177 40 39 43 47 46 47 49 52 50 50 52 52 52 55 53 56 54 61 61 60 66 64 64 68 65 67 -193 -193 -193 529 530 -193 73 77 79 76 81 83 82 84 87 91 91 93 93 95 95 96 98 99 -193 -209 -209 105 107 109 110 111 110 119 114 113 115 114 116 117 117 117 113 117 121 122 122 124 123 125 130 131 132 133 135 141 139 139 142 149 145 145 148 16 149 152 153 153 155 157 158 159 157 160 160 160 160 -193 -193 -193 165 -209 -193 167 168 169 173 -177 -193 -193 -193 -193 -177 -177 -177 -177 -209 -209 0 0 0 0 0
    0 0 0 0 0 0 0 0 0 0 0 0 0 0 0 0 0 0 0 0 0 0 0 0 0 0 0 0 0 0 0 0 0 0 0 0 0 0 0 0 0 0 0 0 0 0 0 0 0 0 0 0 0 0 0 0 0 0 0 0 0 0 0 0 0 0 0 0 0 48 46 52 46 50 46 46 48 47 46 46 44 45 41 40 40 34 32 33 33 32 32 33 33 33 32 32 33 32 32 32 32 32 31 34 31 31 32 30 30 28 28 28 26 26 25 25 23 20 22 20 14 0 0 0 0 0 0 0 -225 -225 -225 -225 -225 -225 -225 -225 -225 -225 -225 -225 -225 -225 -225 -225 -225 -225 -225 -225 -225 -225 -225 -225 -225 -225 -225 -225 -225 -225 15 19 19 16 16 16 16 15 15 16 15 14 16 15 19 18 21 21 23 25 25 27 28 27 28 33 30 30 32 35 34 36 -177 40 39 42 47 45 47 49 51 49 49 51 51 50 53 51 54 53 60 60 60 66 65 64 68 65 67 -193 -193 -193 529 530 -193 73 76 78 76 81 83 83 85 86 91 91 94 94 95 95 97 99 100 -193 -193 -193 105 106 108 108 111 109 118 115 114 115 114 116 117 117 117 115 116 122 123 123 124 124 125 129 131 131 133 135 141 139 140 141 149 144 144 147 -193 148 151 152 152 155 156 158 158 -193 160 -193 160 161 -193 -209 -193 -193 -193 -193 167 168 168 172 -177 -193 -193 -193 -193 -177 -193 -177 -209 -209 -193 0 0 0 0 0
    0 0 0 0 0 0 0 0 0 0 0 0 0 0 0 0 0 0 0 0 0 0 0 0 0 0 0 0 0 0 0 0 0 0 0 0 0 0 0 0 0 0 0 0 0 0 0 0 0 0 0 0 0 0 0 0 0 0 0 0 0 0 0 0 0 0 0 0 0 49 46 52 46 51 46 47 48 47 46 46 44 45 41 40 40 34 32 32 32 31 31 32 32 33 32 32 33 32 32 32 32 32 31 35 31 31 32 30 30 28 28 28 25 -193 25 24 22 20 22 21 17 0 0 0 0 0 0 0 -225 -225 -225 -225 -225 -225 -225 -225 -225 -225 -225 -225 -225 -225 -225 -225 -225 -225 -225 -225 -225 -225 -225 -225 -225 -225 -225 -225 -225 19 15 19 18 15 15 15 16 14 14 15 14 14 16 15 20 18 21 22 23 24 24 26 27 27 27 32 30 30 32 35 34 36 38 40 38 42 46 45 47 48 50 48 48 50 50 49 52 50 54 53 60 60 60 65 65 65 69 66 68 -193 -193 -193 -177 -177 72 73 76 77 76 81 83 82 84 86 92 92 96 94 96 96 98 99 -193 -193 -193 -193 105 106 109 108 111 109 118 116 114 115 114 116 117 117 117 115 114 121 123 123 124 123 125 128 129 130 132 135 141 139 140 141 148 143 144 146 149 147 149 150 151 -193 156 157 158 -193 160 -193 -193 161 -193 -209 -209 -209 -193 -193 167 167 168 -209 -177 -193 -193 -193 -193 -177 -209 -209 -209 -177 -193 0 0 0 0 0
    0 0 0 0 0 0 0 0 0 0 0 0 0 0 0 0 0 0 0 0 0 0 0 0 0 0 0 0 0 0 0 0 0 0 0 0 0 0 0 0 0 0 0 0 0 0 0 0 0 0 0 0 0 0 0 0 0 0 0 0 0 0 0 0 0 0 0 0 0 50 47 52 47 51 47 47 48 47 47 47 44 45 41 41 41 34 32 32 32 31 30 31 30 32 31 31 32 31 32 32 32 32 30 36 31 31 31 30 30 28 28 28 25 -193 24 25 22 21 23 21 -193 0 0 0 0 0 0 0 -225 -225 -225 -225 -225 -225 -225 -225 -225 -225 -225 -225 -225 -225 -225 -225 -225 -225 -225 -225 -225 -225 -225 -225 -225 -225 -225 -225 -225 18 16 20 18 16 15 15 15 14 15 15 14 14 16 16 20 18 21 21 23 23 23 25 26 26 27 31 29 29 32 35 34 36 38 39 38 41 46 44 47 47 49 47 47 49 49 48 51 49 54 53 60 60 60 66 66 66 69 67 69 -193 -193 -177 -177 -193 73 73 75 76 75 80 81 82 82 85 91 91 95 93 95 95 -193 99 100 -193 -193 -193 105 106 109 108 111 110 118 116 114 115 114 116 117 117 117 116 112 121 123 123 124 123 125 128 130 132 134 136 144 140 141 142 148 143 144 146 149 146 148 149 150 -209 155 156 157 -177 -193 -193 -193 161 -193 -209 -209 -193 -193 -193 166 166 167 -177 -177 -193 -193 -193 -193 -193 -209 -209 -209 -209 -193 0 0 0 0 0
    0 0 0 0 0 0 0 0 0 0 0 0 0 0 0 0 0 0 0 0 0 0 0 0 0 0 0 0 0 0 0 0 0 0 0 0 0 0 0 0 0 0 0 0 0 0 0 0 0 0 0 0 0 0 0 0 0 0 0 0 0 0 0 0 0 0 0 0 0 51 47 52 47 51 47 47 49 48 47 47 44 46 41 42 42 34 32 32 32 31 30 30 30 32 30 31 31 31 31 32 32 32 30 37 31 31 32 30 30 28 28 28 25 25 24 25 23 22 23 22 -209 9 10 0 0 0 0 0 -225 -225 -225 -225 -225 -225 -225 -225 -225 -225 -225 -225 -225 -225 -225 -225 -225 -225 -225 -225 -225 -225 -225 -225 -225 -225 -225 -225 -225 18 17 20 18 16 15 15 15 13 14 15 13 13 15 14 19 17 20 20 23 22 23 24 25 26 27 31 29 29 32 34 34 36 37 39 38 41 46 44 48 48 49 48 47 49 49 47 50 48 53 53 60 61 61 66 68 68 70 68 -193 -177 -193 -193 -177 -193 72 72 74 74 75 79 79 82 80 85 89 91 95 93 95 95 -193 99 100 -193 -193 -193 105 106 109 109 111 110 118 117 113 115 114 115 117 117 117 116 110 122 124 125 126 125 127 131 133 134 136 137 144 142 142 143 149 144 144 145 148 145 147 148 149 151 154 154 -193 -177 -193 -193 -193 -193 -209 -209 -209 167 -193 -193 166 165 167 -177 -193 -193 -193 -193 -177 -193 -209 -209 -209 -209 83 0 0 0 0 0
    0 0 0 0 0 0 0 0 0 0 0 0 0 0 0 0 0 0 0 0 0 0 0 0 0 0 0 0 0 0 0 0 0 0 0 0 0 0 0 0 0 0 0 0 0 0 0 0 0 0 0 0 0 0 0 0 0 0 0 0 0 0 0 0 0 0 0 0 0 51 47 52 47 51 47 47 49 48 47 47 45 46 42 43 43 34 32 32 32 31 30 29 29 32 29 30 31 30 30 32 31 32 30 37 31 31 32 30 30 28 28 28 25 25 24 25 -193 22 23 22 -209 -193 10 0 0 0 0 0 -225 -225 -225 -225 -225 -225 -225 -225 -225 -225 -225 -225 -225 -225 -225 -225 -225 -225 -225 -225 -225 -225 -225 -225 -225 -225 -225 -225 29 19 18 20 17 15 14 14 14 12 13 13 12 12 13 12 18 16 18 19 23 23 23 25 26 27 27 32 30 30 33 33 34 35 36 38 37 41 45 43 48 48 49 48 48 49 49 47 50 47 53 53 60 61 61 66 69 69 71 70 -193 -193 -177 -177 -177 -209 73 73 74 73 74 78 77 81 79 84 88 -193 -193 -193 -193 -193 -193 98 100 -193 -193 -193 -193 106 109 108 111 110 117 118 113 114 114 115 116 116 117 116 109 122 124 125 126 126 129 132 134 135 136 138 143 142 142 143 149 144 144 145 148 144 146 147 148 150 153 153 -193 -177 -177 -193 -193 -193 -209 -209 -193 -193 -177 -193 167 165 166 -193 -193 -193 -177 -177 -177 -209 -209 -209 82 81 84 0 0 0 0 0
    0 0 0 0 0 0 0 0 0 0 0 0 0 0 0 0 0 0 0 0 0 0 0 0 0 0 0 0 0 0 0 0 0 0 0 0 0 0 0 0 0 0 0 0 0 0 0 0 0 0 0 0 0 0 0 0 0 0 0 0 0 0 0 0 0 0 0 0 0 50 46 51 47 50 47 47 49 48 47 47 45 46 43 44 44 34 31 32 32 31 27 28 28 33 29 31 31 30 30 32 31 32 30 37 31 32 32 31 30 29 28 28 25 25 24 25 -193 23 23 22 -193 11 11 0 0 0 0 0 -225 -225 -225 -225 -225 -225 -225 -225 -225 -225 -225 -225 -225 -225 -225 -225 -225 -225 -225 -225 -225 -225 -225 -225 -225 -225 22 21 22 15 14 17 13 13 13 13 13 12 13 12 11 13 13 12 18 16 19 19 23 23 24 25 26 28 28 32 30 30 33 32 33 35 35 38 36 39 43 43 47 47 49 48 48 49 49 47 50 47 53 53 60 61 61 67 71 71 72 71 -193 -193 -193 -193 -193 73 74 73 74 73 73 77 -193 -193 78 83 -193 -193 -177 -177 -177 -193 -193 98 100 -193 -193 -193 -193 -193 108 107 110 109 115 118 112 114 113 114 116 116 116 116 109 122 124 125 127 127 129 132 133 134 136 137 142 141 141 141 148 143 144 144 148 144 145 146 147 148 151 151 -193 -177 -177 -177 -193 -193 -209 -209 -193 -193 -177 -193 167 165 166 -193 -193 -193 -177 -177 -177 -209 -209 -209 82 83 85 0 0 0 0 0
    0 0 0 0 0 0 0 0 0 0 0 0 0 0 0 0 0 0 0 0 0 0 0 0 0 0 0 0 0 0 0 0 0 0 0 0 0 0 0 0 0 0 0 0 0 0 0 0 0 0 0 0 0 0 0 0 0 0 0 0 0 0 0 0 0 0 0 0 0 49 46 50 48 50 48 47 49 48 47 47 46 46 43 44 44 33 30 33 32 27 -193 27 26 33 29 30 31 30 30 32 31 32 30 37 31 32 31 31 30 29 29 29 25 26 24 25 23 23 23 23 21 12 12 0 0 0 0 0 -225 -225 -225 -225 -225 -225 -225 -225 -225 -225 -225 -225 -225 -225 -225 -225 -225 -225 -225 -225 -225 -225 -225 -225 15 21 20 18 19 13 14 15 13 14 13 13 13 12 13 12 11 13 12 13 17 16 18 17 23 23 24 25 26 28 28 32 31 30 34 33 34 35 35 37 36 39 43 -193 47 47 49 47 47 48 49 47 50 47 53 52 59 61 61 67 72 71 72 73 75 76 76 -193 76 -193 74 74 74 71 72 -193 -209 -209 -193 -193 -193 -177 -177 -177 -177 -193 -193 98 100 101 -209 -209 -193 103 107 107 109 108 113 118 112 114 113 113 115 115 116 116 108 122 124 126 127 127 129 132 133 133 136 136 141 140 140 141 148 143 143 144 147 144 145 145 147 147 150 150 -193 -177 -177 -177 -193 -193 -209 -209 170 -193 -177 -193 167 165 166 -193 -193 -193 -177 -177 -193 -209 -209 -193 83 85 85 0 0 0 0 0
    0 0 0 0 0 0 0 0 0 0 0 0 0 0 0 0 0 0 0 0 0 0 0 0 0 0 0 0 0 0 0 0 0 0 0 0 0 0 0 0 0 0 0 0 0 0 0 0 0 0 0 0 0 0 0 0 0 0 0 0 0 0 0 0 0 0 0 0 0 49 47 50 49 50 48 47 48 48 47 47 46 45 43 43 43 31 29 29 29 -193 23 26 26 32 29 31 31 31 31 33 32 33 30 37 31 32 31 31 31 30 29 30 26 26 25 25 24 23 23 23 21 14 14 0 0 0 0 0 -225 -225 -225 -225 -225 -225 -225 -225 -225 -225 -225 -225 -225 -225 -225 -225 -225 -225 -225 -225 -225 -225 28 26 0 12 17 14 14 12 12 12 11 12 12 11 11 11 12 10 11 12 11 11 16 15 17 18 23 23 24 25 26 29 29 33 32 31 34 33 35 36 36 38 37 39 43 -193 47 47 48 47 47 48 49 47 50 47 53 52 59 62 62 67 71 70 72 73 -193 -193 -193 -193 76 -193 74 74 -209 70 71 -209 -209 -209 -193 -193 -177 -177 -177 -177 -209 -193 -193 98 100 101 -209 -209 -193 -193 107 -193 109 107 110 118 111 113 112 112 115 115 115 115 108 121 124 125 126 126 128 130 132 133 135 136 140 140 140 141 148 143 143 144 147 143 144 145 146 147 149 150 -177 -177 -177 -177 -193 -193 -209 -193 171 -193 -177 -193 168 165 166 165 -193 -193 -193 -193 -209 -209 -193 83 83 85 85 0 0 0 0 0
    0 0 0 0 0 0 0 0 0 0 0 0 0 0 0 0 0 0 0 0 0 0 0 0 0 0 0 0 0 0 0 0 0 0 0 0 0 0 0 0 0 0 0 0 0 0 0 0 0 0 0 0 0 0 0 0 0 0 0 0 0 0 0 0 0 0 0 0 0 50 47 49 49 49 49 47 48 48 47 47 46 45 44 43 43 29 28 27 28 24 25 28 28 33 30 32 33 32 32 34 33 34 31 36 31 32 31 31 31 30 29 30 26 27 26 25 25 24 24 23 21 15 15 11 8 0 0 0 -225 -225 -225 -225 -225 -225 -225 -225 -225 -225 -225 -225 -225 -225 -225 -225 -225 -225 -225 -225 -225 -225 25 24 13 14 18 14 14 12 13 11 10 11 10 9 9 9 10 9 10 11 10 10 16 14 18 18 24 23 25 25 25 29 28 31 31 30 34 34 35 37 36 39 38 39 44 43 47 47 49 47 47 48 49 47 50 47 54 54 60 64 63 67 70 70 71 72 -193 -193 -193 -193 -193 -193 -193 -209 -209 69 71 -209 -193 -209 -209 -209 -177 -177 -177 -193 -193 286 285 -193 100 -193 -193 -193 -209 -209 109 108 110 107 115 118 111 113 112 111 114 115 115 115 108 121 124 126 126 126 128 130 132 133 135 136 140 140 140 140 148 144 144 144 148 144 144 145 146 146 149 150 -177 -177 -177 -177 -193 -193 -209 -193 171 -193 -177 -193 168 166 166 165 163 162 164 -193 -209 -193 -209 81 82 84 85 0 0 0 0 0
    0 0 0 0 0 0 0 0 0 0 0 0 0 0 0 0 0 0 0 0 0 0 0 0 0 0 0 0 0 0 0 0 0 0 0 0 0 0 0 0 0 0 0 0 0 0 0 0 0 0 0 0 0 0 0 0 0 0 0 0 0 0 0 0 0 0 0 0 0 50 47 49 49 49 49 47 48 47 47 47 46 44 44 42 43 28 28 27 27 25 27 29 30 34 33 34 34 34 33 34 34 35 32 36 31 32 31 31 31 30 29 31 27 29 27 27 27 25 25 25 22 16 16 13 10 0 0 0 -225 -225 -225 -225 -225 -225 -225 -225 -225 -225 -225 -225 -225 -225 -225 -225 -225 -225 -225 -225 -225 -225 25 23 15 15 17 15 14 13 13 10 10 10 9 0 0 0 0 0 9 10 10 9 14 13 17 18 23 24 26 25 25 28 28 30 31 30 34 34 36 38 37 40 39 40 45 44 47 47 49 47 47 48 49 47 51 48 54 55 60 65 64 66 69 69 70 71 -193 -193 -193 -193 -193 -177 -193 -209 -209 -177 70 71 -193 -209 -209 -177 -177 -177 -177 -193 -193 287 287 289 -193 -193 -193 54 -209 -209 113 111 112 108 120 119 111 112 112 111 114 115 115 116 108 122 124 126 126 127 128 129 131 133 134 135 138 140 140 140 148 144 144 144 148 144 145 146 146 146 149 150 -177 -177 -177 -177 -209 909 -209 -193 -193 -193 -177 -193 -193 -193 -193 166 164 164 165 -193 -209 -209 -209 79 80 83 84 0 0 0 0 0
    0 0 0 0 0 0 0 0 0 0 0 0 0 0 0 0 0 0 0 0 0 0 0 0 0 0 0 0 0 0 0 0 0 0 0 0 0 0 0 0 0 0 0 0 0 0 0 0 0 0 0 0 0 0 0 0 0 0 0 0 0 0 0 0 0 0 0 0 0 49 47 48 49 48 48 46 47 46 46 46 46 44 44 42 42 28 28 27 26 25 27 29 31 34 34 34 35 34 33 34 33 35 32 36 31 31 31 31 31 30 29 32 28 30 28 28 28 26 26 26 23 17 16 14 11 9 10 10 -225 -225 -225 -225 -225 -225 -225 -225 -225 -225 -225 -225 -225 -225 -225 -225 -225 -225 -225 -225 -225 -225 25 21 15 16 16 14 12 11 11 0 9 9 0 0 0 0 0 0 9 10 10 10 14 13 16 19 23 24 26 26 26 28 28 31 31 30 34 34 36 38 37 40 39 40 45 44 47 47 49 47 47 49 49 48 51 49 55 55 60 65 63 65 69 68 69 70 -193 -177 -177 -193 -193 -177 -193 -209 -209 -177 -177 70 -209 -209 -193 -177 -177 -177 -177 -193 -193 287 287 289 289 -193 -193 53 -193 -209 115 -177 113 109 119 119 111 112 112 111 114 115 116 116 109 122 125 126 126 127 127 129 131 132 133 134 137 139 139 139 148 145 145 145 148 145 145 147 147 147 149 150 -209 -177 -177 -177 -209 -193 -193 994 -193 -193 -193 -193 387 -193 -193 166 165 -193 -193 -193 -209 -193 -209 78 80 82 84 0 0 0 0 0
    0 0 0 0 0 0 0 0 0 0 0 0 0 0 0 0 0 0 0 0 0 0 0 0 0 0 0 0 0 0 0 0 0 0 0 0 0 0 0 0 0 0 0 0 0 0 0 0 0 0 0 0 0 0 0 0 0 0 0 0 0 0 0 0 0 0 0 0 0 49 47 47 48 47 48 46 47 46 46 46 45 44 44 42 42 27 27 26 25 24 28 29 31 33 33 33 34 34 32 33 33 34 31 36 31 31 32 31 31 30 29 33 29 31 29 28 28 26 26 26 23 18 16 16 12 11 12 12 -225 -225 -225 -225 -225 -225 -225 -225 -225 -225 -225 -225 -225 -225 -225 -225 -225 -225 -225 -225 -225 -225 24 21 16 16 15 13 10 10 10 0 0 0 0 0 0 0 0 0 0 9 9 9 12 12 15 19 22 25 26 26 26 28 28 31 31 30 33 35 36 38 38 40 39 40 45 45 46 46 49 47 47 49 49 48 51 50 55 55 59 64 63 65 69 67 68 69 -193 -177 -177 -177 -177 -177 -193 -209 -209 -177 -177 -193 -209 -193 -177 -177 -177 -177 -177 -193 -193 287 287 288 289 -193 -193 -177 -177 -209 115 113 113 109 117 119 111 112 111 110 114 115 115 116 109 122 125 126 126 126 126 129 130 130 132 133 136 138 138 138 147 146 146 146 149 147 146 148 148 148 150 151 -193 -177 -193 -177 -209 -193 -193 992 -193 -193 -193 -193 -193 -193 -193 167 -193 -193 -193 -193 -193 -209 -193 79 80 82 85 0 0 0 0 0
    0 0 0 0 0 0 0 0 0 0 0 0 0 0 0 0 0 0 0 0 0 0 0 0 0 0 0 0 0 0 0 0 0 0 0 0 0 0 0 0 0 0 0 0 0 0 0 0 0 0 0 0 0 0 0 0 0 0 0 0 0 0 0 0 0 0 0 0 0 48 46 47 48 46 47 45 46 45 45 45 45 43 43 41 42 27 27 26 26 25 29 30 32 34 34 33 34 34 32 33 32 34 31 35 31 31 32 31 31 30 29 33 29 32 30 29 28 27 26 26 24 19 16 16 13 11 13 13 13 -225 -225 -225 -225 -225 -225 -225 -225 -225 -225 -225 -225 -225 -225 -225 -225 -225 -225 -225 -225 23 23 20 15 15 15 12 11 10 10 0 0 0 0 0 0 0 0 0 0 9 9 9 12 11 15 20 22 25 26 26 27 28 28 31 30 30 33 35 37 38 39 40 40 41 46 45 46 46 49 47 46 49 49 48 51 50 54 54 59 64 62 64 68 66 68 69 -193 -177 -177 -177 -193 -177 -193 -193 -193 -177 -177 -193 -193 -209 -177 -177 -177 -193 -193 -193 -209 287 287 288 289 -193 -193 -177 -177 -193 114 111 111 108 115 119 111 112 111 110 114 115 115 116 108 121 124 125 125 125 125 127 128 129 130 132 135 138 138 138 147 147 148 148 150 148 148 149 149 149 151 152 -193 -177 -193 -177 -209 -209 -193 991 -193 -193 -193 -193 -193 168 167 167 -193 -209 -209 -193 -193 -209 -193 82 82 83 85 0 0 0 0 0
    0 0 0 0 0 0 0 0 0 0 0 0 0 0 0 0 0 0 0 0 0 0 0 0 0 0 0 0 0 0 0 0 0 0 0 0 0 0 0 0 0 0 0 0 0 0 0 0 0 0 0 0 0 0 0 0 0 0 0 0 0 0 0 0 0 0 0 0 0 48 46 46 47 46 47 45 46 45 45 45 45 43 43 41 42 27 28 26 26 25 29 30 32 34 35 34 34 34 33 32 32 34 31 35 31 31 32 31 31 30 29 34 30 32 30 29 29 27 27 27 24 19 16 17 14 12 15 15 15 -225 -225 -225 -225 -225 -225 -225 -225 -225 -225 -225 -225 -225 -225 -225 -225 -225 -225 -225 -225 21 21 16 13 12 13 11 10 9 10 0 0 0 0 0 0 0 0 0 9 10 10 9 12 12 14 19 21 25 25 25 26 27 27 30 29 29 32 36 38 39 40 41 41 42 47 46 47 47 49 47 47 50 50 49 51 50 55 55 59 65 63 64 68 66 67 68 69 -193 -193 -177 -193 -193 -193 -193 -193 -177 -177 69 67 -209 -177 -177 -177 -193 724 -193 -193 287 287 288 289 -193 283 -193 -209 109 113 110 110 108 112 118 111 111 111 110 114 115 115 116 108 121 124 125 125 125 124 126 126 128 129 131 134 138 138 138 147 148 149 149 151 149 149 151 151 151 153 153 157 -177 -177 -177 -193 -209 -193 991 -193 -193 -193 -193 170 169 168 167 -209 -209 -193 78 -193 82 -193 85 85 86 86 0 0 0 0 0
    0 0 0 0 0 0 0 0 0 0 0 0 0 0 0 0 0 0 0 0 0 0 0 0 0 0 0 0 0 0 0 0 0 0 0 0 0 0 0 0 0 0 0 0 0 0 0 0 0 0 0 0 0 0 0 0 0 0 0 0 0 0 0 0 0 0 0 0 0 47 46 47 47 46 47 45 46 45 45 45 45 43 44 42 43 26 27 26 26 25 29 29 31 33 35 34 34 34 33 32 32 34 31 34 31 31 32 31 31 30 29 34 30 33 30 29 29 27 27 27 24 19 16 17 14 13 16 16 16 -225 -225 -225 -225 -225 -225 -225 -225 -225 -225 -225 -225 -225 -225 -225 -225 -225 -225 -225 18 16 17 16 14 13 13 11 10 10 10 0 0 0 0 0 0 0 9 0 9 10 10 9 13 12 13 19 21 24 24 24 25 26 26 29 28 28 32 -193 39 40 41 42 41 43 48 47 47 48 50 49 48 51 51 50 52 51 55 56 59 65 63 64 68 66 66 68 67 67 65 -193 68 -193 -193 -193 -193 -177 -177 70 68 -193 -193 -209 -177 -177 -193 -209 -193 286 287 287 289 -193 -193 -209 -209 109 111 110 109 107 110 116 110 111 111 110 113 115 115 116 108 121 125 126 125 125 124 125 125 127 128 131 134 138 138 139 148 150 -193 -193 -193 -193 150 152 152 152 154 154 159 -177 -177 298 -193 -193 -193 991 -193 -193 171 170 170 169 168 168 -193 -193 -193 79 -193 85 -193 89 89 90 89 0 0 0 0 0
    0 0 0 0 0 0 0 0 0 0 0 0 0 0 0 0 0 0 0 0 0 0 0 0 0 0 0 0 0 0 0 0 0 0 0 0 0 0 0 0 0 0 0 0 0 0 0 0 0 0 0 0 0 0 0 0 0 0 0 0 0 0 0 0 0 0 0 0 0 47 46 47 47 46 47 45 46 46 45 45 45 44 44 42 44 26 26 25 25 25 29 28 30 33 35 34 35 34 33 32 32 34 30 34 30 30 31 31 30 29 28 33 30 33 30 29 29 27 27 27 24 19 16 17 14 12 16 16 16 -225 -225 -225 -225 -225 -225 -225 -225 -225 -225 -225 -225 -225 -225 -225 -225 -225 -193 11 11 11 13 13 13 11 11 10 10 9 9 0 0 0 0 0 0 0 0 0 10 10 10 9 12 12 14 20 21 24 23 23 24 25 25 27 27 27 30 -193 38 39 40 42 41 43 48 48 48 49 51 50 49 52 52 51 53 52 55 56 59 64 62 63 67 66 66 68 67 66 65 69 68 -193 -193 -193 -193 -177 -177 71 69 70 69 -193 -177 -193 -193 -209 -193 -193 287 288 289 -193 -193 -209 -193 107 109 108 108 106 107 115 109 110 111 110 113 115 116 116 108 122 127 127 125 126 125 126 126 127 128 131 134 139 139 139 148 151 -193 -193 -177 -177 151 153 153 153 155 155 160 -177 -177 -193 -193 -193 169 -193 172 -193 171 170 170 170 169 168 -193 -193 544 81 -193 87 87 90 92 92 90 0 0 0 0 0
    0 0 0 0 0 0 0 0 0 0 0 0 0 0 0 0 0 0 0 0 0 0 0 0 0 0 0 0 0 0 0 0 0 0 0 0 0 0 0 0 0 0 0 0 0 0 0 0 0 0 0 0 0 0 0 0 0 0 0 0 0 0 0 0 0 0 0 0 0 47 46 48 47 46 47 45 46 46 46 45 45 44 44 42 45 29 27 25 24 26 29 28 31 33 35 34 34 34 32 31 31 33 30 34 30 30 31 30 29 29 28 33 31 33 30 29 28 27 27 27 23 19 15 16 14 12 16 16 16 -225 -225 -225 -225 -225 -225 -225 -225 -225 -225 -225 -225 -225 18 10 9 0 9 0 9 10 11 11 12 11 11 10 10 10 10 0 0 0 0 0 0 0 0 0 10 10 11 10 11 12 14 20 21 24 23 24 25 25 26 27 27 27 29 -193 37 39 40 42 41 42 47 48 48 50 52 50 50 53 53 52 53 53 55 57 59 64 62 63 68 67 67 68 67 67 66 69 -193 -193 -193 -193 -177 -193 -193 -193 72 -193 -193 71 -177 -193 -193 -209 -209 -209 287 288 290 97 -193 -209 99 106 107 107 106 105 106 113 109 110 110 110 113 115 116 116 109 122 127 127 126 126 125 125 125 127 127 129 134 139 139 139 147 -193 -193 -193 -177 -177 -193 154 154 154 156 156 160 -177 -177 -193 -193 -193 169 -209 172 173 170 170 170 170 170 -193 -193 543 545 -193 -193 90 90 90 94 94 91 0 0 0 0 0
    0 0 0 0 0 0 0 0 0 0 0 0 0 0 0 0 0 0 0 0 0 0 0 0 0 0 0 0 0 0 0 0 0 0 0 0 0 0 0 0 0 0 0 0 0 0 0 0 0 0 0 0 0 0 0 0 0 0 0 0 0 0 0 0 0 0 0 0 0 47 46 48 47 46 48 45 46 46 46 45 45 44 44 42 45 39 29 26 25 26 29 28 29 33 35 33 33 32 31 30 31 32 29 33 30 29 31 30 29 29 28 32 30 32 30 28 28 26 26 -193 23 19 15 16 14 12 16 16 16 -225 -225 -225 -225 -225 -225 -225 -225 -225 -225 -225 0 0 13 0 0 0 0 0 9 0 9 9 11 10 10 9 9 9 9 0 0 0 0 0 0 0 9 9 11 12 12 11 12 12 14 20 20 24 23 24 25 25 26 27 27 27 29 -193 37 39 40 41 41 42 46 48 47 50 52 50 50 53 53 52 53 53 55 56 59 64 62 63 68 67 68 69 68 68 67 70 -193 -193 -193 -193 -177 -193 -193 74 73 -209 -193 -209 -209 -193 -209 -209 -209 -209 287 288 -193 96 -193 -209 98 105 106 106 106 105 105 112 109 110 110 110 114 115 116 116 110 122 126 127 126 126 125 125 125 126 126 128 133 140 139 139 147 -193 -193 -177 -177 -177 -193 153 153 153 155 156 160 -177 -177 -193 -193 167 168 -209 171 172 -193 169 170 171 172 -193 -193 -193 546 548 90 92 92 91 97 96 92 0 0 0 0 0
    0 0 0 0 0 0 0 0 0 0 0 0 0 0 0 0 0 0 0 0 0 0 0 0 0 0 0 0 0 0 0 0 0 0 0 0 0 0 0 0 0 0 0 0 0 0 0 0 0 0 0 0 0 0 0 0 0 0 0 0 0 0 0 0 0 0 0 0 0 46 46 47 47 46 48 45 46 46 46 45 45 44 44 42 45 41 32 27 26 28 30 28 29 33 35 33 33 32 31 29 30 31 29 33 30 29 30 30 29 29 28 32 30 31 30 28 27 26 26 -193 22 19 15 17 14 12 17 18 19 -225 -225 -225 -225 -225 -225 -225 -225 -225 -225 0 0 0 10 0 0 0 9 0 10 9 9 9 10 9 9 0 0 0 0 0 0 0 0 0 9 9 10 11 12 13 14 12 13 14 16 21 21 23 23 23 24 25 26 27 27 27 30 35 37 38 39 41 40 42 46 48 46 50 52 50 50 53 53 53 53 53 55 57 59 63 62 63 68 68 69 70 69 69 69 70 -193 -193 -193 -193 -193 -209 74 74 75 -209 -209 -209 -209 -209 -209 -209 -209 -209 -193 287 -193 -193 -193 -209 98 105 106 106 105 105 105 111 108 110 110 110 114 115 116 116 109 121 125 125 125 125 125 125 124 126 126 127 133 142 139 139 146 -193 -193 -193 -177 -177 -193 153 153 153 155 156 159 -177 -177 -193 -193 167 -193 -209 171 172 -193 170 171 172 176 -193 -193 -193 547 549 91 94 94 92 98 97 93 0 0 0 0 0
    0 0 0 0 0 0 0 0 0 0 0 0 0 0 0 0 0 0 0 0 0 0 0 0 0 0 0 0 0 0 0 0 0 0 0 0 0 0 0 0 0 0 0 0 0 0 0 0 0 0 0 0 0 0 0 0 0 0 0 0 0 0 0 0 0 0 0 0 0 46 46 47 47 46 48 45 46 47 46 46 45 44 44 42 44 41 35 31 30 32 33 31 32 35 36 35 35 35 34 30 32 32 30 33 30 29 30 30 29 28 28 31 30 31 29 28 27 25 25 -209 21 19 15 17 14 13 19 21 22 19 26 28 28 28 -225 -225 -225 -225 0 0 0 0 0 0 0 0 9 9 10 9 9 9 10 9 9 0 0 0 0 0 0 0 9 10 11 11 11 12 12 14 15 12 14 15 16 19 20 22 22 22 23 24 25 26 27 27 30 35 37 38 39 41 40 42 46 49 47 51 52 51 50 53 54 53 53 54 56 58 60 63 62 63 68 69 69 70 69 70 70 71 -193 -177 -177 0 -193 74 75 75 76 -193 -193 74 79 -209 -209 -193 -209 -193 -193 -177 -193 -193 -193 -209 98 105 105 105 105 105 104 111 108 109 110 111 114 115 115 116 108 121 123 124 124 125 124 124 123 125 126 126 133 144 139 140 146 -193 149 -193 -177 -177 -193 152 152 152 154 156 159 -177 -177 165 -193 -193 -193 -193 170 -193 -193 -209 171 174 179 -193 -193 -193 548 549 92 95 95 92 98 98 94 0 0 0 0 0</data></disparity>
</opencv_storage>
