<?xml version="1.0"?>
<opencv_storage>
<gps_time_stamp>306623</gps_time_stamp>
<gps_x>-1.2418521881103516e+001</gps_x>
<gps_y>1.0953026771545410e+001</gps_y>
<gps_z>-2.0021839141845703e+000</gps_z>
<image_time_stamp>297461</image_time_stamp>
<disparity type_id="opencv-matrix">
  <rows>89</rows>
  <cols>320</cols>
  <dt>s</dt>
  <data>
    0 0 0 0 0 0 0 0 0 0 0 0 0 0 0 0 0 0 0 0 0 0 0 0 0 0 0 0 0 0 0 0 0 0 0 0 0 0 0 0 0 0 0 0 0 0 0 0 0 0 0 0 0 0 0 0 0 0 0 0 0 0 0 0 0 0 0 0 0 51 50 50 50 51 51 50 51 49 47 47 46 44 44 43 42 43 43 49 44 48 45 45 45 45 45 45 43 45 40 40 34 33 26 27 29 29 26 26 25 27 29 30 28 32 30 30 30 31 30 30 29 30 25 21 21 21 21 23 23 23 23 22 27 32 32 32 -225 -225 -225 -225 -225 -225 -225 -225 -225 -225 -225 -225 -225 -225 -225 -225 -225 -225 -225 -225 -225 -225 -225 -225 -225 -225 -225 -225 -225 -225 -225 -225 -225 -225 -225 -225 -225 -225 -225 -225 -225 -225 -225 -225 -225 -225 -225 -225 36 33 34 34 34 36 38 38 39 40 49 45 49 48 48 47 47 50 48 46 48 45 46 50 56 55 58 60 64 -177 -177 -177 62 61 63 62 64 62 66 64 67 69 69 71 72 76 83 79 79 80 85 82 82 82 83 81 85 85 86 83 90 97 102 101 101 104 -193 -193 -193 -193 -193 -193 107 108 109 110 118 117 118 118 118 119 120 121 122 122 124 126 126 130 130 133 134 135 137 140 141 142 144 145 146 148 148 150 151 153 154 156 156 158 157 159 160 161 163 163 163 164 163 -193 -193 -193 0 0 173 -193 -193 -193 -193 180 -209 0 0 0 0 0
    0 0 0 0 0 0 0 0 0 0 0 0 0 0 0 0 0 0 0 0 0 0 0 0 0 0 0 0 0 0 0 0 0 0 0 0 0 0 0 0 0 0 0 0 0 0 0 0 0 0 0 0 0 0 0 0 0 0 0 0 0 0 0 0 0 0 0 0 0 50 50 49 49 50 50 49 49 48 46 47 46 45 45 44 43 43 44 49 44 48 45 46 45 45 45 45 43 45 40 40 34 35 26 28 30 30 26 28 26 27 29 29 28 31 30 30 30 30 30 29 29 29 25 22 21 21 21 23 23 23 24 23 27 32 32 32 -225 -225 -225 -225 -225 -225 -225 -225 -225 -225 -225 -225 -225 -225 -225 -225 -225 -225 -225 -225 -225 -225 -225 -225 -225 -225 -225 -225 -225 -225 -225 -225 -225 -225 -225 -225 -225 -225 -225 -225 -225 -225 -225 -225 -225 -225 -225 -225 35 33 34 34 34 36 37 38 39 40 49 45 49 47 48 47 47 50 48 46 48 45 47 50 56 55 58 59 63 -177 -177 -177 61 60 62 61 63 62 66 65 68 69 69 71 73 76 83 79 79 80 85 83 83 83 83 82 85 86 87 84 90 97 101 101 101 104 104 -193 -193 -193 -193 -193 106 108 108 111 118 117 118 118 118 119 119 121 122 122 125 126 128 131 131 134 134 136 137 139 141 141 144 144 146 148 148 151 151 154 154 157 156 158 157 159 160 161 163 163 163 164 163 -193 -193 -193 0 0 -193 -193 -193 -193 -193 -193 -209 0 0 0 0 0
    0 0 0 0 0 0 0 0 0 0 0 0 0 0 0 0 0 0 0 0 0 0 0 0 0 0 0 0 0 0 0 0 0 0 0 0 0 0 0 0 0 0 0 0 0 0 0 0 0 0 0 0 0 0 0 0 0 0 0 0 0 0 0 0 0 0 0 0 0 50 49 49 49 50 50 49 48 48 46 47 46 46 45 44 43 44 44 49 44 48 45 46 45 45 45 45 43 45 40 40 34 -209 -209 27 33 33 24 32 26 28 29 29 28 31 30 30 29 30 29 29 29 29 25 22 22 21 22 23 24 23 24 24 27 32 32 32 -225 -225 -225 -225 -225 -225 -225 -225 -225 -225 -225 -225 -225 -225 -225 -225 -225 -225 -225 -225 -225 -225 -225 -225 -225 -225 -225 -225 -225 -225 -225 -225 -225 -225 -225 -225 -225 -225 -225 -225 -225 -225 -225 -225 -225 -225 -225 -225 34 33 34 34 34 36 37 38 39 40 48 44 48 47 48 47 47 50 48 46 48 46 49 51 57 56 57 59 62 -177 -177 -177 -193 59 61 60 62 61 65 65 68 68 69 72 74 76 83 79 79 80 85 84 84 84 84 83 86 87 87 85 90 97 101 100 100 103 103 103 104 -209 106 -193 106 108 108 111 118 117 117 117 118 118 119 121 122 122 126 127 129 132 133 -193 134 -209 137 139 140 141 143 144 145 148 149 151 152 155 155 157 156 158 157 159 160 161 162 162 162 164 162 -193 -177 -193 0 0 -193 0 0 -193 -193 -193 -209 0 0 0 0 0
    0 0 0 0 0 0 0 0 0 0 0 0 0 0 0 0 0 0 0 0 0 0 0 0 0 0 0 0 0 0 0 0 0 0 0 0 0 0 0 0 0 0 0 0 0 0 0 0 0 0 0 0 0 0 0 0 0 0 0 0 0 0 0 0 0 0 0 0 0 50 50 49 49 50 51 49 48 48 47 48 46 46 45 45 44 44 45 49 44 48 45 46 45 45 45 45 43 45 41 41 35 -209 -209 -209 -209 -209 24 35 26 29 28 29 27 31 29 29 29 30 29 29 29 29 25 22 22 21 22 24 24 24 24 25 27 32 32 32 -225 -225 -225 -225 -225 -225 -225 -225 -225 -225 -225 -225 -225 -225 -225 -225 -225 -225 -225 -225 -225 -225 -225 -225 -225 -225 -225 -225 -225 -225 -225 -225 -225 -225 -225 -225 -225 -225 -225 -225 -225 -225 -225 -225 -225 -225 -225 35 33 33 34 34 34 35 36 37 38 40 46 43 47 45 48 46 46 49 47 46 48 47 51 51 56 55 -193 57 60 -193 -177 -177 -193 58 60 59 62 60 64 65 68 66 67 71 74 76 83 80 80 80 86 85 85 85 85 85 87 87 88 87 89 96 101 100 100 -193 102 102 103 -193 -193 -177 -193 108 108 112 117 117 117 118 118 118 119 121 123 122 127 128 -193 -193 -193 -193 -193 -209 -209 139 140 141 143 143 145 148 149 151 153 155 155 157 156 159 157 159 160 160 162 162 162 163 162 -177 -177 -177 -193 0 -193 0 0 -193 -193 -193 -209 0 0 0 0 0
    0 0 0 0 0 0 0 0 0 0 0 0 0 0 0 0 0 0 0 0 0 0 0 0 0 0 0 0 0 0 0 0 0 0 0 0 0 0 0 0 0 0 0 0 0 0 0 0 0 0 0 0 0 0 0 0 0 0 0 0 0 0 0 0 0 0 0 0 0 50 50 49 49 50 51 48 47 47 46 47 46 46 46 46 44 45 46 49 44 48 45 46 45 45 44 44 43 45 41 41 -209 -209 -209 -209 -209 -209 26 37 27 30 28 29 28 30 29 29 28 29 28 29 28 29 24 22 22 21 22 24 24 24 25 25 28 32 32 32 -225 -225 -225 -225 -225 -225 -225 -225 -225 -225 -225 -225 -225 -225 -225 -225 -225 -225 -225 -225 -225 -225 -225 -225 -225 -225 -225 -225 -225 -225 -225 -225 -225 -225 -225 -225 -225 -225 -225 -225 -225 -225 -225 -225 -225 -225 -225 35 33 33 34 34 35 35 35 37 39 40 44 42 45 44 47 46 46 -177 47 46 48 47 51 50 56 54 55 56 58 -177 270 273 275 -193 59 58 61 60 63 66 67 64 65 67 73 75 83 80 80 81 86 86 86 87 87 87 88 88 89 89 89 96 101 100 100 -193 101 102 102 -177 -193 -177 -193 108 108 112 117 117 116 117 117 118 119 121 124 122 128 129 -193 -193 133 -193 -193 -209 -193 139 140 141 143 143 145 149 149 152 153 155 156 157 157 158 157 158 159 160 161 161 -193 -193 -209 -177 -177 241 -193 -193 -193 -193 -193 179 179 180 182 0 0 0 0 0
    0 0 0 0 0 0 0 0 0 0 0 0 0 0 0 0 0 0 0 0 0 0 0 0 0 0 0 0 0 0 0 0 0 0 0 0 0 0 0 0 0 0 0 0 0 0 0 0 0 0 0 0 0 0 0 0 0 0 0 0 0 0 0 0 0 0 0 0 0 50 50 49 49 49 51 47 47 46 45 47 46 47 46 47 45 46 47 49 45 48 45 46 45 45 44 44 42 45 40 41 -209 -209 -209 -209 -209 -209 26 37 26 30 28 29 28 30 29 29 28 29 28 28 27 28 24 22 22 21 22 24 25 25 25 26 28 32 32 32 -225 -225 -225 -225 -225 -225 -225 -225 -225 -225 -225 -225 -225 -225 -225 -225 -225 -225 -225 -225 -225 -225 -225 -225 -225 -225 -225 -225 -225 -225 -225 -225 -225 -225 -225 -225 -225 -225 -225 -225 -225 -225 -225 -225 -225 -225 -225 33 32 32 34 34 36 35 35 36 38 39 42 40 44 43 46 45 45 48 47 46 48 47 52 51 56 54 55 55 57 -177 -177 -177 -177 -193 58 58 61 60 63 67 67 64 65 65 70 73 83 80 80 81 86 88 88 88 88 88 90 90 90 90 89 95 101 99 -193 -193 101 102 102 -177 -193 -193 106 108 108 112 117 117 116 118 117 118 119 122 124 123 129 130 -193 -193 134 -193 134 -193 137 139 140 141 142 143 145 148 149 -193 -193 156 156 158 157 158 157 158 158 159 -193 -193 -193 -193 -209 -193 -193 -193 -193 -193 -193 -193 -193 178 178 180 182 0 0 0 0 0
    0 0 0 0 0 0 0 0 0 0 0 0 0 0 0 0 0 0 0 0 0 0 0 0 0 0 0 0 0 0 0 0 0 0 0 0 0 0 0 0 0 0 0 0 0 0 0 0 0 0 0 0 0 0 0 0 0 0 0 0 0 0 0 0 0 0 0 0 0 50 50 50 49 49 50 46 46 46 46 48 47 48 47 47 45 46 46 49 44 48 45 45 44 44 44 44 42 44 39 39 -193 10 11 17 -193 24 24 35 26 29 28 29 28 29 29 29 28 29 28 28 27 28 24 22 22 21 22 25 25 25 25 26 28 32 32 32 -225 -225 -225 -225 -225 -225 -225 -225 -225 -225 -225 -225 -225 -225 -225 -225 -225 -225 -225 -225 -225 -225 -225 -225 -225 -225 -225 -225 -225 -225 -225 -225 -225 -225 -225 -225 -225 -225 -225 -225 -225 -225 -225 -225 -225 -225 35 32 32 32 34 35 36 35 36 36 38 38 40 40 43 42 45 44 45 47 46 46 47 47 52 50 55 54 54 54 55 -193 -177 -177 -193 55 57 57 60 60 62 66 67 63 64 63 69 -209 84 81 81 82 86 89 89 89 89 89 91 91 91 91 88 94 100 99 -193 -193 101 101 102 -177 -193 -193 106 108 107 111 117 116 116 117 117 118 118 122 125 123 130 130 132 134 134 135 135 136 137 139 140 140 142 142 144 148 -193 -193 -193 157 157 158 157 159 157 -193 -193 -193 -193 -193 -193 -193 -193 -209 -193 -193 -193 -193 -193 -193 -193 177 178 180 182 0 0 0 0 0
    0 0 0 0 0 0 0 0 0 0 0 0 0 0 0 0 0 0 0 0 0 0 0 0 0 0 0 0 0 0 0 0 0 0 0 0 0 0 0 0 0 0 0 0 0 0 0 0 0 0 0 0 0 0 0 0 0 0 0 0 0 0 0 0 0 0 0 0 0 50 50 50 49 48 50 46 46 45 45 47 46 48 47 47 45 46 46 49 44 47 45 45 44 44 44 43 42 44 37 37 27 15 14 18 22 23 24 32 25 29 27 29 28 29 29 29 28 29 28 28 27 28 25 22 21 21 22 25 25 25 25 26 28 32 32 32 -225 -225 -225 -225 -225 -225 -225 -225 -225 -225 -225 -225 -225 -225 -225 -225 -225 -225 -225 -225 -225 -225 -225 -225 -225 -225 -225 -225 -225 -225 -225 -225 -225 -225 -225 -225 -225 -225 -225 -225 -225 -225 -225 -225 -225 -225 34 32 32 32 33 35 37 35 37 37 39 38 39 39 43 42 45 44 44 46 46 46 47 48 52 51 55 54 54 54 55 55 -193 -193 -193 54 57 57 60 60 61 66 67 62 63 63 67 72 84 81 81 82 87 94 90 90 90 91 92 92 92 92 88 93 100 99 -193 -193 100 100 101 -177 -193 -193 -193 -193 107 111 117 116 115 117 117 118 119 122 125 123 130 131 -193 -193 135 136 135 136 -193 139 139 140 141 142 143 -193 -193 -193 -193 157 157 158 158 159 157 -193 -193 -193 -193 -193 -193 -193 -193 -209 -193 -193 -193 -209 -193 -193 -193 176 178 179 181 0 0 0 0 0
    0 0 0 0 0 0 0 0 0 0 0 0 0 0 0 0 0 0 0 0 0 0 0 0 0 0 0 0 0 0 0 0 0 0 0 0 0 0 0 0 0 0 0 0 0 0 0 0 0 0 0 0 0 0 0 0 0 0 0 0 0 0 0 0 0 0 0 0 0 50 50 50 48 48 50 46 47 46 45 47 46 47 46 47 44 45 46 48 44 47 45 45 44 44 44 43 42 44 37 37 -193 13 13 15 20 23 23 30 24 29 27 29 28 29 29 29 28 29 28 29 27 27 25 21 21 21 22 25 25 25 25 25 28 32 32 32 -225 -225 -225 -225 -225 -225 -225 -225 -225 -225 -225 -225 -225 -225 -225 -225 -225 -225 -225 -225 -225 -225 -225 -225 -225 -225 -225 -225 -225 10 10 0 0 0 0 0 0 -225 -225 -225 -225 -225 -225 -225 -225 -225 33 31 31 31 33 36 37 36 37 37 39 37 39 39 42 42 44 43 44 45 45 46 47 47 52 50 55 54 54 54 55 55 55 54 -193 -193 57 58 60 61 60 67 67 62 64 65 69 -209 85 82 82 83 87 97 91 92 91 92 92 93 93 93 88 93 100 99 -193 -193 100 100 102 -177 -193 -193 106 107 107 111 117 116 115 117 117 118 -193 -193 125 122 130 131 -193 -193 134 135 135 136 -193 139 139 140 141 142 -193 -193 -193 -209 -193 157 158 159 159 159 -193 -193 -193 -193 -193 -193 -193 -193 -193 -193 -193 -193 -209 -193 -193 -193 -193 176 178 178 181 0 0 0 0 0
    0 0 0 0 0 0 0 0 0 0 0 0 0 0 0 0 0 0 0 0 0 0 0 0 0 0 0 0 0 0 0 0 0 0 0 0 0 0 0 0 0 0 0 0 0 0 0 0 0 0 0 0 0 0 0 0 0 0 0 0 0 0 0 0 0 0 0 0 0 50 50 50 49 49 51 47 48 47 46 48 45 47 45 46 44 44 45 48 43 47 45 45 44 44 43 43 42 44 37 37 -209 12 12 14 18 22 23 28 24 29 27 30 29 29 30 29 28 29 28 29 26 27 25 21 21 21 22 25 25 25 25 25 28 32 32 32 -225 -225 -225 -225 -225 -225 -225 -225 -225 -225 -225 -225 -225 -225 -225 -225 -225 -225 -225 -225 -225 -225 -225 -225 -225 -225 -225 -225 21 13 12 10 10 10 9 0 0 0 -225 -225 -225 -225 -225 -225 -225 -225 31 31 31 31 32 36 37 36 37 37 38 37 38 39 41 41 43 43 43 45 45 47 47 48 53 51 55 55 55 55 55 56 56 55 -193 -193 57 58 60 61 60 66 67 62 64 65 69 -209 84 84 83 84 87 99 92 92 92 92 93 93 94 94 88 93 100 101 -193 -193 101 101 102 -177 105 107 107 108 107 111 116 116 114 117 116 118 -193 -193 124 122 129 130 132 134 134 135 134 136 136 139 139 140 141 142 -193 -193 -193 -193 -193 158 159 160 160 161 -193 -193 -193 -193 -193 -193 -193 83 82 -193 -193 -193 -209 -193 -193 173 172 175 177 178 180 0 0 0 0 0
    0 0 0 0 0 0 0 0 0 0 0 0 0 0 0 0 0 0 0 0 0 0 0 0 0 0 0 0 0 0 0 0 0 0 0 0 0 0 0 0 0 0 0 0 0 0 0 0 0 0 0 0 0 0 0 0 0 0 0 0 0 0 0 0 0 0 0 0 0 51 51 51 50 51 53 49 51 48 47 48 45 46 44 45 43 44 44 47 43 46 44 45 44 44 43 43 42 44 37 37 16 13 12 14 19 23 24 30 24 30 27 30 29 29 30 29 28 29 27 28 26 26 25 21 21 21 22 25 25 25 25 25 28 32 32 32 -225 -225 -225 -225 -225 -225 -225 -225 -225 -225 -225 -225 -225 -225 -225 -225 -225 -225 -225 -225 -225 -225 -225 -225 -225 -225 -225 -225 20 13 13 10 10 10 10 9 10 0 0 -225 -225 -225 -225 -225 -225 34 31 31 31 31 31 36 37 37 37 38 39 37 38 39 42 41 44 43 44 44 45 47 47 47 52 50 55 54 54 55 55 56 56 56 -193 57 58 59 60 62 60 66 67 63 66 68 71 74 85 85 85 87 88 100 93 93 93 93 93 94 94 94 89 94 100 101 101 103 101 101 103 -177 106 107 107 109 108 111 116 115 114 116 116 118 118 -193 123 122 128 130 132 133 133 134 134 -193 136 139 139 140 141 -193 -193 31 -193 -193 -209 158 160 161 162 162 -193 -193 -193 -193 -193 -193 -193 83 82 -193 -193 -193 -193 -193 -209 173 172 174 176 177 180 0 0 0 0 0
    0 0 0 0 0 0 0 0 0 0 0 0 0 0 0 0 0 0 0 0 0 0 0 0 0 0 0 0 0 0 0 0 0 0 0 0 0 0 0 0 0 0 0 0 0 0 0 0 0 0 0 0 0 0 0 0 0 0 0 0 0 0 0 0 0 0 0 0 0 51 52 52 51 52 54 50 53 49 47 48 44 45 44 44 43 43 44 46 42 46 44 45 44 44 43 43 42 44 37 37 20 18 15 20 22 -193 26 33 26 31 27 30 30 29 30 28 28 28 27 28 26 25 25 21 22 22 22 25 25 25 26 26 28 32 32 32 -225 -225 -225 -225 -225 -225 -225 -225 -225 -225 -225 -225 -225 -225 -225 -225 -225 -225 -225 -225 -225 -225 -225 -225 -225 -225 -225 12 20 13 14 11 11 11 11 10 10 0 9 -225 -225 -225 -225 -225 -225 32 30 30 31 31 30 36 37 36 37 38 39 37 38 39 42 41 43 43 43 44 45 47 46 46 50 48 54 54 54 55 55 57 57 57 57 58 59 60 60 63 59 67 67 65 68 70 72 75 85 86 87 88 88 100 93 93 93 93 93 94 95 95 90 95 100 101 101 103 102 102 103 -193 107 108 108 109 109 111 116 115 114 116 115 117 118 121 123 122 127 129 131 132 133 134 134 -209 -193 140 139 141 141 -193 -177 31 28 30 -193 158 161 161 163 163 -193 -193 -193 -193 -193 -193 -193 -193 83 -193 -193 -193 -193 -209 -209 -193 172 174 176 176 179 0 0 0 0 0
    0 0 0 0 0 0 0 0 0 0 0 0 0 0 0 0 0 0 0 0 0 0 0 0 0 0 0 0 0 0 0 0 0 0 0 0 0 0 0 0 0 0 0 0 0 0 0 0 0 0 0 0 0 0 0 0 0 0 0 0 0 0 0 0 0 0 0 0 0 51 52 53 52 53 54 51 53 50 47 48 44 44 43 44 42 42 43 46 42 46 44 45 43 44 43 43 41 43 36 36 21 19 18 22 23 -193 28 33 26 31 27 30 30 29 29 28 28 28 27 28 25 24 24 21 22 21 22 26 26 25 26 26 28 32 32 32 -225 -225 -225 -225 -225 -225 -225 -225 -225 -225 -225 -225 -225 -225 -225 -225 -225 -225 -225 -225 -225 -225 -225 -225 -225 -225 -225 13 21 14 15 12 13 12 12 11 11 9 10 0 10 -225 -225 -225 -225 29 29 29 30 30 30 35 36 36 37 37 38 36 38 40 42 41 43 43 43 44 46 47 46 46 49 47 54 54 55 55 56 58 58 58 59 59 59 61 60 64 59 68 68 67 70 72 74 78 85 86 86 87 88 99 93 93 93 93 94 95 95 95 90 96 100 101 101 103 103 103 104 108 107 109 109 110 110 111 116 115 113 116 115 117 117 121 122 122 127 129 131 132 133 134 134 -193 -193 140 139 141 141 -193 -177 31 29 30 -193 158 161 161 163 163 -193 -193 -193 -193 -193 -193 -193 -193 -193 -193 -193 -193 166 -209 -193 -193 172 174 175 175 178 0 0 0 0 0
    0 0 0 0 0 0 0 0 0 0 0 0 0 0 0 0 0 0 0 0 0 0 0 0 0 0 0 0 0 0 0 0 0 0 0 0 0 0 0 0 0 0 0 0 0 0 0 0 0 0 0 0 0 0 0 0 0 0 0 0 0 0 0 0 0 0 0 0 0 52 53 53 53 55 55 53 55 52 48 48 44 44 42 43 41 41 41 45 42 46 44 45 43 44 43 43 41 43 35 35 21 20 19 22 23 26 29 33 27 32 27 30 30 29 29 28 28 28 27 28 25 24 24 21 22 22 22 26 26 26 26 27 28 32 32 32 -225 -225 -225 -225 -225 -225 -225 -225 -225 -225 -225 -225 -225 -225 -225 -225 -225 -225 -225 -225 -225 -225 -225 -225 -225 -225 -225 14 21 14 15 13 13 12 12 11 11 9 10 0 10 0 -225 -225 294 28 29 29 30 31 30 34 36 35 37 37 37 35 37 39 41 41 43 43 43 44 46 47 45 46 48 46 54 55 55 57 57 60 59 60 60 60 60 62 61 64 58 68 69 68 70 73 76 78 84 85 85 86 88 99 93 93 93 93 93 94 95 95 91 96 100 101 101 103 104 104 105 109 108 110 109 111 110 111 115 114 112 116 114 116 117 120 122 122 126 129 131 132 132 134 134 -193 -209 139 139 140 141 -193 -193 32 30 31 -193 -193 163 162 -193 -193 -193 226 -193 -193 160 161 161 162 162 164 166 165 167 -209 169 172 172 174 175 175 178 0 0 0 0 0
    0 0 0 0 0 0 0 0 0 0 0 0 0 0 0 0 0 0 0 0 0 0 0 0 0 0 0 0 0 0 0 0 0 0 0 0 0 0 0 0 0 0 0 0 0 0 0 0 0 0 0 0 0 0 0 0 0 0 0 0 0 0 0 0 0 0 0 0 0 52 53 54 54 55 56 54 55 53 49 49 45 44 42 42 40 41 41 45 41 46 44 45 43 44 43 43 41 43 35 35 22 21 20 22 23 33 31 34 27 32 27 31 -193 -193 30 28 28 28 27 28 25 24 24 22 23 22 23 26 26 26 27 28 28 32 32 32 -225 -225 -225 -225 -225 -225 -225 -225 -225 -225 -225 -225 -225 -225 -225 -225 -225 -225 -225 -225 -225 -225 -225 -225 -225 -225 -225 14 21 13 14 12 12 12 11 11 11 0 10 0 10 9 -225 -225 293 29 30 30 32 31 30 33 35 35 36 37 36 35 37 40 41 41 43 43 44 45 47 48 46 46 48 46 53 55 55 58 58 62 60 61 61 61 61 63 61 64 58 68 68 69 71 74 77 79 83 85 85 86 88 98 93 93 93 94 93 94 95 95 91 96 100 101 101 103 105 105 106 110 109 111 110 112 111 111 115 114 112 116 114 116 117 120 121 121 126 128 130 131 132 133 -193 -193 82 -193 139 -193 -193 -193 -193 -193 30 31 -193 -209 164 162 -193 -193 -209 -193 -193 -193 160 162 162 163 163 164 166 166 167 169 170 173 173 175 175 175 178 0 0 0 0 0
    0 0 0 0 0 0 0 0 0 0 0 0 0 0 0 0 0 0 0 0 0 0 0 0 0 0 0 0 0 0 0 0 0 0 0 0 0 0 0 0 0 0 0 0 0 0 0 0 0 0 0 0 0 0 0 0 0 0 0 0 0 0 0 0 0 0 0 0 0 52 53 54 54 55 55 54 55 53 49 49 45 44 42 42 40 40 40 45 41 46 44 45 43 44 43 43 42 44 36 36 23 -193 -193 28 -193 42 36 37 28 34 28 32 32 29 30 29 28 28 27 28 25 24 24 22 24 23 23 26 27 27 27 28 28 32 32 32 -225 -225 -225 -225 -225 -225 -225 -225 -225 -225 -225 -225 -225 -225 -225 -225 -225 -225 -225 -225 -225 -225 -225 -225 -225 -225 -225 14 20 13 14 12 12 12 11 11 11 0 10 0 10 10 -225 -225 292 28 29 29 32 31 30 32 35 34 35 36 36 35 37 40 42 41 44 44 44 45 47 48 46 46 48 47 53 55 56 60 60 63 62 62 62 62 61 64 61 65 58 69 70 71 73 75 79 80 83 85 85 87 87 95 92 92 92 92 92 93 93 94 90 96 100 101 101 103 106 106 106 111 109 112 111 112 112 111 115 114 112 116 114 116 116 119 121 121 125 127 129 131 -193 133 82 83 82 -193 -193 -193 -193 -193 -193 -193 31 -193 -193 -209 164 162 -193 -193 -193 -193 -193 -193 160 162 162 163 163 164 166 166 168 170 170 173 173 175 174 174 177 0 0 0 0 0
    0 0 0 0 0 0 0 0 0 0 0 0 0 0 0 0 0 0 0 0 0 0 0 0 0 0 0 0 0 0 0 0 0 0 0 0 0 0 0 0 0 0 0 0 0 0 0 0 0 0 0 0 0 0 0 0 0 0 0 0 0 0 0 0 0 0 0 0 0 53 54 54 55 56 56 55 55 54 50 50 45 44 42 42 40 40 40 45 41 46 44 45 44 44 44 44 42 44 37 37 -193 -193 -193 44 45 44 38 38 29 34 28 32 32 30 30 29 28 28 27 28 25 24 24 23 24 23 24 26 27 27 28 29 29 32 32 32 -225 -225 -225 -225 -225 -225 -225 -225 -225 -225 -225 -225 -225 -225 -225 -225 -225 -225 -225 -225 -225 -225 -225 -225 -225 -225 18 15 21 14 15 13 14 13 12 12 12 9 11 9 11 11 -225 -225 -177 -193 28 29 31 30 29 31 35 33 33 36 36 35 37 40 41 41 43 44 45 45 47 48 46 46 48 46 53 55 56 61 60 64 62 63 63 63 62 65 61 66 59 70 71 72 73 75 78 80 85 86 86 86 87 93 90 90 91 90 90 91 -193 93 90 96 100 101 101 103 107 106 107 112 110 112 112 113 112 111 115 114 112 116 114 116 116 119 120 121 124 127 128 130 -193 -193 82 83 82 -193 -193 -193 -193 -193 -193 -193 -193 -193 -209 -209 162 -193 -193 -209 -193 -193 159 160 160 162 163 163 163 165 166 166 -193 170 170 173 173 175 174 174 176 0 0 0 0 0
    0 0 0 0 0 0 0 0 0 0 0 0 0 0 0 0 0 0 0 0 0 0 0 0 0 0 0 0 0 0 0 0 0 0 0 0 0 0 0 0 0 0 0 0 0 0 0 0 0 0 0 0 0 0 0 0 0 0 0 0 0 0 0 0 0 0 0 0 0 54 55 55 57 58 58 56 57 55 52 51 46 44 42 42 40 40 40 45 41 46 44 45 44 44 44 44 42 44 37 36 25 30 -193 42 44 42 38 38 30 35 28 32 32 30 29 29 28 28 27 28 25 24 24 24 25 23 24 27 27 28 28 30 29 32 32 32 -225 -225 -225 -225 -225 -225 -225 -225 -225 -225 -225 -225 -225 -225 -225 -225 -225 -225 -225 -225 -225 -225 -225 -225 -225 -225 16 15 21 14 15 13 14 13 12 12 12 9 11 9 11 11 -209 -177 -177 28 28 30 31 30 29 30 35 33 32 35 35 35 37 40 41 41 43 43 45 45 47 48 45 47 48 47 53 55 57 62 60 64 63 63 63 64 62 65 62 66 60 70 71 72 73 75 80 81 84 85 85 85 86 90 88 -193 89 89 89 90 -193 92 89 94 100 101 101 103 108 107 108 112 110 113 112 114 113 111 115 114 112 116 114 116 117 119 120 -193 124 127 -193 -193 -193 -193 82 83 83 -193 -193 -193 -193 -193 -193 -193 -193 146 -193 -209 -209 -193 158 -193 -193 156 159 160 160 162 164 164 164 165 167 -193 -193 171 171 173 174 175 174 174 176 0 0 0 0 0
    0 0 0 0 0 0 0 0 0 0 0 0 0 0 0 0 0 0 0 0 0 0 0 0 0 0 0 0 0 0 0 0 0 0 0 0 0 0 0 0 0 0 0 0 0 0 0 0 0 0 0 0 0 0 0 0 0 0 0 0 0 0 0 0 0 0 0 0 0 54 55 55 57 58 59 57 57 55 52 51 46 44 42 43 41 41 40 45 41 46 44 45 44 44 44 44 42 43 36 35 26 27 27 34 35 37 37 36 30 34 28 32 32 29 29 29 28 28 27 28 26 25 24 24 25 23 24 27 27 28 29 30 30 32 32 32 -225 -225 -225 -225 -225 -225 -225 -225 -225 -225 -225 -225 -225 -225 -225 -225 -225 -225 -225 -225 -225 -225 -225 -225 -225 -225 16 15 21 14 15 14 15 14 12 13 13 10 12 11 13 13 19 -177 -177 27 27 29 30 30 29 29 34 32 32 36 36 35 37 41 41 41 43 43 45 45 47 47 45 47 48 47 53 55 57 62 61 65 63 63 64 64 62 65 62 66 60 71 72 73 74 77 81 81 84 85 86 85 86 89 87 88 88 88 88 89 -193 91 89 94 100 101 101 102 108 107 108 112 110 113 112 114 113 111 115 115 113 116 115 117 117 119 120 -193 124 -193 -193 -193 -193 -193 82 84 83 -193 -193 -193 -193 141 143 143 144 145 147 -193 -209 -193 155 155 157 156 159 160 160 163 164 164 165 165 -193 -209 -209 -193 -193 173 174 176 175 175 176 0 0 0 0 0
    0 0 0 0 0 0 0 0 0 0 0 0 0 0 0 0 0 0 0 0 0 0 0 0 0 0 0 0 0 0 0 0 0 0 0 0 0 0 0 0 0 0 0 0 0 0 0 0 0 0 0 0 0 0 0 0 0 0 0 0 0 0 0 0 0 0 0 0 0 53 54 54 56 58 59 56 57 55 52 51 47 45 43 43 41 42 41 46 42 46 44 45 44 44 43 43 41 43 35 33 26 27 27 31 32 34 35 34 29 32 28 31 31 29 29 29 28 28 27 27 26 25 25 25 25 23 24 27 27 28 29 31 30 32 32 32 -225 -225 -225 -225 -225 -225 -225 -225 -225 -225 -225 -225 -225 -225 -225 -225 -225 -225 -225 -225 -225 -225 -225 -225 -225 -225 16 15 21 15 15 14 16 15 13 14 13 10 12 11 13 12 17 -193 -193 26 26 29 29 29 30 29 34 32 32 35 34 34 36 39 40 39 42 42 44 44 46 47 44 47 48 47 53 56 58 63 62 65 63 63 64 65 62 65 62 67 61 71 72 73 75 78 81 81 83 84 85 84 85 87 86 86 87 87 87 88 -193 -193 88 93 100 101 101 103 108 107 108 113 110 113 112 114 114 111 115 115 113 117 115 117 117 120 120 80 -193 84 -193 80 83 82 83 84 83 -193 -193 -193 -193 141 142 143 144 145 145 -193 -193 151 -193 154 157 156 158 159 160 162 164 164 165 165 -209 -209 -209 -209 -209 -193 175 177 176 176 -193 0 0 0 0 0
    0 0 0 0 0 0 0 0 0 0 0 0 0 0 0 0 0 0 0 0 0 0 0 0 0 0 0 0 0 0 0 0 0 0 0 0 0 0 0 0 0 0 0 0 0 0 0 0 0 0 0 0 0 0 0 0 0 0 0 0 0 0 0 0 0 0 0 0 0 52 53 54 55 58 58 56 57 56 52 51 47 45 43 45 42 42 42 47 42 46 44 45 44 44 43 44 41 43 34 33 25 26 26 27 29 30 32 30 28 30 27 30 31 29 29 28 28 28 27 27 26 25 25 25 25 23 24 26 27 28 30 31 31 32 32 32 -225 -225 -225 -225 -225 -225 -225 -225 -225 -225 -225 -225 -225 -225 -225 -225 -225 -225 -225 -225 -225 -225 -225 -225 -225 -225 15 15 21 14 14 13 15 14 13 14 13 11 13 12 14 13 17 19 -193 25 25 28 29 29 30 30 34 32 32 34 34 34 36 39 40 39 42 42 44 44 46 47 44 47 47 47 53 56 58 64 62 66 64 64 64 65 62 65 62 67 62 72 72 74 75 78 81 81 83 84 85 84 85 87 85 86 86 86 86 86 -193 -193 84 92 100 102 101 103 110 108 109 113 110 113 112 114 113 111 115 115 113 117 116 118 117 -193 120 80 -193 84 -193 80 83 82 83 83 83 -193 -193 -193 -193 -193 142 142 144 144 144 146 145 149 -209 -193 158 156 158 160 160 162 164 164 165 -209 -193 622 621 632 -193 -193 -209 178 -193 177 108 0 0 0 0 0
    0 0 0 0 0 0 0 0 0 0 0 0 0 0 0 0 0 0 0 0 0 0 0 0 0 0 0 0 0 0 0 0 0 0 0 0 0 0 0 0 0 0 0 0 0 0 0 0 0 0 0 0 0 0 0 0 0 0 0 0 0 0 0 0 0 0 0 0 0 -193 52 53 55 58 58 57 57 56 52 52 48 46 44 46 43 43 42 47 42 47 44 45 44 44 43 43 41 43 34 32 27 28 28 28 28 28 30 28 27 28 27 30 31 29 28 28 28 28 27 27 26 25 25 25 25 23 24 26 27 27 30 31 31 32 32 32 -225 -225 -225 -225 -225 -225 -225 -225 -225 -225 -225 -225 -225 -225 -225 -225 -225 -225 -225 -225 -225 -225 -225 -225 -225 -225 15 16 20 14 13 13 14 13 12 14 12 11 12 12 15 14 17 20 -193 26 26 28 29 29 31 30 33 32 32 34 35 34 36 38 40 40 42 43 44 44 45 46 44 47 47 47 53 57 58 64 62 65 63 63 64 65 63 65 63 67 62 71 72 73 74 77 80 80 82 84 85 84 85 87 85 85 86 85 84 85 86 86 82 91 99 102 101 103 111 108 109 113 110 114 112 113 113 110 115 115 113 117 116 119 118 -193 -209 80 -193 86 -193 80 83 -193 83 83 83 -193 -193 -193 -193 -193 142 142 144 144 144 -193 -193 -193 -193 -193 159 157 159 161 160 162 164 164 -193 622 621 621 620 630 -177 -193 -209 -209 -193 -193 108 0 0 0 0 0
    0 0 0 0 0 0 0 0 0 0 0 0 0 0 0 0 0 0 0 0 0 0 0 0 0 0 0 0 0 0 0 0 0 0 0 0 0 0 0 0 0 0 0 0 0 0 0 0 0 0 0 0 0 0 0 0 0 0 0 0 0 0 0 0 0 0 0 0 0 -193 50 53 54 57 57 56 55 55 52 52 49 47 44 46 43 43 42 47 42 46 44 45 43 44 43 43 41 42 34 32 27 28 28 28 28 28 29 28 27 28 27 29 31 28 28 28 28 28 27 27 26 24 25 25 24 21 24 26 26 27 30 31 31 32 32 32 -225 -225 -225 -225 -225 -225 -225 -225 -225 -225 -225 -225 -225 -225 -225 -225 -225 -225 -225 -225 -225 -225 -225 -225 -225 -225 15 18 19 14 13 13 14 13 12 13 12 11 11 12 15 14 16 20 -193 26 26 28 28 28 30 30 32 32 32 33 35 35 37 39 40 40 42 43 45 44 45 46 44 47 47 46 53 58 59 64 62 65 63 63 64 66 63 65 63 67 63 70 71 72 73 76 78 78 80 84 84 84 84 87 84 85 85 85 83 84 86 86 80 90 99 102 100 103 110 108 108 113 110 113 112 113 113 110 115 115 114 118 117 120 118 -177 -193 82 -209 -177 -193 81 83 -193 83 -193 83 -193 -177 -209 141 141 143 143 145 145 145 -193 -209 -193 -177 -193 -193 157 160 161 160 162 165 163 -193 621 620 621 620 629 -177 636 -209 -209 -193 -193 109 0 0 0 0 0
    0 0 0 0 0 0 0 0 0 0 0 0 0 0 0 0 0 0 0 0 0 0 0 0 0 0 0 0 0 0 0 0 0 0 0 0 0 0 0 0 0 0 0 0 0 0 0 0 0 0 0 0 0 0 0 0 0 0 0 0 0 0 0 0 0 0 0 0 0 -193 49 52 53 57 57 56 55 55 52 52 49 47 44 46 43 43 42 47 42 46 44 45 43 44 43 43 41 42 33 31 27 28 28 28 28 28 29 28 27 28 27 29 31 28 28 28 28 28 27 27 -193 24 25 25 23 19 23 26 26 27 30 31 31 32 32 32 -225 -225 -225 -225 -225 -225 -225 -225 -225 -225 -225 -225 -225 -225 -225 -225 -225 -225 -225 -225 -225 -225 -225 -225 -225 -225 15 19 19 16 15 14 15 13 13 14 12 11 11 11 15 13 14 20 -209 26 26 27 27 27 30 30 31 31 31 32 35 35 37 39 41 41 43 44 45 44 45 46 44 47 47 46 54 58 59 64 62 65 63 63 65 66 63 66 63 67 64 70 71 72 73 75 77 77 79 84 84 84 84 86 84 84 84 84 82 83 85 85 79 90 98 101 99 102 110 107 108 113 110 113 112 113 113 110 115 115 114 118 117 121 -209 -177 -193 -193 -193 -177 -193 82 83 81 83 -193 83 83 -177 -193 141 142 143 144 146 145 145 -193 -209 -177 -177 -177 -177 158 160 162 160 162 165 84 85 -193 620 621 620 629 -177 -177 -209 -193 108 108 109 0 0 0 0 0
    0 0 0 0 0 0 0 0 0 0 0 0 0 0 0 0 0 0 0 0 0 0 0 0 0 0 0 0 0 0 0 0 0 0 0 0 0 0 0 0 0 0 0 0 0 0 0 0 0 0 0 0 0 0 0 0 0 0 0 0 0 0 0 0 0 0 0 0 0 -193 48 52 52 56 56 56 56 56 53 52 48 46 44 45 43 43 42 47 42 46 44 45 43 43 43 43 41 42 32 31 27 28 28 28 28 28 29 27 27 28 28 29 31 28 28 28 28 27 27 27 -193 24 25 25 23 19 23 26 26 27 30 31 31 32 32 32 -225 -225 -225 -225 -225 -225 -225 -225 -225 -225 -225 -225 -225 -225 -225 -225 -225 -225 -225 -225 -225 -225 -225 -225 -225 -225 15 19 18 15 15 14 15 13 13 14 12 11 10 11 15 13 14 20 -177 -193 26 28 27 27 31 30 31 31 31 32 34 35 37 38 40 -193 43 44 45 44 45 46 44 47 47 46 54 59 59 64 62 65 63 63 65 66 63 66 64 68 65 71 71 72 73 76 77 77 78 84 83 83 83 86 84 84 84 84 82 83 85 85 80 90 96 101 98 102 109 107 108 113 110 113 111 113 113 110 115 116 114 118 117 -193 -209 -177 -193 -193 -177 87 -193 82 83 81 84 -193 83 -177 -177 -193 141 142 144 145 146 145 145 -209 -193 90 -177 -177 -193 -193 160 162 160 162 -193 84 85 83 -193 621 620 -193 -177 -209 -209 -209 107 108 109 0 0 0 0 0
    0 0 0 0 0 0 0 0 0 0 0 0 0 0 0 0 0 0 0 0 0 0 0 0 0 0 0 0 0 0 0 0 0 0 0 0 0 0 0 0 0 0 0 0 0 0 0 0 0 0 0 0 0 0 0 0 0 0 0 0 0 0 0 0 0 0 0 0 0 51 49 51 52 55 54 55 55 56 52 51 48 46 44 46 43 43 43 47 42 46 44 45 43 43 43 43 40 41 31 30 27 28 28 28 28 27 28 27 27 27 28 28 31 27 27 28 28 27 27 26 -193 23 25 25 23 19 23 26 26 26 30 31 31 32 32 32 -225 -225 -225 -225 -225 -225 -225 -225 -225 -225 -225 -225 -225 -225 -225 -225 -225 -225 -225 -225 -225 -225 -225 -225 -225 -225 13 18 17 15 14 13 14 12 12 13 12 11 10 10 14 12 13 20 -193 -193 27 28 27 28 31 30 31 31 31 31 34 35 37 -193 -193 -177 43 44 45 44 44 46 44 47 47 46 54 60 59 64 62 65 63 63 65 65 63 66 64 68 65 71 71 72 73 76 77 76 77 83 82 82 82 85 84 84 84 84 82 85 86 86 83 90 95 100 96 101 108 107 -193 112 110 113 -193 112 113 110 115 116 114 119 118 -193 -209 -177 -177 -209 -177 -209 -193 82 83 -193 -193 -193 -193 -209 -193 139 140 142 144 145 147 145 145 -209 -209 90 92 -193 15 -193 -193 162 159 161 85 83 85 82 87 -193 89 95 -193 -209 -209 -193 107 108 109 0 0 0 0 0
    0 0 0 0 0 0 0 0 0 0 0 0 0 0 0 0 0 0 0 0 0 0 0 0 0 0 0 0 0 0 0 0 0 0 0 0 0 0 0 0 0 0 0 0 0 0 0 0 0 0 0 0 0 0 0 0 0 0 0 0 0 0 0 0 0 0 0 0 0 52 50 50 50 54 52 52 53 54 51 50 49 46 44 46 44 43 43 47 42 46 44 44 42 43 42 42 40 41 31 30 27 28 28 28 29 28 29 27 28 27 28 28 31 27 27 28 27 26 26 26 -193 22 24 24 22 18 23 26 26 26 30 30 30 32 32 32 -225 -225 -225 -225 -225 -225 -225 -225 -225 -225 -225 -225 -225 -225 -225 -225 -225 -225 -225 -225 -225 -225 -225 -225 -225 18 13 19 18 15 14 13 14 12 12 13 11 11 10 10 14 12 12 20 -209 -193 27 28 27 27 32 31 31 31 32 32 34 36 37 -177 -177 -177 -193 44 45 44 45 46 44 47 46 46 55 61 59 -177 62 65 63 63 65 65 63 66 65 68 66 71 71 72 74 76 77 76 77 84 82 82 82 85 84 85 85 85 84 87 87 87 86 90 94 99 96 100 -193 -193 721 111 109 112 1008 112 113 110 115 116 114 119 118 121 -209 -177 -193 -193 -209 -193 -193 81 83 -193 -193 134 136 137 139 139 140 142 144 145 147 -193 -193 14 -209 -193 -193 14 14 16 -193 -193 -193 -193 85 82 85 82 86 -193 89 94 -193 -209 -209 105 106 108 109 0 0 0 0 0
    0 0 0 0 0 0 0 0 0 0 0 0 0 0 0 0 0 0 0 0 0 0 0 0 0 0 0 0 0 0 0 0 0 0 0 0 0 0 0 0 0 0 0 0 0 0 0 0 0 0 0 0 0 0 0 0 0 0 0 0 0 0 0 0 0 0 0 0 0 52 50 49 50 53 50 51 51 52 51 49 48 46 44 -193 44 43 43 46 42 45 43 44 42 42 42 42 39 41 32 31 27 29 29 29 30 29 29 27 28 27 28 28 31 27 26 27 27 26 26 25 -193 22 24 23 22 18 22 25 25 26 30 30 30 32 32 32 -225 -225 -225 -225 -225 -225 -225 -225 -225 -225 -225 -225 -225 -225 -225 -225 -225 -225 -225 -225 -225 -225 -225 -225 -225 16 13 19 17 14 13 12 13 11 12 12 10 10 0 9 13 11 12 20 26 26 27 28 27 27 32 30 31 31 31 31 33 36 37 -177 -177 -177 -193 44 45 45 45 46 44 48 46 47 55 62 60 63 62 64 62 62 64 64 62 65 63 68 65 70 71 72 74 75 76 76 77 84 81 81 81 84 85 84 85 85 84 88 88 88 88 90 93 99 95 99 104 -193 720 109 108 -193 1008 111 112 110 114 116 114 118 118 120 121 -193 -209 -193 -209 -193 -193 82 -193 132 134 135 136 137 139 139 140 142 144 146 147 -193 -193 14 -193 -193 -193 14 14 -177 -193 -193 -193 85 85 82 85 82 86 -193 89 94 100 -193 -209 105 106 108 108 0 0 0 0 0
    0 0 0 0 0 0 0 0 0 0 0 0 0 0 0 0 0 0 0 0 0 0 0 0 0 0 0 0 0 0 0 0 0 0 0 0 0 0 0 0 0 0 0 0 0 0 0 0 0 0 0 0 0 0 0 0 0 0 0 0 0 0 0 0 0 0 0 0 0 53 50 50 50 53 51 52 52 53 52 50 49 46 44 47 44 43 43 46 42 44 43 43 41 42 42 41 39 41 32 31 28 30 30 30 30 29 29 27 28 27 27 27 31 26 25 27 27 26 26 25 -193 22 24 23 22 19 22 25 26 26 30 30 30 32 32 32 -225 -225 -225 -225 -225 -225 -225 -225 -225 -225 -225 -225 -225 -225 -225 -225 -225 -225 -225 -225 -225 -225 -225 -193 22 15 14 17 13 13 12 11 12 10 11 11 10 10 0 9 14 12 13 20 27 26 27 28 27 27 31 30 31 30 31 31 33 35 37 -193 -193 -193 43 45 45 45 45 46 45 48 47 48 55 61 59 62 61 63 62 61 63 63 61 64 63 67 65 69 71 71 73 75 76 76 77 84 80 81 81 85 85 85 85 86 85 89 89 89 90 89 93 99 94 99 103 103 -193 -193 107 -193 -193 110 111 109 113 116 113 118 117 119 121 121 121 122 122 -193 -193 -193 -209 132 135 135 136 137 139 139 140 142 144 146 147 21 21 15 19 -193 -193 14 14 16 -193 -193 -193 -177 84 82 85 81 86 88 89 95 100 -193 -209 104 105 107 107 0 0 0 0 0
    0 0 0 0 0 0 0 0 0 0 0 0 0 0 0 0 0 0 0 0 0 0 0 0 0 0 0 0 0 0 0 0 0 0 0 0 0 0 0 0 0 0 0 0 0 0 0 0 0 0 0 0 0 0 0 0 0 0 0 0 0 0 0 0 0 0 0 0 0 53 51 51 50 53 50 50 50 51 50 50 48 46 45 47 44 43 43 45 42 44 43 43 41 41 41 41 39 41 33 32 28 30 31 31 32 30 30 29 31 29 28 28 32 25 25 26 26 25 25 25 -193 21 24 23 22 20 22 26 26 26 30 30 29 32 32 32 -225 -225 -225 -225 -225 -225 -225 -225 -225 -225 -225 -225 -225 -225 -225 -225 -225 -225 -225 -225 20 21 22 19 20 15 14 16 12 13 12 10 11 9 10 10 9 9 0 10 15 13 14 20 26 25 26 27 27 26 31 30 31 30 31 32 33 35 37 38 40 -193 43 45 45 46 46 47 45 49 47 50 54 61 59 61 60 61 61 60 61 62 60 63 62 66 65 69 71 71 73 74 74 75 76 84 80 80 81 84 86 85 86 86 86 90 91 91 91 90 93 99 95 98 103 102 103 -193 -193 -193 -193 109 110 108 112 115 112 117 117 118 121 122 122 123 122 127 130 -193 133 132 135 135 136 137 138 139 139 141 144 146 -193 21 21 15 19 17 18 14 14 16 -177 -193 -193 -177 84 81 85 81 86 87 90 95 101 -193 -209 104 105 106 107 0 0 0 0 0
    0 0 0 0 0 0 0 0 0 0 0 0 0 0 0 0 0 0 0 0 0 0 0 0 0 0 0 0 0 0 0 0 0 0 0 0 0 0 0 0 0 0 0 0 0 0 0 0 0 0 0 0 0 0 0 0 0 0 0 0 0 0 0 0 0 0 0 0 0 54 52 52 51 53 50 50 49 50 49 49 48 46 45 47 44 43 43 45 42 44 43 43 41 41 41 41 39 41 34 33 28 31 32 33 34 31 31 31 32 32 30 29 32 24 24 25 25 25 24 24 -193 21 24 24 23 22 23 26 26 26 29 29 29 32 32 32 -225 -225 -225 -225 -225 -225 -225 -225 -225 -225 -225 -225 -225 -225 -225 -225 -225 -225 -225 25 21 19 21 17 18 14 13 13 11 11 11 9 9 0 9 9 10 11 9 11 18 14 14 20 25 26 25 27 27 27 32 31 32 31 31 33 33 35 37 38 40 43 44 46 45 46 46 47 45 49 48 51 54 60 58 60 58 60 60 59 -177 -193 60 62 61 66 65 69 72 71 73 74 74 76 77 84 80 80 80 84 86 86 86 86 86 90 92 92 92 90 95 100 96 98 102 101 102 -209 -193 -193 -193 108 109 107 111 114 -193 116 117 116 121 121 122 122 122 127 129 131 133 132 134 134 136 137 138 138 139 141 144 146 -193 20 21 15 19 17 18 14 14 16 -177 -177 -193 -177 84 81 85 81 85 87 90 96 102 103 105 105 105 106 106 0 0 0 0 0
    0 0 0 0 0 0 0 0 0 0 0 0 0 0 0 0 0 0 0 0 0 0 0 0 0 0 0 0 0 0 0 0 0 0 0 0 0 0 0 0 0 0 0 0 0 0 0 0 0 0 0 0 0 0 0 0 0 0 0 0 0 0 0 0 0 0 0 0 0 54 52 52 51 53 49 48 48 48 47 48 48 46 45 47 45 44 44 45 42 44 43 43 41 41 41 41 40 41 34 34 28 33 36 35 36 32 31 32 32 33 30 28 30 24 24 25 25 24 24 24 24 22 24 24 23 23 23 26 25 26 29 29 28 32 32 32 -225 -225 -225 -225 -225 -225 -225 -225 -225 -225 -225 -225 -225 -225 -225 -225 -225 -225 -225 23 20 16 18 13 13 11 11 9 0 9 0 0 0 0 0 0 10 11 11 12 19 13 14 19 24 25 24 25 27 26 31 30 32 30 31 33 33 34 36 38 40 42 43 46 45 46 46 47 45 49 48 52 53 59 57 59 -193 -193 -193 -193 -177 -177 -193 61 61 66 65 69 73 73 75 75 75 77 79 85 81 80 81 84 87 87 87 87 87 91 93 93 93 90 94 100 96 98 102 100 102 -193 103 104 106 107 107 106 110 113 -177 116 117 115 121 122 122 122 122 126 129 130 132 132 133 134 135 136 136 137 138 140 143 145 147 20 21 15 19 16 18 14 14 15 -177 -177 -193 -177 83 80 85 82 85 86 91 99 104 105 106 106 106 107 106 0 0 0 0 0
    0 0 0 0 0 0 0 0 0 0 0 0 0 0 0 0 0 0 0 0 0 0 0 0 0 0 0 0 0 0 0 0 0 0 0 0 0 0 0 0 0 0 0 0 0 0 0 0 0 0 0 0 0 0 0 0 0 0 0 0 0 0 0 0 0 0 0 0 0 54 52 52 52 53 49 47 48 47 47 47 48 47 46 48 46 45 44 45 43 44 43 43 42 41 42 42 41 42 35 35 29 34 37 36 36 33 32 32 32 34 30 27 29 24 24 24 25 24 24 24 24 22 24 24 23 23 23 26 25 26 29 29 28 32 32 32 -225 -225 -225 -225 -225 -225 -225 -225 -225 -225 -225 -225 -225 -225 -225 -225 -225 -225 -225 22 19 18 18 15 13 12 11 0 0 0 0 0 0 0 0 0 9 10 10 12 18 13 13 17 22 24 22 24 26 26 30 30 32 30 31 33 33 33 36 37 39 -193 43 46 45 45 46 47 45 50 48 52 52 59 56 57 -193 -193 -193 -193 -193 -177 -193 61 61 65 65 70 74 74 76 76 76 78 81 84 81 80 81 85 87 88 88 88 89 91 94 94 94 90 94 100 97 98 102 100 101 103 102 103 106 106 107 -193 110 113 -177 -193 -193 114 121 122 122 122 123 125 128 129 132 131 132 133 134 135 135 136 137 139 142 143 145 -193 21 15 18 16 18 13 13 15 15 13 17 -177 -177 -177 86 83 85 87 93 102 106 107 108 108 108 107 107 0 0 0 0 0
    0 0 0 0 0 0 0 0 0 0 0 0 0 0 0 0 0 0 0 0 0 0 0 0 0 0 0 0 0 0 0 0 0 0 0 0 0 0 0 0 0 0 0 0 0 0 0 0 0 0 0 0 0 0 0 0 0 0 0 0 0 0 0 0 0 0 0 0 0 54 53 52 52 53 50 47 49 49 48 48 50 48 47 49 47 45 45 45 44 45 43 43 42 42 42 42 41 42 35 35 28 31 34 34 35 32 31 32 32 33 29 26 27 24 24 24 25 24 24 24 24 22 24 24 23 23 23 26 25 26 28 29 27 31 32 32 -225 -225 -225 -225 -225 -225 -225 -225 -225 -225 -225 -225 -225 -225 -225 -225 -225 -225 -225 22 19 17 16 13 11 10 10 0 0 0 0 0 0 0 0 0 10 10 10 12 18 12 13 17 21 23 22 24 26 25 30 30 31 30 31 33 33 33 36 38 39 -193 43 46 45 46 47 48 46 50 49 53 51 58 55 56 55 -193 -209 -193 -193 -177 -177 60 60 64 65 69 74 75 76 75 75 78 80 83 80 79 80 84 87 88 88 88 89 92 94 95 95 90 96 102 99 99 103 100 100 102 102 103 105 106 106 -193 110 112 -177 -193 -193 114 121 123 122 122 123 125 127 128 131 131 131 133 134 134 135 135 135 138 140 142 143 -193 -193 15 18 15 -193 -193 -193 15 15 14 17 -193 -193 -193 -193 -209 84 -209 97 104 110 109 110 111 110 108 -193 0 0 0 0 0
    0 0 0 0 0 0 0 0 0 0 0 0 0 0 0 0 0 0 0 0 0 0 0 0 0 0 0 0 0 0 0 0 0 0 0 0 0 0 0 0 0 0 0 0 0 0 0 0 0 0 0 0 0 0 0 0 0 0 0 0 0 0 0 0 0 0 0 0 0 54 53 52 52 52 50 47 48 49 49 48 49 48 47 49 47 45 45 45 45 45 43 43 42 41 42 42 41 41 35 35 28 29 32 31 33 32 30 32 32 33 29 26 27 24 24 25 25 24 24 25 24 23 24 25 24 23 23 26 25 26 28 28 27 30 32 32 -225 -225 -225 -225 -225 -225 -225 -225 -225 -225 -225 -225 -225 -225 -225 -225 -225 -225 24 22 19 17 17 13 12 11 11 0 0 0 0 0 0 0 0 0 10 11 10 13 17 12 13 15 20 22 21 23 25 25 29 29 31 30 30 32 34 33 36 38 39 -193 43 46 45 46 47 48 46 50 49 53 50 57 54 55 54 55 54 54 -193 -193 54 58 59 62 64 68 75 75 76 75 75 77 78 82 79 78 79 84 -193 88 -193 88 89 92 94 95 95 89 97 103 100 100 103 100 100 102 102 103 105 105 106 -193 109 112 -193 113 117 113 120 123 122 122 123 124 126 127 130 130 130 132 133 134 134 135 135 138 140 141 142 140 -193 -193 18 15 -193 -193 -193 16 16 15 18 15 21 22 27 -209 -209 -209 -209 105 112 110 111 114 112 110 -193 0 0 0 0 0
    0 0 0 0 0 0 0 0 0 0 0 0 0 0 0 0 0 0 0 0 0 0 0 0 0 0 0 0 0 0 0 0 0 0 0 0 0 0 0 0 0 0 0 0 0 0 0 0 0 0 0 0 0 0 0 0 0 0 0 0 0 0 0 0 0 0 0 0 0 53 52 52 52 52 50 48 48 49 50 49 49 48 47 49 48 45 44 44 44 45 43 43 42 41 42 42 41 41 35 35 28 29 31 31 31 30 30 32 31 33 30 27 27 25 25 25 25 25 24 25 25 23 24 26 24 24 24 26 25 26 28 28 26 30 32 32 -225 -225 -225 -225 -225 -225 -225 -225 -225 -225 -225 -225 -225 -225 -225 -225 -225 -225 23 22 19 17 18 13 13 12 11 0 0 0 0 0 0 0 0 0 10 12 12 13 17 12 15 15 19 20 19 22 24 24 28 28 30 30 30 32 33 32 36 37 39 -193 42 46 45 46 47 48 46 50 48 52 48 57 53 54 52 53 53 52 53 53 50 57 57 61 63 67 75 76 75 75 74 76 78 82 79 77 78 84 -193 -193 -193 88 89 91 94 95 95 89 98 104 102 102 103 101 101 102 102 103 106 106 106 106 109 111 111 113 117 113 121 124 122 122 123 123 125 125 129 129 129 132 -193 133 134 134 135 137 140 140 141 140 139 -193 -193 -193 -193 -193 -193 17 17 16 19 16 21 23 27 -209 -209 -209 -209 -193 114 112 112 115 114 111 109 0 0 0 0 0
    0 0 0 0 0 0 0 0 0 0 0 0 0 0 0 0 0 0 0 0 0 0 0 0 0 0 0 0 0 0 0 0 0 0 0 0 0 0 0 0 0 0 0 0 0 0 0 0 0 0 0 0 0 0 0 0 0 0 0 0 0 0 0 0 0 0 0 0 0 53 52 51 51 52 51 48 49 50 50 50 51 49 48 49 48 45 44 44 44 45 43 43 42 41 42 42 42 41 35 34 27 27 28 29 28 28 28 32 31 32 30 27 28 25 25 26 25 25 24 25 25 24 25 26 24 24 24 26 24 26 27 27 25 29 32 32 -225 -225 -225 -225 -225 -225 -225 -225 -225 -225 -225 -225 -225 -225 -225 -225 -225 23 22 22 18 17 17 13 12 11 11 0 0 0 0 0 0 0 0 0 10 12 12 13 16 12 15 15 18 20 19 21 24 24 28 28 29 30 30 32 34 32 35 36 38 -177 41 45 45 45 46 47 46 49 48 52 47 56 52 53 52 53 53 53 52 53 51 58 59 63 67 69 75 75 75 75 74 75 77 81 78 77 77 -193 -193 -193 -193 -193 -193 91 94 95 95 89 98 104 103 103 104 102 102 103 104 104 107 106 107 107 109 111 111 113 117 114 121 124 122 122 123 123 123 123 127 128 127 131 -193 -193 133 134 135 137 139 140 140 139 138 138 -193 -209 -193 -193 16 16 16 15 16 14 20 23 -209 -209 -209 -209 -209 -193 116 114 114 116 115 114 110 0 0 0 0 0
    0 0 0 0 0 0 0 0 0 0 0 0 0 0 0 0 0 0 0 0 0 0 0 0 0 0 0 0 0 0 0 0 0 0 0 0 0 0 0 0 0 0 0 0 0 0 0 0 0 0 0 0 0 0 0 0 0 0 0 0 0 0 0 0 0 0 0 0 0 53 52 51 51 51 50 49 49 49 50 49 50 50 48 49 48 46 44 44 44 45 43 43 42 42 42 42 42 42 35 34 26 26 26 25 25 25 26 31 31 31 30 27 28 26 26 27 26 25 25 25 25 24 26 27 23 23 24 26 24 26 26 26 25 29 32 32 -225 -225 -225 -225 -225 -225 -225 -225 -225 -225 -225 -225 -225 -225 -225 12 13 14 16 17 15 13 14 11 11 10 10 0 0 0 0 0 0 0 0 0 10 12 11 13 15 12 15 14 18 19 18 20 23 23 27 27 29 30 30 32 34 32 35 36 38 -193 41 45 45 45 46 47 46 49 48 52 47 56 53 53 53 54 52 53 52 53 52 58 60 64 68 70 75 76 76 75 75 75 77 -193 78 76 76 -193 -193 89 -193 88 -193 91 93 94 95 89 93 104 103 103 104 103 103 104 105 105 108 107 107 107 109 111 112 113 117 114 121 124 122 -193 -193 -193 -193 -193 126 127 -193 130 -193 -193 133 134 135 137 139 140 139 139 138 138 138 -193 -193 -193 15 14 14 13 13 11 17 -209 -209 -209 -209 -209 -209 -209 114 115 115 117 117 115 112 0 0 0 0 0
    0 0 0 0 0 0 0 0 0 0 0 0 0 0 0 0 0 0 0 0 0 0 0 0 0 0 0 0 0 0 0 0 0 0 0 0 0 0 0 0 0 0 0 0 0 0 0 0 0 0 0 0 0 0 0 0 0 0 0 0 0 0 0 0 0 0 0 0 0 52 52 51 52 52 50 49 50 50 50 50 50 50 49 48 48 45 44 44 43 45 43 43 43 42 42 43 42 42 34 33 25 24 24 24 23 24 24 28 30 29 29 27 28 25 25 27 26 25 25 26 25 25 26 27 23 23 23 25 24 26 25 25 23 28 32 32 -225 -225 -225 -225 -225 -225 -225 -225 -225 -225 -225 0 0 0 10 10 10 11 12 14 14 12 12 10 11 10 9 0 0 0 0 0 0 0 0 0 9 11 10 12 14 12 15 15 18 20 19 21 23 24 27 27 28 30 30 31 34 33 35 36 38 -193 41 45 45 45 46 47 46 49 48 53 49 56 54 54 55 55 54 54 53 54 55 59 62 65 68 70 72 75 76 76 75 75 77 -193 77 76 75 83 -193 -193 89 88 -193 91 93 94 94 88 90 102 102 102 104 104 104 -177 107 106 109 108 109 109 110 112 113 113 118 114 120 125 -193 370 371 -193 -209 -209 125 127 -209 130 -193 -193 133 134 135 137 139 140 139 139 138 138 138 -193 18 -193 15 14 14 13 12 11 13 -209 -209 -209 238 -209 -209 -209 -193 -193 115 118 117 116 113 0 0 0 0 0
    0 0 0 0 0 0 0 0 0 0 0 0 0 0 0 0 0 0 0 0 0 0 0 0 0 0 0 0 0 0 0 0 0 0 0 0 0 0 0 0 0 0 0 0 0 0 0 0 0 0 0 0 0 0 0 0 0 0 0 0 0 0 0 0 0 0 0 0 0 52 51 51 52 52 50 50 50 50 51 49 50 49 48 47 47 45 43 43 43 44 43 43 42 42 42 42 42 42 33 32 25 24 23 23 23 24 24 27 29 28 28 26 27 25 25 27 26 25 25 25 25 25 26 27 22 23 23 25 24 26 24 24 20 27 31 31 -225 -225 -225 -225 -225 -225 -225 -225 -225 -225 12 0 0 10 10 11 11 11 13 14 14 13 12 11 11 10 10 0 0 0 0 0 0 0 0 0 9 10 10 11 13 12 16 17 20 21 21 22 23 24 27 27 28 30 30 31 34 33 35 36 38 -209 -193 45 45 45 46 47 47 49 48 53 50 56 55 56 57 57 56 56 54 56 57 59 63 65 67 69 71 74 75 75 75 74 76 -193 77 75 74 -193 -193 -193 89 -193 -193 91 93 94 94 88 89 102 101 101 103 105 105 105 109 107 110 109 110 110 110 113 113 113 118 115 121 125 122 -193 -193 -193 -193 -209 125 127 -193 130 132 -193 133 134 135 138 140 141 140 140 139 139 -193 16 18 -193 16 15 15 14 -193 -193 -209 -209 -193 -209 -193 -209 -209 -209 -193 -193 116 118 118 118 115 0 0 0 0 0
    0 0 0 0 0 0 0 0 0 0 0 0 0 0 0 0 0 0 0 0 0 0 0 0 0 0 0 0 0 0 0 0 0 0 0 0 0 0 0 0 0 0 0 0 0 0 0 0 0 0 0 0 0 0 0 0 0 0 0 0 0 0 0 0 0 0 0 0 0 52 51 51 52 52 51 49 50 50 50 49 49 49 47 46 46 44 43 43 42 44 43 43 42 42 42 42 41 42 32 32 26 24 23 23 23 24 24 27 28 28 28 26 28 25 25 27 25 25 25 25 25 25 26 27 22 22 23 24 23 25 23 23 18 27 30 30 -225 -225 -225 -225 -225 -225 -225 -225 13 10 12 0 0 10 10 11 11 10 11 13 13 13 12 11 12 10 11 0 0 0 0 0 0 0 0 0 9 10 10 11 13 13 17 18 21 22 23 23 24 25 27 28 28 31 30 30 34 33 35 35 38 -177 -209 45 45 45 45 47 47 48 48 53 50 56 56 56 57 57 57 57 54 57 58 59 62 64 67 68 71 73 75 75 75 74 75 77 76 75 73 -193 -193 -193 89 88 -193 91 93 94 94 89 90 102 101 101 103 106 106 106 111 108 112 110 111 111 110 113 113 113 118 115 121 125 122 -193 -193 -209 -193 -209 124 127 -193 130 132 -193 134 135 136 139 140 141 141 141 139 139 -193 17 19 18 17 15 15 14 -193 -193 -209 -209 502 -209 -193 -193 -209 -209 -209 -209 116 119 119 118 116 0 0 0 0 0
    0 0 0 0 0 0 0 0 0 0 0 0 0 0 0 0 0 0 0 0 0 0 0 0 0 0 0 0 0 0 0 0 0 0 0 0 0 0 0 0 0 0 0 0 0 0 0 0 0 0 0 0 0 0 0 0 0 0 0 0 0 0 0 0 0 0 0 0 0 52 52 51 52 52 51 50 50 50 50 49 48 48 46 46 46 44 43 43 42 44 43 43 42 42 42 42 41 42 33 33 26 25 25 24 24 25 24 27 28 28 28 27 28 25 25 27 25 25 25 25 25 25 26 27 21 22 23 24 23 25 22 22 16 26 28 28 -225 -225 -225 -225 -225 -225 -225 -225 11 10 11 0 0 10 10 10 11 11 11 12 12 12 11 11 11 10 10 0 0 0 0 0 0 0 0 0 10 12 11 11 14 14 18 18 21 22 23 24 25 25 28 28 28 31 30 30 34 33 35 35 38 -193 -209 45 45 45 45 47 47 48 48 53 50 56 56 56 57 57 57 57 55 57 58 59 62 64 66 67 70 72 75 75 74 73 -193 -193 75 -193 72 -209 -193 -193 89 88 88 91 94 94 94 90 90 102 101 101 103 108 107 107 112 109 112 110 111 111 110 113 113 112 118 114 120 125 122 -193 -193 -209 -193 -209 124 127 -193 -193 132 -193 134 136 136 139 141 142 141 141 -193 140 -193 18 19 18 16 15 15 -193 -209 -209 -177 -209 502 -209 366 367 -193 -193 -193 -209 -193 119 120 119 116 0 0 0 0 0
    0 0 0 0 0 0 0 0 0 0 0 0 0 0 0 0 0 0 0 0 0 0 0 0 0 0 0 0 0 0 0 0 0 0 0 0 0 0 0 0 0 0 0 0 0 0 0 0 0 0 0 0 0 0 0 0 0 0 0 0 0 0 0 0 0 0 0 0 0 52 52 52 52 53 52 51 50 50 50 49 48 48 45 44 44 43 42 42 40 43 42 42 42 41 41 42 41 42 33 34 28 27 28 27 28 28 26 29 30 29 29 28 29 26 25 27 25 25 25 25 24 24 26 28 21 23 23 24 23 -193 22 22 15 25 27 27 -225 -225 -225 -225 -225 -225 -225 12 11 10 11 8 0 10 10 10 11 10 11 13 12 12 12 11 12 11 11 9 0 0 9 0 0 0 9 9 11 12 11 11 14 14 17 18 21 21 23 24 25 25 28 27 27 30 30 30 34 32 34 34 37 -193 40 44 44 44 45 47 47 47 48 52 50 56 57 56 57 57 57 57 55 57 58 59 62 65 66 67 69 72 74 74 73 -193 -209 -209 -209 -193 71 -193 -193 89 90 89 -193 90 93 93 93 90 90 100 100 100 103 109 107 108 113 110 113 111 112 112 110 113 113 112 118 113 120 124 121 -193 -193 -209 -209 -193 123 126 -193 -193 132 -193 134 136 -193 139 141 142 142 142 -193 140 -193 18 18 18 16 14 14 -193 -209 -177 -177 -193 -193 369 367 367 367 -193 -193 -209 -209 119 121 120 -209 0 0 0 0 0
    0 0 0 0 0 0 0 0 0 0 0 0 0 0 0 0 0 0 0 0 0 0 0 0 0 0 0 0 0 0 0 0 0 0 0 0 0 0 0 0 0 0 0 0 0 0 0 0 0 0 0 0 0 0 0 0 0 0 0 0 0 0 0 0 0 0 0 0 0 52 52 52 53 53 52 52 51 50 50 49 49 48 45 44 43 42 41 42 40 43 42 42 42 41 41 42 41 42 34 34 29 30 31 30 33 30 28 30 31 29 30 29 29 26 25 27 26 25 25 25 24 24 26 28 21 23 23 24 -193 -193 21 21 16 25 25 25 17 21 25 25 -225 25 19 14 13 10 10 0 0 10 10 10 10 10 10 11 11 11 11 10 10 9 10 0 0 0 9 0 0 0 9 10 12 13 13 11 14 15 17 20 21 22 23 24 25 25 28 27 26 30 29 29 33 32 33 34 37 -193 40 44 44 44 45 47 47 47 48 53 50 56 57 56 57 57 57 57 55 57 58 58 61 65 66 66 69 71 72 73 73 -193 -209 -209 -209 75 -193 78 -193 90 90 89 89 90 93 93 93 90 89 99 99 99 103 110 108 109 113 110 114 111 112 112 110 113 113 111 118 112 119 123 -193 -193 -209 -209 -209 -193 123 126 -209 129 132 -193 134 136 -193 139 142 142 142 142 -193 -177 -193 18 18 17 15 13 13 -193 -193 -177 -177 -193 -209 369 367 367 367 -193 -193 -209 -209 -209 123 -209 -209 0 0 0 0 0
    0 0 0 0 0 0 0 0 0 0 0 0 0 0 0 0 0 0 0 0 0 0 0 0 0 0 0 0 0 0 0 0 0 0 0 0 0 0 0 0 0 0 0 0 0 0 0 0 0 0 0 0 0 0 0 0 0 0 0 0 0 0 0 0 0 0 0 0 0 53 53 53 53 53 52 52 51 50 50 49 48 48 45 44 43 42 42 42 40 44 42 42 42 42 41 41 40 42 34 34 30 31 31 29 36 32 30 30 31 29 30 29 29 26 25 27 26 25 25 25 24 25 26 27 21 23 23 24 23 23 21 21 18 24 24 23 19 22 24 25 25 24 21 14 14 11 10 0 0 9 9 9 9 0 0 10 10 9 9 0 0 0 0 0 0 0 9 0 0 9 9 10 12 13 12 11 13 14 17 19 21 22 23 24 26 26 28 27 26 29 28 29 33 31 33 34 38 41 41 44 45 45 45 47 48 47 49 53 52 57 59 57 58 57 57 57 55 57 58 58 61 66 65 65 68 71 72 72 72 -193 -209 -209 -209 75 73 79 86 90 90 90 89 90 93 94 93 91 90 99 99 99 103 110 108 109 114 110 114 111 112 112 111 113 113 111 117 112 119 122 120 -193 -193 -193 -209 -193 122 125 -209 128 131 -193 133 135 -193 139 142 142 142 142 -193 -177 -209 17 17 17 14 12 12 -193 -193 -177 -177 -193 -209 369 367 367 367 -193 -193 -209 -209 -209 -193 -209 -193 0 0 0 0 0
    0 0 0 0 0 0 0 0 0 0 0 0 0 0 0 0 0 0 0 0 0 0 0 0 0 0 0 0 0 0 0 0 0 0 0 0 0 0 0 0 0 0 0 0 0 0 0 0 0 0 0 0 0 0 0 0 0 0 0 0 0 0 0 0 0 0 0 0 0 54 54 54 54 54 53 53 52 51 50 48 47 47 45 44 43 42 42 43 41 44 43 42 42 42 41 41 40 41 33 34 31 32 33 30 33 33 32 30 31 29 29 29 29 25 25 27 25 25 25 24 24 24 26 27 21 23 23 24 23 23 21 22 20 24 24 23 21 23 24 24 24 23 21 14 17 13 11 0 0 9 0 9 9 0 0 10 10 0 9 0 0 0 9 0 0 0 9 0 9 9 9 10 12 13 12 11 13 15 16 19 21 22 23 25 26 26 28 28 26 29 28 28 32 31 33 34 38 41 41 44 45 45 45 47 48 47 50 54 52 57 59 57 57 57 56 56 55 57 58 57 61 66 64 64 67 70 71 71 71 73 -193 75 78 76 74 79 86 90 90 90 90 90 93 94 93 92 90 99 99 99 102 110 107 108 113 110 114 111 112 112 111 113 113 110 117 111 118 121 119 119 -193 -193 -193 -193 122 124 -209 126 130 130 133 135 -193 139 142 141 142 142 -193 -177 -209 -193 16 17 14 -193 -193 -193 -193 -177 -177 -177 -209 369 367 -193 -193 -193 -193 -209 -209 -209 -209 -209 439 0 0 0 0 0
    0 0 0 0 0 0 0 0 0 0 0 0 0 0 0 0 0 0 0 0 0 0 0 0 0 0 0 0 0 0 0 0 0 0 0 0 0 0 0 0 0 0 0 0 0 0 0 0 0 0 0 0 0 0 0 0 0 0 0 0 0 0 0 0 0 0 0 0 0 54 54 54 54 54 53 53 52 51 50 48 47 46 44 44 43 43 42 43 41 44 43 43 42 42 41 41 40 41 34 35 34 34 34 33 35 36 35 32 32 29 29 29 29 25 24 26 -193 24 24 24 23 24 25 27 21 22 23 24 23 24 22 22 21 24 24 23 21 23 23 23 24 23 22 17 15 14 10 0 0 9 0 9 10 0 9 10 10 9 9 9 0 0 9 0 0 0 9 0 0 9 9 10 12 13 12 11 13 14 16 20 21 22 24 25 27 27 28 28 26 29 28 28 32 30 32 34 38 41 40 44 44 45 45 47 48 46 50 53 53 57 59 56 56 56 55 55 54 56 56 56 61 66 64 64 67 69 70 70 69 73 74 76 79 77 75 79 85 88 89 -193 -193 -193 93 95 94 93 91 99 100 100 102 109 107 108 113 110 114 111 112 112 111 113 113 110 117 111 118 -193 119 118 119 -193 118 -193 121 123 -209 125 129 129 133 135 137 139 142 141 142 141 -193 140 -193 -209 16 17 14 -193 -193 -193 -193 -177 -177 -177 -193 -193 366 -193 -193 -193 -193 -209 -209 -209 -209 -209 438 0 0 0 0 0
    0 0 0 0 0 0 0 0 0 0 0 0 0 0 0 0 0 0 0 0 0 0 0 0 0 0 0 0 0 0 0 0 0 0 0 0 0 0 0 0 0 0 0 0 0 0 0 0 0 0 0 0 0 0 0 0 0 0 0 0 0 0 0 0 0 0 0 0 0 54 55 55 54 55 54 53 52 51 50 47 46 45 44 43 43 43 43 43 42 45 43 43 43 42 42 41 40 41 36 36 37 36 36 36 37 37 36 34 33 30 30 31 29 26 25 26 24 24 24 24 23 23 25 26 21 22 22 24 22 24 22 23 22 24 23 23 21 23 22 23 24 24 22 21 15 22 9 11 0 0 0 9 10 9 9 10 9 9 10 9 0 9 9 0 0 0 9 0 9 10 10 10 12 12 12 11 13 13 16 19 21 22 23 25 27 27 28 27 26 28 28 28 31 29 30 33 37 40 40 43 44 44 45 47 47 46 50 52 52 56 57 54 54 54 53 53 53 54 55 55 60 66 64 64 66 68 69 69 68 72 73 76 81 78 76 79 84 88 88 -193 -193 474 92 95 94 94 91 100 102 101 103 110 107 108 113 110 114 111 112 112 111 113 113 110 117 111 117 -193 118 118 118 -193 118 -193 121 123 -209 124 127 128 132 135 137 139 142 141 141 140 -193 140 -193 -177 15 17 14 -193 -193 -193 -193 -193 -177 -193 -209 -193 -193 -193 -193 -209 -209 -209 -209 -209 -209 -209 432 0 0 0 0 0
    0 0 0 0 0 0 0 0 0 0 0 0 0 0 0 0 0 0 0 0 0 0 0 0 0 0 0 0 0 0 0 0 0 0 0 0 0 0 0 0 0 0 0 0 0 0 0 0 0 0 0 0 0 0 0 0 0 0 0 0 0 0 0 0 0 0 0 0 0 55 56 56 54 55 54 54 53 50 49 46 45 44 43 43 43 43 44 43 42 45 44 44 43 43 42 41 41 41 38 38 38 38 37 37 38 38 37 35 35 31 31 32 30 26 25 26 25 24 24 24 23 23 24 25 21 22 22 24 22 24 23 23 22 24 24 23 22 23 23 24 25 25 24 25 25 -193 -193 -193 0 0 0 0 0 0 0 0 0 0 0 0 0 0 0 0 0 0 9 0 9 10 10 11 12 12 11 10 12 12 14 16 19 20 22 24 26 26 27 27 26 28 28 28 31 28 30 33 37 40 40 43 44 44 45 46 47 45 51 52 51 54 56 52 53 53 51 50 51 52 54 53 60 67 65 65 67 68 69 69 68 72 73 76 81 78 77 79 84 87 -193 -177 476 475 -193 94 94 94 90 99 102 100 103 110 108 108 113 110 113 111 112 112 111 113 113 110 117 111 117 -193 118 117 118 -193 117 -193 -193 -193 -193 124 127 127 131 134 137 139 142 -193 -193 140 -193 -193 -177 -177 13 16 -193 -193 -193 -193 -209 -193 -193 -193 -209 -193 -193 -193 -193 -209 -209 -193 -209 -209 -193 -193 425 0 0 0 0 0
    0 0 0 0 0 0 0 0 0 0 0 0 0 0 0 0 0 0 0 0 0 0 0 0 0 0 0 0 0 0 0 0 0 0 0 0 0 0 0 0 0 0 0 0 0 0 0 0 0 0 0 0 0 0 0 0 0 0 0 0 0 0 0 0 0 0 0 0 0 55 56 56 55 55 55 54 53 51 49 45 45 43 44 43 43 43 44 43 43 46 44 44 44 44 43 42 42 42 39 39 39 39 38 38 38 38 38 35 35 32 31 31 29 27 26 26 25 25 24 24 23 23 24 25 21 22 21 24 23 24 23 24 23 25 24 24 24 24 24 25 26 25 25 26 27 25 22 10 0 0 0 0 0 0 0 0 0 0 9 0 0 0 0 0 0 9 10 9 10 11 11 11 12 13 11 9 11 12 13 15 18 19 21 23 26 26 26 26 25 28 28 28 30 28 30 34 38 41 40 43 44 44 44 45 46 45 51 52 52 54 55 52 52 52 49 49 50 50 53 52 61 68 66 66 68 69 69 69 68 73 74 75 80 77 77 78 83 87 -193 -177 476 475 -193 93 93 93 89 98 102 99 102 109 107 108 113 110 113 111 112 112 110 113 113 110 117 111 116 -177 117 117 117 -193 117 -193 -193 -193 -193 124 126 126 130 134 137 139 142 -193 -193 -193 -177 -209 -177 -193 -209 -209 -193 -193 -209 -209 -209 85 85 84 -209 610 -193 607 -193 602 602 603 -193 -209 -209 -193 423 0 0 0 0 0
    0 0 0 0 0 0 0 0 0 0 0 0 0 0 0 0 0 0 0 0 0 0 0 0 0 0 0 0 0 0 0 0 0 0 0 0 0 0 0 0 0 0 0 0 0 0 0 0 0 0 0 0 0 0 0 0 0 0 0 0 0 0 0 0 0 0 0 0 0 55 56 55 54 55 55 55 54 51 50 45 45 43 45 44 44 43 44 43 43 46 45 44 44 45 43 42 42 42 40 40 40 40 38 39 38 38 38 35 35 33 31 30 29 28 26 25 25 25 24 25 23 24 24 25 21 21 20 23 23 24 24 25 24 25 25 24 24 25 24 25 25 25 25 26 26 23 14 10 0 0 0 0 0 0 0 0 0 0 0 0 0 0 0 0 0 9 10 10 10 11 10 11 12 12 10 9 10 11 13 15 18 18 20 22 -193 25 26 26 25 27 28 27 30 28 30 34 37 40 40 43 44 44 44 45 46 45 51 51 51 52 55 51 51 51 -177 48 49 49 52 52 61 68 67 66 67 68 68 69 68 72 73 75 79 77 77 78 82 86 -177 -177 477 475 -193 93 93 93 89 97 101 98 102 109 107 108 113 110 112 111 111 112 110 112 112 109 117 111 115 -177 117 117 117 -193 117 -193 -193 -193 -193 -177 -177 -177 -177 -177 -177 139 -193 -177 -193 -209 -193 -209 -193 -193 -209 -209 10 10 -193 -209 -209 -177 83 83 -209 607 -193 604 603 602 602 602 602 600 600 -193 421 0 0 0 0 0
    0 0 0 0 0 0 0 0 0 0 0 0 0 0 0 0 0 0 0 0 0 0 0 0 0 0 0 0 0 0 0 0 0 0 0 0 0 0 0 0 0 0 0 0 0 0 0 0 0 0 0 0 0 0 0 0 0 0 0 0 0 0 0 0 0 0 0 0 0 54 56 55 54 55 55 55 54 52 51 46 46 44 46 44 44 44 45 43 43 46 45 44 44 46 44 43 43 43 41 41 40 41 38 39 38 38 37 35 35 33 31 30 29 29 27 26 26 25 25 25 24 24 23 24 20 20 19 23 22 24 24 26 25 26 26 25 25 25 25 25 25 25 25 25 25 16 10 0 0 0 0 0 0 0 0 0 0 0 0 0 0 0 9 9 9 10 11 10 11 11 10 11 11 12 10 9 10 11 13 14 18 19 21 23 26 26 26 26 25 28 28 28 30 28 30 34 37 40 40 43 44 44 44 45 47 45 52 51 51 51 54 50 51 51 48 48 49 49 52 -193 61 68 68 66 67 68 68 69 68 72 73 74 78 76 77 77 82 85 -177 -177 -177 -177 -193 94 93 93 89 96 101 97 102 108 107 108 112 109 111 110 111 111 109 111 111 -193 116 111 115 -193 118 118 -193 -193 118 -193 -193 -193 -193 -177 -177 -177 -177 -177 136 138 -193 -177 -177 -209 -193 -209 -193 -193 -209 -209 10 9 -193 -209 -209 -177 82 81 -209 -193 -209 603 603 601 602 602 601 600 599 602 -193 0 0 0 0 0
    0 0 0 0 0 0 0 0 0 0 0 0 0 0 0 0 0 0 0 0 0 0 0 0 0 0 0 0 0 0 0 0 0 0 0 0 0 0 0 0 0 0 0 0 0 0 0 0 0 0 0 0 0 0 0 0 0 0 0 0 0 0 0 0 0 0 0 0 0 55 56 56 54 55 55 55 53 51 51 45 45 43 46 44 44 44 45 43 44 46 46 44 44 46 44 44 44 44 42 41 41 42 39 39 38 38 37 35 36 33 31 29 29 30 28 26 26 26 25 25 24 24 22 23 20 20 19 22 21 25 24 26 26 27 26 26 25 25 25 25 25 25 24 25 25 11 9 0 0 0 0 0 0 0 0 0 0 0 0 0 0 9 9 10 10 10 11 11 10 11 10 10 9 9 0 0 9 10 12 13 18 19 21 23 26 26 26 26 26 28 29 28 30 28 30 34 37 40 40 43 43 44 43 45 46 44 51 50 50 50 53 50 51 51 48 48 49 50 53 -193 62 68 68 67 68 67 68 69 68 71 72 73 77 76 76 76 81 -193 -177 -177 -177 -177 -193 94 94 94 89 96 101 97 101 -193 106 107 111 108 109 109 110 110 108 109 109 -193 -193 111 -193 -193 118 118 -193 118 118 -193 -193 -193 -193 123 -177 -177 -177 -177 -177 -177 -193 637 -177 -193 -177 -193 -209 -193 -193 -209 10 10 -209 -209 -209 -193 81 81 -209 -209 -209 -209 603 602 603 603 601 600 600 602 -193 0 0 0 0 0
    0 0 0 0 0 0 0 0 0 0 0 0 0 0 0 0 0 0 0 0 0 0 0 0 0 0 0 0 0 0 0 0 0 0 0 0 0 0 0 0 0 0 0 0 0 0 0 0 0 0 0 0 0 0 0 0 0 0 0 0 0 0 0 0 0 0 0 0 0 54 56 55 54 54 54 54 53 50 50 45 45 43 46 44 44 44 45 43 44 46 46 44 44 47 45 44 45 45 43 42 41 43 39 39 38 38 37 35 36 34 31 29 29 31 29 26 26 26 25 26 24 24 22 22 21 20 20 23 22 26 25 28 27 28 27 26 26 26 25 25 25 25 25 25 22 9 -193 -193 0 0 0 0 0 0 0 0 0 0 9 9 0 10 10 10 10 10 11 11 10 11 9 9 9 0 0 0 0 10 12 13 19 19 21 23 26 26 26 27 26 28 29 28 30 28 30 33 36 39 39 42 43 43 43 44 46 44 51 49 49 49 53 49 51 51 -177 49 50 51 53 -193 62 67 68 67 68 67 68 69 68 70 72 72 76 75 76 76 79 -193 -177 478 478 476 -177 94 94 94 89 93 100 95 101 -209 105 106 109 107 108 108 109 109 107 108 109 -209 -193 111 -177 -193 118 118 -193 118 118 -193 -193 -193 -209 123 -177 -177 -177 -177 -177 -177 -193 637 -177 -193 -177 -193 -209 -193 -209 -209 11 10 -209 -209 -209 -193 81 81 -209 -193 -209 -209 -193 602 605 604 601 600 600 602 607 0 0 0 0 0
    0 0 0 0 0 0 0 0 0 0 0 0 0 0 0 0 0 0 0 0 0 0 0 0 0 0 0 0 0 0 0 0 0 0 0 0 0 0 0 0 0 0 0 0 0 0 0 0 0 0 0 0 0 0 0 0 0 0 0 0 0 0 0 0 0 0 0 0 0 53 55 55 54 53 53 53 52 50 50 45 45 43 46 44 44 44 45 43 44 46 46 45 45 48 45 44 45 45 43 42 42 43 39 40 38 38 37 35 36 34 31 29 29 31 30 26 27 27 25 26 24 24 22 22 21 20 20 23 23 26 25 29 27 28 27 27 26 26 25 25 25 25 24 25 19 9 -193 -193 0 0 0 0 0 0 0 0 0 0 0 9 0 10 10 10 10 11 11 11 11 11 10 10 10 9 0 0 0 9 11 12 19 18 21 23 26 26 26 27 27 28 29 28 30 29 30 34 36 39 39 42 43 43 43 44 46 43 51 49 49 49 53 50 51 51 -177 49 51 -193 54 57 63 67 69 67 68 67 68 69 68 69 70 71 74 74 75 75 78 -193 -177 478 479 477 -177 -193 93 93 86 89 99 94 100 -209 -177 -193 -193 106 107 108 108 108 106 108 108 -209 -193 112 -177 -193 -193 -193 -193 118 119 -193 -193 -193 -193 124 -177 -177 -177 -177 -177 -177 -193 637 637 -193 -177 -193 -209 -193 -209 -209 -193 12 -209 -209 -193 148 -193 81 -177 -193 -209 -209 -209 602 605 604 601 600 601 602 606 0 0 0 0 0
    0 0 0 0 0 0 0 0 0 0 0 0 0 0 0 0 0 0 0 0 0 0 0 0 0 0 0 0 0 0 0 0 0 0 0 0 0 0 0 0 0 0 0 0 0 0 0 0 0 0 0 0 0 0 0 0 0 0 0 0 0 0 0 0 0 0 0 0 0 52 55 55 53 52 53 53 51 49 49 44 45 43 46 44 44 44 45 43 43 46 46 45 45 48 45 45 46 46 44 43 42 44 39 40 38 38 37 35 36 35 31 30 29 33 31 27 29 29 26 27 25 24 22 22 22 20 20 23 24 26 26 29 27 28 27 27 27 26 26 26 25 25 24 24 19 11 10 0 0 0 0 0 0 0 0 0 0 0 0 0 0 10 10 10 11 12 12 12 12 12 11 11 10 10 9 0 9 9 10 11 18 18 21 23 26 26 26 27 27 28 29 28 30 29 31 34 37 39 39 42 43 43 43 44 46 43 51 50 50 50 54 50 52 52 -177 50 52 -177 55 58 63 67 69 67 68 66 67 69 68 68 69 69 72 72 73 73 76 -177 -177 479 479 477 -177 -177 91 91 84 88 98 92 99 -209 103 104 -193 105 105 107 107 107 106 107 108 -193 -193 113 -177 -193 -193 -193 -193 -193 -193 -193 -193 -193 -193 124 -177 -177 -177 -177 -177 -177 141 637 636 -193 -193 -209 -209 -209 -193 -209 -193 14 -209 -209 186 148 -193 -209 -177 -177 -209 -209 -209 -193 604 604 600 600 601 602 606 0 0 0 0 0
    0 0 0 0 0 0 0 0 0 0 0 0 0 0 0 0 0 0 0 0 0 0 0 0 0 0 0 0 0 0 0 0 0 0 0 0 0 0 0 0 0 0 0 0 0 0 0 0 0 0 0 0 0 0 0 0 0 0 0 0 0 0 0 0 0 0 0 0 0 52 55 54 53 51 53 52 51 49 49 44 45 43 45 44 44 44 45 43 43 45 46 45 44 48 45 45 46 46 44 43 42 44 39 39 37 37 37 35 36 35 31 30 29 34 32 27 28 28 25 26 25 24 22 22 22 20 20 23 24 25 25 27 26 27 27 27 27 26 26 26 25 25 24 23 18 11 10 9 0 0 0 0 0 0 0 0 0 0 0 0 0 10 10 10 11 12 12 12 12 12 11 11 10 10 9 0 9 9 10 10 18 18 21 23 26 26 26 27 27 28 29 28 30 30 32 35 37 39 39 42 42 43 42 44 45 42 49 50 50 50 54 51 52 53 -177 -177 -177 271 -193 59 64 67 69 67 68 66 67 69 68 68 68 68 70 71 72 72 75 -177 -177 -177 480 478 481 482 -193 90 83 88 97 92 98 104 102 102 -193 104 104 106 106 106 -193 107 107 -193 -193 113 -177 -193 -193 -177 -193 -193 -193 -193 -193 573 -209 124 -193 -177 130 132 -177 138 140 636 -177 -193 -209 -209 -209 -209 -193 -209 -193 17 -193 -209 184 -209 162 -209 471 479 -209 97 96 -193 604 605 -193 601 601 601 605 0 0 0 0 0
    0 0 0 0 0 0 0 0 0 0 0 0 0 0 0 0 0 0 0 0 0 0 0 0 0 0 0 0 0 0 0 0 0 0 0 0 0 0 0 0 0 0 0 0 0 0 0 0 0 0 0 0 0 0 0 0 0 0 0 0 0 0 0 0 0 0 0 0 0 52 55 54 53 51 53 52 50 49 49 45 45 43 46 44 44 44 45 43 43 46 46 45 44 48 45 45 46 46 44 43 42 44 40 39 37 37 37 35 36 35 32 30 29 34 32 28 29 28 26 26 25 25 23 23 22 21 21 23 24 24 24 26 25 26 26 26 26 25 25 25 24 23 21 19 14 11 10 9 0 0 0 0 0 0 0 0 0 0 0 0 0 9 9 10 10 11 11 11 12 11 11 11 10 10 10 9 9 10 10 11 19 19 22 23 26 26 26 27 27 28 29 28 30 30 31 34 36 38 37 41 41 41 41 43 44 41 47 49 49 49 54 52 53 -177 -177 -177 -193 271 -193 60 64 66 68 67 67 66 67 69 68 67 68 67 70 70 71 71 73 -177 -177 481 480 479 482 482 -193 90 83 88 98 94 98 103 101 101 103 103 103 -193 105 105 -193 106 -193 -193 -193 114 -177 -193 -193 -177 -193 -193 -209 -193 573 573 -209 -193 -193 -193 131 133 -177 138 140 -193 -177 -193 -209 -209 -209 -209 17 -193 -193 18 -193 -209 177 -209 -193 -193 470 -193 -209 100 99 98 -193 -193 -193 602 602 601 605 0 0 0 0 0
    0 0 0 0 0 0 0 0 0 0 0 0 0 0 0 0 0 0 0 0 0 0 0 0 0 0 0 0 0 0 0 0 0 0 0 0 0 0 0 0 0 0 0 0 0 0 0 0 0 0 0 0 0 0 0 0 0 0 0 0 0 0 0 0 0 0 0 0 0 53 55 55 54 51 53 52 51 50 49 45 45 43 46 44 44 44 45 43 43 45 46 45 44 49 45 45 46 46 44 43 42 44 39 39 37 37 36 35 35 35 32 30 29 35 33 28 28 29 26 25 25 25 23 23 23 22 21 24 24 24 24 25 24 25 25 25 24 24 24 23 22 20 16 14 12 11 10 9 9 9 0 0 0 0 0 0 0 0 0 0 9 9 9 10 10 11 11 11 12 11 11 11 10 10 10 10 10 10 10 12 20 20 23 24 26 26 26 27 26 28 29 28 30 30 30 32 35 36 35 39 39 39 39 42 43 40 46 50 50 50 54 53 54 -177 -177 -177 -193 271 60 61 64 66 68 67 67 65 66 68 68 66 67 65 68 68 70 70 -193 -177 -177 482 480 479 482 483 -193 -193 82 89 99 95 98 103 100 101 102 102 103 -209 -193 -193 -177 106 -193 -193 -193 114 -177 -193 -193 -177 -193 -209 -209 573 573 573 95 -209 -193 -193 130 133 -177 137 139 -193 -193 -193 -209 -209 -209 -209 19 -193 19 19 -177 -193 171 -193 -193 95 -193 98 100 101 100 99 -193 -193 229 602 603 601 604 0 0 0 0 0
    0 0 0 0 0 0 0 0 0 0 0 0 0 0 0 0 0 0 0 0 0 0 0 0 0 0 0 0 0 0 0 0 0 0 0 0 0 0 0 0 0 0 0 0 0 0 0 0 0 0 0 0 0 0 0 0 0 0 0 0 0 0 0 0 0 0 0 0 0 54 55 55 54 51 54 53 51 50 49 44 44 43 45 44 44 44 44 43 43 45 46 44 44 49 45 45 46 46 45 43 42 44 39 39 36 36 36 35 35 34 32 30 30 35 33 28 28 29 26 26 25 24 23 23 23 22 22 24 24 23 24 24 23 24 24 24 23 22 22 21 20 18 15 12 11 11 10 10 10 10 0 0 0 0 0 0 0 0 0 0 9 9 9 10 10 11 11 11 12 11 11 11 10 10 10 10 10 10 10 13 21 21 25 25 27 27 27 27 27 28 28 27 30 30 30 32 35 36 34 38 38 38 38 41 42 39 46 52 52 52 55 55 56 -177 -177 -177 -193 270 61 62 64 66 68 66 67 65 66 68 68 66 67 65 67 67 -193 -193 -193 -177 -177 482 480 479 483 483 -193 -193 82 90 101 97 99 102 101 101 102 103 103 105 105 105 -177 106 -193 108 -193 114 -177 -193 -193 -177 -193 -177 -209 573 573 574 -193 -193 -193 -193 130 134 136 137 139 -193 -193 -193 -209 -209 -209 -209 20 21 19 19 17 -193 -193 -193 95 97 96 99 101 101 101 100 101 -193 -193 603 -177 -209 -193 0 0 0 0 0
    0 0 0 0 0 0 0 0 0 0 0 0 0 0 0 0 0 0 0 0 0 0 0 0 0 0 0 0 0 0 0 0 0 0 0 0 0 0 0 0 0 0 0 0 0 0 0 0 0 0 0 0 0 0 0 0 0 0 0 0 0 0 0 0 0 0 0 0 0 53 54 54 53 49 52 52 50 49 48 44 44 43 45 44 44 44 44 43 43 44 45 44 44 49 45 45 46 45 44 43 42 43 39 38 36 36 36 34 35 34 32 30 30 35 33 28 28 29 26 26 26 24 23 24 23 23 22 24 24 23 23 24 22 23 23 22 21 20 19 17 18 16 14 13 11 12 10 12 11 11 10 10 9 9 9 9 0 0 0 9 9 10 10 10 10 11 11 11 12 11 11 11 10 10 10 11 11 11 11 14 22 21 25 25 27 27 27 27 27 27 28 27 30 29 30 31 34 35 34 37 37 37 37 40 41 38 45 53 53 53 56 57 57 -177 -177 -177 -177 -193 62 63 65 66 68 66 67 65 65 68 68 -193 67 65 67 66 -193 -193 -193 -177 -177 482 480 480 483 484 -193 87 81 90 101 99 99 102 101 102 103 104 104 106 106 106 -177 107 109 109 111 115 -177 -193 -193 -193 -177 -177 -209 574 573 574 -193 -193 113 -193 131 135 137 138 139 141 -193 140 -193 -209 -209 -209 20 22 20 20 18 17 -209 -209 -193 98 -193 99 101 101 100 99 101 -209 -209 -209 -193 -193 -193 0 0 0 0 0
    0 0 0 0 0 0 0 0 0 0 0 0 0 0 0 0 0 0 0 0 0 0 0 0 0 0 0 0 0 0 0 0 0 0 0 0 0 0 0 0 0 0 0 0 0 0 0 0 0 0 0 0 0 0 0 0 0 0 0 0 0 0 0 0 0 0 0 0 0 52 53 53 52 48 52 52 50 48 48 44 45 43 45 44 44 44 44 43 44 44 45 45 44 48 45 45 45 44 43 42 41 42 39 38 35 36 36 34 35 34 32 30 30 35 33 27 28 29 26 26 26 24 23 23 23 22 21 23 23 22 23 24 20 22 21 19 17 16 14 13 14 14 13 12 11 13 11 13 12 12 10 10 10 10 9 9 0 0 0 9 10 10 10 11 11 11 12 11 12 11 11 12 10 10 10 11 11 11 12 15 22 21 25 25 27 27 27 27 26 27 28 27 29 29 29 30 33 35 32 37 37 36 37 40 41 39 44 55 55 55 56 61 58 58 -177 -177 -177 65 63 63 65 66 68 66 67 65 65 68 68 -193 67 64 67 66 68 -193 70 -177 -177 -177 480 480 484 -193 -193 87 81 90 101 99 100 102 102 102 103 -209 105 107 107 108 -193 108 110 110 112 115 -177 -193 -193 -193 -177 -177 -209 573 573 574 -193 -177 111 -193 133 136 137 138 139 142 140 140 139 -193 -193 -209 -193 22 20 20 19 18 -193 -209 -193 -177 -193 -209 101 102 100 100 101 -209 -193 -193 -193 52 -193 0 0 0 0 0
    0 0 0 0 0 0 0 0 0 0 0 0 0 0 0 0 0 0 0 0 0 0 0 0 0 0 0 0 0 0 0 0 0 0 0 0 0 0 0 0 0 0 0 0 0 0 0 0 0 0 0 0 0 0 0 0 0 0 0 0 0 0 0 0 0 0 0 0 0 51 53 52 51 48 52 51 50 48 48 44 45 43 44 44 44 44 44 44 44 44 46 45 44 48 45 44 44 43 43 41 40 41 38 38 35 36 36 34 35 34 31 30 30 35 32 27 27 28 26 25 25 24 22 23 22 22 21 22 23 21 22 23 15 18 17 14 12 11 10 11 12 12 11 11 10 13 11 13 12 13 11 11 11 11 10 10 0 0 0 9 9 10 9 11 10 11 12 11 12 11 11 12 10 11 10 12 12 12 12 15 21 21 24 25 27 27 27 27 26 28 28 27 29 29 29 30 33 35 32 36 36 36 36 40 41 40 44 57 57 57 57 63 59 59 60 60 66 66 63 64 65 66 68 67 67 65 65 68 68 -193 67 64 67 65 67 -193 70 -177 -177 -177 -177 -193 484 690 -193 86 81 90 102 101 101 103 104 104 104 106 106 109 108 109 109 109 111 111 112 115 -193 -193 -193 -193 367 368 -209 573 573 574 -193 -177 -177 131 135 137 137 138 139 142 140 141 139 -193 137 -209 -193 22 -193 20 19 18 -193 -209 -193 -177 -193 -209 -193 -193 101 100 101 -209 -193 -193 -193 51 53 0 0 0 0 0
    0 0 0 0 0 0 0 0 0 0 0 0 0 0 0 0 0 0 0 0 0 0 0 0 0 0 0 0 0 0 0 0 0 0 0 0 0 0 0 0 0 0 0 0 0 0 0 0 0 0 0 0 0 0 0 0 0 0 0 0 0 0 0 0 0 0 0 0 0 51 52 52 51 48 51 51 50 47 48 44 45 43 44 44 44 44 44 44 44 44 46 45 44 47 45 44 43 42 42 40 40 41 38 37 35 35 36 34 34 34 31 31 30 34 32 27 27 28 26 25 26 24 22 23 22 22 21 22 22 21 19 20 11 12 12 11 10 9 9 10 11 11 10 11 9 13 11 13 12 12 11 11 11 11 10 10 9 0 0 0 9 9 9 11 10 11 11 11 12 11 11 12 10 10 10 12 12 12 13 14 21 21 24 24 26 27 27 26 26 27 28 27 29 29 29 29 33 35 32 36 36 36 35 40 41 41 44 57 57 57 57 66 60 60 60 61 67 67 64 64 65 66 68 67 67 65 65 69 68 -193 67 64 66 64 66 -193 69 -177 -177 -177 -177 -193 -177 690 -193 87 83 90 102 102 102 103 106 105 105 108 107 110 109 109 109 109 111 111 112 115 -193 -193 120 -193 -177 370 -209 574 573 574 -177 -177 -177 130 137 138 137 138 139 142 140 141 139 -193 137 -193 138 21 -209 20 19 17 -209 -209 -193 -193 -209 -193 -209 -193 -193 100 -193 -209 -193 -193 -193 51 53 0 0 0 0 0
    0 0 0 0 0 0 0 0 0 0 0 0 0 0 0 0 0 0 0 0 0 0 0 0 0 0 0 0 0 0 0 0 0 0 0 0 0 0 0 0 0 0 0 0 0 0 0 0 0 0 0 0 0 0 0 0 0 0 0 0 0 0 0 0 0 0 0 0 0 51 52 51 51 48 51 51 50 47 48 45 46 43 44 44 44 44 44 44 45 44 46 45 44 46 45 44 43 41 41 39 39 40 38 37 35 35 36 34 34 33 31 31 30 33 31 27 27 28 27 26 26 24 23 24 22 22 20 21 21 20 17 16 9 0 9 10 9 0 0 9 10 9 10 10 0 12 11 13 12 12 12 12 12 12 10 11 9 9 9 0 9 0 0 10 10 11 11 11 11 11 11 12 9 10 9 12 12 12 13 15 21 21 24 24 26 26 27 26 26 27 28 27 29 28 29 29 32 35 32 36 36 36 35 -177 42 43 44 58 59 59 59 67 61 61 61 62 67 67 64 65 65 66 68 67 67 65 65 69 68 -193 67 64 66 64 64 -193 69 -177 -177 -177 -177 -177 -177 690 694 88 86 90 102 103 103 104 108 106 106 109 108 111 109 110 110 109 111 111 112 115 -193 -193 -193 -177 -177 370 -209 575 574 575 573 -177 -177 130 -193 138 137 138 138 142 140 140 139 -193 137 -193 138 -193 -209 19 18 16 -193 -209 -193 -177 -209 -193 -209 -193 -193 100 -209 -209 -193 -193 -209 49 52 0 0 0 0 0
    0 0 0 0 0 0 0 0 0 0 0 0 0 0 0 0 0 0 0 0 0 0 0 0 0 0 0 0 0 0 0 0 0 0 0 0 0 0 0 0 0 0 0 0 0 0 0 0 0 0 0 0 0 0 0 0 0 0 0 0 0 0 0 0 0 0 0 0 0 51 51 51 51 49 51 51 50 46 48 45 46 43 44 45 44 44 44 44 45 44 46 45 44 45 44 43 42 40 41 39 38 39 37 37 35 35 36 34 34 33 31 30 30 32 31 27 27 29 28 27 27 25 23 24 23 22 21 22 22 20 16 14 0 0 0 9 0 0 0 0 9 0 9 10 0 11 10 12 12 12 12 11 11 11 10 11 10 10 9 9 9 0 9 11 10 11 10 11 11 10 11 11 9 10 9 12 13 12 14 15 20 21 24 24 26 26 27 27 26 28 28 27 29 29 29 29 32 35 33 37 37 37 36 41 45 46 44 58 59 59 59 68 62 61 61 62 67 67 64 65 65 67 68 67 67 -193 65 69 69 -193 67 64 66 63 -193 -193 69 -177 -177 -177 -177 -177 -177 691 -193 89 88 90 102 103 103 104 109 107 107 111 109 112 110 111 111 109 112 112 112 115 -177 -177 -193 -177 -177 -177 -209 -193 574 -177 -177 -177 -209 130 -193 138 137 138 138 141 139 140 139 137 137 138 138 -193 -209 19 17 15 15 -209 -209 -209 -209 -193 -209 240 243 -209 -209 -209 -209 -209 -209 48 51 0 0 0 0 0
    0 0 0 0 0 0 0 0 0 0 0 0 0 0 0 0 0 0 0 0 0 0 0 0 0 0 0 0 0 0 0 0 0 0 0 0 0 0 0 0 0 0 0 0 0 0 0 0 0 0 0 0 0 0 0 0 0 0 0 0 0 0 0 0 0 0 0 0 0 50 51 51 50 49 51 51 50 46 47 46 46 44 43 45 44 44 44 44 45 44 45 44 43 44 43 42 41 39 40 38 38 39 37 37 35 35 35 34 34 33 31 30 31 31 30 28 27 29 29 28 28 25 24 24 23 22 21 22 22 20 -193 -193 0 0 0 0 0 0 0 9 9 9 10 11 9 11 10 12 11 11 11 11 11 11 10 11 9 10 9 9 9 9 9 11 10 11 10 11 11 10 10 11 9 9 9 12 13 13 14 15 20 22 25 24 27 27 28 28 27 28 28 27 29 29 30 30 32 36 34 38 38 38 36 42 48 49 44 58 60 60 60 69 62 61 61 62 67 67 64 65 65 67 -177 67 68 -177 66 69 -193 -193 67 65 65 63 -193 -193 68 -193 -177 -177 -177 -177 -177 -193 90 90 90 90 102 103 103 104 111 108 109 113 110 113 111 112 112 110 112 112 111 116 783 786 -193 -177 -177 -177 -209 -193 -177 -177 -193 -177 -209 131 -193 138 137 138 138 141 139 140 139 138 137 138 138 139 -209 18 16 14 14 -193 -209 -209 -209 -209 -209 239 243 -209 -209 -209 -209 -209 -209 47 -193 0 0 0 0 0
    0 0 0 0 0 0 0 0 0 0 0 0 0 0 0 0 0 0 0 0 0 0 0 0 0 0 0 0 0 0 0 0 0 0 0 0 0 0 0 0 0 0 0 0 0 0 0 0 0 0 0 0 0 0 0 0 0 0 0 0 0 0 0 0 0 0 0 0 0 50 51 50 49 48 50 50 49 45 46 46 46 45 43 45 44 44 44 44 45 44 44 44 43 43 43 42 40 39 39 37 37 38 37 37 35 35 35 33 33 32 31 30 31 31 30 28 28 29 29 28 28 25 24 25 23 22 21 22 21 19 14 -193 0 0 0 0 0 0 0 0 9 9 10 11 9 10 10 11 10 10 11 10 10 10 10 10 9 10 9 9 9 9 9 11 10 11 10 11 10 10 10 11 0 9 9 12 13 13 14 15 20 22 25 24 27 27 28 28 27 29 28 28 30 30 30 30 32 37 35 39 39 39 37 43 50 -193 44 58 61 61 61 70 63 61 60 61 67 67 64 65 65 68 -177 68 68 -177 67 70 -193 -193 67 65 -193 -193 -193 64 68 -193 -177 -177 -177 -177 -177 90 91 91 91 90 102 103 103 104 113 109 109 114 111 114 111 112 112 110 112 112 111 116 784 787 -193 -177 -177 -177 -209 -193 -177 -177 -177 -177 -209 131 -193 138 137 138 138 141 139 140 139 138 137 138 139 140 -209 18 15 14 14 -193 -193 -177 -209 -209 -209 237 242 -209 -209 -209 -209 -209 -209 -209 -193 0 0 0 0 0
    0 0 0 0 0 0 0 0 0 0 0 0 0 0 0 0 0 0 0 0 0 0 0 0 0 0 0 0 0 0 0 0 0 0 0 0 0 0 0 0 0 0 0 0 0 0 0 0 0 0 0 0 0 0 0 0 0 0 0 0 0 0 0 0 0 0 0 0 0 50 50 50 48 48 50 50 49 44 46 47 46 46 43 45 44 44 44 44 45 44 44 44 43 43 43 41 40 38 39 37 36 37 36 36 35 35 35 33 33 32 30 30 31 30 30 28 28 29 29 29 29 26 25 25 23 22 21 21 21 19 14 13 0 0 0 0 0 0 0 0 9 9 11 12 10 10 10 10 9 10 10 10 10 10 10 10 9 10 9 9 10 9 9 10 10 11 10 11 10 10 10 10 9 9 9 12 13 13 14 14 20 22 24 23 26 26 27 28 27 29 28 28 31 31 31 31 33 38 36 40 40 40 39 44 51 -193 -209 58 62 62 -193 70 63 61 60 61 66 67 64 65 65 68 -177 -193 -193 -177 67 70 -193 -193 67 65 64 -193 -193 63 67 -193 497 -177 -177 -177 -177 91 93 93 93 90 102 103 103 104 112 109 109 114 111 114 111 112 112 110 112 112 111 116 784 787 -193 -177 -177 -177 -209 -193 -193 -177 -193 -177 -209 131 -193 138 137 137 138 141 139 140 139 138 137 138 139 140 -193 19 15 13 14 -193 -193 -177 -193 -193 283 -193 -193 297 -209 -209 -209 -209 -209 -209 -193 0 0 0 0 0
    0 0 0 0 0 0 0 0 0 0 0 0 0 0 0 0 0 0 0 0 0 0 0 0 0 0 0 0 0 0 0 0 0 0 0 0 0 0 0 0 0 0 0 0 0 0 0 0 0 0 0 0 0 0 0 0 0 0 0 0 0 0 0 0 0 0 0 0 0 50 50 50 49 48 50 50 49 44 46 49 46 47 44 46 44 44 44 44 45 44 44 44 43 42 43 41 41 38 38 37 36 37 36 36 35 34 35 33 33 32 30 30 32 30 29 28 27 28 29 29 29 26 25 25 23 22 21 21 20 18 14 14 9 0 0 0 0 0 0 9 9 10 10 12 10 9 9 9 9 9 10 9 9 9 9 9 9 10 9 9 10 9 9 10 10 10 10 10 10 10 10 10 9 9 9 11 12 13 13 13 19 22 24 23 26 26 27 29 28 30 28 29 31 32 32 32 33 39 38 41 41 41 40 45 51 -177 -193 -209 -209 63 -209 71 64 61 60 60 66 66 64 65 65 68 69 -193 -193 -193 68 70 -193 -193 67 64 63 62 60 61 66 493 499 -177 -177 -177 -177 92 94 94 94 90 101 103 103 104 112 108 109 114 111 114 111 112 112 110 112 112 111 117 -193 -193 122 -177 -177 -177 -209 -193 -193 -177 -177 -177 -209 -209 -209 137 136 137 137 140 139 140 139 138 138 139 140 141 -209 18 14 13 13 -193 -209 -193 -193 284 290 -209 -193 301 -209 -193 -193 -209 -193 -209 177 0 0 0 0 0
    0 0 0 0 0 0 0 0 0 0 0 0 0 0 0 0 0 0 0 0 0 0 0 0 0 0 0 0 0 0 0 0 0 0 0 0 0 0 0 0 0 0 0 0 0 0 0 0 0 0 0 0 0 0 0 0 0 0 0 0 0 0 0 0 0 0 0 0 0 51 51 50 49 48 50 50 50 45 46 49 45 47 44 46 44 44 45 44 44 44 44 44 43 43 43 -193 41 39 39 37 36 37 36 36 35 34 35 33 33 32 30 30 32 29 29 28 27 28 29 29 29 26 26 26 23 23 22 21 20 18 15 14 10 0 0 0 0 0 9 10 9 10 11 12 10 9 9 9 0 9 9 9 9 9 9 9 9 9 9 9 9 9 9 10 10 10 10 10 10 10 10 10 9 9 9 10 12 12 12 12 19 23 24 23 26 26 27 29 28 30 28 29 32 33 33 33 34 39 39 41 41 41 39 45 51 -177 -177 -193 -209 -209 -209 -177 64 60 59 59 65 66 64 64 65 68 70 -193 -193 -193 69 70 -193 -193 67 64 62 61 60 60 65 494 500 -177 -177 -177 -193 93 95 95 95 90 101 103 103 104 112 108 109 114 111 114 111 112 112 110 112 112 111 117 -193 -193 122 -177 -177 -177 -209 -193 -193 -177 -177 -177 -209 -209 -209 137 136 137 137 140 139 140 139 138 138 139 141 141 -209 -193 14 13 13 -193 -209 -193 -193 -193 296 -193 301 305 305 -193 -209 -209 -193 -209 177 0 0 0 0 0
    0 0 0 0 0 0 0 0 0 0 0 0 0 0 0 0 0 0 0 0 0 0 0 0 0 0 0 0 0 0 0 0 0 0 0 0 0 0 0 0 0 0 0 0 0 0 0 0 0 0 0 0 0 0 0 0 0 0 0 0 0 0 0 0 0 0 0 0 0 51 51 51 49 49 50 51 50 45 46 50 45 48 44 46 44 43 45 44 44 44 44 44 43 43 43 41 42 39 39 37 36 36 36 35 35 34 35 34 33 32 30 30 32 29 29 28 27 28 29 30 30 27 27 27 24 23 22 22 21 18 16 15 11 10 9 9 10 9 10 11 10 11 12 12 10 10 9 9 0 9 9 9 9 9 9 9 9 9 9 9 10 9 10 10 10 10 10 10 10 9 10 9 9 9 9 10 12 12 12 12 18 23 25 23 26 26 27 29 28 30 28 29 32 34 34 34 35 40 40 41 41 41 39 45 51 -177 -177 -177 -193 -209 -209 72 -177 59 58 58 64 65 64 64 65 68 70 -193 -193 -193 69 71 -193 -193 67 65 62 61 59 60 65 -177 500 491 -177 -177 -193 93 95 96 96 90 102 103 102 104 112 108 109 114 111 114 111 112 112 110 113 113 110 117 111 119 122 -193 -177 -177 -209 -193 -193 -177 -177 -177 -209 -209 -209 136 136 137 137 140 139 140 139 139 139 139 141 142 -209 -193 13 12 12 -193 -209 -193 -193 -209 298 -193 302 306 305 -193 -209 -209 -193 -193 177 0 0 0 0 0
    0 0 0 0 0 0 0 0 0 0 0 0 0 0 0 0 0 0 0 0 0 0 0 0 0 0 0 0 0 0 0 0 0 0 0 0 0 0 0 0 0 0 0 0 0 0 0 0 0 0 0 0 0 0 0 0 0 0 0 0 0 0 0 0 0 0 0 0 0 51 51 51 49 49 51 51 50 46 47 51 45 48 45 46 45 43 45 44 44 44 44 44 43 43 43 42 42 39 39 37 36 36 35 34 34 32 34 33 33 31 30 29 32 29 29 28 27 28 28 30 30 27 27 27 24 24 23 22 21 18 17 16 12 12 10 10 11 10 11 11 11 12 12 12 11 10 10 9 0 9 9 9 9 0 0 0 9 9 9 9 10 10 10 10 10 10 10 10 10 10 10 10 9 9 9 10 12 12 12 13 18 24 25 23 26 26 27 30 28 30 28 30 33 35 35 35 35 41 41 41 41 41 39 44 51 -177 -193 -177 -193 -209 -193 74 -193 -193 56 56 62 64 63 63 65 69 70 -193 -193 -193 70 71 72 -193 67 65 63 62 60 60 65 497 501 491 488 -177 -193 93 95 96 96 90 101 103 102 103 112 108 109 114 111 114 111 112 113 110 113 113 110 -193 112 119 -193 -193 -177 -177 -193 -193 -193 -177 -177 -177 -209 -209 -209 135 135 137 137 139 139 139 139 139 139 139 141 142 -193 -193 12 11 -193 -193 -193 165 169 -209 299 303 303 306 305 -193 -209 -177 -193 -177 177 0 0 0 0 0
    0 0 0 0 0 0 0 0 0 0 0 0 0 0 0 0 0 0 0 0 0 0 0 0 0 0 0 0 0 0 0 0 0 0 0 0 0 0 0 0 0 0 0 0 0 0 0 0 0 0 0 0 0 0 0 0 0 0 0 0 0 0 0 0 0 0 0 0 0 51 51 51 50 49 51 51 51 46 47 52 45 48 45 46 45 43 45 44 44 44 44 44 43 43 43 42 42 39 39 37 35 34 34 33 33 31 33 32 32 30 29 29 32 29 29 28 27 27 28 30 29 27 27 27 25 24 23 23 21 19 18 17 13 14 12 12 12 10 12 12 12 12 12 12 12 10 11 10 9 10 10 9 9 0 0 0 9 9 9 9 11 11 11 11 11 11 10 11 10 10 10 10 9 9 9 10 12 11 12 12 18 24 26 23 26 26 27 30 28 30 29 30 33 36 36 36 36 41 41 41 41 41 39 44 50 -177 -193 -177 -209 -209 -177 74 507 513 54 55 61 -193 -193 63 65 69 71 -193 -193 -209 -193 71 72 -193 68 66 63 63 60 61 66 -193 501 -193 -193 485 -193 93 96 96 96 90 101 102 101 103 -193 108 109 114 111 113 111 112 113 110 113 113 111 797 112 119 -193 -193 -193 -177 -193 119 -193 -177 -177 -177 -209 -209 123 135 135 137 137 139 139 139 139 139 139 139 141 142 -193 141 12 11 -193 -193 -193 165 168 -209 300 303 303 305 304 -193 -209 -177 -177 -177 -193 0 0 0 0 0
    0 0 0 0 0 0 0 0 0 0 0 0 0 0 0 0 0 0 0 0 0 0 0 0 0 0 0 0 0 0 0 0 0 0 0 0 0 0 0 0 0 0 0 0 0 0 0 0 0 0 0 0 0 0 0 0 0 0 0 0 0 0 0 0 0 0 0 0 0 52 51 51 50 48 51 51 51 46 47 52 46 49 46 46 45 43 45 44 45 44 44 44 43 43 44 42 43 40 39 37 36 34 34 32 32 29 31 31 31 29 29 28 32 28 28 28 27 27 28 30 29 26 27 27 25 24 23 22 21 19 18 17 14 15 13 13 14 11 13 13 13 13 12 12 12 11 11 10 9 10 11 10 9 9 0 0 9 9 10 9 11 12 11 12 11 11 11 11 11 10 10 9 9 0 9 10 11 11 11 12 18 24 26 23 26 26 27 30 28 30 29 31 34 36 37 37 37 42 42 41 41 41 39 44 49 -193 -209 -209 -209 -209 -177 -193 508 513 52 54 60 -193 271 62 65 69 71 -193 71 -193 -193 -193 72 -193 68 66 64 63 60 61 67 -193 501 -193 -193 482 -177 93 95 96 96 90 101 102 101 103 -193 108 109 113 110 113 111 113 113 110 113 113 -193 797 113 118 796 -193 -193 -193 -193 118 -193 -177 -177 -177 -209 -209 124 134 135 137 137 139 139 139 139 139 139 139 141 142 -193 140 -193 12 -209 -193 -193 164 167 -209 300 303 303 305 304 306 -209 -177 -177 -177 -193 0 0 0 0 0
    0 0 0 0 0 0 0 0 0 0 0 0 0 0 0 0 0 0 0 0 0 0 0 0 0 0 0 0 0 0 0 0 0 0 0 0 0 0 0 0 0 0 0 0 0 0 0 0 0 0 0 0 0 0 0 0 0 0 0 0 0 0 0 0 0 0 0 0 0 52 52 51 50 49 51 52 51 47 48 53 46 49 46 46 45 43 45 44 45 44 45 44 44 44 44 42 43 40 40 36 35 33 33 32 31 29 31 30 30 29 28 27 31 28 28 28 26 26 27 30 29 26 27 27 25 24 23 22 20 19 18 17 14 16 14 15 16 12 13 14 13 12 12 11 11 10 10 9 9 10 12 10 9 9 9 0 9 10 9 9 11 12 12 12 12 12 12 12 12 11 10 10 9 9 9 10 11 10 11 12 18 25 26 23 26 26 27 30 28 30 29 31 34 37 37 37 37 42 42 41 41 41 39 -177 -177 -193 41 -209 -193 -193 -177 -209 507 -193 50 53 -193 268 271 62 65 69 71 -193 71 -193 -193 -193 72 -193 68 66 64 64 61 62 67 -193 501 -193 -193 -177 -177 93 702 95 95 89 100 102 101 103 111 108 109 113 110 113 112 113 113 110 114 114 -193 797 113 117 796 118 -193 -193 -193 117 -193 -193 -193 -177 -209 -209 -209 134 135 137 137 139 139 139 139 139 140 139 141 142 -193 140 -193 -193 -193 -193 -193 163 -209 -209 301 303 303 305 303 307 -209 -177 -177 -177 -193 0 0 0 0 0
    0 0 0 0 0 0 0 0 0 0 0 0 0 0 0 0 0 0 0 0 0 0 0 0 0 0 0 0 0 0 0 0 0 0 0 0 0 0 0 0 0 0 0 0 0 0 0 0 0 0 0 0 0 0 0 0 0 0 0 0 0 0 0 0 0 0 0 0 0 53 52 52 51 50 51 52 51 47 48 52 46 48 46 46 44 43 45 43 45 45 45 44 44 44 44 43 43 40 40 36 34 33 33 32 30 28 30 29 30 28 28 27 30 28 28 28 26 26 27 30 29 26 27 27 25 24 23 22 20 19 18 17 15 17 15 16 17 13 13 14 13 12 11 11 11 9 9 0 0 10 11 10 10 10 10 9 10 11 10 10 12 13 12 13 13 13 13 12 12 11 10 10 10 9 9 9 11 10 11 11 18 25 26 23 26 26 27 30 28 30 30 32 35 38 38 38 38 43 43 41 41 41 39 -177 -177 48 41 -193 -193 40 -177 -193 -193 -193 49 52 -193 268 271 62 65 68 71 72 71 -193 -193 -193 72 -193 68 66 65 65 62 64 68 71 501 -193 477 -177 -177 92 702 93 94 89 98 103 101 103 111 108 109 113 110 113 112 113 113 110 114 114 -193 797 113 116 -193 117 117 -193 -193 116 111 -193 -193 -177 -209 -209 -209 133 135 137 137 139 139 139 139 139 139 139 141 142 140 139 -193 -193 151 -193 -193 162 -209 -209 -193 -177 303 305 303 -193 177 -193 -193 -177 -193 0 0 0 0 0
    0 0 0 0 0 0 0 0 0 0 0 0 0 0 0 0 0 0 0 0 0 0 0 0 0 0 0 0 0 0 0 0 0 0 0 0 0 0 0 0 0 0 0 0 0 0 0 0 0 0 0 0 0 0 0 0 0 0 0 0 0 0 0 0 0 0 0 0 0 53 53 52 52 51 51 52 52 47 49 52 46 48 45 45 44 43 44 43 45 45 46 45 45 44 45 43 44 40 40 36 35 33 34 32 30 28 30 29 29 28 27 27 30 28 28 27 26 26 26 29 28 27 27 27 25 24 23 22 21 19 19 18 16 17 16 16 17 13 14 13 13 11 11 11 11 9 9 0 0 10 11 10 10 10 10 10 11 11 11 11 13 13 13 13 14 13 13 12 12 12 11 10 10 9 9 9 11 10 10 11 18 25 26 23 26 26 27 30 28 30 -193 32 35 38 38 38 38 43 43 40 40 40 39 -177 47 47 40 40 40 40 -193 54 -193 47 47 51 -209 268 271 -193 -193 68 71 72 71 70 -193 -193 72 71 68 66 65 66 63 65 68 71 501 -193 -177 -177 -177 91 702 -193 92 87 96 103 101 103 111 108 109 113 110 112 112 113 113 110 114 114 -193 797 113 115 -193 116 116 -193 117 116 111 115 -193 -177 -209 117 -209 133 135 137 136 139 139 139 138 138 139 138 140 141 139 139 145 -193 -193 -193 -193 -209 -209 -209 -209 -177 -177 305 304 -193 177 -193 -193 -193 -193 0 0 0 0 0
    0 0 0 0 0 0 0 0 0 0 0 0 0 0 0 0 0 0 0 0 0 0 0 0 0 0 0 0 0 0 0 0 0 0 0 0 0 0 0 0 0 0 0 0 0 0 0 0 0 0 0 0 0 0 0 0 0 0 0 0 0 0 0 0 0 0 0 0 0 54 53 52 52 51 51 52 52 47 49 52 45 47 45 45 44 43 44 43 45 45 47 45 45 45 45 43 44 41 41 36 35 33 34 32 30 28 29 28 28 27 27 27 30 28 28 27 26 26 26 29 28 27 27 27 25 24 24 22 21 20 19 18 17 18 16 17 17 13 14 14 13 11 10 10 10 9 9 0 0 10 11 10 10 10 10 10 11 12 12 12 14 14 14 14 14 14 14 13 12 12 11 10 10 9 0 9 10 10 10 10 18 25 26 23 26 26 27 30 28 30 -193 32 35 38 38 38 38 43 43 41 41 41 -193 -177 47 47 40 40 40 -193 -209 53 48 46 47 51 -193 268 271 -193 -193 68 71 -193 -193 -209 -177 -193 72 71 68 67 66 67 64 67 69 72 -209 76 -193 -177 -177 89 701 -193 90 85 94 102 100 103 110 108 108 113 110 111 112 112 113 110 114 114 798 797 113 113 -193 116 116 116 116 116 111 116 115 -177 -209 -193 -193 132 135 136 136 138 -193 138 -193 -193 -193 138 140 141 138 139 -193 -193 -193 -193 -193 -209 -209 0 -209 -209 -193 305 304 -209 178 180 -193 -193 -193 0 0 0 0 0
    0 0 0 0 0 0 0 0 0 0 0 0 0 0 0 0 0 0 0 0 0 0 0 0 0 0 0 0 0 0 0 0 0 0 0 0 0 0 0 0 0 0 0 0 0 0 0 0 0 0 0 0 0 0 0 0 0 0 0 0 0 0 0 0 0 0 0 0 0 54 53 53 52 51 51 53 52 48 49 52 45 46 45 44 43 42 44 43 45 45 47 45 45 45 45 43 44 41 41 36 36 33 34 32 29 27 28 28 28 26 26 26 30 28 28 27 26 26 26 29 28 27 27 27 26 24 23 22 20 20 19 19 17 18 17 18 18 14 14 14 12 10 9 9 0 0 0 0 0 9 11 10 10 10 11 11 12 13 12 13 14 14 14 14 15 14 14 13 12 12 11 10 10 9 0 0 10 9 9 10 17 24 25 23 26 26 27 30 28 30 30 33 35 38 38 38 38 43 43 41 41 41 40 -177 47 46 39 39 39 39 40 52 47 46 46 50 -193 -177 -177 -193 -193 68 71 -193 -193 571 -177 -193 -193 -193 68 67 66 67 64 68 69 72 -209 76 -193 -177 -177 88 701 707 -193 83 93 102 99 102 109 107 107 111 109 110 111 111 112 109 113 113 798 797 113 112 118 116 116 -193 -193 116 112 -193 117 -177 122 -193 129 132 135 136 136 138 -193 -193 -193 -193 -193 -193 139 140 138 138 -193 -193 -193 -193 -193 -193 0 0 -193 -193 -193 -193 -193 -193 176 180 177 -193 -193 0 0 0 0 0
    0 0 0 0 0 0 0 0 0 0 0 0 0 0 0 0 0 0 0 0 0 0 0 0 0 0 0 0 0 0 0 0 0 0 0 0 0 0 0 0 0 0 0 0 0 0 0 0 0 0 0 0 0 0 0 0 0 0 0 0 0 0 0 0 0 0 0 0 0 53 53 53 52 52 51 53 52 48 50 52 45 46 45 45 43 42 44 43 45 44 48 45 46 45 45 44 44 42 42 37 36 34 34 32 29 27 28 28 27 26 26 26 29 27 27 27 26 26 26 29 28 26 27 27 25 24 23 22 20 19 19 18 17 18 17 18 18 15 14 14 13 10 0 0 0 0 0 0 0 9 10 10 10 11 11 11 13 13 12 13 14 14 15 15 15 15 15 14 13 13 12 10 10 9 0 0 9 9 9 9 17 25 25 23 27 27 27 30 29 31 -177 -177 35 38 38 38 38 43 43 41 41 41 40 -177 46 46 39 39 39 39 40 52 47 46 47 50 53 268 270 -193 -193 -209 -193 -177 571 572 -177 -177 -209 -193 69 67 66 67 65 68 69 71 -193 76 78 -177 -193 87 701 -193 86 81 92 102 99 102 107 106 106 -193 108 108 110 110 111 108 111 112 798 797 114 112 118 117 117 -193 -193 117 113 -193 118 -177 122 -193 131 132 135 136 136 138 -193 -193 -209 -193 -193 -193 138 139 137 138 -193 15 15 -193 -193 -193 0 0 160 162 164 -193 -193 168 174 180 176 180 -177 0 0 0 0 0
    0 0 0 0 0 0 0 0 0 0 0 0 0 0 0 0 0 0 0 0 0 0 0 0 0 0 0 0 0 0 0 0 0 0 0 0 0 0 0 0 0 0 0 0 0 0 0 0 0 0 0 0 0 0 0 0 0 0 0 0 0 0 0 0 0 0 0 0 0 54 53 53 52 52 51 53 52 48 50 52 45 46 45 45 43 42 44 43 46 44 48 45 46 45 44 44 44 42 42 38 37 35 35 34 30 28 28 28 27 25 26 26 29 27 27 27 26 26 26 29 28 26 27 27 25 24 23 22 20 19 19 19 17 18 17 17 18 15 14 14 13 9 0 0 0 0 0 0 0 0 10 10 10 11 12 11 13 14 13 14 15 14 15 15 16 15 15 14 13 13 12 10 10 9 0 0 0 0 0 0 14 23 24 22 26 26 26 30 28 30 31 33 35 37 37 38 38 43 43 41 41 41 40 43 46 45 39 40 40 40 40 52 48 47 47 50 -193 -177 -177 270 -209 68 72 -193 -193 571 -177 -193 -209 -193 -193 67 66 67 65 68 69 71 75 75 77 -193 80 85 701 -193 85 78 91 102 99 102 107 105 105 -193 106 107 109 109 109 108 110 111 798 797 114 111 118 117 117 -177 -177 118 -193 -209 -209 -177 123 -193 132 132 135 136 136 138 -193 -193 -193 -193 -193 -193 138 139 138 138 -209 12 13 -193 -193 -193 0 0 161 163 164 -177 167 168 172 178 175 179 -177 0 0 0 0 0
    0 0 0 0 0 0 0 0 0 0 0 0 0 0 0 0 0 0 0 0 0 0 0 0 0 0 0 0 0 0 0 0 0 0 0 0 0 0 0 0 0 0 0 0 0 0 0 0 0 0 0 0 0 0 0 0 0 0 0 0 0 0 0 0 0 0 0 0 0 54 54 54 53 52 51 53 52 48 49 51 45 46 45 45 43 42 44 43 45 44 48 45 45 45 44 44 44 42 43 38 38 36 36 36 31 30 30 29 28 26 26 25 29 27 27 27 26 26 27 29 28 26 26 26 24 23 23 21 20 20 20 19 18 18 17 18 18 16 15 14 13 10 0 0 0 0 0 0 0 0 9 9 9 11 12 11 13 14 13 14 15 14 15 15 16 15 15 14 13 13 12 10 9 9 0 0 0 0 0 0 12 21 23 22 26 26 26 29 28 30 30 32 34 37 37 37 38 43 43 41 42 42 41 44 46 45 40 43 42 41 41 54 49 48 49 51 53 -177 -177 -177 -193 68 71 -209 71 -193 -193 71 -193 -193 -193 67 66 68 65 68 69 71 75 75 76 76 79 84 -193 84 84 77 91 102 99 102 105 104 105 -193 106 106 108 108 109 107 109 110 798 -193 115 111 118 118 -193 -177 -177 -193 -193 -193 122 -193 123 -193 131 131 135 136 136 139 -193 -193 -193 -193 -193 -193 138 139 138 138 -209 -193 -193 -193 -193 -193 0 0 161 163 164 166 167 168 171 176 174 178 -177 0 0 0 0 0
    0 0 0 0 0 0 0 0 0 0 0 0 0 0 0 0 0 0 0 0 0 0 0 0 0 0 0 0 0 0 0 0 0 0 0 0 0 0 0 0 0 0 0 0 0 0 0 0 0 0 0 0 0 0 0 0 0 0 0 0 0 0 0 0 0 0 0 0 0 54 54 54 53 52 51 52 52 47 48 50 44 45 45 45 43 42 44 43 45 44 48 45 45 45 44 44 44 42 43 39 38 37 37 37 33 31 32 30 29 27 26 25 30 27 27 27 26 26 26 29 27 25 26 26 24 23 22 21 20 19 20 19 18 19 17 18 18 16 16 15 15 11 9 10 0 0 0 0 0 0 0 0 9 10 12 11 13 13 13 15 14 14 15 14 15 15 15 14 12 13 12 10 9 9 0 0 0 0 0 0 11 19 23 22 27 26 26 30 29 30 30 32 34 36 37 37 37 42 43 41 42 43 42 44 46 46 41 45 44 43 46 54 50 49 50 52 53 -177 -177 -193 61 68 72 73 72 72 -193 72 73 -209 -193 -193 67 -193 65 68 69 70 74 74 76 76 78 83 83 83 83 77 90 101 99 101 104 104 105 107 105 105 108 108 108 107 108 110 -193 114 115 111 118 -193 -193 -193 -177 -193 -193 123 124 124 124 -193 131 130 134 135 136 -193 -193 -193 -193 -193 -193 -193 138 139 138 138 -209 -209 -193 -193 -193 -193 -193 -193 161 163 164 166 168 168 171 176 173 177 176 0 0 0 0 0
    0 0 0 0 0 0 0 0 0 0 0 0 0 0 0 0 0 0 0 0 0 0 0 0 0 0 0 0 0 0 0 0 0 0 0 0 0 0 0 0 0 0 0 0 0 0 0 0 0 0 0 0 0 0 0 0 0 0 0 0 0 0 0 0 0 0 0 0 0 54 54 54 53 52 51 51 51 46 47 49 44 46 45 45 44 43 44 44 45 44 47 45 45 45 44 44 44 43 43 39 39 38 38 38 35 34 33 32 29 27 26 25 30 27 27 27 26 26 26 28 27 25 25 25 23 23 22 22 20 20 20 19 18 19 17 18 18 17 17 17 17 13 10 11 10 9 9 0 0 0 0 0 0 9 11 11 12 13 13 15 14 14 15 14 15 15 14 14 12 12 12 10 9 0 0 0 0 0 0 0 10 14 21 21 28 26 27 30 29 30 30 33 34 36 36 37 37 42 42 41 42 42 43 45 47 46 42 46 46 45 50 55 52 51 52 53 54 -193 -193 58 60 67 71 -193 72 72 72 72 73 74 -193 -193 67 -193 -193 68 68 70 74 74 76 76 78 82 82 82 83 77 90 101 99 101 104 104 105 106 105 105 108 108 108 107 108 110 -193 114 115 111 118 -193 -193 -193 -193 -193 -193 124 125 126 125 130 131 130 133 134 135 -193 -193 -193 -193 -209 -193 -193 139 140 138 138 -193 -209 -193 -193 155 157 -193 -193 161 163 164 166 167 167 170 175 173 176 175 0 0 0 0 0
    0 0 0 0 0 0 0 0 0 0 0 0 0 0 0 0 0 0 0 0 0 0 0 0 0 0 0 0 0 0 0 0 0 0 0 0 0 0 0 0 0 0 0 0 0 0 0 0 0 0 0 0 0 0 0 0 0 0 0 0 0 0 0 0 0 0 0 0 0 53 53 53 52 51 51 51 51 46 48 50 45 46 46 46 45 44 45 44 45 44 47 45 45 45 45 44 44 43 44 41 40 40 40 39 37 36 34 33 30 27 26 25 30 27 27 27 26 26 26 28 27 25 25 25 23 23 22 22 20 20 20 20 18 20 18 19 19 19 19 19 20 16 12 14 12 13 11 10 0 0 0 0 0 9 10 10 11 12 12 14 14 13 14 14 14 14 14 14 12 12 12 10 0 0 0 0 0 0 0 0 9 12 18 21 28 26 27 30 29 30 31 33 34 36 36 37 38 42 42 42 42 43 43 45 47 46 42 46 47 46 51 55 52 53 54 54 55 -193 57 57 -193 66 71 -193 72 72 72 72 74 75 70 68 67 -193 66 69 69 70 75 75 76 76 78 81 82 82 82 76 89 100 99 100 103 104 105 106 105 105 108 107 108 107 108 110 -193 113 115 111 118 -193 -177 -177 -193 123 123 125 127 127 126 130 130 130 132 133 134 -193 -177 -193 -193 -209 138 -193 139 140 140 139 -193 -209 148 -193 154 156 157 159 160 163 163 165 167 167 170 175 173 175 174 0 0 0 0 0
    0 0 0 0 0 0 0 0 0 0 0 0 0 0 0 0 0 0 0 0 0 0 0 0 0 0 0 0 0 0 0 0 0 0 0 0 0 0 0 0 0 0 0 0 0 0 0 0 0 0 0 0 0 0 0 0 0 0 0 0 0 0 0 0 0 0 0 0 0 53 53 53 52 51 51 52 52 46 49 51 45 47 46 47 46 44 45 45 45 44 47 45 45 45 45 44 44 44 44 41 41 41 41 41 39 39 37 36 31 27 25 24 31 27 27 27 26 26 26 27 27 24 24 25 23 23 23 22 21 20 20 21 19 21 20 21 20 21 23 23 24 21 17 18 17 20 15 13 0 0 0 0 0 9 9 9 10 11 11 13 13 13 14 14 15 14 14 15 12 12 12 10 0 0 0 0 0 0 0 0 0 11 15 21 29 26 27 30 29 30 31 33 34 35 36 37 37 41 42 42 42 43 44 45 47 46 42 45 46 45 50 54 52 53 54 55 56 56 57 58 59 65 70 72 71 72 71 72 73 75 70 68 68 69 68 71 70 71 76 75 76 76 78 80 82 82 82 75 89 100 100 101 103 105 105 106 105 105 108 107 108 108 108 110 -193 113 115 111 119 -193 -193 -177 124 124 124 126 128 128 126 130 130 130 132 133 133 -193 -193 -193 -193 -193 138 138 139 141 141 140 146 -193 148 151 153 155 156 158 160 162 162 165 167 167 169 174 173 175 173 0 0 0 0 0
    0 0 0 0 0 0 0 0 0 0 0 0 0 0 0 0 0 0 0 0 0 0 0 0 0 0 0 0 0 0 0 0 0 0 0 0 0 0 0 0 0 0 0 0 0 0 0 0 0 0 0 0 0 0 0 0 0 0 0 0 0 0 0 0 0 0 0 0 0 53 53 53 52 51 51 52 52 45 49 51 45 47 47 47 47 45 46 45 45 44 47 45 45 45 45 44 44 44 44 41 41 41 41 42 41 41 40 39 36 -193 -193 25 33 27 26 27 25 26 26 27 26 24 24 24 23 23 23 22 21 21 21 21 20 21 20 21 21 23 24 26 27 25 22 22 22 23 22 16 10 0 0 0 0 9 0 0 9 10 10 11 12 12 13 13 14 14 14 14 12 11 11 10 0 0 0 0 0 0 0 0 0 11 13 21 32 27 28 30 30 30 31 33 33 34 36 37 37 41 42 42 43 43 44 45 46 46 42 45 46 44 49 53 52 53 55 56 56 56 58 59 60 66 69 71 70 71 71 71 73 74 70 68 67 69 70 72 72 72 79 76 78 77 79 80 82 82 82 76 89 100 101 101 103 106 106 106 106 106 109 108 108 108 108 110 110 113 116 113 119 125 -193 -193 125 125 125 127 128 129 127 130 130 130 131 133 132 135 -193 -193 -193 -193 138 138 140 142 142 141 147 -193 148 151 -193 -193 156 158 159 162 161 164 166 166 168 173 172 174 172 0 0 0 0 0
    0 0 0 0 0 0 0 0 0 0 0 0 0 0 0 0 0 0 0 0 0 0 0 0 0 0 0 0 0 0 0 0 0 0 0 0 0 0 0 0 0 0 0 0 0 0 0 0 0 0 0 0 0 0 0 0 0 0 0 0 0 0 0 0 0 0 0 0 0 54 54 54 53 51 51 52 52 45 48 50 45 47 47 47 47 45 46 45 45 44 47 45 45 46 45 45 44 44 45 42 42 42 42 41 40 41 40 40 38 -193 -193 26 -193 27 26 26 25 25 26 26 26 23 24 24 22 23 23 22 22 22 21 21 21 22 21 21 21 23 24 27 28 28 25 25 25 26 25 23 17 9 0 0 0 0 0 0 9 9 10 10 12 12 12 13 14 13 13 14 12 11 10 9 0 0 0 0 0 0 0 0 0 10 11 22 32 27 28 30 30 30 30 32 33 33 36 36 37 41 42 42 43 44 44 45 46 46 42 45 46 45 49 53 52 54 56 58 57 57 59 60 61 65 68 69 69 71 70 70 73 74 71 70 69 71 73 75 74 74 82 78 79 79 81 82 83 83 83 76 89 100 102 102 103 108 106 107 107 106 109 108 108 108 108 110 110 113 116 114 120 125 123 -193 125 126 126 127 129 129 128 130 130 130 131 132 132 135 -193 -193 -193 -193 139 139 141 143 143 142 147 -193 -193 -193 -209 -193 156 157 158 160 160 163 164 165 168 171 172 172 171 0 0 0 0 0</data></disparity>
</opencv_storage>
