<?xml version="1.0"?>
<opencv_storage>
<gps_time_stamp>302701</gps_time_stamp>
<gps_x>-1.2392398834228516e+001</gps_x>
<gps_y>1.0959305763244629e+001</gps_y>
<gps_z>-2.0096719264984131e+000</gps_z>
<image_time_stamp>293558</image_time_stamp>
<disparity type_id="opencv-matrix">
  <rows>89</rows>
  <cols>320</cols>
  <dt>s</dt>
  <data>
    0 0 0 0 0 0 0 0 0 0 0 0 0 0 0 0 0 0 0 0 0 0 0 0 0 0 0 0 0 0 0 0 0 0 0 0 0 0 0 0 0 0 0 0 0 0 0 0 0 0 0 0 0 0 0 0 0 0 0 0 0 0 0 0 0 0 0 0 0 55 56 57 57 57 57 58 58 57 55 54 55 55 55 56 54 54 53 52 51 50 48 46 45 44 43 42 41 40 39 38 39 39 38 38 38 38 37 38 36 35 37 36 37 34 35 33 32 33 34 30 31 27 30 26 26 24 23 21 21 21 20 20 19 15 15 16 21 21 21 21 21 22 28 32 32 -225 -225 -225 -225 -225 -225 -225 -225 -225 -225 -225 -225 -225 -225 -225 -225 -225 -225 -225 -225 -225 -225 -225 -225 -225 -225 -225 -225 -225 -225 -225 -225 -225 -225 -225 -225 -225 -225 -225 -225 -225 -225 -225 32 30 30 32 32 31 33 34 34 35 37 37 38 42 42 43 42 40 44 43 43 46 43 45 45 48 49 48 53 -193 258 -193 61 59 59 62 62 63 61 64 65 61 65 66 62 68 70 70 70 71 73 74 75 74 74 73 83 -209 89 90 91 100 95 95 95 95 94 98 96 96 93 99 97 97 98 98 98 101 101 101 103 107 109 109 109 109 109 110 112 111 113 115 115 118 -193 122 125 125 127 128 128 129 128 129 130 129 131 130 132 134 134 137 137 139 139 142 143 144 142 -193 -193 -193 150 -193 149 151 -193 0 0 0 0 0
    0 0 0 0 0 0 0 0 0 0 0 0 0 0 0 0 0 0 0 0 0 0 0 0 0 0 0 0 0 0 0 0 0 0 0 0 0 0 0 0 0 0 0 0 0 0 0 0 0 0 0 0 0 0 0 0 0 0 0 0 0 0 0 0 0 0 0 0 0 55 56 56 56 57 57 58 58 57 55 55 55 55 55 55 54 53 52 51 51 50 48 47 45 45 43 42 41 40 39 38 39 39 38 38 38 38 37 38 36 35 37 36 37 34 35 34 32 33 34 31 31 27 30 25 25 24 22 21 20 20 20 19 19 15 15 16 21 21 21 21 21 21 28 32 32 -225 -225 -225 -225 -225 -225 -225 -225 -225 -225 -225 -225 -225 -225 -225 -225 -225 -225 -225 -225 -225 -225 -225 -225 -225 -225 -225 -225 -225 -225 -225 -225 -225 -225 -225 -225 -225 -225 -225 -225 -225 -225 -225 30 29 30 32 31 30 32 33 33 34 36 36 37 41 42 42 41 40 42 42 42 44 42 44 44 47 48 47 53 -193 258 57 61 60 60 62 63 63 61 64 65 61 65 66 63 67 70 70 71 72 74 75 76 75 75 74 84 -209 90 90 91 100 95 95 95 95 94 98 96 96 94 99 97 97 98 98 98 101 101 100 104 107 108 108 108 108 108 109 111 110 112 115 116 -193 122 123 125 125 127 127 128 129 128 129 130 129 131 131 132 133 134 137 137 138 139 141 143 -193 -193 -209 -177 -177 -193 -193 -193 -193 -177 0 0 0 0 0
    0 0 0 0 0 0 0 0 0 0 0 0 0 0 0 0 0 0 0 0 0 0 0 0 0 0 0 0 0 0 0 0 0 0 0 0 0 0 0 0 0 0 0 0 0 0 0 0 0 0 0 0 0 0 0 0 0 0 0 0 0 0 0 0 0 0 0 0 0 55 55 56 56 57 58 58 58 58 56 56 55 55 54 55 54 53 52 51 50 50 48 47 45 45 43 42 41 40 39 38 39 39 38 38 38 38 37 38 37 35 37 37 37 34 35 34 33 33 34 31 31 27 29 25 24 24 22 21 20 20 20 20 20 16 15 17 21 21 21 21 22 20 28 32 32 -225 -225 -225 -225 -225 -225 -225 -225 -225 -225 -225 -225 -225 -225 -225 -225 -225 -225 -225 -225 -225 -225 -225 -225 -225 -225 -225 -225 -225 -225 -225 -225 -225 -225 -225 -225 -225 -225 -225 -225 -225 -225 33 30 29 31 32 31 30 32 32 33 34 35 36 37 40 41 41 40 39 42 41 41 43 42 43 44 47 48 47 53 -193 258 57 61 60 60 62 63 63 61 64 64 61 64 66 63 66 70 71 71 73 75 76 77 77 77 76 85 -209 90 90 91 100 95 95 95 94 94 98 96 96 94 98 97 98 99 99 99 101 101 100 105 107 107 107 107 107 107 108 111 109 112 116 117 -209 123 123 125 125 127 127 128 129 128 129 130 129 131 130 132 133 133 -193 -209 -209 -209 -209 -209 -209 -193 -209 -177 -177 -209 -177 -209 -209 -177 0 0 0 0 0
    0 0 0 0 0 0 0 0 0 0 0 0 0 0 0 0 0 0 0 0 0 0 0 0 0 0 0 0 0 0 0 0 0 0 0 0 0 0 0 0 0 0 0 0 0 0 0 0 0 0 0 0 0 0 0 0 0 0 0 0 0 0 0 0 0 0 0 0 0 55 55 56 56 57 58 58 58 58 56 56 56 55 54 55 53 52 52 51 50 50 48 47 45 45 44 42 42 41 39 39 40 40 38 38 38 37 37 38 37 35 37 37 37 35 36 34 33 34 35 32 31 27 29 25 25 24 23 22 21 21 20 21 21 17 15 18 21 22 21 21 22 20 27 31 31 -225 -225 -225 -225 -225 -225 -225 -225 -225 -225 -225 -225 -225 -225 -225 -225 -225 -225 -225 -225 -225 -225 -225 -225 0 0 0 0 0 0 0 0 -225 -225 -225 -225 -225 -225 -225 -225 -225 -225 31 29 29 31 33 30 30 33 32 33 34 35 36 37 40 40 40 40 39 42 41 41 43 42 43 44 48 49 48 53 255 257 58 61 59 59 62 63 63 60 64 64 61 64 66 64 64 70 70 71 73 75 76 79 78 78 78 85 -209 89 90 89 99 94 94 94 94 94 98 96 96 95 98 97 98 100 100 100 102 101 100 105 106 107 105 106 107 107 108 111 108 113 116 118 -209 123 123 125 125 127 127 128 129 128 129 130 129 132 130 133 -193 -193 -209 19 -209 -177 -177 -209 -209 -209 -209 -177 331 -209 341 -209 -209 -177 0 0 0 0 0
    0 0 0 0 0 0 0 0 0 0 0 0 0 0 0 0 0 0 0 0 0 0 0 0 0 0 0 0 0 0 0 0 0 0 0 0 0 0 0 0 0 0 0 0 0 0 0 0 0 0 0 0 0 0 0 0 0 0 0 0 0 0 0 0 0 0 0 0 0 55 55 55 55 57 57 58 58 58 56 56 56 55 54 54 53 52 52 50 50 49 48 47 45 46 44 43 43 42 40 39 40 40 39 38 38 38 37 38 37 35 37 37 37 35 36 34 33 34 35 32 31 27 29 24 24 23 22 21 20 20 19 20 20 16 15 18 21 21 21 21 22 19 27 31 31 -225 -225 -225 -225 -225 -225 -225 -225 -225 -225 -225 -225 -225 -225 -225 -225 -225 -225 -225 -225 -225 -225 -225 0 0 0 0 0 0 0 0 0 0 -225 -225 -225 -225 -225 -225 -225 -225 -225 29 28 28 30 33 30 30 33 32 33 34 35 35 37 40 40 40 40 39 43 41 41 43 42 44 45 47 48 47 53 -193 256 58 61 60 60 61 63 63 60 63 63 60 64 65 64 63 70 70 70 73 76 77 81 80 82 82 86 -209 89 90 89 99 94 94 94 94 94 98 96 96 96 98 97 99 100 100 100 102 102 100 106 106 106 105 105 106 106 107 111 108 113 116 118 121 123 123 124 124 126 127 128 129 128 129 130 129 132 -193 -193 19 18 19 18 -209 -177 -177 -209 -209 -209 -209 -193 -209 -209 -209 -209 -209 -177 0 0 0 0 0
    0 0 0 0 0 0 0 0 0 0 0 0 0 0 0 0 0 0 0 0 0 0 0 0 0 0 0 0 0 0 0 0 0 0 0 0 0 0 0 0 0 0 0 0 0 0 0 0 0 0 0 0 0 0 0 0 0 0 0 0 0 0 0 0 0 0 0 0 0 54 55 55 55 56 57 58 58 58 56 56 56 55 54 54 52 51 51 49 49 48 47 47 45 45 44 43 43 43 40 39 40 40 39 38 38 38 37 37 37 35 37 36 37 34 35 34 33 33 35 32 31 27 29 25 25 24 22 22 21 20 20 20 21 16 16 18 21 21 21 21 21 19 27 30 30 -225 -225 -225 -225 -225 -225 -225 -225 -225 -225 -225 -225 -225 -225 -225 -225 -225 -225 -225 -225 -225 -225 -225 10 0 0 0 0 0 0 0 0 0 -225 -225 -225 -225 -225 -225 -225 -225 307 28 28 28 30 33 30 29 34 32 33 34 34 35 36 38 39 39 39 39 -193 -193 -193 42 42 44 44 47 48 47 53 -193 -193 58 61 59 60 61 64 62 60 62 62 60 63 64 64 62 69 70 70 73 76 77 83 81 83 82 86 88 89 89 89 99 94 93 93 93 94 97 96 95 96 97 97 99 101 101 101 102 101 100 106 106 106 105 105 106 106 107 111 108 113 116 118 121 123 123 124 124 126 127 128 130 128 129 130 129 131 -193 17 19 19 19 18 -209 -193 -209 -209 -209 -209 -209 -209 -209 -209 -209 -209 -209 -193 0 0 0 0 0
    0 0 0 0 0 0 0 0 0 0 0 0 0 0 0 0 0 0 0 0 0 0 0 0 0 0 0 0 0 0 0 0 0 0 0 0 0 0 0 0 0 0 0 0 0 0 0 0 0 0 0 0 0 0 0 0 0 0 0 0 0 0 0 0 0 0 0 0 0 54 54 55 55 56 57 58 58 57 56 56 55 54 53 53 51 50 50 48 48 48 47 47 45 45 44 43 43 42 40 39 40 40 39 39 38 38 37 38 37 35 36 36 37 34 35 34 33 33 34 32 31 28 30 25 26 24 23 23 22 21 21 21 22 16 16 19 21 21 21 21 21 19 27 29 29 -225 -225 -225 -225 -225 -225 -225 -225 -225 -225 -225 -225 -225 -225 -225 -225 -225 -225 -225 -225 -225 -225 0 11 0 9 0 0 0 0 0 9 0 9 -225 -225 -225 -225 -225 -225 -225 307 28 28 27 29 32 29 29 34 32 33 33 33 34 36 38 38 38 -193 38 -193 -193 -193 41 41 43 43 46 47 46 53 57 57 58 61 60 60 60 64 62 59 62 61 59 62 64 64 60 69 69 70 73 76 78 84 81 83 83 86 88 89 89 89 98 93 93 93 93 93 96 95 95 96 96 97 98 100 100 100 101 100 99 106 106 106 103 104 105 106 107 111 107 112 116 118 121 123 122 124 123 126 126 128 130 128 129 131 129 -209 19 17 19 19 19 -193 -209 -209 -209 -209 -209 -209 -209 -209 -193 152 -209 -193 779 -193 0 0 0 0 0
    0 0 0 0 0 0 0 0 0 0 0 0 0 0 0 0 0 0 0 0 0 0 0 0 0 0 0 0 0 0 0 0 0 0 0 0 0 0 0 0 0 0 0 0 0 0 0 0 0 0 0 0 0 0 0 0 0 0 0 0 0 0 0 0 0 0 0 0 0 54 54 55 55 57 58 59 59 57 55 55 54 53 51 52 50 49 49 48 48 47 47 47 45 46 45 43 44 43 41 39 40 40 39 39 38 38 37 38 37 35 37 36 37 34 35 34 33 34 34 32 32 28 30 26 25 24 23 23 21 21 20 21 21 16 17 19 21 22 22 21 21 19 26 29 29 -225 -225 -225 -225 -225 -225 -225 -225 -225 -225 -225 -225 -225 -225 -225 -225 -225 -225 -225 -225 -225 -225 0 12 0 10 9 0 0 0 9 9 0 0 0 0 -225 -225 -225 -225 -225 -193 27 27 26 29 31 29 28 34 32 33 33 33 34 35 37 37 37 37 37 40 39 39 39 41 41 42 46 46 46 53 58 57 59 62 60 60 60 64 61 59 61 60 58 61 63 64 59 68 68 69 72 75 78 84 82 84 84 87 89 89 88 88 95 91 91 91 91 91 94 94 94 95 96 97 98 -193 100 100 101 100 99 106 106 106 -193 105 106 106 108 112 107 112 115 117 120 122 122 123 123 126 126 128 129 128 129 131 -193 -193 19 17 19 18 19 -193 -193 -177 -193 -193 -209 -209 -209 -209 -193 -209 -193 -193 780 -193 0 0 0 0 0
    0 0 0 0 0 0 0 0 0 0 0 0 0 0 0 0 0 0 0 0 0 0 0 0 0 0 0 0 0 0 0 0 0 0 0 0 0 0 0 0 0 0 0 0 0 0 0 0 0 0 0 0 0 0 0 0 0 0 0 0 0 0 0 0 0 0 0 0 0 54 55 55 55 57 58 59 59 57 55 54 53 52 50 51 50 48 49 47 47 47 47 47 45 46 45 43 45 43 41 39 39 40 39 38 38 38 37 38 37 36 37 36 37 34 35 34 33 33 34 32 32 28 31 26 26 25 24 24 22 22 21 22 22 18 17 19 21 22 22 22 21 19 26 29 29 -225 -225 -225 -225 -225 -225 -225 -225 -225 -225 -225 -225 -225 -225 -225 -225 -225 -225 -225 -225 -225 -225 0 13 0 10 9 9 9 0 9 9 0 0 0 0 -225 -225 -225 -225 29 28 27 27 27 29 31 28 28 34 32 32 33 33 34 36 37 37 37 37 37 39 39 39 38 40 40 41 45 46 45 53 58 58 59 61 59 59 59 63 61 58 60 60 58 61 64 64 59 68 69 70 72 75 77 82 82 83 85 86 87 88 86 87 91 89 89 89 89 89 -177 -193 93 95 96 97 99 613 101 100 101 101 100 106 106 106 -193 105 106 106 108 111 108 111 114 117 119 121 121 123 123 126 126 128 129 128 129 130 -193 -193 19 17 19 18 19 -193 -193 -193 -193 -209 -209 -209 -209 -209 -193 -193 -193 -193 780 -193 0 0 0 0 0
    0 0 0 0 0 0 0 0 0 0 0 0 0 0 0 0 0 0 0 0 0 0 0 0 0 0 0 0 0 0 0 0 0 0 0 0 0 0 0 0 0 0 0 0 0 0 0 0 0 0 0 0 0 0 0 0 0 0 0 0 0 0 0 0 0 0 0 0 0 55 55 56 56 57 58 59 59 57 54 54 53 52 50 50 50 48 49 47 47 47 47 47 46 45 46 44 45 43 41 39 39 40 39 38 38 38 37 38 37 36 37 36 37 34 35 34 33 33 34 32 32 28 31 26 26 25 24 24 23 22 22 22 22 19 18 20 22 22 22 22 21 20 26 29 29 -225 -225 -225 -225 -225 -225 -225 -225 -225 -225 -225 -225 -225 -225 -225 -225 -225 -225 -225 -225 -225 -225 0 13 9 10 9 9 9 0 9 9 0 0 0 0 0 -225 -225 -225 28 27 27 27 27 29 30 28 28 35 33 32 32 32 34 36 36 36 36 36 37 38 38 39 38 40 41 42 45 47 46 53 57 58 59 61 58 58 59 63 61 58 59 59 -193 62 64 65 59 68 70 71 72 74 76 81 82 84 85 85 87 88 87 87 90 88 88 88 88 -193 -177 -193 92 94 96 98 99 -177 101 101 102 102 101 106 106 106 -193 105 105 106 107 111 107 111 114 115 118 120 120 123 123 126 126 129 130 129 129 130 -193 -193 19 17 18 -193 -193 -193 79 -193 -193 -193 -209 -209 -209 -209 -193 150 150 151 -193 -193 0 0 0 0 0
    0 0 0 0 0 0 0 0 0 0 0 0 0 0 0 0 0 0 0 0 0 0 0 0 0 0 0 0 0 0 0 0 0 0 0 0 0 0 0 0 0 0 0 0 0 0 0 0 0 0 0 0 0 0 0 0 0 0 0 0 0 0 0 0 0 0 0 0 0 55 56 56 56 58 58 59 59 57 54 54 53 52 49 50 50 47 48 47 47 47 46 47 46 45 46 44 45 43 41 40 40 40 39 38 38 38 37 37 37 35 37 36 37 34 35 34 33 33 34 32 32 28 31 26 26 25 24 24 23 22 22 22 21 19 19 20 22 23 22 22 22 20 27 29 29 -225 -225 -225 -225 -225 -225 -225 -225 -225 -225 -225 -225 -225 -225 -225 -225 -225 -225 -225 -225 -225 -225 0 12 0 9 0 0 0 0 9 9 0 0 0 0 0 -225 -225 -225 27 27 27 27 28 28 29 28 28 35 33 32 33 32 34 36 36 36 36 35 37 38 39 40 39 41 42 42 46 48 48 53 57 58 59 61 58 58 58 62 60 58 366 -193 -193 61 64 65 59 68 70 70 72 74 76 83 83 84 85 84 86 86 85 86 88 87 86 86 87 87 -177 -177 91 94 96 99 100 -193 102 -193 102 103 -193 106 106 106 -193 105 105 106 107 111 107 111 113 115 117 119 120 123 122 126 126 129 130 129 129 -193 -209 -209 19 16 -193 -193 -193 -193 78 -193 79 -193 -193 -209 147 -193 148 150 150 151 152 153 0 0 0 0 0
    0 0 0 0 0 0 0 0 0 0 0 0 0 0 0 0 0 0 0 0 0 0 0 0 0 0 0 0 0 0 0 0 0 0 0 0 0 0 0 0 0 0 0 0 0 0 0 0 0 0 0 0 0 0 0 0 0 0 0 0 0 0 0 0 0 0 0 0 0 55 56 57 56 57 58 59 59 57 55 54 53 52 49 49 50 47 47 47 47 47 46 46 46 45 45 44 46 43 42 40 40 40 40 39 38 38 38 38 37 35 37 36 37 34 35 33 33 33 34 31 32 28 31 27 26 25 24 24 23 22 22 22 21 19 18 20 21 23 23 22 21 21 26 28 28 -225 -225 -225 -225 -225 -225 -225 -225 -225 -225 -225 -225 -225 -225 -225 -225 -225 -225 -225 -225 -225 0 0 13 9 10 9 9 9 9 10 10 0 0 0 0 0 -225 -225 -193 27 27 27 27 29 28 28 27 27 35 33 32 33 31 34 36 36 36 36 35 37 38 -177 41 40 41 42 -193 46 49 49 53 56 58 59 60 58 58 57 61 -193 -193 366 369 -193 61 64 64 60 68 70 70 71 74 78 83 83 84 84 85 86 87 85 86 88 86 86 85 86 86 -177 -177 90 93 97 100 101 -193 102 -177 -193 -193 -209 106 106 106 -193 106 106 106 108 110 107 110 113 114 116 118 119 122 121 126 126 129 130 129 -193 -193 -209 -209 -209 -193 -209 -193 -209 -193 -177 -177 -177 -193 146 146 147 148 148 149 150 150 152 153 0 0 0 0 0
    0 0 0 0 0 0 0 0 0 0 0 0 0 0 0 0 0 0 0 0 0 0 0 0 0 0 0 0 0 0 0 0 0 0 0 0 0 0 0 0 0 0 0 0 0 0 0 0 0 0 0 0 0 0 0 0 0 0 0 0 0 0 0 0 0 0 0 0 0 55 56 57 56 58 58 59 59 58 55 54 53 52 49 49 49 47 47 46 46 46 45 46 46 44 45 44 46 43 43 40 40 40 40 40 39 39 38 38 37 35 37 36 36 34 35 33 33 33 33 31 32 28 31 27 26 25 24 24 23 22 22 22 21 19 19 20 21 23 23 22 21 21 26 28 28 -225 -225 -225 -225 -225 -225 -225 -225 -225 -225 -225 -225 -225 -225 -225 -225 -225 -225 -225 -225 -225 0 0 15 10 11 10 10 10 10 11 11 0 0 0 0 0 -225 -225 -193 26 26 26 27 30 28 29 28 28 34 33 32 33 31 34 36 36 36 36 35 37 -177 -177 41 39 41 41 -177 45 49 49 53 56 57 58 60 57 57 57 61 -193 364 366 369 -193 61 64 64 60 69 70 71 73 75 79 83 83 83 84 85 87 86 86 86 88 85 85 85 85 85 -177 -177 -193 93 97 100 101 -209 -193 -177 -193 -193 -209 106 106 106 -193 106 106 107 108 110 107 110 112 113 116 118 119 121 120 126 125 128 130 129 -209 -209 -193 -209 -193 -209 -209 -193 -193 -193 -177 -177 -193 144 145 145 147 147 148 149 150 151 152 153 0 0 0 0 0
    0 0 0 0 0 0 0 0 0 0 0 0 0 0 0 0 0 0 0 0 0 0 0 0 0 0 0 0 0 0 0 0 0 0 0 0 0 0 0 0 0 0 0 0 0 0 0 0 0 0 0 0 0 0 0 0 0 0 0 0 0 0 0 0 0 0 0 0 0 56 56 57 56 57 58 59 58 57 55 54 52 52 49 49 49 47 47 46 46 46 45 46 46 44 44 43 44 42 42 40 40 40 40 39 39 39 39 39 37 35 37 36 37 34 35 33 33 33 33 31 31 28 31 27 25 25 24 24 23 22 22 22 20 20 19 20 22 22 23 22 21 21 26 27 27 -225 -225 -225 -225 -225 -225 -225 -225 -225 -225 -225 -225 -225 -225 -225 -225 -225 -225 -225 -225 -225 0 0 16 11 12 11 11 11 10 11 12 0 0 0 0 -193 -209 -209 -193 -193 25 26 26 32 28 29 29 29 34 33 32 33 31 34 36 36 36 37 36 37 36 -177 41 40 41 41 -193 45 50 50 53 55 57 58 59 56 56 56 60 -193 -193 365 368 -193 61 64 64 60 69 70 72 74 75 79 82 83 83 83 84 86 86 85 86 87 84 84 84 84 84 -177 -177 -193 92 97 101 101 -209 -193 -177 -193 -193 -209 -193 106 106 -193 106 106 107 108 109 107 109 112 113 115 118 119 121 120 127 125 128 129 -193 -209 -193 -193 -193 734 -193 -209 -209 -209 -193 -177 -177 -193 142 145 144 146 147 147 148 150 150 152 153 0 0 0 0 0
    0 0 0 0 0 0 0 0 0 0 0 0 0 0 0 0 0 0 0 0 0 0 0 0 0 0 0 0 0 0 0 0 0 0 0 0 0 0 0 0 0 0 0 0 0 0 0 0 0 0 0 0 0 0 0 0 0 0 0 0 0 0 0 0 0 0 0 0 0 56 57 57 56 57 58 58 58 57 54 53 52 52 48 48 49 47 47 46 46 46 45 46 46 44 44 43 44 41 42 40 40 40 39 39 39 39 39 39 37 35 37 37 37 34 35 33 32 33 33 31 31 27 30 26 24 24 24 24 23 22 22 22 20 20 19 21 22 22 23 22 22 21 26 26 26 -225 -225 -225 -225 -225 -225 -225 -225 -225 -225 -225 -225 -225 -225 -225 -225 -225 -225 -225 -225 -225 0 0 16 11 12 11 12 11 11 12 12 0 0 0 -193 -193 -193 278 -177 -177 24 25 26 32 28 28 30 30 33 33 32 34 31 34 36 35 37 37 36 38 37 -177 43 41 42 42 43 45 50 49 52 55 55 57 58 55 -177 55 59 -193 57 364 367 59 61 65 65 60 69 71 73 74 76 79 82 82 83 83 84 86 86 85 85 87 84 84 84 84 83 -193 -177 -193 -193 96 100 101 -193 724 724 -193 -193 -193 -209 105 105 -193 -193 105 107 107 108 106 108 112 113 -193 -193 -209 -193 120 127 124 127 127 -193 -193 -193 -209 -209 -193 -193 -209 -209 -209 -193 -177 -177 -193 141 144 143 146 147 147 148 150 150 152 153 0 0 0 0 0
    0 0 0 0 0 0 0 0 0 0 0 0 0 0 0 0 0 0 0 0 0 0 0 0 0 0 0 0 0 0 0 0 0 0 0 0 0 0 0 0 0 0 0 0 0 0 0 0 0 0 0 0 0 0 0 0 0 0 0 0 0 0 0 0 0 0 0 0 0 56 57 57 56 57 57 58 57 56 54 53 52 52 49 48 49 47 47 46 46 46 45 45 46 44 44 43 43 42 42 41 41 40 40 40 39 39 40 39 37 34 37 37 37 34 35 33 32 32 33 31 31 27 30 26 24 24 24 24 23 22 22 21 20 20 20 21 22 22 22 22 21 20 25 25 25 -225 -225 -225 -225 -225 -225 -225 -225 -225 -225 -225 -225 -225 -225 -225 -225 -225 -225 -225 -225 -225 0 0 13 10 11 11 10 10 10 11 11 0 0 0 -193 -177 -193 275 -177 -177 23 25 27 34 29 29 31 30 33 33 32 34 31 33 36 35 37 37 37 39 38 42 44 42 43 43 43 46 50 48 52 54 54 55 56 54 -177 55 58 58 56 58 59 59 61 65 65 61 70 71 72 73 75 78 80 81 81 83 84 86 86 85 85 87 84 83 83 83 83 84 -193 87 90 96 100 101 -193 723 723 -193 -193 -193 -209 -193 105 -177 -193 105 106 107 107 106 -193 -193 -193 77 -193 -209 -193 121 127 124 127 126 -193 -193 -209 -193 -209 -209 -209 -209 -209 -209 -209 -193 -193 140 141 143 143 146 147 147 148 150 151 152 153 0 0 0 0 0
    0 0 0 0 0 0 0 0 0 0 0 0 0 0 0 0 0 0 0 0 0 0 0 0 0 0 0 0 0 0 0 0 0 0 0 0 0 0 0 0 0 0 0 0 0 0 0 0 0 0 0 0 0 0 0 0 0 0 0 0 0 0 0 0 0 0 0 0 0 56 57 56 56 57 57 57 57 56 54 54 53 53 50 49 49 48 47 46 46 46 44 44 45 43 43 42 42 41 41 41 42 41 41 40 40 40 40 39 37 34 37 37 36 34 35 33 32 32 32 31 30 26 29 26 24 24 24 24 -193 22 23 21 20 21 20 21 22 21 21 21 21 20 24 24 24 -225 -225 -225 -225 -225 -225 -225 -225 -225 -225 -225 -225 -225 -225 -225 -225 -225 -225 -225 -225 -225 0 0 12 11 11 11 11 11 11 12 12 9 0 0 -193 -193 -193 274 -177 -193 23 26 27 34 29 29 32 30 32 32 31 34 30 33 35 34 36 37 36 38 37 42 44 43 43 43 44 46 50 48 52 54 53 54 55 54 -177 54 -193 58 56 58 60 60 61 65 66 62 70 71 72 73 75 78 80 80 81 83 84 86 85 85 85 87 83 83 83 83 83 85 86 87 89 96 100 101 -177 723 723 -177 -193 -193 -193 -193 -193 -177 -193 105 106 107 106 -209 -193 -193 78 76 -193 -193 -193 122 128 124 127 126 -193 -193 -193 -193 -193 -209 -209 -209 -193 -209 -209 -193 -193 140 142 145 145 147 149 148 149 151 151 153 153 0 0 0 0 0
    0 0 0 0 0 0 0 0 0 0 0 0 0 0 0 0 0 0 0 0 0 0 0 0 0 0 0 0 0 0 0 0 0 0 0 0 0 0 0 0 0 0 0 0 0 0 0 0 0 0 0 0 0 0 0 0 0 0 0 0 0 0 0 0 0 0 0 0 0 56 56 56 56 56 56 56 56 55 54 54 54 53 50 48 49 48 46 46 45 45 44 43 44 42 41 42 42 41 41 41 42 41 41 41 40 40 40 39 37 34 36 37 36 34 34 33 32 32 32 31 30 26 29 26 24 24 24 24 -193 22 23 21 19 20 20 21 21 19 20 19 20 19 23 23 21 -225 -225 -225 -225 -225 -225 -225 -225 -225 -225 -225 -225 -225 -225 -225 -225 -225 -225 -225 -225 -225 0 0 12 11 12 12 12 12 12 13 12 10 9 0 -177 -209 275 274 -177 22 24 26 27 33 28 28 32 30 31 31 30 33 30 32 35 34 37 37 37 38 39 42 45 43 44 43 44 46 50 47 51 54 52 53 54 54 -177 54 -193 57 57 59 61 60 62 65 66 62 70 71 72 73 75 78 80 81 81 83 84 86 85 86 86 87 84 84 84 84 83 86 87 87 89 96 99 100 -177 723 723 -177 -193 -193 -193 -193 105 -177 107 105 107 107 105 -209 80 75 77 76 -193 -177 -209 123 128 124 127 126 126 -193 -193 128 128 -193 -193 -209 128 135 136 139 140 141 143 146 146 148 149 149 150 152 152 154 154 0 0 0 0 0
    0 0 0 0 0 0 0 0 0 0 0 0 0 0 0 0 0 0 0 0 0 0 0 0 0 0 0 0 0 0 0 0 0 0 0 0 0 0 0 0 0 0 0 0 0 0 0 0 0 0 0 0 0 0 0 0 0 0 0 0 0 0 0 0 0 0 0 0 0 56 56 55 55 55 55 55 55 54 53 53 53 53 51 48 48 48 45 45 44 45 43 42 43 42 41 42 41 41 40 41 42 41 41 41 40 40 40 39 37 34 35 37 36 33 34 33 31 31 32 31 30 26 29 26 24 24 24 24 -193 22 23 21 19 20 20 20 21 18 18 17 19 19 21 21 19 -225 -225 -225 -225 -225 -225 -225 -225 -225 -225 -225 -225 -225 -225 -225 -225 -225 -225 -225 -225 0 0 0 12 11 12 12 12 12 12 13 12 10 9 -193 -193 -193 273 -177 -177 23 25 26 28 32 28 28 32 29 30 30 30 33 29 32 34 34 37 38 37 38 41 43 45 44 44 44 45 46 49 45 50 53 50 51 54 54 -177 54 -193 57 57 60 62 62 62 66 66 63 69 70 71 73 75 78 79 80 80 82 83 85 84 84 84 86 84 84 84 83 83 86 87 88 89 96 98 99 -177 723 722 -177 -193 -193 -177 106 106 -193 107 105 107 107 -193 -209 81 76 77 76 -177 -177 -193 123 129 124 127 126 127 -193 126 129 129 126 131 131 130 136 137 139 141 142 144 146 146 148 149 149 150 152 152 154 155 0 0 0 0 0
    0 0 0 0 0 0 0 0 0 0 0 0 0 0 0 0 0 0 0 0 0 0 0 0 0 0 0 0 0 0 0 0 0 0 0 0 0 0 0 0 0 0 0 0 0 0 0 0 0 0 0 0 0 0 0 0 0 0 0 0 0 0 0 0 0 0 0 0 0 56 56 55 55 55 55 54 54 54 53 53 53 53 51 48 48 49 45 45 44 45 43 42 42 42 41 41 41 40 39 40 41 41 41 40 40 40 40 39 37 34 35 37 36 33 34 32 31 31 31 31 29 26 29 26 24 24 24 24 -193 23 23 21 18 19 20 20 20 17 17 15 17 18 19 19 18 -225 -225 -225 -225 -225 -225 -225 -225 -225 -225 -225 -225 -225 -225 -225 -225 -225 -225 -225 -225 0 0 0 10 11 11 11 12 12 12 12 11 10 9 -193 -177 -193 -177 -177 -193 22 24 26 27 29 28 28 31 29 29 30 29 32 29 31 34 33 37 38 38 39 42 44 46 45 45 44 45 46 49 45 50 53 49 50 53 54 -177 54 58 -177 57 60 63 62 62 65 66 62 70 70 71 73 75 78 78 79 79 82 83 85 84 85 84 87 85 85 85 85 85 87 88 88 89 95 96 98 -177 722 722 717 716 715 -177 106 106 -193 107 105 107 107 -193 -209 83 77 77 76 -177 -177 -193 124 129 124 127 125 126 127 126 129 130 127 132 132 134 137 138 140 141 142 144 146 146 148 149 150 151 153 154 156 156 0 0 0 0 0
    0 0 0 0 0 0 0 0 0 0 0 0 0 0 0 0 0 0 0 0 0 0 0 0 0 0 0 0 0 0 0 0 0 0 0 0 0 0 0 0 0 0 0 0 0 0 0 0 0 0 0 0 0 0 0 0 0 0 0 0 0 0 0 0 0 0 0 0 0 56 56 55 55 55 55 54 54 54 52 52 53 53 51 48 48 49 46 45 45 46 43 41 42 41 41 41 40 39 39 40 40 40 40 38 39 39 39 39 37 34 35 37 36 33 34 32 31 31 31 31 29 26 28 25 24 24 24 24 -193 23 23 21 18 19 20 20 20 16 16 14 16 17 18 18 17 -225 -225 -225 -225 -225 -225 -225 -225 -225 -225 -225 -225 -225 -225 -225 -225 -225 -225 -225 -225 0 0 0 9 10 11 11 11 11 12 12 11 10 9 -193 -177 -209 -193 -193 20 23 23 25 26 28 27 28 30 29 29 30 30 32 30 31 33 32 36 38 38 39 43 44 46 46 46 45 46 46 48 44 48 53 48 49 53 54 -177 54 58 -177 57 61 63 63 62 66 66 62 69 70 71 73 75 76 77 77 77 82 82 83 82 83 83 86 85 86 85 86 87 88 90 89 90 95 95 97 -177 722 721 716 716 715 -177 106 106 -193 107 105 107 107 105 -209 83 76 77 75 -177 -177 -193 125 130 125 127 126 127 127 127 130 130 128 133 134 137 138 139 140 141 142 143 145 146 148 149 150 152 155 155 157 157 0 0 0 0 0
    0 0 0 0 0 0 0 0 0 0 0 0 0 0 0 0 0 0 0 0 0 0 0 0 0 0 0 0 0 0 0 0 0 0 0 0 0 0 0 0 0 0 0 0 0 0 0 0 0 0 0 0 0 0 0 0 0 0 0 0 0 0 0 0 0 0 0 0 0 56 56 56 56 55 55 54 54 53 52 52 52 52 51 48 48 48 46 46 45 46 44 41 42 41 41 40 40 40 39 39 40 39 39 37 38 39 39 38 37 34 35 37 36 33 33 32 31 30 31 31 28 26 28 25 24 24 24 24 25 23 23 21 18 18 19 19 20 15 15 13 15 16 17 17 16 -225 -225 -225 -225 -225 -225 -225 -225 -225 -225 -225 -225 -225 -225 -225 -225 -225 -225 -225 -225 0 0 10 10 11 11 11 11 11 11 11 10 10 0 -193 -193 9 -193 -193 22 23 23 25 26 27 28 27 29 29 28 30 30 31 30 31 33 32 35 37 38 41 44 45 46 47 46 46 47 46 48 43 47 53 48 48 52 54 -177 54 58 -177 58 61 64 63 62 66 66 62 69 70 71 72 74 75 76 76 76 80 81 81 82 82 83 86 86 86 86 87 88 89 91 90 90 94 95 96 -177 721 721 716 715 715 -177 105 105 -193 107 -193 106 106 -193 -193 84 76 77 75 -177 -177 -193 125 130 125 127 126 127 127 127 130 130 129 133 134 137 138 139 141 141 142 143 145 146 148 150 151 152 156 155 158 157 0 0 0 0 0
    0 0 0 0 0 0 0 0 0 0 0 0 0 0 0 0 0 0 0 0 0 0 0 0 0 0 0 0 0 0 0 0 0 0 0 0 0 0 0 0 0 0 0 0 0 0 0 0 0 0 0 0 0 0 0 0 0 0 0 0 0 0 0 0 0 0 0 0 0 56 56 56 56 56 56 54 55 54 52 51 52 51 52 48 49 48 46 46 45 47 44 41 42 41 41 41 41 40 39 39 40 39 39 37 38 38 39 38 36 34 34 37 36 33 33 32 31 30 31 31 28 26 28 26 25 24 24 24 25 23 23 21 18 18 18 18 20 15 15 13 15 16 16 16 16 -225 -225 -225 -225 -225 -225 -225 -225 -225 -225 -225 -225 -225 -225 -225 -225 -225 -225 -225 27 0 0 15 11 11 12 11 11 11 11 12 10 10 9 10 -193 11 15 -193 24 25 25 25 27 27 28 27 28 28 28 30 29 30 30 31 34 34 36 38 38 41 45 45 45 47 46 46 47 46 48 43 48 53 48 48 52 55 55 55 59 58 58 61 64 64 62 65 66 62 70 71 70 71 73 74 74 74 73 77 79 80 81 82 83 86 88 88 88 89 90 91 93 91 91 94 94 96 -177 -193 721 -193 -193 -193 -193 -209 105 -177 106 -193 106 106 105 -193 84 76 77 76 -177 -177 -193 125 129 125 127 125 127 127 127 129 129 128 133 133 137 138 140 141 141 142 144 146 146 148 150 151 153 157 156 158 158 0 0 0 0 0
    0 0 0 0 0 0 0 0 0 0 0 0 0 0 0 0 0 0 0 0 0 0 0 0 0 0 0 0 0 0 0 0 0 0 0 0 0 0 0 0 0 0 0 0 0 0 0 0 0 0 0 0 0 0 0 0 0 0 0 0 0 0 0 0 0 0 0 0 0 56 56 57 57 56 56 55 56 55 53 52 52 52 52 48 49 48 46 46 45 46 44 42 41 40 41 41 41 40 40 39 39 39 39 36 37 38 38 37 36 33 34 37 36 33 33 32 31 30 31 31 28 26 28 26 25 25 25 24 25 23 23 20 18 18 18 17 19 15 15 12 14 16 16 16 16 -225 -225 -225 -225 -225 -225 -225 -225 -225 -225 -225 -225 -225 -225 -225 -225 -225 -225 20 18 0 0 12 9 10 11 11 11 11 11 11 10 10 9 -193 -177 10 14 -193 23 25 24 25 27 27 28 27 27 28 28 30 29 30 30 32 34 35 36 38 38 41 46 45 45 46 46 46 47 47 49 43 48 54 48 48 52 55 55 55 59 58 58 62 64 64 62 66 66 62 70 70 70 71 72 73 73 73 72 76 80 79 81 82 83 86 90 89 89 90 91 93 94 92 92 95 95 96 -193 99 721 -193 -193 -193 -193 -193 104 -177 106 -193 106 106 105 -193 -193 -193 78 76 -177 -177 -193 125 129 125 127 125 127 127 127 129 129 127 132 132 138 139 142 142 143 143 145 147 147 149 150 151 154 157 157 159 158 0 0 0 0 0
    0 0 0 0 0 0 0 0 0 0 0 0 0 0 0 0 0 0 0 0 0 0 0 0 0 0 0 0 0 0 0 0 0 0 0 0 0 0 0 0 0 0 0 0 0 0 0 0 0 0 0 0 0 0 0 0 0 0 0 0 0 0 0 0 0 0 0 0 0 56 56 56 56 56 56 55 56 55 54 54 54 53 53 49 50 48 46 46 45 46 45 42 42 41 42 41 41 41 40 39 39 39 38 35 36 37 37 36 36 33 33 37 36 33 33 32 31 31 31 31 28 26 29 27 26 25 26 25 25 23 23 21 19 18 18 16 19 15 16 12 14 16 16 16 16 -225 -225 -225 -225 -225 -225 -225 -225 -225 -225 -225 -225 -225 -225 -225 -225 20 22 18 15 11 10 13 10 11 12 11 11 12 12 11 11 11 10 12 -193 11 14 -193 23 24 24 25 26 27 28 27 26 28 28 30 30 30 31 32 35 35 35 38 37 41 45 44 44 45 46 47 48 47 49 44 49 54 48 48 52 55 55 56 59 59 59 62 64 65 62 66 66 63 70 70 69 70 71 71 71 72 73 75 79 79 81 82 83 86 92 90 90 91 92 94 96 93 93 95 95 96 -193 98 721 -193 -193 -193 -193 -193 103 -193 105 103 106 106 106 106 -193 -193 78 76 -177 -177 -193 123 128 124 126 125 126 126 127 128 128 126 132 132 139 140 143 143 143 144 146 147 147 148 149 150 153 156 157 159 159 0 0 0 0 0
    0 0 0 0 0 0 0 0 0 0 0 0 0 0 0 0 0 0 0 0 0 0 0 0 0 0 0 0 0 0 0 0 0 0 0 0 0 0 0 0 0 0 0 0 0 0 0 0 0 0 0 0 0 0 0 0 0 0 0 0 0 0 0 0 0 0 0 0 0 56 56 56 56 56 57 56 57 56 55 54 55 54 54 50 51 48 46 46 45 46 45 44 43 42 42 42 42 42 41 41 39 39 38 35 37 37 37 37 36 33 33 37 36 33 33 33 31 31 31 31 29 27 29 27 26 25 26 24 24 23 23 20 19 18 17 16 19 16 16 13 14 16 16 16 16 -225 -225 -225 -225 -225 -225 -225 -225 -225 -225 -225 -225 -225 -225 -225 23 15 19 12 10 0 0 0 0 0 10 9 10 11 10 10 10 11 10 12 11 12 15 -193 24 25 24 24 26 27 28 27 26 28 28 30 31 30 31 33 34 35 35 38 37 40 45 44 44 45 47 48 48 47 50 44 49 54 48 48 52 -193 56 56 60 59 59 62 64 65 62 66 65 63 70 70 69 70 69 70 71 73 73 75 78 79 81 82 83 86 93 91 91 92 93 96 97 94 94 95 95 96 99 98 722 -193 -193 -193 -193 -193 103 -193 105 101 105 106 106 106 107 109 -193 -193 77 -193 -193 122 127 123 125 125 126 125 126 127 127 125 131 132 139 141 144 143 144 144 146 146 147 146 148 148 152 154 155 158 158 0 0 0 0 0
    0 0 0 0 0 0 0 0 0 0 0 0 0 0 0 0 0 0 0 0 0 0 0 0 0 0 0 0 0 0 0 0 0 0 0 0 0 0 0 0 0 0 0 0 0 0 0 0 0 0 0 0 0 0 0 0 0 0 0 0 0 0 0 0 0 0 0 0 0 56 56 57 57 57 57 57 57 57 57 56 56 55 54 50 51 49 47 46 45 46 45 45 43 42 43 42 42 42 42 41 39 39 39 36 37 38 38 37 37 34 34 37 36 33 33 33 31 31 32 32 29 27 29 27 26 25 26 24 24 22 23 20 19 18 17 15 19 16 16 13 13 16 16 16 16 -225 -225 -225 -225 -225 -225 -225 -225 -225 -225 -225 -225 -225 -225 22 22 18 18 14 13 11 10 9 0 0 0 0 0 0 0 0 9 10 10 13 12 12 17 24 24 25 24 24 26 27 28 28 26 28 28 31 31 30 32 33 34 35 34 37 37 38 43 44 43 45 47 48 48 46 50 44 49 54 49 48 52 56 56 57 60 59 59 62 65 66 62 66 64 63 70 70 70 69 68 70 70 73 74 76 77 79 81 83 84 87 95 92 92 92 93 96 98 95 95 95 95 96 99 98 722 -193 -193 -193 -193 -193 102 -193 104 100 105 106 107 107 108 110 111 115 -193 -193 -209 -193 126 123 125 124 125 125 126 125 126 124 130 130 139 140 143 142 143 143 145 146 147 145 147 146 150 152 154 156 157 0 0 0 0 0
    0 0 0 0 0 0 0 0 0 0 0 0 0 0 0 0 0 0 0 0 0 0 0 0 0 0 0 0 0 0 0 0 0 0 0 0 0 0 0 0 0 0 0 0 0 0 0 0 0 0 0 0 0 0 0 0 0 0 0 0 0 0 0 0 0 0 0 0 0 56 57 57 57 58 58 58 58 59 59 57 58 57 55 51 51 49 46 46 45 45 45 45 43 42 43 42 42 42 42 41 38 39 39 37 38 38 39 38 37 35 34 37 36 33 33 33 32 31 32 32 29 27 28 27 26 25 26 23 23 22 22 20 19 18 17 14 19 16 16 13 13 16 16 16 16 -225 -225 -225 -225 -225 -225 -225 -225 -225 -225 -225 -225 -225 -225 21 21 17 16 12 11 9 9 0 0 0 0 0 0 0 0 0 10 10 10 13 13 14 18 25 25 26 24 24 26 26 28 27 25 28 28 30 31 30 32 33 34 35 33 37 36 37 -193 43 42 43 46 47 47 46 50 44 49 54 49 48 52 56 56 57 59 59 59 62 64 65 61 66 63 63 70 70 70 68 68 70 71 74 75 76 78 79 81 83 84 87 96 92 92 92 93 97 98 95 95 95 95 96 99 97 722 97 99 99 98 101 101 -193 103 100 106 107 108 109 110 113 114 116 118 116 -209 -193 126 122 124 123 124 124 125 125 125 123 128 129 -193 -193 142 141 143 143 -193 146 -193 -193 146 144 149 151 152 154 155 0 0 0 0 0
    0 0 0 0 0 0 0 0 0 0 0 0 0 0 0 0 0 0 0 0 0 0 0 0 0 0 0 0 0 0 0 0 0 0 0 0 0 0 0 0 0 0 0 0 0 0 0 0 0 0 0 0 0 0 0 0 0 0 0 0 0 0 0 0 0 0 0 0 0 56 56 57 57 57 57 58 58 59 59 58 58 57 56 52 51 48 46 45 45 45 45 45 43 42 43 42 42 42 42 41 38 40 39 38 39 39 39 38 37 35 34 37 36 33 33 34 32 31 32 32 29 27 29 28 26 26 27 23 23 21 22 20 19 18 17 14 19 16 15 13 13 15 16 16 16 -225 -225 -225 -225 -225 -225 -225 -225 -225 -225 -225 -225 -225 -225 21 20 17 17 13 12 10 10 0 0 0 0 0 0 0 9 9 10 10 10 14 14 13 18 24 24 26 24 24 26 26 27 27 -193 -193 -193 30 31 31 32 33 34 35 33 37 36 36 -193 42 41 43 45 46 46 45 49 44 48 54 48 48 52 -193 56 58 59 59 59 62 64 66 61 66 62 64 69 70 70 68 68 70 71 75 76 77 78 80 81 83 84 87 96 92 92 92 93 96 98 96 96 96 96 96 99 97 98 96 98 98 96 100 100 -193 101 98 106 108 108 109 110 112 113 116 117 116 -209 121 125 122 124 123 124 124 125 125 125 124 128 130 -193 14 -193 141 143 -193 -193 -193 -193 -193 -193 143 149 149 151 153 154 0 0 0 0 0
    0 0 0 0 0 0 0 0 0 0 0 0 0 0 0 0 0 0 0 0 0 0 0 0 0 0 0 0 0 0 0 0 0 0 0 0 0 0 0 0 0 0 0 0 0 0 0 0 0 0 0 0 0 0 0 0 0 0 0 0 0 0 0 0 0 0 0 0 0 55 56 57 57 57 57 57 57 58 58 57 57 56 55 52 51 48 46 45 45 44 45 46 44 43 43 43 43 43 43 42 39 40 40 39 39 39 39 38 38 35 34 37 36 33 33 34 32 31 32 32 29 27 29 28 26 26 27 23 22 22 22 21 20 19 18 14 19 16 15 14 13 14 16 16 16 -225 -225 -225 -225 -225 -225 -225 -225 -225 -225 -225 -225 -225 22 20 21 16 17 12 12 11 10 0 0 0 0 0 0 9 0 9 10 10 10 13 14 13 18 23 24 25 24 24 -193 25 26 26 25 27 27 29 31 31 32 33 35 35 34 37 36 35 -193 42 41 42 43 44 45 44 48 44 48 54 48 48 52 -193 56 58 59 59 59 62 64 66 61 66 62 65 69 69 69 68 68 71 72 76 77 77 79 81 81 83 84 87 97 92 92 92 93 96 98 96 96 96 96 96 99 96 98 96 97 97 95 99 98 95 99 96 106 107 108 109 110 111 113 115 117 114 -193 -193 -193 122 123 123 124 123 125 125 125 124 128 130 16 14 -193 140 143 -193 -193 -209 -193 -193 -193 143 148 149 150 151 152 0 0 0 0 0
    0 0 0 0 0 0 0 0 0 0 0 0 0 0 0 0 0 0 0 0 0 0 0 0 0 0 0 0 0 0 0 0 0 0 0 0 0 0 0 0 0 0 0 0 0 0 0 0 0 0 0 0 0 0 0 0 0 0 0 0 0 0 0 0 0 0 0 0 0 56 57 57 57 57 57 57 57 57 57 56 55 56 55 52 51 48 46 45 45 44 45 46 45 43 44 44 43 43 44 43 41 41 41 -193 40 40 39 39 38 36 34 37 36 33 33 34 32 31 32 32 29 27 29 29 26 26 27 23 23 22 22 22 20 20 19 15 19 16 15 14 13 14 15 16 16 -225 -225 -225 -225 -225 -225 -225 -225 -225 -225 -225 -225 -225 21 20 20 16 16 12 12 11 10 0 0 0 0 0 0 0 0 0 10 11 10 13 15 14 18 22 23 23 23 23 -177 24 25 25 24 26 27 29 30 30 32 32 35 35 34 36 36 34 -193 41 39 41 42 43 44 44 49 46 50 54 49 49 53 -193 56 59 59 59 59 62 64 66 61 66 62 65 68 68 69 68 67 70 72 76 78 78 80 81 82 83 84 87 97 92 92 92 93 96 98 95 95 95 95 95 98 96 98 95 97 97 95 98 98 94 98 95 106 107 108 109 109 110 112 115 116 113 119 119 -209 121 122 122 123 123 124 125 126 125 129 -193 17 14 15 140 143 -193 -177 -193 -193 -209 -193 143 148 -193 -193 149 149 0 0 0 0 0
    0 0 0 0 0 0 0 0 0 0 0 0 0 0 0 0 0 0 0 0 0 0 0 0 0 0 0 0 0 0 0 0 0 0 0 0 0 0 0 0 0 0 0 0 0 0 0 0 0 0 0 0 0 0 0 0 0 0 0 0 0 0 0 0 0 0 0 0 0 57 57 57 58 57 57 58 57 57 57 56 55 55 55 53 51 49 46 46 46 45 45 47 45 44 44 44 43 44 44 43 41 41 41 -193 40 40 40 39 38 36 34 37 36 33 33 33 32 31 32 32 29 28 29 29 25 27 28 23 23 23 23 22 21 21 19 16 20 17 16 15 13 14 14 16 16 -225 -225 -225 -225 -225 -225 -225 -225 -225 -225 -225 -225 21 19 17 19 15 14 12 11 11 10 0 0 0 0 0 0 0 0 0 10 11 11 13 15 14 18 22 22 22 22 22 -193 23 24 24 24 26 26 28 30 31 32 32 34 34 34 35 35 32 32 38 37 39 41 42 44 43 48 47 49 53 49 50 53 -193 57 59 59 60 60 62 64 66 61 65 61 65 67 67 68 67 66 69 71 76 78 79 81 82 81 83 83 87 97 91 91 91 92 95 98 95 95 95 95 95 98 96 98 95 96 96 94 98 97 93 97 95 106 107 107 109 109 109 111 114 115 111 117 -209 -209 -193 -209 122 123 122 125 126 127 127 130 -193 17 14 15 140 143 -193 -193 -193 -193 -209 -209 -209 147 -177 -193 147 146 0 0 0 0 0
    0 0 0 0 0 0 0 0 0 0 0 0 0 0 0 0 0 0 0 0 0 0 0 0 0 0 0 0 0 0 0 0 0 0 0 0 0 0 0 0 0 0 0 0 0 0 0 0 0 0 0 0 0 0 0 0 0 0 0 0 0 0 0 0 0 0 0 0 0 57 57 57 58 57 57 57 57 56 57 56 55 55 55 53 52 49 47 46 46 46 45 47 46 44 45 44 44 43 43 43 41 41 42 41 41 41 41 41 38 37 34 37 35 33 32 33 32 31 32 32 30 28 30 29 26 28 27 23 23 23 23 23 22 22 20 17 20 17 16 16 14 13 13 16 16 -225 -225 -225 -225 -225 -225 -225 -225 -225 -225 -193 12 13 12 11 12 12 12 11 11 10 10 0 0 0 0 0 0 0 0 0 10 11 11 14 16 16 18 22 22 22 22 22 23 23 23 24 24 26 26 28 29 31 31 31 34 34 32 34 34 31 30 36 36 37 39 41 42 43 47 47 48 52 49 50 53 -193 57 59 59 60 60 62 64 66 61 65 60 65 66 66 67 66 65 69 71 75 78 78 79 81 81 82 83 86 96 91 91 91 91 94 97 95 94 95 95 95 98 96 98 95 96 96 94 -193 97 93 96 95 106 107 107 108 108 108 111 114 115 110 -209 -209 76 -209 -209 -209 -193 123 127 128 128 -193 -193 14 18 14 15 -193 143 -193 -193 -193 -193 -177 -177 -209 -193 768 -193 145 143 0 0 0 0 0
    0 0 0 0 0 0 0 0 0 0 0 0 0 0 0 0 0 0 0 0 0 0 0 0 0 0 0 0 0 0 0 0 0 0 0 0 0 0 0 0 0 0 0 0 0 0 0 0 0 0 0 0 0 0 0 0 0 0 0 0 0 0 0 0 0 0 0 0 0 57 58 58 58 58 58 58 57 56 56 55 54 54 54 52 51 49 46 46 46 46 46 46 45 44 44 44 43 43 43 43 41 41 42 41 42 41 41 41 39 37 34 36 35 33 32 33 31 31 31 32 30 29 30 30 26 29 26 23 23 23 23 23 22 22 20 17 21 17 16 16 14 12 12 16 16 -225 -225 -225 -225 -225 -225 -225 0 0 0 9 9 0 0 0 0 0 9 9 9 9 9 0 0 0 0 0 0 0 0 0 9 10 9 13 17 17 20 22 22 22 22 23 -193 23 23 24 24 26 26 28 29 30 31 31 33 33 32 34 34 31 30 35 36 36 37 40 41 42 46 49 49 52 51 51 54 57 57 60 59 60 60 62 64 66 61 65 60 64 65 65 66 66 65 68 70 75 77 77 78 80 80 82 82 86 96 90 90 90 90 93 96 94 93 94 94 95 98 95 98 95 96 97 94 -193 97 -193 96 95 -193 -193 -193 -193 107 107 110 114 115 -193 -209 -209 -193 -177 -193 -209 -209 -209 -193 14 18 -193 17 15 18 14 15 -193 143 -193 -177 -193 -209 -177 -177 -193 -193 768 -193 144 142 0 0 0 0 0
    0 0 0 0 0 0 0 0 0 0 0 0 0 0 0 0 0 0 0 0 0 0 0 0 0 0 0 0 0 0 0 0 0 0 0 0 0 0 0 0 0 0 0 0 0 0 0 0 0 0 0 0 0 0 0 0 0 0 0 0 0 0 0 0 0 0 0 0 0 57 57 58 58 58 58 58 57 55 55 55 53 52 53 52 50 48 46 47 46 46 46 46 45 44 44 43 43 43 42 42 41 41 41 40 41 40 40 40 38 37 33 36 35 33 32 33 31 31 31 32 30 29 30 30 26 28 26 23 23 23 22 22 22 22 20 18 21 17 16 16 14 11 11 15 15 -225 -225 -225 -225 -225 21 22 12 9 0 0 0 0 0 0 0 0 0 10 11 10 10 0 0 0 0 0 0 0 0 0 0 9 9 12 16 17 20 22 22 22 22 23 24 23 23 23 24 26 26 28 29 30 31 31 33 33 32 34 34 31 30 35 36 36 36 40 41 42 46 50 50 53 52 52 54 57 57 60 59 60 60 61 63 65 61 64 60 64 65 65 66 66 65 67 70 74 77 77 77 79 79 81 81 86 96 89 89 89 89 92 94 92 92 93 94 94 98 95 97 95 97 97 94 98 98 -193 -193 -193 -193 -193 -193 -193 -193 106 109 113 116 -209 -209 -209 -193 -177 -177 -209 -193 11 18 15 18 18 17 16 18 14 16 -193 -177 -193 -193 -193 -193 -177 -177 -193 -193 -177 -193 144 142 0 0 0 0 0
    0 0 0 0 0 0 0 0 0 0 0 0 0 0 0 0 0 0 0 0 0 0 0 0 0 0 0 0 0 0 0 0 0 0 0 0 0 0 0 0 0 0 0 0 0 0 0 0 0 0 0 0 0 0 0 0 0 0 0 0 0 0 0 0 0 0 0 0 0 57 57 57 58 57 57 58 57 55 55 54 51 50 51 52 49 48 46 47 47 46 47 46 45 44 44 44 43 43 42 42 41 41 40 39 39 38 39 39 36 36 32 35 34 33 32 33 31 31 31 32 30 29 30 29 25 27 25 23 23 23 22 22 22 22 20 18 21 16 16 16 14 11 11 14 14 -225 -225 -225 -225 20 20 20 13 10 0 0 0 0 0 0 0 0 0 0 9 9 9 0 0 0 0 0 0 0 0 0 0 10 10 12 15 16 19 21 21 21 22 22 23 22 23 23 24 26 27 28 29 30 31 31 33 34 32 34 34 32 30 35 36 36 35 39 40 41 46 51 51 53 52 52 54 57 57 59 59 60 60 61 63 65 61 64 61 64 65 65 66 66 65 67 70 74 77 76 77 80 79 82 81 85 94 87 87 87 88 90 92 -177 -177 92 93 94 98 95 97 95 97 97 95 98 98 319 319 321 -193 -177 -177 -193 -193 -209 108 113 116 -209 -209 76 -193 -193 -177 -177 -193 13 19 16 19 18 18 16 18 15 16 -193 -177 -193 -193 -193 -209 -177 -177 -193 -193 -177 -193 144 142 0 0 0 0 0
    0 0 0 0 0 0 0 0 0 0 0 0 0 0 0 0 0 0 0 0 0 0 0 0 0 0 0 0 0 0 0 0 0 0 0 0 0 0 0 0 0 0 0 0 0 0 0 0 0 0 0 0 0 0 0 0 0 0 0 0 0 0 0 0 0 0 0 0 0 57 57 58 58 57 57 57 57 55 54 53 50 48 50 51 48 48 47 48 47 47 47 47 45 45 44 44 43 43 43 42 42 41 40 39 39 37 38 38 35 36 31 34 33 32 31 32 31 31 30 32 30 29 30 29 25 26 25 23 23 22 22 22 23 23 20 18 21 16 16 17 15 10 11 15 15 -225 -225 -225 -225 19 19 19 13 10 0 0 0 0 0 0 0 0 0 9 11 10 11 9 9 9 10 0 0 0 0 0 9 11 11 11 14 15 17 19 20 19 20 21 23 22 23 23 24 26 27 29 29 30 31 31 32 34 32 34 34 32 30 35 36 35 34 39 40 41 46 51 51 53 53 52 54 56 57 59 58 59 60 60 62 65 61 64 61 65 65 65 66 66 65 66 70 73 76 75 76 80 80 83 82 85 92 86 86 86 86 89 91 -177 -177 92 93 94 97 95 97 96 97 98 95 99 99 320 319 321 -209 -177 -177 -177 -209 -193 107 113 -193 -209 -209 75 -193 -209 -177 -209 -209 16 20 18 19 18 18 16 18 14 16 -193 -193 -193 -193 -193 -209 -177 -177 -209 146 -177 147 143 142 0 0 0 0 0
    0 0 0 0 0 0 0 0 0 0 0 0 0 0 0 0 0 0 0 0 0 0 0 0 0 0 0 0 0 0 0 0 0 0 0 0 0 0 0 0 0 0 0 0 0 0 0 0 0 0 0 0 0 0 0 0 0 0 0 0 0 0 0 0 0 0 0 0 0 57 57 58 58 57 57 57 57 54 54 53 49 48 49 52 49 49 48 48 48 48 48 47 46 45 44 44 44 43 43 42 42 41 39 39 38 37 37 37 35 35 30 33 33 32 31 32 31 30 30 31 30 29 30 29 25 27 25 23 23 22 22 22 23 23 20 18 21 17 17 18 15 10 11 16 16 -225 -225 -225 18 19 18 19 14 11 9 0 0 0 0 0 0 0 0 0 9 9 10 0 0 0 9 0 0 0 0 0 10 12 11 11 14 15 17 19 20 19 20 22 24 23 23 23 24 27 27 29 29 30 30 30 32 34 32 34 35 32 30 35 35 35 33 38 40 41 47 52 51 53 53 52 54 -209 56 -193 58 59 60 60 62 64 61 64 61 65 66 65 67 67 66 66 70 73 76 75 77 80 80 82 82 85 88 84 84 85 85 87 89 -177 -177 91 92 93 97 94 97 96 98 99 96 100 100 320 319 321 -193 -177 -177 -209 -209 -193 106 113 -209 -209 -209 74 -209 -209 -209 -209 -209 18 21 18 20 18 18 16 18 14 15 -193 -193 -193 -193 -193 -177 -177 -193 -193 146 -193 147 143 142 0 0 0 0 0
    0 0 0 0 0 0 0 0 0 0 0 0 0 0 0 0 0 0 0 0 0 0 0 0 0 0 0 0 0 0 0 0 0 0 0 0 0 0 0 0 0 0 0 0 0 0 0 0 0 0 0 0 0 0 0 0 0 0 0 0 0 0 0 0 0 0 0 0 0 57 57 58 58 57 57 58 57 55 55 54 49 48 48 52 49 49 48 49 48 48 48 47 46 45 44 44 44 43 42 42 42 40 39 38 38 36 36 37 35 35 31 33 32 31 31 31 30 30 29 30 29 29 29 29 25 27 25 22 23 22 22 22 22 24 20 18 21 -193 18 19 16 10 11 17 17 -225 -225 -225 18 17 16 17 13 11 10 0 0 0 0 0 0 0 0 0 9 9 9 0 0 0 9 0 0 0 0 9 10 12 12 12 14 16 18 19 20 20 21 22 24 24 24 23 24 27 27 29 29 30 30 30 32 34 31 34 35 32 30 34 35 34 33 38 39 41 47 52 52 53 54 52 53 -177 56 -193 58 59 59 59 61 63 61 64 62 65 66 65 67 67 67 66 70 73 76 76 78 82 80 82 82 84 87 83 83 83 83 86 88 -177 -177 91 92 94 98 95 97 97 99 99 97 100 100 319 319 322 -193 -177 -177 -209 -209 102 105 112 -209 -209 -209 74 -209 -209 -209 -209 -209 20 21 19 20 18 18 16 18 14 15 -193 -193 -193 -193 -193 -177 -193 -193 143 146 -193 147 143 142 0 0 0 0 0
    0 0 0 0 0 0 0 0 0 0 0 0 0 0 0 0 0 0 0 0 0 0 0 0 0 0 0 0 0 0 0 0 0 0 0 0 0 0 0 0 0 0 0 0 0 0 0 0 0 0 0 0 0 0 0 0 0 0 0 0 0 0 0 0 0 0 0 0 0 57 57 58 58 57 58 58 57 55 56 55 50 48 48 53 50 50 49 49 49 49 48 48 45 45 44 44 43 42 41 41 41 40 39 38 37 36 36 37 35 35 31 33 33 32 31 31 30 30 29 30 29 29 29 29 25 26 25 22 23 22 21 21 22 24 20 18 22 -193 18 19 18 10 12 20 20 13 18 17 18 15 15 15 11 10 9 0 0 0 0 0 0 0 0 0 9 9 10 9 9 0 9 0 0 0 0 9 10 11 12 12 14 17 18 20 21 20 21 23 25 24 24 24 24 27 27 28 29 29 30 30 32 34 31 34 35 33 30 35 35 34 33 38 39 40 47 52 51 52 54 52 53 -177 55 -177 57 58 59 59 61 63 61 64 62 66 66 66 67 68 68 67 72 73 76 77 77 82 80 81 81 82 86 82 81 82 81 85 87 -177 -177 90 93 95 98 95 98 98 100 100 99 101 101 320 319 322 -193 -193 -193 -193 -209 101 -193 112 -209 -209 -209 -193 -209 -177 -193 -209 -209 21 22 20 20 18 18 16 17 14 14 -193 -193 -193 -193 -193 -177 -193 -193 143 146 143 148 145 142 0 0 0 0 0
    0 0 0 0 0 0 0 0 0 0 0 0 0 0 0 0 0 0 0 0 0 0 0 0 0 0 0 0 0 0 0 0 0 0 0 0 0 0 0 0 0 0 0 0 0 0 0 0 0 0 0 0 0 0 0 0 0 0 0 0 0 0 0 0 0 0 0 0 0 57 57 58 58 57 58 58 56 56 56 55 50 50 48 53 50 50 49 49 49 49 48 48 45 45 44 43 43 42 41 41 41 40 39 39 37 36 36 37 36 36 32 34 33 32 31 32 30 30 29 30 29 28 29 29 25 26 24 21 22 21 21 21 22 23 20 18 22 19 18 19 19 11 14 22 21 19 20 20 19 14 13 11 9 0 0 0 0 0 0 0 0 0 0 0 9 0 9 9 0 0 9 0 0 0 0 9 10 11 12 11 14 17 19 21 22 21 22 23 25 24 25 23 23 26 27 28 28 29 30 30 32 35 32 35 36 34 32 36 36 35 35 38 39 40 46 52 51 52 54 51 52 55 54 -177 57 57 58 58 60 62 61 64 62 66 67 66 68 69 70 69 73 74 76 78 77 82 79 79 80 80 85 81 80 81 79 84 86 -177 -177 90 93 96 99 96 99 99 101 102 -193 102 102 320 319 322 -193 -209 -209 -193 -209 101 -193 -193 -193 -209 -209 -177 -193 -193 -209 -193 -209 -193 -193 20 21 18 18 16 16 13 14 -177 -177 -193 -193 -193 -177 -193 -177 -193 146 143 148 146 144 0 0 0 0 0
    0 0 0 0 0 0 0 0 0 0 0 0 0 0 0 0 0 0 0 0 0 0 0 0 0 0 0 0 0 0 0 0 0 0 0 0 0 0 0 0 0 0 0 0 0 0 0 0 0 0 0 0 0 0 0 0 0 0 0 0 0 0 0 0 0 0 0 0 0 57 57 58 58 57 58 58 56 56 56 56 50 50 47 53 50 50 49 49 49 49 48 48 46 45 44 44 43 42 41 41 41 40 39 38 37 35 34 36 35 35 33 34 34 32 31 32 31 30 29 29 29 28 29 29 24 25 24 21 22 21 21 21 22 23 20 17 22 20 18 19 20 13 15 23 22 20 20 20 19 15 14 12 9 0 0 0 0 0 0 0 0 0 0 0 9 9 10 9 0 0 9 9 0 0 9 9 10 11 11 11 13 17 19 20 21 20 21 22 24 23 23 22 22 -193 26 27 28 29 30 31 32 35 33 36 37 36 35 38 38 38 38 39 40 42 47 52 52 53 54 50 52 54 53 -177 56 56 57 58 60 62 61 64 62 66 66 65 67 69 70 69 74 75 76 78 77 81 78 78 78 79 84 80 79 80 78 84 86 86 -177 -193 93 97 100 97 99 101 102 103 -177 -193 -193 -177 320 323 -193 -209 -193 -193 -209 -209 -209 -193 -177 -209 -209 -177 -193 -193 -193 -177 -193 -193 -193 22 21 18 18 16 16 13 13 -177 -177 -193 -177 -177 -177 -177 -177 -193 146 143 148 147 145 0 0 0 0 0
    0 0 0 0 0 0 0 0 0 0 0 0 0 0 0 0 0 0 0 0 0 0 0 0 0 0 0 0 0 0 0 0 0 0 0 0 0 0 0 0 0 0 0 0 0 0 0 0 0 0 0 0 0 0 0 0 0 0 0 0 0 0 0 0 0 0 0 0 0 57 57 58 58 58 58 58 56 57 57 56 50 51 47 54 50 50 50 50 49 49 48 48 46 45 44 44 43 42 41 41 41 40 39 38 37 35 33 35 35 35 33 34 34 32 31 33 31 30 30 30 29 28 29 29 24 25 24 21 22 21 21 21 21 22 19 17 22 21 18 19 21 16 18 23 22 21 21 20 20 15 15 12 11 9 9 0 0 0 0 0 0 0 0 9 10 9 10 10 9 0 10 9 0 0 9 9 11 12 12 11 13 16 17 18 21 18 20 20 23 22 22 21 22 24 25 26 28 28 30 30 32 35 34 37 37 37 37 39 39 -177 41 41 42 44 47 51 51 51 53 50 51 53 52 -193 56 56 57 58 60 61 61 63 62 66 66 65 67 69 70 69 73 74 75 77 77 80 77 77 78 78 84 79 78 79 77 83 86 86 -177 -193 94 99 101 99 100 102 103 105 -177 1008 1008 -177 320 323 -193 -209 -193 -193 -209 -209 -209 -193 350 -209 -209 -177 -193 -193 -193 -177 -177 112 -209 -193 -193 18 19 -193 15 -193 -193 -177 -177 -193 142 143 -177 143 144 143 146 144 148 148 147 0 0 0 0 0
    0 0 0 0 0 0 0 0 0 0 0 0 0 0 0 0 0 0 0 0 0 0 0 0 0 0 0 0 0 0 0 0 0 0 0 0 0 0 0 0 0 0 0 0 0 0 0 0 0 0 0 0 0 0 0 0 0 0 0 0 0 0 0 0 0 0 0 0 0 57 57 58 58 57 58 57 55 57 57 56 51 51 47 54 51 50 50 50 50 49 48 48 46 45 44 44 44 43 42 41 42 40 39 39 38 36 34 35 35 35 33 34 34 32 31 33 31 31 30 30 29 28 29 29 25 25 24 21 22 21 21 21 21 22 19 17 22 22 18 20 21 18 19 23 22 21 21 20 20 16 16 12 11 9 9 0 0 0 0 0 0 0 0 9 10 9 10 10 9 9 10 9 9 9 9 10 11 13 12 11 13 15 15 17 19 17 19 20 22 21 22 20 21 23 24 26 27 28 29 30 32 35 34 37 37 39 39 40 40 41 41 41 42 45 46 50 50 50 53 49 50 53 51 54 55 56 57 -193 60 61 -193 63 63 66 66 64 66 69 69 68 71 73 73 76 76 79 76 76 77 77 83 79 78 79 77 83 86 86 -177 -193 95 100 102 100 101 -193 -193 106 -177 -193 -193 -177 321 323 102 -209 -193 -193 -193 -193 -209 -193 350 -193 -209 -177 -209 -209 -193 -177 -193 114 -209 -193 -209 19 18 -193 -193 -193 -193 -177 -177 -193 142 143 144 143 145 143 146 144 148 148 148 0 0 0 0 0
    0 0 0 0 0 0 0 0 0 0 0 0 0 0 0 0 0 0 0 0 0 0 0 0 0 0 0 0 0 0 0 0 0 0 0 0 0 0 0 0 0 0 0 0 0 0 0 0 0 0 0 0 0 0 0 0 0 0 0 0 0 0 0 0 0 0 0 0 0 57 57 58 58 57 58 57 55 57 56 56 51 52 48 54 51 50 51 50 50 50 48 48 46 45 44 43 43 43 42 41 42 40 40 39 38 37 34 36 36 36 34 35 34 32 31 32 31 30 30 30 29 28 28 29 25 26 25 21 22 22 21 21 22 22 20 18 22 23 19 20 22 19 20 23 22 21 21 21 21 18 17 13 11 9 9 0 0 0 0 0 0 0 0 9 9 10 10 10 10 10 10 10 10 10 9 10 11 12 12 12 13 14 15 17 19 17 20 19 22 20 21 20 21 23 24 25 27 27 29 30 32 35 34 37 37 40 41 41 41 42 43 42 44 46 46 49 49 49 52 49 49 52 51 54 55 55 57 59 60 61 -193 63 63 65 65 64 65 68 68 67 69 71 71 75 75 77 76 75 76 76 82 78 77 78 76 82 86 87 -177 -193 96 101 -193 102 102 -193 -193 107 -193 106 107 -177 322 324 102 -209 -209 -193 -209 -209 -209 -193 350 -177 -209 -193 -209 -193 -193 -193 -209 -193 -209 125 -193 -193 -193 -193 -193 -193 -193 -193 -177 -193 143 143 144 144 145 144 147 145 148 148 148 0 0 0 0 0
    0 0 0 0 0 0 0 0 0 0 0 0 0 0 0 0 0 0 0 0 0 0 0 0 0 0 0 0 0 0 0 0 0 0 0 0 0 0 0 0 0 0 0 0 0 0 0 0 0 0 0 0 0 0 0 0 0 0 0 0 0 0 0 0 0 0 0 0 0 57 57 58 58 57 58 57 54 56 56 55 51 52 49 54 51 50 51 50 50 50 49 48 47 45 45 44 44 43 42 41 42 40 40 40 39 37 34 36 37 36 35 35 34 32 31 33 31 30 30 30 29 29 29 30 27 27 26 22 22 22 21 21 22 22 20 18 22 23 19 20 22 19 20 23 22 21 21 22 22 20 19 15 11 9 9 0 0 0 0 0 0 0 9 10 9 10 10 10 10 10 10 10 10 9 9 10 11 11 11 11 12 14 15 18 19 18 20 19 22 20 21 20 21 23 23 25 27 28 29 30 32 35 34 37 37 41 42 42 42 43 44 44 45 47 46 48 48 48 52 49 50 52 51 54 55 56 58 59 60 61 -193 63 63 65 65 63 63 67 68 66 68 70 70 75 74 76 75 75 76 76 81 78 77 77 76 82 86 -193 -177 -193 98 103 924 -193 -193 -193 -193 107 108 106 107 -177 323 324 102 -193 -193 102 -209 -209 -209 -193 -193 -177 -209 -209 -209 122 -193 -209 -209 -209 -209 -193 -193 -193 -193 80 -193 -193 -193 -193 -177 -193 -193 144 144 144 145 144 147 145 148 149 149 0 0 0 0 0
    0 0 0 0 0 0 0 0 0 0 0 0 0 0 0 0 0 0 0 0 0 0 0 0 0 0 0 0 0 0 0 0 0 0 0 0 0 0 0 0 0 0 0 0 0 0 0 0 0 0 0 0 0 0 0 0 0 0 0 0 0 0 0 0 0 0 0 0 0 57 57 59 58 58 58 57 54 56 56 55 51 52 49 54 51 50 50 50 50 50 49 48 47 45 45 44 44 43 42 42 42 40 40 40 39 38 35 36 37 37 35 35 34 32 32 33 31 30 30 30 29 30 29 30 28 28 27 24 23 23 22 21 22 21 20 18 22 23 19 20 22 20 21 23 22 21 22 22 22 22 20 17 13 9 0 0 0 0 0 0 0 0 9 9 9 10 10 10 10 10 10 10 10 10 9 10 11 11 11 11 12 14 15 17 19 19 21 19 21 19 21 20 21 23 23 -193 27 28 30 32 33 36 34 37 37 42 43 42 43 44 44 44 46 48 46 48 48 48 51 50 50 53 52 54 56 56 58 59 60 60 -193 63 62 64 64 62 62 66 67 66 66 69 68 74 73 76 74 74 75 75 80 77 76 77 76 81 86 -193 -177 91 -193 -193 925 -177 -193 -177 721 107 108 106 106 -193 323 324 101 -193 -193 102 -209 -209 -209 -193 -193 -177 -209 -209 -193 122 -193 -209 -209 -209 -209 -193 -193 82 -193 81 -193 -193 -193 -193 78 77 -193 144 -177 -177 -193 -193 147 146 148 149 149 0 0 0 0 0
    0 0 0 0 0 0 0 0 0 0 0 0 0 0 0 0 0 0 0 0 0 0 0 0 0 0 0 0 0 0 0 0 0 0 0 0 0 0 0 0 0 0 0 0 0 0 0 0 0 0 0 0 0 0 0 0 0 0 0 0 0 0 0 0 0 0 0 0 0 58 58 59 58 58 58 57 55 57 56 54 51 52 50 53 51 49 50 49 50 49 48 48 46 45 45 44 44 43 43 42 42 40 41 40 40 39 35 36 37 37 36 36 34 33 32 33 32 30 30 31 30 30 30 30 28 28 28 26 24 24 22 22 22 21 20 19 22 23 19 20 22 20 22 22 22 22 22 23 23 23 21 19 14 9 0 0 0 0 0 0 0 0 0 9 0 9 9 10 10 10 10 10 10 10 9 10 10 11 10 10 10 13 13 18 18 19 20 19 21 19 21 21 21 24 24 -193 27 28 30 32 33 37 35 38 38 44 44 43 44 44 45 45 47 48 45 48 48 48 52 51 51 54 52 54 57 -177 59 60 60 60 60 62 62 63 63 61 61 64 66 65 65 68 67 73 73 -193 74 74 75 75 79 77 76 -193 75 81 86 -193 -177 -193 -193 924 925 -177 -193 -177 721 723 108 -193 -193 -193 323 324 101 -193 -193 -193 -209 -209 -209 -193 -209 -193 -209 -209 122 122 121 -209 -193 -209 -193 -209 -193 82 82 81 81 80 -193 78 78 78 -193 -193 -177 -193 -193 -193 148 147 148 149 150 0 0 0 0 0
    0 0 0 0 0 0 0 0 0 0 0 0 0 0 0 0 0 0 0 0 0 0 0 0 0 0 0 0 0 0 0 0 0 0 0 0 0 0 0 0 0 0 0 0 0 0 0 0 0 0 0 0 0 0 0 0 0 0 0 0 0 0 0 0 0 0 0 0 0 58 58 59 58 58 58 57 55 57 56 54 50 51 50 53 51 49 50 49 50 49 48 48 47 45 45 44 44 44 43 42 42 41 41 41 40 39 36 36 37 37 35 35 33 32 32 34 32 31 29 32 30 31 30 30 29 29 29 28 25 25 24 23 23 21 21 19 22 23 19 20 22 20 22 22 22 22 22 23 23 24 23 -193 19 -193 0 0 0 0 0 0 0 0 0 0 0 9 0 9 10 10 10 11 11 11 10 11 11 12 11 10 10 12 12 17 18 19 21 19 21 20 21 21 22 25 24 -193 28 29 31 32 33 36 35 37 37 43 44 43 44 45 45 46 48 49 46 48 48 48 52 52 53 54 53 55 -177 -177 60 61 60 60 60 62 62 63 63 61 61 64 65 64 64 68 66 73 72 -193 -193 74 74 74 78 76 75 -193 75 81 86 -177 -177 -193 925 925 925 -177 -193 724 721 723 107 -209 -193 -193 324 325 101 334 340 -193 -209 -209 -193 114 -209 -209 -209 -209 122 122 121 -209 -209 -193 244 -209 -193 82 82 80 80 80 79 78 78 78 78 -193 -193 -209 -193 -177 147 147 148 148 150 0 0 0 0 0
    0 0 0 0 0 0 0 0 0 0 0 0 0 0 0 0 0 0 0 0 0 0 0 0 0 0 0 0 0 0 0 0 0 0 0 0 0 0 0 0 0 0 0 0 0 0 0 0 0 0 0 0 0 0 0 0 0 0 0 0 0 0 0 0 0 0 0 0 0 58 58 59 58 58 58 57 54 57 56 53 49 50 49 53 51 49 50 49 50 50 48 48 47 46 45 45 45 44 44 43 43 42 42 42 41 40 37 37 36 37 35 35 32 32 32 33 33 31 29 33 30 31 31 30 30 29 29 28 26 26 25 24 23 21 21 20 22 23 21 21 22 20 22 22 22 22 22 23 23 24 23 23 22 19 12 0 0 0 0 0 0 0 0 0 0 9 0 9 10 10 11 12 12 12 11 12 12 13 12 10 11 11 11 16 17 19 21 19 21 20 22 22 22 26 25 27 29 30 31 32 33 36 34 37 37 -177 -177 -177 44 44 45 46 49 50 46 49 49 49 52 53 54 55 54 56 -177 -177 61 61 60 61 61 63 62 63 63 61 62 63 64 64 63 67 65 72 71 -193 -193 -193 75 74 78 76 75 561 75 81 86 -177 -177 -193 926 926 927 927 -193 724 721 723 -177 -193 -193 -193 324 324 100 334 339 -193 -209 -209 -193 114 -209 -209 -209 -209 122 122 121 -209 -209 -193 243 -209 -193 -193 -193 80 80 80 79 79 78 78 79 -193 -193 -209 -193 -177 147 146 147 148 149 0 0 0 0 0
    0 0 0 0 0 0 0 0 0 0 0 0 0 0 0 0 0 0 0 0 0 0 0 0 0 0 0 0 0 0 0 0 0 0 0 0 0 0 0 0 0 0 0 0 0 0 0 0 0 0 0 0 0 0 0 0 0 0 0 0 0 0 0 0 0 0 0 0 0 58 58 59 58 57 58 57 54 57 55 53 49 50 50 52 50 50 50 49 50 50 49 48 47 47 46 45 46 45 45 44 43 42 42 43 42 41 39 39 35 37 35 34 31 31 31 32 32 31 29 33 30 31 32 30 30 29 29 29 26 27 26 24 23 21 21 21 22 23 22 21 22 21 22 22 22 21 22 23 23 24 23 23 22 19 14 0 0 0 0 0 0 0 0 0 0 9 0 9 10 10 11 12 12 11 11 12 12 12 11 10 10 11 11 16 16 20 21 20 22 21 23 24 24 27 26 28 29 30 31 32 33 36 32 35 36 42 -177 -177 43 44 45 47 49 50 46 50 50 50 53 55 56 56 56 57 -177 -177 62 62 60 61 61 63 63 63 63 62 62 63 64 64 63 66 64 71 71 -193 -193 -193 75 74 78 76 75 562 75 81 86 -177 -177 -193 -193 927 928 928 -193 724 721 723 -177 -193 104 104 324 324 100 333 337 -193 -209 -193 -177 114 -209 -209 -209 -209 -193 122 -193 -209 -209 -193 243 -193 -193 -193 -193 79 80 80 79 79 79 79 79 -193 -209 -209 -193 -177 147 146 147 147 149 0 0 0 0 0
    0 0 0 0 0 0 0 0 0 0 0 0 0 0 0 0 0 0 0 0 0 0 0 0 0 0 0 0 0 0 0 0 0 0 0 0 0 0 0 0 0 0 0 0 0 0 0 0 0 0 0 0 0 0 0 0 0 0 0 0 0 0 0 0 0 0 0 0 0 59 59 59 58 57 58 57 54 56 55 53 49 50 50 52 50 50 50 49 50 50 49 49 47 48 46 46 46 46 45 46 44 43 43 43 42 41 40 40 35 37 35 34 30 31 31 31 32 30 28 33 30 31 32 31 31 29 30 29 27 27 26 24 24 22 22 22 22 22 22 20 22 21 22 22 22 21 22 23 23 24 23 23 23 19 14 0 0 0 0 0 0 0 0 0 0 9 9 10 10 10 11 12 11 11 11 12 11 11 11 10 10 11 12 17 17 20 22 20 22 21 23 23 23 27 26 28 29 30 30 31 33 35 31 35 36 41 -177 -177 42 43 44 47 49 50 45 50 50 50 53 56 57 57 57 58 -177 -177 63 62 61 61 61 63 63 63 63 62 63 63 64 64 63 66 63 70 71 -193 72 -193 74 74 78 76 75 563 76 82 -193 -177 -177 90 98 927 929 929 101 724 721 723 -177 -193 103 103 323 324 -193 333 335 -193 -209 -193 -177 113 -209 -209 -209 -209 -209 121 -209 -193 -209 244 241 -193 -193 -193 -193 -193 79 79 78 79 78 79 79 -193 -209 -209 -193 -177 147 -193 147 147 149 0 0 0 0 0
    0 0 0 0 0 0 0 0 0 0 0 0 0 0 0 0 0 0 0 0 0 0 0 0 0 0 0 0 0 0 0 0 0 0 0 0 0 0 0 0 0 0 0 0 0 0 0 0 0 0 0 0 0 0 0 0 0 0 0 0 0 0 0 0 0 0 0 0 0 59 59 59 58 57 57 57 54 56 55 53 49 50 50 51 49 50 49 48 49 49 49 49 47 49 46 47 47 47 46 47 44 44 43 44 42 41 40 41 35 38 35 35 30 32 31 31 32 30 27 33 30 32 32 31 31 29 30 30 27 27 26 24 24 22 23 22 22 22 22 20 22 21 22 21 22 21 22 23 23 24 23 23 24 19 14 0 0 0 0 0 0 0 0 0 0 9 9 10 10 10 11 11 11 11 11 11 10 11 11 11 10 11 12 18 17 21 22 20 22 22 23 23 23 27 26 28 30 30 30 31 33 35 31 34 36 40 -177 -177 42 42 44 47 49 49 45 50 50 50 53 58 58 59 60 59 63 -177 -177 63 61 61 61 63 63 63 63 62 63 62 64 64 63 66 64 70 71 -193 72 -193 74 73 78 76 75 563 76 82 -193 -177 -193 91 97 927 929 929 100 -177 720 722 579 99 102 102 323 323 -193 332 333 -193 -193 -193 -177 113 -209 -209 -209 -209 -209 -209 -209 -193 -193 243 240 -193 -193 -193 -177 -193 79 79 78 78 78 78 78 -193 -193 -193 -193 -177 -193 -193 146 147 148 0 0 0 0 0
    0 0 0 0 0 0 0 0 0 0 0 0 0 0 0 0 0 0 0 0 0 0 0 0 0 0 0 0 0 0 0 0 0 0 0 0 0 0 0 0 0 0 0 0 0 0 0 0 0 0 0 0 0 0 0 0 0 0 0 0 0 0 0 0 0 0 0 0 0 58 59 59 58 57 57 57 55 57 55 54 50 50 51 51 49 50 48 47 49 49 48 49 47 49 46 48 48 47 47 49 45 44 44 44 42 41 41 41 34 37 36 35 30 31 32 32 33 30 27 33 30 31 33 31 31 29 30 30 26 27 26 23 23 22 22 21 21 21 21 19 21 20 21 21 22 21 22 22 22 23 22 22 23 19 14 9 0 0 0 0 0 0 0 0 0 9 0 10 10 10 11 11 11 11 11 11 10 11 11 11 10 11 12 17 17 20 21 21 22 22 23 23 23 27 26 27 29 29 30 30 33 35 31 34 35 38 41 41 41 41 43 46 48 48 45 50 51 51 54 60 59 60 62 60 64 -177 -177 63 62 62 62 63 63 63 63 62 63 62 64 64 63 66 64 71 71 -193 72 -193 74 73 78 76 -193 564 76 83 -193 -177 -177 90 97 98 98 -193 99 -177 720 722 579 97 100 101 322 323 323 -177 -177 -193 -193 -193 -177 113 -209 -193 -209 -209 -193 -193 -193 -193 -209 242 239 -193 -193 -177 -177 -193 78 78 77 78 77 78 78 -193 -193 -193 -193 -177 -193 -193 146 148 148 0 0 0 0 0
    0 0 0 0 0 0 0 0 0 0 0 0 0 0 0 0 0 0 0 0 0 0 0 0 0 0 0 0 0 0 0 0 0 0 0 0 0 0 0 0 0 0 0 0 0 0 0 0 0 0 0 0 0 0 0 0 0 0 0 0 0 0 0 0 0 0 0 0 0 58 59 59 58 57 57 57 55 57 56 55 51 51 51 51 49 51 48 47 48 49 48 49 47 49 46 49 48 47 47 50 45 45 44 44 42 41 41 41 34 37 36 36 31 32 32 32 33 30 28 34 30 31 33 31 31 29 30 30 26 27 27 23 23 22 22 21 20 21 20 18 21 19 20 21 21 21 21 21 21 22 22 22 22 19 14 10 9 0 0 0 0 0 0 0 0 0 0 10 10 10 11 10 11 10 10 11 9 10 11 11 10 11 12 17 17 20 22 21 22 22 23 23 23 27 25 26 29 29 29 30 33 35 31 34 35 37 39 39 39 39 42 45 46 48 44 50 52 52 54 61 60 61 63 61 65 -177 -177 63 62 62 62 63 63 63 63 -193 63 62 64 64 63 67 64 71 71 -193 72 -193 74 73 78 -193 -193 -177 77 84 -177 -177 -177 90 96 97 97 100 98 -193 720 722 578 96 99 100 322 322 322 -193 -177 -193 -193 -193 -177 113 -193 -193 -193 -209 118 -193 -193 -193 -209 -193 -193 -193 19 -177 -177 -193 77 78 77 77 77 77 78 -193 -177 -193 -193 -193 -193 -193 147 149 148 0 0 0 0 0
    0 0 0 0 0 0 0 0 0 0 0 0 0 0 0 0 0 0 0 0 0 0 0 0 0 0 0 0 0 0 0 0 0 0 0 0 0 0 0 0 0 0 0 0 0 0 0 0 0 0 0 0 0 0 0 0 0 0 0 0 0 0 0 0 0 0 0 0 0 58 58 59 58 57 57 57 56 57 56 55 51 51 52 50 48 52 48 47 48 49 48 49 48 49 46 50 49 47 47 51 46 45 44 44 42 41 41 42 33 37 36 36 31 33 32 32 34 31 28 33 30 31 33 31 31 29 30 30 26 27 27 23 23 21 21 20 19 20 20 17 19 17 18 20 20 20 20 20 20 21 21 21 20 17 12 10 9 9 0 0 0 0 0 0 9 9 0 10 9 10 10 10 10 10 10 10 9 10 10 11 10 10 11 17 17 20 22 20 22 22 23 22 22 26 25 25 28 28 28 29 33 34 30 33 35 36 38 38 38 38 42 44 45 46 44 50 53 53 55 62 60 61 64 61 65 -177 -177 63 63 63 63 64 64 64 64 -193 -177 62 65 64 63 67 64 71 72 72 72 73 74 73 78 -193 -193 -177 78 85 771 773 -177 91 96 96 96 99 97 98 720 722 578 95 99 100 322 322 322 -193 -177 -193 -193 -193 -177 113 -193 -193 -193 -193 117 -193 117 -193 -209 -193 -193 -193 18 19 17 -193 77 -193 -193 77 76 77 77 -193 -177 -177 -193 -193 145 146 147 149 148 0 0 0 0 0
    0 0 0 0 0 0 0 0 0 0 0 0 0 0 0 0 0 0 0 0 0 0 0 0 0 0 0 0 0 0 0 0 0 0 0 0 0 0 0 0 0 0 0 0 0 0 0 0 0 0 0 0 0 0 0 0 0 0 0 0 0 0 0 0 0 0 0 0 0 58 58 59 58 57 57 57 56 57 57 55 51 51 52 51 48 53 50 47 48 49 49 50 49 50 46 51 50 48 47 52 46 45 44 44 42 41 41 42 33 37 36 36 32 33 33 32 33 31 29 34 30 31 34 31 32 29 29 30 26 27 27 23 23 21 21 20 19 19 20 16 18 16 16 19 19 19 18 17 19 19 19 19 17 14 11 10 9 9 9 0 0 9 9 9 9 10 9 11 10 10 10 10 10 9 9 10 0 9 9 10 10 10 11 16 16 20 21 20 22 21 23 21 21 26 24 24 27 27 28 28 32 33 30 33 34 35 37 37 37 37 41 43 44 45 43 49 54 54 55 62 60 62 65 62 66 -177 -177 64 63 63 63 64 64 64 64 -193 -177 62 65 64 63 67 64 71 72 -193 72 -193 74 73 78 -193 -193 -177 79 -193 771 -193 -177 91 95 95 95 99 97 98 720 722 578 95 99 100 322 322 322 -193 -177 -193 -193 -209 -177 113 -193 -193 -193 120 117 116 117 112 -209 -193 -193 -193 17 19 16 -177 -193 -193 -193 77 -177 -177 77 -193 141 143 144 -193 144 146 147 149 147 0 0 0 0 0
    0 0 0 0 0 0 0 0 0 0 0 0 0 0 0 0 0 0 0 0 0 0 0 0 0 0 0 0 0 0 0 0 0 0 0 0 0 0 0 0 0 0 0 0 0 0 0 0 0 0 0 0 0 0 0 0 0 0 0 0 0 0 0 0 0 0 0 0 0 58 58 59 58 57 58 58 56 57 57 56 51 51 51 50 47 53 50 47 48 49 49 50 49 50 46 50 49 47 47 51 46 45 44 44 42 41 41 42 33 37 37 36 32 33 33 32 33 32 29 33 30 31 34 31 31 29 28 29 26 26 26 22 23 21 21 20 18 19 20 16 17 15 14 17 17 16 15 14 16 16 15 17 14 12 10 10 9 9 9 9 0 9 9 10 10 11 9 12 10 11 10 10 10 9 9 10 0 9 0 10 10 10 11 15 16 19 21 19 21 21 22 21 21 25 24 24 27 27 28 29 32 33 30 33 34 35 36 36 36 36 40 42 42 43 42 48 53 53 55 62 60 62 66 62 66 -177 -177 64 64 64 64 65 65 65 65 -193 65 62 65 64 63 67 64 71 72 -193 72 -193 74 73 78 -193 -193 -177 80 764 -193 -193 -177 92 95 95 95 98 96 98 720 722 578 95 99 100 321 321 321 -177 -177 -193 -193 -209 -177 112 -193 -193 -193 119 117 115 116 111 -193 -209 15 18 16 18 15 13 -193 -193 -193 -177 -193 -177 -193 -193 141 142 143 -193 143 146 146 149 147 0 0 0 0 0
    0 0 0 0 0 0 0 0 0 0 0 0 0 0 0 0 0 0 0 0 0 0 0 0 0 0 0 0 0 0 0 0 0 0 0 0 0 0 0 0 0 0 0 0 0 0 0 0 0 0 0 0 0 0 0 0 0 0 0 0 0 0 0 0 0 0 0 0 0 58 58 59 58 57 58 58 56 57 56 55 50 50 51 50 46 53 50 47 48 49 49 49 49 50 45 50 50 47 47 51 45 44 43 44 42 41 41 41 33 37 37 35 32 33 33 33 32 32 30 33 30 31 33 31 31 28 28 29 -193 -193 -193 -193 23 21 21 20 18 19 19 16 17 15 13 15 15 14 13 12 14 13 13 14 12 10 9 9 9 9 9 9 0 10 10 10 10 11 9 12 10 11 10 10 9 9 9 9 0 0 0 10 9 10 10 15 15 18 20 19 21 20 21 21 21 24 23 23 27 26 28 29 32 33 30 33 34 34 36 36 36 35 39 41 41 42 42 48 53 53 55 62 60 62 66 62 66 -177 -177 64 64 64 64 65 65 65 65 -177 65 62 65 64 63 67 65 -209 -193 -193 72 -193 74 73 77 -193 -193 -177 -193 765 91 94 -177 92 95 95 95 98 96 98 720 722 577 95 98 100 320 320 321 -177 -177 -193 -193 -193 -177 111 -193 -193 -193 119 116 114 116 110 110 -209 -193 -193 14 17 15 13 -193 -177 -193 -193 -193 -193 -193 140 -193 142 142 -193 143 147 148 151 148 0 0 0 0 0
    0 0 0 0 0 0 0 0 0 0 0 0 0 0 0 0 0 0 0 0 0 0 0 0 0 0 0 0 0 0 0 0 0 0 0 0 0 0 0 0 0 0 0 0 0 0 0 0 0 0 0 0 0 0 0 0 0 0 0 0 0 0 0 0 0 0 0 0 0 57 57 59 58 57 57 57 55 56 56 54 50 49 51 50 47 53 49 47 48 49 48 49 48 50 45 49 50 47 47 51 45 44 43 44 41 41 41 41 33 37 37 35 32 33 33 33 32 33 30 33 30 31 33 30 31 28 28 29 -193 -193 -193 -193 -193 21 21 20 18 20 19 15 16 14 12 13 14 14 12 11 13 11 11 12 10 0 0 0 0 0 9 9 0 10 10 10 10 11 9 12 10 10 9 9 9 9 0 9 0 0 0 10 9 10 10 15 16 20 21 19 21 20 21 20 20 23 22 23 26 26 28 29 32 33 30 33 34 34 35 35 35 34 38 40 40 41 42 47 54 54 55 62 60 62 66 63 66 -177 -177 64 64 64 64 64 64 64 64 -177 64 61 64 64 -193 67 65 -209 -193 -193 -193 -193 74 73 77 -193 -193 -177 -193 -177 91 -193 -177 92 94 94 95 98 96 98 720 722 97 94 98 99 320 320 -177 -209 -177 -193 -193 -193 -177 110 -193 -193 109 118 115 112 114 109 109 107 -209 -209 -193 16 -193 13 12 -193 -177 -209 -193 -193 -193 -177 -193 141 142 143 143 147 149 151 150 0 0 0 0 0
    0 0 0 0 0 0 0 0 0 0 0 0 0 0 0 0 0 0 0 0 0 0 0 0 0 0 0 0 0 0 0 0 0 0 0 0 0 0 0 0 0 0 0 0 0 0 0 0 0 0 0 0 0 0 0 0 0 0 0 0 0 0 0 0 0 0 0 0 0 57 57 59 58 57 57 57 55 56 56 55 50 50 52 51 48 53 49 47 48 49 48 49 48 50 45 49 50 48 47 51 45 44 43 43 41 41 40 41 33 37 37 35 32 33 33 33 32 33 30 33 30 31 33 30 31 28 28 28 25 -193 25 22 23 21 21 19 18 19 19 16 16 14 12 13 13 14 12 11 12 11 10 11 9 0 0 0 0 0 9 9 0 10 10 10 11 11 9 11 9 10 9 9 9 0 0 9 0 0 0 9 9 10 10 16 17 21 21 20 21 20 21 21 21 23 22 23 27 27 29 30 32 33 30 33 33 33 34 34 34 33 37 39 39 40 41 47 54 54 55 62 60 61 66 63 66 -177 -177 64 64 64 64 64 64 64 64 -177 64 61 64 64 -193 -193 -193 -209 -193 -193 -193 -193 74 73 77 -193 -193 -177 -193 -177 91 -193 -177 92 94 94 95 98 95 98 720 722 97 94 97 99 319 319 -177 -209 -177 -193 -193 -177 -177 110 113 -193 108 116 114 110 112 109 109 108 113 -209 -193 -193 -193 12 -193 -193 -177 -193 -193 138 138 140 -193 141 141 143 143 148 149 151 150 0 0 0 0 0
    0 0 0 0 0 0 0 0 0 0 0 0 0 0 0 0 0 0 0 0 0 0 0 0 0 0 0 0 0 0 0 0 0 0 0 0 0 0 0 0 0 0 0 0 0 0 0 0 0 0 0 0 0 0 0 0 0 0 0 0 0 0 0 0 0 0 0 0 0 56 57 59 58 57 57 57 55 57 56 55 51 50 53 52 50 53 49 47 48 49 48 49 49 50 46 49 51 48 47 51 45 43 42 43 41 40 40 40 34 37 37 35 32 33 33 33 32 33 30 33 30 31 32 30 30 28 28 28 25 25 25 22 23 21 21 19 19 19 19 16 16 13 12 12 12 13 12 10 12 11 10 10 9 0 0 0 0 0 0 9 9 10 10 10 11 11 9 11 10 10 9 9 9 0 0 9 0 0 0 9 9 10 10 15 17 22 22 20 21 21 21 22 22 24 22 23 27 27 29 30 32 33 30 33 33 33 33 33 34 32 37 38 38 40 -193 47 54 54 55 62 60 61 66 62 66 64 66 64 64 64 64 64 64 63 63 -177 64 61 64 64 -193 -193 -193 -177 -193 140 -193 -193 75 74 77 82 -193 -177 -193 -177 -193 -193 92 92 94 94 95 98 95 97 95 97 97 94 97 98 -193 -193 -193 -209 -177 -193 -193 -177 -177 109 112 -193 108 116 115 111 113 111 112 114 117 -209 -193 -193 -193 12 -193 -193 -193 -193 -193 137 -193 139 -193 140 141 144 143 148 150 151 150 0 0 0 0 0
    0 0 0 0 0 0 0 0 0 0 0 0 0 0 0 0 0 0 0 0 0 0 0 0 0 0 0 0 0 0 0 0 0 0 0 0 0 0 0 0 0 0 0 0 0 0 0 0 0 0 0 0 0 0 0 0 0 0 0 0 0 0 0 0 0 0 0 0 0 56 57 59 59 58 58 57 56 57 56 56 51 51 53 52 51 54 50 47 48 49 48 49 48 50 45 49 50 48 47 50 45 43 42 43 41 40 40 40 34 37 36 34 32 33 33 33 32 33 30 32 30 31 32 30 30 28 27 27 24 24 24 22 23 21 21 20 20 20 20 17 16 13 12 11 12 12 11 10 11 11 10 9 9 0 0 0 0 0 0 0 9 10 10 10 11 11 9 11 10 10 9 10 9 9 9 9 0 0 0 9 9 10 10 15 17 23 23 20 22 21 22 22 22 24 23 23 27 27 29 31 32 33 30 34 34 34 34 34 34 32 36 37 38 39 40 47 54 54 55 62 60 61 65 62 66 64 65 64 63 64 64 64 64 63 63 -177 64 61 64 64 -193 -193 -193 -177 -193 141 -193 -193 75 75 77 83 -193 -177 -193 -177 -193 771 91 91 93 94 95 98 95 97 95 96 96 94 96 98 -193 -193 -193 -209 -177 -193 -193 -193 -177 -193 112 -193 108 116 116 114 115 115 115 118 119 122 -193 -193 126 -193 -193 -193 -193 -193 134 137 -193 -193 259 -193 140 144 143 148 150 152 151 0 0 0 0 0
    0 0 0 0 0 0 0 0 0 0 0 0 0 0 0 0 0 0 0 0 0 0 0 0 0 0 0 0 0 0 0 0 0 0 0 0 0 0 0 0 0 0 0 0 0 0 0 0 0 0 0 0 0 0 0 0 0 0 0 0 0 0 0 0 0 0 0 0 0 57 57 60 59 58 58 57 55 57 56 55 51 50 52 51 51 54 50 47 47 48 47 48 48 50 45 48 51 48 48 50 45 43 42 43 41 40 40 40 34 37 36 34 32 33 32 32 31 32 30 31 30 30 31 30 29 28 27 26 24 24 24 22 23 21 22 20 21 21 21 18 16 14 13 11 11 11 11 10 11 10 10 9 9 0 0 0 0 0 0 0 0 9 10 10 10 10 9 10 10 10 9 10 9 9 9 9 0 0 0 9 9 10 10 15 17 24 23 21 22 21 22 23 23 24 23 24 28 28 30 32 32 34 31 34 34 34 34 34 34 33 36 -177 37 39 39 46 54 54 55 61 59 59 63 61 65 63 64 63 63 64 64 64 64 63 63 -193 64 61 64 64 -193 -177 -177 -177 -193 -193 -193 -193 76 75 77 83 -193 -193 -193 765 770 772 91 91 93 94 95 98 95 98 95 96 97 94 97 98 -193 -193 -193 -193 -177 -193 -193 -209 -177 -193 111 -193 108 117 118 116 117 117 117 120 120 122 -193 -193 125 -193 -193 131 132 134 134 136 -193 -193 258 -193 140 143 142 149 151 152 151 0 0 0 0 0
    0 0 0 0 0 0 0 0 0 0 0 0 0 0 0 0 0 0 0 0 0 0 0 0 0 0 0 0 0 0 0 0 0 0 0 0 0 0 0 0 0 0 0 0 0 0 0 0 0 0 0 0 0 0 0 0 0 0 0 0 0 0 0 0 0 0 0 0 0 57 58 60 59 58 58 56 55 56 56 55 51 51 52 51 52 54 50 47 47 47 47 48 47 49 45 48 51 48 48 50 45 43 42 43 41 40 40 40 35 37 36 34 31 33 32 32 31 32 30 31 29 30 30 29 28 28 26 25 23 23 23 22 23 21 22 21 22 21 22 20 18 14 14 12 12 12 11 10 11 11 10 10 9 9 0 0 0 0 0 0 0 9 9 9 10 10 9 11 10 11 10 10 10 9 9 9 0 0 0 9 9 10 10 15 17 24 24 21 22 21 22 -193 24 25 24 -193 28 28 30 32 32 34 31 34 34 34 35 35 35 33 -177 -177 37 39 -193 46 54 54 55 60 58 58 62 59 63 62 63 63 62 63 64 64 64 63 63 -193 63 61 64 63 -193 145 -177 -193 -193 -193 -193 75 76 75 77 82 77 -193 78 765 770 772 90 90 93 93 95 98 95 98 95 96 97 94 97 99 -193 -193 -193 -193 -177 -177 -193 -193 -177 -193 111 112 108 117 118 117 118 118 118 121 121 122 122 122 124 127 130 131 132 134 134 136 -193 -193 -177 -193 139 142 141 148 151 152 151 0 0 0 0 0
    0 0 0 0 0 0 0 0 0 0 0 0 0 0 0 0 0 0 0 0 0 0 0 0 0 0 0 0 0 0 0 0 0 0 0 0 0 0 0 0 0 0 0 0 0 0 0 0 0 0 0 0 0 0 0 0 0 0 0 0 0 0 0 0 0 0 0 0 0 57 58 60 59 58 57 56 55 57 56 55 52 52 52 51 53 54 49 46 47 47 46 47 47 49 45 48 51 48 48 50 46 43 42 43 41 40 40 40 37 38 37 35 32 33 32 32 30 31 30 30 29 29 29 29 28 27 26 24 23 22 22 21 23 21 22 21 22 22 22 21 19 15 15 13 12 12 12 11 12 11 11 11 9 9 0 0 0 0 0 0 0 9 9 9 9 10 9 10 10 10 10 10 10 9 9 9 0 0 0 9 9 10 10 15 16 24 24 21 22 21 22 -209 -193 -193 24 25 29 29 30 32 32 34 31 34 34 34 35 35 35 34 -177 -177 37 39 -193 46 53 53 55 59 57 -193 -193 58 62 61 62 62 62 62 63 63 63 62 62 -193 62 60 -193 -193 -209 145 141 -193 -193 -193 75 75 76 76 77 82 77 -193 77 765 770 771 90 90 92 93 95 98 95 98 95 96 97 94 97 99 -193 -193 -193 -177 -177 -177 -193 -193 -177 -193 111 112 108 116 118 118 118 119 119 121 121 123 122 122 124 127 130 131 132 135 134 136 -193 -193 -177 -193 138 142 141 148 151 152 -193 0 0 0 0 0
    0 0 0 0 0 0 0 0 0 0 0 0 0 0 0 0 0 0 0 0 0 0 0 0 0 0 0 0 0 0 0 0 0 0 0 0 0 0 0 0 0 0 0 0 0 0 0 0 0 0 0 0 0 0 0 0 0 0 0 0 0 0 0 0 0 0 0 0 0 57 58 60 59 58 57 56 55 57 56 56 53 53 53 53 54 55 50 46 47 46 46 47 47 48 44 48 51 48 48 49 46 43 42 43 41 40 40 40 -193 38 37 35 32 33 33 32 30 31 30 30 29 28 29 28 27 27 26 23 22 22 22 21 22 21 22 21 23 22 22 22 20 15 16 14 12 13 13 12 12 12 11 11 10 9 0 0 0 0 0 0 0 9 9 9 9 9 10 10 10 10 10 10 10 9 9 9 0 0 0 9 9 10 10 15 17 25 25 21 22 21 22 -193 -193 -193 -193 25 29 29 30 32 32 34 31 34 34 34 35 35 35 34 36 -177 37 39 39 45 53 53 54 58 56 -193 -177 -193 61 60 -193 61 61 62 62 62 63 62 62 60 61 60 -193 -193 -209 -177 142 -193 -193 -193 75 76 76 77 77 81 77 78 77 -193 769 771 -193 89 -193 93 95 98 95 98 95 96 97 94 98 99 -193 93 -209 -177 -177 -177 -177 -193 -177 -193 111 112 108 115 117 118 119 119 119 121 121 123 122 123 123 127 130 132 133 135 134 136 -193 137 -193 -193 138 141 140 148 152 152 -193 0 0 0 0 0
    0 0 0 0 0 0 0 0 0 0 0 0 0 0 0 0 0 0 0 0 0 0 0 0 0 0 0 0 0 0 0 0 0 0 0 0 0 0 0 0 0 0 0 0 0 0 0 0 0 0 0 0 0 0 0 0 0 0 0 0 0 0 0 0 0 0 0 0 0 57 58 59 59 58 57 56 55 57 57 56 55 55 55 54 56 56 51 47 47 46 46 47 47 48 44 47 51 47 47 48 -193 43 42 43 41 40 40 40 -193 38 37 36 33 34 33 32 30 31 30 29 28 28 28 28 27 26 26 22 22 21 21 21 22 21 22 21 22 21 22 22 20 15 16 14 13 13 14 13 12 12 12 12 11 9 0 0 0 0 0 0 0 9 9 0 9 10 10 10 10 10 10 10 10 9 9 9 0 0 0 9 10 10 10 15 18 25 25 21 23 22 23 -177 -177 -177 -193 26 29 29 30 32 32 34 31 34 34 34 35 35 35 34 37 -177 37 39 39 45 53 53 54 57 54 -193 -177 55 -193 59 -193 60 61 61 62 62 63 62 62 60 61 60 63 62 -193 -177 -177 -193 76 78 75 76 77 77 78 81 77 78 76 82 769 770 -193 89 -193 93 95 98 96 98 95 97 97 94 98 99 -193 93 -193 -177 -177 -177 -177 -177 -193 -193 110 112 108 114 117 118 119 119 119 122 121 123 122 123 123 126 -193 132 133 135 135 136 -193 137 -193 -193 138 142 140 148 152 153 -193 0 0 0 0 0
    0 0 0 0 0 0 0 0 0 0 0 0 0 0 0 0 0 0 0 0 0 0 0 0 0 0 0 0 0 0 0 0 0 0 0 0 0 0 0 0 0 0 0 0 0 0 0 0 0 0 0 0 0 0 0 0 0 0 0 0 0 0 0 0 0 0 0 0 0 57 57 59 59 58 58 57 55 57 57 57 55 55 55 54 56 56 51 47 47 47 46 47 47 48 44 46 51 46 46 47 -193 43 42 43 41 40 40 40 -193 38 37 36 34 34 34 32 30 31 30 29 29 28 28 28 26 26 25 21 22 21 20 20 22 21 22 21 23 21 23 23 21 15 17 14 13 13 13 12 12 12 12 12 11 9 0 0 0 0 0 0 9 9 9 9 10 10 11 11 11 11 10 10 11 10 9 9 0 0 0 9 10 9 10 15 17 25 25 21 23 23 23 -177 -177 -177 -193 26 30 30 30 32 32 34 30 34 34 34 36 36 36 34 37 -177 37 39 40 45 53 53 54 56 53 54 -177 54 -193 58 -177 -193 60 61 62 -193 63 62 62 61 61 60 63 62 -193 -177 -177 -193 76 79 -193 76 77 77 78 81 77 77 76 81 768 770 -177 -193 -177 93 95 98 96 98 95 97 97 94 98 99 -177 -193 -193 -177 -177 -177 -177 -177 -193 -193 110 112 108 114 117 118 119 119 120 122 121 123 123 123 123 126 -193 132 133 135 135 136 137 138 -193 -193 139 142 141 148 152 153 -193 0 0 0 0 0
    0 0 0 0 0 0 0 0 0 0 0 0 0 0 0 0 0 0 0 0 0 0 0 0 0 0 0 0 0 0 0 0 0 0 0 0 0 0 0 0 0 0 0 0 0 0 0 0 0 0 0 0 0 0 0 0 0 0 0 0 0 0 0 0 0 0 0 0 0 57 57 60 59 59 58 57 55 57 57 57 55 55 54 53 54 55 52 47 48 47 46 47 47 48 45 45 51 46 46 46 -193 43 42 43 41 40 40 40 -193 38 37 36 34 34 34 32 31 31 30 29 29 28 28 27 26 25 25 20 21 20 20 20 22 21 22 21 23 -193 24 23 22 15 16 14 12 12 13 12 11 12 12 11 10 0 0 0 0 0 0 0 0 9 9 10 10 11 12 12 12 12 12 11 12 11 10 9 0 0 0 9 10 9 10 14 14 25 25 21 23 23 24 -177 -177 -177 -193 26 30 30 30 32 31 33 30 34 34 34 36 36 36 35 38 -177 38 40 41 45 53 53 54 56 52 53 -193 53 -209 -193 -177 -177 -193 61 62 132 63 62 62 61 61 60 63 62 -193 -177 -177 -193 76 79 -193 76 76 77 78 81 77 77 76 80 767 770 -177 -193 -177 93 96 99 96 98 96 97 98 95 99 99 -193 -193 -193 -177 -177 -177 -177 -177 -209 -193 110 112 108 115 117 118 119 120 120 122 121 123 123 124 123 126 130 132 133 135 135 137 137 138 -193 -193 139 142 141 147 151 153 -193 0 0 0 0 0
    0 0 0 0 0 0 0 0 0 0 0 0 0 0 0 0 0 0 0 0 0 0 0 0 0 0 0 0 0 0 0 0 0 0 0 0 0 0 0 0 0 0 0 0 0 0 0 0 0 0 0 0 0 0 0 0 0 0 0 0 0 0 0 0 0 0 0 0 0 57 58 60 59 59 57 57 55 57 57 57 55 55 53 53 53 55 52 47 48 47 46 47 48 48 45 45 51 46 46 46 -193 43 43 43 41 40 40 40 -193 38 38 36 35 34 34 32 31 31 30 29 29 28 29 27 25 25 25 20 21 20 19 20 21 22 22 21 23 -193 24 24 23 16 17 15 13 12 13 12 11 12 11 11 9 0 0 0 0 0 0 0 0 9 10 10 11 12 12 12 12 13 12 12 12 11 10 9 0 0 0 9 10 9 10 13 13 22 24 20 22 23 -193 -193 -177 -177 27 27 31 31 30 32 31 33 30 34 34 34 37 37 37 36 38 -177 38 40 42 45 52 52 53 55 51 52 53 52 -193 -193 -177 -177 -193 61 62 132 -193 62 62 61 60 -193 62 61 -193 -177 146 -193 -193 -193 -193 75 76 77 78 81 77 77 75 80 767 769 -177 88 -177 94 96 99 96 99 96 98 99 96 100 100 -193 316 -193 -177 -177 -177 -177 -177 -209 -193 110 112 108 115 117 119 119 120 120 122 121 123 123 124 123 126 129 132 133 135 135 137 137 138 -193 -193 139 142 140 146 150 153 -193 0 0 0 0 0
    0 0 0 0 0 0 0 0 0 0 0 0 0 0 0 0 0 0 0 0 0 0 0 0 0 0 0 0 0 0 0 0 0 0 0 0 0 0 0 0 0 0 0 0 0 0 0 0 0 0 0 0 0 0 0 0 0 0 0 0 0 0 0 0 0 0 0 0 0 58 58 60 59 58 57 56 55 56 56 56 55 54 53 52 52 55 52 47 48 47 46 47 48 48 45 44 51 46 45 46 -193 43 43 43 41 40 40 40 -193 38 38 36 35 33 35 32 31 31 30 30 29 28 29 27 26 26 25 21 21 20 20 20 21 22 22 22 24 -193 25 24 23 18 17 16 13 12 12 12 12 12 12 12 10 0 0 0 0 0 0 0 0 9 10 11 11 12 12 13 12 13 12 12 12 10 10 9 0 9 0 9 9 9 10 12 12 19 23 18 21 23 -193 -193 -177 -177 27 27 31 31 30 32 31 33 30 34 34 34 38 38 38 37 39 -177 39 42 44 45 52 52 52 54 50 51 53 52 -193 -193 -177 -177 -193 60 62 131 131 62 61 61 -193 -193 -193 61 -177 145 146 -193 -193 -193 -193 75 76 77 78 80 77 77 75 79 766 769 -177 88 -177 94 98 100 97 99 98 100 100 98 101 101 -193 317 -193 -177 -177 -177 -177 -177 -193 -193 110 111 108 115 117 118 118 120 119 121 121 123 122 124 123 126 129 132 133 -193 -193 137 137 138 -193 -193 -193 141 140 144 149 -193 -193 0 0 0 0 0
    0 0 0 0 0 0 0 0 0 0 0 0 0 0 0 0 0 0 0 0 0 0 0 0 0 0 0 0 0 0 0 0 0 0 0 0 0 0 0 0 0 0 0 0 0 0 0 0 0 0 0 0 0 0 0 0 0 0 0 0 0 0 0 0 0 0 0 0 0 58 58 60 59 58 57 57 55 56 56 56 55 54 53 52 51 55 52 47 48 47 46 47 48 48 46 43 51 45 45 45 506 43 43 43 41 40 40 40 -193 37 38 36 35 33 35 32 31 32 31 30 30 29 30 28 27 26 25 21 22 20 20 20 21 22 22 22 24 -193 25 24 23 18 18 17 14 12 12 13 13 12 12 12 11 9 9 9 0 0 0 0 0 10 10 11 12 12 12 13 12 13 12 12 12 10 9 9 0 0 0 0 0 0 9 11 11 16 22 18 21 24 24 -193 -193 -193 28 28 32 32 30 32 31 33 30 34 34 34 38 38 38 38 40 40 40 43 45 45 51 51 51 54 49 50 52 51 -193 -193 -177 -177 -193 60 61 131 131 61 61 60 -193 -193 -193 61 -177 145 146 -193 -193 -193 -193 75 76 77 77 81 77 77 75 79 85 768 -193 88 -177 95 99 101 98 100 99 101 101 -193 101 101 319 318 321 -177 -177 -177 -177 -177 -193 -177 109 111 108 114 116 117 117 118 118 120 120 123 122 123 123 127 129 132 133 -193 -193 137 137 138 -193 -193 -193 140 -193 142 147 -193 -193 0 0 0 0 0
    0 0 0 0 0 0 0 0 0 0 0 0 0 0 0 0 0 0 0 0 0 0 0 0 0 0 0 0 0 0 0 0 0 0 0 0 0 0 0 0 0 0 0 0 0 0 0 0 0 0 0 0 0 0 0 0 0 0 0 0 0 0 0 0 0 0 0 0 0 58 58 60 59 58 57 57 55 57 57 56 55 54 53 52 49 54 51 47 47 47 47 47 48 48 46 43 50 45 44 45 -193 43 43 42 41 40 40 40 38 37 37 35 35 33 35 32 31 32 31 31 31 29 31 28 28 27 26 22 22 20 20 20 21 21 22 21 23 22 24 24 23 18 19 17 14 13 13 13 13 13 12 12 11 10 10 10 9 0 0 9 9 10 11 11 12 13 12 13 12 13 13 12 12 10 10 10 0 9 0 0 9 0 10 11 11 14 21 19 21 25 24 28 -193 -193 28 28 31 31 30 32 31 33 30 34 34 34 38 38 38 38 40 41 40 43 44 44 49 49 49 54 49 50 52 51 -193 55 -193 -177 -193 60 61 131 131 62 -193 -193 -193 -193 -193 61 -177 144 145 -193 -193 146 141 -193 75 77 77 81 77 77 75 79 84 768 -193 -177 -177 95 100 101 99 100 100 102 102 -193 102 102 321 319 322 -177 -177 -177 -177 -177 -193 -177 109 111 108 113 115 115 115 117 117 120 119 122 122 123 124 127 129 132 133 -193 -193 -193 137 138 -193 -193 -193 140 -193 141 145 -209 -193 0 0 0 0 0
    0 0 0 0 0 0 0 0 0 0 0 0 0 0 0 0 0 0 0 0 0 0 0 0 0 0 0 0 0 0 0 0 0 0 0 0 0 0 0 0 0 0 0 0 0 0 0 0 0 0 0 0 0 0 0 0 0 0 0 0 0 0 0 0 0 0 0 0 0 58 58 61 59 58 57 57 55 57 57 56 54 54 53 52 48 54 52 47 48 47 47 48 49 49 47 43 49 45 44 45 -193 43 43 42 41 40 40 40 37 36 37 35 35 32 35 32 31 33 32 31 32 29 32 28 29 28 27 22 22 21 20 20 21 21 22 21 23 22 23 23 22 18 19 16 15 13 12 13 13 14 13 13 12 11 11 11 10 9 0 9 9 11 11 11 12 12 12 13 13 14 13 12 12 11 10 10 9 9 0 8 9 9 10 10 10 12 21 19 21 25 25 28 27 30 28 28 32 32 30 32 31 32 30 34 34 34 39 38 38 38 40 41 40 42 44 43 49 49 49 54 49 49 51 51 -193 54 55 -177 -193 60 61 131 130 62 -193 61 -177 59 -193 -177 -193 144 146 -193 147 145 141 -193 75 77 77 81 77 77 75 79 84 767 -193 87 -177 96 101 102 100 101 102 103 104 -177 103 103 322 320 322 -177 -177 -177 -177 -177 -193 -209 109 111 108 112 115 114 113 116 117 119 118 122 121 123 124 -193 128 132 133 -193 -193 -193 -193 138 -193 -193 -193 140 -193 141 144 -193 -193 0 0 0 0 0
    0 0 0 0 0 0 0 0 0 0 0 0 0 0 0 0 0 0 0 0 0 0 0 0 0 0 0 0 0 0 0 0 0 0 0 0 0 0 0 0 0 0 0 0 0 0 0 0 0 0 0 0 0 0 0 0 0 0 0 0 0 0 0 0 0 0 0 0 0 58 58 61 58 58 57 57 55 57 57 56 54 54 53 52 49 53 52 47 48 48 48 48 49 49 48 43 47 44 44 45 50 43 43 42 41 40 40 39 37 35 37 35 35 32 35 32 32 33 32 32 32 30 33 29 30 29 27 23 22 21 21 21 22 21 22 20 23 22 23 23 22 18 19 16 15 13 12 12 13 16 14 14 13 12 13 13 12 10 9 9 9 11 11 10 12 12 12 14 13 14 13 13 12 11 10 11 9 9 0 0 9 9 10 10 9 11 20 18 21 25 25 28 27 30 29 28 32 32 30 31 31 32 30 34 34 33 39 39 38 38 41 41 41 43 44 44 48 49 50 53 49 49 52 51 54 54 55 -177 -193 59 60 131 -193 61 61 61 -177 -177 -177 -193 -193 144 145 149 146 144 141 74 75 77 77 82 77 77 75 79 84 86 87 87 -177 -193 -193 103 101 102 -193 -193 106 -193 105 105 -177 321 323 -177 330 331 337 -193 -193 -209 109 110 108 112 115 114 112 114 115 117 118 121 121 123 124 -193 128 132 132 -193 -193 -193 -209 138 -193 -193 -193 140 139 141 143 148 -193 0 0 0 0 0
    0 0 0 0 0 0 0 0 0 0 0 0 0 0 0 0 0 0 0 0 0 0 0 0 0 0 0 0 0 0 0 0 0 0 0 0 0 0 0 0 0 0 0 0 0 0 0 0 0 0 0 0 0 0 0 0 0 0 0 0 0 0 0 0 0 0 0 0 0 58 58 61 58 58 57 57 55 57 57 56 53 53 53 52 48 53 52 47 47 48 48 48 48 49 48 43 47 44 44 45 51 43 43 42 41 40 39 39 37 35 37 35 35 32 35 32 32 34 33 32 33 30 33 29 31 29 27 24 23 21 21 21 22 21 22 20 23 22 23 23 22 18 20 16 16 14 13 14 17 19 17 16 15 15 16 15 13 10 9 10 10 11 11 10 11 12 12 14 13 14 14 13 12 11 11 11 0 9 0 0 0 9 9 10 9 11 21 19 21 24 25 27 27 29 28 28 32 32 30 31 31 32 30 32 33 32 38 38 38 37 40 40 41 42 43 43 45 46 48 53 49 49 52 51 54 54 55 -177 -193 59 60 131 61 61 61 60 -177 -177 -177 -193 -193 144 145 148 146 143 -193 74 75 77 77 82 78 78 76 79 84 85 86 87 -193 -177 -193 -193 102 103 -193 106 107 107 106 106 -177 321 323 -193 -193 -193 337 -209 -209 -193 109 110 108 112 115 114 111 113 114 116 117 121 121 123 124 -193 129 132 132 -193 -193 -193 -209 138 -193 -193 -193 140 140 141 143 147 147 0 0 0 0 0
    0 0 0 0 0 0 0 0 0 0 0 0 0 0 0 0 0 0 0 0 0 0 0 0 0 0 0 0 0 0 0 0 0 0 0 0 0 0 0 0 0 0 0 0 0 0 0 0 0 0 0 0 0 0 0 0 0 0 0 0 0 0 0 0 0 0 0 0 0 59 58 61 58 58 57 57 56 56 57 56 53 53 53 53 48 53 52 47 47 47 47 47 48 48 48 43 46 45 45 45 51 43 43 42 41 39 39 39 37 35 37 35 36 32 35 32 33 34 33 32 34 31 34 30 32 30 28 25 23 22 22 21 22 21 22 20 22 22 23 22 22 19 20 18 19 17 17 18 20 20 20 19 18 18 19 17 15 12 11 10 10 12 11 10 11 11 12 14 13 14 13 13 12 11 11 12 0 9 0 0 0 9 9 10 9 11 21 18 20 24 24 26 27 29 28 28 32 32 31 31 32 32 30 32 34 32 39 39 39 39 41 41 42 43 44 43 44 46 47 52 49 49 52 50 53 53 54 -193 -193 59 59 60 61 61 60 60 -177 -177 -177 -193 -193 144 145 148 145 143 -193 75 76 77 77 83 78 78 76 79 83 85 86 87 -177 -177 -193 -193 103 -193 -193 107 108 108 106 107 -177 321 322 -193 -193 -193 -193 -193 -209 -193 109 110 109 112 115 113 111 113 113 115 117 121 121 124 124 129 129 132 132 -193 -193 -193 -209 138 -193 -193 139 140 140 141 143 146 147 0 0 0 0 0
    0 0 0 0 0 0 0 0 0 0 0 0 0 0 0 0 0 0 0 0 0 0 0 0 0 0 0 0 0 0 0 0 0 0 0 0 0 0 0 0 0 0 0 0 0 0 0 0 0 0 0 0 0 0 0 0 0 0 0 0 0 0 0 0 0 0 0 0 0 59 58 60 58 57 57 56 56 56 56 56 53 53 53 53 49 53 52 47 47 47 47 47 47 48 48 43 45 44 44 44 51 42 42 41 40 39 39 39 37 35 37 35 36 32 35 32 33 34 33 32 34 31 33 30 33 31 28 25 24 22 22 22 22 21 22 20 22 22 23 22 22 20 21 19 20 19 19 20 21 21 20 20 19 19 20 19 17 15 12 11 11 12 11 9 10 11 11 15 13 14 13 13 13 11 11 12 0 9 0 0 0 9 10 10 9 11 21 19 21 24 24 26 26 28 28 28 32 32 31 31 32 32 31 33 35 32 39 40 40 40 42 42 42 42 43 43 43 44 46 50 48 49 52 50 53 53 54 55 56 58 58 59 61 61 60 60 -177 -177 -177 -177 60 143 144 147 144 142 -193 75 76 78 78 83 78 79 76 79 83 85 86 87 -177 -193 -193 104 104 -193 -193 107 108 109 106 107 -177 321 322 102 101 102 -193 105 105 105 108 110 108 111 114 113 112 113 113 115 117 122 122 124 125 130 -193 132 132 -193 -193 -193 -209 -193 -193 139 139 140 140 142 142 145 146 0 0 0 0 0
    0 0 0 0 0 0 0 0 0 0 0 0 0 0 0 0 0 0 0 0 0 0 0 0 0 0 0 0 0 0 0 0 0 0 0 0 0 0 0 0 0 0 0 0 0 0 0 0 0 0 0 0 0 0 0 0 0 0 0 0 0 0 0 0 0 0 0 0 0 58 58 60 57 57 56 56 56 56 56 56 53 54 54 54 50 53 52 47 47 47 47 47 47 48 48 43 45 44 44 44 51 42 42 41 40 39 39 39 37 34 37 35 36 32 35 32 33 34 34 33 34 31 34 32 35 32 29 27 25 24 23 23 23 21 22 20 21 22 22 21 22 20 21 20 21 20 20 20 22 22 21 20 20 20 21 20 18 16 14 12 12 14 10 0 10 10 10 14 12 13 13 13 12 11 11 12 0 0 0 0 0 10 12 12 11 14 22 20 21 23 24 25 25 27 28 28 32 32 31 31 33 32 31 34 36 32 39 40 40 40 42 42 42 42 43 43 42 44 46 50 47 49 52 51 53 54 54 55 56 58 58 59 60 61 60 60 59 60 62 62 62 65 66 71 72 -193 75 76 76 77 78 84 79 79 77 79 83 85 86 87 -193 -177 104 104 104 103 -193 107 108 109 -193 107 -193 -177 -193 101 100 101 102 105 105 105 108 110 109 112 114 114 114 114 114 116 118 -193 -193 -193 -193 -193 -193 -193 132 -177 -193 -193 -209 -193 -193 139 140 141 141 142 142 144 145 0 0 0 0 0
    0 0 0 0 0 0 0 0 0 0 0 0 0 0 0 0 0 0 0 0 0 0 0 0 0 0 0 0 0 0 0 0 0 0 0 0 0 0 0 0 0 0 0 0 0 0 0 0 0 0 0 0 0 0 0 0 0 0 0 0 0 0 0 0 0 0 0 0 0 58 58 59 56 56 56 56 55 56 56 56 52 54 55 54 51 53 52 48 47 47 47 47 47 48 47 43 45 43 43 43 51 42 41 40 40 39 39 39 37 34 37 35 35 33 34 32 33 34 34 33 35 32 35 34 36 34 30 29 26 25 25 24 23 22 22 20 21 22 22 21 22 21 22 21 22 21 21 20 22 22 21 19 19 20 21 20 19 17 15 13 15 15 11 9 10 10 10 15 13 13 13 14 12 11 11 13 0 0 0 9 9 11 13 14 14 15 22 21 21 23 23 24 25 26 27 28 32 32 32 32 34 33 32 34 36 32 38 40 40 40 42 43 43 42 43 43 42 44 46 49 48 51 53 52 53 54 54 55 55 57 57 58 60 60 59 59 59 60 63 63 64 66 66 71 73 79 76 77 77 78 79 84 80 80 77 80 83 85 87 87 -193 -193 102 103 103 103 -193 106 108 108 105 106 106 -177 -193 100 99 101 102 105 105 106 108 110 110 113 114 115 115 116 116 117 119 -193 -193 -193 -193 -193 -193 -193 132 -193 134 -209 -193 138 -193 140 140 141 141 142 142 143 144 0 0 0 0 0
    0 0 0 0 0 0 0 0 0 0 0 0 0 0 0 0 0 0 0 0 0 0 0 0 0 0 0 0 0 0 0 0 0 0 0 0 0 0 0 0 0 0 0 0 0 0 0 0 0 0 0 0 0 0 0 0 0 0 0 0 0 0 0 0 0 0 0 0 0 58 58 59 56 56 56 55 55 55 55 55 52 55 56 55 53 54 52 48 48 47 47 47 47 48 47 44 45 43 43 43 50 41 41 40 39 39 39 39 38 34 37 35 35 33 34 32 33 34 34 32 35 32 34 34 36 34 31 30 27 26 26 24 24 22 22 20 20 21 21 20 22 21 21 21 22 22 22 21 22 22 22 19 20 20 21 20 20 19 16 14 18 15 11 9 9 10 10 15 13 13 14 14 13 12 12 14 9 9 9 10 10 12 14 14 16 16 22 20 20 21 21 23 23 25 26 27 32 33 33 32 34 33 32 34 35 31 37 39 39 39 42 43 43 42 42 43 41 45 47 49 48 52 54 52 54 54 55 55 55 57 57 57 59 60 59 59 59 60 63 64 65 67 67 72 74 82 77 77 77 78 80 85 81 81 78 81 83 86 87 87 90 98 101 102 103 103 -193 106 107 108 105 107 106 -193 106 99 99 101 101 105 105 106 109 110 111 115 115 116 116 117 117 118 -193 -193 -193 -193 -193 -193 -193 -193 -193 -177 -193 -193 137 139 139 140 141 141 141 142 141 143 144 0 0 0 0 0
    0 0 0 0 0 0 0 0 0 0 0 0 0 0 0 0 0 0 0 0 0 0 0 0 0 0 0 0 0 0 0 0 0 0 0 0 0 0 0 0 0 0 0 0 0 0 0 0 0 0 0 0 0 0 0 0 0 0 0 0 0 0 0 0 0 0 0 0 0 59 58 59 56 56 56 55 55 55 54 54 53 55 57 56 53 54 52 48 48 48 47 47 47 48 47 44 47 43 42 43 50 41 41 40 39 39 39 39 38 34 37 35 35 33 34 32 33 34 34 32 35 32 34 33 36 34 31 30 28 26 26 25 24 23 22 21 19 21 22 20 22 22 22 21 23 22 22 21 22 22 22 19 20 21 22 21 20 19 18 14 19 16 12 9 10 10 10 16 13 13 14 14 13 13 13 14 9 9 0 9 9 13 13 14 18 17 22 19 20 21 22 23 24 25 27 28 33 34 34 33 35 33 33 34 35 30 37 38 40 40 42 43 43 42 43 44 42 46 49 49 50 53 55 53 54 54 55 54 55 56 56 55 58 59 58 57 58 59 63 66 68 68 67 73 74 83 79 78 78 79 81 85 81 81 79 80 83 85 87 87 89 97 100 101 102 102 104 105 107 107 104 106 106 104 106 99 100 101 101 105 105 106 109 111 112 116 116 117 117 118 118 -193 -193 17 -193 -193 -193 -193 -193 -193 -193 -177 -193 -193 137 139 140 140 141 142 142 142 142 143 144 0 0 0 0 0
    0 0 0 0 0 0 0 0 0 0 0 0 0 0 0 0 0 0 0 0 0 0 0 0 0 0 0 0 0 0 0 0 0 0 0 0 0 0 0 0 0 0 0 0 0 0 0 0 0 0 0 0 0 0 0 0 0 0 0 0 0 0 0 0 0 0 0 0 0 60 58 58 56 55 56 55 55 54 54 54 53 55 57 57 53 54 51 48 48 47 47 47 46 48 47 44 48 43 42 43 50 41 41 40 39 39 39 39 38 34 37 35 35 34 34 33 34 34 34 32 35 33 34 34 36 34 32 31 29 27 27 26 25 24 23 22 20 22 23 21 23 23 22 22 23 22 22 21 22 21 22 19 20 20 21 21 20 19 19 15 21 18 13 10 11 10 9 15 13 12 13 14 12 12 13 14 0 0 0 9 9 13 14 16 20 18 22 19 20 22 23 24 24 25 27 28 33 33 34 32 34 33 33 33 35 30 36 38 40 40 42 43 43 43 43 44 41 44 49 48 49 53 55 54 54 55 55 54 55 56 56 54 58 60 58 58 60 63 69 71 73 72 71 74 76 83 80 80 79 80 82 85 82 82 80 80 83 85 87 87 89 95 99 99 101 101 103 104 106 106 103 105 106 104 106 99 100 102 102 106 106 107 -193 112 113 117 116 117 118 118 119 -193 -193 18 17 -193 -193 -193 15 -193 -193 -177 -193 -209 137 139 140 140 142 142 142 143 142 143 144 0 0 0 0 0
    0 0 0 0 0 0 0 0 0 0 0 0 0 0 0 0 0 0 0 0 0 0 0 0 0 0 0 0 0 0 0 0 0 0 0 0 0 0 0 0 0 0 0 0 0 0 0 0 0 0 0 0 0 0 0 0 0 0 0 0 0 0 0 0 0 0 0 0 0 61 58 58 56 55 56 55 55 55 53 54 54 55 56 56 53 54 51 48 48 47 47 46 46 48 46 44 50 43 43 43 50 41 41 40 40 39 39 39 38 34 37 35 35 34 35 33 34 34 34 33 35 33 33 33 35 34 32 32 30 27 28 27 26 25 23 23 20 23 23 21 23 23 22 22 22 22 22 20 21 20 22 19 19 20 21 20 19 19 19 15 22 20 16 12 12 11 10 16 13 12 13 13 12 13 13 14 0 0 9 10 10 15 17 19 22 19 22 20 21 23 23 24 24 25 26 27 33 32 33 32 33 33 33 34 35 30 36 38 40 41 41 42 42 42 42 43 39 42 47 47 48 53 55 54 54 55 56 55 57 57 57 57 59 62 59 59 62 65 71 72 74 74 73 75 76 82 80 80 79 80 82 85 82 82 81 81 84 86 88 88 90 95 98 98 100 100 101 102 105 105 100 103 104 102 105 95 99 102 -209 -193 -193 -193 -193 -193 114 117 117 118 118 118 -193 -193 -193 19 17 -193 17 -193 16 14 14 -177 -193 -209 137 139 -177 -177 142 142 142 143 143 144 144 0 0 0 0 0
    0 0 0 0 0 0 0 0 0 0 0 0 0 0 0 0 0 0 0 0 0 0 0 0 0 0 0 0 0 0 0 0 0 0 0 0 0 0 0 0 0 0 0 0 0 0 0 0 0 0 0 0 0 0 0 0 0 0 0 0 0 0 0 0 0 0 0 0 0 62 58 58 56 56 56 55 55 55 53 54 54 55 56 56 52 53 50 48 48 47 47 47 46 48 46 44 50 43 42 43 49 42 41 41 40 39 40 39 39 35 37 35 35 34 35 34 35 35 34 33 35 33 33 34 35 34 32 33 30 28 29 28 27 25 24 24 21 23 23 21 23 23 22 22 22 21 21 20 21 19 21 18 19 20 20 20 19 19 19 16 23 20 18 15 15 12 11 15 13 12 13 13 13 13 14 14 10 9 10 11 12 17 19 21 22 19 21 20 21 23 23 24 24 25 26 27 33 31 33 32 33 33 33 34 36 32 36 38 41 41 42 42 43 42 42 43 39 42 47 46 46 52 54 54 54 55 55 55 57 57 57 57 58 61 59 58 61 64 69 71 72 72 72 74 76 80 78 79 78 80 82 85 82 82 82 83 84 86 88 89 90 95 97 97 98 99 99 99 102 102 96 99 100 99 103 94 97 100 -193 -193 -193 -193 -193 -193 115 118 117 118 119 118 -193 -193 -193 -193 -193 -193 -193 -193 16 15 15 -177 -193 -209 138 139 -177 -177 142 142 142 143 142 143 143 0 0 0 0 0
    0 0 0 0 0 0 0 0 0 0 0 0 0 0 0 0 0 0 0 0 0 0 0 0 0 0 0 0 0 0 0 0 0 0 0 0 0 0 0 0 0 0 0 0 0 0 0 0 0 0 0 0 0 0 0 0 0 0 0 0 0 0 0 0 0 0 0 0 0 63 58 58 57 56 56 56 56 55 54 55 55 55 56 56 53 53 51 49 48 47 47 47 47 49 46 44 51 43 42 43 48 41 41 41 40 40 40 40 39 35 37 36 34 35 34 34 34 34 34 33 34 33 33 34 34 33 32 33 31 29 30 28 27 26 25 24 22 23 23 21 23 23 22 23 22 21 22 21 21 19 20 17 18 19 20 20 19 20 21 20 25 23 22 21 19 14 12 15 13 12 13 13 13 13 14 15 10 10 10 12 13 19 19 21 22 19 21 20 22 24 24 25 25 25 27 28 34 32 34 32 34 35 34 35 36 32 36 36 40 39 40 40 41 40 40 41 37 41 47 46 47 53 54 55 55 56 56 55 57 58 58 57 57 60 59 58 61 63 68 69 71 71 71 72 75 78 77 79 78 80 83 85 83 83 83 85 85 87 89 89 90 95 96 96 96 97 97 96 99 99 93 94 95 95 96 94 97 99 100 -193 108 109 111 114 115 117 116 117 118 118 119 120 121 123 124 128 128 128 -193 -193 -193 -177 -193 -209 137 139 140 141 142 142 142 142 142 142 143 0 0 0 0 0
    0 0 0 0 0 0 0 0 0 0 0 0 0 0 0 0 0 0 0 0 0 0 0 0 0 0 0 0 0 0 0 0 0 0 0 0 0 0 0 0 0 0 0 0 0 0 0 0 0 0 0 0 0 0 0 0 0 0 0 0 0 0 0 0 0 0 0 0 0 63 58 58 57 56 56 56 56 56 54 55 56 56 56 56 53 54 51 49 48 47 47 47 47 49 47 44 51 44 43 43 48 42 41 41 40 40 40 40 39 36 37 36 34 35 34 34 34 35 34 33 35 34 33 34 34 33 32 34 31 30 30 29 28 27 26 25 23 24 24 23 25 25 24 24 23 22 22 21 22 19 20 16 18 19 19 20 20 21 22 22 25 24 23 23 20 16 12 14 12 10 12 11 12 14 15 15 10 10 10 14 15 20 16 16 21 19 21 20 22 24 25 26 26 26 27 29 33 32 34 32 34 35 35 35 36 33 36 35 39 38 38 39 40 39 40 40 38 42 49 48 48 52 54 55 55 56 56 55 57 58 58 57 56 59 58 58 61 64 67 68 70 70 69 71 74 77 76 77 77 80 83 86 84 84 84 86 86 87 89 90 90 94 95 95 95 95 95 94 96 96 92 91 91 92 92 94 97 98 101 106 108 109 112 114 116 118 116 117 118 118 119 120 121 122 124 128 129 129 131 131 -193 -193 135 136 137 139 140 140 142 142 142 142 142 142 143 0 0 0 0 0
    0 0 0 0 0 0 0 0 0 0 0 0 0 0 0 0 0 0 0 0 0 0 0 0 0 0 0 0 0 0 0 0 0 0 0 0 0 0 0 0 0 0 0 0 0 0 0 0 0 0 0 0 0 0 0 0 0 0 0 0 0 0 0 0 0 0 0 0 0 64 58 58 57 57 57 57 56 56 55 56 57 57 57 57 54 54 51 49 48 47 47 46 47 48 47 44 50 46 43 44 48 42 41 41 40 40 40 40 38 36 36 35 33 35 35 34 35 34 34 33 34 33 32 33 33 33 32 33 31 30 31 30 28 28 27 27 25 25 25 24 26 25 25 25 24 23 23 22 22 20 20 16 18 20 21 22 22 22 24 24 26 25 25 25 21 19 17 19 15 12 14 13 16 20 20 19 11 10 11 16 15 18 13 13 20 18 20 20 22 25 26 26 27 27 28 29 33 31 34 32 34 34 35 35 36 34 36 34 39 39 37 38 39 38 38 39 39 42 49 48 48 51 53 54 54 54 54 54 56 57 58 56 56 58 59 59 60 60 63 64 67 68 66 65 71 75 75 77 78 81 84 86 85 86 86 87 88 88 90 90 90 93 94 94 94 95 94 93 94 94 91 89 89 90 90 94 99 100 102 107 109 110 112 113 116 117 116 117 118 118 120 120 122 123 126 129 131 131 132 132 133 134 136 137 138 139 140 140 141 141 142 142 143 142 143 0 0 0 0 0</data></disparity>
</opencv_storage>
