<?xml version="1.0"?>
<opencv_storage>
<gps_time_stamp>315903</gps_time_stamp>
<gps_x>-1.2424808502197266e+001</gps_x>
<gps_y>1.0959586143493652e+001</gps_y>
<gps_z>-2.0221247673034668e+000</gps_z>
<image_time_stamp>306761</image_time_stamp>
<disparity type_id="opencv-matrix">
  <rows>85</rows>
  <cols>320</cols>
  <dt>s</dt>
  <data>
    0 0 0 0 0 0 0 0 0 0 0 0 0 0 0 0 0 0 0 0 0 0 0 0 0 0 0 0 0 0 0 0 0 0 0 0 0 0 0 0 0 0 0 0 0 0 0 0 0 0 0 0 0 0 0 0 0 0 0 0 0 0 0 0 0 0 0 0 0 52 51 50 50 50 50 51 47 50 50 50 49 49 51 48 46 49 47 46 45 47 47 42 44 41 34 35 38 35 35 36 34 35 33 33 34 31 32 33 29 31 29 29 29 26 26 23 21 19 17 16 19 18 19 22 21 22 22 19 18 15 17 14 13 13 13 12 13 12 12 12 12 11 11 11 9 9 10 9 9 9 10 10 10 12 16 14 18 20 21 21 22 22 21 20 22 19 18 17 15 15 15 14 14 13 12 13 12 12 12 11 10 10 10 11 10 12 17 23 27 29 30 33 35 37 38 38 39 42 43 44 49 54 56 58 58 58 58 59 61 62 56 58 55 58 59 64 69 73 72 72 73 82 77 78 82 82 83 84 85 86 85 88 -193 -177 164 -193 90 -193 -177 -177 -193 -193 -193 -209 -193 -177 -177 -193 109 111 113 115 116 115 114 118 -209 121 122 121 123 -209 -193 127 127 -193 -177 -193 -193 140 140 142 146 143 143 141 143 142 150 -177 -177 -177 -177 160 161 161 162 161 166 165 164 162 164 163 163 164 163 157 166 167 166 169 173 178 180 183 183 186 190 190 194 194 198 202 202 0 0 0 0 0
    0 0 0 0 0 0 0 0 0 0 0 0 0 0 0 0 0 0 0 0 0 0 0 0 0 0 0 0 0 0 0 0 0 0 0 0 0 0 0 0 0 0 0 0 0 0 0 0 0 0 0 0 0 0 0 0 0 0 0 0 0 0 0 0 0 0 0 0 0 52 51 50 50 50 50 51 47 50 50 50 49 49 52 49 46 49 48 46 46 47 47 42 43 41 34 35 38 35 34 36 34 35 32 33 34 31 32 34 30 32 30 32 32 28 28 26 24 22 20 19 22 21 22 24 24 24 24 21 20 16 18 14 14 13 13 13 13 13 13 13 13 12 12 11 10 10 10 9 0 0 9 9 9 12 16 15 19 19 21 21 22 22 21 20 21 19 18 18 15 15 15 14 14 13 12 13 12 12 11 11 10 10 9 11 11 12 17 23 28 29 31 33 36 38 38 38 39 43 43 45 49 53 55 57 57 57 57 58 59 60 56 57 55 58 58 61 67 72 71 72 73 83 78 78 82 82 83 84 85 86 84 88 87 -177 -177 -193 89 90 -177 -193 -193 -193 -193 -193 -193 -177 -193 -193 110 112 114 116 117 116 115 119 -193 122 122 121 124 -209 126 129 128 -193 -193 139 141 141 140 142 147 144 143 141 143 141 149 -177 -177 -177 -177 159 161 161 162 161 165 165 163 161 163 163 163 163 163 157 166 166 165 168 172 175 178 180 182 185 190 191 195 195 198 202 201 0 0 0 0 0
    0 0 0 0 0 0 0 0 0 0 0 0 0 0 0 0 0 0 0 0 0 0 0 0 0 0 0 0 0 0 0 0 0 0 0 0 0 0 0 0 0 0 0 0 0 0 0 0 0 0 0 0 0 0 0 0 0 0 0 0 0 0 0 0 0 0 0 0 0 52 51 49 50 50 50 51 47 50 50 50 50 50 52 49 47 50 48 46 46 47 47 42 43 42 35 35 38 35 35 36 34 35 33 33 34 31 33 34 30 33 31 33 34 30 30 28 25 23 22 22 24 24 24 34 27 29 27 23 22 18 19 14 14 13 13 12 13 13 13 13 13 12 12 12 11 10 10 10 0 0 0 9 9 12 16 16 19 20 21 22 22 22 21 21 21 20 19 18 16 15 15 14 14 14 12 13 11 11 11 11 10 10 9 11 11 12 18 -193 28 30 32 34 37 38 38 39 39 43 43 45 49 53 53 57 56 56 56 57 58 58 54 56 54 56 57 60 65 71 72 72 74 83 78 78 81 83 83 85 85 86 84 88 87 87 86 88 89 89 -193 90 89 93 94 -193 100 -209 -193 111 110 112 115 117 117 117 116 -209 -209 122 122 122 125 -193 128 131 131 135 139 140 141 141 140 143 147 144 143 141 141 140 -193 -177 -177 -177 -177 159 161 161 162 161 164 164 163 161 164 163 163 163 164 158 166 166 165 169 172 175 177 177 180 183 188 188 192 194 197 -193 201 0 0 0 0 0
    0 0 0 0 0 0 0 0 0 0 0 0 0 0 0 0 0 0 0 0 0 0 0 0 0 0 0 0 0 0 0 0 0 0 0 0 0 0 0 0 0 0 0 0 0 0 0 0 0 0 0 0 0 0 0 0 0 0 0 0 0 0 0 0 0 0 0 0 0 52 51 49 49 50 50 51 47 50 50 51 50 50 52 49 47 50 48 46 46 47 47 42 43 42 36 37 38 36 36 36 35 35 33 33 34 32 33 34 31 33 32 34 35 33 32 30 27 24 24 23 34 39 36 39 33 35 34 27 26 20 21 15 15 13 13 13 13 13 13 14 14 13 13 13 12 12 11 11 0 0 0 9 10 14 16 17 19 19 20 22 21 21 21 21 21 21 19 18 16 15 15 14 14 14 12 13 11 11 11 11 10 10 9 11 10 12 18 24 29 30 33 34 36 38 38 38 39 42 43 44 48 53 52 56 55 55 55 56 56 56 53 55 53 54 55 58 62 69 71 72 75 84 78 78 82 84 83 85 86 86 85 87 87 87 86 87 87 87 85 89 89 93 95 -193 100 -209 107 111 111 113 116 117 -193 117 117 -193 -209 122 122 121 125 -209 129 133 133 137 139 140 141 141 139 143 147 144 142 140 141 139 147 -177 -177 -177 -177 159 161 161 162 161 163 165 164 162 164 164 164 164 164 160 166 166 165 169 172 174 176 175 179 182 185 187 189 192 196 200 200 0 0 0 0 0
    0 0 0 0 0 0 0 0 0 0 0 0 0 0 0 0 0 0 0 0 0 0 0 0 0 0 0 0 0 0 0 0 0 0 0 0 0 0 0 0 0 0 0 0 0 0 0 0 0 0 0 0 0 0 0 0 0 0 0 0 0 0 0 0 0 0 0 0 0 52 51 49 49 50 50 51 47 50 51 51 50 51 52 49 47 50 48 46 45 47 46 42 43 43 38 39 39 38 37 37 36 36 33 34 34 32 33 34 32 34 34 35 36 36 35 33 31 30 28 32 40 43 41 41 37 38 38 35 31 23 23 16 16 13 13 13 14 13 13 14 14 13 14 14 14 14 13 14 10 12 9 10 10 15 16 17 18 18 19 21 21 21 20 21 21 20 20 18 16 15 15 14 14 14 13 13 12 11 12 11 11 10 9 11 11 12 18 26 30 32 34 34 36 38 38 38 38 41 43 44 48 53 51 55 54 54 54 54 55 55 52 54 52 53 54 57 60 65 69 71 74 83 78 78 80 84 83 86 87 87 85 88 87 87 86 88 87 86 85 89 90 93 98 100 101 -193 107 111 112 114 116 -193 -193 -193 -193 -193 -193 122 122 121 125 -193 131 134 135 137 139 140 140 140 138 141 146 143 141 140 140 139 147 -177 -177 11 13 159 161 162 162 162 163 165 165 163 165 165 165 165 166 162 166 167 165 170 172 174 175 176 180 183 185 186 188 190 195 199 201 0 0 0 0 0
    0 0 0 0 0 0 0 0 0 0 0 0 0 0 0 0 0 0 0 0 0 0 0 0 0 0 0 0 0 0 0 0 0 0 0 0 0 0 0 0 0 0 0 0 0 0 0 0 0 0 0 0 0 0 0 0 0 0 0 0 0 0 0 0 0 0 0 0 0 51 51 49 49 50 50 51 47 50 51 51 50 51 52 49 47 49 47 45 45 46 45 42 43 44 40 41 41 40 39 39 37 36 35 35 35 33 34 34 34 36 35 37 38 39 39 38 38 39 40 43 43 46 42 43 39 40 40 39 37 31 -193 17 17 13 13 13 14 13 14 15 15 15 17 19 19 19 19 19 13 19 13 12 11 17 15 17 18 19 20 22 21 21 21 22 22 21 20 18 16 15 16 14 14 14 13 13 12 11 12 11 11 11 9 11 11 13 20 30 32 32 34 34 36 37 37 38 37 40 42 43 47 53 51 55 54 54 53 54 55 54 51 53 51 52 53 56 59 64 68 72 75 83 78 77 79 84 82 86 87 87 86 88 88 88 87 89 87 85 85 89 -193 94 99 102 102 107 107 110 113 113 116 116 -193 -193 -193 43 -193 -193 121 120 125 132 132 135 135 137 139 139 139 139 -193 140 144 144 140 140 140 140 147 13 13 12 14 159 162 162 162 162 162 166 -177 -177 166 166 166 166 167 165 167 168 168 171 175 175 176 178 180 183 186 187 187 189 194 199 200 0 0 0 0 0
    0 0 0 0 0 0 0 0 0 0 0 0 0 0 0 0 0 0 0 0 0 0 0 0 0 0 0 0 0 0 0 0 0 0 0 0 0 0 0 0 0 0 0 0 0 0 0 0 0 0 0 0 0 0 0 0 0 0 0 0 0 0 0 0 0 0 0 0 0 51 50 49 49 50 50 51 47 50 51 51 50 51 52 49 46 48 47 45 44 45 45 42 43 44 41 42 42 41 40 40 39 37 36 36 36 34 34 35 36 38 39 40 42 44 44 44 44 44 45 47 46 48 43 44 41 41 41 40 39 39 32 22 19 14 13 13 14 13 14 15 16 15 19 20 20 21 20 20 16 22 15 13 12 18 16 18 18 19 20 22 21 21 21 22 22 21 21 18 16 15 16 15 14 14 13 12 12 11 12 11 11 11 9 12 11 14 21 28 32 31 32 32 34 37 37 37 37 39 42 43 46 52 50 54 53 53 53 54 54 54 51 53 50 51 52 56 58 61 67 72 74 82 78 77 78 83 81 86 87 87 86 88 88 88 87 89 88 86 86 -193 -193 94 99 102 102 105 107 109 113 114 116 117 117 117 117 -193 -193 121 121 -193 124 132 132 134 134 137 137 138 138 138 132 138 141 143 140 140 140 141 147 14 14 13 14 159 162 162 162 162 162 166 -177 -177 167 167 167 167 167 167 168 169 169 172 175 176 176 179 179 182 186 187 187 190 193 198 199 0 0 0 0 0
    0 0 0 0 0 0 0 0 0 0 0 0 0 0 0 0 0 0 0 0 0 0 0 0 0 0 0 0 0 0 0 0 0 0 0 0 0 0 0 0 0 0 0 0 0 0 0 0 0 0 0 0 0 0 0 0 0 0 0 0 0 0 0 0 0 0 0 0 0 51 50 49 49 50 50 51 47 50 51 51 50 51 51 49 46 48 47 45 44 45 44 42 44 44 42 43 44 43 42 41 41 39 39 38 38 37 37 38 40 39 41 41 42 43 44 44 45 44 45 47 46 50 44 45 41 42 42 41 41 41 37 30 22 14 13 13 13 13 14 16 16 16 19 21 21 22 21 21 18 22 16 14 13 18 16 18 19 19 20 22 22 22 21 23 22 21 21 18 16 15 14 14 13 14 12 12 12 11 11 11 10 11 9 12 13 16 21 27 29 31 31 32 33 36 36 37 36 38 41 42 45 52 50 54 53 54 54 54 55 54 52 53 51 54 52 55 55 57 60 68 72 81 77 76 76 82 80 84 86 85 85 87 87 87 87 90 89 88 89 91 91 95 98 100 101 104 106 108 113 114 117 117 117 117 118 -193 122 121 121 121 125 132 133 134 133 136 136 136 135 136 130 135 138 142 139 140 141 141 148 13 13 12 13 160 162 162 162 162 162 167 -177 -177 167 167 167 167 167 168 167 169 170 172 174 175 175 178 178 181 184 187 187 189 193 197 198 0 0 0 0 0
    0 0 0 0 0 0 0 0 0 0 0 0 0 0 0 0 0 0 0 0 0 0 0 0 0 0 0 0 0 0 0 0 0 0 0 0 0 0 0 0 0 0 0 0 0 0 0 0 0 0 0 0 0 0 0 0 0 0 0 0 0 0 0 0 0 0 0 0 0 50 50 49 49 49 50 51 46 50 50 50 50 50 51 49 46 47 46 45 44 45 44 43 44 44 43 44 44 44 43 42 42 40 41 41 40 39 40 40 42 41 42 42 43 44 44 44 44 44 45 47 46 52 45 46 42 42 42 42 41 41 39 38 26 17 13 13 13 13 14 17 17 16 20 21 22 23 22 22 19 22 18 16 15 19 16 18 19 19 20 22 22 22 21 22 22 21 21 19 16 15 15 14 13 13 12 11 11 10 11 10 10 10 9 13 14 19 21 24 27 29 30 31 33 35 36 36 36 38 41 42 45 52 50 53 53 53 54 54 55 54 52 53 51 55 53 54 52 54 57 64 71 79 76 75 76 83 80 83 85 84 85 87 87 87 86 89 90 89 89 90 -193 94 97 98 99 102 105 107 -193 112 116 117 117 117 118 -193 122 121 122 122 126 134 133 135 133 136 136 136 135 135 131 135 138 142 139 139 141 142 148 -177 -177 11 12 160 162 162 162 162 161 167 166 164 167 167 167 167 168 168 168 170 171 173 175 176 176 179 179 181 184 187 188 190 193 197 -193 0 0 0 0 0
    0 0 0 0 0 0 0 0 0 0 0 0 0 0 0 0 0 0 0 0 0 0 0 0 0 0 0 0 0 0 0 0 0 0 0 0 0 0 0 0 0 0 0 0 0 0 0 0 0 0 0 0 0 0 0 0 0 0 0 0 0 0 0 0 0 0 0 0 0 50 50 49 49 49 49 50 46 50 50 50 50 50 50 50 46 47 46 45 44 45 44 43 44 45 43 44 44 44 44 44 43 41 42 42 42 41 41 40 42 42 42 42 43 44 44 44 45 44 46 47 48 52 47 47 43 43 44 43 42 42 41 41 36 -193 14 12 13 12 13 17 17 17 20 22 23 23 22 22 20 22 19 18 17 20 18 19 20 19 20 22 22 22 21 22 21 20 21 19 16 16 15 14 14 13 12 11 11 11 11 10 10 10 10 13 16 21 20 22 25 28 29 31 33 35 35 36 37 38 41 42 45 52 50 53 53 53 53 53 54 53 51 53 50 52 50 52 47 51 57 67 72 78 75 75 76 84 79 82 84 83 84 86 86 86 85 88 89 87 88 89 -193 92 97 97 99 102 105 -193 -193 -193 115 116 117 117 119 122 122 121 121 122 126 134 134 135 133 136 136 136 135 136 133 135 138 143 139 140 141 143 149 12 -193 -193 10 161 163 163 163 163 161 168 166 165 167 167 167 168 168 169 167 170 171 173 176 176 177 179 179 181 184 186 187 188 191 197 -193 0 0 0 0 0
    0 0 0 0 0 0 0 0 0 0 0 0 0 0 0 0 0 0 0 0 0 0 0 0 0 0 0 0 0 0 0 0 0 0 0 0 0 0 0 0 0 0 0 0 0 0 0 0 0 0 0 0 0 0 0 0 0 0 0 0 0 0 0 0 0 0 0 0 0 50 50 49 49 49 49 50 46 49 50 49 49 49 49 49 45 46 45 44 44 44 44 44 44 46 44 45 45 45 45 44 43 42 42 43 42 41 41 40 41 41 42 42 43 44 44 44 45 45 46 48 50 52 47 47 44 44 45 44 43 42 41 42 41 42 16 14 15 13 14 19 19 19 21 23 24 24 24 22 21 22 20 19 18 21 18 20 21 20 21 22 22 22 21 22 22 21 22 21 18 18 17 15 15 13 14 13 13 12 12 12 12 12 11 15 17 22 19 20 23 26 27 30 31 34 35 36 37 38 41 43 45 52 51 53 53 53 53 52 53 53 49 52 49 47 46 50 48 50 57 65 72 76 74 74 75 82 79 81 84 83 85 87 86 86 85 89 89 85 86 85 81 89 -193 94 99 -193 106 107 110 110 113 115 114 115 117 120 121 119 119 119 124 134 133 134 132 135 135 135 135 136 133 136 139 145 140 141 143 146 150 11 155 -193 9 162 164 164 164 163 161 168 166 165 167 167 167 167 168 168 166 170 171 173 175 176 177 179 179 181 183 185 186 187 190 196 -193 0 0 0 0 0
    0 0 0 0 0 0 0 0 0 0 0 0 0 0 0 0 0 0 0 0 0 0 0 0 0 0 0 0 0 0 0 0 0 0 0 0 0 0 0 0 0 0 0 0 0 0 0 0 0 0 0 0 0 0 0 0 0 0 0 0 0 0 0 0 0 0 0 0 0 49 49 49 48 48 49 49 46 49 50 48 48 48 47 49 45 46 45 44 44 44 44 45 44 46 44 46 46 46 46 45 44 42 43 43 41 40 40 39 40 41 41 41 42 43 45 45 45 45 47 50 51 52 47 47 45 45 45 44 43 43 42 43 42 42 21 19 19 18 18 20 21 21 22 24 24 24 24 23 21 22 20 19 18 21 20 21 22 21 22 23 23 23 21 22 22 21 22 21 19 19 18 16 16 15 16 16 16 17 15 15 14 14 12 14 14 21 17 19 22 25 27 29 30 32 35 36 38 38 41 43 46 52 51 53 53 53 53 52 53 52 49 51 49 46 44 48 48 50 57 64 71 75 74 74 75 82 79 80 83 82 84 86 85 85 84 87 87 85 86 85 -193 -193 -193 93 99 -193 106 107 110 110 112 113 111 113 115 118 118 115 116 115 121 131 131 132 130 133 133 133 133 135 133 135 138 146 141 142 144 148 150 12 155 155 -193 162 164 164 164 164 162 168 166 164 166 166 167 167 167 168 165 170 172 173 175 176 177 179 179 181 183 185 186 186 190 197 -193 0 0 0 0 0
    0 0 0 0 0 0 0 0 0 0 0 0 0 0 0 0 0 0 0 0 0 0 0 0 0 0 0 0 0 0 0 0 0 0 0 0 0 0 0 0 0 0 0 0 0 0 0 0 0 0 0 0 0 0 0 0 0 0 0 0 0 0 0 0 0 0 0 0 0 49 49 49 48 48 49 49 45 48 49 47 47 47 45 48 44 45 44 44 44 44 44 45 45 46 44 46 47 47 46 46 44 42 42 43 41 40 38 38 40 39 39 40 42 44 46 45 46 45 46 48 50 50 47 47 46 46 46 44 44 43 42 43 42 42 22 20 20 20 18 20 21 21 22 23 23 23 23 22 21 20 19 19 20 21 20 21 22 22 22 23 23 23 22 22 22 20 21 20 20 20 19 18 18 17 18 19 18 18 18 17 15 14 12 14 12 20 17 18 21 24 27 29 31 33 36 37 39 40 42 43 46 52 51 53 54 53 53 53 53 53 49 52 50 46 45 51 48 54 58 65 71 75 74 74 75 81 78 80 81 81 83 86 85 85 83 87 87 85 86 84 -193 -209 -209 -209 98 -193 -193 107 110 109 112 112 111 113 115 117 117 115 116 115 119 124 128 130 127 131 132 132 133 135 133 135 138 146 142 142 145 149 151 156 155 156 160 163 164 164 164 165 163 168 165 164 165 166 166 166 167 167 165 170 172 172 174 176 177 179 179 182 184 186 187 186 190 197 -193 0 0 0 0 0
    0 0 0 0 0 0 0 0 0 0 0 0 0 0 0 0 0 0 0 0 0 0 0 0 0 0 0 0 0 0 0 0 0 0 0 0 0 0 0 0 0 0 0 0 0 0 0 0 0 0 0 0 0 0 0 0 0 0 0 0 0 0 0 0 0 0 0 0 0 49 50 50 49 48 48 49 45 48 47 46 46 46 45 48 44 45 44 44 44 44 44 46 45 46 44 47 47 47 47 46 43 42 43 44 41 40 39 41 47 53 48 46 51 49 49 48 49 48 47 50 51 50 49 48 48 46 46 45 44 43 43 44 43 42 26 21 21 21 20 21 22 22 23 23 23 23 23 22 21 20 19 18 21 22 21 22 24 23 23 23 24 23 23 23 22 21 22 20 21 20 19 19 20 19 19 20 19 19 19 19 17 15 13 14 12 20 18 18 21 24 27 30 32 34 37 38 40 41 42 43 46 53 51 53 54 54 53 53 53 53 50 52 51 48 49 56 57 58 61 67 71 77 74 74 75 82 79 80 80 80 80 85 84 83 80 85 84 84 84 83 77 84 88 89 93 102 105 106 109 109 113 112 112 114 115 118 118 116 116 116 119 122 125 127 125 129 131 132 133 135 134 134 138 145 143 143 147 149 151 156 156 156 161 165 165 165 165 165 163 168 165 163 163 164 165 165 166 166 164 170 171 172 174 175 177 180 179 182 184 187 187 187 190 196 -193 0 0 0 0 0
    0 0 0 0 0 0 0 0 0 0 0 0 0 0 0 0 0 0 0 0 0 0 0 0 0 0 0 0 0 0 0 0 0 0 0 0 0 0 0 0 0 0 0 0 0 0 0 0 0 0 0 0 0 0 0 0 0 0 0 0 0 0 0 0 0 0 0 0 0 50 50 51 49 48 48 48 45 47 46 45 45 45 44 48 44 46 44 44 44 44 46 47 46 47 45 47 47 48 47 45 43 42 43 44 41 40 42 46 52 56 51 51 53 51 51 51 51 51 48 51 52 51 50 50 49 46 47 45 44 43 42 42 42 40 34 24 24 22 20 19 22 21 21 21 21 22 21 20 19 19 18 19 20 21 21 21 23 23 22 22 23 22 22 21 22 20 21 21 22 21 20 20 21 21 20 21 19 20 19 19 18 15 13 14 13 20 18 18 20 23 26 28 31 33 36 38 41 41 42 43 46 52 50 52 54 53 53 53 53 53 50 52 52 50 54 57 58 59 62 65 70 74 73 74 75 82 79 79 80 80 79 84 83 82 78 83 84 85 85 84 78 84 89 88 90 94 95 -209 -209 99 102 105 108 112 116 118 118 117 117 117 119 121 124 126 126 129 131 131 132 135 133 134 138 144 143 144 147 150 152 156 156 156 161 165 164 165 165 166 164 168 164 162 162 164 165 165 165 166 163 169 171 171 173 175 177 179 179 182 183 186 187 187 190 196 -193 0 0 0 0 0
    0 0 0 0 0 0 0 0 0 0 0 0 0 0 0 0 0 0 0 0 0 0 0 0 0 0 0 0 0 0 0 0 0 0 0 0 0 0 0 0 0 0 0 0 0 0 0 0 0 0 0 0 0 0 0 0 0 0 0 0 0 0 0 0 0 0 0 0 0 51 51 51 50 48 49 48 45 46 46 45 45 44 44 47 44 46 45 45 45 45 47 48 47 48 46 48 48 48 49 45 43 42 43 43 41 41 44 47 54 55 51 52 52 52 52 52 52 51 50 52 53 53 53 52 51 47 49 46 44 43 42 42 41 39 36 27 28 23 22 20 22 21 21 21 22 22 21 21 19 18 18 19 20 21 21 21 23 23 22 22 23 23 22 22 22 21 21 21 22 21 20 20 22 21 20 21 19 19 19 19 17 15 13 14 13 20 18 18 20 23 27 29 32 34 38 39 42 42 43 44 46 52 49 50 53 52 51 52 52 52 49 52 52 50 55 58 59 60 62 64 69 72 73 73 76 82 80 80 80 79 78 83 83 81 78 83 83 85 85 85 80 87 90 90 92 94 95 94 97 94 96 98 102 105 109 116 115 117 117 117 118 119 119 122 123 125 -193 124 126 131 131 133 137 142 142 142 147 150 152 155 156 156 161 166 164 164 164 166 164 167 164 162 162 164 165 165 165 165 162 169 169 170 171 174 176 178 179 181 183 186 187 187 190 197 -193 0 0 0 0 0
    0 0 0 0 0 0 0 0 0 0 0 0 0 0 0 0 0 0 0 0 0 0 0 0 0 0 0 0 0 0 0 0 0 0 0 0 0 0 0 0 0 0 0 0 0 0 0 0 0 0 0 0 0 0 0 0 0 0 0 0 0 0 0 0 0 0 0 0 0 51 51 51 50 48 48 48 46 46 45 45 45 44 45 47 45 46 46 46 45 45 47 50 47 49 47 48 48 48 48 45 41 42 41 41 39 40 42 44 54 54 51 53 52 51 52 52 53 51 51 53 53 53 53 52 51 48 50 47 45 43 42 42 41 39 37 29 31 25 24 21 22 21 21 21 22 22 21 21 20 19 19 20 21 21 21 21 23 24 23 22 22 22 22 22 22 21 21 22 23 22 22 21 23 22 20 21 19 20 19 19 18 15 14 15 14 21 19 19 21 23 27 29 33 34 39 40 42 44 44 45 46 52 49 50 53 52 51 51 52 52 49 52 52 49 57 59 59 60 63 65 69 71 72 73 75 81 79 79 79 79 78 82 82 81 77 82 82 85 85 85 80 -193 91 92 95 96 97 97 99 97 96 98 102 104 108 115 113 117 117 117 117 118 117 119 -193 122 -193 -193 124 128 129 130 136 139 140 140 147 150 153 155 155 156 161 166 164 164 164 166 164 167 164 163 162 165 165 165 166 166 164 169 169 169 170 173 176 178 179 182 183 185 187 187 189 197 202 0 0 0 0 0
    0 0 0 0 0 0 0 0 0 0 0 0 0 0 0 0 0 0 0 0 0 0 0 0 0 0 0 0 0 0 0 0 0 0 0 0 0 0 0 0 0 0 0 0 0 0 0 0 0 0 0 0 0 0 0 0 0 0 0 0 0 0 0 0 0 0 0 0 0 51 51 51 50 48 47 47 45 45 45 45 45 44 45 46 45 46 46 46 45 45 48 51 47 49 48 48 48 49 49 45 41 42 41 41 40 41 42 43 53 54 51 53 52 52 53 53 53 52 51 53 53 53 53 52 51 49 50 47 46 43 43 43 41 38 37 31 34 27 26 22 22 22 21 21 21 22 21 21 20 19 19 21 21 22 21 21 23 24 22 22 22 22 22 22 22 21 21 22 24 24 25 24 24 23 21 22 20 20 20 19 18 16 14 16 15 21 21 21 22 24 28 28 32 33 39 41 43 45 45 46 46 52 50 50 53 51 50 51 52 52 49 52 52 49 57 59 59 61 64 65 69 71 72 73 75 81 79 80 80 79 78 82 83 81 77 82 82 85 85 85 80 -193 91 -193 100 -193 102 103 103 101 100 100 104 106 109 116 113 117 117 117 118 118 118 120 121 122 -209 -193 124 128 129 131 135 139 140 140 147 150 152 154 154 155 159 166 163 163 163 165 164 166 165 164 162 166 166 166 166 166 164 168 168 168 169 171 173 175 178 181 183 185 187 187 189 196 202 0 0 0 0 0
    0 0 0 0 0 0 0 0 0 0 0 0 0 0 0 0 0 0 0 0 0 0 0 0 0 0 0 0 0 0 0 0 0 0 0 0 0 0 0 0 0 0 0 0 0 0 0 0 0 0 0 0 0 0 0 0 0 0 0 0 0 0 0 0 0 0 0 0 0 51 51 52 50 48 48 47 45 45 44 44 44 43 45 45 44 46 46 46 45 45 48 51 48 49 47 48 48 48 49 46 42 42 42 42 41 42 43 44 50 54 51 53 52 52 52 53 53 52 51 53 53 52 52 52 51 49 50 47 46 43 42 42 40 38 36 33 36 29 30 24 23 22 22 22 22 22 21 21 20 20 20 21 22 22 21 21 23 24 22 22 22 22 22 22 22 21 21 22 25 24 26 25 26 24 22 22 21 20 20 20 18 16 14 16 15 22 22 22 23 25 29 29 32 32 39 41 43 45 46 46 46 53 51 51 54 51 51 52 52 52 51 52 53 50 58 59 59 60 64 65 68 71 72 73 75 80 79 80 80 80 79 82 83 82 78 82 81 85 85 85 81 79 90 -193 97 -209 99 101 101 99 100 101 105 107 110 116 115 118 118 118 118 119 118 120 121 122 -209 -209 -209 -193 126 131 135 139 141 141 148 150 152 152 153 153 157 166 162 162 162 164 164 166 165 164 162 167 166 166 166 166 165 166 167 166 166 169 171 172 177 181 183 186 187 187 189 196 201 0 0 0 0 0
    0 0 0 0 0 0 0 0 0 0 0 0 0 0 0 0 0 0 0 0 0 0 0 0 0 0 0 0 0 0 0 0 0 0 0 0 0 0 0 0 0 0 0 0 0 0 0 0 0 0 0 0 0 0 0 0 0 0 0 0 0 0 0 0 0 0 0 0 0 51 51 52 50 49 47 47 45 44 43 44 43 42 45 45 45 45 46 46 46 46 48 51 48 49 47 48 48 48 49 46 43 43 42 43 42 41 42 43 47 52 50 53 52 52 53 53 53 52 52 53 53 52 52 52 50 49 49 47 46 42 42 42 39 37 36 34 36 30 28 24 22 22 21 21 21 22 21 21 21 21 20 22 22 21 21 21 23 23 23 22 22 22 22 22 22 21 21 20 24 23 24 26 28 24 22 23 21 21 20 20 19 16 14 16 15 22 23 23 24 26 30 31 33 33 38 40 42 44 46 46 46 53 52 53 54 52 52 53 53 53 52 53 54 52 59 60 60 60 64 65 68 71 72 73 75 79 79 80 80 80 79 83 84 83 82 86 86 88 88 87 84 -193 91 -193 95 94 96 98 98 98 98 100 104 106 109 116 115 118 119 119 -193 120 120 122 123 124 123 -209 -209 -193 126 129 132 135 137 138 148 150 151 151 152 152 154 164 159 160 159 163 163 165 165 164 162 167 166 166 167 167 166 166 167 167 165 169 -209 -209 -209 -209 -193 -193 -193 -193 190 197 201 0 0 0 0 0
    0 0 0 0 0 0 0 0 0 0 0 0 0 0 0 0 0 0 0 0 0 0 0 0 0 0 0 0 0 0 0 0 0 0 0 0 0 0 0 0 0 0 0 0 0 0 0 0 0 0 0 0 0 0 0 0 0 0 0 0 0 0 0 0 0 0 0 0 0 52 52 53 50 49 46 45 45 44 42 43 42 42 45 44 45 46 46 47 46 45 48 50 49 50 47 47 48 49 50 48 44 45 44 44 44 43 43 44 47 51 49 53 53 53 53 53 54 53 52 54 54 52 52 52 50 49 49 47 46 43 42 42 40 38 36 34 36 29 27 24 21 22 21 21 21 22 21 22 21 21 21 22 22 20 20 20 21 22 21 21 21 21 21 21 22 21 20 21 24 24 25 28 35 26 23 23 21 21 21 21 20 17 15 17 17 23 24 24 25 27 30 32 33 33 36 38 41 43 45 44 45 53 53 54 55 52 52 53 54 54 53 53 54 53 59 61 60 61 64 66 69 71 72 74 76 79 79 80 80 80 80 84 85 86 86 89 89 90 90 89 89 -193 91 -193 95 -193 94 96 96 96 96 99 102 -209 108 115 115 118 120 120 121 122 123 125 129 129 129 129 -193 -193 130 131 132 132 135 138 148 149 150 150 151 152 154 165 159 159 159 163 163 165 165 164 161 167 166 166 167 167 166 166 167 167 166 169 170 -193 -193 -193 -193 186 188 186 188 195 -193 0 0 0 0 0
    0 0 0 0 0 0 0 0 0 0 0 0 0 0 0 0 0 0 0 0 0 0 0 0 0 0 0 0 0 0 0 0 0 0 0 0 0 0 0 0 0 0 0 0 0 0 0 0 0 0 0 0 0 0 0 0 0 0 0 0 0 0 0 0 0 0 0 0 0 51 51 52 50 48 46 45 45 43 42 42 41 41 46 44 45 47 47 48 47 46 49 50 49 49 47 48 48 49 50 48 44 45 45 46 45 44 44 45 48 52 50 54 53 53 54 54 54 53 53 54 54 53 53 53 50 49 49 47 46 42 42 42 39 39 37 34 35 29 31 29 21 23 23 23 22 23 23 23 22 23 22 23 22 21 20 20 20 22 21 21 21 21 21 20 22 22 21 23 26 27 40 38 43 35 25 24 22 22 22 22 22 19 17 19 20 24 27 26 26 27 30 31 32 32 35 37 39 41 44 43 44 52 54 55 56 53 53 54 55 55 54 53 54 53 59 61 60 61 65 66 69 71 72 74 76 79 79 79 80 81 81 84 86 87 87 89 89 91 90 89 89 -193 91 -193 94 -193 94 98 98 98 96 97 99 98 107 112 114 118 121 121 122 123 124 126 130 129 129 130 131 132 132 133 133 134 137 139 148 148 149 149 150 151 152 164 158 158 159 162 162 165 166 164 161 167 166 166 166 166 165 164 167 166 164 -193 -209 172 173 -193 180 184 186 185 187 192 -193 0 0 0 0 0
    0 0 0 0 0 0 0 0 0 0 0 0 0 0 0 0 0 0 0 0 0 0 0 0 0 0 0 0 0 0 0 0 0 0 0 0 0 0 0 0 0 0 0 0 0 0 0 0 0 0 0 0 0 0 0 0 0 0 0 0 0 0 0 0 0 0 0 0 0 51 51 52 50 48 46 45 45 44 42 42 41 41 46 45 45 49 47 49 49 47 50 49 49 49 47 48 48 48 50 47 44 45 45 46 45 44 45 45 47 50 49 54 52 53 54 54 54 53 53 54 54 53 52 53 50 50 50 48 46 42 42 42 39 39 36 34 34 27 30 -193 19 22 22 23 23 24 24 24 23 24 23 23 21 18 17 16 16 19 16 18 17 19 19 17 22 21 19 24 25 26 35 40 46 -225 -225 -225 -225 -225 -225 -225 -225 -225 -225 -225 24 27 32 29 28 30 31 32 32 32 35 36 38 40 43 43 44 52 55 55 56 54 54 54 55 55 55 53 54 52 58 60 60 61 65 66 69 71 72 75 76 78 79 79 80 81 82 85 86 88 88 90 90 91 91 90 90 90 92 92 93 -193 92 95 94 96 94 96 99 99 106 108 110 117 119 120 121 121 121 123 127 127 126 130 131 132 132 134 134 135 137 139 148 148 150 150 151 151 152 164 158 158 159 162 162 164 166 164 161 167 166 166 166 166 165 163 166 165 162 -209 -209 -209 -209 -209 -209 181 184 183 186 190 195 0 0 0 0 0
    0 0 0 0 0 0 0 0 0 0 0 0 0 0 0 0 0 0 0 0 0 0 0 0 0 0 0 0 0 0 0 0 0 0 0 0 0 0 0 0 0 0 0 0 0 0 0 0 0 0 0 0 0 0 0 0 0 0 0 0 0 0 0 0 0 0 0 0 0 50 50 51 49 47 46 45 45 45 43 42 42 41 47 45 45 49 47 48 49 47 50 49 49 49 47 47 48 47 49 46 44 45 44 45 45 44 45 44 47 49 49 55 51 53 53 53 53 52 53 53 54 53 52 53 51 51 50 48 47 42 43 43 40 40 37 35 34 28 36 37 -193 43 -209 29 28 29 28 28 27 28 25 26 25 18 -225 -225 -225 -225 -225 -225 -225 -225 -225 -225 -225 -225 -225 -225 -225 -225 -225 -225 -225 -225 -225 -225 -225 -225 -225 -225 -225 -225 -225 -225 -225 -225 -225 -193 35 35 36 35 33 33 35 36 37 39 42 43 43 52 56 57 57 54 55 55 56 56 55 53 53 52 58 59 59 60 66 66 69 71 72 75 76 78 78 78 79 81 82 85 86 89 89 90 91 92 92 91 91 91 93 94 96 94 97 100 99 99 99 101 104 101 106 107 107 113 117 118 121 120 120 122 124 124 125 131 133 133 134 136 135 136 137 139 148 148 150 150 151 151 152 164 159 159 159 163 163 164 166 164 161 167 165 165 165 165 165 162 166 165 161 -209 -209 -209 -209 -209 -193 180 183 183 185 187 193 0 0 0 0 0
    0 0 0 0 0 0 0 0 0 0 0 0 0 0 0 0 0 0 0 0 0 0 0 0 0 0 0 0 0 0 0 0 0 0 0 0 0 0 0 0 0 0 0 0 0 0 0 0 0 0 0 0 0 0 0 0 0 0 0 0 0 0 0 0 0 0 0 0 0 51 51 50 48 47 46 45 45 44 42 41 41 40 47 45 44 48 46 47 49 47 49 48 48 48 46 47 48 47 49 46 45 46 45 46 46 45 45 45 45 47 47 55 51 53 53 52 52 52 53 53 53 52 50 52 51 51 49 48 47 43 43 43 41 41 38 36 34 30 39 42 42 47 -209 40 39 38 36 35 33 33 32 32 32 -225 -225 -225 -225 -225 -225 -225 -225 -225 -225 -225 -225 -225 -225 -225 -225 -225 -225 -225 -225 -225 -225 -225 -225 -225 -225 -225 -225 -225 -225 -225 -225 -225 -225 40 35 36 37 36 36 37 38 39 38 39 42 42 43 51 57 57 57 54 55 55 57 56 56 54 54 52 58 59 59 59 65 65 68 71 72 75 76 77 78 78 79 82 82 85 86 89 90 91 92 93 92 92 93 92 94 94 97 94 98 100 97 98 97 100 102 99 104 105 105 109 113 115 118 117 118 121 122 122 124 129 132 132 134 137 136 136 138 140 148 148 150 150 151 151 152 163 160 159 160 163 163 164 167 164 160 166 165 165 165 165 164 160 166 166 163 169 170 172 -193 -193 -193 180 183 182 184 185 192 0 0 0 0 0
    0 0 0 0 0 0 0 0 0 0 0 0 0 0 0 0 0 0 0 0 0 0 0 0 0 0 0 0 0 0 0 0 0 0 0 0 0 0 0 0 0 0 0 0 0 0 0 0 0 0 0 0 0 0 0 0 0 0 0 0 0 0 0 0 0 0 0 0 0 52 52 51 48 47 46 45 44 44 40 40 40 39 45 44 43 47 45 46 48 0 -256 -1 21390 48 46 47 48 47 49 47 46 47 45 47 48 46 47 47 46 48 48 55 51 53 53 52 52 52 53 53 53 52 50 52 51 51 49 48 47 43 43 43 42 41 38 37 35 32 40 40 46 48 49 46 44 41 40 39 39 37 36 33 -225 -225 -225 -225 -225 -225 -225 -225 -225 -225 -225 -225 -225 -225 -225 -225 -225 -225 -225 -225 -225 -225 -225 -225 -225 -225 -225 -225 -225 -225 -225 -225 -225 -225 -225 -225 -225 37 39 38 38 40 40 40 40 41 44 43 44 51 56 57 57 54 55 55 57 56 56 54 54 52 57 58 58 59 64 64 68 71 72 74 76 77 77 77 79 81 82 85 86 89 90 91 92 93 92 92 93 92 94 93 95 93 95 96 93 93 95 98 99 99 104 105 105 108 111 111 115 114 116 118 120 120 122 125 127 130 133 136 136 136 139 142 149 148 149 149 150 150 152 162 159 159 160 164 164 165 167 164 160 164 164 164 164 164 164 159 165 166 164 169 171 173 176 -193 -193 -193 -209 -193 187 188 194 0 0 0 0 0
    0 0 0 0 0 0 0 0 0 0 0 0 0 0 0 0 0 0 0 0 0 0 0 0 0 0 0 0 0 0 0 0 0 0 0 0 0 0 0 0 0 0 0 0 0 0 0 0 0 0 0 0 0 0 0 0 0 0 0 0 0 0 0 0 0 0 0 0 0 52 52 50 48 47 45 45 44 44 40 40 39 39 44 44 43 48 46 47 49 46 49 47 47 48 46 47 47 46 49 47 47 48 46 49 49 48 48 49 47 48 47 54 51 53 53 52 52 52 53 53 53 53 51 53 52 51 50 49 47 44 44 44 43 42 39 38 35 35 40 42 45 45 45 44 43 42 41 41 40 38 37 34 -225 -225 -225 -225 -225 -225 -225 -225 -225 -225 -225 -225 -225 -225 -225 -225 -225 -225 -225 -225 -225 -225 -225 -225 -225 -225 -225 -225 -225 -225 -225 -225 -225 -225 -225 -225 -225 -225 -225 41 40 44 43 42 42 43 45 44 44 50 55 56 58 54 55 55 57 56 56 54 54 53 57 58 58 58 63 64 68 71 72 75 76 76 77 77 78 81 82 85 87 89 90 90 92 92 92 91 92 91 93 93 94 92 94 94 93 93 94 98 99 99 103 105 105 107 109 109 111 111 115 117 119 117 120 123 124 126 131 135 135 135 139 142 150 149 150 150 150 151 152 161 160 159 161 165 165 165 167 164 160 164 164 163 163 163 163 159 165 166 164 169 171 175 176 177 179 182 185 185 188 189 193 0 0 0 0 0
    0 0 0 0 0 0 0 0 0 0 0 0 0 0 0 0 0 0 0 0 0 0 0 0 0 0 0 0 0 0 0 0 0 0 0 0 0 0 0 0 0 0 0 0 0 0 0 0 0 0 0 0 0 0 0 0 0 0 0 0 0 0 0 0 0 0 0 0 0 51 52 49 48 47 44 44 43 44 40 40 39 39 44 44 44 49 47 47 49 47 49 47 47 48 46 47 48 47 49 47 48 49 47 49 50 48 49 50 48 48 47 54 51 53 53 52 52 52 53 53 54 54 52 53 54 52 50 50 48 44 45 45 44 43 41 39 31 38 40 43 46 45 45 44 43 42 42 42 41 38 36 -225 -225 -225 -225 -225 -225 -225 -225 -225 -225 -225 -225 -225 -225 -225 -225 -225 -225 -225 -225 -225 -225 -225 -225 -225 -225 -225 -225 -225 -225 -225 -225 -225 -225 -225 -225 -225 -225 -225 -225 -225 40 45 45 43 43 43 46 44 45 50 54 56 58 55 55 55 57 56 56 55 55 54 58 59 59 59 64 65 68 72 73 75 76 76 77 77 78 81 82 85 87 89 90 90 91 92 91 91 91 90 92 94 98 97 99 100 99 98 99 100 101 101 104 105 105 107 108 108 110 109 115 116 118 117 121 123 124 125 127 131 132 134 137 139 150 148 150 150 151 151 152 161 161 160 161 166 166 166 167 164 161 163 163 163 163 163 163 159 164 166 165 170 172 177 177 176 178 179 183 183 185 185 186 0 0 0 0 0
    0 0 0 0 0 0 0 0 0 0 0 0 0 0 0 0 0 0 0 0 0 0 0 0 0 0 0 0 0 0 0 0 0 0 0 0 0 0 0 0 0 0 0 0 0 0 0 0 0 0 0 0 0 0 0 0 0 0 0 0 0 0 0 0 0 0 0 0 0 51 51 48 47 46 44 43 42 43 40 40 40 39 44 45 44 50 47 47 49 47 49 47 47 48 46 47 48 46 48 46 47 49 47 49 50 49 51 51 50 50 47 54 51 52 52 51 51 52 52 53 53 54 53 54 55 53 51 51 48 45 45 45 45 43 42 42 33 39 55 49 49 47 46 45 44 44 44 42 42 40 -225 -225 -225 -225 -225 -225 -225 -225 -225 -225 -225 -225 -225 -225 -225 -225 -225 -225 -225 -225 -225 -225 -225 -225 -225 -225 -225 -225 -225 -225 -225 -225 -225 -225 -225 -225 -225 -225 -225 -225 -225 -225 45 49 47 45 45 45 47 46 47 52 55 57 58 55 56 56 57 56 57 55 55 55 58 59 60 60 64 64 67 71 72 74 75 75 77 77 78 81 82 85 87 89 89 90 91 92 91 90 91 90 91 94 98 97 99 101 99 98 102 102 103 102 105 106 106 107 108 108 110 110 115 115 116 116 120 122 123 123 125 131 133 134 136 138 150 149 150 150 151 151 152 160 163 161 163 167 167 167 168 165 162 162 163 163 163 163 163 160 164 165 165 169 172 177 177 177 178 178 181 181 183 184 185 0 0 0 0 0
    0 0 0 0 0 0 0 0 0 0 0 0 0 0 0 0 0 0 0 0 0 0 0 0 0 0 0 0 0 0 0 0 0 0 0 0 0 0 0 0 0 0 0 0 0 0 0 0 0 0 0 0 0 0 0 0 0 0 0 0 0 0 0 0 0 0 0 0 0 51 52 48 47 47 44 44 42 43 40 40 40 39 42 44 43 49 46 47 50 47 50 47 47 47 46 47 47 45 47 44 45 48 47 48 50 50 52 53 52 52 50 55 50 52 52 51 51 51 52 53 52 55 53 54 56 54 53 52 50 46 46 46 46 44 43 43 44 58 61 54 53 51 50 48 46 46 45 44 43 -225 -225 -225 -225 -225 -225 -225 -225 -225 -225 -225 -225 -225 -225 -225 -225 -225 -225 -225 -225 -225 -225 -225 -225 -225 -225 -225 -225 -225 -225 -225 -225 -225 -225 -225 -225 -225 -225 -225 -225 -225 -225 -225 47 51 49 46 45 45 49 48 49 53 56 57 59 56 57 57 58 57 57 56 56 56 59 60 61 60 64 64 65 69 70 73 73 73 76 76 77 80 81 84 86 88 89 89 91 91 91 91 91 91 91 94 99 99 100 102 102 102 105 104 105 105 107 107 107 108 109 110 114 116 119 120 121 121 122 123 124 123 124 125 132 135 137 138 150 148 149 150 150 151 152 159 164 163 164 169 169 169 169 166 164 163 163 163 163 163 163 161 162 165 164 -209 -193 177 -193 -193 180 178 182 183 185 184 186 0 0 0 0 0
    0 0 0 0 0 0 0 0 0 0 0 0 0 0 0 0 0 0 0 0 0 0 0 0 0 0 0 0 0 0 0 0 0 0 0 0 0 0 0 0 0 0 0 0 0 0 0 0 0 0 0 0 0 0 0 0 0 0 0 0 0 0 0 0 0 0 0 0 0 52 52 49 49 48 44 45 42 43 41 40 40 39 40 43 42 46 46 46 50 47 49 47 47 47 46 46 47 45 46 43 44 46 45 46 49 52 54 55 53 52 51 54 50 52 51 50 50 51 52 53 52 55 54 56 57 55 53 53 51 48 47 48 47 44 44 51 53 56 59 55 54 52 51 49 48 47 46 44 43 -225 -225 -225 -225 -225 -225 -225 -225 -225 -225 -225 -225 -225 -225 -225 -225 -225 -225 -225 -225 -225 -225 -225 -225 -225 -225 -225 -225 -225 -225 -225 -225 -225 -225 -225 -225 -225 -225 -225 -225 -225 -225 -225 47 51 49 46 46 45 49 50 51 53 56 57 58 57 57 57 57 57 57 56 56 57 59 60 60 60 63 63 63 68 69 72 72 72 75 76 76 78 79 82 85 88 88 89 90 92 92 91 91 91 91 96 101 101 102 103 103 104 106 105 106 106 108 109 108 109 111 113 117 119 121 122 122 123 124 125 127 125 125 125 131 135 137 138 150 148 149 149 150 150 151 157 163 162 163 169 169 169 169 167 165 163 165 164 164 164 164 162 162 165 165 -209 -193 177 179 -193 182 179 183 184 186 187 188 0 0 0 0 0
    0 0 0 0 0 0 0 0 0 0 0 0 0 0 0 0 0 0 0 0 0 0 0 0 0 0 0 0 0 0 0 0 0 0 0 0 0 0 0 0 0 0 0 0 0 0 0 0 0 0 0 0 0 0 0 0 0 0 0 0 0 0 0 0 0 0 0 0 0 53 53 51 51 50 44 44 42 41 40 39 39 38 39 41 41 43 45 46 49 47 49 48 47 48 48 47 48 46 48 45 45 49 48 48 52 53 56 61 -193 54 52 55 51 53 51 50 50 51 52 53 52 55 53 56 57 54 54 54 52 50 48 49 48 44 53 56 55 59 60 56 55 53 51 50 49 48 46 44 -225 -225 -225 -225 -225 -225 -225 -225 -225 -225 -225 -225 -225 -225 -225 -225 -225 -225 -225 -225 -225 -225 -225 -225 -225 -225 -225 -225 -225 -225 -225 -225 -225 -225 -225 -225 -225 -225 -225 -225 -225 -225 -225 -225 47 52 49 47 46 46 49 50 52 54 56 57 58 57 58 58 58 57 57 57 57 57 59 60 60 60 63 64 63 68 69 72 72 72 74 75 76 77 78 80 85 88 88 89 91 92 93 92 92 92 92 100 103 104 104 105 105 105 106 105 106 107 109 109 109 109 111 113 118 121 123 124 123 124 125 126 127 125 125 123 125 132 134 136 150 147 147 147 148 148 150 154 162 159 162 168 168 168 168 168 166 164 166 165 165 165 165 163 162 165 165 166 171 176 180 182 182 180 183 185 187 188 189 0 0 0 0 0
    0 0 0 0 0 0 0 0 0 0 0 0 0 0 0 0 0 0 0 0 0 0 0 0 0 0 0 0 0 0 0 0 0 0 0 0 0 0 0 0 0 0 0 0 0 0 0 0 0 0 0 0 0 0 0 0 0 0 0 0 0 0 0 0 0 0 0 0 0 54 54 52 52 50 43 43 41 41 40 38 39 38 39 41 41 43 46 47 49 48 49 50 47 48 49 48 51 49 50 49 48 51 51 51 52 50 55 56 56 58 -193 55 53 53 52 52 51 53 53 53 52 55 52 53 55 53 53 53 53 52 49 52 52 52 59 60 58 60 61 58 56 54 53 51 50 49 46 -225 -225 -225 -225 -225 -225 -225 -225 -225 -225 -225 -225 -225 -225 -225 -225 -225 -225 -225 -225 -225 -225 -225 -225 -225 -225 -225 -225 -225 -225 -225 -225 -225 -225 -225 -225 -225 -225 -225 -225 -225 -225 -225 -225 -225 46 51 49 47 47 46 50 51 52 54 55 56 58 57 58 58 58 57 58 58 58 59 60 61 61 61 63 64 64 69 70 72 72 71 74 75 75 76 78 78 85 88 89 89 91 93 94 93 93 93 92 101 104 105 105 106 106 106 107 106 107 107 110 110 110 111 112 114 118 121 124 124 124 124 124 125 126 123 124 122 122 131 135 136 149 146 145 145 146 146 149 153 162 158 161 167 168 168 168 168 167 164 167 166 166 166 166 165 162 165 165 165 170 175 179 181 181 180 183 184 185 186 187 0 0 0 0 0
    0 0 0 0 0 0 0 0 0 0 0 0 0 0 0 0 0 0 0 0 0 0 0 0 0 0 0 0 0 0 0 0 0 0 0 0 0 0 0 0 0 0 0 0 0 0 0 0 0 0 0 0 0 0 0 0 0 0 0 0 0 0 0 0 0 0 0 0 0 54 54 52 53 52 44 46 47 51 46 47 47 46 44 49 53 50 52 53 53 54 53 54 50 50 53 51 54 51 52 52 51 52 53 52 53 49 55 55 60 72 75 60 58 -193 56 55 54 54 54 53 53 54 52 51 51 50 53 54 54 52 47 56 72 68 65 61 60 62 62 59 57 55 54 52 51 51 48 -225 -225 -225 -225 -225 -225 -225 -225 -225 -225 -225 -225 -225 -225 -225 -225 -225 -225 -225 -225 -225 -225 -225 -225 -225 -225 -225 -225 -225 -225 -225 -225 -225 -225 -225 -225 -225 -225 -225 -225 -225 -225 -225 -225 -225 46 50 48 46 47 47 51 53 53 55 56 57 59 58 59 59 59 59 60 60 60 60 61 61 62 62 63 64 65 69 70 72 72 71 73 74 75 75 78 78 85 88 89 89 91 93 94 92 93 92 91 102 104 106 106 107 107 107 108 107 108 108 111 111 111 111 113 114 119 121 124 125 124 125 125 125 126 124 124 122 -193 132 137 137 149 146 145 146 147 147 149 152 162 158 161 166 167 167 167 169 167 164 168 167 166 166 167 166 161 165 164 164 169 174 178 181 181 180 183 184 185 185 185 0 0 0 0 0
    0 0 0 0 0 0 0 0 0 0 0 0 0 0 0 0 0 0 0 0 0 0 0 0 0 0 0 0 0 0 0 0 0 0 0 0 0 0 0 0 0 0 0 0 0 0 0 0 0 0 0 0 0 0 0 0 0 0 0 0 0 0 0 0 0 0 0 0 0 53 53 52 53 53 50 56 57 58 57 58 57 56 53 54 56 54 55 55 54 55 55 55 54 52 55 53 56 53 53 53 52 52 53 52 53 48 54 52 59 73 78 68 64 69 62 58 56 56 55 55 -193 -193 51 50 49 -209 55 -193 54 52 53 59 67 66 65 63 61 62 62 60 57 56 55 53 52 52 -225 -225 -225 -225 -225 -225 -225 -225 -225 -225 -225 -225 -225 -225 -225 -225 -225 -225 -225 -225 -225 -225 -225 -225 -225 -225 -225 -225 -225 -225 -225 -225 -225 -225 -225 -225 -225 -225 -225 -225 -225 -225 -225 -225 -225 -225 -225 48 47 45 45 45 51 54 54 55 57 57 60 60 61 61 61 63 64 63 63 63 63 63 63 63 63 65 65 69 71 72 72 71 73 74 75 76 78 77 85 89 89 90 91 93 94 92 92 92 90 103 104 106 106 107 107 107 108 107 108 109 112 112 112 113 115 116 119 121 124 125 124 125 126 126 128 126 126 126 128 137 138 139 146 145 145 147 148 148 149 152 161 158 160 165 166 165 167 169 167 164 168 167 167 166 167 166 160 164 164 163 169 174 178 181 181 180 182 183 184 183 184 0 0 0 0 0
    0 0 0 0 0 0 0 0 0 0 0 0 0 0 0 0 0 0 0 0 0 0 0 0 0 0 0 0 0 0 0 0 0 0 0 0 0 0 0 0 0 0 0 0 0 0 0 0 0 0 0 0 0 0 0 0 0 0 0 0 0 0 0 0 0 0 0 0 0 53 53 53 55 56 57 60 64 64 63 64 62 60 55 54 56 55 55 55 55 56 56 57 56 56 56 56 57 54 54 54 53 53 53 53 53 50 54 52 56 69 76 58 60 -193 56 56 56 55 -193 55 -193 -193 -193 -193 -209 -209 -209 -209 -193 -193 67 66 67 68 66 64 62 64 63 60 58 58 57 55 54 -225 -225 -225 -225 -225 -225 -225 -225 -225 -225 -225 -225 -225 -225 -225 -225 -225 -225 -225 -225 -225 -225 -225 -225 -225 -225 -225 -225 -225 -225 -225 -225 -225 -225 -225 -225 -225 -225 -225 -225 -225 -225 -225 -225 -225 -225 -225 -225 -225 44 41 42 41 50 56 55 57 59 58 59 60 62 62 62 66 67 66 65 66 65 64 65 64 63 64 64 69 70 71 72 71 73 74 75 76 78 77 85 89 90 91 92 94 95 94 94 95 92 104 105 106 107 107 108 108 109 108 109 110 113 114 115 115 116 117 120 122 124 125 124 125 126 127 129 127 128 129 133 137 138 139 143 143 143 146 147 147 149 152 160 158 160 164 165 164 166 168 166 163 167 167 166 166 166 166 160 165 165 164 169 174 178 180 181 179 181 182 182 183 183 0 0 0 0 0
    0 0 0 0 0 0 0 0 0 0 0 0 0 0 0 0 0 0 0 0 0 0 0 0 0 0 0 0 0 0 0 0 0 0 0 0 0 0 0 0 0 0 0 0 0 0 0 0 0 0 0 0 0 0 0 0 0 0 0 0 0 0 0 0 0 0 0 0 0 54 53 54 55 57 59 62 64 66 65 65 65 62 57 56 57 57 56 56 56 58 58 60 61 60 57 57 57 54 54 54 54 53 53 53 54 51 54 53 56 60 -209 -193 57 55 54 55 54 54 -193 53 -193 -193 -193 -193 -209 -193 -209 -193 74 75 74 70 70 70 69 67 65 65 63 61 60 59 58 57 -225 -225 -225 -225 -225 -225 -225 -225 -225 -225 -225 -225 -225 -225 -225 -225 -225 -225 -225 -225 -225 -225 -225 -225 -225 -225 -225 -225 -225 -225 -225 -225 -225 -225 -225 -225 -225 -225 -225 -225 -225 -225 -225 -225 -225 -225 -225 -225 -225 -225 -225 36 37 39 50 61 57 58 60 59 59 60 62 62 62 65 67 65 65 66 65 63 64 63 63 63 63 68 69 71 72 71 72 74 75 75 78 77 84 89 90 91 92 95 97 96 97 98 97 104 104 106 106 106 107 107 108 107 108 110 114 114 115 116 117 117 120 122 124 125 124 125 126 126 129 128 130 131 134 137 139 140 142 142 142 145 146 146 148 151 158 157 160 163 165 164 166 168 166 163 168 167 166 166 167 166 160 166 166 164 169 173 177 181 181 180 182 183 184 184 185 0 0 0 0 0
    0 0 0 0 0 0 0 0 0 0 0 0 0 0 0 0 0 0 0 0 0 0 0 0 0 0 0 0 0 0 0 0 0 0 0 0 0 0 0 0 0 0 0 0 0 0 0 0 0 0 0 0 0 0 0 0 0 0 0 0 0 0 0 0 0 0 0 0 0 54 53 55 57 59 60 63 65 66 66 66 66 62 59 57 59 57 57 56 57 59 61 63 69 66 62 61 61 55 56 55 54 54 54 54 54 52 55 54 56 60 70 57 60 -193 -193 55 54 52 -193 52 -193 -193 -193 -209 -209 78 75 76 77 76 75 73 72 72 71 70 68 66 63 62 61 60 59 -225 -225 -225 -225 -225 -225 -225 -225 -225 -225 -225 -225 -225 -225 -225 -225 -225 -225 -225 -225 -225 -225 -225 -225 -225 -225 -225 -225 -225 -225 -225 -225 -225 -225 -225 -225 -225 -225 -225 -225 -225 -225 -225 -225 -225 -225 -225 -225 -225 -225 -225 -225 -225 -225 38 47 60 56 56 58 57 58 59 61 61 64 66 67 66 66 66 65 64 64 62 63 62 63 67 68 70 71 71 72 74 74 75 78 77 84 89 90 92 93 95 98 98 99 100 101 105 105 106 106 106 106 106 107 107 107 109 113 114 115 116 117 117 120 121 123 124 123 124 125 126 129 128 130 131 134 137 139 140 141 142 142 144 145 146 147 150 156 156 159 162 163 162 165 168 165 161 167 166 166 166 166 165 159 166 166 165 169 174 179 182 182 182 183 184 184 185 185 0 0 0 0 0
    0 0 0 0 0 0 0 0 0 0 0 0 0 0 0 0 0 0 0 0 0 0 0 0 0 0 0 0 0 0 0 0 0 0 0 0 0 0 0 0 0 0 0 0 0 0 0 0 0 0 0 0 0 0 0 0 0 0 0 0 0 0 0 0 0 0 0 0 0 55 54 57 59 60 61 64 65 66 66 66 67 63 59 58 58 57 56 56 57 59 61 63 69 67 64 64 64 56 57 56 55 54 54 54 55 53 55 54 56 61 72 62 66 -193 -193 -193 -193 52 -193 -193 -193 -193 -193 -193 -193 78 75 78 77 75 75 73 73 73 72 70 69 66 63 62 61 60 -225 -225 -225 -225 -225 -225 -225 -225 -225 -225 -225 -225 -225 -225 -225 -225 -225 -225 -225 -225 -225 -225 -225 -225 -225 -225 -225 -225 -225 -225 -225 -225 -225 -225 -225 -225 -225 -225 -225 -225 -225 -225 -225 -225 -225 -225 -225 -225 -225 -225 -225 -225 -225 -225 -225 -225 -225 57 53 54 55 55 56 58 62 62 68 67 68 67 67 67 66 66 66 64 66 65 67 69 70 71 72 73 72 73 74 76 79 78 86 90 91 93 94 96 98 98 100 101 -193 105 105 106 106 106 106 106 107 107 107 110 113 113 114 115 116 116 119 120 122 124 123 124 125 126 128 127 129 131 133 137 138 139 141 141 142 144 145 146 148 150 156 156 158 161 162 161 164 167 165 161 167 167 166 166 166 166 159 166 166 165 169 173 177 181 181 181 183 183 184 185 185 0 0 0 0 0
    0 0 0 0 0 0 0 0 0 0 0 0 0 0 0 0 0 0 0 0 0 0 0 0 0 0 0 0 0 0 0 0 0 0 0 0 0 0 0 0 0 0 0 0 0 0 0 0 0 0 0 0 0 0 0 0 0 0 0 0 0 0 0 0 0 0 0 0 0 56 55 58 61 62 63 65 66 67 66 66 67 63 60 58 58 56 56 56 57 59 61 62 69 68 66 65 65 58 57 57 56 55 55 55 55 53 55 53 55 58 64 59 65 -193 -193 -193 -193 -193 -193 -193 -193 -193 -193 -209 -193 77 74 76 76 75 75 73 73 73 71 70 69 68 66 64 63 -225 -225 -225 -225 -225 -225 -225 -225 -225 -225 -225 -225 -225 -225 -225 -225 -225 -225 -225 -225 -225 -225 -225 -225 -225 -225 -225 -225 -225 -225 -225 -225 -225 -225 -225 -225 -225 -225 -225 -225 -225 -225 -225 -225 -225 -225 -225 -225 -225 -225 -225 -225 -225 -225 -225 -225 -225 -225 -225 -225 -225 53 55 58 66 -209 69 72 70 70 69 69 68 68 67 67 66 68 68 70 71 73 72 73 74 73 73 74 76 80 79 86 90 91 93 94 95 98 98 100 100 -209 105 104 105 105 105 105 105 106 106 107 109 111 111 113 114 115 116 119 120 122 124 123 124 125 125 128 127 129 131 133 136 138 139 140 140 141 144 146 147 148 151 157 156 158 160 162 160 164 167 164 161 166 166 166 166 166 165 160 166 166 165 169 173 177 181 181 181 182 183 183 184 184 0 0 0 0 0
    0 0 0 0 0 0 0 0 0 0 0 0 0 0 0 0 0 0 0 0 0 0 0 0 0 0 0 0 0 0 0 0 0 0 0 0 0 0 0 0 0 0 0 0 0 0 0 0 0 0 0 0 0 0 0 0 0 0 0 0 0 0 0 0 0 0 0 0 0 56 56 59 62 63 64 66 66 67 67 66 67 64 61 59 59 57 56 56 58 61 65 64 70 70 69 67 67 60 58 58 58 56 56 55 55 54 55 54 54 57 60 59 64 -193 -193 59 -193 -193 -193 -193 78 -193 78 79 78 76 74 76 77 76 76 74 74 73 71 71 70 69 66 64 -225 -225 -225 -225 -225 -225 -225 -225 -225 -225 -225 -225 -225 -225 -225 -225 -225 -225 -225 -225 -225 -225 -225 -225 -225 -225 -225 -225 -225 -225 -225 -225 -225 -225 -225 -225 -225 -225 -225 -225 -225 -225 -225 -225 -225 -225 -225 -225 -225 -225 -225 -225 -225 -225 -225 -225 -225 -225 -225 -225 -225 -225 -225 -225 71 -209 78 72 74 72 71 70 70 69 69 69 69 68 69 70 72 73 74 74 75 76 74 75 75 78 79 80 85 89 91 92 93 93 95 96 99 99 -193 104 103 104 104 104 105 103 105 105 106 109 111 111 113 114 115 116 118 120 122 124 123 124 125 125 128 128 130 132 133 136 138 139 139 140 141 145 147 148 150 151 157 158 159 161 162 160 164 166 164 161 165 166 166 166 166 165 161 167 167 166 168 171 175 180 181 181 183 183 183 184 183 0 0 0 0 0
    0 0 0 0 0 0 0 0 0 0 0 0 0 0 0 0 0 0 0 0 0 0 0 0 0 0 0 0 0 0 0 0 0 0 0 0 0 0 0 0 0 0 0 0 0 0 0 0 0 0 0 0 0 0 0 0 0 0 0 0 0 0 0 0 0 0 0 0 0 57 57 60 64 64 64 66 66 67 67 66 67 64 62 61 60 58 56 57 60 64 68 66 70 -193 69 68 69 66 62 62 63 60 60 58 58 57 56 56 54 56 58 56 62 -193 -193 60 -209 -209 -209 66 77 -193 75 77 78 76 75 77 77 76 77 75 74 73 72 72 72 70 67 -225 -225 -225 -225 -225 -225 -225 -225 -225 -225 -225 -225 -225 -225 -225 -225 -225 -225 -225 -225 -225 -225 -225 -225 -225 -225 -225 -225 -225 -225 -225 -225 -225 -225 -225 -225 -225 -225 -225 -225 -225 -225 -225 -225 -225 -225 -225 -225 -225 -225 -225 -225 -225 -225 -225 -225 -225 -225 -225 -225 -225 -225 -225 -225 -225 -225 72 78 71 74 72 71 70 70 69 69 69 69 69 70 71 72 74 75 76 76 77 75 77 76 79 79 80 82 88 89 90 90 91 93 93 97 98 -193 102 101 102 101 101 102 101 104 104 105 108 110 111 113 114 115 116 118 120 121 124 124 124 125 126 130 130 131 133 134 136 137 139 139 139 140 146 148 150 151 152 157 159 160 161 162 160 164 166 165 162 165 167 166 166 166 166 162 166 166 165 165 168 170 173 177 178 182 182 184 185 185 0 0 0 0 0
    0 0 0 0 0 0 0 0 0 0 0 0 0 0 0 0 0 0 0 0 0 0 0 0 0 0 0 0 0 0 0 0 0 0 0 0 0 0 0 0 0 0 0 0 0 0 0 0 0 0 0 0 0 0 0 0 0 0 0 0 0 0 0 0 0 0 0 0 0 59 60 62 66 65 65 67 66 68 68 67 68 66 67 67 65 63 57 59 62 -193 71 67 70 -209 69 69 70 70 67 67 68 67 66 64 61 60 57 56 55 56 56 55 -209 -209 -209 -209 -209 -209 -209 72 78 76 77 77 77 76 76 77 78 77 77 75 74 73 73 74 73 72 -225 -225 -225 -225 -225 -225 -225 -225 -225 -225 -225 -225 -225 -225 -225 -225 -225 -225 -225 -225 -225 -225 -225 -225 -225 -225 -225 -225 -225 -225 -225 -225 -225 -225 -225 -225 -225 -225 -225 -225 -225 -225 -225 -225 -225 -225 -225 -225 -225 -225 -225 -225 -225 -225 -225 -225 -225 -225 -225 -225 -225 -225 -225 -225 -225 -225 -225 -225 76 71 75 72 71 70 70 70 70 70 70 69 70 72 73 75 76 77 76 77 76 77 77 79 78 80 80 84 84 88 89 89 92 92 96 98 -193 101 101 101 100 100 101 100 102 103 104 107 109 111 113 114 116 116 118 120 121 123 123 124 125 126 130 131 132 134 134 136 137 138 138 139 140 145 147 149 151 152 156 159 160 161 162 160 164 166 165 163 165 167 167 167 167 167 164 166 166 165 163 165 167 170 172 174 178 180 181 183 184 0 0 0 0 0
    0 0 0 0 0 0 0 0 0 0 0 0 0 0 0 0 0 0 0 0 0 0 0 0 0 0 0 0 0 0 0 0 0 0 0 0 0 0 0 0 0 0 0 0 0 0 0 0 0 0 0 0 0 0 0 0 0 0 0 0 0 0 0 0 0 0 0 0 0 60 62 63 67 66 66 68 67 68 70 69 70 68 71 73 71 71 61 -209 -193 -193 -209 -209 -193 -209 -193 69 69 69 67 66 69 67 66 65 63 62 59 58 55 57 58 56 -209 -209 -209 -209 86 83 82 75 80 79 78 78 78 77 77 78 79 78 78 76 75 75 75 75 75 -225 -225 -225 -225 -225 -225 -225 -225 -225 -225 -225 -225 -225 -225 -225 -225 -225 -225 -225 -225 -225 -225 -225 -225 -225 -225 -225 -225 -225 -225 -225 -225 -225 -225 -225 -225 -225 -225 -225 -225 -225 -225 -225 -225 -225 -225 -225 -225 -225 -225 -225 -225 -225 -225 -225 -225 -225 -225 -225 -225 -225 -225 -225 -225 -225 -225 -225 -225 -225 -225 71 76 72 71 70 70 70 70 70 70 70 71 73 74 76 77 78 78 78 77 78 78 80 79 79 79 82 82 84 87 88 -209 91 -209 96 101 101 101 101 100 99 100 100 102 102 104 106 108 110 112 115 116 117 119 120 121 123 124 124 125 126 131 131 132 134 134 136 137 138 138 138 139 144 147 149 151 152 156 160 160 161 162 160 164 166 166 165 165 168 167 167 167 167 166 166 166 165 162 164 164 165 167 171 173 176 176 180 182 0 0 0 0 0
    0 0 0 0 0 0 0 0 0 0 0 0 0 0 0 0 0 0 0 0 0 0 0 0 0 0 0 0 0 0 0 0 0 0 0 0 0 0 0 0 0 0 0 0 0 0 0 0 0 0 0 0 0 0 0 0 0 0 0 0 0 0 0 0 0 0 0 0 0 63 66 65 68 66 66 67 67 68 69 68 69 68 71 75 74 -193 -209 -209 -209 -209 -209 -209 -209 -193 -193 70 70 69 68 67 69 68 68 67 65 64 62 60 57 62 67 67 -193 78 82 81 87 85 82 79 83 80 80 79 80 79 79 81 80 79 78 77 77 76 76 -225 -225 -225 -225 -225 -225 -225 -225 -225 -225 -225 -225 -225 -225 -225 -225 -225 -225 -225 -225 -225 -225 -225 -225 -225 -225 -225 -225 -225 -225 -225 -225 -225 -225 -225 -225 -225 -225 -225 -225 -225 -225 -225 -225 -225 -225 -225 -225 -225 -225 -225 -225 -225 -225 -225 -225 -225 -225 -225 -225 -225 -225 -225 -225 -225 -225 -225 -225 -225 -225 -225 -225 72 78 72 71 70 70 69 70 70 71 71 72 75 75 77 78 79 78 78 77 79 78 79 78 79 79 81 83 84 85 88 91 91 94 95 99 100 99 100 99 99 100 100 102 102 104 106 108 109 111 114 116 117 119 120 121 124 124 125 125 126 131 132 132 134 135 136 136 137 137 137 138 143 148 149 151 153 156 161 161 162 162 160 164 166 167 165 165 168 168 168 168 168 166 164 166 164 160 160 -193 154 160 -193 176 179 179 182 182 0 0 0 0 0
    0 0 0 0 0 0 0 0 0 0 0 0 0 0 0 0 0 0 0 0 0 0 0 0 0 0 0 0 0 0 0 0 0 0 0 0 0 0 0 0 0 0 0 0 0 0 0 0 0 0 0 0 0 0 0 0 0 0 0 0 0 0 0 0 0 0 0 0 0 -193 -193 68 69 67 67 68 68 69 70 69 70 71 74 79 78 -193 -209 -209 -209 -209 -193 -193 -193 -193 -209 -209 70 71 69 68 69 68 69 68 65 64 62 60 60 68 -209 -209 76 81 84 85 87 87 85 82 84 82 81 81 82 81 81 81 81 79 78 78 77 75 -225 -225 -225 -225 -225 -225 -225 -225 -225 -225 -225 -225 -225 -225 -225 -225 -225 -225 -225 -225 -225 -225 -225 -225 -225 -225 -225 -225 -225 -225 -225 -225 -225 -225 -225 -225 -225 -225 -225 -225 -225 -225 -225 -225 -225 -225 -225 -225 -225 -225 -225 -225 -225 -225 -225 -225 -225 -225 -225 -225 -225 -225 -225 -225 -225 -225 -225 -225 -225 -225 -225 -225 -225 73 80 74 72 71 71 70 71 71 72 73 74 77 77 80 80 81 81 81 79 82 80 82 80 81 81 82 83 84 84 89 90 91 92 92 95 96 96 98 97 98 99 99 102 102 104 106 108 109 111 114 116 116 119 120 121 124 125 126 126 127 131 132 133 135 135 136 136 137 137 136 137 143 149 150 152 154 157 163 161 162 162 160 164 166 167 166 165 169 168 168 168 168 167 163 166 165 161 -209 -193 157 162 166 -209 172 175 180 181 0 0 0 0 0
    0 0 0 0 0 0 0 0 0 0 0 0 0 0 0 0 0 0 0 0 0 0 0 0 0 0 0 0 0 0 0 0 0 0 0 0 0 0 0 0 0 0 0 0 0 0 0 0 0 0 0 0 0 0 0 0 0 0 0 0 0 0 0 0 0 0 0 0 0 -193 -193 71 71 69 68 69 69 70 71 70 71 -209 76 84 83 -193 -209 -209 -209 -209 -193 107 109 -193 -209 -209 71 71 70 69 70 69 69 69 67 65 64 61 -209 -209 -209 -209 -209 83 85 87 89 87 84 82 83 81 82 81 82 81 81 81 80 79 79 77 76 -225 -225 -225 -225 -225 -225 -225 -225 -225 -225 -225 -225 -225 -225 -225 -225 -225 -225 -225 -225 -225 -225 -225 -225 -225 -225 -225 -225 -225 -225 -225 -225 -225 -225 -225 -225 -225 -225 -225 -225 -225 -225 -225 -225 -225 -225 -225 -225 -225 -225 -225 -225 -225 -225 -225 -225 -225 -225 -225 -225 -225 -225 -225 -225 -225 -225 -225 -225 -225 -225 -225 -225 -225 -225 -225 83 76 73 72 72 71 71 72 73 75 76 79 79 82 82 83 82 82 80 82 80 81 80 80 79 81 81 83 82 88 89 90 90 90 92 93 94 97 96 97 99 99 102 103 104 106 108 109 111 114 116 117 119 120 121 125 126 127 128 130 133 134 134 135 136 136 136 137 137 136 137 143 150 151 153 155 158 164 162 163 163 160 164 166 168 166 164 169 168 168 168 168 167 162 167 166 162 -209 -209 -209 162 -209 -193 -193 171 174 177 0 0 0 0 0
    0 0 0 0 0 0 0 0 0 0 0 0 0 0 0 0 0 0 0 0 0 0 0 0 0 0 0 0 0 0 0 0 0 0 0 0 0 0 0 0 0 0 0 0 0 0 0 0 0 0 0 0 0 0 0 0 0 0 0 0 0 0 0 0 0 0 0 0 0 71 73 71 71 70 69 70 70 71 72 71 -209 -209 -209 81 80 -209 -209 -209 -209 -209 108 -193 -193 -209 -209 -209 -209 -209 71 69 70 70 69 69 68 65 -193 65 -209 -209 -209 -209 80 83 86 89 89 85 83 82 82 81 81 81 81 80 80 81 81 81 80 78 -225 -225 -225 -225 -225 -225 -225 -225 -225 -225 -225 -225 -225 -225 -225 -225 -225 -225 -225 -225 -225 -225 -225 -225 -225 -225 -225 -225 -225 -225 -225 -225 -225 -225 -225 -225 -225 -225 -225 -225 -225 -225 -225 -225 -225 -225 -225 -225 -225 -225 -225 -225 -225 -225 -225 -225 -225 -225 -225 -225 -225 -225 -225 -225 -225 -225 -225 -225 -225 -225 -225 -225 -225 -225 -225 -225 -225 78 75 72 71 71 72 74 75 78 79 82 81 84 84 84 83 83 81 83 81 81 80 81 80 82 82 83 83 89 90 90 90 90 91 92 93 96 95 97 98 100 102 103 104 106 108 109 112 114 116 117 119 120 121 124 125 126 127 130 133 135 135 136 136 137 137 137 137 137 137 143 151 -209 154 156 158 164 162 163 163 161 164 166 168 166 164 169 168 168 168 168 167 162 167 167 164 -193 -209 -209 -209 -209 -209 -209 -209 175 -209 0 0 0 0 0
    0 0 0 0 0 0 0 0 0 0 0 0 0 0 0 0 0 0 0 0 0 0 0 0 0 0 0 0 0 0 0 0 0 0 0 0 0 0 0 0 0 0 0 0 0 0 0 0 0 0 0 0 0 0 0 0 0 0 0 0 0 0 0 0 0 0 0 0 0 -193 73 72 72 71 70 71 70 72 74 -209 -209 -209 -209 -193 76 -193 -209 -209 -209 -209 -193 -209 -193 -209 -209 -209 -209 -209 -209 70 70 -193 68 -209 67 66 -209 -209 -209 -209 -193 83 86 87 88 90 89 86 85 85 84 84 84 83 82 81 82 83 83 83 82 -225 -225 -225 -225 -225 -225 -225 -225 -225 -225 -225 -225 -225 -225 -225 -225 -225 -225 -225 -225 -225 -225 -225 -225 -225 -225 -225 -225 -225 -225 -225 -225 -225 -225 -225 -225 -225 -225 -225 -225 -225 -225 -225 -225 -225 -225 -225 -225 -225 -225 -225 -225 -225 -225 -225 -225 -225 -225 -225 -225 -225 -225 -225 -225 -225 -225 -225 -225 -225 -225 -225 -225 -225 -225 -225 -225 -225 -225 -225 75 72 71 71 74 76 77 80 81 83 83 85 85 85 84 85 83 84 82 83 82 83 83 85 86 88 89 92 92 92 91 92 92 93 95 97 96 98 99 100 102 103 104 106 108 109 113 114 116 117 118 119 120 123 124 125 126 130 133 136 136 136 137 137 137 137 137 137 137 144 150 -209 153 155 157 164 162 163 163 161 164 166 168 166 164 168 167 168 167 167 167 161 168 168 166 169 -193 -193 -209 -209 -209 -209 -209 -209 -209 0 0 0 0 0
    0 0 0 0 0 0 0 0 0 0 0 0 0 0 0 0 0 0 0 0 0 0 0 0 0 0 0 0 0 0 0 0 0 0 0 0 0 0 0 0 0 0 0 0 0 0 0 0 0 0 0 0 0 0 0 0 0 0 0 0 0 0 0 0 0 0 0 0 0 -209 75 74 76 74 -193 -209 -209 -209 -209 -209 -209 -209 -209 -193 -193 -209 -193 -209 -209 -209 -193 -193 -193 -209 -209 -209 -209 -193 -209 -209 -209 -209 -193 -193 -193 66 -193 -209 -209 -209 -193 86 89 89 89 90 89 86 85 85 85 84 84 83 82 82 83 83 83 -225 -225 -225 -225 -225 -225 -225 -225 -225 -225 -225 -225 -225 -225 -225 -225 -225 -225 -225 -225 -225 -225 -225 -225 -225 -225 -225 -225 -225 -225 -225 -225 -225 -225 -225 -225 -225 -225 -225 -225 -225 -225 -225 -225 -225 -225 -225 -225 -225 -225 -225 -225 -225 -225 -225 -225 -225 -225 -225 -225 -225 -225 -225 -225 -225 -225 -225 -225 -225 -225 -225 -225 -225 -225 -225 -225 -225 -225 -225 -225 -225 -225 53 49 55 -177 78 78 81 82 84 85 86 86 87 87 87 86 86 85 85 85 86 86 89 90 90 91 94 93 93 92 93 93 93 96 97 96 98 99 100 102 103 104 106 108 109 112 114 116 116 118 118 119 122 123 124 126 129 133 135 136 136 137 137 137 137 138 138 138 144 150 -209 153 155 156 163 162 163 163 162 164 166 168 166 163 167 166 167 166 167 166 160 168 168 168 170 -209 -209 -209 -193 170 169 -193 170 -209 0 0 0 0 0
    0 0 0 0 0 0 0 0 0 0 0 0 0 0 0 0 0 0 0 0 0 0 0 0 0 0 0 0 0 0 0 0 0 0 0 0 0 0 0 0 0 0 0 0 0 0 0 0 0 0 0 0 0 0 0 0 0 0 0 0 0 0 0 0 0 0 0 0 0 77 79 78 82 81 -209 -209 -209 -209 -209 -209 636 -209 -209 -209 -209 -209 -209 -209 -209 -209 -193 -209 -209 -209 -209 -209 -193 -193 -193 -209 -193 -209 -193 -193 68 68 -209 -209 -209 -209 87 87 89 90 89 89 88 85 85 85 85 84 84 82 82 82 83 84 -225 -225 -225 -225 -225 -225 -225 -225 -225 -225 -225 -225 -225 -225 -225 -225 -225 -225 -225 -225 -225 -225 -225 -225 -225 -225 -225 -225 -225 -225 -225 -225 -225 -225 -225 -225 -225 -225 -225 -225 -225 -225 -225 -225 -225 -225 -225 -225 -225 -225 -225 -225 -225 -225 -225 -225 -225 -225 -225 -225 -225 -225 -225 -225 -225 -225 -225 -225 -225 -225 -225 -225 -225 -225 -225 -225 -225 -225 -225 -225 -225 -225 -225 -225 54 56 74 78 78 82 83 84 86 86 87 88 88 88 87 88 87 87 87 88 87 89 90 91 92 95 94 94 93 93 93 93 96 96 96 99 100 101 102 103 105 106 108 109 112 113 115 116 118 118 119 121 122 123 125 129 133 -193 136 137 138 138 137 138 138 138 138 144 150 -209 153 155 156 163 162 163 163 163 164 166 168 165 162 165 165 165 165 165 165 159 169 170 170 172 -193 -193 175 173 170 170 171 172 172 0 0 0 0 0
    0 0 0 0 0 0 0 0 0 0 0 0 0 0 0 0 0 0 0 0 0 0 0 0 0 0 0 0 0 0 0 0 0 0 0 0 0 0 0 0 0 0 0 0 0 0 0 0 0 0 0 0 0 0 0 0 0 0 0 0 0 0 0 0 0 0 0 0 0 -209 -209 -193 -193 -209 -209 -209 -209 -209 -209 -209 -209 -209 -209 -209 -209 -209 -209 -209 -209 -209 -193 -209 -209 -209 -193 -209 -193 -209 -209 74 -209 -209 -209 -209 -193 -209 -209 -209 -209 89 88 88 90 91 89 88 87 85 85 85 85 83 82 82 82 82 83 -225 -225 -225 -225 -225 -225 -225 -225 -225 -225 -225 -225 -225 -225 -225 -225 -225 -225 -225 -225 -225 -225 -225 -225 -225 -225 -225 -225 -225 -225 -225 -225 -225 -225 -225 -225 -225 -225 -225 -225 -225 -225 -225 -225 -225 -225 -225 -225 -225 -225 -225 -225 -225 -225 -225 -225 -225 -225 -225 -225 -225 -225 -225 -225 -225 -225 -225 -225 -225 -225 -225 -225 -225 -225 -225 -225 -225 -225 -225 -225 -225 -225 -225 -225 -225 -225 58 82 82 79 82 84 85 87 87 88 89 89 90 89 90 89 89 89 91 89 92 93 94 94 97 96 96 95 96 94 95 96 95 95 99 100 100 102 104 105 107 108 109 112 113 114 115 117 118 119 121 122 123 125 -209 -193 -209 136 137 138 139 138 138 138 138 138 144 149 151 152 155 156 162 163 164 164 163 164 167 168 165 162 164 164 164 164 164 164 158 169 169 170 173 179 179 179 174 171 170 172 171 170 0 0 0 0 0
    0 0 0 0 0 0 0 0 0 0 0 0 0 0 0 0 0 0 0 0 0 0 0 0 0 0 0 0 0 0 0 0 0 0 0 0 0 0 0 0 0 0 0 0 0 0 0 0 0 0 0 0 0 0 0 0 0 0 0 0 0 0 0 0 0 0 0 0 0 -193 -177 -177 -209 -177 -209 -209 -209 -209 -209 -209 -209 -209 -209 396 -209 -209 -209 -209 -209 -209 -209 -209 -209 -209 -193 -209 -209 -209 -209 -193 -209 -209 -209 -209 -209 -209 -209 -209 92 90 88 89 90 90 89 89 88 86 86 86 84 83 82 81 81 80 -225 -225 -225 -225 -225 -225 -225 -225 -225 -225 -225 -225 -225 -225 -225 -225 -225 -225 -225 -225 -225 -225 -225 -225 -225 -225 -225 -225 -225 -225 -225 -225 -225 -225 -225 -225 -225 -225 -225 -225 -225 -225 -225 -225 -225 -225 -225 -225 -225 -225 -225 -225 -225 -225 -225 -225 -225 -225 -225 -225 -225 -225 -225 -225 -225 -225 -225 -225 -225 -225 -225 -225 -225 -225 -225 -225 -225 -225 -225 -225 -225 -225 -225 -225 -225 -225 -225 -225 -225 85 81 83 84 85 87 88 89 90 91 92 91 92 91 91 92 95 92 95 95 97 97 99 98 98 98 99 96 97 98 97 97 101 101 100 102 104 105 107 108 109 111 111 112 113 115 116 118 120 122 -209 125 -209 -193 -209 -209 137 138 138 137 138 139 139 139 144 149 151 152 154 154 160 162 163 163 164 164 167 168 165 162 163 163 164 164 164 164 158 169 169 170 172 176 179 180 175 173 170 171 169 -193 0 0 0 0 0
    0 0 0 0 0 0 0 0 0 0 0 0 0 0 0 0 0 0 0 0 0 0 0 0 0 0 0 0 0 0 0 0 0 0 0 0 0 0 0 0 0 0 0 0 0 0 0 0 0 0 0 0 0 0 0 0 0 0 0 0 0 0 0 0 0 0 0 0 0 -209 -177 -209 -209 -209 -209 -209 -209 -209 -209 -209 -209 -209 -209 399 -209 -209 -209 -209 -209 -209 -193 -193 -209 -209 -209 -209 -209 -209 -209 -193 -209 -209 -209 -209 -209 79 85 88 92 90 89 90 90 90 89 89 88 86 86 85 83 82 81 79 79 -225 -225 -225 -225 -225 -225 -225 -225 -225 -225 -225 -225 -225 -225 -225 -225 -225 -225 -225 -225 -225 -225 -225 -225 -225 -225 -225 -225 -225 -225 -225 -225 -225 -225 -225 -225 -225 -225 -225 -225 -225 -225 -225 -225 -225 -225 -225 -225 -225 -225 -225 -225 -225 -225 -225 -225 -225 -225 -225 -225 -225 -225 -225 -225 -225 -225 -225 -225 -225 -225 -225 -225 -225 -225 -225 -225 -225 -225 -225 -225 -225 -225 -225 -225 -225 -225 -225 -225 -225 -225 -225 81 82 85 86 88 88 90 92 93 95 95 96 96 95 98 100 98 100 99 99 99 100 98 99 98 100 97 98 101 99 99 103 103 102 102 105 106 106 108 109 111 110 112 112 114 115 117 119 -209 -209 124 -209 -193 -193 135 136 137 137 137 138 140 139 140 145 149 151 151 153 153 158 162 163 163 163 164 168 168 165 163 163 164 164 164 164 165 160 169 170 171 172 174 177 179 175 172 170 170 167 167 0 0 0 0 0
    0 0 0 0 0 0 0 0 0 0 0 0 0 0 0 0 0 0 0 0 0 0 0 0 0 0 0 0 0 0 0 0 0 0 0 0 0 0 0 0 0 0 0 0 0 0 0 0 0 0 0 0 0 0 0 0 0 0 0 0 0 0 0 0 0 0 0 0 0 -209 -209 -209 -209 -209 -209 -209 -209 -209 -209 -209 -209 -209 -209 -193 -209 -193 -209 -209 -209 -209 -209 -193 -193 -193 -209 -209 -209 -193 -209 -209 -209 -209 -209 -209 -209 88 89 90 94 93 90 90 90 90 89 89 88 87 85 84 83 82 80 -225 -225 -225 -225 -225 -225 -225 -225 -225 -225 -225 -225 -225 -225 -225 -225 -225 -225 -225 -225 -225 -225 -225 -225 -225 -225 -225 -225 -225 -225 -225 -225 -225 -225 -225 -225 -225 -225 -225 -225 -225 -225 -225 -225 -225 -225 -225 -225 -225 -225 -225 -225 -225 -225 -225 -225 -225 -225 -225 -225 -225 -225 -225 -225 -225 -225 -225 -225 -225 -225 -225 -225 -225 -225 -225 -225 -225 -225 -225 -225 -225 -225 -225 -225 -225 -225 -225 -225 -225 -225 -225 -225 -225 81 83 85 87 91 89 91 92 94 96 97 98 98 98 100 102 100 101 100 100 100 100 99 99 98 100 98 100 102 101 101 104 104 103 103 105 105 106 107 108 111 111 113 113 115 116 117 119 120 -193 124 -209 -193 -193 133 135 136 137 137 138 141 140 141 147 149 151 151 153 153 156 161 162 162 163 164 168 168 166 165 164 165 165 165 165 166 162 169 169 170 171 174 176 178 174 173 170 171 169 170 0 0 0 0 0
    0 0 0 0 0 0 0 0 0 0 0 0 0 0 0 0 0 0 0 0 0 0 0 0 0 0 0 0 0 0 0 0 0 0 0 0 0 0 0 0 0 0 0 0 0 0 0 0 0 0 0 0 0 0 0 0 0 0 0 0 0 0 0 0 0 0 0 0 0 -209 -209 -209 -209 -209 -209 -209 -209 -209 -209 -209 -209 -209 -209 -193 -193 -209 -209 -209 -209 -209 -209 -209 -193 76 -209 -209 -209 -209 -209 -209 -209 -209 -209 -209 87 89 91 93 98 96 92 91 91 91 90 90 89 86 86 85 84 82 -225 -225 -225 -225 -225 -225 -225 -225 -225 -225 -225 -225 -225 -225 -225 -225 -225 -225 -225 -225 -225 -225 -225 -225 -225 -225 -225 -225 -225 -225 -225 -225 -225 -225 -225 -225 -225 -225 -225 -225 -225 -225 -225 -225 -225 -225 -225 -225 -225 -225 -225 -225 -225 -225 -225 -225 -225 -225 -225 -225 -225 -225 -225 -225 -225 -225 -225 -225 -225 -225 -225 -225 -225 -225 -225 -225 -225 -225 -225 -225 -225 -225 -225 -225 -225 -225 -225 -225 -225 -225 -225 -225 -225 -225 -225 81 83 86 90 89 91 92 96 97 99 100 101 101 103 104 103 103 102 101 101 101 100 100 99 101 99 101 103 103 102 104 105 104 103 105 105 105 106 108 111 111 113 112 114 114 116 117 118 118 -209 -209 -193 131 132 134 -193 137 137 139 141 140 142 147 149 150 151 151 152 156 161 161 161 163 164 167 168 167 166 164 166 166 166 166 167 165 168 169 170 170 173 176 180 176 177 173 174 175 177 0 0 0 0 0
    0 0 0 0 0 0 0 0 0 0 0 0 0 0 0 0 0 0 0 0 0 0 0 0 0 0 0 0 0 0 0 0 0 0 0 0 0 0 0 0 0 0 0 0 0 0 0 0 0 0 0 0 0 0 0 0 0 0 0 0 0 0 0 0 0 0 0 0 0 -193 -209 -209 -209 -177 -193 718 726 -209 -209 -209 -209 -209 -209 -209 -209 -209 -209 -209 -209 -209 -209 -209 -209 -209 -209 -209 -209 -209 -209 -209 -209 -209 -209 -209 93 94 99 102 101 100 96 95 95 95 93 92 90 88 88 86 85 -225 -225 -225 -225 -225 -225 -225 -225 -225 -225 -225 -225 -225 -225 -225 -225 -225 -225 -225 -225 -225 -225 -225 -225 -225 -225 -225 -225 -225 -225 -225 -225 -225 -225 -225 -225 -225 -225 -225 -225 -225 -225 -225 -225 -225 -225 -225 -225 -225 -225 -225 -225 -225 -225 -225 -225 -225 -225 -225 -225 -225 -225 -225 -225 -225 -225 -225 -225 -225 -225 -225 -225 -225 -225 -225 -225 -225 -225 -225 -225 -225 -225 -225 -225 -225 -225 -225 -225 -225 -225 -225 -225 -225 -225 -225 -225 81 81 86 94 91 92 93 97 99 100 101 101 101 103 104 104 104 103 103 103 103 102 102 101 103 101 103 104 103 103 104 104 103 103 104 104 104 105 107 110 111 112 112 115 115 117 118 -209 -209 -209 -209 -193 131 131 -193 -209 -193 138 139 141 140 142 147 148 150 150 150 152 155 161 161 161 163 163 167 168 167 167 165 168 167 167 167 168 167 168 169 170 171 173 176 180 176 178 174 175 177 -209 0 0 0 0 0
    0 0 0 0 0 0 0 0 0 0 0 0 0 0 0 0 0 0 0 0 0 0 0 0 0 0 0 0 0 0 0 0 0 0 0 0 0 0 0 0 0 0 0 0 0 0 0 0 0 0 0 0 0 0 0 0 0 0 0 0 0 0 0 0 0 0 0 0 0 -209 -209 -193 -193 -209 -177 -177 -209 -209 -209 -209 -209 -209 -209 -193 -209 -209 -209 -209 -209 -209 -209 -209 -209 -209 -209 -209 -209 -209 -209 -209 -209 110 111 104 101 101 103 105 103 102 100 99 99 99 96 92 90 89 88 87 -225 -225 -225 -225 -225 -225 -225 -225 -225 -225 -225 -225 -225 -225 -225 -225 -225 -225 -225 -225 -225 -225 -225 -225 -225 -225 -225 -225 -225 -225 -225 -225 -225 -225 -225 -225 -225 -225 -225 -225 -225 -225 -225 -225 -225 -225 -225 -225 -225 -225 -225 -225 -225 -225 -225 -225 -225 -225 -225 -225 -225 -225 -225 -225 -225 -225 -225 -225 -225 -225 -225 -225 -225 -225 -225 -225 -225 -225 -225 -225 -225 -225 -225 -225 -225 -225 -225 -225 -225 -225 -225 -225 -225 -225 -225 -225 -225 -225 82 86 97 92 94 94 98 99 100 101 102 102 103 105 104 104 104 104 104 103 103 103 103 104 103 105 106 105 105 105 106 105 104 106 105 105 106 107 108 111 112 114 115 115 117 118 119 120 -209 -209 -193 129 131 -209 -209 -193 140 141 142 141 142 146 148 150 150 150 151 154 162 161 162 163 163 167 167 168 168 166 169 168 168 168 169 169 168 170 170 171 174 177 180 178 180 176 175 178 177 0 0 0 0 0
    0 0 0 0 0 0 0 0 0 0 0 0 0 0 0 0 0 0 0 0 0 0 0 0 0 0 0 0 0 0 0 0 0 0 0 0 0 0 0 0 0 0 0 0 0 0 0 0 0 0 0 0 0 0 0 0 0 0 0 0 0 0 0 0 0 0 0 0 0 -209 -209 -209 -209 -209 -209 -209 -209 300 -209 -209 -209 -209 -209 -209 -209 77 -209 -209 -193 -209 -209 -209 -209 -209 -209 -209 -209 -209 -193 111 110 111 112 105 104 104 105 106 104 103 101 101 101 100 96 93 91 90 89 -225 -225 -225 -225 -225 -225 -225 -225 -225 -225 -225 -225 -225 -225 -225 -225 -225 -225 -225 -225 -225 -225 -225 -225 -225 -225 -225 -225 -225 -225 -225 -225 -225 -225 -225 -225 -225 -225 -225 -225 -225 -225 -225 -225 -225 -225 -225 -225 -225 -225 -225 -225 -225 -225 -225 -225 -225 -225 -225 -225 -225 -225 -225 -225 -225 -225 -225 -225 -225 -225 -225 -225 -225 -225 -225 -225 -225 -225 -225 -225 -225 -225 -225 -225 -225 -225 -225 -225 -225 -225 -225 -225 -225 -225 -225 -225 -225 -225 -225 -225 86 97 93 95 94 98 98 99 100 102 102 104 105 105 105 105 105 105 105 106 105 104 106 105 106 107 106 106 106 106 105 105 106 105 105 106 107 108 111 113 115 116 116 117 117 119 119 122 -209 -209 129 -209 -209 -209 139 141 141 141 140 141 144 148 150 150 150 152 155 163 162 163 164 163 166 167 169 168 167 169 169 169 169 169 170 168 170 169 171 174 179 182 180 182 179 176 179 178 0 0 0 0 0
    0 0 0 0 0 0 0 0 0 0 0 0 0 0 0 0 0 0 0 0 0 0 0 0 0 0 0 0 0 0 0 0 0 0 0 0 0 0 0 0 0 0 0 0 0 0 0 0 0 0 0 0 0 0 0 0 0 0 0 0 0 0 0 0 0 0 0 0 0 -209 -177 -177 -209 -209 -209 -209 -209 301 -209 -209 -209 -209 -209 -209 -209 78 -193 -193 -193 -193 -209 -209 -209 -209 -209 -209 109 -193 110 112 111 112 113 106 107 106 106 106 104 104 102 101 101 99 95 94 92 91 -225 -225 -225 -225 -225 -225 -225 -225 -225 -225 -225 -225 -225 -225 -225 -225 -225 -225 -225 -225 -225 -225 -225 -225 -225 -225 -225 -225 -225 -225 -225 -225 -225 -225 -225 -225 -225 -225 -225 -225 -225 -225 -225 -225 -225 -225 -225 -225 -225 -225 -225 -225 -225 -225 -225 -225 -225 -225 -225 -225 -225 -225 -225 -225 -225 -225 -225 -225 -225 -225 -225 -225 -225 -225 -225 -225 -225 -225 -225 -225 -225 -225 -225 -225 -225 -225 -225 -225 -225 -225 -225 -225 -225 -225 -225 -225 -225 -225 -225 -225 -225 -225 96 94 97 93 99 98 100 100 102 103 105 106 106 106 106 106 107 107 107 106 106 108 107 108 109 108 108 106 107 106 105 106 105 104 105 106 108 109 112 114 117 116 118 119 120 121 122 -209 125 129 131 133 -209 138 141 142 141 140 141 143 148 150 150 150 152 155 164 163 163 164 164 166 167 170 168 167 169 169 169 169 169 170 167 169 169 170 172 176 182 180 183 183 179 182 181 0 0 0 0 0
    0 0 0 0 0 0 0 0 0 0 0 0 0 0 0 0 0 0 0 0 0 0 0 0 0 0 0 0 0 0 0 0 0 0 0 0 0 0 0 0 0 0 0 0 0 0 0 0 0 0 0 0 0 0 0 0 0 0 0 0 0 0 0 0 0 0 0 0 0 196 -209 -209 -209 -209 -209 -209 -209 -193 -209 -209 -209 -209 -209 -209 -209 80 -209 -209 -209 -209 -209 -209 -209 -209 112 -209 110 110 110 112 111 111 112 107 107 107 107 107 106 105 104 103 101 100 97 94 93 -225 -225 -225 -225 -225 -225 -225 -225 -225 -225 -225 -225 -225 -225 -225 -225 -225 -225 -225 -225 -225 -225 -225 -225 -225 -225 -225 -225 -225 -225 -225 -225 -225 -225 -225 -225 -225 -225 -225 -225 -225 -225 -225 -225 -225 -225 -225 -225 -225 -225 -225 -225 -225 -225 -225 -225 -225 -225 -225 -225 -225 -225 -225 -225 -225 -225 -225 -225 -225 -225 -225 -225 -225 -225 -225 -225 -225 -225 -225 -225 -225 -225 -225 -225 -225 -225 -225 -225 -225 -225 -225 -225 -225 -225 -225 -225 -225 -225 -225 -225 -225 -225 -225 -225 -225 99 93 100 98 100 100 103 103 106 107 107 108 108 107 108 108 109 107 107 109 107 108 110 109 109 108 107 107 106 107 106 105 106 106 107 110 112 114 115 115 118 118 120 121 122 -209 124 127 130 132 135 136 140 141 140 140 140 142 147 150 150 150 151 154 164 163 163 164 164 166 167 170 168 167 169 169 169 169 169 169 165 169 168 168 170 171 177 177 182 184 181 183 183 0 0 0 0 0
    0 0 0 0 0 0 0 0 0 0 0 0 0 0 0 0 0 0 0 0 0 0 0 0 0 0 0 0 0 0 0 0 0 0 0 0 0 0 0 0 0 0 0 0 0 0 0 0 0 0 0 0 0 0 0 0 0 0 0 0 0 0 0 0 0 0 0 0 0 195 -209 -209 -209 -209 -209 -209 -209 -209 -209 -209 -209 -193 -209 -209 -209 -209 -209 -209 -209 -193 -193 -209 -209 -209 -193 -209 110 110 110 112 110 111 112 108 108 108 108 108 107 106 105 103 103 102 99 96 -225 -225 -225 -225 -225 -225 -225 -225 -225 -225 -225 -225 -225 -225 -225 -225 -225 -225 -225 -225 -225 -225 -225 -225 -225 -225 -225 -225 -225 -225 -225 -225 -225 -225 -225 -225 -225 -225 -225 -225 -225 -225 -225 -225 -225 -225 -225 -225 -225 -225 -225 -225 -225 -225 -225 -225 -225 -225 -225 -225 -225 -225 -225 -225 -225 -225 -225 -225 -225 -225 -225 -225 -225 -225 -225 -225 -225 -225 -225 -225 -225 -225 -225 -225 -225 -225 -225 -225 -225 -225 -225 -225 -225 -225 -225 -225 -225 -225 -225 -225 -225 -225 -225 -225 -225 -225 -225 95 102 101 103 100 103 104 106 107 107 107 108 107 109 109 109 108 108 111 109 111 113 111 112 110 110 110 109 110 108 108 109 110 112 118 116 117 116 115 117 117 119 121 121 -209 -193 126 129 131 134 136 140 140 138 139 139 140 146 149 150 149 151 154 163 163 163 164 163 166 167 170 168 167 169 168 168 168 168 169 164 168 167 167 169 170 175 176 182 183 181 183 183 0 0 0 0 0
    0 0 0 0 0 0 0 0 0 0 0 0 0 0 0 0 0 0 0 0 0 0 0 0 0 0 0 0 0 0 0 0 0 0 0 0 0 0 0 0 0 0 0 0 0 0 0 0 0 0 0 0 0 0 0 0 0 0 0 0 0 0 0 0 0 0 0 0 0 -193 -209 -209 -209 -209 -209 -209 -209 -209 -209 -193 141 139 -209 -209 -209 -209 -209 -209 -209 -193 -177 -209 -209 -209 -193 -193 110 110 110 112 111 113 112 110 110 111 111 111 110 109 107 106 106 105 103 99 -225 -225 -225 -225 -225 -225 -225 -225 -225 -225 -225 -225 -225 -225 -225 -225 -225 -225 -225 -225 -225 -225 -225 -225 -225 -225 -225 -225 -225 -225 -225 -225 -225 -225 -225 -225 -225 -225 -225 -225 -225 -225 -225 -225 -225 -225 -225 -225 -225 -225 -225 -225 -225 -225 -225 -225 -225 -225 -225 -225 -225 -225 -225 -225 -225 -225 -225 -225 -225 -225 -225 -225 -225 -225 -225 -225 -225 -225 -225 -225 -225 -225 -225 -225 -225 -225 -225 -225 -225 -225 -225 -225 -225 -225 -225 -225 -225 -225 -225 -225 -225 -225 -225 -225 -225 -225 -225 -209 103 103 106 101 103 104 106 106 106 107 108 107 109 108 109 108 109 111 110 112 114 111 112 112 111 112 111 114 111 111 114 116 117 122 121 121 118 118 119 119 120 120 121 -209 -209 126 129 132 134 135 138 138 137 138 138 139 144 148 150 149 152 155 163 164 164 164 164 165 167 170 167 166 168 168 168 168 168 168 163 167 166 166 169 170 176 178 182 184 182 182 183 0 0 0 0 0
    0 0 0 0 0 0 0 0 0 0 0 0 0 0 0 0 0 0 0 0 0 0 0 0 0 0 0 0 0 0 0 0 0 0 0 0 0 0 0 0 0 0 0 0 0 0 0 0 0 0 0 0 0 0 0 0 0 0 0 0 0 0 0 0 0 0 0 0 0 -209 -193 301 -193 -209 -209 -209 -193 -209 -209 -209 -209 139 -209 -209 -209 -209 -209 -209 -209 -209 -193 -209 -209 -209 117 115 110 108 109 111 113 112 113 111 111 112 113 112 112 109 109 108 108 106 105 102 98 -225 -225 -225 -225 -225 -225 -225 -225 -225 -225 -225 -225 -225 -225 -225 -225 -225 -225 -225 -225 -225 -225 -225 -225 -225 -225 -225 -225 -225 -225 -225 -225 -225 -225 -225 -225 -225 -225 -225 -225 -225 -225 -225 -225 -225 -225 -225 -225 -225 -225 -225 -225 -225 -225 -225 -225 -225 -225 -225 -225 -225 -225 -225 -225 -225 -225 -225 -225 -225 -225 -225 -225 -225 -225 -225 -225 -225 -225 -225 -225 -225 -225 -225 -225 -225 -225 -225 -225 -225 -225 -225 -225 -225 -225 -209 -225 -225 -225 -225 -225 -225 -225 -225 -225 -225 -225 -209 105 107 109 104 105 105 108 107 107 108 109 108 110 109 110 109 110 113 111 113 114 112 113 114 114 115 115 118 116 117 120 120 121 123 123 123 120 120 119 118 119 120 121 120 122 125 129 131 134 134 137 138 137 138 137 138 143 147 150 150 152 155 163 165 165 165 164 166 167 170 167 166 167 167 167 167 167 167 162 168 166 164 168 169 174 175 181 182 179 180 181 0 0 0 0 0
    0 0 0 0 0 0 0 0 0 0 0 0 0 0 0 0 0 0 0 0 0 0 0 0 0 0 0 0 0 0 0 0 0 0 0 0 0 0 0 0 0 0 0 0 0 0 0 0 0 0 0 0 0 0 0 0 0 0 0 0 0 0 0 0 0 0 0 0 0 -209 302 303 -209 -193 -209 -209 -193 -209 -209 -209 -209 -209 -209 -193 -209 -209 -209 -209 -209 -209 -209 -209 -209 -209 115 114 109 108 109 114 115 113 114 112 113 114 113 113 112 110 110 109 109 107 105 101 94 93 94 93 -193 -209 -225 -225 -225 -225 -225 -225 -225 -225 -225 -225 -225 -225 -225 -225 -225 -225 -225 -225 -225 -225 -225 -225 -225 -225 -225 -225 -225 -225 -225 -225 -225 -225 -225 -225 -225 -225 -225 -225 -225 -225 -225 -225 -225 -225 -225 -225 -225 -225 -225 -225 -225 -225 -225 -225 -225 -225 -225 -225 -225 -225 -225 -225 -225 -225 -225 -225 -225 -225 -225 -225 -225 -225 -225 -225 -225 -225 -225 -225 -225 -225 -225 -225 -225 -225 -225 -225 -225 -225 -225 -209 -225 -225 -225 -225 -225 -225 -225 -225 -225 -225 -225 -209 112 108 109 102 104 105 109 107 107 108 109 109 110 110 111 109 111 114 112 114 115 113 114 116 116 117 117 120 119 119 121 122 122 124 124 122 120 120 120 119 120 120 121 120 123 126 129 130 133 133 135 136 135 137 137 137 142 147 150 150 153 155 163 165 165 165 164 166 168 170 167 166 166 166 167 166 166 166 162 168 167 162 167 167 170 -209 -209 -193 -193 174 174 0 0 0 0 0
    0 0 0 0 0 0 0 0 0 0 0 0 0 0 0 0 0 0 0 0 0 0 0 0 0 0 0 0 0 0 0 0 0 0 0 0 0 0 0 0 0 0 0 0 0 0 0 0 0 0 0 0 0 0 0 0 0 0 0 0 0 0 0 0 0 0 0 0 0 -209 301 302 -209 -209 -209 -209 -209 -209 -209 -209 -209 -209 -209 -193 -209 -193 -209 -209 -209 -193 -209 -209 -209 -193 114 114 110 108 109 115 114 113 114 113 113 113 112 112 110 110 109 109 109 107 107 105 103 100 100 100 98 -209 -209 -209 -225 -225 -225 -225 -225 -225 -225 -225 -225 -225 -225 -225 -225 -225 -225 -225 -225 -225 -225 -225 -225 -225 -225 -225 -225 -225 -225 -225 -225 -225 -225 -225 -225 -225 -225 -225 -225 -225 -225 -225 -225 -225 -225 -225 -225 -225 -225 -225 -225 -225 -225 -225 -225 -225 -225 -225 -225 -225 -225 -225 -225 -225 -225 -225 -225 -225 -225 -225 -225 -225 -225 -225 -225 -225 -225 -225 -225 -225 -225 -225 -225 -225 -225 -225 -225 -225 -225 -209 -225 -225 -225 -225 -225 -225 -225 -225 -225 -225 -225 -209 115 112 113 103 104 105 109 107 107 108 108 108 110 110 109 109 111 114 113 116 117 116 117 119 119 120 120 121 121 121 122 122 122 124 123 123 120 120 121 120 121 121 121 122 123 127 129 130 131 132 134 135 134 136 136 137 141 146 150 151 153 155 162 166 165 165 165 166 168 169 167 166 165 166 166 166 166 166 162 167 166 161 167 168 170 170 -193 -193 -193 172 172 0 0 0 0 0
    0 0 0 0 0 0 0 0 0 0 0 0 0 0 0 0 0 0 0 0 0 0 0 0 0 0 0 0 0 0 0 0 0 0 0 0 0 0 0 0 0 0 0 0 0 0 0 0 0 0 0 0 0 0 0 0 0 0 0 0 0 0 0 0 0 0 0 0 0 -209 -209 -209 -209 -209 -209 -209 -209 -209 -209 -209 -209 -209 -209 -209 -209 -209 -209 -209 -209 -193 -209 -209 -209 -209 110 110 109 107 109 116 112 111 113 112 112 112 111 111 110 109 109 109 109 108 107 108 105 103 104 104 -193 -209 -209 -209 -225 -225 -225 -225 -225 -225 -225 -225 -225 -225 -225 -225 -225 -225 -225 -225 -225 -225 -225 -225 -225 -225 -225 -225 -225 -225 -225 -225 -225 -225 -225 -225 -225 -225 -225 -225 -225 -225 -225 -225 -225 -225 -225 -225 -225 -225 -225 -225 -225 -225 -225 -225 -225 -225 -225 -225 -225 -225 -225 -225 -225 -225 -225 -225 -225 -225 -225 -225 -225 -225 -225 -225 -225 -225 -225 -225 -225 -225 -225 -225 -225 -225 -225 -225 -225 -225 -225 -209 -225 -225 -225 -225 -225 -225 -225 -225 -225 -225 -225 -209 116 116 117 -193 104 108 110 107 107 108 108 108 110 111 110 110 114 116 116 118 120 120 120 122 122 122 122 124 122 122 123 123 122 123 123 122 120 121 122 122 123 123 123 123 125 129 130 130 131 132 134 134 134 136 136 136 140 145 151 152 153 155 162 166 165 165 165 165 168 168 167 166 165 166 166 166 166 166 162 167 166 159 167 168 170 170 -193 -209 170 172 173 0 0 0 0 0
    0 0 0 0 0 0 0 0 0 0 0 0 0 0 0 0 0 0 0 0 0 0 0 0 0 0 0 0 0 0 0 0 0 0 0 0 0 0 0 0 0 0 0 0 0 0 0 0 0 0 0 0 0 0 0 0 0 0 0 0 0 0 0 0 0 0 0 0 0 -209 -209 -209 -209 -209 -209 -209 -209 -209 -209 -193 -209 -209 -209 -209 -193 -209 -209 -209 -209 -209 -209 -209 -193 109 111 112 110 111 112 117 113 111 113 112 113 112 111 112 110 110 110 110 110 109 108 109 105 104 105 107 -209 -209 -209 -209 -225 -225 -225 -225 -225 -225 -225 -225 -225 -225 -225 -225 -225 -225 -225 -225 -225 -225 -225 -225 -225 -225 -225 -225 -225 -225 -225 -225 -225 -225 -225 -225 -225 -225 -225 -225 -225 -225 -225 -225 -225 -225 -225 -225 -225 -225 -225 -225 -225 -225 -225 -225 -225 -225 -225 -225 -225 -225 -225 -225 -225 -225 -225 -225 -225 -225 -225 -225 -225 -225 -225 -225 -225 -225 -225 -225 -225 -225 -225 -225 -225 -225 -225 -225 -225 -225 -225 -209 -225 -225 -225 -225 -225 -225 -225 -225 -225 -225 -225 -209 116 117 119 119 104 113 112 108 108 110 109 109 112 113 111 112 116 118 118 120 122 122 123 126 124 125 124 125 124 123 124 124 123 125 123 122 121 122 123 124 124 124 124 124 126 129 129 129 130 132 133 134 134 136 135 136 139 143 -209 151 153 154 161 166 165 165 165 165 167 168 167 166 165 166 166 166 166 166 164 167 166 161 167 167 169 168 -193 -209 -209 -193 172 0 0 0 0 0
    0 0 0 0 0 0 0 0 0 0 0 0 0 0 0 0 0 0 0 0 0 0 0 0 0 0 0 0 0 0 0 0 0 0 0 0 0 0 0 0 0 0 0 0 0 0 0 0 0 0 0 0 0 0 0 0 0 0 0 0 0 0 0 0 0 0 0 0 0 -209 -209 -209 -209 -209 -209 -209 -209 -209 -209 -209 -209 -209 -209 -193 114 111 111 -209 108 -193 107 110 111 109 111 112 111 111 112 117 114 111 112 113 113 112 111 112 111 111 111 111 111 110 109 110 105 104 105 107 -209 -209 -209 -209 -225 -225 -225 -225 -225 -225 -225 -225 -225 -225 -225 -225 -225 -225 -225 -225 -225 -225 -225 -225 -225 -225 -225 -225 -225 -225 -225 -225 -225 -225 -225 -225 -225 -225 -225 -225 -225 -225 -225 -225 -225 -225 -225 -225 -225 -225 -225 -225 -225 -225 -225 -225 -225 -225 -225 -225 -225 -225 -225 -225 -225 -225 -225 -225 -225 -225 -225 -225 -225 -225 -225 -225 -225 -225 -225 -225 -225 -225 -225 -225 -225 -225 -225 -225 -225 -225 -225 -209 -225 -225 -225 -225 -225 -225 -225 -225 -225 -225 -225 -209 116 118 119 123 107 113 112 108 107 109 109 108 110 113 110 112 116 118 120 122 123 123 125 128 127 127 126 127 126 125 126 125 124 125 123 122 121 122 124 125 126 127 127 126 129 131 131 130 131 133 133 133 134 136 136 136 139 141 -209 150 152 154 160 166 165 165 165 165 167 168 168 167 166 167 167 167 167 167 166 167 166 163 168 168 168 166 -193 -209 -209 -193 -193 0 0 0 0 0
    0 0 0 0 0 0 0 0 0 0 0 0 0 0 0 0 0 0 0 0 0 0 0 0 0 0 0 0 0 0 0 0 0 0 0 0 0 0 0 0 0 0 0 0 0 0 0 0 0 0 0 0 0 0 0 0 0 0 0 0 0 0 0 0 0 0 0 0 0 -209 -209 -209 -209 -209 -209 -209 -209 -209 -193 -209 -209 -209 -209 112 116 115 115 113 111 110 110 113 115 111 112 112 111 111 112 116 113 110 112 112 112 112 111 112 112 111 112 111 111 110 110 110 105 104 105 107 -209 -209 -209 -209 -225 -225 -225 -225 -225 -225 -225 -225 -225 -225 -225 -225 -225 -225 -225 -225 -225 -225 -225 -225 -225 -225 -225 -225 -225 -225 -225 -225 -225 -225 -225 -225 -225 -225 -225 -225 -225 -225 -225 -225 -225 -225 -225 -225 -225 -225 -225 -225 -225 -225 -225 -225 -225 -225 -225 -225 -225 -225 -225 -225 -225 -225 -225 -225 -225 -225 -225 -225 -225 -225 -225 -225 -225 -225 -225 -225 -225 -225 -225 -225 -225 -225 -225 -225 -225 -225 -225 -209 -225 -225 -225 -225 -225 -225 -225 -225 -225 -225 -225 117 113 116 117 119 109 111 110 106 105 107 107 107 108 112 110 112 117 119 121 123 124 124 126 129 128 128 127 128 126 126 126 125 124 125 123 123 122 123 125 127 128 128 130 129 131 133 133 132 133 134 133 133 134 136 137 137 139 -193 -193 -209 153 154 160 166 165 165 165 165 167 168 168 168 167 168 169 169 169 169 169 168 168 167 169 169 170 166 -209 -209 -209 -193 -193 0 0 0 0 0
    0 0 0 0 0 0 0 0 0 0 0 0 0 0 0 0 0 0 0 0 0 0 0 0 0 0 0 0 0 0 0 0 0 0 0 0 0 0 0 0 0 0 0 0 0 0 0 0 0 0 0 0 0 0 0 0 0 0 0 0 0 0 0 0 0 0 0 0 0 -209 -193 -209 -193 -209 -209 -209 -209 -209 -177 -209 -209 -209 -209 111 115 116 116 115 113 112 112 115 117 115 115 115 114 114 115 117 114 110 111 112 112 111 111 112 112 111 112 111 111 110 110 111 105 104 106 108 108 -209 -209 -209 -225 -225 -225 -225 -225 -225 -225 -225 -225 -225 -225 -225 -225 -225 -225 -225 -225 -225 -225 -225 -225 -225 -225 -225 -225 -225 -225 -225 -225 -225 -225 -225 -225 -225 -225 -225 -225 -225 -225 -225 -225 -225 -225 -225 -225 -225 -225 -225 -225 -225 -225 -225 -225 -225 -225 -225 -225 -225 -225 -225 -225 -225 -225 -225 -225 -225 -225 -225 -225 -225 -225 -225 -225 -225 -225 -225 -225 -225 -225 -225 -225 -225 -225 -225 -225 -225 -225 -225 -225 -225 -225 -225 -225 -225 -225 -225 -225 -225 -225 -225 106 114 118 118 113 112 111 103 104 103 102 105 106 110 108 112 118 121 124 125 125 126 128 131 131 131 130 130 129 128 129 127 125 127 126 125 124 125 129 131 132 132 134 132 133 135 135 135 135 136 135 135 136 137 138 138 139 -193 -209 -209 153 153 159 167 166 166 166 165 167 168 170 169 168 169 170 170 170 170 170 168 168 167 169 167 168 166 167 -209 -209 -193 173 0 0 0 0 0
    0 0 0 0 0 0 0 0 0 0 0 0 0 0 0 0 0 0 0 0 0 0 0 0 0 0 0 0 0 0 0 0 0 0 0 0 0 0 0 0 0 0 0 0 0 0 0 0 0 0 0 0 0 0 0 0 0 0 0 0 0 0 0 0 0 0 0 0 0 -209 -193 -193 -177 -177 -209 -209 -177 -193 -177 -209 -193 -209 -209 115 118 118 118 117 116 115 115 118 119 117 117 118 117 117 117 118 114 110 111 112 111 111 110 112 111 110 112 111 111 111 110 113 105 105 107 111 112 -209 -209 -209 -225 -225 -225 -225 -225 -225 -225 -225 -225 -225 -225 -225 -225 -225 -225 -225 -225 -225 -225 -225 -225 -225 -225 -225 -225 -225 -225 -225 -225 -225 -225 -225 -225 -225 -225 -225 -225 -225 -225 -225 -225 -225 -225 -225 -225 -225 -225 -225 -225 -225 -225 -225 -225 -225 -225 -225 -225 -225 -225 -225 -225 -225 -225 -225 -225 -225 -225 -225 -225 -225 -225 -225 -225 -225 -225 -225 -225 -225 -225 -225 -225 -225 -225 -225 -225 -225 -225 -225 -225 -225 -225 -225 -225 -225 -225 -225 -225 -225 -225 -225 -225 -225 -225 -225 -225 -225 -225 103 103 102 103 107 106 110 108 111 117 120 123 124 124 126 128 131 132 132 132 132 132 131 131 130 127 128 127 126 126 126 131 132 133 135 136 135 135 137 137 136 136 138 136 135 136 137 138 137 138 142 -209 -209 153 154 160 167 166 167 166 166 168 168 171 169 168 169 170 170 170 170 170 166 167 165 166 165 165 164 165 167 -209 -193 -193 0 0 0 0 0
    0 0 0 0 0 0 0 0 0 0 0 0 0 0 0 0 0 0 0 0 0 0 0 0 0 0 0 0 0 0 0 0 0 0 0 0 0 0 0 0 0 0 0 0 0 0 0 0 0 0 0 0 0 0 0 0 0 0 0 0 0 0 0 0 0 0 0 0 0 -193 -193 -177 -177 -209 -209 -209 -209 -193 -209 -209 -209 -209 -209 119 121 121 121 120 118 120 119 120 121 119 119 120 119 119 118 118 113 109 110 112 111 110 110 112 110 111 112 112 -193 -209 112 116 105 106 111 119 -209 -209 -225 -225 -225 -225 -225 -225 -225 -225 -225 -225 -225 -225 -225 -225 -225 -225 -225 -225 -225 -225 -225 -225 -225 -225 -225 -225 -225 -225 -225 -225 -225 -225 -225 -225 -225 -225 -225 -225 -225 -225 -225 -225 -225 -225 -225 -225 -225 -225 -225 -225 -225 -225 -225 -225 -225 -225 -225 -225 -225 -225 -225 -225 -225 -225 -225 -225 -225 -225 -225 -225 -225 -225 -225 -225 -225 -225 -225 -225 -225 -225 -225 -225 -225 -225 -225 -225 -225 -225 -225 -225 -225 -225 -225 -225 -225 -225 -225 -225 -225 -225 -225 -225 -225 -225 -225 -225 -225 -225 -225 -225 -225 98 102 103 104 108 107 111 118 121 123 125 126 128 130 132 133 133 133 134 134 133 133 132 129 131 129 130 128 128 133 134 134 135 137 137 136 137 138 137 138 140 139 138 138 138 139 138 138 142 -209 -209 153 154 160 167 166 167 167 166 167 168 171 169 168 169 169 169 169 169 169 165 167 165 166 165 166 164 165 167 -193 -209 171 0 0 0 0 0
    0 0 0 0 0 0 0 0 0 0 0 0 0 0 0 0 0 0 0 0 0 0 0 0 0 0 0 0 0 0 0 0 0 0 0 0 0 0 0 0 0 0 0 0 0 0 0 0 0 0 0 0 0 0 0 0 0 0 0 0 0 0 0 0 0 0 0 0 0 -177 -193 679 681 -209 -209 -209 -209 -209 -209 -209 -193 -209 -193 -193 122 123 122 122 120 123 122 123 125 124 124 126 124 121 119 119 112 108 109 111 110 109 109 112 111 111 112 112 -193 -209 115 118 108 110 117 123 132 -225 -225 -225 -225 -225 -225 -225 -225 -225 -225 -225 -225 -225 -225 -225 -225 -225 -225 -225 -225 -225 -225 -225 -225 -225 -225 -225 -225 -225 -225 -225 -225 -225 -225 -225 -225 -225 -225 -225 -225 -225 -225 -225 -225 -225 -225 -225 -225 -225 -225 -225 -225 -225 -225 -225 -225 -225 -225 -225 -225 -225 -225 -225 -225 -225 -225 -225 -225 -225 -225 -225 -225 -225 -225 -225 -225 -225 -225 -225 -225 -225 -225 -225 -225 -225 -225 -225 -225 -225 -225 -225 -225 -225 -225 -225 -225 -225 -225 -225 -225 -225 -225 -225 -225 -225 -225 -225 -225 -225 -225 -225 -225 -225 -225 100 104 107 104 113 119 122 124 126 128 130 132 133 134 134 135 136 136 136 135 134 133 133 133 134 133 133 135 136 136 137 138 138 137 137 138 138 140 142 144 141 140 141 141 140 140 142 -209 -209 152 153 160 168 167 167 168 167 167 168 171 168 167 169 169 168 169 168 168 164 167 166 166 166 167 165 167 168 170 170 173 0 0 0 0 0
    0 0 0 0 0 0 0 0 0 0 0 0 0 0 0 0 0 0 0 0 0 0 0 0 0 0 0 0 0 0 0 0 0 0 0 0 0 0 0 0 0 0 0 0 0 0 0 0 0 0 0 0 0 0 0 0 0 0 0 0 0 0 0 0 0 0 0 0 0 -177 677 679 -177 -209 -209 -209 -209 -209 -209 -193 -193 -193 -193 125 124 124 124 123 123 125 124 125 128 130 132 133 136 128 122 119 111 107 108 110 110 109 110 112 113 113 115 115 -209 -209 -209 -193 107 110 117 123 -225 -225 -225 -225 -225 -225 -225 -225 -225 -225 -225 -225 -225 -225 -225 -225 -225 -225 -225 -225 -225 -225 -225 -225 -225 -225 -225 -225 -225 -225 -225 -225 -225 -225 -225 -225 -225 -225 -225 -225 -225 -225 -225 -225 -225 -225 -225 -225 -225 -225 -225 -225 -225 -225 -225 -225 -225 -225 -225 -225 -225 -225 -225 -225 -225 -225 -225 -225 -225 -225 -225 -225 -225 -225 -225 -225 -225 -225 -225 -225 -225 -225 -225 -225 -225 -225 -225 -225 -225 -225 -225 -225 -225 -225 -225 -225 -225 -225 -225 -225 -225 -225 -225 -225 -225 -225 -225 -225 -225 -225 -225 -225 -225 -225 -225 -225 103 110 110 118 121 123 125 127 128 130 132 133 135 135 135 137 137 137 136 135 134 134 134 -209 135 135 137 137 137 138 138 139 138 138 139 139 141 144 147 144 143 145 145 141 141 141 146 -209 151 151 157 167 167 167 167 167 167 167 171 167 167 168 168 168 168 168 167 163 167 166 166 165 166 164 166 168 170 170 172 0 0 0 0 0
    0 0 0 0 0 0 0 0 0 0 0 0 0 0 0 0 0 0 0 0 0 0 0 0 0 0 0 0 0 0 0 0 0 0 0 0 0 0 0 0 0 0 0 0 0 0 0 0 0 0 0 0 0 0 0 0 0 0 0 0 0 0 0 0 0 0 0 0 0 -193 677 679 -209 -209 -193 -209 -209 -209 -209 -177 -177 -193 -193 129 127 127 127 128 129 129 129 130 133 134 136 136 137 134 130 131 117 108 109 112 112 111 112 115 117 116 119 119 -209 -193 -193 136 -209 109 -225 -225 -225 -225 -225 -225 -225 -225 -225 -225 -225 -225 -225 -225 -225 -225 -225 -225 -225 -225 -225 -225 -225 -225 -225 -225 -225 -225 -225 -225 -225 -225 -225 -225 -225 -225 -225 -225 -225 -225 -225 -225 -225 -225 -225 -225 -225 -225 -225 -225 -225 -225 -225 -225 -225 -225 -225 -225 -225 -225 -225 -225 -225 -225 -225 -225 -225 -225 -225 -225 -225 -225 -225 -225 -225 -225 -225 -225 -225 -225 -225 -225 -225 -225 -225 -225 -225 -225 -225 -225 -225 -225 -225 -225 -225 -225 -225 -225 -225 -225 -225 -225 -225 -225 -225 -225 -225 -225 -225 -225 -225 -225 -225 -225 -225 -225 -225 -225 -225 109 105 112 118 122 125 126 127 130 133 134 135 135 135 136 137 137 136 136 135 135 135 137 136 136 137 138 138 138 139 140 138 140 141 141 144 146 149 146 145 147 146 142 141 142 146 142 151 151 155 166 166 166 167 167 167 167 170 167 166 167 167 167 168 167 166 163 167 166 166 166 166 164 166 168 170 170 173 0 0 0 0 0
    0 0 0 0 0 0 0 0 0 0 0 0 0 0 0 0 0 0 0 0 0 0 0 0 0 0 0 0 0 0 0 0 0 0 0 0 0 0 0 0 0 0 0 0 0 0 0 0 0 0 0 0 0 0 0 0 0 0 0 0 0 0 0 0 0 0 0 0 0 -209 -209 -209 -209 -209 -209 -209 -209 -209 -209 -209 -209 130 134 132 129 130 131 132 134 133 133 133 135 136 138 137 137 136 128 -193 116 108 108 111 110 109 113 115 117 116 119 120 307 -209 138 -225 -225 -225 -225 -225 -225 -225 -225 -225 -225 -225 -225 -225 -225 -225 -225 -225 -225 -225 -225 -225 -225 -225 -225 -225 -225 -225 -225 -225 -225 -225 -225 -225 -225 -225 -225 -225 -225 -225 -225 -225 -225 -225 -225 -225 -225 -225 -225 -225 -225 -225 -225 -225 -225 -225 -225 -225 -225 -225 -225 -225 -225 -225 -225 -225 -225 -225 -225 -225 -225 -225 -225 -225 -225 -225 -225 -225 -225 -225 -225 -225 -225 -225 -225 -225 -225 -225 -225 -225 -225 -225 -225 -225 -225 -225 -225 -225 -225 -225 -225 -225 -225 -225 -225 -225 -225 -225 -225 -225 -225 -225 -225 -225 -225 -225 -225 -225 -225 -225 -225 -225 -225 -225 106 108 114 119 122 123 125 128 131 133 135 136 136 137 137 137 137 137 136 136 136 138 137 137 138 138 139 139 140 142 139 141 143 142 146 147 149 147 146 148 148 144 142 144 148 144 152 152 154 165 165 166 166 166 166 167 169 166 165 166 166 166 167 166 165 162 167 166 164 164 165 164 165 167 169 170 173 0 0 0 0 0
    0 0 0 0 0 0 0 0 0 0 0 0 0 0 0 0 0 0 0 0 0 0 0 0 0 0 0 0 0 0 0 0 0 0 0 0 0 0 0 0 0 0 0 0 0 0 0 0 0 0 0 0 0 0 0 0 0 0 0 0 0 0 0 0 0 0 0 0 0 -209 -209 -193 -209 -209 -209 -209 -209 -209 -209 -193 127 131 134 133 131 132 133 134 135 135 135 135 136 138 138 138 138 137 135 135 -209 103 105 108 106 107 112 114 116 115 117 -209 304 -225 -225 -225 -225 -225 -225 -225 -225 -225 -225 -225 -225 -225 -225 -225 -225 -225 -225 -225 -225 -225 -225 -225 -225 -225 -225 -225 -225 -225 -225 -225 -225 -225 -225 -225 -225 -225 -225 -225 -225 -225 -225 -225 -225 -225 -225 -225 -225 -225 -225 -225 -225 -225 -225 -225 -225 -225 -225 -225 -225 -225 -225 -225 -225 -225 -225 -225 -225 -225 -225 -225 -225 -225 -225 -225 -225 -225 -225 -225 -225 -225 -225 -225 -225 -225 -225 -225 -225 -225 -225 -225 -225 -225 -225 -225 -225 -225 -225 -225 -225 -225 -225 -225 -225 -225 -225 -225 -225 -225 -225 -225 -225 -225 -225 -225 -225 -225 -225 -225 -225 -225 -225 -225 -225 -225 -225 109 116 120 121 123 125 128 131 133 135 136 137 138 138 138 138 138 137 138 137 139 138 139 139 139 140 140 140 142 140 143 144 143 147 148 149 148 147 150 149 148 147 147 149 149 153 154 154 162 164 165 166 165 165 167 168 166 164 165 166 166 166 166 165 162 167 166 164 165 166 165 166 168 169 170 173 0 0 0 0 0
    0 0 0 0 0 0 0 0 0 0 0 0 0 0 0 0 0 0 0 0 0 0 0 0 0 0 0 0 0 0 0 0 0 0 0 0 0 0 0 0 0 0 0 0 0 0 0 0 0 0 0 0 0 0 0 0 0 0 0 0 0 0 0 0 0 0 0 0 0 -209 -209 -177 -209 -209 118 -209 -209 -209 126 127 131 133 136 135 135 135 134 136 137 136 137 137 138 138 138 138 138 137 137 -225 -225 -225 -225 -225 -225 -225 -225 -225 -225 -225 -225 -225 -225 -225 -225 -225 -225 -225 -225 -225 -225 -225 -225 -225 -225 -225 -225 -225 -225 -225 -225 -225 -225 -225 -225 -225 -225 -225 -225 -225 -225 -225 -225 -225 -225 -225 -225 -225 -225 -225 -225 -225 -225 -225 -225 -225 -225 -225 -225 -225 -225 -225 -225 -225 -225 -225 -225 -225 -225 -225 -225 -225 -225 -225 -225 -225 -225 -225 -225 -225 -225 -225 -225 -225 -225 -225 -225 -225 -225 -225 -225 -225 -225 -225 -225 -225 -225 -225 -225 -225 -225 -225 -225 -225 -225 -225 -225 -225 -225 -225 -225 -225 -225 -225 -225 -225 -225 -225 -225 -225 -225 -225 -225 -225 -225 -225 -225 -225 -225 -225 -225 -225 -225 -225 -225 -225 -225 -225 -225 -225 115 117 121 121 126 129 132 134 136 138 138 139 139 139 139 139 138 139 138 141 139 140 140 141 141 141 142 143 141 144 146 146 148 148 150 148 148 150 150 149 147 148 151 151 154 155 154 162 164 165 165 165 164 167 168 166 164 164 165 165 165 165 165 162 166 166 163 165 166 166 166 168 169 170 173 0 0 0 0 0
    0 0 0 0 0 0 0 0 0 0 0 0 0 0 0 0 0 0 0 0 0 0 0 0 0 0 0 0 0 0 0 0 0 0 0 0 0 0 0 0 0 0 0 0 0 0 0 0 0 0 0 0 0 0 0 0 0 0 0 0 0 0 0 0 0 0 0 0 0 -209 -209 -193 -209 -209 -209 -209 -209 -193 135 135 136 136 136 137 136 136 136 137 138 138 138 138 138 139 139 139 138 137 -225 -225 -225 -225 -225 -225 -225 -225 -225 -225 -225 -225 -225 -225 -225 -225 -225 -225 -225 -225 -225 -225 -225 -225 -225 -225 -225 -225 -225 -225 -225 -225 -225 -225 -225 -225 -225 -225 -225 -225 -225 -225 -225 -225 -225 -225 -225 -225 -225 -225 -225 -225 -225 -225 -225 -225 -225 -225 -225 -225 -225 -225 -225 -225 -225 -225 -225 -225 -225 -225 -225 -225 -225 -225 -225 -225 -225 -225 -225 -225 -225 -225 -225 -225 -225 -225 -225 -225 -225 -225 -225 -225 -225 -225 -225 -225 -225 -225 -225 -225 -225 -225 -225 -225 -225 -225 -225 -225 -225 -225 -225 -225 -225 -225 -225 -225 -225 -225 -225 -225 -225 -225 -225 -225 -225 -225 -225 -225 -225 -225 -225 -225 -225 -225 -225 -225 -225 -225 -225 -225 -225 -225 -225 115 116 119 126 126 133 134 136 139 138 139 139 139 139 139 138 139 138 140 139 140 140 141 141 142 142 144 142 146 146 147 149 150 151 150 149 152 151 151 148 148 150 151 154 156 156 163 165 166 166 166 165 167 168 166 164 164 165 165 165 165 165 162 165 166 163 165 166 166 166 168 170 171 173 0 0 0 0 0
    0 0 0 0 0 0 0 0 0 0 0 0 0 0 0 0 0 0 0 0 0 0 0 0 0 0 0 0 0 0 0 0 0 0 0 0 0 0 0 0 0 0 0 0 0 0 0 0 0 0 0 0 0 0 0 0 0 0 0 0 0 0 0 0 0 0 0 0 0 -209 -209 -209 -209 -209 -209 -209 -209 140 137 138 139 137 139 139 138 138 138 139 139 139 139 139 139 139 139 139 138 -225 -225 -225 -225 -225 -225 -225 -225 -225 -225 -225 -225 -225 -225 -225 -225 -225 -225 -225 -225 -225 -225 -225 -225 -225 -225 -225 -225 -225 -225 -225 -225 -225 -225 -225 -225 -225 -225 -225 -225 -225 -225 -225 -225 -225 -225 -225 -225 -225 -225 -225 -225 -225 -225 -225 -225 -225 -225 -225 -225 -225 -225 -225 -225 -225 -225 -225 -225 -225 -225 -225 -225 -225 -225 -225 -225 -225 -225 -225 -225 -225 -225 -225 -225 -225 -225 -225 -225 -225 -225 -225 -225 -225 -225 -225 -225 -225 -225 -225 -225 -225 -225 -225 -225 -225 -225 -225 -225 -225 -225 -225 -225 -225 -225 -225 -225 -225 -225 -225 -225 -225 -225 -225 -225 -225 -225 -225 -225 -225 -225 -225 -225 -225 -225 -225 -225 -225 -225 -225 -225 -225 -225 -225 -225 -225 118 122 133 131 137 136 137 139 138 139 140 140 140 140 140 140 140 143 141 141 142 142 142 143 142 145 142 147 148 149 151 151 152 150 150 151 151 151 148 148 149 150 154 156 156 163 165 165 166 166 165 167 168 166 165 164 165 165 165 165 165 163 165 166 165 166 167 168 168 170 172 175 177 0 0 0 0 0
    0 0 0 0 0 0 0 0 0 0 0 0 0 0 0 0 0 0 0 0 0 0 0 0 0 0 0 0 0 0 0 0 0 0 0 0 0 0 0 0 0 0 0 0 0 0 0 0 0 0 0 0 0 0 0 0 0 0 0 0 0 0 0 0 0 0 0 0 0 -209 -209 -209 -209 -209 -209 -209 141 142 138 138 140 140 140 140 140 139 139 140 140 140 139 139 139 139 139 -225 -225 -225 -225 -225 -225 -225 -225 -225 -225 -225 -225 -225 -225 -225 -225 -225 -225 -225 -225 -225 -225 -225 -225 -225 -225 -225 -225 -225 -225 -225 -225 -225 -225 -225 -225 -225 -225 -225 -225 -225 -225 -225 -225 -225 -225 -225 -225 -225 -225 -225 -225 -225 -225 -225 -225 -225 -225 -225 -225 -225 -225 -225 -225 -225 -225 -225 -225 -225 -225 -225 -225 -225 -225 -225 -225 -225 -225 -225 -225 -225 -225 -225 -225 -225 -225 -225 -225 -225 -225 -225 -225 -225 -225 -225 -225 -225 -225 -225 -225 -225 -225 -225 -225 -225 -225 -225 -225 -225 -225 -225 -225 -225 -225 -225 -225 -225 -225 -225 -225 -225 -225 -225 -225 -225 -225 -225 -225 -225 -225 -225 -225 -225 -225 -225 -225 -225 -225 -225 -225 -225 -225 -225 -225 -225 -225 -225 -225 126 136 131 134 134 136 138 138 138 140 141 141 141 141 142 141 145 143 144 145 146 146 147 146 148 146 150 150 151 153 152 152 151 151 152 152 152 147 148 150 152 154 157 157 162 163 163 165 164 164 166 167 167 165 165 166 166 166 166 166 164 164 166 164 165 166 167 168 171 173 176 180 0 0 0 0 0
    0 0 0 0 0 0 0 0 0 0 0 0 0 0 0 0 0 0 0 0 0 0 0 0 0 0 0 0 0 0 0 0 0 0 0 0 0 0 0 0 0 0 0 0 0 0 0 0 0 0 0 0 0 0 0 0 0 0 0 0 0 0 0 0 0 0 0 0 0 -209 -209 -209 -209 -209 -209 -193 141 141 136 137 140 140 140 141 141 141 140 141 141 140 140 140 140 140 -225 -225 -225 -225 -225 -225 -225 -225 -225 -225 -225 -225 -225 -225 -225 -225 -225 -225 -225 -225 -225 -225 -225 -225 -225 -225 -225 -225 -225 -225 -225 -225 -225 -225 -225 -225 -225 -225 -225 -225 -225 -225 -225 -225 -225 -225 -225 -225 -225 -225 -225 -225 -225 -225 -225 -225 -225 -225 -225 -225 -225 -225 -225 -225 -225 -225 -225 -225 -225 -225 -225 -225 -225 -225 -225 -225 -225 -225 -225 -225 -225 -225 -225 -225 -225 -225 -225 -225 -225 -225 -225 -225 -225 -225 -225 -225 -225 -225 -225 -225 -225 -225 -225 -225 -225 -225 -225 -225 -225 -225 -225 -225 -225 -225 -225 -225 -225 -225 -225 -225 -225 -225 -225 -225 -225 -225 -225 -225 -225 -225 -225 -225 -225 -225 -225 -225 -225 -225 -225 -225 -225 -225 -225 -225 -225 -225 -225 -225 -225 -225 138 134 134 134 136 138 137 137 140 140 141 141 141 142 141 145 145 145 147 147 149 149 149 150 150 152 151 152 154 153 152 151 152 152 153 153 150 150 152 154 156 159 159 162 163 163 164 164 165 166 167 168 167 166 168 167 167 167 167 165 163 165 162 162 163 167 168 170 173 177 181 0 0 0 0 0
    0 0 0 0 0 0 0 0 0 0 0 0 0 0 0 0 0 0 0 0 0 0 0 0 0 0 0 0 0 0 0 0 0 0 0 0 0 0 0 0 0 0 0 0 0 0 0 0 0 0 0 0 0 0 0 0 0 0 0 0 0 0 0 0 0 0 0 0 0 -209 -209 -209 -209 -209 -209 -209 -193 138 136 137 139 140 142 144 144 143 143 143 142 141 141 140 140 -225 -225 -225 -225 -225 -225 -225 -225 -225 -225 -225 -225 -225 -225 -225 -225 -225 -225 -225 -225 -225 -225 -225 -225 -225 -225 -225 -225 -225 -225 -225 -225 -225 -225 -225 -225 -225 -225 -225 -225 -225 -225 -225 -225 -225 -225 -225 -225 -225 -225 -225 -225 -225 -225 -225 -225 -225 -225 -225 -225 -225 -225 -225 -225 -225 -225 -225 -225 -225 -225 -225 -225 -225 -225 -225 -225 -225 -225 -225 -225 -225 -225 -225 -225 -225 -225 -225 -225 -225 -225 -225 -225 -225 -225 -225 -225 -225 -225 -225 -225 -225 -225 -225 -225 -225 -225 -225 -225 -225 -225 -225 -225 -225 -225 -225 -225 -225 -225 -225 -225 -225 -225 -225 -225 -225 -225 -225 -225 -225 -225 -225 -225 -225 -225 -225 -225 -225 -225 -225 -225 -225 -225 -225 -225 -225 -225 -225 -225 -225 -225 -225 -225 136 136 136 136 137 136 136 140 140 141 143 143 143 143 148 148 148 150 151 152 152 152 153 153 154 153 154 155 154 154 153 153 153 154 155 152 151 154 154 157 160 159 162 163 163 165 165 166 167 167 168 167 167 168 168 167 167 167 166 162 165 162 161 163 167 168 171 175 179 181 0 0 0 0 0
    0 0 0 0 0 0 0 0 0 0 0 0 0 0 0 0 0 0 0 0 0 0 0 0 0 0 0 0 0 0 0 0 0 0 0 0 0 0 0 0 0 0 0 0 0 0 0 0 0 0 0 0 0 0 0 0 0 0 0 0 0 0 0 0 0 0 0 0 0 -209 251 -209 -209 -209 -209 -209 -209 -193 136 137 139 140 143 146 146 145 143 142 142 141 141 140 -225 -225 -225 -225 -225 -225 -225 -225 -225 -225 -225 -225 -225 -225 -225 -225 -225 -225 -225 -225 -225 -225 -225 -225 -225 -225 -225 -225 -225 -225 -225 -225 -225 -225 -225 -225 -225 -225 -225 -225 -225 -225 -225 -225 -225 -225 -225 -225 -225 -225 -225 -225 -225 -225 -225 -225 -225 -225 -225 -225 -225 -225 -225 -225 -225 -225 -225 -225 -225 -225 -225 -225 -225 -225 -225 -225 -225 -225 -225 -225 -225 -225 -225 -225 -225 -225 -225 -225 -225 -225 -225 -225 -225 -225 -225 -225 -225 -225 -225 -225 -225 -225 -225 -225 -225 -225 -225 -225 -225 -225 -225 -225 -225 -225 -225 -225 -225 -225 -225 -225 -225 -225 -225 -225 -225 -225 -225 -225 -225 -225 -225 -225 -225 -225 -225 -225 -225 -225 -225 -225 -225 -225 -225 -225 -225 -225 -225 -225 -225 -225 -225 -225 -225 140 138 138 137 141 138 137 141 141 143 145 145 145 146 150 151 152 153 155 159 159 160 157 156 157 153 155 154 152 153 152 152 154 154 156 154 153 155 155 158 160 159 162 163 163 164 164 165 167 167 169 168 168 168 168 167 167 167 165 161 164 160 158 160 166 167 170 172 177 180 0 0 0 0 0</data></disparity>
</opencv_storage>
