<?xml version="1.0"?>
<opencv_storage>
<gps_time_stamp>281910</gps_time_stamp>
<gps_x>-1.3970918655395508e+001</gps_x>
<gps_y>1.1304069519042969e+001</gps_y>
<gps_z>-2.2908082008361816e+000</gps_z>
<image_time_stamp>272757</image_time_stamp>
<disparity type_id="opencv-matrix">
  <rows>93</rows>
  <cols>320</cols>
  <dt>s</dt>
  <data>
    0 0 0 0 0 0 0 0 0 0 0 0 0 0 0 0 0 0 0 0 0 0 0 0 0 0 0 0 0 0 0 0 0 0 0 0 0 0 0 0 0 0 0 0 0 0 0 0 0 0 0 0 0 0 0 0 0 0 0 0 0 0 0 0 0 0 0 0 0 30 31 34 37 34 33 -209 -209 -209 -209 -209 -209 -209 -209 -193 -193 -209 -209 -209 -209 -193 29 30 30 29 29 29 30 31 33 32 31 31 32 33 36 36 -193 35 40 37 -193 -193 -193 38 38 37 38 38 38 38 36 36 31 -193 -209 -209 -209 -209 -209 -193 -193 -209 27 26 26 27 28 30 37 38 39 38 39 39 -193 -193 -193 35 -209 -193 40 39 40 41 41 42 43 42 42 39 39 38 36 36 36 35 35 36 38 38 39 39 39 39 39 37 38 32 35 28 33 30 30 28 34 32 35 35 38 36 38 39 39 39 40 39 38 38 37 35 -193 35 33 33 33 34 33 31 30 28 30 32 32 30 24 27 -193 -209 38 36 27 26 25 25 -209 19 -209 16 -209 0 9 -209 -193 38 -193 38 40 40 39 39 39 40 39 39 39 40 40 40 41 44 43 43 45 45 45 45 45 44 42 42 46 43 43 46 45 45 46 46 49 47 51 50 47 51 52 51 53 53 54 55 58 60 60 59 61 60 60 62 59 60 60 60 59 59 61 60 58 60 58 58 64 73 -193 71 71 70 -193 -209 -209 -209 -193 -209 -209 -209 -209 0 0 0 0 0
    0 0 0 0 0 0 0 0 0 0 0 0 0 0 0 0 0 0 0 0 0 0 0 0 0 0 0 0 0 0 0 0 0 0 0 0 0 0 0 0 0 0 0 0 0 0 0 0 0 0 0 0 0 0 0 0 0 0 0 0 0 0 0 0 0 0 0 0 0 29 -193 35 37 34 33 -193 -209 -209 -209 -209 -209 -193 -209 -209 -209 -193 -209 -209 -209 -209 28 -193 30 29 28 28 29 29 32 31 31 31 32 33 35 -193 -209 -209 -193 -209 -193 -193 -193 -209 -193 36 37 37 37 36 34 33 28 -209 -209 -209 -209 -209 -209 -209 -209 -209 -193 26 27 27 27 29 35 36 38 38 38 38 -193 -193 35 35 37 -193 39 38 40 42 42 42 44 43 43 39 39 38 36 36 36 35 36 36 38 38 39 40 40 39 38 36 36 31 32 28 29 28 28 27 31 30 33 35 38 37 39 39 40 40 41 40 38 37 36 35 35 33 32 32 32 34 32 31 30 28 30 32 32 31 -193 34 59 -193 -193 -193 -209 -209 27 27 -209 -209 -209 18 -209 0 -209 -209 -193 39 -193 38 39 40 39 39 39 40 39 39 39 40 39 40 41 44 42 43 45 45 45 45 45 44 42 42 46 43 43 46 45 45 46 46 49 47 50 50 47 51 52 51 53 52 54 55 58 60 60 59 61 60 60 62 59 60 59 60 60 59 61 60 58 59 58 57 60 72 -209 69 69 -193 -193 -209 -209 -209 -193 -193 -193 -209 -193 0 0 0 0 0
    0 0 0 0 0 0 0 0 0 0 0 0 0 0 0 0 0 0 0 0 0 0 0 0 0 0 0 0 0 0 0 0 0 0 0 0 0 0 0 0 0 0 0 0 0 0 0 0 0 0 0 0 0 0 0 0 0 0 0 0 0 0 0 0 0 0 0 0 0 -209 -209 -193 37 34 34 -209 -209 -209 -209 -193 -177 -193 -209 -209 -193 -193 -209 -209 -193 -209 28 -193 29 27 27 27 27 27 30 29 30 30 32 33 36 36 -209 -209 -193 40 -193 -193 -193 -209 -193 36 35 35 36 34 33 30 27 -209 -209 -209 -209 -209 -209 -193 -193 -209 -193 28 28 28 27 27 33 34 36 37 37 37 -193 37 36 36 38 37 40 40 41 43 44 44 44 43 43 40 40 38 36 36 36 35 36 36 38 38 39 40 40 39 38 36 37 32 -193 -193 31 30 29 28 33 30 33 35 37 37 38 39 39 40 40 40 38 37 36 35 35 32 31 31 31 33 31 31 29 28 31 32 33 31 -193 -209 58 54 50 49 43 -209 -209 31 -209 -209 -209 -209 -209 -209 -209 -209 22 37 -209 37 38 39 39 39 39 39 39 38 39 40 39 40 41 44 42 43 45 45 44 45 44 44 -193 42 45 42 42 46 44 45 46 46 49 47 50 50 47 52 52 51 52 52 54 55 58 61 60 59 61 60 60 62 60 60 60 60 60 59 61 61 58 59 58 57 59 71 -209 -193 -193 -193 -193 -209 -209 -209 -193 134 133 132 133 0 0 0 0 0
    0 0 0 0 0 0 0 0 0 0 0 0 0 0 0 0 0 0 0 0 0 0 0 0 0 0 0 0 0 0 0 0 0 0 0 0 0 0 0 0 0 0 0 0 0 0 0 0 0 0 0 0 0 0 0 0 0 0 0 0 0 0 0 0 0 0 0 0 0 -209 -209 -193 -193 -193 33 -209 -209 -209 -209 -177 -177 -209 -209 -209 -209 -193 -209 -193 -193 28 28 -193 28 27 26 27 26 27 29 29 30 31 32 34 36 37 -193 -193 -193 -209 -209 -193 -193 -209 -193 36 34 35 36 34 32 29 -193 -209 -209 -193 -209 -209 -193 -209 -193 -209 30 28 28 27 26 27 31 33 35 37 37 37 37 37 37 36 38 38 40 40 42 44 45 45 45 44 44 40 42 -193 36 36 36 35 36 35 38 37 39 40 40 39 38 37 38 35 -193 -193 36 35 34 32 36 32 34 36 37 36 37 38 38 39 39 39 38 37 36 36 35 33 31 32 32 33 31 31 29 28 31 33 33 32 28 43 57 49 47 47 44 45 41 39 -209 -209 -209 -209 -209 -193 -193 -177 21 35 -209 37 38 39 39 39 39 39 39 39 39 40 40 40 40 44 42 43 44 44 44 44 44 44 -193 42 45 42 42 46 44 45 46 46 48 47 50 50 47 52 52 51 52 52 53 55 58 61 60 60 62 60 60 62 60 60 60 60 60 59 61 60 58 59 58 57 58 68 73 71 -193 -193 -193 -193 -193 -209 -193 131 130 129 130 0 0 0 0 0
    0 0 0 0 0 0 0 0 0 0 0 0 0 0 0 0 0 0 0 0 0 0 0 0 0 0 0 0 0 0 0 0 0 0 0 0 0 0 0 0 0 0 0 0 0 0 0 0 0 0 0 0 0 0 0 0 0 0 0 0 0 0 0 0 0 0 0 0 0 -177 -177 -177 -193 -193 -209 -193 -209 -209 -209 -177 -177 -209 -209 -209 -209 -193 -209 -193 28 26 -193 -193 -193 26 25 26 26 27 29 29 30 31 32 34 35 36 -193 -193 -193 -209 -209 -209 -209 -209 -193 35 34 35 37 35 33 30 -193 -209 -209 -209 -209 -193 -193 -209 29 32 30 28 28 26 25 27 32 34 37 38 38 39 38 38 38 37 39 38 40 39 40 42 42 43 44 43 45 41 43 -193 37 38 37 36 36 35 38 37 39 39 39 39 38 37 38 36 37 36 38 37 37 35 36 31 33 34 34 34 35 36 37 38 39 39 37 38 36 36 35 33 31 33 34 33 31 31 29 29 32 32 31 30 28 40 -193 43 43 44 42 43 40 40 38 37 -209 -209 -209 -209 -209 -209 23 32 -209 36 37 39 39 39 39 39 39 39 39 40 40 40 40 44 42 42 44 44 44 44 44 43 -193 42 45 42 42 46 44 44 46 46 48 47 49 50 46 51 51 50 52 52 53 56 58 62 60 60 62 60 60 63 60 60 60 60 60 59 60 60 58 59 58 56 57 65 73 72 69 -193 -209 -209 -193 -193 -209 -193 -193 128 -193 0 0 0 0 0
    0 0 0 0 0 0 0 0 0 0 0 0 0 0 0 0 0 0 0 0 0 0 0 0 0 0 0 0 0 0 0 0 0 0 0 0 0 0 0 0 0 0 0 0 0 0 0 0 0 0 0 0 0 0 0 0 0 0 0 0 0 0 0 0 0 0 0 0 0 -177 -177 -177 -177 -177 -193 -193 -177 -193 -193 -193 -177 -209 -209 -209 -209 -193 -209 -193 26 26 -193 -193 26 26 26 27 27 28 29 29 31 31 32 34 35 36 -193 -209 -193 -209 -209 -209 -209 -209 -193 34 34 35 37 35 34 31 27 26 -209 -209 -209 26 27 -209 28 -193 29 27 27 25 24 26 30 32 36 38 38 39 38 39 39 38 39 38 39 38 38 39 38 -193 -193 41 42 40 43 -193 36 38 38 36 36 35 38 37 38 39 39 38 38 37 39 37 39 38 40 39 39 38 38 33 34 35 34 34 35 35 36 36 37 37 36 37 34 33 32 31 30 32 34 33 32 32 31 31 33 33 31 31 31 39 -193 39 39 41 40 40 39 39 38 37 39 32 34 -209 -209 -209 26 33 -209 36 37 39 39 39 39 39 39 39 39 40 40 39 40 43 42 42 43 43 43 44 43 43 -193 42 45 43 42 46 44 44 46 46 48 47 48 50 46 52 51 50 52 52 53 56 58 63 60 60 63 61 60 63 61 61 60 61 60 59 60 60 58 58 58 55 57 64 71 71 70 -193 -193 -209 -193 0 -209 -209 -193 127 -193 0 0 0 0 0
    0 0 0 0 0 0 0 0 0 0 0 0 0 0 0 0 0 0 0 0 0 0 0 0 0 0 0 0 0 0 0 0 0 0 0 0 0 0 0 0 0 0 0 0 0 0 0 0 0 0 0 0 0 0 0 0 0 0 0 0 0 0 0 0 0 0 0 0 0 -193 -177 -177 -177 -177 -193 -193 -177 -177 -209 -209 -209 -209 -209 -209 -209 23 23 23 25 25 -193 26 26 26 26 27 27 28 29 29 31 31 33 34 34 36 -193 -209 -209 -209 -209 -209 -209 -209 -209 -209 -193 -193 37 36 34 32 28 -193 -193 -209 -209 -209 -193 -209 30 33 30 29 28 26 24 25 28 29 34 36 37 38 -193 38 39 37 39 38 39 37 37 38 36 37 40 40 40 38 42 35 34 38 39 36 37 36 38 37 39 -193 39 38 38 37 38 37 38 37 38 38 38 37 37 34 35 35 34 34 34 34 35 34 35 36 35 35 33 32 31 30 29 33 35 33 32 33 33 35 35 35 31 31 34 -193 -193 38 38 39 39 39 38 38 38 38 40 39 39 -193 41 -209 36 33 -209 36 37 39 39 38 39 39 39 39 39 39 39 39 40 43 41 41 42 43 43 43 43 43 -193 42 44 43 43 46 44 45 46 46 48 46 47 50 45 51 51 49 51 51 52 56 58 64 60 60 64 61 61 63 61 61 60 61 60 59 60 60 58 58 58 55 57 66 73 72 -193 -193 -193 -209 -209 0 -209 -209 -209 127 128 0 0 0 0 0
    0 0 0 0 0 0 0 0 0 0 0 0 0 0 0 0 0 0 0 0 0 0 0 0 0 0 0 0 0 0 0 0 0 0 0 0 0 0 0 0 0 0 0 0 0 0 0 0 0 0 0 0 0 0 0 0 0 0 0 0 0 0 0 0 0 0 0 0 0 -177 -177 -177 -177 -177 -193 -193 -177 -177 -209 -209 -209 -209 -209 -209 -209 23 23 23 25 25 26 27 26 26 27 28 27 28 29 29 31 31 32 34 33 35 -193 -193 -209 -209 -209 -209 -209 -209 -209 -209 -193 -193 36 36 35 35 30 28 29 28 -193 -193 -193 -193 33 35 32 30 29 27 26 27 28 29 34 36 37 -209 -193 38 -193 37 38 38 38 37 37 38 37 37 39 39 38 37 -193 33 32 36 37 37 38 37 38 38 40 41 40 38 37 36 37 36 36 37 37 37 37 35 36 34 34 34 32 33 33 33 34 33 34 36 35 36 35 33 31 30 29 35 35 34 33 33 35 37 37 37 33 35 38 54 -193 39 39 40 39 40 39 39 39 39 42 -193 40 42 42 -193 -193 35 -193 38 39 40 40 39 39 39 39 39 39 39 39 39 40 43 41 41 42 43 43 43 43 43 -193 42 45 44 43 46 44 45 46 45 48 46 47 49 44 51 50 48 50 51 52 57 58 65 60 61 64 61 61 63 61 61 60 61 60 59 60 60 57 58 58 55 57 64 71 -209 -209 -193 -193 -209 -209 0 -193 -193 127 127 127 0 0 0 0 0
    0 0 0 0 0 0 0 0 0 0 0 0 0 0 0 0 0 0 0 0 0 0 0 0 0 0 0 0 0 0 0 0 0 0 0 0 0 0 0 0 0 0 0 0 0 0 0 0 0 0 0 0 0 0 0 0 0 0 0 0 0 0 0 0 0 0 0 0 0 -177 -177 -177 -177 -177 -193 -193 -209 -193 -209 -209 -209 -209 -209 -209 -209 -209 24 24 26 26 27 27 27 28 28 29 28 29 30 30 32 32 33 34 33 35 34 37 -193 -193 -193 -209 -209 -209 -209 -209 -209 35 37 36 36 35 33 31 32 32 34 33 -193 -193 35 36 33 31 31 28 26 28 28 31 34 36 37 -193 -193 38 38 37 38 38 38 38 38 39 38 38 40 39 39 38 39 33 31 35 31 37 38 36 37 38 39 41 39 38 37 36 37 36 36 37 37 37 38 37 37 34 35 35 32 33 32 32 34 33 35 36 36 37 35 34 32 32 31 36 35 34 33 34 36 38 38 38 34 37 42 56 58 40 40 42 40 41 40 39 41 40 44 -209 -209 -193 -193 -193 -193 35 -193 39 40 41 41 39 39 39 39 39 39 39 38 38 40 42 41 41 42 43 43 44 43 43 -193 43 45 44 43 46 44 45 46 45 47 46 46 48 43 51 49 45 46 51 51 57 59 67 60 61 65 61 61 64 61 61 60 61 60 59 60 60 58 58 58 56 56 59 58 -209 -209 -209 -209 -209 -209 -209 -209 -209 -193 -193 -193 0 0 0 0 0
    0 0 0 0 0 0 0 0 0 0 0 0 0 0 0 0 0 0 0 0 0 0 0 0 0 0 0 0 0 0 0 0 0 0 0 0 0 0 0 0 0 0 0 0 0 0 0 0 0 0 0 0 0 0 0 0 0 0 0 0 0 0 0 0 0 0 0 0 0 -177 -177 -177 -177 -177 -209 -209 -209 -209 -209 -193 -209 -193 -193 -193 29 29 27 26 27 26 27 28 27 29 30 30 29 31 30 31 33 33 34 34 34 37 35 39 -193 35 33 -209 -193 -209 -209 -209 34 35 36 36 36 37 36 34 35 34 35 35 36 34 34 35 32 30 31 28 28 30 30 32 35 36 37 -193 -193 38 38 38 39 39 39 39 39 40 40 40 41 -193 40 40 41 36 34 37 36 38 38 36 37 38 39 40 38 37 36 35 37 36 36 37 37 38 38 38 38 34 36 36 34 34 33 33 34 33 35 35 35 37 36 35 34 35 35 38 37 36 33 35 37 39 38 39 34 38 45 54 57 43 42 44 42 42 41 40 41 40 -193 -209 -209 -209 -209 -209 -209 31 -209 40 41 41 43 40 40 39 39 39 38 38 38 36 39 42 40 41 41 43 43 44 43 43 42 44 46 45 44 46 45 45 46 46 48 46 46 48 44 51 50 45 47 53 46 57 59 68 61 61 65 62 62 64 62 61 60 61 61 59 60 60 58 58 58 57 57 59 -209 -209 -209 -209 -209 -209 -209 -209 -209 -193 -193 -193 -193 0 0 0 0 0
    0 0 0 0 0 0 0 0 0 0 0 0 0 0 0 0 0 0 0 0 0 0 0 0 0 0 0 0 0 0 0 0 0 0 0 0 0 0 0 0 0 0 0 0 0 0 0 0 0 0 0 0 0 0 0 0 0 0 0 0 0 0 0 0 0 0 0 0 0 -177 -177 -177 -177 -193 -209 -209 -209 -193 -193 35 -193 -193 -193 32 30 30 29 29 28 27 28 29 29 31 31 32 30 32 31 31 33 32 33 34 33 36 35 37 38 33 32 31 30 -193 -193 32 33 34 35 36 37 38 38 37 39 38 38 37 37 35 34 34 31 30 31 29 30 33 33 35 36 37 38 -193 38 39 39 38 39 39 39 39 39 40 40 40 41 41 41 41 41 38 36 38 37 39 38 33 34 37 37 38 37 36 34 35 37 36 35 37 37 37 38 38 37 34 36 36 34 34 34 33 33 32 35 34 34 37 37 37 36 37 38 39 39 39 36 35 37 39 38 38 30 37 43 50 -193 41 42 44 42 42 41 -193 40 39 -193 -209 -193 -193 -209 -209 -209 29 -209 40 41 42 44 40 39 39 39 39 38 38 37 35 39 41 40 40 41 43 43 43 43 43 42 44 46 46 45 47 45 45 47 46 48 47 46 48 44 52 51 44 52 -193 -193 59 60 69 61 61 66 62 62 64 62 61 60 61 61 59 60 60 58 58 59 58 57 59 -209 -209 83 84 84 -209 -209 -193 -209 -193 -193 -193 -209 0 0 0 0 0
    0 0 0 0 0 0 0 0 0 0 0 0 0 0 0 0 0 0 0 0 0 0 0 0 0 0 0 0 0 0 0 0 0 0 0 0 0 0 0 0 0 0 0 0 0 0 0 0 0 0 0 0 0 0 0 0 0 0 0 0 0 0 0 0 0 0 0 0 0 -193 -177 -177 -193 -209 -209 -209 -193 -193 33 33 -193 32 -193 30 29 30 28 29 28 27 28 29 30 32 32 33 30 33 31 -193 32 31 31 32 31 34 33 35 35 30 31 30 30 30 -193 31 33 34 35 35 37 38 39 39 40 40 39 39 38 36 34 32 29 29 31 30 31 34 35 36 37 38 39 39 -193 39 38 38 39 38 39 38 39 39 39 40 40 40 39 40 38 36 33 36 35 38 38 32 33 37 36 38 37 36 33 33 37 35 33 35 35 35 35 37 36 33 36 36 34 35 34 34 33 32 35 34 33 37 39 38 37 39 39 40 40 41 39 35 38 39 38 37 -193 35 -209 40 -193 38 40 43 41 41 40 38 39 37 -209 11 19 -193 -209 -209 -209 -209 -209 -193 41 42 44 40 39 38 39 39 37 37 37 34 38 40 40 40 41 43 43 43 43 43 42 44 46 46 45 47 46 46 47 46 49 48 45 47 43 51 44 -193 54 -193 -193 59 60 69 61 61 65 62 62 63 62 61 60 61 61 59 60 60 59 58 59 58 57 58 -209 -209 -193 92 92 93 -209 174 -193 -209 -209 -209 -193 0 0 0 0 0
    0 0 0 0 0 0 0 0 0 0 0 0 0 0 0 0 0 0 0 0 0 0 0 0 0 0 0 0 0 0 0 0 0 0 0 0 0 0 0 0 0 0 0 0 0 0 0 0 0 0 0 0 0 0 0 0 0 0 0 0 0 0 0 0 0 0 0 0 0 -193 -209 -209 -209 -209 -209 -209 -193 -193 33 33 35 33 35 31 29 30 28 28 27 26 27 28 -193 31 31 33 29 32 30 30 31 30 31 31 31 34 33 36 35 30 31 29 30 30 -193 31 33 34 34 35 37 38 40 40 41 40 39 40 39 37 35 34 30 30 32 32 32 35 35 36 37 38 39 39 -193 39 37 38 38 38 38 38 38 39 38 39 39 38 37 37 35 35 32 33 33 36 37 32 33 36 35 37 36 35 32 31 37 34 31 33 32 32 33 36 36 32 36 36 34 35 35 33 33 32 35 34 32 37 40 39 39 40 40 41 41 42 41 35 39 38 37 35 -193 35 -209 -193 -193 36 38 41 38 38 37 36 36 35 -209 13 19 -209 -209 -193 -209 -209 -209 -209 42 42 43 39 39 38 38 38 36 36 36 34 38 40 40 40 40 43 43 44 43 43 43 44 46 46 46 46 46 46 47 46 49 48 44 44 41 -193 -193 -209 -209 -209 -193 58 58 68 60 60 64 61 61 62 61 60 60 61 61 59 60 60 59 58 59 58 57 59 -209 -209 -209 -209 92 90 88 -209 85 -209 85 85 86 0 0 0 0 0
    0 0 0 0 0 0 0 0 0 0 0 0 0 0 0 0 0 0 0 0 0 0 0 0 0 0 0 0 0 0 0 0 0 0 0 0 0 0 0 0 0 0 0 0 0 0 0 0 0 0 0 0 0 0 0 0 0 0 0 0 0 0 0 0 0 0 0 0 0 -209 -209 -209 -209 -209 -209 -209 37 37 32 33 35 33 35 33 31 32 29 29 28 26 27 28 -193 32 31 33 30 33 31 32 32 31 30 31 31 33 33 35 32 30 30 29 29 30 31 31 33 34 34 36 37 39 41 41 42 41 41 42 41 39 37 37 32 31 33 33 33 35 34 36 36 37 38 37 -193 -193 33 35 36 36 37 38 39 39 39 39 38 37 36 36 32 33 30 31 31 34 37 32 33 36 35 37 36 36 33 31 37 34 31 33 32 31 32 35 35 32 35 36 34 34 34 32 32 30 34 33 33 36 39 38 38 39 39 39 39 39 40 33 39 38 37 34 -193 -193 -209 -193 35 -193 -193 -193 37 37 34 34 32 32 -209 14 -209 -209 -209 75 -209 -209 -209 -209 43 43 44 39 39 39 38 38 36 36 36 34 38 41 40 41 41 43 44 44 44 44 43 44 47 47 45 46 46 46 47 45 50 49 43 45 42 -209 -209 -209 -209 -193 57 59 58 67 59 59 63 60 60 61 61 60 59 61 60 59 60 60 59 59 60 58 58 61 -209 -209 -209 -209 -193 81 84 84 83 85 84 85 85 0 0 0 0 0
    0 0 0 0 0 0 0 0 0 0 0 0 0 0 0 0 0 0 0 0 0 0 0 0 0 0 0 0 0 0 0 0 0 0 0 0 0 0 0 0 0 0 0 0 0 0 0 0 0 0 0 0 0 0 0 0 0 0 0 0 0 0 0 0 0 0 0 0 0 -209 -209 -209 -209 -209 -209 -209 39 39 33 33 35 34 36 34 33 34 30 30 29 25 27 -193 -193 31 30 32 31 -193 -193 34 32 31 29 29 29 30 32 31 29 28 27 29 28 30 31 31 32 34 34 36 38 39 41 41 42 41 41 43 40 40 39 39 35 34 34 34 34 36 36 37 37 38 -193 -193 -193 -209 30 32 34 35 35 37 38 39 40 39 38 37 36 36 31 32 30 30 30 33 36 33 35 38 37 38 38 37 35 33 37 34 31 32 32 31 31 34 34 32 35 35 33 33 32 31 31 31 34 34 34 36 39 38 38 38 38 38 38 38 39 31 38 37 36 31 -209 -209 58 -209 -209 -209 -193 -193 -209 41 -209 -209 -209 -209 -209 -193 -209 -209 81 82 -209 -209 -209 -209 43 44 45 40 39 39 39 39 37 37 38 35 38 42 41 41 41 44 44 44 44 45 43 45 47 47 46 46 46 47 48 46 50 48 42 -209 -209 -209 -209 -209 -209 -193 57 58 57 66 59 58 62 59 59 60 60 59 59 60 60 59 59 60 60 59 60 59 59 62 68 72 77 -209 76 77 78 79 81 81 81 84 84 0 0 0 0 0
    0 0 0 0 0 0 0 0 0 0 0 0 0 0 0 0 0 0 0 0 0 0 0 0 0 0 0 0 0 0 0 0 0 0 0 0 0 0 0 0 0 0 0 0 0 0 0 0 0 0 0 0 0 0 0 0 0 0 0 0 0 0 0 0 0 0 0 0 0 -209 -209 -209 -209 -209 -209 -193 40 39 35 35 36 35 37 34 34 34 32 32 30 27 28 27 28 31 30 30 -209 -209 -209 -193 -209 32 -209 -193 29 31 33 31 29 28 27 29 28 30 30 31 32 33 34 36 37 38 39 40 41 40 39 41 39 39 39 38 35 33 34 34 35 37 37 38 38 -193 -209 -193 -193 -193 31 32 33 34 35 37 38 39 39 39 39 37 36 36 32 33 30 29 31 32 35 32 33 36 35 37 37 36 34 33 37 33 31 33 33 32 32 35 35 33 37 37 35 35 34 32 33 32 35 34 36 36 39 37 37 38 37 37 37 37 38 29 37 36 33 28 -209 -209 58 -209 -209 -209 -193 -193 52 47 46 -209 -209 -209 -209 -193 -209 -209 -209 77 -209 65 -209 -209 44 45 48 41 40 40 40 40 38 39 39 37 39 43 42 42 42 44 45 44 44 45 43 45 47 47 45 45 46 49 49 47 50 51 -209 -209 -209 -209 -209 -209 -209 -193 57 58 58 65 58 58 61 59 58 59 59 59 58 59 59 58 59 60 59 59 61 60 60 64 69 73 74 73 72 74 76 76 78 76 77 80 83 0 0 0 0 0
    0 0 0 0 0 0 0 0 0 0 0 0 0 0 0 0 0 0 0 0 0 0 0 0 0 0 0 0 0 0 0 0 0 0 0 0 0 0 0 0 0 0 0 0 0 0 0 0 0 0 0 0 0 0 0 0 0 0 0 0 0 0 0 0 0 0 0 0 0 -209 -209 -209 -193 -193 38 37 38 38 35 35 35 34 36 34 33 34 32 32 31 29 29 27 29 32 29 29 29 -209 36 38 -209 34 -209 -209 -209 37 38 35 32 30 29 30 29 30 31 31 32 33 35 36 37 38 39 40 40 39 39 40 38 38 38 38 35 34 35 35 35 38 37 38 38 40 -209 -193 -209 -209 31 33 34 34 34 37 38 39 39 39 38 37 36 36 32 33 30 30 32 31 34 31 33 36 35 36 36 35 34 33 37 34 31 34 34 33 33 36 37 35 39 39 37 37 36 35 35 34 35 34 36 35 38 37 37 37 37 36 37 36 38 28 36 35 31 27 -209 -209 -193 -193 -209 -209 -193 -193 54 50 -209 -209 -209 -209 -193 -193 -209 -209 -209 -193 -193 63 61 61 45 46 46 41 40 40 40 40 38 38 39 39 40 44 43 42 43 45 45 45 44 45 43 44 46 46 45 45 46 49 48 47 51 55 52 -209 -209 -209 -209 -209 -193 59 58 58 58 64 58 57 60 58 57 58 59 58 58 59 59 58 59 60 60 59 61 60 62 66 70 73 73 72 72 73 74 76 76 75 76 78 80 0 0 0 0 0
    0 0 0 0 0 0 0 0 0 0 0 0 0 0 0 0 0 0 0 0 0 0 0 0 0 0 0 0 0 0 0 0 0 0 0 0 0 0 0 0 0 0 0 0 0 0 0 0 0 0 0 0 0 0 0 0 0 0 0 0 0 0 0 0 0 0 0 0 0 38 -193 -193 37 37 36 35 37 38 36 36 35 34 36 33 33 34 32 32 30 30 30 27 30 32 27 27 28 30 33 34 33 32 33 38 39 36 37 34 32 30 29 30 29 30 30 31 32 33 35 37 38 38 39 42 41 40 39 41 38 39 39 39 36 35 35 35 36 38 37 38 38 40 -209 -193 -193 -209 29 32 32 33 33 36 37 38 38 39 38 36 35 35 32 32 31 30 33 30 34 31 33 37 35 36 36 35 34 33 36 33 31 34 34 33 33 36 37 37 40 40 38 37 37 37 35 35 34 32 35 35 38 37 37 37 37 36 37 36 39 28 35 34 29 25 35 39 47 42 -209 -193 -193 -193 -209 -209 -209 -209 -209 -209 -209 -209 -209 -209 -193 68 61 62 62 65 45 49 46 42 41 41 40 41 39 39 39 40 41 44 43 43 43 45 45 45 44 45 43 44 46 46 45 44 46 49 48 47 52 54 53 -209 -209 -209 -209 -209 60 59 58 58 58 63 57 57 59 57 57 57 58 57 57 59 59 58 59 60 60 60 63 62 64 68 70 71 70 70 70 71 72 74 75 74 75 77 78 0 0 0 0 0
    0 0 0 0 0 0 0 0 0 0 0 0 0 0 0 0 0 0 0 0 0 0 0 0 0 0 0 0 0 0 0 0 0 0 0 0 0 0 0 0 0 0 0 0 0 0 0 0 0 0 0 0 0 0 0 0 0 0 0 0 0 0 0 0 0 0 0 0 0 37 36 38 37 37 36 35 36 37 36 37 35 34 36 33 32 34 32 32 30 31 31 27 32 33 27 27 28 29 33 33 32 32 30 35 33 31 33 29 29 28 28 30 29 31 31 32 33 34 35 37 38 38 37 42 41 39 39 41 37 38 39 39 37 36 36 35 36 38 37 38 38 -193 -209 36 -193 -193 30 32 32 33 33 35 36 37 38 37 37 35 34 33 32 32 31 30 32 29 33 31 32 35 34 35 35 34 35 34 36 34 32 35 34 34 34 36 36 37 39 39 37 35 36 36 35 36 34 32 36 35 38 37 37 37 37 37 37 35 39 28 34 32 27 26 34 39 -209 -209 -209 36 -209 -209 -209 -209 -209 -209 -209 -209 -209 -209 -209 -209 -209 70 60 61 61 -209 46 49 46 42 41 41 40 40 39 39 39 40 41 43 43 43 43 45 45 45 43 45 43 44 45 45 44 43 45 48 46 45 51 50 -193 -209 -193 -209 -209 -209 59 58 58 56 57 61 56 56 58 56 56 56 58 57 57 59 59 58 59 61 61 60 64 64 65 68 70 71 69 68 69 70 71 72 73 73 74 76 77 0 0 0 0 0
    0 0 0 0 0 0 0 0 0 0 0 0 0 0 0 0 0 0 0 0 0 0 0 0 0 0 0 0 0 0 0 0 0 0 0 0 0 0 0 0 0 0 0 0 0 0 0 0 0 0 0 0 0 0 0 0 0 0 0 0 0 0 0 0 0 0 0 0 0 37 35 38 37 36 35 34 35 36 35 37 34 34 37 34 34 35 34 34 32 34 34 28 35 36 28 28 31 31 35 35 34 34 33 36 37 33 34 29 29 28 27 30 29 32 32 34 34 34 36 37 36 37 33 37 37 37 38 38 37 38 38 39 37 37 37 35 36 37 37 37 37 -193 -193 34 35 34 30 31 31 32 33 35 37 36 37 37 36 35 34 33 33 32 33 31 34 30 34 32 34 35 34 35 35 34 36 35 36 34 33 35 35 35 35 37 36 38 39 39 36 33 32 33 33 36 32 31 37 35 38 37 37 37 36 36 37 35 39 28 33 31 27 26 32 -209 -209 -209 -209 33 -209 -209 -209 -209 -209 -209 -209 -209 -209 -209 -209 -209 -193 71 -193 60 -209 -209 46 50 45 42 41 41 40 40 39 39 39 41 41 43 43 43 44 45 45 45 43 45 43 43 45 45 43 42 44 47 45 44 49 47 -193 47 52 53 -209 -209 58 58 58 55 56 60 56 56 57 56 56 56 58 57 57 59 60 59 60 62 62 61 65 65 65 68 70 71 69 68 69 70 70 72 73 73 74 76 78 0 0 0 0 0
    0 0 0 0 0 0 0 0 0 0 0 0 0 0 0 0 0 0 0 0 0 0 0 0 0 0 0 0 0 0 0 0 0 0 0 0 0 0 0 0 0 0 0 0 0 0 0 0 0 0 0 0 0 0 0 0 0 0 0 0 0 0 0 0 0 0 0 0 0 36 34 37 35 35 34 33 34 35 36 37 35 34 37 36 35 37 36 35 35 37 37 31 36 37 30 30 37 36 38 37 37 37 37 39 40 36 36 31 31 29 28 30 29 32 33 35 35 35 37 36 35 37 32 34 33 35 37 36 37 38 38 40 38 38 38 35 36 37 36 36 36 39 36 34 36 35 33 33 33 33 34 36 37 37 37 37 36 35 34 34 33 33 34 32 34 32 35 34 35 36 35 35 36 35 36 36 36 34 33 35 35 35 35 36 35 37 38 38 34 30 30 32 32 36 32 31 37 35 38 37 37 37 36 36 37 34 39 28 33 30 26 26 30 -209 -209 -193 -193 -209 -209 -209 -209 -209 -209 -209 -209 -209 -209 -209 -209 -209 -193 -209 -193 -209 60 -209 47 51 45 42 41 41 40 40 40 39 39 42 41 43 43 43 44 45 45 45 43 45 43 43 44 44 43 42 43 46 44 43 48 47 -193 48 52 53 -193 -209 59 60 59 56 56 60 56 56 57 56 56 56 58 57 58 59 60 59 60 62 62 62 65 65 65 68 69 71 69 69 69 69 70 71 72 72 73 75 77 0 0 0 0 0
    0 0 0 0 0 0 0 0 0 0 0 0 0 0 0 0 0 0 0 0 0 0 0 0 0 0 0 0 0 0 0 0 0 0 0 0 0 0 0 0 0 0 0 0 0 0 0 0 0 0 0 0 0 0 0 0 0 0 0 0 0 0 0 0 0 0 0 0 0 36 34 35 34 34 33 32 33 34 35 37 34 34 37 36 36 37 37 36 35 37 37 33 36 37 32 32 37 38 40 39 38 39 38 39 40 36 35 32 31 29 29 31 30 34 34 35 36 35 37 36 36 36 31 32 32 34 36 34 36 36 38 40 38 39 39 37 37 37 36 36 36 37 36 34 36 35 35 34 35 35 35 36 37 36 37 36 37 35 34 34 33 32 35 32 34 33 34 34 34 35 35 35 36 35 36 37 36 34 34 35 36 35 35 34 33 35 37 36 32 30 30 33 34 37 33 32 37 35 38 36 37 36 35 36 36 33 38 28 31 28 25 26 29 -209 -209 60 62 -209 -209 -209 -209 -209 -209 -209 -209 -209 -209 -209 -209 -209 -193 -209 -209 -209 58 -193 49 52 45 42 41 41 40 41 40 40 39 42 42 43 44 44 44 45 45 45 43 45 43 43 44 44 43 42 43 46 44 44 50 50 -193 -193 52 54 -193 -209 -193 69 61 57 57 60 57 56 57 56 56 56 58 57 58 59 60 60 61 63 63 62 66 66 67 68 69 70 69 68 69 69 69 70 70 71 72 74 76 0 0 0 0 0
    0 0 0 0 0 0 0 0 0 0 0 0 0 0 0 0 0 0 0 0 0 0 0 0 0 0 0 0 0 0 0 0 0 0 0 0 0 0 0 0 0 0 0 0 0 0 0 0 0 0 0 0 0 0 0 0 0 0 0 0 0 0 0 0 0 0 0 0 0 34 33 34 33 33 33 32 32 33 35 36 34 34 37 36 36 37 37 36 35 37 37 33 35 36 32 32 37 39 40 40 39 40 39 41 41 38 37 34 34 30 32 33 33 35 35 36 37 37 39 36 36 34 31 32 31 33 34 33 35 35 37 39 38 39 39 37 37 37 36 35 35 37 35 34 36 35 35 35 35 35 36 36 37 36 37 36 37 36 35 34 34 34 35 33 35 34 33 35 34 35 35 34 36 34 35 37 34 34 34 35 34 34 34 33 32 35 36 35 32 31 32 35 36 38 34 33 37 35 38 37 37 37 36 37 37 34 39 29 32 28 26 29 34 34 -209 -193 -193 -209 -209 -209 -209 -209 -209 -209 -209 -209 -209 -209 -209 -209 -193 80 -209 -209 60 61 50 52 44 42 41 41 41 41 40 40 39 43 42 43 43 43 44 45 45 44 42 44 44 43 44 44 42 42 44 46 44 44 50 50 50 -193 51 54 -193 -209 -209 72 63 57 57 60 58 57 58 57 57 57 59 58 58 59 60 60 61 63 63 62 66 66 66 68 69 70 69 68 69 68 68 69 70 70 71 74 76 0 0 0 0 0
    0 0 0 0 0 0 0 0 0 0 0 0 0 0 0 0 0 0 0 0 0 0 0 0 0 0 0 0 0 0 0 0 0 0 0 0 0 0 0 0 0 0 0 0 0 0 0 0 0 0 0 0 0 0 0 0 0 0 0 0 0 0 0 0 0 0 0 0 0 34 32 33 32 32 32 32 32 32 34 36 33 33 37 36 36 37 37 36 35 37 37 33 36 36 32 32 37 38 40 40 40 41 40 41 41 39 38 35 36 32 34 36 36 37 37 38 39 39 41 36 37 34 31 31 31 32 34 32 35 33 36 39 38 39 39 37 35 35 33 33 33 35 33 32 36 35 36 36 36 37 37 37 38 36 37 36 37 36 35 33 34 34 35 33 34 34 33 34 33 33 33 33 34 32 32 36 34 34 35 36 35 35 36 32 32 34 36 35 32 33 33 35 36 38 34 34 38 35 38 38 38 37 36 37 38 36 41 30 32 27 27 32 -209 -209 -209 -193 -193 -209 -209 -209 -209 -209 -193 -209 -209 -209 -209 -209 -209 -193 79 -193 -209 -209 -209 58 50 53 42 41 41 41 40 41 40 40 39 43 42 43 43 43 43 45 45 45 42 44 44 43 44 44 42 42 43 46 43 43 47 48 50 48 51 55 60 -209 -209 73 69 57 59 61 59 58 58 58 57 58 59 58 59 59 61 60 61 63 62 62 66 65 66 67 68 69 68 68 68 68 68 69 69 70 70 73 76 0 0 0 0 0
    0 0 0 0 0 0 0 0 0 0 0 0 0 0 0 0 0 0 0 0 0 0 0 0 0 0 0 0 0 0 0 0 0 0 0 0 0 0 0 0 0 0 0 0 0 0 0 0 0 0 0 0 0 0 0 0 0 0 0 0 0 0 0 0 0 0 0 0 0 33 32 32 32 32 32 32 31 30 32 35 32 31 37 36 35 37 37 36 -193 -193 37 34 36 36 33 33 36 37 40 39 39 40 39 40 41 39 38 35 34 30 34 37 38 37 38 40 41 40 42 35 37 33 31 31 31 32 33 31 35 32 36 39 38 39 39 36 34 32 30 31 31 33 29 29 35 34 35 36 36 37 37 37 38 36 37 36 37 35 34 32 33 33 34 32 34 35 33 34 33 33 33 33 34 33 31 36 34 34 35 35 34 35 35 30 30 31 33 31 30 31 31 34 35 37 34 34 38 36 39 39 39 38 37 38 38 37 41 32 33 27 29 35 -209 -209 -209 62 68 -209 -209 -209 -209 -209 -193 -193 -209 -209 -209 -209 -209 -193 -193 -209 -209 -193 -209 -193 48 52 40 40 40 40 40 40 40 39 39 44 42 43 43 43 43 44 45 45 42 44 44 43 44 44 42 41 43 45 42 42 45 47 52 -193 55 58 61 70 73 73 -209 57 58 59 59 58 58 59 58 58 59 59 59 60 61 61 61 63 62 63 65 65 65 66 67 69 67 67 67 67 67 68 68 70 69 74 77 0 0 0 0 0
    0 0 0 0 0 0 0 0 0 0 0 0 0 0 0 0 0 0 0 0 0 0 0 0 0 0 0 0 0 0 0 0 0 0 0 0 0 0 0 0 0 0 0 0 0 0 0 0 0 0 0 0 0 0 0 0 0 0 0 0 0 0 0 0 0 0 0 0 0 33 32 32 31 31 31 31 30 29 30 33 31 30 37 36 35 37 37 36 -193 -193 38 35 36 37 34 34 36 37 39 39 39 40 39 38 40 38 37 33 31 28 32 35 37 37 38 40 -193 40 41 34 37 33 32 32 32 32 32 30 34 30 35 38 37 38 39 34 32 30 29 29 29 29 27 27 31 31 32 32 33 35 37 37 37 36 36 36 37 35 34 32 33 34 35 32 34 35 33 34 34 33 33 33 34 33 30 36 33 33 36 34 32 33 33 28 26 28 29 28 29 30 30 34 35 37 34 34 38 36 39 39 39 38 38 39 39 38 42 33 33 27 32 -209 -209 -209 -209 65 -193 -209 -193 -193 76 77 78 -193 -193 -193 -193 -193 -209 -193 -193 -193 -209 -193 -209 -209 44 50 40 40 40 40 40 41 41 40 39 44 42 42 43 43 43 44 45 44 42 44 44 43 44 44 42 41 43 45 42 41 45 47 52 -193 55 57 60 67 -209 -193 -209 57 57 58 59 58 58 59 58 59 60 59 60 60 62 61 61 63 63 63 65 64 64 66 67 69 67 67 67 66 66 67 68 69 68 74 78 0 0 0 0 0
    0 0 0 0 0 0 0 0 0 0 0 0 0 0 0 0 0 0 0 0 0 0 0 0 0 0 0 0 0 0 0 0 0 0 0 0 0 0 0 0 0 0 0 0 0 0 0 0 0 0 0 0 0 0 0 0 0 0 0 0 0 0 0 0 0 0 0 0 0 31 31 30 30 30 30 30 28 28 28 30 29 28 36 35 35 37 -193 -193 -193 -193 38 35 36 37 34 34 35 36 39 39 39 41 39 38 40 39 38 35 33 30 34 35 37 38 38 40 -209 -193 -209 34 37 33 32 32 32 32 32 30 34 29 32 36 35 35 37 31 30 28 27 27 27 26 25 24 30 29 32 30 31 36 38 37 37 35 35 34 36 35 34 32 33 34 35 33 34 36 33 34 34 33 33 33 34 33 30 36 34 34 37 35 32 33 32 27 24 -193 -193 -209 -209 -193 -193 -193 35 38 34 34 38 36 39 39 40 38 38 39 39 -193 42 33 32 26 31 -209 -209 -209 -193 68 -193 -193 75 -209 75 75 76 78 81 -193 -209 -209 -209 -209 -209 -209 -193 -209 -209 -209 44 46 39 39 39 40 40 41 41 40 39 44 41 42 43 43 42 44 44 44 42 44 44 43 44 44 42 41 42 45 41 39 44 48 -209 -193 56 57 58 -209 -209 60 65 56 56 56 58 58 58 59 58 58 60 59 61 61 62 62 61 63 62 63 65 64 64 66 67 69 67 67 67 66 66 67 67 68 67 73 75 0 0 0 0 0
    0 0 0 0 0 0 0 0 0 0 0 0 0 0 0 0 0 0 0 0 0 0 0 0 0 0 0 0 0 0 0 0 0 0 0 0 0 0 0 0 0 0 0 0 0 0 0 0 0 0 0 0 0 0 0 0 0 0 0 0 0 0 0 0 0 0 0 0 0 29 31 29 30 30 30 30 28 27 27 27 27 27 36 34 34 37 37 -193 -193 -193 38 35 36 36 33 33 34 35 38 39 39 41 39 38 40 40 39 37 33 30 33 35 37 37 -193 -193 -209 -209 -209 33 37 33 32 32 32 32 31 30 34 29 33 35 33 32 35 30 31 27 27 26 27 25 22 22 26 22 -193 23 26 34 38 37 36 32 31 31 34 32 31 30 31 34 34 33 34 37 34 34 34 33 33 33 34 33 29 35 33 31 38 37 33 35 -209 -209 -209 -209 -209 -209 -209 -193 -193 -193 36 37 33 33 38 36 39 39 40 38 38 38 38 -193 42 32 32 26 33 -209 -209 -209 -209 69 -193 73 75 74 75 73 75 76 -193 -209 -209 -209 -209 -209 -209 -209 -193 -209 -209 -209 45 45 39 39 39 41 41 41 41 40 40 44 41 42 42 42 42 43 43 43 42 44 44 43 44 44 42 42 43 46 41 39 45 -209 -209 -193 61 61 61 60 59 61 69 58 57 58 59 58 58 59 58 58 60 59 61 61 62 62 61 63 62 63 65 63 64 66 68 69 67 67 67 66 66 67 67 68 66 71 72 0 0 0 0 0
    0 0 0 0 0 0 0 0 0 0 0 0 0 0 0 0 0 0 0 0 0 0 0 0 0 0 0 0 0 0 0 0 0 0 0 0 0 0 0 0 0 0 0 0 0 0 0 0 0 0 0 0 0 0 0 0 0 0 0 0 0 0 0 0 0 0 0 0 0 29 31 30 30 30 31 31 29 28 27 27 27 26 36 32 32 36 36 -193 -193 37 37 33 36 36 32 31 32 34 36 38 39 41 39 37 40 40 40 38 32 28 33 35 -193 37 -193 -193 -177 -209 -209 33 37 33 32 32 33 32 31 30 34 28 33 33 31 29 32 30 32 27 28 26 27 25 23 22 22 18 21 21 24 35 38 36 36 32 31 30 32 30 28 27 28 33 33 32 33 38 33 34 34 33 32 33 34 34 28 34 33 -193 39 -209 36 -177 -209 -209 -193 117 119 119 -193 -193 -193 -193 38 38 34 34 38 36 39 39 40 38 38 38 38 -177 -193 32 32 26 35 -209 -209 -209 -209 69 -193 75 77 -193 75 74 75 77 -193 -209 -209 -209 -209 -209 -193 -209 165 -209 -209 -209 44 45 39 39 40 42 41 42 42 41 41 45 42 42 42 42 41 43 43 43 41 44 44 43 45 45 43 42 43 47 43 40 48 -209 -209 -209 63 63 62 62 62 63 68 59 58 59 59 59 58 59 59 58 59 59 60 60 62 61 60 62 62 62 64 62 63 66 68 69 67 68 67 67 66 67 67 68 65 70 71 0 0 0 0 0
    0 0 0 0 0 0 0 0 0 0 0 0 0 0 0 0 0 0 0 0 0 0 0 0 0 0 0 0 0 0 0 0 0 0 0 0 0 0 0 0 0 0 0 0 0 0 0 0 0 0 0 0 0 0 0 0 0 0 0 0 0 0 0 0 0 0 0 0 0 30 32 30 31 31 31 31 29 28 28 27 27 26 36 31 31 35 -193 -193 34 36 36 31 36 35 31 30 31 33 35 37 39 40 39 38 41 41 42 41 34 28 34 35 38 38 -193 -209 -193 41 42 -193 37 32 32 32 33 32 31 30 33 28 34 32 30 27 29 30 32 28 29 28 28 27 26 24 24 19 22 21 24 36 38 36 36 32 32 30 31 30 28 26 26 32 32 31 31 37 32 33 33 32 31 32 33 33 28 35 36 34 41 44 41 -177 -193 -209 -209 116 114 114 -193 -193 -193 -193 39 38 34 33 38 36 39 39 40 38 38 38 38 -177 -193 32 31 25 33 -193 -209 -209 -209 -209 -193 77 80 -193 -193 -209 -193 -193 -193 -209 -209 -209 -209 -209 -209 -209 165 -209 -209 -193 45 45 40 40 40 44 42 43 42 42 42 45 42 42 42 42 41 43 43 43 41 44 44 43 45 45 43 43 43 47 44 41 43 50 58 58 60 60 59 59 59 60 66 59 58 59 59 59 58 59 59 58 59 59 60 60 62 61 60 62 61 62 63 62 63 65 68 69 68 68 67 67 67 68 67 68 65 69 71 0 0 0 0 0
    0 0 0 0 0 0 0 0 0 0 0 0 0 0 0 0 0 0 0 0 0 0 0 0 0 0 0 0 0 0 0 0 0 0 0 0 0 0 0 0 0 0 0 0 0 0 0 0 0 0 0 0 0 0 0 0 0 0 0 0 0 0 0 0 0 0 0 0 0 30 32 30 31 31 31 32 29 29 28 28 28 27 36 31 31 34 34 -193 34 35 35 30 36 35 31 30 31 33 35 37 38 39 40 38 41 41 42 41 35 30 34 35 38 38 40 -209 -209 40 43 -193 37 32 31 31 32 32 31 29 33 27 32 30 29 26 28 29 33 29 30 30 29 29 28 27 27 22 23 23 25 36 38 35 35 32 31 31 31 31 28 26 26 32 32 31 31 38 32 33 33 32 31 32 33 33 28 35 36 -209 -209 45 44 43 -193 -209 -209 -209 -209 110 116 -209 -209 39 40 39 34 34 38 36 39 39 40 38 38 38 38 -193 -193 32 32 26 34 -193 -193 -209 -209 -209 -209 78 -193 -193 -193 -209 -193 -193 -193 -209 -209 -209 -209 -209 -209 -209 -209 -209 -209 165 44 45 40 40 40 45 43 43 43 42 42 46 43 43 42 42 42 43 43 43 41 44 45 43 45 45 43 43 43 46 44 41 44 49 57 56 59 59 59 58 58 59 66 59 58 59 59 58 58 59 59 58 59 59 59 59 61 60 59 61 61 61 62 61 61 64 68 69 68 68 68 68 67 68 68 68 65 69 70 0 0 0 0 0
    0 0 0 0 0 0 0 0 0 0 0 0 0 0 0 0 0 0 0 0 0 0 0 0 0 0 0 0 0 0 0 0 0 0 0 0 0 0 0 0 0 0 0 0 0 0 0 0 0 0 0 0 0 0 0 0 0 0 0 0 0 0 0 0 0 0 0 0 0 31 32 30 31 31 31 31 30 29 28 29 29 27 36 31 31 34 34 -193 33 35 35 30 36 36 32 30 31 33 34 36 37 37 38 37 40 40 41 41 35 30 35 35 38 39 -209 -209 -209 39 42 -193 36 32 31 31 33 32 31 29 33 27 32 30 29 26 27 29 35 30 32 31 30 30 29 29 28 24 26 24 26 36 38 35 35 32 31 31 31 31 29 26 26 30 32 30 30 37 32 32 33 32 31 32 33 33 28 35 36 -193 -209 44 43 43 -209 -209 -209 -209 -209 107 111 -209 -209 40 -193 39 34 33 38 36 39 39 40 38 38 38 38 -193 41 32 32 26 35 -193 -193 -209 -209 -209 -209 -193 -193 -209 -209 -209 -209 -209 -209 -209 -209 -209 -209 -209 -209 -209 -209 -209 -209 -193 45 46 41 41 41 45 43 43 43 43 43 46 43 43 42 42 42 43 43 43 41 44 44 43 45 45 43 43 43 47 45 43 51 53 57 57 59 59 59 58 58 59 66 60 59 60 59 58 58 59 59 57 59 58 59 59 61 60 59 61 61 60 62 61 61 64 69 69 68 69 68 68 68 68 68 68 64 67 67 0 0 0 0 0
    0 0 0 0 0 0 0 0 0 0 0 0 0 0 0 0 0 0 0 0 0 0 0 0 0 0 0 0 0 0 0 0 0 0 0 0 0 0 0 0 0 0 0 0 0 0 0 0 0 0 0 0 0 0 0 0 0 0 0 0 0 0 0 0 0 0 0 0 0 32 33 31 32 31 31 32 30 29 28 29 29 27 36 30 31 34 34 34 33 35 35 30 37 36 32 31 33 33 33 36 36 36 -193 -193 39 40 41 41 37 37 39 36 -209 -209 -209 -209 -193 36 40 30 36 31 31 31 33 32 31 29 33 27 32 30 30 27 29 31 36 31 33 32 31 31 30 30 30 25 29 25 28 36 38 35 35 32 31 31 31 31 29 26 27 29 31 29 30 37 31 31 33 32 31 32 33 33 28 36 36 -193 -193 44 44 43 -209 -209 -209 -209 -209 -209 -209 -209 -209 -193 -209 40 34 33 39 36 39 39 39 38 38 38 38 -193 41 32 32 26 35 0 0 -209 -209 -209 -209 -193 -193 -209 -209 -209 -209 -209 -209 -209 -209 -209 -209 208 -193 -193 -209 -209 -209 -209 45 46 43 42 41 46 43 43 43 43 43 46 43 43 43 42 42 43 43 43 41 43 44 43 44 45 43 44 44 48 47 45 55 56 58 58 59 60 59 58 59 59 65 60 59 60 59 58 58 59 59 57 59 58 59 59 61 60 59 61 61 60 62 61 61 65 69 70 68 69 68 69 68 68 68 68 64 64 66 0 0 0 0 0
    0 0 0 0 0 0 0 0 0 0 0 0 0 0 0 0 0 0 0 0 0 0 0 0 0 0 0 0 0 0 0 0 0 0 0 0 0 0 0 0 0 0 0 0 0 0 0 0 0 0 0 0 0 0 0 0 0 0 0 0 0 0 0 0 0 0 0 0 0 32 33 31 32 32 32 32 30 30 29 30 29 28 36 31 31 34 34 34 33 35 34 29 36 36 31 31 36 36 35 38 38 39 -193 -193 41 40 41 43 40 41 41 40 -209 -209 -209 -209 -193 35 -193 30 36 31 31 31 33 32 31 29 33 28 33 32 31 28 31 33 37 32 33 32 32 32 30 31 31 26 32 27 30 37 38 36 36 33 32 32 31 32 29 26 27 27 29 27 28 36 30 31 32 32 31 31 34 34 28 37 37 33 41 44 46 44 -193 -193 -209 -209 -209 -209 -209 -193 -209 -193 -193 -209 34 33 39 36 39 39 39 38 38 38 38 -193 41 32 32 26 34 -193 -193 -209 -209 -209 -209 -193 -209 -209 -209 -209 -209 -209 -209 -209 -209 -209 -209 -193 -209 -209 -209 -193 -209 -209 49 48 44 42 42 45 43 43 43 43 43 45 43 42 43 42 42 43 43 43 42 43 44 43 45 45 44 44 44 49 49 47 55 56 57 57 58 58 58 58 58 59 65 60 59 60 59 58 58 59 59 57 58 58 59 59 61 60 59 61 61 60 62 60 61 65 70 69 69 69 69 70 69 69 68 68 64 64 65 0 0 0 0 0
    0 0 0 0 0 0 0 0 0 0 0 0 0 0 0 0 0 0 0 0 0 0 0 0 0 0 0 0 0 0 0 0 0 0 0 0 0 0 0 0 0 0 0 0 0 0 0 0 0 0 0 0 0 0 0 0 0 0 0 0 0 0 0 0 0 0 0 0 0 32 33 31 32 32 32 32 31 31 30 31 30 29 36 31 31 34 34 34 33 35 34 29 36 36 31 33 38 38 36 39 41 41 -193 -193 42 41 41 43 41 41 41 40 -209 -209 -209 -209 -193 33 -193 29 36 31 31 31 33 32 31 29 32 27 32 30 30 28 31 33 37 33 34 33 33 32 31 31 31 26 31 27 28 37 38 36 37 34 33 33 32 32 29 26 26 25 27 26 26 35 30 30 32 31 31 31 34 34 28 38 38 33 -193 45 46 -209 33 34 -209 -209 -209 -193 -209 -193 -209 -193 180 -209 34 34 39 36 -193 39 40 38 38 38 38 -193 41 32 32 26 34 -209 -193 -193 -209 -209 -193 -209 -193 -209 -209 -209 -209 -209 -209 -209 -209 -193 -209 -209 -209 -209 -209 303 -193 -193 52 50 46 43 43 46 43 43 43 43 43 44 43 42 43 42 42 43 43 43 42 44 45 43 45 45 44 45 45 49 49 48 55 56 56 56 57 57 57 57 58 58 65 59 59 60 59 58 58 59 59 57 58 58 59 59 61 61 60 61 62 61 62 61 62 66 70 69 69 70 70 71 70 70 68 68 64 65 64 0 0 0 0 0
    0 0 0 0 0 0 0 0 0 0 0 0 0 0 0 0 0 0 0 0 0 0 0 0 0 0 0 0 0 0 0 0 0 0 0 0 0 0 0 0 0 0 0 0 0 0 0 0 0 0 0 0 0 0 0 0 0 0 0 0 0 0 0 0 0 0 0 0 0 32 33 31 33 32 32 33 32 32 31 32 31 30 36 31 31 33 33 33 33 34 34 29 36 35 30 34 39 39 37 39 41 41 -193 -193 41 40 40 42 41 41 41 39 -209 -209 -209 -209 23 29 -193 28 35 31 31 32 33 32 30 29 31 26 29 28 27 -193 -193 30 37 32 34 33 33 33 32 32 30 26 30 27 27 36 38 35 37 34 33 33 33 32 29 27 26 24 28 26 27 33 30 30 31 31 31 30 33 34 28 37 37 31 39 43 -193 25 -193 24 23 -209 -209 -209 -209 -193 -209 -209 -209 -209 36 35 39 36 -209 40 40 38 38 38 38 -193 41 33 33 27 35 35 41 42 36 27 27 -193 24 24 -193 -209 -209 -209 -209 -193 -193 -193 -193 -209 -209 -209 -209 -193 -193 -193 51 50 47 43 44 46 44 44 43 43 43 44 43 43 44 43 43 43 43 43 42 44 45 43 45 46 45 45 45 50 49 49 55 56 56 55 56 56 56 57 58 58 64 60 60 61 60 58 58 59 59 57 58 58 58 59 61 61 60 61 62 61 62 61 61 65 69 69 69 70 70 71 71 71 70 -209 -209 -209 -209 0 0 0 0 0
    0 0 0 0 0 0 0 0 0 0 0 0 0 0 0 0 0 0 0 0 0 0 0 0 0 0 0 0 0 0 0 0 0 0 0 0 0 0 0 0 0 0 0 0 0 0 0 0 0 0 0 0 0 0 0 0 0 0 0 0 0 0 0 0 0 0 0 0 0 32 33 32 34 32 33 33 32 33 31 32 32 30 36 32 31 33 33 33 33 34 34 29 35 35 31 34 41 41 39 40 43 42 -193 41 41 39 39 41 40 41 41 40 42 -209 -209 -209 23 29 -193 28 35 31 31 32 32 31 30 29 30 26 27 26 25 24 24 27 36 32 33 32 33 33 32 32 30 26 29 26 27 35 37 35 37 35 34 33 34 32 28 26 26 24 27 26 26 31 29 30 31 31 31 30 33 34 28 37 37 32 39 -193 -193 25 24 24 23 -193 -209 -209 -193 35 -209 -209 -209 41 37 36 39 36 -193 39 39 38 38 38 38 -193 41 32 33 27 35 35 40 40 31 27 26 23 22 23 21 23 -209 -209 -209 -193 -209 -193 -209 -209 -209 -193 -193 -193 -193 -193 49 48 46 43 44 46 44 44 44 44 44 45 44 43 45 44 43 44 44 44 43 44 45 43 45 46 45 46 46 50 50 49 54 54 55 54 55 54 55 56 56 57 63 60 59 61 60 58 58 59 58 57 58 58 58 59 61 61 60 61 61 61 61 60 60 63 68 68 68 69 69 70 70 70 -209 -209 -209 -209 -209 0 0 0 0 0
    0 0 0 0 0 0 0 0 0 0 0 0 0 0 0 0 0 0 0 0 0 0 0 0 0 0 0 0 0 0 0 0 0 0 0 0 0 0 0 0 0 0 0 0 0 0 0 0 0 0 0 0 0 0 0 0 0 0 0 0 0 0 0 0 0 0 0 0 0 32 33 32 34 33 33 34 33 33 31 33 32 31 37 32 32 33 33 33 33 34 34 28 35 35 31 34 41 42 41 41 43 42 42 41 40 38 38 40 39 41 41 41 -209 -209 -209 -209 23 28 -193 28 35 30 31 32 32 31 30 29 29 26 27 27 25 24 23 26 34 31 32 32 32 33 33 31 29 25 26 24 25 30 35 32 35 34 33 33 34 32 28 26 26 24 27 26 26 30 29 30 31 31 31 30 33 34 28 37 36 30 36 -209 35 25 24 25 22 -193 -209 -209 31 36 38 -209 -209 40 37 37 39 36 39 39 39 37 37 38 38 -193 -193 32 33 27 33 33 37 32 27 24 21 18 18 20 15 20 -209 -209 -209 -209 -209 -209 -209 -209 150 -193 -193 -193 49 53 48 48 46 43 44 45 44 44 43 44 44 44 44 44 45 44 43 44 44 44 43 44 45 43 45 46 45 46 45 50 49 48 52 53 53 53 53 53 53 54 55 56 61 59 59 61 60 58 57 58 58 57 58 58 58 59 61 61 60 61 61 61 61 60 60 62 67 66 66 68 68 68 70 -209 -209 -193 -209 -193 -193 0 0 0 0 0
    0 0 0 0 0 0 0 0 0 0 0 0 0 0 0 0 0 0 0 0 0 0 0 0 0 0 0 0 0 0 0 0 0 0 0 0 0 0 0 0 0 0 0 0 0 0 0 0 0 0 0 0 0 0 0 0 0 0 0 0 0 0 0 0 0 0 0 0 0 33 33 32 34 33 33 34 33 34 32 33 33 31 37 32 32 33 33 33 33 34 34 28 36 36 31 36 42 43 41 41 42 41 41 40 39 38 38 39 39 41 42 -209 -209 -209 -209 -209 23 29 -193 28 35 31 31 33 33 32 30 29 29 26 27 27 25 23 23 25 33 31 32 31 31 32 32 30 29 24 23 23 24 27 31 29 34 33 32 32 34 31 28 26 26 23 26 25 25 29 29 29 31 31 31 30 33 33 28 37 36 29 31 -209 27 23 24 25 22 22 -209 -209 30 36 38 -193 -193 40 38 37 40 36 39 39 39 37 37 37 37 -193 -193 32 33 28 34 35 36 30 24 22 16 15 16 -209 -193 -209 -209 -209 -209 -209 -209 -193 -209 -209 -193 52 50 48 48 52 46 46 45 43 44 44 43 43 43 43 43 43 43 43 46 44 43 44 44 44 43 44 45 42 45 46 45 46 45 49 48 47 51 52 52 52 52 52 52 54 55 55 61 59 59 61 60 58 57 59 -193 57 58 58 58 59 61 61 60 61 62 61 61 60 60 62 67 65 67 68 68 69 -209 -209 -193 -193 -193 -193 -193 0 0 0 0 0
    0 0 0 0 0 0 0 0 0 0 0 0 0 0 0 0 0 0 0 0 0 0 0 0 0 0 0 0 0 0 0 0 0 0 0 0 0 0 0 0 0 0 0 0 0 0 0 0 0 0 0 0 0 0 0 0 0 0 0 0 0 0 0 0 0 0 0 0 0 33 33 32 34 33 33 34 33 34 32 33 32 31 37 32 32 33 33 33 33 34 34 28 36 36 30 37 43 45 43 43 44 42 41 40 40 37 37 39 40 42 42 -209 -209 -209 -209 -209 -209 31 -193 29 35 31 32 34 33 32 30 29 29 26 26 26 24 22 21 24 31 30 31 31 31 32 33 30 28 24 23 23 24 27 31 29 34 33 32 33 34 31 29 26 26 23 26 25 26 29 29 30 31 32 31 30 33 33 28 36 35 27 27 -209 -193 -193 -193 -193 24 24 -193 27 29 34 35 -193 39 39 37 36 40 36 39 38 38 37 37 37 37 -193 -193 31 33 28 33 34 36 32 25 -193 -209 -193 -209 -209 -209 -209 -209 -209 -193 -209 52 52 -209 -193 -193 50 48 47 46 51 44 44 44 43 43 43 42 42 42 43 43 42 42 42 46 43 43 43 43 44 43 45 45 42 45 46 46 46 46 49 47 47 50 51 51 51 52 51 51 53 54 55 60 59 59 61 60 58 57 59 -193 57 58 58 58 59 61 62 61 61 62 61 61 61 61 63 67 67 68 70 70 74 -209 -193 32 31 -193 -193 -193 0 0 0 0 0
    0 0 0 0 0 0 0 0 0 0 0 0 0 0 0 0 0 0 0 0 0 0 0 0 0 0 0 0 0 0 0 0 0 0 0 0 0 0 0 0 0 0 0 0 0 0 0 0 0 0 0 0 0 0 0 0 0 0 0 0 0 0 0 0 0 0 0 0 0 33 34 32 34 33 33 34 34 34 32 33 32 30 37 31 31 32 32 33 33 34 34 28 36 36 29 37 44 48 47 49 50 47 44 42 41 38 38 40 40 42 41 39 -209 -209 -209 -209 -209 33 38 30 36 32 32 34 33 32 30 28 29 25 26 26 23 21 21 23 30 30 31 31 31 32 33 30 27 23 22 22 25 27 30 29 33 33 31 33 34 30 29 26 26 23 27 26 26 29 29 30 31 32 32 29 33 33 27 35 34 25 23 23 -209 -193 -209 -209 -193 26 26 -193 28 31 33 38 38 37 36 36 40 36 39 38 38 37 36 36 36 -193 37 30 33 28 32 33 36 35 32 -209 -209 -209 -209 68 64 72 -209 71 -209 -193 52 52 -193 -193 -193 48 46 45 45 48 42 43 43 43 43 42 42 42 42 43 43 42 41 41 46 43 43 43 43 44 44 45 45 43 45 47 46 46 46 50 48 47 50 50 50 50 51 51 49 52 54 55 60 59 60 61 61 58 58 59 58 57 58 59 59 59 61 62 61 61 62 61 61 61 61 62 65 67 69 72 -209 -209 -193 27 30 29 -193 -193 -193 0 0 0 0 0
    0 0 0 0 0 0 0 0 0 0 0 0 0 0 0 0 0 0 0 0 0 0 0 0 0 0 0 0 0 0 0 0 0 0 0 0 0 0 0 0 0 0 0 0 0 0 0 0 0 0 0 0 0 0 0 0 0 0 0 0 0 0 0 0 0 0 0 0 0 33 33 32 34 33 33 34 34 34 32 33 32 30 37 31 31 32 33 33 32 34 33 28 35 35 28 34 44 50 52 54 54 50 48 43 43 39 39 40 40 41 -193 37 30 -209 -209 -209 32 36 39 31 36 31 32 34 32 31 30 28 28 25 25 26 22 21 20 23 30 30 30 30 30 32 33 28 26 23 21 22 25 27 30 28 32 33 31 33 34 30 29 26 26 24 28 26 26 30 29 30 31 32 32 29 32 33 26 33 32 24 22 24 -193 -209 -193 -193 -209 27 -193 -193 29 30 32 37 36 36 35 36 40 36 39 38 38 37 36 36 36 34 36 30 33 29 32 33 37 36 34 -209 -209 -193 -193 -209 -209 -193 74 74 -193 -193 50 52 -193 -193 50 47 45 44 44 47 42 42 43 44 43 42 42 42 42 43 43 42 41 41 47 43 43 43 43 44 44 45 45 43 45 47 46 46 46 50 48 48 50 49 49 49 51 50 48 50 53 55 59 58 59 60 61 58 58 59 59 58 59 59 59 59 61 62 60 61 62 61 61 61 61 61 62 65 69 76 -193 25 26 28 -193 -193 36 -193 31 0 0 0 0 0
    0 0 0 0 0 0 0 0 0 0 0 0 0 0 0 0 0 0 0 0 0 0 0 0 0 0 0 0 0 0 0 0 0 0 0 0 0 0 0 0 0 0 0 0 0 0 0 0 0 0 0 0 0 0 0 0 0 0 0 0 0 0 0 0 0 0 0 0 0 32 33 31 35 33 33 34 34 34 33 32 31 29 37 31 31 32 32 -193 -193 -193 33 27 35 35 27 31 42 47 51 55 52 47 45 42 41 38 38 38 38 40 36 36 -209 -209 -209 -209 36 36 39 31 36 32 32 34 32 31 29 27 27 25 25 25 22 21 21 23 29 30 30 30 30 32 32 28 26 23 21 22 25 26 29 28 32 32 31 32 34 29 29 26 26 24 29 27 27 31 30 31 31 32 32 29 32 32 26 31 30 24 22 25 28 -209 -193 -193 -209 -209 -209 -209 -209 -209 32 37 36 35 33 36 41 37 39 37 38 37 36 36 36 33 35 29 33 29 31 34 37 37 36 -193 -209 -209 63 -209 -193 -209 -209 -209 -209 -209 49 53 55 -209 48 48 46 44 44 45 42 42 42 44 42 42 43 42 43 43 44 43 41 42 48 43 43 43 43 44 44 45 45 42 44 47 46 46 46 50 47 48 49 48 48 49 50 50 48 51 53 55 58 58 58 60 61 59 58 60 59 58 59 60 59 59 61 62 60 61 62 61 60 61 61 60 59 -225 -225 -225 -209 27 -225 30 33 33 37 33 35 0 0 0 0 0
    0 0 0 0 0 0 0 0 0 0 0 0 0 0 0 0 0 0 0 0 0 0 0 0 0 0 0 0 0 0 0 0 0 0 0 0 0 0 0 0 0 0 0 0 0 0 0 0 0 0 0 0 0 0 0 0 0 0 0 0 0 0 0 0 0 0 0 0 0 33 35 32 35 33 33 34 34 34 33 31 30 29 37 31 31 32 -193 -193 -193 -193 33 27 35 35 28 29 38 -193 -209 -193 -193 40 38 38 36 35 36 36 36 39 36 36 -209 -209 -209 -209 -209 37 39 31 36 32 32 34 32 31 30 27 28 25 25 25 22 21 21 23 28 30 30 30 30 32 33 27 26 23 21 22 25 26 28 28 31 31 30 32 33 29 29 26 26 24 30 28 28 32 30 31 32 32 32 29 32 32 26 31 31 -193 -193 -177 -193 -209 81 85 -193 -193 -193 -209 -209 -193 36 38 36 35 33 37 41 37 39 37 37 37 36 36 35 32 34 29 32 29 30 36 38 39 39 49 57 59 60 59 59 58 55 57 52 -209 -193 51 -209 -209 45 47 45 43 43 44 41 41 42 43 41 41 42 42 42 43 43 42 41 42 47 43 43 43 43 43 43 45 44 42 44 47 46 46 45 49 47 48 48 47 47 48 50 50 48 50 53 55 58 58 58 61 62 60 59 60 60 59 60 60 59 59 60 61 60 60 61 60 59 60 60 58 57 -225 -225 -225 -209 28 29 30 33 34 36 32 35 0 0 0 0 0
    0 0 0 0 0 0 0 0 0 0 0 0 0 0 0 0 0 0 0 0 0 0 0 0 0 0 0 0 0 0 0 0 0 0 0 0 0 0 0 0 0 0 0 0 0 0 0 0 0 0 0 0 0 0 0 0 0 0 0 0 0 0 0 0 0 0 0 0 0 -209 -209 -193 36 33 32 31 33 34 33 31 29 28 37 31 31 33 32 -193 -193 -193 33 28 35 35 28 28 35 39 -209 -209 -209 -193 -209 37 35 36 37 35 37 39 -209 -209 -209 -209 -209 -209 -209 39 39 32 36 32 32 34 33 31 30 28 28 25 26 26 23 22 22 23 29 30 30 30 30 32 33 28 26 24 22 23 26 26 28 27 31 31 30 31 32 28 28 26 26 24 30 28 28 33 31 31 32 32 32 29 32 32 26 32 32 26 -193 30 -193 -209 -193 -193 -193 33 34 34 35 35 35 36 34 33 31 37 41 37 39 36 37 37 36 36 35 32 33 28 33 30 32 41 43 50 50 57 59 61 61 61 60 59 59 62 -193 -209 -193 51 -209 -209 -193 46 44 43 43 43 40 41 41 43 41 41 41 41 41 42 43 43 41 42 47 44 43 43 43 43 43 44 44 42 44 46 46 46 45 49 47 48 48 46 47 49 50 50 48 50 54 56 59 59 59 61 62 62 60 61 60 59 60 60 59 60 60 61 59 60 61 60 59 60 59 58 56 -225 -225 -225 -209 29 29 31 34 34 36 31 34 0 0 0 0 0
    0 0 0 0 0 0 0 0 0 0 0 0 0 0 0 0 0 0 0 0 0 0 0 0 0 0 0 0 0 0 0 0 0 0 0 0 0 0 0 0 0 0 0 0 0 0 0 0 0 0 0 0 0 0 0 0 0 0 0 0 0 0 0 0 0 0 0 0 0 -209 -209 -193 -193 27 24 24 27 34 33 32 28 27 37 31 31 33 32 -193 -193 33 34 28 36 36 -193 -193 -209 -209 -209 -209 -209 -209 -209 -209 -209 35 -209 -193 36 -209 -209 -209 -209 -209 -193 31 -209 39 40 33 36 33 32 34 33 31 31 28 29 26 27 28 25 25 25 26 30 31 30 30 30 32 32 29 27 25 23 24 28 27 29 28 30 30 29 31 32 28 29 26 27 25 32 29 28 35 31 32 32 32 31 29 32 32 26 30 30 -193 12 -209 -209 -193 -193 -193 32 35 34 35 35 34 36 35 33 32 30 37 40 38 39 36 37 37 36 36 35 31 33 28 34 32 35 45 53 57 57 58 60 62 60 60 60 59 59 61 -193 -209 -193 51 54 -209 -209 49 47 45 44 44 41 41 42 43 41 40 41 41 41 42 43 43 41 42 47 44 43 43 43 43 43 44 43 42 44 46 46 46 45 49 48 49 49 47 48 50 51 51 50 53 56 59 61 60 60 62 64 64 61 62 61 60 61 61 60 60 60 61 60 60 60 60 59 60 60 58 56 -225 -225 -225 -225 -225 30 33 35 35 37 32 34 0 0 0 0 0
    0 0 0 0 0 0 0 0 0 0 0 0 0 0 0 0 0 0 0 0 0 0 0 0 0 0 0 0 0 0 0 0 0 0 0 0 0 0 0 0 0 0 0 0 0 0 0 0 0 0 0 0 0 0 0 0 0 0 0 0 0 0 0 0 0 0 0 0 0 -209 -209 -209 -193 -193 22 23 25 30 29 34 27 27 37 31 31 -193 33 32 32 33 34 28 36 37 -193 -209 -209 -209 -193 -209 -193 -209 -209 -209 -209 -193 -209 -209 34 -209 -209 -209 -209 -209 -209 37 -193 40 40 34 37 33 32 34 33 31 30 28 29 26 28 29 27 27 28 29 32 32 30 31 30 32 32 29 28 28 26 27 31 29 31 29 32 32 30 31 32 28 30 28 30 26 35 30 30 36 32 32 32 32 31 29 32 32 25 26 27 22 11 -209 -209 -193 -193 -209 34 36 35 35 36 35 37 35 33 32 30 37 41 38 40 36 37 37 36 36 34 32 33 29 36 35 37 50 56 58 58 59 60 62 60 60 60 58 59 62 59 -193 -193 52 55 -209 -193 52 49 46 45 44 41 41 42 43 41 40 41 41 41 42 44 43 41 42 47 44 43 43 43 43 43 44 44 42 44 47 46 46 46 50 48 50 51 49 51 53 55 55 55 57 61 63 64 63 62 62 65 66 61 62 62 61 61 61 60 60 60 61 59 59 60 59 59 61 60 58 -225 -225 -225 -225 -225 -225 29 32 35 -193 36 30 -193 0 0 0 0 0
    0 0 0 0 0 0 0 0 0 0 0 0 0 0 0 0 0 0 0 0 0 0 0 0 0 0 0 0 0 0 0 0 0 0 0 0 0 0 0 0 0 0 0 0 0 0 0 0 0 0 0 0 0 0 0 0 0 0 0 0 0 0 0 0 0 0 0 0 0 31 -193 29 -193 -193 22 24 28 32 28 35 27 27 37 31 31 -193 32 32 32 33 34 28 35 35 28 -209 -209 -209 -193 36 -193 -209 -193 -209 -209 29 -209 -193 30 -193 -209 -209 -209 -209 -193 40 44 42 41 34 37 33 32 33 32 31 30 -193 29 26 28 29 28 29 30 31 33 34 32 32 31 34 32 31 31 32 30 31 34 32 34 31 34 33 30 31 31 28 31 29 34 28 36 31 30 37 32 32 32 31 30 29 31 31 25 26 27 25 20 31 -209 -209 -193 -209 36 37 37 36 37 37 38 36 33 33 30 38 41 39 40 36 37 37 36 36 34 32 34 30 37 37 39 54 58 59 59 59 59 61 61 60 60 59 60 62 61 -193 -193 53 57 -209 -209 54 52 49 48 47 43 42 42 44 42 41 41 42 42 43 45 44 41 42 47 44 43 43 43 43 43 44 44 43 45 47 47 47 47 51 50 51 52 52 54 56 59 58 58 60 64 66 66 65 63 61 66 67 62 63 63 61 61 61 60 60 59 60 59 59 59 59 58 60 59 58 -209 -225 -225 -225 -225 29 32 33 35 36 36 29 -193 0 0 0 0 0
    0 0 0 0 0 0 0 0 0 0 0 0 0 0 0 0 0 0 0 0 0 0 0 0 0 0 0 0 0 0 0 0 0 0 0 0 0 0 0 0 0 0 0 0 0 0 0 0 0 0 0 0 0 0 0 0 0 0 0 0 0 0 0 0 0 0 0 0 0 -193 -193 -193 -193 -209 -193 27 30 33 32 37 29 28 37 32 31 655 33 32 32 33 34 28 35 35 -193 -193 -209 -209 -209 -209 -209 27 27 29 -193 28 -209 -193 28 -193 -209 -209 -209 -209 -193 42 47 44 42 35 37 33 32 32 31 30 29 -193 29 26 29 31 29 32 34 33 34 35 33 33 32 34 32 31 33 34 31 32 35 34 35 33 35 33 30 30 30 27 29 29 37 32 37 32 29 37 32 31 31 30 30 28 30 32 25 28 29 27 -193 35 36 34 34 35 36 37 37 36 37 36 38 35 33 32 29 38 40 39 40 36 37 37 36 36 34 33 34 31 38 39 42 56 59 59 60 60 59 61 61 61 60 60 61 63 62 -193 -209 53 58 -209 -209 -209 -209 -209 -209 50 -193 43 43 45 42 42 42 43 43 44 48 46 42 42 47 45 43 43 43 43 43 44 44 43 45 48 48 48 48 52 51 53 54 55 56 59 63 61 61 62 65 66 65 64 62 58 64 68 62 63 63 61 62 62 60 60 59 60 59 58 59 58 58 60 59 57 -209 -225 -225 -225 -225 -225 -225 34 35 35 35 30 31 0 0 0 0 0
    0 0 0 0 0 0 0 0 0 0 0 0 0 0 0 0 0 0 0 0 0 0 0 0 0 0 0 0 0 0 0 0 0 0 0 0 0 0 0 0 0 0 0 0 0 0 0 0 0 0 0 0 0 0 0 0 0 0 0 0 0 0 0 0 0 0 0 0 0 -209 -193 -209 -209 -209 -193 -209 -193 -193 -193 -193 31 30 37 32 32 35 33 33 32 33 34 28 35 35 -193 -209 -209 -209 -209 -193 32 26 27 28 25 27 -209 -193 28 -193 -209 -209 -209 -193 45 45 51 45 43 35 37 33 31 32 31 29 29 -193 28 26 29 32 30 33 35 34 34 35 33 34 32 34 32 32 34 35 34 35 36 36 37 36 37 38 32 30 30 28 33 36 40 38 38 33 26 37 31 31 31 30 29 28 30 32 26 30 31 28 28 35 34 35 34 34 35 36 36 36 36 36 37 33 31 31 28 38 39 39 40 36 37 37 36 36 34 33 34 31 39 40 46 57 59 60 60 60 60 62 62 61 61 61 63 65 64 -193 -209 -209 -209 -209 -193 -209 -209 -209 -209 -209 -209 44 43 44 42 42 43 45 44 46 52 -193 43 43 47 45 43 43 43 43 42 44 44 43 46 48 48 48 50 52 52 54 55 57 58 62 67 63 63 64 65 66 65 64 61 57 63 69 62 63 63 61 62 62 60 60 59 60 59 59 59 59 58 60 60 58 -209 -225 -225 -225 -225 -225 -225 34 34 35 35 31 32 0 0 0 0 0
    0 0 0 0 0 0 0 0 0 0 0 0 0 0 0 0 0 0 0 0 0 0 0 0 0 0 0 0 0 0 0 0 0 0 0 0 0 0 0 0 0 0 0 0 0 0 0 0 0 0 0 0 0 0 0 0 0 0 0 0 0 0 0 0 0 0 0 0 0 -209 -209 -209 -209 -209 -209 -193 -209 -209 -209 -209 32 30 37 32 32 35 33 33 32 34 34 29 36 35 -193 -209 -209 -209 -193 -193 29 25 27 27 25 27 -193 -193 29 29 -193 -209 34 40 42 39 45 43 41 35 36 33 31 32 31 30 29 27 28 26 29 34 31 34 34 33 34 35 34 35 34 35 34 34 36 37 37 38 38 39 39 39 40 41 38 33 34 34 37 40 42 42 40 -209 24 37 30 30 30 30 29 29 30 32 27 32 32 30 29 34 32 32 33 32 32 34 32 33 34 34 35 31 31 31 28 38 39 38 39 36 37 37 36 36 34 33 35 31 40 48 56 58 60 61 61 61 60 62 62 60 61 61 64 65 64 62 -209 -209 -209 -209 -193 -209 118 -209 -209 -209 -209 -193 44 45 -193 -193 42 45 45 47 -193 -209 44 43 47 45 43 43 43 42 42 44 43 43 46 48 48 49 51 53 54 55 56 58 60 63 67 63 63 63 65 66 64 64 62 56 63 69 62 63 63 61 61 62 61 60 59 60 59 59 60 59 59 60 60 58 -209 -225 -225 -225 -225 -225 -225 -225 36 36 36 34 33 0 0 0 0 0
    0 0 0 0 0 0 0 0 0 0 0 0 0 0 0 0 0 0 0 0 0 0 0 0 0 0 0 0 0 0 0 0 0 0 0 0 0 0 0 0 0 0 0 0 0 0 0 0 0 0 0 0 0 0 0 0 0 0 0 0 0 0 0 0 0 0 0 0 0 -209 -209 -209 -209 -209 -209 -209 -209 -209 -209 -193 33 32 37 33 32 35 34 33 32 34 34 29 36 36 -209 -209 -209 -209 -209 -209 -209 22 27 26 -209 -209 -209 -209 -209 -193 -209 -209 33 37 39 37 40 41 41 35 37 34 32 32 31 30 30 27 28 26 30 35 33 34 35 33 34 35 34 35 34 35 36 36 38 38 39 39 38 39 37 37 36 37 35 33 33 34 32 38 39 42 40 -193 24 37 30 29 31 31 30 30 31 34 29 35 34 32 32 36 33 34 33 33 33 34 32 32 33 34 34 30 30 30 29 38 38 38 40 36 37 37 37 37 35 35 37 35 43 57 58 59 61 61 61 62 60 63 63 61 62 63 68 69 68 65 -209 -209 -193 78 -209 -209 -209 -209 -209 -209 -209 -209 -209 -193 110 109 -193 -209 -209 -209 -209 -209 -209 43 47 46 42 43 42 41 41 43 42 43 47 50 50 51 54 56 57 57 58 60 61 63 66 64 62 63 65 65 63 63 63 54 -209 70 62 62 63 61 61 61 61 60 59 60 59 59 60 60 59 61 61 -193 -209 -225 -225 -225 -225 -225 -225 -225 -225 37 36 34 30 0 0 0 0 0
    0 0 0 0 0 0 0 0 0 0 0 0 0 0 0 0 0 0 0 0 0 0 0 0 0 0 0 0 0 0 0 0 0 0 0 0 0 0 0 0 0 0 0 0 0 0 0 0 0 0 0 0 0 0 0 0 0 0 0 0 0 0 0 0 0 0 0 0 0 -209 -209 -209 -209 -209 -209 -209 -209 -209 -209 -193 32 32 37 33 33 35 34 33 32 34 34 29 36 36 -209 -209 -209 -209 -209 -209 -209 -209 -209 -209 -209 -209 -193 -193 -209 -209 -209 -209 31 34 36 36 38 39 40 35 37 34 32 32 31 30 30 -193 -193 27 31 36 34 35 35 34 34 35 35 35 35 35 37 37 38 38 38 39 37 38 36 36 35 35 34 33 32 34 31 37 36 41 39 -193 24 37 30 30 32 32 31 32 34 36 32 37 37 36 36 37 35 34 33 34 34 34 31 30 32 33 31 29 28 29 29 38 38 38 40 37 38 38 38 38 37 37 39 39 48 58 60 60 61 61 62 62 60 63 64 60 63 66 70 70 69 68 -193 71 69 74 74 -209 -209 -209 -209 -209 -209 -209 -209 -209 -193 -193 -193 -209 -209 -209 -209 -209 -209 -209 -209 -209 -209 -209 -209 -209 43 52 51 53 55 56 55 57 58 62 61 60 61 63 62 63 65 63 62 63 65 65 62 63 63 54 -209 70 62 62 62 60 60 61 60 60 59 60 59 59 60 60 59 60 61 -209 -209 -225 -225 -225 -225 -225 -225 -225 -225 39 -193 -193 -193 0 0 0 0 0
    0 0 0 0 0 0 0 0 0 0 0 0 0 0 0 0 0 0 0 0 0 0 0 0 0 0 0 0 0 0 0 0 0 0 0 0 0 0 0 0 0 0 0 0 0 0 0 0 0 0 0 0 0 0 0 0 0 0 0 0 0 0 0 0 0 0 0 0 0 -209 -209 -209 -209 -209 -209 -209 -209 -209 -209 -193 33 33 37 33 33 35 34 33 32 34 34 29 36 35 -209 -209 -209 -209 -209 -209 -209 -209 -193 -209 -209 -209 -193 -209 -209 -193 -193 -209 33 33 35 36 38 38 40 36 37 34 32 32 31 30 29 -193 -193 -193 31 36 35 36 36 35 35 36 36 36 36 36 37 37 38 37 37 39 37 38 36 36 36 35 35 34 33 34 31 37 34 39 39 -193 24 36 29 30 33 33 34 34 36 37 34 38 38 36 36 36 34 32 32 32 31 32 28 27 30 31 29 28 28 28 29 37 37 38 40 37 39 39 38 39 38 39 41 42 52 58 60 60 61 62 62 62 61 63 64 59 63 66 69 70 68 68 64 62 65 69 66 64 -209 -209 -209 -209 -209 -209 -209 -209 -193 -209 -209 -209 -209 -193 -209 -209 -209 -209 -209 -209 -209 -209 -209 -209 -209 -193 67 66 63 64 61 64 63 66 63 62 62 63 63 62 64 63 61 61 63 63 59 61 62 -193 -209 -209 60 60 61 59 60 60 60 60 58 59 59 59 60 59 58 59 -193 -193 -209 -225 -225 -225 -225 -225 -225 -225 -225 -225 -193 -193 -193 0 0 0 0 0
    0 0 0 0 0 0 0 0 0 0 0 0 0 0 0 0 0 0 0 0 0 0 0 0 0 0 0 0 0 0 0 0 0 0 0 0 0 0 0 0 0 0 0 0 0 0 0 0 0 0 0 0 0 0 0 0 0 0 0 0 0 0 0 0 0 0 0 0 0 -209 -209 -209 -209 -209 -193 27 -193 -209 -209 -193 33 34 37 33 33 35 34 33 31 34 33 28 35 34 -209 -209 -209 -209 -209 -209 -209 -209 -193 -209 -209 -209 -193 -209 -209 -193 -193 -193 35 36 36 37 38 38 39 36 37 34 31 32 31 29 29 -177 -193 -193 30 38 36 37 38 36 36 37 37 37 37 37 37 36 38 37 37 38 36 37 35 35 35 35 34 33 33 34 31 36 33 35 38 28 24 35 29 31 33 34 35 35 37 37 36 39 38 36 36 35 33 30 31 30 29 31 27 26 30 31 28 27 27 29 30 37 37 38 40 38 39 40 39 40 40 41 46 49 54 58 61 61 62 62 62 62 61 63 65 59 64 65 67 68 67 67 63 62 64 65 62 61 -193 -209 -209 -209 -209 -209 -193 -193 -193 -193 62 62 -193 65 -193 -193 -193 -209 65 66 67 66 68 70 68 70 68 66 65 65 63 66 64 66 63 62 62 63 62 61 62 61 59 60 62 61 57 59 60 52 55 -193 58 59 59 59 59 60 60 59 58 59 59 59 60 60 58 59 -193 -209 -209 -225 -225 -225 -225 -225 -225 -225 -225 -225 -225 -225 -193 0 0 0 0 0
    0 0 0 0 0 0 0 0 0 0 0 0 0 0 0 0 0 0 0 0 0 0 0 0 0 0 0 0 0 0 0 0 0 0 0 0 0 0 0 0 0 0 0 0 0 0 0 0 0 0 0 0 0 0 0 0 0 0 0 0 0 0 0 0 0 0 0 0 0 -209 -209 -209 -209 -209 -209 29 30 -209 -209 38 33 33 37 33 33 35 33 33 31 34 33 28 35 34 -209 -209 -209 -209 -209 -209 -209 -209 -209 -209 -209 -193 -193 -209 -209 -209 -209 35 34 36 36 36 37 38 39 36 37 35 31 32 30 29 28 -177 -177 -193 29 39 38 38 39 36 37 38 37 38 38 37 38 36 38 37 36 37 36 37 34 34 35 34 34 33 33 34 30 36 33 34 38 -209 25 36 29 31 34 35 -193 36 38 38 37 40 39 37 37 36 34 30 31 29 27 29 26 26 31 30 27 26 27 29 30 37 37 39 41 40 40 41 41 41 42 43 51 54 56 58 62 61 62 63 63 62 61 64 65 59 64 64 66 67 66 66 64 62 63 63 62 -193 -193 -193 -209 -193 -209 -209 60 60 62 63 62 61 61 62 60 64 63 62 64 66 68 -193 -193 -209 70 71 69 67 67 66 64 67 65 66 63 61 61 62 61 60 60 59 58 58 58 57 55 56 57 51 54 -193 57 58 58 58 59 59 60 59 58 60 59 60 61 61 59 60 60 -193 -209 -225 -225 -225 -225 -225 -225 -225 -225 -225 -225 -225 -209 0 0 0 0 0
    0 0 0 0 0 0 0 0 0 0 0 0 0 0 0 0 0 0 0 0 0 0 0 0 0 0 0 0 0 0 0 0 0 0 0 0 0 0 0 0 0 0 0 0 0 0 0 0 0 0 0 0 0 0 0 0 0 0 0 0 0 0 0 0 0 0 0 0 0 -209 -209 -209 -209 -209 -209 28 29 -193 -209 38 33 34 37 33 33 35 33 32 31 34 33 28 35 35 -209 -209 -209 -209 -209 -193 -209 -209 -209 -209 -209 -209 -193 -209 501 -209 -209 -209 35 35 35 35 36 37 39 37 37 35 32 33 31 30 28 -177 -177 -193 29 39 38 39 40 37 37 38 37 38 37 37 38 36 38 37 36 38 36 37 35 34 35 34 34 33 32 34 30 35 32 30 38 32 27 36 30 33 35 36 37 37 38 39 38 40 39 37 37 36 34 31 32 28 24 -193 23 25 29 27 26 26 27 29 30 37 38 40 42 41 42 43 43 44 45 46 54 56 57 59 63 62 63 62 63 62 62 64 64 59 64 64 66 67 66 66 64 63 62 62 61 61 -193 -193 -209 -193 -193 -193 61 61 62 62 63 62 62 63 60 64 64 63 64 66 68 68 -193 70 70 71 70 70 70 70 68 69 67 67 64 61 61 61 60 59 58 57 55 55 55 55 54 55 55 51 54 64 56 57 58 57 58 59 60 59 59 60 60 60 62 62 60 61 62 -193 -209 -225 -225 -225 -225 -225 -225 -225 -225 -225 -225 -225 -193 0 0 0 0 0
    0 0 0 0 0 0 0 0 0 0 0 0 0 0 0 0 0 0 0 0 0 0 0 0 0 0 0 0 0 0 0 0 0 0 0 0 0 0 0 0 0 0 0 0 0 0 0 0 0 0 0 0 0 0 0 0 0 0 0 0 0 0 0 0 0 0 0 0 0 -209 -209 -209 -209 -209 -209 -209 27 -209 -209 38 34 34 37 34 34 35 34 33 31 34 33 28 35 35 -209 -209 -209 -209 -209 -193 -209 -209 -209 -193 -193 -209 536 -193 -193 -209 -209 -209 35 36 35 35 35 36 38 36 37 35 32 33 31 31 29 -193 -193 -193 30 37 37 38 40 37 37 39 37 38 37 37 38 36 37 37 36 38 36 38 35 34 36 35 35 33 33 34 30 36 33 30 37 33 30 37 31 33 36 37 37 37 38 38 37 39 39 37 36 36 33 31 32 -193 14 24 20 -209 28 27 27 26 28 32 35 39 39 42 44 44 45 46 47 48 49 51 55 57 57 59 65 62 63 63 63 62 62 64 64 59 63 63 65 67 65 66 63 63 62 62 61 61 60 60 59 63 61 66 62 62 63 63 64 63 63 64 61 65 66 65 65 66 67 67 68 68 69 70 69 70 70 70 69 70 67 67 65 61 61 61 59 59 57 56 53 52 52 53 52 53 54 52 54 62 56 57 57 57 57 59 59 59 59 60 60 61 62 63 61 61 61 -193 -193 -225 -225 -225 -225 -225 -225 -225 -225 -225 -225 -225 -225 0 0 0 0 0
    0 0 0 0 0 0 0 0 0 0 0 0 0 0 0 0 0 0 0 0 0 0 0 0 0 0 0 0 0 0 0 0 0 0 0 0 0 0 0 0 0 0 0 0 0 0 0 0 0 0 0 0 0 0 0 0 0 0 0 0 0 0 0 0 0 0 0 0 0 -193 -209 -209 -209 -209 -193 -193 27 29 -209 38 34 34 37 33 33 35 34 32 31 33 33 28 35 34 -209 -209 -193 -193 -193 -193 -209 -209 -209 540 540 539 538 -193 -209 -209 -209 -193 33 35 33 34 34 36 37 36 37 35 33 35 32 32 29 -193 28 26 30 36 35 37 38 37 37 39 38 38 38 37 39 37 38 37 36 38 37 37 35 34 36 35 35 33 33 34 30 36 32 30 37 32 31 37 31 34 36 37 37 37 38 38 37 39 38 36 36 36 34 31 33 -193 0 -209 -209 -209 -209 32 30 27 33 38 39 40 41 43 46 46 48 49 49 51 52 53 56 57 58 59 65 62 63 63 63 62 63 64 65 59 63 62 63 66 64 65 62 61 62 62 61 61 60 61 60 63 63 66 63 63 64 64 65 64 63 64 61 65 65 64 64 64 65 66 66 66 68 68 69 69 69 70 69 70 67 67 65 61 61 61 59 58 56 55 52 50 50 50 48 50 51 51 53 59 56 56 57 57 57 59 59 59 59 60 60 60 62 63 61 61 62 -193 -193 -225 -225 -225 -225 -225 -225 -225 -225 -225 -225 -225 -225 0 0 0 0 0
    0 0 0 0 0 0 0 0 0 0 0 0 0 0 0 0 0 0 0 0 0 0 0 0 0 0 0 0 0 0 0 0 0 0 0 0 0 0 0 0 0 0 0 0 0 0 0 0 0 0 0 0 0 0 0 0 0 0 0 0 0 0 0 0 0 0 0 0 0 -209 -209 -209 -209 -209 26 32 30 33 36 38 34 34 38 34 34 35 34 32 31 33 33 28 35 34 29 32 33 34 33 -193 31 27 -193 -209 -209 -209 -209 -193 -209 -209 -209 31 32 35 33 34 34 36 37 36 37 35 33 35 33 33 30 28 29 26 30 35 33 35 38 37 36 38 37 38 37 37 39 36 37 37 36 38 36 37 35 33 36 34 34 33 33 34 30 35 32 29 37 32 31 37 31 34 37 37 37 37 39 38 37 39 39 37 37 36 34 32 33 -193 0 -209 -209 -209 -209 -209 38 37 39 41 41 42 42 45 49 49 51 51 52 53 54 54 57 57 58 58 65 62 63 63 64 63 63 64 65 60 63 62 62 65 63 63 61 61 61 62 61 61 60 61 60 63 63 65 63 63 64 65 65 64 64 64 62 65 65 64 64 64 65 65 65 64 67 67 68 67 68 69 68 70 67 67 65 62 61 61 59 58 56 55 51 50 49 49 47 48 49 51 53 58 56 56 57 57 57 59 59 59 59 60 61 60 63 63 62 62 63 -193 -209 -225 -225 -225 -225 -225 -225 -225 -225 -225 -225 -225 -225 0 0 0 0 0
    0 0 0 0 0 0 0 0 0 0 0 0 0 0 0 0 0 0 0 0 0 0 0 0 0 0 0 0 0 0 0 0 0 0 0 0 0 0 0 0 0 0 0 0 0 0 0 0 0 0 0 0 0 0 0 0 0 0 0 0 0 0 0 0 0 0 0 0 0 30 -193 29 28 30 28 31 31 33 33 37 33 34 38 34 33 35 33 32 31 33 33 28 34 33 28 32 34 34 34 32 31 27 27 24 -193 -193 -209 29 32 33 -209 30 32 35 32 34 33 35 36 35 37 35 33 35 32 32 -193 29 29 26 29 34 31 34 38 37 36 38 37 37 37 37 38 35 36 36 35 37 36 37 34 32 36 35 35 33 33 34 30 35 33 30 37 31 30 36 31 33 36 36 37 37 38 38 37 39 39 36 37 36 34 31 32 -193 0 -209 -209 -209 -209 36 38 38 40 42 42 43 43 46 49 50 51 51 53 54 55 55 57 57 57 57 64 61 63 63 64 63 64 65 65 60 63 61 62 64 62 62 60 61 62 62 61 61 60 61 61 64 63 65 63 63 64 64 65 64 64 64 62 64 65 64 64 64 64 64 64 63 65 64 66 66 66 68 68 70 67 67 66 63 62 61 60 59 56 55 52 51 49 48 47 47 48 50 52 58 56 56 57 57 57 59 59 59 59 60 61 61 63 63 62 62 64 61 -193 -225 -225 -225 -225 -225 -225 -225 -225 -225 -225 -225 -225 0 0 0 0 0
    0 0 0 0 0 0 0 0 0 0 0 0 0 0 0 0 0 0 0 0 0 0 0 0 0 0 0 0 0 0 0 0 0 0 0 0 0 0 0 0 0 0 0 0 0 0 0 0 0 0 0 0 0 0 0 0 0 0 0 0 0 0 0 0 0 0 0 0 0 28 26 29 29 29 28 30 30 32 30 35 31 32 37 33 33 35 32 32 31 32 33 28 33 32 28 31 34 33 33 32 32 30 30 28 -193 -193 27 32 34 38 -193 30 33 36 33 34 34 35 35 35 38 35 33 35 32 32 -193 29 29 26 28 33 29 33 37 37 36 38 36 37 37 37 38 35 35 36 34 36 36 37 34 32 36 35 35 34 34 34 30 36 35 30 36 31 29 35 30 32 35 35 36 35 37 37 36 38 37 35 35 35 34 31 32 -193 -193 33 -209 -209 -209 36 38 39 42 42 42 43 43 47 48 49 51 50 53 54 55 54 56 57 57 57 64 61 63 63 64 63 64 64 64 60 62 60 61 64 62 62 60 61 62 62 62 61 60 61 61 64 63 65 63 64 64 65 65 64 63 64 61 63 64 63 63 63 63 64 63 62 64 63 66 66 65 68 69 70 68 67 66 64 63 61 60 59 56 55 53 52 49 47 47 46 46 48 51 57 56 56 57 57 57 59 60 59 59 60 61 61 63 64 62 62 66 61 60 -225 -225 -225 -225 -225 -225 -225 -225 -225 -225 -225 -225 0 0 0 0 0
    0 0 0 0 0 0 0 0 0 0 0 0 0 0 0 0 0 0 0 0 0 0 0 0 0 0 0 0 0 0 0 0 0 0 0 0 0 0 0 0 0 0 0 0 0 0 0 0 0 0 0 0 0 0 0 0 0 0 0 0 0 0 0 0 0 0 0 0 0 27 26 29 30 30 29 29 30 31 28 33 28 29 36 33 32 34 32 31 31 32 32 27 32 31 28 30 33 33 32 31 31 31 31 31 31 -209 31 35 34 39 -193 30 31 35 33 34 34 35 35 35 37 35 32 35 32 31 -193 29 29 26 27 32 28 31 37 37 36 38 36 37 37 37 38 35 35 35 34 36 35 37 34 32 37 36 36 35 35 35 31 37 36 31 36 31 29 35 30 32 35 34 34 34 36 37 35 37 37 34 35 36 34 32 32 -193 -193 37 -209 -209 38 37 40 40 45 43 42 43 43 46 47 49 50 49 54 54 55 54 56 56 56 56 63 60 63 62 64 63 64 64 64 59 62 60 60 63 61 62 60 61 62 62 62 62 61 61 61 64 63 65 64 64 64 65 65 65 64 64 62 64 64 63 62 63 63 63 62 61 63 63 66 66 66 69 69 70 68 67 66 64 64 62 60 59 56 55 54 53 49 47 47 45 44 46 49 57 56 56 58 57 58 60 60 59 59 60 61 61 63 64 62 63 67 64 -225 -225 -225 -225 -225 -225 -225 -225 -225 -225 -225 -225 -225 0 0 0 0 0
    0 0 0 0 0 0 0 0 0 0 0 0 0 0 0 0 0 0 0 0 0 0 0 0 0 0 0 0 0 0 0 0 0 0 0 0 0 0 0 0 0 0 0 0 0 0 0 0 0 0 0 0 0 0 0 0 0 0 0 0 0 0 0 0 0 0 0 0 0 27 27 30 32 31 29 30 30 30 27 31 26 28 36 32 31 33 31 31 30 31 32 27 31 31 28 30 33 32 32 31 31 30 30 30 30 28 -209 32 29 38 34 30 30 33 31 34 35 35 35 35 38 35 34 36 33 31 30 29 30 26 28 31 28 31 37 37 35 37 36 37 37 37 38 35 35 35 34 36 36 37 34 31 36 36 36 35 35 34 31 37 36 31 36 32 28 35 31 31 35 34 33 33 34 36 33 36 36 32 35 37 35 34 33 34 36 38 -209 -209 37 37 41 40 45 42 41 42 42 45 45 45 48 47 53 53 54 54 55 55 55 56 62 59 62 61 63 63 64 64 64 59 61 60 60 63 61 61 60 61 62 62 62 62 61 62 61 64 63 65 64 64 65 65 66 65 64 65 62 64 65 64 62 62 63 63 62 60 62 62 65 66 66 68 70 70 68 67 67 66 64 62 61 59 56 55 55 54 49 47 47 46 44 47 50 -225 59 57 59 58 58 60 60 60 59 60 61 61 63 64 63 64 68 65 -225 -225 -225 -225 -225 -225 -225 -225 -225 -225 -225 -225 -225 0 0 0 0 0
    0 0 0 0 0 0 0 0 0 0 0 0 0 0 0 0 0 0 0 0 0 0 0 0 0 0 0 0 0 0 0 0 0 0 0 0 0 0 0 0 0 0 0 0 0 0 0 0 0 0 0 0 0 0 0 0 0 0 0 0 0 0 0 0 0 0 0 0 0 27 26 31 33 32 30 31 31 31 27 29 25 27 35 31 31 32 31 30 30 31 32 27 30 30 27 29 32 32 31 30 30 29 28 28 29 27 26 32 31 37 34 31 31 32 31 34 35 34 35 35 38 35 34 36 33 31 31 30 31 27 28 30 28 31 36 36 35 36 35 37 36 36 38 34 35 35 34 35 36 36 34 31 36 35 36 35 35 33 32 37 36 31 35 33 28 36 31 31 34 33 32 32 32 35 31 35 34 30 34 36 35 34 34 37 39 -193 -209 -193 37 36 41 40 41 41 40 40 41 43 43 43 46 46 52 52 54 53 54 55 55 56 61 59 62 61 63 63 64 64 63 59 61 60 60 63 61 61 60 61 62 62 62 62 61 62 62 64 63 66 64 65 66 66 66 66 65 66 63 65 65 64 62 62 62 62 61 60 61 61 64 65 65 68 70 70 68 67 67 66 65 62 61 60 57 56 55 55 50 47 47 46 44 46 -225 -225 62 58 60 58 58 60 60 59 59 60 61 60 62 63 62 62 67 62 -225 -225 -225 -225 -225 -225 -225 -225 -225 -225 -225 -225 -225 0 0 0 0 0
    0 0 0 0 0 0 0 0 0 0 0 0 0 0 0 0 0 0 0 0 0 0 0 0 0 0 0 0 0 0 0 0 0 0 0 0 0 0 0 0 0 0 0 0 0 0 0 0 0 0 0 0 0 0 0 0 0 0 0 0 0 0 0 0 0 0 0 0 0 26 26 30 32 31 30 31 31 31 26 28 25 26 34 31 30 31 30 30 30 31 32 27 31 30 27 30 32 32 31 30 30 29 28 28 31 29 30 34 34 37 34 32 32 34 32 35 35 34 34 34 38 35 34 35 32 31 31 31 31 27 29 30 28 30 36 36 35 36 35 37 36 37 38 35 36 35 35 35 36 36 34 31 35 35 36 36 35 33 34 38 37 34 35 36 28 36 31 31 34 32 32 32 32 34 30 34 34 29 33 35 34 33 32 36 38 39 -209 -209 36 36 40 41 42 41 40 40 40 42 43 43 45 46 52 52 54 54 54 55 55 55 61 58 61 61 62 62 63 63 63 59 60 59 59 62 61 61 60 61 63 63 63 62 61 62 62 64 63 65 64 65 66 66 66 66 66 66 63 66 65 64 62 61 61 61 60 59 59 60 62 63 62 67 69 70 68 66 66 67 66 63 62 60 58 57 56 56 51 47 47 45 45 46 -225 -225 59 58 61 59 59 60 60 59 59 59 60 59 61 61 60 61 66 63 -225 -225 -225 -225 -225 -225 -225 -225 -225 -225 -225 -225 -225 0 0 0 0 0
    0 0 0 0 0 0 0 0 0 0 0 0 0 0 0 0 0 0 0 0 0 0 0 0 0 0 0 0 0 0 0 0 0 0 0 0 0 0 0 0 0 0 0 0 0 0 0 0 0 0 0 0 0 0 0 0 0 0 0 0 0 0 0 0 0 0 0 0 0 26 26 29 31 30 29 30 31 30 26 27 24 26 33 30 29 31 30 30 30 31 32 27 31 30 27 30 33 32 31 31 31 31 31 30 34 31 32 34 34 36 33 32 32 32 32 35 35 34 34 35 38 35 34 35 32 31 31 31 31 27 29 30 28 30 36 37 35 36 36 37 36 37 38 35 36 35 35 34 36 36 34 32 35 35 36 36 36 33 35 38 37 34 34 37 28 36 31 31 34 32 32 32 32 35 30 35 34 28 34 35 35 31 31 36 38 38 -193 -193 34 35 39 42 43 41 -193 40 40 42 43 43 45 46 51 52 53 54 54 55 55 55 60 58 61 60 61 62 63 63 62 58 60 59 59 61 60 61 60 61 63 63 63 62 61 62 62 65 64 65 64 65 66 66 66 66 65 66 63 65 64 63 62 61 61 61 59 59 60 61 63 63 63 -193 70 70 69 67 67 68 67 64 62 61 58 57 57 57 52 47 48 45 45 46 -225 -225 57 57 60 59 59 60 60 59 59 59 60 59 60 61 59 60 68 -209 -225 -225 -225 -225 -225 -225 -225 -225 -225 -225 -225 -225 -225 0 0 0 0 0
    0 0 0 0 0 0 0 0 0 0 0 0 0 0 0 0 0 0 0 0 0 0 0 0 0 0 0 0 0 0 0 0 0 0 0 0 0 0 0 0 0 0 0 0 0 0 0 0 0 0 0 0 0 0 0 0 0 0 0 0 0 0 0 0 0 0 0 0 0 -193 26 29 31 30 29 29 31 30 25 27 23 25 32 29 29 30 30 30 30 32 32 27 32 31 28 31 35 35 34 33 34 34 34 -193 34 30 31 33 34 36 33 32 33 32 34 37 37 35 34 35 38 35 35 35 32 31 31 32 31 27 29 30 29 31 37 37 35 35 -193 36 36 37 37 34 35 35 35 34 36 36 34 33 36 35 36 36 35 32 33 37 35 33 32 38 29 35 31 32 34 32 32 32 31 35 30 35 33 28 35 35 35 31 31 37 38 38 38 35 33 33 38 41 42 -193 -193 40 40 43 43 43 45 46 52 51 53 54 54 55 55 55 60 58 60 60 61 61 62 62 61 58 59 58 59 61 60 61 60 62 63 62 63 62 61 62 62 65 64 66 65 65 66 66 66 66 65 67 63 65 65 64 62 62 62 61 60 59 61 62 63 -193 -193 -193 70 71 69 68 67 69 67 64 63 61 58 57 57 57 51 48 48 45 46 46 -225 -225 57 56 59 58 58 59 59 58 59 59 59 58 59 59 58 58 63 -209 -225 -225 -225 -225 -225 -225 -225 -225 -225 -225 -225 -225 -225 0 0 0 0 0
    0 0 0 0 0 0 0 0 0 0 0 0 0 0 0 0 0 0 0 0 0 0 0 0 0 0 0 0 0 0 0 0 0 0 0 0 0 0 0 0 0 0 0 0 0 0 0 0 0 0 0 0 0 0 0 0 0 0 0 0 0 0 0 0 0 0 0 0 0 -193 26 29 30 29 29 29 30 29 25 26 22 25 31 29 29 30 30 30 30 31 32 26 31 31 28 31 35 36 35 35 35 36 35 -193 -193 29 30 32 34 35 32 32 33 33 35 38 37 35 35 37 39 35 35 35 32 31 32 32 32 28 31 31 31 34 37 37 35 35 336 37 36 37 36 34 36 35 35 35 36 36 34 34 35 35 36 36 34 31 33 36 34 32 30 39 29 36 31 32 34 32 32 32 31 34 30 35 33 29 37 37 37 33 35 40 40 40 39 35 32 32 38 40 40 -193 -193 39 40 42 42 43 44 46 -193 51 53 54 54 55 55 55 59 57 59 59 60 60 61 61 61 58 59 58 59 61 60 61 60 63 63 63 63 63 63 63 63 66 64 67 65 65 66 66 66 66 65 67 63 66 65 65 63 62 62 61 59 59 60 62 -193 -193 -193 -193 -193 71 69 68 67 69 67 64 63 61 58 58 57 57 51 48 48 44 45 43 -225 -225 56 55 57 57 57 57 59 58 58 57 57 57 57 56 52 -209 -209 -209 -225 -193 -225 -225 -225 -225 -225 -225 -225 -225 -225 -225 -225 0 0 0 0 0
    0 0 0 0 0 0 0 0 0 0 0 0 0 0 0 0 0 0 0 0 0 0 0 0 0 0 0 0 0 0 0 0 0 0 0 0 0 0 0 0 0 0 0 0 0 0 0 0 0 0 0 0 0 0 0 0 0 0 0 0 0 0 0 0 0 0 0 0 0 27 27 29 30 29 29 28 29 28 24 25 22 24 31 29 29 30 30 30 30 31 31 26 30 31 28 30 35 36 36 36 36 37 36 -193 35 -193 30 33 34 34 32 32 33 32 36 37 37 35 35 37 39 35 35 34 33 32 33 33 33 28 32 32 32 35 37 36 36 36 336 37 36 37 36 35 36 35 35 35 36 35 33 34 35 34 36 36 34 31 34 35 33 31 31 39 31 36 32 33 34 32 32 32 31 34 30 35 32 30 37 37 37 33 36 41 41 41 39 35 33 32 38 39 39 -193 -193 38 39 41 42 42 44 46 -193 50 53 54 54 55 55 55 59 57 59 59 60 59 60 60 60 57 59 58 59 60 60 62 61 63 63 63 63 63 63 64 62 65 64 67 65 66 67 67 67 67 66 67 63 66 65 65 63 63 62 62 59 59 60 -193 -193 -193 -193 -193 70 70 69 67 67 69 66 64 63 61 58 57 57 57 51 48 47 44 47 43 -225 48 53 54 55 55 56 56 58 57 57 56 55 55 55 52 43 -193 -193 -209 -225 -225 -225 -225 -225 -225 -225 -225 -225 -225 -225 -225 -225 0 0 0 0 0
    0 0 0 0 0 0 0 0 0 0 0 0 0 0 0 0 0 0 0 0 0 0 0 0 0 0 0 0 0 0 0 0 0 0 0 0 0 0 0 0 0 0 0 0 0 0 0 0 0 0 0 0 0 0 0 0 0 0 0 0 0 0 0 0 0 0 0 0 0 28 27 29 30 29 29 28 29 27 24 25 23 25 31 29 29 30 30 30 31 32 32 27 32 32 28 31 36 37 36 36 37 -193 -193 -193 -193 -193 29 32 32 32 31 31 31 31 35 36 35 35 36 37 39 35 35 34 33 33 33 33 33 29 33 33 32 36 36 35 35 35 336 36 36 37 35 35 36 35 35 35 36 35 33 35 34 34 35 35 32 30 34 34 31 31 32 39 32 36 32 34 34 33 33 33 31 34 30 35 31 31 36 36 36 32 37 41 42 42 40 36 33 33 39 39 38 -193 38 38 39 41 41 42 43 46 -193 49 52 53 53 55 55 55 59 57 59 59 59 59 60 60 60 58 59 59 59 60 61 62 61 62 63 63 63 63 64 64 63 65 64 67 65 66 67 67 67 67 66 67 64 67 66 66 65 63 61 61 58 58 -193 -193 -193 -193 -193 -193 69 70 69 67 67 68 66 63 62 61 58 57 57 57 50 47 46 43 46 42 42 43 49 51 52 53 55 56 57 57 56 55 54 54 53 47 41 40 -193 -209 -225 -225 -225 -225 -225 -225 -225 -225 -225 -225 -225 -225 -225 0 0 0 0 0
    0 0 0 0 0 0 0 0 0 0 0 0 0 0 0 0 0 0 0 0 0 0 0 0 0 0 0 0 0 0 0 0 0 0 0 0 0 0 0 0 0 0 0 0 0 0 0 0 0 0 0 0 0 0 0 0 0 0 0 0 0 0 0 0 0 0 0 0 0 30 28 30 30 29 29 29 30 28 25 26 25 25 31 29 29 30 31 31 31 33 33 27 34 35 30 33 38 39 38 38 39 -193 -193 -209 35 -193 29 32 32 31 31 31 32 32 36 36 35 35 36 37 39 35 35 34 33 34 33 33 34 29 34 34 34 37 37 35 35 35 -193 36 36 36 35 35 36 35 35 35 36 35 33 35 34 33 35 34 31 29 34 33 31 31 33 39 33 36 33 35 34 33 33 33 31 34 30 35 30 32 36 36 35 32 -193 42 42 42 40 38 35 35 39 38 37 38 38 37 38 -193 -193 -193 43 46 48 49 52 53 53 55 55 56 59 57 59 59 59 59 60 60 60 58 60 60 60 61 61 63 62 63 62 62 63 64 64 63 63 66 65 67 65 66 67 67 67 67 66 67 64 68 67 66 66 63 62 62 59 58 59 -193 -193 -193 -193 -193 69 70 69 67 67 68 65 63 62 60 58 57 57 57 49 47 45 43 44 41 41 40 47 49 50 52 55 55 57 56 55 55 53 53 51 43 39 39 38 -209 -225 -225 -225 -225 -225 -225 -225 -225 -225 -225 -225 -225 -225 0 0 0 0 0
    0 0 0 0 0 0 0 0 0 0 0 0 0 0 0 0 0 0 0 0 0 0 0 0 0 0 0 0 0 0 0 0 0 0 0 0 0 0 0 0 0 0 0 0 0 0 0 0 0 0 0 0 0 0 0 0 0 0 0 0 0 0 0 0 0 0 0 0 0 30 28 30 29 29 29 29 30 28 26 27 26 26 32 29 29 31 31 31 32 33 33 28 35 36 30 33 40 42 40 41 -193 -193 -209 -209 -209 -209 29 33 32 31 31 31 32 33 37 37 34 35 37 37 39 35 34 33 33 34 34 34 34 29 35 35 36 37 36 35 36 -193 -193 35 36 36 35 35 36 35 35 36 36 35 34 35 34 34 35 35 31 31 34 33 31 33 34 39 33 36 33 35 34 33 33 33 31 34 31 35 30 34 36 36 33 33 -193 38 40 41 39 37 36 37 39 38 37 38 38 37 38 -193 -193 42 44 46 48 49 52 54 53 56 55 56 59 57 59 59 59 59 60 60 60 58 61 60 60 61 62 62 62 63 62 62 63 -193 64 63 63 66 65 67 65 66 66 66 67 67 66 67 64 68 67 66 66 63 62 62 59 58 60 63 -193 -193 -193 -193 69 70 69 67 66 68 65 63 62 61 58 57 57 57 47 46 43 42 40 40 40 40 45 46 47 50 54 54 56 56 55 55 53 54 50 42 40 39 37 -209 -225 -225 -225 -225 -225 -225 -225 -225 -225 -225 -225 -225 -225 0 0 0 0 0
    0 0 0 0 0 0 0 0 0 0 0 0 0 0 0 0 0 0 0 0 0 0 0 0 0 0 0 0 0 0 0 0 0 0 0 0 0 0 0 0 0 0 0 0 0 0 0 0 0 0 0 0 0 0 0 0 0 0 0 0 0 0 0 0 0 0 0 0 0 31 29 30 29 29 29 29 30 28 26 27 27 27 32 29 29 31 31 31 32 33 33 28 36 36 31 35 41 43 42 43 46 46 -209 -209 -209 -209 28 30 31 30 30 30 31 33 37 36 34 35 37 37 39 35 34 32 33 34 34 34 34 29 36 36 37 37 36 35 36 -193 37 35 36 36 35 35 35 35 35 35 36 35 34 35 35 35 35 34 31 32 35 33 32 34 34 38 33 36 33 35 33 33 33 34 31 34 31 36 29 36 36 35 31 30 31 28 33 35 34 32 33 36 40 38 38 39 38 38 39 41 42 42 44 47 48 49 52 54 54 56 55 56 60 58 59 59 59 59 60 60 60 58 60 60 60 61 61 62 62 -193 -193 61 63 -193 -193 63 63 66 65 67 65 66 66 66 67 66 65 66 64 67 67 66 66 64 62 63 60 59 60 -193 -193 -193 -193 -193 70 70 69 67 67 68 65 63 62 61 58 57 57 56 47 45 43 42 40 40 40 40 44 44 44 48 53 53 -209 56 55 55 53 54 50 43 40 40 38 -209 -225 -225 -225 -225 -225 -225 -225 -225 -225 -225 -225 -225 -225 0 0 0 0 0
    0 0 0 0 0 0 0 0 0 0 0 0 0 0 0 0 0 0 0 0 0 0 0 0 0 0 0 0 0 0 0 0 0 0 0 0 0 0 0 0 0 0 0 0 0 0 0 0 0 0 0 0 0 0 0 0 0 0 0 0 0 0 0 0 0 0 0 0 0 32 30 31 30 30 30 30 30 29 27 27 27 27 32 29 29 31 31 32 33 33 33 28 35 36 32 35 41 43 44 46 48 46 -193 -193 -209 -209 28 29 31 31 32 31 32 35 36 36 35 36 36 36 39 35 34 32 34 34 34 34 35 29 36 36 37 36 36 35 36 36 36 35 36 36 34 35 35 34 35 35 35 34 34 35 34 35 35 33 30 33 35 32 31 34 34 38 34 36 33 35 33 33 33 33 31 34 30 35 29 36 36 34 30 29 26 25 29 31 30 29 30 36 40 38 39 39 39 38 39 41 42 42 44 46 48 49 52 53 54 56 56 57 60 58 59 60 60 59 60 60 60 58 61 60 61 62 62 63 63 -193 -193 -193 -193 -193 65 64 64 67 66 68 65 66 66 66 66 66 65 66 63 67 66 66 65 64 63 63 60 59 61 62 63 -193 -193 -193 70 70 69 67 67 68 65 63 62 61 59 57 57 56 46 45 43 42 40 40 41 41 44 44 45 48 53 52 -193 56 55 56 54 56 52 44 42 41 38 -209 -225 -225 -225 -225 -225 -225 -225 -225 -225 -225 -225 -225 -225 0 0 0 0 0
    0 0 0 0 0 0 0 0 0 0 0 0 0 0 0 0 0 0 0 0 0 0 0 0 0 0 0 0 0 0 0 0 0 0 0 0 0 0 0 0 0 0 0 0 0 0 0 0 0 0 0 0 0 0 0 0 0 0 0 0 0 0 0 0 0 0 0 0 0 32 31 32 30 31 31 31 30 29 28 28 27 27 33 29 29 32 31 31 33 33 33 28 35 36 31 31 39 43 45 49 51 -209 -209 -209 -209 -193 -193 29 32 31 33 32 32 35 35 35 35 35 36 35 39 35 33 32 34 33 33 33 34 28 34 35 37 36 35 35 35 35 36 34 36 35 34 35 34 34 35 35 35 34 33 34 34 35 35 31 30 33 34 32 32 35 34 38 35 37 34 36 33 33 33 34 31 34 30 34 28 36 35 34 30 30 25 24 29 30 29 29 30 37 43 38 39 39 39 38 39 41 41 41 44 46 47 48 52 53 54 56 56 57 61 59 60 60 60 59 60 60 60 58 61 60 61 62 62 63 63 -193 -193 -193 63 -193 66 65 65 67 67 68 66 66 66 66 66 66 65 65 63 66 65 65 65 64 63 63 61 60 62 63 63 64 -193 67 69 70 69 66 66 67 64 63 63 61 59 58 58 57 46 44 42 42 41 41 -193 41 45 45 45 48 53 52 54 55 53 55 53 54 51 46 45 44 40 -209 -225 -225 -225 -225 -225 -225 -225 -225 -225 -225 -225 -225 -225 0 0 0 0 0
    0 0 0 0 0 0 0 0 0 0 0 0 0 0 0 0 0 0 0 0 0 0 0 0 0 0 0 0 0 0 0 0 0 0 0 0 0 0 0 0 0 0 0 0 0 0 0 0 0 0 0 0 0 0 0 0 0 0 0 0 0 0 0 0 0 0 0 0 0 32 31 33 31 32 32 32 31 30 30 29 28 28 33 30 29 32 31 31 33 33 33 28 35 35 30 27 38 42 44 -209 -209 -209 -209 -209 -209 -209 -193 29 32 31 34 32 32 35 35 35 35 34 35 33 38 34 32 31 33 32 33 33 34 28 34 34 37 36 35 34 34 34 35 34 35 34 34 35 34 34 35 35 34 33 33 33 33 35 34 30 30 34 35 32 33 36 34 38 35 37 34 36 34 33 33 34 31 34 31 34 28 35 34 33 30 30 24 24 29 30 29 29 30 38 45 38 39 39 39 38 39 41 41 41 44 46 47 48 51 53 54 56 57 57 62 60 61 60 60 59 60 60 60 58 61 60 60 62 62 62 63 63 -193 -193 63 64 66 65 64 67 66 68 65 65 65 65 65 65 64 64 62 64 63 63 63 64 63 64 61 60 62 63 64 65 66 -193 -193 70 69 66 66 67 64 63 63 62 60 58 59 58 50 46 44 45 45 45 44 44 46 46 46 50 53 -225 -225 -225 53 55 53 54 50 48 48 46 42 -209 -225 -225 -225 -225 -225 -225 -225 -225 -225 -225 -225 -225 -225 0 0 0 0 0
    0 0 0 0 0 0 0 0 0 0 0 0 0 0 0 0 0 0 0 0 0 0 0 0 0 0 0 0 0 0 0 0 0 0 0 0 0 0 0 0 0 0 0 0 0 0 0 0 0 0 0 0 0 0 0 0 0 0 0 0 0 0 0 0 0 0 0 0 0 32 30 33 31 32 33 33 32 31 31 29 29 29 33 30 29 32 31 31 34 33 33 28 35 36 30 27 37 -193 43 -193 -209 -209 -209 -209 -209 -209 -193 28 31 31 34 32 33 36 35 34 35 35 35 34 38 34 31 31 32 31 31 32 33 27 31 31 36 36 35 35 34 35 35 34 35 33 34 35 33 33 34 34 34 33 33 33 33 35 35 30 32 35 36 34 35 35 34 38 35 37 34 36 34 33 33 34 31 34 31 34 28 35 34 31 28 28 25 25 29 29 29 29 29 38 44 39 39 39 39 39 39 -193 41 41 44 47 47 48 51 53 55 57 57 58 63 61 61 61 60 59 60 60 60 58 61 60 60 62 62 63 63 62 -193 -193 62 64 65 64 64 66 66 68 64 65 65 64 64 64 63 63 61 62 62 62 62 63 62 63 61 60 62 63 65 65 -193 -193 -193 70 70 66 67 67 64 63 63 62 61 59 60 59 57 54 51 52 51 50 48 48 47 48 48 52 52 -225 -225 -225 54 55 54 55 51 50 50 46 41 -209 -225 -225 -225 -225 -225 -225 -225 -225 -225 -225 -225 -225 -225 0 0 0 0 0
    0 0 0 0 0 0 0 0 0 0 0 0 0 0 0 0 0 0 0 0 0 0 0 0 0 0 0 0 0 0 0 0 0 0 0 0 0 0 0 0 0 0 0 0 0 0 0 0 0 0 0 0 0 0 0 0 0 0 0 0 0 0 0 0 0 0 0 0 0 32 30 32 30 32 33 33 32 31 32 30 30 30 33 30 29 32 31 31 34 33 33 28 35 35 29 26 34 34 40 -209 -209 -209 -209 -193 -209 -193 29 28 31 31 34 32 34 36 34 34 36 35 35 34 38 34 31 31 31 30 30 31 31 26 28 29 35 35 35 35 34 35 36 34 36 33 35 34 33 33 35 35 35 33 34 33 34 36 36 30 33 35 36 34 35 35 34 37 35 37 34 36 34 34 34 35 32 34 32 35 29 34 33 31 28 29 26 25 29 29 29 29 29 38 43 39 39 39 39 39 39 -193 41 41 44 47 47 49 52 54 55 57 57 58 63 61 61 61 60 59 60 60 61 58 61 60 60 62 62 63 63 63 -193 -193 63 64 65 65 65 -193 67 68 64 64 64 64 63 63 62 62 60 61 61 61 61 62 61 63 61 60 63 64 66 66 -193 -193 -193 70 70 67 67 67 65 64 64 63 62 59 61 59 57 56 54 54 53 53 50 51 49 49 51 54 52 54 -225 -225 -225 56 55 55 52 52 52 50 42 -209 -225 -225 -225 -225 -225 -225 -225 -225 -225 -225 -225 -225 -225 0 0 0 0 0
    0 0 0 0 0 0 0 0 0 0 0 0 0 0 0 0 0 0 0 0 0 0 0 0 0 0 0 0 0 0 0 0 0 0 0 0 0 0 0 0 0 0 0 0 0 0 0 0 0 0 0 0 0 0 0 0 0 0 0 0 0 0 0 0 0 0 0 0 0 32 30 32 30 31 32 33 32 31 32 31 31 30 34 30 30 32 31 31 33 33 33 28 34 34 29 26 31 32 39 -209 -209 -209 -193 -193 -209 32 28 27 30 30 34 32 34 36 34 34 36 36 36 34 38 33 31 31 31 29 30 30 30 25 27 27 35 35 36 35 35 35 36 35 36 32 36 34 33 32 35 34 34 32 34 32 35 36 35 28 33 35 35 34 35 36 34 38 35 37 35 37 35 35 35 36 33 36 34 36 30 35 35 32 30 30 28 27 31 30 30 30 31 38 42 40 40 40 40 39 40 40 41 41 44 49 48 50 53 54 56 57 57 58 63 61 62 61 61 60 61 61 61 58 61 60 61 62 62 63 63 -193 -193 -193 -193 65 66 66 66 -193 68 68 65 64 64 63 63 63 62 62 60 61 62 61 61 62 62 63 62 62 65 65 66 67 -193 -193 -193 70 70 67 67 67 65 64 65 64 62 60 61 60 58 55 54 54 53 53 51 51 50 49 51 53 51 53 -225 -225 -225 56 56 55 53 54 53 52 42 -225 -225 -225 -225 -225 -225 -225 -225 -225 -225 -225 -225 -225 -225 0 0 0 0 0
    0 0 0 0 0 0 0 0 0 0 0 0 0 0 0 0 0 0 0 0 0 0 0 0 0 0 0 0 0 0 0 0 0 0 0 0 0 0 0 0 0 0 0 0 0 0 0 0 0 0 0 0 0 0 0 0 0 0 0 0 0 0 0 0 0 0 0 0 0 32 30 32 30 31 32 33 32 31 33 31 31 31 34 30 30 32 31 31 33 33 33 28 33 33 28 26 30 31 -209 -209 -209 -209 -209 -193 -209 -193 -193 26 29 29 34 31 35 35 33 34 36 35 35 34 38 33 31 32 30 29 29 29 29 25 25 26 32 33 33 33 33 34 35 34 36 31 36 33 33 32 35 33 34 31 33 31 34 36 36 27 35 35 36 35 36 36 34 38 35 37 36 37 36 36 36 36 34 37 35 37 32 35 35 32 31 30 28 27 31 29 29 29 30 38 40 40 40 40 40 40 40 41 42 41 44 49 48 50 53 54 57 57 57 57 64 62 62 62 61 60 61 61 61 58 60 60 60 61 61 62 62 -193 -193 -193 -193 65 66 66 66 -193 68 68 65 64 64 63 63 63 62 62 60 61 62 61 61 63 62 63 62 62 65 65 67 67 -193 -193 -193 70 -193 67 68 67 65 64 65 64 63 60 62 60 58 55 54 54 53 53 51 51 50 48 50 51 47 51 -225 -225 55 56 56 56 56 56 54 -225 -225 -225 -225 -225 -225 -225 -225 -225 -225 -225 -225 -225 -225 -225 -225 0 0 0 0 0
    0 0 0 0 0 0 0 0 0 0 0 0 0 0 0 0 0 0 0 0 0 0 0 0 0 0 0 0 0 0 0 0 0 0 0 0 0 0 0 0 0 0 0 0 0 0 0 0 0 0 0 0 0 0 0 0 0 0 0 0 0 0 0 0 0 0 0 0 0 32 30 32 29 31 32 33 32 31 33 31 31 31 34 30 30 32 31 -193 33 32 32 28 33 33 29 27 29 30 -209 -209 -209 -209 -193 -193 -209 33 29 26 29 29 33 31 35 35 32 33 36 35 35 34 38 32 31 32 29 29 28 28 28 24 24 25 30 31 31 32 32 33 35 35 36 31 36 34 33 32 35 31 32 30 31 29 33 34 35 27 35 36 36 36 37 37 35 39 36 38 37 38 38 37 37 37 35 38 36 36 33 33 34 32 33 31 29 28 31 29 29 29 29 38 39 39 40 40 40 40 40 41 41 41 44 49 47 49 54 55 58 58 58 58 65 63 63 62 61 60 62 61 62 58 60 60 60 61 62 63 63 -193 -193 -193 -193 -193 68 67 -193 -193 68 68 64 63 63 62 62 62 62 61 60 61 61 61 61 62 62 63 62 62 66 65 66 66 -193 -193 -193 70 -193 67 68 68 66 65 65 64 63 60 61 59 58 55 54 54 53 53 51 52 50 49 51 51 47 52 52 56 55 56 57 57 59 60 58 -225 -225 -225 -225 -225 -225 -225 -225 -225 -225 -225 -225 -225 -225 -225 -225 0 0 0 0 0
    0 0 0 0 0 0 0 0 0 0 0 0 0 0 0 0 0 0 0 0 0 0 0 0 0 0 0 0 0 0 0 0 0 0 0 0 0 0 0 0 0 0 0 0 0 0 0 0 0 0 0 0 0 0 0 0 0 0 0 0 0 0 0 0 0 0 0 0 0 31 29 32 29 31 32 32 32 31 33 31 31 31 34 30 30 32 31 -193 33 33 33 28 33 33 29 28 29 32 -209 -209 -209 -209 -209 -209 -193 35 30 27 31 30 34 32 36 35 33 34 37 35 36 35 38 32 32 32 29 28 28 28 28 23 23 23 28 31 30 31 31 33 35 35 37 33 36 35 33 33 37 32 32 30 30 29 32 34 35 27 33 35 34 36 38 38 37 40 36 38 39 39 39 38 38 38 36 39 38 37 34 34 36 36 38 37 35 33 35 32 31 31 30 38 39 38 39 39 40 39 40 40 41 41 43 49 -193 49 55 56 60 59 59 58 67 64 63 63 62 61 62 62 62 59 60 60 61 62 62 63 -193 -193 -193 -193 -193 -193 69 68 68 69 69 68 64 63 63 62 62 62 61 61 59 60 61 60 61 62 61 63 62 63 67 -193 66 -193 -193 -193 -193 69 -193 67 68 68 65 65 65 64 63 60 61 59 58 55 54 55 53 53 52 52 51 50 51 52 48 53 52 56 56 57 59 60 63 66 63 -225 -225 -225 -225 -225 -225 -225 -225 -225 -225 -225 -225 -225 -225 -225 -225 0 0 0 0 0
    0 0 0 0 0 0 0 0 0 0 0 0 0 0 0 0 0 0 0 0 0 0 0 0 0 0 0 0 0 0 0 0 0 0 0 0 0 0 0 0 0 0 0 0 0 0 0 0 0 0 0 0 0 0 0 0 0 0 0 0 0 0 0 0 0 0 0 0 0 31 29 31 29 30 32 32 32 31 33 31 31 31 34 30 30 32 -193 -193 33 33 33 28 33 33 29 28 30 31 35 37 39 -209 37 -193 -193 37 33 28 30 29 32 32 36 35 33 34 36 35 37 37 39 33 34 32 29 28 28 27 27 23 23 22 27 31 29 30 30 33 36 38 40 -193 39 42 39 37 42 34 32 32 29 28 31 32 35 26 27 30 30 35 38 38 38 41 34 38 40 40 40 39 39 38 37 40 39 37 35 34 36 37 39 39 37 36 36 34 32 32 30 38 37 37 38 38 39 39 39 39 37 41 41 47 -193 48 55 -209 -193 60 60 59 68 64 64 63 62 61 63 62 62 59 60 60 61 63 62 64 64 65 65 65 66 68 69 68 68 69 69 68 65 63 63 62 62 62 61 61 60 60 62 61 62 63 63 66 64 66 69 -193 67 66 -193 -193 -193 70 71 67 68 67 65 64 64 63 62 59 60 58 57 55 54 55 53 53 52 52 51 51 51 52 49 54 53 57 57 58 61 62 63 68 64 -225 -225 -225 -225 -225 -225 -225 -225 -225 -225 -225 -225 -225 -225 -225 -225 0 0 0 0 0
    0 0 0 0 0 0 0 0 0 0 0 0 0 0 0 0 0 0 0 0 0 0 0 0 0 0 0 0 0 0 0 0 0 0 0 0 0 0 0 0 0 0 0 0 0 0 0 0 0 0 0 0 0 0 0 0 0 0 0 0 0 0 0 0 0 0 0 0 0 31 30 31 29 30 32 31 32 31 34 31 31 31 34 30 30 32 -177 -177 -193 -193 32 27 32 32 28 27 30 34 40 40 41 38 40 36 37 38 36 29 30 29 31 33 37 35 33 34 37 36 38 38 39 34 35 33 29 28 28 27 27 23 23 21 26 31 28 -209 -209 35 37 40 44 49 -209 -193 -209 -209 -209 -209 -209 -209 -209 -193 -193 -209 -209 -193 24 30 30 34 37 38 38 42 33 37 40 40 40 39 39 38 37 40 41 38 36 35 37 38 40 38 37 35 35 33 32 31 30 38 36 36 37 38 38 38 38 38 33 40 39 43 -209 -193 -209 -209 -209 60 60 59 68 64 64 63 62 62 63 63 63 59 61 61 63 63 63 64 64 66 66 65 67 69 69 68 68 70 70 68 65 63 64 63 63 63 62 61 60 61 63 62 64 66 67 70 69 69 -209 -193 -209 -209 -193 64 69 69 71 67 68 68 65 64 64 63 62 59 59 57 56 54 53 54 53 53 52 52 51 51 52 53 50 54 54 58 60 61 65 68 68 72 72 -225 -225 -225 -225 -225 -225 -225 -225 -225 -225 -225 -225 -225 -225 -225 -225 0 0 0 0 0
    0 0 0 0 0 0 0 0 0 0 0 0 0 0 0 0 0 0 0 0 0 0 0 0 0 0 0 0 0 0 0 0 0 0 0 0 0 0 0 0 0 0 0 0 0 0 0 0 0 0 0 0 0 0 0 0 0 0 0 0 0 0 0 0 0 0 0 0 0 31 30 32 29 31 32 32 33 31 34 31 31 31 34 30 30 31 -177 -193 32 32 32 27 31 31 27 27 -209 -209 -209 40 40 38 40 37 38 38 37 32 32 30 30 35 37 34 33 34 37 36 39 39 39 35 36 35 30 29 28 27 27 23 23 21 27 33 -193 -209 -209 36 37 -193 -209 -209 -209 -193 -209 -209 -193 -209 -209 -209 -209 -193 28 -193 -209 26 25 30 31 34 37 37 38 42 31 37 40 41 41 40 39 39 38 41 42 39 38 35 38 39 40 38 38 36 35 34 32 31 31 39 35 35 36 37 37 37 37 37 31 38 38 40 -209 -209 -193 -209 -209 60 60 60 68 65 64 63 63 62 64 63 63 60 62 62 64 64 64 64 64 66 66 65 68 70 71 69 71 72 72 70 67 65 65 63 63 63 62 61 61 62 64 64 66 69 69 71 72 71 75 -193 68 67 67 67 70 69 70 65 66 66 63 62 62 61 61 58 58 56 56 54 54 54 53 53 52 53 52 51 52 53 51 55 55 59 63 63 66 69 68 72 72 -225 -225 -225 -225 -225 -225 -225 -225 -225 -225 -225 -225 -225 -225 -225 -225 0 0 0 0 0
    0 0 0 0 0 0 0 0 0 0 0 0 0 0 0 0 0 0 0 0 0 0 0 0 0 0 0 0 0 0 0 0 0 0 0 0 0 0 0 0 0 0 0 0 0 0 0 0 0 0 0 0 0 0 0 0 0 0 0 0 0 0 0 0 0 0 0 0 0 31 31 32 29 31 33 32 33 31 34 31 31 30 34 29 30 31 -193 29 32 32 32 27 31 30 27 28 -209 -209 -193 39 39 38 40 38 38 37 36 34 34 31 32 37 37 34 34 35 37 36 39 39 39 35 37 -193 31 30 29 28 28 24 23 22 27 32 27 -193 30 35 37 -193 -193 -209 -209 -193 -209 40 -193 -193 -209 -209 -209 -209 -209 -209 -209 -209 -209 30 31 35 38 40 40 45 30 38 44 42 43 41 41 40 39 42 43 39 38 36 39 40 40 38 38 36 35 34 33 32 33 39 35 34 35 37 37 36 37 37 31 38 38 40 -209 -209 -209 -209 -209 60 60 60 68 65 64 63 63 62 64 64 64 60 62 62 64 64 64 64 65 66 66 64 69 71 75 72 74 75 75 72 70 68 66 64 64 64 63 62 62 63 67 66 69 71 72 73 73 74 78 73 71 70 70 69 70 69 70 65 65 65 62 61 60 59 59 56 55 54 54 53 53 54 53 53 52 53 52 52 53 54 52 55 55 59 65 65 67 69 68 72 70 -225 -225 -225 -225 -225 -225 -225 -225 -225 -225 -225 -225 -225 -225 -225 -225 0 0 0 0 0
    0 0 0 0 0 0 0 0 0 0 0 0 0 0 0 0 0 0 0 0 0 0 0 0 0 0 0 0 0 0 0 0 0 0 0 0 0 0 0 0 0 0 0 0 0 0 0 0 0 0 0 0 0 0 0 0 0 0 0 0 0 0 0 0 0 0 0 0 0 31 31 32 30 32 33 33 33 31 34 30 30 30 34 29 29 30 -193 29 31 32 32 27 32 31 28 31 -209 39 42 40 40 39 40 39 39 37 36 34 34 32 33 38 37 35 36 36 37 37 40 40 40 36 37 -193 31 31 29 28 28 24 24 -193 26 30 26 26 28 29 34 -193 -209 -209 -193 -209 -209 39 -209 -209 -209 -209 -209 -209 -209 -209 -193 -209 -209 -209 -209 39 41 43 43 48 29 38 48 43 44 42 41 41 40 43 44 38 38 36 39 40 40 38 38 36 35 35 33 31 33 39 35 34 35 37 37 36 37 37 32 39 39 40 -209 -209 -209 -209 -209 59 59 60 68 64 64 63 62 62 64 63 63 60 62 62 65 66 66 65 66 67 67 67 71 77 85 80 79 81 83 79 -193 69 67 65 65 66 65 64 65 67 70 70 72 73 74 74 74 74 77 74 -193 70 69 69 70 68 69 63 64 64 61 60 59 58 58 56 55 54 54 54 54 55 54 54 53 53 53 53 54 55 54 57 58 60 65 65 67 69 68 70 69 71 -225 -225 -225 -225 -225 -225 -225 -225 -225 -225 -225 -225 -225 -225 -225 0 0 0 0 0
    0 0 0 0 0 0 0 0 0 0 0 0 0 0 0 0 0 0 0 0 0 0 0 0 0 0 0 0 0 0 0 0 0 0 0 0 0 0 0 0 0 0 0 0 0 0 0 0 0 0 0 0 0 0 0 0 0 0 0 0 0 0 0 0 0 0 0 0 0 32 32 33 30 32 34 34 34 31 35 31 30 30 34 29 29 30 30 29 31 32 32 27 31 31 28 33 40 39 41 39 39 39 39 39 38 37 35 35 35 33 35 38 37 35 36 37 37 37 40 40 40 37 37 37 32 31 30 28 28 25 25 -209 27 29 -193 26 28 29 32 -193 -209 -209 -193 -209 -209 41 -193 -193 -193 -209 -209 -209 -209 -209 -193 -209 -209 -209 -209 39 40 42 42 47 28 37 47 43 43 -193 41 41 40 43 44 37 37 35 38 40 39 38 38 36 35 36 34 32 35 39 35 34 35 37 37 37 37 37 32 38 39 40 -209 -209 -193 770 -209 58 59 60 68 64 63 63 63 62 64 64 64 60 63 64 66 68 68 67 69 69 71 70 75 87 90 90 87 87 88 88 -193 71 68 66 67 67 66 66 67 69 72 72 74 76 76 78 78 76 80 78 80 -209 71 71 71 68 68 63 63 63 60 58 57 56 56 54 54 53 54 55 55 56 55 55 54 54 55 55 55 56 56 58 59 61 64 64 64 66 66 68 68 68 -225 -225 -225 -225 -225 -225 -225 -225 -225 -225 -225 -225 -225 -225 -225 0 0 0 0 0
    0 0 0 0 0 0 0 0 0 0 0 0 0 0 0 0 0 0 0 0 0 0 0 0 0 0 0 0 0 0 0 0 0 0 0 0 0 0 0 0 0 0 0 0 0 0 0 0 0 0 0 0 0 0 0 0 0 0 0 0 0 0 0 0 0 0 0 0 0 32 33 33 31 33 34 34 34 32 35 31 30 31 35 30 30 31 30 29 31 33 32 26 30 30 28 32 38 37 37 37 37 38 37 37 37 36 35 35 35 33 36 38 36 36 37 37 37 37 40 40 41 37 38 37 33 32 30 28 29 25 26 26 27 31 -193 -193 31 29 -209 -193 -209 -209 -193 -209 -193 40 -193 -193 -193 -193 -209 -209 -193 38 36 -209 -193 -209 39 38 39 41 41 45 28 37 45 42 42 -193 40 40 40 43 43 35 36 35 38 39 39 38 38 36 36 37 37 36 37 40 35 34 36 37 37 37 37 37 32 38 39 40 -209 -209 -193 -177 -209 57 58 59 67 63 63 63 62 62 64 64 64 61 66 66 69 70 71 72 73 72 73 74 82 89 91 92 90 88 89 89 89 87 71 68 69 68 -193 -193 -193 71 74 74 77 79 80 81 81 78 82 81 85 77 72 73 -193 -209 65 60 61 60 58 56 54 55 55 54 53 54 54 55 55 56 56 56 56 56 57 57 57 58 59 59 61 63 66 65 65 67 65 67 66 65 -225 -225 -225 -225 -225 -225 -225 -225 -225 -225 -225 -225 -209 -209 -225 0 0 0 0 0
    0 0 0 0 0 0 0 0 0 0 0 0 0 0 0 0 0 0 0 0 0 0 0 0 0 0 0 0 0 0 0 0 0 0 0 0 0 0 0 0 0 0 0 0 0 0 0 0 0 0 0 0 0 0 0 0 0 0 0 0 0 0 0 0 0 0 0 0 0 33 33 33 31 33 34 34 34 32 35 31 31 31 35 31 30 31 30 29 31 33 31 26 30 29 28 32 37 36 37 36 36 37 36 37 36 35 34 35 35 33 36 37 35 36 37 37 37 37 40 40 41 38 38 38 34 34 31 29 29 26 27 27 28 34 28 -193 34 -193 -209 -193 -209 -209 -193 -193 38 41 40 41 -193 41 42 -209 -193 37 35 37 -193 -209 39 37 38 39 -193 44 28 36 43 41 41 -193 40 40 40 43 43 34 36 37 38 39 39 38 38 37 37 38 38 37 38 40 35 35 36 37 37 37 37 37 32 38 39 40 -209 -209 -193 -193 -193 56 57 58 64 62 62 62 62 62 65 65 66 62 69 69 71 73 74 75 75 75 76 78 85 90 92 92 92 90 90 91 91 92 84 71 73 -209 -209 -209 -193 -193 78 78 81 83 84 84 84 82 84 83 87 -209 75 -193 -209 -209 -193 45 -193 54 51 46 46 50 52 54 54 54 54 56 56 57 57 57 57 58 58 59 59 60 61 61 64 64 65 65 64 66 64 64 63 60 -225 -225 -225 -225 -225 -225 -225 -225 -225 -225 -225 -225 -209 -209 -225 0 0 0 0 0
    0 0 0 0 0 0 0 0 0 0 0 0 0 0 0 0 0 0 0 0 0 0 0 0 0 0 0 0 0 0 0 0 0 0 0 0 0 0 0 0 0 0 0 0 0 0 0 0 0 0 0 0 0 0 0 0 0 0 0 0 0 0 0 0 0 0 0 0 0 34 34 33 32 33 34 35 35 33 34 32 31 31 35 31 30 31 30 28 31 32 31 26 29 29 28 32 37 37 38 38 37 38 37 38 36 34 34 34 34 34 37 37 35 36 37 36 37 37 40 39 41 38 38 38 35 35 33 30 30 26 28 28 28 34 29 27 33 -193 31 -209 -209 -193 -209 -193 32 40 37 41 39 41 -209 -209 -193 37 35 38 38 -209 -209 38 38 40 -193 44 28 36 42 40 41 -193 40 40 39 42 43 33 36 37 37 38 39 38 38 36 37 38 38 37 39 40 35 35 36 37 37 37 37 36 31 38 39 40 -209 -209 -193 -193 -193 57 58 58 63 61 61 62 62 63 66 67 67 65 72 72 73 75 75 77 78 78 80 83 85 90 93 92 93 91 91 92 90 91 86 76 -209 -209 -193 -209 -193 78 81 80 82 83 84 83 84 81 84 82 85 -209 73 -209 -209 -209 36 37 38 40 39 40 42 44 49 54 55 55 56 59 61 61 63 61 61 61 61 64 62 62 64 62 66 66 67 67 63 63 62 61 61 58 58 -225 -225 -225 -225 -225 -225 -225 -225 -225 -225 -225 -209 -209 -225 0 0 0 0 0
    0 0 0 0 0 0 0 0 0 0 0 0 0 0 0 0 0 0 0 0 0 0 0 0 0 0 0 0 0 0 0 0 0 0 0 0 0 0 0 0 0 0 0 0 0 0 0 0 0 0 0 0 0 0 0 0 0 0 0 0 0 0 0 0 0 0 0 0 0 35 34 34 32 34 34 35 35 33 34 32 31 31 35 31 30 31 29 28 30 32 31 26 29 28 28 32 36 37 38 38 36 37 37 38 35 33 33 33 32 34 37 37 34 36 37 36 37 38 40 40 41 38 38 39 36 36 34 31 31 27 30 30 28 32 27 -193 -193 -193 -209 -209 14 -209 -209 21 29 35 34 40 39 41 -193 42 -193 40 36 40 39 42 41 39 40 41 -193 44 29 36 41 39 40 -193 39 39 38 42 42 32 36 36 36 37 37 37 37 36 37 38 38 38 41 41 36 35 36 37 37 37 37 36 32 38 39 41 -209 -209 -193 -193 -193 57 58 58 63 61 62 63 63 65 68 69 70 69 75 74 75 78 79 82 83 84 83 86 88 92 94 93 95 93 93 92 90 92 86 76 -209 -209 -193 -209 -209 -193 81 80 81 82 83 82 83 78 82 78 83 -209 71 69 -209 -209 36 37 37 38 38 39 40 44 50 55 58 57 57 65 69 70 71 69 70 69 68 69 67 66 67 65 66 66 67 67 64 65 63 62 62 61 59 57 -193 -225 -225 -225 -225 -225 -225 -225 -225 -225 -225 -225 -225 0 0 0 0 0</data></disparity>
</opencv_storage>
