<?xml version="1.0"?>
<opencv_storage>
<gps_time_stamp>311603</gps_time_stamp>
<gps_x>-1.2409464836120605e+001</gps_x>
<gps_y>1.0958175659179688e+001</gps_y>
<gps_z>-2.0106837749481201e+000</gps_z>
<image_time_stamp>302459</image_time_stamp>
<disparity type_id="opencv-matrix">
  <rows>88</rows>
  <cols>320</cols>
  <dt>s</dt>
  <data>
    0 0 0 0 0 0 0 0 0 0 0 0 0 0 0 0 0 0 0 0 0 0 0 0 0 0 0 0 0 0 0 0 0 0 0 0 0 0 0 0 0 0 0 0 0 0 0 0 0 0 0 0 0 0 0 0 0 0 0 0 0 0 0 0 0 0 0 0 0 61 50 45 39 35 36 37 37 38 37 38 38 38 38 38 38 38 38 39 38 39 39 39 39 40 40 40 40 42 40 39 38 38 38 36 36 34 36 37 35 36 36 37 38 39 41 40 39 39 40 39 39 38 36 34 35 34 34 29 29 24 22 23 20 15 13 12 11 0 0 0 0 0 0 0 0 0 0 0 0 0 0 0 11 0 10 9 9 9 9 10 10 9 10 10 11 12 12 14 13 11 11 13 14 15 15 20 23 25 29 29 32 30 32 33 34 32 35 34 39 39 42 42 46 44 43 45 46 45 47 50 52 48 59 67 64 64 64 68 70 70 71 74 73 75 80 77 77 76 78 77 76 77 78 75 76 77 78 78 87 88 89 90 93 95 96 96 98 98 100 100 105 105 106 108 110 110 109 110 108 109 116 119 122 123 125 127 127 128 127 124 122 129 134 131 131 134 -193 139 140 140 144 141 142 143 146 141 145 145 147 -193 149 151 -193 -209 156 161 160 164 165 165 165 163 165 166 165 167 166 168 168 -193 -193 -193 171 172 172 173 -193 175 181 183 186 194 193 192 193 0 0 0 0 0
    0 0 0 0 0 0 0 0 0 0 0 0 0 0 0 0 0 0 0 0 0 0 0 0 0 0 0 0 0 0 0 0 0 0 0 0 0 0 0 0 0 0 0 0 0 0 0 0 0 0 0 0 0 0 0 0 0 0 0 0 0 0 0 0 0 0 0 0 0 61 51 46 39 36 36 37 37 38 37 38 38 37 38 37 37 38 38 39 38 39 39 39 39 40 40 39 40 41 39 39 38 37 38 36 36 33 34 36 34 35 35 36 37 38 40 39 39 39 40 39 39 38 36 34 35 34 33 29 30 25 23 23 19 15 14 13 12 0 0 0 0 0 0 0 0 0 0 0 0 0 0 0 11 9 10 10 10 10 10 10 10 9 10 9 11 12 11 13 12 11 12 13 15 15 15 19 22 24 29 28 32 30 32 33 34 33 35 34 38 38 42 42 46 44 44 45 46 46 47 50 52 48 59 66 63 63 63 68 71 71 72 77 75 76 81 78 78 76 79 77 76 77 78 75 76 77 78 78 87 88 89 89 92 95 95 96 98 96 99 98 -209 -193 -209 -193 110 110 109 -193 108 109 116 119 122 123 125 127 127 128 127 124 121 128 134 131 131 134 -193 -193 140 140 144 141 141 142 146 140 144 144 146 -193 148 151 -209 -209 156 162 160 164 166 165 165 164 165 166 165 167 -193 168 169 -193 -193 -193 171 172 172 173 -193 175 180 183 185 192 192 191 193 0 0 0 0 0
    0 0 0 0 0 0 0 0 0 0 0 0 0 0 0 0 0 0 0 0 0 0 0 0 0 0 0 0 0 0 0 0 0 0 0 0 0 0 0 0 0 0 0 0 0 0 0 0 0 0 0 0 0 0 0 0 0 0 0 0 0 0 0 0 0 0 0 0 0 61 51 47 40 37 37 38 38 38 38 38 38 36 37 37 38 38 38 39 38 38 39 39 39 39 39 38 38 38 37 37 37 36 36 35 35 32 33 36 33 33 34 35 36 37 39 38 38 39 39 39 38 37 36 33 34 33 31 30 29 25 23 23 19 15 15 14 12 0 0 0 0 0 0 0 0 0 0 0 0 0 0 9 11 9 11 9 9 9 10 10 10 9 10 9 11 12 11 11 12 11 11 12 16 15 15 19 22 23 29 29 32 30 32 33 34 33 34 33 38 38 41 42 46 44 44 45 46 46 47 50 52 47 59 66 62 62 63 68 73 73 73 79 76 77 82 79 79 77 79 77 75 76 78 75 76 77 77 78 86 88 88 88 91 94 94 95 96 94 96 91 -209 -209 -209 -193 -193 109 109 -193 108 109 117 119 122 123 125 127 127 128 127 124 121 128 135 133 133 135 -193 140 140 141 144 141 141 142 146 140 144 144 145 -193 -193 150 -209 -209 156 162 161 -193 166 165 165 165 166 167 166 -193 -193 169 169 -193 -193 -193 171 172 172 173 175 174 179 182 184 190 191 191 192 0 0 0 0 0
    0 0 0 0 0 0 0 0 0 0 0 0 0 0 0 0 0 0 0 0 0 0 0 0 0 0 0 0 0 0 0 0 0 0 0 0 0 0 0 0 0 0 0 0 0 0 0 0 0 0 0 0 0 0 0 0 0 0 0 0 0 0 0 0 0 0 0 0 0 61 50 48 40 38 38 38 38 39 38 38 38 37 37 37 38 38 38 39 38 38 39 39 39 38 37 37 36 36 35 36 35 34 35 34 34 31 33 35 32 32 33 35 35 35 38 36 36 37 37 37 36 36 34 31 33 31 29 29 28 25 23 23 19 16 15 14 13 0 0 0 0 0 0 0 0 0 0 9 9 9 9 10 11 9 11 9 0 9 9 10 10 9 10 9 10 12 10 11 11 10 11 12 16 15 14 19 22 24 29 29 33 30 33 33 33 33 34 32 37 36 41 41 45 44 44 45 46 46 46 50 52 46 59 66 62 62 63 69 76 75 74 81 77 78 83 80 80 78 80 78 75 76 78 75 76 77 77 78 -193 87 88 87 91 93 93 94 95 93 94 -193 -209 -209 -209 -193 -193 109 109 -193 108 109 117 119 122 123 125 126 127 127 127 124 121 127 135 133 133 135 -193 140 140 141 144 140 141 142 146 140 143 143 144 -193 -193 149 -209 -209 156 163 161 -193 -193 165 165 -193 166 -193 167 -193 -209 169 170 170 -193 -193 171 172 172 173 175 174 178 181 183 188 190 190 192 0 0 0 0 0
    0 0 0 0 0 0 0 0 0 0 0 0 0 0 0 0 0 0 0 0 0 0 0 0 0 0 0 0 0 0 0 0 0 0 0 0 0 0 0 0 0 0 0 0 0 0 0 0 0 0 0 0 0 0 0 0 0 0 0 0 0 0 0 0 0 0 0 0 0 61 49 47 41 39 39 39 39 39 38 38 38 36 37 36 38 38 38 38 37 37 38 38 38 37 36 36 35 35 35 35 34 33 34 34 33 31 33 36 32 32 33 34 33 33 36 34 34 36 35 35 34 35 34 30 32 31 29 29 29 25 24 23 19 16 15 15 13 0 0 0 0 0 0 0 0 0 0 0 0 0 9 9 10 9 10 0 0 9 9 10 10 9 10 9 10 12 10 10 10 9 10 11 14 14 13 18 21 23 29 29 33 30 33 33 33 33 33 32 36 35 39 40 45 43 43 44 45 46 46 49 52 46 59 66 62 62 63 69 77 75 75 81 78 79 83 80 80 78 80 78 75 76 78 75 76 77 77 78 -177 -193 87 -193 90 92 92 93 94 92 92 -193 -209 -209 -177 -209 -193 108 109 -193 107 109 117 119 122 123 125 126 126 127 126 123 120 125 135 132 132 135 -193 -193 140 141 144 140 141 142 146 140 142 142 143 -177 -177 149 -193 -209 156 -193 -193 -193 -193 166 166 -193 167 -193 167 -193 -193 169 170 170 -193 -193 171 172 173 173 175 174 178 181 182 187 189 190 192 0 0 0 0 0
    0 0 0 0 0 0 0 0 0 0 0 0 0 0 0 0 0 0 0 0 0 0 0 0 0 0 0 0 0 0 0 0 0 0 0 0 0 0 0 0 0 0 0 0 0 0 0 0 0 0 0 0 0 0 0 0 0 0 0 0 0 0 0 0 0 0 0 0 0 61 48 46 41 39 39 39 38 38 38 38 38 36 36 35 38 38 38 39 37 37 39 39 39 37 36 37 35 35 34 34 34 32 33 33 31 31 32 34 31 31 32 33 31 31 34 32 31 34 33 33 32 33 32 30 31 30 29 28 29 26 25 24 19 17 16 16 15 9 0 0 0 0 0 0 0 0 0 0 0 0 9 0 10 9 10 9 9 9 10 10 11 10 10 10 10 11 10 9 9 9 10 11 14 13 13 16 19 22 29 29 33 30 34 33 33 33 33 31 36 35 39 39 45 44 44 45 46 46 46 49 51 45 59 66 62 62 63 69 77 75 74 81 77 78 83 80 80 79 80 78 75 76 78 75 76 78 76 -193 -177 -193 86 -193 -193 91 91 92 93 91 91 -193 -209 -209 -177 -209 108 108 109 -193 108 109 117 119 122 123 124 126 126 127 126 123 119 125 135 132 132 135 -193 -193 -193 141 144 140 140 141 146 140 142 142 142 -177 -177 149 -193 -209 155 -209 -193 -193 -209 166 166 -193 167 -209 168 169 169 169 170 170 -193 -193 172 173 173 173 175 174 178 180 182 187 189 190 192 0 0 0 0 0
    0 0 0 0 0 0 0 0 0 0 0 0 0 0 0 0 0 0 0 0 0 0 0 0 0 0 0 0 0 0 0 0 0 0 0 0 0 0 0 0 0 0 0 0 0 0 0 0 0 0 0 0 0 0 0 0 0 0 0 0 0 0 0 0 0 0 0 0 0 62 50 47 41 40 40 38 38 38 37 38 38 35 35 33 37 39 38 38 37 37 40 40 39 37 36 37 35 34 34 34 33 32 33 33 31 30 31 33 30 30 30 31 29 29 32 31 31 33 32 32 31 32 31 29 30 29 28 27 27 26 25 24 20 18 18 17 16 10 9 9 0 0 0 0 0 0 0 0 0 0 0 0 9 10 10 9 9 9 10 10 11 10 10 10 10 11 10 9 9 9 10 11 14 13 14 16 18 22 30 29 33 31 34 33 34 34 34 32 37 37 39 40 45 45 44 45 46 46 46 49 51 44 58 66 61 61 62 69 75 74 73 79 76 78 82 79 79 79 80 78 75 76 77 75 76 78 76 -193 -177 -177 -193 -193 -177 -193 91 92 93 91 91 -193 -193 -209 -177 -209 -193 109 110 -193 108 110 118 119 122 123 124 126 126 127 126 123 119 124 134 132 132 135 -193 -193 140 141 143 140 140 141 146 140 143 143 143 -177 -177 -193 -193 -209 -193 -209 -193 -193 -193 -193 -193 -193 168 -209 168 169 170 169 -193 -193 -193 -193 171 173 173 173 175 174 178 180 181 -193 189 190 192 0 0 0 0 0
    0 0 0 0 0 0 0 0 0 0 0 0 0 0 0 0 0 0 0 0 0 0 0 0 0 0 0 0 0 0 0 0 0 0 0 0 0 0 0 0 0 0 0 0 0 0 0 0 0 0 0 0 0 0 0 0 0 0 0 0 0 0 0 0 0 0 0 0 0 62 52 50 41 40 40 38 38 38 37 37 37 35 34 31 37 38 37 38 37 37 39 39 39 37 35 37 34 34 34 34 33 32 33 32 30 30 29 30 28 29 29 30 28 28 31 31 31 33 32 32 30 31 30 29 30 28 27 27 27 26 26 25 21 20 19 19 18 11 10 10 0 0 0 0 0 0 0 0 0 0 0 0 9 10 10 9 9 9 10 10 11 11 10 10 11 11 11 10 10 9 10 11 14 13 14 14 14 21 31 30 34 32 34 34 34 34 34 33 37 37 39 40 45 45 45 46 46 46 46 49 51 44 58 67 61 61 62 70 73 73 -193 77 -193 76 81 78 78 78 79 77 -193 -193 -193 74 75 77 -193 -177 -177 -177 -193 -177 177 -193 -209 91 92 91 91 -193 -193 -209 -177 -177 -193 108 110 -193 109 111 118 120 122 123 124 125 125 127 126 123 120 124 133 132 132 135 -193 -193 140 141 143 140 140 141 146 140 146 146 -193 -193 -177 -193 -193 -209 154 -209 -209 -193 -193 -193 -193 -193 168 -193 -193 170 170 168 -193 -209 -193 -193 171 173 173 173 175 174 178 180 181 -193 189 189 193 0 0 0 0 0
    0 0 0 0 0 0 0 0 0 0 0 0 0 0 0 0 0 0 0 0 0 0 0 0 0 0 0 0 0 0 0 0 0 0 0 0 0 0 0 0 0 0 0 0 0 0 0 0 0 0 0 0 0 0 0 0 0 0 0 0 0 0 0 0 0 0 0 0 0 62 54 51 41 41 40 38 38 38 37 37 37 35 33 30 37 39 38 38 37 37 39 39 38 37 35 37 34 34 34 34 33 32 33 31 29 30 28 28 27 27 28 29 28 28 30 31 32 33 32 32 30 30 30 29 30 28 27 27 27 27 26 25 21 20 19 19 19 13 10 10 0 0 0 0 0 0 0 0 0 0 0 0 9 9 10 9 9 0 9 10 10 10 10 10 11 11 11 10 11 10 11 12 14 13 13 14 12 21 32 30 34 32 35 34 34 34 34 33 37 36 38 39 45 45 45 46 46 45 46 48 51 43 58 67 63 63 65 70 72 72 -193 -193 517 75 79 77 77 78 78 76 -193 -193 -193 74 75 77 -193 -177 258 260 261 -177 176 -193 -209 91 92 91 91 -209 -193 -209 -177 -177 -193 108 109 -193 109 112 118 120 122 122 123 125 125 127 126 123 121 124 133 132 132 135 -193 -193 140 141 143 140 140 141 146 140 147 148 -193 -177 -177 -177 -177 -209 154 -209 -209 -193 -193 -193 -193 -193 -193 -193 -193 169 170 167 -193 -209 -177 -193 -193 172 172 173 175 174 178 180 181 -193 -193 189 193 0 0 0 0 0
    0 0 0 0 0 0 0 0 0 0 0 0 0 0 0 0 0 0 0 0 0 0 0 0 0 0 0 0 0 0 0 0 0 0 0 0 0 0 0 0 0 0 0 0 0 0 0 0 0 0 0 0 0 0 0 0 0 0 0 0 0 0 0 0 0 0 0 0 0 62 54 51 41 41 41 39 39 38 37 37 37 36 34 30 37 39 38 39 37 38 39 39 38 37 35 37 34 34 34 34 33 32 33 31 28 30 27 27 26 27 27 28 27 28 29 30 31 32 30 30 28 28 29 28 28 27 26 26 26 27 26 25 20 20 19 19 19 15 11 11 0 0 0 0 0 0 0 0 0 0 0 0 9 10 10 8 9 0 9 9 10 10 10 10 11 11 11 10 11 11 11 12 13 13 14 14 10 23 32 31 35 33 35 35 34 34 33 34 37 35 37 38 44 44 45 45 45 45 46 49 51 43 58 67 65 65 66 71 72 72 -193 -193 -193 74 78 76 76 78 78 76 74 74 76 74 74 77 -193 -193 258 260 261 -177 175 177 -209 91 92 91 92 -193 94 -209 -177 -177 -209 -193 108 -193 109 113 118 120 122 122 123 125 125 127 126 123 121 124 133 133 133 135 142 140 140 141 144 140 140 142 146 141 149 -193 -193 -177 -193 -177 -193 -209 154 -193 -209 160 -193 -193 -193 -193 -193 -193 168 169 169 167 -193 -209 -177 -193 170 172 172 173 175 174 178 180 182 -193 189 190 193 0 0 0 0 0
    0 0 0 0 0 0 0 0 0 0 0 0 0 0 0 0 0 0 0 0 0 0 0 0 0 0 0 0 0 0 0 0 0 0 0 0 0 0 0 0 0 0 0 0 0 0 0 0 0 0 0 0 0 0 0 0 0 0 0 0 0 0 0 0 0 0 0 0 0 61 54 50 40 40 40 38 39 38 37 37 37 36 34 31 37 39 37 38 37 37 38 39 38 37 34 37 34 34 34 34 33 33 33 31 28 31 27 26 27 27 27 28 27 27 27 28 30 29 28 27 26 26 26 26 26 24 24 25 23 25 24 24 19 20 20 19 18 16 11 12 9 0 0 0 0 0 0 9 0 0 0 0 9 10 10 9 9 9 9 10 10 11 10 11 12 11 11 11 11 11 11 12 13 13 15 16 -177 27 33 32 36 33 35 35 33 33 33 34 37 34 36 38 43 44 45 45 44 44 46 48 50 42 58 66 66 66 67 71 72 72 -193 75 -193 74 78 76 76 78 78 76 74 74 76 74 74 77 -177 -193 258 260 261 -177 175 177 -193 90 91 91 92 93 93 -209 -193 -193 -209 -193 108 -193 109 113 118 119 122 122 123 125 125 126 126 123 121 124 133 133 133 135 142 140 140 141 144 140 140 142 147 141 150 -209 -193 -177 -193 -193 -193 -193 155 -193 -209 158 -209 -193 -193 -193 -193 -193 168 168 169 166 168 -193 -177 -193 170 172 172 173 175 174 178 180 181 -193 189 190 193 0 0 0 0 0
    0 0 0 0 0 0 0 0 0 0 0 0 0 0 0 0 0 0 0 0 0 0 0 0 0 0 0 0 0 0 0 0 0 0 0 0 0 0 0 0 0 0 0 0 0 0 0 0 0 0 0 0 0 0 0 0 0 0 0 0 0 0 0 0 0 0 0 0 0 60 54 49 39 40 40 38 39 38 36 37 37 36 34 31 36 38 36 37 36 37 38 38 37 36 33 37 34 34 34 34 33 33 33 31 28 32 28 27 28 28 28 28 28 28 27 28 30 28 25 25 23 24 25 24 24 22 22 23 21 22 21 22 17 18 18 17 16 15 10 13 9 9 0 0 0 0 0 9 0 0 0 0 9 9 9 9 10 9 10 10 10 10 10 10 11 10 11 10 11 11 11 12 12 12 12 14 0 27 33 31 36 33 34 35 33 33 33 34 36 34 36 38 42 43 44 44 44 44 47 49 51 -177 59 66 67 67 68 71 72 72 -193 75 -193 74 78 76 76 78 78 76 74 74 76 74 74 -193 -177 -193 258 -193 -193 -177 175 178 -193 -193 91 90 92 92 93 -193 -193 -193 -193 -193 -193 -193 109 113 117 119 121 122 123 124 125 126 126 122 120 123 132 131 131 134 -193 -193 140 141 143 140 140 142 147 142 151 -193 -193 -177 -209 -193 -193 155 154 -193 -209 157 -209 -193 -193 -193 -193 -193 167 168 168 165 168 -193 -177 -193 170 172 173 173 175 175 179 180 182 -193 189 190 194 0 0 0 0 0
    0 0 0 0 0 0 0 0 0 0 0 0 0 0 0 0 0 0 0 0 0 0 0 0 0 0 0 0 0 0 0 0 0 0 0 0 0 0 0 0 0 0 0 0 0 0 0 0 0 0 0 0 0 0 0 0 0 0 0 0 0 0 0 0 0 0 0 0 0 60 55 48 39 39 39 38 38 37 36 36 37 36 34 32 35 38 36 36 36 36 37 37 37 35 31 37 34 34 35 33 32 33 33 31 29 32 29 27 28 29 28 28 28 28 26 27 29 26 23 22 20 21 22 23 22 20 19 20 18 18 18 19 15 16 16 16 15 13 10 12 9 9 0 0 0 0 0 9 0 0 0 0 9 9 9 9 10 9 9 10 10 10 10 10 11 10 11 11 11 11 11 12 12 12 12 13 0 27 -177 30 35 33 34 35 33 33 33 34 36 34 36 38 41 43 44 44 44 44 47 49 50 -177 59 65 68 68 68 71 72 72 -193 75 74 74 78 76 76 78 78 75 74 74 76 74 74 -193 -193 -209 258 -193 -193 -193 176 178 -193 -193 91 90 92 93 93 -193 -209 -193 -193 -177 -193 -193 109 113 117 119 121 122 122 124 124 125 125 122 119 122 131 131 131 134 141 139 140 141 143 140 140 142 147 142 151 -209 -193 -177 -209 -193 -193 154 154 -193 -209 -193 -193 -193 -193 -193 165 -193 167 167 168 165 -193 -193 -209 172 171 173 173 173 175 175 179 180 182 187 189 190 194 0 0 0 0 0
    0 0 0 0 0 0 0 0 0 0 0 0 0 0 0 0 0 0 0 0 0 0 0 0 0 0 0 0 0 0 0 0 0 0 0 0 0 0 0 0 0 0 0 0 0 0 0 0 0 0 0 0 0 0 0 0 0 0 0 0 0 0 0 0 0 0 0 0 0 60 57 49 38 39 38 37 38 37 35 36 37 35 34 32 35 38 36 36 36 37 38 37 37 36 32 37 34 34 35 33 32 33 33 31 29 32 29 27 28 29 28 28 28 27 25 26 27 19 15 15 15 14 11 19 16 14 15 15 14 13 13 16 12 14 14 14 14 13 10 13 10 10 8 9 9 9 9 9 0 0 0 9 9 9 10 9 10 9 9 10 9 10 10 10 11 10 11 11 10 11 11 12 13 12 13 14 0 26 31 30 35 33 34 35 33 33 33 34 36 34 36 38 41 43 44 44 44 44 47 49 50 42 58 64 67 67 68 71 72 72 -193 76 75 74 78 76 76 78 78 75 74 74 76 74 74 -193 -193 -209 257 84 84 -193 -193 -193 -193 -193 91 90 -193 93 94 -193 -209 -209 -193 -177 -193 -193 109 114 117 119 121 122 123 124 125 125 124 122 119 122 132 132 132 135 142 140 141 141 144 140 140 142 147 142 151 -209 -193 -177 -193 -193 -193 154 154 -209 -209 -193 -193 162 -193 -193 164 -193 166 167 167 165 -193 -193 -209 172 171 173 174 174 176 175 179 180 182 186 189 189 194 0 0 0 0 0
    0 0 0 0 0 0 0 0 0 0 0 0 0 0 0 0 0 0 0 0 0 0 0 0 0 0 0 0 0 0 0 0 0 0 0 0 0 0 0 0 0 0 0 0 0 0 0 0 0 0 0 0 0 0 0 0 0 0 0 0 0 0 0 0 0 0 0 0 0 60 57 57 38 38 38 37 38 37 35 35 36 35 34 32 34 38 36 36 36 37 38 37 37 36 32 37 34 34 34 32 32 33 32 31 29 32 29 27 28 29 28 27 27 27 16 21 21 0 0 9 11 9 0 12 9 9 11 11 10 9 10 13 11 13 13 12 12 12 10 13 10 11 9 10 10 10 9 10 9 9 0 9 9 9 10 9 10 9 9 10 9 10 10 10 11 10 11 11 10 11 11 12 13 12 13 14 9 26 31 29 35 32 33 36 33 33 33 35 36 34 37 38 41 43 44 44 44 44 47 50 51 43 58 62 66 66 67 71 72 72 -193 76 75 74 79 77 77 78 78 76 74 74 77 74 74 -193 -193 -193 257 -193 84 -193 -193 -193 -193 -209 91 91 -193 94 94 100 -209 -193 -193 -193 -193 -193 109 113 117 119 121 122 123 124 125 125 124 121 119 122 131 133 133 135 143 140 141 142 144 141 140 142 147 141 150 -193 -193 -177 -209 -193 -193 153 154 -209 -209 -193 -193 161 -193 -193 164 -193 166 167 167 165 -193 -193 -209 173 172 174 175 174 176 176 179 180 181 186 188 189 193 0 0 0 0 0
    0 0 0 0 0 0 0 0 0 0 0 0 0 0 0 0 0 0 0 0 0 0 0 0 0 0 0 0 0 0 0 0 0 0 0 0 0 0 0 0 0 0 0 0 0 0 0 0 0 0 0 0 0 0 0 0 0 0 0 0 0 0 0 0 0 0 0 0 0 59 58 57 38 38 37 37 37 36 35 35 36 35 34 33 34 38 36 36 36 36 37 37 37 36 32 36 34 33 34 32 32 33 33 31 29 32 29 27 29 29 28 28 28 27 13 15 10 0 0 0 9 0 0 9 0 0 9 9 9 0 9 11 9 11 11 11 11 11 10 13 11 11 10 10 11 10 10 11 9 9 9 10 9 9 9 9 10 9 10 10 10 10 10 10 12 10 11 11 10 11 11 12 13 12 13 14 9 25 30 29 35 32 33 35 33 33 32 34 36 33 36 38 40 43 44 44 44 44 48 50 51 44 57 61 65 65 66 71 73 73 74 78 76 75 80 77 77 78 78 76 74 74 77 74 75 -193 -193 -193 256 -177 83 -177 -209 -193 -193 -193 92 91 93 95 94 100 -209 -193 -193 -177 -177 -193 108 113 117 118 121 122 122 124 124 124 124 121 119 122 131 134 134 135 143 140 141 142 145 141 140 142 146 141 149 -193 -193 -177 -193 -209 -193 -209 154 -193 -209 -193 -193 161 162 -193 164 -193 166 167 167 -193 -193 -193 -193 174 173 175 176 175 177 177 179 180 181 185 188 188 192 0 0 0 0 0
    0 0 0 0 0 0 0 0 0 0 0 0 0 0 0 0 0 0 0 0 0 0 0 0 0 0 0 0 0 0 0 0 0 0 0 0 0 0 0 0 0 0 0 0 0 0 0 0 0 0 0 0 0 0 0 0 0 0 0 0 0 0 0 0 0 0 0 0 0 58 57 57 38 37 36 36 37 36 35 36 36 34 34 33 34 38 35 36 35 36 37 36 37 36 31 36 34 34 34 32 32 33 33 31 29 32 30 28 29 29 28 28 28 27 17 15 10 0 0 0 0 0 0 0 0 0 0 0 0 0 0 9 0 10 9 9 9 10 9 12 11 11 10 11 11 11 11 11 9 10 10 10 9 9 10 9 10 10 10 11 10 10 10 10 11 10 11 11 10 11 11 12 12 12 13 13 10 22 28 28 34 31 32 35 32 32 32 34 35 32 36 38 41 43 45 45 44 44 48 51 51 44 57 61 64 64 65 70 74 74 75 80 77 77 81 78 78 79 79 77 -193 75 77 74 75 -193 -177 251 256 -177 -193 -177 -193 -193 -193 -193 92 91 93 94 93 99 -193 -177 390 -177 -177 -193 108 112 116 118 121 122 122 123 124 124 124 121 118 122 131 134 134 135 143 140 141 142 144 141 140 142 146 140 147 -193 -193 -177 -193 -209 -193 -209 154 -193 -209 -193 -193 160 162 -193 163 -193 166 167 168 -193 -193 -193 -193 174 174 176 177 176 177 177 179 180 180 184 187 188 191 0 0 0 0 0
    0 0 0 0 0 0 0 0 0 0 0 0 0 0 0 0 0 0 0 0 0 0 0 0 0 0 0 0 0 0 0 0 0 0 0 0 0 0 0 0 0 0 0 0 0 0 0 0 0 0 0 0 0 0 0 0 0 0 0 0 0 0 0 0 0 0 0 0 0 57 57 55 38 37 36 37 37 37 36 37 36 35 35 35 34 38 36 35 35 36 37 36 37 36 32 36 34 34 34 32 32 33 33 31 29 32 30 28 29 29 28 28 28 27 -193 18 12 0 0 0 0 0 0 0 0 0 0 0 0 0 0 9 0 9 9 0 0 9 9 12 11 11 10 11 12 11 11 12 10 11 10 10 10 9 10 9 11 10 10 11 10 11 11 10 11 9 11 11 9 10 10 12 12 12 12 13 12 20 -193 27 33 30 32 35 32 32 32 34 35 33 37 38 -209 43 45 45 44 44 48 51 51 44 57 61 65 65 66 70 75 74 76 82 79 78 82 80 80 80 80 78 -193 75 78 74 75 -193 -177 -177 -177 -177 -193 701 -193 -193 -193 -193 92 91 93 94 93 98 -193 -177 390 -177 -177 -193 108 112 116 118 121 122 122 123 123 123 123 120 118 122 132 133 133 135 143 140 141 141 144 141 140 142 146 140 146 -193 -193 -193 -193 152 154 -193 154 -193 -209 155 -193 160 162 159 163 -193 166 167 -193 -193 -193 -193 -193 175 174 176 177 176 177 176 178 180 180 184 186 187 191 0 0 0 0 0
    0 0 0 0 0 0 0 0 0 0 0 0 0 0 0 0 0 0 0 0 0 0 0 0 0 0 0 0 0 0 0 0 0 0 0 0 0 0 0 0 0 0 0 0 0 0 0 0 0 0 0 0 0 0 0 0 0 0 0 0 0 0 0 0 0 0 0 0 0 56 56 47 39 38 36 37 38 38 37 38 37 35 36 36 35 38 36 36 35 37 38 37 37 36 32 36 35 34 34 31 32 33 33 31 30 32 30 28 29 29 28 28 27 26 21 21 17 9 0 0 10 0 0 8 0 0 0 0 0 0 9 9 0 10 10 9 9 9 9 11 10 11 11 11 11 11 11 12 10 11 11 10 10 9 11 9 11 10 10 11 10 10 10 10 11 9 10 11 9 10 10 12 12 12 12 13 13 20 -209 -193 33 30 32 35 32 32 33 33 -177 -177 37 38 -193 43 45 45 43 44 48 51 51 45 57 61 -193 -193 65 70 76 75 76 82 79 79 83 80 80 80 80 78 -193 75 78 74 75 -193 -177 -177 -177 703 704 701 -177 -193 -193 -193 92 92 93 94 92 98 -193 -177 390 -177 -177 730 108 112 116 117 120 121 121 122 123 123 123 119 117 123 132 132 132 135 142 140 140 141 143 140 140 141 145 140 146 -193 -193 -209 149 151 153 -193 154 -193 -209 155 -193 160 162 159 163 -193 166 167 -209 -193 -193 -193 -193 175 174 176 177 176 177 176 178 180 179 183 186 187 190 0 0 0 0 0
    0 0 0 0 0 0 0 0 0 0 0 0 0 0 0 0 0 0 0 0 0 0 0 0 0 0 0 0 0 0 0 0 0 0 0 0 0 0 0 0 0 0 0 0 0 0 0 0 0 0 0 0 0 0 0 0 0 0 0 0 0 0 0 0 0 0 0 0 0 55 52 42 39 38 36 38 38 39 39 39 38 36 36 37 36 39 36 36 36 37 38 37 37 36 32 36 35 34 34 32 32 33 33 31 30 32 30 28 28 29 28 27 27 27 23 23 21 13 9 9 12 0 0 9 0 0 0 0 9 0 9 9 9 10 10 10 9 0 9 10 10 10 11 11 11 11 11 12 10 11 11 10 10 9 10 9 10 9 9 10 9 10 10 9 10 9 10 10 0 10 10 11 11 11 12 12 13 20 -193 -193 -193 31 32 35 32 32 33 33 -177 -177 37 38 41 43 45 45 43 44 48 51 51 45 57 61 -193 -193 65 70 74 74 76 82 79 78 83 80 80 80 80 78 -193 75 78 74 75 -193 -177 -177 -177 703 704 701 -177 -193 -193 90 93 92 93 95 93 99 -177 -177 390 -177 -177 731 108 112 116 117 119 120 121 122 123 122 122 118 115 122 132 132 132 135 142 140 140 141 143 140 140 141 145 139 144 -193 -193 -209 148 151 153 -193 154 -193 -209 155 -193 160 162 160 163 -193 166 167 -209 -193 -193 -193 172 175 175 176 178 176 178 177 178 180 179 183 185 186 190 0 0 0 0 0
    0 0 0 0 0 0 0 0 0 0 0 0 0 0 0 0 0 0 0 0 0 0 0 0 0 0 0 0 0 0 0 0 0 0 0 0 0 0 0 0 0 0 0 0 0 0 0 0 0 0 0 0 0 0 0 0 0 0 0 0 0 0 0 0 0 0 0 0 0 52 46 41 39 39 37 38 39 39 40 40 39 37 37 37 37 39 37 36 36 37 38 37 37 36 33 36 35 35 33 32 33 33 33 32 30 32 30 28 28 29 28 28 27 27 23 24 23 18 12 11 14 9 0 10 0 9 9 9 10 9 10 10 10 11 10 11 10 9 9 10 10 10 11 11 11 11 11 11 11 11 11 10 10 9 10 9 10 9 9 10 9 10 10 9 10 9 10 10 9 10 10 11 11 11 12 12 12 20 -193 -193 33 31 32 35 32 32 33 33 -177 -177 37 38 41 43 45 45 44 44 47 51 51 45 57 61 -193 -193 65 70 -193 73 75 80 78 77 81 79 79 -177 80 78 -193 75 78 75 75 78 -177 251 256 703 704 701 -177 -177 -193 90 93 93 94 96 93 100 -177 -209 -193 -177 -177 -193 108 112 116 117 119 120 120 122 122 122 122 118 115 123 132 133 133 135 142 140 140 141 143 140 140 141 144 139 144 -193 -193 -209 147 150 -209 -209 154 155 -209 155 -193 160 162 160 163 -209 166 167 -209 -177 -193 -193 172 176 176 177 178 177 178 177 178 180 179 182 184 186 188 0 0 0 0 0
    0 0 0 0 0 0 0 0 0 0 0 0 0 0 0 0 0 0 0 0 0 0 0 0 0 0 0 0 0 0 0 0 0 0 0 0 0 0 0 0 0 0 0 0 0 0 0 0 0 0 0 0 0 0 0 0 0 0 0 0 0 0 0 0 0 0 0 0 0 48 43 41 40 40 38 39 39 40 40 41 39 37 37 38 38 40 37 37 36 38 38 37 37 36 33 37 35 36 33 33 33 33 33 32 30 33 30 29 29 29 28 28 27 27 24 25 23 19 13 13 14 10 10 11 9 10 10 10 11 10 10 10 10 11 11 11 10 9 10 10 10 10 11 11 11 11 11 11 11 11 11 10 10 9 10 9 10 10 10 10 10 10 10 10 10 9 10 10 9 9 9 11 11 11 11 12 12 19 -193 -193 33 31 32 35 32 32 33 33 -177 -177 37 38 41 44 45 45 44 44 47 50 51 45 56 60 -193 -193 65 70 -193 72 74 78 76 75 80 77 77 79 79 77 -193 75 78 75 75 -193 -177 251 256 703 704 701 -177 -177 -193 90 93 93 94 96 92 100 210 -209 -209 -193 -177 -193 108 112 116 117 119 119 120 121 122 122 122 118 116 124 133 134 134 135 143 140 140 141 143 140 140 140 144 139 143 -193 -193 -209 147 151 -193 -209 154 156 -193 155 -193 160 -193 -193 163 -209 166 167 -209 -177 -193 -193 172 176 176 177 178 177 178 177 178 180 179 182 184 185 -193 0 0 0 0 0
    0 0 0 0 0 0 0 0 0 0 0 0 0 0 0 0 0 0 0 0 0 0 0 0 0 0 0 0 0 0 0 0 0 0 0 0 0 0 0 0 0 0 0 0 0 0 0 0 0 0 0 0 0 0 0 0 0 0 0 0 0 0 0 0 0 0 0 0 0 46 42 41 40 40 39 40 40 40 40 41 40 38 38 38 38 40 38 37 37 38 38 37 37 36 33 37 35 36 32 34 33 33 33 32 30 33 29 30 28 29 28 28 28 27 24 25 23 19 14 13 14 11 11 12 11 11 10 11 12 11 12 11 11 12 11 12 11 10 10 10 10 10 11 11 11 11 11 11 10 11 11 10 10 9 10 9 10 10 10 10 10 10 10 10 11 10 10 10 9 9 9 11 10 11 11 11 12 20 27 27 33 31 32 35 32 32 33 33 -177 -177 37 38 41 44 45 45 44 44 47 50 51 45 57 62 -209 -193 68 71 -193 72 74 -193 76 75 79 77 77 79 79 77 -193 75 78 75 75 -193 -177 251 256 703 704 701 -177 -177 -193 91 94 92 93 96 91 100 210 -209 -209 -193 -177 -193 109 112 116 117 118 119 119 121 121 122 122 118 117 124 133 134 134 135 143 140 140 140 143 140 140 140 144 139 143 -193 -193 -209 146 151 153 -209 154 156 -193 154 -193 -193 -193 -193 163 -209 166 167 -209 -177 -193 -193 172 175 176 176 178 177 178 178 178 180 179 182 184 -193 -193 0 0 0 0 0
    0 0 0 0 0 0 0 0 0 0 0 0 0 0 0 0 0 0 0 0 0 0 0 0 0 0 0 0 0 0 0 0 0 0 0 0 0 0 0 0 0 0 0 0 0 0 0 0 0 0 0 0 0 0 0 0 0 0 0 0 0 0 0 0 0 0 0 0 0 44 42 41 40 40 40 40 40 40 41 41 40 39 39 39 39 40 38 38 37 38 38 37 37 37 33 37 35 36 32 35 34 33 34 32 30 34 29 30 28 28 28 28 28 27 25 26 25 20 16 15 15 11 12 12 12 12 12 12 13 12 13 12 11 12 12 13 11 10 10 10 10 10 11 10 11 11 11 11 11 11 12 10 11 9 10 9 10 10 10 10 10 10 10 10 10 9 10 9 0 0 9 11 10 11 11 12 13 20 28 27 33 31 32 35 32 32 33 33 -177 -177 37 38 41 43 45 45 44 44 46 50 50 45 57 64 -209 70 70 72 -193 73 74 -193 76 75 79 77 77 79 79 77 -193 75 78 75 75 -193 -177 251 256 703 703 700 -177 -177 -177 91 94 -193 93 96 90 99 209 -209 -209 -193 -177 -193 109 113 116 116 118 118 119 121 121 122 122 118 117 125 133 134 134 135 142 140 140 140 143 140 139 140 144 139 142 -193 -193 -209 146 151 154 -209 154 156 153 154 -193 159 -193 -193 163 -209 166 167 -209 -177 -193 -193 171 175 175 176 178 177 179 178 178 181 180 182 184 -193 -193 0 0 0 0 0
    0 0 0 0 0 0 0 0 0 0 0 0 0 0 0 0 0 0 0 0 0 0 0 0 0 0 0 0 0 0 0 0 0 0 0 0 0 0 0 0 0 0 0 0 0 0 0 0 0 0 0 0 0 0 0 0 0 0 0 0 0 0 0 0 0 0 0 0 0 43 41 41 40 40 40 40 41 41 41 41 41 39 39 39 39 41 38 38 37 39 38 37 37 37 33 38 35 37 32 35 34 33 34 32 30 34 29 30 28 28 28 28 28 27 25 26 25 21 19 18 16 13 14 14 13 13 13 13 14 13 13 13 12 12 12 13 12 10 10 10 10 10 11 10 11 10 11 11 11 11 12 11 11 10 11 10 10 10 10 9 10 10 10 9 10 9 10 9 9 0 9 12 11 12 12 13 15 21 29 28 33 31 32 35 32 32 33 33 36 -177 37 38 41 43 45 45 44 44 46 49 50 44 57 66 -209 -193 72 72 73 73 75 -193 76 75 79 77 77 79 79 77 -193 75 78 75 75 -193 -177 251 256 702 703 700 -193 -177 -177 -193 94 -193 -193 96 90 -193 208 -209 -209 -193 -177 -193 109 113 116 117 118 118 119 121 121 122 122 118 117 125 134 133 133 135 142 140 140 140 142 140 139 140 144 139 142 141 -193 -209 146 151 154 151 154 156 153 154 755 159 -193 -193 163 -193 166 167 -209 -193 -193 -193 -193 175 175 176 178 177 179 179 179 181 180 182 184 -193 -193 0 0 0 0 0
    0 0 0 0 0 0 0 0 0 0 0 0 0 0 0 0 0 0 0 0 0 0 0 0 0 0 0 0 0 0 0 0 0 0 0 0 0 0 0 0 0 0 0 0 0 0 0 0 0 0 0 0 0 0 0 0 0 0 0 0 0 0 0 0 0 0 0 0 0 43 41 40 40 40 40 40 41 41 41 41 41 40 40 40 40 41 38 38 37 39 38 37 37 37 33 38 35 37 32 35 34 33 34 32 30 34 29 31 28 28 27 27 28 27 25 26 25 21 20 19 17 14 14 15 14 14 13 14 14 14 14 13 12 12 11 13 12 10 10 10 10 11 11 11 11 10 11 11 11 11 12 10 11 10 11 10 10 9 10 9 10 9 9 9 9 9 9 9 9 9 9 12 12 13 13 15 19 22 31 29 34 31 32 35 32 32 33 33 36 33 37 38 41 43 45 45 44 44 46 49 50 43 57 67 -209 -193 73 73 74 74 75 77 76 75 79 77 77 79 79 77 75 75 78 74 75 -193 -193 -193 256 -177 702 699 -193 -193 -193 -209 94 -209 -193 97 89 -193 -193 -209 -193 -209 -193 -193 109 113 116 117 118 118 119 121 121 122 122 118 116 124 134 133 133 135 142 139 140 -193 142 139 139 140 144 139 142 141 -193 -193 146 151 154 151 154 155 153 154 755 158 -193 -193 163 -193 166 167 -209 -209 -193 171 -193 174 175 176 178 178 179 179 180 182 181 183 185 -193 -193 0 0 0 0 0
    0 0 0 0 0 0 0 0 0 0 0 0 0 0 0 0 0 0 0 0 0 0 0 0 0 0 0 0 0 0 0 0 0 0 0 0 0 0 0 0 0 0 0 0 0 0 0 0 0 0 0 0 0 0 0 0 0 0 0 0 0 0 0 0 0 0 0 0 0 42 40 39 39 39 39 39 40 40 40 41 41 39 39 40 40 40 38 38 37 39 37 37 37 37 33 38 35 37 31 35 34 33 34 32 30 34 28 31 28 27 27 27 27 27 24 25 24 21 20 20 17 15 15 15 14 15 14 14 15 14 14 14 12 12 11 13 13 10 10 11 11 12 13 11 11 11 11 11 11 11 12 10 11 10 11 10 10 10 10 9 10 9 9 0 0 0 9 0 9 9 9 12 13 14 14 16 21 23 34 30 35 31 32 35 32 32 33 33 36 33 37 38 41 43 45 45 44 44 46 49 50 43 57 68 -193 -193 74 74 74 74 75 77 76 75 79 77 77 79 79 77 75 75 77 74 75 -193 -193 -193 -177 -177 -177 -177 -209 -193 -193 -209 -209 -209 -193 -209 87 -193 -209 -193 -193 -209 -193 108 110 114 116 117 119 119 119 121 121 122 122 117 114 124 134 133 133 135 142 140 140 -193 142 139 139 140 144 139 142 141 -193 -177 147 151 154 151 154 155 153 154 -177 158 -193 -209 163 -193 166 167 -193 -193 170 171 -193 174 175 176 179 178 180 180 180 182 182 183 185 -193 187 0 0 0 0 0
    0 0 0 0 0 0 0 0 0 0 0 0 0 0 0 0 0 0 0 0 0 0 0 0 0 0 0 0 0 0 0 0 0 0 0 0 0 0 0 0 0 0 0 0 0 0 0 0 0 0 0 0 0 0 0 0 0 0 0 0 0 0 0 0 0 0 0 0 0 41 -193 39 38 39 38 38 40 39 40 40 40 39 39 39 40 40 38 38 37 39 37 37 37 37 33 38 35 37 31 35 34 33 34 32 30 34 29 32 28 27 27 27 27 26 24 25 24 20 21 20 17 15 15 15 14 15 14 15 15 15 14 14 12 12 11 13 12 10 10 11 11 12 13 11 11 11 12 11 11 11 12 10 11 11 11 10 10 11 11 10 11 10 10 9 9 9 9 0 9 9 9 11 12 13 13 14 21 24 35 30 35 31 32 35 32 32 33 33 36 33 37 38 -193 43 45 45 44 44 46 49 50 43 58 69 75 74 74 74 75 74 75 77 76 75 79 77 77 79 79 77 75 75 77 74 75 -193 -209 -177 -177 -177 -177 -177 -193 0 -193 -209 -209 -209 -209 -193 -193 -209 -209 -193 110 -193 107 108 110 114 117 117 119 119 120 121 121 121 122 117 114 124 135 134 134 135 143 140 140 -193 142 139 139 140 144 139 142 142 -193 -177 148 152 155 151 153 154 -193 -193 -193 158 160 -209 163 -193 166 167 -209 -193 170 171 -193 174 176 176 179 179 180 180 181 183 182 183 185 -193 186 0 0 0 0 0
    0 0 0 0 0 0 0 0 0 0 0 0 0 0 0 0 0 0 0 0 0 0 0 0 0 0 0 0 0 0 0 0 0 0 0 0 0 0 0 0 0 0 0 0 0 0 0 0 0 0 0 0 0 0 0 0 0 0 0 0 0 0 0 0 0 0 0 0 0 41 40 40 39 39 38 38 39 39 39 40 40 39 39 39 39 40 38 38 37 39 37 37 37 36 33 38 35 36 31 35 33 33 33 32 30 34 29 32 28 27 26 27 27 26 24 25 23 20 21 20 17 16 15 16 14 15 14 15 15 16 13 13 11 12 11 12 12 10 10 11 11 13 13 11 11 11 12 11 11 11 11 11 12 11 11 11 11 11 11 10 11 10 10 9 9 9 9 0 9 9 9 11 13 14 13 16 23 24 35 31 35 31 32 35 32 32 33 33 36 33 37 38 -193 43 45 45 44 44 47 50 50 43 58 70 75 74 74 74 76 75 76 78 77 75 80 78 78 79 79 77 75 75 77 74 74 -193 -209 -177 -177 -177 -177 -177 0 0 0 -209 -209 -209 -209 -193 -193 -209 -209 -177 109 -193 107 108 110 114 117 118 119 119 120 121 121 121 121 117 113 124 135 134 134 136 143 140 140 -193 142 139 139 139 144 139 142 142 -193 -177 148 152 155 152 153 153 -193 -193 -193 158 159 -209 163 -193 166 167 -193 -193 170 171 -193 174 176 176 179 179 180 181 181 183 182 183 185 185 186 0 0 0 0 0
    0 0 0 0 0 0 0 0 0 0 0 0 0 0 0 0 0 0 0 0 0 0 0 0 0 0 0 0 0 0 0 0 0 0 0 0 0 0 0 0 0 0 0 0 0 0 0 0 0 0 0 0 0 0 0 0 0 0 0 0 0 0 0 0 0 0 0 0 0 42 41 40 39 39 38 38 39 39 39 39 40 38 38 38 39 40 37 37 37 38 37 37 37 36 33 38 35 36 31 35 33 33 33 32 29 34 29 32 28 27 26 26 27 26 24 25 23 20 21 21 18 17 17 16 14 15 15 15 15 15 13 12 11 11 10 11 11 10 10 10 11 12 12 11 11 11 12 11 12 11 11 11 12 11 11 11 11 11 11 10 10 10 10 9 9 9 9 9 9 9 9 11 14 15 15 17 22 24 34 30 35 31 32 35 32 32 33 33 36 33 37 38 -193 44 45 45 45 44 47 50 51 43 59 71 75 74 74 75 78 76 77 80 78 77 82 79 79 80 80 77 75 75 77 74 74 -193 -209 -177 -193 -177 -177 -177 0 0 -193 -209 -209 -209 -209 -193 -193 -209 -209 -193 108 -193 106 107 110 114 117 118 119 119 120 120 120 121 121 117 113 124 135 134 134 135 143 140 140 -193 142 139 139 140 144 139 143 143 -193 -177 148 152 155 152 153 153 -193 -193 -193 157 159 -209 163 -193 166 167 -193 -193 170 171 -193 174 176 176 179 179 180 181 181 183 183 183 185 185 186 0 0 0 0 0
    0 0 0 0 0 0 0 0 0 0 0 0 0 0 0 0 0 0 0 0 0 0 0 0 0 0 0 0 0 0 0 0 0 0 0 0 0 0 0 0 0 0 0 0 0 0 0 0 0 0 0 0 0 0 0 0 0 0 0 0 0 0 0 0 0 0 0 0 0 42 41 41 40 39 39 38 39 39 39 39 40 38 38 38 39 39 37 37 37 38 37 37 37 36 33 38 35 36 31 35 33 33 33 32 29 33 29 32 27 26 26 26 27 26 24 -193 23 -193 -193 -193 18 19 17 16 14 14 15 15 15 15 12 12 10 10 10 10 10 9 10 10 11 12 12 11 11 12 12 12 12 12 12 12 13 12 12 11 11 12 11 10 10 10 10 9 9 9 9 0 9 9 9 11 14 16 16 19 23 24 34 30 35 31 32 35 32 32 33 33 36 33 37 38 41 44 45 45 45 44 47 50 51 -177 60 71 76 74 74 75 80 77 78 82 79 78 83 80 80 80 80 78 75 75 77 74 74 -193 -193 -177 -193 -177 -177 -177 0 0 -193 -209 -209 -209 -209 -193 84 -209 -209 -193 107 -193 106 107 109 113 117 118 119 119 120 120 120 121 121 117 114 124 135 134 134 135 143 140 140 -193 142 139 139 140 144 139 143 143 144 -177 -193 153 156 152 152 152 -193 153 -193 157 158 -209 163 -193 -193 167 -193 -193 170 171 -193 174 176 176 179 179 180 181 181 -193 183 184 186 186 187 0 0 0 0 0
    0 0 0 0 0 0 0 0 0 0 0 0 0 0 0 0 0 0 0 0 0 0 0 0 0 0 0 0 0 0 0 0 0 0 0 0 0 0 0 0 0 0 0 0 0 0 0 0 0 0 0 0 0 0 0 0 0 0 0 0 0 0 0 0 0 0 0 0 0 43 43 41 40 39 39 38 39 38 38 39 40 38 38 38 39 39 37 37 37 38 36 36 36 35 33 38 34 36 31 35 33 33 33 32 29 33 28 31 27 26 25 26 26 26 24 -193 24 -193 -193 -193 -193 20 18 16 14 15 15 15 15 15 11 11 9 9 9 10 10 9 10 10 11 12 13 11 12 12 13 12 12 12 13 13 14 13 13 12 12 13 12 11 10 9 9 0 0 9 0 0 9 10 9 11 14 17 16 19 23 24 35 31 35 31 32 35 32 32 33 33 36 33 37 38 41 44 45 45 45 44 47 51 51 -177 60 72 77 75 75 75 81 78 79 83 80 79 83 80 80 80 81 78 75 76 76 73 74 -193 -193 -177 -193 -177 -177 -177 -193 0 -193 -193 -193 -209 -209 -209 85 96 -209 -193 106 107 106 107 109 113 117 117 119 119 120 120 120 121 121 116 112 124 135 134 134 135 143 140 140 -193 142 139 139 139 144 140 144 144 144 -177 -193 153 157 153 152 152 -193 153 -193 157 158 -209 162 -193 166 167 -193 -193 170 171 170 174 176 176 179 179 180 181 181 -193 183 184 186 186 187 0 0 0 0 0
    0 0 0 0 0 0 0 0 0 0 0 0 0 0 0 0 0 0 0 0 0 0 0 0 0 0 0 0 0 0 0 0 0 0 0 0 0 0 0 0 0 0 0 0 0 0 0 0 0 0 0 0 0 0 0 0 0 0 0 0 0 0 0 0 0 0 0 0 0 43 44 41 40 39 38 37 38 38 38 38 39 38 38 38 38 39 37 37 37 38 36 36 36 35 32 38 34 36 31 36 33 34 33 32 29 33 28 31 27 26 25 25 26 26 24 -193 23 -193 -193 -193 -193 21 17 15 14 14 15 14 15 14 11 11 10 10 10 10 10 10 9 10 10 12 12 11 11 12 13 12 13 12 13 13 13 13 14 13 13 14 12 12 10 10 10 9 0 9 0 0 9 10 10 11 14 15 16 17 20 23 35 30 35 31 32 35 32 32 33 33 36 33 37 38 41 44 45 45 45 44 47 50 51 -177 61 73 79 76 76 76 82 78 79 83 80 79 83 80 80 80 81 78 75 76 76 73 74 -193 -193 -177 -193 -177 -177 -177 -193 -193 -193 -209 -193 -193 -193 -209 86 97 -193 104 105 106 105 107 108 113 118 117 119 119 119 120 120 121 121 115 111 123 135 134 134 135 143 140 140 -193 142 139 139 139 144 140 145 145 145 -177 -193 153 157 153 152 152 -193 153 -193 157 158 -209 162 -193 166 166 -193 -193 170 171 170 174 176 175 179 179 180 180 181 -193 182 184 186 186 187 0 0 0 0 0
    0 0 0 0 0 0 0 0 0 0 0 0 0 0 0 0 0 0 0 0 0 0 0 0 0 0 0 0 0 0 0 0 0 0 0 0 0 0 0 0 0 0 0 0 0 0 0 0 0 0 0 0 0 0 0 0 0 0 0 0 0 0 0 0 0 0 0 0 0 43 44 42 40 39 39 37 38 38 38 38 39 38 37 37 38 39 37 37 37 38 36 36 36 35 32 38 34 36 31 36 34 34 34 32 29 33 28 31 27 26 25 25 26 26 24 25 23 21 23 22 19 21 17 15 14 14 15 15 16 15 11 12 10 10 10 10 10 10 10 9 10 11 12 11 11 12 12 12 13 13 13 13 14 13 13 13 13 14 13 12 10 10 10 9 9 9 0 0 9 10 10 10 12 13 14 15 17 21 34 30 35 31 32 35 32 32 33 32 36 33 37 38 41 44 45 45 45 44 47 51 51 -177 62 73 79 76 76 76 81 78 78 82 79 78 83 80 80 80 81 78 75 76 76 73 74 -193 -177 -177 -193 -177 -177 -177 -193 -193 -193 -193 92 92 91 -193 87 97 102 103 105 106 105 107 108 113 118 117 119 119 119 120 120 121 120 115 110 123 135 135 135 136 143 140 140 141 142 139 138 139 144 140 146 146 146 -177 -193 154 158 154 152 152 -193 153 161 157 157 -193 161 165 165 166 -193 -193 170 171 170 174 176 175 179 178 179 180 180 -193 182 184 186 186 187 0 0 0 0 0
    0 0 0 0 0 0 0 0 0 0 0 0 0 0 0 0 0 0 0 0 0 0 0 0 0 0 0 0 0 0 0 0 0 0 0 0 0 0 0 0 0 0 0 0 0 0 0 0 0 0 0 0 0 0 0 0 0 0 0 0 0 0 0 0 0 0 0 0 0 44 45 43 41 40 40 38 38 38 38 38 39 37 37 37 38 39 37 37 37 38 36 36 36 35 32 38 35 36 32 36 34 34 34 32 30 33 29 31 27 27 26 26 27 26 25 26 24 22 23 22 19 20 16 15 14 15 15 16 17 16 12 12 11 10 11 11 11 10 10 9 10 11 11 10 11 12 12 12 14 13 13 14 14 14 13 14 13 14 13 13 11 11 10 10 9 9 0 0 9 10 10 10 11 12 13 13 14 20 33 29 35 31 32 35 33 33 33 33 36 34 38 39 41 44 45 45 45 44 47 51 52 -177 63 73 77 74 74 75 79 77 77 81 79 78 83 80 80 80 81 79 75 76 77 74 74 75 -177 -177 -193 -193 -193 -193 -193 -193 -193 -193 92 92 91 92 88 98 101 101 103 106 105 107 108 113 118 117 119 119 119 120 120 121 120 115 111 123 135 135 135 136 144 140 141 141 142 139 138 139 143 140 146 146 -193 -177 -193 154 158 154 152 152 152 153 161 157 157 159 160 165 165 166 -193 -193 170 171 170 173 176 175 179 178 179 179 180 -193 182 183 186 186 187 0 0 0 0 0
    0 0 0 0 0 0 0 0 0 0 0 0 0 0 0 0 0 0 0 0 0 0 0 0 0 0 0 0 0 0 0 0 0 0 0 0 0 0 0 0 0 0 0 0 0 0 0 0 0 0 0 0 0 0 0 0 0 0 0 0 0 0 0 0 0 0 0 0 0 44 46 43 42 41 41 39 39 39 38 38 39 37 37 37 38 39 37 37 37 38 36 36 36 35 32 37 35 36 32 36 34 34 34 32 29 33 29 31 28 27 26 26 27 27 25 26 25 23 24 23 21 21 17 15 16 18 18 19 20 17 13 13 12 11 11 11 10 9 9 9 9 10 10 10 11 12 12 12 14 13 13 15 14 14 14 15 14 14 13 13 11 11 11 10 9 9 0 0 9 10 10 10 11 12 12 13 12 20 32 28 34 31 32 35 33 33 33 32 36 34 38 39 42 44 45 45 45 44 47 52 52 47 63 72 75 73 73 73 78 76 77 81 78 78 83 80 80 80 81 79 76 77 77 74 74 75 -177 -177 -193 -193 -193 -193 -193 -193 -193 91 92 92 91 92 89 98 101 101 102 105 105 107 107 112 118 117 119 119 119 120 120 120 120 116 113 124 135 136 136 136 144 140 141 141 143 139 138 139 143 -193 146 146 -193 -177 -193 154 159 155 153 153 153 153 161 157 157 158 160 164 164 165 166 -193 170 171 -193 173 176 175 178 177 178 178 179 -193 182 183 186 186 188 0 0 0 0 0
    0 0 0 0 0 0 0 0 0 0 0 0 0 0 0 0 0 0 0 0 0 0 0 0 0 0 0 0 0 0 0 0 0 0 0 0 0 0 0 0 0 0 0 0 0 0 0 0 0 0 0 0 0 0 0 0 0 0 0 0 0 0 0 0 0 0 0 0 0 44 46 43 42 41 41 40 39 39 38 38 39 37 37 37 37 39 37 37 37 38 35 35 35 34 32 37 34 36 31 36 34 34 34 32 29 32 29 30 28 27 26 26 27 27 26 27 25 25 25 24 24 23 19 17 19 21 21 22 21 19 16 15 14 11 11 11 10 9 0 0 9 9 10 9 10 12 12 12 14 13 13 15 14 14 14 15 14 14 13 13 11 11 11 10 9 10 9 9 9 10 10 10 12 12 12 13 12 19 29 28 34 31 33 35 33 33 33 32 36 35 39 39 43 44 46 46 45 45 47 52 52 47 62 72 74 73 73 73 78 76 77 81 78 78 83 80 80 80 81 79 76 77 77 74 75 76 -193 -177 -193 -193 -193 -193 -193 -193 -193 90 91 92 91 92 90 99 101 101 102 105 104 106 107 112 118 117 119 119 119 120 120 120 121 116 113 123 134 136 136 136 144 141 141 142 143 140 138 139 143 -193 146 146 146 -177 -193 155 159 156 153 153 153 153 161 157 157 158 159 163 164 165 166 165 170 171 170 173 175 174 177 176 177 178 179 -193 182 184 187 187 188 0 0 0 0 0
    0 0 0 0 0 0 0 0 0 0 0 0 0 0 0 0 0 0 0 0 0 0 0 0 0 0 0 0 0 0 0 0 0 0 0 0 0 0 0 0 0 0 0 0 0 0 0 0 0 0 0 0 0 0 0 0 0 0 0 0 0 0 0 0 0 0 0 0 0 44 46 -193 42 41 41 40 39 39 39 39 39 37 37 36 37 39 37 37 36 38 35 35 35 33 31 37 34 36 31 36 34 35 34 32 30 32 29 30 28 28 26 26 27 27 26 28 26 26 26 26 26 26 21 18 20 23 22 23 22 20 17 17 15 12 12 11 11 10 9 9 9 10 10 9 10 11 12 12 15 13 14 15 14 15 14 15 14 14 14 13 12 11 11 10 10 10 9 10 9 11 11 11 12 12 12 13 13 18 -209 27 33 30 32 35 33 33 33 33 36 35 39 39 43 44 45 45 45 45 47 52 52 46 61 71 73 72 72 72 77 76 76 80 78 78 82 80 80 80 81 79 76 77 78 74 75 76 -193 -177 78 -209 83 -177 176 -193 -193 90 91 92 91 92 90 100 102 101 103 105 105 106 107 112 118 117 119 119 119 120 120 120 121 117 113 123 134 136 136 136 144 141 142 142 144 141 139 139 144 -193 147 147 -193 -177 -193 155 159 156 152 152 152 153 161 157 157 158 159 163 163 165 166 165 170 170 170 173 175 174 176 175 176 177 179 183 182 185 189 188 189 0 0 0 0 0
    0 0 0 0 0 0 0 0 0 0 0 0 0 0 0 0 0 0 0 0 0 0 0 0 0 0 0 0 0 0 0 0 0 0 0 0 0 0 0 0 0 0 0 0 0 0 0 0 0 0 0 0 0 0 0 0 0 0 0 0 0 0 0 0 0 0 0 0 0 44 46 -193 42 42 42 41 39 39 39 39 39 37 36 36 37 39 37 37 36 38 35 35 35 33 31 36 34 36 32 36 35 35 34 33 30 32 29 30 28 28 27 26 27 27 26 28 26 26 26 28 28 27 24 22 22 25 25 26 25 22 20 20 18 14 12 12 11 10 9 9 9 9 9 9 10 11 12 12 15 13 14 15 14 15 15 15 14 14 14 14 12 11 11 10 10 10 9 10 9 11 11 11 12 12 11 14 13 18 -209 27 33 30 33 35 33 33 34 34 37 36 40 40 43 44 46 45 45 45 47 52 52 46 60 69 71 71 71 72 76 75 75 79 77 78 82 80 80 80 81 79 76 77 78 75 76 77 -193 -193 -193 -193 85 -177 -193 -193 -193 90 91 92 91 93 91 100 102 102 103 106 106 107 108 113 118 117 119 120 120 120 120 121 121 116 111 123 133 136 136 136 144 142 142 143 144 141 138 139 144 -177 147 -193 -193 -177 -209 155 159 157 152 152 152 152 160 157 157 158 158 162 163 164 165 164 169 170 170 173 174 174 175 174 176 176 179 183 183 186 190 189 190 0 0 0 0 0
    0 0 0 0 0 0 0 0 0 0 0 0 0 0 0 0 0 0 0 0 0 0 0 0 0 0 0 0 0 0 0 0 0 0 0 0 0 0 0 0 0 0 0 0 0 0 0 0 0 0 0 0 0 0 0 0 0 0 0 0 0 0 0 0 0 0 0 0 0 44 46 -193 42 41 41 40 39 38 38 38 39 37 36 36 38 40 38 37 37 38 36 35 35 34 31 36 34 36 32 35 35 35 34 33 30 32 29 30 29 29 27 27 28 28 27 28 26 26 26 29 28 28 27 26 25 28 27 28 28 25 25 24 22 18 13 12 12 10 9 9 9 9 9 0 9 10 11 12 14 14 14 16 15 15 15 15 15 15 14 14 13 11 11 10 10 11 9 10 10 11 12 12 12 12 12 14 14 17 22 25 33 30 32 34 33 33 34 35 37 36 40 40 42 44 45 45 45 46 48 52 53 49 58 63 68 68 67 71 75 74 74 78 77 77 82 80 80 80 81 79 76 77 78 75 76 77 -193 -193 -193 -193 -193 -193 -193 -193 -193 91 92 93 91 94 92 102 103 103 104 106 106 107 109 113 118 117 119 120 120 120 120 121 121 116 111 122 133 136 136 136 143 142 142 143 144 141 138 139 144 -177 -193 -209 -193 -177 -209 155 160 158 152 152 152 152 161 157 157 158 158 162 163 164 165 163 169 170 170 173 174 174 175 174 176 176 179 184 184 187 191 190 191 0 0 0 0 0
    0 0 0 0 0 0 0 0 0 0 0 0 0 0 0 0 0 0 0 0 0 0 0 0 0 0 0 0 0 0 0 0 0 0 0 0 0 0 0 0 0 0 0 0 0 0 0 0 0 0 0 0 0 0 0 0 0 0 0 0 0 0 0 0 0 0 0 0 0 43 46 -193 42 41 41 40 39 39 39 39 39 37 37 37 38 40 38 37 37 38 36 35 35 34 31 36 34 36 33 35 35 35 35 33 31 33 30 31 30 29 28 28 28 29 28 29 27 26 26 31 31 30 29 29 28 32 30 31 29 27 26 26 25 23 16 14 12 11 10 9 0 0 0 0 0 9 11 11 13 13 13 15 14 15 14 15 15 14 14 14 13 12 11 10 10 11 9 10 10 11 12 13 13 13 13 15 15 19 22 24 32 29 32 33 33 33 34 35 37 36 40 40 42 43 45 45 45 46 47 52 52 49 56 58 63 64 65 70 74 73 73 78 77 77 81 79 79 79 80 78 75 76 78 74 76 77 74 74 80 -209 -193 -193 0 0 0 -193 93 95 -177 -177 94 102 103 103 104 106 106 106 108 111 117 117 119 120 120 121 121 121 122 117 112 123 134 136 136 136 143 143 142 143 144 140 138 139 144 -177 -209 -209 -209 -177 -209 156 160 159 152 152 152 153 161 157 157 158 158 162 162 164 165 163 169 170 170 173 174 174 174 174 176 176 179 185 185 187 193 191 191 0 0 0 0 0
    0 0 0 0 0 0 0 0 0 0 0 0 0 0 0 0 0 0 0 0 0 0 0 0 0 0 0 0 0 0 0 0 0 0 0 0 0 0 0 0 0 0 0 0 0 0 0 0 0 0 0 0 0 0 0 0 0 0 0 0 0 0 0 0 0 0 0 0 0 43 45 42 42 41 41 42 40 40 40 40 39 37 37 37 38 39 38 37 37 38 36 35 35 34 31 35 34 35 33 35 35 35 35 34 31 33 30 31 30 30 29 29 29 30 29 30 28 27 27 33 33 33 33 33 32 35 32 32 31 28 27 27 26 26 20 16 14 12 11 10 9 9 0 0 0 9 10 11 12 12 13 15 14 15 15 15 15 14 15 14 13 12 11 10 9 11 9 10 10 10 12 13 13 13 13 16 16 19 21 23 31 29 32 32 32 33 34 35 37 36 40 39 42 43 45 45 45 46 47 51 51 50 55 56 60 61 61 69 73 73 73 78 77 77 81 79 79 79 80 79 75 76 78 75 76 77 74 75 82 -193 88 -209 -193 -193 -193 93 94 95 94 97 97 102 103 103 104 105 106 106 107 110 116 117 119 120 120 121 121 122 122 118 115 123 134 136 136 136 142 143 142 143 144 141 138 139 144 -177 -209 -209 -209 -177 -209 156 161 160 153 153 153 153 162 157 157 158 158 162 162 164 165 162 169 170 170 173 174 174 174 173 176 176 180 185 186 188 194 191 191 0 0 0 0 0
    0 0 0 0 0 0 0 0 0 0 0 0 0 0 0 0 0 0 0 0 0 0 0 0 0 0 0 0 0 0 0 0 0 0 0 0 0 0 0 0 0 0 0 0 0 0 0 0 0 0 0 0 0 0 0 0 0 0 0 0 0 0 0 0 0 0 0 0 0 43 45 42 42 42 41 43 42 41 40 40 39 38 37 37 38 39 37 37 36 37 36 35 35 33 30 34 34 35 33 34 35 35 35 34 31 32 31 31 31 30 29 29 29 31 29 30 28 29 28 33 34 35 35 33 33 36 32 32 31 28 27 28 27 27 23 20 16 14 13 10 9 9 0 9 9 9 10 11 11 12 13 15 16 17 16 16 16 15 15 14 13 11 10 9 0 10 9 10 10 10 13 14 14 15 15 17 17 19 21 23 29 28 32 31 32 33 34 35 37 37 40 39 42 43 46 45 45 46 47 50 50 49 53 54 58 58 59 67 71 71 72 77 76 76 80 79 78 78 79 78 75 76 78 75 76 78 75 75 83 87 89 90 91 92 92 93 95 96 95 98 98 102 102 103 104 105 106 106 107 110 116 118 118 119 119 121 121 122 122 118 114 123 133 136 136 136 142 145 143 144 145 142 139 140 145 -177 -193 -209 -193 -193 -209 156 161 160 153 153 153 154 162 158 158 159 158 162 162 164 165 162 169 170 170 173 174 174 173 173 175 175 180 186 187 189 195 192 192 0 0 0 0 0
    0 0 0 0 0 0 0 0 0 0 0 0 0 0 0 0 0 0 0 0 0 0 0 0 0 0 0 0 0 0 0 0 0 0 0 0 0 0 0 0 0 0 0 0 0 0 0 0 0 0 0 0 0 0 0 0 0 0 0 0 0 0 0 0 0 0 0 0 0 43 45 42 41 41 40 42 41 40 40 40 39 38 37 37 38 39 37 37 36 37 36 35 35 33 30 33 33 34 33 34 35 34 34 34 31 33 32 32 32 31 30 30 30 31 30 30 29 29 31 34 35 35 35 35 33 36 33 32 31 29 28 29 29 29 26 23 19 15 14 10 9 9 0 0 0 9 10 11 11 12 14 16 17 18 17 16 16 15 15 14 13 10 9 0 0 10 9 10 10 11 14 15 15 16 17 19 19 20 21 23 29 28 32 30 31 32 33 35 36 36 39 38 42 43 47 45 45 47 47 49 49 49 52 51 56 56 57 64 70 70 72 76 75 76 79 78 77 77 78 78 74 76 78 75 76 78 75 77 84 -193 89 90 91 92 93 93 96 96 96 98 99 102 102 103 104 105 106 106 107 110 116 118 118 119 119 121 121 122 122 118 113 122 133 136 136 136 141 146 144 145 146 143 139 140 146 -193 -193 -209 -209 -193 -209 156 161 160 153 154 154 154 163 158 158 159 158 162 163 164 165 162 169 170 170 172 173 173 173 173 175 175 179 186 188 190 196 193 192 0 0 0 0 0
    0 0 0 0 0 0 0 0 0 0 0 0 0 0 0 0 0 0 0 0 0 0 0 0 0 0 0 0 0 0 0 0 0 0 0 0 0 0 0 0 0 0 0 0 0 0 0 0 0 0 0 0 0 0 0 0 0 0 0 0 0 0 0 0 0 0 0 0 0 43 45 41 41 40 39 41 40 39 39 40 39 38 37 37 38 38 37 36 35 36 36 36 36 33 29 31 32 33 33 33 34 33 34 34 32 34 33 32 33 31 31 31 30 31 29 30 29 29 33 35 37 35 36 36 35 36 35 33 32 30 30 31 30 31 28 26 22 18 16 10 9 9 0 0 0 9 11 11 11 13 15 17 18 18 17 16 17 16 16 14 13 10 9 0 0 9 9 10 10 11 14 16 16 18 18 20 20 20 21 23 28 27 31 30 32 33 34 36 36 36 38 38 41 43 47 45 46 48 48 49 49 49 51 49 55 55 56 63 70 69 71 76 74 74 77 77 76 76 77 77 74 75 78 75 76 78 76 79 85 89 90 91 91 92 93 93 96 97 97 99 101 103 103 104 105 106 107 107 109 112 117 118 119 119 119 121 121 122 122 118 113 122 132 135 135 136 140 146 144 145 147 143 140 141 146 -209 -193 -193 -193 -193 154 157 161 160 153 154 155 155 163 158 158 160 159 163 163 164 165 163 169 170 170 172 173 173 173 173 175 176 179 186 189 190 196 193 192 0 0 0 0 0
    0 0 0 0 0 0 0 0 0 0 0 0 0 0 0 0 0 0 0 0 0 0 0 0 0 0 0 0 0 0 0 0 0 0 0 0 0 0 0 0 0 0 0 0 0 0 0 0 0 0 0 0 0 0 0 0 0 0 0 0 0 0 0 0 0 0 0 0 0 43 45 42 42 41 40 42 41 40 39 40 39 38 38 37 38 38 37 36 36 36 37 36 36 34 30 31 33 33 34 33 34 33 34 34 33 35 34 33 33 32 32 31 31 31 28 29 29 29 32 33 38 35 37 36 35 36 36 34 34 31 31 33 33 33 30 27 25 18 19 11 9 9 0 9 9 10 11 12 12 14 17 18 19 18 17 16 16 16 15 14 13 10 0 0 0 0 0 9 9 12 14 16 17 19 20 21 21 21 21 23 27 26 30 29 31 33 34 36 36 35 38 37 40 41 45 44 45 48 48 49 48 49 50 48 55 54 56 62 70 68 70 74 73 73 75 76 75 75 76 76 74 75 78 75 76 78 76 82 87 90 91 92 92 93 93 93 97 97 99 100 102 103 103 104 106 107 108 107 109 112 117 119 119 119 118 121 121 122 122 118 114 122 131 134 134 135 138 146 143 144 147 142 139 141 146 151 -193 -193 -193 -193 154 157 162 160 154 155 156 156 163 159 159 160 160 163 163 164 165 164 169 170 170 172 173 173 174 174 176 177 180 186 188 190 195 192 192 0 0 0 0 0
    0 0 0 0 0 0 0 0 0 0 0 0 0 0 0 0 0 0 0 0 0 0 0 0 0 0 0 0 0 0 0 0 0 0 0 0 0 0 0 0 0 0 0 0 0 0 0 0 0 0 0 0 0 0 0 0 0 0 0 0 0 0 0 0 0 0 0 0 0 43 45 43 42 41 40 42 41 40 40 40 39 39 38 38 38 38 37 37 36 36 37 37 37 35 31 32 34 34 35 34 34 33 33 34 34 36 35 33 33 32 34 32 32 31 28 29 29 29 32 31 38 36 37 36 35 36 35 34 34 32 32 34 34 34 31 28 26 20 20 13 10 9 0 9 9 11 11 12 13 15 18 19 19 18 17 16 16 16 15 15 13 10 9 0 0 0 0 9 10 14 15 17 17 19 21 20 21 21 20 23 25 25 29 28 31 32 34 35 35 35 37 36 39 41 45 44 45 48 48 49 48 50 50 48 55 54 56 62 70 67 70 73 72 73 74 74 74 74 76 76 73 75 77 75 76 78 78 84 89 92 93 94 93 94 94 94 98 98 101 101 103 104 104 104 106 108 109 108 110 113 118 119 119 119 118 121 121 122 122 118 116 123 132 133 133 134 137 146 142 143 146 141 139 140 146 151 -193 -193 -193 -193 154 157 162 160 154 157 158 158 163 160 160 161 161 163 164 164 -193 -193 169 170 170 172 174 174 175 175 177 178 180 185 187 188 194 192 191 0 0 0 0 0
    0 0 0 0 0 0 0 0 0 0 0 0 0 0 0 0 0 0 0 0 0 0 0 0 0 0 0 0 0 0 0 0 0 0 0 0 0 0 0 0 0 0 0 0 0 0 0 0 0 0 0 0 0 0 0 0 0 0 0 0 0 0 0 0 0 0 0 0 0 43 45 44 41 41 40 42 41 40 40 40 39 39 39 38 38 38 37 37 36 36 37 36 37 35 31 32 33 33 35 34 34 33 33 33 33 36 35 34 34 33 34 33 33 33 29 29 30 31 34 31 39 36 37 37 35 37 35 34 35 32 33 34 34 34 30 28 27 21 22 14 10 0 0 9 10 12 12 14 16 18 20 19 20 19 17 16 16 16 16 15 14 11 9 9 10 9 9 9 12 17 18 19 19 20 22 21 21 21 20 22 24 24 29 27 31 32 34 35 35 35 36 35 39 41 44 43 45 48 48 49 48 50 50 48 54 53 55 60 71 67 70 73 72 72 72 73 73 72 75 75 73 75 76 75 75 76 78 82 89 91 93 94 92 94 94 96 100 100 103 103 104 104 104 105 106 108 109 108 110 113 118 120 119 118 118 121 121 123 123 119 117 124 133 134 134 135 137 146 142 143 145 -193 -193 140 146 150 -193 -193 271 -193 155 157 163 161 155 158 160 159 -193 160 160 161 161 163 164 164 -193 -193 169 171 170 172 174 174 176 176 178 179 179 185 186 187 192 191 190 0 0 0 0 0
    0 0 0 0 0 0 0 0 0 0 0 0 0 0 0 0 0 0 0 0 0 0 0 0 0 0 0 0 0 0 0 0 0 0 0 0 0 0 0 0 0 0 0 0 0 0 0 0 0 0 0 0 0 0 0 0 0 0 0 0 0 0 0 0 0 0 0 0 0 43 44 44 41 40 40 42 41 41 40 40 39 39 39 38 38 38 37 36 35 36 36 36 36 35 32 31 32 33 35 34 33 33 33 33 32 36 35 34 33 34 35 34 34 35 29 30 31 33 35 31 40 37 37 36 35 37 35 33 35 32 32 34 34 34 29 29 29 23 24 20 10 9 9 10 11 16 14 16 19 19 20 20 20 19 17 17 17 16 16 15 14 11 10 10 12 10 10 11 14 19 19 19 19 21 23 21 22 22 21 23 25 25 29 27 31 33 34 34 34 35 36 34 40 41 44 44 45 47 47 48 47 49 49 47 54 53 56 63 72 68 70 72 71 72 71 71 71 71 74 74 72 74 74 75 74 75 76 79 88 89 91 91 90 92 93 95 100 100 103 103 104 104 104 104 105 107 109 108 110 113 117 119 118 118 117 120 121 122 122 118 115 123 133 135 135 135 137 146 142 143 145 -193 -193 140 145 150 -193 -193 271 275 -193 156 162 160 155 157 160 158 -193 160 160 161 161 163 164 164 -177 -193 169 171 171 173 175 175 177 177 179 180 180 185 186 186 191 190 190 0 0 0 0 0
    0 0 0 0 0 0 0 0 0 0 0 0 0 0 0 0 0 0 0 0 0 0 0 0 0 0 0 0 0 0 0 0 0 0 0 0 0 0 0 0 0 0 0 0 0 0 0 0 0 0 0 0 0 0 0 0 0 0 0 0 0 0 0 0 0 0 0 0 0 42 43 42 39 39 39 41 41 41 40 40 40 39 39 39 39 38 37 37 36 36 37 36 37 35 32 30 32 32 35 33 32 33 32 34 32 35 34 33 33 34 34 34 33 34 29 30 31 32 34 31 39 37 36 36 35 37 35 34 35 32 32 33 33 34 29 29 30 23 24 18 11 10 10 10 12 17 15 17 20 19 20 20 21 20 17 17 17 16 16 16 14 12 11 12 13 11 11 12 15 20 19 19 20 21 23 21 22 22 21 24 25 25 30 27 32 34 35 35 34 35 36 35 40 41 44 44 45 48 47 48 46 49 48 47 54 55 56 61 72 67 69 72 70 71 70 71 71 71 74 74 72 74 74 76 75 75 76 78 86 87 89 88 87 89 90 92 97 97 102 102 104 104 104 105 106 108 110 110 112 115 118 119 118 118 117 119 120 122 122 118 115 123 132 135 135 135 136 145 142 143 145 -193 -193 141 146 150 -193 -193 -177 275 -193 156 160 159 155 157 159 158 -193 160 160 161 161 163 164 164 -177 -193 169 171 171 173 175 175 178 177 179 180 180 184 185 186 190 190 189 0 0 0 0 0
    0 0 0 0 0 0 0 0 0 0 0 0 0 0 0 0 0 0 0 0 0 0 0 0 0 0 0 0 0 0 0 0 0 0 0 0 0 0 0 0 0 0 0 0 0 0 0 0 0 0 0 0 0 0 0 0 0 0 0 0 0 0 0 0 0 0 0 0 0 40 41 41 39 39 39 40 40 40 40 40 40 40 40 39 39 39 38 37 36 36 37 37 37 35 33 30 31 32 35 33 31 33 31 33 32 35 34 33 33 33 33 33 32 34 28 30 30 31 33 31 39 37 36 36 35 37 35 34 35 32 31 33 33 33 29 30 31 22 23 16 11 11 11 12 13 19 18 19 21 20 20 20 21 19 17 17 17 16 16 16 15 12 11 14 16 12 11 13 16 20 19 20 20 21 23 22 22 22 22 25 26 25 30 28 33 34 35 35 34 35 37 36 41 42 44 44 46 48 48 49 47 49 49 47 54 56 57 60 70 66 68 71 70 71 69 70 70 70 73 73 71 73 73 75 74 75 75 75 81 83 84 78 81 80 83 88 92 94 101 100 103 104 104 104 106 110 112 111 113 116 119 120 118 118 117 118 120 121 121 118 115 124 133 136 136 136 137 146 142 143 144 -193 141 142 147 151 -193 154 -193 275 -193 155 159 158 155 156 159 -193 16 160 161 161 162 163 164 164 -177 -193 169 171 170 172 174 175 178 178 180 181 180 184 185 186 190 189 189 0 0 0 0 0
    0 0 0 0 0 0 0 0 0 0 0 0 0 0 0 0 0 0 0 0 0 0 0 0 0 0 0 0 0 0 0 0 0 0 0 0 0 0 0 0 0 0 0 0 0 0 0 0 0 0 0 0 0 0 0 0 0 0 0 0 0 0 0 0 0 0 0 0 0 41 41 41 39 39 39 40 40 40 40 40 40 40 40 39 39 39 38 37 37 36 37 37 37 36 33 30 31 32 35 33 31 32 30 32 31 35 33 32 32 33 33 33 32 34 29 31 31 31 33 31 39 36 35 36 35 37 36 35 36 32 33 34 34 34 30 30 31 19 22 13 13 13 13 14 16 21 20 21 23 21 20 21 21 19 17 16 17 16 16 16 15 13 14 18 20 15 13 14 18 21 20 20 20 21 23 22 22 22 22 24 26 26 31 28 33 34 35 35 35 35 37 36 41 42 43 45 46 49 49 50 48 51 51 50 55 58 59 64 71 67 69 72 71 72 70 71 71 70 73 73 70 73 71 74 75 75 75 74 77 79 79 74 76 75 77 85 90 94 103 102 104 105 106 105 106 111 113 112 114 116 119 120 118 118 116 117 119 120 120 118 114 124 133 136 136 136 137 145 142 143 144 141 141 143 147 151 -193 154 -193 -177 154 155 158 158 155 156 158 -193 17 -193 161 161 162 163 164 165 0 -193 169 170 170 172 -193 175 179 179 180 181 181 184 184 186 189 189 189 0 0 0 0 0
    0 0 0 0 0 0 0 0 0 0 0 0 0 0 0 0 0 0 0 0 0 0 0 0 0 0 0 0 0 0 0 0 0 0 0 0 0 0 0 0 0 0 0 0 0 0 0 0 0 0 0 0 0 0 0 0 0 0 0 0 0 0 0 0 0 0 0 0 0 43 42 41 39 39 40 39 40 40 40 40 40 40 40 39 39 39 38 37 37 36 37 37 37 36 33 30 32 32 35 33 31 33 30 32 31 35 32 32 32 33 33 33 32 34 29 31 31 31 31 30 39 37 35 35 36 37 36 35 36 33 33 35 35 34 29 30 31 16 20 16 18 18 19 19 20 23 23 23 24 21 20 21 21 19 17 16 17 16 16 17 16 14 16 21 21 17 14 15 18 21 20 20 20 21 23 22 22 21 21 23 26 26 31 28 33 34 35 35 35 35 37 36 41 41 43 44 47 49 49 51 50 52 52 52 56 59 60 66 71 68 -193 72 72 73 70 71 71 70 73 73 70 72 69 74 74 74 74 73 74 76 77 76 77 77 80 87 90 95 104 103 105 105 105 105 106 110 112 111 113 115 118 119 118 117 116 116 118 119 119 117 114 123 133 136 136 136 137 145 141 142 143 141 141 143 147 150 148 154 155 155 154 155 157 157 156 156 158 -193 18 -193 160 161 162 163 164 164 0 -193 168 170 170 173 174 176 180 180 181 182 181 184 184 186 189 188 188 0 0 0 0 0
    0 0 0 0 0 0 0 0 0 0 0 0 0 0 0 0 0 0 0 0 0 0 0 0 0 0 0 0 0 0 0 0 0 0 0 0 0 0 0 0 0 0 0 0 0 0 0 0 0 0 0 0 0 0 0 0 0 0 0 0 0 0 0 0 0 0 0 0 0 46 43 42 40 40 40 40 40 40 41 41 41 40 40 39 40 39 39 37 37 36 37 37 37 37 34 31 33 32 36 34 32 34 31 32 31 34 32 32 32 33 33 34 32 34 30 32 31 31 29 28 38 36 35 34 35 37 35 35 37 33 33 34 35 34 29 31 31 16 21 21 22 22 22 22 22 24 24 24 24 21 19 20 21 19 17 16 17 16 17 17 16 15 18 23 23 19 15 17 19 22 21 21 20 21 23 22 23 22 22 24 27 26 31 28 33 34 35 35 35 35 37 36 40 41 43 44 46 49 48 51 50 51 52 52 56 58 59 66 71 69 70 73 72 73 71 71 71 70 72 72 69 71 64 73 73 73 73 67 70 72 79 79 83 87 86 90 91 96 104 103 104 105 104 104 105 107 110 109 110 113 117 119 117 116 116 115 117 118 118 117 113 122 133 136 136 137 137 145 141 141 142 141 141 143 147 150 147 154 155 154 154 155 156 157 156 156 158 -193 -193 -193 161 162 162 164 165 165 -177 -193 168 170 171 173 174 176 181 180 181 182 182 184 184 186 189 188 188 0 0 0 0 0
    0 0 0 0 0 0 0 0 0 0 0 0 0 0 0 0 0 0 0 0 0 0 0 0 0 0 0 0 0 0 0 0 0 0 0 0 0 0 0 0 0 0 0 0 0 0 0 0 0 0 0 0 0 0 0 0 0 0 0 0 0 0 0 0 0 0 0 0 0 48 44 42 41 40 40 40 41 41 41 41 41 40 40 40 40 40 39 38 38 37 38 37 37 37 34 32 34 32 36 33 31 34 31 32 31 34 32 31 32 33 32 34 32 34 30 32 31 31 29 29 36 36 34 34 35 37 35 35 36 33 33 34 34 33 28 31 30 19 23 24 26 26 26 26 25 27 26 25 25 22 18 20 20 19 16 16 17 16 17 18 17 17 21 27 32 -193 17 19 21 22 22 22 20 21 23 23 23 23 23 25 28 28 33 29 34 34 35 35 35 35 37 36 40 41 44 45 47 49 48 51 51 51 52 52 56 58 59 65 71 69 71 73 73 74 71 71 71 69 72 71 67 69 61 73 73 73 72 58 60 61 60 -209 -209 -193 90 96 98 100 104 103 104 105 105 105 105 106 109 108 109 112 116 118 117 116 117 115 116 117 117 115 112 121 132 136 136 137 137 145 141 142 142 141 141 143 146 149 145 153 154 154 153 154 155 157 155 155 157 157 158 160 161 162 162 164 165 165 -193 -193 168 170 170 172 173 176 181 180 181 182 181 184 184 186 188 187 188 0 0 0 0 0
    0 0 0 0 0 0 0 0 0 0 0 0 0 0 0 0 0 0 0 0 0 0 0 0 0 0 0 0 0 0 0 0 0 0 0 0 0 0 0 0 0 0 0 0 0 0 0 0 0 0 0 0 0 0 0 0 0 0 0 0 0 0 0 0 0 0 0 0 0 49 45 43 41 40 40 40 40 41 41 40 41 40 40 40 40 40 39 38 38 37 39 38 38 37 35 32 35 34 37 34 32 35 31 33 31 33 32 32 32 33 32 34 33 35 31 34 31 31 28 29 35 36 34 34 36 38 35 36 37 33 33 34 34 33 29 32 31 23 34 35 34 34 30 28 28 29 28 26 26 23 18 23 22 22 17 17 19 19 -209 -193 -209 -209 -193 -209 -209 -193 -193 20 22 23 -193 -193 22 22 26 -193 26 27 26 28 31 30 33 30 34 34 35 35 36 36 38 37 41 41 44 46 47 49 48 51 52 52 53 53 56 58 59 65 71 70 71 74 73 74 71 72 71 69 71 70 66 68 59 71 71 71 69 58 61 65 65 -209 -209 92 93 98 101 101 104 103 104 105 103 104 105 105 108 107 108 110 114 116 116 115 116 115 115 116 116 114 111 119 132 -209 136 137 137 145 141 142 142 141 141 143 146 148 144 153 153 154 153 154 154 156 155 155 157 156 158 159 161 162 162 164 165 165 -193 -193 -193 170 170 173 173 176 181 180 181 182 182 184 184 185 188 187 188 0 0 0 0 0
    0 0 0 0 0 0 0 0 0 0 0 0 0 0 0 0 0 0 0 0 0 0 0 0 0 0 0 0 0 0 0 0 0 0 0 0 0 0 0 0 0 0 0 0 0 0 0 0 0 0 0 0 0 0 0 0 0 0 0 0 0 0 0 0 0 0 0 0 0 50 45 43 42 41 41 40 40 40 41 40 41 40 40 40 40 40 39 38 39 38 39 38 38 38 36 34 38 36 39 37 35 36 33 34 32 33 31 32 32 33 32 34 33 34 31 34 31 31 29 30 36 36 34 34 36 37 35 35 36 33 32 35 35 34 30 33 34 26 42 43 39 38 34 30 29 28 27 25 24 22 -225 -225 -225 -225 -225 -225 -225 -225 -225 -225 -225 -225 -225 -225 -225 -225 -225 -225 -225 -225 -209 -193 22 22 28 29 29 30 29 30 34 31 34 31 35 34 35 35 35 35 37 37 40 41 45 46 48 50 49 51 52 53 53 53 57 58 59 65 71 70 72 75 74 74 72 72 72 69 71 70 65 67 59 71 70 72 68 59 62 68 -193 81 -193 91 93 95 95 98 99 98 98 98 95 93 96 100 103 104 106 108 112 115 115 114 116 115 115 116 116 115 115 120 129 -193 133 137 136 143 140 141 142 141 141 144 146 148 145 153 153 153 153 153 153 155 154 154 155 156 157 159 161 162 162 165 165 165 167 167 167 169 170 173 173 176 182 180 181 182 182 184 184 185 188 187 188 0 0 0 0 0
    0 0 0 0 0 0 0 0 0 0 0 0 0 0 0 0 0 0 0 0 0 0 0 0 0 0 0 0 0 0 0 0 0 0 0 0 0 0 0 0 0 0 0 0 0 0 0 0 0 0 0 0 0 0 0 0 0 0 0 0 0 0 0 0 0 0 0 0 0 51 47 44 43 42 43 40 40 41 42 41 41 40 40 40 40 40 39 38 39 38 39 38 38 38 36 36 39 37 39 38 37 37 34 35 33 34 31 32 31 32 32 33 32 32 31 32 30 30 30 31 36 36 34 34 36 37 35 36 36 33 33 35 35 34 30 35 36 30 43 45 40 39 37 34 32 30 29 27 25 -225 -225 -225 -225 -225 -225 -225 -225 -225 -225 -225 -225 -225 -225 -225 -225 -225 -225 -225 -225 -225 -225 -225 -225 -225 -225 -225 33 34 33 33 37 33 35 32 35 34 35 35 35 35 37 37 40 41 45 46 48 50 49 51 52 53 54 53 57 58 58 64 71 71 72 75 74 75 72 73 73 70 71 70 65 68 60 72 71 73 68 58 64 -193 -209 94 94 94 94 94 93 96 97 97 97 96 95 95 99 101 101 102 105 107 113 114 115 113 116 116 115 116 116 116 117 121 129 132 133 136 136 142 140 140 141 140 141 145 146 148 145 152 152 153 153 153 153 155 155 155 156 157 157 159 161 163 164 166 166 166 167 167 167 168 169 172 172 175 181 180 181 182 182 184 184 185 187 187 188 0 0 0 0 0
    0 0 0 0 0 0 0 0 0 0 0 0 0 0 0 0 0 0 0 0 0 0 0 0 0 0 0 0 0 0 0 0 0 0 0 0 0 0 0 0 0 0 0 0 0 0 0 0 0 0 0 0 0 0 0 0 0 0 0 0 0 0 0 0 0 0 0 0 0 50 48 45 44 44 44 42 42 42 42 41 41 39 40 39 40 40 39 38 39 38 39 38 38 38 36 37 39 38 40 40 39 38 37 36 34 35 32 32 30 32 33 33 33 33 31 33 31 32 31 31 35 35 34 35 36 37 36 36 37 34 34 36 36 35 34 38 38 38 45 47 42 40 38 37 35 33 31 29 -225 -225 -225 -225 -225 -225 -225 -225 -225 -225 -225 -225 -225 -225 -225 -225 -225 -225 -225 -225 -225 -225 -225 -225 -225 -225 -225 -225 -225 37 34 34 37 33 34 32 35 34 35 35 35 34 37 37 40 40 45 45 48 50 49 51 52 53 54 53 57 58 58 65 72 73 74 76 74 75 73 73 73 70 70 70 65 68 61 72 70 73 66 57 65 -193 -177 101 101 97 97 97 97 99 99 98 98 97 95 96 98 98 98 98 103 105 111 112 113 112 116 115 115 116 116 115 117 120 127 131 132 137 137 142 140 140 140 140 140 143 145 146 142 150 150 151 152 153 152 155 155 155 156 156 159 160 162 164 165 167 167 167 168 168 168 168 169 171 171 175 182 180 181 182 182 184 184 185 187 186 188 0 0 0 0 0
    0 0 0 0 0 0 0 0 0 0 0 0 0 0 0 0 0 0 0 0 0 0 0 0 0 0 0 0 0 0 0 0 0 0 0 0 0 0 0 0 0 0 0 0 0 0 0 0 0 0 0 0 0 0 0 0 0 0 0 0 0 0 0 0 0 0 0 0 0 50 48 46 45 44 44 41 41 42 42 41 41 39 39 39 40 40 39 38 39 37 39 38 38 38 37 38 39 39 40 41 40 39 38 38 37 37 35 34 31 34 36 35 35 34 34 34 33 34 33 31 34 33 35 35 38 38 37 37 38 36 37 38 40 40 40 43 43 45 48 50 44 40 39 38 37 35 33 -225 -225 -225 -225 -225 -225 -225 -225 -225 -225 -225 -225 -225 -225 -225 -225 -225 -225 -225 -225 -225 -225 -225 -225 -225 -225 -225 -225 -225 -225 38 35 35 37 33 34 33 35 34 34 35 35 34 37 37 39 40 45 45 47 49 49 51 52 53 54 54 57 59 59 67 74 74 75 77 74 75 73 73 73 69 70 69 64 69 62 73 73 74 73 63 73 81 85 89 93 95 97 99 100 101 101 100 101 100 99 99 100 98 99 100 105 106 111 111 112 111 116 115 115 115 115 114 116 119 123 -193 129 136 136 141 139 140 139 139 138 141 142 143 139 142 143 146 151 152 151 155 155 155 157 157 159 161 162 164 165 168 167 167 168 168 168 169 170 172 172 175 182 180 181 182 182 184 184 185 186 186 187 0 0 0 0 0
    0 0 0 0 0 0 0 0 0 0 0 0 0 0 0 0 0 0 0 0 0 0 0 0 0 0 0 0 0 0 0 0 0 0 0 0 0 0 0 0 0 0 0 0 0 0 0 0 0 0 0 0 0 0 0 0 0 0 0 0 0 0 0 0 0 0 0 0 0 50 48 47 46 45 45 42 42 42 42 40 41 39 39 40 40 40 39 38 39 38 40 38 39 38 38 39 40 39 41 41 40 40 39 38 38 38 37 35 32 36 37 36 36 34 35 35 33 35 33 30 34 31 38 38 40 39 38 38 39 39 43 45 50 52 53 56 55 55 55 53 44 41 40 39 38 36 34 -225 -225 -225 -225 -225 -225 -225 -225 -225 -225 -225 -225 -225 -225 -225 -225 -225 -225 -225 -225 -225 -225 -225 -225 -225 -225 -225 -225 -225 -225 -225 36 36 37 34 34 33 35 34 34 35 35 34 36 37 38 39 44 44 46 48 49 50 52 53 54 54 57 59 59 67 75 73 74 76 73 74 72 72 72 68 69 69 65 71 67 74 75 76 75 74 76 81 83 85 89 91 94 97 99 100 101 100 102 101 100 100 100 100 101 102 105 107 112 111 113 112 116 115 115 115 115 114 116 118 121 -209 127 135 136 140 139 139 139 138 137 139 139 140 137 137 138 138 146 150 149 153 155 155 157 157 159 160 162 164 166 167 168 168 169 169 169 170 171 172 173 175 181 179 180 182 182 184 184 185 186 186 187 0 0 0 0 0
    0 0 0 0 0 0 0 0 0 0 0 0 0 0 0 0 0 0 0 0 0 0 0 0 0 0 0 0 0 0 0 0 0 0 0 0 0 0 0 0 0 0 0 0 0 0 0 0 0 0 0 0 0 0 0 0 0 0 0 0 0 0 0 0 0 0 0 0 0 51 50 49 47 46 46 43 43 42 42 41 41 39 41 41 41 42 40 40 41 40 41 40 40 39 40 40 40 40 41 41 40 40 40 39 39 40 39 36 35 39 39 37 37 35 36 35 35 36 35 33 39 -209 43 42 46 43 -193 35 37 40 43 45 51 53 53 56 56 55 54 52 45 42 41 40 39 37 -225 -225 -225 -225 -225 -225 -225 -225 -225 -225 -225 -225 -225 -225 -225 -225 -225 -225 -225 -225 -225 -225 -225 -225 -225 -225 -225 -225 -225 -225 -225 -225 37 37 37 35 34 35 36 34 34 35 35 34 36 38 38 38 43 44 45 48 48 49 51 53 54 54 57 58 59 67 75 73 74 75 71 73 71 71 71 68 69 69 66 72 71 75 76 77 77 76 80 83 85 85 89 89 91 92 95 96 97 96 102 103 102 103 103 103 104 105 106 109 114 112 113 113 117 116 116 116 115 114 117 118 120 -209 125 134 135 139 138 139 138 137 137 138 139 139 137 135 135 135 139 145 140 -193 153 153 157 156 160 161 163 164 167 168 168 168 169 170 170 170 171 172 172 174 181 179 180 181 182 184 184 185 186 186 187 0 0 0 0 0
    0 0 0 0 0 0 0 0 0 0 0 0 0 0 0 0 0 0 0 0 0 0 0 0 0 0 0 0 0 0 0 0 0 0 0 0 0 0 0 0 0 0 0 0 0 0 0 0 0 0 0 0 0 0 0 0 0 0 0 0 0 0 0 0 0 0 0 0 0 52 51 50 49 49 48 44 43 42 42 40 40 37 41 42 43 44 42 42 43 42 44 42 41 40 41 40 40 40 41 41 40 40 40 40 41 41 41 39 38 42 41 38 38 36 36 36 36 36 35 33 40 40 45 44 47 44 41 38 40 42 47 53 55 57 56 57 56 55 54 52 47 45 43 42 41 -225 -225 -225 -225 -225 -225 -225 -225 -225 -225 -225 -225 -225 -225 -225 -225 -225 -225 -225 -225 -225 -225 -225 -225 -225 -225 -225 -225 -225 -225 -225 -225 -225 37 37 38 36 35 35 36 35 34 36 34 33 36 38 38 38 42 43 44 47 48 49 51 53 55 55 57 60 61 68 75 72 73 74 71 72 71 71 70 68 69 69 67 73 73 76 77 77 78 79 83 85 87 88 91 91 92 94 94 94 95 94 98 104 102 102 101 102 105 106 107 111 116 112 114 114 118 117 116 117 116 115 119 119 121 -209 126 134 135 138 137 138 138 137 136 137 138 138 137 135 135 133 137 -193 -209 -209 -209 149 154 154 157 158 160 163 166 168 168 168 169 170 170 171 171 173 173 175 182 181 182 182 183 185 184 185 186 185 186 0 0 0 0 0
    0 0 0 0 0 0 0 0 0 0 0 0 0 0 0 0 0 0 0 0 0 0 0 0 0 0 0 0 0 0 0 0 0 0 0 0 0 0 0 0 0 0 0 0 0 0 0 0 0 0 0 0 0 0 0 0 0 0 0 0 0 0 0 0 0 0 0 0 0 52 51 51 51 53 51 48 46 48 50 44 44 39 43 43 46 48 44 45 44 42 44 42 40 39 41 40 39 40 41 42 40 40 41 41 42 42 43 -193 40 43 43 39 39 37 37 37 36 36 35 33 39 39 45 44 46 46 45 44 47 49 53 56 56 58 57 57 56 55 54 52 50 48 46 45 -225 -225 -225 -225 -225 -225 -225 -225 -225 -225 -225 -225 -225 -225 -225 -225 -225 -225 -225 -225 -225 -225 -225 -225 -225 -225 -225 -225 -225 -225 -225 -225 -225 -225 -225 37 40 37 34 35 36 36 35 37 35 33 36 38 38 38 42 43 44 46 47 48 51 53 55 55 57 60 61 68 74 71 71 73 70 71 70 70 70 67 70 70 69 74 75 77 77 78 78 79 84 85 88 88 91 91 92 93 92 91 92 92 91 97 98 98 98 99 102 105 106 112 116 112 113 114 118 117 117 118 118 117 120 121 123 -209 127 136 136 138 137 137 136 135 133 135 135 135 135 133 134 134 137 -193 -209 -209 -209 149 -209 -193 155 155 155 158 164 166 167 168 169 170 171 172 172 173 177 178 184 183 184 184 185 186 186 186 187 186 186 0 0 0 0 0
    0 0 0 0 0 0 0 0 0 0 0 0 0 0 0 0 0 0 0 0 0 0 0 0 0 0 0 0 0 0 0 0 0 0 0 0 0 0 0 0 0 0 0 0 0 0 0 0 0 0 0 0 0 0 0 0 0 0 0 0 0 0 0 0 0 0 0 0 0 52 51 52 52 55 54 54 53 55 57 56 55 56 51 48 50 51 45 46 44 42 43 41 41 39 40 39 38 39 40 41 41 41 42 41 43 44 46 43 42 43 44 -193 41 36 37 37 35 34 -209 33 -193 38 43 41 45 50 -193 51 53 54 56 57 57 58 57 57 56 55 54 54 53 51 49 -225 -225 -225 -225 -225 -225 -225 -225 -225 -225 -225 -225 -225 -225 -225 -225 -225 -225 -225 -225 -225 -225 -225 -225 -225 -225 -225 -225 -225 -225 -225 -225 -225 -225 -225 -225 -225 -225 -225 36 36 36 36 33 35 30 29 31 37 37 38 40 42 43 46 47 47 49 52 55 54 57 59 61 68 74 70 70 72 69 70 69 69 69 67 70 70 70 74 75 77 78 78 78 80 84 86 88 88 90 91 91 92 92 90 90 90 89 92 91 93 93 94 100 105 106 113 116 113 113 115 118 117 118 118 118 118 121 121 123 -209 127 136 136 138 138 137 136 135 134 135 135 135 135 134 135 137 -193 -193 -209 -209 -209 -209 -209 -193 155 155 155 158 164 167 168 169 169 170 171 172 174 173 177 179 185 186 186 186 188 189 189 190 190 189 188 0 0 0 0 0
    0 0 0 0 0 0 0 0 0 0 0 0 0 0 0 0 0 0 0 0 0 0 0 0 0 0 0 0 0 0 0 0 0 0 0 0 0 0 0 0 0 0 0 0 0 0 0 0 0 0 0 0 0 0 0 0 0 0 0 0 0 0 0 0 0 0 0 0 0 51 51 52 52 55 54 55 55 57 58 57 56 58 54 54 53 55 52 52 50 47 46 47 -193 39 39 39 37 38 39 40 41 42 43 43 45 48 51 46 46 48 48 -209 51 -209 -209 -193 -209 30 -209 -209 -209 -209 44 42 -209 51 53 52 53 54 55 56 56 57 57 57 56 55 55 54 53 -225 -225 -225 -225 -225 -225 -225 -225 -225 -225 -225 -225 -225 -225 -225 -225 -225 -225 -225 -225 -225 -225 -225 -225 -225 -225 -225 -225 -225 -225 -225 -225 -225 -225 -225 -225 -225 -225 -225 -225 -225 -225 -225 -225 -225 -225 35 30 28 29 36 37 38 41 43 43 45 46 46 48 51 54 54 55 58 59 66 72 68 67 70 67 69 68 69 68 67 70 70 70 75 76 78 78 78 79 81 86 87 89 89 91 93 93 94 93 91 91 91 90 93 91 94 91 93 100 104 106 114 117 114 114 116 119 117 118 118 118 118 121 121 123 -209 128 137 137 139 138 137 136 135 133 135 135 135 135 133 134 -193 -193 -209 -209 -209 -209 -209 -209 154 156 155 155 158 163 166 167 167 169 169 170 172 174 173 176 179 185 187 187 187 190 191 192 195 194 192 192 0 0 0 0 0
    0 0 0 0 0 0 0 0 0 0 0 0 0 0 0 0 0 0 0 0 0 0 0 0 0 0 0 0 0 0 0 0 0 0 0 0 0 0 0 0 0 0 0 0 0 0 0 0 0 0 0 0 0 0 0 0 0 0 0 0 0 0 0 0 0 0 0 0 0 51 50 51 51 54 53 54 54 57 58 58 58 59 56 57 55 57 56 56 54 54 53 54 51 45 -193 -193 37 38 -193 41 40 43 44 44 46 49 51 47 48 51 51 54 56 59 59 59 -209 -209 -209 -209 -209 -209 47 51 50 52 53 53 53 54 55 56 56 57 57 57 57 57 57 57 -225 -225 -225 -225 -225 -225 -225 -225 -225 -225 -225 -225 -225 -225 -225 -225 -225 -225 -225 -225 -225 -225 -225 -225 -225 -225 -225 -225 -225 -225 -225 -225 -225 -225 -225 -225 -225 -225 -225 -225 -225 -225 -225 -225 -225 -225 -225 -225 -225 29 31 37 38 39 41 44 44 46 47 48 49 52 54 54 55 57 58 62 70 66 65 69 66 68 67 68 68 66 70 70 70 75 76 78 79 79 80 82 87 88 90 90 91 94 93 94 94 92 92 91 91 93 91 97 92 94 99 102 105 114 117 114 114 116 119 118 118 118 118 117 121 121 123 -209 129 138 139 140 140 139 136 135 133 133 133 133 132 130 126 -209 -209 -209 -209 -209 -209 -209 -209 153 154 -193 153 157 162 164 164 165 168 168 169 171 173 172 174 179 185 187 188 189 192 194 195 197 196 195 197 0 0 0 0 0
    0 0 0 0 0 0 0 0 0 0 0 0 0 0 0 0 0 0 0 0 0 0 0 0 0 0 0 0 0 0 0 0 0 0 0 0 0 0 0 0 0 0 0 0 0 0 0 0 0 0 0 0 0 0 0 0 0 0 0 0 0 0 0 0 0 0 0 0 0 52 50 52 52 56 54 55 55 57 58 58 59 60 57 57 56 57 57 57 55 55 54 55 -193 53 -193 54 -193 -193 -193 -209 -209 -209 51 49 52 53 55 52 54 54 55 58 57 60 59 60 60 -209 -209 -209 66 -209 53 54 52 53 54 54 54 55 55 56 56 57 58 58 58 57 57 -225 -225 -225 -225 -225 -225 -225 -225 -225 -225 -225 -225 -225 -225 -225 -225 -225 -225 -225 -225 -225 -225 -225 -225 -225 -225 -225 -225 -225 -225 -225 -225 -225 -225 -225 -225 -225 -225 -225 -225 -225 -225 -225 -225 -225 -225 -225 -225 -225 -225 -225 36 40 43 42 44 48 46 48 49 51 51 53 55 54 55 57 58 60 68 64 63 68 65 67 67 67 67 66 70 70 71 75 76 78 79 79 80 82 87 87 90 90 91 94 94 94 93 93 92 92 92 95 93 100 101 104 102 103 105 112 117 115 115 117 119 118 119 119 119 119 122 123 124 122 130 138 138 139 139 141 137 136 134 133 132 132 132 133 128 125 -209 130 -193 -209 147 -209 -209 -209 -209 139 150 155 157 158 156 157 161 164 167 170 171 171 173 179 185 187 188 188 191 193 195 197 197 196 199 0 0 0 0 0
    0 0 0 0 0 0 0 0 0 0 0 0 0 0 0 0 0 0 0 0 0 0 0 0 0 0 0 0 0 0 0 0 0 0 0 0 0 0 0 0 0 0 0 0 0 0 0 0 0 0 0 0 0 0 0 0 0 0 0 0 0 0 0 0 0 0 0 0 0 52 51 52 53 56 54 55 55 56 58 59 59 60 58 58 58 59 58 58 56 57 57 57 -193 56 -193 -209 -193 -209 63 -209 -209 -209 -209 -193 -193 55 57 55 56 55 55 58 58 60 58 60 59 -209 -209 -209 63 -209 -193 55 53 53 55 55 55 55 55 56 56 57 59 59 59 -225 -225 -225 -225 -225 -225 -225 -225 -225 -225 -225 -225 -225 -225 -225 -225 -225 -225 -225 -225 -225 -225 -225 -225 -225 -225 -225 -225 -225 -225 -225 -225 -225 -225 -225 -225 -225 -225 -225 -225 -225 -225 -225 -225 -225 -225 -225 -225 -225 -225 -225 -225 -225 -225 -225 50 46 49 53 50 51 52 54 53 55 57 56 56 58 59 60 67 63 63 67 65 67 66 67 67 67 70 70 71 75 76 77 78 79 80 83 87 88 90 90 91 93 93 94 93 93 94 94 94 98 98 103 105 106 105 105 106 111 117 116 116 117 120 119 120 120 120 120 123 124 126 123 132 139 138 139 139 139 138 137 135 134 131 132 132 133 128 121 -209 128 -193 -209 146 -209 -209 -209 144 140 147 152 154 153 151 153 155 158 163 167 170 170 172 180 185 187 187 188 189 191 193 197 196 195 198 0 0 0 0 0
    0 0 0 0 0 0 0 0 0 0 0 0 0 0 0 0 0 0 0 0 0 0 0 0 0 0 0 0 0 0 0 0 0 0 0 0 0 0 0 0 0 0 0 0 0 0 0 0 0 0 0 0 0 0 0 0 0 0 0 0 0 0 0 0 0 0 0 0 0 53 51 53 53 57 55 56 55 57 58 59 60 61 58 59 59 59 59 60 60 0 -256 -1 -27181 62 69 71 -209 -209 -209 -209 -209 -209 -209 -209 -193 -209 58 57 57 57 56 58 58 60 57 59 59 -209 -209 -209 60 56 55 56 54 54 55 55 56 56 56 55 55 56 57 58 -225 -225 -225 -225 -225 -225 -225 -225 -225 -225 -225 -225 -225 -225 -225 -225 -225 -225 -225 -225 -225 -225 -225 -225 -225 -225 -225 -225 -225 -225 -225 -225 -225 -225 -225 -225 -225 -225 -225 -225 -225 -225 -225 -225 -225 -225 -225 -225 -225 -225 -225 -225 -225 -225 -225 -225 -225 51 53 55 54 54 55 56 55 56 58 58 57 59 60 60 67 63 63 67 65 67 66 67 67 67 70 70 71 74 76 77 78 79 79 83 87 88 90 90 91 93 92 93 92 93 95 94 95 98 97 102 104 105 104 104 106 110 116 116 116 118 120 120 121 121 122 122 124 126 127 125 133 139 139 139 140 140 139 137 135 135 133 133 133 134 131 -193 -209 -209 -209 -209 149 153 154 155 154 150 154 154 155 154 152 153 154 156 158 163 166 168 170 178 185 186 187 188 189 190 192 196 194 192 195 0 0 0 0 0
    0 0 0 0 0 0 0 0 0 0 0 0 0 0 0 0 0 0 0 0 0 0 0 0 0 0 0 0 0 0 0 0 0 0 0 0 0 0 0 0 0 0 0 0 0 0 0 0 0 0 0 0 0 0 0 0 0 0 0 0 0 0 0 0 0 0 0 0 0 52 49 53 54 58 58 58 57 58 59 60 62 62 59 59 59 60 60 62 63 63 63 67 71 70 72 72 -193 -209 -193 64 62 60 -209 -193 -193 -193 -209 -209 -209 -193 -193 60 -209 -193 56 58 58 45 54 -209 57 58 57 57 55 55 56 56 56 56 56 55 55 57 58 -225 -225 -225 -225 -225 -225 -225 -225 -225 -225 -225 -225 -225 -225 -225 -225 -225 -225 -225 -225 -225 -225 -225 -225 -225 -225 -225 -225 -225 -225 -225 -225 -225 -225 -225 -225 -225 -225 -225 -225 -225 -225 -225 -225 -225 -225 -225 -225 -225 -225 -225 -225 -225 -225 -225 -225 -225 -225 53 54 56 55 55 57 57 56 57 59 59 58 60 61 61 68 64 65 68 66 68 67 67 68 67 70 71 71 75 76 77 78 78 79 82 87 87 89 91 91 93 92 94 92 93 96 95 95 98 98 102 104 105 104 104 106 110 116 116 117 118 121 121 121 122 123 123 125 128 129 127 136 140 140 140 140 141 138 137 135 135 133 133 134 135 134 -209 -209 -209 151 153 153 156 156 156 156 152 155 157 157 156 154 155 157 159 160 164 166 168 170 177 183 184 186 187 188 188 191 196 194 193 196 0 0 0 0 0
    0 0 0 0 0 0 0 0 0 0 0 0 0 0 0 0 0 0 0 0 0 0 0 0 0 0 0 0 0 0 0 0 0 0 0 0 0 0 0 0 0 0 0 0 0 0 0 0 0 0 0 0 0 0 0 0 0 0 0 0 0 0 0 0 0 0 0 0 0 49 46 52 53 58 -193 60 60 61 61 61 63 63 61 60 61 61 61 65 66 67 68 72 75 73 72 71 63 63 60 61 59 58 55 55 -193 -193 -193 -209 -209 142 -193 -209 -209 -193 56 58 59 58 59 59 59 59 58 59 58 56 57 56 56 55 55 54 54 -225 -225 -225 -225 -225 -225 -225 -225 -225 -225 -225 -225 -225 -225 -225 -225 -225 -225 -225 -225 -225 -225 -225 -225 -225 -225 -225 -225 -225 -225 -225 -225 -225 -225 -225 -225 -225 -225 -225 -225 -225 -225 -225 -225 -225 -225 -225 -225 -225 -225 -225 -225 -225 -225 -225 -225 -225 -225 -225 -225 56 55 57 56 56 59 59 58 57 60 60 59 61 62 61 68 65 66 69 66 68 67 68 68 68 71 71 70 74 75 77 77 77 78 81 86 86 88 88 89 91 92 93 92 94 97 97 97 99 99 102 104 104 104 104 105 108 115 115 117 118 121 121 121 122 123 123 124 127 128 129 137 142 141 141 141 140 139 137 135 135 133 134 135 136 -193 -193 -209 -209 -193 158 157 162 160 160 161 157 158 160 159 158 155 155 156 157 157 161 163 165 169 173 178 182 184 186 186 187 191 197 195 195 198 0 0 0 0 0
    0 0 0 0 0 0 0 0 0 0 0 0 0 0 0 0 0 0 0 0 0 0 0 0 0 0 0 0 0 0 0 0 0 0 0 0 0 0 0 0 0 0 0 0 0 0 0 0 0 0 0 0 0 0 0 0 0 0 0 0 0 0 0 0 0 0 0 0 0 48 48 53 54 59 -209 -209 62 63 62 62 64 63 62 62 64 63 63 67 69 70 70 74 76 73 71 70 64 64 61 61 60 58 54 55 -193 98 103 -209 -177 142 148 -209 -209 58 56 58 59 60 61 61 61 60 59 60 59 56 56 55 55 54 53 52 -225 -225 -225 -225 -225 -225 -225 -225 -225 -225 -225 -225 -225 -225 -225 -225 -225 -225 -225 -225 -225 -225 -225 -225 -225 -225 -225 -225 -225 -225 -225 -225 -225 -225 -225 -225 -225 -225 -225 -225 -225 -225 -225 -225 -225 -225 -225 -225 -225 -225 -225 -225 -225 -225 -225 -225 -225 -225 -225 -225 -225 59 57 59 57 57 60 60 59 58 60 61 60 62 63 62 69 66 68 69 67 69 68 68 69 68 71 71 70 74 75 77 77 78 78 82 86 87 87 88 89 91 92 93 93 95 99 99 100 101 100 102 104 104 105 105 106 108 114 115 117 118 120 121 121 122 123 122 124 127 127 128 137 141 139 139 139 139 138 137 136 137 134 136 137 137 -193 -193 -209 -209 -209 161 160 166 165 166 167 165 164 165 163 162 156 155 154 156 156 158 158 162 166 169 171 179 182 186 -209 186 190 195 191 193 194 0 0 0 0 0
    0 0 0 0 0 0 0 0 0 0 0 0 0 0 0 0 0 0 0 0 0 0 0 0 0 0 0 0 0 0 0 0 0 0 0 0 0 0 0 0 0 0 0 0 0 0 0 0 0 0 0 0 0 0 0 0 0 0 0 0 0 0 0 0 0 0 0 0 0 48 49 53 55 -209 -209 -209 -209 -209 -209 -193 66 66 65 66 67 67 67 69 70 71 71 73 76 72 70 70 66 66 63 62 60 -193 54 54 -193 98 103 -209 -193 142 149 -209 -209 56 54 57 58 60 60 60 60 60 59 60 58 56 55 54 54 53 52 -225 -225 -225 -225 -225 -225 -225 -225 -225 -225 -225 -225 -225 -225 -225 -225 -225 -225 -225 -225 -225 -225 -225 -225 -225 -225 -225 -225 -225 -225 -225 -225 -225 -225 -225 -225 -225 -225 -225 -225 -225 -225 -225 -225 -225 -225 -225 -225 -225 -225 -225 -225 -225 -225 -225 -225 -225 -225 -225 -225 -225 -225 59 59 61 58 59 62 61 60 59 61 62 61 64 65 64 70 68 69 70 68 70 69 69 69 69 71 71 71 74 74 76 77 78 -209 83 86 87 88 89 89 91 92 93 93 96 99 99 101 102 101 103 104 105 105 105 106 108 114 114 116 118 120 121 121 122 124 123 125 129 129 133 138 142 139 139 138 138 137 137 136 136 133 135 136 136 -193 -193 -209 -193 -193 -193 156 163 160 162 164 164 165 166 166 165 158 158 157 158 155 156 155 156 157 161 166 171 175 181 177 180 185 187 187 187 189 0 0 0 0 0
    0 0 0 0 0 0 0 0 0 0 0 0 0 0 0 0 0 0 0 0 0 0 0 0 0 0 0 0 0 0 0 0 0 0 0 0 0 0 0 0 0 0 0 0 0 0 0 0 0 0 0 0 0 0 0 0 0 0 0 0 0 0 0 0 0 0 0 0 0 47 46 52 54 -209 -209 -209 -209 -209 -209 -209 -209 -209 -209 -193 70 71 70 72 73 75 75 77 79 75 72 73 70 70 65 62 60 -193 53 55 -193 97 105 -193 -177 142 149 -209 -209 56 54 57 58 60 60 60 60 60 59 60 59 58 57 56 56 54 -225 -225 -225 -225 -225 -225 -225 -225 -225 -225 -225 -225 -225 -225 -225 -225 -225 -225 -225 -225 -225 -225 -225 -225 -225 -225 -225 -225 -225 -225 -225 -225 -225 -225 -225 -225 -225 -225 -225 -225 -225 -225 -225 -225 -225 -225 -225 -225 -225 -225 -225 -225 -225 -225 -225 -225 -225 -225 -225 -225 -225 -225 -225 60 59 60 58 60 63 62 61 60 63 64 63 66 66 66 70 68 70 71 69 71 70 69 70 70 71 71 71 74 74 76 76 77 -209 81 83 85 86 88 89 90 92 93 93 95 98 98 100 101 101 102 103 103 104 105 106 107 112 114 116 118 120 121 122 123 125 124 125 129 127 134 138 142 140 138 138 138 137 137 136 135 131 133 134 135 -193 -193 -209 -193 146 152 155 161 158 160 163 165 165 166 167 167 163 164 163 162 157 158 156 157 158 162 166 168 170 171 171 171 175 178 175 171 179 0 0 0 0 0
    0 0 0 0 0 0 0 0 0 0 0 0 0 0 0 0 0 0 0 0 0 0 0 0 0 0 0 0 0 0 0 0 0 0 0 0 0 0 0 0 0 0 0 0 0 0 0 0 0 0 0 0 0 0 0 0 0 0 0 0 0 0 0 0 0 0 0 0 0 46 43 49 52 -209 -209 -209 -209 -209 197 -209 -209 -209 -209 72 72 73 73 77 78 80 79 81 82 78 75 75 71 70 65 61 60 -193 51 -193 -193 98 104 -193 138 144 150 -209 -209 56 55 57 59 61 61 60 60 60 60 60 59 59 58 57 57 -225 -225 -225 -225 -225 -225 -225 -225 -225 -225 -225 -225 -225 -225 -225 -225 -225 -225 -225 -225 -225 -225 -225 -225 -225 -225 -225 -225 -225 -225 -225 -225 -225 -225 -225 -225 -225 -225 -225 -225 -225 -225 -225 -225 -225 -225 -225 -225 -225 -225 -225 -225 -225 -225 -225 -225 -225 -225 -225 -225 -225 -225 -225 -225 60 59 61 59 62 63 62 63 61 65 66 64 68 68 68 71 69 71 71 70 72 71 70 71 71 72 72 71 74 74 75 76 76 76 80 82 84 85 87 88 90 91 93 93 95 98 98 99 101 101 101 102 102 104 104 106 107 110 113 116 118 120 121 122 123 125 125 124 127 125 -193 139 141 140 138 138 138 137 137 136 136 131 132 133 134 -193 -193 -193 -193 -209 -193 157 164 162 162 165 -193 167 167 167 167 166 166 -193 -193 -209 162 162 162 163 164 167 169 170 170 171 171 174 174 172 172 171 0 0 0 0 0
    0 0 0 0 0 0 0 0 0 0 0 0 0 0 0 0 0 0 0 0 0 0 0 0 0 0 0 0 0 0 0 0 0 0 0 0 0 0 0 0 0 0 0 0 0 0 0 0 0 0 0 0 0 0 0 0 0 0 0 0 0 0 0 0 0 0 0 0 0 -209 -209 -193 -209 -193 118 118 -193 118 -209 -209 -209 -209 74 75 75 76 77 81 82 83 81 83 83 80 76 74 71 69 64 60 59 -193 46 54 91 99 -225 -225 -225 -225 153 -209 -177 -209 55 57 59 61 61 61 61 60 59 60 60 59 58 -225 -225 -225 -225 -225 -225 -225 -225 -225 -225 -225 -225 -225 -225 -225 -225 -225 -225 -225 -225 -225 -225 -225 -225 -225 -225 -225 -225 -225 -225 -225 -225 -225 -225 -225 -225 -225 -225 -225 -225 -225 -225 -225 -225 -225 -225 -225 -225 -225 -225 -225 -225 -225 -225 -225 -225 -225 -225 -225 -225 -225 -225 -225 -225 -225 -225 61 60 62 60 64 65 64 65 63 67 67 66 69 70 70 72 71 72 73 71 73 72 71 72 71 72 72 72 75 74 76 77 77 77 81 82 84 85 88 -193 90 91 93 95 96 99 99 99 101 100 101 101 101 103 103 105 107 110 112 116 119 120 122 122 123 124 124 124 126 124 -193 -193 140 139 139 138 137 137 137 136 136 133 134 134 134 -193 -193 -193 -193 -193 149 -209 -193 159 161 165 -193 -209 166 166 165 165 165 -193 -193 -193 164 166 165 167 166 168 169 171 170 171 172 174 173 173 174 -193 0 0 0 0 0
    0 0 0 0 0 0 0 0 0 0 0 0 0 0 0 0 0 0 0 0 0 0 0 0 0 0 0 0 0 0 0 0 0 0 0 0 0 0 0 0 0 0 0 0 0 0 0 0 0 0 0 0 0 0 0 0 0 0 0 0 0 0 0 0 0 0 0 0 0 -193 87 -193 -209 110 120 121 121 118 -209 -209 74 -209 75 77 80 79 80 83 84 84 83 84 84 80 76 73 70 67 63 60 59 -193 -225 -225 -225 -225 -225 -225 -225 -225 -225 -225 197 -209 55 58 59 62 61 61 61 60 59 61 61 60 -225 -225 -225 -225 -225 -225 -225 -225 -225 -225 -225 -225 -225 -225 -225 -225 -225 -225 -225 -225 -225 -225 -225 -225 -225 -225 -225 -225 -225 -225 -225 -225 -225 -225 -225 -225 -225 -225 -225 -225 -225 -225 -225 -225 -225 -225 -225 -225 -225 -225 -225 -225 -225 -225 -225 -225 -225 -225 -225 -225 -225 -225 -225 -225 -225 -225 -225 -225 61 62 61 65 67 65 66 64 68 69 68 70 70 71 73 73 73 74 73 74 73 72 73 72 73 73 73 75 75 77 78 77 78 81 82 84 86 89 89 91 93 94 97 97 99 99 99 100 100 100 99 98 101 100 103 105 107 109 116 119 120 122 123 124 124 124 125 126 124 135 -193 137 138 139 138 137 138 138 137 137 134 133 130 133 -193 -193 -193 -193 -193 144 -209 -209 -193 157 163 166 167 165 165 164 165 165 166 166 167 166 169 168 170 168 168 171 174 170 172 -209 -209 170 -209 177 -193 0 0 0 0 0
    0 0 0 0 0 0 0 0 0 0 0 0 0 0 0 0 0 0 0 0 0 0 0 0 0 0 0 0 0 0 0 0 0 0 0 0 0 0 0 0 0 0 0 0 0 0 0 0 0 0 0 0 0 0 0 0 0 0 0 0 0 0 0 0 0 0 0 0 0 84 87 88 -193 -209 -209 -209 -209 -209 -209 72 73 72 76 79 84 81 83 85 85 85 84 83 82 78 75 73 68 66 63 60 58 -225 -225 -225 -225 -225 -225 -225 -225 -225 -225 -225 -225 -225 -193 58 60 63 62 61 61 61 60 64 63 -225 -225 -225 -225 -225 -225 -225 -225 -225 -225 -225 -225 -225 -225 -225 -225 -225 -225 -225 -225 -225 -225 -225 -225 -225 -225 -225 -225 -225 -225 -225 -225 -225 -225 -225 -225 -225 -225 -225 -225 -225 -225 -225 -225 -225 -225 -225 -225 -225 -225 -225 -225 -225 -225 -225 -225 -225 -225 -225 -225 -225 -225 -225 -225 -225 -225 -225 -225 -225 61 60 60 66 68 66 67 64 68 70 69 70 71 72 73 74 75 76 74 75 74 74 74 74 74 74 74 77 76 78 78 78 77 80 82 85 86 89 90 92 95 97 100 99 100 99 100 101 100 101 100 98 102 100 103 105 106 108 115 118 119 121 122 122 123 123 124 125 124 133 135 135 137 139 138 138 139 139 138 137 136 136 129 131 -193 121 130 132 134 139 -209 -209 -209 -209 -193 -193 -209 163 164 163 165 166 167 167 169 167 -193 -209 -209 -209 -209 170 174 168 173 -209 -209 -193 -209 -193 -193 0 0 0 0 0
    0 0 0 0 0 0 0 0 0 0 0 0 0 0 0 0 0 0 0 0 0 0 0 0 0 0 0 0 0 0 0 0 0 0 0 0 0 0 0 0 0 0 0 0 0 0 0 0 0 0 0 0 0 0 0 0 0 0 0 0 0 0 0 0 0 0 0 0 0 84 87 86 88 -209 -209 -209 -209 -193 79 75 75 77 82 84 88 85 86 87 87 87 85 84 83 78 75 73 71 69 65 -225 -225 -225 -225 -225 -225 -225 -225 -225 -225 -225 -225 -225 -225 -225 -225 -225 63 65 65 63 63 62 61 -225 -225 -225 -225 -225 -225 -225 -225 -225 -225 -225 -225 -225 -225 -225 -225 -225 -225 -225 -225 -225 -225 -225 -225 -225 -225 -225 -225 -225 -225 -225 -225 -225 -225 -225 -225 -225 -225 -225 -225 -225 -225 -225 -225 -225 -225 -225 -225 -225 -225 -225 -225 -225 -225 -225 -225 -225 -225 -225 -225 -225 -225 -225 -225 -225 -225 -225 -225 -225 -225 -225 62 61 61 67 68 68 68 65 68 69 70 71 71 73 73 74 75 76 74 75 74 75 74 75 74 74 73 76 75 77 77 77 77 80 83 86 87 90 91 94 97 99 102 101 101 99 100 101 101 101 100 99 103 102 104 105 107 109 113 116 117 119 120 121 121 121 122 124 124 132 134 133 136 138 138 138 140 139 139 138 138 138 135 136 -193 125 133 133 133 137 132 -209 -209 -209 -209 -209 -209 -209 -209 -193 -209 -209 -193 -209 -209 -209 -209 -209 -209 -209 -209 -209 -209 -209 -209 -209 -209 -193 -193 -193 -193 0 0 0 0 0
    0 0 0 0 0 0 0 0 0 0 0 0 0 0 0 0 0 0 0 0 0 0 0 0 0 0 0 0 0 0 0 0 0 0 0 0 0 0 0 0 0 0 0 0 0 0 0 0 0 0 0 0 0 0 0 0 0 0 0 0 0 0 0 0 0 0 0 0 0 82 86 86 87 87 86 85 88 -193 82 81 85 87 88 89 90 88 88 89 89 88 85 84 82 78 76 75 73 72 -225 -225 -225 -225 -225 -225 -225 -225 -225 -225 -225 -225 -225 -225 -225 -225 -225 -225 -225 -225 -225 -225 -225 -225 -225 -225 -225 -225 -225 -225 -225 -225 -225 -225 -225 -225 -225 -225 -225 -225 -225 -225 -225 -225 -225 -225 -225 -225 -225 -225 -225 -225 -225 -225 -225 -225 -225 -225 -225 -225 -225 -225 -225 -225 -225 -225 -225 -225 -225 -225 -225 -225 -225 -225 -225 -225 -225 -225 -225 -225 -225 -225 -225 -225 -225 -225 -225 -225 -225 -225 -225 -225 -225 -225 -225 -225 -225 60 60 68 67 69 69 65 68 69 70 71 72 74 74 74 75 76 75 76 76 76 75 75 75 75 75 76 76 77 77 78 78 81 83 87 89 92 93 96 98 100 103 102 102 99 100 101 101 101 100 100 102 102 105 106 108 109 112 116 116 117 119 120 120 121 122 124 124 129 130 127 132 136 135 137 142 141 144 142 142 141 140 140 -193 133 137 133 132 136 127 -193 124 -209 -209 -209 -209 -209 -209 -209 -209 -209 -193 -193 -193 -209 -209 -209 -209 -193 -209 -209 -193 -209 -209 -193 -193 -193 -209 -193 194 0 0 0 0 0
    0 0 0 0 0 0 0 0 0 0 0 0 0 0 0 0 0 0 0 0 0 0 0 0 0 0 0 0 0 0 0 0 0 0 0 0 0 0 0 0 0 0 0 0 0 0 0 0 0 0 0 0 0 0 0 0 0 0 0 0 0 0 0 0 0 0 0 0 0 84 86 86 87 87 85 86 87 87 84 85 88 89 90 91 92 90 89 90 89 88 86 83 82 80 80 79 77 -225 -225 -225 -225 -225 -225 -225 -225 -225 -225 -225 -225 -225 -225 -225 -225 -225 -225 -225 -225 -225 -225 -225 -225 -225 -225 -225 -225 -225 -225 -225 -225 -225 -225 -225 -225 -225 -225 -225 -225 -225 -225 -225 -225 -225 -225 -225 -225 -225 -225 -225 -225 -225 -225 -225 -225 -225 -225 -225 -225 -225 -225 -225 -225 -225 -225 -225 -225 -225 -225 -225 -225 -225 -225 -225 -225 -225 -225 -225 -225 -225 -225 -225 -225 -225 -225 -225 -225 -225 -225 -225 -225 -225 -225 -225 -225 -225 -225 -225 57 69 67 71 70 67 69 69 71 72 73 74 75 75 76 77 77 76 77 76 76 76 75 76 75 77 77 77 77 78 78 80 83 87 89 92 93 96 97 100 102 101 100 98 99 100 99 100 99 98 102 101 104 106 108 110 112 116 116 117 119 120 121 122 123 126 126 129 131 127 129 132 130 135 141 141 148 147 145 145 143 143 140 138 138 136 134 136 133 -193 -193 -193 -209 -209 -209 -209 -209 148 -193 -209 -209 -193 -193 -193 -209 -209 -209 -209 -209 -209 -193 -209 -209 -209 -193 -193 -193 -193 192 0 0 0 0 0
    0 0 0 0 0 0 0 0 0 0 0 0 0 0 0 0 0 0 0 0 0 0 0 0 0 0 0 0 0 0 0 0 0 0 0 0 0 0 0 0 0 0 0 0 0 0 0 0 0 0 0 0 0 0 0 0 0 0 0 0 0 0 0 0 0 0 0 0 0 86 88 87 88 88 86 87 88 89 87 88 91 92 92 93 94 91 90 90 89 88 86 84 84 82 82 -225 -225 -225 -225 -225 -225 -225 -225 -225 -225 -225 -225 -225 -225 -225 -225 -225 -225 -225 -225 -225 -225 -225 -225 -225 -225 -225 -225 -225 -225 -225 -225 -225 -225 -225 -225 -225 -225 -225 -225 -225 -225 -225 -225 -225 -225 -225 -225 -225 -225 -225 -225 -225 -225 -225 -225 -225 -225 -225 -225 -225 -225 -225 -225 -225 -225 -225 -225 -225 -225 -225 -225 -225 -225 -225 -225 -225 -225 -225 -225 -225 -225 -225 -225 -225 -225 -225 -225 -225 -225 -225 -225 -225 -225 -225 -225 -225 -225 -225 -225 -225 -225 -225 -225 -209 71 67 69 69 71 72 73 74 75 75 77 78 78 77 77 77 77 77 76 76 76 77 77 78 78 79 79 81 84 88 90 93 94 96 97 99 103 101 100 99 99 99 99 100 99 98 102 102 105 107 108 110 112 115 114 116 118 119 120 121 123 126 126 128 129 125 127 129 127 134 140 141 149 149 146 146 145 145 142 139 139 137 136 136 137 138 -193 -193 -209 -209 150 149 146 148 142 147 153 156 -209 -193 -193 -193 -209 -209 -209 -209 -193 -209 -209 -209 -193 -209 -209 -209 189 0 0 0 0 0
    0 0 0 0 0 0 0 0 0 0 0 0 0 0 0 0 0 0 0 0 0 0 0 0 0 0 0 0 0 0 0 0 0 0 0 0 0 0 0 0 0 0 0 0 0 0 0 0 0 0 0 0 0 0 0 0 0 0 0 0 0 0 0 0 0 0 0 0 0 87 88 87 88 88 87 88 90 92 89 91 94 95 95 94 94 92 90 90 89 88 86 85 84 -225 -225 -225 -225 -225 -225 -225 -225 -225 -225 -225 -225 -225 -225 -225 -225 -225 -225 -225 -225 -225 -225 -225 -225 -225 -225 -225 -225 -225 -225 -225 -225 -225 -225 -225 -225 -225 -225 -225 -225 -225 -225 -225 -225 -225 -225 -225 -225 -225 -225 -225 -225 -225 -225 -225 -225 -225 -225 -225 -225 -225 -225 -225 -225 -225 -225 -225 -225 -225 -225 -225 -225 -225 -225 -225 -225 -225 -225 -225 -225 -225 -225 -225 -225 -225 -225 -225 -225 -225 -225 -225 -225 -225 -225 -225 -225 -225 -225 -225 -225 -225 -225 -225 -225 -225 -225 -225 -225 65 68 70 72 72 75 76 77 78 79 80 80 79 80 79 80 79 79 78 78 79 79 80 82 82 83 84 85 89 90 93 94 96 96 99 103 101 100 100 100 100 99 101 100 99 103 103 106 108 109 111 112 114 113 115 116 117 118 120 122 125 125 127 127 124 126 127 125 133 138 140 149 149 146 146 145 146 143 140 140 138 137 137 138 140 141 142 145 149 151 149 149 150 144 144 151 154 155 157 161 -193 -193 -193 -209 -193 11 -193 -209 -209 -193 -209 -209 -193 188 0 0 0 0 0
    0 0 0 0 0 0 0 0 0 0 0 0 0 0 0 0 0 0 0 0 0 0 0 0 0 0 0 0 0 0 0 0 0 0 0 0 0 0 0 0 0 0 0 0 0 0 0 0 0 0 0 0 0 0 0 0 0 0 0 0 0 0 0 0 0 0 0 0 0 87 88 87 88 88 88 90 94 99 100 100 101 101 98 95 96 93 91 90 90 89 87 86 -225 -225 -225 -225 -225 -225 -225 -225 -225 -225 -225 -225 -225 -225 -225 -225 -225 -225 -225 -225 -225 -225 -225 -225 -225 -225 -225 -225 -225 -225 -225 -225 -225 -225 -225 -225 -225 -225 -225 -225 -225 -225 -225 -225 -225 -225 -225 -225 -225 -225 -225 -225 -225 -225 -225 -225 -225 -225 -225 -225 -225 -225 -225 -225 -225 -225 -225 -225 -225 -225 -225 -225 -225 -225 -225 -225 -225 -225 -225 -225 -225 -225 -225 -225 -225 -225 -225 -225 -225 -225 -225 -225 -225 -225 -225 -225 -225 -225 -225 -225 -225 -225 -225 -225 -225 -225 -225 -225 -225 63 68 70 72 73 76 77 78 79 80 81 81 81 82 82 83 82 83 83 84 83 83 83 84 84 85 85 86 89 91 93 94 97 97 98 102 101 99 100 100 100 99 101 100 99 103 103 106 108 110 111 112 114 113 115 116 117 118 120 122 124 124 125 125 123 125 126 125 132 136 139 148 149 146 147 146 146 144 141 141 139 138 138 139 141 143 143 143 146 148 144 146 145 144 144 149 152 153 155 156 158 158 -193 -209 -193 11 -193 -193 -193 -209 -209 -209 -209 189 0 0 0 0 0
    0 0 0 0 0 0 0 0 0 0 0 0 0 0 0 0 0 0 0 0 0 0 0 0 0 0 0 0 0 0 0 0 0 0 0 0 0 0 0 0 0 0 0 0 0 0 0 0 0 0 0 0 0 0 0 0 0 0 0 0 0 0 0 0 0 0 0 0 0 88 89 88 95 99 101 103 102 104 105 104 102 103 100 97 97 94 93 91 91 90 -225 -225 -225 -225 -225 -225 -225 -225 -225 -225 -225 -225 -225 -225 -225 -225 -225 -225 -225 -225 -225 -225 -225 -225 -225 -225 -225 -225 -225 -225 -225 -225 -225 -225 -225 -225 -225 -225 -225 -225 -225 -225 -225 -225 -225 -225 -225 -225 -225 -225 -225 -225 -225 -225 -225 -225 -225 -225 -225 -225 -225 -225 -225 -225 -225 -225 -225 -225 -225 -225 -225 -225 -225 -225 -225 -225 -225 -225 -225 -225 -225 -225 -225 -225 -225 -225 -225 -225 -225 -225 -225 -225 -225 -225 -225 -225 -225 -225 -225 -225 -225 -225 -225 -225 -225 -225 -225 -225 -225 -225 -225 -225 68 70 73 74 78 78 79 79 82 83 83 83 85 85 86 86 87 87 87 86 87 86 86 86 88 88 87 92 92 93 95 97 97 98 101 100 97 99 100 99 98 100 100 100 103 104 106 108 109 112 112 114 113 114 116 116 118 119 121 123 123 123 123 123 124 125 124 129 135 139 148 149 146 146 146 146 145 142 141 140 139 140 144 146 147 145 145 147 151 146 145 142 143 143 149 151 153 154 155 156 157 161 160 -209 -209 -209 -209 -193 -209 -209 -209 -193 -193 0 0 0 0 0
    0 0 0 0 0 0 0 0 0 0 0 0 0 0 0 0 0 0 0 0 0 0 0 0 0 0 0 0 0 0 0 0 0 0 0 0 0 0 0 0 0 0 0 0 0 0 0 0 0 0 0 0 0 0 0 0 0 0 0 0 0 0 0 0 0 0 0 0 0 92 94 103 103 105 105 105 105 105 105 105 103 104 101 98 97 96 95 93 93 -225 -225 -225 -225 -225 -225 -225 -225 -225 -225 -225 -225 -225 -225 -225 -225 -225 -225 -225 -225 -225 -225 -225 -225 -225 -225 -225 -225 -225 -225 -225 -225 -225 -225 -225 -225 -225 -225 -225 -225 -225 -225 -225 -225 -225 -225 -225 -225 -225 -225 -225 -225 -225 -225 -225 -225 -225 -225 -225 -225 -225 -225 -225 -225 -225 -225 -225 -225 -225 -225 -225 -225 -225 -225 -225 -225 -225 -225 -225 -225 -225 -225 -225 -225 -225 -225 -225 -225 -225 -225 -225 -225 -225 -225 -225 -225 -225 -225 -225 -225 -225 -225 -225 -225 -225 -225 -225 -225 -225 -225 -225 -225 -225 -225 67 72 75 81 80 81 80 83 84 84 84 85 85 86 86 87 88 88 88 88 88 88 88 91 90 89 94 93 94 95 97 97 97 101 100 95 98 99 99 98 100 101 101 103 104 107 108 110 113 112 114 113 114 115 115 116 118 119 121 121 122 122 122 123 123 123 127 133 137 146 148 147 147 147 146 146 144 142 141 141 144 148 149 149 146 145 147 150 146 146 143 144 148 150 152 153 153 154 155 155 156 154 154 150 -209 -209 -193 -193 -209 -193 -193 -193 0 0 0 0 0
    0 0 0 0 0 0 0 0 0 0 0 0 0 0 0 0 0 0 0 0 0 0 0 0 0 0 0 0 0 0 0 0 0 0 0 0 0 0 0 0 0 0 0 0 0 0 0 0 0 0 0 0 0 0 0 0 0 0 0 0 0 0 0 0 0 0 0 0 0 102 102 106 105 106 105 106 106 105 106 105 104 104 102 100 99 98 97 -225 -225 -225 -225 -225 -225 -225 -225 -225 -225 -225 -225 -225 -225 -225 -225 -225 -225 -225 -225 -225 -225 -225 -225 -225 -225 -225 -225 -225 -225 -225 -225 -225 -225 -225 -225 -225 -225 -225 -225 -225 -225 -225 -225 -225 -225 -225 -225 -225 -225 -225 -225 -225 -225 -225 -225 -225 -225 -225 -225 -225 -225 -225 -225 -225 -225 -225 -225 -225 -225 -225 -225 -225 -225 -225 -225 -225 -225 -225 -225 -225 -225 -225 -225 -225 -225 -225 -225 -225 -225 -225 -225 -225 -225 -225 -225 -225 -225 -225 -225 -225 -225 -225 -225 -225 -225 -225 -225 -225 -225 -225 -225 -225 -225 -225 -225 -225 70 74 83 81 82 81 84 84 85 84 85 85 86 86 88 89 89 89 89 89 90 89 92 91 89 95 93 94 96 96 97 96 100 99 94 98 99 99 98 100 101 101 103 104 107 109 110 113 112 112 112 112 114 113 115 116 116 119 120 120 122 121 122 122 122 126 131 136 143 148 146 146 147 147 147 145 144 143 144 148 149 150 150 147 145 148 150 147 146 148 146 152 152 153 155 155 156 157 156 159 158 156 -193 -193 -209 -209 -209 -209 -209 -193 -193 0 0 0 0 0</data></disparity>
</opencv_storage>
