<?xml version="1.0"?>
<opencv_storage>
<gps_time_stamp>277703</gps_time_stamp>
<gps_x>-1.3974469184875488e+001</gps_x>
<gps_y>1.1258238792419434e+001</gps_y>
<gps_z>-2.2348272800445557e+000</gps_z>
<image_time_stamp>268558</image_time_stamp>
<disparity type_id="opencv-matrix">
  <rows>94</rows>
  <cols>320</cols>
  <dt>s</dt>
  <data>
    0 0 0 0 0 0 0 0 0 0 0 0 0 0 0 0 0 0 0 0 0 0 0 0 0 0 0 0 0 0 0 0 0 0 0 0 0 0 0 0 0 0 0 0 0 0 0 0 0 0 0 0 0 0 0 0 0 0 0 0 0 0 0 0 0 0 0 0 0 0 0 0 0 0 0 0 0 0 0 0 0 0 0 0 0 0 0 0 0 0 0 0 0 0 0 0 0 0 0 0 0 0 0 0 0 0 0 0 0 0 0 0 0 0 0 0 0 0 0 0 0 0 0 0 0 0 0 0 0 0 0 0 0 0 0 0 0 0 0 0 0 0 0 0 0 0 0 0 0 0 0 0 0 0 0 0 0 0 0 0 0 0 0 0 0 0 0 0 0 0 0 0 0 0 0 0 0 0 0 0 0 0 0 0 0 0 0 0 0 0 0 0 0 0 0 0 0 0 0 0 0 0 0 0 0 0 0 0 0 0 0 0 0 0 0 0 0 0 0 0 0 0 0 0 0 0 0 0 0 0 0 0 0 0 0 0 0 0 0 0 0 0 0 0 0 0 0 0 0 0 0 0 0 0 0 0 0 0 0 0 0 0 0 0 0 0 0 0 0 0 0 0 0 0 0 0 0 0 0 0 0 0 0 0 0 0 0 0 0 0 0 0 0 0 0 0 0 0 0 0 0 0 0 0 0 0 0 0 0 0 0 0 0 0 0 0 0 0 0 0
    0 0 0 0 0 0 0 0 0 0 0 0 0 0 0 0 0 0 0 0 0 0 0 0 0 0 0 0 0 0 0 0 0 0 0 0 0 0 0 0 0 0 0 0 0 0 0 0 0 0 0 0 0 0 0 0 0 0 0 0 0 0 0 0 0 0 0 0 0 0 0 0 0 0 0 0 0 0 0 0 0 0 0 0 0 0 0 0 0 0 0 0 0 0 0 0 0 0 0 0 0 0 0 0 0 0 0 0 0 0 0 0 0 0 0 0 0 0 0 0 0 0 0 0 0 0 0 0 0 0 0 0 0 0 0 0 0 0 0 0 0 0 0 0 0 0 0 0 0 0 0 0 0 0 0 0 0 0 0 0 0 0 0 0 0 0 0 0 0 0 0 0 0 0 0 0 0 0 0 0 0 0 0 0 0 0 0 0 0 0 0 0 0 0 0 0 0 0 0 0 0 0 0 0 0 0 0 0 0 0 0 0 0 0 0 0 0 0 0 0 0 0 0 0 0 0 0 0 0 0 0 0 0 0 0 0 0 0 0 0 0 0 0 0 0 0 0 0 0 0 0 0 0 0 0 0 0 0 0 0 0 0 0 0 0 0 0 0 0 0 0 0 0 0 0 0 0 0 0 0 0 0 0 0 0 0 0 0 0 0 0 0 0 0 0 0 0 0 0 0 0 0 0 0 0 0 0 0 0 0 0 0 0 0 0 0 0 0 0 0
    0 0 0 0 0 0 0 0 0 0 0 0 0 0 0 0 0 0 0 0 0 0 0 0 0 0 0 0 0 0 0 0 0 0 0 0 0 0 0 0 0 0 0 0 0 0 0 0 0 0 0 0 0 0 0 0 0 0 0 0 0 0 0 0 0 0 0 0 0 -193 -209 -209 -209 -209 -209 -209 -209 -209 -209 -209 -209 -209 -209 -209 -209 -209 -209 -209 -209 -209 -177 -177 -177 -193 -177 -193 -209 -209 -209 -209 -209 -209 -209 -209 -209 -209 -209 -209 -209 -209 -209 -209 -209 -209 -209 -209 -209 -209 -209 -209 -209 -209 -209 -209 -209 -209 -209 -209 -209 -209 -209 -209 -193 -209 -209 -193 -193 -209 -209 -209 76 -193 -193 -209 -209 -209 -209 -209 0 -209 -209 -209 -209 -193 -209 -209 -209 -209 12 14 18 -209 -209 -225 -225 -225 -225 38 -209 -209 -209 -209 -193 -209 -209 -209 -209 -209 -209 -209 -209 -209 -209 -209 -209 -209 -209 -209 -209 -209 -209 -209 -209 -209 -209 -209 -209 0 0 0 14 28 25 27 26 26 25 25 24 24 21 21 20 21 21 22 25 24 22 23 21 20 20 20 23 23 24 24 28 27 27 28 27 28 28 27 29 27 30 30 29 31 30 32 33 33 34 31 34 36 36 35 36 38 37 39 39 39 40 40 41 40 40 42 41 43 43 43 44 44 45 45 46 47 46 49 49 49 48 49 49 46 47 46 45 46 46 47 50 54 53 52 53 54 54 54 54 55 56 57 60 59 58 61 64 62 63 63 62 61 62 62 61 61 63 0 0 0 0 0
    0 0 0 0 0 0 0 0 0 0 0 0 0 0 0 0 0 0 0 0 0 0 0 0 0 0 0 0 0 0 0 0 0 0 0 0 0 0 0 0 0 0 0 0 0 0 0 0 0 0 0 0 0 0 0 0 0 0 0 0 0 0 0 0 0 0 0 0 0 -193 -193 -209 -209 -209 -209 -209 -209 -209 -209 -209 -209 -209 -209 -209 -209 -209 -209 -209 -209 -209 -177 -177 -177 -177 -177 -193 -209 -193 -209 -209 -209 -209 -209 -209 -209 -209 -209 -209 -209 -209 -209 -209 -209 -209 -209 -209 -209 -209 -209 -209 -209 -209 -209 -193 -209 -209 -209 -209 -209 132 -209 -209 -209 -209 -209 -193 -193 -209 -209 -209 76 -193 -193 -209 19 13 16 13 11 11 12 12 12 -193 -209 -209 11 -209 12 14 18 -193 -193 -225 -225 -225 -225 38 -209 -209 -209 -209 -193 -209 -209 -209 -209 -209 -209 -209 -209 -209 -209 -209 -209 -209 -209 -209 -209 -209 -209 -209 -209 -209 0 0 0 0 0 0 12 -193 25 27 26 26 25 25 24 24 21 21 20 21 21 22 25 24 22 23 20 19 19 20 23 23 24 24 27 26 26 28 27 28 27 27 29 27 29 30 29 31 30 32 33 33 35 32 34 36 36 35 36 38 37 39 39 39 40 41 41 41 40 42 42 43 43 43 43 44 45 45 46 47 47 49 49 49 48 49 49 47 47 46 45 46 46 47 50 54 54 53 54 55 55 56 56 57 59 58 61 60 60 61 63 62 62 63 62 61 62 62 61 60 62 0 0 0 0 0
    0 0 0 0 0 0 0 0 0 0 0 0 0 0 0 0 0 0 0 0 0 0 0 0 0 0 0 0 0 0 0 0 0 0 0 0 0 0 0 0 0 0 0 0 0 0 0 0 0 0 0 0 0 0 0 0 0 0 0 0 0 0 0 0 0 0 0 0 0 -193 -193 -209 -209 -209 -209 -209 -209 -209 -209 -209 -209 -209 -209 -209 -209 -209 -209 -209 -193 -177 -177 -177 -177 -177 -177 -209 -209 -193 -193 -209 -209 -209 -209 -209 -209 -209 -209 -209 -209 -177 -209 -209 -209 -209 -209 -209 -209 -209 -209 -193 -193 -193 -193 68 69 -209 -209 -209 -209 128 -209 -209 -209 -209 -193 -177 0 -209 -209 -209 77 -193 -193 11 21 15 17 15 13 13 13 14 14 11 -193 -193 12 -193 13 -225 -225 -225 -225 -225 -225 -225 -225 -225 -225 -209 -209 -209 -225 -209 -209 -209 -209 -209 0 0 0 -209 -209 -209 -209 -209 -209 -209 -209 -209 -209 10 9 9 0 0 0 0 0 0 13 26 24 26 26 26 26 25 24 24 21 20 19 20 20 21 22 21 20 22 21 21 21 22 22 23 24 24 26 26 26 28 27 27 27 27 29 27 29 30 29 30 30 32 33 33 35 32 34 35 36 35 35 37 37 38 39 39 40 41 41 41 40 42 42 43 43 43 43 45 46 46 47 48 48 50 50 50 48 48 49 47 47 46 44 45 45 46 50 53 54 53 54 54 56 57 57 58 61 59 61 61 61 61 62 62 62 62 63 61 62 62 61 60 62 0 0 0 0 0
    0 0 0 0 0 0 0 0 0 0 0 0 0 0 0 0 0 0 0 0 0 0 0 0 0 0 0 0 0 0 0 0 0 0 0 0 0 0 0 0 0 0 0 0 0 0 0 0 0 0 0 0 0 0 0 0 0 0 0 0 0 0 0 0 0 0 0 0 0 -193 -193 -209 -209 -209 -209 -209 -193 -209 -209 -209 -209 -209 -209 -209 -209 -209 -209 -193 -177 -177 -193 -177 -193 -177 -177 -209 -209 -177 -177 -209 -209 -209 -209 -209 -209 -209 -193 -209 -209 -193 -209 -209 -209 -209 -209 -209 -209 -193 70 68 -193 -193 -193 67 69 -193 -193 -209 -209 124 -193 -209 -209 0 0 -177 0 -209 -193 -209 79 -193 12 12 21 15 17 15 15 14 15 15 16 11 15 -209 12 -209 -225 -225 -225 -225 -225 -225 -225 -225 -225 -225 -225 -225 12 11 0 10 12 11 11 0 0 0 0 0 0 -193 -193 -193 -193 -193 -193 16 15 13 11 9 0 9 9 0 9 0 14 25 24 26 25 25 25 24 23 24 19 17 15 17 18 20 21 21 19 23 22 23 22 23 23 23 24 24 25 25 25 27 26 27 27 27 29 27 29 30 29 30 30 33 33 32 35 32 33 35 36 35 35 37 37 38 38 39 40 41 41 41 41 42 42 43 44 44 43 45 46 46 47 48 48 50 50 50 48 47 49 47 46 45 44 46 45 47 51 54 54 53 53 54 55 57 57 59 61 60 61 61 61 61 62 62 62 62 63 61 62 62 62 61 62 0 0 0 0 0
    0 0 0 0 0 0 0 0 0 0 0 0 0 0 0 0 0 0 0 0 0 0 0 0 0 0 0 0 0 0 0 0 0 0 0 0 0 0 0 0 0 0 0 0 0 0 0 0 0 0 0 0 0 0 0 0 0 0 0 0 0 0 0 0 0 0 0 0 0 -209 -193 -209 -209 -209 -209 -209 -209 -209 -209 -209 -209 -209 -209 -209 -209 -209 -209 -209 -193 -209 -209 -209 -193 -209 -209 -209 -209 -209 -177 -209 -209 -209 -209 -209 -209 -209 -193 -209 -209 -209 -209 -209 -209 -209 -209 -209 -209 68 68 68 67 -193 66 66 68 68 -209 -209 -209 -209 -193 -209 -209 0 -225 -225 -225 -225 -225 -225 -193 12 12 12 18 12 15 13 13 13 13 14 14 11 18 -209 -225 -225 -225 -225 -225 -225 -225 -225 24 23 19 20 21 15 11 10 0 9 11 11 11 0 0 0 0 0 0 0 0 -193 -193 -193 -193 -193 9 -193 9 0 0 9 9 0 11 10 17 25 24 26 25 24 24 23 22 22 18 15 12 14 15 16 16 17 15 22 22 23 22 24 23 23 24 24 25 25 24 26 26 27 27 27 28 27 29 31 29 30 30 33 33 32 35 33 32 35 36 35 34 37 37 37 37 38 39 40 41 42 41 42 43 43 44 43 43 45 46 45 47 47 49 49 50 50 48 47 49 47 47 46 44 46 45 47 52 55 54 53 54 54 55 57 57 58 62 60 61 61 61 61 62 63 62 62 63 62 62 62 62 61 62 0 0 0 0 0
    0 0 0 0 0 0 0 0 0 0 0 0 0 0 0 0 0 0 0 0 0 0 0 0 0 0 0 0 0 0 0 0 0 0 0 0 0 0 0 0 0 0 0 0 0 0 0 0 0 0 0 0 0 0 0 0 0 0 0 0 0 0 0 0 0 0 0 0 0 -209 -209 -177 -209 -209 -209 -209 -209 -209 -209 -209 -193 -209 -209 -209 -209 -209 -209 -193 -193 -209 -209 -209 -193 -209 -209 -209 -209 -209 -177 -209 -209 -209 -209 -209 -209 -209 -209 -209 -209 -209 -209 -209 -209 -209 -209 -177 -193 66 67 66 65 -193 64 64 68 -193 -209 -209 -209 -193 122 -209 -209 -225 -225 -225 -225 -225 -225 -225 12 12 12 14 17 12 15 13 13 14 14 14 14 12 18 10 22 22 22 12 0 9 9 12 12 9 10 10 16 16 11 11 8 10 11 11 11 9 0 9 9 10 9 0 0 0 0 0 0 0 0 0 0 -193 0 10 12 11 19 18 21 25 24 24 22 22 22 21 21 21 18 15 13 15 17 19 19 19 18 22 23 24 23 24 23 23 24 23 24 24 24 26 25 26 26 26 28 27 29 31 29 30 30 33 33 32 35 33 32 35 36 35 33 36 36 36 37 38 39 39 40 42 41 41 43 43 43 43 43 44 45 45 47 47 49 49 50 51 49 46 49 47 47 46 43 46 45 47 52 56 55 55 55 55 56 56 56 58 62 59 60 61 61 61 62 63 62 61 64 62 62 63 62 61 62 0 0 0 0 0
    0 0 0 0 0 0 0 0 0 0 0 0 0 0 0 0 0 0 0 0 0 0 0 0 0 0 0 0 0 0 0 0 0 0 0 0 0 0 0 0 0 0 0 0 0 0 0 0 0 0 0 0 0 0 0 0 0 0 0 0 0 0 0 0 0 0 0 0 0 -209 -177 -193 -209 -209 -193 -209 -209 -209 193 -193 193 -193 -209 -193 -209 -209 -209 -193 -209 -209 -209 -193 -193 -209 -209 -209 -209 -209 -209 -209 -209 -209 -209 -209 -209 -209 -209 -209 -209 29 28 28 29 -209 -193 -177 -193 66 67 65 -193 62 62 62 66 -193 -209 -209 -209 -225 -225 -225 -225 -225 -225 -225 -225 -225 -225 -225 13 13 12 16 17 13 16 14 14 14 14 14 13 12 17 9 13 14 14 0 0 0 0 0 0 0 0 0 13 15 17 15 15 18 15 16 14 11 11 11 10 10 0 0 0 0 11 10 9 0 0 0 11 12 11 13 14 12 18 16 18 19 21 21 19 19 19 17 19 19 16 13 12 16 19 20 20 20 20 22 24 26 23 24 23 23 23 23 24 23 23 25 24 26 26 26 28 27 28 31 29 30 30 34 33 33 35 34 31 35 36 35 33 36 36 35 36 38 39 39 40 42 41 42 43 43 43 43 43 44 46 45 47 47 49 49 49 51 49 46 49 48 47 46 43 46 44 46 52 56 56 57 56 56 56 56 56 58 62 59 60 61 60 61 62 63 62 61 64 62 62 63 63 62 62 0 0 0 0 0
    0 0 0 0 0 0 0 0 0 0 0 0 0 0 0 0 0 0 0 0 0 0 0 0 0 0 0 0 0 0 0 0 0 0 0 0 0 0 0 0 0 0 0 0 0 0 0 0 0 0 0 0 0 0 0 0 0 0 0 0 0 0 0 0 0 0 0 0 0 -193 -193 -193 -209 -209 -209 -209 -209 -209 -193 196 193 -193 -193 -209 -209 -209 -209 -209 -209 -209 -209 -193 -193 -209 -209 -209 -209 -209 -209 -209 -209 -209 -209 -209 -209 -209 36 31 29 28 28 28 29 -193 -193 -177 -193 66 67 65 64 62 62 62 66 -209 -225 -225 -225 -225 -225 -225 -225 -225 -225 -225 -225 18 18 15 13 13 12 18 16 13 16 14 14 14 14 15 13 13 16 9 12 13 14 10 9 10 10 0 0 0 0 9 9 9 12 12 14 17 17 17 16 13 14 13 13 12 9 0 0 0 10 10 10 0 9 9 11 14 13 19 19 17 20 16 17 17 20 19 17 17 17 15 18 18 16 12 11 13 16 19 19 17 20 22 24 27 24 24 23 23 23 22 23 23 23 24 24 25 26 26 28 27 28 32 30 30 30 34 33 32 35 34 31 35 36 35 32 35 36 35 36 38 39 39 41 42 41 42 43 42 43 43 43 44 46 45 47 47 49 49 49 51 50 46 49 48 47 46 44 46 44 45 53 57 57 58 58 57 57 56 56 58 61 60 60 61 61 61 62 63 62 62 64 62 62 63 63 62 62 0 0 0 0 0
    0 0 0 0 0 0 0 0 0 0 0 0 0 0 0 0 0 0 0 0 0 0 0 0 0 0 0 0 0 0 0 0 0 0 0 0 0 0 0 0 0 0 0 0 0 0 0 0 0 0 0 0 0 0 0 0 0 0 0 0 0 0 0 0 0 0 0 0 0 -193 -177 -177 -177 -209 -209 -209 -209 -209 -193 -193 -193 -209 -193 -209 -209 -209 -209 -209 -209 -209 -193 -193 -193 -209 -209 -209 -209 -209 -209 -209 -209 -209 -209 -209 -209 30 36 34 32 30 30 30 31 32 -193 -177 -193 63 64 64 63 62 62 61 -193 25 27 26 28 27 13 14 11 10 10 10 10 13 15 15 13 13 13 18 16 13 16 14 14 14 14 14 13 13 17 10 13 14 13 13 10 10 12 10 11 12 12 12 11 13 19 16 18 19 18 18 19 16 17 17 16 15 11 10 0 9 11 11 11 9 10 10 12 16 15 21 21 19 20 17 18 17 20 19 17 16 16 15 18 18 18 12 12 17 20 21 20 19 20 22 24 28 24 25 23 23 23 22 23 23 23 24 24 25 26 26 27 27 28 32 30 30 30 33 32 32 35 34 31 34 36 35 32 36 36 35 36 38 39 39 41 42 42 42 43 43 44 43 43 44 46 45 47 47 49 49 49 51 50 46 49 49 47 47 44 47 44 45 54 57 59 60 59 57 57 57 57 58 61 60 60 61 61 61 61 64 63 62 64 63 62 63 64 63 62 0 0 0 0 0
    0 0 0 0 0 0 0 0 0 0 0 0 0 0 0 0 0 0 0 0 0 0 0 0 0 0 0 0 0 0 0 0 0 0 0 0 0 0 0 0 0 0 0 0 0 0 0 0 0 0 0 0 0 0 0 0 0 0 0 0 0 0 0 0 0 0 0 0 0 -177 -177 -177 -193 -209 -209 -209 -209 -193 -193 -193 -193 -209 -209 -193 -209 -209 -209 -193 -209 304 303 -193 -193 -209 -209 -209 -209 -209 -209 -209 -209 -209 17 -193 28 30 37 36 34 31 31 31 34 34 34 -193 0 -193 -193 -193 -193 0 0 9 12 11 11 10 10 13 9 11 9 10 11 11 10 12 15 15 13 14 15 18 16 13 17 15 15 15 15 15 14 14 17 11 15 16 13 14 12 12 13 12 13 13 14 15 14 18 22 20 20 20 20 19 20 18 19 18 17 17 12 11 0 10 11 12 12 10 11 12 15 18 17 21 21 19 20 19 19 18 20 19 17 16 17 15 18 18 17 12 12 17 20 22 21 19 21 23 24 28 24 25 23 23 23 23 23 23 23 24 23 25 26 27 27 27 28 32 30 30 30 33 32 32 35 33 31 34 36 35 32 36 36 35 37 38 39 39 41 42 42 42 44 43 44 44 43 44 46 45 47 47 49 49 49 51 50 47 49 49 48 48 45 48 45 46 54 57 58 60 58 57 57 57 57 58 60 60 60 61 60 60 61 63 62 62 64 63 61 63 64 64 62 0 0 0 0 0
    0 0 0 0 0 0 0 0 0 0 0 0 0 0 0 0 0 0 0 0 0 0 0 0 0 0 0 0 0 0 0 0 0 0 0 0 0 0 0 0 0 0 0 0 0 0 0 0 0 0 0 0 0 0 0 0 0 0 0 0 0 0 0 0 0 0 0 0 0 -177 -193 -193 -209 -209 -209 -209 -209 -209 -209 -193 -193 -209 -193 -209 -209 -209 -209 -209 -209 -209 301 -193 -209 -209 -209 -209 -209 -209 -209 -193 -209 -209 19 23 27 28 35 34 31 30 29 29 31 30 30 -193 -193 0 0 0 0 0 0 0 0 0 0 0 11 8 10 9 -193 11 8 0 0 0 14 14 13 13 15 19 16 14 18 15 15 16 16 16 14 16 18 12 17 17 14 16 13 13 13 12 14 14 15 16 15 18 21 21 20 21 20 20 20 19 20 18 17 18 11 11 0 11 12 13 13 12 14 15 19 20 20 22 22 21 21 20 20 19 20 19 18 16 17 15 17 18 18 13 13 18 20 22 21 19 20 22 24 26 23 24 23 23 23 23 23 23 23 24 23 25 26 27 27 27 28 32 30 30 30 32 31 32 34 33 31 34 36 36 34 37 37 36 37 39 39 39 41 42 42 42 44 43 44 44 44 43 46 45 46 47 49 49 49 51 50 47 49 49 48 48 45 48 46 49 54 57 58 59 58 57 57 56 57 58 59 60 59 61 60 60 61 63 62 61 63 63 61 63 65 64 62 0 0 0 0 0
    0 0 0 0 0 0 0 0 0 0 0 0 0 0 0 0 0 0 0 0 0 0 0 0 0 0 0 0 0 0 0 0 0 0 0 0 0 0 0 0 0 0 0 0 0 0 0 0 0 0 0 0 0 0 0 0 0 0 0 0 0 0 0 0 0 0 0 0 0 -209 -209 -193 -209 -209 -209 -209 -209 -209 -209 -209 -193 -193 -209 -209 -209 -209 -209 -209 -209 -209 301 -193 -209 -209 -209 -209 -209 0 -193 -193 -209 -209 19 24 25 25 30 29 28 28 27 27 28 27 26 -193 -193 -193 0 -193 0 10 10 11 12 10 11 10 13 19 18 17 20 17 15 11 12 11 14 14 13 13 15 20 15 14 18 15 16 17 17 16 15 17 19 14 19 18 15 16 13 13 13 11 13 13 14 15 15 18 21 21 21 21 21 20 21 19 20 19 17 19 12 12 0 12 13 14 15 14 15 17 19 20 20 22 22 21 21 20 20 19 20 19 18 16 17 15 17 18 18 14 17 21 22 24 24 -193 -193 -193 24 24 23 24 23 23 23 23 23 23 23 24 24 25 26 27 28 28 28 32 30 30 31 32 31 31 34 33 31 35 36 36 35 37 37 37 38 39 39 39 41 41 42 42 44 43 44 44 44 43 46 45 46 47 48 48 49 51 50 47 50 50 48 48 46 49 47 50 54 57 58 59 58 57 56 56 56 57 59 59 59 60 60 60 61 63 62 62 63 63 61 63 65 65 62 0 0 0 0 0
    0 0 0 0 0 0 0 0 0 0 0 0 0 0 0 0 0 0 0 0 0 0 0 0 0 0 0 0 0 0 0 0 0 0 0 0 0 0 0 0 0 0 0 0 0 0 0 0 0 0 0 0 0 0 0 0 0 0 0 0 0 0 0 0 0 0 0 0 0 -209 -209 93 -209 -209 -209 -209 -209 -209 -193 -209 -209 -209 -209 -209 -209 -209 -209 -209 -209 -209 -209 -209 -209 -193 0 -193 -193 0 -193 -193 23 -193 19 25 23 21 28 25 25 27 24 25 25 22 18 17 18 20 10 24 15 18 19 17 16 14 15 15 17 26 22 21 21 19 17 13 13 12 13 13 12 12 15 20 14 14 18 16 16 18 18 17 16 19 20 16 20 19 16 17 14 14 14 12 13 13 14 15 15 17 21 22 22 22 22 21 22 21 21 20 19 20 14 15 11 12 13 14 15 14 15 17 20 20 21 22 22 21 21 20 20 19 20 19 18 16 17 15 17 19 19 15 20 22 23 23 24 -193 -209 -209 23 23 22 23 22 23 23 23 23 23 24 24 24 25 26 27 28 28 29 31 30 30 31 32 31 31 34 33 32 35 36 37 36 38 38 37 38 39 39 39 40 41 43 42 43 43 44 44 44 43 46 44 46 46 48 48 49 50 50 47 50 50 48 49 47 49 49 50 54 57 58 59 58 57 56 56 56 57 58 59 59 60 60 61 61 63 63 62 63 63 61 63 65 65 62 0 0 0 0 0
    0 0 0 0 0 0 0 0 0 0 0 0 0 0 0 0 0 0 0 0 0 0 0 0 0 0 0 0 0 0 0 0 0 0 0 0 0 0 0 0 0 0 0 0 0 0 0 0 0 0 0 0 0 0 0 0 0 0 0 0 0 0 0 0 0 0 0 0 0 -209 -209 -209 -209 -209 -209 -209 -209 -209 -193 -209 -209 -209 -209 -209 -209 -209 18 25 27 27 -193 -193 -193 -193 -193 -193 -193 0 -193 -193 19 21 18 22 21 16 -193 23 23 24 20 21 16 12 13 16 16 20 19 23 17 20 22 20 18 15 16 17 19 25 21 20 21 18 18 13 13 12 13 12 11 12 15 21 16 16 20 18 18 19 19 19 18 20 20 17 20 19 17 17 16 14 15 12 13 13 14 16 16 19 21 22 23 23 23 22 22 21 21 21 20 20 16 15 14 12 14 14 15 14 15 17 20 21 21 22 22 21 21 20 20 19 20 18 17 15 16 15 16 18 18 15 21 23 23 24 -193 -209 -209 -209 23 22 21 23 22 23 23 23 23 23 24 25 25 26 26 27 29 28 29 31 30 31 31 32 31 30 34 33 33 35 36 37 36 38 38 38 39 40 39 39 40 41 43 42 43 43 44 43 44 43 46 44 45 47 48 48 49 50 50 48 50 50 48 49 48 50 50 50 53 56 57 58 58 56 56 56 57 58 58 59 60 61 61 61 62 63 63 62 63 62 61 63 65 65 62 0 0 0 0 0
    0 0 0 0 0 0 0 0 0 0 0 0 0 0 0 0 0 0 0 0 0 0 0 0 0 0 0 0 0 0 0 0 0 0 0 0 0 0 0 0 0 0 0 0 0 0 0 0 0 0 0 0 0 0 0 0 0 0 0 0 0 0 0 0 0 0 0 0 0 -193 18 -193 19 18 19 -209 21 22 -193 -209 -209 -209 16 15 15 -209 13 21 25 -193 20 -193 -193 -193 -193 -193 -193 0 0 10 12 17 17 20 18 15 21 20 20 21 18 20 18 15 17 20 21 24 23 24 20 20 22 20 18 17 17 18 19 22 20 18 21 16 15 11 11 10 10 10 10 11 16 19 16 17 20 18 19 20 19 19 19 20 20 17 20 19 17 18 16 15 16 13 14 14 16 16 17 18 20 21 22 22 22 21 22 21 21 21 20 20 15 14 12 11 11 13 14 13 15 18 20 21 20 22 22 22 21 21 20 20 20 19 18 15 15 14 15 17 17 14 22 23 23 24 -193 -209 -209 -209 23 21 20 23 22 22 22 23 23 24 24 25 25 26 27 28 29 29 29 31 30 31 31 31 31 31 33 33 34 35 36 38 37 38 38 38 39 39 39 39 39 41 43 42 43 43 44 43 44 43 46 44 45 47 48 48 49 49 50 48 50 50 49 50 49 50 51 51 53 55 56 57 57 56 56 56 57 58 58 60 61 61 61 61 61 62 63 62 63 62 62 63 65 66 63 0 0 0 0 0
    0 0 0 0 0 0 0 0 0 0 0 0 0 0 0 0 0 0 0 0 0 0 0 0 0 0 0 0 0 0 0 0 0 0 0 0 0 0 0 0 0 0 0 0 0 0 0 0 0 0 0 0 0 0 0 0 0 0 0 0 0 0 0 0 0 0 0 0 0 0 15 19 17 17 19 -193 20 22 24 -209 -209 -209 10 13 12 9 12 15 20 21 17 21 13 10 9 -193 0 0 0 0 0 -193 15 17 16 15 17 18 19 19 17 19 18 17 18 21 22 25 25 25 21 19 21 18 17 15 16 16 16 18 18 14 18 13 11 9 9 9 9 9 9 10 14 17 16 17 20 18 19 20 20 19 19 20 20 19 20 20 17 18 16 15 17 14 15 15 16 17 17 18 19 21 21 22 22 21 22 21 21 21 20 20 15 13 12 11 9 11 12 12 14 17 19 21 20 22 22 22 21 21 20 20 20 19 18 16 15 14 14 16 17 16 23 22 21 23 -209 -209 -209 -209 22 19 19 22 22 22 23 23 23 24 25 26 26 27 27 29 29 29 30 30 31 31 31 31 31 31 33 32 34 35 35 38 37 38 38 38 39 39 39 39 39 41 44 42 43 43 44 43 44 43 46 44 45 47 48 48 49 49 50 48 50 50 49 50 49 50 51 50 52 54 55 56 56 56 56 56 57 57 57 59 60 60 61 60 61 61 62 62 62 62 62 62 65 66 64 0 0 0 0 0
    0 0 0 0 0 0 0 0 0 0 0 0 0 0 0 0 0 0 0 0 0 0 0 0 0 0 0 0 0 0 0 0 0 0 0 0 0 0 0 0 0 0 0 0 0 0 0 0 0 0 0 0 0 0 0 0 0 0 0 0 0 0 0 0 0 0 0 0 0 8 15 18 15 15 16 17 17 18 18 12 10 0 0 10 9 9 11 12 17 14 15 17 12 12 11 0 9 0 0 0 0 -193 19 19 19 18 18 18 18 18 17 18 17 17 18 20 22 23 23 23 20 18 20 16 15 14 15 15 14 15 16 12 16 13 11 9 10 9 9 10 10 11 14 15 16 17 19 19 19 20 20 19 20 20 20 19 19 19 17 18 17 16 17 15 15 16 17 18 18 20 20 21 21 21 21 21 21 21 21 21 19 20 15 13 11 9 0 11 11 12 13 16 18 20 19 22 21 21 21 20 20 20 19 19 18 16 15 14 15 18 18 20 23 22 21 21 18 19 19 21 22 18 18 22 22 23 23 23 23 24 26 26 27 27 28 29 29 30 30 31 31 32 31 31 31 31 33 33 34 36 35 38 37 37 38 38 39 39 38 38 38 40 43 41 42 43 43 43 44 42 46 43 45 47 48 48 49 49 50 48 49 50 49 49 49 49 51 50 52 53 54 54 55 55 55 55 56 56 56 -193 59 59 60 60 60 60 62 62 62 62 62 62 65 65 64 0 0 0 0 0
    0 0 0 0 0 0 0 0 0 0 0 0 0 0 0 0 0 0 0 0 0 0 0 0 0 0 0 0 0 0 0 0 0 0 0 0 0 0 0 0 0 0 0 0 0 0 0 0 0 0 0 0 0 0 0 0 0 0 0 0 0 0 0 0 0 0 0 0 0 0 12 16 14 14 12 11 11 13 13 0 0 0 0 9 0 9 11 11 15 12 14 14 12 12 11 9 10 0 9 0 0 10 17 18 18 18 17 18 18 18 17 17 17 16 17 19 21 21 21 21 19 18 20 17 16 14 15 15 14 16 17 13 18 17 15 12 12 12 11 12 12 12 13 15 17 18 18 19 19 20 21 20 20 20 20 20 19 20 18 18 17 17 18 15 15 16 17 19 19 20 19 20 20 21 21 20 20 20 20 21 18 20 14 12 -193 0 0 8 9 9 11 15 16 19 19 22 21 21 21 20 20 20 19 19 17 16 16 15 17 19 18 21 22 20 20 21 18 19 18 20 21 17 18 22 21 22 23 23 23 24 25 26 27 27 28 29 29 30 30 31 31 32 31 31 32 32 32 33 34 36 35 38 37 37 38 38 38 38 38 38 37 40 43 41 42 42 43 43 43 42 45 43 45 47 47 48 49 49 50 49 49 50 49 49 49 49 51 50 51 53 53 53 54 54 54 54 55 55 56 -193 -193 58 60 60 60 60 62 62 61 62 63 62 65 65 64 0 0 0 0 0
    0 0 0 0 0 0 0 0 0 0 0 0 0 0 0 0 0 0 0 0 0 0 0 0 0 0 0 0 0 0 0 0 0 0 0 0 0 0 0 0 0 0 0 0 0 0 0 0 0 0 0 0 0 0 0 0 0 0 0 0 0 0 0 0 0 0 0 0 0 0 0 11 10 11 0 0 10 11 12 9 0 0 0 10 9 10 12 12 14 12 14 15 13 12 11 11 10 9 10 0 0 11 14 16 16 17 17 18 18 18 17 18 17 17 18 18 21 20 21 21 19 19 20 18 18 16 17 16 15 17 17 13 19 17 16 12 12 12 11 12 12 12 13 15 17 18 18 19 19 20 20 20 20 20 20 21 20 20 18 18 18 17 18 15 15 16 17 19 19 20 18 20 20 20 20 20 20 20 20 21 18 20 14 13 -193 0 0 0 10 10 12 15 16 19 20 22 21 21 21 20 20 20 19 19 17 17 17 16 18 20 19 21 21 20 19 21 18 19 17 20 20 17 18 21 20 22 22 22 23 23 25 26 27 27 28 28 29 30 30 31 31 33 31 32 33 32 33 34 34 36 34 38 37 37 38 37 38 38 38 38 37 40 42 41 42 42 42 42 42 42 44 43 44 46 47 48 49 48 50 49 49 50 50 49 50 50 51 50 51 52 52 51 53 53 53 53 55 55 55 -193 -193 -193 60 60 60 60 62 62 62 63 64 62 65 66 65 0 0 0 0 0
    0 0 0 0 0 0 0 0 0 0 0 0 0 0 0 0 0 0 0 0 0 0 0 0 0 0 0 0 0 0 0 0 0 0 0 0 0 0 0 0 0 0 0 0 0 0 0 0 0 0 0 0 0 0 0 0 0 0 0 0 0 0 0 0 0 0 0 0 0 0 0 0 0 0 0 0 8 10 12 10 9 10 9 12 11 12 14 14 15 14 15 16 14 14 13 12 11 11 12 10 10 13 15 17 17 18 17 18 17 18 18 20 18 18 19 19 21 20 21 21 19 19 20 18 18 16 17 16 15 16 15 13 17 15 15 13 13 12 11 12 12 13 14 16 16 18 17 19 18 19 20 20 20 20 20 21 20 21 19 18 19 17 19 15 15 15 17 20 19 20 18 20 19 20 20 20 20 20 19 21 18 21 18 18 22 11 12 12 17 16 17 17 18 19 19 21 20 20 20 20 20 20 19 20 18 19 18 18 20 21 19 21 20 20 19 21 18 19 17 20 19 18 18 21 19 21 22 22 23 23 25 26 27 27 27 28 29 30 30 32 31 33 31 32 33 32 33 34 34 35 34 38 36 36 38 37 38 38 37 38 36 40 42 40 42 42 42 42 42 41 43 43 44 45 46 48 49 48 50 49 49 50 50 49 50 50 52 50 50 51 51 50 53 52 52 53 54 54 54 -193 58 -193 60 60 60 60 62 63 62 63 64 62 65 66 65 0 0 0 0 0
    0 0 0 0 0 0 0 0 0 0 0 0 0 0 0 0 0 0 0 0 0 0 0 0 0 0 0 0 0 0 0 0 0 0 0 0 0 0 0 0 0 0 0 0 0 0 0 0 0 0 0 0 0 0 0 0 0 0 0 0 0 0 0 0 0 0 0 0 0 0 0 0 0 0 0 0 9 10 12 11 10 11 10 12 12 13 14 14 15 14 15 16 14 14 14 13 12 12 13 12 12 15 16 17 18 18 18 19 18 19 19 21 19 19 19 19 21 20 20 20 19 19 19 17 17 16 17 16 15 15 14 12 16 15 14 12 12 12 11 12 12 14 14 17 16 18 17 18 18 19 19 19 18 19 19 21 20 21 19 19 19 17 20 16 16 17 18 21 20 21 18 20 19 20 20 19 19 20 19 21 19 20 20 19 19 16 18 16 18 16 17 17 18 18 18 20 20 19 20 19 20 20 20 20 18 20 20 20 21 21 19 21 19 19 18 20 18 19 16 20 18 19 18 20 19 21 21 21 23 22 24 26 26 27 27 28 29 29 29 31 30 33 31 32 32 33 33 34 34 35 33 38 36 36 37 37 38 37 37 38 37 39 41 40 42 42 42 42 42 41 43 43 44 45 47 48 49 48 50 50 49 51 50 50 51 51 52 51 50 52 51 50 52 51 51 52 53 53 54 55 57 57 59 59 59 59 62 62 62 63 64 62 65 66 66 0 0 0 0 0
    0 0 0 0 0 0 0 0 0 0 0 0 0 0 0 0 0 0 0 0 0 0 0 0 0 0 0 0 0 0 0 0 0 0 0 0 0 0 0 0 0 0 0 0 0 0 0 0 0 0 0 0 0 0 0 0 0 0 0 0 0 0 0 0 0 0 0 0 0 0 0 0 0 9 0 9 11 10 12 11 10 11 10 12 11 11 13 13 14 13 15 15 14 15 15 14 13 14 14 14 15 17 17 18 19 19 19 19 18 19 20 21 20 20 20 19 21 20 21 20 19 19 19 17 17 16 17 16 15 14 14 11 15 15 14 12 12 12 12 14 13 16 15 18 16 18 17 18 17 18 17 18 17 19 17 21 19 20 19 18 19 18 19 17 16 16 18 21 20 21 19 20 19 19 20 19 19 20 19 21 19 20 20 18 18 16 18 16 18 16 17 17 18 18 18 19 19 18 20 19 19 20 20 21 19 21 20 20 21 21 19 21 18 19 18 20 18 19 16 19 18 20 18 20 19 21 21 21 22 22 24 -193 -193 27 27 28 29 29 29 31 30 33 31 32 32 33 33 34 34 35 33 37 36 36 37 37 38 37 37 38 37 39 41 40 42 42 41 42 42 41 43 44 44 45 47 48 49 49 51 50 49 51 51 50 51 51 52 51 51 52 52 50 52 51 51 52 53 52 53 54 57 56 58 59 58 58 61 62 61 62 64 62 64 66 66 0 0 0 0 0
    0 0 0 0 0 0 0 0 0 0 0 0 0 0 0 0 0 0 0 0 0 0 0 0 0 0 0 0 0 0 0 0 0 0 0 0 0 0 0 0 0 0 0 0 0 0 0 0 0 0 0 0 0 0 0 0 0 0 0 0 0 0 0 0 0 0 0 0 0 0 0 0 0 0 0 9 10 9 11 10 11 12 11 12 11 12 13 14 15 13 15 15 15 16 16 14 13 14 15 15 16 17 17 18 19 20 19 20 19 20 21 22 21 21 20 19 22 19 21 19 19 18 19 17 17 16 17 15 15 14 14 11 16 15 14 12 12 13 12 15 14 18 15 19 16 18 17 18 17 18 17 18 16 18 16 20 19 19 18 18 18 18 19 17 17 17 18 20 19 20 19 19 18 19 19 19 19 19 18 20 20 20 21 18 18 17 19 17 18 16 18 17 18 18 17 19 19 17 19 18 19 20 20 21 19 21 20 20 21 21 19 20 18 19 17 19 18 19 16 19 17 20 18 20 19 21 21 21 22 22 23 -193 -193 26 27 28 28 29 29 31 30 33 31 32 32 33 33 34 34 35 33 37 36 36 37 36 37 37 37 38 38 38 40 39 41 41 41 41 41 41 42 44 44 44 48 48 50 49 51 50 49 51 51 50 50 51 52 51 51 53 52 49 52 51 51 52 52 52 53 54 56 56 58 58 58 58 60 61 61 62 64 62 64 66 65 0 0 0 0 0
    0 0 0 0 0 0 0 0 0 0 0 0 0 0 0 0 0 0 0 0 0 0 0 0 0 0 0 0 0 0 0 0 0 0 0 0 0 0 0 0 0 0 0 0 0 0 0 0 0 0 0 0 0 0 0 0 0 0 0 0 0 0 0 0 0 0 0 0 0 0 0 0 0 0 0 0 9 9 11 10 11 12 11 12 11 12 13 14 14 13 15 15 15 16 16 15 14 15 15 15 16 17 17 18 19 20 19 20 19 20 21 21 20 20 18 18 21 18 21 18 19 18 19 17 17 16 16 15 15 14 14 11 16 16 16 15 15 16 15 18 16 19 16 20 17 19 17 18 17 18 17 18 15 18 16 19 19 19 17 18 19 18 19 17 18 18 18 20 19 20 19 18 18 18 19 18 19 19 18 20 20 20 21 19 19 18 20 18 19 17 19 17 18 18 17 19 19 17 19 18 19 21 20 21 19 21 21 20 21 22 19 21 18 18 17 19 18 18 16 19 17 20 18 20 20 21 21 21 22 22 23 26 26 26 27 28 28 29 29 32 30 33 31 32 33 33 33 34 33 35 33 36 36 35 37 36 37 37 37 38 38 38 39 39 41 41 41 41 41 40 42 45 44 44 48 49 50 50 51 51 49 51 51 50 50 51 52 51 52 53 52 50 52 52 51 52 52 52 52 53 56 56 57 58 58 58 60 61 61 62 63 62 63 65 65 0 0 0 0 0
    0 0 0 0 0 0 0 0 0 0 0 0 0 0 0 0 0 0 0 0 0 0 0 0 0 0 0 0 0 0 0 0 0 0 0 0 0 0 0 0 0 0 0 0 0 0 0 0 0 0 0 0 0 0 0 0 0 0 0 0 0 0 0 0 0 0 0 0 0 0 0 0 0 9 0 9 9 10 11 10 11 11 11 12 11 12 12 13 14 13 15 15 15 17 17 16 16 16 16 16 17 17 17 18 19 19 19 20 19 20 22 22 19 19 18 17 21 18 20 18 19 18 18 17 17 16 17 15 16 14 14 12 17 18 18 18 18 19 17 19 17 19 17 20 17 19 17 18 17 18 17 18 15 18 17 18 19 19 17 18 19 18 19 18 19 19 19 20 19 20 19 18 18 18 18 18 19 19 18 20 20 20 21 20 21 19 21 19 20 18 20 18 18 18 18 18 19 17 19 18 19 21 20 21 19 21 20 20 21 21 19 21 18 19 18 19 18 19 17 19 17 20 19 20 20 21 21 20 22 22 23 26 26 26 27 28 28 28 29 32 29 33 31 32 33 32 33 34 33 35 33 36 36 35 37 37 37 37 37 39 39 38 39 40 41 41 41 41 41 40 42 46 45 44 48 49 50 50 51 51 49 51 51 50 51 51 52 51 52 53 52 51 52 52 51 52 52 52 53 54 56 57 58 59 58 59 60 61 61 63 63 63 62 65 65 0 0 0 0 0
    0 0 0 0 0 0 0 0 0 0 0 0 0 0 0 0 0 0 0 0 0 0 0 0 0 0 0 0 0 0 0 0 0 0 0 0 0 0 0 0 0 0 0 0 0 0 0 0 0 0 0 0 0 0 0 0 0 0 0 0 0 0 0 0 0 0 0 0 0 9 9 9 9 9 9 9 9 10 11 11 11 11 12 12 12 12 12 13 14 12 14 15 16 18 17 16 16 16 16 16 16 16 15 17 18 18 19 20 19 21 23 23 20 19 18 17 21 18 21 18 19 18 18 17 17 16 17 15 16 14 15 14 17 17 18 18 18 19 17 19 17 19 17 19 17 19 17 18 18 19 17 19 16 18 17 18 19 19 17 19 19 18 19 18 19 -193 18 20 19 19 20 18 17 18 18 18 19 19 18 20 21 20 21 20 21 20 21 19 20 19 20 19 18 18 18 18 19 17 19 19 19 21 20 21 19 21 21 20 20 21 19 21 17 19 18 19 19 19 17 20 17 20 19 20 20 21 20 20 22 22 23 26 26 26 27 28 28 28 29 31 29 32 30 32 32 32 33 34 33 35 33 35 36 35 36 37 37 37 37 39 40 38 40 40 41 41 41 41 41 40 42 48 45 44 49 49 50 50 51 51 49 51 51 50 51 51 52 51 52 53 52 51 52 52 52 52 53 52 53 54 57 58 59 60 59 59 60 61 62 63 63 63 62 65 65 0 0 0 0 0
    0 0 0 0 0 0 0 0 0 0 0 0 0 0 0 0 0 0 0 0 0 0 0 0 0 0 0 0 0 0 0 0 0 0 0 0 0 0 0 0 0 0 0 0 0 0 0 0 0 0 0 0 0 0 0 0 0 0 0 0 0 0 0 0 0 0 0 0 0 10 12 11 11 11 11 10 11 11 11 11 11 11 12 12 11 12 11 12 13 12 14 16 16 18 18 16 16 16 16 16 16 16 15 16 18 17 19 20 19 21 22 22 20 19 18 18 21 18 21 18 19 18 18 17 17 16 17 15 16 14 15 15 17 16 18 18 18 19 17 19 17 19 17 19 17 19 17 18 18 19 18 19 16 19 17 18 19 19 17 19 18 18 19 18 -193 -193 18 19 19 19 20 18 17 18 18 18 20 19 19 20 20 20 21 20 21 20 21 19 20 19 20 19 18 19 19 18 19 17 19 19 19 21 20 21 19 20 21 20 20 21 18 21 17 19 18 19 19 19 17 20 17 21 19 20 20 20 20 20 22 22 23 26 26 26 27 28 29 28 28 31 29 32 30 32 31 31 33 34 33 35 33 35 36 35 36 37 37 37 37 39 40 38 40 40 40 41 41 41 41 39 42 49 45 44 49 49 50 50 51 51 49 51 51 50 51 52 52 51 52 53 52 51 52 52 52 52 53 53 54 55 57 59 59 60 60 60 60 61 62 62 62 63 62 64 64 0 0 0 0 0
    0 0 0 0 0 0 0 0 0 0 0 0 0 0 0 0 0 0 0 0 0 0 0 0 0 0 0 0 0 0 0 0 0 0 0 0 0 0 0 0 0 0 0 0 0 0 0 0 0 0 0 0 0 0 0 0 0 0 0 0 0 0 0 0 0 0 0 0 0 12 14 13 13 12 12 11 11 12 11 10 11 10 12 12 11 11 10 12 12 12 15 16 16 18 18 16 17 16 15 16 15 15 15 15 17 17 18 20 17 18 19 19 18 17 17 18 20 18 20 18 20 17 18 17 17 16 17 15 17 15 16 16 17 16 18 18 18 19 17 19 17 19 18 19 17 20 17 19 18 20 18 20 17 19 17 18 19 19 17 19 18 18 19 19 19 19 18 19 19 19 20 18 17 18 19 18 20 19 19 20 20 20 20 20 21 20 21 19 20 19 21 19 19 19 19 18 19 17 18 19 19 21 20 21 19 20 20 20 20 21 18 20 16 19 18 19 19 19 18 20 17 21 19 20 21 21 20 20 22 22 23 26 26 26 27 29 29 28 28 31 28 31 29 30 30 30 33 33 32 35 32 34 35 35 36 37 37 37 37 39 40 38 39 39 40 41 41 41 41 37 42 49 46 44 49 50 50 50 51 51 49 51 51 51 51 51 52 51 52 53 53 52 52 53 53 53 54 53 54 55 57 60 59 61 60 60 60 61 61 62 62 63 62 64 64 0 0 0 0 0
    0 0 0 0 0 0 0 0 0 0 0 0 0 0 0 0 0 0 0 0 0 0 0 0 0 0 0 0 0 0 0 0 0 0 0 0 0 0 0 0 0 0 0 0 0 0 0 0 0 0 0 0 0 0 0 0 0 0 0 0 0 0 0 0 0 0 0 0 0 13 15 14 14 13 13 12 12 12 11 10 10 9 11 11 11 11 10 11 12 11 16 15 16 18 18 16 17 15 15 15 15 16 15 15 18 16 18 20 17 17 18 18 18 16 17 18 19 18 20 17 20 17 18 17 17 16 18 15 17 15 16 17 17 16 18 18 18 19 17 19 17 18 17 18 17 20 17 19 18 20 18 20 18 18 17 17 19 19 16 19 18 18 19 19 19 19 18 19 19 19 20 18 17 19 19 18 20 20 19 20 20 20 20 20 21 20 20 19 20 19 21 20 19 19 19 18 20 17 18 19 19 21 20 21 19 20 20 20 19 21 18 20 16 19 18 19 19 19 18 19 18 21 19 20 21 20 20 20 22 22 23 26 26 26 28 29 29 28 28 30 28 30 28 29 29 29 31 33 32 34 32 34 35 35 36 37 36 37 37 39 40 38 39 39 40 41 41 41 41 36 42 49 46 44 50 51 50 50 51 51 49 51 51 51 51 51 52 51 52 53 53 52 52 53 54 54 55 54 55 57 58 60 59 61 60 61 61 61 61 62 62 63 61 64 64 0 0 0 0 0
    0 0 0 0 0 0 0 0 0 0 0 0 0 0 0 0 0 0 0 0 0 0 0 0 0 0 0 0 0 0 0 0 0 0 0 0 0 0 0 0 0 0 0 0 0 0 0 0 0 0 0 0 0 0 0 0 0 0 0 0 0 0 0 0 0 0 0 0 0 14 16 14 15 13 13 12 12 12 11 10 11 9 11 12 11 11 11 13 14 13 15 16 15 17 17 16 16 15 15 15 15 16 15 15 17 15 17 19 16 16 17 17 18 16 17 18 18 18 20 17 20 17 18 17 18 16 18 15 18 15 17 18 17 16 18 17 18 19 17 19 16 18 17 17 17 20 17 19 18 20 19 20 18 18 17 17 19 19 16 19 18 18 19 19 19 19 18 18 18 19 20 19 18 19 19 18 20 20 19 20 20 20 20 20 21 21 20 19 20 20 21 20 19 20 20 18 20 18 18 19 19 21 20 20 19 19 20 20 19 21 18 20 16 19 19 19 19 19 18 19 18 20 19 20 22 20 20 20 22 22 23 26 26 26 27 29 29 28 28 30 28 30 28 29 29 28 30 33 32 34 32 33 35 34 36 37 36 37 37 39 40 38 40 39 39 40 40 40 40 35 42 48 45 44 48 51 50 50 51 50 49 51 51 51 51 51 52 51 52 52 52 53 53 54 55 55 55 55 57 58 58 61 60 61 61 61 61 61 61 62 61 64 61 63 64 0 0 0 0 0
    0 0 0 0 0 0 0 0 0 0 0 0 0 0 0 0 0 0 0 0 0 0 0 0 0 0 0 0 0 0 0 0 0 0 0 0 0 0 0 0 0 0 0 0 0 0 0 0 0 0 0 0 0 0 0 0 0 0 0 0 0 0 0 0 0 0 0 0 0 14 16 14 15 13 13 12 12 12 12 11 12 11 12 15 13 13 14 14 16 14 14 17 14 16 16 15 16 15 15 16 15 16 15 15 17 15 17 19 15 16 17 16 18 16 17 18 17 18 19 16 20 17 18 17 18 16 18 16 18 15 17 18 17 16 18 17 17 19 17 19 16 17 17 17 17 20 16 19 18 20 19 20 18 18 17 18 19 19 16 19 18 18 19 19 19 19 19 19 18 19 20 19 17 20 19 18 20 21 20 21 20 20 20 21 21 21 20 20 20 20 21 21 19 21 20 18 21 19 18 20 20 21 20 20 19 19 20 20 19 20 18 20 16 20 19 19 19 19 19 19 19 20 19 20 22 20 20 20 21 22 23 26 25 26 27 28 29 28 28 30 28 29 27 29 28 28 30 33 31 33 32 33 35 34 35 36 35 36 37 38 40 37 39 39 39 40 40 40 40 34 41 47 45 44 48 51 49 50 50 49 49 51 51 51 51 50 52 51 52 52 52 53 53 54 55 55 56 56 57 59 58 62 60 62 62 62 61 61 61 62 61 64 61 63 64 0 0 0 0 0
    0 0 0 0 0 0 0 0 0 0 0 0 0 0 0 0 0 0 0 0 0 0 0 0 0 0 0 0 0 0 0 0 0 0 0 0 0 0 0 0 0 0 0 0 0 0 0 0 0 0 0 0 0 0 0 0 0 0 0 0 0 0 0 0 0 0 0 0 0 14 15 14 15 13 12 13 13 13 13 11 13 12 13 16 14 14 15 14 16 14 14 16 13 15 15 15 16 14 14 16 14 16 15 15 17 15 16 18 15 16 17 16 17 16 17 18 16 18 19 16 20 17 17 17 18 16 18 16 17 15 17 18 17 16 18 17 17 19 17 18 17 17 18 17 17 20 16 19 18 21 19 20 18 18 17 18 19 19 16 19 18 18 19 19 19 20 19 19 19 19 20 20 18 20 19 19 20 21 20 21 20 20 20 21 21 21 20 20 20 21 21 21 19 21 21 18 22 19 18 20 20 21 20 20 20 19 20 20 19 21 19 20 17 20 20 19 20 20 19 19 19 20 19 20 22 20 20 19 21 22 23 26 25 -193 27 28 29 28 28 30 28 29 27 29 28 28 29 32 31 31 32 33 35 34 36 36 35 37 38 39 40 37 39 39 39 40 40 40 40 36 42 46 46 44 47 50 49 49 49 49 49 51 51 51 51 50 52 52 52 52 52 53 52 54 55 54 55 56 57 59 58 62 60 61 62 62 61 61 61 62 61 64 62 63 65 0 0 0 0 0
    0 0 0 0 0 0 0 0 0 0 0 0 0 0 0 0 0 0 0 0 0 0 0 0 0 0 0 0 0 0 0 0 0 0 0 0 0 0 0 0 0 0 0 0 0 0 0 0 0 0 0 0 0 0 0 0 0 0 0 0 0 0 0 0 0 0 0 0 0 13 15 14 16 14 13 13 13 13 14 12 14 12 13 17 15 14 16 14 16 14 14 16 13 15 15 14 16 14 14 16 14 16 15 15 17 15 16 18 15 16 17 16 17 16 17 18 16 17 18 16 20 16 17 17 18 16 19 16 17 15 17 18 17 16 18 17 17 19 17 18 17 17 18 17 17 20 16 20 19 21 19 21 18 18 16 18 19 18 16 19 17 18 19 20 19 19 19 19 19 19 20 20 18 21 19 19 21 22 20 21 20 20 19 21 20 21 20 19 19 21 21 21 19 22 21 19 22 20 18 20 19 20 19 19 20 18 20 20 19 20 19 20 17 20 20 19 20 20 19 19 19 20 19 20 22 20 20 19 21 22 23 26 -209 -177 27 28 29 28 28 30 28 29 28 29 28 28 29 31 31 30 31 32 35 33 35 36 35 36 38 38 39 37 39 39 39 39 40 39 40 37 42 46 46 45 47 50 49 48 49 49 49 50 51 52 50 50 52 52 51 52 52 53 52 54 55 54 55 56 57 59 58 62 60 61 61 61 61 61 61 62 60 64 62 64 65 0 0 0 0 0
    0 0 0 0 0 0 0 0 0 0 0 0 0 0 0 0 0 0 0 0 0 0 0 0 0 0 0 0 0 0 0 0 0 0 0 0 0 0 0 0 0 0 0 0 0 0 0 0 0 0 0 0 0 0 0 0 0 0 0 0 0 0 0 0 0 0 0 0 0 13 15 14 16 14 13 14 14 13 15 13 15 13 14 18 15 14 17 14 16 15 14 16 13 15 15 14 16 14 14 15 14 16 15 15 17 15 16 18 15 16 17 16 17 16 17 18 16 18 18 16 20 17 17 17 18 16 19 16 17 15 17 18 17 16 19 17 17 19 17 18 17 17 18 17 17 20 16 20 19 21 20 21 18 18 16 18 19 18 15 19 17 18 19 20 19 19 19 19 19 19 20 21 18 21 19 20 21 22 20 21 20 20 19 21 20 20 19 19 19 20 21 20 19 22 21 19 22 20 18 20 19 20 19 19 20 18 20 20 19 21 20 20 18 20 21 19 20 20 18 19 19 20 19 19 22 20 20 20 21 22 23 -193 -209 -177 27 28 29 28 28 30 28 29 28 29 28 28 29 31 31 30 31 31 36 33 35 36 35 36 38 38 39 37 39 39 39 39 39 40 40 39 43 45 47 45 47 50 48 48 49 48 49 49 51 51 50 51 52 52 51 51 52 53 52 54 55 54 54 56 57 58 57 61 59 60 61 61 60 60 61 62 60 64 63 64 66 0 0 0 0 0
    0 0 0 0 0 0 0 0 0 0 0 0 0 0 0 0 0 0 0 0 0 0 0 0 0 0 0 0 0 0 0 0 0 0 0 0 0 0 0 0 0 0 0 0 0 0 0 0 0 0 0 0 0 0 0 0 0 0 0 0 0 0 0 0 0 0 0 0 0 13 15 14 16 14 13 14 14 14 15 13 15 13 14 18 15 14 17 14 15 14 14 16 13 15 15 14 16 14 14 16 14 16 16 15 17 15 16 18 15 17 17 16 17 16 17 18 16 18 18 16 20 17 17 17 18 16 19 16 17 15 18 18 17 16 19 17 17 19 17 18 17 17 17 17 18 21 17 20 19 21 20 21 18 18 16 19 19 18 15 19 16 19 19 20 19 19 19 19 19 20 20 21 19 22 20 20 21 22 20 21 20 20 19 21 20 21 19 19 19 20 21 20 19 22 21 19 22 20 18 19 19 20 19 19 20 17 20 21 20 21 20 20 19 20 21 19 19 19 16 18 20 20 19 19 22 20 20 20 21 22 23 -193 -193 -177 27 29 29 28 29 30 29 30 28 29 28 28 29 30 31 30 31 31 36 34 35 36 35 36 38 38 38 36 39 40 39 39 39 40 41 40 44 45 47 46 47 49 48 48 48 48 49 49 51 51 50 51 51 52 51 51 52 52 52 54 55 55 54 56 57 58 57 -193 59 59 60 60 60 60 61 62 60 64 64 64 66 0 0 0 0 0
    0 0 0 0 0 0 0 0 0 0 0 0 0 0 0 0 0 0 0 0 0 0 0 0 0 0 0 0 0 0 0 0 0 0 0 0 0 0 0 0 0 0 0 0 0 0 0 0 0 0 0 0 0 0 0 0 0 0 0 0 0 0 0 0 0 0 0 0 0 13 14 14 15 14 13 14 14 14 15 14 15 13 14 17 15 14 17 14 16 15 14 16 13 15 15 14 16 14 15 16 14 16 16 15 17 15 16 18 15 17 17 16 17 16 17 18 16 18 18 16 20 17 17 17 18 16 19 16 17 15 18 18 17 16 19 17 17 19 17 18 17 17 17 17 18 21 17 21 20 21 20 21 19 18 17 19 19 17 15 19 16 19 19 19 18 18 19 19 18 20 20 21 19 22 20 20 21 22 21 21 20 20 19 21 20 21 19 19 19 21 21 20 19 21 21 19 22 20 19 19 20 20 20 19 20 18 21 21 21 22 21 20 20 20 21 19 19 19 15 17 20 20 19 19 22 20 19 20 21 22 23 -193 -193 -193 27 29 29 28 29 29 29 30 28 29 29 29 30 30 32 30 31 32 37 34 35 36 36 36 38 38 38 36 39 40 40 39 39 40 41 40 45 44 46 46 47 49 48 48 48 47 49 48 50 50 49 51 51 52 51 51 51 52 53 54 55 55 54 56 57 57 -193 -193 58 58 59 60 59 60 61 61 60 64 65 64 66 0 0 0 0 0
    0 0 0 0 0 0 0 0 0 0 0 0 0 0 0 0 0 0 0 0 0 0 0 0 0 0 0 0 0 0 0 0 0 0 0 0 0 0 0 0 0 0 0 0 0 0 0 0 0 0 0 0 0 0 0 0 0 0 0 0 0 0 0 0 0 0 0 0 0 12 14 13 14 15 13 14 14 14 16 14 15 14 14 17 15 14 17 14 16 15 14 16 13 15 15 14 16 14 15 16 15 16 16 15 17 15 16 18 15 17 17 16 17 16 17 18 17 18 18 15 19 18 17 17 18 16 19 16 17 15 17 18 17 16 19 16 17 19 17 17 17 17 17 17 18 21 18 21 20 21 20 21 19 18 17 18 19 17 15 19 17 19 19 20 18 18 20 19 18 19 20 21 19 22 20 21 22 23 21 21 20 20 19 21 20 21 19 19 19 20 21 20 18 21 20 19 22 19 19 19 20 20 20 19 21 18 22 22 22 22 22 21 21 21 22 20 19 18 14 16 20 20 19 18 22 20 20 21 22 22 23 -193 -193 -193 27 29 29 29 29 29 29 30 29 30 29 29 30 30 32 30 31 32 37 34 35 36 36 36 38 38 38 36 40 40 40 39 40 40 41 41 45 44 46 46 46 48 47 47 47 47 48 48 49 50 49 51 51 52 50 51 51 52 53 54 54 55 54 56 56 57 -193 -193 -193 -193 174 -193 59 59 61 61 60 64 65 64 66 0 0 0 0 0
    0 0 0 0 0 0 0 0 0 0 0 0 0 0 0 0 0 0 0 0 0 0 0 0 0 0 0 0 0 0 0 0 0 0 0 0 0 0 0 0 0 0 0 0 0 0 0 0 0 0 0 0 0 0 0 0 0 0 0 0 0 0 0 0 0 0 0 0 0 12 15 13 14 15 13 14 14 14 16 14 15 14 14 17 15 14 17 14 16 15 14 16 14 14 15 14 17 14 15 17 15 16 17 15 17 15 16 17 15 17 17 16 17 16 17 17 17 17 18 15 19 18 17 17 18 16 18 15 17 15 17 17 17 16 18 16 17 19 17 17 17 17 17 18 19 21 18 20 20 21 20 21 19 18 17 18 19 17 15 19 17 19 19 20 18 18 20 19 18 19 20 21 19 22 20 21 22 23 21 21 20 20 19 21 20 20 19 20 19 20 21 20 18 20 20 19 21 19 19 19 20 20 20 19 21 18 22 22 22 23 22 21 22 21 22 20 18 18 13 14 19 21 18 18 22 20 20 21 22 22 23 25 -193 -193 27 29 28 29 29 29 29 30 29 30 29 29 30 31 33 30 31 32 37 35 35 36 37 37 38 38 38 36 40 40 40 39 40 41 41 42 45 44 46 46 46 48 47 47 47 47 49 48 49 50 50 51 51 52 50 51 51 52 53 53 54 54 53 56 56 56 57 58 -193 -193 174 -193 59 59 61 61 60 64 66 64 66 0 0 0 0 0
    0 0 0 0 0 0 0 0 0 0 0 0 0 0 0 0 0 0 0 0 0 0 0 0 0 0 0 0 0 0 0 0 0 0 0 0 0 0 0 0 0 0 0 0 0 0 0 0 0 0 0 0 0 0 0 0 0 0 0 0 0 0 0 0 0 0 0 0 0 13 15 14 15 15 13 15 15 14 17 14 15 14 15 17 15 14 17 14 16 15 14 15 14 14 15 14 17 15 16 16 15 16 17 15 17 15 16 17 15 17 17 16 17 17 16 17 17 17 18 16 19 18 17 17 18 15 18 15 16 15 16 17 17 16 18 16 17 20 17 17 18 18 17 18 19 21 19 21 20 21 20 21 19 18 17 18 19 17 16 19 17 19 19 20 18 18 20 19 18 20 20 20 19 21 20 21 21 22 21 20 20 20 19 22 20 20 19 20 19 20 21 19 18 20 20 19 21 19 19 19 20 20 20 19 21 18 22 22 22 23 22 21 22 21 22 20 18 17 12 12 16 21 19 18 22 21 21 22 22 22 23 25 25 -193 27 29 28 29 29 29 29 30 29 29 29 29 30 31 33 31 31 33 37 35 36 36 37 37 38 38 38 36 39 40 40 38 39 41 42 42 45 43 46 46 46 47 47 47 47 47 49 48 49 50 50 51 51 52 50 51 51 52 53 53 54 54 53 56 56 56 56 57 -193 -193 174 -193 59 59 61 61 61 63 66 64 66 0 0 0 0 0
    0 0 0 0 0 0 0 0 0 0 0 0 0 0 0 0 0 0 0 0 0 0 0 0 0 0 0 0 0 0 0 0 0 0 0 0 0 0 0 0 0 0 0 0 0 0 0 0 0 0 0 0 0 0 0 0 0 0 0 0 0 0 0 0 0 0 0 0 0 13 15 14 14 15 14 15 15 14 17 14 15 14 15 16 15 14 16 14 16 15 14 15 14 14 16 14 17 15 16 16 15 16 17 15 17 15 16 17 15 17 17 15 17 17 16 17 17 17 18 16 19 18 17 17 18 15 18 15 16 15 16 17 17 16 18 16 17 20 18 18 19 19 18 19 20 21 20 20 20 20 19 21 19 17 17 17 19 17 16 19 17 18 19 20 18 18 20 19 18 19 21 20 19 21 20 21 21 22 21 20 20 20 19 22 21 20 19 20 19 20 21 19 18 20 19 19 21 19 19 19 20 20 20 19 21 18 22 22 22 23 22 22 22 21 22 19 17 16 11 11 15 22 20 19 22 22 21 22 22 22 23 25 25 26 27 29 28 29 30 29 29 31 29 30 29 30 30 31 33 31 30 33 37 35 36 36 38 38 39 38 38 37 39 40 40 38 39 41 42 42 44 43 46 47 46 47 47 47 47 48 50 49 49 50 51 52 51 53 51 51 51 52 53 53 54 55 53 56 56 56 56 57 -193 -193 174 -193 59 59 61 61 61 63 66 64 66 0 0 0 0 0
    0 0 0 0 0 0 0 0 0 0 0 0 0 0 0 0 0 0 0 0 0 0 0 0 0 0 0 0 0 0 0 0 0 0 0 0 0 0 0 0 0 0 0 0 0 0 0 0 0 0 0 0 0 0 0 0 0 0 0 0 0 0 0 0 0 0 0 0 0 13 16 14 14 16 14 15 15 14 17 14 15 15 15 16 15 15 16 13 16 15 14 15 14 14 16 14 17 15 16 16 15 16 17 14 17 15 16 16 15 17 17 15 17 17 16 17 18 17 18 16 19 19 17 17 18 15 18 15 17 16 16 17 17 16 18 16 17 19 19 18 19 19 18 19 21 21 20 20 20 20 19 20 19 17 17 17 19 17 16 19 17 18 19 20 18 18 20 20 18 19 21 20 19 21 20 20 20 21 21 19 20 20 19 21 21 20 20 21 19 20 22 19 18 19 20 19 20 19 19 19 20 19 19 19 21 18 21 22 21 23 23 22 23 21 23 20 17 16 11 11 14 22 21 20 22 22 21 22 22 22 23 25 25 26 26 29 28 29 30 29 29 32 30 30 30 30 31 31 33 31 30 33 37 36 36 36 38 38 39 38 39 37 39 40 40 38 39 41 42 42 44 43 46 47 46 47 47 47 48 48 50 49 49 50 51 52 51 53 51 51 52 52 54 54 55 55 54 56 56 56 56 56 -193 -193 174 -193 59 59 61 62 61 63 67 64 66 0 0 0 0 0
    0 0 0 0 0 0 0 0 0 0 0 0 0 0 0 0 0 0 0 0 0 0 0 0 0 0 0 0 0 0 0 0 0 0 0 0 0 0 0 0 0 0 0 0 0 0 0 0 0 0 0 0 0 0 0 0 0 0 0 0 0 0 0 0 0 0 0 0 0 13 16 14 14 16 14 15 15 14 17 13 15 15 15 15 15 15 16 13 16 15 14 16 15 14 17 14 18 15 16 16 15 17 17 14 17 15 16 16 16 17 17 15 17 17 16 18 18 17 18 16 19 19 17 18 18 16 19 15 17 16 15 17 17 16 18 16 17 19 19 18 19 19 18 19 21 21 20 19 20 19 19 20 19 16 17 17 19 17 16 19 18 18 20 20 18 18 20 20 18 19 21 19 19 21 20 20 20 21 21 19 21 20 18 21 22 21 21 21 20 20 22 19 18 19 20 19 20 19 19 19 20 20 20 19 21 19 22 22 21 24 23 22 23 21 23 20 16 15 11 11 12 22 21 20 22 23 21 23 22 22 23 25 25 26 26 29 28 29 30 29 29 32 30 30 30 30 31 31 33 31 30 33 37 36 36 36 38 38 38 38 39 38 39 40 39 38 39 41 42 42 43 43 45 47 46 47 47 46 48 48 50 50 50 51 52 52 51 53 51 51 52 53 54 54 55 55 54 56 -193 56 55 55 -193 55 -193 58 59 59 61 62 62 63 67 64 66 0 0 0 0 0
    0 0 0 0 0 0 0 0 0 0 0 0 0 0 0 0 0 0 0 0 0 0 0 0 0 0 0 0 0 0 0 0 0 0 0 0 0 0 0 0 0 0 0 0 0 0 0 0 0 0 0 0 0 0 0 0 0 0 0 0 0 0 0 0 0 0 0 0 0 13 17 14 14 16 15 15 15 14 17 13 14 15 14 14 14 15 15 13 16 15 14 16 15 14 17 15 18 14 16 16 15 17 17 14 17 15 16 16 16 17 16 16 17 16 16 18 18 17 18 17 19 20 18 18 18 16 19 15 17 16 15 17 17 16 17 16 17 19 19 19 20 19 18 19 21 20 20 19 19 19 18 20 19 16 17 17 19 17 17 20 18 17 20 20 19 18 20 20 17 18 21 18 19 21 20 20 19 21 21 18 22 20 18 21 24 22 22 22 21 20 21 19 19 19 20 19 20 19 19 20 20 19 20 19 20 19 21 22 21 23 23 23 23 21 22 20 18 18 14 13 14 22 21 20 22 23 21 23 22 22 23 25 25 26 26 28 28 29 30 29 29 32 30 30 30 30 32 31 33 32 30 32 36 36 36 35 38 38 38 38 39 38 38 39 39 38 38 40 41 41 42 42 44 46 45 47 47 46 48 49 51 50 50 50 52 52 51 53 51 51 52 53 54 54 55 55 54 -193 -193 55 55 55 56 55 58 59 59 59 61 62 62 63 68 64 66 0 0 0 0 0
    0 0 0 0 0 0 0 0 0 0 0 0 0 0 0 0 0 0 0 0 0 0 0 0 0 0 0 0 0 0 0 0 0 0 0 0 0 0 0 0 0 0 0 0 0 0 0 0 0 0 0 0 0 0 0 0 0 0 0 0 0 0 0 0 0 0 0 0 0 14 17 14 14 16 15 16 15 14 17 13 14 15 14 14 14 15 15 13 16 15 14 16 15 14 17 15 18 14 16 16 15 17 17 14 17 15 16 16 16 17 16 16 17 16 16 17 18 17 18 17 19 20 18 18 19 17 19 15 18 17 14 17 18 16 17 17 17 18 19 19 20 19 19 19 21 20 20 19 19 18 18 19 19 15 18 16 19 18 18 20 19 17 21 21 19 19 20 21 17 18 21 18 19 20 20 19 19 21 21 17 23 22 17 21 23 21 22 21 20 20 21 19 20 19 20 19 20 19 19 20 20 19 20 20 20 19 21 22 20 22 23 23 23 21 21 19 20 20 18 17 17 21 21 20 22 23 21 23 22 22 23 25 25 26 26 28 27 29 30 29 29 32 31 30 30 30 32 31 32 32 31 32 36 36 35 34 38 38 38 38 39 38 38 39 39 38 38 40 41 41 42 42 43 46 45 46 47 46 47 49 51 50 49 50 52 52 51 52 52 51 52 53 54 53 55 55 -193 -193 -193 55 54 54 56 55 58 59 59 59 61 63 63 63 68 65 66 0 0 0 0 0
    0 0 0 0 0 0 0 0 0 0 0 0 0 0 0 0 0 0 0 0 0 0 0 0 0 0 0 0 0 0 0 0 0 0 0 0 0 0 0 0 0 0 0 0 0 0 0 0 0 0 0 0 0 0 0 0 0 0 0 0 0 0 0 0 0 0 0 0 0 14 17 14 15 16 15 16 15 14 17 12 14 15 14 14 14 15 15 12 16 15 14 16 15 14 17 15 18 14 16 16 15 18 17 14 18 15 16 16 16 16 15 16 17 15 15 17 18 16 18 18 19 20 18 18 19 17 19 16 18 17 14 17 18 16 16 18 17 18 19 19 20 19 18 19 21 19 19 18 18 17 17 18 19 14 17 16 18 18 19 20 19 16 21 21 19 19 19 21 18 18 21 17 19 20 20 19 18 20 20 17 23 23 16 20 22 20 21 21 20 20 20 19 20 19 20 20 20 20 19 20 19 19 20 19 20 19 20 20 17 21 21 22 21 20 20 19 21 22 20 20 19 22 22 21 22 23 21 23 22 22 22 24 25 25 25 27 27 29 30 30 29 32 32 30 30 30 33 31 32 32 31 31 35 36 35 33 38 38 38 38 39 38 38 39 39 38 38 40 41 41 42 42 43 46 45 46 47 46 48 49 51 50 50 50 52 51 51 52 52 51 52 53 55 53 55 55 -193 -193 -193 -193 54 54 55 55 58 59 58 59 61 64 63 64 68 65 66 0 0 0 0 0
    0 0 0 0 0 0 0 0 0 0 0 0 0 0 0 0 0 0 0 0 0 0 0 0 0 0 0 0 0 0 0 0 0 0 0 0 0 0 0 0 0 0 0 0 0 0 0 0 0 0 0 0 0 0 0 0 0 0 0 0 0 0 0 0 0 0 0 0 0 14 18 14 15 16 15 16 15 14 18 12 14 15 14 14 14 15 15 12 16 15 14 16 15 14 17 15 18 14 16 16 14 18 17 14 18 15 16 16 16 16 15 16 16 15 15 16 18 16 18 19 19 21 18 18 19 18 19 16 18 17 14 17 18 16 16 18 18 17 20 19 20 20 19 19 21 19 19 18 18 17 16 18 19 14 17 17 18 19 19 20 19 16 21 20 19 20 18 21 18 18 21 17 18 20 19 19 18 20 20 16 22 21 15 20 21 19 20 20 19 20 20 19 21 19 20 20 20 20 19 20 19 18 20 19 19 19 19 19 17 20 21 21 21 20 20 19 21 23 21 21 20 22 22 22 22 23 21 22 22 22 22 23 24 24 25 27 27 28 30 30 29 32 32 30 30 31 34 30 31 32 31 31 35 36 35 32 38 38 37 38 39 38 38 39 39 38 39 40 41 41 42 42 43 45 45 46 47 46 48 50 51 50 50 50 52 51 51 52 52 51 52 53 55 53 55 55 54 54 -193 55 54 54 55 54 57 58 58 59 61 65 64 64 69 65 66 0 0 0 0 0
    0 0 0 0 0 0 0 0 0 0 0 0 0 0 0 0 0 0 0 0 0 0 0 0 0 0 0 0 0 0 0 0 0 0 0 0 0 0 0 0 0 0 0 0 0 0 0 0 0 0 0 0 0 0 0 0 0 0 0 0 0 0 0 0 0 0 0 0 0 14 17 15 15 16 15 16 14 14 18 13 14 15 14 14 13 15 15 12 16 15 14 16 15 14 17 14 17 14 16 16 14 18 16 14 18 15 17 16 16 16 14 16 16 14 15 16 19 16 19 19 20 21 18 18 19 18 19 17 18 17 14 18 18 16 16 18 17 16 20 20 20 20 19 19 20 18 18 18 17 16 16 18 18 14 18 17 17 19 19 19 18 16 20 19 18 19 17 20 18 17 20 17 18 20 19 19 18 20 20 17 22 21 16 20 20 19 19 20 19 20 20 20 20 20 20 20 20 20 19 20 19 18 20 19 20 19 20 19 18 20 21 22 22 20 21 19 22 23 21 21 20 22 22 22 22 23 20 22 22 22 22 23 24 24 24 26 26 27 30 29 28 31 33 30 30 31 34 30 31 32 32 31 34 35 34 30 38 38 37 37 38 38 37 39 39 38 39 40 41 41 42 43 43 45 45 46 47 46 48 49 50 50 50 50 52 51 51 52 52 51 52 52 54 53 54 55 54 54 55 54 53 53 55 54 57 58 58 59 60 66 65 65 69 66 67 0 0 0 0 0
    0 0 0 0 0 0 0 0 0 0 0 0 0 0 0 0 0 0 0 0 0 0 0 0 0 0 0 0 0 0 0 0 0 0 0 0 0 0 0 0 0 0 0 0 0 0 0 0 0 0 0 0 0 0 0 0 0 0 0 0 0 0 0 0 0 0 0 0 0 13 17 14 15 16 15 16 14 15 18 13 14 15 14 13 13 15 15 12 16 15 14 16 15 15 17 14 17 14 16 16 14 18 16 13 18 14 16 16 16 16 14 16 16 14 16 17 20 16 19 20 20 21 19 18 19 18 19 18 18 17 14 17 18 16 16 19 17 15 19 19 19 19 18 17 20 17 17 18 17 16 15 18 18 14 18 18 16 19 18 19 18 17 19 19 17 19 16 20 18 17 20 17 18 20 19 19 18 20 20 18 22 21 17 21 20 19 19 20 19 20 20 20 21 20 20 20 20 21 19 20 19 18 20 19 20 19 20 20 19 21 21 22 22 21 21 19 22 23 22 21 20 22 22 22 22 23 20 22 22 22 22 22 24 23 24 26 25 26 29 29 28 30 32 30 31 31 35 30 31 32 32 31 34 35 34 30 38 38 37 37 38 38 37 39 39 39 39 40 41 41 42 43 43 45 45 45 47 46 48 49 50 50 50 49 51 51 50 51 52 51 52 52 54 53 54 55 54 53 55 54 53 53 55 53 57 58 58 59 60 67 66 66 70 67 67 0 0 0 0 0
    0 0 0 0 0 0 0 0 0 0 0 0 0 0 0 0 0 0 0 0 0 0 0 0 0 0 0 0 0 0 0 0 0 0 0 0 0 0 0 0 0 0 0 0 0 0 0 0 0 0 0 0 0 0 0 0 0 0 0 0 0 0 0 0 0 0 0 0 0 13 17 14 15 15 15 15 14 15 18 13 14 15 14 13 13 15 15 12 16 15 13 16 15 15 18 15 17 14 16 16 14 17 16 13 18 14 16 16 15 16 14 17 17 14 18 18 21 16 19 21 19 21 19 18 19 18 19 18 18 17 14 17 18 16 17 19 18 15 17 18 18 18 16 16 19 16 16 18 16 16 16 18 18 14 19 19 17 20 19 19 18 18 18 18 17 18 16 19 18 18 20 17 18 20 19 19 18 20 20 18 22 21 19 21 20 20 20 21 19 21 20 21 21 20 20 21 21 21 19 20 19 18 20 19 20 19 21 20 20 21 21 23 23 22 21 19 22 23 22 22 20 22 22 22 22 22 20 22 21 22 22 22 24 23 24 26 25 26 29 28 28 29 32 30 31 32 35 30 31 33 33 31 34 35 34 30 37 38 37 37 38 38 37 39 40 39 39 40 41 41 42 43 43 45 45 45 47 46 48 48 49 49 50 49 51 51 50 51 52 50 52 51 53 52 53 55 54 53 55 55 54 53 55 53 57 57 57 58 60 68 67 67 70 68 67 0 0 0 0 0
    0 0 0 0 0 0 0 0 0 0 0 0 0 0 0 0 0 0 0 0 0 0 0 0 0 0 0 0 0 0 0 0 0 0 0 0 0 0 0 0 0 0 0 0 0 0 0 0 0 0 0 0 0 0 0 0 0 0 0 0 0 0 0 0 0 0 0 0 0 13 17 15 15 15 15 15 14 15 18 13 14 15 14 13 13 15 15 12 16 15 13 16 15 15 18 15 16 14 16 16 15 17 16 13 17 15 16 16 15 15 14 17 17 14 19 18 22 16 19 21 19 21 19 18 19 17 19 18 17 17 15 18 18 17 16 18 17 15 16 17 17 17 15 15 18 16 16 18 16 16 16 19 18 15 20 20 18 21 20 19 18 19 18 19 16 18 16 19 18 18 20 18 18 19 18 19 18 19 20 18 22 21 19 21 21 21 21 21 19 21 21 21 22 20 21 21 21 21 20 20 19 18 20 19 20 18 20 19 19 21 21 22 22 21 21 20 22 23 22 22 20 21 22 21 22 22 20 21 21 21 23 22 24 23 24 25 26 26 29 28 28 28 31 30 31 32 34 30 32 33 33 31 34 35 34 30 37 38 37 37 39 38 38 39 40 39 39 40 41 41 42 43 43 45 45 45 46 46 47 48 48 49 50 48 51 51 49 50 52 50 51 50 53 52 52 54 54 52 55 55 54 54 55 53 56 57 57 57 59 69 68 67 69 68 67 0 0 0 0 0
    0 0 0 0 0 0 0 0 0 0 0 0 0 0 0 0 0 0 0 0 0 0 0 0 0 0 0 0 0 0 0 0 0 0 0 0 0 0 0 0 0 0 0 0 0 0 0 0 0 0 0 0 0 0 0 0 0 0 0 0 0 0 0 0 0 0 0 0 0 13 17 15 15 15 15 16 14 15 18 13 14 15 14 14 13 15 16 12 16 15 14 16 15 15 18 14 16 15 16 16 15 17 16 13 17 15 16 16 15 15 14 17 17 15 18 18 21 16 18 21 19 20 18 18 19 17 19 18 16 17 16 17 18 16 16 18 18 15 16 16 17 17 15 15 18 16 16 18 16 17 16 19 19 16 21 20 19 22 20 19 18 19 18 18 16 18 16 18 19 18 20 18 18 19 18 19 19 19 20 18 22 20 20 21 21 21 20 20 19 20 20 20 21 19 20 20 20 21 19 20 19 18 20 19 20 18 20 19 19 20 20 22 22 21 21 20 21 23 22 22 20 21 21 21 21 22 20 21 21 21 23 22 24 23 24 25 26 26 29 27 28 28 31 30 31 32 34 30 32 33 33 31 34 36 34 31 37 38 38 38 39 39 38 39 40 40 40 40 41 41 43 44 43 45 45 45 46 46 47 47 48 48 49 47 50 51 49 50 52 50 51 50 52 52 52 54 54 51 55 55 55 55 56 54 57 57 57 58 59 69 68 67 69 68 67 0 0 0 0 0
    0 0 0 0 0 0 0 0 0 0 0 0 0 0 0 0 0 0 0 0 0 0 0 0 0 0 0 0 0 0 0 0 0 0 0 0 0 0 0 0 0 0 0 0 0 0 0 0 0 0 0 0 0 0 0 0 0 0 0 0 0 0 0 0 0 0 0 0 0 13 18 15 16 15 15 16 13 15 18 13 14 14 15 14 14 16 16 12 16 15 14 16 16 15 18 15 16 15 16 17 16 16 16 12 17 15 15 16 15 15 15 17 16 16 17 17 20 16 17 20 18 20 18 18 18 17 19 18 16 18 16 18 19 17 17 17 17 16 16 16 17 16 16 16 18 16 17 17 16 17 16 19 19 17 21 20 20 22 20 19 18 19 18 18 16 18 16 18 19 18 20 18 19 20 18 20 19 20 20 19 22 20 20 21 21 21 21 20 19 20 20 20 21 19 20 20 20 21 19 20 19 19 20 19 20 18 20 20 19 20 20 21 21 20 21 20 21 22 21 21 19 21 21 21 21 22 20 21 21 22 23 22 24 23 24 25 26 26 28 27 28 28 31 30 31 32 34 30 32 33 33 31 34 35 35 32 37 38 38 38 39 39 38 40 40 40 40 41 41 41 43 44 44 45 45 45 46 46 47 47 47 48 50 47 51 51 50 50 52 50 51 49 52 51 51 53 53 50 55 54 55 55 56 54 57 57 57 58 60 69 69 67 69 69 68 0 0 0 0 0
    0 0 0 0 0 0 0 0 0 0 0 0 0 0 0 0 0 0 0 0 0 0 0 0 0 0 0 0 0 0 0 0 0 0 0 0 0 0 0 0 0 0 0 0 0 0 0 0 0 0 0 0 0 0 0 0 0 0 0 0 0 0 0 0 0 0 0 0 0 12 18 15 16 15 15 15 13 15 17 12 14 14 15 15 14 16 16 13 17 15 14 15 16 15 19 15 16 16 16 17 16 16 16 12 17 16 14 16 15 15 15 17 16 16 16 17 18 16 17 20 18 19 17 18 18 17 19 18 16 18 16 18 19 17 17 17 17 16 16 16 17 16 16 16 18 16 17 17 16 17 17 20 19 17 21 20 20 22 19 20 19 19 18 18 16 18 16 18 19 18 19 19 19 20 19 20 20 20 20 19 21 20 20 21 21 21 20 20 19 19 20 20 20 19 20 19 20 21 20 20 20 20 21 20 20 18 20 20 19 20 19 21 21 20 21 20 20 22 20 21 19 21 20 21 20 22 20 21 21 22 23 23 24 24 25 25 26 26 28 27 28 28 30 31 31 32 33 30 32 33 33 32 33 35 35 32 37 38 38 38 39 39 38 39 41 41 40 41 41 41 43 44 44 45 46 45 46 47 47 46 47 47 50 47 51 51 50 50 52 50 51 49 51 51 50 53 53 49 55 54 55 56 56 54 57 57 57 58 59 67 69 66 68 69 68 0 0 0 0 0
    0 0 0 0 0 0 0 0 0 0 0 0 0 0 0 0 0 0 0 0 0 0 0 0 0 0 0 0 0 0 0 0 0 0 0 0 0 0 0 0 0 0 0 0 0 0 0 0 0 0 0 0 0 0 0 0 0 0 0 0 0 0 0 0 0 0 0 0 0 12 18 15 16 14 15 15 13 15 18 13 14 15 16 15 15 16 17 13 17 16 14 15 15 15 19 15 15 17 16 17 17 16 16 12 16 16 14 17 15 14 16 17 16 17 15 17 18 16 17 19 17 19 17 18 18 17 20 18 16 18 17 18 19 17 17 17 17 17 17 16 18 16 17 17 18 17 18 17 17 17 17 20 20 18 22 20 20 22 19 19 19 19 18 18 16 18 16 17 19 17 19 19 19 20 19 21 20 20 21 20 21 20 20 21 21 21 21 20 19 19 20 20 20 19 19 19 20 21 20 19 20 21 21 20 21 19 20 21 20 21 19 21 20 20 20 20 19 21 20 20 19 20 20 21 20 21 20 22 21 22 24 23 24 24 25 26 26 27 28 27 28 29 30 31 31 32 33 30 32 32 32 32 33 34 35 33 36 37 37 37 38 38 38 39 41 42 40 40 40 40 43 44 44 45 46 45 46 47 47 46 47 47 50 47 51 51 50 51 52 50 51 49 50 51 49 52 52 48 55 55 56 57 57 56 57 57 58 58 59 66 69 65 68 69 68 0 0 0 0 0
    0 0 0 0 0 0 0 0 0 0 0 0 0 0 0 0 0 0 0 0 0 0 0 0 0 0 0 0 0 0 0 0 0 0 0 0 0 0 0 0 0 0 0 0 0 0 0 0 0 0 0 0 0 0 0 0 0 0 0 0 0 0 0 0 0 0 0 0 0 13 19 16 15 15 15 15 13 15 17 12 14 16 16 16 15 16 17 14 16 17 14 15 15 15 20 15 16 17 15 17 17 16 16 12 16 16 14 17 15 14 17 16 16 17 15 18 16 16 17 18 17 19 16 17 18 17 20 18 16 19 17 19 20 17 17 17 17 17 17 17 18 16 17 17 18 17 18 17 17 18 18 20 19 18 21 20 20 22 19 19 19 19 18 18 16 18 16 18 19 17 19 19 20 21 20 21 21 21 22 21 22 20 21 21 22 21 21 20 19 19 20 20 20 18 19 19 20 21 20 20 21 21 22 21 21 19 20 21 20 21 19 21 20 20 20 20 19 21 19 20 18 21 20 21 19 21 20 22 21 22 24 24 24 25 25 26 27 27 29 27 28 29 30 31 32 32 33 30 33 32 32 33 33 34 36 33 35 36 37 37 38 38 38 39 41 42 40 40 40 40 43 43 44 44 46 45 46 47 47 46 47 46 50 47 51 52 50 51 52 50 51 49 50 51 49 52 52 48 56 55 57 58 57 57 57 58 58 59 60 67 69 65 67 69 68 0 0 0 0 0
    0 0 0 0 0 0 0 0 0 0 0 0 0 0 0 0 0 0 0 0 0 0 0 0 0 0 0 0 0 0 0 0 0 0 0 0 0 0 0 0 0 0 0 0 0 0 0 0 0 0 0 0 0 0 0 0 0 0 0 0 0 0 0 0 0 0 0 0 0 13 19 15 15 15 15 15 14 15 17 13 14 16 15 16 16 15 17 15 17 17 14 16 15 16 19 15 16 17 15 17 17 16 17 13 16 16 15 18 16 15 17 16 16 18 15 18 16 16 16 18 16 19 16 18 18 17 20 18 16 19 18 18 20 17 18 17 17 18 17 16 18 16 18 17 18 17 18 17 17 18 18 19 20 18 21 20 20 22 19 19 19 19 18 18 17 18 16 18 19 17 19 20 20 21 21 21 21 21 23 22 22 20 21 22 22 21 21 20 19 19 20 20 19 18 19 19 20 21 20 20 21 22 22 21 22 19 20 21 20 21 19 20 19 19 20 20 19 21 19 20 19 21 20 21 19 21 21 22 21 22 24 24 25 25 26 26 27 28 29 27 29 29 29 31 32 33 32 30 33 32 32 34 33 34 36 34 35 36 37 38 38 38 39 39 41 42 40 40 40 40 43 43 44 44 46 45 46 47 47 46 47 46 50 47 51 52 50 51 52 50 51 49 50 51 49 52 52 48 57 57 58 59 58 59 57 59 60 61 63 67 70 65 67 69 68 0 0 0 0 0
    0 0 0 0 0 0 0 0 0 0 0 0 0 0 0 0 0 0 0 0 0 0 0 0 0 0 0 0 0 0 0 0 0 0 0 0 0 0 0 0 0 0 0 0 0 0 0 0 0 0 0 0 0 0 0 0 0 0 0 0 0 0 0 0 0 0 0 0 0 14 18 15 15 16 15 15 14 15 17 13 15 17 15 17 16 15 17 15 17 17 15 16 14 16 19 15 16 17 15 16 17 16 17 14 17 16 15 18 16 15 17 15 16 17 15 18 16 17 17 18 17 19 16 18 18 18 20 18 17 19 18 18 20 17 18 17 17 17 17 16 18 16 18 17 18 17 18 17 18 18 19 19 20 18 21 20 20 22 19 19 19 19 18 19 17 18 16 18 20 17 19 21 21 21 21 21 21 21 23 21 21 20 21 21 23 21 21 19 19 20 20 19 19 17 19 19 20 21 20 20 21 22 22 21 22 20 20 21 20 21 19 20 19 19 20 21 19 21 19 20 19 21 20 22 19 22 21 22 21 22 24 25 25 26 26 26 28 28 30 28 29 30 30 32 32 33 32 30 33 32 32 34 33 33 36 35 35 36 37 37 38 39 39 40 41 42 40 40 39 39 42 42 43 43 45 45 46 47 47 46 47 46 50 46 51 51 50 51 52 50 51 49 50 51 50 52 53 50 57 57 58 59 58 59 55 58 58 60 62 68 70 66 67 69 68 0 0 0 0 0
    0 0 0 0 0 0 0 0 0 0 0 0 0 0 0 0 0 0 0 0 0 0 0 0 0 0 0 0 0 0 0 0 0 0 0 0 0 0 0 0 0 0 0 0 0 0 0 0 0 0 0 0 0 0 0 0 0 0 0 0 0 0 0 0 0 0 0 0 0 14 18 15 15 16 15 15 15 15 17 13 16 17 15 17 16 15 17 15 17 18 15 17 15 16 18 15 16 17 14 16 17 16 17 14 17 17 15 19 17 15 17 16 16 17 15 17 16 17 17 18 17 19 17 18 18 18 20 18 17 19 18 18 19 17 18 17 17 17 18 16 18 16 18 17 18 17 19 17 18 18 19 19 19 17 21 20 20 21 19 19 19 19 19 19 18 19 17 19 20 17 19 21 21 21 21 21 21 21 23 21 20 19 21 21 22 20 21 18 18 19 19 18 18 16 19 18 20 21 20 20 21 23 22 22 22 20 20 21 20 21 19 20 19 19 20 21 19 21 19 20 19 21 20 22 20 22 21 22 22 22 24 25 25 26 27 27 28 29 30 28 29 30 30 32 32 33 32 31 34 32 32 34 33 33 36 35 35 36 37 38 38 39 40 40 41 42 40 40 40 39 41 42 43 43 45 45 46 46 46 46 46 45 50 46 51 51 50 51 51 50 51 49 50 51 50 52 53 50 56 57 58 61 61 -193 56 58 58 61 64 69 71 66 66 69 68 0 0 0 0 0
    0 0 0 0 0 0 0 0 0 0 0 0 0 0 0 0 0 0 0 0 0 0 0 0 0 0 0 0 0 0 0 0 0 0 0 0 0 0 0 0 0 0 0 0 0 0 0 0 0 0 0 0 0 0 0 0 0 0 0 0 0 0 0 0 0 0 0 0 0 15 18 15 15 17 14 15 16 15 17 14 16 17 15 18 16 15 18 16 17 18 15 17 15 16 18 15 16 17 14 16 17 16 17 14 17 17 15 19 17 15 18 16 16 17 15 17 15 17 17 18 17 19 17 19 18 19 20 18 17 19 18 18 19 17 17 17 17 17 18 16 18 16 19 17 19 17 19 17 18 17 19 19 19 17 20 19 19 21 19 19 19 19 19 19 18 19 17 20 21 17 19 21 21 21 22 21 21 20 23 21 20 19 21 20 22 19 20 17 18 19 19 18 18 16 18 18 19 20 19 20 22 -193 -193 -193 23 21 20 21 20 21 19 20 19 19 20 21 19 22 19 21 20 22 21 22 20 22 22 23 23 23 24 25 25 27 27 27 28 29 30 29 30 31 30 33 33 33 32 31 34 33 33 35 33 33 36 36 36 36 37 38 38 39 40 40 41 42 40 40 40 40 41 41 43 43 45 45 46 46 46 46 46 45 49 46 50 51 49 51 51 51 51 49 50 51 50 52 52 51 54 54 57 -193 -209 -209 55 -193 -209 63 66 70 72 67 66 69 68 0 0 0 0 0
    0 0 0 0 0 0 0 0 0 0 0 0 0 0 0 0 0 0 0 0 0 0 0 0 0 0 0 0 0 0 0 0 0 0 0 0 0 0 0 0 0 0 0 0 0 0 0 0 0 0 0 0 0 0 0 0 0 0 0 0 0 0 0 0 0 0 0 0 0 14 17 15 14 17 14 15 16 15 16 14 16 18 15 18 16 15 18 16 17 18 15 17 15 16 18 15 16 17 14 16 16 16 18 14 17 17 15 19 17 15 18 15 16 17 15 17 15 17 17 18 17 19 17 19 19 19 20 19 17 19 18 18 19 17 17 17 17 17 18 16 18 16 19 17 19 18 19 17 18 18 19 19 19 17 20 19 19 21 19 19 20 19 20 20 19 19 18 20 21 16 19 21 21 21 22 21 21 20 23 22 20 20 21 20 22 20 21 18 19 20 19 18 18 17 19 19 20 21 20 21 -193 -193 -193 -193 23 21 21 22 21 21 19 21 20 20 20 21 20 22 20 21 20 22 21 23 21 23 22 24 23 23 25 26 25 27 27 27 28 30 30 29 30 31 30 33 33 33 32 32 34 33 33 35 34 33 36 36 36 36 37 38 38 39 40 41 40 42 40 40 40 40 41 41 43 43 45 45 46 46 46 46 46 45 49 46 49 51 49 50 50 50 51 49 50 51 51 52 53 52 54 54 56 -193 49 -209 47 51 -209 -209 -209 71 72 67 66 69 68 0 0 0 0 0
    0 0 0 0 0 0 0 0 0 0 0 0 0 0 0 0 0 0 0 0 0 0 0 0 0 0 0 0 0 0 0 0 0 0 0 0 0 0 0 0 0 0 0 0 0 0 0 0 0 0 0 0 0 0 0 0 0 0 0 0 0 0 0 0 0 0 0 0 0 14 16 15 13 17 14 15 16 15 16 14 17 18 14 18 16 15 17 16 17 18 15 17 15 16 18 15 16 17 14 16 16 16 18 14 17 17 15 19 16 15 17 15 16 17 15 17 16 17 17 18 16 19 17 19 18 19 20 19 17 19 18 18 18 17 17 17 17 17 18 17 18 16 19 17 19 18 19 17 18 17 19 18 19 16 19 19 17 20 19 19 20 19 21 21 21 20 20 22 23 17 20 22 22 21 22 21 21 21 23 22 21 20 22 21 23 21 21 18 19 20 19 18 18 16 19 19 20 21 20 22 23 -193 -193 -193 24 22 22 22 21 22 20 21 20 20 21 22 21 23 20 22 21 23 22 24 22 23 23 24 24 24 25 27 26 28 28 28 29 31 31 30 30 32 31 33 34 34 32 32 35 33 34 36 34 33 36 36 36 36 37 38 38 40 41 41 40 41 40 40 40 40 41 41 43 43 45 45 45 46 45 46 46 45 48 46 48 50 48 49 48 49 50 48 49 51 51 53 54 55 56 55 56 -193 50 -209 45 -209 -209 -209 -209 74 73 68 65 68 68 0 0 0 0 0
    0 0 0 0 0 0 0 0 0 0 0 0 0 0 0 0 0 0 0 0 0 0 0 0 0 0 0 0 0 0 0 0 0 0 0 0 0 0 0 0 0 0 0 0 0 0 0 0 0 0 0 0 0 0 0 0 0 0 0 0 0 0 0 0 0 0 0 0 0 14 16 15 13 17 13 15 16 15 16 14 17 17 14 18 16 16 17 16 16 17 15 18 15 16 17 15 16 17 14 16 15 15 18 14 16 16 15 18 16 15 17 16 16 18 16 17 16 17 16 18 16 19 17 19 18 19 19 19 17 19 18 17 18 17 17 17 17 17 18 17 18 17 19 16 19 18 18 17 18 17 18 18 19 15 18 18 16 19 18 18 19 20 22 22 23 22 22 23 24 18 20 23 22 20 22 20 21 20 23 -193 21 21 22 22 24 21 22 19 21 21 19 19 19 17 19 20 21 22 21 23 -193 -193 -193 -177 24 22 22 22 21 22 20 22 21 21 22 22 22 23 22 23 23 24 23 25 23 24 24 25 25 24 26 27 27 29 29 29 30 32 31 31 31 32 31 35 35 35 33 34 35 34 34 36 34 33 36 37 36 36 38 38 38 40 41 41 40 41 -193 40 41 41 41 42 43 43 45 45 45 45 45 46 45 45 47 46 47 49 47 49 48 49 50 48 50 51 53 54 55 55 55 55 55 -209 48 -209 -209 -209 -193 -193 80 78 80 69 65 68 68 0 0 0 0 0
    0 0 0 0 0 0 0 0 0 0 0 0 0 0 0 0 0 0 0 0 0 0 0 0 0 0 0 0 0 0 0 0 0 0 0 0 0 0 0 0 0 0 0 0 0 0 0 0 0 0 0 0 0 0 0 0 0 0 0 0 0 0 0 0 0 0 0 0 0 15 16 14 13 18 13 15 15 15 15 14 17 17 14 18 16 16 17 16 16 17 15 18 15 16 17 16 16 17 14 16 15 15 17 14 16 16 15 18 17 16 17 16 16 18 16 17 17 17 16 18 16 19 17 19 18 19 19 18 17 19 18 17 17 17 17 17 17 17 19 17 18 17 19 16 19 18 18 17 18 18 18 17 19 15 17 18 15 18 18 17 20 20 25 25 25 24 25 25 26 20 21 -193 22 20 22 20 21 20 23 -193 21 21 23 22 24 22 23 20 22 22 19 20 20 18 20 21 21 22 21 24 24 -193 -177 -177 -193 22 22 22 21 22 21 23 21 21 23 23 23 25 24 25 25 26 26 27 26 27 26 27 26 25 28 29 28 29 29 29 31 34 33 33 32 35 35 38 38 37 35 36 36 35 35 36 34 33 36 37 36 36 38 38 39 40 41 41 -193 42 -209 41 42 42 42 42 44 43 45 45 45 45 45 46 45 45 47 46 47 49 47 48 47 48 50 50 51 52 55 56 56 56 55 55 55 54 50 -209 -209 -209 12 22 -193 81 84 70 64 67 68 0 0 0 0 0
    0 0 0 0 0 0 0 0 0 0 0 0 0 0 0 0 0 0 0 0 0 0 0 0 0 0 0 0 0 0 0 0 0 0 0 0 0 0 0 0 0 0 0 0 0 0 0 0 0 0 0 0 0 0 0 0 0 0 0 0 0 0 0 0 0 0 0 0 0 15 16 14 13 17 13 15 15 15 14 15 17 17 13 18 16 15 17 16 16 17 16 18 16 16 17 16 16 17 15 16 15 15 17 15 15 16 15 17 16 16 17 17 17 18 17 17 17 17 17 19 16 18 17 19 18 18 18 18 16 18 18 17 16 17 17 17 18 17 19 17 19 18 19 17 20 19 19 18 20 18 19 18 19 15 17 18 16 18 18 18 21 20 26 26 26 24 26 26 26 22 22 -193 -193 20 22 20 21 20 23 -193 21 22 23 23 25 22 23 21 24 23 20 21 21 19 21 22 22 22 22 25 24 -193 -193 -177 -193 23 22 22 22 22 22 24 23 23 25 25 26 27 27 29 29 29 30 30 30 30 30 30 28 28 36 34 35 31 31 33 35 37 36 37 37 40 43 44 43 38 36 37 36 35 35 36 34 33 36 37 35 36 38 38 38 40 41 41 -193 42 -193 41 43 43 43 43 44 43 45 45 45 45 45 46 45 45 47 46 46 48 47 48 47 48 50 50 51 53 56 57 56 56 56 55 55 54 51 -209 38 -209 16 22 -193 -193 -193 70 63 67 68 0 0 0 0 0
    0 0 0 0 0 0 0 0 0 0 0 0 0 0 0 0 0 0 0 0 0 0 0 0 0 0 0 0 0 0 0 0 0 0 0 0 0 0 0 0 0 0 0 0 0 0 0 0 0 0 0 0 0 0 0 0 0 0 0 0 0 0 0 0 0 0 0 0 0 15 16 14 13 17 13 15 14 14 14 15 17 17 13 18 16 16 17 16 17 17 16 18 16 17 17 17 16 17 15 16 15 15 16 14 15 16 15 17 17 16 17 18 17 18 17 17 18 17 16 19 15 18 17 19 18 18 18 18 16 18 18 17 16 17 16 17 18 17 19 17 19 18 19 17 20 19 19 18 20 18 19 18 20 16 16 18 15 18 18 19 22 22 26 25 26 25 26 26 26 22 22 23 22 20 22 20 21 21 23 22 22 22 24 23 25 23 24 23 25 24 21 22 22 21 22 22 23 23 22 26 24 25 -193 -193 24 22 22 22 22 23 23 25 25 26 27 29 29 29 29 32 31 31 31 30 30 33 33 33 30 32 39 38 39 37 35 36 38 40 38 39 -193 -209 -193 47 -193 37 36 38 36 35 35 36 34 33 35 37 35 36 38 38 38 40 41 40 -193 41 -193 41 43 44 43 44 45 44 46 45 46 45 45 46 45 45 46 46 46 48 47 48 47 47 50 50 50 52 55 56 56 55 55 54 54 53 50 44 39 35 -209 24 35 -209 -193 70 62 66 68 0 0 0 0 0
    0 0 0 0 0 0 0 0 0 0 0 0 0 0 0 0 0 0 0 0 0 0 0 0 0 0 0 0 0 0 0 0 0 0 0 0 0 0 0 0 0 0 0 0 0 0 0 0 0 0 0 0 0 0 0 0 0 0 0 0 0 0 0 0 0 0 0 0 0 15 16 14 13 17 13 15 13 14 13 14 17 17 13 17 16 16 17 16 17 17 16 18 16 17 17 17 16 17 16 16 15 15 16 15 15 17 15 17 18 18 18 20 18 18 17 16 18 16 16 19 15 18 17 19 18 19 19 19 17 19 18 18 16 18 16 17 19 18 20 17 19 19 19 18 20 20 20 19 20 19 19 19 20 17 16 19 15 19 19 21 23 24 27 25 26 26 27 27 27 23 23 23 23 21 22 21 22 21 24 23 23 24 25 24 26 25 25 24 25 25 23 24 24 23 23 24 25 25 24 27 26 25 24 24 24 22 22 22 22 22 24 27 27 30 31 32 32 32 32 34 33 32 30 29 31 34 34 34 30 34 40 39 40 38 36 37 39 41 38 38 -193 -209 -209 49 -209 36 36 38 36 35 35 35 34 32 35 38 35 36 37 37 37 39 40 40 -177 42 -193 42 44 44 44 45 45 44 46 45 46 45 45 47 45 45 46 46 46 48 47 47 46 47 50 50 48 51 54 55 55 54 54 54 54 53 50 -209 -209 29 24 22 28 -209 127 -193 63 65 68 0 0 0 0 0
    0 0 0 0 0 0 0 0 0 0 0 0 0 0 0 0 0 0 0 0 0 0 0 0 0 0 0 0 0 0 0 0 0 0 0 0 0 0 0 0 0 0 0 0 0 0 0 0 0 0 0 0 0 0 0 0 0 0 0 0 0 0 0 0 0 0 0 0 0 15 16 14 13 17 13 14 13 14 13 14 17 17 12 17 16 16 17 17 17 17 16 18 17 17 18 18 17 18 16 17 16 16 17 16 15 18 17 19 20 19 19 21 19 19 18 17 18 17 17 20 15 19 17 20 19 20 19 19 17 19 18 19 16 19 16 18 20 19 21 18 20 20 21 19 21 21 21 20 21 19 19 19 21 18 16 20 14 20 21 24 26 26 30 -193 26 27 28 27 27 24 25 -209 24 23 24 -193 -193 23 26 25 26 27 27 26 27 27 27 26 27 26 25 27 27 27 26 27 27 27 26 28 27 24 23 22 22 21 21 22 22 22 25 28 29 31 32 32 33 32 33 35 33 32 31 29 32 35 35 34 32 37 41 40 40 38 37 37 39 39 36 37 -193 -209 45 51 -209 34 35 37 36 35 35 35 34 32 35 38 34 35 37 37 37 38 40 39 -193 42 -193 42 44 45 44 45 45 44 46 45 46 46 46 47 46 46 47 47 45 48 47 47 46 46 50 50 48 -193 57 56 55 54 54 54 54 52 50 -209 -209 24 24 22 -193 -209 124 -209 63 64 68 0 0 0 0 0
    0 0 0 0 0 0 0 0 0 0 0 0 0 0 0 0 0 0 0 0 0 0 0 0 0 0 0 0 0 0 0 0 0 0 0 0 0 0 0 0 0 0 0 0 0 0 0 0 0 0 0 0 0 0 0 0 0 0 0 0 0 0 0 0 0 0 0 0 0 15 16 14 13 16 13 14 12 13 12 13 17 16 12 17 16 17 17 17 17 17 16 18 17 18 18 19 17 18 17 18 17 17 17 16 16 19 19 20 21 20 20 21 19 20 18 18 18 17 17 20 16 20 18 21 19 20 20 20 17 20 18 20 18 21 17 21 21 21 22 20 21 21 21 21 22 23 21 21 22 20 17 19 21 18 13 18 9 19 25 28 -209 -209 35 -209 27 30 30 29 29 27 27 27 26 26 27 27 28 27 31 30 32 33 30 29 28 28 28 27 28 27 27 30 30 30 30 30 29 29 27 28 25 20 20 20 21 20 21 21 22 22 25 28 29 31 32 32 32 32 33 35 33 32 30 29 32 34 35 34 31 38 41 40 39 38 37 37 39 38 36 36 36 42 48 53 -209 33 33 36 36 35 35 35 34 32 34 37 34 34 36 36 37 37 39 39 -193 42 47 43 44 45 44 45 45 44 46 46 46 46 46 47 46 46 47 47 45 48 47 47 47 46 50 49 46 -193 57 57 56 55 54 55 54 51 50 -209 -209 24 24 22 -193 -209 123 -209 63 64 68 0 0 0 0 0
    0 0 0 0 0 0 0 0 0 0 0 0 0 0 0 0 0 0 0 0 0 0 0 0 0 0 0 0 0 0 0 0 0 0 0 0 0 0 0 0 0 0 0 0 0 0 0 0 0 0 0 0 0 0 0 0 0 0 0 0 0 0 0 0 0 0 0 0 0 16 16 14 13 17 13 14 12 13 12 13 17 17 12 17 16 17 17 17 17 17 16 18 18 18 18 20 18 18 18 18 18 18 18 18 16 20 21 21 23 21 20 22 19 20 18 17 18 17 18 21 18 21 19 21 20 21 21 20 18 20 19 22 21 24 20 23 23 24 24 22 23 22 24 23 25 24 21 21 21 17 14 17 18 18 11 16 10 17 24 29 33 28 31 30 28 32 31 32 31 29 30 29 28 28 28 31 30 31 36 35 36 38 34 32 29 29 29 29 28 28 28 31 32 32 31 30 29 29 27 27 25 20 21 20 21 20 21 21 21 21 24 26 28 29 31 31 31 31 32 34 32 31 29 28 31 33 33 32 30 38 41 40 39 38 37 36 38 36 34 33 33 39 45 54 55 32 33 36 36 35 35 34 34 31 34 37 34 34 36 36 36 37 39 39 -193 42 46 43 44 45 44 45 45 44 46 46 46 46 46 47 46 46 47 47 46 48 48 47 47 46 50 50 45 -193 -209 -193 -193 58 56 57 56 54 53 -209 -209 23 23 23 -193 -209 -193 -209 63 63 67 0 0 0 0 0
    0 0 0 0 0 0 0 0 0 0 0 0 0 0 0 0 0 0 0 0 0 0 0 0 0 0 0 0 0 0 0 0 0 0 0 0 0 0 0 0 0 0 0 0 0 0 0 0 0 0 0 0 0 0 0 0 0 0 0 0 0 0 0 0 0 0 0 0 0 16 16 14 13 17 13 15 12 14 12 13 17 17 12 16 17 16 17 18 18 17 17 19 19 19 19 21 19 19 19 19 20 19 19 20 18 22 23 23 25 23 22 23 21 20 18 18 18 19 20 22 20 22 20 22 21 22 22 21 19 21 21 24 23 25 22 24 24 25 24 23 24 23 26 26 27 26 24 25 25 -193 12 18 21 21 21 -193 -209 23 25 28 29 25 25 25 27 29 29 29 28 28 29 -193 28 27 28 30 30 30 32 33 34 38 33 30 28 29 29 29 28 29 29 33 34 33 32 30 29 29 27 27 24 20 22 20 22 20 21 22 22 22 24 25 27 28 30 30 31 30 32 34 32 30 28 28 30 31 32 30 28 36 41 40 39 37 35 35 36 33 30 30 30 35 -209 56 -209 31 32 36 36 35 35 34 34 31 33 37 34 34 36 35 36 37 39 39 -209 42 46 43 44 44 44 44 45 44 46 45 46 46 47 47 47 46 47 48 46 48 48 47 47 46 50 50 -193 -193 -193 -193 -209 62 58 60 57 55 52 -209 32 -209 -193 -193 -209 -209 -209 -193 64 63 67 0 0 0 0 0
    0 0 0 0 0 0 0 0 0 0 0 0 0 0 0 0 0 0 0 0 0 0 0 0 0 0 0 0 0 0 0 0 0 0 0 0 0 0 0 0 0 0 0 0 0 0 0 0 0 0 0 0 0 0 0 0 0 0 0 0 0 0 0 0 0 0 0 0 0 16 16 14 13 17 13 15 12 14 12 14 17 17 13 17 17 16 18 18 19 19 19 20 20 20 21 22 20 20 21 20 21 21 20 21 20 23 24 24 26 24 23 24 23 21 19 19 20 20 22 24 23 24 23 24 24 25 24 24 22 23 24 26 26 27 25 25 25 25 25 24 25 24 27 27 30 28 28 29 29 28 29 26 26 26 26 25 25 25 26 28 29 26 25 25 26 28 27 27 26 26 28 28 28 28 29 31 31 34 34 35 33 38 32 -193 26 28 27 28 27 28 29 32 34 32 30 29 28 28 26 25 23 19 21 20 22 21 22 23 23 23 25 26 28 29 31 31 31 31 32 33 31 30 28 27 29 29 30 28 27 33 41 38 38 36 36 35 36 33 31 29 29 32 -209 -209 -209 30 30 36 36 35 35 34 34 31 33 37 34 34 36 36 36 37 39 39 -209 41 45 43 43 44 43 44 45 44 46 45 46 46 47 47 47 46 47 48 46 48 48 46 47 45 49 49 44 -193 -193 -193 -193 66 59 63 60 58 -209 -209 38 35 -193 -193 -193 -209 -209 195 64 63 67 0 0 0 0 0
    0 0 0 0 0 0 0 0 0 0 0 0 0 0 0 0 0 0 0 0 0 0 0 0 0 0 0 0 0 0 0 0 0 0 0 0 0 0 0 0 0 0 0 0 0 0 0 0 0 0 0 0 0 0 0 0 0 0 0 0 0 0 0 0 0 0 0 0 0 16 16 14 14 17 13 15 13 14 11 14 17 18 13 17 18 16 18 19 21 20 20 21 21 21 22 22 22 21 22 22 22 22 22 22 22 24 24 24 26 24 24 25 25 22 22 21 22 22 24 27 27 26 26 27 27 28 27 28 26 26 28 29 30 30 27 26 25 26 26 25 26 25 27 28 29 28 -193 28 28 -193 -193 27 26 26 25 24 24 -193 27 29 29 27 24 26 27 28 27 26 25 26 27 27 27 28 29 31 31 33 34 35 33 37 31 27 26 26 26 26 25 27 27 30 32 30 30 28 27 28 26 26 24 20 23 21 23 23 23 24 24 25 27 27 28 30 31 31 31 30 33 32 31 30 27 28 29 30 31 27 28 34 41 38 38 37 37 36 36 33 30 29 27 -209 -209 -209 -209 28 29 33 35 35 35 34 33 31 32 37 35 35 36 36 37 38 39 39 -193 41 44 42 43 44 43 44 44 44 46 45 46 46 47 47 48 46 47 48 46 48 47 46 47 44 47 48 43 -193 0 -193 -193 -209 -193 66 65 -209 -209 37 -193 -193 -193 -193 -193 -209 -209 192 64 63 67 0 0 0 0 0
    0 0 0 0 0 0 0 0 0 0 0 0 0 0 0 0 0 0 0 0 0 0 0 0 0 0 0 0 0 0 0 0 0 0 0 0 0 0 0 0 0 0 0 0 0 0 0 0 0 0 0 0 0 0 0 0 0 0 0 0 0 0 0 0 0 0 0 0 0 16 16 14 14 17 13 15 12 13 11 13 16 18 13 19 20 19 20 21 22 22 21 22 22 23 22 23 23 22 22 23 24 24 23 24 24 25 25 26 26 25 24 25 25 23 24 22 23 -193 -193 29 28 29 29 29 29 30 30 30 29 29 30 30 30 30 27 27 27 27 26 26 27 26 27 29 -193 28 -209 -209 -209 -209 -209 -209 -209 28 27 25 26 27 27 30 29 29 24 28 28 29 27 27 -209 26 26 27 27 28 29 31 31 32 33 34 33 38 -193 27 26 27 27 27 26 27 27 30 31 30 30 28 27 28 26 26 25 22 25 23 24 24 24 25 25 25 27 27 27 29 29 30 30 30 33 32 31 30 28 29 31 32 32 28 31 37 42 39 39 38 38 36 35 30 28 27 24 -209 -209 -209 -209 -193 28 31 36 35 36 33 33 30 32 37 36 35 37 37 38 38 40 40 -193 41 43 42 42 43 43 43 44 43 45 45 46 46 47 47 48 47 47 47 45 47 47 45 46 44 46 47 -193 0 0 0 0 0 -209 -209 -209 -209 -209 -193 48 46 -209 -209 -209 -209 -209 -209 65 63 66 0 0 0 0 0
    0 0 0 0 0 0 0 0 0 0 0 0 0 0 0 0 0 0 0 0 0 0 0 0 0 0 0 0 0 0 0 0 0 0 0 0 0 0 0 0 0 0 0 0 0 0 0 0 0 0 0 0 0 0 0 0 0 0 0 0 0 0 0 0 0 0 0 0 0 17 17 15 14 18 13 15 12 13 10 12 16 18 15 24 25 25 21 23 24 24 24 23 24 24 23 24 24 23 24 24 25 25 25 26 26 26 26 27 27 25 24 25 25 23 24 -193 24 -209 -193 29 29 29 29 29 29 30 30 30 29 30 30 30 30 30 29 29 28 27 27 26 28 27 28 30 30 -209 -209 -209 -209 -193 -209 -193 -209 -193 27 27 28 30 28 29 27 28 24 30 29 30 28 30 -193 28 28 29 27 28 29 31 30 30 31 32 31 36 30 27 26 27 28 28 27 28 29 32 32 31 30 29 28 29 27 27 25 24 26 25 26 26 25 27 27 26 28 27 29 29 29 30 30 30 32 30 31 29 28 31 31 33 33 28 35 38 42 39 39 -193 -193 34 32 28 28 27 23 -209 -209 -209 -193 -193 28 30 36 36 36 33 33 30 32 37 37 36 37 37 38 39 40 40 40 40 42 41 42 42 42 43 43 43 44 45 46 46 48 47 48 47 47 47 45 47 47 45 46 44 46 48 -193 0 0 0 0 0 -209 -209 -209 -209 -193 -193 -193 58 59 59 60 61 61 67 65 62 65 0 0 0 0 0
    0 0 0 0 0 0 0 0 0 0 0 0 0 0 0 0 0 0 0 0 0 0 0 0 0 0 0 0 0 0 0 0 0 0 0 0 0 0 0 0 0 0 0 0 0 0 0 0 0 0 0 0 0 0 0 0 0 0 0 0 0 0 0 0 0 0 0 0 0 18 18 16 16 19 16 18 15 17 12 12 18 21 -193 27 33 37 27 33 31 30 27 26 26 26 24 25 25 24 24 25 25 25 25 25 25 25 25 26 26 24 23 24 24 23 -193 -209 -209 -209 -209 29 29 30 30 30 29 30 30 30 30 29 30 30 30 30 29 30 29 28 28 27 29 28 29 30 -193 -209 -209 -209 -209 -209 -209 -209 -209 -193 26 25 26 27 27 27 24 25 24 28 29 29 28 29 28 29 29 30 28 28 29 29 29 28 28 29 29 31 29 28 26 28 28 29 28 30 30 34 33 31 30 30 29 29 27 27 26 25 27 27 27 28 27 28 29 28 30 28 30 30 29 30 30 31 32 30 31 29 28 31 31 32 29 24 31 32 40 36 36 -193 -193 34 33 29 31 -209 -209 -209 -193 -209 -209 -193 28 29 36 35 35 33 33 30 31 37 37 36 37 38 38 38 40 40 40 39 41 41 41 42 42 42 42 42 44 46 45 46 47 48 49 47 46 47 45 47 46 45 46 44 47 49 45 0 0 0 0 0 -209 -177 -209 62 58 59 65 64 61 62 62 61 61 64 64 62 63 0 0 0 0 0
    0 0 0 0 0 0 0 0 0 0 0 0 0 0 0 0 0 0 0 0 0 0 0 0 0 0 0 0 0 0 0 0 0 0 0 0 0 0 0 0 0 0 0 0 0 0 0 0 0 0 0 0 0 0 0 0 0 0 0 0 0 0 0 0 0 0 0 0 0 20 20 20 20 23 24 24 -193 29 -209 -209 24 29 34 35 -193 -193 -209 40 35 35 29 28 27 27 25 25 25 24 24 24 24 24 23 24 24 23 24 25 25 25 23 24 24 23 -209 603 -193 -209 -193 30 30 31 31 30 30 31 30 30 30 29 30 29 30 30 29 30 29 28 28 27 29 -193 -193 -209 -209 -193 -209 -209 -209 -209 -209 -209 -193 -193 26 26 26 27 26 26 23 24 24 27 29 28 29 30 29 31 30 32 30 29 30 30 29 28 27 28 26 27 27 26 25 27 28 28 27 30 30 33 32 30 30 30 29 30 27 27 26 26 28 28 29 30 28 29 30 30 31 28 31 31 30 30 30 32 32 30 32 29 27 30 30 31 27 21 25 -193 30 -193 32 36 -209 32 31 -193 -209 -209 -209 -209 -193 -209 -209 -193 29 29 36 35 35 33 33 30 31 36 38 36 37 38 38 38 40 40 40 39 41 41 41 42 42 42 42 42 43 46 46 46 48 48 48 47 46 47 45 46 46 45 45 44 46 48 45 -193 0 0 -193 -209 -177 59 56 56 56 58 64 64 62 63 63 62 62 63 64 61 62 0 0 0 0 0
    0 0 0 0 0 0 0 0 0 0 0 0 0 0 0 0 0 0 0 0 0 0 0 0 0 0 0 0 0 0 0 0 0 0 0 0 0 0 0 0 0 0 0 0 0 0 0 0 0 0 0 0 0 0 0 0 0 0 0 0 0 0 0 0 0 0 0 0 0 26 25 29 24 28 34 30 -193 -209 -209 -209 20 30 35 -209 -209 -209 -209 -193 34 36 28 27 26 26 24 24 24 24 24 24 24 24 23 23 23 22 24 24 24 25 23 25 24 24 -209 606 609 -209 31 32 31 32 32 31 30 31 30 29 29 28 29 28 29 29 29 30 29 28 29 28 29 28 29 -209 -209 578 -209 -209 -209 -209 -193 37 33 33 27 26 27 27 25 26 23 24 23 26 27 27 27 29 -193 -193 31 33 32 31 32 33 30 28 27 28 26 28 28 28 27 29 29 28 27 31 30 32 31 30 29 29 29 31 27 28 26 27 29 29 30 31 29 30 30 31 31 29 31 32 30 31 31 32 32 31 32 30 27 31 31 32 -193 16 -209 -193 -209 -209 -209 -209 -209 -209 -209 -209 -209 -209 -209 -193 -193 -209 -209 -193 30 32 37 36 36 33 34 32 31 36 38 35 37 38 38 38 39 40 40 38 41 41 40 42 43 43 42 42 42 49 47 47 49 49 49 47 46 47 45 46 46 45 45 44 46 48 45 -193 -193 -193 -193 54 55 57 56 57 56 57 62 63 61 62 63 62 62 63 64 61 62 0 0 0 0 0
    0 0 0 0 0 0 0 0 0 0 0 0 0 0 0 0 0 0 0 0 0 0 0 0 0 0 0 0 0 0 0 0 0 0 0 0 0 0 0 0 0 0 0 0 0 0 0 0 0 0 0 0 0 0 0 0 0 0 0 0 0 0 0 0 0 0 0 0 0 24 24 25 22 -193 30 29 -209 -209 -209 16 18 -209 -209 -209 -209 -209 -209 -193 31 31 -193 26 26 25 24 24 25 24 24 24 24 24 23 23 23 22 23 24 24 25 23 26 -193 -193 -193 607 -193 -209 33 33 33 33 33 32 31 33 32 30 29 28 28 28 29 29 30 30 30 29 29 28 29 28 29 29 30 -193 -209 -209 -209 39 39 36 31 29 26 26 27 28 26 27 24 25 -193 26 26 -193 -193 -193 -209 -193 31 33 33 32 32 33 30 29 27 28 27 29 29 30 28 30 30 29 28 31 30 32 30 30 29 30 30 32 28 28 26 28 31 31 31 33 31 31 32 33 33 33 33 34 31 31 32 33 32 31 31 30 27 31 32 32 -193 12 -209 -209 -209 -209 -209 -209 -209 -209 -209 -209 -209 -193 66 66 65 -193 -209 -193 29 34 36 35 35 33 34 32 32 35 37 35 36 37 38 38 39 39 40 38 40 41 40 42 43 43 42 43 43 51 49 49 50 50 49 48 47 47 45 46 46 45 45 45 45 48 46 47 53 57 -193 54 55 59 59 59 59 58 63 63 61 62 63 62 62 63 64 62 62 0 0 0 0 0
    0 0 0 0 0 0 0 0 0 0 0 0 0 0 0 0 0 0 0 0 0 0 0 0 0 0 0 0 0 0 0 0 0 0 0 0 0 0 0 0 0 0 0 0 0 0 0 0 0 0 0 0 0 0 0 0 0 0 0 0 0 0 0 0 0 0 0 0 0 24 24 26 23 27 30 33 -193 -209 -209 -193 21 29 33 40 -209 40 40 39 29 29 26 25 25 25 24 23 25 24 24 24 24 24 23 22 22 21 22 23 23 24 23 25 -193 27 31 -193 -193 34 34 33 34 33 33 33 32 34 33 31 30 29 29 28 30 29 30 29 29 28 28 28 28 27 28 28 29 -193 -193 36 37 38 39 36 32 28 27 27 27 28 27 28 25 27 -193 -193 -193 -193 27 30 -209 33 33 34 34 34 34 34 31 30 28 28 28 29 29 29 28 29 29 27 27 30 29 31 30 29 30 30 31 32 29 29 27 29 31 30 31 33 32 32 33 34 34 35 33 35 31 31 32 32 32 31 30 30 27 31 31 31 -193 10 -209 -209 -209 -209 -209 -209 -209 -209 -209 -209 -209 -193 -193 66 65 -209 -209 -193 31 34 35 34 36 34 34 33 33 35 37 35 36 37 38 37 38 39 39 37 40 40 39 41 43 44 43 43 44 52 51 50 51 51 49 49 47 47 45 45 46 45 45 45 45 49 48 48 53 56 55 55 56 59 59 60 60 60 64 64 62 62 64 62 63 63 65 62 62 0 0 0 0 0
    0 0 0 0 0 0 0 0 0 0 0 0 0 0 0 0 0 0 0 0 0 0 0 0 0 0 0 0 0 0 0 0 0 0 0 0 0 0 0 0 0 0 0 0 0 0 0 0 0 0 0 0 0 0 0 0 0 0 0 0 0 0 0 0 0 0 0 0 0 25 25 26 23 27 29 31 33 36 -209 26 24 34 31 37 38 38 39 36 29 29 25 25 25 25 24 23 24 24 24 24 24 24 23 22 21 20 21 22 23 23 23 24 27 28 31 34 31 32 33 32 33 33 32 32 32 33 33 31 31 29 29 29 30 29 29 29 29 27 28 27 27 27 28 28 29 -193 -193 35 -193 38 39 38 34 29 28 28 27 28 27 26 24 -193 -209 -209 -209 -209 26 29 30 33 33 33 35 35 34 33 30 29 28 28 28 28 28 30 29 29 29 27 28 30 30 31 29 29 30 30 31 31 28 28 27 30 31 30 30 33 31 31 34 34 34 35 33 35 31 32 32 32 32 32 30 31 27 33 33 32 -193 -193 -209 -193 -209 -209 -209 -209 -209 -209 -209 -209 -209 -209 -209 -209 -209 -209 -193 34 33 34 35 35 36 34 35 34 34 35 38 35 36 37 37 37 38 39 39 37 40 40 38 41 43 43 41 43 44 53 52 50 51 51 49 49 47 47 45 45 46 46 45 46 46 51 50 49 54 57 59 57 59 61 60 61 61 61 64 64 62 62 64 63 63 64 65 62 62 0 0 0 0 0
    0 0 0 0 0 0 0 0 0 0 0 0 0 0 0 0 0 0 0 0 0 0 0 0 0 0 0 0 0 0 0 0 0 0 0 0 0 0 0 0 0 0 0 0 0 0 0 0 0 0 0 0 0 0 0 0 0 0 0 0 0 0 0 0 0 0 0 0 0 25 25 26 24 27 28 30 32 34 31 31 29 36 33 38 37 37 38 34 30 29 25 25 25 25 24 22 24 22 22 24 23 23 22 22 21 20 21 22 23 24 24 24 27 29 32 33 31 30 31 30 32 31 31 30 31 32 32 30 31 29 29 29 30 29 29 29 28 27 27 27 27 27 -193 28 29 33 35 36 38 38 39 38 35 29 28 28 27 27 26 26 -193 -209 -209 -193 -193 -193 -193 28 29 32 32 33 35 36 35 34 31 30 29 28 28 29 29 30 31 31 30 28 29 32 31 32 30 29 30 31 31 31 28 28 27 30 31 31 30 33 31 31 34 34 33 35 33 35 31 32 32 32 32 32 30 31 27 34 34 31 -193 -193 -209 -209 -193 -209 -209 -209 -209 -209 -209 -209 -209 -209 -209 -209 25 27 30 34 35 34 35 35 36 35 35 34 35 35 38 35 36 37 37 37 37 38 38 36 39 39 37 39 42 42 39 41 42 52 52 50 50 51 49 49 47 47 46 45 46 46 45 47 46 51 51 50 54 57 59 58 60 61 60 61 61 61 64 65 62 63 65 64 64 64 65 63 62 0 0 0 0 0
    0 0 0 0 0 0 0 0 0 0 0 0 0 0 0 0 0 0 0 0 0 0 0 0 0 0 0 0 0 0 0 0 0 0 0 0 0 0 0 0 0 0 0 0 0 0 0 0 0 0 0 0 0 0 0 0 0 0 0 0 0 0 0 0 0 0 0 0 0 25 25 26 24 27 27 29 31 32 31 33 32 37 33 37 35 36 37 31 29 29 25 25 25 24 24 21 23 22 21 23 23 23 23 22 21 20 22 22 24 -193 26 25 30 31 34 33 31 31 31 30 33 32 31 30 31 33 34 33 33 30 31 31 32 31 30 29 28 27 27 27 27 27 28 28 30 33 35 35 37 38 39 38 34 28 27 28 26 27 26 26 -193 -209 -209 24 24 25 26 28 29 32 33 34 36 36 35 34 33 31 31 30 29 30 29 30 30 29 29 27 28 31 31 31 30 29 30 31 32 32 28 28 27 32 33 32 30 34 32 32 34 34 32 35 32 35 31 32 32 32 31 32 30 31 27 33 33 29 -193 -209 -209 -209 -193 -209 -209 -193 -209 -193 -209 -209 -209 -209 -209 -209 -193 23 -193 -193 36 35 35 35 37 36 36 35 35 36 38 36 36 37 37 36 37 38 37 36 39 39 36 38 41 42 38 41 42 52 53 50 50 52 49 50 47 47 47 46 47 47 46 48 46 51 52 51 54 57 59 59 60 61 61 61 62 61 64 65 62 63 66 64 64 64 65 63 62 0 0 0 0 0
    0 0 0 0 0 0 0 0 0 0 0 0 0 0 0 0 0 0 0 0 0 0 0 0 0 0 0 0 0 0 0 0 0 0 0 0 0 0 0 0 0 0 0 0 0 0 0 0 0 0 0 0 0 0 0 0 0 0 0 0 0 0 0 0 0 0 0 0 0 25 25 26 25 28 26 29 31 32 30 31 32 37 29 32 30 31 36 30 29 28 24 25 25 24 24 20 22 21 20 23 22 22 22 21 21 20 22 22 -209 -193 28 28 32 32 34 33 32 31 32 32 34 34 33 32 33 34 35 34 32 30 30 32 32 30 29 29 27 26 27 27 27 27 28 28 29 32 33 34 36 37 37 36 32 27 26 27 25 26 25 26 -193 -193 -209 24 23 24 25 27 28 31 31 32 35 36 35 34 33 32 32 31 29 30 30 31 31 27 28 26 27 31 30 30 29 28 30 32 32 32 28 29 29 34 35 33 32 35 34 34 34 35 31 36 32 35 31 32 32 32 31 32 29 32 26 33 33 -193 8 -209 -209 -209 -193 27 -193 29 -193 29 -209 -193 -193 -209 -209 -209 -193 -193 -209 -209 37 35 35 36 37 36 36 35 36 36 37 36 36 37 37 36 37 37 37 35 39 38 36 38 41 41 38 42 43 52 53 50 50 51 49 50 47 47 48 46 47 47 46 48 47 52 52 51 55 58 59 60 60 61 60 61 61 60 63 64 62 62 65 64 64 64 65 63 62 0 0 0 0 0
    0 0 0 0 0 0 0 0 0 0 0 0 0 0 0 0 0 0 0 0 0 0 0 0 0 0 0 0 0 0 0 0 0 0 0 0 0 0 0 0 0 0 0 0 0 0 0 0 0 0 0 0 0 0 0 0 0 0 0 0 0 0 0 0 0 0 0 0 0 25 25 25 25 28 26 29 32 34 -209 32 34 36 26 26 25 27 35 29 28 27 24 25 25 24 24 20 22 21 19 24 22 22 22 20 21 19 -193 -193 -209 -209 -209 -209 32 32 34 33 34 33 34 34 35 35 33 32 33 34 34 33 31 30 29 31 32 29 28 27 25 24 25 25 25 26 27 27 28 30 31 32 32 33 31 31 29 27 26 26 24 26 25 26 24 25 24 24 23 25 24 29 29 31 32 32 36 37 35 34 33 32 34 32 31 32 30 33 31 30 29 27 29 31 30 30 29 29 30 31 32 31 28 28 29 35 35 32 32 35 34 34 34 35 30 36 31 35 31 32 33 32 31 32 29 32 27 34 34 27 -209 50 -193 -209 -209 -193 -193 29 -193 27 -209 -193 -193 -193 -209 -209 -193 19 -209 -209 38 36 35 36 38 36 36 35 36 36 37 36 36 36 37 36 37 37 36 35 38 38 35 36 41 41 38 42 43 51 53 49 49 51 48 50 47 48 48 46 48 48 47 49 48 52 53 52 56 58 59 59 60 61 60 60 60 60 61 63 61 62 65 63 64 64 65 63 62 0 0 0 0 0
    0 0 0 0 0 0 0 0 0 0 0 0 0 0 0 0 0 0 0 0 0 0 0 0 0 0 0 0 0 0 0 0 0 0 0 0 0 0 0 0 0 0 0 0 0 0 0 0 0 0 0 0 0 0 0 0 0 0 0 0 0 0 0 0 0 0 0 0 0 26 25 25 25 28 26 30 32 32 30 35 36 33 23 23 23 24 28 27 26 26 24 24 25 24 24 21 22 21 -193 25 24 23 23 21 21 -193 -193 -209 -209 -209 -209 -209 -209 -209 -193 -193 -193 33 34 35 35 34 33 31 32 32 33 32 30 30 29 31 33 29 28 27 25 24 25 25 25 26 27 27 27 28 29 31 29 29 27 27 26 26 25 25 22 25 24 26 23 25 23 23 23 25 25 30 29 31 32 33 36 38 36 35 34 34 36 34 34 34 33 36 33 31 30 28 30 31 31 31 29 29 30 31 32 31 28 29 29 35 35 32 30 34 34 33 33 34 30 36 31 35 31 31 33 32 31 32 29 32 27 34 35 27 41 49 49 51 30 -209 -193 -193 -209 28 -209 -209 -193 -209 -209 -209 18 16 21 -209 38 36 34 35 38 36 36 35 36 36 37 36 36 36 37 36 37 37 36 35 37 37 34 35 40 40 37 42 43 49 53 48 48 50 48 49 47 48 49 47 49 49 48 50 49 53 53 53 56 58 59 59 60 61 60 60 61 61 62 64 62 62 66 64 65 65 66 64 64 0 0 0 0 0
    0 0 0 0 0 0 0 0 0 0 0 0 0 0 0 0 0 0 0 0 0 0 0 0 0 0 0 0 0 0 0 0 0 0 0 0 0 0 0 0 0 0 0 0 0 0 0 0 0 0 0 0 0 0 0 0 0 0 0 0 0 0 0 0 0 0 0 0 0 27 25 24 25 27 25 28 28 -193 26 32 32 26 22 22 22 23 27 26 26 26 24 24 25 24 24 21 22 22 20 25 24 23 24 23 22 20 21 -193 -209 -209 -209 -209 -209 -193 34 -193 -193 32 33 34 33 32 31 29 30 29 30 30 28 28 28 31 32 29 28 27 26 25 25 25 26 27 27 27 27 28 28 30 28 29 26 26 26 26 26 25 22 25 23 26 24 25 24 24 24 26 26 31 30 31 32 33 36 37 35 34 34 34 37 35 35 35 35 37 34 32 32 29 31 32 32 31 29 30 31 31 33 30 29 29 30 35 34 30 28 32 33 32 32 34 30 35 31 34 31 31 33 31 31 31 29 32 27 34 34 27 41 47 46 49 35 -193 -193 -209 -209 -209 -209 -209 -193 -209 -193 -209 -193 20 21 -209 -209 36 33 35 38 35 36 35 36 36 37 37 36 36 38 36 37 37 36 35 37 37 34 34 39 39 36 41 42 45 53 47 46 49 47 49 47 48 49 47 49 49 48 50 50 53 54 53 56 57 58 59 60 61 60 60 62 62 63 66 63 63 67 66 67 67 68 67 67 0 0 0 0 0
    0 0 0 0 0 0 0 0 0 0 0 0 0 0 0 0 0 0 0 0 0 0 0 0 0 0 0 0 0 0 0 0 0 0 0 0 0 0 0 0 0 0 0 0 0 0 0 0 0 0 0 0 0 0 0 0 0 0 0 0 0 0 0 0 0 0 0 0 0 28 26 25 25 27 25 27 -209 -209 -209 -209 -193 -209 20 20 21 23 25 25 25 26 25 25 26 25 25 23 23 23 20 25 24 23 24 24 22 20 22 -193 -209 -209 -209 -193 -209 -193 33 -193 -193 29 30 32 31 29 28 27 28 27 28 28 26 28 28 31 32 28 28 27 24 24 24 24 25 26 27 27 27 28 29 31 29 31 27 28 27 27 27 26 24 26 23 25 23 24 24 24 25 29 31 33 35 33 34 34 37 38 36 34 34 34 37 34 34 33 33 36 33 32 32 29 32 32 32 30 29 30 31 30 32 29 28 29 30 34 34 30 29 32 32 31 31 33 29 34 31 34 31 31 33 31 31 32 30 31 27 34 35 27 41 45 43 44 38 37 37 -193 29 35 -209 -209 -193 -209 -209 -209 -209 -209 20 -209 -209 35 34 36 38 36 36 35 36 37 37 37 37 36 38 37 37 37 36 36 37 37 34 33 39 39 36 40 41 42 51 46 45 48 46 48 47 47 49 47 49 49 48 50 50 53 54 53 55 57 58 58 60 61 60 60 61 63 64 67 65 64 68 68 69 69 69 70 70 0 0 0 0 0
    0 0 0 0 0 0 0 0 0 0 0 0 0 0 0 0 0 0 0 0 0 0 0 0 0 0 0 0 0 0 0 0 0 0 0 0 0 0 0 0 0 0 0 0 0 0 0 0 0 0 0 0 0 0 0 0 0 0 0 0 0 0 0 0 0 0 0 0 0 29 26 25 25 25 22 23 24 23 24 -209 -209 23 21 21 22 24 26 26 26 27 25 26 27 26 26 24 24 23 20 25 24 24 25 25 23 22 -193 -209 -209 -209 -209 -209 -209 -209 -209 -209 -193 27 27 30 27 26 26 25 26 25 26 26 25 27 28 30 32 29 29 29 26 26 25 26 26 28 28 29 28 29 30 33 30 33 29 29 29 29 28 27 25 26 18 23 16 22 22 24 25 29 31 33 36 32 33 33 37 37 34 32 31 30 33 29 28 28 28 33 30 29 31 29 32 33 32 31 29 30 31 30 31 28 28 28 30 35 35 32 29 33 33 33 32 33 29 33 32 34 31 31 33 31 31 32 30 31 28 34 35 28 41 42 40 40 36 35 35 32 -193 -209 -209 -209 -193 -209 -209 -209 -209 -193 -193 -209 -209 36 33 35 38 35 36 35 35 37 37 37 37 36 38 37 37 38 36 36 36 37 35 33 38 38 36 40 41 43 51 46 46 48 46 48 46 47 48 46 49 49 48 50 50 53 54 54 56 58 59 59 61 62 61 60 62 64 65 68 67 67 69 69 70 71 71 72 72 0 0 0 0 0
    0 0 0 0 0 0 0 0 0 0 0 0 0 0 0 0 0 0 0 0 0 0 0 0 0 0 0 0 0 0 0 0 0 0 0 0 0 0 0 0 0 0 0 0 0 0 0 0 0 0 0 0 0 0 0 0 0 0 0 0 0 0 0 0 0 0 0 0 0 27 25 24 25 23 19 19 20 21 25 22 24 23 21 21 23 24 25 25 25 27 25 26 27 26 26 25 25 24 20 24 24 23 24 24 24 22 25 -209 -193 -193 -193 -209 -193 -209 -209 -209 -209 25 25 27 24 24 24 24 24 24 25 25 20 26 27 29 33 29 29 30 27 27 27 28 27 30 29 30 28 29 29 33 30 34 30 30 30 30 30 29 26 27 12 24 12 22 23 25 27 30 30 32 33 31 31 31 36 35 30 29 28 27 28 26 25 25 26 29 27 28 31 29 32 33 32 31 29 31 31 30 32 29 28 30 32 36 35 31 29 33 31 32 30 32 28 32 32 34 31 31 33 31 31 32 31 31 28 34 34 27 38 39 38 38 35 35 35 30 -193 -209 -209 -209 -193 -209 -209 -209 -209 -209 -209 -209 -209 37 34 35 38 35 36 35 35 37 36 37 37 36 38 37 38 38 36 36 36 36 34 32 38 38 36 41 43 49 52 49 47 49 47 48 47 48 48 47 48 49 48 50 50 53 54 55 57 59 60 61 61 62 61 61 62 64 66 69 68 69 70 71 72 73 73 73 74 0 0 0 0 0
    0 0 0 0 0 0 0 0 0 0 0 0 0 0 0 0 0 0 0 0 0 0 0 0 0 0 0 0 0 0 0 0 0 0 0 0 0 0 0 0 0 0 0 0 0 0 0 0 0 0 0 0 0 0 0 0 0 0 0 0 0 0 0 0 0 0 0 0 0 26 24 23 23 20 16 15 18 -209 -209 -209 24 23 21 21 23 23 24 24 24 26 25 27 27 26 26 25 26 26 21 24 24 23 24 25 24 23 26 -209 29 34 -193 -193 28 25 24 -209 -209 24 23 26 23 23 23 23 23 23 23 24 17 26 26 27 29 28 28 30 28 29 27 29 28 30 29 29 26 26 27 31 29 34 30 29 30 31 31 29 -193 -193 16 24 18 21 22 25 27 29 29 31 30 30 30 29 34 32 28 28 26 26 27 25 24 23 24 26 25 26 30 28 31 32 32 31 30 31 32 29 32 29 29 32 34 36 37 32 29 32 31 32 -193 31 28 32 34 35 31 31 33 31 31 32 31 30 28 33 33 27 34 35 34 36 33 34 35 -209 -193 -209 -209 -209 -209 -209 -209 -209 -193 -209 -209 -193 -209 -209 34 35 38 35 35 35 35 37 36 38 37 36 38 38 38 38 36 37 36 36 35 33 38 39 37 41 48 51 52 51 48 49 48 48 47 48 48 47 48 50 49 50 51 53 54 55 58 60 61 63 63 64 63 63 64 66 68 70 69 70 71 73 74 74 74 76 76 0 0 0 0 0
    0 0 0 0 0 0 0 0 0 0 0 0 0 0 0 0 0 0 0 0 0 0 0 0 0 0 0 0 0 0 0 0 0 0 0 0 0 0 0 0 0 0 0 0 0 0 0 0 0 0 0 0 0 0 0 0 0 0 0 0 0 0 0 0 0 0 0 0 0 27 25 24 23 22 18 17 20 -209 -209 -209 24 23 20 21 22 23 24 23 24 26 25 27 28 27 27 26 27 27 22 24 24 24 24 25 25 25 26 25 27 32 33 -193 28 26 24 25 24 23 23 24 22 22 22 22 21 22 23 23 17 25 25 27 28 27 27 29 28 28 26 28 27 28 28 27 24 24 25 30 28 32 29 29 30 31 31 -193 -177 -193 18 24 18 21 22 25 27 27 27 29 28 29 -193 27 30 32 28 28 26 25 26 24 24 23 23 25 24 25 30 28 31 32 32 31 30 32 32 29 32 29 30 32 33 36 36 31 29 31 30 -209 -193 -193 27 31 35 35 31 31 33 32 31 32 31 30 28 33 33 27 32 32 31 34 32 34 36 -209 -209 -209 -209 -209 -209 -193 -193 -209 175 -209 -193 -193 -209 -209 34 34 38 35 35 35 35 37 36 38 37 36 39 38 38 38 36 37 35 37 36 34 38 39 38 41 50 50 51 51 48 49 49 48 47 47 48 47 47 50 50 51 52 54 55 56 59 61 63 65 64 65 65 65 66 68 69 71 70 71 73 74 75 75 76 77 77 0 0 0 0 0
    0 0 0 0 0 0 0 0 0 0 0 0 0 0 0 0 0 0 0 0 0 0 0 0 0 0 0 0 0 0 0 0 0 0 0 0 0 0 0 0 0 0 0 0 0 0 0 0 0 0 0 0 0 0 0 0 0 0 0 0 0 0 0 0 0 0 0 0 0 28 26 25 24 24 22 22 23 -209 -209 26 25 24 21 21 23 23 24 22 23 26 25 27 28 27 27 25 27 27 22 23 23 23 24 25 25 25 26 26 27 30 30 -193 -193 -193 -193 -193 -193 23 22 23 21 21 21 21 20 21 21 21 15 25 23 26 27 26 26 28 27 26 24 26 25 26 26 26 23 24 24 30 28 32 29 29 30 31 -193 -177 -177 -193 22 26 21 22 23 25 27 27 27 28 27 28 29 27 31 33 28 29 26 26 26 24 24 23 23 24 23 25 31 28 31 32 32 32 31 32 32 28 32 30 31 32 33 35 34 32 29 31 29 -209 -209 -193 28 30 36 35 31 31 34 32 32 32 32 30 28 33 33 27 32 32 32 34 33 35 37 -209 -209 -209 -209 -209 -209 -177 -209 -209 -193 -209 222 224 -209 -193 33 34 37 35 34 34 35 36 35 38 37 36 39 38 38 38 37 37 36 37 36 34 38 39 39 41 50 49 51 52 48 48 48 48 47 47 48 47 46 49 50 50 51 54 54 56 60 62 63 66 66 66 66 68 68 69 70 71 71 72 73 74 74 76 76 77 78 0 0 0 0 0</data></disparity>
</opencv_storage>
