<?xml version="1.0"?>
<opencv_storage>
<gps_time_stamp>278702</gps_time_stamp>
<gps_x>-1.3980862617492676e+001</gps_x>
<gps_y>1.1271656036376953e+001</gps_y>
<gps_z>-2.2572426795959473e+000</gps_z>
<image_time_stamp>269558</image_time_stamp>
<disparity type_id="opencv-matrix">
  <rows>93</rows>
  <cols>320</cols>
  <dt>s</dt>
  <data>
    0 0 0 0 0 0 0 0 0 0 0 0 0 0 0 0 0 0 0 0 0 0 0 0 0 0 0 0 0 0 0 0 0 0 0 0 0 0 0 0 0 0 0 0 0 0 0 0 0 0 0 0 0 0 0 0 0 0 0 0 0 0 0 0 0 0 0 0 0 -193 23 25 22 21 22 22 24 24 25 25 27 27 28 28 28 27 27 28 28 25 25 -193 -193 26 27 27 27 -193 27 27 -193 26 28 28 31 32 35 35 34 37 35 32 30 30 31 29 29 27 27 28 28 28 28 27 27 27 26 26 25 24 25 24 23 24 23 -209 -209 27 27 26 26 26 25 26 26 27 26 27 29 29 30 32 31 31 31 32 34 34 33 32 31 31 31 31 31 29 28 28 28 29 29 30 30 28 27 26 27 27 27 27 27 28 31 31 31 34 32 33 32 32 32 32 32 32 29 31 28 30 30 30 27 29 31 32 32 41 41 42 39 36 38 34 34 34 34 33 33 31 32 27 33 33 31 29 -209 40 -209 34 34 34 36 37 37 37 -209 39 -193 -209 -209 -209 -209 -193 -209 36 30 34 36 35 36 36 36 36 34 36 37 37 38 38 39 39 39 40 40 40 41 41 41 41 42 42 42 42 43 42 41 44 51 47 47 51 49 51 49 49 50 48 50 49 48 50 46 50 51 47 49 47 50 47 51 54 52 53 57 67 -209 68 71 69 71 68 66 67 67 66 65 0 0 0 0 0
    0 0 0 0 0 0 0 0 0 0 0 0 0 0 0 0 0 0 0 0 0 0 0 0 0 0 0 0 0 0 0 0 0 0 0 0 0 0 0 0 0 0 0 0 0 0 0 0 0 0 0 0 0 0 0 0 0 0 0 0 0 0 0 0 0 0 0 0 0 27 26 25 22 21 23 23 24 24 24 24 27 27 28 27 27 27 27 27 28 24 24 -193 -193 26 27 27 27 27 28 27 28 28 30 30 -193 34 35 35 34 38 -193 -209 28 29 30 29 28 27 26 27 27 27 27 26 26 26 25 26 25 23 25 24 23 26 -193 -193 26 28 28 27 27 27 25 26 26 26 26 26 28 29 29 31 30 30 30 31 33 33 32 32 31 32 32 32 31 30 29 29 29 29 30 31 30 28 28 27 28 28 28 27 28 28 31 31 31 34 32 33 32 32 32 33 33 33 30 31 29 31 31 30 28 30 31 31 34 40 40 40 39 36 38 34 34 34 34 33 33 31 32 27 32 31 29 27 -193 34 35 31 32 32 36 37 37 38 -209 -193 -209 -209 -209 -209 -209 -193 28 36 32 35 36 36 37 36 37 36 35 37 38 37 38 38 39 39 39 40 40 40 40 41 41 41 41 42 41 42 43 42 41 44 51 47 47 51 49 51 49 49 49 47 50 49 47 49 46 49 51 47 50 48 52 50 52 54 53 55 60 61 65 66 69 69 70 68 65 67 68 66 65 0 0 0 0 0
    0 0 0 0 0 0 0 0 0 0 0 0 0 0 0 0 0 0 0 0 0 0 0 0 0 0 0 0 0 0 0 0 0 0 0 0 0 0 0 0 0 0 0 0 0 0 0 0 0 0 0 0 0 0 0 0 0 0 0 0 0 0 0 0 0 0 0 0 0 33 29 26 23 22 23 23 24 24 24 24 27 28 28 28 27 27 27 27 28 24 25 25 26 26 28 28 28 28 29 28 28 28 30 -193 -193 34 35 -193 33 -193 -209 -209 28 28 30 29 29 28 28 28 27 28 27 26 25 25 24 25 24 23 24 24 24 27 -193 -193 27 28 28 27 27 28 26 27 26 27 27 28 30 31 30 31 30 30 30 31 33 32 31 32 31 33 33 33 33 31 30 30 30 30 30 31 30 29 28 27 28 28 28 28 29 28 31 31 31 34 33 33 32 31 33 33 33 33 30 32 30 33 32 31 29 32 33 34 37 41 40 38 39 35 38 34 34 34 34 33 33 31 33 26 31 31 27 26 -209 32 34 32 33 33 36 37 38 39 -193 -193 -193 -209 -209 -209 -209 -209 -193 37 34 35 36 36 37 37 37 36 36 37 38 38 38 38 39 39 39 40 39 40 40 41 41 41 42 43 43 42 44 44 43 46 52 47 48 52 49 50 49 49 49 47 50 49 47 49 47 49 51 48 50 50 53 52 54 56 55 59 62 62 64 65 68 67 69 68 65 66 68 66 66 0 0 0 0 0
    0 0 0 0 0 0 0 0 0 0 0 0 0 0 0 0 0 0 0 0 0 0 0 0 0 0 0 0 0 0 0 0 0 0 0 0 0 0 0 0 0 0 0 0 0 0 0 0 0 0 0 0 0 0 0 0 0 0 0 0 0 0 0 0 0 0 0 0 0 31 26 26 23 22 23 24 25 25 25 25 27 28 28 28 27 27 27 28 28 24 25 25 26 26 28 28 28 28 28 27 28 27 29 28 32 31 32 33 34 37 35 35 30 30 31 31 30 29 29 29 28 28 28 27 26 26 26 25 24 24 25 24 24 27 27 29 -193 29 29 28 29 30 28 28 27 27 28 28 30 30 28 29 29 30 30 30 31 31 30 32 33 35 36 35 35 34 32 31 32 30 30 30 29 28 27 27 27 27 28 28 31 29 32 32 32 34 33 33 32 31 33 32 32 33 30 31 30 33 31 31 29 31 31 32 35 38 38 37 39 35 38 34 34 34 34 33 33 31 33 27 32 33 27 27 -209 36 36 35 33 32 35 36 37 39 -193 -193 -193 -209 -209 -209 -209 -209 -209 37 35 35 36 36 37 37 37 36 36 37 38 38 38 38 39 39 39 40 39 40 40 40 41 41 42 43 42 42 44 44 43 46 53 48 48 52 49 50 50 49 49 47 50 49 47 50 48 50 52 50 51 51 55 55 57 58 57 63 64 65 66 67 68 67 69 68 65 66 68 67 66 0 0 0 0 0
    0 0 0 0 0 0 0 0 0 0 0 0 0 0 0 0 0 0 0 0 0 0 0 0 0 0 0 0 0 0 0 0 0 0 0 0 0 0 0 0 0 0 0 0 0 0 0 0 0 0 0 0 0 0 0 0 0 0 0 0 0 0 0 0 0 0 0 0 0 -209 22 23 21 20 22 23 24 24 24 24 27 28 28 28 27 27 27 28 29 25 25 26 26 27 28 28 28 28 28 27 27 25 27 26 29 27 28 31 35 35 34 35 32 30 32 31 31 29 30 30 28 28 28 27 27 25 25 24 23 23 24 23 23 26 27 29 -193 30 30 29 30 31 29 30 28 29 28 28 29 29 28 29 28 29 29 29 31 31 30 31 33 35 36 35 35 34 33 32 32 30 30 30 29 29 27 27 27 26 29 28 30 30 32 32 32 34 33 32 32 31 32 32 32 32 30 31 31 34 32 31 28 31 30 31 33 36 37 35 39 34 37 34 34 35 34 33 33 30 33 27 33 33 27 30 -209 37 37 36 32 30 32 34 35 38 -209 -209 -193 -209 -209 -209 -209 -209 37 38 37 36 36 37 38 37 37 36 36 37 38 38 38 38 39 39 39 39 39 40 40 40 40 41 42 43 42 42 44 -193 -193 46 54 48 48 52 49 50 50 49 50 48 50 50 48 50 49 50 52 51 52 54 57 59 61 60 61 65 65 66 67 67 68 67 69 68 65 67 68 67 67 0 0 0 0 0
    0 0 0 0 0 0 0 0 0 0 0 0 0 0 0 0 0 0 0 0 0 0 0 0 0 0 0 0 0 0 0 0 0 0 0 0 0 0 0 0 0 0 0 0 0 0 0 0 0 0 0 0 0 0 0 0 0 0 0 0 0 0 0 0 0 0 0 0 0 -209 22 23 22 22 23 24 24 24 24 24 27 28 28 28 27 27 27 28 29 25 25 26 26 27 29 28 28 27 28 26 26 24 26 24 26 -193 24 27 32 32 32 33 32 30 32 31 31 30 31 31 29 27 28 26 27 24 24 23 22 23 23 23 23 26 25 28 -193 -193 29 29 30 30 28 30 29 29 29 28 29 29 29 29 27 28 29 28 30 30 29 30 34 35 36 36 36 36 36 35 34 32 32 32 31 31 28 28 27 26 30 28 30 30 31 32 32 33 33 32 32 31 31 32 32 32 30 30 32 34 32 31 29 32 31 33 34 36 36 35 39 34 37 34 34 35 34 33 33 30 33 27 33 33 26 31 35 34 35 31 28 27 30 32 33 35 -209 -209 -209 -209 -209 -209 -209 -209 38 38 38 36 36 37 38 37 37 36 36 37 38 38 38 37 38 38 39 39 39 40 40 40 41 41 42 43 42 42 44 -193 -193 45 54 48 48 52 49 50 50 49 50 48 50 50 48 50 50 51 53 52 54 56 58 61 63 62 62 66 65 66 67 67 67 68 69 69 65 67 69 68 68 0 0 0 0 0
    0 0 0 0 0 0 0 0 0 0 0 0 0 0 0 0 0 0 0 0 0 0 0 0 0 0 0 0 0 0 0 0 0 0 0 0 0 0 0 0 0 0 0 0 0 0 0 0 0 0 0 0 0 0 0 0 0 0 0 0 0 0 0 0 0 0 0 0 0 -193 23 23 23 23 24 25 25 25 25 25 28 28 29 29 28 28 28 28 29 25 25 25 26 27 28 28 28 27 28 27 26 25 26 25 27 -193 -193 25 -193 -193 -193 -193 32 30 32 31 31 30 32 31 29 27 28 25 27 25 24 24 22 23 24 24 25 27 27 29 -193 -193 -193 29 30 29 27 31 28 29 28 28 29 28 29 30 27 28 29 28 30 30 30 30 35 35 37 37 37 37 37 36 36 33 34 33 32 33 29 29 29 27 34 30 32 32 31 32 32 33 33 31 32 31 30 32 31 31 30 29 32 33 32 30 28 31 30 31 33 34 35 34 39 34 37 34 34 35 34 33 33 30 33 28 33 31 26 29 29 29 30 28 26 25 28 29 31 -193 -209 -209 -209 -193 -209 40 -193 43 39 39 38 36 36 37 38 37 37 36 36 37 37 38 37 37 38 38 39 39 38 39 40 40 40 41 42 42 42 42 44 -209 667 -193 55 48 49 52 50 51 51 50 51 49 51 51 49 51 51 52 54 53 55 57 59 62 63 62 63 66 65 67 67 67 67 68 69 69 65 67 69 68 68 0 0 0 0 0
    0 0 0 0 0 0 0 0 0 0 0 0 0 0 0 0 0 0 0 0 0 0 0 0 0 0 0 0 0 0 0 0 0 0 0 0 0 0 0 0 0 0 0 0 0 0 0 0 0 0 0 0 0 0 0 0 0 0 0 0 0 0 0 0 0 0 0 0 0 27 24 24 25 24 25 26 26 26 26 27 30 28 30 29 28 28 28 29 29 25 25 25 26 27 28 28 28 28 28 27 27 26 27 26 27 26 -209 -193 -209 -193 -193 -193 -193 -193 -193 -193 -193 30 33 33 29 27 27 24 26 25 26 25 23 25 25 25 27 28 29 30 -193 -193 -193 31 34 32 28 33 29 30 30 29 30 28 29 29 26 27 28 27 29 29 29 30 34 34 36 36 36 36 38 36 36 32 34 34 33 35 30 30 31 28 36 30 32 33 30 31 32 31 32 30 31 30 29 32 31 30 29 29 32 32 31 29 28 30 30 30 32 32 33 31 38 34 36 34 34 34 33 33 34 30 33 28 33 30 25 28 -193 26 -209 -209 25 23 26 28 -193 -209 -193 -209 -209 -209 -209 -209 -209 -193 -209 -209 39 36 36 37 38 37 37 36 37 38 38 38 37 37 -193 -193 39 39 38 39 39 40 40 40 41 42 42 41 -193 668 -193 -209 60 50 50 53 50 51 51 50 51 49 51 51 49 52 52 53 54 54 56 58 59 61 62 62 64 67 65 67 67 67 67 68 68 69 65 68 69 68 69 0 0 0 0 0
    0 0 0 0 0 0 0 0 0 0 0 0 0 0 0 0 0 0 0 0 0 0 0 0 0 0 0 0 0 0 0 0 0 0 0 0 0 0 0 0 0 0 0 0 0 0 0 0 0 0 0 0 0 0 0 0 0 0 0 0 0 0 0 0 0 0 0 0 0 28 25 24 26 -177 -177 -177 27 27 27 27 30 29 30 29 29 29 28 29 29 25 25 26 27 27 28 28 28 28 28 28 27 27 27 26 27 26 24 24 -209 -209 -193 -177 -177 671 673 672 672 -193 -193 33 29 26 27 24 26 24 25 25 24 26 25 25 27 28 29 31 -193 32 -193 34 37 36 30 34 30 30 31 29 30 28 29 29 26 27 28 26 28 28 28 28 31 31 34 35 35 35 38 36 37 32 34 34 32 33 30 28 29 27 34 29 31 33 29 29 31 30 31 28 29 28 27 29 29 27 28 27 30 31 32 29 29 31 31 32 33 32 32 30 38 34 36 34 34 34 33 33 34 30 32 28 33 30 26 29 27 28 31 29 26 24 26 -209 -209 -209 -193 -193 -193 0 -193 -209 -209 -193 -209 -209 40 36 35 37 38 37 37 36 36 38 38 38 38 -193 -193 -193 39 39 38 40 39 40 40 39 41 42 43 41 -209 668 668 -209 70 51 51 53 50 51 51 50 51 50 52 52 50 53 53 53 55 54 57 58 59 61 62 63 65 68 66 67 67 67 67 67 68 68 65 68 69 69 70 0 0 0 0 0
    0 0 0 0 0 0 0 0 0 0 0 0 0 0 0 0 0 0 0 0 0 0 0 0 0 0 0 0 0 0 0 0 0 0 0 0 0 0 0 0 0 0 0 0 0 0 0 0 0 0 0 0 0 0 0 0 0 0 0 0 0 0 0 0 0 0 0 0 0 27 26 25 27 26 28 28 28 28 28 28 32 29 31 29 29 29 29 30 29 25 26 27 27 27 29 29 29 29 29 29 28 28 28 27 28 26 24 24 26 -209 -209 -193 -177 670 672 670 670 -193 -193 35 30 26 27 23 26 25 26 25 24 25 25 26 27 28 29 31 -193 -193 -193 36 39 40 31 35 30 31 31 29 30 28 29 29 25 26 28 26 29 28 28 28 30 31 32 32 33 30 35 34 37 31 33 32 29 30 28 27 27 25 31 28 29 32 28 28 30 30 30 28 28 27 26 29 30 28 28 27 30 31 33 31 31 32 32 32 32 30 29 28 37 34 35 33 34 34 33 34 34 30 32 29 33 30 27 30 28 31 36 -209 -209 24 26 -209 -209 -209 -209 -209 -209 -209 -209 -209 -209 -209 109 -209 -209 35 35 37 38 37 37 36 37 38 38 39 -193 -193 -193 -193 39 39 38 40 39 40 40 39 41 41 42 39 -209 -193 -193 -209 73 51 51 53 50 51 51 50 52 50 52 52 51 53 53 54 55 55 57 58 59 61 63 63 65 68 66 68 68 67 68 68 68 69 65 68 70 70 71 0 0 0 0 0
    0 0 0 0 0 0 0 0 0 0 0 0 0 0 0 0 0 0 0 0 0 0 0 0 0 0 0 0 0 0 0 0 0 0 0 0 0 0 0 0 0 0 0 0 0 0 0 0 0 0 0 0 0 0 0 0 0 0 0 0 0 0 0 0 0 0 0 0 0 26 25 25 29 27 29 28 28 28 29 29 32 29 31 30 30 30 29 30 29 25 26 28 27 27 28 29 29 29 28 29 27 28 27 27 28 26 25 24 26 25 24 -193 -177 671 672 670 670 -193 -193 37 32 27 27 23 28 27 28 26 26 26 25 27 27 28 29 30 31 -193 -193 -193 39 42 31 35 30 30 31 29 29 28 29 28 25 26 28 26 29 28 29 28 30 30 31 30 31 27 31 30 36 30 32 31 29 29 28 26 26 24 29 26 28 30 28 28 30 29 30 28 28 27 26 28 30 27 27 27 29 31 33 32 32 33 32 34 33 30 29 28 37 34 34 33 34 34 34 34 34 31 31 30 34 30 28 33 -193 41 46 49 47 -209 -209 -209 -209 -209 -209 -209 -193 -209 -209 -209 -209 -209 112 112 -209 35 34 37 38 37 37 36 37 38 38 39 -193 -193 -193 -177 39 39 38 40 39 40 40 38 40 40 40 35 -209 -209 -209 -209 75 50 50 52 49 50 50 50 51 50 52 52 51 53 53 54 55 55 57 58 59 61 63 63 66 68 67 69 69 68 68 68 69 70 67 70 71 72 73 0 0 0 0 0
    0 0 0 0 0 0 0 0 0 0 0 0 0 0 0 0 0 0 0 0 0 0 0 0 0 0 0 0 0 0 0 0 0 0 0 0 0 0 0 0 0 0 0 0 0 0 0 0 0 0 0 0 0 0 0 0 0 0 0 0 0 0 0 0 0 0 0 0 0 25 24 26 30 27 29 29 28 28 29 29 32 29 31 30 30 29 28 29 29 25 25 27 26 27 28 28 29 29 28 29 26 29 27 28 27 27 26 25 26 25 24 29 -193 -193 -177 -177 -177 -193 -193 38 33 27 27 22 29 32 31 29 28 27 27 28 28 28 28 29 29 32 36 -193 38 -193 30 34 30 30 30 29 29 28 28 29 25 27 29 26 31 29 29 29 30 30 30 29 30 25 27 26 34 28 31 30 28 29 27 26 26 24 28 25 27 29 27 27 29 29 29 27 28 27 26 28 29 26 26 26 27 28 30 30 28 30 32 33 31 28 26 25 37 35 34 33 34 34 34 34 34 31 31 31 33 29 29 33 35 42 46 49 50 -209 -209 -209 -209 -209 -209 -209 0 -209 -209 -209 -209 -193 113 113 -209 35 35 37 38 37 37 36 37 38 38 39 -193 -193 -193 -177 39 39 38 40 39 40 39 37 40 40 39 34 -193 -209 -209 -209 -193 49 49 51 49 50 49 49 51 49 52 52 51 53 53 54 55 55 57 58 59 62 64 65 67 69 67 70 69 69 69 69 71 72 70 73 74 74 76 0 0 0 0 0
    0 0 0 0 0 0 0 0 0 0 0 0 0 0 0 0 0 0 0 0 0 0 0 0 0 0 0 0 0 0 0 0 0 0 0 0 0 0 0 0 0 0 0 0 0 0 0 0 0 0 0 0 0 0 0 0 0 0 0 0 0 0 0 0 0 0 0 0 0 25 25 25 30 27 29 28 28 28 29 29 32 29 30 29 30 29 28 29 28 25 25 28 -193 27 28 29 29 29 28 30 27 31 28 29 28 27 26 25 25 25 24 -193 -193 -193 -177 -177 -177 -193 37 37 30 27 27 19 26 30 30 29 28 27 26 28 27 28 28 27 27 29 35 35 36 -193 30 -193 30 30 31 29 29 28 29 29 26 28 30 26 32 29 29 28 29 29 28 27 28 24 25 24 33 28 32 30 28 28 27 26 25 23 26 24 24 28 26 27 28 28 28 27 28 27 26 28 30 27 26 27 27 28 30 28 27 29 31 34 31 29 25 24 38 35 33 33 34 33 33 34 34 30 30 31 32 28 29 30 31 42 48 48 54 -209 -209 -209 -209 -209 -193 -193 0 -193 -209 -209 -209 -193 113 -209 -193 36 35 37 39 37 37 37 37 38 38 40 39 -193 -193 -177 40 40 38 41 39 40 39 37 40 40 41 37 40 -209 -209 47 54 50 49 50 48 49 49 49 51 49 52 52 51 53 53 54 55 54 56 58 61 63 66 67 68 69 67 71 70 69 69 70 71 74 72 75 76 76 77 0 0 0 0 0
    0 0 0 0 0 0 0 0 0 0 0 0 0 0 0 0 0 0 0 0 0 0 0 0 0 0 0 0 0 0 0 0 0 0 0 0 0 0 0 0 0 0 0 0 0 0 0 0 0 0 0 0 0 0 0 0 0 0 0 0 0 0 0 0 0 0 0 0 0 25 25 26 32 28 30 29 29 29 29 29 32 28 30 29 31 30 28 29 28 25 25 28 27 27 28 29 29 30 28 31 28 32 28 30 29 28 27 26 25 25 24 -193 -193 -193 -177 -193 -177 -193 37 37 30 28 28 22 27 33 33 31 30 29 27 29 27 27 27 25 25 27 -193 -193 35 -209 -193 -193 29 29 30 29 29 28 28 29 26 30 33 27 34 29 30 29 29 29 28 27 27 23 25 24 33 29 31 29 28 28 27 26 25 23 25 22 23 26 26 26 28 28 28 27 28 27 27 27 30 28 27 27 27 27 29 28 29 29 32 34 32 32 26 25 37 35 33 32 34 33 33 34 34 30 29 31 32 27 29 28 29 42 49 46 -209 -209 -209 -209 -209 -209 -209 -193 -193 -209 -193 -193 -209 -209 -209 -209 -209 37 36 37 39 37 37 37 38 38 38 40 39 38 40 -193 40 40 39 41 39 40 40 38 40 41 41 40 42 51 55 48 54 50 49 50 49 50 49 49 51 49 52 52 52 53 53 54 55 55 57 60 64 66 69 69 70 71 69 72 71 70 71 71 72 75 75 77 78 77 79 0 0 0 0 0
    0 0 0 0 0 0 0 0 0 0 0 0 0 0 0 0 0 0 0 0 0 0 0 0 0 0 0 0 0 0 0 0 0 0 0 0 0 0 0 0 0 0 0 0 0 0 0 0 0 0 0 0 0 0 0 0 0 0 0 0 0 0 0 0 0 0 0 0 0 25 25 25 31 27 30 29 28 28 29 29 32 29 30 29 31 30 28 29 29 25 26 29 27 28 28 29 29 29 28 32 28 33 29 30 30 29 27 26 25 25 24 -193 -193 -193 -193 -193 -177 31 37 37 29 30 29 25 27 33 34 32 32 30 28 29 27 28 27 25 25 27 -193 -193 36 -209 -193 -193 29 29 -193 -193 28 28 28 29 26 31 33 27 35 29 30 29 29 29 28 27 27 23 24 24 32 28 31 29 28 28 27 26 26 23 24 22 23 25 25 26 27 28 28 27 28 27 27 27 32 28 27 27 26 26 28 27 28 28 31 31 31 31 26 25 37 35 32 32 34 33 33 33 33 30 28 32 32 27 30 28 30 42 47 45 49 -209 -209 -193 -193 -209 -209 -209 -209 -209 -209 -209 -209 -209 -209 -209 -209 37 36 37 39 37 37 37 38 38 39 40 40 39 41 -193 40 40 39 41 39 40 40 38 41 41 42 41 45 52 55 50 53 51 50 51 49 50 49 49 51 49 51 53 52 53 54 55 55 55 58 61 68 68 70 71 72 72 71 72 72 72 73 73 74 75 77 78 79 78 80 0 0 0 0 0
    0 0 0 0 0 0 0 0 0 0 0 0 0 0 0 0 0 0 0 0 0 0 0 0 0 0 0 0 0 0 0 0 0 0 0 0 0 0 0 0 0 0 0 0 0 0 0 0 0 0 0 0 0 0 0 0 0 0 0 0 0 0 0 0 0 0 0 0 0 25 25 25 28 27 28 28 27 27 27 27 31 28 30 29 31 30 28 29 29 26 26 29 27 28 28 29 29 29 28 31 28 32 28 30 30 29 27 26 25 24 23 -193 -193 -193 -177 29 -193 30 35 36 28 31 30 25 28 33 34 33 33 32 30 30 28 29 28 26 26 28 34 35 37 -209 31 -209 29 29 30 -193 -193 28 28 28 26 31 33 27 35 29 30 29 29 29 28 27 26 22 24 24 31 28 30 28 28 28 27 27 26 23 25 22 23 24 25 26 27 28 28 27 28 27 28 27 32 28 28 28 27 27 29 28 28 29 32 33 32 31 26 24 37 35 32 32 34 32 32 33 33 30 28 32 32 27 31 29 35 42 45 43 44 -209 -209 -193 -177 -209 -209 -209 -209 -209 -209 -209 -209 -209 -209 -209 -209 38 36 38 39 37 37 38 38 38 39 41 40 39 41 40 40 40 40 41 39 40 40 39 41 42 42 42 46 50 54 50 53 51 50 50 49 50 48 49 51 49 51 52 52 53 54 55 55 55 58 62 69 69 71 72 72 72 71 72 72 73 74 74 75 76 78 79 80 79 81 0 0 0 0 0
    0 0 0 0 0 0 0 0 0 0 0 0 0 0 0 0 0 0 0 0 0 0 0 0 0 0 0 0 0 0 0 0 0 0 0 0 0 0 0 0 0 0 0 0 0 0 0 0 0 0 0 0 0 0 0 0 0 0 0 0 0 0 0 0 0 0 0 0 0 25 25 25 27 26 27 26 26 26 26 26 30 28 30 29 31 30 28 29 29 26 26 29 27 28 28 29 29 29 28 31 27 31 28 30 29 29 27 27 26 -193 23 -177 -193 -193 -177 -193 -177 -193 33 35 28 30 30 25 29 34 33 33 33 32 32 31 28 29 28 26 27 28 34 34 36 -193 30 -193 29 29 30 29 28 27 27 28 26 30 31 27 34 29 29 29 29 29 28 26 26 22 24 24 30 28 29 28 28 28 27 27 26 23 25 23 24 24 26 26 28 28 28 27 28 28 28 27 32 28 27 29 26 28 30 30 30 31 33 33 32 32 26 25 37 35 32 32 34 32 32 33 33 30 28 32 32 27 31 29 37 43 42 41 -209 -209 -193 -193 -177 -209 -209 -209 -209 -209 -209 -209 -209 -209 -209 -209 -209 -193 36 38 39 38 38 38 39 39 39 41 40 40 41 41 40 40 40 41 39 41 41 40 41 43 43 43 46 50 53 49 52 51 50 50 49 50 48 49 51 49 50 52 51 52 53 55 54 55 58 60 69 70 72 72 72 72 71 73 73 75 76 75 76 78 79 80 80 80 81 0 0 0 0 0
    0 0 0 0 0 0 0 0 0 0 0 0 0 0 0 0 0 0 0 0 0 0 0 0 0 0 0 0 0 0 0 0 0 0 0 0 0 0 0 0 0 0 0 0 0 0 0 0 0 0 0 0 0 0 0 0 0 0 0 0 0 0 0 0 0 0 0 0 0 25 25 25 26 25 26 26 26 26 26 26 29 28 30 29 31 30 28 29 28 26 26 29 27 28 28 28 29 29 28 31 27 31 28 30 29 29 -193 27 -193 -193 -193 -177 -193 -193 -177 -193 -193 -193 31 33 27 30 30 25 34 38 37 37 36 37 35 32 29 28 28 27 27 28 33 33 36 42 29 -193 29 29 30 29 -193 -193 27 27 25 27 29 25 32 28 29 29 29 29 28 27 26 22 24 23 28 27 28 28 28 28 28 27 27 24 26 23 24 24 27 26 28 29 29 27 29 29 29 27 34 29 28 31 29 31 31 32 31 32 33 33 32 32 27 27 38 35 33 32 34 32 33 33 33 30 29 32 32 27 30 28 39 43 40 40 -209 -209 -209 -209 -209 -209 -193 -193 -209 -193 -209 -209 -209 -209 -209 -209 -209 -193 36 38 39 38 38 39 39 39 39 42 40 40 41 41 40 40 40 41 39 41 41 41 42 43 43 43 46 49 52 49 51 51 49 50 50 50 49 49 51 49 50 52 51 52 52 54 54 55 59 64 69 69 71 71 72 72 72 74 74 76 78 76 77 79 80 80 80 80 81 0 0 0 0 0
    0 0 0 0 0 0 0 0 0 0 0 0 0 0 0 0 0 0 0 0 0 0 0 0 0 0 0 0 0 0 0 0 0 0 0 0 0 0 0 0 0 0 0 0 0 0 0 0 0 0 0 0 0 0 0 0 0 0 0 0 0 0 0 0 0 0 0 0 0 25 24 25 23 24 25 24 24 25 25 25 28 28 29 29 30 30 28 29 28 26 26 30 27 28 28 28 29 29 28 30 27 30 28 30 29 29 -193 27 -193 -193 -193 666 662 -193 -177 -193 -193 -193 30 32 26 29 31 26 36 39 39 39 38 38 36 32 29 28 28 27 27 28 32 32 34 -193 29 -193 29 28 30 29 -193 -193 -193 -193 -193 26 27 25 31 28 29 28 28 29 28 27 27 22 23 23 27 26 28 27 28 28 28 28 28 23 28 24 25 25 29 27 29 30 30 28 30 30 30 27 35 29 31 36 40 36 34 34 33 33 35 35 -193 34 29 29 38 35 33 33 34 33 33 33 33 30 29 31 32 27 29 26 35 43 37 35 -209 -209 -193 -209 -209 -193 19 20 -209 -209 -209 -209 -209 -209 -209 -209 -193 -193 37 39 39 38 38 39 39 39 39 42 40 40 41 40 40 40 41 41 39 41 42 41 43 44 44 44 47 49 52 49 51 52 50 50 50 50 49 49 51 50 49 52 51 52 53 55 55 58 63 69 70 70 71 71 72 71 71 73 74 76 78 76 77 78 80 80 80 80 80 0 0 0 0 0
    0 0 0 0 0 0 0 0 0 0 0 0 0 0 0 0 0 0 0 0 0 0 0 0 0 0 0 0 0 0 0 0 0 0 0 0 0 0 0 0 0 0 0 0 0 0 0 0 0 0 0 0 0 0 0 0 0 0 0 0 0 0 0 0 0 0 0 0 0 25 25 25 22 23 24 23 -177 24 24 24 27 28 29 29 30 30 28 29 28 27 27 31 28 29 28 29 29 29 28 30 27 30 27 29 28 29 -193 -193 -193 -193 -193 666 660 -177 -177 661 662 -193 30 31 26 29 30 26 33 38 38 39 37 38 36 32 30 28 28 27 27 27 31 31 33 -209 28 32 29 28 30 29 -193 -193 -193 -193 -193 26 27 24 30 28 29 28 28 29 28 27 27 22 23 23 27 26 27 27 27 27 28 27 28 23 29 25 26 26 30 28 30 30 30 28 31 31 31 27 36 30 35 38 -193 36 33 33 32 33 35 34 -193 34 30 30 39 36 34 33 35 33 33 33 33 30 29 31 32 27 28 25 25 -193 35 26 -209 -209 27 24 24 21 19 19 -209 -209 -209 -209 -193 -193 -209 -209 42 40 37 39 39 38 38 39 39 39 39 42 40 40 41 40 40 41 41 41 39 42 42 41 43 44 44 44 46 49 52 49 51 52 50 50 50 50 49 49 51 50 48 52 51 53 54 55 57 61 66 69 70 70 71 71 71 71 70 73 73 75 76 76 77 77 78 79 79 80 79 0 0 0 0 0
    0 0 0 0 0 0 0 0 0 0 0 0 0 0 0 0 0 0 0 0 0 0 0 0 0 0 0 0 0 0 0 0 0 0 0 0 0 0 0 0 0 0 0 0 0 0 0 0 0 0 0 0 0 0 0 0 0 0 0 0 0 0 0 0 0 0 0 0 0 26 25 25 22 22 23 23 -177 23 23 24 25 27 28 28 29 29 28 28 28 27 28 31 29 29 28 29 29 29 28 30 27 29 27 29 28 29 27 -193 -193 -193 -193 666 660 -177 -193 661 661 -193 30 31 26 29 30 25 30 36 37 38 36 37 36 32 30 29 30 28 27 28 31 31 34 -209 28 33 29 29 30 29 -193 -193 -193 -193 -193 25 26 24 30 28 29 28 29 29 28 27 26 21 23 22 26 25 26 26 26 27 27 26 28 23 30 26 27 27 31 28 30 30 31 28 31 31 31 28 36 31 39 40 41 37 34 34 33 33 34 33 33 34 30 31 39 36 35 34 35 34 34 34 34 31 30 31 32 27 28 25 27 46 -209 -209 -209 -209 30 36 27 22 20 21 -209 -209 -209 -209 -209 -209 -209 -209 40 40 37 39 38 37 38 39 39 38 39 41 39 39 41 40 40 40 41 41 39 42 42 42 43 44 44 44 46 49 51 49 51 53 50 50 50 50 49 50 51 50 48 52 51 52 54 56 58 63 66 69 70 70 71 70 72 71 70 73 73 74 76 75 76 77 78 79 78 79 79 0 0 0 0 0
    0 0 0 0 0 0 0 0 0 0 0 0 0 0 0 0 0 0 0 0 0 0 0 0 0 0 0 0 0 0 0 0 0 0 0 0 0 0 0 0 0 0 0 0 0 0 0 0 0 0 0 0 0 0 0 0 0 0 0 0 0 0 0 0 0 0 0 0 0 26 26 26 21 22 23 22 -177 22 22 23 24 26 27 27 28 28 27 28 27 27 28 31 29 29 28 29 29 29 28 30 27 29 27 29 28 28 27 -193 -193 -193 -193 665 660 -177 -193 661 661 -193 30 31 26 28 30 25 31 38 39 40 37 38 36 32 31 30 31 30 29 31 32 32 36 -209 -193 -193 29 29 30 29 -193 -193 -193 -193 -193 24 26 24 29 28 29 29 29 29 29 27 26 20 23 22 25 24 25 25 25 26 26 25 28 23 32 27 28 28 32 29 31 31 31 29 32 32 31 28 38 32 42 45 48 -193 36 34 33 32 33 33 34 33 31 32 39 35 35 34 35 34 34 34 34 31 31 31 33 28 29 26 -193 47 49 -209 46 -209 38 41 39 36 32 -209 -209 -209 -209 36 -193 -209 37 37 38 38 36 39 37 37 37 38 38 38 38 41 38 39 40 40 40 40 41 41 39 42 43 42 43 44 44 44 47 49 50 49 50 53 50 51 51 50 50 50 51 50 48 52 51 52 54 55 57 63 65 68 70 70 70 70 71 71 70 73 73 74 76 76 76 77 77 79 78 79 79 0 0 0 0 0
    0 0 0 0 0 0 0 0 0 0 0 0 0 0 0 0 0 0 0 0 0 0 0 0 0 0 0 0 0 0 0 0 0 0 0 0 0 0 0 0 0 0 0 0 0 0 0 0 0 0 0 0 0 0 0 0 0 0 0 0 0 0 0 0 0 0 0 0 0 27 27 27 22 22 23 23 -177 22 22 23 24 26 27 27 28 29 28 28 28 27 29 31 29 29 28 28 29 29 28 29 26 28 27 28 27 28 27 -193 -193 -193 -193 666 661 -177 -193 662 662 -193 29 30 25 27 28 21 31 40 39 41 36 37 36 31 31 30 32 31 31 33 33 32 36 -209 -193 34 29 29 30 30 -193 541 -193 -193 -193 24 25 23 28 27 28 28 28 28 28 27 26 20 23 22 -209 24 25 25 25 25 26 25 29 23 34 27 28 30 32 30 31 31 32 29 32 32 30 28 38 31 44 -193 58 -209 -209 30 31 29 31 33 35 34 31 34 40 36 36 34 35 34 34 34 34 31 32 31 34 29 31 29 42 50 53 50 51 47 40 42 40 39 37 -209 -193 -209 31 36 30 -209 34 34 34 35 35 38 36 36 37 38 38 37 38 40 38 39 40 40 39 40 41 41 39 42 43 43 43 44 43 44 46 48 49 48 50 53 50 51 51 50 50 50 51 50 47 51 50 51 53 54 57 62 64 67 69 69 70 69 71 71 69 73 73 75 76 76 76 77 77 79 78 79 78 0 0 0 0 0
    0 0 0 0 0 0 0 0 0 0 0 0 0 0 0 0 0 0 0 0 0 0 0 0 0 0 0 0 0 0 0 0 0 0 0 0 0 0 0 0 0 0 0 0 0 0 0 0 0 0 0 0 0 0 0 0 0 0 0 0 0 0 0 0 0 0 0 0 0 27 27 29 23 23 24 23 23 23 23 24 24 26 27 27 28 29 28 29 28 28 29 31 29 29 28 28 28 28 27 28 26 27 27 28 27 27 26 26 -193 -193 -193 668 662 -177 526 -193 -193 -193 29 30 25 26 28 -177 32 41 40 42 38 37 37 33 32 32 33 32 31 33 31 30 34 -209 -193 34 30 29 30 30 -193 542 -193 -193 23 23 24 23 28 28 29 28 28 29 29 28 27 21 23 21 -209 -193 -193 24 24 25 26 25 29 23 34 28 28 31 32 30 31 31 32 29 31 31 29 29 37 29 44 57 60 63 -209 31 31 30 32 35 36 35 33 36 40 36 36 34 35 34 34 34 34 31 33 31 34 29 32 -209 44 53 56 52 53 49 41 42 41 39 38 -193 -193 -193 32 35 33 31 33 33 32 33 34 37 34 35 36 37 37 37 38 40 37 39 39 39 39 40 40 40 38 42 43 43 43 43 42 43 45 47 48 47 50 53 50 51 51 50 50 50 51 50 47 51 50 51 53 53 57 62 63 67 69 69 69 69 71 70 69 73 73 75 77 76 76 77 78 78 78 79 78 0 0 0 0 0
    0 0 0 0 0 0 0 0 0 0 0 0 0 0 0 0 0 0 0 0 0 0 0 0 0 0 0 0 0 0 0 0 0 0 0 0 0 0 0 0 0 0 0 0 0 0 0 0 0 0 0 0 0 0 0 0 0 0 0 0 0 0 0 0 0 0 0 0 0 27 28 31 24 24 25 24 24 24 24 24 24 26 27 26 27 29 28 29 28 28 29 31 28 29 27 27 27 28 26 27 25 27 28 29 27 27 27 27 28 -193 -193 -177 -193 -193 525 -193 -193 -193 29 30 25 26 27 13 29 -193 38 41 35 35 35 32 31 32 32 30 29 29 27 27 30 -209 -193 35 30 30 31 30 -193 543 -177 -193 23 23 24 24 29 28 29 28 28 29 29 28 27 21 23 21 -193 23 -193 23 23 23 25 23 28 23 33 27 28 31 31 30 31 31 32 29 31 32 29 29 37 -193 44 58 60 63 -209 -193 29 28 30 35 36 35 34 36 39 35 36 35 35 34 35 34 34 31 34 30 35 31 33 -209 45 54 56 52 52 48 42 42 42 39 37 36 34 35 34 34 33 32 32 33 31 31 34 36 34 34 35 37 36 37 38 40 37 38 39 39 39 40 40 40 38 42 44 43 43 43 42 43 45 47 47 46 49 53 50 51 51 50 50 50 51 50 47 51 50 51 53 53 57 63 63 67 69 69 69 69 71 70 69 73 73 75 77 76 77 77 77 78 77 77 76 0 0 0 0 0
    0 0 0 0 0 0 0 0 0 0 0 0 0 0 0 0 0 0 0 0 0 0 0 0 0 0 0 0 0 0 0 0 0 0 0 0 0 0 0 0 0 0 0 0 0 0 0 0 0 0 0 0 0 0 0 0 0 0 0 0 0 0 0 0 0 0 0 0 0 28 28 33 26 25 27 26 25 24 24 25 24 26 26 26 27 28 28 29 28 28 30 31 28 29 27 26 26 27 25 25 25 28 29 31 27 28 28 27 28 -193 -193 -177 -193 -193 526 -177 -193 -193 29 30 25 27 28 12 28 -193 38 42 35 34 33 29 30 31 31 29 27 27 27 27 29 -209 -193 36 32 -193 -193 -193 -193 544 -177 -193 23 24 25 24 28 28 29 28 27 29 29 28 28 22 23 21 24 22 22 21 21 21 24 22 28 23 33 28 28 32 32 31 32 31 32 30 32 32 29 30 37 -193 -193 -209 -209 -209 -209 23 27 26 29 34 34 34 33 36 39 35 37 35 35 35 35 35 34 32 34 30 36 32 34 -209 44 53 55 51 51 46 43 42 42 38 36 36 34 34 35 34 32 32 32 33 31 31 33 34 33 34 34 36 35 36 37 39 36 37 38 38 38 40 40 40 37 42 44 43 43 43 42 42 45 46 46 46 49 53 50 51 51 50 50 50 50 50 47 51 50 51 53 53 57 64 63 67 69 69 69 69 70 70 67 72 72 73 75 75 75 76 76 77 76 76 75 0 0 0 0 0
    0 0 0 0 0 0 0 0 0 0 0 0 0 0 0 0 0 0 0 0 0 0 0 0 0 0 0 0 0 0 0 0 0 0 0 0 0 0 0 0 0 0 0 0 0 0 0 0 0 0 0 0 0 0 0 0 0 0 0 0 0 0 0 0 0 0 0 0 0 28 28 35 27 26 28 27 26 25 -193 25 24 26 26 -177 26 28 28 29 29 27 30 31 29 29 27 25 25 25 22 21 23 27 28 30 -193 28 28 28 30 -193 23 -177 27 -193 526 527 -177 -177 29 31 25 27 27 12 -193 -209 -209 -209 32 31 -209 28 30 33 33 29 28 27 28 28 29 -209 29 36 32 31 32 32 -193 544 -177 -193 25 26 28 26 29 29 29 28 28 29 30 29 28 24 24 22 25 22 21 20 20 20 22 20 28 23 34 29 29 34 32 31 32 32 33 30 33 33 29 31 37 29 -193 -209 -209 26 21 23 24 24 28 33 32 32 32 37 39 35 37 35 35 35 35 35 34 32 34 30 36 33 35 -193 45 52 55 51 51 47 43 41 41 37 35 34 33 33 34 33 32 32 32 33 31 32 34 34 33 33 33 35 34 36 37 39 35 37 37 38 38 39 39 39 37 42 44 43 43 43 41 42 45 46 46 46 49 53 50 51 51 50 50 50 50 50 47 50 50 50 53 52 57 63 62 66 69 69 69 69 70 70 66 71 72 72 73 74 74 74 75 76 75 74 73 0 0 0 0 0
    0 0 0 0 0 0 0 0 0 0 0 0 0 0 0 0 0 0 0 0 0 0 0 0 0 0 0 0 0 0 0 0 0 0 0 0 0 0 0 0 0 0 0 0 0 0 0 0 0 0 0 0 0 0 0 0 0 0 0 0 0 0 0 0 0 0 0 0 0 29 29 36 28 27 29 28 27 26 -193 26 25 26 27 26 -177 -177 29 30 29 27 31 31 29 29 -193 19 11 12 13 12 20 25 28 29 -193 28 29 30 34 -209 -193 -177 -193 -193 -193 527 528 528 29 31 25 28 27 -209 21 -209 -209 -209 31 30 29 27 29 32 32 28 27 26 26 27 28 -209 29 36 32 32 33 32 -193 -193 -193 -193 26 29 30 28 30 30 30 29 29 29 30 29 29 26 27 23 26 -193 -193 21 20 21 21 21 29 24 33 30 30 35 33 32 33 32 33 31 33 33 28 31 35 28 -209 -193 22 23 19 21 22 23 25 30 30 31 32 37 39 35 38 35 35 35 35 35 35 33 35 31 37 35 39 46 46 51 54 51 50 48 44 42 40 36 35 34 33 33 34 33 32 32 32 34 31 32 34 34 33 33 32 34 34 35 36 39 35 37 37 38 38 39 39 39 37 42 43 43 42 42 41 42 45 46 47 47 51 54 50 51 51 50 51 50 50 50 48 50 50 50 52 51 56 60 60 64 68 69 69 69 70 69 66 71 70 69 71 72 71 70 71 71 70 70 69 0 0 0 0 0
    0 0 0 0 0 0 0 0 0 0 0 0 0 0 0 0 0 0 0 0 0 0 0 0 0 0 0 0 0 0 0 0 0 0 0 0 0 0 0 0 0 0 0 0 0 0 0 0 0 0 0 0 0 0 0 0 0 0 0 0 0 0 0 0 0 0 0 0 0 29 29 37 30 29 31 29 28 27 -193 27 26 27 27 26 -177 -177 29 -193 30 27 30 29 27 26 19 17 13 13 12 13 20 26 29 30 -193 30 32 32 36 -193 -193 -177 -177 -177 -193 527 528 528 -193 31 26 27 27 -209 -209 -209 -209 38 32 29 -193 27 28 30 30 28 27 26 26 27 29 -193 30 36 32 32 33 32 -193 -193 -193 -193 26 29 31 29 31 31 31 29 29 30 31 29 29 28 29 -193 27 -193 -209 22 22 22 22 22 30 25 34 30 30 37 33 33 33 33 34 32 33 33 27 31 33 27 -193 22 22 23 20 21 22 23 25 29 29 30 30 37 39 35 38 34 35 35 35 36 35 33 36 32 39 38 41 48 47 51 54 50 49 46 44 42 -193 36 35 35 33 33 34 33 32 32 32 33 31 31 33 33 32 33 31 34 34 35 36 38 35 37 37 38 38 39 39 39 37 42 42 43 42 42 42 43 46 47 47 47 52 54 50 52 52 51 51 50 51 50 48 50 50 50 51 50 55 58 58 62 66 68 67 67 69 69 64 71 71 70 71 73 70 68 67 67 67 64 62 0 0 0 0 0
    0 0 0 0 0 0 0 0 0 0 0 0 0 0 0 0 0 0 0 0 0 0 0 0 0 0 0 0 0 0 0 0 0 0 0 0 0 0 0 0 0 0 0 0 0 0 0 0 0 0 0 0 0 0 0 0 0 0 0 0 0 0 0 0 0 0 0 0 0 28 28 37 30 29 32 30 29 28 28 28 28 28 28 27 28 -177 30 -193 -193 27 -193 -193 -193 22 17 16 13 13 13 12 18 23 26 -193 -193 29 31 31 35 -193 -193 -177 -177 -177 -177 -193 527 527 -193 -193 25 -193 -193 -209 -209 -209 -209 -209 35 -193 -209 -193 28 29 29 27 27 25 25 26 27 38 29 35 32 -193 32 31 -193 543 -193 -193 26 29 32 29 31 31 30 29 29 29 30 29 30 29 30 -193 29 -193 -209 -209 24 25 24 25 30 27 34 32 32 38 33 34 34 34 35 33 33 33 27 36 35 29 29 24 23 25 22 23 23 23 25 29 29 30 30 37 38 35 37 34 35 35 36 36 35 34 36 33 40 40 43 50 48 52 55 51 49 45 44 40 39 36 35 35 33 33 34 33 32 32 32 33 31 31 34 33 32 33 31 34 34 35 36 38 35 36 37 38 38 39 39 39 38 42 43 43 43 43 42 43 46 46 45 47 52 54 50 52 52 51 51 50 51 50 48 50 50 49 50 48 53 54 57 59 62 66 62 63 66 68 -193 -209 -209 -209 75 77 -209 -209 -209 -193 -209 -209 -193 0 0 0 0 0
    0 0 0 0 0 0 0 0 0 0 0 0 0 0 0 0 0 0 0 0 0 0 0 0 0 0 0 0 0 0 0 0 0 0 0 0 0 0 0 0 0 0 0 0 0 0 0 0 0 0 0 0 0 0 0 0 0 0 0 0 0 0 0 0 0 0 0 0 0 26 27 36 29 30 33 31 30 28 29 28 29 29 30 28 29 30 31 -193 -193 -193 -193 -193 -209 17 15 15 12 11 12 11 14 18 -193 -209 -193 -193 -193 -193 35 -193 -193 -177 -177 -177 -177 -177 -193 527 -193 -193 26 -193 -193 -209 -209 -209 -209 -209 -193 -209 -209 29 28 29 29 27 27 25 25 25 24 36 28 34 -193 -193 -193 -193 -193 543 -193 32 26 29 31 29 30 30 29 28 28 29 30 29 30 31 33 -193 31 -193 -193 32 29 29 27 28 30 30 32 35 34 39 34 34 34 34 35 34 33 34 27 36 34 31 31 28 25 27 26 27 26 27 28 31 30 30 30 37 38 35 37 34 35 36 36 36 35 34 37 35 41 42 44 50 49 52 54 51 46 43 42 39 -193 -193 35 35 33 32 34 33 33 32 33 34 31 32 34 33 33 33 31 34 34 35 36 38 35 37 37 38 38 39 39 40 40 43 44 44 45 45 43 44 47 46 44 46 52 54 50 51 52 51 51 50 51 50 49 51 50 50 51 49 53 54 57 59 60 -193 60 60 63 65 -209 -209 -209 -209 -209 -209 -209 -209 -209 -209 -225 -209 -209 0 0 0 0 0
    0 0 0 0 0 0 0 0 0 0 0 0 0 0 0 0 0 0 0 0 0 0 0 0 0 0 0 0 0 0 0 0 0 0 0 0 0 0 0 0 0 0 0 0 0 0 0 0 0 0 0 0 0 0 0 0 0 0 0 0 0 0 0 0 0 0 0 0 0 26 26 36 29 29 32 30 30 28 28 28 29 29 30 28 29 30 31 31 31 -193 -193 26 -193 14 14 14 11 11 12 10 14 16 -193 -209 -193 -193 -193 -193 -193 -209 -193 -177 -177 -177 -177 -177 -193 527 -193 -193 26 -193 -193 -209 -209 -209 -209 -209 -209 -193 -193 29 28 29 29 28 27 26 26 26 25 32 27 34 30 30 31 -193 -193 -193 -193 32 26 30 32 30 31 31 30 30 30 31 31 30 32 33 35 34 33 35 33 32 32 31 29 29 29 29 30 36 35 39 34 34 35 35 36 35 34 34 28 35 34 32 32 30 28 28 28 28 28 28 29 30 29 28 28 37 37 35 37 35 36 36 37 37 36 36 38 37 42 42 45 50 49 52 52 50 43 40 39 38 -193 -193 35 35 33 32 34 33 32 33 33 34 32 32 34 32 33 33 31 34 34 35 36 38 36 37 37 38 38 39 40 40 41 44 46 46 46 46 45 45 48 45 43 44 50 54 49 51 52 51 51 50 50 50 49 51 50 50 51 49 53 55 57 -193 -225 -209 -193 60 63 65 -209 -209 -209 -209 -209 -209 -209 -193 -209 -225 -225 -225 -209 0 0 0 0 0
    0 0 0 0 0 0 0 0 0 0 0 0 0 0 0 0 0 0 0 0 0 0 0 0 0 0 0 0 0 0 0 0 0 0 0 0 0 0 0 0 0 0 0 0 0 0 0 0 0 0 0 0 0 0 0 0 0 0 0 0 0 0 0 0 0 0 0 0 0 27 27 34 28 -177 -177 30 29 28 28 28 30 30 30 28 29 29 30 30 30 -193 25 24 17 13 13 14 11 10 12 10 15 17 -209 -209 -193 -193 -193 -193 -193 -209 -193 -177 -177 673 675 673 -193 526 -193 31 26 -193 -193 -177 -209 -209 -209 -209 -209 -193 -193 30 28 30 29 29 28 27 27 27 26 30 27 34 30 30 31 31 -193 -193 -193 32 27 30 32 31 31 31 31 30 31 32 31 30 32 33 35 35 34 35 32 33 33 32 30 30 29 29 30 36 36 39 34 35 35 35 35 35 34 33 28 33 31 31 30 30 28 28 28 28 28 28 28 28 27 27 26 37 37 35 37 35 37 37 38 38 37 37 39 39 43 44 46 50 49 50 53 49 42 38 37 37 -193 -193 35 35 33 32 34 32 32 33 33 35 32 33 35 33 33 34 31 35 34 35 36 38 36 37 38 39 39 40 41 41 43 46 48 47 48 47 46 46 48 45 44 44 46 53 48 50 51 50 51 50 50 50 49 51 50 50 51 49 52 54 -193 -225 -225 -225 -193 60 62 65 -193 61 -209 65 69 -209 -193 182 185 -225 -225 -209 -193 0 0 0 0 0
    0 0 0 0 0 0 0 0 0 0 0 0 0 0 0 0 0 0 0 0 0 0 0 0 0 0 0 0 0 0 0 0 0 0 0 0 0 0 0 0 0 0 0 0 0 0 0 0 0 0 0 0 0 0 0 0 0 0 0 0 0 0 0 0 0 0 0 0 0 28 28 -177 -177 -177 -177 29 29 28 28 28 30 30 30 29 29 29 29 30 30 -209 24 22 13 11 13 14 12 10 13 10 15 19 -193 -209 -193 -193 -193 -193 -193 -193 -193 678 673 672 674 673 -193 526 28 31 26 29 -193 -209 -209 -209 -209 -209 -209 -193 30 30 28 29 29 29 28 28 27 28 28 30 27 33 29 29 30 30 30 30 29 31 26 30 33 31 32 32 32 31 32 32 31 30 32 33 33 35 33 34 32 33 33 32 30 30 28 30 32 37 37 39 34 35 35 35 34 34 33 33 29 32 30 30 30 30 28 28 28 29 30 30 30 28 28 27 26 37 37 36 38 37 38 38 39 39 39 40 41 41 43 45 47 48 48 48 54 50 43 38 38 36 -193 33 34 33 31 30 32 31 31 32 34 35 34 34 35 33 34 34 31 35 35 35 36 38 36 37 39 39 40 41 43 43 45 48 50 49 48 47 47 47 47 44 44 44 45 52 48 50 51 50 51 50 50 50 48 51 50 50 51 49 51 53 55 -225 -225 -225 -225 60 62 66 62 66 -209 67 70 -193 -209 186 187 -209 -225 -193 -177 0 0 0 0 0
    0 0 0 0 0 0 0 0 0 0 0 0 0 0 0 0 0 0 0 0 0 0 0 0 0 0 0 0 0 0 0 0 0 0 0 0 0 0 0 0 0 0 0 0 0 0 0 0 0 0 0 0 0 0 0 0 0 0 0 0 0 0 0 0 0 0 0 0 0 28 29 -177 -177 -177 -177 28 28 28 28 28 31 31 31 29 30 30 29 30 30 -193 25 22 13 12 14 15 14 12 16 14 17 20 -193 22 -193 -193 -193 -193 -193 677 -193 678 673 672 674 673 -193 526 29 31 26 29 29 -209 -209 -209 -209 -209 -209 31 30 30 28 29 29 29 28 29 28 28 29 30 28 32 29 29 29 29 29 28 28 30 26 29 33 31 33 33 32 32 32 32 31 29 31 32 31 34 32 33 32 32 32 32 30 31 28 31 34 37 38 40 34 36 35 34 34 34 33 33 29 32 30 30 31 31 28 29 28 29 30 30 31 28 28 27 26 37 37 37 38 38 40 39 40 41 41 42 42 43 44 46 49 48 49 48 54 51 43 37 37 32 -193 -193 34 33 31 29 -193 -193 33 35 37 38 37 34 36 34 33 33 30 34 35 35 36 38 36 38 40 40 41 44 46 48 50 51 52 51 49 48 47 46 46 44 44 44 45 53 49 50 51 50 51 50 50 50 48 51 50 49 50 48 50 52 52 -225 -225 -225 -225 -225 -225 -225 67 -193 75 71 74 -193 -209 -193 188 -209 -209 -209 -209 0 0 0 0 0
    0 0 0 0 0 0 0 0 0 0 0 0 0 0 0 0 0 0 0 0 0 0 0 0 0 0 0 0 0 0 0 0 0 0 0 0 0 0 0 0 0 0 0 0 0 0 0 0 0 0 0 0 0 0 0 0 0 0 0 0 0 0 0 0 0 0 0 0 0 29 30 -177 -177 -177 -177 27 27 27 27 27 31 31 31 30 30 31 29 30 30 -209 -193 21 13 13 14 15 13 12 17 13 15 18 -193 -193 -193 26 -193 -193 -193 -193 -193 679 674 673 674 673 -193 -177 29 31 26 29 29 -209 -209 -209 -209 -193 -209 31 30 30 29 29 29 29 29 28 28 28 29 30 28 32 29 29 29 29 29 28 28 29 26 29 33 31 32 33 32 32 32 31 31 29 30 32 29 34 32 33 32 32 32 32 30 31 28 31 34 35 37 39 34 36 35 34 34 34 33 33 29 32 30 30 31 31 29 30 28 30 31 30 31 28 29 27 29 38 39 38 39 40 41 41 42 43 43 43 44 46 45 48 50 47 49 47 53 52 44 40 -209 -209 -209 -209 -209 -209 -209 -209 -209 -209 -193 42 43 -193 -209 35 37 34 31 32 30 33 36 35 36 38 37 39 41 43 44 49 51 53 53 52 53 51 48 48 46 46 45 43 43 43 43 53 48 50 51 50 51 50 50 50 48 50 50 49 50 48 50 52 51 -225 -225 -225 -225 -225 -225 -225 -225 -225 -225 77 78 -193 -193 -209 -209 -209 -209 -209 -209 0 0 0 0 0
    0 0 0 0 0 0 0 0 0 0 0 0 0 0 0 0 0 0 0 0 0 0 0 0 0 0 0 0 0 0 0 0 0 0 0 0 0 0 0 0 0 0 0 0 0 0 0 0 0 0 0 0 0 0 0 0 0 0 0 0 0 0 0 0 0 0 0 0 0 29 29 -177 -177 -177 -177 26 26 26 26 26 30 30 31 29 30 30 29 30 31 25 27 24 15 15 15 16 14 13 18 11 12 14 -193 -193 26 26 -193 -193 -193 -193 -193 679 674 673 674 673 -193 -177 29 31 27 30 30 -209 -209 -209 -209 -209 -209 34 32 32 29 -193 30 30 29 30 29 29 30 31 29 32 30 30 29 29 29 28 28 29 25 27 31 30 31 33 31 31 31 31 31 29 30 32 29 34 32 33 32 32 33 32 30 32 28 32 33 32 34 38 33 35 35 34 34 33 33 33 30 32 31 31 32 30 29 30 28 29 29 28 29 27 28 28 31 39 39 39 40 43 43 43 44 44 45 45 46 47 46 49 50 46 49 45 53 52 44 41 42 45 -193 -193 -193 46 46 44 43 44 43 43 44 42 -193 -193 -209 -193 -209 -209 -193 -193 37 36 37 38 38 40 44 -209 52 54 54 55 54 54 53 52 48 48 45 45 45 43 43 42 43 51 47 49 50 49 51 50 50 50 47 50 49 49 50 47 49 51 49 -225 -225 -225 -225 -225 -225 -225 -225 -225 -225 82 81 79 81 -193 76 -193 -209 -225 -209 0 0 0 0 0
    0 0 0 0 0 0 0 0 0 0 0 0 0 0 0 0 0 0 0 0 0 0 0 0 0 0 0 0 0 0 0 0 0 0 0 0 0 0 0 0 0 0 0 0 0 0 0 0 0 0 0 0 0 0 0 0 0 0 0 0 0 0 0 0 0 0 0 0 0 29 28 -177 -177 22 24 24 25 25 25 25 30 30 31 30 30 30 30 31 31 -193 -193 -193 14 14 16 15 14 14 19 13 14 16 -193 -209 -209 -209 -209 -193 27 21 23 679 673 673 674 673 -193 -177 29 31 27 30 31 26 -209 25 35 40 -209 -193 -193 -193 -193 -193 30 30 28 29 29 28 30 30 29 32 30 30 29 29 30 28 28 29 25 27 30 30 31 32 31 31 31 31 31 29 30 32 30 34 32 33 32 31 33 32 31 32 29 31 33 31 32 37 32 34 34 33 34 33 33 33 30 33 31 31 32 31 30 31 27 29 28 27 29 27 29 30 33 38 39 40 41 45 44 44 47 46 47 46 47 49 46 50 50 46 49 45 53 53 50 50 47 47 49 47 49 45 47 44 43 45 44 45 45 44 46 44 46 47 45 -209 -209 -209 42 39 39 39 40 48 -193 -193 -193 56 55 55 55 54 54 52 48 48 45 45 45 43 43 42 43 50 47 48 49 48 50 49 49 49 47 49 49 48 49 47 47 48 46 -225 -225 -225 -225 -225 -225 -225 -225 -225 -225 83 81 78 79 -193 75 70 70 -209 -209 0 0 0 0 0
    0 0 0 0 0 0 0 0 0 0 0 0 0 0 0 0 0 0 0 0 0 0 0 0 0 0 0 0 0 0 0 0 0 0 0 0 0 0 0 0 0 0 0 0 0 0 0 0 0 0 0 0 0 0 0 0 0 0 0 0 0 0 0 0 0 0 0 0 0 28 28 22 21 21 23 23 24 24 24 25 30 30 31 30 30 30 29 30 29 -193 -193 -193 16 16 18 15 13 13 16 14 15 16 20 21 23 24 -193 24 25 21 23 -193 673 -177 -177 -177 -193 -193 29 31 27 31 32 27 38 34 35 39 41 39 37 -193 -193 -193 30 29 28 29 29 28 30 29 28 32 30 30 30 29 30 28 28 29 26 27 30 31 31 33 31 31 31 32 32 30 30 32 30 35 32 33 32 32 33 32 31 32 29 31 33 30 31 36 32 34 34 33 33 33 33 33 30 33 31 30 32 31 30 31 27 28 27 27 27 26 31 30 33 37 39 40 41 45 45 45 47 47 48 47 48 48 46 49 50 45 48 45 53 51 51 52 48 48 49 49 47 44 47 44 43 45 44 45 45 45 46 44 46 47 46 48 45 45 44 43 41 42 42 52 -177 -209 -193 56 55 55 55 54 53 52 47 47 45 45 45 43 43 42 43 49 46 48 49 48 50 49 49 49 47 49 49 48 49 46 46 47 44 -225 -225 -225 -225 -225 -225 -225 -225 -225 -225 86 82 77 78 -209 -209 68 68 69 62 0 0 0 0 0
    0 0 0 0 0 0 0 0 0 0 0 0 0 0 0 0 0 0 0 0 0 0 0 0 0 0 0 0 0 0 0 0 0 0 0 0 0 0 0 0 0 0 0 0 0 0 0 0 0 0 0 0 0 0 0 0 0 0 0 0 0 0 0 0 0 0 0 0 0 27 26 22 20 21 23 23 24 25 25 26 30 30 31 30 30 29 29 29 27 23 23 20 17 17 18 15 17 15 16 15 17 18 21 22 22 22 23 24 -193 20 22 -209 674 -177 -177 -177 -193 27 29 30 26 29 32 26 37 32 37 39 42 39 -193 -193 -193 -193 29 28 27 28 28 29 30 29 29 33 31 31 30 30 30 28 29 29 26 28 30 32 32 33 32 32 31 32 32 30 30 33 30 35 32 33 32 31 33 32 31 32 28 30 33 30 31 36 32 34 34 33 34 32 33 33 30 33 32 30 33 32 31 32 27 25 23 25 24 24 32 30 33 36 39 40 42 46 45 44 48 47 48 47 47 48 45 49 49 45 47 46 52 51 51 52 49 50 50 50 47 45 49 45 43 46 45 45 45 45 46 44 45 46 45 46 45 45 44 45 43 46 44 54 -193 -193 -193 56 55 54 54 53 53 51 47 46 44 44 44 43 43 42 43 48 46 47 48 47 49 49 48 48 46 48 48 48 49 46 46 46 43 -225 -225 -225 -225 -225 -225 -225 -225 -225 -225 88 85 -209 -193 -209 -209 67 67 68 65 0 0 0 0 0
    0 0 0 0 0 0 0 0 0 0 0 0 0 0 0 0 0 0 0 0 0 0 0 0 0 0 0 0 0 0 0 0 0 0 0 0 0 0 0 0 0 0 0 0 0 0 0 0 0 0 0 0 0 0 0 0 0 0 0 0 0 0 0 0 0 0 0 0 0 25 24 21 20 21 22 23 24 25 25 26 29 30 31 30 30 29 29 29 27 24 24 20 18 18 19 17 20 17 17 17 19 20 21 23 22 22 24 24 22 20 22 -209 -193 -193 -177 -177 -193 27 28 29 25 28 31 25 37 37 40 41 45 -193 -193 -193 -193 -193 28 26 27 28 29 29 31 30 29 33 31 31 30 30 29 28 29 30 26 28 30 32 32 33 32 31 31 32 33 31 30 33 30 36 33 33 32 31 33 32 31 32 28 30 33 30 31 37 32 34 35 33 33 32 33 33 30 33 32 30 34 32 31 33 28 26 24 25 23 24 33 30 34 36 39 41 42 46 44 44 48 47 48 47 47 48 45 48 49 44 46 46 51 50 51 52 50 50 50 50 48 46 50 46 44 47 46 46 46 45 46 44 46 46 45 47 45 47 45 49 45 52 47 55 -193 -193 55 56 54 54 54 53 53 51 46 46 44 44 44 43 43 43 43 47 46 47 47 46 49 49 48 48 46 48 48 47 48 46 45 44 42 -225 -225 -225 -225 -225 -225 -225 -225 -225 -225 -225 85 -209 -209 -209 -193 68 69 70 68 0 0 0 0 0
    0 0 0 0 0 0 0 0 0 0 0 0 0 0 0 0 0 0 0 0 0 0 0 0 0 0 0 0 0 0 0 0 0 0 0 0 0 0 0 0 0 0 0 0 0 0 0 0 0 0 0 0 0 0 0 0 0 0 0 0 0 0 0 0 0 0 0 0 0 23 24 22 21 21 22 23 24 25 25 26 28 29 30 29 29 28 28 27 25 24 24 21 20 20 20 18 21 18 17 17 19 20 21 23 22 22 24 24 22 20 21 -209 22 -193 -177 -177 -193 27 28 28 25 28 31 25 37 39 41 42 45 -193 -209 30 -209 -209 26 25 26 27 29 30 31 30 30 34 32 31 31 30 29 29 30 30 26 28 29 32 31 32 31 31 31 32 33 31 30 33 31 36 32 33 32 31 32 32 31 32 28 30 34 31 33 38 33 34 36 33 34 33 33 34 31 34 33 30 36 34 34 35 30 28 25 26 25 24 35 31 35 37 39 41 42 46 44 44 48 47 48 47 47 47 45 48 48 44 46 47 51 49 51 51 50 50 50 50 47 46 50 46 45 47 46 47 46 46 47 45 47 47 45 48 46 50 48 54 49 56 51 56 -209 58 55 55 54 53 53 52 52 51 46 46 43 44 44 43 43 43 43 46 46 46 46 46 48 48 48 48 46 48 48 47 48 46 45 45 42 -225 -225 -225 -225 -225 -225 -225 -225 -225 -225 -225 -225 -209 -193 -209 -193 69 71 73 -193 0 0 0 0 0
    0 0 0 0 0 0 0 0 0 0 0 0 0 0 0 0 0 0 0 0 0 0 0 0 0 0 0 0 0 0 0 0 0 0 0 0 0 0 0 0 0 0 0 0 0 0 0 0 0 0 0 0 0 0 0 0 0 0 0 0 0 0 0 0 0 0 0 0 0 22 24 22 21 21 22 24 24 24 24 25 27 28 29 28 28 27 27 25 24 24 24 21 21 20 21 18 22 18 17 17 19 20 20 23 22 22 23 24 20 20 21 -193 21 23 -177 -193 -193 27 27 28 25 28 32 27 38 38 39 41 42 -193 -209 28 -193 -193 26 25 25 27 29 30 30 30 29 34 31 31 31 30 29 29 30 30 26 27 28 31 29 30 30 30 30 32 33 32 30 33 32 35 33 33 32 31 32 33 32 33 29 31 35 33 35 38 34 35 36 34 35 33 34 34 31 35 34 32 37 36 36 35 32 29 25 26 24 24 34 31 35 37 39 41 42 46 44 44 48 47 48 47 48 48 46 49 49 45 48 48 51 49 51 51 50 50 50 50 49 47 51 47 46 48 47 48 47 46 48 45 47 47 46 49 47 51 50 57 56 58 56 56 -209 57 55 55 54 53 52 52 52 50 46 46 43 44 44 43 43 42 42 45 45 46 46 45 48 48 48 48 46 48 48 47 48 46 45 46 42 -225 -225 -225 -225 -225 -225 -225 -225 -225 -225 -225 -225 -225 -209 -209 -225 -209 -193 -209 -193 0 0 0 0 0
    0 0 0 0 0 0 0 0 0 0 0 0 0 0 0 0 0 0 0 0 0 0 0 0 0 0 0 0 0 0 0 0 0 0 0 0 0 0 0 0 0 0 0 0 0 0 0 0 0 0 0 0 0 0 0 0 0 0 0 0 0 0 0 0 0 0 0 0 0 20 23 23 21 21 23 24 24 24 24 25 26 26 27 26 26 -193 26 23 23 23 24 21 21 21 21 19 22 18 17 16 18 19 19 23 21 21 23 23 19 19 21 -193 20 23 -193 -193 -177 27 27 28 25 29 33 29 38 37 38 39 40 -193 -193 31 30 28 27 26 25 26 29 30 30 30 29 34 32 32 31 30 30 30 30 30 26 27 28 30 29 30 30 30 30 32 33 32 31 33 33 35 33 33 32 32 32 33 33 32 29 32 35 35 36 39 34 35 36 34 35 34 34 35 31 36 35 34 39 38 39 37 38 38 28 27 25 26 35 33 35 38 39 40 41 45 43 44 47 47 48 48 48 48 46 49 49 46 48 48 51 50 51 51 51 50 50 50 49 48 51 48 47 49 49 49 49 48 49 46 49 49 47 51 48 52 51 57 57 59 58 58 -209 57 55 55 53 52 52 51 51 50 46 45 43 44 44 44 43 43 42 44 45 45 45 45 47 48 47 48 46 48 48 48 48 46 45 47 43 -225 -225 -225 -225 -225 -225 -225 -225 -225 -225 -225 -225 -225 -225 -225 -225 -209 -209 -193 -193 0 0 0 0 0
    0 0 0 0 0 0 0 0 0 0 0 0 0 0 0 0 0 0 0 0 0 0 0 0 0 0 0 0 0 0 0 0 0 0 0 0 0 0 0 0 0 0 0 0 0 0 0 0 0 0 0 0 0 0 0 0 0 0 0 0 0 0 0 0 0 0 0 0 0 18 23 24 22 22 24 27 26 25 25 26 25 25 27 25 25 -193 24 22 22 22 24 21 22 21 22 19 23 19 18 18 18 19 19 22 21 21 22 23 18 19 21 22 20 22 -193 -193 -193 26 27 27 25 29 34 30 40 38 39 40 41 -193 -193 -193 32 28 27 26 25 27 30 31 30 30 30 35 32 32 32 30 30 30 31 30 26 27 29 30 29 30 31 30 30 33 33 32 31 33 34 34 33 34 32 32 32 33 33 32 29 31 34 38 36 39 34 36 36 34 35 34 34 35 31 36 35 34 39 38 38 37 39 38 31 28 27 30 36 35 35 37 38 39 40 43 43 43 46 47 48 47 48 48 46 49 49 46 48 48 51 50 51 51 50 49 50 50 49 48 52 49 48 50 50 51 51 50 51 48 51 51 49 53 50 54 53 58 58 60 62 59 -209 57 55 55 53 52 51 51 50 49 46 45 43 44 44 44 44 43 42 44 44 44 44 44 46 47 47 47 46 48 48 47 48 46 45 46 42 -225 -225 -225 -225 -225 -225 -225 -225 -225 -225 -225 -225 -225 -225 -225 -225 -209 -209 -209 -193 0 0 0 0 0
    0 0 0 0 0 0 0 0 0 0 0 0 0 0 0 0 0 0 0 0 0 0 0 0 0 0 0 0 0 0 0 0 0 0 0 0 0 0 0 0 0 0 0 0 0 0 0 0 0 0 0 0 0 0 0 0 0 0 0 0 0 0 0 0 0 0 0 0 0 17 23 26 -193 24 25 29 28 27 27 27 25 25 26 25 24 23 23 20 21 21 23 19 21 21 22 19 22 20 19 18 19 19 19 22 21 21 22 22 18 18 20 22 19 22 -193 -193 -193 26 27 27 25 29 34 29 39 38 38 39 39 37 34 30 31 28 26 26 25 26 30 31 30 29 29 35 32 32 32 30 29 30 31 30 26 27 31 31 30 30 32 30 31 33 33 32 31 32 34 33 33 33 32 32 31 33 33 31 29 29 32 40 36 39 34 36 36 34 35 34 33 34 31 36 34 34 39 39 37 37 40 38 31 29 27 34 36 35 35 36 37 38 39 42 42 43 46 47 47 47 47 48 46 49 49 46 47 48 51 49 51 51 50 49 50 50 49 48 52 49 49 51 52 52 52 51 52 49 52 52 49 53 -193 -193 54 59 59 61 63 60 -209 56 55 55 53 52 51 51 49 49 46 45 43 44 44 44 44 43 42 44 44 44 44 44 46 47 46 47 46 47 47 47 48 45 44 44 41 -225 -225 -225 -225 -225 -225 -225 -225 -225 -225 -225 -225 -225 -225 -225 -225 -209 -193 -209 -193 0 0 0 0 0
    0 0 0 0 0 0 0 0 0 0 0 0 0 0 0 0 0 0 0 0 0 0 0 0 0 0 0 0 0 0 0 0 0 0 0 0 0 0 0 0 0 0 0 0 0 0 0 0 0 0 0 0 0 0 0 0 0 0 0 0 0 0 0 0 0 0 0 0 0 16 23 28 -193 25 27 31 29 28 28 27 25 25 26 24 23 22 22 18 20 21 23 19 21 21 22 20 22 20 19 19 20 19 19 21 20 20 21 22 17 17 19 21 18 21 -193 -193 -193 25 26 26 24 29 34 29 37 36 37 38 37 33 31 28 29 27 26 26 25 26 30 30 29 28 29 36 31 31 32 30 29 31 32 31 26 28 32 30 29 30 31 30 30 32 32 31 30 32 33 32 32 33 32 32 31 33 33 30 29 30 30 -193 36 39 34 36 35 34 34 35 33 34 31 35 33 34 -193 -193 -193 38 42 39 32 29 28 35 35 35 35 36 37 38 39 42 41 42 45 46 47 47 47 48 46 49 49 46 47 48 50 49 50 50 50 49 50 50 49 49 52 50 50 52 52 52 52 51 52 48 53 51 48 52 50 -193 54 59 58 61 64 60 -209 56 54 55 53 52 51 51 48 48 46 45 43 44 44 44 43 43 42 43 44 43 44 44 47 48 47 48 47 47 47 47 47 45 44 44 41 -225 -225 -225 -225 -225 -225 -225 -225 -225 -225 -225 -225 -225 -225 -225 -225 -209 -209 -209 64 0 0 0 0 0
    0 0 0 0 0 0 0 0 0 0 0 0 0 0 0 0 0 0 0 0 0 0 0 0 0 0 0 0 0 0 0 0 0 0 0 0 0 0 0 0 0 0 0 0 0 0 0 0 0 0 0 0 0 0 0 0 0 0 0 0 0 0 0 0 0 0 0 0 0 16 23 30 27 26 28 32 30 29 29 27 24 24 25 24 21 21 21 17 20 21 23 19 21 22 22 21 23 21 20 19 20 20 20 22 20 20 21 22 18 17 19 21 18 20 -193 -193 -177 25 26 26 24 29 34 30 34 35 35 37 33 29 27 26 27 27 26 26 25 27 30 30 29 29 30 36 32 32 32 30 30 31 32 31 26 29 32 30 29 30 31 29 31 32 31 31 30 32 33 32 32 32 32 31 31 33 32 30 30 31 28 41 35 39 34 36 34 34 34 35 32 34 30 35 31 34 -193 -193 -193 35 41 36 31 29 31 35 34 35 35 36 37 38 39 41 41 43 45 46 47 47 48 48 46 49 49 46 46 47 49 48 49 49 50 48 49 49 50 49 53 50 50 52 52 52 52 51 52 47 53 50 47 53 50 -193 56 61 62 64 69 62 -193 56 55 55 53 53 51 51 48 48 46 45 43 44 44 43 43 43 42 43 44 42 43 44 47 48 47 48 47 47 47 47 46 44 44 45 41 -225 -225 -225 -225 -225 -225 -225 -225 -225 -225 -225 -225 -225 -225 -225 -193 -225 -193 -193 67 0 0 0 0 0
    0 0 0 0 0 0 0 0 0 0 0 0 0 0 0 0 0 0 0 0 0 0 0 0 0 0 0 0 0 0 0 0 0 0 0 0 0 0 0 0 0 0 0 0 0 0 0 0 0 0 0 0 0 0 0 0 0 0 0 0 0 0 0 0 0 0 0 0 0 16 23 32 27 27 28 33 29 29 29 26 23 23 24 23 20 20 21 16 21 21 24 20 22 22 23 22 23 22 21 19 21 20 20 22 21 21 22 22 18 18 20 22 19 21 -177 -177 -177 25 26 26 25 29 34 30 32 33 34 37 30 27 25 24 26 26 26 25 25 28 30 30 29 29 30 36 32 32 31 30 30 31 31 30 26 29 31 29 29 30 31 29 31 32 31 31 31 32 32 31 32 32 31 31 31 33 32 30 32 34 29 41 35 39 33 36 34 33 33 34 32 33 30 34 29 34 -193 35 28 28 34 30 28 28 32 34 33 35 34 36 36 38 39 41 42 43 45 47 47 48 48 48 46 49 49 47 46 47 49 47 49 48 50 48 49 49 50 49 53 50 51 52 52 52 52 50 52 45 52 50 47 -209 -209 62 -193 64 63 66 70 63 -209 56 55 55 53 53 51 51 47 48 46 45 43 44 43 43 43 42 41 43 43 42 42 44 47 48 46 47 47 47 47 47 46 44 43 45 41 -225 -225 -225 -225 -225 -225 -225 -225 -225 -225 -225 -225 -225 -225 -225 -209 -225 -193 -209 69 0 0 0 0 0
    0 0 0 0 0 0 0 0 0 0 0 0 0 0 0 0 0 0 0 0 0 0 0 0 0 0 0 0 0 0 0 0 0 0 0 0 0 0 0 0 0 0 0 0 0 0 0 0 0 0 0 0 0 0 0 0 0 0 0 0 0 0 0 0 0 0 0 0 0 18 24 35 28 28 28 33 29 29 29 26 22 22 23 22 19 19 20 16 21 21 23 21 22 22 23 22 23 24 23 21 21 20 20 22 21 21 22 22 19 18 20 22 19 -193 -177 -177 -177 25 26 26 25 29 35 31 33 32 34 37 33 30 27 26 27 26 26 26 25 29 30 29 29 29 30 36 32 32 31 30 30 31 31 30 25 30 31 28 28 30 31 30 31 31 30 30 30 32 32 31 31 31 31 31 31 33 31 29 34 35 30 40 34 38 33 36 33 33 33 34 31 33 30 34 29 -193 -193 35 26 27 28 29 27 27 34 34 33 35 34 36 36 37 38 40 41 43 45 47 47 48 48 48 47 49 50 47 47 46 50 48 50 48 50 48 49 49 51 50 53 51 51 52 52 52 52 50 51 44 50 48 46 -209 -209 -209 -209 -193 -193 64 69 62 -193 55 55 55 53 53 51 51 47 47 46 45 43 43 43 43 43 42 42 43 44 42 42 44 48 48 46 47 47 46 46 47 45 44 44 46 43 -225 -225 -225 -225 -225 -225 -225 56 -225 -225 -225 -225 -225 -225 -225 -193 -225 -193 -193 66 0 0 0 0 0
    0 0 0 0 0 0 0 0 0 0 0 0 0 0 0 0 0 0 0 0 0 0 0 0 0 0 0 0 0 0 0 0 0 0 0 0 0 0 0 0 0 0 0 0 0 0 0 0 0 0 0 0 0 0 0 0 0 0 0 0 0 0 0 0 0 0 0 0 0 19 24 35 29 28 30 33 30 30 30 26 22 22 23 21 19 19 20 15 20 21 22 20 21 22 23 22 24 25 25 22 23 21 22 22 22 22 22 22 19 19 21 23 20 -193 -177 -177 -177 -193 26 26 25 30 35 32 33 32 34 36 32 31 29 28 28 27 27 27 27 30 31 29 29 29 30 36 32 32 30 29 30 30 30 30 25 30 30 28 28 30 31 29 31 31 30 30 30 32 31 30 31 31 30 31 31 32 30 28 32 31 27 39 31 36 31 35 32 31 32 33 31 33 30 34 28 36 36 33 24 24 -193 26 25 25 36 34 33 35 34 36 36 37 38 39 41 42 44 47 47 48 49 48 47 49 49 47 46 45 50 49 51 48 51 49 50 51 53 51 54 52 52 52 52 52 52 50 51 43 46 44 -193 -209 -209 -209 -209 -209 -209 62 -193 60 -193 55 55 56 53 53 51 51 47 47 46 45 42 43 43 44 43 42 42 44 44 42 42 44 49 49 46 47 47 46 46 47 46 44 44 46 44 -225 -225 -225 -225 -225 -225 -225 55 -225 -225 -225 -225 -225 -225 -225 -193 -225 61 66 64 0 0 0 0 0
    0 0 0 0 0 0 0 0 0 0 0 0 0 0 0 0 0 0 0 0 0 0 0 0 0 0 0 0 0 0 0 0 0 0 0 0 0 0 0 0 0 0 0 0 0 0 0 0 0 0 0 0 0 0 0 0 0 0 0 0 0 0 0 0 0 0 0 0 0 21 24 34 29 28 30 33 30 30 30 26 22 22 22 21 19 18 19 15 20 20 22 20 20 21 22 22 23 25 25 23 24 23 23 23 23 22 23 22 20 20 22 23 21 -193 -177 -177 -177 -193 -193 26 -193 30 36 32 33 32 33 36 33 33 32 29 29 29 30 28 28 32 31 29 30 30 30 35 32 32 30 29 30 30 30 29 25 29 29 28 29 31 31 29 31 31 30 30 31 32 31 30 31 30 30 30 30 31 28 27 29 28 25 36 29 34 30 34 31 31 32 33 31 33 30 34 28 35 34 31 23 24 -193 25 24 24 36 34 32 35 34 35 35 36 38 38 40 42 44 47 47 48 48 48 46 48 49 46 45 43 47 46 47 46 48 48 50 51 54 51 55 52 53 52 52 52 52 49 50 42 45 -209 -193 -193 -209 -193 -209 -209 -209 -209 -193 58 -193 55 55 55 53 53 51 51 46 46 45 45 42 43 43 43 42 42 43 44 44 42 41 43 50 -193 46 46 47 45 45 46 45 44 44 45 44 47 -225 -225 -225 -225 -225 -225 55 -225 -225 -225 -225 -225 -193 -193 58 -225 61 66 64 0 0 0 0 0
    0 0 0 0 0 0 0 0 0 0 0 0 0 0 0 0 0 0 0 0 0 0 0 0 0 0 0 0 0 0 0 0 0 0 0 0 0 0 0 0 0 0 0 0 0 0 0 0 0 0 0 0 0 0 0 0 0 0 0 0 0 0 0 0 0 0 0 0 0 24 24 32 29 29 30 33 31 31 30 26 22 22 22 21 19 18 19 16 20 20 21 19 19 20 21 22 23 -193 25 24 25 24 24 24 24 23 24 23 22 21 22 24 21 -193 -177 -177 -177 -193 -193 26 -193 29 36 32 29 32 32 39 30 31 33 29 28 30 31 29 30 32 31 30 30 30 30 34 32 31 30 30 31 30 30 30 25 29 28 28 29 31 30 30 32 31 30 30 31 32 30 30 31 30 30 29 30 30 28 27 27 26 24 34 28 33 30 34 31 31 32 33 31 33 30 33 28 34 32 28 22 23 22 23 23 24 36 33 32 34 33 35 35 36 37 38 40 42 44 47 48 48 48 47 46 48 48 45 44 42 44 44 44 44 45 47 50 -193 -193 51 55 52 53 53 52 52 51 49 50 42 45 -209 32 -193 -193 -209 12 -209 -209 -209 -209 56 55 54 55 55 53 53 51 51 46 46 45 45 42 42 43 43 42 42 42 44 44 41 -193 -193 50 -193 -193 46 46 44 45 46 45 45 45 47 50 50 -225 -225 -225 -225 -225 -225 57 -225 -225 -225 -225 -225 -225 56 57 -225 -225 65 63 0 0 0 0 0
    0 0 0 0 0 0 0 0 0 0 0 0 0 0 0 0 0 0 0 0 0 0 0 0 0 0 0 0 0 0 0 0 0 0 0 0 0 0 0 0 0 0 0 0 0 0 0 0 0 0 0 0 0 0 0 0 0 0 0 0 0 0 0 0 0 0 0 0 0 23 24 31 29 28 30 32 31 30 29 25 21 21 21 21 19 18 20 17 21 21 21 19 18 18 19 21 -193 -193 25 25 27 -193 -193 25 25 -193 24 -193 23 21 23 24 22 -193 -177 -177 -177 -193 -193 26 23 29 35 31 26 29 28 -209 -193 29 30 27 27 30 30 28 30 32 30 29 30 30 30 35 32 32 30 31 32 31 31 30 26 31 28 28 29 31 30 30 32 31 30 30 31 32 30 31 31 30 29 29 30 29 27 26 26 26 24 32 28 32 29 33 30 30 31 32 30 32 30 33 28 33 31 27 22 23 22 23 22 24 37 32 32 34 33 34 35 36 37 37 41 42 45 47 48 48 48 47 47 48 48 45 44 42 44 44 43 44 45 49 -193 -193 -193 52 55 52 53 53 52 51 51 49 49 43 45 42 36 -193 -209 -193 -209 38 -193 -193 -193 56 54 54 54 55 53 53 51 51 47 47 46 45 42 43 43 43 42 42 43 44 45 43 43 44 52 52 47 46 46 45 45 46 46 45 47 50 54 53 53 -225 -225 -225 -225 -225 -193 -225 -225 -225 -225 -225 -209 -209 -193 -225 60 65 62 0 0 0 0 0
    0 0 0 0 0 0 0 0 0 0 0 0 0 0 0 0 0 0 0 0 0 0 0 0 0 0 0 0 0 0 0 0 0 0 0 0 0 0 0 0 0 0 0 0 0 0 0 0 0 0 0 0 0 0 0 0 0 0 0 0 0 0 0 0 0 0 0 0 0 22 23 29 28 28 30 31 30 30 28 24 20 20 21 20 19 18 20 18 21 21 21 18 18 18 19 22 -193 -193 -193 -193 28 -193 26 27 -193 -193 26 -193 24 22 23 25 23 -193 -193 -177 -177 -193 -193 26 24 29 35 32 28 30 30 34 32 32 32 28 27 30 30 28 31 32 30 29 30 31 31 35 33 33 31 33 33 32 32 31 27 32 27 28 28 32 30 30 32 31 30 31 31 33 30 31 31 29 29 29 30 29 26 26 26 26 25 33 28 33 30 33 31 31 32 32 31 32 30 33 28 34 31 27 24 24 24 24 23 24 38 32 32 34 34 35 36 36 38 37 41 43 46 47 49 48 49 47 47 49 48 45 45 42 46 44 46 47 47 -193 -193 -193 -209 53 56 53 53 53 51 51 51 49 50 44 48 44 40 -193 -209 -209 -209 -193 48 -193 -193 55 54 54 55 55 53 53 51 51 47 47 47 46 42 43 44 44 43 43 45 46 46 45 45 46 51 51 47 45 45 45 45 46 46 46 46 49 55 53 53 -225 -225 -225 -193 54 -193 -225 -225 -225 -225 -225 -209 -209 -209 -225 -225 66 64 0 0 0 0 0
    0 0 0 0 0 0 0 0 0 0 0 0 0 0 0 0 0 0 0 0 0 0 0 0 0 0 0 0 0 0 0 0 0 0 0 0 0 0 0 0 0 0 0 0 0 0 0 0 0 0 0 0 0 0 0 0 0 0 0 0 0 0 0 0 0 0 0 0 0 21 22 28 28 28 29 30 30 29 28 23 19 19 20 20 19 17 -193 19 21 21 21 19 18 19 20 22 -177 -193 -193 -193 29 28 27 28 29 26 27 28 25 23 24 26 23 -193 -193 -177 -177 -193 -193 26 23 29 34 31 28 30 31 37 37 35 34 30 27 31 32 29 33 32 30 30 31 31 31 36 34 34 32 34 34 34 33 31 27 32 27 29 29 32 30 30 32 32 30 31 31 33 30 31 31 29 29 29 29 28 25 26 25 25 25 33 28 33 30 34 31 32 32 33 31 33 31 35 29 35 31 28 26 25 26 25 24 28 38 32 33 35 34 35 36 37 38 37 42 43 47 47 50 49 49 48 48 49 49 45 45 42 48 46 46 48 48 51 53 -193 -209 52 56 53 53 53 51 51 51 50 51 45 49 45 42 -193 -209 -209 -209 -193 47 53 54 55 54 54 55 55 53 53 52 51 48 47 47 46 42 43 44 45 44 44 45 46 45 44 43 45 47 48 45 44 43 44 43 44 44 44 43 45 52 50 51 52 53 54 -209 -193 -209 -225 -225 -225 -225 -225 -225 -225 -225 -225 -225 -225 -225 0 0 0 0 0
    0 0 0 0 0 0 0 0 0 0 0 0 0 0 0 0 0 0 0 0 0 0 0 0 0 0 0 0 0 0 0 0 0 0 0 0 0 0 0 0 0 0 0 0 0 0 0 0 0 0 0 0 0 0 0 0 0 0 0 0 0 0 0 0 0 0 0 0 0 21 22 28 28 28 29 29 30 -193 -193 22 18 19 19 19 18 17 20 19 20 21 21 18 18 20 21 22 -177 -193 -193 -193 30 29 28 29 30 -193 27 28 25 23 24 26 24 -193 -193 -177 673 269 -193 -193 23 29 34 30 27 33 33 39 39 36 36 31 29 33 33 31 34 32 31 30 31 32 32 36 35 35 33 35 34 34 34 32 28 31 27 29 29 32 29 30 32 31 29 30 30 32 29 31 30 29 28 29 29 27 25 25 25 25 26 33 28 33 30 34 31 32 33 33 32 34 32 35 30 35 31 28 27 27 27 26 24 31 38 33 33 35 35 35 36 36 38 36 41 42 48 47 50 49 49 47 48 49 49 44 45 42 50 47 48 49 49 52 54 54 -193 53 56 53 53 52 51 51 51 50 51 46 50 46 44 -193 -209 -209 44 46 49 52 53 55 54 54 54 55 53 52 51 51 47 47 47 47 42 43 43 45 44 43 45 46 45 44 43 44 45 47 46 44 43 42 41 43 43 44 -193 43 46 45 47 50 52 52 -193 -193 -209 -225 -225 -225 -225 -225 -225 -225 -225 -225 -225 -225 -225 0 0 0 0 0
    0 0 0 0 0 0 0 0 0 0 0 0 0 0 0 0 0 0 0 0 0 0 0 0 0 0 0 0 0 0 0 0 0 0 0 0 0 0 0 0 0 0 0 0 0 0 0 0 0 0 0 0 0 0 0 0 0 0 0 0 0 0 0 0 0 0 0 0 0 20 21 27 27 27 29 29 30 -193 -193 22 18 18 19 19 18 17 20 19 21 21 21 19 19 -193 -193 -193 -193 -193 -193 28 30 29 28 29 30 27 27 28 25 23 24 26 24 -193 -193 -177 673 -193 -193 27 24 29 33 30 27 35 -209 35 38 37 37 32 30 34 34 32 35 32 31 31 32 32 32 36 34 35 34 35 35 34 34 32 28 31 26 28 28 31 28 29 31 31 28 29 30 31 28 30 30 28 27 29 29 27 25 26 26 26 27 33 28 34 30 34 32 33 33 34 32 34 32 36 31 35 31 29 28 28 27 27 25 34 37 33 33 35 35 35 36 36 37 37 41 42 47 47 50 49 49 47 48 49 49 44 46 43 52 49 49 50 -193 -193 -193 54 55 53 56 52 53 52 51 51 51 50 51 47 51 47 47 -193 -209 -209 -193 46 48 52 52 54 54 53 54 54 53 52 51 51 48 48 48 47 42 42 43 44 44 44 45 46 45 45 44 45 45 48 47 44 43 41 40 43 43 44 -209 -209 45 45 47 51 52 53 -193 -193 -225 -225 -225 -225 -225 -225 -225 -225 -225 -225 -225 -209 -209 0 0 0 0 0
    0 0 0 0 0 0 0 0 0 0 0 0 0 0 0 0 0 0 0 0 0 0 0 0 0 0 0 0 0 0 0 0 0 0 0 0 0 0 0 0 0 0 0 0 0 0 0 0 0 0 0 0 0 0 0 0 0 0 0 0 0 0 0 0 0 0 0 0 0 19 21 26 27 27 29 29 -177 -193 -193 -193 19 19 19 19 19 17 21 20 21 22 22 20 21 290 287 290 -209 27 28 28 30 28 27 28 29 27 27 28 -193 23 24 26 24 -193 -193 -177 674 -193 28 27 25 29 32 29 27 35 -209 33 38 36 36 31 29 34 33 33 34 32 31 31 32 32 32 36 34 36 34 35 34 34 35 32 28 30 25 28 27 30 28 29 30 30 29 29 30 30 28 30 29 27 26 29 28 26 25 27 26 26 27 33 28 35 30 34 32 33 34 34 33 34 31 36 31 34 29 28 26 26 25 25 24 34 35 33 32 35 35 35 35 36 37 37 41 42 47 46 49 49 49 48 49 50 50 45 48 45 54 52 53 52 51 53 54 54 55 53 56 53 53 53 51 51 51 51 51 47 52 48 48 -193 -209 -209 -193 -193 47 50 51 54 53 53 53 54 53 52 52 51 48 48 48 47 42 41 42 43 43 43 45 45 45 45 45 45 45 48 48 44 43 39 39 42 42 44 -209 -209 -193 -193 46 51 53 -193 -209 -209 -225 -225 -225 -225 -225 -225 -225 -225 -225 -225 -225 -209 -193 0 0 0 0 0
    0 0 0 0 0 0 0 0 0 0 0 0 0 0 0 0 0 0 0 0 0 0 0 0 0 0 0 0 0 0 0 0 0 0 0 0 0 0 0 0 0 0 0 0 0 0 0 0 0 0 0 0 0 0 0 0 0 0 0 0 0 0 0 0 0 0 0 0 0 18 20 -209 26 27 28 28 29 -193 -193 -193 21 21 20 -193 -193 -193 -193 21 22 23 24 22 -193 -193 287 -193 27 28 29 28 30 28 27 28 29 27 27 28 -193 23 24 26 24 -193 -209 -177 675 27 28 28 25 28 31 29 27 36 -209 38 40 38 36 31 29 32 32 33 34 31 31 31 33 32 32 36 33 36 35 35 34 34 34 32 29 30 25 28 26 30 28 30 30 30 29 29 29 29 27 28 27 26 25 27 27 25 25 27 27 26 29 35 31 37 32 35 33 34 34 35 33 34 31 35 30 31 28 27 25 26 25 25 24 34 34 32 32 35 35 35 35 36 36 38 41 41 47 46 49 50 49 48 50 50 50 46 49 47 55 53 54 53 54 55 57 56 56 55 57 54 54 53 51 51 52 51 52 48 53 49 49 -209 -193 -193 -193 -209 45 47 50 54 53 53 53 54 53 52 52 51 48 48 48 47 41 40 40 42 42 43 44 45 45 45 44 45 45 47 47 43 42 36 37 41 40 41 33 -209 40 40 41 -193 -209 -209 -209 -209 -225 -225 -225 -225 -225 -225 -225 -225 -225 -225 126 -193 -193 0 0 0 0 0
    0 0 0 0 0 0 0 0 0 0 0 0 0 0 0 0 0 0 0 0 0 0 0 0 0 0 0 0 0 0 0 0 0 0 0 0 0 0 0 0 0 0 0 0 0 0 0 0 0 0 0 0 0 0 0 0 0 0 0 0 0 0 0 0 0 0 0 0 0 16 19 22 25 -193 27 27 28 26 27 -193 22 22 -193 883 883 -193 -193 23 24 25 26 25 25 27 26 27 27 28 29 29 30 28 27 28 29 27 27 28 -193 23 24 26 24 -193 -209 -177 -177 27 28 27 25 28 30 28 27 36 -209 40 41 38 35 30 28 30 30 34 34 31 31 32 34 32 33 36 33 36 35 35 33 33 35 33 29 31 26 29 27 31 28 30 31 29 28 -209 24 26 25 27 25 24 23 26 25 24 25 27 27 26 30 36 32 37 32 34 34 34 34 34 33 34 29 35 30 31 27 27 26 26 26 26 25 36 33 32 32 35 35 35 35 36 36 39 41 42 47 46 49 50 49 48 50 50 51 46 50 49 54 54 56 56 57 59 59 59 59 57 58 54 54 53 51 52 52 52 52 49 53 50 51 55 -209 -209 -209 -209 -209 43 45 52 52 51 52 54 53 52 51 51 48 48 48 47 41 39 40 42 42 43 45 45 45 45 45 46 46 48 47 43 42 -225 37 40 38 39 34 -209 39 39 40 44 -209 -209 -209 -209 -225 -225 -225 -225 -225 -225 -225 -225 -225 -225 126 -193 -193 0 0 0 0 0
    0 0 0 0 0 0 0 0 0 0 0 0 0 0 0 0 0 0 0 0 0 0 0 0 0 0 0 0 0 0 0 0 0 0 0 0 0 0 0 0 0 0 0 0 0 0 0 0 0 0 0 0 0 0 0 0 0 0 0 0 0 0 0 0 0 0 0 0 0 15 19 20 24 -193 27 27 28 26 27 -209 -209 24 -193 882 883 -193 -193 25 25 26 27 26 26 28 27 28 28 29 29 29 30 29 28 28 29 28 28 28 -193 24 24 26 24 -193 -209 -177 -177 27 27 27 24 27 29 28 27 -209 -209 -193 41 37 33 28 27 28 28 33 32 30 31 32 34 31 33 36 33 36 35 34 33 33 35 33 29 31 26 29 28 30 27 27 28 -193 -209 -209 -209 -209 -209 -209 21 20 -193 -209 -193 23 24 27 28 27 32 36 33 38 33 34 34 35 35 34 33 34 28 35 30 30 27 27 26 26 26 26 25 36 32 32 32 35 35 35 35 36 35 -193 41 41 47 46 49 50 50 49 52 51 52 48 53 53 57 58 59 58 60 63 62 62 62 59 59 55 55 53 52 52 52 52 52 50 53 51 52 54 51 47 -193 -209 -193 43 43 50 49 48 49 53 52 51 50 50 47 47 47 46 41 40 40 42 42 43 45 45 45 45 46 47 46 48 47 43 43 -225 -225 -225 -225 -225 32 33 36 38 38 41 39 -209 -193 -225 -225 -225 -225 -225 -225 -225 -225 -225 126 126 126 128 129 0 0 0 0 0
    0 0 0 0 0 0 0 0 0 0 0 0 0 0 0 0 0 0 0 0 0 0 0 0 0 0 0 0 0 0 0 0 0 0 0 0 0 0 0 0 0 0 0 0 0 0 0 0 0 0 0 0 0 0 0 0 0 0 0 0 0 0 0 0 0 0 0 0 0 16 19 20 24 -193 27 27 27 26 27 -209 25 26 -193 881 -193 23 25 25 26 26 27 26 27 29 28 29 28 29 29 29 30 29 28 29 29 28 28 28 -193 24 23 26 24 -193 24 -193 -177 27 27 27 24 27 28 27 -193 -209 -209 -209 36 34 31 28 27 27 29 33 32 30 31 33 34 31 33 36 33 36 34 34 33 33 35 34 29 31 26 29 27 28 23 25 26 24 -193 -209 -209 -209 -193 -209 22 21 -193 -209 -209 23 -209 -209 29 29 36 38 35 39 34 35 35 36 35 35 34 35 28 36 32 30 27 27 26 26 25 26 25 37 32 32 31 35 35 35 35 36 34 40 41 41 45 46 49 50 51 50 53 52 53 51 56 57 61 62 64 63 65 67 66 64 63 60 60 56 56 54 53 53 53 53 53 50 54 52 53 54 50 48 -193 -209 -209 -193 42 48 47 46 48 52 51 50 49 49 46 46 45 45 41 40 40 42 41 44 45 45 45 46 46 47 46 48 46 43 42 -225 -225 -225 -225 -225 -193 -209 36 38 39 40 40 40 38 -225 -225 -225 -225 -225 -225 -225 -225 -225 127 127 127 129 130 0 0 0 0 0
    0 0 0 0 0 0 0 0 0 0 0 0 0 0 0 0 0 0 0 0 0 0 0 0 0 0 0 0 0 0 0 0 0 0 0 0 0 0 0 0 0 0 0 0 0 0 0 0 0 0 0 0 0 0 0 0 0 0 0 0 0 0 0 0 0 0 0 0 0 17 21 20 24 -193 27 27 27 27 28 -193 27 28 26 26 27 24 26 26 27 27 28 27 28 29 29 29 28 29 29 28 30 29 28 29 29 29 28 28 25 24 23 25 24 -193 23 -193 -193 26 27 27 23 26 27 25 20 -209 -193 21 -193 28 29 27 26 27 30 33 31 31 32 33 35 31 32 35 32 36 34 34 33 32 35 34 29 31 26 29 27 26 19 23 -209 24 -209 -209 -209 -209 -209 -193 22 21 -193 -209 -209 15 -209 -209 -209 27 38 -193 36 39 34 35 35 35 35 35 34 35 27 36 33 29 27 27 26 26 26 27 26 37 31 32 31 35 35 34 35 35 33 40 40 40 44 46 49 51 51 51 53 54 54 53 57 58 62 63 65 64 65 69 68 67 66 63 62 58 57 56 55 55 54 54 54 52 54 52 53 52 48 46 -193 -193 37 41 41 46 45 45 46 50 49 49 48 48 45 46 45 45 42 41 40 41 41 44 45 45 45 46 46 47 46 48 46 44 44 43 42 -225 -225 -225 -193 -209 -193 -193 41 42 -225 39 37 -225 -225 -225 -225 -225 -225 -225 -225 -225 127 126 126 128 -193 0 0 0 0 0
    0 0 0 0 0 0 0 0 0 0 0 0 0 0 0 0 0 0 0 0 0 0 0 0 0 0 0 0 0 0 0 0 0 0 0 0 0 0 0 0 0 0 0 0 0 0 0 0 0 0 0 0 0 0 0 0 0 0 0 0 0 0 0 0 0 0 0 0 0 19 21 19 23 25 26 26 27 27 28 27 27 29 27 28 28 26 27 27 27 29 30 28 29 30 29 30 28 29 28 28 29 29 28 29 30 29 28 28 25 24 23 25 23 -193 23 23 23 26 27 27 23 26 26 25 17 -193 13 17 20 25 27 25 25 26 31 32 30 31 32 34 35 31 32 34 31 36 33 33 32 31 34 33 29 31 26 29 27 27 24 26 -193 -209 -209 -209 -209 -209 -209 -209 23 -193 -193 -193 19 16 16 -209 -209 -209 38 38 34 39 33 34 35 34 34 34 32 34 26 32 31 28 28 28 26 27 26 28 28 37 31 31 31 34 34 34 34 35 32 41 41 42 46 47 50 52 52 52 55 55 56 55 59 60 64 64 68 68 68 71 70 69 69 67 64 60 59 58 57 57 56 56 55 54 55 54 54 52 49 48 -209 -193 35 39 39 44 44 43 44 48 48 48 47 47 46 45 45 45 42 42 41 42 42 44 46 46 46 46 47 48 47 48 46 45 45 45 45 43 43 -225 -209 -193 -193 -193 -209 -193 -225 -225 -225 -225 -225 -225 -225 -225 -225 -225 -225 -225 126 124 126 129 -193 0 0 0 0 0
    0 0 0 0 0 0 0 0 0 0 0 0 0 0 0 0 0 0 0 0 0 0 0 0 0 0 0 0 0 0 0 0 0 0 0 0 0 0 0 0 0 0 0 0 0 0 0 0 0 0 0 0 0 0 0 0 0 0 0 0 0 0 0 0 0 0 0 0 0 20 22 19 22 25 26 26 26 26 27 27 28 29 28 29 29 27 29 29 28 30 32 29 30 30 29 30 28 29 28 28 29 30 28 29 30 30 28 29 26 25 22 25 23 22 22 23 23 26 27 27 23 25 26 25 22 19 19 20 -193 27 27 26 26 26 31 31 30 30 32 34 35 31 31 33 31 35 33 33 32 31 34 33 29 32 26 28 27 27 26 28 -193 -193 -209 -209 -209 -209 -209 -209 -209 -209 -209 -193 18 14 14 -209 -209 -209 36 36 33 39 33 33 34 33 33 32 31 32 25 28 28 27 27 27 26 27 26 28 29 38 31 32 31 34 34 34 34 35 32 41 42 42 47 48 52 53 53 54 56 57 56 56 59 60 63 63 67 67 67 70 69 68 68 66 64 61 60 59 60 60 58 58 57 56 56 55 54 52 49 49 -209 -193 33 36 37 41 42 43 44 49 50 51 51 51 50 49 49 48 45 44 44 44 44 46 48 46 46 47 48 49 47 48 45 45 45 45 47 44 44 52 -209 -193 -193 47 46 -225 -225 -225 -225 -225 -225 -225 -225 -225 -225 -225 -225 -225 -209 -209 -193 -193 -209 0 0 0 0 0
    0 0 0 0 0 0 0 0 0 0 0 0 0 0 0 0 0 0 0 0 0 0 0 0 0 0 0 0 0 0 0 0 0 0 0 0 0 0 0 0 0 0 0 0 0 0 0 0 0 0 0 0 0 0 0 0 0 0 0 0 0 0 0 0 0 0 0 0 0 21 22 19 22 25 26 26 26 25 27 28 28 30 28 29 30 28 30 29 28 31 32 29 30 30 29 30 28 29 28 27 29 31 29 29 30 31 29 30 27 -193 22 24 23 22 22 23 22 26 27 27 23 25 25 25 23 22 -193 23 26 28 28 27 27 28 32 30 29 30 31 33 34 31 30 32 31 34 32 32 31 31 34 33 29 32 26 28 27 27 26 29 -193 -193 -193 -209 -209 -209 -209 -209 -209 -209 -209 -193 16 14 17 16 20 19 -209 33 31 38 32 32 32 32 32 31 30 32 25 27 28 27 27 27 26 26 26 27 31 39 33 33 34 36 36 36 36 37 35 42 44 45 51 52 54 55 55 55 57 58 58 58 59 60 62 61 64 64 64 68 67 67 67 66 64 63 60 61 63 62 59 59 58 57 56 56 54 52 49 50 42 44 37 37 37 39 42 43 44 50 53 52 53 53 53 51 51 50 49 48 47 47 45 49 50 48 48 48 48 49 48 49 46 46 46 47 48 45 46 52 54 -193 -193 49 -209 -225 -225 -225 -225 -225 -225 -225 -225 -225 -225 -225 -225 -209 -209 -209 -209 -209 -209 0 0 0 0 0
    0 0 0 0 0 0 0 0 0 0 0 0 0 0 0 0 0 0 0 0 0 0 0 0 0 0 0 0 0 0 0 0 0 0 0 0 0 0 0 0 0 0 0 0 0 0 0 0 0 0 0 0 0 0 0 0 0 0 0 0 0 0 0 0 0 0 0 0 0 23 23 20 23 25 26 26 25 25 26 27 28 29 27 29 29 28 30 29 28 30 31 29 29 29 29 29 28 29 28 27 29 34 30 30 31 32 29 30 28 -193 -193 24 23 22 22 22 22 25 26 26 22 23 23 23 23 21 24 23 26 27 28 27 27 29 32 30 29 30 32 33 34 31 30 32 31 34 32 32 31 30 34 33 29 32 26 28 26 25 25 27 -193 -193 -193 -193 32 -193 -193 -193 -209 -209 -209 -209 -193 -193 -209 -209 -209 -209 -209 31 29 37 31 31 32 32 31 30 30 32 25 29 31 30 30 29 27 27 26 28 34 40 34 35 36 37 38 38 39 39 38 45 50 51 54 54 55 56 57 57 58 59 58 58 59 59 61 60 62 62 63 67 66 65 66 66 64 63 61 62 64 63 60 59 58 57 56 55 53 52 48 49 42 44 40 39 39 39 43 47 47 51 54 55 55 55 56 55 54 53 53 53 52 51 50 51 51 50 50 51 50 49 48 49 45 46 46 47 47 44 45 49 50 -193 -193 -193 -225 -225 -225 -225 -225 -225 -225 -225 -225 -225 -225 -225 -225 -225 -225 -225 -209 -209 -209 0 0 0 0 0
    0 0 0 0 0 0 0 0 0 0 0 0 0 0 0 0 0 0 0 0 0 0 0 0 0 0 0 0 0 0 0 0 0 0 0 0 0 0 0 0 0 0 0 0 0 0 0 0 0 0 0 0 0 0 0 0 0 0 0 0 0 0 0 0 0 0 0 0 0 24 24 21 22 25 26 26 24 24 25 27 28 28 27 28 28 28 30 29 28 29 31 29 28 28 28 28 27 29 27 27 28 34 30 30 32 32 29 31 29 27 -193 24 24 23 22 23 22 24 25 25 22 22 22 22 22 21 23 23 24 26 26 26 26 29 31 29 29 30 32 33 34 31 29 32 31 33 32 32 32 30 34 34 29 33 27 29 27 -193 23 26 26 28 29 32 31 -193 -193 -209 -209 -193 -209 -209 -209 -209 -209 -209 19 -209 -209 31 28 37 31 30 31 31 30 30 30 32 26 35 37 36 37 34 28 27 26 27 34 40 35 36 37 38 39 40 41 42 41 47 52 54 56 56 57 59 59 59 60 61 61 60 61 61 61 62 64 64 63 66 66 64 66 67 65 63 61 62 65 63 60 59 58 57 56 55 53 51 48 51 42 45 42 41 39 40 44 49 50 51 55 57 57 57 57 57 56 55 55 55 54 54 52 52 52 51 51 51 50 48 48 48 45 47 49 49 50 47 50 53 54 53 -193 -193 -225 -225 -225 -225 -225 -225 -225 -225 -225 -225 -225 -225 -225 -225 -225 -225 -209 -209 -209 0 0 0 0 0
    0 0 0 0 0 0 0 0 0 0 0 0 0 0 0 0 0 0 0 0 0 0 0 0 0 0 0 0 0 0 0 0 0 0 0 0 0 0 0 0 0 0 0 0 0 0 0 0 0 0 0 0 0 0 0 0 0 0 0 0 0 0 0 0 0 0 0 0 0 24 24 22 23 25 25 25 23 23 24 26 26 27 26 27 27 28 29 29 28 29 30 28 28 27 27 27 26 28 27 27 28 35 30 31 33 33 30 32 30 28 23 24 24 24 23 23 22 24 25 25 23 22 22 22 22 21 23 23 24 25 25 25 26 30 31 29 29 31 32 33 34 31 29 32 32 33 32 32 32 30 35 35 29 35 28 30 -193 23 23 -209 -209 28 29 32 31 -193 -193 -193 -209 -193 -209 -209 -209 -209 -193 -209 -209 -209 -209 33 28 36 30 30 31 30 30 30 30 32 26 36 40 38 -193 -209 28 -193 24 25 32 40 35 37 38 40 41 43 44 45 44 50 53 54 57 58 58 60 60 60 61 63 62 61 62 62 62 64 66 65 63 63 60 57 57 57 56 58 58 59 61 61 59 58 58 57 54 54 53 50 46 52 48 52 53 53 44 42 48 53 54 53 56 57 57 57 58 57 57 56 56 56 55 55 54 53 53 53 53 53 51 48 47 48 45 47 51 53 53 53 55 57 57 57 56 58 -225 -225 -225 -225 -225 -225 -225 -225 -225 -225 -225 -225 -225 -225 184 187 188 176 173 0 0 0 0 0
    0 0 0 0 0 0 0 0 0 0 0 0 0 0 0 0 0 0 0 0 0 0 0 0 0 0 0 0 0 0 0 0 0 0 0 0 0 0 0 0 0 0 0 0 0 0 0 0 0 0 0 0 0 0 0 0 0 0 0 0 0 0 0 0 0 0 0 0 0 25 25 24 24 26 26 26 23 23 24 25 25 26 25 26 26 27 30 30 28 29 30 28 28 28 27 26 26 28 28 27 28 35 31 31 33 33 30 32 31 29 23 24 25 25 23 24 23 24 25 25 23 22 22 23 22 22 23 24 25 26 26 25 26 30 31 29 30 31 32 33 34 30 29 32 32 32 31 32 31 30 35 35 29 37 30 -209 -209 -193 -209 -209 -209 -193 28 31 31 29 -209 -193 -209 -193 -209 -209 -209 -209 -209 -209 -209 -209 -209 33 28 36 30 29 31 30 30 30 30 32 26 37 40 39 44 -193 -209 -193 23 24 32 40 36 38 40 41 42 46 47 48 47 53 54 56 58 58 58 60 60 59 60 62 61 60 61 61 60 61 64 64 59 56 47 45 45 50 49 52 52 53 57 59 57 58 58 57 54 54 54 50 43 54 48 53 55 54 58 41 53 56 57 55 58 59 59 58 59 58 57 56 57 57 56 56 55 54 54 53 54 54 52 49 48 48 46 49 52 55 55 55 56 58 58 57 57 58 57 -225 -225 -225 -225 -225 -225 -225 -225 -225 -225 186 184 183 185 188 186 176 168 0 0 0 0 0
    0 0 0 0 0 0 0 0 0 0 0 0 0 0 0 0 0 0 0 0 0 0 0 0 0 0 0 0 0 0 0 0 0 0 0 0 0 0 0 0 0 0 0 0 0 0 0 0 0 0 0 0 0 0 0 0 0 0 0 0 0 0 0 0 0 0 0 0 0 25 26 25 25 26 26 26 23 23 24 25 24 25 25 26 26 27 29 30 28 29 29 28 28 28 27 26 26 28 28 27 29 36 31 31 34 34 31 33 33 31 24 26 28 26 24 25 24 24 25 24 23 22 22 23 23 22 23 24 25 26 26 26 27 31 30 29 30 31 32 32 34 30 28 32 31 31 30 32 30 29 35 35 28 41 -209 -209 -209 -209 -209 -209 35 -193 26 28 29 -209 -209 -209 -209 -193 -209 -209 -209 -209 -209 -209 -209 -193 399 -193 28 36 30 29 31 30 30 30 30 32 26 37 41 39 47 -193 -209 15 20 23 31 40 36 38 41 42 44 49 51 51 51 54 56 57 60 60 59 60 59 59 59 61 61 59 59 59 59 60 62 62 57 47 43 42 41 43 43 43 43 44 52 57 57 58 58 58 57 56 58 -209 -209 55 56 56 57 57 60 56 54 57 58 58 60 62 60 59 60 59 58 57 57 57 57 56 56 54 55 54 55 55 54 52 51 51 50 52 54 56 56 56 55 57 58 58 58 60 58 -225 -225 -225 -225 -225 -225 -225 183 186 186 186 183 182 183 185 179 168 167 0 0 0 0 0
    0 0 0 0 0 0 0 0 0 0 0 0 0 0 0 0 0 0 0 0 0 0 0 0 0 0 0 0 0 0 0 0 0 0 0 0 0 0 0 0 0 0 0 0 0 0 0 0 0 0 0 0 0 0 0 0 0 0 0 0 0 0 0 0 0 0 0 0 0 24 25 26 26 26 26 26 23 23 23 24 24 24 24 25 25 27 30 30 29 29 30 29 28 28 28 27 26 29 29 28 30 36 31 32 34 34 32 34 35 33 25 28 34 28 25 24 23 23 24 24 23 22 22 23 23 23 24 24 25 25 25 25 28 30 29 29 30 31 32 32 33 29 28 32 31 30 30 31 29 28 34 34 -193 -193 -209 -209 -209 -209 -209 -209 37 -193 26 27 29 -209 -209 -209 -209 -193 -209 -209 -209 -209 -209 -209 399 -193 -193 -209 29 36 30 30 32 31 30 30 30 33 27 37 41 -193 49 61 -209 8 14 22 30 42 38 40 42 43 46 52 53 53 53 55 57 58 61 61 59 60 60 60 60 61 61 59 59 60 58 60 61 61 58 46 42 42 41 42 42 43 44 43 52 57 58 59 60 61 59 59 62 64 -209 -209 59 59 58 56 60 -193 -209 58 59 58 60 62 61 60 61 59 58 58 58 58 58 57 57 55 56 55 56 56 56 53 53 53 53 54 55 57 57 56 56 58 58 59 60 62 -177 -225 -225 -225 -225 -177 156 170 182 185 186 186 180 179 175 178 170 167 167 0 0 0 0 0
    0 0 0 0 0 0 0 0 0 0 0 0 0 0 0 0 0 0 0 0 0 0 0 0 0 0 0 0 0 0 0 0 0 0 0 0 0 0 0 0 0 0 0 0 0 0 0 0 0 0 0 0 0 0 0 0 0 0 0 0 0 0 0 0 0 0 0 0 0 24 25 26 27 26 27 28 24 24 24 25 24 25 25 26 26 28 31 32 30 29 30 30 29 29 28 27 26 29 29 28 31 36 32 32 34 34 32 34 34 32 25 28 32 27 25 24 24 24 24 24 23 22 23 24 25 24 26 25 26 26 26 26 28 30 29 28 30 31 31 32 33 29 28 32 30 30 29 30 29 28 33 33 -193 -209 -209 -209 -209 -209 -209 -209 31 23 24 26 27 -209 -209 -209 -209 -193 -209 -209 -209 -209 -209 -209 399 398 -193 -209 35 38 32 32 34 32 32 31 31 33 27 38 42 -193 51 62 -209 0 11 20 28 44 40 41 43 44 48 53 54 54 54 56 57 59 61 61 60 61 60 60 60 60 60 59 59 59 57 60 60 60 57 45 41 41 40 42 43 46 50 50 56 59 59 60 61 62 62 60 63 68 -209 -209 61 60 59 57 60 61 60 60 61 61 63 65 63 62 62 60 60 59 59 59 59 57 57 56 56 56 57 57 57 54 55 54 54 54 55 57 57 57 57 59 60 61 63 65 -177 -177 -177 -177 -177 -177 158 171 183 186 185 184 175 175 172 173 170 168 168 0 0 0 0 0
    0 0 0 0 0 0 0 0 0 0 0 0 0 0 0 0 0 0 0 0 0 0 0 0 0 0 0 0 0 0 0 0 0 0 0 0 0 0 0 0 0 0 0 0 0 0 0 0 0 0 0 0 0 0 0 0 0 0 0 0 0 0 0 0 0 0 0 0 0 24 25 26 27 26 27 28 26 25 25 25 26 26 27 27 27 28 32 32 32 30 30 29 29 29 28 28 27 28 29 28 30 36 31 31 33 33 31 33 33 31 25 27 32 27 25 25 24 24 24 23 23 22 23 24 25 24 26 25 25 25 25 25 27 28 27 28 30 32 32 32 33 29 28 34 30 29 29 29 28 27 32 32 -193 -209 -209 -209 -209 -209 -209 36 32 26 26 27 28 -193 -209 -209 -209 29 -209 -209 -209 -209 -209 -209 397 -209 -209 -209 37 39 35 34 35 34 34 33 33 35 28 39 44 46 53 62 -209 0 9 18 26 46 42 42 44 45 50 54 54 54 55 57 58 59 63 62 60 62 60 59 59 60 60 59 59 59 57 60 62 61 58 46 42 41 40 43 46 52 56 57 58 60 60 61 62 62 63 60 62 68 74 -209 66 66 62 60 62 67 63 61 64 62 64 66 63 63 63 61 60 59 60 60 60 59 58 57 58 58 58 58 57 55 56 55 55 55 56 59 59 58 58 60 62 64 66 68 67 -177 -177 -177 -177 -177 158 170 179 182 180 172 171 172 171 171 170 168 169 0 0 0 0 0
    0 0 0 0 0 0 0 0 0 0 0 0 0 0 0 0 0 0 0 0 0 0 0 0 0 0 0 0 0 0 0 0 0 0 0 0 0 0 0 0 0 0 0 0 0 0 0 0 0 0 0 0 0 0 0 0 0 0 0 0 0 0 0 0 0 0 0 0 0 25 26 27 27 26 27 29 27 26 26 26 27 27 28 28 27 29 32 33 33 30 31 30 30 29 28 29 27 28 28 26 28 34 30 30 30 31 29 31 32 31 25 29 31 29 26 26 25 24 24 23 24 22 22 23 25 24 24 24 23 23 23 25 26 27 27 28 30 32 32 32 32 29 29 33 30 30 29 29 28 28 32 32 -193 -209 -209 -209 -209 -209 -193 32 31 27 28 27 28 27 27 30 28 29 35 -209 -209 -209 -209 -209 -209 -209 -193 40 38 39 37 37 37 36 36 35 35 37 29 40 45 49 55 63 71 -209 -193 19 26 -193 42 43 45 46 50 55 55 55 55 56 57 59 62 61 59 61 60 59 59 60 60 59 60 60 58 61 64 62 59 49 43 41 40 45 53 56 59 59 60 61 62 62 63 62 64 60 64 68 -193 -209 70 71 67 67 66 71 67 63 67 64 65 67 65 64 65 63 62 61 62 62 62 60 60 57 59 59 59 59 58 55 57 55 55 56 57 61 61 61 61 64 66 69 71 71 -209 -209 107 120 130 -177 158 169 174 174 173 169 171 172 171 171 171 170 170 0 0 0 0 0
    0 0 0 0 0 0 0 0 0 0 0 0 0 0 0 0 0 0 0 0 0 0 0 0 0 0 0 0 0 0 0 0 0 0 0 0 0 0 0 0 0 0 0 0 0 0 0 0 0 0 0 0 0 0 0 0 0 0 0 0 0 0 0 0 0 0 0 0 0 25 25 27 27 26 27 29 28 27 28 28 28 28 31 30 29 30 33 34 34 31 32 32 31 30 29 30 28 28 28 25 26 32 29 30 28 29 29 29 32 32 26 30 31 29 27 26 25 25 24 24 25 23 23 24 25 24 24 23 23 22 23 24 26 26 27 28 30 31 32 32 31 29 28 33 30 29 29 29 28 28 32 32 -193 -209 -209 -209 -193 -209 22 31 29 27 28 27 28 27 28 30 28 30 35 -209 -209 -209 -193 40 40 40 40 40 39 40 39 39 39 37 38 37 37 37 29 40 47 53 57 66 72 71 66 69 67 66 61 59 55 52 54 56 56 56 55 55 56 58 61 60 59 61 60 59 59 60 60 59 60 61 59 61 65 64 60 47 43 42 40 47 55 57 60 59 60 62 63 63 64 64 66 61 66 69 74 -209 71 -209 68 68 67 72 69 64 67 66 67 67 67 66 65 63 64 61 63 63 62 60 60 57 59 58 58 58 58 57 57 56 56 56 59 67 66 66 67 70 72 75 83 -209 -209 -209 116 122 134 -177 160 169 171 171 171 169 170 171 171 171 171 170 171 0 0 0 0 0
    0 0 0 0 0 0 0 0 0 0 0 0 0 0 0 0 0 0 0 0 0 0 0 0 0 0 0 0 0 0 0 0 0 0 0 0 0 0 0 0 0 0 0 0 0 0 0 0 0 0 0 0 0 0 0 0 0 0 0 0 0 0 0 0 0 0 0 0 0 27 26 28 28 27 27 29 29 28 29 29 29 29 32 31 30 30 33 34 34 31 32 32 32 30 29 30 29 28 28 25 26 30 28 29 27 28 28 29 31 33 27 31 30 29 26 27 26 25 24 24 25 24 23 24 24 24 24 22 22 21 23 24 25 26 26 27 29 30 31 31 31 28 27 32 29 29 29 28 28 28 32 32 0 -193 -193 -209 -193 -209 22 31 29 27 29 28 28 27 28 31 28 29 34 -209 -209 -209 33 38 39 39 40 40 39 40 40 40 40 39 41 40 38 38 27 38 46 -193 58 69 73 72 72 74 74 72 64 62 60 58 57 57 59 58 55 56 56 59 60 59 59 59 59 58 59 60 60 59 60 60 59 61 65 64 59 48 43 43 42 49 55 57 60 59 60 62 63 63 64 64 66 61 66 -193 -193 70 69 68 66 65 66 72 70 65 68 67 68 68 68 68 67 64 67 65 66 65 66 59 60 58 61 59 59 59 59 58 58 57 56 57 61 69 68 69 70 -193 78 87 93 -209 -209 114 121 129 140 154 161 168 170 170 171 169 170 171 171 171 171 170 170 0 0 0 0 0
    0 0 0 0 0 0 0 0 0 0 0 0 0 0 0 0 0 0 0 0 0 0 0 0 0 0 0 0 0 0 0 0 0 0 0 0 0 0 0 0 0 0 0 0 0 0 0 0 0 0 0 0 0 0 0 0 0 0 0 0 0 0 0 0 0 0 0 0 0 31 27 28 28 27 27 30 30 29 30 30 30 30 34 32 31 31 33 33 33 31 32 32 32 30 29 31 29 28 28 25 26 29 28 28 26 27 28 28 31 33 27 31 29 29 26 26 26 26 24 24 25 25 24 24 25 24 24 22 22 22 23 24 25 26 26 27 29 30 31 31 30 28 27 32 29 29 29 28 28 28 31 32 0 -193 -193 -209 -193 -209 22 30 29 28 29 28 28 28 28 31 28 29 33 -209 -209 -209 31 37 39 39 40 41 41 42 43 43 44 44 45 47 -193 43 33 39 53 72 67 71 73 72 72 73 74 72 65 64 62 62 61 60 61 60 56 57 58 62 60 59 58 58 57 57 58 59 58 59 59 60 59 60 64 64 59 52 46 49 47 54 58 58 61 60 61 62 64 64 65 64 66 61 65 66 -193 -209 65 65 64 62 64 70 70 66 68 68 68 68 68 69 68 66 69 67 68 68 69 -193 59 58 60 57 57 56 56 57 57 57 56 57 61 68 69 70 -193 -209 -209 -209 -209 -209 -209 -209 125 135 149 155 163 168 170 170 171 169 169 170 170 169 170 169 170 0 0 0 0 0
    0 0 0 0 0 0 0 0 0 0 0 0 0 0 0 0 0 0 0 0 0 0 0 0 0 0 0 0 0 0 0 0 0 0 0 0 0 0 0 0 0 0 0 0 0 0 0 0 0 0 0 0 0 0 0 0 0 0 0 0 0 0 0 0 0 0 0 0 0 31 27 28 27 26 27 30 31 29 31 31 32 32 35 34 33 31 32 33 33 31 33 32 32 30 29 32 30 28 28 25 26 28 27 28 25 26 27 27 31 33 27 30 27 27 26 26 25 26 25 25 26 25 24 24 25 24 24 22 22 21 23 24 25 26 27 27 29 30 31 31 30 28 27 31 28 28 28 28 27 28 32 32 -193 -209 -209 -209 -209 -209 22 28 28 28 29 28 28 28 29 31 28 29 30 -209 -209 -209 28 34 39 40 -193 42 44 45 47 48 50 50 51 54 55 53 57 -225 -225 -225 -225 70 69 69 70 72 73 72 68 67 64 62 62 60 60 59 54 54 56 63 60 60 60 60 60 59 59 60 59 60 60 60 59 61 65 66 64 56 52 55 57 58 62 60 64 62 63 63 65 64 65 64 66 61 64 64 -209 -209 61 61 61 63 64 69 70 67 69 69 69 69 68 69 68 67 68 67 68 68 68 69 62 60 60 56 55 54 56 57 57 56 56 57 61 -209 -209 -209 -209 -209 -209 -209 -209 -209 -209 -209 -209 137 151 157 165 168 169 170 171 168 168 169 168 168 169 169 170 0 0 0 0 0
    0 0 0 0 0 0 0 0 0 0 0 0 0 0 0 0 0 0 0 0 0 0 0 0 0 0 0 0 0 0 0 0 0 0 0 0 0 0 0 0 0 0 0 0 0 0 0 0 0 0 0 0 0 0 0 0 0 0 0 0 0 0 0 0 0 0 0 0 0 32 26 28 26 26 27 30 30 29 31 32 32 32 36 34 33 32 32 33 33 31 34 32 32 30 29 33 31 28 28 25 26 27 26 27 24 25 26 26 30 32 27 28 26 26 25 26 25 26 25 25 29 28 25 25 26 25 24 22 22 21 23 24 25 26 26 27 29 30 31 31 30 28 27 31 28 29 29 28 27 28 32 32 -193 -209 -209 -209 -209 21 22 28 28 28 30 29 29 29 29 32 28 30 31 -209 -209 -209 27 32 39 -193 -193 43 47 47 50 52 53 53 54 56 56 54 58 -225 -225 -225 65 66 68 67 69 70 71 71 67 67 64 61 60 59 58 58 52 53 55 61 59 59 60 62 61 60 61 61 60 62 62 62 60 61 67 67 66 60 57 58 61 62 65 63 67 64 65 64 65 64 65 64 65 61 63 60 -209 -209 -209 -209 -209 64 65 70 70 69 70 69 69 69 69 69 69 68 70 69 70 70 71 73 69 64 66 60 59 58 58 58 -209 -209 -209 -209 -209 -209 -209 -209 -209 -209 -209 -209 -209 -209 -209 133 -209 141 152 158 166 169 168 169 170 167 167 168 168 168 169 169 172 0 0 0 0 0
    0 0 0 0 0 0 0 0 0 0 0 0 0 0 0 0 0 0 0 0 0 0 0 0 0 0 0 0 0 0 0 0 0 0 0 0 0 0 0 0 0 0 0 0 0 0 0 0 0 0 0 0 0 0 0 0 0 0 0 0 0 0 0 0 0 0 0 0 0 37 29 29 27 26 27 30 30 29 32 33 33 33 36 35 33 33 32 32 33 31 34 32 32 30 29 33 31 27 27 24 25 25 25 26 22 23 25 25 29 32 28 29 27 28 27 27 27 27 26 26 31 30 26 26 27 25 25 23 23 22 23 25 25 26 26 27 28 29 30 30 29 28 27 31 28 28 29 28 28 28 32 32 -225 -225 -225 -225 -225 21 22 28 28 28 30 29 29 29 31 33 29 32 35 -193 -209 36 25 30 39 -193 -177 -193 50 48 51 53 54 55 56 57 57 56 59 59 59 60 61 62 64 63 67 68 68 71 66 66 63 62 62 59 58 58 53 54 56 60 59 59 60 61 60 59 60 61 59 61 62 61 60 62 67 68 67 64 59 58 62 62 65 63 66 64 65 64 65 64 65 63 64 61 62 58 -209 -209 -209 52 -209 65 67 70 70 69 70 70 70 70 70 71 70 71 72 72 72 72 74 77 70 70 71 -209 -209 -209 -209 -209 158 -193 -209 157 156 -209 -209 -209 -209 108 116 -209 124 128 129 -209 137 144 153 158 166 168 168 168 169 166 167 168 169 169 171 172 176 0 0 0 0 0
    0 0 0 0 0 0 0 0 0 0 0 0 0 0 0 0 0 0 0 0 0 0 0 0 0 0 0 0 0 0 0 0 0 0 0 0 0 0 0 0 0 0 0 0 0 0 0 0 0 0 0 0 0 0 0 0 0 0 0 0 0 0 0 0 0 0 0 0 0 40 34 32 28 26 27 30 29 29 32 32 32 32 35 33 31 33 32 32 33 32 34 33 33 30 29 34 32 27 27 24 24 24 24 25 21 21 24 22 28 32 29 30 28 30 28 28 27 27 26 27 33 33 26 24 27 24 23 21 21 20 22 24 24 25 26 27 28 29 30 29 28 28 26 30 27 28 29 29 28 28 31 32 -225 -225 -225 -225 -225 -225 22 29 28 28 31 30 30 30 32 34 30 34 36 27 37 33 24 28 38 -209 -177 -193 52 51 53 54 56 56 57 58 58 58 59 59 59 59 61 59 61 60 61 64 63 68 64 63 62 61 61 61 59 60 55 56 56 59 59 59 59 59 60 59 59 61 59 61 62 62 62 62 69 70 72 69 62 60 63 63 65 63 66 64 66 65 66 65 65 64 65 61 62 58 -209 49 48 -193 -209 66 68 71 70 70 70 70 70 70 70 71 71 72 73 73 75 78 77 77 71 73 77 -209 -209 -209 -177 146 155 164 156 154 153 153 152 -209 107 115 -209 125 130 134 133 -209 137 144 153 156 164 167 167 168 170 167 167 169 -193 -193 174 179 -193 0 0 0 0 0
    0 0 0 0 0 0 0 0 0 0 0 0 0 0 0 0 0 0 0 0 0 0 0 0 0 0 0 0 0 0 0 0 0 0 0 0 0 0 0 0 0 0 0 0 0 0 0 0 0 0 0 0 0 0 0 0 0 0 0 0 0 0 0 0 0 0 0 0 0 41 36 32 29 26 27 31 29 29 32 31 31 32 33 32 31 33 32 32 33 32 35 36 35 32 31 35 33 28 27 -193 24 23 23 24 20 21 24 20 28 35 33 32 28 31 29 28 27 28 26 28 36 38 26 23 24 22 22 20 20 19 22 24 24 26 27 28 28 28 29 29 28 28 26 28 27 28 29 29 28 28 32 -225 -225 -225 -225 -225 -225 -225 -225 29 27 28 30 29 29 29 31 33 -193 -193 -193 -225 -225 -225 24 26 39 -193 -177 -193 55 54 55 56 57 57 59 58 59 59 59 60 60 60 63 60 61 61 61 62 62 67 63 62 61 61 61 61 59 60 55 56 56 58 58 58 58 58 59 59 59 61 59 63 64 64 64 64 69 -193 73 70 65 -193 -193 63 64 64 66 64 67 66 67 66 67 66 66 62 64 58 61 53 53 53 -209 67 69 71 70 69 69 71 71 71 71 72 72 74 77 79 78 83 85 85 73 80 -209 -177 115 123 135 145 154 162 155 152 151 151 151 153 -209 -209 -209 130 134 -193 136 -209 -209 143 153 156 164 166 166 167 170 -193 -209 -209 -209 -209 -209 -209 -209 0 0 0 0 0
    0 0 0 0 0 0 0 0 0 0 0 0 0 0 0 0 0 0 0 0 0 0 0 0 0 0 0 0 0 0 0 0 0 0 0 0 0 0 0 0 0 0 0 0 0 0 0 0 0 0 0 0 0 0 0 0 0 0 0 0 0 0 0 0 0 0 0 0 0 42 36 28 27 24 26 28 28 29 32 33 32 32 33 32 32 33 32 31 33 32 36 37 37 34 33 35 34 -193 -193 -193 -193 24 23 25 22 23 26 23 29 38 36 34 28 30 28 -225 -225 -225 -225 -225 -225 -225 -225 -225 21 23 21 20 21 20 22 23 24 27 26 27 28 27 29 28 29 28 25 29 27 28 29 29 28 28 -225 -225 -225 -225 -225 -225 -225 -225 -225 -225 25 26 28 27 -193 -193 -193 -193 -193 -225 -225 -225 -225 -225 -225 -225 39 -209 -193 -193 56 56 56 56 58 58 59 59 59 59 60 61 60 60 63 59 61 61 61 61 60 65 62 61 61 60 60 60 60 60 57 57 58 59 59 59 59 59 60 60 59 60 59 64 64 64 65 65 -193 -193 -193 70 63 -193 -193 61 60 61 64 62 66 66 68 67 68 68 67 64 65 58 62 -193 58 -209 -209 -209 70 71 71 70 70 71 71 71 72 73 73 76 81 85 86 87 89 90 -209 -209 95 109 -209 -209 -193 141 152 155 151 148 147 149 148 153 -209 -209 134 -193 -209 141 141 -209 151 150 155 159 166 167 167 168 171 -209 -209 -209 -193 -209 -209 -209 -209 0 0 0 0 0
    0 0 0 0 0 0 0 0 0 0 0 0 0 0 0 0 0 0 0 0 0 0 0 0 0 0 0 0 0 0 0 0 0 0 0 0 0 0 0 0 0 0 0 0 0 0 0 0 0 0 0 0 0 0 0 0 0 0 0 0 0 0 0 0 0 0 0 0 0 44 41 34 32 24 26 27 28 30 33 30 34 31 31 30 33 32 32 31 34 32 35 37 37 34 33 34 33 29 29 28 27 26 25 26 -225 -225 -225 -225 -225 -225 -225 -225 -225 -225 -225 -225 -225 -225 -225 -225 -225 -225 -225 -225 -225 -225 22 17 21 20 -193 22 24 26 26 26 27 27 29 28 30 29 26 31 28 29 -225 -225 -225 -225 -225 -225 -225 -225 -225 -225 -225 -225 -225 -225 -225 -225 -225 -225 -225 -225 -225 -225 -225 -225 -225 -225 -225 -225 -225 -225 -225 -225 -177 -193 58 57 56 57 58 57 59 58 58 58 59 60 59 59 61 58 59 59 59 59 59 62 60 59 59 58 58 59 59 59 57 58 60 60 60 60 60 59 60 60 60 59 59 66 64 65 67 68 -193 -193 -193 70 63 -193 62 60 59 60 60 61 64 64 66 64 66 67 66 65 67 62 -193 -209 -209 -209 -209 -209 -209 -209 -209 69 70 71 71 72 73 75 76 80 85 88 88 88 92 93 -209 -209 -209 110 -209 -209 134 138 147 149 143 141 142 146 145 150 -193 147 148 149 150 150 150 155 -209 155 159 164 169 169 169 171 174 -209 -209 -209 -209 -209 -209 -209 -209 0 0 0 0 0
    0 0 0 0 0 0 0 0 0 0 0 0 0 0 0 0 0 0 0 0 0 0 0 0 0 0 0 0 0 0 0 0 0 0 0 0 0 0 0 0 0 0 0 0 0 0 0 0 0 0 0 0 0 0 0 0 0 0 0 0 0 0 0 0 0 0 0 0 0 44 44 41 39 34 34 36 38 41 41 -225 -225 -225 -225 -225 -225 -225 -225 -225 -225 0 -256 -1 3024 -225 -225 -225 -225 -225 -225 -225 -225 -225 -225 -225 -225 -225 -225 -225 -225 -225 -225 -225 -225 -225 -225 -225 -225 -225 -225 -225 -225 -225 -225 -225 -225 -225 -225 -225 -225 -225 -225 -225 -225 -225 -225 -225 -225 -225 -225 -225 -225 -225 -225 -225 -225 -225 -225 -225 -225 -225 -225 -225 -225 -225 -225 -225 -225 -225 -225 -225 -225 -225 -225 -225 -225 -225 -225 -225 -225 -225 -225 -225 -225 -225 -225 -225 -225 -225 -225 62 61 59 57 57 58 58 59 58 58 58 58 59 59 59 60 58 59 59 59 60 59 61 59 59 58 58 57 58 58 59 57 58 60 60 60 60 60 59 60 60 60 58 59 70 67 68 69 71 -193 -193 -193 72 66 -193 65 60 58 58 59 60 64 63 65 63 65 66 -193 -193 -193 -209 -209 -209 -209 -209 -209 -193 -209 -209 -209 -209 70 72 71 73 74 77 81 85 88 90 92 90 96 96 -209 -209 -209 112 -209 -209 134 139 146 147 142 141 141 143 142 146 148 148 152 152 152 150 150 155 162 -193 161 166 169 170 170 170 173 170 -209 -209 -209 -209 -209 -209 -209 0 0 0 0 0
    0 0 0 0 0 0 0 0 0 0 0 0 0 0 0 0 0 0 0 0 0 0 0 0 0 0 0 0 0 0 0 0 0 0 0 0 0 0 0 0 0 0 0 0 0 0 0 0 0 0 0 0 0 0 0 0 0 0 0 0 0 0 0 0 0 0 0 0 0 45 45 42 41 41 40 40 42 51 57 -225 -225 -225 -225 -225 -225 -225 -225 -225 -225 -225 -225 -225 -225 -225 -225 -225 -225 -225 -225 -225 -225 -225 -225 -225 -225 -225 -225 -225 -225 -225 -225 -225 -225 -225 -225 -225 -225 -225 -225 -225 -225 -225 -225 -225 -225 -225 -225 -225 -225 -225 -225 -225 -225 -225 -225 -225 -225 -225 -225 -225 -225 -225 -225 -225 -225 -225 -225 -225 -225 -225 -225 -225 -225 -225 -225 -225 -225 -225 -225 -225 -225 -225 -225 -225 -225 -225 -225 -225 -225 -225 -225 -225 -225 -225 -225 -225 -225 -225 -225 64 62 62 57 58 59 58 59 57 58 58 58 58 58 58 59 57 59 59 58 59 59 60 58 58 58 57 57 58 58 58 57 58 60 59 60 60 60 59 60 60 60 58 63 72 70 70 71 73 74 -193 -193 -193 -209 -209 -209 -209 58 58 60 62 67 65 66 65 -209 217 -177 -177 -177 -193 -209 -209 -177 -209 -209 -193 170 177 -209 -209 -209 -209 -209 -209 -209 -209 -209 88 90 95 100 99 103 104 -209 -209 -193 117 132 -193 137 141 146 147 144 142 142 142 140 140 139 141 150 149 149 149 149 154 160 160 161 164 168 169 171 170 172 169 165 164 165 161 -193 153 152 0 0 0 0 0
    0 0 0 0 0 0 0 0 0 0 0 0 0 0 0 0 0 0 0 0 0 0 0 0 0 0 0 0 0 0 0 0 0 0 0 0 0 0 0 0 0 0 0 0 0 0 0 0 0 0 0 0 0 0 0 0 0 0 0 0 0 0 0 0 0 0 0 0 0 46 45 43 41 40 42 -193 56 57 58 58 -225 -225 -225 -225 -225 -225 -225 -225 -225 -225 -225 -225 -225 -225 -225 -225 -225 -225 -225 -225 -225 -225 -225 -225 -225 -225 -225 -225 -225 -225 -225 -225 -225 -225 -225 -225 -225 -225 -225 -225 -225 -225 -225 -225 -225 -225 -225 -225 -225 -225 -225 -225 -225 -225 -225 -225 -225 -225 -225 -225 -225 -225 -225 -225 -225 -225 -225 -225 -225 -225 -225 -225 -225 -225 -225 -225 -225 -225 -225 -225 -225 -225 -225 -225 -225 -225 -225 -225 -225 -225 -225 -225 -225 -225 -225 -225 -225 -225 -225 62 61 62 58 58 59 58 60 58 58 58 57 58 58 58 58 57 58 59 58 59 59 60 58 58 58 58 57 58 59 59 57 59 61 59 59 59 59 58 59 60 60 57 66 73 71 71 72 77 79 86 87 -209 -209 -209 -193 96 -209 -209 -209 -209 -209 -209 -209 -209 217 219 221 219 221 -193 225 225 233 -209 -209 170 173 -209 -209 -209 -209 -209 -209 -209 -209 -209 -209 91 95 101 104 105 107 114 117 -209 -209 -209 139 150 145 147 148 143 140 139 137 137 132 119 119 130 150 154 148 151 153 158 165 -209 -193 -209 167 168 172 170 172 168 165 165 -209 157 152 153 154 0 0 0 0 0
    0 0 0 0 0 0 0 0 0 0 0 0 0 0 0 0 0 0 0 0 0 0 0 0 0 0 0 0 0 0 0 0 0 0 0 0 0 0 0 0 0 0 0 0 0 0 0 0 0 0 0 0 0 0 0 0 0 0 0 0 0 0 0 0 0 0 0 0 0 47 45 43 41 40 48 -193 55 57 57 57 58 -225 -225 -225 -225 -225 -225 -225 -225 -225 -225 -225 -225 -225 -225 -225 -225 -225 -225 -225 -225 -225 -225 -225 -225 -225 -225 -225 -225 -225 -225 -225 -225 -225 -225 -225 -225 -225 -225 -225 -225 -225 -225 -225 -225 -225 -225 -225 -225 -225 -225 -225 -225 -225 -225 -225 -225 -225 -225 -225 -225 -225 -225 -225 -225 -225 -225 -225 -225 -225 -225 -225 -225 -225 -225 -225 -225 -225 -225 -225 -225 -225 -225 -225 -225 -225 -225 -225 -225 -225 -225 -225 -225 -225 -225 -225 -225 -225 67 61 60 64 59 58 59 58 60 58 58 59 57 57 58 58 59 57 58 59 57 58 59 59 57 58 58 57 57 58 59 59 57 59 61 60 60 60 59 58 59 60 60 57 67 72 71 72 72 78 -209 94 96 -209 -209 -209 -177 -209 -209 -209 -209 -209 -209 -209 -209 -209 217 219 220 220 222 -209 226 227 233 -209 164 168 169 173 -209 -209 -209 -209 -209 -209 -209 -209 -209 -209 101 104 107 109 115 122 134 139 150 158 169 171 -193 142 139 137 136 136 132 115 110 121 124 -209 -209 -209 -209 154 159 168 179 -193 -209 -209 162 168 172 170 171 169 165 166 166 158 155 158 162 0 0 0 0 0
    0 0 0 0 0 0 0 0 0 0 0 0 0 0 0 0 0 0 0 0 0 0 0 0 0 0 0 0 0 0 0 0 0 0 0 0 0 0 0 0 0 0 0 0 0 0 0 0 0 0 0 0 0 0 0 0 0 0 0 0 0 0 0 0 0 0 0 0 0 51 53 50 52 57 57 57 56 57 56 56 58 -225 -225 -225 -225 -225 -225 -225 -225 -225 -225 -225 -225 -225 -225 -225 -225 -225 -225 -225 -225 -225 -225 -225 -225 -225 -225 -225 -225 -225 -225 -225 -225 -225 -225 -225 -225 -225 -225 -225 -225 -225 -225 -225 -225 -225 -225 -225 -225 -225 -225 -225 -225 -225 -225 -225 -225 -225 -225 -225 -225 -225 -225 -225 -225 -225 -225 -225 -225 -225 -225 -225 -225 -225 -225 -225 -225 -225 -225 -225 -225 -225 -225 -225 -225 -225 -225 -225 -225 -225 -225 -225 -225 -225 -225 -225 -225 -225 62 59 58 64 59 59 60 59 61 58 58 59 57 57 58 58 58 57 58 59 57 58 58 59 57 57 58 57 57 58 59 59 58 59 61 60 60 60 59 58 59 60 60 57 67 74 72 77 83 90 -209 -209 -209 159 161 164 166 176 -209 -209 -209 -209 -209 -209 -209 -209 217 219 221 222 222 -209 -209 -209 -209 170 166 168 167 170 175 -209 -209 -209 211 -209 -209 -209 -209 -209 103 105 108 111 116 -177 137 152 163 174 183 186 189 136 135 134 132 128 123 107 110 121 -193 -209 -209 -209 -209 -209 -193 164 -209 -209 -209 -209 157 167 171 169 170 169 166 166 167 157 159 163 166 0 0 0 0 0
    0 0 0 0 0 0 0 0 0 0 0 0 0 0 0 0 0 0 0 0 0 0 0 0 0 0 0 0 0 0 0 0 0 0 0 0 0 0 0 0 0 0 0 0 0 0 0 0 0 0 0 0 0 0 0 0 0 0 0 0 0 0 0 0 0 0 0 0 0 53 55 54 57 58 59 59 58 58 58 57 59 58 -225 -225 -225 -225 -225 -225 -225 -225 -225 -225 -225 -225 -225 -225 -225 -225 -225 -225 -225 -225 -225 -225 -225 -225 -225 -225 -225 -225 -225 -225 -225 -225 -225 -225 -225 -225 -225 -225 -225 -225 -225 -225 -225 -225 -225 -225 -225 -225 -225 -225 -225 -225 -225 -225 -225 -225 -225 -225 -225 -225 -225 -225 -225 -225 -225 -225 -225 -225 -225 -225 -225 -225 -225 -225 -225 -225 -225 -225 -225 -225 -225 -225 -225 -225 -225 -225 -225 -225 -225 -225 -225 -225 -225 -225 -225 56 59 57 57 60 57 57 58 58 59 57 57 58 56 57 57 58 58 57 58 59 57 58 58 59 57 57 57 57 57 57 59 58 57 59 61 60 60 60 60 58 59 61 60 57 67 75 -193 -209 -209 -209 -209 160 164 165 166 168 169 180 -209 180 -209 -209 -209 -209 -209 -209 -193 -209 221 220 -209 -209 -209 -209 -209 170 166 168 165 169 173 -209 -209 -209 208 210 210 211 212 215 -209 -209 -209 -209 -209 -209 -209 167 179 186 189 187 189 -193 133 129 126 122 118 107 110 -193 -209 -209 -209 -209 -209 -209 -209 -209 -209 -209 -209 -209 156 167 171 169 170 169 166 166 168 161 164 165 167 0 0 0 0 0
    0 0 0 0 0 0 0 0 0 0 0 0 0 0 0 0 0 0 0 0 0 0 0 0 0 0 0 0 0 0 0 0 0 0 0 0 0 0 0 0 0 0 0 0 0 0 0 0 0 0 0 0 0 0 0 0 0 0 0 0 0 0 0 0 0 0 0 0 0 56 58 57 59 61 61 60 59 59 58 58 60 58 -225 -225 -225 -225 -225 -225 -225 -225 -225 -225 -225 -225 -225 -225 -225 -225 -225 -225 -225 -225 -225 -225 -225 -225 -225 -225 -225 -225 -225 -225 -225 -225 -225 -225 -225 -225 -225 -225 -225 -225 -225 -225 -225 -225 -225 -225 -225 -225 -225 -225 -225 -225 -225 -225 -225 -225 -225 -225 -225 -225 -225 -225 -225 -225 -225 -225 -225 -225 -225 -225 -225 -225 -225 -225 -225 -225 -225 -225 -225 -225 -225 -225 -225 -225 -225 -225 -225 -225 -225 -225 -225 -225 -225 -225 -225 56 56 56 55 56 54 54 54 55 55 54 55 56 55 55 56 57 57 56 57 58 57 57 58 58 57 57 57 57 57 57 59 58 57 59 62 61 61 60 60 58 60 62 62 57 68 74 -193 -209 -209 -209 -209 160 164 167 168 169 170 178 -193 182 -209 -209 -209 -209 -209 -209 -209 -209 -209 -209 -209 -209 -209 -209 -209 170 -193 167 163 166 -193 -209 -209 -209 205 206 204 205 206 206 204 -193 -193 184 184 186 193 187 187 188 188 -225 -225 -193 127 125 124 116 109 107 110 -193 -209 -209 -209 118 124 131 134 -193 -209 -209 -209 -177 154 165 172 174 174 173 167 166 167 163 165 166 167 0 0 0 0 0</data></disparity>
</opencv_storage>
