<?xml version="1.0"?>
<opencv_storage>
<gps_time_stamp>280585</gps_time_stamp>
<gps_x>-1.3990584373474121e+001</gps_x>
<gps_y>1.1304420471191406e+001</gps_y>
<gps_z>-2.3134574890136719e+000</gps_z>
<image_time_stamp>271459</image_time_stamp>
<disparity type_id="opencv-matrix">
  <rows>93</rows>
  <cols>320</cols>
  <dt>s</dt>
  <data>
    0 0 0 0 0 0 0 0 0 0 0 0 0 0 0 0 0 0 0 0 0 0 0 0 0 0 0 0 0 0 0 0 0 0 0 0 0 0 0 0 0 0 0 0 0 0 0 0 0 0 0 0 0 0 0 0 0 0 0 0 0 0 0 0 0 0 0 0 0 14 15 15 14 15 16 15 16 15 17 16 16 15 18 17 16 19 17 17 17 19 17 18 18 18 18 19 18 18 19 19 18 17 17 16 18 18 19 16 17 16 19 18 18 19 19 19 19 20 19 19 21 20 21 20 19 21 20 21 21 17 18 18 19 19 20 17 18 17 20 19 17 20 19 18 19 19 21 20 21 19 19 20 18 19 20 16 19 15 18 17 18 18 18 19 19 18 21 20 20 21 20 20 19 20 19 20 20 21 19 22 21 22 23 23 23 23 23 23 22 23 22 22 22 21 21 20 21 21 22 21 21 22 22 22 21 21 22 23 24 24 24 24 24 26 26 28 26 28 28 29 29 30 31 31 29 32 31 33 33 33 33 32 35 35 35 36 35 36 37 38 36 39 41 41 41 41 41 41 42 43 43 41 45 43 43 43 43 42 43 43 44 44 45 46 47 47 47 50 51 51 51 53 52 53 56 56 -193 57 58 58 57 57 57 57 57 57 57 57 58 57 58 58 58 58 56 57 56 52 54 53 48 40 38 -209 -209 -209 67 -193 70 -193 66 69 -209 -209 -193 0 0 0 0 0
    0 0 0 0 0 0 0 0 0 0 0 0 0 0 0 0 0 0 0 0 0 0 0 0 0 0 0 0 0 0 0 0 0 0 0 0 0 0 0 0 0 0 0 0 0 0 0 0 0 0 0 0 0 0 0 0 0 0 0 0 0 0 0 0 0 0 0 0 0 14 16 15 15 15 16 14 16 15 17 16 16 15 18 17 16 19 17 17 17 19 17 18 18 18 18 19 17 18 19 18 18 17 17 16 18 17 19 16 17 16 19 18 18 19 19 19 19 20 19 20 21 21 21 20 19 21 20 21 21 17 18 18 19 19 20 17 18 17 20 19 17 20 19 18 19 20 21 20 22 20 19 20 19 20 20 17 19 16 19 18 18 18 18 19 19 18 21 20 20 21 20 21 19 20 19 20 21 21 19 22 21 22 23 23 23 23 23 23 22 22 21 22 22 21 21 21 21 21 22 21 21 22 22 21 21 21 22 22 24 24 24 24 25 26 26 29 26 28 28 29 29 29 31 31 29 32 31 32 33 33 33 32 35 34 35 35 35 36 37 38 37 39 41 40 40 41 40 41 41 42 42 41 44 43 43 43 42 42 43 43 43 44 45 45 47 47 47 49 50 50 50 53 52 52 55 56 55 56 58 58 57 57 57 57 57 57 57 57 58 58 58 58 59 58 57 57 56 50 53 51 43 40 -209 -209 -209 -209 68 -193 69 70 61 61 -193 -209 -193 0 0 0 0 0
    0 0 0 0 0 0 0 0 0 0 0 0 0 0 0 0 0 0 0 0 0 0 0 0 0 0 0 0 0 0 0 0 0 0 0 0 0 0 0 0 0 0 0 0 0 0 0 0 0 0 0 0 0 0 0 0 0 0 0 0 0 0 0 0 0 0 0 0 0 15 16 16 15 16 16 14 16 15 17 16 16 15 18 17 16 18 17 17 17 19 17 18 18 18 18 19 18 19 19 19 19 17 18 16 18 17 19 16 17 17 19 18 18 19 19 19 19 20 19 20 21 21 21 21 19 21 21 20 21 17 18 18 19 19 20 17 18 17 20 18 17 20 19 18 19 20 21 20 22 20 20 21 20 20 21 18 20 16 19 18 18 18 18 19 19 18 21 20 19 21 21 21 19 21 19 20 21 -193 20 21 21 22 23 23 23 23 23 23 22 23 21 22 22 21 22 21 21 21 -193 22 21 22 22 22 21 21 22 22 24 24 24 24 25 26 27 29 27 29 28 29 29 29 31 31 29 31 31 32 32 33 33 32 35 34 35 36 36 36 37 39 38 40 41 40 40 41 40 41 40 41 42 40 43 42 42 43 42 42 43 43 43 45 45 45 47 47 47 49 50 50 49 52 51 51 55 55 55 55 58 58 57 57 57 57 57 57 57 57 58 58 58 59 59 58 57 54 52 48 50 48 43 40 -209 -209 67 -209 69 -209 68 -209 59 57 -209 -209 -209 0 0 0 0 0
    0 0 0 0 0 0 0 0 0 0 0 0 0 0 0 0 0 0 0 0 0 0 0 0 0 0 0 0 0 0 0 0 0 0 0 0 0 0 0 0 0 0 0 0 0 0 0 0 0 0 0 0 0 0 0 0 0 0 0 0 0 0 0 0 0 0 0 0 0 16 17 16 15 16 16 14 17 15 17 16 16 15 18 17 16 18 17 17 17 19 17 18 18 18 18 19 19 19 20 19 19 17 18 17 19 17 19 16 17 17 19 18 18 19 18 18 19 20 19 19 22 21 21 21 20 21 21 20 21 18 19 18 19 19 20 17 18 17 20 19 17 20 19 18 20 20 21 20 22 20 20 21 20 21 21 18 20 17 19 18 18 17 18 19 19 18 21 20 19 21 21 21 20 22 20 21 22 -193 20 21 21 22 23 23 23 22 22 23 22 22 21 21 22 21 22 21 21 21 -193 22 21 22 22 22 22 22 23 23 24 24 24 25 25 27 27 30 27 30 29 30 30 30 31 31 29 31 30 31 32 32 33 32 34 34 35 36 36 36 37 39 38 40 41 40 40 41 40 40 40 41 41 39 41 41 41 42 42 42 43 43 44 45 45 45 47 47 47 48 49 49 48 52 51 50 54 55 54 55 57 57 57 57 57 57 57 57 57 57 58 57 58 59 59 58 56 51 50 46 48 47 43 -209 -209 -209 67 72 69 -209 -209 -209 -209 -193 -209 -209 -209 0 0 0 0 0
    0 0 0 0 0 0 0 0 0 0 0 0 0 0 0 0 0 0 0 0 0 0 0 0 0 0 0 0 0 0 0 0 0 0 0 0 0 0 0 0 0 0 0 0 0 0 0 0 0 0 0 0 0 0 0 0 0 0 0 0 0 0 0 0 0 0 0 0 0 16 17 16 16 16 16 15 17 15 17 15 16 15 18 17 15 18 17 17 17 18 18 18 19 18 19 19 19 19 20 19 19 17 18 17 19 16 19 16 17 16 19 17 17 18 18 18 19 19 18 19 21 21 21 21 19 21 21 20 20 18 19 18 19 19 20 17 19 17 21 19 18 21 20 19 20 20 22 20 22 21 20 21 21 21 21 18 20 17 19 18 19 18 18 19 18 17 20 20 18 20 20 21 20 22 21 22 22 -193 21 22 21 22 23 23 23 21 22 22 22 22 21 21 21 21 22 22 21 22 23 22 22 22 23 22 22 22 23 23 25 25 25 25 26 27 27 30 27 30 29 29 30 29 31 31 29 31 30 31 32 32 33 32 34 34 36 36 36 36 38 40 39 40 41 40 40 41 40 40 40 40 41 38 41 41 41 42 42 42 43 43 44 45 45 45 47 47 46 48 49 49 48 52 51 49 54 54 54 54 57 57 57 57 57 58 57 57 57 57 57 57 58 59 59 57 55 50 49 44 42 40 38 36 -209 -209 68 -209 68 -209 -209 -209 -209 -193 -209 -209 -209 0 0 0 0 0
    0 0 0 0 0 0 0 0 0 0 0 0 0 0 0 0 0 0 0 0 0 0 0 0 0 0 0 0 0 0 0 0 0 0 0 0 0 0 0 0 0 0 0 0 0 0 0 0 0 0 0 0 0 0 0 0 0 0 0 0 0 0 0 0 0 0 0 0 0 16 18 16 16 16 16 15 16 15 17 15 16 14 18 17 15 18 17 17 18 18 18 18 19 18 19 19 19 18 20 18 19 17 18 17 18 16 19 15 17 16 19 17 16 18 18 17 19 19 18 18 21 21 20 21 19 21 21 20 20 18 19 18 19 19 21 18 19 18 21 19 18 21 20 19 20 20 22 21 22 21 21 21 21 22 22 19 21 18 19 19 19 18 19 19 19 17 20 20 18 20 21 21 21 23 22 23 23 -193 22 23 22 23 23 23 23 21 21 22 21 22 20 21 21 21 22 22 22 22 23 23 22 22 23 23 23 23 23 24 25 25 26 26 27 27 28 30 27 30 29 29 29 29 31 31 29 30 30 31 32 32 33 31 35 35 36 36 37 36 38 40 39 40 41 40 40 40 40 40 39 40 41 37 40 40 40 42 42 42 43 43 44 46 45 45 46 46 46 47 49 49 47 52 51 49 54 54 54 53 57 57 57 57 57 58 57 57 57 57 57 57 58 59 59 58 55 50 50 -193 39 34 32 29 30 -209 -209 -193 -209 -209 -209 -209 -209 -209 -209 -209 -209 0 0 0 0 0
    0 0 0 0 0 0 0 0 0 0 0 0 0 0 0 0 0 0 0 0 0 0 0 0 0 0 0 0 0 0 0 0 0 0 0 0 0 0 0 0 0 0 0 0 0 0 0 0 0 0 0 0 0 0 0 0 0 0 0 0 0 0 0 0 0 0 0 0 0 16 18 16 17 17 17 15 17 15 17 15 16 15 18 18 16 18 18 18 18 19 18 18 19 18 19 19 19 18 20 19 19 17 18 17 18 16 19 15 17 16 18 16 16 18 17 17 18 19 18 18 21 21 21 21 20 21 21 20 20 18 19 18 19 20 21 18 20 19 21 20 19 22 21 19 20 21 23 22 23 22 22 22 22 23 22 20 21 19 20 20 20 19 20 20 19 18 20 20 18 20 21 21 22 23 22 23 24 24 23 23 23 23 23 23 22 21 21 22 21 21 19 20 21 20 22 22 22 22 23 23 22 22 23 23 23 23 24 24 25 26 26 27 28 27 28 31 27 30 29 30 29 28 31 30 28 30 29 30 32 32 32 31 35 35 36 36 37 37 38 40 39 39 41 40 40 40 39 40 39 39 40 36 39 39 39 41 41 41 42 43 44 46 45 45 46 46 46 47 49 49 47 51 52 49 54 54 54 53 57 57 57 57 58 58 57 58 58 57 57 57 59 60 59 58 54 52 -193 -209 -209 -209 28 -209 -209 -209 -209 -193 -209 -209 -193 -209 -209 -209 -209 -209 -209 0 0 0 0 0
    0 0 0 0 0 0 0 0 0 0 0 0 0 0 0 0 0 0 0 0 0 0 0 0 0 0 0 0 0 0 0 0 0 0 0 0 0 0 0 0 0 0 0 0 0 0 0 0 0 0 0 0 0 0 0 0 0 0 0 0 0 0 0 0 0 0 0 0 0 17 19 17 17 17 17 15 17 15 16 15 16 15 18 18 17 19 19 18 19 19 18 18 20 19 19 20 20 18 20 19 19 17 19 17 18 16 19 15 16 16 18 16 16 18 18 17 18 19 18 19 22 21 21 22 20 21 21 20 20 18 19 18 19 20 21 19 21 20 22 21 21 23 22 20 21 22 24 23 24 23 23 24 24 24 24 21 22 20 21 21 21 21 21 21 21 19 21 20 19 20 21 22 22 24 23 24 25 25 24 24 23 23 23 23 22 21 20 21 20 21 19 20 21 20 22 22 22 23 24 23 23 23 24 24 24 24 24 24 26 27 27 28 29 28 29 32 28 31 30 30 29 28 30 29 28 29 29 30 31 32 32 32 35 35 36 36 37 37 38 40 39 39 41 39 39 40 39 39 39 39 39 35 39 38 39 41 41 41 42 43 44 46 45 45 46 46 46 46 48 49 47 51 52 49 54 54 54 53 57 57 57 57 58 58 58 58 58 57 57 58 59 61 60 62 -209 -209 -209 -209 -209 -193 -193 -209 -209 -209 -209 -209 -209 -209 -209 -209 -209 -209 -209 -209 -209 0 0 0 0 0
    0 0 0 0 0 0 0 0 0 0 0 0 0 0 0 0 0 0 0 0 0 0 0 0 0 0 0 0 0 0 0 0 0 0 0 0 0 0 0 0 0 0 0 0 0 0 0 0 0 0 0 0 0 0 0 0 0 0 0 0 0 0 0 0 0 0 0 0 0 18 19 18 18 18 18 16 17 15 16 15 16 15 18 18 17 19 19 19 19 20 19 19 20 19 20 20 20 19 20 19 20 18 19 17 18 16 19 15 17 17 19 16 17 18 18 17 18 19 18 19 22 21 21 23 20 21 21 20 20 17 19 18 19 20 22 20 23 22 23 23 23 24 23 21 22 23 26 25 25 25 25 26 26 26 25 22 23 21 21 22 22 21 22 22 21 20 22 21 19 20 21 22 23 24 23 24 25 25 24 24 24 24 23 23 23 21 21 22 21 22 20 21 22 22 23 23 23 24 25 24 24 24 25 25 25 25 26 25 27 28 29 29 28 28 29 31 28 31 30 29 28 27 29 28 27 28 28 29 31 32 31 32 35 35 37 37 38 38 39 40 39 39 41 39 39 40 39 39 38 38 39 34 38 38 39 41 41 41 42 43 44 46 45 45 46 46 46 46 48 48 47 51 52 50 54 54 54 53 57 57 56 57 57 57 57 57 57 56 55 58 59 62 63 67 -209 -209 -209 -209 -209 -193 22 -209 -209 -209 -209 -209 -209 -193 -209 -209 -209 -209 -209 -209 -209 0 0 0 0 0
    0 0 0 0 0 0 0 0 0 0 0 0 0 0 0 0 0 0 0 0 0 0 0 0 0 0 0 0 0 0 0 0 0 0 0 0 0 0 0 0 0 0 0 0 0 0 0 0 0 0 0 0 0 0 0 0 0 0 0 0 0 0 0 0 0 0 0 0 0 18 20 19 18 19 19 17 17 16 17 16 17 16 19 19 18 20 19 19 20 20 19 20 21 20 20 21 21 19 21 20 20 18 20 18 19 16 20 16 17 17 19 17 18 18 19 18 19 20 18 19 23 22 21 23 21 21 21 20 20 18 19 19 19 21 23 22 25 25 25 25 26 27 25 24 23 24 30 27 27 28 26 27 27 27 26 23 24 22 22 22 23 22 23 23 23 21 23 22 20 21 22 22 24 24 24 25 26 26 25 25 24 24 -193 24 24 22 23 23 23 23 22 22 23 23 25 25 25 25 27 26 26 26 27 28 28 27 28 27 28 31 31 29 28 28 29 30 28 31 30 29 28 27 28 27 27 27 27 28 29 31 32 34 36 36 38 38 38 38 39 39 39 39 41 39 39 39 39 39 38 38 39 34 38 38 38 41 41 41 43 43 44 46 45 46 46 46 46 46 48 48 47 51 52 50 55 55 55 53 57 57 56 56 56 55 55 55 54 53 53 58 59 64 -193 -209 -209 -209 -209 -209 -209 -193 -193 -209 -209 -193 236 238 -209 235 -209 -209 -209 -209 -209 -209 -209 0 0 0 0 0
    0 0 0 0 0 0 0 0 0 0 0 0 0 0 0 0 0 0 0 0 0 0 0 0 0 0 0 0 0 0 0 0 0 0 0 0 0 0 0 0 0 0 0 0 0 0 0 0 0 0 0 0 0 0 0 0 0 0 0 0 0 0 0 0 0 0 0 0 0 19 20 20 19 20 20 18 18 18 18 17 18 18 20 20 20 21 21 20 22 22 21 22 23 21 22 22 22 20 21 21 21 19 21 19 20 16 20 17 18 19 20 17 19 19 19 19 20 20 19 20 24 22 21 24 21 22 22 21 21 19 20 21 20 23 25 27 31 37 38 37 38 34 34 28 27 28 33 29 28 28 27 28 28 27 26 23 24 23 23 24 24 24 25 25 25 24 25 23 22 22 22 22 23 24 25 26 27 26 26 26 26 25 25 25 24 -193 -193 24 24 24 24 25 25 26 27 28 28 28 30 28 28 28 29 31 30 29 30 28 30 35 35 33 29 31 33 31 30 33 30 30 28 27 26 26 26 27 24 27 26 31 32 35 36 38 38 38 38 38 38 39 38 39 40 38 39 39 39 38 38 37 39 34 38 38 38 41 41 41 43 43 44 46 45 46 46 46 46 46 48 48 47 51 53 51 -193 55 55 53 57 56 56 55 55 54 54 54 52 52 -193 -193 60 -193 -193 -209 -209 -209 -209 -209 -209 -209 -209 -193 233 236 235 236 -193 -193 -209 -209 -193 -209 -209 -209 -193 0 0 0 0 0
    0 0 0 0 0 0 0 0 0 0 0 0 0 0 0 0 0 0 0 0 0 0 0 0 0 0 0 0 0 0 0 0 0 0 0 0 0 0 0 0 0 0 0 0 0 0 0 0 0 0 0 0 0 0 0 0 0 0 0 0 0 0 0 0 0 0 0 0 0 19 21 20 19 21 21 19 19 19 19 18 20 20 21 22 23 24 24 23 24 23 23 24 24 23 23 23 23 21 22 21 22 20 21 20 20 17 21 17 19 19 20 17 19 20 20 20 20 21 20 22 25 23 22 25 23 24 23 22 22 21 22 23 23 28 29 30 33 37 37 37 37 35 35 30 30 29 33 30 29 29 28 28 28 28 27 24 25 24 24 25 26 27 27 28 28 27 27 26 25 24 23 24 23 24 27 29 28 27 27 27 28 28 27 25 23 -193 -193 24 25 26 26 28 28 31 31 33 34 34 34 32 31 31 32 34 32 32 32 32 35 37 38 37 37 40 40 37 35 35 29 30 26 25 24 25 24 -209 -209 -209 -209 -209 35 36 37 39 38 37 37 37 38 38 38 38 40 38 38 39 38 38 38 38 39 34 38 38 38 41 41 41 43 43 44 45 45 46 45 46 46 45 48 48 47 52 53 52 -193 55 55 54 57 56 56 55 55 54 54 54 52 51 -193 -193 -193 -193 -209 -209 -209 -193 -193 -209 -209 -209 -209 -193 233 235 234 235 -209 -209 -209 -209 -193 -209 19 -209 115 0 0 0 0 0
    0 0 0 0 0 0 0 0 0 0 0 0 0 0 0 0 0 0 0 0 0 0 0 0 0 0 0 0 0 0 0 0 0 0 0 0 0 0 0 0 0 0 0 0 0 0 0 0 0 0 0 0 0 0 0 0 0 0 0 0 0 0 0 0 0 0 0 0 0 19 21 21 20 22 22 20 19 20 20 19 23 22 25 27 27 28 27 26 27 25 25 26 26 24 24 24 24 22 23 22 22 21 23 21 22 19 23 -193 -193 -193 22 19 22 23 22 22 22 23 23 25 27 26 25 27 25 27 27 24 24 24 26 27 28 32 33 33 34 36 37 37 38 37 37 33 34 32 34 31 30 30 29 30 30 31 30 27 30 28 29 30 29 30 29 32 32 30 30 30 29 28 28 28 26 26 30 33 30 29 31 31 32 33 31 27 24 27 32 31 33 32 31 34 35 35 34 35 36 36 35 34 34 34 35 36 35 34 34 35 37 38 38 37 38 40 41 38 35 34 27 29 24 23 22 -193 -209 42 -193 -209 -193 -209 36 36 37 39 37 36 37 37 37 38 38 38 39 38 38 38 38 38 38 38 39 35 39 38 39 42 41 41 43 43 44 45 45 45 45 46 46 45 49 48 48 52 53 52 -193 55 55 54 57 56 55 55 55 53 54 54 52 51 -193 -193 -193 -193 -193 -209 10 12 12 -209 -209 -209 -209 231 232 234 233 234 -209 -209 -209 -209 -209 -193 20 -209 -193 0 0 0 0 0
    0 0 0 0 0 0 0 0 0 0 0 0 0 0 0 0 0 0 0 0 0 0 0 0 0 0 0 0 0 0 0 0 0 0 0 0 0 0 0 0 0 0 0 0 0 0 0 0 0 0 0 0 0 0 0 0 0 0 0 0 0 0 0 0 0 0 0 0 0 20 22 22 21 22 23 21 20 21 21 19 25 24 26 28 29 29 29 28 30 29 28 29 29 28 26 26 26 24 24 24 24 23 25 -209 -193 -209 28 -209 -209 -209 -193 -209 28 28 26 27 27 27 29 30 31 31 30 32 30 32 32 29 29 28 30 32 35 34 36 34 35 35 37 38 38 37 37 34 35 34 35 33 31 30 30 31 32 33 32 28 34 33 34 35 34 33 33 34 34 32 31 31 31 29 30 30 28 28 31 35 30 29 31 31 34 35 33 30 28 35 37 36 36 34 33 34 35 35 34 35 36 35 35 34 34 34 35 35 34 34 34 36 37 37 37 35 37 38 39 37 32 30 25 -193 20 20 20 -209 -209 43 49 -209 -209 -209 35 34 35 38 36 36 37 37 37 38 38 38 39 38 38 39 39 39 39 38 39 36 39 39 39 42 41 41 43 43 44 45 45 45 45 46 46 45 49 48 48 51 53 53 55 55 55 54 56 56 55 54 55 53 54 54 52 51 -193 -193 -193 -193 -193 -209 -193 12 13 -209 -209 -209 -209 230 231 233 233 234 -193 -209 -209 71 -193 -209 -209 -209 -209 0 0 0 0 0
    0 0 0 0 0 0 0 0 0 0 0 0 0 0 0 0 0 0 0 0 0 0 0 0 0 0 0 0 0 0 0 0 0 0 0 0 0 0 0 0 0 0 0 0 0 0 0 0 0 0 0 0 0 0 0 0 0 0 0 0 0 0 0 0 0 0 0 0 0 22 23 23 23 25 25 23 23 24 25 25 28 29 30 30 31 31 31 30 33 31 30 31 30 30 29 29 30 28 28 29 29 29 31 32 33 33 -193 37 38 -193 34 34 35 34 32 33 32 34 36 36 36 36 37 38 38 38 36 36 36 34 33 32 34 32 33 31 31 29 30 35 36 35 36 33 35 34 35 34 32 30 30 29 31 31 31 27 32 30 35 36 35 34 33 34 34 33 31 31 30 29 29 29 27 28 30 34 30 29 29 30 31 33 30 30 30 35 37 36 36 34 33 33 34 35 35 36 36 35 35 34 34 34 35 34 33 33 33 36 37 37 36 34 36 36 39 36 28 24 23 21 19 21 -193 30 39 42 47 49 43 41 35 34 35 38 36 36 37 37 37 37 37 37 39 38 38 39 39 39 39 38 39 37 39 39 40 42 41 41 43 43 44 45 44 45 44 46 46 45 49 49 49 52 54 53 55 55 55 54 56 56 55 54 55 53 54 53 51 51 -193 -193 -193 -193 -193 -209 -193 -193 -193 -209 -209 -209 -209 -209 230 233 232 -193 -209 -193 -209 -193 -209 -193 64 -193 -209 0 0 0 0 0
    0 0 0 0 0 0 0 0 0 0 0 0 0 0 0 0 0 0 0 0 0 0 0 0 0 0 0 0 0 0 0 0 0 0 0 0 0 0 0 0 0 0 0 0 0 0 0 0 0 0 0 0 0 0 0 0 0 0 0 0 0 0 0 0 0 0 0 0 0 24 26 27 26 28 29 27 27 27 28 27 31 31 31 31 32 32 32 30 34 32 31 31 31 31 31 31 33 31 32 33 33 36 36 36 36 35 36 37 38 37 36 36 36 36 35 36 35 36 37 37 36 37 38 39 38 39 37 37 36 35 32 31 32 31 30 28 29 27 27 31 34 33 35 32 35 34 36 36 33 32 30 29 29 29 29 26 29 -193 33 35 36 35 33 34 34 33 32 31 30 29 29 31 29 31 32 35 32 31 31 32 33 33 30 31 33 36 37 35 35 34 33 33 33 34 34 35 36 35 34 34 34 35 35 34 32 32 32 36 36 37 36 31 36 35 37 34 26 24 22 19 19 21 -209 -209 42 44 50 52 45 46 36 35 35 38 36 36 37 36 36 37 37 37 38 38 38 39 39 39 39 39 40 38 40 40 40 43 42 42 43 43 44 45 44 45 44 46 46 45 49 49 49 52 54 53 55 55 55 54 55 55 55 53 54 53 53 53 51 51 -193 0 -193 -193 -193 -193 -193 -193 19 -209 -209 -209 -209 -209 -209 -209 -193 -193 -209 -209 -209 -209 -193 -193 61 65 64 0 0 0 0 0
    0 0 0 0 0 0 0 0 0 0 0 0 0 0 0 0 0 0 0 0 0 0 0 0 0 0 0 0 0 0 0 0 0 0 0 0 0 0 0 0 0 0 0 0 0 0 0 0 0 0 0 0 0 0 0 0 0 0 0 0 0 0 0 0 0 0 0 0 0 29 30 31 29 32 32 29 27 -193 -193 27 30 -193 -193 30 31 32 32 31 35 32 32 32 31 32 31 32 34 32 33 34 33 35 36 35 35 34 35 36 37 37 35 35 36 36 34 36 35 36 37 37 -193 -193 -193 39 39 40 38 38 37 36 33 32 33 32 30 28 29 27 27 30 32 32 34 33 35 34 36 36 34 32 30 28 28 27 26 25 27 -193 31 33 36 34 32 33 34 33 32 31 31 30 30 32 32 34 34 36 34 34 34 35 36 35 33 34 36 38 37 35 35 34 34 33 33 33 33 34 36 34 33 33 33 34 35 32 31 30 29 33 34 35 33 28 32 33 36 34 27 25 22 21 20 -209 -209 -209 45 49 53 56 49 52 37 36 36 39 36 36 37 36 36 37 37 37 38 38 38 39 39 40 40 40 40 -193 40 41 41 43 42 42 43 43 44 45 44 45 44 46 46 45 49 49 49 51 54 53 55 55 54 54 55 55 54 53 54 52 53 53 51 50 0 0 0 -193 -193 11 -193 17 -193 -209 -209 -209 -209 -209 -209 -209 -193 -209 -209 -209 -209 -209 62 -193 65 67 69 0 0 0 0 0
    0 0 0 0 0 0 0 0 0 0 0 0 0 0 0 0 0 0 0 0 0 0 0 0 0 0 0 0 0 0 0 0 0 0 0 0 0 0 0 0 0 0 0 0 0 0 0 0 0 0 0 0 0 0 0 0 0 0 0 0 0 0 0 0 0 0 0 0 0 30 31 35 30 33 32 29 27 26 29 27 30 30 -209 -209 -193 32 33 31 35 31 32 32 31 32 32 32 34 32 33 34 33 34 34 32 33 33 33 34 35 35 35 35 36 36 34 36 35 36 37 36 -193 -193 -209 39 39 40 39 39 38 37 34 33 33 31 29 28 28 27 26 29 31 32 34 33 35 34 36 36 34 32 30 27 28 27 26 25 27 -193 32 33 36 35 33 34 34 34 33 32 32 30 31 34 33 35 34 36 35 35 35 35 37 36 32 34 36 37 36 34 34 32 32 32 32 32 32 32 34 32 32 31 32 33 34 32 30 29 28 32 32 33 30 27 30 31 34 35 29 29 26 28 25 -209 44 43 47 51 54 57 50 53 37 36 36 39 35 35 36 36 36 37 36 36 37 38 38 39 40 40 40 40 40 -209 41 43 42 44 42 42 43 43 44 45 44 45 43 46 46 45 50 49 49 51 54 53 54 54 54 53 54 54 53 52 53 52 52 52 50 48 0 0 0 0 -177 -193 -209 -209 -209 -209 -193 -209 -209 -209 -209 -209 -209 -193 221 225 -209 -209 63 -193 -209 71 72 0 0 0 0 0
    0 0 0 0 0 0 0 0 0 0 0 0 0 0 0 0 0 0 0 0 0 0 0 0 0 0 0 0 0 0 0 0 0 0 0 0 0 0 0 0 0 0 0 0 0 0 0 0 0 0 0 0 0 0 0 0 0 0 0 0 0 0 0 0 0 0 0 0 0 -193 -193 36 32 34 35 32 28 27 29 28 30 31 -209 -209 -209 -209 34 31 34 30 31 31 30 31 31 31 33 33 34 36 35 35 35 32 34 33 33 34 34 34 35 34 37 36 34 36 35 36 36 35 36 36 -193 -193 37 39 38 38 39 37 34 32 31 30 28 28 28 27 26 29 31 32 34 33 35 34 36 36 35 33 31 28 30 29 28 27 28 27 33 33 36 34 32 33 33 33 32 31 31 29 30 33 33 35 34 36 34 35 36 36 37 35 31 31 33 34 34 32 32 30 32 32 33 31 32 32 35 -193 31 31 32 33 35 32 31 28 28 32 31 32 28 -193 29 28 32 34 29 30 29 33 30 40 45 44 47 51 55 56 49 51 36 35 35 38 34 35 36 35 35 36 36 36 37 39 39 39 40 41 41 41 41 -193 41 44 42 44 43 42 43 43 43 44 44 45 43 46 46 45 50 49 49 50 54 53 54 54 53 53 53 54 53 52 53 52 52 53 51 47 -193 0 0 -193 -193 -193 -209 -209 -209 44 -209 -209 -209 -209 -193 -209 -193 -193 219 222 -209 -209 66 -209 76 74 75 0 0 0 0 0
    0 0 0 0 0 0 0 0 0 0 0 0 0 0 0 0 0 0 0 0 0 0 0 0 0 0 0 0 0 0 0 0 0 0 0 0 0 0 0 0 0 0 0 0 0 0 0 0 0 0 0 0 0 0 0 0 0 0 0 0 0 0 0 0 0 0 0 0 0 -209 -193 37 36 36 37 36 30 29 30 29 30 30 -193 -209 -193 -193 -193 32 34 30 31 31 -193 31 31 31 32 32 34 36 35 35 35 32 34 34 33 34 33 34 35 34 38 36 35 37 35 35 36 -209 -193 -193 -193 -193 35 -193 36 35 37 35 31 30 30 30 27 28 28 27 27 30 31 32 34 33 35 34 36 37 35 35 33 29 31 29 29 27 29 28 32 32 36 33 31 32 32 33 32 32 31 29 31 33 34 35 33 34 32 34 34 35 35 33 30 31 33 33 33 32 31 29 31 31 33 30 32 -209 -209 -193 31 31 33 34 36 32 31 28 29 33 30 29 27 -193 28 27 31 33 29 31 31 33 32 39 43 43 45 49 53 52 45 47 37 36 36 39 35 35 36 35 35 36 36 36 37 39 39 39 41 41 42 42 42 43 41 45 43 44 43 43 43 43 43 45 44 45 43 46 47 46 51 50 50 50 53 52 53 53 52 52 53 53 53 51 53 53 52 53 52 -193 -193 0 0 0 -177 -209 -209 48 -193 48 -209 -209 -209 -209 -209 -209 -209 -209 -209 -209 -193 -193 69 -209 77 75 77 0 0 0 0 0
    0 0 0 0 0 0 0 0 0 0 0 0 0 0 0 0 0 0 0 0 0 0 0 0 0 0 0 0 0 0 0 0 0 0 0 0 0 0 0 0 0 0 0 0 0 0 0 0 0 0 0 0 0 0 0 0 0 0 0 0 0 0 0 0 0 0 0 0 0 32 33 37 38 37 39 38 31 31 32 30 -193 -193 -193 -193 31 30 32 31 34 30 31 -193 -193 31 33 32 31 33 34 36 34 35 34 31 33 33 32 33 32 33 33 33 37 35 32 35 33 -193 -193 -209 -209 -209 -209 -209 32 -193 35 33 36 33 30 30 30 30 28 29 29 28 28 30 32 32 33 33 35 34 36 37 36 35 34 28 30 27 27 26 27 27 30 30 35 33 30 30 31 33 31 31 31 29 31 33 34 34 32 34 32 33 33 33 34 32 31 31 32 33 33 32 31 30 34 31 32 30 32 -209 -193 29 30 30 32 33 33 30 30 27 31 33 31 28 27 -193 30 29 32 33 29 30 31 31 30 34 42 -209 44 48 53 48 42 43 38 36 36 38 35 35 36 36 35 35 36 35 37 39 39 40 41 41 42 43 42 43 42 45 44 44 43 43 43 44 43 45 44 45 43 46 48 46 51 51 49 50 53 51 52 53 52 52 52 53 52 51 54 53 52 54 53 -193 -193 0 0 0 -177 -193 -209 50 50 52 47 -193 -209 -193 -209 -209 -209 -209 -209 -193 -193 -209 71 86 77 76 78 0 0 0 0 0
    0 0 0 0 0 0 0 0 0 0 0 0 0 0 0 0 0 0 0 0 0 0 0 0 0 0 0 0 0 0 0 0 0 0 0 0 0 0 0 0 0 0 0 0 0 0 0 0 0 0 0 0 0 0 0 0 0 0 0 0 0 0 0 0 0 0 0 0 0 35 35 38 39 39 40 38 32 -193 -193 31 -193 -193 -193 29 30 29 30 30 31 28 -193 -209 -209 -209 -193 32 30 32 33 35 33 33 31 29 31 31 30 32 31 31 30 31 35 -193 29 -209 -209 -209 -209 -209 -209 -209 -209 -209 28 -193 34 31 36 35 31 32 32 32 29 29 30 28 29 30 31 31 33 33 35 34 36 36 36 35 35 29 30 27 27 26 27 27 30 30 34 32 29 29 30 33 31 30 30 29 31 34 34 34 31 34 31 32 31 31 31 30 30 31 31 33 33 33 33 33 36 33 -193 33 33 -193 33 30 30 30 31 31 31 30 29 27 31 33 32 27 27 -193 30 29 33 33 29 29 29 29 27 29 -209 -209 -193 47 53 -209 -193 41 38 35 36 38 35 35 35 36 35 34 35 35 37 39 39 39 41 41 42 43 42 43 42 45 44 44 43 43 44 44 44 45 44 45 44 47 49 48 53 52 49 50 53 51 51 53 51 51 52 53 52 51 53 53 52 54 54 52 -193 0 0 0 -177 -193 -209 50 51 52 50 49 -209 -193 -209 -209 -193 -209 -193 -193 72 77 72 84 77 76 78 0 0 0 0 0
    0 0 0 0 0 0 0 0 0 0 0 0 0 0 0 0 0 0 0 0 0 0 0 0 0 0 0 0 0 0 0 0 0 0 0 0 0 0 0 0 0 0 0 0 0 0 0 0 0 0 0 0 0 0 0 0 0 0 0 0 0 0 0 0 0 0 0 0 0 -193 35 39 40 40 40 39 35 35 -193 34 -193 32 -193 30 30 29 -193 28 -209 -209 -209 -209 -209 -193 -209 -193 29 31 32 34 31 32 29 28 30 30 29 31 30 31 29 31 34 -193 -193 -209 -209 -209 -209 -209 -209 -193 -193 -209 28 32 32 35 37 37 34 34 33 32 30 29 30 29 28 30 30 31 32 33 35 34 36 36 37 36 35 31 31 28 29 28 28 28 29 30 31 30 28 28 29 33 30 30 30 30 32 34 34 34 32 35 32 31 30 30 29 29 29 30 30 33 33 34 33 35 36 35 35 33 32 36 33 30 30 30 32 31 31 31 28 28 31 33 32 27 27 26 30 29 31 32 29 29 29 29 28 31 39 -209 44 48 51 49 -193 42 38 34 35 37 35 35 35 35 35 33 34 34 37 39 38 39 40 41 42 43 43 43 42 45 44 44 44 43 44 44 44 45 44 45 43 47 50 49 55 53 49 50 53 51 51 52 51 51 51 52 52 51 53 53 52 55 54 53 59 -193 0 0 -177 -193 -209 50 53 53 53 53 -209 -209 -209 -209 -193 -193 -193 -193 72 75 73 82 77 76 78 0 0 0 0 0
    0 0 0 0 0 0 0 0 0 0 0 0 0 0 0 0 0 0 0 0 0 0 0 0 0 0 0 0 0 0 0 0 0 0 0 0 0 0 0 0 0 0 0 0 0 0 0 0 0 0 0 0 0 0 0 0 0 0 0 0 0 0 0 0 0 0 0 0 0 -209 35 39 41 40 41 39 -193 -193 -193 36 35 32 32 30 30 29 -209 -209 -209 -209 -209 -209 -209 -177 -193 -193 29 33 32 34 32 32 30 29 30 31 30 32 31 32 30 32 36 33 32 -209 -193 -209 -193 -209 -209 -193 -193 -209 27 33 33 38 40 39 37 37 35 34 30 30 31 29 28 30 30 30 32 33 35 33 36 36 36 38 37 36 34 31 32 29 30 29 30 30 31 31 28 30 30 35 32 32 32 31 32 34 34 33 31 34 31 30 29 29 29 29 30 31 30 34 34 35 34 35 37 36 36 33 32 37 32 31 31 31 33 31 33 32 29 30 34 35 34 28 30 30 32 33 32 33 31 30 31 31 28 31 37 -209 -193 48 49 -209 -209 -209 38 34 34 36 34 35 34 35 35 33 34 34 36 39 38 39 40 41 42 42 42 43 41 44 44 44 44 43 44 44 44 45 44 45 44 47 49 50 54 53 49 50 53 51 51 52 51 50 51 52 52 51 53 53 51 55 55 54 60 -193 -193 -193 -209 -209 -209 51 55 54 56 55 57 63 66 69 71 71 71 72 72 74 74 80 76 75 77 0 0 0 0 0
    0 0 0 0 0 0 0 0 0 0 0 0 0 0 0 0 0 0 0 0 0 0 0 0 0 0 0 0 0 0 0 0 0 0 0 0 0 0 0 0 0 0 0 0 0 0 0 0 0 0 0 0 0 0 0 0 0 0 0 0 0 0 0 0 0 0 0 0 0 -209 35 38 -193 39 40 -193 -193 -193 -193 37 35 33 33 30 30 -193 -193 -209 -209 -209 -209 -209 -209 -177 -193 -209 30 35 33 35 33 33 31 30 30 30 30 31 30 32 -193 -193 -193 -193 -193 -193 -193 -193 -193 -193 -193 -193 -209 -209 25 -193 32 39 40 39 39 38 36 35 32 31 31 29 29 30 30 31 32 33 35 33 35 35 36 38 38 38 36 33 34 31 31 31 31 31 32 32 30 31 32 36 32 32 32 31 31 33 32 31 29 32 29 28 27 28 28 28 30 31 30 34 34 36 34 33 35 35 36 32 31 37 32 31 32 32 33 31 33 33 28 32 34 35 33 28 30 30 32 33 32 33 32 31 -193 -193 28 29 27 -193 -209 -193 -193 -209 -209 -209 37 34 33 36 35 35 34 34 35 33 34 34 36 39 38 39 40 40 42 42 42 43 41 44 44 43 43 43 43 43 43 44 43 44 43 45 48 50 55 53 49 49 52 51 51 52 51 50 51 52 52 51 53 53 51 55 55 54 59 -193 -193 -193 70 -193 49 53 55 55 56 56 60 68 71 70 71 71 71 72 72 73 74 79 76 75 77 0 0 0 0 0
    0 0 0 0 0 0 0 0 0 0 0 0 0 0 0 0 0 0 0 0 0 0 0 0 0 0 0 0 0 0 0 0 0 0 0 0 0 0 0 0 0 0 0 0 0 0 0 0 0 0 0 0 0 0 0 0 0 0 0 0 0 0 0 0 0 0 0 0 0 -209 -193 36 -209 37 40 -209 -193 -193 -193 -193 -193 30 -193 30 30 -193 -209 -209 -209 -209 -209 -209 -209 -209 -209 -193 30 35 32 35 34 34 32 31 31 31 30 31 29 30 -193 -193 -193 -193 -193 -193 32 32 30 29 30 29 28 -193 28 -193 37 42 41 40 40 39 37 36 34 33 31 29 29 31 31 32 32 33 35 34 36 36 36 38 38 39 37 34 35 32 33 32 32 31 31 31 30 31 33 36 33 32 32 31 31 32 31 30 28 30 28 27 27 27 27 27 30 30 29 33 33 35 32 31 33 33 34 33 31 37 32 32 32 32 33 32 32 33 28 33 35 35 33 28 31 31 33 32 32 31 30 30 -193 -193 28 28 27 -193 -209 -209 -209 21 -193 -209 38 34 33 36 35 35 35 35 36 33 35 35 36 39 38 39 40 40 42 42 42 42 41 43 44 43 43 43 43 43 42 43 43 43 43 44 47 53 56 54 49 49 52 51 51 52 51 51 51 52 52 51 53 53 52 55 55 55 60 65 67 66 69 62 56 56 58 56 58 58 68 70 71 71 72 71 71 72 72 73 74 78 75 75 77 0 0 0 0 0
    0 0 0 0 0 0 0 0 0 0 0 0 0 0 0 0 0 0 0 0 0 0 0 0 0 0 0 0 0 0 0 0 0 0 0 0 0 0 0 0 0 0 0 0 0 0 0 0 0 0 0 0 0 0 0 0 0 0 0 0 0 0 0 0 0 0 0 0 0 -209 -193 35 -209 37 40 -209 -209 -193 -193 -209 -209 28 -193 30 30 -209 -193 -209 -209 -209 -209 -209 -209 -193 -209 -193 30 35 31 35 35 35 32 31 30 30 28 29 26 28 -193 -193 -193 -193 -193 -193 33 33 31 32 33 32 31 33 33 38 38 43 42 40 39 38 37 37 35 34 32 31 30 31 31 31 31 33 35 34 35 35 36 38 38 40 37 33 35 32 33 32 31 30 30 30 29 30 32 36 34 32 32 32 31 33 31 30 28 29 28 27 26 27 27 27 30 30 28 32 33 35 32 31 32 33 35 34 32 36 32 33 33 34 34 32 32 33 28 34 35 36 33 29 36 34 36 35 33 -209 -193 -193 -193 -209 -209 30 35 -209 -209 42 -209 -209 -209 -209 39 34 34 37 36 36 35 36 36 34 36 35 36 40 38 39 40 40 41 41 42 42 41 43 44 42 43 43 43 43 42 43 42 41 41 40 44 48 53 53 49 49 52 51 51 53 51 51 51 52 52 52 53 54 52 55 56 56 60 64 66 65 67 63 60 59 62 60 62 63 69 71 71 71 72 71 71 72 72 72 74 77 74 74 76 0 0 0 0 0
    0 0 0 0 0 0 0 0 0 0 0 0 0 0 0 0 0 0 0 0 0 0 0 0 0 0 0 0 0 0 0 0 0 0 0 0 0 0 0 0 0 0 0 0 0 0 0 0 0 0 0 0 0 0 0 0 0 0 0 0 0 0 0 0 0 0 0 0 0 -209 -209 -193 -209 -193 -209 -209 -209 -193 29 -209 -209 24 27 28 29 -193 -193 -193 -193 -193 -209 -209 -209 352 -209 -209 30 35 30 32 31 32 29 28 27 26 25 26 24 26 -209 27 -193 -209 35 -193 35 34 32 33 35 33 33 33 34 38 39 42 41 40 39 38 37 36 35 33 31 31 29 30 30 30 31 32 34 33 34 34 35 38 37 39 36 32 35 33 33 32 31 31 31 31 30 31 33 36 34 32 32 32 32 33 33 30 29 30 29 28 26 27 26 26 28 29 27 31 33 35 32 31 33 33 35 35 33 37 34 34 35 35 35 34 34 35 29 35 35 36 33 -177 -177 38 40 41 -193 127 131 -209 130 -209 -209 30 -209 -209 -209 43 42 -193 -193 -193 43 36 36 38 36 36 36 36 37 35 37 37 36 40 38 39 40 40 41 41 41 41 40 43 44 42 43 43 43 43 43 43 41 40 40 40 43 46 50 53 49 49 52 51 51 53 52 52 51 53 53 52 53 54 52 56 56 57 60 63 66 65 66 64 63 63 67 65 65 67 70 71 72 71 72 71 72 72 73 73 74 77 74 74 76 0 0 0 0 0
    0 0 0 0 0 0 0 0 0 0 0 0 0 0 0 0 0 0 0 0 0 0 0 0 0 0 0 0 0 0 0 0 0 0 0 0 0 0 0 0 0 0 0 0 0 0 0 0 0 0 0 0 0 0 0 0 0 0 0 0 0 0 0 0 0 0 0 0 0 -209 -209 -209 -209 -209 -209 -209 -193 -209 -209 -209 -209 24 27 -193 29 -193 -193 -193 -193 -193 -209 -209 -209 -193 -209 -193 31 33 29 30 30 31 28 27 26 25 25 25 23 -209 -209 -209 -193 -209 36 36 36 34 33 34 35 34 34 34 35 38 39 43 42 40 39 38 37 36 35 32 30 30 29 30 30 30 30 31 34 33 34 34 35 37 37 38 36 33 36 35 35 34 34 34 33 34 33 34 35 36 34 31 32 32 31 33 31 29 29 30 29 27 26 26 25 26 28 29 27 31 33 36 34 33 35 34 36 35 35 37 35 36 36 36 36 35 35 35 30 36 35 36 33 33 39 39 40 41 -193 -177 -193 129 -193 -209 -209 -209 -209 -193 -209 -209 -209 -193 43 -193 -193 36 37 38 37 37 37 37 37 36 37 37 37 40 38 38 39 39 40 40 40 41 40 42 43 42 42 42 43 43 42 42 40 39 38 -193 -209 45 48 53 49 49 52 52 52 53 52 52 52 53 53 53 53 54 53 56 56 57 60 62 65 64 64 64 65 66 69 68 67 68 70 71 71 71 72 71 72 72 73 73 74 76 74 73 76 0 0 0 0 0
    0 0 0 0 0 0 0 0 0 0 0 0 0 0 0 0 0 0 0 0 0 0 0 0 0 0 0 0 0 0 0 0 0 0 0 0 0 0 0 0 0 0 0 0 0 0 0 0 0 0 0 0 0 0 0 0 0 0 0 0 0 0 0 0 0 0 0 0 0 -209 -209 -209 -193 -209 -209 -209 -209 -209 -209 -209 -209 -209 -209 -209 -193 -209 -209 -209 -209 -209 -193 -193 33 33 32 32 30 32 30 30 30 32 29 28 27 25 25 -193 24 -193 -209 -209 -209 -209 36 36 36 35 34 34 35 34 35 34 37 38 40 43 42 41 39 39 38 36 34 30 29 29 28 29 29 29 30 31 34 33 34 34 34 36 35 36 34 33 34 34 34 34 34 34 34 35 35 36 37 36 35 32 32 32 31 32 31 29 29 29 29 27 26 26 25 26 28 29 28 31 34 36 35 35 36 35 36 35 35 37 36 36 36 37 36 36 36 36 32 35 35 34 31 33 37 37 39 40 -193 -193 -193 -193 -209 -209 -209 27 -209 -193 16 -209 -209 -209 -209 -193 -209 37 38 39 37 37 38 37 37 37 38 37 36 39 37 37 39 39 39 39 39 41 39 42 43 42 42 42 43 43 42 42 39 38 38 -193 -209 46 50 54 50 50 52 53 52 53 53 52 52 53 54 53 53 54 54 56 57 57 60 61 64 64 65 66 66 68 70 69 68 68 70 71 70 71 71 71 72 72 73 73 75 76 74 73 76 0 0 0 0 0
    0 0 0 0 0 0 0 0 0 0 0 0 0 0 0 0 0 0 0 0 0 0 0 0 0 0 0 0 0 0 0 0 0 0 0 0 0 0 0 0 0 0 0 0 0 0 0 0 0 0 0 0 0 0 0 0 0 0 0 0 0 0 0 0 0 0 0 0 0 -193 31 33 -209 -209 -209 -209 -209 -209 -209 -209 -209 29 31 31 31 33 -193 -193 33 35 34 33 32 33 32 32 29 33 30 31 31 34 31 30 27 25 25 25 23 -209 -209 -209 -193 -193 36 35 35 35 33 33 35 34 35 35 38 39 40 43 43 41 40 39 38 37 35 32 29 29 28 29 29 29 30 31 34 33 34 33 33 34 33 35 33 33 34 34 34 35 34 35 35 36 36 36 37 36 35 32 32 31 30 31 30 29 29 29 30 27 27 27 26 26 29 30 28 32 35 36 35 35 35 35 34 34 35 36 37 37 37 37 37 36 37 37 36 34 34 33 29 32 35 35 36 36 -193 -193 -193 -209 -209 -209 -209 -209 28 26 -209 -209 124 126 -193 129 -193 38 39 39 37 38 38 37 37 37 38 38 36 39 37 37 38 39 39 39 39 40 39 42 43 42 42 42 42 43 41 39 37 35 -193 -193 -209 -209 51 54 51 51 53 54 53 54 53 53 53 54 54 54 54 54 54 57 57 57 60 61 64 65 65 66 66 68 70 68 68 68 69 70 70 70 70 70 71 72 73 73 75 76 74 74 76 0 0 0 0 0
    0 0 0 0 0 0 0 0 0 0 0 0 0 0 0 0 0 0 0 0 0 0 0 0 0 0 0 0 0 0 0 0 0 0 0 0 0 0 0 0 0 0 0 0 0 0 0 0 0 0 0 0 0 0 0 0 0 0 0 0 0 0 0 0 0 0 0 0 0 33 30 32 31 30 29 -193 -193 -193 27 -209 -209 28 30 32 32 33 33 36 34 35 34 34 32 33 31 32 30 30 29 30 29 33 31 30 27 25 25 25 24 -193 -193 27 -193 -193 36 35 35 34 32 32 34 33 35 35 39 40 41 43 43 41 41 39 38 38 36 34 30 30 29 30 29 29 30 31 33 33 33 32 32 32 31 32 32 32 33 34 34 35 35 35 35 38 37 37 37 35 34 31 32 30 29 30 30 29 30 30 31 28 28 28 27 28 31 31 29 31 35 36 34 34 35 35 34 35 36 36 37 37 37 37 37 37 37 37 38 34 33 32 28 31 33 35 37 39 -193 -193 -193 -209 -193 -209 -209 -209 -209 21 -209 -193 126 127 129 130 -193 39 40 39 37 38 38 37 37 37 38 38 36 39 37 37 38 39 38 38 38 40 39 41 42 41 41 41 42 43 39 36 -193 -193 -193 -193 -209 -209 -209 54 52 52 53 55 54 54 53 53 53 54 54 54 54 55 55 57 57 57 60 61 65 65 65 66 66 68 69 68 68 68 69 69 69 70 70 69 71 71 73 73 75 76 74 74 76 0 0 0 0 0
    0 0 0 0 0 0 0 0 0 0 0 0 0 0 0 0 0 0 0 0 0 0 0 0 0 0 0 0 0 0 0 0 0 0 0 0 0 0 0 0 0 0 0 0 0 0 0 0 0 0 0 0 0 0 0 0 0 0 0 0 0 0 0 0 0 0 0 0 0 32 29 30 28 28 27 26 27 25 26 25 25 29 31 34 34 33 -193 36 35 34 34 33 31 31 31 32 29 28 28 29 28 31 30 31 28 26 25 25 23 -193 24 25 26 28 34 34 35 33 31 32 33 34 36 35 38 38 39 42 42 41 39 39 38 37 36 35 30 31 30 30 30 31 32 34 35 36 35 33 34 32 31 31 31 31 32 34 34 35 35 35 35 37 37 36 37 32 33 31 31 30 30 30 30 28 30 30 31 29 29 29 28 28 31 31 28 31 35 36 34 35 36 36 33 35 36 36 37 37 38 37 37 37 37 37 40 32 33 30 26 29 30 35 39 43 46 -193 50 46 51 -209 48 -209 -209 -209 0 -209 -209 -193 -193 131 -193 40 42 39 37 38 38 38 37 38 38 38 37 39 37 37 38 39 38 38 38 40 40 42 42 42 42 42 43 43 39 32 -193 -193 -193 -209 -209 -209 -209 55 53 53 54 55 54 55 54 54 54 54 55 55 54 55 56 57 57 57 60 62 64 66 65 66 66 68 69 66 67 67 68 69 68 69 69 69 71 70 73 73 75 76 75 74 76 0 0 0 0 0
    0 0 0 0 0 0 0 0 0 0 0 0 0 0 0 0 0 0 0 0 0 0 0 0 0 0 0 0 0 0 0 0 0 0 0 0 0 0 0 0 0 0 0 0 0 0 0 0 0 0 0 0 0 0 0 0 0 0 0 0 0 0 0 0 0 0 0 0 0 31 28 29 28 27 -193 -193 27 25 26 24 25 29 30 35 35 32 31 35 35 33 33 33 30 30 30 31 29 27 28 28 27 30 30 31 29 27 25 25 24 25 24 24 24 24 32 33 35 33 32 32 34 35 37 37 38 38 38 40 40 39 36 36 36 36 35 35 31 32 32 31 31 32 33 35 36 37 35 34 -193 32 30 31 30 31 31 33 33 34 34 35 35 37 37 34 36 31 32 31 30 30 30 30 31 30 32 32 33 32 31 31 29 30 32 32 29 31 34 36 34 36 37 37 34 36 37 36 38 38 38 37 37 38 37 37 41 32 33 28 27 32 32 36 38 43 47 51 50 46 52 53 50 -209 -193 -209 0 -209 -193 -209 -193 -193 133 -209 44 39 37 38 38 38 38 38 38 38 37 39 37 37 38 39 38 38 38 40 40 42 43 42 42 42 44 44 39 28 -209 -193 -193 -193 -193 -209 -209 55 54 54 54 56 54 55 54 54 54 54 55 55 54 56 56 57 58 58 60 62 64 65 64 64 64 66 67 65 67 67 68 68 68 69 69 69 71 70 73 74 76 77 75 74 77 0 0 0 0 0
    0 0 0 0 0 0 0 0 0 0 0 0 0 0 0 0 0 0 0 0 0 0 0 0 0 0 0 0 0 0 0 0 0 0 0 0 0 0 0 0 0 0 0 0 0 0 0 0 0 0 0 0 0 0 0 0 0 0 0 0 0 0 0 0 0 0 0 0 0 30 28 29 28 27 -193 25 27 25 26 25 25 29 29 34 34 29 28 32 34 31 31 31 29 29 29 30 29 26 27 27 26 29 29 30 28 26 25 26 26 27 25 24 25 -193 34 34 35 33 32 32 34 35 37 37 37 36 37 38 38 36 34 35 34 36 36 36 34 34 35 32 31 32 32 33 33 35 34 33 34 32 31 31 30 31 31 32 32 33 34 35 35 38 38 33 35 31 30 31 30 30 30 31 32 31 32 34 35 36 35 35 33 33 33 34 30 33 35 37 36 38 38 39 36 37 38 36 38 38 38 37 37 38 38 37 41 32 32 28 29 33 33 36 37 41 44 48 47 44 51 51 50 -209 -209 -209 0 -209 -193 -209 -193 134 132 -209 46 39 37 39 39 38 38 38 39 39 38 39 38 38 39 39 39 39 38 40 40 42 42 42 42 42 45 45 -193 -193 -209 32 -209 -193 -209 -209 -193 56 55 54 55 56 54 55 54 54 54 54 55 55 54 56 57 58 58 58 60 61 62 63 63 62 63 64 66 63 66 67 67 68 69 69 69 70 73 72 75 76 78 78 76 75 77 0 0 0 0 0
    0 0 0 0 0 0 0 0 0 0 0 0 0 0 0 0 0 0 0 0 0 0 0 0 0 0 0 0 0 0 0 0 0 0 0 0 0 0 0 0 0 0 0 0 0 0 0 0 0 0 0 0 0 0 0 0 0 0 0 0 0 0 0 0 0 0 0 0 0 30 28 29 28 27 -193 25 28 25 27 25 25 27 27 30 30 26 26 28 33 30 29 30 28 28 29 30 29 25 26 26 25 28 29 31 30 28 27 28 30 31 29 31 31 30 34 35 36 32 31 31 32 35 36 37 36 35 36 36 36 35 33 35 31 35 36 36 36 36 37 34 31 32 33 34 33 35 35 33 34 32 31 31 30 31 30 31 31 33 34 35 35 38 37 31 34 32 29 31 29 29 29 30 31 31 31 35 35 37 37 38 37 36 35 35 33 34 36 37 37 38 38 39 36 36 38 36 38 38 38 37 37 38 38 36 41 32 32 27 29 29 30 34 35 39 41 43 44 41 46 -209 -209 -209 -209 -209 -209 -209 -209 -209 -209 134 132 -193 46 38 38 39 39 38 38 38 39 39 38 39 38 38 39 39 39 39 38 41 41 41 42 42 42 42 45 45 -193 -193 -209 -209 -209 -193 632 -209 -209 56 56 54 54 56 54 54 54 54 54 54 55 55 55 56 57 58 58 58 60 61 61 62 62 61 62 63 65 62 66 66 67 68 69 70 70 71 74 73 77 79 81 79 79 79 80 0 0 0 0 0
    0 0 0 0 0 0 0 0 0 0 0 0 0 0 0 0 0 0 0 0 0 0 0 0 0 0 0 0 0 0 0 0 0 0 0 0 0 0 0 0 0 0 0 0 0 0 0 0 0 0 0 0 0 0 0 0 0 0 0 0 0 0 0 0 0 0 0 0 0 30 28 29 27 27 25 24 27 24 26 25 25 27 27 29 29 24 25 27 32 29 29 29 28 28 29 30 29 25 25 26 25 28 30 33 33 32 31 32 35 35 34 36 36 34 35 36 36 33 31 30 31 35 36 38 36 35 35 36 36 35 32 35 29 35 36 38 37 36 38 34 32 34 34 35 33 35 35 32 32 29 29 30 29 31 29 30 30 31 33 34 34 38 36 31 33 33 29 31 30 29 29 29 30 30 29 33 31 33 35 36 36 38 36 37 36 35 37 37 37 38 38 38 35 35 38 36 37 37 37 36 36 37 37 34 37 32 32 26 28 25 26 29 33 38 41 41 44 40 45 -209 -209 -209 -209 -209 -209 -209 -209 -209 -209 136 132 -193 -209 38 38 39 39 38 38 38 38 38 39 39 38 38 39 40 39 39 39 41 41 41 42 42 42 42 45 45 -193 -193 -209 -209 -209 -209 -193 -209 55 59 56 54 54 56 53 54 54 54 54 54 55 55 55 56 57 57 58 57 59 60 60 61 61 60 61 61 63 61 64 65 65 67 69 70 70 72 76 75 78 80 82 81 82 83 84 0 0 0 0 0
    0 0 0 0 0 0 0 0 0 0 0 0 0 0 0 0 0 0 0 0 0 0 0 0 0 0 0 0 0 0 0 0 0 0 0 0 0 0 0 0 0 0 0 0 0 0 0 0 0 0 0 0 0 0 0 0 0 0 0 0 0 0 0 0 0 0 0 0 0 30 28 28 27 26 24 24 26 24 26 25 25 26 26 28 27 23 24 25 30 28 28 29 28 28 29 30 29 25 26 26 25 27 30 33 34 34 32 34 36 35 35 36 -193 36 35 36 -193 -193 30 29 32 36 35 38 36 35 35 36 36 35 32 35 28 36 36 37 33 35 39 33 31 34 33 32 31 33 31 29 29 27 27 28 28 29 27 27 28 28 29 30 28 35 31 28 30 32 29 31 29 29 29 29 30 30 28 33 31 34 36 37 37 38 36 37 36 36 37 38 37 38 37 38 35 35 38 36 36 36 37 35 35 36 36 33 34 32 32 25 32 25 25 27 32 37 40 -193 42 -193 45 -209 -209 -209 -209 -209 -209 -193 -193 -209 -209 -193 133 -193 -209 38 38 39 39 38 38 38 38 38 39 39 39 39 40 40 40 40 39 41 41 41 42 42 42 42 45 45 41 -209 636 -209 -209 -209 -209 -209 55 57 56 54 54 55 53 54 54 53 54 53 55 55 55 56 57 57 58 57 59 60 60 61 61 61 61 62 63 61 64 65 66 67 69 71 71 73 77 77 80 82 83 83 84 86 86 0 0 0 0 0
    0 0 0 0 0 0 0 0 0 0 0 0 0 0 0 0 0 0 0 0 0 0 0 0 0 0 0 0 0 0 0 0 0 0 0 0 0 0 0 0 0 0 0 0 0 0 0 0 0 0 0 0 0 0 0 0 0 0 0 0 0 0 0 0 0 0 0 0 0 30 28 29 27 27 25 24 26 24 25 25 25 26 26 27 27 22 23 24 30 28 27 29 27 28 29 30 29 25 26 26 23 25 28 31 33 32 31 33 36 35 36 36 -193 -193 38 39 -193 -193 32 30 34 37 35 37 35 34 34 35 35 34 31 34 27 37 36 36 28 36 40 32 31 34 31 30 30 30 28 26 26 -209 -209 27 27 28 27 27 28 27 28 28 26 32 27 26 27 32 29 30 29 29 28 29 30 31 28 33 30 34 37 37 38 38 35 36 34 36 36 37 35 36 36 37 35 35 38 36 35 36 37 35 35 36 36 33 33 33 33 26 37 24 24 25 32 -209 -193 -209 -209 -193 -209 -209 -209 -209 -209 -209 -209 -209 -209 -209 -209 -209 134 -193 -209 37 37 39 39 38 38 38 38 39 40 40 40 40 -193 41 41 40 40 41 41 41 42 42 42 41 44 45 41 -209 -193 -209 -209 -209 -209 -193 54 56 56 54 54 55 53 54 54 54 54 53 55 55 55 56 57 56 57 56 58 60 60 60 61 61 61 62 64 61 65 65 66 68 70 71 72 74 78 78 81 83 84 84 85 87 87 0 0 0 0 0
    0 0 0 0 0 0 0 0 0 0 0 0 0 0 0 0 0 0 0 0 0 0 0 0 0 0 0 0 0 0 0 0 0 0 0 0 0 0 0 0 0 0 0 0 0 0 0 0 0 0 0 0 0 0 0 0 0 0 0 0 0 0 0 0 0 0 0 0 0 30 28 29 27 28 25 25 27 25 26 26 26 26 25 27 26 21 22 23 29 27 27 -193 27 27 29 30 30 25 25 25 22 23 26 29 31 32 32 34 36 36 37 37 39 39 40 41 40 40 36 33 36 37 34 37 34 34 34 35 34 33 31 34 27 38 37 -193 -193 -193 40 32 31 35 31 29 30 28 -193 22 23 23 -193 27 28 28 28 28 28 28 28 27 26 29 26 26 27 33 29 30 29 29 29 29 31 31 28 33 30 34 38 38 39 39 36 35 34 35 35 36 34 35 35 37 36 35 38 36 35 36 37 35 35 36 36 33 32 34 34 26 39 -193 23 22 -209 -209 -209 -209 -209 -193 -209 -209 -209 -209 -209 -209 -209 -209 -209 -209 -209 -209 134 -209 -209 38 38 39 40 39 39 39 39 39 40 40 41 40 41 41 41 41 41 41 41 41 41 42 41 41 43 44 40 -193 -193 44 43 43 46 53 53 55 56 54 54 54 53 54 53 54 54 53 55 55 55 56 57 56 56 55 58 59 60 60 61 60 61 61 63 61 64 66 67 68 70 72 73 75 79 78 82 84 84 85 86 88 88 0 0 0 0 0
    0 0 0 0 0 0 0 0 0 0 0 0 0 0 0 0 0 0 0 0 0 0 0 0 0 0 0 0 0 0 0 0 0 0 0 0 0 0 0 0 0 0 0 0 0 0 0 0 0 0 0 0 0 0 0 0 0 0 0 0 0 0 0 0 0 0 0 0 0 30 29 29 27 28 26 26 28 27 27 27 27 26 26 27 26 21 21 22 29 27 27 -193 -193 -193 29 30 30 25 25 25 21 22 25 28 31 32 33 34 37 37 38 38 39 40 41 41 41 42 39 37 38 38 34 37 34 33 34 34 34 33 31 34 27 37 33 27 -193 38 36 31 31 33 30 30 30 28 -193 23 24 24 27 29 29 30 29 28 28 28 28 27 25 27 25 25 27 34 29 30 30 29 29 30 31 32 27 33 30 34 38 39 38 39 36 36 34 36 35 36 34 35 36 38 36 36 39 36 36 36 37 35 35 36 36 33 33 34 34 27 37 29 26 24 -193 -209 -209 -209 -209 -209 -209 -209 -209 -209 -209 -209 -209 -193 -209 -209 -209 -209 -209 -209 -209 39 39 39 41 39 39 39 39 39 40 40 41 40 41 42 42 41 41 41 42 41 41 41 41 40 43 44 41 -193 45 45 44 44 49 53 52 54 55 53 53 54 53 53 53 54 54 52 55 55 55 56 57 56 56 55 58 59 59 59 60 60 60 61 62 61 65 67 68 70 72 74 75 77 80 80 83 85 85 86 86 88 88 0 0 0 0 0
    0 0 0 0 0 0 0 0 0 0 0 0 0 0 0 0 0 0 0 0 0 0 0 0 0 0 0 0 0 0 0 0 0 0 0 0 0 0 0 0 0 0 0 0 0 0 0 0 0 0 0 0 0 0 0 0 0 0 0 0 0 0 0 0 0 0 0 0 0 30 30 30 28 29 27 26 28 27 27 27 27 27 26 27 26 21 21 23 28 27 27 -193 -193 -193 29 30 30 24 24 24 18 20 23 25 29 32 34 35 37 38 39 38 -193 -193 41 42 42 42 40 38 39 38 34 37 34 33 34 34 34 32 30 34 27 36 33 30 26 36 35 31 31 31 30 29 29 28 26 24 24 24 28 30 29 30 29 28 28 27 27 26 24 25 23 24 24 35 29 30 30 29 29 30 32 33 27 35 32 34 38 39 38 39 35 35 32 34 34 36 34 35 35 38 36 35 39 36 36 37 38 35 35 36 36 34 34 34 34 27 36 30 27 26 27 26 28 28 -193 -193 -209 -209 -209 -209 -209 -209 -209 -193 -209 -209 -209 -209 -193 -209 -209 40 39 40 42 39 39 39 39 40 40 40 41 40 41 42 42 41 41 42 42 41 41 41 41 40 43 45 42 44 46 47 47 48 53 54 52 54 55 53 53 53 52 52 52 54 54 52 55 55 55 56 57 56 56 55 58 59 59 59 60 60 61 62 64 64 69 71 72 74 75 78 78 80 82 82 84 85 85 86 87 88 89 0 0 0 0 0
    0 0 0 0 0 0 0 0 0 0 0 0 0 0 0 0 0 0 0 0 0 0 0 0 0 0 0 0 0 0 0 0 0 0 0 0 0 0 0 0 0 0 0 0 0 0 0 0 0 0 0 0 0 0 0 0 0 0 0 0 0 0 0 0 0 0 0 0 0 31 30 30 28 29 27 26 28 27 27 27 27 27 26 26 27 22 21 23 28 27 27 -193 -193 -193 29 30 30 25 24 24 17 20 22 23 27 30 34 36 38 38 39 39 40 41 41 42 41 41 39 37 39 38 33 36 33 33 34 34 34 33 30 34 27 37 34 32 27 34 35 31 31 30 30 30 29 29 28 25 25 25 28 32 30 30 29 28 28 28 28 27 25 26 23 23 24 35 30 30 30 29 29 30 32 33 27 35 33 33 38 38 36 37 34 32 30 31 33 35 33 35 35 38 36 35 39 36 37 37 38 36 36 36 36 34 35 34 34 28 35 29 27 26 26 23 25 26 26 24 -209 -209 -209 -209 -209 -209 -209 19 -209 -209 -209 -209 -209 -209 -193 40 39 39 42 39 39 39 39 40 40 40 42 40 41 42 42 41 41 42 42 40 41 41 41 41 43 45 43 45 49 50 51 51 54 54 53 53 55 52 52 53 52 52 52 54 54 52 55 55 55 56 57 55 56 54 58 58 60 59 61 60 62 65 67 69 72 73 75 76 78 80 80 82 82 83 85 85 86 87 87 88 89 0 0 0 0 0
    0 0 0 0 0 0 0 0 0 0 0 0 0 0 0 0 0 0 0 0 0 0 0 0 0 0 0 0 0 0 0 0 0 0 0 0 0 0 0 0 0 0 0 0 0 0 0 0 0 0 0 0 0 0 0 0 0 0 0 0 0 0 0 0 0 0 0 0 0 31 31 30 28 29 27 27 28 28 28 28 28 27 27 27 27 23 22 23 28 27 27 28 27 27 29 30 30 25 25 25 18 21 23 24 28 31 36 36 39 38 39 39 40 41 42 43 43 42 -193 38 -193 37 32 36 32 32 33 34 33 32 30 34 28 35 32 32 27 31 34 30 31 30 30 30 29 29 28 26 26 25 28 32 30 31 30 29 29 28 28 27 25 25 23 23 24 35 30 30 30 29 29 30 31 32 27 34 32 29 36 36 34 36 31 30 28 29 31 32 30 32 34 38 34 34 39 36 37 37 38 36 36 36 36 34 36 34 34 27 34 27 25 23 22 18 21 24 24 21 -193 -209 -193 -209 -209 -209 -193 21 -209 -209 -193 -193 -209 -193 -193 40 39 39 43 40 39 39 39 40 40 41 42 40 41 42 42 41 41 42 42 40 41 42 41 41 43 45 43 45 50 51 51 52 54 54 53 53 54 52 52 53 52 52 52 54 54 52 55 55 55 55 56 55 55 54 57 58 60 60 61 62 65 68 70 73 74 75 77 78 79 80 80 82 82 83 85 85 85 87 87 88 89 0 0 0 0 0
    0 0 0 0 0 0 0 0 0 0 0 0 0 0 0 0 0 0 0 0 0 0 0 0 0 0 0 0 0 0 0 0 0 0 0 0 0 0 0 0 0 0 0 0 0 0 0 0 0 0 0 0 0 0 0 0 0 0 0 0 0 0 0 0 0 0 0 0 0 31 31 30 28 29 28 27 29 28 28 28 28 28 28 28 28 24 23 23 28 27 27 28 27 27 29 30 30 25 26 25 19 22 23 24 29 31 37 37 39 39 41 41 43 43 44 45 46 44 -193 -209 -209 38 32 36 32 32 33 34 33 32 30 34 28 34 32 32 27 30 34 30 31 31 30 30 29 29 29 26 27 26 30 34 31 32 30 30 29 29 29 27 25 25 23 23 24 35 30 30 31 30 30 30 31 33 26 34 32 28 37 37 35 37 32 31 27 28 30 29 28 29 29 35 30 30 39 36 38 38 38 36 36 37 36 34 36 33 33 27 33 27 27 23 20 14 15 20 19 17 17 -193 -193 -193 23 -193 -193 -193 -209 -209 -193 -209 -209 42 -209 -209 39 40 42 40 40 39 40 40 40 41 42 40 41 42 43 42 41 42 42 40 42 42 41 41 43 46 44 45 50 50 51 52 54 54 52 52 54 52 52 53 52 52 52 54 55 52 55 55 55 55 56 55 55 53 57 58 60 60 63 65 68 71 72 76 76 77 78 79 79 80 80 82 81 82 85 85 85 87 88 88 89 0 0 0 0 0
    0 0 0 0 0 0 0 0 0 0 0 0 0 0 0 0 0 0 0 0 0 0 0 0 0 0 0 0 0 0 0 0 0 0 0 0 0 0 0 0 0 0 0 0 0 0 0 0 0 0 0 0 0 0 0 0 0 0 0 0 0 0 0 0 0 0 0 0 0 31 31 30 29 30 28 28 30 28 29 29 29 29 29 28 29 25 24 24 29 27 27 -193 27 27 29 30 30 25 26 26 19 22 23 -193 29 31 41 39 41 41 -193 42 45 45 45 46 45 -209 -209 -209 -209 38 32 35 32 32 33 34 33 32 30 34 28 35 34 34 28 31 35 30 31 30 30 30 29 30 29 26 27 26 30 34 31 32 30 30 30 29 29 28 25 25 24 24 24 35 30 30 31 30 30 30 32 33 27 36 36 -193 41 41 38 39 36 34 29 29 29 28 25 27 24 -209 27 27 39 36 38 38 39 37 36 37 37 35 37 32 33 27 33 29 33 30 -209 -209 19 22 21 18 19 -193 20 22 22 -193 -193 -193 -209 -209 -209 -209 -209 -193 -193 -209 40 40 43 40 40 40 40 41 40 41 43 40 41 42 42 41 41 42 42 40 42 42 42 41 44 46 44 46 50 50 51 51 53 54 52 52 54 52 52 53 53 52 52 54 55 52 55 55 55 55 56 55 55 54 58 59 60 61 65 67 70 73 74 79 78 78 79 79 79 80 80 82 80 82 85 86 86 88 88 89 89 0 0 0 0 0
    0 0 0 0 0 0 0 0 0 0 0 0 0 0 0 0 0 0 0 0 0 0 0 0 0 0 0 0 0 0 0 0 0 0 0 0 0 0 0 0 0 0 0 0 0 0 0 0 0 0 0 0 0 0 0 0 0 0 0 0 0 0 0 0 0 0 0 0 0 31 31 30 29 30 29 30 31 29 30 30 30 30 29 29 30 25 25 24 29 27 27 -193 27 26 28 30 30 25 25 25 19 22 23 -209 -209 -209 44 42 42 43 -209 43 45 46 46 47 -193 -209 -209 -209 -209 38 33 36 32 33 33 34 33 32 30 34 28 -193 -193 -193 27 29 34 30 31 30 30 30 29 30 29 26 28 27 30 33 30 32 31 31 30 30 29 28 26 25 25 24 25 34 30 30 32 30 31 30 33 34 28 37 38 -193 43 44 41 41 38 36 29 27 26 26 25 26 23 -209 25 25 39 36 -193 38 39 37 36 36 36 34 37 31 32 26 30 27 32 -193 -209 -193 20 21 20 19 19 -193 19 22 23 -193 -193 -209 -193 -209 -209 -209 -209 -193 -193 -209 40 40 43 40 40 40 40 41 40 41 43 40 41 42 42 41 41 42 42 40 42 43 42 42 44 46 45 47 51 51 51 51 53 54 51 51 54 52 52 52 52 52 52 54 55 53 55 55 56 56 57 56 56 55 58 59 61 62 66 68 72 75 75 80 79 78 79 80 79 79 80 81 79 82 85 86 87 88 89 89 90 0 0 0 0 0
    0 0 0 0 0 0 0 0 0 0 0 0 0 0 0 0 0 0 0 0 0 0 0 0 0 0 0 0 0 0 0 0 0 0 0 0 0 0 0 0 0 0 0 0 0 0 0 0 0 0 0 0 0 0 0 0 0 0 0 0 0 0 0 0 0 0 0 0 0 31 31 30 29 31 29 30 32 30 31 30 30 30 30 29 30 26 25 -193 30 28 28 -193 27 -193 28 29 29 24 24 23 21 24 24 -209 -209 -209 44 -209 -193 -193 -209 -193 46 -209 -193 48 -209 -209 -209 -209 -209 39 33 36 32 33 34 34 33 32 30 33 27 -193 -193 -193 25 26 32 29 30 29 29 30 29 30 29 26 26 26 28 32 29 31 30 30 30 30 30 29 26 26 25 24 24 32 29 29 31 30 31 30 33 34 28 38 40 -193 45 45 43 41 -193 37 26 26 25 25 26 27 23 -193 24 24 38 35 -193 38 38 36 36 36 36 -193 -193 29 30 25 28 25 29 -209 20 19 17 19 17 16 -193 -193 -193 21 22 -193 -193 -209 -193 -209 -209 -209 -209 324 42 -193 39 40 42 40 40 40 40 41 40 40 42 39 40 41 41 41 41 42 42 40 42 43 42 42 45 46 46 48 51 51 51 51 53 54 51 51 54 52 52 52 52 52 52 54 55 53 55 56 56 56 57 56 56 55 58 59 61 62 65 68 72 75 75 82 79 79 79 80 80 80 80 82 79 82 85 86 87 89 90 90 90 0 0 0 0 0
    0 0 0 0 0 0 0 0 0 0 0 0 0 0 0 0 0 0 0 0 0 0 0 0 0 0 0 0 0 0 0 0 0 0 0 0 0 0 0 0 0 0 0 0 0 0 0 0 0 0 0 0 0 0 0 0 0 0 0 0 0 0 0 0 0 0 0 0 0 32 31 30 30 31 29 31 32 30 31 30 30 30 30 29 30 27 26 -209 -193 -193 -193 -193 -193 -193 28 29 29 24 24 23 21 25 38 -209 42 -209 48 -209 -209 -209 -209 -193 50 -193 -193 50 50 -209 -209 -209 -209 39 33 36 32 33 34 34 33 32 29 31 26 -193 -193 -193 23 24 29 28 29 29 29 29 29 29 29 26 24 25 27 30 28 30 30 30 30 30 30 29 26 26 25 23 24 30 28 28 31 30 30 30 33 35 29 38 40 -193 44 44 42 40 -193 38 26 26 26 26 27 29 23 24 25 25 37 34 -193 37 37 36 35 36 36 -193 -193 28 30 25 28 25 28 -209 21 17 15 16 13 -209 -209 -209 -193 17 21 24 29 32 -209 -209 -193 -209 -209 -209 40 40 38 39 41 40 40 40 40 40 39 40 42 39 40 41 41 40 40 42 42 40 42 43 43 43 45 46 46 47 50 51 51 51 53 54 52 51 54 53 52 52 53 52 52 54 55 53 55 56 56 56 57 56 57 56 58 59 61 63 66 69 72 76 76 83 80 79 80 81 80 80 80 82 79 82 86 86 87 88 89 89 90 0 0 0 0 0
    0 0 0 0 0 0 0 0 0 0 0 0 0 0 0 0 0 0 0 0 0 0 0 0 0 0 0 0 0 0 0 0 0 0 0 0 0 0 0 0 0 0 0 0 0 0 0 0 0 0 0 0 0 0 0 0 0 0 0 0 0 0 0 0 0 0 0 0 0 32 32 31 30 31 29 31 31 30 31 30 30 30 30 29 30 26 26 -209 -193 -193 -193 -177 -193 -193 28 30 30 25 25 25 23 29 40 45 44 -193 50 -193 -209 -209 -209 49 51 -209 -193 -193 48 -209 -209 -209 -209 38 33 36 32 32 34 34 33 32 29 30 26 -193 -193 23 22 23 28 27 29 28 28 29 29 29 28 26 24 26 26 30 28 30 30 30 29 30 30 29 26 27 25 23 24 30 28 29 31 30 31 30 34 36 29 38 39 -193 43 43 41 40 -193 40 28 25 26 26 28 31 23 24 25 25 37 34 37 36 36 35 35 35 35 31 35 28 29 25 28 26 28 -193 -193 11 -193 -209 0 -209 -209 -209 -193 -209 21 27 34 34 -209 -209 -209 -209 -209 -193 38 38 37 38 40 39 39 39 40 40 39 40 42 39 40 40 41 40 40 41 42 40 42 44 43 43 45 46 46 47 49 51 51 51 53 54 52 51 54 53 52 53 53 52 53 54 55 53 54 55 55 55 57 56 56 56 58 59 62 66 69 71 76 78 77 84 81 80 80 81 80 79 80 82 79 82 85 86 86 88 89 89 89 0 0 0 0 0
    0 0 0 0 0 0 0 0 0 0 0 0 0 0 0 0 0 0 0 0 0 0 0 0 0 0 0 0 0 0 0 0 0 0 0 0 0 0 0 0 0 0 0 0 0 0 0 0 0 0 0 0 0 0 0 0 0 0 0 0 0 0 0 0 0 0 0 0 0 32 32 30 30 31 29 31 32 29 31 30 30 30 30 29 30 26 26 -193 -193 -193 -193 -177 -193 -193 29 31 31 25 27 27 25 32 38 42 39 -209 43 -193 36 -193 -209 45 44 -209 -193 -193 -209 -209 -209 -209 -209 38 33 36 32 32 34 34 33 32 28 30 25 -193 -193 22 21 23 27 27 28 28 28 29 29 28 28 25 24 25 26 28 27 29 29 29 29 30 29 29 26 27 26 24 24 31 29 29 32 30 32 30 35 37 30 37 38 -193 42 43 42 41 39 41 35 24 25 24 26 26 23 24 24 25 37 33 37 35 35 34 34 34 34 31 33 27 29 25 28 27 27 -193 -193 -193 0 -209 0 0 -209 -209 -209 -209 23 34 35 35 -209 -209 -209 -209 -209 33 36 37 37 38 39 39 39 39 39 40 39 40 42 39 40 40 40 40 40 41 41 40 42 44 43 43 45 46 46 47 49 51 50 51 52 54 52 52 55 54 52 53 53 52 53 54 54 53 54 55 55 54 56 55 55 55 57 58 61 68 72 74 80 80 79 84 81 80 81 81 80 79 80 82 78 81 85 85 85 88 88 88 88 0 0 0 0 0
    0 0 0 0 0 0 0 0 0 0 0 0 0 0 0 0 0 0 0 0 0 0 0 0 0 0 0 0 0 0 0 0 0 0 0 0 0 0 0 0 0 0 0 0 0 0 0 0 0 0 0 0 0 0 0 0 0 0 0 0 0 0 0 0 0 0 0 0 0 32 32 30 31 31 30 32 32 30 31 30 30 31 31 29 30 26 26 -193 32 -193 -193 -177 -193 -193 29 31 32 26 29 28 26 37 39 43 40 -209 42 37 36 -193 -193 42 40 -209 -193 -209 -209 -209 -209 -209 -209 38 33 36 32 32 34 34 33 32 28 30 25 -193 -209 21 20 23 27 27 28 28 28 29 29 29 28 25 23 26 25 28 27 29 29 29 29 30 28 29 26 27 26 24 24 30 29 30 32 30 32 30 35 37 30 36 37 34 42 43 42 42 41 43 -193 -193 23 23 24 24 23 23 24 24 37 32 36 34 35 33 33 33 33 30 32 27 28 25 27 -193 -209 13 -193 -193 -209 -209 0 0 -193 0 -193 -193 -209 39 37 38 -209 -209 -209 -209 -209 34 34 36 37 38 38 38 38 39 39 40 39 40 42 39 39 40 40 40 40 41 41 39 42 44 43 43 45 46 45 46 49 50 50 51 52 53 53 52 55 54 53 53 54 53 53 54 54 53 53 55 55 54 55 55 55 54 55 57 59 66 74 79 84 83 81 85 82 81 81 81 79 78 79 82 77 80 85 85 84 88 88 88 87 0 0 0 0 0
    0 0 0 0 0 0 0 0 0 0 0 0 0 0 0 0 0 0 0 0 0 0 0 0 0 0 0 0 0 0 0 0 0 0 0 0 0 0 0 0 0 0 0 0 0 0 0 0 0 0 0 0 0 0 0 0 0 0 0 0 0 0 0 0 0 0 0 0 0 32 32 30 31 32 30 32 32 30 31 30 30 31 31 29 29 26 25 -193 -193 -193 -193 -177 -193 -193 29 -193 32 26 30 30 27 38 40 44 40 41 42 37 34 -193 -193 -193 39 -209 -193 -209 -209 -209 -209 -209 -209 38 33 36 32 32 33 34 33 31 -193 -193 24 -193 -193 20 18 22 26 27 28 27 27 29 29 28 27 24 23 26 26 28 27 28 29 29 29 30 28 29 26 28 27 25 25 31 30 30 32 30 32 29 35 37 31 35 36 34 41 42 42 41 41 43 -193 -193 22 23 24 23 22 22 23 24 36 31 36 33 33 33 33 33 33 29 31 26 28 25 27 -193 -209 20 -193 20 -209 -209 -209 8 -193 -209 -209 -209 31 40 38 38 40 -209 -209 -209 -193 34 31 33 37 37 37 37 37 38 38 39 39 39 41 39 39 40 40 39 39 40 41 39 42 43 43 43 45 45 45 46 49 51 51 51 52 54 54 53 56 54 53 53 54 53 53 54 54 53 53 55 55 54 55 55 54 54 52 54 -193 -209 76 85 87 86 84 86 83 81 82 81 79 77 78 81 77 80 88 -209 -209 -193 -193 -193 -209 0 0 0 0 0
    0 0 0 0 0 0 0 0 0 0 0 0 0 0 0 0 0 0 0 0 0 0 0 0 0 0 0 0 0 0 0 0 0 0 0 0 0 0 0 0 0 0 0 0 0 0 0 0 0 0 0 0 0 0 0 0 0 0 0 0 0 0 0 0 0 0 0 0 0 32 32 30 31 32 30 32 32 30 31 30 30 31 31 29 29 26 -193 -177 -193 -193 -177 764 -193 -193 -193 -193 31 25 29 29 27 34 38 43 38 37 39 35 34 -193 -193 37 36 -209 -193 38 -209 -209 -209 -193 40 38 33 36 32 31 33 34 33 31 -193 -193 23 -193 -193 19 17 21 25 27 27 27 27 29 29 28 27 24 23 26 26 -193 27 28 28 29 28 30 28 29 26 28 27 25 25 31 30 30 32 31 32 30 35 38 32 36 36 33 38 40 40 39 36 -193 38 -193 23 23 -193 24 23 22 23 24 36 31 35 32 33 32 32 32 32 29 31 27 29 26 28 27 -209 -193 -193 28 -193 -209 -209 -209 30 35 39 -193 36 39 37 37 38 37 34 30 34 32 28 30 36 36 36 37 37 37 38 39 38 38 40 39 39 39 39 38 39 40 40 39 42 43 43 43 45 45 45 46 48 51 51 52 53 54 55 54 56 55 53 53 54 52 53 54 54 53 53 55 55 54 56 56 54 55 51 50 -193 -209 80 88 89 88 86 87 85 83 83 81 76 73 75 -209 -209 -209 -209 -193 -193 -209 -193 -193 -209 0 0 0 0 0
    0 0 0 0 0 0 0 0 0 0 0 0 0 0 0 0 0 0 0 0 0 0 0 0 0 0 0 0 0 0 0 0 0 0 0 0 0 0 0 0 0 0 0 0 0 0 0 0 0 0 0 0 0 0 0 0 0 0 0 0 0 0 0 0 0 0 0 0 0 33 32 31 31 32 30 33 32 31 31 30 30 31 31 29 29 -193 -193 758 -193 -193 765 765 763 763 -193 -193 -193 25 27 27 26 29 35 40 33 32 35 31 32 34 37 37 37 -193 -193 38 -209 -209 -209 41 40 38 33 36 32 31 33 33 33 31 -193 -193 22 -193 -193 18 17 21 25 27 28 27 27 30 30 29 27 24 23 26 25 27 26 28 28 28 28 30 28 29 26 28 27 24 25 31 31 31 33 32 33 31 36 39 34 35 36 32 37 38 38 37 30 30 -193 22 23 23 -209 26 24 24 25 25 37 31 35 32 32 32 32 32 32 29 31 27 30 28 28 29 -193 -193 -193 30 -193 -193 -209 -209 34 -209 -193 -193 37 38 37 36 37 35 34 31 34 32 28 29 35 35 35 36 36 37 37 39 38 37 40 39 38 39 39 38 38 40 40 40 42 43 43 44 45 45 45 46 48 51 51 52 53 54 56 55 57 55 53 53 54 52 53 54 54 53 53 55 54 53 56 56 53 55 49 46 -193 -209 80 88 89 88 84 88 -209 -209 11 -209 -209 -209 -209 -209 -209 -209 -209 -209 -209 -193 -193 -209 -209 0 0 0 0 0
    0 0 0 0 0 0 0 0 0 0 0 0 0 0 0 0 0 0 0 0 0 0 0 0 0 0 0 0 0 0 0 0 0 0 0 0 0 0 0 0 0 0 0 0 0 0 0 0 0 0 0 0 0 0 0 0 0 0 0 0 0 0 0 0 0 0 0 0 0 34 33 31 32 32 29 32 31 30 30 29 29 30 31 29 29 -193 -193 758 -193 765 766 765 764 764 764 766 -193 25 27 26 26 25 29 28 28 28 31 30 32 34 38 39 38 38 -193 38 42 -209 -193 40 40 38 32 35 31 31 32 33 32 31 27 29 23 25 22 20 19 22 26 28 28 28 28 30 31 29 27 24 23 26 25 27 26 28 28 28 28 30 28 30 26 28 27 25 25 32 33 32 35 34 35 33 37 40 37 32 34 29 35 38 38 37 32 39 28 -193 24 23 -193 26 25 24 25 26 37 31 35 31 32 33 32 32 32 29 32 28 33 31 30 39 40 -193 -193 -193 -193 34 32 -209 36 39 40 38 38 39 37 36 37 36 35 32 34 32 28 29 35 34 34 35 35 36 37 39 38 37 40 39 39 39 39 38 38 40 41 41 42 43 43 44 45 45 44 45 48 51 51 52 53 55 57 56 58 56 53 54 54 52 53 54 53 53 53 54 54 53 55 56 52 54 47 44 -193 38 -209 -193 -193 -209 -209 -209 -209 -209 -193 -209 -209 -209 -209 -209 -209 -193 -193 41 40 42 50 -209 -209 0 0 0 0 0
    0 0 0 0 0 0 0 0 0 0 0 0 0 0 0 0 0 0 0 0 0 0 0 0 0 0 0 0 0 0 0 0 0 0 0 0 0 0 0 0 0 0 0 0 0 0 0 0 0 0 0 0 0 0 0 0 0 0 0 0 0 0 0 0 0 0 0 0 0 34 33 32 32 31 29 31 30 -193 -193 27 27 28 30 28 28 26 -193 -193 -193 -193 766 766 764 764 -193 -177 -193 26 28 28 26 25 28 26 27 27 30 30 33 36 38 39 38 39 38 38 -209 -209 -193 38 -193 38 32 35 31 31 32 32 32 31 28 30 25 30 -193 26 24 25 28 30 30 29 29 32 32 31 29 26 24 29 27 28 27 29 28 28 28 30 28 29 26 28 28 26 26 34 36 36 37 36 37 35 39 41 41 28 31 26 30 35 35 35 33 36 35 27 28 -193 -193 25 24 24 25 25 37 30 35 32 32 34 33 33 33 30 34 29 36 35 33 42 46 51 55 -193 54 -193 39 -209 39 40 42 39 39 39 38 37 37 37 36 33 35 33 28 29 36 35 35 35 35 36 37 39 38 38 40 39 39 40 40 39 39 41 41 41 42 43 43 44 45 45 44 45 48 51 51 53 53 54 57 57 58 56 54 54 55 53 53 54 53 53 53 54 54 52 55 55 52 54 48 45 -193 39 -209 -193 -209 -209 -209 -209 -209 -209 -209 -209 -193 -209 -209 -209 44 47 45 45 43 44 50 -209 -209 0 0 0 0 0
    0 0 0 0 0 0 0 0 0 0 0 0 0 0 0 0 0 0 0 0 0 0 0 0 0 0 0 0 0 0 0 0 0 0 0 0 0 0 0 0 0 0 0 0 0 0 0 0 0 0 0 0 0 0 0 0 0 0 0 0 0 0 0 0 0 0 0 0 0 35 35 35 34 31 -193 -193 -193 -209 -193 25 26 26 27 26 28 -193 -193 759 -193 765 766 -193 764 764 -193 -177 33 26 30 30 27 27 29 -193 28 29 33 32 34 37 39 39 39 39 38 38 -193 -209 -193 36 38 37 31 35 31 31 31 32 32 32 28 32 27 36 35 34 29 30 31 32 32 32 31 35 33 33 32 29 28 33 30 30 28 30 28 28 28 29 27 28 26 28 29 27 27 35 38 37 38 38 38 37 40 42 42 26 29 24 28 32 35 34 32 34 33 27 31 24 26 25 25 24 24 24 37 30 35 31 32 34 33 33 34 31 35 31 38 38 36 44 51 54 56 57 56 47 46 52 44 41 44 39 39 40 38 37 38 38 36 34 35 34 28 30 36 35 35 36 36 37 37 40 39 38 40 40 39 40 40 39 39 41 42 41 42 44 44 45 46 47 46 46 50 53 53 54 54 55 57 57 58 56 54 54 55 53 53 54 53 53 53 54 54 52 54 55 51 53 46 44 40 -225 -209 -193 -209 -209 -209 -209 -209 -209 -209 -209 -209 -209 -209 -209 46 49 47 47 45 46 51 -209 -209 0 0 0 0 0
    0 0 0 0 0 0 0 0 0 0 0 0 0 0 0 0 0 0 0 0 0 0 0 0 0 0 0 0 0 0 0 0 0 0 0 0 0 0 0 0 0 0 0 0 0 0 0 0 0 0 0 0 0 0 0 0 0 0 0 0 0 0 0 0 0 0 0 0 0 32 -209 -209 -193 -193 -193 -209 -209 -209 -209 24 26 25 25 24 31 -209 -193 759 772 766 766 -193 -193 765 -193 -193 -193 26 30 30 27 -193 29 -193 27 30 34 -193 -193 -209 -209 -209 -209 -209 -209 -209 -209 -209 -193 36 38 37 31 34 30 30 30 31 31 31 28 33 28 37 37 37 34 33 33 34 33 33 32 36 34 36 36 34 30 36 32 32 27 -193 -209 -193 27 28 25 27 -209 28 30 29 28 36 39 38 39 39 39 38 39 42 42 27 30 26 29 33 35 34 33 33 31 26 29 -193 -193 24 24 23 24 25 37 30 35 31 33 34 33 34 34 32 36 33 40 39 39 47 54 56 57 57 57 55 56 57 52 -193 41 38 39 39 38 38 38 38 37 34 35 35 28 30 36 35 35 36 36 37 37 40 39 39 40 40 40 40 41 40 39 42 42 42 42 44 45 46 47 48 47 49 53 54 54 55 55 56 58 57 58 56 54 54 55 53 52 53 53 54 53 53 53 52 54 55 51 53 47 44 41 -225 -209 -193 -209 -209 -209 -209 -209 -209 -209 -209 -209 -209 -209 -209 -193 48 46 47 44 46 52 -209 -209 0 0 0 0 0
    0 0 0 0 0 0 0 0 0 0 0 0 0 0 0 0 0 0 0 0 0 0 0 0 0 0 0 0 0 0 0 0 0 0 0 0 0 0 0 0 0 0 0 0 0 0 0 0 0 0 0 0 0 0 0 0 0 0 0 0 0 0 0 0 0 0 0 0 0 -209 -209 -209 -209 -209 -209 -209 -209 -209 -209 -193 -193 -193 -193 28 34 -209 -193 -193 773 766 767 -193 -193 -193 606 607 608 -193 -193 28 27 -209 28 -209 -193 31 35 -209 -209 -209 -209 -209 -193 43 43 -193 -193 -193 37 37 38 37 31 33 29 29 29 30 31 30 28 32 28 36 37 37 35 33 33 34 33 33 32 36 34 36 37 37 34 38 35 36 -193 -193 -209 -209 -193 -209 -193 -209 -209 -209 32 32 29 36 39 38 39 39 39 38 39 41 42 28 30 27 28 30 31 30 31 30 29 26 27 24 25 26 25 23 23 26 37 30 35 31 33 34 34 34 35 33 37 35 41 41 41 51 55 57 57 58 58 57 57 57 56 37 -193 38 38 39 38 38 38 38 37 35 34 33 27 29 35 35 35 36 36 37 38 40 39 39 40 40 40 40 41 40 40 42 43 42 43 45 46 48 48 50 50 52 55 56 56 56 56 56 58 56 58 56 54 54 54 52 52 53 53 54 53 53 53 52 54 55 51 53 48 45 44 -225 -209 -209 -193 55 54 56 59 65 -209 -209 -209 -209 -209 -209 -209 48 46 47 -193 -193 52 -209 -209 0 0 0 0 0
    0 0 0 0 0 0 0 0 0 0 0 0 0 0 0 0 0 0 0 0 0 0 0 0 0 0 0 0 0 0 0 0 0 0 0 0 0 0 0 0 0 0 0 0 0 0 0 0 0 0 0 0 0 0 0 0 0 0 0 0 0 0 0 0 0 0 0 0 0 -209 -209 -209 -209 -209 -209 -209 -209 -209 -209 -209 -193 29 29 30 35 -209 -193 -193 -177 767 767 -193 -193 -193 605 606 606 -209 -193 26 -209 -209 -209 -209 -193 31 -193 -209 -209 -209 -209 -209 41 42 42 42 39 40 34 36 36 36 30 32 28 28 28 29 29 29 -193 30 27 35 36 37 34 32 33 34 33 34 33 -193 -193 36 -193 37 34 -193 36 -193 -193 -193 -193 -193 -177 -177 -193 -209 -209 -209 -209 34 29 36 40 40 40 40 40 39 39 42 42 29 31 28 28 30 29 29 31 30 29 27 29 26 29 29 27 25 25 28 37 30 35 31 33 35 34 35 35 35 38 37 42 43 42 52 55 57 58 58 58 58 59 59 58 -193 -193 38 39 39 37 38 38 38 37 35 33 30 27 28 32 34 34 36 36 37 38 40 39 39 40 40 40 40 41 40 40 43 43 43 43 47 49 51 50 52 52 54 56 56 56 56 56 56 58 55 56 56 54 54 54 52 52 53 53 54 53 53 53 52 54 55 51 53 49 45 46 -225 -225 69 -193 56 56 57 62 67 67 67 -209 -209 -209 -209 191 -209 -193 -193 -209 -193 -209 -209 -209 0 0 0 0 0
    0 0 0 0 0 0 0 0 0 0 0 0 0 0 0 0 0 0 0 0 0 0 0 0 0 0 0 0 0 0 0 0 0 0 0 0 0 0 0 0 0 0 0 0 0 0 0 0 0 0 0 0 0 0 0 0 0 0 0 0 0 0 0 0 0 0 0 0 0 -209 -209 -193 53 58 -209 -209 -209 -209 -209 -209 -193 -209 -193 29 35 -209 -193 -193 -177 -177 768 767 766 -193 -193 605 606 -193 -193 -209 -209 -209 -209 -193 27 30 -193 -209 -209 -209 -209 -209 39 40 40 39 37 35 29 31 33 35 29 31 28 27 28 29 29 -193 -193 29 27 34 36 37 34 33 33 34 34 35 34 37 -193 37 38 37 37 -193 38 -193 37 -209 -209 -209 -209 -209 -193 -209 -209 -209 -209 -193 29 36 43 -193 42 41 41 40 39 42 42 31 32 30 30 33 31 32 32 33 32 30 32 32 35 32 29 28 28 32 37 31 35 31 34 35 35 36 36 36 39 39 43 45 44 51 54 56 57 57 58 57 59 59 58 -209 -193 37 38 39 37 38 37 37 37 33 32 -193 25 25 29 31 31 35 35 36 37 39 38 38 39 40 40 40 41 40 41 43 44 44 45 50 53 53 53 53 53 54 55 54 53 53 52 52 55 52 53 55 55 54 54 53 52 53 53 54 53 52 53 51 53 54 50 53 49 45 50 -225 -225 64 -193 56 56 57 62 68 67 68 -209 -209 -209 -193 -193 -209 -209 -209 -209 -209 -209 -209 -209 0 0 0 0 0
    0 0 0 0 0 0 0 0 0 0 0 0 0 0 0 0 0 0 0 0 0 0 0 0 0 0 0 0 0 0 0 0 0 0 0 0 0 0 0 0 0 0 0 0 0 0 0 0 0 0 0 0 0 0 0 0 0 0 0 0 0 0 0 0 0 0 0 0 0 46 -209 -193 51 -193 -209 -209 -209 -209 -209 -209 -209 -209 -209 -209 35 -209 -177 -177 -177 -177 769 768 766 766 -193 604 -193 -193 -193 -209 -209 -209 -209 -193 25 27 31 -193 33 -209 -209 -209 38 39 39 37 35 34 32 31 33 35 30 31 28 27 28 29 28 -193 -193 28 26 34 37 37 35 34 34 34 34 35 34 37 36 36 37 37 38 41 39 39 38 36 -209 -209 38 -193 31 28 27 28 35 38 28 36 44 42 42 41 40 39 38 41 39 32 32 30 30 33 31 34 32 35 34 33 36 39 38 36 32 31 31 36 38 31 36 32 35 36 36 37 38 38 41 42 45 48 46 52 53 55 56 55 58 58 60 61 60 -193 -193 -193 38 38 36 38 37 39 38 37 -209 -209 -209 -209 -209 -209 28 34 34 35 35 37 36 37 39 40 40 40 41 41 41 44 44 46 48 53 55 55 55 54 53 54 54 53 51 48 47 48 51 49 50 55 55 54 55 53 53 53 53 53 52 51 52 50 52 53 49 51 48 44 47 -225 -225 -225 54 55 55 56 62 70 70 70 -193 -193 -193 -209 -209 -209 50 -209 -209 -209 -209 114 -209 0 0 0 0 0
    0 0 0 0 0 0 0 0 0 0 0 0 0 0 0 0 0 0 0 0 0 0 0 0 0 0 0 0 0 0 0 0 0 0 0 0 0 0 0 0 0 0 0 0 0 0 0 0 0 0 0 0 0 0 0 0 0 0 0 0 0 0 0 0 0 0 0 0 0 45 -209 -209 -209 -209 -209 -209 -209 -209 -209 -193 -209 -209 -209 -193 34 -209 765 766 774 768 768 767 766 766 -193 604 -193 -209 -193 -209 -209 -209 -193 -193 25 28 32 31 32 -209 -209 -209 37 38 37 36 34 33 31 30 32 34 29 30 27 26 27 28 -193 -193 -193 27 -193 34 37 37 35 35 35 36 35 36 36 37 37 37 38 37 38 40 38 38 37 35 36 36 36 35 31 28 28 29 34 -193 28 35 -209 41 42 41 40 40 38 41 39 33 33 31 30 32 30 32 31 35 36 37 39 41 40 38 35 34 34 37 38 31 36 33 36 37 37 39 39 40 43 44 47 49 48 52 52 54 55 54 57 58 60 61 60 59 59 -193 -193 -209 -209 -209 -209 -209 -209 -209 -209 -209 -209 -209 -209 -209 -209 -209 -193 33 33 35 35 36 38 39 40 41 43 42 44 46 49 52 -193 56 58 56 56 54 54 54 53 52 50 46 47 45 48 48 48 54 -193 54 55 53 53 53 53 53 52 51 52 50 51 51 47 48 46 42 -225 -225 -225 -225 -225 53 54 -193 -209 -209 -209 -193 -209 -193 -209 -209 -209 -209 -209 -209 -209 -193 -193 -193 -209 0 0 0 0 0
    0 0 0 0 0 0 0 0 0 0 0 0 0 0 0 0 0 0 0 0 0 0 0 0 0 0 0 0 0 0 0 0 0 0 0 0 0 0 0 0 0 0 0 0 0 0 0 0 0 0 0 0 0 0 0 0 0 0 0 0 0 0 0 0 0 0 0 0 0 -209 -209 -209 -209 -209 -209 -209 -209 -209 -209 -209 -209 -209 -209 -209 32 -209 765 764 774 768 768 767 766 766 -193 -193 -193 -209 -193 -209 -209 -209 32 28 27 30 33 31 33 -193 -209 -209 37 37 36 36 33 31 29 29 30 34 29 30 26 26 27 28 -193 -193 599 -193 -193 32 37 37 36 36 36 37 36 37 37 38 38 37 38 38 38 40 39 38 37 36 37 36 36 34 32 29 29 30 33 -193 27 35 -209 41 43 -193 -193 40 39 40 39 34 33 31 30 32 30 31 31 34 35 37 39 41 40 38 36 35 35 37 38 32 37 35 37 38 39 40 -193 -193 46 46 49 51 50 53 52 53 53 50 56 57 59 61 60 59 59 59 61 60 -209 -209 -209 -209 -193 -209 -209 -209 -209 -193 -177 -193 -193 -209 -209 -209 -193 36 -193 -209 -209 -209 -209 -209 -209 -193 -209 -209 59 -193 62 59 60 56 56 54 54 53 52 51 50 46 48 45 49 48 47 53 -209 54 55 53 53 53 53 53 52 50 51 49 50 51 46 47 45 41 -225 -225 -225 -225 -225 -225 -225 -209 159 -209 -209 -209 -209 -209 -209 -209 -209 -209 -209 -209 -209 -209 -209 -193 -209 0 0 0 0 0
    0 0 0 0 0 0 0 0 0 0 0 0 0 0 0 0 0 0 0 0 0 0 0 0 0 0 0 0 0 0 0 0 0 0 0 0 0 0 0 0 0 0 0 0 0 0 0 0 0 0 0 0 0 0 0 0 0 0 0 0 0 0 0 0 0 0 0 0 0 -209 -209 -209 -209 -209 -209 -209 -209 -209 -209 -209 -209 -209 -209 -209 -209 -209 763 763 774 767 767 766 765 766 29 -193 -193 -193 -193 -209 -209 42 -209 -209 29 34 34 31 32 -193 -209 -193 35 35 35 34 33 31 30 30 31 34 30 30 27 26 27 27 -193 -193 600 -193 -193 31 37 37 37 36 37 37 37 37 37 38 38 37 38 37 38 39 39 38 37 36 37 36 36 34 33 29 30 32 33 -193 27 35 -209 41 -193 -193 -193 40 39 41 40 36 34 32 30 34 31 31 31 32 35 39 40 40 39 38 36 37 36 38 38 35 38 37 39 40 40 43 -193 -193 48 47 50 52 51 53 51 53 53 49 56 55 58 61 60 59 59 60 61 61 -193 -209 -193 -209 -193 -209 -209 -209 -209 -193 -177 -193 -193 -209 -209 -209 -209 -209 -209 -193 -209 -209 -209 -209 -209 -193 -209 -193 65 63 65 60 60 56 56 54 54 53 52 50 50 46 48 45 49 49 48 53 -209 54 55 53 53 53 53 53 52 50 51 48 49 50 46 45 44 40 -225 -225 -225 -225 -225 -225 -225 -225 -193 -209 -209 -209 -209 -209 -225 -209 -209 -193 -209 -209 -209 -209 -209 -209 -209 0 0 0 0 0
    0 0 0 0 0 0 0 0 0 0 0 0 0 0 0 0 0 0 0 0 0 0 0 0 0 0 0 0 0 0 0 0 0 0 0 0 0 0 0 0 0 0 0 0 0 0 0 0 0 0 0 0 0 0 0 0 0 0 0 0 0 0 0 0 0 0 0 0 0 -209 -209 -209 -209 -209 -209 -209 -209 -209 -209 -193 -209 -209 -209 -209 -209 -209 -193 763 774 767 767 767 765 766 29 -193 -193 -193 -193 -209 -209 44 55 -209 -209 -209 -193 -193 -193 -193 -193 30 34 34 33 33 32 32 30 30 31 34 30 30 26 25 26 27 -193 -193 599 -193 -193 30 38 37 37 36 37 37 37 37 37 37 37 35 37 36 37 38 38 37 36 35 37 36 36 33 33 29 31 33 32 35 28 36 -209 42 43 -193 -193 39 39 40 39 35 34 32 31 34 31 31 32 33 37 41 40 40 39 37 36 36 37 39 39 38 40 39 40 41 42 46 45 45 51 49 51 52 52 53 51 52 52 48 56 55 58 62 62 61 62 64 64 64 -193 -193 -193 -193 -193 -209 -209 -209 -209 -209 -209 -209 -209 -209 -209 -209 -209 -209 -209 -209 -209 -209 -193 -209 -193 -193 -193 61 64 63 63 60 60 56 56 54 53 52 51 49 49 46 48 45 49 49 48 52 55 54 55 54 53 53 53 53 52 50 51 48 48 50 46 44 44 38 -225 -225 -225 -225 -225 52 -225 -225 -209 -193 -209 -225 -225 -225 -225 -225 11 -193 -209 -209 -209 -209 77 77 79 0 0 0 0 0
    0 0 0 0 0 0 0 0 0 0 0 0 0 0 0 0 0 0 0 0 0 0 0 0 0 0 0 0 0 0 0 0 0 0 0 0 0 0 0 0 0 0 0 0 0 0 0 0 0 0 0 0 0 0 0 0 0 0 0 0 0 0 0 0 0 0 0 0 0 -209 -209 -209 -209 -209 -209 -209 -209 -209 -209 -193 -209 -209 -209 -209 34 -209 764 763 774 768 767 767 766 767 29 32 31 -193 -193 -209 -209 44 54 -193 -209 -209 -209 -193 -193 29 30 29 31 31 31 32 32 32 32 30 31 35 31 30 27 26 27 27 26 -193 -177 -193 -193 29 37 35 37 36 37 38 37 37 37 36 38 34 36 36 36 38 38 36 36 35 36 36 35 33 33 29 32 33 30 34 27 35 -209 42 44 -193 -193 39 38 40 39 35 34 32 31 34 30 31 31 31 36 39 39 38 38 37 36 37 39 41 41 40 42 42 43 45 46 50 48 49 53 51 52 52 52 52 50 52 52 48 56 55 58 61 62 60 61 61 61 61 61 59 60 61 61 -193 61 62 60 59 59 59 57 57 54 52 53 -193 -193 -209 125 -193 -193 -193 -193 -193 -209 -193 64 63 62 60 60 56 56 54 53 52 51 49 48 45 47 44 48 48 47 51 54 53 54 54 53 53 53 53 52 50 51 48 48 49 46 44 43 38 -225 -225 -225 -225 -225 -209 -225 -225 -209 -209 -209 -225 -225 -225 -225 -225 10 -193 -209 11 -193 -209 -193 -209 79 0 0 0 0 0
    0 0 0 0 0 0 0 0 0 0 0 0 0 0 0 0 0 0 0 0 0 0 0 0 0 0 0 0 0 0 0 0 0 0 0 0 0 0 0 0 0 0 0 0 0 0 0 0 0 0 0 0 0 0 0 0 0 0 0 0 0 0 0 0 0 0 0 0 0 -193 -209 -209 -209 -209 -209 -209 -209 -209 -209 -209 -209 -209 -209 -209 -193 -209 -193 767 775 768 768 768 766 -193 29 32 31 25 28 29 -209 44 -209 -209 -209 -209 -193 -193 -193 28 30 28 31 31 31 31 31 32 32 31 31 35 31 31 28 26 27 27 27 -193 -177 -177 -193 29 37 34 37 37 37 39 37 37 37 36 38 34 35 35 36 37 38 36 36 35 36 36 36 33 33 30 33 32 29 32 26 35 -193 42 44 -209 -193 39 38 39 38 35 34 31 30 34 30 30 30 31 38 41 40 39 39 39 39 40 41 42 42 42 44 45 46 47 49 53 51 51 54 51 53 53 52 52 50 52 52 48 55 54 56 58 59 58 58 59 59 59 59 58 59 60 60 64 60 60 59 58 58 58 56 57 54 53 54 -193 58 -193 -193 -193 60 -209 -193 -193 -209 -193 64 -193 62 60 60 57 56 54 53 52 50 48 48 45 46 44 46 47 46 50 53 52 54 53 53 53 53 52 52 50 51 49 48 50 46 44 43 37 -225 -225 -225 -225 -225 -225 -225 -225 -209 -209 -209 -225 -225 -225 -225 -225 -209 -209 -209 -193 -209 -209 -209 -209 -209 0 0 0 0 0
    0 0 0 0 0 0 0 0 0 0 0 0 0 0 0 0 0 0 0 0 0 0 0 0 0 0 0 0 0 0 0 0 0 0 0 0 0 0 0 0 0 0 0 0 0 0 0 0 0 0 0 0 0 0 0 0 0 0 0 0 0 0 0 0 0 0 0 0 0 -209 -209 31 31 32 35 -209 -209 -209 -209 -209 -209 -209 -209 -209 -209 -209 -193 773 775 768 768 768 767 -193 29 32 31 26 29 30 -209 43 -193 43 -193 -209 -209 -209 -209 -193 31 -193 32 31 30 30 31 33 32 32 32 35 32 31 29 27 27 28 27 -193 -177 -193 -193 30 37 34 37 38 38 39 37 37 37 36 38 34 35 35 36 37 38 36 36 35 36 35 36 33 34 30 33 33 31 34 26 35 43 42 44 -193 -193 39 38 39 38 34 33 31 30 33 30 30 29 31 37 39 39 39 39 38 39 39 40 41 42 43 45 47 48 49 51 54 52 53 55 52 53 52 52 51 50 51 52 47 54 52 55 56 57 57 57 58 58 59 58 58 58 60 60 63 59 59 59 57 -193 -193 56 56 54 53 54 54 57 -193 -193 -193 59 61 60 60 -193 -193 64 -193 62 60 60 57 57 54 53 51 50 48 47 45 46 44 45 46 46 48 52 52 54 53 52 52 52 52 52 49 51 49 49 51 47 44 44 39 -225 -225 -225 -225 -225 -225 -225 -225 -225 -225 -225 -225 -225 -225 -225 -225 -209 -209 -209 -209 -193 -209 -193 -209 -193 0 0 0 0 0
    0 0 0 0 0 0 0 0 0 0 0 0 0 0 0 0 0 0 0 0 0 0 0 0 0 0 0 0 0 0 0 0 0 0 0 0 0 0 0 0 0 0 0 0 0 0 0 0 0 0 0 0 0 0 0 0 0 0 0 0 0 0 0 0 0 0 0 0 0 30 28 28 26 28 30 29 24 -209 22 23 -193 -209 -209 -209 -209 -209 -209 775 776 769 769 769 -193 29 29 32 31 26 30 31 -193 43 42 43 43 45 -193 -209 36 -209 -209 -209 36 -193 34 32 33 34 33 32 33 35 32 32 29 27 28 28 27 27 -177 -193 -193 31 37 34 37 38 37 38 37 37 37 36 38 34 34 35 35 36 37 35 35 34 36 35 35 33 34 30 34 33 31 35 26 35 43 42 43 -193 -193 39 38 40 38 34 33 31 30 33 30 29 28 29 34 36 36 34 33 33 38 38 39 40 42 43 45 46 48 48 51 53 52 53 54 51 52 52 52 51 50 51 52 47 54 52 55 56 56 57 57 57 58 58 58 58 58 60 59 61 58 58 57 56 56 56 55 55 54 54 54 55 57 57 -193 58 59 60 59 59 57 63 63 -193 62 61 61 58 57 55 53 51 50 48 47 45 46 44 45 45 45 47 50 50 53 53 51 52 52 52 52 50 51 49 50 52 49 44 46 39 -225 -225 -225 -225 -225 -225 -225 -225 -225 -225 -225 -225 -225 -225 -225 -225 -193 -193 11 11 -209 -209 -209 -193 -193 0 0 0 0 0
    0 0 0 0 0 0 0 0 0 0 0 0 0 0 0 0 0 0 0 0 0 0 0 0 0 0 0 0 0 0 0 0 0 0 0 0 0 0 0 0 0 0 0 0 0 0 0 0 0 0 0 0 0 0 0 0 0 0 0 0 0 0 0 0 0 0 0 0 0 28 28 28 26 27 26 26 25 25 24 25 25 26 26 25 29 -209 -209 769 775 769 769 769 -193 29 30 32 32 27 31 32 28 43 43 43 43 44 44 43 41 -193 37 36 37 37 33 31 33 34 32 32 33 35 32 32 30 27 28 28 27 27 -177 -193 27 30 37 34 37 38 37 38 37 36 36 36 38 34 34 35 34 36 37 35 34 33 35 34 34 33 33 29 34 34 31 36 27 36 43 42 43 -193 -193 39 38 40 39 34 33 30 30 33 30 28 27 29 32 34 34 30 28 29 37 37 38 40 41 42 45 46 47 47 50 52 51 52 54 51 52 52 52 51 51 51 52 48 54 52 55 55 56 56 56 57 57 58 58 58 58 59 58 59 57 56 56 55 55 55 54 55 53 54 54 54 56 56 56 57 58 57 57 57 56 61 62 63 61 61 61 58 58 55 54 51 50 48 48 45 46 44 45 45 45 47 49 50 53 53 51 52 52 52 52 50 51 50 50 53 51 46 50 41 -225 -225 -225 -225 -225 -225 -225 -225 -225 -225 -225 -225 -225 -225 -225 -225 11 11 11 11 -209 -209 -193 14 -193 0 0 0 0 0
    0 0 0 0 0 0 0 0 0 0 0 0 0 0 0 0 0 0 0 0 0 0 0 0 0 0 0 0 0 0 0 0 0 0 0 0 0 0 0 0 0 0 0 0 0 0 0 0 0 0 0 0 0 0 0 0 0 0 0 0 0 0 0 0 0 0 0 0 0 27 27 27 27 28 25 25 25 26 25 26 26 26 27 25 28 -209 -193 765 774 768 768 769 -193 29 30 33 32 27 32 33 29 42 42 42 43 44 44 43 41 -193 38 -193 -209 -209 33 30 34 35 33 34 34 35 32 32 31 28 28 28 28 27 -193 26 27 30 36 34 36 38 36 37 36 35 35 36 38 34 33 34 34 36 37 34 34 33 35 34 34 33 33 29 35 35 33 36 29 35 42 41 42 -193 38 38 38 40 39 34 33 30 30 33 30 29 27 28 31 31 32 28 27 28 37 36 37 39 41 42 44 44 46 46 50 51 51 51 53 50 52 51 52 51 51 51 52 48 53 52 55 55 55 56 56 57 57 58 58 57 57 58 57 58 56 56 56 55 55 55 54 55 53 54 54 54 56 55 55 56 56 56 56 56 55 59 61 63 61 61 61 59 58 56 54 51 50 49 48 46 46 44 45 45 45 46 47 50 53 53 52 52 53 52 53 51 52 51 51 54 53 47 55 -193 -225 -225 -225 -225 -225 86 -225 -225 -225 -225 -225 -225 -225 -225 -225 -225 -225 11 11 11 12 -193 -193 -193 -193 0 0 0 0 0
    0 0 0 0 0 0 0 0 0 0 0 0 0 0 0 0 0 0 0 0 0 0 0 0 0 0 0 0 0 0 0 0 0 0 0 0 0 0 0 0 0 0 0 0 0 0 0 0 0 0 0 0 0 0 0 0 0 0 0 0 0 0 0 0 0 0 0 0 0 28 28 28 28 29 26 27 27 27 26 27 27 27 27 26 27 -193 22 -193 773 768 768 769 -193 28 30 33 32 27 32 33 28 41 42 43 44 45 46 45 43 43 41 43 42 42 36 31 35 36 34 35 34 35 32 33 32 28 28 29 27 27 26 27 28 30 36 33 35 37 35 36 35 34 34 35 37 33 31 33 33 34 37 33 33 32 35 34 34 33 34 29 35 35 34 37 30 35 41 41 41 39 37 38 37 40 39 33 32 29 30 33 29 29 26 28 30 29 31 27 26 27 37 36 37 39 40 42 43 44 45 45 49 49 50 50 52 50 51 50 52 50 51 51 51 48 53 51 54 55 55 56 56 57 57 58 58 57 57 58 57 58 57 56 56 55 55 55 55 55 54 55 55 54 55 55 55 55 55 54 55 55 55 60 61 63 60 61 61 60 59 57 55 51 51 49 48 46 46 44 44 45 45 45 46 49 53 54 52 53 53 52 53 51 52 52 51 53 53 47 57 -193 -225 -225 -225 -225 82 85 -225 -225 -225 -225 -225 -225 -225 -225 -225 -225 -225 -225 11 11 -193 -193 -193 -193 -193 0 0 0 0 0
    0 0 0 0 0 0 0 0 0 0 0 0 0 0 0 0 0 0 0 0 0 0 0 0 0 0 0 0 0 0 0 0 0 0 0 0 0 0 0 0 0 0 0 0 0 0 0 0 0 0 0 0 0 0 0 0 0 0 0 0 0 0 0 0 0 0 0 0 0 28 29 28 28 29 26 26 27 27 27 27 27 27 27 26 27 20 21 23 774 769 769 770 -193 28 30 32 32 27 31 31 28 40 40 41 43 44 46 46 45 45 45 46 45 44 38 34 35 36 34 35 34 34 32 32 31 28 28 29 27 27 -193 27 28 30 35 33 34 37 35 36 34 34 34 34 37 33 31 32 32 33 35 33 33 31 34 33 34 34 34 29 36 36 35 38 31 36 39 40 40 38 37 37 35 39 36 31 31 28 30 32 29 29 26 29 31 28 30 26 26 30 38 37 38 40 41 42 43 43 45 44 48 48 48 49 52 49 51 50 51 49 51 51 51 48 53 51 54 55 55 56 56 57 57 58 58 57 57 58 58 59 57 56 56 55 55 55 54 54 53 54 54 54 54 55 55 55 55 54 54 55 55 61 62 63 60 62 62 61 60 58 55 52 51 50 49 46 46 45 44 45 45 45 45 49 52 54 52 52 53 52 52 51 52 52 50 53 53 46 57 -193 -225 -225 -225 -225 82 -225 -225 -225 -225 -225 -225 -225 -225 -225 -225 -225 -225 -225 -225 10 -225 -193 -193 -209 -193 0 0 0 0 0
    0 0 0 0 0 0 0 0 0 0 0 0 0 0 0 0 0 0 0 0 0 0 0 0 0 0 0 0 0 0 0 0 0 0 0 0 0 0 0 0 0 0 0 0 0 0 0 0 0 0 0 0 0 0 0 0 0 0 0 0 0 0 0 0 0 0 0 0 0 27 28 27 26 27 24 25 26 26 26 27 27 27 26 25 26 19 20 22 -193 770 770 770 27 28 29 32 31 26 30 31 28 38 39 40 41 42 45 44 43 44 43 44 44 43 38 35 36 36 35 36 34 34 32 33 32 28 28 29 27 28 27 28 29 30 35 33 34 37 35 35 34 34 34 35 37 33 31 32 32 33 34 32 32 30 33 33 34 34 33 30 36 36 36 38 31 36 38 39 39 37 36 36 35 39 35 31 31 27 30 32 29 29 23 30 31 27 30 -193 26 35 39 38 39 40 40 42 43 43 45 44 48 48 48 49 51 49 51 49 51 48 51 51 51 48 52 51 54 55 55 55 55 56 57 57 57 57 56 57 57 58 56 55 56 55 54 54 53 53 52 53 52 51 52 54 53 55 54 52 52 53 55 -193 62 64 60 62 62 63 61 59 56 52 51 51 49 46 45 45 44 45 46 44 44 46 50 53 51 51 52 51 52 50 51 51 49 52 52 46 55 -193 -225 -225 -225 -225 -225 -225 -225 -225 -225 -225 -225 -225 -225 -225 -225 -225 -225 -225 -225 -225 -225 -193 -193 -209 -209 0 0 0 0 0
    0 0 0 0 0 0 0 0 0 0 0 0 0 0 0 0 0 0 0 0 0 0 0 0 0 0 0 0 0 0 0 0 0 0 0 0 0 0 0 0 0 0 0 0 0 0 0 0 0 0 0 0 0 0 0 0 0 0 0 0 0 0 0 0 0 0 0 0 0 26 27 26 25 25 22 24 24 25 25 25 26 26 25 24 24 18 19 21 -193 770 769 769 27 27 29 32 31 26 29 30 27 36 38 39 41 41 44 43 42 42 41 43 42 41 37 35 36 36 35 37 34 34 32 33 33 29 29 30 28 28 -193 29 29 30 35 34 35 37 34 34 34 34 34 35 36 33 32 32 32 32 33 32 31 30 32 32 34 34 32 30 36 36 37 38 32 36 37 38 38 36 36 35 34 38 34 31 31 26 30 32 31 28 20 35 -209 -209 33 -193 29 38 38 38 38 39 40 42 42 42 44 44 48 47 48 48 50 49 50 49 51 48 51 51 51 48 52 51 54 54 55 54 55 56 56 56 57 56 56 57 57 58 56 55 55 54 54 54 52 52 50 52 51 48 51 53 54 55 53 53 53 54 55 62 62 64 60 62 62 63 61 59 56 52 51 50 49 46 45 44 43 45 46 44 43 44 47 51 49 49 51 50 51 49 50 50 48 51 51 44 52 -193 -225 -225 -225 -225 -225 -225 -225 -225 -225 -225 -225 -225 -225 -225 -225 -225 -225 -225 -225 -225 -225 -209 -193 -209 -209 0 0 0 0 0
    0 0 0 0 0 0 0 0 0 0 0 0 0 0 0 0 0 0 0 0 0 0 0 0 0 0 0 0 0 0 0 0 0 0 0 0 0 0 0 0 0 0 0 0 0 0 0 0 0 0 0 0 0 0 0 0 0 0 0 0 0 0 0 0 0 0 0 0 0 25 26 25 25 24 21 23 23 24 24 24 25 25 25 23 23 18 18 20 -193 -193 -209 -193 26 27 29 31 31 26 28 29 25 33 37 40 42 41 44 41 41 41 40 41 40 38 35 34 35 35 36 37 34 32 32 33 33 29 29 29 28 28 -193 29 29 29 35 34 36 36 34 33 34 34 34 35 35 33 32 32 32 33 33 32 30 30 32 32 33 34 31 29 35 35 36 38 32 36 37 37 38 36 35 35 34 37 33 32 32 27 31 32 31 28 21 -193 -209 -209 33 29 30 38 37 37 38 38 39 41 42 42 43 44 48 47 48 48 50 50 50 49 51 48 51 51 51 48 51 51 53 54 55 55 55 56 56 56 57 56 56 57 57 58 56 55 56 55 55 54 53 53 51 53 52 50 55 58 61 60 -193 -193 56 57 57 64 63 65 60 61 61 62 60 59 55 52 51 51 50 47 45 45 43 46 47 44 43 47 48 52 50 50 51 51 51 50 50 50 48 50 50 44 46 -193 -225 -225 -225 -225 -225 -225 -225 -225 -225 -225 -225 -225 -225 -225 -225 -225 -225 -225 -225 -225 -225 -209 -193 -209 -209 0 0 0 0 0
    0 0 0 0 0 0 0 0 0 0 0 0 0 0 0 0 0 0 0 0 0 0 0 0 0 0 0 0 0 0 0 0 0 0 0 0 0 0 0 0 0 0 0 0 0 0 0 0 0 0 0 0 0 0 0 0 0 0 0 0 0 0 0 0 0 0 0 0 0 25 27 25 25 23 21 23 23 24 24 24 25 25 25 23 23 18 18 21 -177 -193 620 623 -193 26 29 31 31 26 28 28 25 31 38 41 42 42 44 41 41 40 40 40 39 37 33 32 33 32 36 36 34 31 32 33 34 29 29 29 28 28 -193 29 29 28 34 35 36 36 34 33 34 34 34 36 35 33 32 32 32 33 33 32 30 31 31 31 33 33 30 29 34 33 35 38 32 36 36 36 37 35 35 34 33 36 31 32 32 26 30 30 30 -209 20 -209 -209 -209 31 28 30 39 36 37 38 38 39 41 42 42 43 44 48 47 48 49 50 51 51 50 52 48 51 51 51 49 51 51 53 54 55 55 55 55 56 56 56 55 55 56 56 58 56 56 56 55 55 54 53 53 51 53 51 50 -209 59 67 65 -193 -209 -209 59 59 65 64 65 60 61 61 62 59 58 55 53 52 51 50 48 46 45 44 47 48 44 45 55 51 54 53 52 53 52 52 51 50 50 49 50 49 44 46 -193 -225 -225 -225 -225 -225 -225 -225 -225 -225 -225 -225 -225 -225 -225 -225 -225 -225 -225 -225 -225 -225 -225 -193 -209 -209 0 0 0 0 0
    0 0 0 0 0 0 0 0 0 0 0 0 0 0 0 0 0 0 0 0 0 0 0 0 0 0 0 0 0 0 0 0 0 0 0 0 0 0 0 0 0 0 0 0 0 0 0 0 0 0 0 0 0 0 0 0 0 0 0 0 0 0 0 0 0 0 0 0 0 -193 26 25 25 23 21 23 24 25 24 24 26 25 25 24 24 18 19 21 -193 621 621 624 -193 26 29 31 30 25 27 27 24 28 37 41 41 40 41 39 40 40 39 39 38 34 31 30 30 29 35 34 32 31 32 33 35 30 30 29 28 29 30 30 30 28 35 36 37 36 34 33 35 34 34 36 34 33 32 32 32 32 32 32 30 31 31 31 33 33 29 29 33 31 33 37 32 36 35 35 37 35 35 34 33 36 31 32 32 26 30 29 29 -193 20 -209 -209 -209 31 29 30 39 35 37 38 38 39 41 42 42 43 44 48 47 48 49 49 51 52 51 52 50 52 52 52 50 51 51 53 53 55 54 54 55 56 55 55 55 55 56 56 59 56 56 56 56 55 55 54 53 50 51 49 47 -209 57 -209 -209 -193 -193 -209 59 -193 64 63 65 60 61 61 62 59 58 56 54 52 52 51 48 45 45 45 49 48 45 48 57 53 55 54 53 54 53 52 51 50 50 48 49 48 44 -193 -193 -225 -225 -225 -225 -225 -225 -225 -225 -225 -225 -225 -225 -225 -225 -225 -225 -225 -225 -225 -225 -225 -225 -209 -209 -209 0 0 0 0 0
    0 0 0 0 0 0 0 0 0 0 0 0 0 0 0 0 0 0 0 0 0 0 0 0 0 0 0 0 0 0 0 0 0 0 0 0 0 0 0 0 0 0 0 0 0 0 0 0 0 0 0 0 0 0 0 0 0 0 0 0 0 0 0 0 0 0 0 0 0 24 26 25 26 24 23 24 24 25 25 24 25 25 25 23 23 19 19 21 -209 -193 621 624 -193 26 29 30 30 25 27 27 24 27 33 39 38 38 39 38 39 -193 38 -193 37 32 31 30 30 29 35 34 31 31 33 34 34 29 30 29 28 29 30 30 30 28 35 37 36 34 34 33 35 34 34 36 34 33 32 32 32 32 32 31 30 31 30 31 33 32 29 30 32 30 32 37 32 35 34 34 36 34 34 34 33 35 31 33 32 26 29 28 28 -193 -209 -193 -209 -209 31 30 32 39 35 37 38 38 39 41 42 42 43 44 48 47 48 49 49 52 52 52 53 50 52 52 52 51 50 51 52 54 55 55 54 55 56 56 55 55 55 56 57 60 57 56 56 56 56 55 54 54 50 -193 50 49 -209 -193 -193 -193 -193 -209 -193 -193 63 68 65 66 61 61 61 62 59 58 56 55 53 52 51 48 45 44 45 49 48 45 48 56 53 54 54 52 53 53 53 52 50 50 49 50 49 45 44 -209 -225 -225 -225 -225 -225 -225 -225 -225 -225 -225 -225 -225 -225 -225 -225 -225 -225 -225 -225 -225 -225 -225 -193 -193 69 0 0 0 0 0
    0 0 0 0 0 0 0 0 0 0 0 0 0 0 0 0 0 0 0 0 0 0 0 0 0 0 0 0 0 0 0 0 0 0 0 0 0 0 0 0 0 0 0 0 0 0 0 0 0 0 0 0 0 0 0 0 0 0 0 0 0 0 0 0 0 0 0 0 0 24 27 26 26 25 25 25 26 26 25 25 26 26 25 24 23 20 20 22 -209 -193 621 624 27 27 29 30 30 25 26 26 24 27 35 39 38 38 39 38 38 38 38 38 37 32 31 30 30 31 35 34 31 31 33 34 34 29 29 28 28 28 -193 29 29 28 35 37 36 33 34 33 35 34 34 35 33 33 33 32 32 32 32 32 31 32 30 31 32 31 28 29 31 29 30 36 32 35 33 34 36 34 34 34 33 35 31 35 33 26 29 28 28 24 -209 -193 -209 -209 28 28 33 40 36 37 39 39 40 42 42 42 42 44 48 47 49 49 50 52 53 52 53 51 53 53 53 51 50 52 53 55 57 56 56 56 57 56 -193 55 -193 56 57 59 56 56 56 56 56 55 53 53 50 -193 -193 -193 -209 -193 -193 -193 -193 -209 65 67 66 68 66 67 61 61 61 62 59 58 56 55 52 52 51 47 44 44 45 49 48 45 50 56 52 51 52 50 52 53 52 51 49 50 50 50 51 47 45 -193 -225 -225 -225 -225 -225 -225 -225 -225 -225 -225 -225 -225 -225 -225 -225 -225 -225 -225 -225 -225 -225 -225 -225 68 68 0 0 0 0 0
    0 0 0 0 0 0 0 0 0 0 0 0 0 0 0 0 0 0 0 0 0 0 0 0 0 0 0 0 0 0 0 0 0 0 0 0 0 0 0 0 0 0 0 0 0 0 0 0 0 0 0 0 0 0 0 0 0 0 0 0 0 0 0 0 0 0 0 0 0 24 27 26 26 25 25 26 26 25 25 25 26 26 26 25 24 22 22 23 27 -193 -193 623 27 27 29 30 30 25 26 27 25 30 37 40 40 39 39 38 37 35 35 37 35 31 31 29 30 33 35 34 31 31 33 34 34 29 28 28 28 28 -193 29 28 28 35 38 35 32 33 33 35 33 34 35 33 33 33 32 33 32 32 32 31 32 30 31 32 30 27 29 30 28 28 35 32 35 33 34 36 35 35 35 34 35 32 36 34 27 31 30 28 -193 -209 -193 -209 -209 27 27 35 43 37 38 -193 39 40 42 43 42 42 44 48 47 49 50 50 53 53 53 54 52 53 53 53 52 50 52 53 56 58 56 -193 -193 -193 -193 -193 -209 -209 -193 -209 -193 -193 55 56 55 55 54 52 53 48 -193 -193 49 -209 -209 -209 -193 -193 -209 -193 -193 -193 68 66 67 61 61 62 62 59 58 56 56 52 52 51 47 44 44 45 49 49 47 51 54 52 49 51 47 50 51 50 49 49 49 51 52 52 50 47 48 -225 -225 -225 -225 -225 -225 -225 -225 -225 -225 -225 -225 -225 -225 -225 -225 -225 -225 -225 -225 -225 -225 -225 66 68 0 0 0 0 0
    0 0 0 0 0 0 0 0 0 0 0 0 0 0 0 0 0 0 0 0 0 0 0 0 0 0 0 0 0 0 0 0 0 0 0 0 0 0 0 0 0 0 0 0 0 0 0 0 0 0 0 0 0 0 0 0 0 0 0 0 0 0 0 0 0 0 0 0 0 23 27 26 26 25 26 26 26 25 25 25 26 26 26 26 25 24 23 24 28 27 -193 -193 28 28 29 30 30 25 27 29 26 32 39 41 42 -193 38 36 32 29 29 32 32 29 29 28 29 33 35 33 32 31 33 33 34 29 28 27 28 28 28 28 28 28 35 37 34 32 32 33 35 33 34 34 32 33 33 32 33 32 32 32 31 32 30 32 32 30 28 31 31 28 29 35 33 35 32 34 36 35 35 35 35 35 32 36 34 27 30 30 29 27 27 35 -209 32 28 29 36 42 36 38 -193 39 40 42 42 42 42 44 48 47 50 51 51 54 54 54 54 53 53 54 54 53 50 52 52 55 56 54 -193 -193 -193 -193 -193 -193 -193 -177 -209 -193 -193 55 56 55 55 54 52 53 48 50 49 51 -209 58 -193 -193 -193 -209 63 -193 63 66 63 67 61 61 61 62 59 58 57 56 53 52 51 46 43 43 44 49 49 48 51 54 52 48 49 46 49 50 49 49 50 51 52 54 54 53 51 53 -225 -225 -225 -225 -225 -225 -225 -225 -225 -225 -225 -225 -225 -225 -225 -225 -225 -225 -225 -225 -225 -225 -225 67 68 0 0 0 0 0
    0 0 0 0 0 0 0 0 0 0 0 0 0 0 0 0 0 0 0 0 0 0 0 0 0 0 0 0 0 0 0 0 0 0 0 0 0 0 0 0 0 0 0 0 0 0 0 0 0 0 0 0 0 0 0 0 0 0 0 0 0 0 0 0 0 0 0 0 0 25 27 27 27 26 26 27 26 26 26 25 26 27 26 26 26 25 25 25 30 28 27 29 28 28 30 31 31 25 28 30 26 36 41 43 45 43 40 38 33 -193 -193 30 29 29 29 28 28 33 34 32 32 32 32 32 34 29 27 27 28 28 28 28 27 27 36 37 33 32 32 33 35 33 34 34 32 33 32 32 33 32 32 32 31 31 30 32 32 30 29 31 31 28 30 34 34 35 32 34 36 35 35 35 35 35 32 36 34 27 30 29 28 27 27 30 29 29 28 28 36 40 36 38 -193 38 40 41 42 42 41 44 48 48 51 52 53 56 55 55 55 55 54 54 54 53 50 51 52 53 54 53 -193 -193 -193 -193 -193 -193 -193 -177 -209 -193 55 55 56 56 55 55 54 55 50 54 53 53 -193 58 64 -193 -193 -193 63 -193 63 66 63 67 60 60 61 61 59 58 57 57 53 53 51 45 42 42 43 47 48 49 51 53 53 50 50 49 50 51 50 50 51 52 54 55 55 55 54 55 53 -225 -225 -225 -225 -225 -225 -225 -225 -225 -225 -225 -225 -225 -225 -225 -225 -225 -225 -209 -193 -225 -225 -193 -193 0 0 0 0 0
    0 0 0 0 0 0 0 0 0 0 0 0 0 0 0 0 0 0 0 0 0 0 0 0 0 0 0 0 0 0 0 0 0 0 0 0 0 0 0 0 0 0 0 0 0 0 0 0 0 0 0 0 0 0 0 0 0 0 0 0 0 0 0 0 0 0 0 0 0 25 27 29 28 27 27 28 27 27 27 27 26 28 27 28 27 26 26 26 31 29 28 30 29 29 31 31 31 26 30 31 28 38 42 46 48 48 43 -193 -209 -209 -209 27 27 28 29 28 28 33 33 31 31 31 31 31 33 29 27 27 28 -193 28 27 27 26 35 36 31 31 32 34 35 33 35 34 32 33 32 32 33 32 32 31 32 31 30 32 32 30 29 32 31 29 31 34 35 36 32 34 37 35 35 35 35 35 32 36 34 27 30 29 28 27 28 30 29 29 28 28 37 40 37 38 39 38 40 41 42 42 42 44 48 49 51 52 54 56 56 56 56 55 54 54 54 53 51 51 52 54 54 53 53 -193 -209 -193 -193 -193 -193 -177 -209 -193 -193 56 56 56 56 55 55 56 52 56 55 55 57 58 63 64 -193 -193 63 -193 64 67 62 68 60 60 61 61 59 58 57 57 53 53 52 44 42 42 43 47 48 50 51 52 52 51 51 51 52 52 51 51 52 53 55 56 56 56 56 56 55 -225 -225 -209 -209 -225 -225 -225 -225 -225 -225 -225 -225 -225 -225 -225 -225 -225 -209 -209 -209 -225 -225 -209 -209 0 0 0 0 0
    0 0 0 0 0 0 0 0 0 0 0 0 0 0 0 0 0 0 0 0 0 0 0 0 0 0 0 0 0 0 0 0 0 0 0 0 0 0 0 0 0 0 0 0 0 0 0 0 0 0 0 0 0 0 0 0 0 0 0 0 0 0 0 0 0 0 0 0 0 26 28 30 28 27 28 28 28 28 29 28 26 29 28 28 28 27 27 27 32 29 28 30 30 30 31 31 31 26 32 34 31 40 43 47 46 47 -193 -193 -209 -193 -209 29 29 30 31 29 29 33 32 31 32 32 32 31 33 28 27 27 28 -193 27 27 26 27 35 35 30 31 32 33 35 33 35 33 32 34 32 32 33 31 32 31 32 30 30 32 32 30 30 33 32 31 33 35 36 36 33 35 37 35 36 36 35 35 33 36 34 27 30 29 27 27 27 30 29 28 28 28 38 40 37 38 39 39 40 41 42 42 42 44 48 50 52 53 55 57 56 56 56 56 54 55 54 53 52 52 53 54 54 52 52 53 -209 -193 -193 -193 -193 -177 -209 59 -193 56 56 56 56 56 56 56 53 56 56 55 57 -193 -193 61 -193 -193 62 -209 -193 67 59 68 60 60 61 61 59 58 57 58 53 54 52 44 42 43 44 47 48 49 50 50 51 50 48 50 51 50 49 48 51 53 54 55 56 57 57 57 57 56 -193 -209 -209 -209 47 -225 -225 -225 -225 -225 -225 -225 -225 -225 -225 -209 -209 -209 -209 -209 -209 -209 -209 0 0 0 0 0
    0 0 0 0 0 0 0 0 0 0 0 0 0 0 0 0 0 0 0 0 0 0 0 0 0 0 0 0 0 0 0 0 0 0 0 0 0 0 0 0 0 0 0 0 0 0 0 0 0 0 0 0 0 0 0 0 0 0 0 0 0 0 0 0 0 0 0 0 0 26 28 31 29 28 28 29 29 29 30 29 27 31 28 29 28 27 27 27 32 29 28 30 30 30 32 32 32 27 33 34 32 39 42 42 41 42 -193 -209 -209 -193 -209 30 29 31 32 30 31 34 33 32 32 33 32 32 32 27 27 27 27 27 27 26 26 27 35 34 29 31 31 33 34 32 34 33 32 34 32 32 33 31 32 31 32 30 31 32 32 30 31 33 32 32 34 35 36 35 34 35 37 35 35 36 35 35 34 36 35 28 31 30 28 28 26 28 28 29 29 29 39 39 37 38 39 39 40 41 41 41 42 44 48 50 52 53 56 57 56 56 56 57 55 55 55 53 53 53 54 55 55 54 -193 -193 -209 -209 -193 -193 -193 -193 -209 60 56 56 56 56 56 56 56 56 53 56 56 55 57 56 59 60 -193 61 61 -209 -209 63 58 69 60 59 61 60 59 58 57 58 53 54 53 44 42 44 45 47 48 49 50 49 50 49 47 49 48 47 47 45 48 51 53 54 56 57 58 58 59 58 61 -209 -209 -209 48 -225 -225 -225 -225 -225 -225 -225 -225 -225 -225 -209 -209 -209 -209 -209 -209 -209 -209 0 0 0 0 0
    0 0 0 0 0 0 0 0 0 0 0 0 0 0 0 0 0 0 0 0 0 0 0 0 0 0 0 0 0 0 0 0 0 0 0 0 0 0 0 0 0 0 0 0 0 0 0 0 0 0 0 0 0 0 0 0 0 0 0 0 0 0 0 0 0 0 0 0 0 -193 29 32 29 28 28 29 29 29 30 29 27 32 28 29 28 27 28 28 32 29 28 30 30 30 32 32 32 27 34 35 33 39 42 42 42 43 -193 -209 -209 -209 -209 31 30 33 33 30 32 34 33 32 33 33 32 31 31 27 26 27 27 27 27 26 26 27 34 32 29 30 30 32 33 32 34 32 33 34 32 32 33 31 33 31 32 30 31 33 32 29 33 33 33 34 34 35 36 35 34 35 37 35 35 35 35 35 34 35 35 29 33 30 28 28 26 26 27 29 29 29 39 39 38 38 38 38 40 40 40 41 41 44 48 52 53 54 57 57 57 56 57 57 55 55 55 53 54 54 56 56 56 54 55 -209 -209 -209 -209 -193 -193 -209 -209 60 56 56 57 55 56 56 56 56 53 56 55 56 57 57 59 59 59 61 61 -193 -193 -193 57 69 59 59 60 60 58 58 57 58 53 55 54 45 43 46 45 47 49 50 50 49 49 50 47 49 48 46 47 45 48 50 52 53 55 56 56 57 57 55 59 -209 -209 -193 50 -209 -209 -225 -225 -225 -225 -225 -225 -225 -225 -209 -209 -209 -209 -209 -209 -209 -209 0 0 0 0 0
    0 0 0 0 0 0 0 0 0 0 0 0 0 0 0 0 0 0 0 0 0 0 0 0 0 0 0 0 0 0 0 0 0 0 0 0 0 0 0 0 0 0 0 0 0 0 0 0 0 0 0 0 0 0 0 0 0 0 0 0 0 0 0 0 0 0 0 0 0 -193 29 32 30 28 28 29 29 29 30 30 28 32 29 29 29 28 28 28 32 29 28 31 30 30 32 32 32 27 35 35 33 41 43 46 47 48 46 46 -209 -209 -209 32 31 34 33 31 33 34 32 32 33 33 31 31 30 26 26 27 27 27 26 26 25 27 34 30 28 30 29 31 32 32 34 31 33 34 32 33 34 32 34 32 33 30 33 34 33 30 33 33 33 34 35 35 36 35 35 35 37 34 35 35 34 34 34 34 34 29 32 29 28 27 25 25 25 27 27 28 39 38 37 38 38 38 39 39 39 39 41 43 48 53 54 56 58 58 57 56 57 57 55 55 55 53 54 54 57 56 57 55 -193 -209 -193 -209 -193 -193 -193 -193 -209 60 -193 56 56 55 56 56 56 55 53 55 54 55 57 55 57 57 56 58 -193 -209 -193 -193 56 67 58 58 -193 58 58 57 57 57 53 55 54 46 44 47 47 48 50 50 51 49 50 50 47 49 48 46 48 45 49 50 52 53 56 56 56 56 57 55 59 -193 -209 -193 51 -209 -209 -225 -225 -225 -225 -225 -225 -225 -225 -209 -209 -209 -209 -225 -225 -225 -225 0 0 0 0 0
    0 0 0 0 0 0 0 0 0 0 0 0 0 0 0 0 0 0 0 0 0 0 0 0 0 0 0 0 0 0 0 0 0 0 0 0 0 0 0 0 0 0 0 0 0 0 0 0 0 0 0 0 0 0 0 0 0 0 0 0 0 0 0 0 0 0 0 0 0 -193 30 33 30 28 28 29 29 29 30 30 28 32 29 30 29 28 28 28 32 30 28 31 31 30 32 32 33 28 35 35 32 -193 44 50 51 53 -193 50 -209 -209 -209 30 30 33 32 30 33 33 32 31 33 33 31 31 29 25 26 27 27 27 26 26 25 27 33 28 28 29 28 31 31 32 34 31 34 34 32 33 34 32 34 32 34 31 34 34 33 31 34 34 34 35 35 36 36 35 36 34 36 34 34 34 34 34 33 32 33 28 33 29 27 26 24 24 24 25 26 26 39 37 36 36 37 37 38 38 38 36 41 43 48 -193 55 57 59 58 57 56 57 57 54 54 54 52 54 53 56 56 57 56 -193 -209 59 -209 -209 125 -209 -193 -209 60 -193 57 57 55 56 56 56 56 53 55 54 56 57 54 -209 53 53 56 56 53 -193 -193 54 66 57 57 -193 -193 -193 57 56 57 53 55 54 46 45 49 48 49 51 50 51 50 50 50 48 50 49 46 49 46 51 52 53 54 57 57 56 55 58 56 60 -193 -193 -209 -193 -193 -225 -225 -225 -225 -225 -225 -225 -225 -225 -225 -225 -225 -209 -225 -225 -225 -225 0 0 0 0 0
    0 0 0 0 0 0 0 0 0 0 0 0 0 0 0 0 0 0 0 0 0 0 0 0 0 0 0 0 0 0 0 0 0 0 0 0 0 0 0 0 0 0 0 0 0 0 0 0 0 0 0 0 0 0 0 0 0 0 0 0 0 0 0 0 0 0 0 0 0 -209 32 34 31 28 28 30 29 29 30 30 28 33 29 30 29 28 28 29 33 30 28 31 31 30 32 32 33 28 35 35 30 -209 -193 51 52 54 -209 -193 54 -209 -209 29 28 32 32 30 33 33 31 31 33 33 31 31 29 25 27 27 26 27 26 26 25 27 33 26 27 29 27 31 31 32 35 30 35 35 32 33 34 32 35 33 34 32 34 35 34 32 36 35 36 37 36 37 36 35 36 33 35 32 33 33 32 33 32 31 33 28 32 28 27 24 24 23 23 25 25 24 39 35 34 35 36 36 37 37 37 33 41 42 48 -209 55 57 59 58 58 56 57 57 54 54 54 52 55 54 57 58 58 58 59 58 59 57 60 -209 -209 -193 -209 61 -193 58 57 56 57 57 57 57 54 56 56 57 59 -209 -209 55 55 59 -193 54 50 53 54 65 57 57 58 57 57 56 56 57 52 54 53 46 45 48 47 49 51 50 51 49 50 50 48 50 50 47 50 47 53 53 54 54 57 58 57 56 61 62 66 75 76 -209 -193 -193 -225 -225 -225 -225 -225 -225 -225 -225 -225 -225 -225 -225 -225 -225 -225 -225 -225 0 0 0 0 0
    0 0 0 0 0 0 0 0 0 0 0 0 0 0 0 0 0 0 0 0 0 0 0 0 0 0 0 0 0 0 0 0 0 0 0 0 0 0 0 0 0 0 0 0 0 0 0 0 0 0 0 0 0 0 0 0 0 0 0 0 0 0 0 0 0 0 0 0 0 -209 -193 34 31 29 28 30 29 29 31 30 29 33 29 30 29 29 28 29 33 30 28 31 31 29 32 32 33 28 34 33 29 -193 -193 49 48 50 -209 51 52 51 -209 29 29 33 32 31 34 32 31 32 33 33 31 31 28 25 28 27 27 27 -193 26 25 28 33 25 27 29 25 29 29 32 35 28 37 36 29 33 33 32 36 34 34 32 -193 36 34 33 35 33 36 38 36 38 35 35 36 33 35 32 33 32 32 33 32 30 32 28 33 26 27 23 23 23 23 24 24 24 39 34 33 34 36 36 37 36 36 31 41 43 48 -209 55 57 58 58 57 56 57 58 55 55 55 54 57 57 59 60 61 62 62 61 61 61 67 -193 61 59 62 63 59 58 58 56 57 57 57 57 55 56 56 58 59 -193 -193 -193 -209 61 -209 -209 46 49 53 59 56 56 57 56 56 55 55 57 51 53 52 46 45 49 48 49 51 49 50 49 49 50 48 50 50 47 51 48 53 52 53 53 56 56 56 52 -193 -209 68 75 75 -209 -209 -193 -225 -225 -225 -225 -225 -225 -225 -225 -225 -225 -225 -225 -225 -225 -225 -225 -225 0 0 0 0 0</data></disparity>
</opencv_storage>
