<?xml version="1.0"?>
<opencv_storage>
<gps_time_stamp>307487</gps_time_stamp>
<gps_x>-1.2426648139953613e+001</gps_x>
<gps_y>1.0971041679382324e+001</gps_y>
<gps_z>-2.0316245555877686e+000</gps_z>
<image_time_stamp>298358</image_time_stamp>
<disparity type_id="opencv-matrix">
  <rows>88</rows>
  <cols>320</cols>
  <dt>s</dt>
  <data>
    0 0 0 0 0 0 0 0 0 0 0 0 0 0 0 0 0 0 0 0 0 0 0 0 0 0 0 0 0 0 0 0 0 0 0 0 0 0 0 0 0 0 0 0 0 0 0 0 0 0 0 0 0 0 0 0 0 0 0 0 0 0 0 0 0 0 0 0 0 47 46 45 44 44 43 46 44 47 45 45 46 45 45 46 44 47 42 45 43 29 32 29 32 31 31 33 30 29 33 32 31 31 32 29 32 29 29 30 29 28 28 28 29 27 29 28 26 21 22 22 22 18 17 18 17 11 16 16 16 -225 -225 -225 -225 -225 -225 -225 -225 -225 -225 -225 -225 -225 -225 9 11 11 12 11 13 15 14 14 14 11 9 9 0 0 0 0 0 9 9 10 10 11 11 12 14 14 12 17 16 19 23 25 25 26 25 26 27 29 31 29 31 34 34 36 38 38 38 40 43 45 43 46 45 45 46 48 49 48 50 54 54 59 60 62 63 62 63 63 63 63 66 66 64 65 68 69 69 69 70 70 76 75 77 77 76 78 -193 -177 -193 -177 -177 -193 91 93 94 96 98 96 97 101 105 107 107 107 107 104 107 111 111 113 113 116 114 116 119 128 124 124 126 126 125 129 133 133 -193 -177 135 -193 -177 -193 -193 131 128 125 121 -193 319 -193 -209 -193 98 99 -193 -193 15 17 13 12 -177 -209 -209 -193 -193 -209 -209 -209 -209 -209 169 171 -193 173 176 177 179 178 178 -193 -177 -177 -177 0 0 0 0 0
    0 0 0 0 0 0 0 0 0 0 0 0 0 0 0 0 0 0 0 0 0 0 0 0 0 0 0 0 0 0 0 0 0 0 0 0 0 0 0 0 0 0 0 0 0 0 0 0 0 0 0 0 0 0 0 0 0 0 0 0 0 0 0 0 0 0 0 0 0 47 46 45 45 44 43 47 44 48 45 46 46 46 46 47 45 47 42 46 44 27 29 28 31 30 30 34 30 29 33 33 31 31 32 29 32 29 29 30 29 28 28 28 29 27 29 28 27 22 23 23 22 19 18 18 17 11 16 16 16 -225 -225 -225 -225 -225 -225 -225 -225 -225 -225 -225 -225 17 12 10 14 12 13 13 13 15 14 13 13 10 9 0 0 0 0 0 0 9 10 10 11 11 12 12 13 13 11 14 14 18 22 23 24 24 24 25 26 28 30 28 30 -177 35 37 38 -193 39 40 43 45 42 46 45 45 46 48 49 48 50 54 55 59 60 62 63 62 63 63 63 63 65 66 64 65 68 69 69 69 70 70 75 75 77 77 76 78 -193 -193 -193 -177 -177 -193 91 93 95 97 98 96 98 100 105 106 -193 107 106 103 106 110 110 112 112 116 115 116 119 128 124 125 126 127 125 129 133 133 134 -177 134 -193 -193 -193 -193 131 129 125 121 110 319 -193 -209 -193 99 100 -193 95 13 14 11 10 9 0 0 -177 -193 -209 -209 -209 -193 -209 -193 -193 -209 -209 174 -193 177 177 -193 -177 -177 -177 -177 0 0 0 0 0
    0 0 0 0 0 0 0 0 0 0 0 0 0 0 0 0 0 0 0 0 0 0 0 0 0 0 0 0 0 0 0 0 0 0 0 0 0 0 0 0 0 0 0 0 0 0 0 0 0 0 0 0 0 0 0 0 0 0 0 0 0 0 0 0 0 0 0 0 0 48 46 45 45 45 43 47 44 48 46 46 47 46 46 47 45 48 43 48 45 -209 -209 27 30 29 30 35 31 30 33 33 31 31 32 30 32 29 29 30 29 28 28 28 29 27 30 29 27 23 24 24 23 20 19 19 18 12 17 17 17 -225 -225 -225 -225 -225 -225 -225 -225 -225 -225 -225 10 16 15 12 15 13 14 13 12 13 13 11 12 10 9 0 0 0 0 0 0 10 11 11 11 12 12 11 12 12 11 12 13 16 21 22 23 23 23 24 25 27 29 27 29 -177 34 37 38 38 39 40 43 45 42 46 46 46 46 49 50 49 51 54 56 59 60 61 64 62 63 63 63 63 65 66 64 65 69 69 69 69 70 70 75 75 76 78 76 78 -193 -193 -177 -177 -177 -193 92 94 96 98 99 96 98 99 105 106 578 106 106 101 106 109 109 111 112 116 115 116 119 129 124 125 126 128 126 129 133 132 133 135 134 133 -193 -193 135 131 129 125 121 111 -193 -193 -209 -193 100 102 -209 -193 12 12 9 9 0 0 0 0 -193 -209 -209 -209 -209 -193 -193 -209 -209 -209 -209 -193 -209 176 -193 -177 -177 -177 -177 0 0 0 0 0
    0 0 0 0 0 0 0 0 0 0 0 0 0 0 0 0 0 0 0 0 0 0 0 0 0 0 0 0 0 0 0 0 0 0 0 0 0 0 0 0 0 0 0 0 0 0 0 0 0 0 0 0 0 0 0 0 0 0 0 0 0 0 0 0 0 0 0 0 0 47 45 44 44 44 43 47 44 48 46 46 47 46 46 47 45 47 42 46 45 -209 -209 26 29 28 31 37 34 32 33 34 31 31 32 30 32 29 28 30 29 28 28 28 29 27 31 29 28 24 25 25 24 22 20 20 19 12 18 19 19 -225 -225 -225 -225 -225 -225 -225 -225 -225 -225 15 11 15 14 11 13 11 12 12 12 12 12 10 10 9 0 0 0 0 9 0 9 11 11 12 12 12 12 11 11 12 10 11 12 15 19 20 22 22 22 23 23 25 28 27 29 -177 34 37 38 39 39 40 44 45 43 46 46 46 47 49 50 48 51 54 55 59 59 60 64 62 62 62 62 62 65 66 65 64 69 69 69 69 70 69 74 76 77 78 77 79 -193 -177 -177 -177 -177 92 92 94 97 98 99 96 98 99 104 105 577 106 105 100 106 109 109 111 111 115 115 117 120 129 124 125 126 128 126 128 132 132 132 135 133 133 -193 135 135 131 130 125 121 111 -193 -193 -209 -193 102 -193 -209 -193 -193 11 0 0 0 0 0 0 -193 -209 -209 -193 -209 -193 -209 -209 -193 -209 -209 -193 -193 -193 -209 -177 -177 -177 -177 0 0 0 0 0
    0 0 0 0 0 0 0 0 0 0 0 0 0 0 0 0 0 0 0 0 0 0 0 0 0 0 0 0 0 0 0 0 0 0 0 0 0 0 0 0 0 0 0 0 0 0 0 0 0 0 0 0 0 0 0 0 0 0 0 0 0 0 0 0 0 0 0 0 0 47 45 44 44 44 43 47 44 49 46 46 47 46 46 47 45 46 41 43 42 30 27 27 30 29 34 37 35 34 34 34 32 32 31 30 31 29 28 30 29 28 28 28 28 27 31 29 28 25 25 25 24 23 22 20 19 13 21 21 22 19 26 27 27 -225 -225 -225 -225 20 20 14 11 14 14 11 13 11 12 12 12 12 12 10 10 10 9 9 0 9 10 9 10 12 12 12 12 12 12 11 12 12 10 11 12 15 18 19 21 21 21 22 22 24 26 26 29 -177 35 38 39 -193 40 41 46 46 44 47 46 46 47 50 50 48 51 54 55 59 59 60 64 62 62 62 62 62 -193 66 65 64 69 -193 69 69 69 68 72 75 77 78 77 80 -193 -177 -177 -193 -177 92 93 95 97 99 99 96 98 98 104 -193 576 106 105 100 106 110 110 111 111 116 116 117 120 129 125 125 126 129 126 128 132 131 132 134 133 133 132 135 135 131 130 126 121 111 -193 -193 -193 -193 104 -193 -209 -193 -209 -209 0 0 0 0 0 -193 -193 -209 -209 -209 -209 -209 -209 -209 -209 -193 -209 496 497 -193 -209 -177 -177 -177 -177 0 0 0 0 0
    0 0 0 0 0 0 0 0 0 0 0 0 0 0 0 0 0 0 0 0 0 0 0 0 0 0 0 0 0 0 0 0 0 0 0 0 0 0 0 0 0 0 0 0 0 0 0 0 0 0 0 0 0 0 0 0 0 0 0 0 0 0 0 0 0 0 0 0 0 47 45 44 44 45 44 46 44 49 46 46 47 46 46 46 44 45 41 41 41 33 30 30 30 30 34 37 36 35 35 35 33 33 31 30 32 29 28 29 28 28 27 27 28 26 30 29 28 25 25 25 25 23 23 20 20 14 23 23 23 22 26 27 27 27 26 26 26 22 21 14 10 13 13 11 12 11 12 12 12 11 12 10 10 9 0 0 0 0 9 0 9 11 12 12 13 13 13 11 13 13 12 12 13 15 18 18 21 21 22 23 23 25 27 26 30 -193 35 38 39 -193 41 42 47 47 44 47 46 46 47 49 50 48 52 54 55 58 59 59 65 62 62 62 62 -177 -177 -193 -193 63 -193 -193 69 69 69 68 72 75 77 78 78 80 84 -177 -177 -209 369 92 93 94 96 98 99 96 98 98 104 571 576 -193 105 99 106 111 110 111 111 116 117 118 120 129 125 125 126 130 126 128 132 131 131 133 133 133 132 134 134 132 131 127 123 112 -177 -177 -193 -209 -193 106 -209 -193 -193 -177 -193 -193 0 -193 0 -209 -209 -209 -209 -209 -209 -193 -193 -209 -193 -193 498 497 498 -209 -209 -177 -177 -177 -177 0 0 0 0 0
    0 0 0 0 0 0 0 0 0 0 0 0 0 0 0 0 0 0 0 0 0 0 0 0 0 0 0 0 0 0 0 0 0 0 0 0 0 0 0 0 0 0 0 0 0 0 0 0 0 0 0 0 0 0 0 0 0 0 0 0 0 0 0 0 0 0 0 0 0 47 46 45 45 45 44 46 45 49 46 46 47 46 46 46 44 45 40 40 39 36 34 34 34 32 35 36 36 35 34 34 32 32 31 30 32 29 28 29 28 27 27 27 27 26 30 29 28 25 25 25 25 24 24 20 20 16 24 24 24 23 26 26 27 27 25 26 26 24 23 16 9 11 12 10 12 10 11 12 11 11 12 9 9 9 0 0 0 0 10 0 9 12 12 12 13 14 13 12 13 13 12 12 13 13 15 16 20 21 22 23 23 25 27 27 30 -193 35 38 39 -193 41 42 47 47 44 47 46 46 47 49 50 47 52 53 55 57 58 58 65 62 61 61 62 -177 -177 -193 -193 -193 -193 -177 69 69 69 68 71 76 77 78 79 81 85 -193 -193 90 -193 92 92 94 95 97 99 96 98 97 103 572 577 578 -193 99 106 111 110 112 111 116 119 119 121 130 125 126 126 130 127 127 132 130 130 132 132 132 131 134 134 132 133 -193 -193 -193 -177 -177 -177 -193 106 107 -193 -193 -193 -177 -209 -193 -193 -193 -209 -193 -209 -209 -209 -209 -209 -193 -209 -209 -209 -193 -193 498 499 -209 -209 -177 -177 -177 -177 0 0 0 0 0
    0 0 0 0 0 0 0 0 0 0 0 0 0 0 0 0 0 0 0 0 0 0 0 0 0 0 0 0 0 0 0 0 0 0 0 0 0 0 0 0 0 0 0 0 0 0 0 0 0 0 0 0 0 0 0 0 0 0 0 0 0 0 0 0 0 0 0 0 0 47 46 46 46 46 45 46 46 49 46 47 47 47 46 46 45 44 40 40 39 38 37 37 37 37 38 39 38 37 35 33 32 32 30 30 31 28 27 28 28 27 27 27 27 26 29 29 28 26 26 26 26 25 25 22 22 20 25 25 26 25 27 27 27 28 26 27 28 25 25 22 11 12 12 10 12 10 11 12 11 11 11 9 0 0 0 0 0 0 10 0 9 12 12 13 13 14 13 11 13 12 11 11 13 13 15 16 20 21 23 24 24 25 28 28 31 36 35 38 39 39 40 41 46 46 44 46 46 46 46 50 50 47 53 53 55 57 57 57 64 61 61 61 62 -177 -177 -193 -193 -193 -193 -193 69 68 69 -193 71 76 77 78 80 82 86 87 -193 90 91 92 92 93 94 96 99 96 98 97 -193 573 577 577 -193 98 106 110 110 111 110 116 119 119 121 130 125 126 126 130 127 127 131 129 129 132 132 132 131 135 135 133 134 -177 -209 -209 -177 -177 -177 -177 -193 108 109 -193 -209 -177 -209 -209 -193 -209 -193 -193 -209 -193 -193 -209 -209 -193 -193 161 -209 -193 -193 498 500 -193 -209 -177 -177 -177 -177 0 0 0 0 0
    0 0 0 0 0 0 0 0 0 0 0 0 0 0 0 0 0 0 0 0 0 0 0 0 0 0 0 0 0 0 0 0 0 0 0 0 0 0 0 0 0 0 0 0 0 0 0 0 0 0 0 0 0 0 0 0 0 0 0 0 0 0 0 0 0 0 0 0 0 47 47 47 48 47 46 46 48 49 47 47 47 47 46 46 45 44 41 41 40 40 40 40 40 40 41 41 40 39 37 33 30 32 30 30 30 28 27 28 27 27 26 27 27 26 30 29 29 27 27 27 27 25 25 22 22 21 26 26 27 26 27 26 27 28 27 27 27 25 25 25 18 14 14 11 13 11 13 13 12 12 12 10 9 10 10 0 0 0 10 9 9 11 11 11 13 13 13 11 13 12 11 11 13 13 16 16 20 21 23 24 -193 25 28 28 32 36 36 38 39 39 40 40 45 45 43 46 46 46 46 50 50 46 53 53 55 56 56 56 63 61 61 60 -177 -177 -177 -177 -193 -193 -193 -177 69 68 68 -193 70 75 77 77 80 82 86 87 90 90 92 92 92 93 94 96 99 96 98 97 571 574 577 577 578 97 106 109 109 109 109 115 118 118 120 130 125 126 126 130 127 127 131 129 129 131 132 132 131 135 135 -193 135 -177 -193 -209 -177 -177 -177 -177 -193 108 110 -193 -193 -209 -209 -209 -193 -209 -193 -209 -209 -193 -193 -209 -193 157 -193 163 -209 -193 -193 499 500 -193 497 -177 -177 -177 -209 0 0 0 0 0
    0 0 0 0 0 0 0 0 0 0 0 0 0 0 0 0 0 0 0 0 0 0 0 0 0 0 0 0 0 0 0 0 0 0 0 0 0 0 0 0 0 0 0 0 0 0 0 0 0 0 0 0 0 0 0 0 0 0 0 0 0 0 0 0 0 0 0 0 0 48 47 48 48 47 47 46 48 48 48 48 47 48 46 47 46 44 42 42 41 41 41 41 42 42 42 42 41 41 40 35 31 32 29 30 29 27 27 27 27 26 26 27 27 26 30 29 30 27 27 27 27 26 26 23 23 22 26 27 28 27 27 27 28 29 27 28 28 26 26 25 23 10 14 11 11 10 11 12 12 11 12 9 0 10 10 0 0 0 9 0 0 11 10 10 12 12 13 11 13 11 10 10 13 12 15 15 18 20 22 24 -193 24 28 28 32 37 36 38 39 39 40 40 45 45 44 46 46 46 47 49 50 47 54 54 54 55 55 56 62 60 60 60 -177 -177 -177 -177 -193 -193 -193 -193 69 68 68 67 69 74 76 76 79 81 86 87 90 90 92 92 92 92 93 95 99 96 98 97 572 575 577 577 578 98 106 109 109 109 110 114 118 118 120 130 125 126 126 130 127 127 131 129 129 131 132 133 132 -193 -193 -177 -209 -177 139 -209 -177 -177 -177 -177 -193 -177 -193 -193 -193 -209 -209 -209 -193 -209 -193 -209 -209 -193 -193 -209 -193 156 -193 163 -209 -193 -193 498 500 499 498 -209 -209 -209 426 0 0 0 0 0
    0 0 0 0 0 0 0 0 0 0 0 0 0 0 0 0 0 0 0 0 0 0 0 0 0 0 0 0 0 0 0 0 0 0 0 0 0 0 0 0 0 0 0 0 0 0 0 0 0 0 0 0 0 0 0 0 0 0 0 0 0 0 0 0 0 0 0 0 0 48 47 47 48 47 46 45 49 47 48 48 47 48 46 47 46 44 43 42 41 41 41 41 43 43 43 42 42 41 41 36 33 32 28 30 29 27 26 26 26 26 26 27 27 26 30 30 30 28 28 27 27 26 27 23 23 23 26 28 28 28 28 27 28 29 28 28 28 27 26 25 22 0 10 9 9 0 0 9 9 9 9 0 0 9 9 0 0 0 10 9 9 11 10 10 11 12 12 10 12 11 10 10 12 12 15 15 19 21 22 24 -193 25 29 28 32 36 35 37 38 38 40 40 45 45 44 46 46 46 47 48 49 46 54 53 53 55 55 55 61 60 60 60 -177 -177 -193 -193 -193 62 69 -193 68 68 68 67 69 72 74 73 76 79 85 87 90 90 92 92 92 92 92 95 99 96 98 97 573 575 578 578 579 98 106 109 110 110 111 114 118 118 120 130 125 126 126 130 127 127 131 129 129 131 133 134 -193 138 138 -193 -193 -193 139 -193 -177 -177 -177 -177 -193 -177 -193 -193 -209 -209 -209 -209 -193 -209 -209 -209 -209 -209 -209 -209 -209 155 -209 -193 -209 -193 -193 497 499 498 498 -193 -209 -209 424 0 0 0 0 0
    0 0 0 0 0 0 0 0 0 0 0 0 0 0 0 0 0 0 0 0 0 0 0 0 0 0 0 0 0 0 0 0 0 0 0 0 0 0 0 0 0 0 0 0 0 0 0 0 0 0 0 0 0 0 0 0 0 0 0 0 0 0 0 0 0 0 0 0 0 49 47 48 48 47 46 45 49 47 48 48 47 49 46 47 46 43 43 43 42 42 42 41 43 43 43 42 42 42 41 36 34 32 28 29 28 26 26 26 26 26 26 27 27 27 30 30 30 28 28 28 27 27 27 24 24 25 27 28 28 28 28 27 28 29 28 28 28 28 27 26 22 0 0 0 0 0 0 0 9 9 9 0 0 11 10 0 9 0 9 9 9 11 9 9 11 11 12 10 12 11 10 11 13 13 15 16 19 20 22 -193 -193 26 30 29 32 36 35 36 38 37 40 40 45 45 44 46 46 46 46 47 49 45 54 53 53 54 54 55 61 60 60 60 -177 -177 -193 -193 65 61 68 -193 68 68 67 66 67 71 72 71 75 77 82 85 90 90 92 92 92 92 92 94 100 95 98 -193 573 575 578 578 -193 98 106 110 111 111 111 114 119 119 121 130 126 126 126 130 127 127 131 130 130 132 134 -177 -193 139 139 -193 -193 -193 140 -193 -177 -177 324 324 324 107 -193 -209 -209 -209 -209 -209 -193 -209 -209 -209 -209 -209 -209 -209 -209 155 -209 -209 -209 -209 -193 -193 -193 -193 497 -193 -209 -209 425 0 0 0 0 0
    0 0 0 0 0 0 0 0 0 0 0 0 0 0 0 0 0 0 0 0 0 0 0 0 0 0 0 0 0 0 0 0 0 0 0 0 0 0 0 0 0 0 0 0 0 0 0 0 0 0 0 0 0 0 0 0 0 0 0 0 0 0 0 0 0 0 0 0 0 50 48 48 48 47 47 45 50 47 49 48 47 49 47 47 47 44 44 43 42 43 42 41 43 44 43 42 42 41 41 36 34 32 28 29 28 26 26 26 26 26 26 27 27 27 30 31 31 29 29 28 27 27 27 24 26 27 28 29 29 29 28 28 28 29 28 28 28 27 27 26 22 0 0 0 0 0 0 0 0 10 11 9 0 10 9 0 0 0 0 0 0 10 0 0 10 10 11 10 13 11 10 12 15 14 17 18 20 21 23 -193 -193 26 30 29 32 36 35 36 37 37 39 39 44 44 43 45 45 45 46 47 49 45 55 55 54 55 55 56 62 60 60 60 -177 -177 -177 -193 64 61 68 -193 67 68 67 66 67 71 71 70 73 75 78 83 90 90 93 92 91 91 91 94 100 95 -193 -193 573 575 579 -193 -177 96 106 110 111 111 111 115 120 120 121 131 126 126 126 130 127 127 131 130 130 133 135 -177 -193 140 140 140 -193 -193 140 -209 -177 -177 324 325 -193 -209 274 -193 -209 -209 -209 -193 -193 -193 -209 -209 -209 -209 -209 -193 -209 -193 -209 -209 -209 -193 -209 -193 -193 -193 -193 -193 -209 -209 426 0 0 0 0 0
    0 0 0 0 0 0 0 0 0 0 0 0 0 0 0 0 0 0 0 0 0 0 0 0 0 0 0 0 0 0 0 0 0 0 0 0 0 0 0 0 0 0 0 0 0 0 0 0 0 0 0 0 0 0 0 0 0 0 0 0 0 0 0 0 0 0 0 0 0 50 48 49 49 48 47 45 50 47 49 49 47 50 47 48 48 44 45 44 43 43 42 42 44 44 42 42 41 42 41 37 35 31 27 29 28 26 25 25 26 26 27 28 28 28 30 31 31 30 30 29 28 27 29 25 29 28 29 30 29 29 28 28 28 29 28 28 27 27 26 26 11 0 0 0 0 0 0 0 0 0 0 0 0 0 0 0 0 0 0 0 0 9 0 0 9 9 10 9 11 10 9 11 14 13 16 17 20 21 22 25 -193 27 31 29 32 35 35 36 37 36 38 38 43 43 42 44 44 44 46 -177 -177 45 56 56 55 55 55 56 62 61 61 61 -177 -177 -177 67 64 61 68 -193 67 68 67 66 67 71 71 71 73 74 76 81 89 90 92 91 91 91 91 93 100 96 -193 -193 573 575 579 815 818 95 106 109 111 111 111 115 121 121 122 131 126 126 127 131 127 127 131 131 131 134 136 -177 -209 141 141 141 -193 -177 -193 -209 -177 -177 325 325 -193 -193 274 276 -209 -209 -209 -209 -193 -209 -209 -209 -209 -193 -209 320 -209 -193 -193 -209 -209 0 0 -193 118 -193 -193 -209 -209 -209 -193 0 0 0 0 0
    0 0 0 0 0 0 0 0 0 0 0 0 0 0 0 0 0 0 0 0 0 0 0 0 0 0 0 0 0 0 0 0 0 0 0 0 0 0 0 0 0 0 0 0 0 0 0 0 0 0 0 0 0 0 0 0 0 0 0 0 0 0 0 0 0 0 0 0 0 50 48 49 49 48 47 45 51 47 49 49 48 50 47 48 48 45 46 45 43 44 43 42 44 44 -193 -193 -193 41 41 37 35 31 26 28 28 26 25 25 26 26 27 29 28 29 30 32 32 32 31 30 29 28 30 26 29 28 29 29 29 29 28 28 28 29 29 28 27 26 26 25 0 0 0 0 0 0 0 0 0 0 0 0 0 0 0 0 0 0 0 0 0 0 0 0 0 0 9 9 9 0 0 9 13 13 15 16 20 21 22 25 27 27 31 30 33 34 34 35 37 36 37 37 43 43 42 44 44 44 46 47 50 45 56 57 56 56 56 56 62 61 61 61 -177 -177 -177 67 64 61 67 -193 67 68 67 66 67 71 72 71 73 73 75 79 88 89 93 91 91 91 90 93 101 96 -193 -193 573 576 579 -177 -177 95 106 109 110 110 110 115 121 121 122 132 127 127 127 131 128 127 132 132 132 135 138 -177 -209 141 141 141 -193 -177 -193 196 -177 -177 325 325 -209 -193 275 276 335 -209 -209 -193 -209 -209 -209 -209 -209 -193 -209 318 -209 155 -193 -209 -209 0 0 -193 117 -193 -193 -209 -209 -209 -209 0 0 0 0 0
    0 0 0 0 0 0 0 0 0 0 0 0 0 0 0 0 0 0 0 0 0 0 0 0 0 0 0 0 0 0 0 0 0 0 0 0 0 0 0 0 0 0 0 0 0 0 0 0 0 0 0 0 0 0 0 0 0 0 0 0 0 0 0 0 0 0 0 0 0 50 48 49 49 48 47 45 51 47 49 49 48 50 47 48 48 45 47 46 44 44 43 42 45 44 -193 -193 -193 42 41 37 36 32 27 29 28 26 25 26 27 27 28 31 30 31 33 34 34 34 32 32 31 29 30 27 30 28 29 29 29 29 28 28 28 29 29 28 27 26 25 24 0 0 0 0 0 0 0 0 0 9 9 9 9 9 0 0 0 0 0 0 0 0 0 0 0 0 0 0 0 0 0 10 14 14 16 16 20 21 22 -193 -193 27 31 29 32 32 33 33 36 35 37 37 42 42 42 44 44 44 46 47 50 45 56 58 56 56 56 56 63 61 61 62 -177 -177 -177 67 65 62 67 -193 67 68 67 66 67 71 72 72 72 -193 -209 78 -193 -193 93 92 91 91 90 93 101 97 -193 -193 573 576 580 -177 -177 96 106 109 110 110 110 115 121 121 122 132 128 128 129 132 129 128 132 133 133 136 -177 -177 -193 142 142 141 -193 -177 -177 196 -177 323 325 325 -209 271 274 276 -177 -209 -209 -193 -193 -193 -209 -209 -209 -193 -193 317 -193 -209 -193 -209 -193 0 0 -193 -193 -193 -193 -209 -209 -209 -209 0 0 0 0 0
    0 0 0 0 0 0 0 0 0 0 0 0 0 0 0 0 0 0 0 0 0 0 0 0 0 0 0 0 0 0 0 0 0 0 0 0 0 0 0 0 0 0 0 0 0 0 0 0 0 0 0 0 0 0 0 0 0 0 0 0 0 0 0 0 0 0 0 0 0 50 48 48 49 47 47 45 51 47 49 49 48 51 48 48 49 45 48 47 44 45 43 42 45 44 -193 -193 -193 -193 41 37 37 32 27 30 29 27 26 27 30 30 30 32 31 32 34 35 34 35 32 33 32 30 30 29 31 29 29 30 29 29 28 27 27 28 28 27 26 25 21 17 0 0 0 0 0 0 0 0 0 9 9 9 9 10 9 0 9 0 0 0 9 0 0 0 0 0 0 0 0 0 0 10 14 13 16 15 20 21 21 25 27 27 31 29 32 31 32 32 35 34 36 37 42 42 43 45 45 45 46 48 51 45 55 58 56 56 56 56 63 62 62 62 -177 -177 -177 67 65 62 67 -193 67 69 67 66 67 71 71 71 -177 -209 -193 -193 145 141 -193 91 91 90 90 93 101 97 -193 -193 574 577 581 -177 -177 97 106 109 110 110 110 115 123 122 123 132 130 130 130 133 130 129 133 134 134 -177 -177 -177 -193 142 142 142 -193 -177 -177 195 321 323 325 325 -193 -193 274 275 -193 -209 -209 -193 -193 -193 -209 -209 -209 -209 -193 -193 270 -209 -209 -193 0 0 0 0 -193 -193 -193 -209 -209 -209 -209 0 0 0 0 0
    0 0 0 0 0 0 0 0 0 0 0 0 0 0 0 0 0 0 0 0 0 0 0 0 0 0 0 0 0 0 0 0 0 0 0 0 0 0 0 0 0 0 0 0 0 0 0 0 0 0 0 0 0 0 0 0 0 0 0 0 0 0 0 0 0 0 0 0 0 50 49 48 49 47 46 45 51 47 49 50 48 51 48 49 49 46 48 47 44 45 43 42 45 44 -193 -193 -193 -193 40 37 37 33 27 31 31 28 27 29 32 33 31 31 30 31 32 33 32 33 30 31 31 30 29 29 30 28 28 29 28 29 28 27 27 27 28 27 25 25 20 17 0 0 0 0 0 0 0 0 0 10 10 9 9 10 9 0 9 0 0 8 9 9 0 0 0 0 9 9 0 0 0 10 13 13 14 14 21 21 22 25 28 27 31 29 31 30 32 32 34 34 36 36 42 42 43 45 46 46 47 49 52 47 56 59 57 57 57 57 64 62 62 62 -177 -177 -177 67 65 62 67 -193 68 69 67 66 -193 70 71 71 -193 -209 149 -193 146 141 -193 90 91 89 89 92 101 98 -193 -193 575 578 582 -177 -177 97 106 108 110 110 110 116 125 123 123 132 132 131 132 134 130 129 133 135 136 138 140 139 -193 142 142 142 -193 -177 -177 195 321 323 -193 -193 974 978 273 274 -193 -209 -209 -209 -193 -177 -193 -209 -209 -209 75 -209 270 -193 -193 -193 0 0 0 0 -193 -193 -209 -209 -209 -209 -209 0 0 0 0 0
    0 0 0 0 0 0 0 0 0 0 0 0 0 0 0 0 0 0 0 0 0 0 0 0 0 0 0 0 0 0 0 0 0 0 0 0 0 0 0 0 0 0 0 0 0 0 0 0 0 0 0 0 0 0 0 0 0 0 0 0 0 0 0 0 0 0 0 0 0 50 49 48 49 47 47 45 52 47 50 50 49 51 48 49 49 46 48 47 44 45 43 42 45 44 -193 -193 -193 -193 40 37 37 33 28 31 32 29 28 30 32 33 31 30 29 29 29 30 29 30 28 29 31 30 30 28 31 28 28 29 28 28 28 27 27 26 27 26 24 23 17 15 0 0 0 0 0 9 0 0 0 9 10 9 10 10 0 0 9 9 9 9 10 10 9 9 9 0 9 10 9 9 9 11 13 13 14 14 23 22 23 26 28 27 31 29 31 30 31 32 35 35 36 36 41 42 43 45 45 45 47 51 -177 49 56 60 58 57 57 57 65 62 63 62 -177 -177 -177 67 66 63 67 69 68 69 67 66 -193 70 -193 71 -193 -209 149 -193 146 142 -193 89 90 89 88 91 101 98 -193 -193 576 579 582 816 821 96 105 106 108 108 108 116 126 123 124 132 132 132 132 134 130 129 133 136 136 137 140 139 -193 141 141 141 -209 -177 -177 194 321 323 -193 -193 974 977 272 274 -209 -209 -209 -193 -193 0 0 -209 -209 -209 -193 -209 270 -193 -193 -193 0 0 0 0 -193 -209 -209 -209 -193 -209 -209 0 0 0 0 0
    0 0 0 0 0 0 0 0 0 0 0 0 0 0 0 0 0 0 0 0 0 0 0 0 0 0 0 0 0 0 0 0 0 0 0 0 0 0 0 0 0 0 0 0 0 0 0 0 0 0 0 0 0 0 0 0 0 0 0 0 0 0 0 0 0 0 0 0 0 50 49 49 49 48 47 45 52 47 50 51 49 52 48 49 49 46 48 48 44 45 43 42 45 44 -193 -193 -193 -193 39 37 37 33 28 31 33 29 29 30 31 32 30 29 28 28 28 28 27 27 27 28 30 30 29 28 31 28 29 29 29 28 27 27 27 25 26 24 20 18 13 12 0 0 0 0 0 9 0 0 0 9 10 10 9 10 0 0 9 0 0 9 10 10 9 9 10 9 10 10 10 10 10 11 14 13 14 13 24 22 23 26 28 27 31 29 32 30 32 33 35 35 36 36 41 42 43 44 44 44 46 52 54 52 56 60 59 58 58 58 66 62 63 63 61 -177 -177 67 66 63 68 -193 68 69 67 67 -193 70 -209 -193 -193 -209 148 -177 146 142 144 88 90 88 88 -193 -193 99 -193 -193 -193 580 583 816 -193 98 105 106 107 108 107 116 126 123 123 131 133 131 132 134 130 129 133 136 136 137 139 138 -193 141 140 140 -193 193 194 -193 322 324 -193 974 974 977 -193 272 -209 -209 -193 -193 0 0 0 -209 -209 -209 -209 -209 270 -193 -193 0 0 0 0 0 0 -209 -209 -209 -193 -193 -193 0 0 0 0 0
    0 0 0 0 0 0 0 0 0 0 0 0 0 0 0 0 0 0 0 0 0 0 0 0 0 0 0 0 0 0 0 0 0 0 0 0 0 0 0 0 0 0 0 0 0 0 0 0 0 0 0 0 0 0 0 0 0 0 0 0 0 0 0 0 0 0 0 0 0 50 49 49 49 48 47 45 51 47 49 51 49 52 48 49 49 47 48 48 44 45 43 42 45 43 -193 -193 -193 -193 39 37 37 33 28 32 34 30 30 31 31 31 31 28 28 27 27 27 27 26 26 27 28 29 27 27 30 28 28 29 28 27 27 26 26 24 24 21 15 14 12 11 0 0 0 0 0 9 9 9 9 10 10 10 9 10 0 0 0 0 0 9 10 10 10 10 10 10 11 11 11 11 11 11 13 13 14 14 25 23 23 26 28 28 31 29 31 30 32 32 35 35 36 35 40 42 42 43 44 43 45 53 55 53 56 60 59 58 58 58 66 62 63 -193 61 -193 -177 67 66 64 -193 -193 68 69 68 67 69 70 -193 -193 -177 -193 148 147 146 142 145 87 89 87 87 -193 -193 99 -193 -193 -193 580 583 -177 -193 101 105 107 108 108 109 116 126 123 123 130 133 131 132 134 130 129 133 136 136 136 138 138 -193 140 139 139 -209 192 193 -193 -177 -193 -193 -177 974 976 -193 -193 -209 0 -193 -193 -193 0 0 -193 -209 -209 -193 -193 -193 -193 0 0 0 0 0 0 0 -209 -209 -209 -193 -193 -177 0 0 0 0 0
    0 0 0 0 0 0 0 0 0 0 0 0 0 0 0 0 0 0 0 0 0 0 0 0 0 0 0 0 0 0 0 0 0 0 0 0 0 0 0 0 0 0 0 0 0 0 0 0 0 0 0 0 0 0 0 0 0 0 0 0 0 0 0 0 0 0 0 0 0 50 49 49 49 48 47 45 51 48 49 51 49 52 48 49 49 47 48 48 44 45 44 42 45 43 41 -193 40 39 39 37 37 33 28 32 34 29 30 30 30 30 30 27 27 27 26 26 26 26 25 26 27 28 26 26 28 27 27 28 27 26 26 25 25 23 22 21 15 15 12 11 9 0 0 0 0 10 9 10 9 10 11 9 9 10 0 0 0 0 9 9 10 10 10 10 10 10 11 11 10 11 11 11 12 12 13 12 23 22 22 25 27 27 30 28 30 29 31 32 35 35 35 35 40 41 42 43 44 44 46 53 55 54 55 60 60 59 59 59 66 62 62 -193 -193 -193 -193 67 -193 64 -193 -177 68 69 68 67 -193 70 -193 -177 -177 -193 148 147 146 143 146 87 89 88 87 88 -193 99 100 -193 -193 580 583 -177 -193 105 105 108 109 109 110 116 124 122 123 129 134 131 131 134 130 129 133 136 136 135 138 137 -193 139 138 138 134 191 -209 -209 323 -193 -193 -177 974 976 980 -209 -209 0 -193 -193 -193 0 0 -193 -209 -209 -193 -193 -193 -193 0 0 0 -193 0 0 -193 -209 -209 -193 -209 -193 -177 0 0 0 0 0
    0 0 0 0 0 0 0 0 0 0 0 0 0 0 0 0 0 0 0 0 0 0 0 0 0 0 0 0 0 0 0 0 0 0 0 0 0 0 0 0 0 0 0 0 0 0 0 0 0 0 0 0 0 0 0 0 0 0 0 0 0 0 0 0 0 0 0 0 0 50 49 49 49 48 48 45 51 48 49 51 50 52 48 49 49 47 48 48 44 45 44 43 45 43 41 -193 40 39 38 37 36 32 28 32 34 29 30 30 29 29 29 27 27 26 25 25 26 25 25 25 26 27 25 26 27 25 26 26 26 25 24 23 23 19 18 17 13 15 12 12 11 0 9 9 9 11 10 10 10 11 12 10 10 11 0 0 0 0 9 9 9 10 9 10 10 10 11 10 11 11 11 11 12 11 13 13 21 22 21 24 26 26 29 28 29 29 31 32 34 35 35 34 39 41 41 43 44 43 46 54 55 55 55 60 61 59 59 59 67 61 61 -193 -193 -193 -193 -193 -193 -193 -177 -177 69 70 68 67 -177 70 -193 -177 -177 -177 148 147 147 143 147 87 89 88 87 88 -193 -193 101 102 -193 580 583 -193 106 105 106 110 110 111 111 116 123 122 123 128 135 131 131 133 130 129 133 136 136 135 138 137 -193 138 -193 -193 133 -193 132 -209 323 -193 -193 -177 974 976 980 -209 -209 0 -193 -193 -193 0 0 -193 -193 -209 -193 -193 -193 -193 0 0 -193 -193 -193 -193 -209 181 183 -209 -209 -193 -193 0 0 0 0 0
    0 0 0 0 0 0 0 0 0 0 0 0 0 0 0 0 0 0 0 0 0 0 0 0 0 0 0 0 0 0 0 0 0 0 0 0 0 0 0 0 0 0 0 0 0 0 0 0 0 0 0 0 0 0 0 0 0 0 0 0 0 0 0 0 0 0 0 0 0 50 49 49 49 48 48 45 50 48 48 51 49 51 48 49 49 47 47 47 44 44 44 43 45 43 41 40 40 39 38 36 36 32 28 32 34 28 29 29 29 29 29 27 26 26 25 25 26 24 24 25 25 26 24 25 26 24 25 25 23 22 20 19 18 13 12 12 11 13 12 12 12 9 11 10 10 11 11 11 11 11 12 11 10 11 9 9 0 0 9 9 9 10 9 10 10 10 11 10 11 11 11 11 12 12 13 14 19 20 20 23 -177 -177 28 27 28 29 30 32 34 35 35 34 39 41 41 42 43 43 46 53 56 55 54 60 61 60 60 60 67 60 61 -193 541 541 545 -193 542 -193 -177 -177 69 70 68 67 -177 69 -193 -177 -177 -193 148 147 146 -177 -177 86 88 87 87 88 -193 -193 100 -193 -193 580 583 -193 106 106 106 112 113 113 113 116 122 121 122 125 134 129 129 132 129 128 132 136 136 135 137 136 -193 138 -209 -209 133 131 131 -209 323 -193 -193 -177 974 976 980 -193 -209 0 -193 0 -193 0 0 -193 -193 -193 -193 -193 -193 0 0 0 -193 497 -193 179 -193 180 182 -193 -209 -209 -193 0 0 0 0 0
    0 0 0 0 0 0 0 0 0 0 0 0 0 0 0 0 0 0 0 0 0 0 0 0 0 0 0 0 0 0 0 0 0 0 0 0 0 0 0 0 0 0 0 0 0 0 0 0 0 0 0 0 0 0 0 0 0 0 0 0 0 0 0 0 0 0 0 0 0 50 49 49 49 48 48 45 50 47 48 49 48 50 47 48 48 46 47 46 44 44 44 43 44 43 41 40 39 39 38 36 35 32 28 31 33 28 29 29 28 28 28 26 26 25 25 24 25 24 23 24 24 24 23 24 25 22 24 23 21 17 15 14 13 10 10 11 9 12 11 11 12 9 11 11 10 11 11 12 11 11 12 10 10 11 9 0 0 0 9 9 10 10 9 10 10 10 11 10 11 11 11 12 12 12 13 16 20 21 20 23 -177 -177 -177 -177 28 29 30 32 34 36 35 33 39 40 40 42 43 43 45 53 56 56 54 60 63 61 61 61 67 60 60 -193 541 542 546 543 543 -177 -177 -177 68 69 68 67 -177 69 -193 -177 -177 -193 147 -193 -193 -193 -193 85 87 86 86 87 -193 -193 100 102 -193 579 583 -193 105 106 106 112 113 113 113 115 120 120 120 122 132 126 127 131 128 127 132 135 135 134 137 136 -193 137 -193 -193 132 131 130 -193 -177 -193 -193 973 974 976 980 -193 -209 0 0 0 -193 0 0 0 -193 -193 -177 0 -193 0 0 0 -193 497 495 -193 -193 179 181 183 -193 -209 -209 0 0 0 0 0
    0 0 0 0 0 0 0 0 0 0 0 0 0 0 0 0 0 0 0 0 0 0 0 0 0 0 0 0 0 0 0 0 0 0 0 0 0 0 0 0 0 0 0 0 0 0 0 0 0 0 0 0 0 0 0 0 0 0 0 0 0 0 0 0 0 0 0 0 0 50 48 48 48 48 48 45 49 47 47 48 47 49 47 47 47 45 46 45 44 43 43 42 44 43 41 40 39 39 38 36 35 32 28 31 33 28 29 28 28 28 28 26 26 25 25 24 25 23 23 23 23 23 22 22 24 21 23 22 17 13 11 11 10 0 0 10 0 10 11 11 12 9 12 11 10 11 11 12 11 11 11 10 10 10 0 0 0 0 9 9 10 10 10 10 10 10 11 10 11 10 11 11 11 11 12 16 20 21 20 22 -177 -177 -177 -177 27 29 30 32 34 36 35 33 38 40 39 42 42 42 45 52 55 56 54 60 65 62 62 62 68 60 59 59 541 543 547 544 544 -193 -177 -177 68 69 68 67 -177 69 -193 -193 -177 -193 148 -193 -193 -193 -193 85 87 86 86 87 -193 -193 100 101 102 577 582 -193 -193 105 106 111 112 112 112 115 119 119 119 120 131 125 126 130 127 126 131 134 135 134 137 135 -193 -193 -193 -193 132 131 129 -193 -177 -193 974 974 974 975 980 -193 -209 0 0 0 0 0 0 0 0 0 -177 0 0 0 0 0 -193 497 496 -193 496 178 180 -177 -177 -209 -209 0 0 0 0 0
    0 0 0 0 0 0 0 0 0 0 0 0 0 0 0 0 0 0 0 0 0 0 0 0 0 0 0 0 0 0 0 0 0 0 0 0 0 0 0 0 0 0 0 0 0 0 0 0 0 0 0 0 0 0 0 0 0 0 0 0 0 0 0 0 0 0 0 0 0 49 48 48 48 47 48 45 47 46 46 46 46 48 46 46 46 44 45 44 43 43 43 42 43 43 41 40 40 39 38 36 36 32 28 30 34 29 29 28 28 28 28 27 27 25 25 24 25 23 23 23 23 23 21 21 23 19 22 19 12 10 0 9 0 0 0 0 0 9 9 9 11 9 10 10 10 10 11 11 11 11 11 10 10 9 0 0 0 0 9 9 9 10 10 10 10 10 11 9 11 10 10 11 11 11 12 17 20 22 20 23 24 -177 -177 -177 27 29 29 32 34 36 35 32 38 40 39 42 42 42 44 50 54 55 52 60 68 64 64 64 68 60 59 58 -193 544 548 546 546 -193 -193 -177 69 70 68 68 -177 69 -193 -193 -193 -193 149 78 84 81 -193 84 86 86 86 87 94 -193 99 101 102 575 581 -177 -193 105 106 112 114 113 113 115 119 118 118 119 129 124 125 129 126 126 130 134 134 -193 137 135 528 -193 137 137 132 131 129 -193 -177 -193 974 974 975 976 980 -193 -193 0 0 0 -193 0 0 0 0 0 0 -177 0 0 0 -209 -193 -193 496 494 496 -193 179 182 -177 -209 -209 0 0 0 0 0
    0 0 0 0 0 0 0 0 0 0 0 0 0 0 0 0 0 0 0 0 0 0 0 0 0 0 0 0 0 0 0 0 0 0 0 0 0 0 0 0 0 0 0 0 0 0 0 0 0 0 0 0 0 0 0 0 0 0 0 0 0 0 0 0 0 0 0 0 0 49 48 48 47 47 47 45 46 46 46 45 46 46 45 45 45 44 44 44 43 42 43 42 43 43 41 40 40 39 38 36 36 32 28 30 34 29 29 29 28 28 29 27 27 25 26 24 25 23 23 23 24 23 21 20 22 17 18 15 9 0 0 0 0 0 0 0 0 0 0 0 10 0 10 10 10 11 11 11 11 11 11 10 10 9 0 0 0 0 9 9 9 10 10 10 10 10 11 9 10 9 10 11 11 12 12 17 20 22 20 23 24 -177 28 27 27 29 29 31 32 35 34 31 37 39 38 42 42 42 44 49 53 54 51 61 71 67 66 66 69 61 58 58 -193 545 548 -193 547 -193 -193 -193 69 70 69 68 -177 70 -193 -193 -193 -193 -193 77 83 80 84 84 85 85 85 87 94 -193 99 101 101 574 581 -193 -193 105 106 112 114 113 113 115 118 117 117 119 128 124 124 128 126 125 130 134 134 -193 137 135 527 -193 137 137 133 131 129 -193 -177 -193 974 975 975 976 980 -193 -193 0 -193 -209 -193 -193 -193 -193 -209 -193 -193 -193 0 -193 -193 -209 -193 -193 497 495 496 -193 -193 -193 -193 -209 -209 0 0 0 0 0
    0 0 0 0 0 0 0 0 0 0 0 0 0 0 0 0 0 0 0 0 0 0 0 0 0 0 0 0 0 0 0 0 0 0 0 0 0 0 0 0 0 0 0 0 0 0 0 0 0 0 0 0 0 0 0 0 0 0 0 0 0 0 0 0 0 0 0 0 0 48 48 47 47 46 47 45 46 45 45 45 45 45 45 44 44 43 44 43 43 42 43 42 43 42 41 40 39 39 38 36 36 33 28 30 34 29 29 29 29 29 29 27 28 26 27 25 25 24 23 24 24 23 21 20 21 16 14 13 0 0 0 0 0 0 0 0 0 0 9 9 10 0 11 10 11 11 11 11 11 11 11 10 10 9 9 0 0 0 9 9 9 10 10 10 10 10 11 9 10 10 10 12 11 12 12 17 20 22 20 23 23 25 27 27 27 28 28 30 31 34 34 31 36 39 38 42 42 42 44 49 53 54 51 61 73 70 69 69 70 63 58 58 58 -193 -193 -193 547 67 -193 -193 70 70 69 69 -177 70 -193 -209 -193 -193 -209 76 82 78 83 83 85 84 85 87 93 -193 98 100 101 573 580 -193 -193 105 106 111 114 114 114 115 118 117 117 119 127 124 124 128 125 125 129 133 134 -177 138 135 -193 -193 137 138 133 132 129 -193 -177 -193 975 975 975 976 980 -193 -193 9 -209 -209 -209 -193 -209 -193 -193 -209 -193 -193 -193 -193 -193 -177 -193 -193 497 495 496 498 -193 -193 -193 -209 -209 0 0 0 0 0
    0 0 0 0 0 0 0 0 0 0 0 0 0 0 0 0 0 0 0 0 0 0 0 0 0 0 0 0 0 0 0 0 0 0 0 0 0 0 0 0 0 0 0 0 0 0 0 0 0 0 0 0 0 0 0 0 0 0 0 0 0 0 0 0 0 0 0 0 0 48 48 47 47 46 47 45 45 45 45 44 45 45 45 44 44 43 43 43 43 42 42 41 42 42 40 40 39 39 38 36 36 33 28 29 34 29 29 30 30 29 30 28 28 26 27 25 25 24 24 24 24 23 22 20 21 15 12 11 0 0 0 0 0 0 0 0 0 9 9 10 11 9 10 10 11 11 11 11 11 11 11 10 10 9 9 0 0 0 9 9 9 9 9 9 9 9 10 0 9 9 9 11 11 11 12 17 20 22 21 23 23 24 27 26 26 28 27 29 31 34 34 31 36 39 38 42 42 42 44 48 53 54 51 62 74 73 72 72 72 67 58 58 58 59 67 66 -193 67 68 72 70 71 70 69 -177 70 -193 -209 -193 -177 74 76 81 78 82 82 84 84 85 87 93 -193 98 100 100 -193 579 -193 -193 105 105 111 115 115 114 115 118 116 117 119 127 123 124 128 125 124 129 133 134 -177 137 -193 -193 -193 -209 -193 133 132 129 -193 -177 -193 976 976 976 976 980 -209 -193 10 -193 -209 -209 -193 -193 -177 -193 -209 -193 -193 -193 -209 -209 -177 -193 -193 498 496 496 498 -193 -193 -193 506 -209 0 0 0 0 0
    0 0 0 0 0 0 0 0 0 0 0 0 0 0 0 0 0 0 0 0 0 0 0 0 0 0 0 0 0 0 0 0 0 0 0 0 0 0 0 0 0 0 0 0 0 0 0 0 0 0 0 0 0 0 0 0 0 0 0 0 0 0 0 0 0 0 0 0 0 48 48 47 47 46 47 45 45 45 45 44 45 45 45 43 44 43 43 43 43 41 42 41 42 42 40 40 39 39 38 36 35 33 28 29 34 29 29 30 30 29 30 28 29 26 28 25 25 24 24 24 24 23 22 20 21 15 12 10 0 0 0 0 0 0 0 0 0 9 9 10 10 9 10 10 10 11 11 11 11 10 10 10 10 9 9 0 0 0 9 0 9 9 9 9 9 9 9 0 9 0 0 11 11 11 11 17 20 23 21 23 23 24 27 26 26 27 27 29 31 34 34 31 36 39 38 42 42 42 44 48 52 54 49 63 74 77 74 74 74 70 59 58 58 60 67 66 -193 68 68 73 70 71 70 69 -177 70 -209 -209 -177 -177 -193 75 79 77 80 80 81 82 -193 86 93 -193 98 100 100 -193 579 -177 -193 104 105 111 116 116 115 116 119 117 117 119 127 124 124 127 125 124 128 133 133 -177 137 -193 -193 -193 -209 -193 133 132 129 -193 -193 -193 976 976 976 976 979 -209 -209 11 12 -209 -209 -193 -193 -177 -193 -209 -177 -193 -193 -209 -209 -193 -193 -193 498 496 496 498 499 -193 -193 506 -193 0 0 0 0 0
    0 0 0 0 0 0 0 0 0 0 0 0 0 0 0 0 0 0 0 0 0 0 0 0 0 0 0 0 0 0 0 0 0 0 0 0 0 0 0 0 0 0 0 0 0 0 0 0 0 0 0 0 0 0 0 0 0 0 0 0 0 0 0 0 0 0 0 0 0 47 48 47 46 46 47 45 45 45 45 43 45 44 44 43 43 42 43 42 42 41 42 41 42 42 40 40 39 39 38 36 35 33 28 29 34 29 29 30 30 29 30 29 29 26 28 26 25 24 24 24 24 23 22 20 20 16 14 11 0 0 0 0 0 0 0 0 0 10 10 10 11 10 9 10 10 11 11 11 11 10 10 10 10 9 0 0 0 0 0 0 0 0 9 9 9 9 9 0 9 0 0 11 10 11 11 17 22 23 21 23 23 25 27 27 27 27 27 29 31 34 34 31 36 39 38 42 42 42 44 47 52 54 -193 63 75 80 75 75 75 72 60 59 59 60 67 66 -193 68 67 73 70 71 70 69 -177 70 -193 -209 -177 -177 -193 74 78 76 78 78 78 80 -193 86 92 -193 98 100 99 -193 579 -177 -193 103 103 109 116 115 114 115 118 117 118 119 127 124 124 127 124 124 127 132 132 -193 136 133 -177 -193 -193 -193 133 132 130 -193 -193 -193 977 977 977 976 979 -193 -193 12 13 -209 -209 -193 -193 -177 -193 -193 -177 -193 -193 -193 -209 -209 -193 -193 499 497 497 498 499 502 499 506 -193 0 0 0 0 0
    0 0 0 0 0 0 0 0 0 0 0 0 0 0 0 0 0 0 0 0 0 0 0 0 0 0 0 0 0 0 0 0 0 0 0 0 0 0 0 0 0 0 0 0 0 0 0 0 0 0 0 0 0 0 0 0 0 0 0 0 0 0 0 0 0 0 0 0 0 47 48 47 46 46 47 45 44 44 45 43 44 44 44 43 43 42 42 42 42 41 41 41 41 42 40 40 39 39 39 36 36 33 29 29 34 30 29 31 30 29 29 29 29 27 29 27 26 24 24 24 24 23 22 20 21 16 15 12 9 0 9 0 0 0 9 10 10 11 12 10 11 11 9 9 10 11 11 11 10 10 10 10 10 9 0 0 0 0 0 0 0 0 9 9 9 9 9 0 9 0 0 11 10 11 11 17 23 24 22 24 23 25 27 27 27 27 27 29 31 33 34 31 37 39 39 42 43 43 44 47 52 54 -193 66 76 84 77 76 76 74 60 60 60 61 67 -193 -193 69 67 73 71 71 -193 -193 -177 -177 -193 -209 -177 -177 -209 -193 78 76 77 78 -193 79 -193 86 92 -193 98 101 100 -193 579 -177 -193 103 99 108 114 114 112 115 118 118 118 119 129 124 124 127 124 124 126 131 131 -193 134 132 -177 -193 -193 -193 132 132 130 131 -193 979 978 977 977 975 979 -209 -193 13 14 -209 -209 -193 -209 -209 -193 -193 319 -193 0 0 -209 -209 -193 500 500 498 497 499 -193 -193 -193 505 -193 0 0 0 0 0
    0 0 0 0 0 0 0 0 0 0 0 0 0 0 0 0 0 0 0 0 0 0 0 0 0 0 0 0 0 0 0 0 0 0 0 0 0 0 0 0 0 0 0 0 0 0 0 0 0 0 0 0 0 0 0 0 0 0 0 0 0 0 0 0 0 0 0 0 0 47 48 47 46 46 46 45 44 44 44 43 44 44 44 43 43 42 42 42 43 40 41 40 41 41 40 39 39 39 38 36 35 33 30 30 34 29 29 30 30 29 29 30 29 28 30 28 27 25 25 25 24 23 22 21 21 17 16 13 11 10 10 9 9 10 10 11 11 12 13 11 12 11 9 9 10 11 10 11 10 10 10 10 10 9 0 0 0 0 0 0 0 0 0 0 9 9 9 0 9 9 0 11 10 11 11 16 23 24 22 24 23 24 27 26 26 26 26 28 30 33 34 31 37 39 39 42 43 43 44 -177 -177 53 -209 69 77 86 79 77 77 75 61 60 60 61 67 -193 -193 69 68 74 71 72 -193 -193 -177 -177 -193 -209 -177 -177 -209 -193 -193 76 77 77 -193 78 -193 85 91 -193 98 101 100 -193 579 815 819 103 98 107 114 115 112 115 118 119 119 120 130 125 125 127 125 124 126 131 130 -193 133 131 -177 -193 -193 -193 132 132 130 132 -209 981 979 977 977 976 980 -209 105 13 14 -209 -209 -193 -177 -193 -193 -193 -193 -193 0 -193 -193 -193 163 -193 501 500 498 499 -193 -193 -209 -193 -193 0 0 0 0 0
    0 0 0 0 0 0 0 0 0 0 0 0 0 0 0 0 0 0 0 0 0 0 0 0 0 0 0 0 0 0 0 0 0 0 0 0 0 0 0 0 0 0 0 0 0 0 0 0 0 0 0 0 0 0 0 0 0 0 0 0 0 0 0 0 0 0 0 0 0 47 48 47 46 46 46 45 44 44 44 43 44 44 44 43 43 42 43 42 43 41 41 41 41 41 39 39 38 38 38 35 35 33 30 30 34 29 29 30 29 28 29 30 29 28 31 28 27 26 26 26 24 24 23 21 21 18 18 16 14 12 11 10 10 11 11 12 12 12 12 12 12 11 9 9 10 11 10 11 10 10 10 10 10 9 0 0 0 0 0 0 0 0 0 0 0 9 9 0 9 0 0 11 10 11 11 17 23 25 22 24 23 24 27 26 26 26 26 28 30 33 34 31 37 39 39 42 43 43 44 -177 -177 53 -209 70 78 88 82 78 78 76 61 60 60 61 67 -177 -177 69 67 73 71 71 -193 -193 -193 -193 -193 -193 -177 -177 -193 -193 78 76 77 77 -193 77 78 85 91 -193 98 101 101 -177 -177 815 819 -193 99 108 115 116 113 115 118 120 120 120 130 125 125 127 125 124 125 130 129 129 132 130 -193 131 -193 -193 132 132 131 -193 -193 982 979 978 978 976 980 -209 105 13 14 -209 -209 -193 -177 -209 -209 -209 -193 -193 -193 -193 -193 163 163 -193 -193 -193 -193 500 -193 -193 -193 -193 175 0 0 0 0 0
    0 0 0 0 0 0 0 0 0 0 0 0 0 0 0 0 0 0 0 0 0 0 0 0 0 0 0 0 0 0 0 0 0 0 0 0 0 0 0 0 0 0 0 0 0 0 0 0 0 0 0 0 0 0 0 0 0 0 0 0 0 0 0 0 0 0 0 0 0 47 48 47 46 46 46 45 43 43 44 42 44 43 43 43 43 43 43 43 43 41 42 41 40 40 39 38 38 38 37 35 34 33 30 30 33 28 29 30 28 28 28 30 29 28 31 28 28 27 26 26 24 24 23 22 21 19 18 17 16 14 13 11 11 13 12 13 12 12 12 12 13 12 10 10 10 11 10 10 9 9 10 10 10 9 0 0 0 0 0 0 0 0 0 0 9 9 9 9 9 9 9 11 11 12 12 17 23 25 22 24 22 24 26 26 26 26 26 28 30 33 34 31 37 40 39 42 43 43 44 -177 -177 53 -209 69 78 89 84 -193 78 75 61 60 61 61 67 -177 -193 69 67 73 71 71 -193 -193 -193 -193 -193 -193 -177 -177 -193 74 78 77 77 77 -193 77 77 84 90 -193 98 101 101 -177 -177 815 819 -193 98 107 114 115 111 113 118 121 121 121 131 125 126 127 126 124 125 130 128 128 131 129 130 130 -193 -193 132 132 131 -177 -177 983 980 978 978 975 980 -209 105 12 13 -209 -209 -193 -177 -209 -209 -209 -193 -193 -193 -193 162 163 163 162 -193 166 167 -193 -193 -209 169 -209 174 0 0 0 0 0
    0 0 0 0 0 0 0 0 0 0 0 0 0 0 0 0 0 0 0 0 0 0 0 0 0 0 0 0 0 0 0 0 0 0 0 0 0 0 0 0 0 0 0 0 0 0 0 0 0 0 0 0 0 0 0 0 0 0 0 0 0 0 0 0 0 0 0 0 0 47 48 47 46 46 46 45 43 43 43 42 43 43 43 42 43 43 43 42 43 41 41 40 39 39 37 37 36 37 36 34 34 32 30 30 32 28 28 29 28 27 27 29 28 28 30 28 28 27 26 26 24 24 23 22 21 19 19 19 18 16 15 13 12 15 13 14 13 13 13 13 13 13 10 11 11 12 11 10 10 9 10 11 11 10 0 0 0 0 0 0 0 0 0 0 9 9 9 9 9 9 9 11 11 11 12 18 24 26 23 24 22 23 26 25 25 25 25 27 30 33 34 31 37 40 -193 42 43 43 44 -177 -177 53 -209 67 78 89 -209 -209 77 74 61 60 61 61 67 -177 -193 69 67 73 71 71 -193 -193 71 -193 -193 -193 -209 -177 -193 75 78 78 77 77 -193 76 77 84 89 -193 97 101 101 -177 -177 816 820 -193 97 107 116 116 113 114 119 122 122 122 131 126 126 127 127 125 125 130 127 127 130 128 130 130 -193 -193 -193 132 132 -177 -177 983 980 978 978 975 980 -209 105 11 12 -209 -209 -193 -177 -209 184 -209 -193 -193 -193 -193 162 163 163 162 -193 166 167 -193 168 -193 -193 -209 175 0 0 0 0 0
    0 0 0 0 0 0 0 0 0 0 0 0 0 0 0 0 0 0 0 0 0 0 0 0 0 0 0 0 0 0 0 0 0 0 0 0 0 0 0 0 0 0 0 0 0 0 0 0 0 0 0 0 0 0 0 0 0 0 0 0 0 0 0 0 0 0 0 0 0 47 48 47 46 45 45 45 43 42 43 42 43 43 43 42 42 43 43 42 43 40 40 40 38 39 36 36 36 36 35 33 33 32 30 30 31 27 28 28 27 26 27 29 28 28 30 28 28 26 26 26 23 24 22 22 21 19 20 19 18 18 16 15 13 16 14 14 13 13 13 12 13 14 10 11 11 12 11 11 10 9 9 10 11 10 0 0 0 9 9 9 0 0 9 9 9 9 9 9 0 9 9 11 11 11 12 18 24 26 23 24 22 23 26 25 25 25 25 27 30 33 34 32 37 40 -193 42 43 43 44 -177 -177 53 -209 64 77 89 -209 -193 75 73 61 60 61 62 67 -177 -177 69 67 73 70 71 -193 -193 70 -193 -193 -193 -193 -193 -193 -193 79 78 77 -193 -193 76 76 84 89 -193 97 100 102 -177 -177 816 820 -193 98 107 117 116 114 115 119 122 122 122 131 126 126 127 128 125 125 130 127 127 130 128 130 130 -193 -193 -193 133 133 -193 -193 983 980 978 978 975 980 -209 104 11 12 -209 -193 -193 -177 -209 183 -209 -193 -177 -193 163 162 163 163 162 -193 167 167 167 169 -193 170 -209 176 0 0 0 0 0
    0 0 0 0 0 0 0 0 0 0 0 0 0 0 0 0 0 0 0 0 0 0 0 0 0 0 0 0 0 0 0 0 0 0 0 0 0 0 0 0 0 0 0 0 0 0 0 0 0 0 0 0 0 0 0 0 0 0 0 0 0 0 0 0 0 0 0 0 0 47 47 47 46 45 45 44 42 42 43 42 43 43 43 42 42 43 43 42 42 39 -193 39 38 38 36 35 35 35 34 32 32 31 30 30 30 27 27 28 27 26 26 29 28 28 30 28 28 26 26 26 23 23 21 21 20 18 20 19 18 18 16 16 13 16 15 14 12 12 12 12 12 13 10 10 12 13 11 11 10 10 9 10 11 9 9 0 9 9 9 9 9 9 9 9 10 9 9 9 9 9 9 11 11 11 12 18 25 26 23 24 22 23 25 25 25 25 25 27 30 33 34 32 37 40 -193 42 43 43 44 -177 -177 52 -209 61 76 89 -209 -209 -193 72 60 60 61 62 67 -177 -177 69 67 73 70 71 -193 -193 70 157 -193 -193 -193 -193 -193 -193 79 79 77 77 -193 76 76 84 90 -193 97 100 101 -177 -177 817 820 105 98 107 116 116 115 115 118 121 122 122 131 126 126 126 129 126 125 130 127 127 130 129 131 130 -193 -193 -193 133 133 -193 -193 983 981 978 978 976 980 -209 -193 11 12 -209 -193 -209 -177 -209 184 -209 -177 -177 -193 163 162 163 163 162 163 167 167 167 169 170 171 171 177 0 0 0 0 0
    0 0 0 0 0 0 0 0 0 0 0 0 0 0 0 0 0 0 0 0 0 0 0 0 0 0 0 0 0 0 0 0 0 0 0 0 0 0 0 0 0 0 0 0 0 0 0 0 0 0 0 0 0 0 0 0 0 0 0 0 0 0 0 0 0 0 0 0 0 47 47 47 46 45 45 44 42 41 43 42 43 43 43 42 42 43 43 42 42 39 39 38 38 37 35 35 34 35 34 31 32 31 30 30 30 27 27 27 26 26 26 29 27 28 30 28 28 27 26 26 22 23 21 21 20 18 20 19 19 18 16 16 14 16 15 14 12 11 12 11 11 11 9 10 11 12 11 11 10 10 10 11 11 10 10 10 10 10 10 11 10 10 10 10 11 10 10 10 9 9 9 11 11 11 12 19 25 26 23 24 22 23 25 25 25 -193 25 27 29 33 34 31 37 40 39 42 43 43 44 -177 -177 52 39 -193 76 -209 -209 -209 63 71 60 60 61 62 67 -177 -177 69 67 72 70 71 -193 -193 69 157 -193 -193 -193 -193 -193 -193 79 80 77 78 76 76 76 84 90 100 96 99 101 572 579 817 821 105 98 107 117 116 116 115 118 122 122 122 132 126 126 126 129 126 126 130 127 127 130 130 131 130 -193 -193 -193 134 134 -209 -209 983 981 978 979 976 981 -209 -193 10 12 -209 -193 -193 -177 -209 187 -209 -177 -177 -193 163 162 163 163 162 163 -193 167 168 169 170 172 172 179 0 0 0 0 0
    0 0 0 0 0 0 0 0 0 0 0 0 0 0 0 0 0 0 0 0 0 0 0 0 0 0 0 0 0 0 0 0 0 0 0 0 0 0 0 0 0 0 0 0 0 0 0 0 0 0 0 0 0 0 0 0 0 0 0 0 0 0 0 0 0 0 0 0 0 47 47 47 46 45 45 44 42 41 43 42 43 43 43 42 42 43 44 42 42 40 -193 39 38 38 35 34 34 34 34 31 32 30 30 30 29 27 27 27 26 25 26 29 27 28 30 28 28 27 27 27 23 -193 21 21 20 18 20 19 18 18 15 16 14 16 15 13 11 11 11 11 11 11 9 10 11 12 12 11 10 10 10 11 11 11 11 11 11 11 11 12 11 11 10 10 11 10 10 10 9 10 10 12 11 11 12 19 25 26 22 24 22 22 24 24 24 -193 -193 27 29 33 34 31 37 40 39 42 43 43 44 -177 -177 51 39 -193 -193 -209 46 -177 58 70 60 60 61 62 67 -177 -177 69 67 72 71 71 -193 -193 69 158 -193 -193 -193 -193 -193 76 80 80 78 79 78 78 77 86 90 100 96 99 101 -193 579 818 821 105 99 108 116 116 116 116 118 122 122 122 132 126 126 127 130 127 126 131 128 128 130 131 132 130 -193 -193 -193 134 -193 -193 -193 -193 982 979 979 976 981 -209 -209 10 12 -209 -193 130 -193 -209 196 199 -209 158 -193 164 -193 163 163 162 163 167 167 168 169 170 173 173 180 0 0 0 0 0
    0 0 0 0 0 0 0 0 0 0 0 0 0 0 0 0 0 0 0 0 0 0 0 0 0 0 0 0 0 0 0 0 0 0 0 0 0 0 0 0 0 0 0 0 0 0 0 0 0 0 0 0 0 0 0 0 0 0 0 0 0 0 0 0 0 0 0 0 0 47 47 47 46 45 44 44 42 41 42 42 43 43 42 42 42 43 44 42 43 40 40 39 39 38 36 34 34 35 34 31 31 30 30 30 29 26 26 26 26 25 25 29 27 28 30 28 28 27 27 27 22 -193 21 21 20 18 20 19 17 17 14 16 13 15 15 12 10 10 11 11 10 10 10 11 12 13 12 11 11 11 10 11 11 11 11 11 12 12 12 12 12 12 11 10 11 10 10 10 9 10 10 12 11 11 12 19 24 25 22 23 21 22 24 24 24 -193 -209 27 29 33 34 31 37 40 39 42 43 43 44 45 50 51 39 -193 -209 -209 51 -193 59 69 60 60 61 62 67 -177 -177 69 67 72 71 71 -193 -193 70 159 -193 -193 156 -193 -193 76 80 81 79 82 81 81 82 88 92 100 97 98 101 -193 -177 819 -193 106 101 108 116 117 116 116 118 122 122 122 132 126 126 127 131 127 127 131 128 128 130 131 132 131 -193 -193 -209 -193 -193 -193 -193 -193 -193 979 979 976 981 -209 -177 -193 12 -209 -193 131 -193 -209 -193 201 -209 -209 -193 164 -193 163 163 163 163 167 168 168 170 171 175 175 181 0 0 0 0 0
    0 0 0 0 0 0 0 0 0 0 0 0 0 0 0 0 0 0 0 0 0 0 0 0 0 0 0 0 0 0 0 0 0 0 0 0 0 0 0 0 0 0 0 0 0 0 0 0 0 0 0 0 0 0 0 0 0 0 0 0 0 0 0 0 0 0 0 0 0 46 47 47 46 45 44 45 42 41 42 42 43 43 42 42 42 43 44 42 43 40 40 39 39 38 36 34 34 35 33 30 31 29 29 29 28 26 26 26 26 25 25 29 27 28 30 28 28 27 26 27 22 22 20 21 19 17 19 18 16 16 14 16 13 14 14 12 10 11 11 11 10 11 11 11 12 13 12 11 11 12 11 11 11 11 11 12 12 13 12 13 12 12 11 11 11 10 10 10 9 10 10 11 11 11 12 18 24 24 21 23 21 22 24 24 24 -193 -193 27 29 32 34 31 37 40 39 42 43 43 44 45 50 51 38 -193 -209 -209 56 -193 60 69 61 61 62 62 67 306 305 70 68 72 72 72 -193 621 70 159 -193 -193 156 -193 -193 76 80 82 80 86 85 86 -193 90 93 100 98 98 101 103 -177 -177 -193 106 102 107 116 117 117 117 118 122 122 122 132 127 127 127 131 128 127 132 129 129 131 132 133 132 -193 -209 -209 -193 193 137 -209 -177 -193 979 979 977 981 -209 -177 -193 11 -209 -193 133 -193 -209 -209 203 -193 -209 -193 -193 -193 164 164 164 164 -193 169 169 171 171 176 176 182 0 0 0 0 0
    0 0 0 0 0 0 0 0 0 0 0 0 0 0 0 0 0 0 0 0 0 0 0 0 0 0 0 0 0 0 0 0 0 0 0 0 0 0 0 0 0 0 0 0 0 0 0 0 0 0 0 0 0 0 0 0 0 0 0 0 0 0 0 0 0 0 0 0 0 47 47 47 46 45 45 45 42 40 42 41 43 42 42 42 42 43 44 42 42 40 39 39 38 37 35 33 33 34 33 30 31 29 29 29 29 26 26 26 26 25 25 29 27 28 29 28 28 27 26 27 22 22 20 20 19 17 19 18 16 16 14 16 14 15 15 13 11 12 12 11 11 11 12 12 13 13 12 12 12 12 12 12 12 12 12 12 12 13 13 14 12 13 11 11 11 11 10 10 9 10 10 11 11 11 12 17 23 23 21 23 21 22 24 24 24 -193 25 27 29 32 34 31 37 40 39 42 43 43 44 45 50 50 38 -193 -193 -209 57 -193 60 68 61 61 62 62 67 -177 -177 70 68 73 72 72 -193 621 70 160 -193 -193 -193 -193 -193 -193 80 83 -193 88 88 89 -193 91 94 101 98 98 101 104 580 -177 -193 105 101 107 116 116 116 117 118 122 123 123 132 128 128 -193 -193 129 128 132 131 130 132 -193 134 133 -209 -209 -193 -193 -193 138 -209 -177 -193 980 980 977 982 -209 -177 -193 12 -193 -193 -193 -209 -193 -209 204 -193 -193 -177 -193 0 164 -193 -193 -209 -193 170 170 171 172 176 -177 181 0 0 0 0 0
    0 0 0 0 0 0 0 0 0 0 0 0 0 0 0 0 0 0 0 0 0 0 0 0 0 0 0 0 0 0 0 0 0 0 0 0 0 0 0 0 0 0 0 0 0 0 0 0 0 0 0 0 0 0 0 0 0 0 0 0 0 0 0 0 0 0 0 0 0 47 47 47 47 46 45 46 42 41 42 41 43 42 42 42 42 43 43 42 42 40 39 38 38 36 35 33 33 34 32 30 31 29 30 29 29 26 26 26 26 25 25 28 27 27 29 27 28 26 26 26 22 22 20 21 19 17 19 18 16 16 14 17 14 16 16 14 12 13 13 12 12 11 13 12 13 13 12 13 13 13 12 12 12 12 13 13 12 13 12 14 12 13 12 11 11 11 10 10 9 10 10 11 11 10 11 15 21 22 20 22 20 22 24 24 24 25 25 27 29 32 34 31 37 40 39 42 43 43 44 45 49 49 38 -193 53 -209 58 58 60 68 62 62 63 63 66 -177 -177 70 69 73 73 72 73 621 70 160 -193 -193 -193 -193 77 -193 80 83 -193 -193 -193 91 -193 93 95 101 99 98 100 104 581 -193 105 105 101 106 116 116 117 118 118 124 123 124 132 129 130 130 -193 129 129 133 132 132 132 -193 -193 -193 -193 138 -193 -193 -193 138 -193 -177 -209 980 981 -193 -193 -193 -193 -193 12 11 -193 -193 -209 -193 -209 -193 -193 -193 -177 -193 0 -209 -209 -193 -193 -193 171 170 172 173 177 -193 181 0 0 0 0 0
    0 0 0 0 0 0 0 0 0 0 0 0 0 0 0 0 0 0 0 0 0 0 0 0 0 0 0 0 0 0 0 0 0 0 0 0 0 0 0 0 0 0 0 0 0 0 0 0 0 0 0 0 0 0 0 0 0 0 0 0 0 0 0 0 0 0 0 0 0 47 48 47 47 46 46 47 42 40 42 41 42 42 42 42 42 43 44 42 43 41 40 40 39 37 37 34 34 34 33 30 31 29 29 29 28 26 26 26 26 25 25 28 26 27 28 27 27 25 25 26 22 22 21 21 20 18 20 18 16 16 14 17 14 16 16 14 12 13 14 12 12 12 14 13 13 14 13 13 14 14 12 12 12 12 13 12 12 13 12 14 12 13 12 11 11 11 10 10 9 9 10 10 10 10 11 14 20 22 19 22 20 22 24 24 24 25 25 27 29 31 33 31 36 39 39 42 43 43 44 46 49 48 40 44 52 62 59 59 61 68 62 62 63 63 66 -177 -177 -193 68 72 72 72 73 -193 70 160 -193 -193 -193 76 78 -193 81 83 -177 -209 -193 92 93 94 95 100 99 98 100 104 581 104 105 105 103 106 114 116 117 117 118 126 124 125 133 131 132 131 134 130 130 133 133 133 133 -193 -193 -209 139 139 -193 -193 -209 -193 -193 -177 -209 -193 -193 -193 702 -193 -193 -193 13 12 -193 -193 -193 -193 -209 -193 -193 -193 -193 -193 0 -193 -209 -193 -209 -209 -193 170 172 173 178 -193 -193 0 0 0 0 0
    0 0 0 0 0 0 0 0 0 0 0 0 0 0 0 0 0 0 0 0 0 0 0 0 0 0 0 0 0 0 0 0 0 0 0 0 0 0 0 0 0 0 0 0 0 0 0 0 0 0 0 0 0 0 0 0 0 0 0 0 0 0 0 0 0 0 0 0 0 47 48 47 47 46 45 47 41 40 -193 41 42 42 42 42 41 43 44 43 44 42 41 41 41 40 39 37 36 36 34 30 31 29 29 29 28 26 26 26 26 25 25 28 26 27 28 27 27 25 25 25 22 23 21 22 21 19 20 19 17 16 14 17 15 16 17 15 13 14 15 14 13 14 16 13 14 14 14 14 14 15 13 13 13 13 14 13 12 14 12 14 12 12 12 11 11 11 10 9 9 9 10 10 11 10 11 13 19 21 19 22 20 22 24 24 24 25 26 27 29 31 33 31 36 39 38 41 43 43 44 46 47 47 42 46 51 63 60 61 62 69 63 63 64 64 -193 -177 -177 -193 67 72 72 72 73 -193 70 160 -193 -193 76 76 78 -193 82 84 -177 -209 -209 92 93 94 94 100 99 98 100 104 580 104 105 105 103 106 110 113 115 115 118 129 125 126 133 133 133 133 135 131 131 134 134 134 134 -193 137 -193 139 140 140 -193 -209 -193 -193 320 -193 -193 -193 -193 -193 -193 -193 -209 12 12 -193 -193 133 -193 -193 -209 -177 -177 -193 -193 11 -193 -193 -209 -209 -209 -193 -193 172 173 178 -193 -193 0 0 0 0 0
    0 0 0 0 0 0 0 0 0 0 0 0 0 0 0 0 0 0 0 0 0 0 0 0 0 0 0 0 0 0 0 0 0 0 0 0 0 0 0 0 0 0 0 0 0 0 0 0 0 0 0 0 0 0 0 0 0 0 0 0 0 0 0 0 0 0 0 0 0 47 48 47 47 45 45 48 41 40 -209 41 42 42 42 42 41 43 44 43 45 43 43 43 43 42 41 38 38 38 36 31 31 29 29 29 28 26 26 26 26 25 25 27 26 27 27 26 26 25 26 25 23 23 22 22 21 19 20 20 17 16 15 17 15 17 18 17 15 16 18 16 15 17 17 14 15 16 16 15 15 16 14 13 14 13 14 13 13 14 12 14 12 13 12 11 11 11 10 9 9 9 10 10 11 10 11 13 17 20 18 23 21 22 24 24 24 26 27 27 29 31 33 31 36 39 39 41 43 44 45 47 48 49 44 49 51 57 59 60 60 68 63 63 64 64 -193 -177 -177 -193 67 72 -177 72 73 71 70 160 158 -193 76 77 79 -193 82 84 -177 -209 -209 91 91 93 92 100 99 98 101 104 105 105 105 105 104 105 106 107 108 108 118 132 125 126 133 134 134 134 135 131 131 134 135 135 135 138 138 -193 140 141 141 -193 -209 -193 -193 321 -193 322 -193 -193 -193 -193 -193 -209 12 12 9 -193 133 133 134 -193 -177 143 145 -209 12 -193 -193 -209 -209 -209 -193 -193 172 173 177 -193 -193 0 0 0 0 0
    0 0 0 0 0 0 0 0 0 0 0 0 0 0 0 0 0 0 0 0 0 0 0 0 0 0 0 0 0 0 0 0 0 0 0 0 0 0 0 0 0 0 0 0 0 0 0 0 0 0 0 0 0 0 0 0 0 0 0 0 0 0 0 0 0 0 0 0 0 47 48 47 47 45 46 48 41 41 -209 41 42 42 42 42 41 43 44 43 45 44 44 44 44 44 42 39 39 38 36 31 31 29 29 28 28 26 26 27 26 26 26 27 26 26 27 26 26 25 25 25 23 23 22 22 22 20 21 20 18 16 15 17 17 18 19 18 16 17 19 17 16 18 18 15 16 16 16 14 16 16 14 13 14 13 14 13 13 14 12 13 12 12 12 11 11 11 10 9 9 9 9 10 11 10 11 12 15 19 18 23 22 23 25 25 25 27 28 28 29 32 33 32 36 38 39 -193 44 44 45 47 48 49 45 49 50 56 58 59 60 68 63 64 65 65 -193 -177 -193 69 66 71 71 71 73 71 70 161 -193 -193 77 -193 -193 -209 83 84 149 -209 -209 90 89 91 91 100 99 99 103 105 105 105 105 105 105 105 103 104 -193 -193 117 131 125 125 133 -193 134 134 135 131 131 134 136 136 136 139 138 -193 141 142 142 138 -193 -193 -193 321 -193 322 -193 -193 -193 -193 -209 -209 11 12 10 -193 133 133 134 136 -177 142 145 -209 11 -193 -193 -209 -209 -209 170 170 172 173 177 -193 181 0 0 0 0 0
    0 0 0 0 0 0 0 0 0 0 0 0 0 0 0 0 0 0 0 0 0 0 0 0 0 0 0 0 0 0 0 0 0 0 0 0 0 0 0 0 0 0 0 0 0 0 0 0 0 0 0 0 0 0 0 0 0 0 0 0 0 0 0 0 0 0 0 0 0 47 48 47 47 45 46 48 41 41 -209 41 41 42 42 42 41 44 44 44 45 44 44 45 45 44 42 40 40 39 36 30 30 29 28 28 29 27 27 27 27 26 26 27 26 26 27 26 26 25 25 25 24 24 23 23 22 21 22 22 20 17 18 20 20 21 20 20 19 20 21 18 18 19 19 16 17 17 16 14 16 16 13 13 14 12 14 12 12 13 12 13 12 12 13 11 11 11 10 9 9 9 9 10 10 10 10 11 14 18 19 25 23 24 26 26 27 28 29 28 30 32 33 32 35 38 39 -177 43 44 45 47 48 48 45 49 49 55 58 58 60 68 64 65 65 65 65 -177 70 68 66 71 71 71 72 71 70 161 -193 -193 77 -193 -193 -209 83 84 149 -209 -209 90 90 92 91 101 100 100 103 105 105 105 105 105 104 104 101 101 101 102 115 128 124 124 132 -193 134 133 135 131 131 134 136 136 -193 140 139 -193 141 143 143 139 139 -193 -193 321 -193 322 -193 -193 -193 -193 -209 -193 12 12 11 11 133 133 134 136 -177 -177 -177 -209 -193 -193 -209 -209 -209 -209 171 171 173 174 177 -193 181 0 0 0 0 0
    0 0 0 0 0 0 0 0 0 0 0 0 0 0 0 0 0 0 0 0 0 0 0 0 0 0 0 0 0 0 0 0 0 0 0 0 0 0 0 0 0 0 0 0 0 0 0 0 0 0 0 0 0 0 0 0 0 0 0 0 0 0 0 0 0 0 0 0 0 47 49 47 47 46 46 48 42 41 -209 41 42 42 42 42 41 44 44 43 45 45 44 45 45 45 43 42 41 40 37 32 32 30 29 28 29 27 27 27 27 26 26 27 26 25 26 26 25 25 25 25 25 25 24 24 24 23 24 24 22 20 21 23 23 23 22 22 21 21 22 19 19 20 19 17 18 17 17 15 17 16 14 14 14 13 14 13 12 13 12 13 12 12 13 11 11 11 10 9 9 9 9 9 10 10 10 11 13 17 20 29 25 25 27 27 28 29 30 29 30 33 33 33 36 38 39 -193 43 44 45 47 48 48 45 48 48 53 57 57 59 67 63 65 66 66 65 -177 69 68 65 70 70 70 72 71 70 -193 76 77 77 78 -193 -193 83 84 -193 -209 87 89 88 90 88 100 100 100 103 104 105 104 105 104 102 102 100 100 100 101 113 127 124 124 131 -193 133 133 135 131 131 134 137 137 137 140 -177 -193 142 144 144 139 139 -193 -209 322 325 322 323 -193 -193 -193 -209 -193 12 13 13 14 -193 133 135 137 -177 -177 -177 -177 -193 163 -193 -209 -209 -209 171 -193 173 175 177 -193 181 0 0 0 0 0
    0 0 0 0 0 0 0 0 0 0 0 0 0 0 0 0 0 0 0 0 0 0 0 0 0 0 0 0 0 0 0 0 0 0 0 0 0 0 0 0 0 0 0 0 0 0 0 0 0 0 0 0 0 0 0 0 0 0 0 0 0 0 0 0 0 0 0 0 0 47 49 48 48 46 46 49 -193 41 -209 41 42 42 42 42 41 44 44 43 45 45 45 46 46 45 44 43 43 41 39 34 33 31 30 29 30 27 27 27 27 26 26 26 25 25 25 25 25 24 25 26 26 27 26 25 25 25 25 25 23 21 23 23 26 25 24 23 23 23 23 21 20 20 19 17 18 17 18 15 17 17 14 14 15 12 14 13 13 13 13 13 12 12 14 12 11 11 10 9 0 0 9 9 9 10 10 11 13 16 21 30 26 26 28 28 28 29 30 30 29 33 34 34 36 39 40 42 44 44 45 47 48 48 45 48 47 51 55 55 57 65 62 64 65 66 65 68 69 68 65 70 69 70 71 70 70 72 76 76 77 78 80 80 83 84 -193 -193 85 87 86 87 87 99 99 99 102 103 104 104 104 104 103 103 101 101 101 102 111 126 124 124 130 -193 133 132 134 131 130 133 136 136 137 140 -177 -177 142 144 144 139 139 -209 -209 -177 -177 322 323 -193 -193 -193 -193 -193 12 13 14 16 -193 130 134 -209 -177 -177 -177 -177 158 163 165 -193 -193 -193 171 -193 173 175 177 175 180 0 0 0 0 0
    0 0 0 0 0 0 0 0 0 0 0 0 0 0 0 0 0 0 0 0 0 0 0 0 0 0 0 0 0 0 0 0 0 0 0 0 0 0 0 0 0 0 0 0 0 0 0 0 0 0 0 0 0 0 0 0 0 0 0 0 0 0 0 0 0 0 0 0 0 47 50 48 48 46 46 49 -193 -193 -193 41 42 42 42 42 42 44 45 44 46 45 45 46 46 45 45 44 43 42 40 36 34 32 31 29 31 27 26 27 27 26 26 26 25 24 25 25 25 24 25 26 27 27 26 26 26 25 25 25 23 21 23 23 25 25 24 24 24 24 24 22 21 21 19 18 19 18 18 15 17 17 13 14 15 12 14 13 13 13 13 13 13 12 14 12 11 11 10 9 0 9 9 9 10 10 11 12 16 18 21 29 26 26 27 28 28 28 30 30 29 34 34 34 37 40 41 42 44 45 46 47 48 48 45 48 47 50 53 53 56 63 61 63 64 66 65 68 69 68 66 70 69 70 70 70 70 73 76 77 77 79 81 81 83 85 -193 85 85 87 86 87 87 99 98 99 102 103 103 104 104 104 104 103 102 101 101 102 110 123 123 123 128 135 131 131 133 130 129 133 136 136 -209 140 -177 -177 142 144 144 139 140 -209 -209 322 325 322 322 -193 100 103 -193 106 13 14 14 -177 -177 -209 -193 -209 -209 -177 -177 159 159 163 165 166 -209 -193 171 -193 173 175 177 175 179 0 0 0 0 0
    0 0 0 0 0 0 0 0 0 0 0 0 0 0 0 0 0 0 0 0 0 0 0 0 0 0 0 0 0 0 0 0 0 0 0 0 0 0 0 0 0 0 0 0 0 0 0 0 0 0 0 0 0 0 0 0 0 0 0 0 0 0 0 0 0 0 0 0 0 47 50 47 48 46 46 49 -193 -193 -193 41 42 43 43 43 42 45 45 44 46 46 45 46 46 46 45 44 43 42 41 37 35 34 32 30 31 27 26 27 27 26 26 26 25 24 25 25 25 25 25 27 27 27 27 26 26 26 25 25 23 22 23 23 24 24 26 24 24 25 25 23 22 22 20 18 19 18 18 15 17 18 13 15 16 12 15 13 13 13 13 13 14 12 14 12 11 11 10 9 0 0 0 0 9 11 11 12 18 19 22 28 26 27 27 28 29 29 31 31 30 34 35 35 37 40 41 42 44 45 46 47 48 48 45 48 47 49 53 53 56 63 61 63 65 67 66 68 68 67 66 70 68 68 69 69 70 73 76 76 76 78 80 80 83 84 82 83 85 87 88 88 88 100 100 101 103 103 103 105 105 105 105 104 104 103 103 104 110 120 122 122 126 134 129 130 132 129 128 132 135 135 -193 139 -193 -177 141 143 144 139 140 -209 -209 -177 -177 321 322 -193 100 103 -193 -193 14 14 14 -177 -177 -193 -177 -209 -209 -177 -177 -177 159 163 164 166 -193 -209 171 -193 173 175 176 174 179 0 0 0 0 0
    0 0 0 0 0 0 0 0 0 0 0 0 0 0 0 0 0 0 0 0 0 0 0 0 0 0 0 0 0 0 0 0 0 0 0 0 0 0 0 0 0 0 0 0 0 0 0 0 0 0 0 0 0 0 0 0 0 0 0 0 0 0 0 0 0 0 0 0 0 47 50 47 48 46 46 50 -193 -193 -193 42 42 43 43 43 42 45 45 45 46 46 45 46 46 45 45 45 43 43 41 38 37 35 34 30 32 28 26 27 27 26 26 26 26 25 25 26 26 26 26 29 28 28 28 27 27 26 26 26 23 22 23 23 25 25 28 26 26 26 26 24 23 23 20 19 20 18 18 15 17 18 13 17 18 12 16 15 14 13 13 14 14 13 15 13 12 11 11 10 0 9 0 0 10 13 12 13 18 19 22 28 26 27 27 29 30 29 32 32 30 35 35 36 37 40 41 42 44 45 46 46 47 48 45 48 46 48 51 52 56 61 61 64 66 67 67 68 68 68 67 69 68 67 68 68 69 72 76 75 76 78 80 80 82 83 79 80 84 87 88 89 89 101 102 102 104 104 104 105 105 105 105 104 104 103 103 104 108 119 121 122 124 133 128 128 131 128 127 131 135 135 -193 139 -193 -177 141 143 144 139 141 140 -209 -177 -177 322 322 99 99 102 -193 15 14 14 -177 -177 -177 -193 -193 -193 -177 -177 -177 161 159 163 164 166 -177 -209 171 171 173 175 176 174 179 0 0 0 0 0
    0 0 0 0 0 0 0 0 0 0 0 0 0 0 0 0 0 0 0 0 0 0 0 0 0 0 0 0 0 0 0 0 0 0 0 0 0 0 0 0 0 0 0 0 0 0 0 0 0 0 0 0 0 0 0 0 0 0 0 0 0 0 0 0 0 0 0 0 0 47 49 47 48 46 46 50 42 42 -193 42 43 44 44 43 43 46 46 45 46 46 45 46 47 45 45 45 44 43 42 40 38 36 35 31 32 28 26 27 26 26 26 26 26 25 26 26 26 27 26 30 29 29 28 28 27 27 26 26 22 23 24 24 26 26 29 27 27 27 27 24 23 23 21 19 20 18 18 16 17 18 13 18 19 13 17 16 14 13 13 14 15 14 16 14 13 13 13 12 9 10 10 9 13 18 14 15 19 20 22 27 26 27 27 29 30 29 32 32 29 35 34 36 37 40 41 42 44 45 45 46 47 47 44 48 45 47 48 51 55 60 60 64 67 67 67 68 68 68 68 69 67 66 66 68 69 70 75 74 75 77 78 78 79 79 76 77 84 87 88 89 90 102 102 103 104 104 105 106 106 106 105 104 104 103 104 104 107 117 121 121 123 132 127 127 130 128 127 130 134 134 -193 138 -193 -177 140 142 143 139 141 141 -193 -193 -177 321 321 -193 -193 100 20 -177 -177 -177 -177 -177 -177 -177 -193 -193 161 159 162 162 160 164 165 166 -177 -193 172 172 173 176 177 174 179 0 0 0 0 0
    0 0 0 0 0 0 0 0 0 0 0 0 0 0 0 0 0 0 0 0 0 0 0 0 0 0 0 0 0 0 0 0 0 0 0 0 0 0 0 0 0 0 0 0 0 0 0 0 0 0 0 0 0 0 0 0 0 0 0 0 0 0 0 0 0 0 0 0 0 47 49 47 48 46 46 51 42 42 -193 42 44 44 44 44 43 46 47 45 46 46 45 46 47 46 45 45 44 44 42 41 39 37 36 32 33 28 26 26 26 26 27 26 26 25 26 26 27 27 26 30 28 29 28 28 27 27 26 26 23 23 25 24 26 26 30 27 28 28 27 25 24 24 22 20 20 18 18 16 17 18 14 19 20 15 18 16 15 13 14 15 15 14 17 15 14 14 16 14 11 11 11 10 14 21 15 16 20 20 22 26 25 27 26 28 29 29 31 32 29 35 34 36 38 40 41 42 43 44 44 44 45 45 43 46 43 43 45 48 57 61 61 66 67 68 68 68 68 68 69 69 67 65 66 68 67 65 72 69 72 74 74 71 73 72 72 77 85 90 91 92 93 102 103 103 104 104 105 106 106 106 106 104 104 104 104 104 107 116 120 121 122 132 126 127 130 127 127 130 134 133 133 137 -193 -177 -193 140 141 138 140 141 143 -193 -177 320 320 -193 -193 -193 18 -177 -177 -177 -177 -177 -177 -177 -193 -193 161 160 162 162 161 164 165 167 -177 170 172 172 173 176 177 175 180 0 0 0 0 0
    0 0 0 0 0 0 0 0 0 0 0 0 0 0 0 0 0 0 0 0 0 0 0 0 0 0 0 0 0 0 0 0 0 0 0 0 0 0 0 0 0 0 0 0 0 0 0 0 0 0 0 0 0 0 0 0 0 0 0 0 0 0 0 0 0 0 0 0 0 47 49 48 48 47 46 51 42 42 -193 43 44 45 45 44 44 47 47 45 46 46 45 46 47 46 46 45 45 44 43 42 40 38 37 34 34 28 26 26 26 26 27 27 26 25 26 26 27 27 26 31 29 29 28 28 27 27 27 27 23 23 24 24 26 26 31 28 29 29 28 26 25 24 23 20 20 19 19 17 18 20 16 21 22 19 20 18 15 13 14 15 16 15 17 17 15 15 19 17 12 12 13 11 15 21 16 16 20 20 21 25 25 27 26 28 29 29 31 32 29 34 33 36 38 40 41 42 43 44 44 44 44 44 43 46 43 44 45 50 57 60 61 65 67 67 68 68 68 67 69 69 67 65 66 68 66 64 68 67 69 73 73 67 68 71 73 81 86 92 93 93 94 102 103 103 103 103 104 105 105 105 105 102 104 104 104 104 107 116 120 121 122 131 126 127 129 127 127 129 133 133 132 137 136 -193 -193 139 140 137 139 141 143 -193 -193 -177 321 -193 -209 15 18 -177 -177 -177 -177 -177 -177 -177 -193 163 162 161 163 163 162 165 165 167 -177 170 173 173 174 177 177 176 180 0 0 0 0 0
    0 0 0 0 0 0 0 0 0 0 0 0 0 0 0 0 0 0 0 0 0 0 0 0 0 0 0 0 0 0 0 0 0 0 0 0 0 0 0 0 0 0 0 0 0 0 0 0 0 0 0 0 0 0 0 0 0 0 0 0 0 0 0 0 0 0 0 0 0 47 48 48 48 47 46 52 42 42 -193 44 44 45 45 45 44 47 48 45 46 46 46 46 47 46 46 45 45 45 44 43 41 39 38 35 34 28 26 26 26 26 27 27 26 26 26 26 27 27 26 31 29 29 29 28 28 27 27 27 23 23 24 23 25 25 30 28 29 29 28 27 26 25 23 20 20 19 19 19 19 21 19 23 24 22 20 18 14 13 13 15 15 15 17 18 15 17 22 21 14 13 14 11 17 22 16 17 21 20 21 24 24 27 26 28 28 29 30 32 30 34 32 37 38 40 41 43 43 44 44 44 44 44 44 47 43 45 46 52 57 58 59 63 66 67 67 68 68 66 69 69 67 65 66 68 66 63 69 69 70 73 74 72 71 73 73 78 84 89 90 90 91 100 102 102 102 102 103 104 104 104 105 101 103 103 105 105 108 116 120 121 121 131 126 127 128 127 127 129 133 133 130 136 136 135 136 138 140 137 140 -193 144 -193 19 -193 -193 -193 -193 14 17 -177 -177 -177 -177 -177 10 0 -193 -193 161 161 163 163 162 165 -193 -193 -193 171 173 173 174 177 177 177 180 0 0 0 0 0
    0 0 0 0 0 0 0 0 0 0 0 0 0 0 0 0 0 0 0 0 0 0 0 0 0 0 0 0 0 0 0 0 0 0 0 0 0 0 0 0 0 0 0 0 0 0 0 0 0 0 0 0 0 0 0 0 0 0 0 0 0 0 0 0 0 0 0 0 0 47 48 48 48 47 45 51 42 42 -193 44 44 45 45 45 44 47 48 46 47 46 46 46 47 46 46 45 45 45 44 43 41 40 39 36 34 28 27 26 26 26 27 27 26 26 27 27 27 27 27 31 29 29 28 29 28 28 27 27 24 24 25 23 25 25 32 29 30 30 29 28 27 26 24 21 21 19 19 19 19 21 19 23 24 22 21 18 15 13 13 15 16 15 18 18 18 20 25 26 24 15 17 11 20 22 16 16 20 21 21 24 24 27 26 28 28 28 30 31 29 32 30 35 38 40 40 43 43 44 44 44 45 45 45 49 44 48 49 53 58 58 59 63 66 66 67 68 68 67 69 70 68 65 68 68 66 64 70 69 70 74 74 73 72 73 74 76 83 90 90 89 91 99 102 101 102 102 103 104 105 105 105 103 104 104 106 107 109 116 119 120 121 130 125 126 127 126 126 128 133 132 129 135 135 135 135 138 139 137 140 143 145 -193 18 17 -193 13 17 14 16 -177 -177 -177 -177 11 10 0 -193 -193 161 161 164 163 163 -193 -193 -193 -193 171 173 173 174 177 177 177 181 0 0 0 0 0
    0 0 0 0 0 0 0 0 0 0 0 0 0 0 0 0 0 0 0 0 0 0 0 0 0 0 0 0 0 0 0 0 0 0 0 0 0 0 0 0 0 0 0 0 0 0 0 0 0 0 0 0 0 0 0 0 0 0 0 0 0 0 0 0 0 0 0 0 0 47 48 48 47 46 44 50 42 41 44 43 44 46 45 45 44 48 48 46 47 47 46 47 48 47 46 46 46 45 44 43 42 40 39 36 35 28 27 27 26 27 27 27 27 27 28 28 28 28 27 30 29 29 28 29 28 28 27 27 25 25 25 23 22 23 33 29 31 31 30 29 27 27 25 22 22 20 20 21 20 22 21 26 26 25 23 21 16 13 14 17 17 17 19 19 19 22 27 28 -193 16 18 17 23 23 17 17 20 21 21 24 24 27 26 28 28 29 30 31 29 31 30 33 37 39 40 43 43 44 44 44 45 45 45 49 45 51 51 54 58 58 59 63 65 65 65 67 67 65 68 69 67 64 68 69 66 63 70 71 72 74 74 73 72 73 75 76 84 92 93 91 93 100 103 102 102 103 103 104 105 105 105 103 104 104 105 107 109 115 117 118 120 127 124 125 126 125 126 128 132 131 128 134 135 135 135 137 138 137 140 142 144 -193 -193 -193 -193 -193 16 -177 -177 -177 -177 -177 -177 11 -193 -193 159 161 161 161 163 163 163 -193 -193 -193 -193 -193 174 174 175 177 177 178 181 0 0 0 0 0
    0 0 0 0 0 0 0 0 0 0 0 0 0 0 0 0 0 0 0 0 0 0 0 0 0 0 0 0 0 0 0 0 0 0 0 0 0 0 0 0 0 0 0 0 0 0 0 0 0 0 0 0 0 0 0 0 0 0 0 0 0 0 0 0 0 0 0 0 0 47 47 47 46 46 44 50 43 42 45 44 44 46 45 45 44 48 48 46 47 48 47 48 49 48 47 47 47 46 45 44 42 41 39 37 35 28 28 27 26 27 27 28 28 27 29 29 29 29 28 30 29 29 28 29 28 28 27 27 25 24 24 22 20 23 32 29 32 32 30 29 27 27 26 23 23 22 22 23 23 24 24 27 28 27 25 24 19 15 16 20 -193 21 22 23 23 25 29 35 28 21 -193 22 24 -193 18 17 20 22 22 24 25 27 26 28 28 29 29 30 29 30 29 31 37 39 39 43 43 44 44 44 45 45 45 49 45 51 52 54 58 58 59 62 64 63 64 65 66 63 66 67 64 61 66 65 63 60 65 68 69 71 72 71 72 74 76 77 85 91 93 91 94 99 103 102 103 104 103 104 104 105 105 103 104 104 105 107 108 115 117 118 120 125 124 125 125 126 127 129 133 132 129 133 135 135 135 136 137 137 140 141 142 -193 -193 -193 146 -193 -193 -193 -177 -177 -177 -177 -177 -193 157 158 158 160 160 160 163 163 163 166 -193 -193 -193 172 175 175 176 178 178 180 182 0 0 0 0 0
    0 0 0 0 0 0 0 0 0 0 0 0 0 0 0 0 0 0 0 0 0 0 0 0 0 0 0 0 0 0 0 0 0 0 0 0 0 0 0 0 0 0 0 0 0 0 0 0 0 0 0 0 0 0 0 0 0 0 0 0 0 0 0 0 0 0 0 0 0 46 46 46 46 45 44 50 44 43 46 44 44 46 45 45 44 48 48 46 47 48 47 48 49 48 47 47 48 46 45 44 43 41 40 37 35 29 29 28 27 28 28 29 29 28 30 31 31 30 29 31 30 30 29 30 29 28 28 27 25 24 23 21 21 23 30 28 31 31 30 29 28 28 27 25 25 23 24 25 25 26 26 27 28 28 26 26 22 20 20 -209 -193 -209 27 29 29 32 35 39 38 34 -209 -193 26 -193 20 19 21 23 22 24 25 28 27 28 28 28 29 29 29 29 28 30 36 38 39 42 43 44 44 44 45 45 46 49 45 51 52 54 58 58 58 60 62 62 62 63 64 61 65 66 63 61 66 65 64 60 64 67 69 72 73 72 73 75 79 81 85 89 91 89 92 96 101 100 101 104 103 103 104 104 105 103 104 104 105 107 108 115 118 118 120 124 124 124 124 126 128 129 133 132 129 133 135 135 134 134 135 135 138 140 -193 -193 -193 -193 144 148 149 148 149 -193 -193 -193 -193 -193 156 157 158 159 159 160 163 163 164 167 -193 -193 172 173 175 176 177 179 179 181 182 0 0 0 0 0
    0 0 0 0 0 0 0 0 0 0 0 0 0 0 0 0 0 0 0 0 0 0 0 0 0 0 0 0 0 0 0 0 0 0 0 0 0 0 0 0 0 0 0 0 0 0 0 0 0 0 0 0 0 0 0 0 0 0 0 0 0 0 0 0 0 0 0 0 0 46 46 46 46 45 44 51 44 44 46 45 45 46 46 46 44 48 48 46 47 48 47 48 50 49 48 47 48 47 46 45 43 42 41 38 37 30 31 29 29 29 29 30 30 28 32 32 32 30 30 31 30 30 29 30 29 28 29 27 25 23 23 22 21 23 28 27 31 30 30 31 29 30 30 27 29 26 29 30 28 28 28 28 29 28 27 -225 -225 -225 -225 -209 -209 -209 -209 -209 -209 -209 -209 -209 -209 29 -209 -209 27 26 23 23 22 24 22 24 24 28 27 28 27 28 28 29 29 29 29 30 36 38 39 43 43 44 44 44 45 46 46 49 45 51 52 54 57 57 57 59 61 61 61 62 63 60 63 64 62 60 64 64 62 60 65 67 68 71 73 70 71 73 78 80 84 89 90 89 92 94 98 97 100 103 101 103 103 104 104 103 104 104 105 107 110 116 118 119 120 123 124 124 124 126 128 129 133 132 129 130 134 134 132 131 132 131 135 -193 -193 -193 140 146 142 146 148 147 148 149 149 151 -193 156 156 157 157 158 159 160 163 163 164 -193 -193 -193 173 -193 176 176 177 179 179 181 183 0 0 0 0 0
    0 0 0 0 0 0 0 0 0 0 0 0 0 0 0 0 0 0 0 0 0 0 0 0 0 0 0 0 0 0 0 0 0 0 0 0 0 0 0 0 0 0 0 0 0 0 0 0 0 0 0 0 0 0 0 0 0 0 0 0 0 0 0 0 0 0 0 0 0 47 46 46 47 45 44 50 45 45 46 45 45 45 46 45 44 47 47 46 47 48 48 48 50 49 48 48 49 47 46 45 44 43 41 40 38 33 34 32 32 32 31 32 31 30 35 34 33 32 32 33 32 31 31 31 30 30 30 28 27 25 25 23 22 22 25 26 31 32 35 36 36 38 38 37 40 39 39 36 33 32 30 29 28 27 -225 -225 -225 -225 -225 -225 -225 -225 -225 -225 -225 -225 -225 -225 -225 -225 -225 -225 -225 -225 -225 -225 24 24 22 24 25 29 28 28 28 28 29 29 29 29 31 33 37 40 41 44 44 45 45 45 46 47 46 49 46 51 52 53 56 56 57 58 60 60 60 61 63 61 63 64 63 62 65 65 63 61 67 69 69 73 74 72 73 75 80 81 83 88 89 88 92 94 97 96 100 103 102 103 103 104 104 104 105 105 105 108 112 117 119 120 121 124 125 125 125 127 128 129 133 132 128 129 133 133 132 130 129 128 134 135 137 -193 139 143 141 144 146 145 147 148 149 151 153 156 157 157 158 159 159 160 164 163 165 168 168 170 173 173 175 175 178 179 179 181 183 0 0 0 0 0
    0 0 0 0 0 0 0 0 0 0 0 0 0 0 0 0 0 0 0 0 0 0 0 0 0 0 0 0 0 0 0 0 0 0 0 0 0 0 0 0 0 0 0 0 0 0 0 0 0 0 0 0 0 0 0 0 0 0 0 0 0 0 0 0 0 0 0 0 0 47 47 47 47 46 45 50 45 45 46 45 45 45 46 46 45 47 47 46 47 48 47 48 49 48 47 48 48 46 45 44 43 43 41 41 39 36 36 36 35 36 35 36 34 34 38 38 37 35 35 35 36 34 34 33 31 31 32 29 28 27 27 25 24 23 23 25 33 38 40 42 41 44 43 43 43 42 39 35 34 33 31 29 28 -225 -225 -225 -225 -225 -225 -225 -225 -225 -225 -225 -225 -225 -225 -225 -225 -225 -225 -225 -225 -225 -225 -225 -225 -225 24 24 27 31 29 30 28 29 30 30 30 30 32 34 38 41 41 45 45 45 46 46 47 48 47 50 47 53 54 54 55 56 56 57 59 60 60 61 62 61 63 63 63 62 64 64 62 63 70 71 71 74 76 75 75 78 83 81 83 88 89 88 92 94 95 94 100 103 102 103 103 104 104 104 105 105 105 108 113 118 119 120 121 123 125 124 125 126 126 128 132 130 127 126 131 133 131 130 128 130 136 137 139 139 140 144 142 145 146 145 147 148 149 150 153 156 157 157 157 158 159 160 164 162 165 169 169 171 173 174 175 176 178 179 179 181 182 0 0 0 0 0
    0 0 0 0 0 0 0 0 0 0 0 0 0 0 0 0 0 0 0 0 0 0 0 0 0 0 0 0 0 0 0 0 0 0 0 0 0 0 0 0 0 0 0 0 0 0 0 0 0 0 0 0 0 0 0 0 0 0 0 0 0 0 0 0 0 0 0 0 0 48 48 47 47 46 45 51 46 46 46 46 46 46 46 46 45 47 46 47 47 48 47 47 48 47 46 46 47 46 44 44 43 43 42 42 40 39 39 38 38 38 37 38 37 38 39 40 39 38 39 38 38 36 36 35 33 34 34 30 30 31 31 28 27 25 24 28 36 39 38 41 40 43 43 43 43 42 39 36 34 34 31 28 -225 -225 -225 -225 -225 -225 -225 -225 -225 -225 -225 -225 -225 -225 -225 -225 -225 -225 -225 -225 -225 -225 -225 -225 -225 -225 -225 26 28 29 29 30 28 29 30 30 30 30 34 35 38 42 41 45 45 45 46 46 47 49 47 50 47 53 54 54 55 55 56 56 58 59 59 61 62 61 62 62 63 62 63 64 63 64 71 72 71 74 77 76 78 83 86 84 84 89 90 88 93 94 94 94 100 104 103 103 104 105 105 106 106 106 105 109 115 118 120 120 121 122 124 124 124 126 126 128 131 130 127 124 128 130 126 124 122 123 132 137 141 142 143 146 144 146 146 146 148 149 149 150 153 155 156 156 156 157 158 159 163 161 166 169 169 171 173 174 174 176 178 179 179 182 183 0 0 0 0 0
    0 0 0 0 0 0 0 0 0 0 0 0 0 0 0 0 0 0 0 0 0 0 0 0 0 0 0 0 0 0 0 0 0 0 0 0 0 0 0 0 0 0 0 0 0 0 0 0 0 0 0 0 0 0 0 0 0 0 0 0 0 0 0 0 0 0 0 0 0 49 48 48 49 47 46 52 47 48 46 47 46 46 47 46 46 47 46 47 47 48 47 46 47 47 46 46 46 46 44 43 43 44 42 42 41 40 41 41 41 41 40 41 40 40 40 40 40 39 40 40 40 39 38 37 36 38 38 32 32 35 35 36 35 35 35 37 39 40 40 43 42 44 44 43 43 42 41 38 36 37 32 -225 -225 -225 -225 -225 -225 -225 -225 -225 -225 -225 -225 -225 -225 -225 -225 -225 -225 -225 -225 -225 -225 -225 -225 -225 -225 -225 -225 -225 30 27 29 30 28 28 31 32 32 32 37 37 39 42 42 45 45 45 46 46 47 50 48 50 48 52 53 53 54 55 55 56 58 59 59 61 62 62 62 62 63 63 64 65 64 66 71 72 71 74 76 76 77 81 85 85 85 90 91 90 96 97 96 96 101 105 104 104 104 105 105 106 107 107 105 109 115 118 120 120 121 122 124 124 124 126 126 127 131 129 127 125 128 128 122 121 116 115 118 130 138 140 142 145 145 146 147 147 148 149 149 150 153 155 155 156 156 157 158 159 163 162 166 168 169 172 173 175 175 178 179 180 180 182 183 0 0 0 0 0
    0 0 0 0 0 0 0 0 0 0 0 0 0 0 0 0 0 0 0 0 0 0 0 0 0 0 0 0 0 0 0 0 0 0 0 0 0 0 0 0 0 0 0 0 0 0 0 0 0 0 0 0 0 0 0 0 0 0 0 0 0 0 0 0 0 0 0 0 0 49 48 48 50 48 48 52 48 49 48 48 47 47 48 47 46 47 46 47 47 48 47 46 47 46 45 46 45 45 43 43 43 44 43 43 43 42 42 42 42 42 41 42 41 41 41 41 43 43 43 43 44 42 42 43 42 42 -193 -209 34 38 38 38 37 37 37 37 39 40 40 42 42 44 44 43 43 42 42 41 39 41 -225 -225 -225 -225 -225 -225 -225 -225 -225 -225 -225 -225 -225 -225 -225 -225 -225 -225 -225 -225 -225 -225 -225 -225 -225 -225 -225 -225 -225 -225 -225 -225 -225 -225 30 31 35 37 37 37 39 39 40 43 43 46 45 45 46 46 47 50 49 51 49 53 54 53 55 55 55 56 58 59 60 61 62 62 63 62 64 63 63 63 63 65 71 72 72 74 77 78 79 81 84 84 85 89 91 91 99 100 99 99 102 105 104 104 104 105 104 106 106 106 104 109 114 118 120 121 121 122 124 124 124 127 127 128 131 130 129 125 128 127 122 121 117 115 118 126 -209 135 139 140 141 145 147 147 149 150 152 150 154 155 155 156 156 156 157 157 160 159 164 165 167 171 174 177 178 180 181 181 181 182 183 0 0 0 0 0
    0 0 0 0 0 0 0 0 0 0 0 0 0 0 0 0 0 0 0 0 0 0 0 0 0 0 0 0 0 0 0 0 0 0 0 0 0 0 0 0 0 0 0 0 0 0 0 0 0 0 0 0 0 0 0 0 0 0 0 0 0 0 0 0 0 0 0 0 0 48 47 48 49 48 48 52 49 49 48 49 48 47 48 47 46 48 47 48 46 47 47 46 46 45 45 45 44 45 43 43 44 45 44 46 45 44 45 45 44 44 42 43 42 42 42 43 44 45 47 46 47 46 47 51 50 54 48 -209 -209 42 40 40 39 38 38 38 39 40 40 42 42 44 44 43 42 42 42 41 -225 -225 -225 -225 -225 -225 -225 -225 -225 -225 -225 -225 -225 -225 -225 -225 -225 -225 -225 -225 -225 -225 -225 -225 -225 -225 -225 -225 -225 -225 -225 -225 -225 -225 -225 -225 -225 33 36 38 39 38 40 40 40 43 43 46 45 45 47 46 48 52 51 53 52 54 55 55 56 57 56 57 59 60 61 62 64 63 64 63 64 64 64 63 64 68 73 74 73 75 78 79 78 81 82 83 84 87 89 89 96 100 98 98 101 104 103 104 103 104 104 106 106 106 105 111 115 118 121 121 122 122 125 125 125 127 127 127 131 130 129 124 126 126 121 121 120 118 120 126 -209 134 138 138 139 141 142 141 143 142 146 144 151 153 154 156 157 157 158 159 162 162 165 165 167 171 175 179 178 180 181 181 182 182 183 0 0 0 0 0
    0 0 0 0 0 0 0 0 0 0 0 0 0 0 0 0 0 0 0 0 0 0 0 0 0 0 0 0 0 0 0 0 0 0 0 0 0 0 0 0 0 0 0 0 0 0 0 0 0 0 0 0 0 0 0 0 0 0 0 0 0 0 0 0 0 0 0 0 0 49 49 49 49 48 48 52 49 49 48 49 48 46 49 48 47 48 47 48 46 47 47 45 45 45 44 45 44 45 44 44 45 47 47 49 48 46 48 48 47 46 44 44 43 44 45 45 46 49 51 51 51 51 51 53 54 57 50 45 42 44 41 41 39 40 39 39 40 40 40 43 43 45 44 44 44 44 44 -225 -225 -225 -225 -225 -225 -225 -225 -225 -225 -225 -225 -225 -225 -225 -225 -225 -225 -225 -225 -225 -225 -225 -225 -225 -225 -225 -225 -225 -225 -225 -225 -225 -225 -225 -225 -225 -225 35 37 39 40 39 40 41 41 43 43 46 46 46 48 48 49 53 53 54 53 55 56 56 57 58 57 58 60 61 63 64 65 64 64 64 64 64 64 63 65 69 73 75 73 76 78 80 78 82 81 83 84 85 87 88 93 99 96 97 101 103 103 103 103 103 103 106 107 107 106 113 117 119 121 122 122 123 125 125 125 127 126 126 128 126 126 123 123 123 121 121 120 120 121 127 -193 135 138 138 139 140 141 140 141 137 138 -193 138 139 141 151 154 156 158 161 164 165 168 168 168 171 175 178 177 178 180 181 182 183 184 0 0 0 0 0
    0 0 0 0 0 0 0 0 0 0 0 0 0 0 0 0 0 0 0 0 0 0 0 0 0 0 0 0 0 0 0 0 0 0 0 0 0 0 0 0 0 0 0 0 0 0 0 0 0 0 0 0 0 0 0 0 0 0 0 0 0 0 0 0 0 0 0 0 0 51 51 50 50 50 49 52 50 50 48 49 49 47 49 48 47 48 47 49 46 47 47 45 45 44 45 45 45 46 44 44 46 49 50 52 51 49 50 51 49 48 45 45 45 44 44 44 46 48 51 50 50 48 50 54 55 57 51 46 44 45 41 40 40 41 40 40 40 41 41 43 43 44 43 43 43 -225 -225 -225 -225 -225 -225 -225 -225 -225 -225 -225 -225 -225 -225 -225 -225 -225 -225 -225 -225 -225 -225 -225 -225 -225 -225 -225 -225 -225 -225 -225 -225 -225 -225 -225 -225 -225 -225 -225 -225 37 38 40 40 40 41 43 42 44 44 48 47 48 50 50 51 55 54 55 54 56 56 56 57 58 57 59 61 62 63 64 65 64 65 64 65 64 65 64 68 71 75 76 75 77 78 81 80 83 83 85 85 86 88 89 92 98 96 96 101 103 103 103 103 103 103 106 107 108 107 113 117 119 121 122 123 123 124 125 126 127 126 126 126 126 126 123 123 123 122 123 122 125 125 131 137 136 138 139 139 141 142 141 142 139 140 138 138 139 138 141 152 153 156 158 162 165 169 170 170 173 178 180 180 181 182 183 184 186 187 0 0 0 0 0
    0 0 0 0 0 0 0 0 0 0 0 0 0 0 0 0 0 0 0 0 0 0 0 0 0 0 0 0 0 0 0 0 0 0 0 0 0 0 0 0 0 0 0 0 0 0 0 0 0 0 0 0 0 0 0 0 0 0 0 0 0 0 0 0 0 0 0 0 0 52 52 51 50 51 51 52 52 51 48 49 48 47 49 48 48 47 47 48 46 0 -256 -1 19454 44 44 44 45 46 44 44 47 51 52 53 52 51 53 54 52 51 49 49 48 47 47 47 47 49 51 49 50 48 49 53 55 57 53 51 51 50 42 41 41 42 41 40 40 41 42 43 44 45 44 43 -225 -225 -225 -225 -225 -225 -225 -225 -225 -225 -225 -225 -225 -225 -225 -225 -225 -225 -225 -225 -225 -225 -225 -225 -225 -225 -225 -225 -225 -225 -225 -225 -225 -225 -225 -225 -225 -225 -225 -225 -225 36 38 40 41 41 42 44 44 45 46 50 48 50 52 52 53 56 56 56 56 57 57 56 57 58 57 59 61 61 63 64 65 64 65 65 65 66 67 68 72 73 76 77 77 80 80 84 83 86 86 87 87 88 89 89 91 97 94 95 100 102 103 103 103 103 104 106 107 108 107 112 116 118 120 121 122 122 123 124 125 126 125 125 124 124 125 125 125 125 125 129 128 130 131 132 136 134 136 137 138 141 142 142 143 141 143 140 140 142 139 143 148 152 154 156 158 164 169 170 170 173 179 181 181 182 183 184 185 187 188 0 0 0 0 0
    0 0 0 0 0 0 0 0 0 0 0 0 0 0 0 0 0 0 0 0 0 0 0 0 0 0 0 0 0 0 0 0 0 0 0 0 0 0 0 0 0 0 0 0 0 0 0 0 0 0 0 0 0 0 0 0 0 0 0 0 0 0 0 0 0 0 0 0 0 52 51 51 50 52 52 53 53 51 49 49 49 48 50 49 49 49 48 49 45 46 46 44 44 44 44 44 44 47 44 44 47 50 51 52 52 52 54 56 55 56 55 54 53 52 51 51 50 51 50 49 50 48 48 53 54 56 53 52 53 51 44 42 41 42 41 40 40 41 40 42 44 44 43 -225 -225 -225 -225 -225 -225 -225 -225 -225 -225 -225 -225 -225 -225 -225 -225 -225 -225 -225 -225 -225 -225 -225 -225 -225 -225 -225 -225 -225 -225 -225 -225 -225 -225 -225 -225 -225 -225 -225 -225 -225 -225 36 38 41 41 42 43 44 44 45 48 51 49 51 53 53 54 57 57 57 56 58 57 57 58 59 58 60 62 62 64 64 65 64 65 65 66 67 68 69 73 73 75 76 77 79 80 84 83 86 87 87 88 89 89 90 91 96 94 94 99 101 101 102 102 103 103 105 107 107 107 112 115 117 119 121 121 121 122 123 122 123 123 123 123 123 127 126 126 128 126 131 131 131 131 132 135 134 136 137 137 141 142 143 144 145 146 144 143 145 141 149 -193 153 155 156 157 163 167 169 169 172 177 180 181 182 183 185 185 188 189 0 0 0 0 0
    0 0 0 0 0 0 0 0 0 0 0 0 0 0 0 0 0 0 0 0 0 0 0 0 0 0 0 0 0 0 0 0 0 0 0 0 0 0 0 0 0 0 0 0 0 0 0 0 0 0 0 0 0 0 0 0 0 0 0 0 0 0 0 0 0 0 0 0 0 52 51 51 50 52 52 52 53 50 50 49 49 49 51 51 51 50 50 50 46 47 47 45 45 44 44 45 46 50 47 46 50 52 52 53 54 54 55 59 59 60 59 58 56 55 54 53 51 51 51 50 51 50 50 54 55 57 -225 -225 -225 -225 45 42 42 42 41 40 40 40 39 42 44 -225 -225 -225 -225 -225 -225 -225 -225 -225 -225 -225 -225 -225 -225 -225 -225 -225 -225 -225 -225 -225 -225 -225 -225 -225 -225 -225 -225 -225 -225 -225 -225 -225 -225 -225 -225 -225 -225 -225 -225 -225 -225 -225 -225 -225 38 43 42 43 46 45 45 46 49 52 51 53 55 55 56 59 58 57 57 58 58 57 59 60 58 61 62 62 65 65 66 65 66 66 67 69 70 71 74 76 77 78 79 81 81 84 83 86 86 87 88 90 90 91 92 96 94 94 98 99 100 101 101 102 102 105 106 107 107 111 113 116 119 119 120 120 121 122 121 123 124 123 124 125 130 129 129 130 129 131 130 129 127 127 129 129 129 127 132 138 139 141 141 143 144 145 144 147 144 153 154 154 156 156 158 163 167 169 169 171 176 180 180 182 183 184 185 188 189 0 0 0 0 0
    0 0 0 0 0 0 0 0 0 0 0 0 0 0 0 0 0 0 0 0 0 0 0 0 0 0 0 0 0 0 0 0 0 0 0 0 0 0 0 0 0 0 0 0 0 0 0 0 0 0 0 0 0 0 0 0 0 0 0 0 0 0 0 0 0 0 0 0 0 54 50 51 50 51 52 51 54 50 50 49 48 49 52 51 52 50 50 50 47 48 48 46 46 46 46 48 50 53 51 50 54 54 54 54 55 57 58 61 62 62 61 61 60 58 55 54 52 52 51 49 50 50 50 53 54 -225 -225 -225 -225 -225 -225 -225 40 41 41 39 39 40 37 42 -225 -225 -225 -225 -225 -225 -225 -225 -225 -225 -225 -225 -225 -225 -225 -225 -225 -225 -225 -225 -225 -225 -225 -225 -225 -225 -225 -225 -225 -225 -225 -225 -225 -225 -225 -225 -225 -225 -225 -225 -225 -225 -225 -225 -225 -225 -225 50 44 46 48 48 49 50 52 54 54 56 57 57 57 60 60 60 59 59 59 58 59 60 58 61 61 62 65 66 67 66 67 68 69 71 72 73 76 78 78 79 80 82 81 83 83 86 86 87 88 90 90 92 92 96 94 94 98 98 99 100 100 101 101 104 106 106 107 110 112 114 118 118 119 119 119 120 121 122 123 122 124 125 132 131 131 132 131 132 131 130 128 127 128 129 128 126 133 140 140 144 143 145 147 148 148 148 145 151 153 153 155 156 157 162 167 169 169 171 176 180 181 182 183 184 185 187 188 0 0 0 0 0
    0 0 0 0 0 0 0 0 0 0 0 0 0 0 0 0 0 0 0 0 0 0 0 0 0 0 0 0 0 0 0 0 0 0 0 0 0 0 0 0 0 0 0 0 0 0 0 0 0 0 0 0 0 0 0 0 0 0 0 0 0 0 0 0 0 0 0 0 0 59 53 52 50 51 51 50 54 49 50 49 47 47 50 49 51 48 49 49 47 49 48 48 51 51 52 55 56 56 55 56 56 55 54 55 59 62 60 63 63 63 62 62 61 58 56 55 52 51 50 48 49 47 48 -225 -225 -225 -225 -225 -225 -225 -225 -225 -225 -225 -225 -225 -225 -225 -225 -225 -225 -225 -225 -225 -225 -225 -225 -225 -225 -225 -225 -225 -225 -225 -225 -225 -225 -225 -225 -225 -225 -225 -225 -225 -225 -225 -225 -225 -225 -225 -225 -225 -225 -225 -225 -225 -225 -225 -225 -225 -225 -225 -225 -225 -225 -225 -225 -225 -225 49 51 51 51 52 54 56 57 58 59 59 59 62 61 62 61 60 61 60 61 61 59 61 61 62 66 65 66 65 68 70 71 72 74 74 77 79 80 80 82 84 83 85 85 88 89 88 89 90 90 92 92 94 93 93 96 96 97 99 99 100 100 104 106 106 108 110 111 113 117 117 118 118 119 120 121 122 123 122 124 124 132 130 130 132 132 134 132 131 130 129 131 131 130 126 133 140 141 145 146 148 149 150 150 150 150 153 154 153 155 156 157 162 166 168 168 171 175 179 180 181 182 183 184 186 187 0 0 0 0 0
    0 0 0 0 0 0 0 0 0 0 0 0 0 0 0 0 0 0 0 0 0 0 0 0 0 0 0 0 0 0 0 0 0 0 0 0 0 0 0 0 0 0 0 0 0 0 0 0 0 0 0 0 0 0 0 0 0 0 0 0 0 0 0 0 0 0 0 0 0 64 57 -193 -209 -209 -209 -193 59 -209 51 -209 -209 -209 -209 48 48 46 47 49 49 51 50 52 54 56 57 58 60 60 60 61 63 -193 57 59 67 66 63 65 65 65 64 63 62 59 56 55 51 48 46 44 44 -225 -225 -225 -225 -225 -225 -225 -225 -225 -225 -225 -225 -225 -225 -225 -225 -225 -225 -225 -225 -225 -225 -225 -225 -225 -225 -225 -225 -225 -225 -225 -225 -225 -225 -225 -225 -225 -225 -225 -225 -225 -225 -225 -225 -225 -225 -225 -225 -225 -225 -225 -225 -225 -225 -225 -225 -225 -225 -225 -225 -225 -225 -225 -225 -225 -225 -225 -225 -225 -225 -225 54 54 55 58 59 59 60 60 61 63 62 63 62 61 62 61 63 62 60 62 61 62 66 65 66 64 68 70 70 72 73 73 76 78 78 79 80 83 83 85 86 89 89 89 90 90 90 91 91 92 92 92 94 94 95 97 98 100 100 104 107 108 109 110 112 113 116 117 118 118 119 120 121 123 124 124 125 125 131 129 130 131 131 133 132 131 130 130 133 133 132 129 134 144 143 147 147 148 149 150 150 150 151 153 155 154 157 158 159 163 166 168 168 170 173 177 178 179 181 182 183 186 187 0 0 0 0 0
    0 0 0 0 0 0 0 0 0 0 0 0 0 0 0 0 0 0 0 0 0 0 0 0 0 0 0 0 0 0 0 0 0 0 0 0 0 0 0 0 0 0 0 0 0 0 0 0 0 0 0 0 0 0 0 0 0 0 0 0 0 0 0 0 0 0 0 0 0 68 63 -193 -209 76 78 81 76 78 -193 76 -209 77 -209 50 48 46 47 49 48 50 49 53 55 57 59 59 62 62 62 64 68 69 66 67 72 70 67 68 68 67 65 63 63 59 56 54 52 50 47 -225 -225 -225 -225 -225 -225 -225 -225 -225 -225 -225 -225 -225 -225 -225 -225 -225 -225 -225 -225 -225 -225 -225 -225 -225 -225 -225 -225 -225 -225 -225 -225 -225 -225 -225 -225 -225 -225 -225 -225 -225 -225 -225 -225 -225 -225 -225 -225 -225 -225 -225 -225 -225 -225 -225 -225 -225 -225 -225 -225 -225 -225 -225 -225 -225 -225 -225 -225 -225 -225 -225 -225 -225 54 54 55 58 60 59 60 60 60 62 62 63 61 60 62 61 64 63 61 62 62 63 66 65 65 63 67 69 70 71 72 72 74 76 76 78 81 84 84 86 87 89 90 89 90 90 90 91 91 91 91 91 93 93 94 96 97 99 101 104 107 109 110 110 112 113 117 117 118 118 119 120 122 124 124 124 125 125 130 130 130 131 131 134 133 132 131 132 135 135 135 137 139 148 147 149 150 150 151 152 151 150 150 -193 -209 151 155 156 155 161 167 169 169 171 172 175 177 177 179 181 182 185 187 0 0 0 0 0
    0 0 0 0 0 0 0 0 0 0 0 0 0 0 0 0 0 0 0 0 0 0 0 0 0 0 0 0 0 0 0 0 0 0 0 0 0 0 0 0 0 0 0 0 0 0 0 0 0 0 0 0 0 0 0 0 0 0 0 0 0 0 0 0 0 0 0 0 0 68 67 74 77 80 80 80 77 78 75 75 -193 74 -209 57 54 51 51 52 52 53 53 56 57 59 62 61 64 63 66 69 72 74 73 73 74 73 71 72 70 68 66 64 63 59 57 56 54 52 -225 -225 -225 -225 -225 -225 -225 -225 -225 -225 -225 -225 -225 -225 -225 -225 -225 -225 -225 -225 -225 -225 -225 -225 -225 -225 -225 -225 -225 -225 -225 -225 -225 -225 -225 -225 -225 -225 -225 -225 -225 -225 -225 -225 -225 -225 -225 -225 -225 -225 -225 -225 -225 -225 -225 -225 -225 -225 -225 -225 -225 -225 -225 -225 -225 -225 -225 -225 -225 -225 -225 -225 -225 -225 54 55 56 59 60 59 61 60 61 62 63 63 62 61 62 62 65 64 63 63 63 64 67 65 65 63 67 69 69 71 71 71 73 75 75 78 82 84 85 87 88 90 90 89 90 90 91 92 91 91 91 91 93 93 94 96 97 99 101 104 107 109 110 110 112 113 117 117 118 118 119 119 122 124 124 124 124 125 128 129 129 130 130 133 132 131 131 132 135 136 136 139 142 149 149 150 151 151 152 153 152 151 152 153 153 153 156 157 156 160 165 169 169 171 173 174 176 175 178 180 181 184 186 0 0 0 0 0
    0 0 0 0 0 0 0 0 0 0 0 0 0 0 0 0 0 0 0 0 0 0 0 0 0 0 0 0 0 0 0 0 0 0 0 0 0 0 0 0 0 0 0 0 0 0 0 0 0 0 0 0 0 0 0 0 0 0 0 0 0 0 0 0 0 0 0 0 0 69 69 75 79 79 -193 77 74 75 72 74 71 72 70 60 57 53 52 54 55 55 55 58 59 61 64 64 66 66 68 71 73 75 74 74 75 74 72 72 70 68 66 64 63 60 59 59 -225 -225 -225 -225 -225 -225 -225 -225 -225 -225 -225 -225 -225 -225 -225 -225 -225 -225 -225 -225 -225 -225 -225 -225 -225 -225 -225 -225 -225 -225 -225 -225 -225 -225 -225 -225 -225 -225 -225 -225 -225 -225 -225 -225 -225 -225 -225 -225 -225 -225 -225 -225 -225 -225 -225 -225 -225 -225 -225 -225 -225 -225 -225 -225 -225 -225 -225 -225 -225 -225 -225 -225 -225 -225 -225 -225 -225 56 56 59 62 60 62 60 61 62 63 63 62 61 63 64 66 66 66 65 66 66 68 68 66 65 66 68 69 70 71 71 72 73 -209 -193 81 84 85 87 88 89 90 88 89 89 90 91 91 91 91 91 93 94 94 97 97 99 100 104 106 108 110 110 111 113 116 117 117 118 118 118 121 123 123 123 123 123 126 127 127 128 128 132 131 130 130 132 135 136 137 140 143 149 149 150 150 151 151 153 152 152 153 154 154 155 158 159 157 160 164 167 167 169 171 171 171 171 171 173 175 177 179 0 0 0 0 0
    0 0 0 0 0 0 0 0 0 0 0 0 0 0 0 0 0 0 0 0 0 0 0 0 0 0 0 0 0 0 0 0 0 0 0 0 0 0 0 0 0 0 0 0 0 0 0 0 0 0 0 0 0 0 0 0 0 0 0 0 0 0 0 0 0 0 0 0 0 69 -209 75 79 76 73 74 72 73 69 72 69 69 70 63 61 55 55 55 57 57 57 59 61 64 67 68 70 70 71 73 75 76 76 77 78 75 73 73 71 70 68 66 66 64 62 -225 -225 -225 -225 -225 -225 -225 -225 -225 -225 -225 -225 -225 -225 -225 -225 -225 -225 -225 -225 -225 -225 -225 -225 -225 -225 -225 -225 -225 -225 -225 -225 -225 -225 -225 -225 -225 -225 -225 -225 -225 -225 -225 -225 -225 -225 -225 -225 -225 -225 -225 -225 -225 -225 -225 -225 -225 -225 -225 -225 -225 -225 -225 -225 -225 -225 -225 -225 -225 -225 -225 -225 -225 -225 -225 -225 -225 -225 -225 56 59 64 61 63 61 61 61 64 64 63 61 63 64 67 67 67 67 67 68 69 68 67 66 66 67 68 69 69 69 71 72 -209 -209 -209 -209 84 86 88 89 89 87 88 88 89 90 90 91 91 92 94 95 95 98 98 99 100 103 105 107 110 110 111 113 116 117 117 118 118 117 120 122 122 122 122 122 124 124 125 126 126 132 132 130 129 134 138 138 139 141 144 149 148 149 149 150 150 152 152 152 153 155 155 156 160 162 161 164 166 167 168 169 170 169 170 170 170 171 172 172 171 0 0 0 0 0
    0 0 0 0 0 0 0 0 0 0 0 0 0 0 0 0 0 0 0 0 0 0 0 0 0 0 0 0 0 0 0 0 0 0 0 0 0 0 0 0 0 0 0 0 0 0 0 0 0 0 0 0 0 0 0 0 0 0 0 0 0 0 0 0 0 0 0 0 0 69 -193 74 77 74 73 73 71 71 67 70 66 68 69 66 66 -193 58 57 60 60 59 61 63 66 69 70 72 73 74 76 77 78 78 78 78 75 73 73 71 69 68 67 67 -225 -225 -225 -225 -225 -225 -225 -225 -225 -225 -225 -225 -225 -225 -225 -225 -225 -225 -225 -225 -225 -225 -225 -225 -225 -225 -225 -225 -225 -225 -225 -225 -225 -225 -225 -225 -225 -225 -225 -225 -225 -225 -225 -225 -225 -225 -225 -225 -225 -225 -225 -225 -225 -225 -225 -225 -225 -225 -225 -225 -225 -225 -225 -225 -225 -225 -225 -225 -225 -225 -225 -225 -225 -225 -225 -225 -225 -225 -225 -225 -225 -225 -225 71 65 67 62 61 62 65 64 63 61 64 65 67 68 68 67 68 69 70 69 67 66 66 66 68 69 68 69 71 73 73 -193 -209 -209 82 84 87 88 87 87 87 87 88 89 89 90 90 92 94 96 96 99 98 100 101 104 106 108 111 111 112 113 117 117 117 118 118 117 120 121 122 121 122 122 123 123 124 124 123 128 -209 -209 128 135 138 138 141 142 142 145 146 147 148 148 149 150 150 150 152 154 154 156 161 164 -193 -193 -193 169 171 171 172 171 172 172 171 171 173 172 173 0 0 0 0 0
    0 0 0 0 0 0 0 0 0 0 0 0 0 0 0 0 0 0 0 0 0 0 0 0 0 0 0 0 0 0 0 0 0 0 0 0 0 0 0 0 0 0 0 0 0 0 0 0 0 0 0 0 0 0 0 0 0 0 0 0 0 0 0 0 0 0 0 0 0 68 68 73 75 73 73 72 72 71 68 71 67 68 69 67 68 62 64 62 63 65 62 65 69 71 71 71 75 74 76 77 78 79 78 79 79 76 74 73 72 71 69 -225 -225 -225 -225 -225 -225 -225 -225 -225 -225 -225 -225 -225 -225 -225 -225 -225 -225 -225 -225 -225 -225 -225 -225 -225 -225 -225 -225 -225 -225 -225 -225 -225 -225 -225 -225 -225 -225 -225 -225 -225 -225 -225 -225 -225 -225 -225 -225 -225 -225 -225 -225 -225 -225 -225 -225 -225 -225 -225 -225 -225 -225 -225 -225 -225 -225 -225 -225 -225 -225 -225 -225 -225 -225 -225 -225 -225 -225 -225 -225 -225 -225 -225 -225 -225 -225 65 67 62 61 62 65 64 63 61 65 67 68 69 70 70 71 71 71 70 69 69 67 67 67 68 68 70 72 73 73 75 -209 -209 -193 84 87 88 87 87 87 87 88 89 89 89 89 92 93 96 96 99 99 100 101 105 107 108 113 112 114 115 118 118 118 119 120 120 122 124 125 123 123 124 124 125 125 124 -193 -193 -209 -209 -193 139 139 139 142 143 143 144 147 147 148 149 149 150 149 149 150 151 151 155 -193 -193 -209 -209 -209 -193 172 172 173 171 172 172 171 171 173 172 174 0 0 0 0 0
    0 0 0 0 0 0 0 0 0 0 0 0 0 0 0 0 0 0 0 0 0 0 0 0 0 0 0 0 0 0 0 0 0 0 0 0 0 0 0 0 0 0 0 0 0 0 0 0 0 0 0 0 0 0 0 0 0 0 0 0 0 0 0 0 0 0 0 0 0 67 68 72 73 71 71 70 72 70 69 72 68 70 71 70 71 69 73 72 67 70 68 72 72 75 75 77 79 78 80 80 79 80 78 79 79 76 75 74 73 73 -225 -225 -225 -225 -225 -225 -225 -225 -225 -225 -225 -225 -225 -225 -225 -225 -225 -225 -225 -225 -225 -225 -225 -225 -225 -225 -225 -225 -225 -225 -225 -225 -225 -225 -225 -225 -225 -225 -225 -225 -225 -225 -225 -225 -225 -225 -225 -225 -225 -225 -225 -225 -225 -225 -225 -225 -225 -225 -225 -225 -225 -225 -225 -225 -225 -225 -225 -225 -225 -225 -225 -225 -225 -225 -225 -225 -225 -225 -225 -225 -225 -225 -225 -225 -225 -225 -225 -225 -225 61 59 62 65 64 63 62 66 68 69 70 71 71 72 72 71 71 70 71 69 68 68 68 68 69 70 70 71 73 77 -193 -193 -193 87 88 87 87 87 86 87 87 88 88 89 91 93 95 97 99 100 101 102 105 107 109 114 114 115 116 118 119 119 120 121 121 124 126 127 125 125 126 125 126 126 125 123 -193 -209 -209 -193 140 141 140 141 143 142 142 145 146 146 149 149 150 148 149 150 151 151 155 -209 -193 -209 -209 -209 -209 -209 172 172 171 172 172 172 172 174 173 176 0 0 0 0 0
    0 0 0 0 0 0 0 0 0 0 0 0 0 0 0 0 0 0 0 0 0 0 0 0 0 0 0 0 0 0 0 0 0 0 0 0 0 0 0 0 0 0 0 0 0 0 0 0 0 0 0 0 0 0 0 0 0 0 0 0 0 0 0 0 0 0 0 0 0 66 68 72 72 71 71 70 72 70 70 71 69 70 70 70 71 70 73 72 70 73 73 77 80 82 81 86 84 84 84 82 80 81 79 80 78 76 77 76 -225 -225 -225 -225 -225 -225 -225 -225 -225 -225 -225 -225 -225 -225 -225 -225 -225 -225 -225 -225 -225 -225 -225 -225 -225 -225 -225 -225 -225 -225 -225 -225 -225 -225 -225 -225 -225 -225 -225 -225 -225 -225 -225 -225 -225 -225 -225 -225 -225 -225 -225 -225 -225 -225 -225 -225 -225 -225 -225 -225 -225 -225 -225 -225 -225 -225 -225 -225 -225 -225 -225 -225 -225 -225 -225 -225 -225 -225 -225 -225 -225 -225 -225 -225 -225 -225 -225 -225 -225 -225 -225 -225 56 61 65 62 62 62 66 69 70 71 72 73 74 74 73 72 71 73 71 69 69 69 69 71 71 71 72 73 77 80 82 83 86 86 86 85 85 85 86 86 87 87 88 -209 92 96 96 99 100 101 102 105 107 109 115 115 116 117 119 119 119 120 121 122 123 125 126 125 125 126 125 127 126 125 124 124 -209 -193 138 139 140 139 139 140 139 140 142 143 145 148 149 151 150 152 152 153 153 156 158 165 -209 -209 -209 -209 174 172 173 170 172 172 171 171 174 173 177 0 0 0 0 0
    0 0 0 0 0 0 0 0 0 0 0 0 0 0 0 0 0 0 0 0 0 0 0 0 0 0 0 0 0 0 0 0 0 0 0 0 0 0 0 0 0 0 0 0 0 0 0 0 0 0 0 0 0 0 0 0 0 0 0 0 0 0 0 0 0 0 0 0 0 66 68 72 72 71 71 71 72 69 70 71 69 70 70 70 71 71 73 73 73 76 77 82 83 85 84 87 86 85 86 84 82 82 81 82 80 78 80 -225 -225 -225 -225 -225 -225 -225 -225 -225 -225 -225 -225 -225 -225 -225 -225 -225 -225 -225 -225 -225 -225 -225 -225 -225 -225 -225 -225 -225 -225 -225 -225 -225 -225 -225 -225 -225 -225 -225 -225 -225 -225 -225 -225 -225 -225 -225 -225 -225 -225 -225 -225 -225 -225 -225 -225 -225 -225 -225 -225 -225 -225 -225 -225 -225 -225 -225 -225 -225 -225 -225 -225 -225 -225 -225 -225 -225 -225 -225 -225 -225 -225 -225 -225 -225 -225 -225 -225 -225 -225 -225 -225 -225 -225 56 63 60 62 61 65 70 70 72 74 74 75 75 73 73 73 74 72 70 70 70 69 72 72 72 74 75 80 81 81 82 85 85 85 84 84 83 84 85 86 87 87 -209 93 97 97 100 100 101 102 105 106 107 115 115 117 118 119 119 119 120 120 121 122 123 126 124 124 126 125 127 126 125 125 124 -193 -193 137 138 138 138 138 139 139 139 142 143 145 148 149 151 151 153 153 154 154 155 156 162 -209 -209 -209 173 175 173 173 171 173 172 171 171 174 173 179 0 0 0 0 0
    0 0 0 0 0 0 0 0 0 0 0 0 0 0 0 0 0 0 0 0 0 0 0 0 0 0 0 0 0 0 0 0 0 0 0 0 0 0 0 0 0 0 0 0 0 0 0 0 0 0 0 0 0 0 0 0 0 0 0 0 0 0 0 0 0 0 0 0 0 65 68 71 71 71 71 70 71 70 71 71 70 70 71 72 73 73 75 76 77 79 81 85 85 87 87 88 86 86 87 85 83 83 81 82 81 -225 -225 -225 -225 -225 -225 -225 -225 -225 -225 -225 -225 -225 -225 -225 -225 -225 -225 -225 -225 -225 -225 -225 -225 -225 -225 -225 -225 -225 -225 -225 -225 -225 -225 -225 -225 -225 -225 -225 -225 -225 -225 -225 -225 -225 -225 -225 -225 -225 -225 -225 -225 -225 -225 -225 -225 -225 -225 -225 -225 -225 -225 -225 -225 -225 -225 -225 -225 -225 -225 -225 -225 -225 -225 -225 -225 -225 -225 -225 -225 -225 -225 -225 -225 -225 -225 -225 -225 -225 -225 -225 -225 -225 -225 -225 -225 -225 59 59 64 61 68 71 70 73 75 76 77 76 74 74 74 76 74 73 73 73 73 75 75 75 77 77 83 83 82 83 85 85 85 84 83 82 84 85 86 87 88 -193 94 99 99 101 101 102 103 105 105 106 112 112 116 116 118 118 118 119 119 120 122 122 125 124 124 125 125 127 127 125 126 123 129 134 137 137 137 137 137 138 137 137 141 142 144 147 148 150 150 153 153 154 153 155 155 159 -193 -209 -209 171 172 171 172 170 172 173 171 171 175 175 180 0 0 0 0 0</data></disparity>
</opencv_storage>
