<?xml version="1.0"?>
<opencv_storage>
<gps_time_stamp>313924</gps_time_stamp>
<gps_x>-1.2409381866455078e+001</gps_x>
<gps_y>1.0956297874450684e+001</gps_y>
<gps_z>-2.0025269985198975e+000</gps_z>
<image_time_stamp>304758</image_time_stamp>
<disparity type_id="opencv-matrix">
  <rows>83</rows>
  <cols>320</cols>
  <dt>s</dt>
  <data>
    0 0 0 0 0 0 0 0 0 0 0 0 0 0 0 0 0 0 0 0 0 0 0 0 0 0 0 0 0 0 0 0 0 0 0 0 0 0 0 0 0 0 0 0 0 0 0 0 0 0 0 0 0 0 0 0 0 0 0 0 0 0 0 0 0 0 0 0 0 43 44 41 41 40 38 38 39 40 39 37 42 41 42 40 40 41 40 41 41 38 38 34 38 36 35 34 33 31 28 29 30 28 29 28 27 27 28 29 27 26 24 24 22 25 26 30 29 31 29 29 26 25 22 17 16 13 13 11 10 11 11 11 11 10 10 9 10 10 10 10 11 12 13 18 16 18 19 17 18 17 19 18 17 18 16 16 16 14 15 13 12 13 11 12 11 12 12 12 13 13 12 15 15 20 24 27 32 31 32 35 35 35 36 35 36 35 37 38 36 38 39 39 46 51 52 54 59 58 58 59 59 60 62 63 65 64 71 71 -193 -177 -193 65 -209 -209 -193 -209 -209 86 88 89 90 94 92 95 93 93 96 100 96 98 97 98 99 102 102 102 -193 107 110 -193 116 -193 117 -193 -193 -193 122 123 783 -193 770 127 -193 -193 -209 -209 -177 -177 -177 -177 -177 -193 -193 140 140 140 140 140 -193 -193 -193 370 369 -193 -193 -193 -209 151 -193 149 -193 16 -193 -193 13 13 -193 -193 -193 -193 -193 -193 -193 -193 572 -209 -209 -193 -193 -193 666 -193 -209 -193 -193 -193 -193 69 203 210 209 206 207 205 206 0 0 0 0 0
    0 0 0 0 0 0 0 0 0 0 0 0 0 0 0 0 0 0 0 0 0 0 0 0 0 0 0 0 0 0 0 0 0 0 0 0 0 0 0 0 0 0 0 0 0 0 0 0 0 0 0 0 0 0 0 0 0 0 0 0 0 0 0 0 0 0 0 0 0 43 44 41 41 40 38 38 39 40 39 37 41 40 41 40 40 40 40 41 40 38 38 34 38 36 35 34 33 32 29 29 31 29 29 28 27 27 28 29 29 28 27 28 27 32 30 35 32 35 33 32 29 26 24 19 17 13 14 12 11 12 12 12 11 11 11 9 10 11 11 10 12 13 14 19 17 18 19 17 18 17 18 18 16 18 16 15 16 14 15 13 12 13 11 12 11 12 12 12 13 13 12 14 15 20 23 27 31 31 32 35 35 35 36 35 36 35 37 39 38 38 39 39 46 51 52 54 58 57 58 60 59 60 63 -177 66 66 71 71 -193 -193 65 66 -193 -193 -193 -209 -209 87 89 89 90 94 92 95 93 93 96 101 97 98 97 98 99 102 102 102 -193 107 110 114 115 118 117 119 119 -193 122 123 781 123 -193 127 134 135 -209 -209 -209 -193 -177 -177 -193 141 142 140 140 141 140 140 -193 -193 371 371 371 -193 -193 -193 -209 152 -209 151 -193 19 -209 -193 -193 -193 -193 -193 -193 -209 -193 -193 172 -193 573 -209 -193 -193 -193 -193 666 -193 -193 -193 -193 -193 -193 69 203 210 209 207 208 206 206 0 0 0 0 0
    0 0 0 0 0 0 0 0 0 0 0 0 0 0 0 0 0 0 0 0 0 0 0 0 0 0 0 0 0 0 0 0 0 0 0 0 0 0 0 0 0 0 0 0 0 0 0 0 0 0 0 0 0 0 0 0 0 0 0 0 0 0 0 0 0 0 0 0 0 43 44 41 41 40 38 38 39 40 39 37 41 40 41 40 40 40 40 41 40 39 39 35 38 36 36 35 34 34 31 31 33 30 30 29 28 27 28 29 32 30 30 31 31 36 34 37 35 37 35 35 32 29 27 23 19 16 15 13 12 13 13 13 12 12 12 9 10 11 11 10 12 13 14 19 16 17 19 17 18 17 17 17 16 17 16 15 16 13 14 12 12 12 11 12 11 11 12 12 13 13 12 13 14 20 22 26 30 30 31 35 36 36 37 35 37 36 38 39 39 38 38 38 45 49 51 53 56 56 58 60 59 61 63 65 66 66 70 70 66 67 63 66 69 68 67 -193 -209 87 88 88 89 93 92 95 93 93 95 100 97 98 97 98 99 101 101 102 -193 107 109 113 115 117 116 119 119 -193 122 123 122 124 123 127 133 134 -209 -209 -209 -193 -193 -193 141 141 142 140 140 141 140 140 -209 -193 -193 371 -193 12 -193 -193 -193 152 -193 -193 20 19 -193 -193 -193 -193 -193 -193 -209 -209 -193 170 172 -193 573 -209 -193 -177 -193 -177 666 -193 -193 -193 192 -193 196 -209 203 208 208 206 207 206 206 0 0 0 0 0
    0 0 0 0 0 0 0 0 0 0 0 0 0 0 0 0 0 0 0 0 0 0 0 0 0 0 0 0 0 0 0 0 0 0 0 0 0 0 0 0 0 0 0 0 0 0 0 0 0 0 0 0 0 0 0 0 0 0 0 0 0 0 0 0 0 0 0 0 0 43 43 41 41 39 38 38 39 40 39 38 41 40 41 41 41 40 40 41 41 39 39 36 37 36 37 36 35 35 33 32 35 33 32 30 28 29 29 30 33 31 30 31 31 36 35 38 36 38 36 36 35 31 29 25 21 18 17 14 13 14 14 15 13 14 14 10 12 13 12 11 11 13 14 17 16 17 19 17 19 17 17 17 16 17 16 15 16 13 14 12 12 13 11 12 11 11 12 12 13 13 11 13 15 21 24 27 29 30 31 35 36 37 38 36 37 38 39 41 40 39 39 38 45 49 50 52 55 55 57 59 59 60 62 63 64 65 68 67 62 64 59 64 67 67 66 81 -209 85 87 87 89 92 91 94 93 93 95 100 96 98 97 98 98 101 101 102 104 107 108 112 114 116 115 118 118 117 122 122 122 124 124 127 131 133 -209 -209 -209 -209 -193 139 -193 140 141 140 140 141 140 140 -209 -193 13 -193 12 13 13 -193 -193 152 -193 -193 19 19 -193 -193 -193 -193 -193 -193 -193 -193 -177 170 172 173 573 -209 -209 -177 -193 -193 665 -193 -193 -193 194 193 196 -209 202 207 207 206 207 206 206 0 0 0 0 0
    0 0 0 0 0 0 0 0 0 0 0 0 0 0 0 0 0 0 0 0 0 0 0 0 0 0 0 0 0 0 0 0 0 0 0 0 0 0 0 0 0 0 0 0 0 0 0 0 0 0 0 0 0 0 0 0 0 0 0 0 0 0 0 0 0 0 0 0 0 43 43 41 41 39 38 38 39 40 40 38 41 40 41 41 41 41 41 41 41 40 40 36 37 36 37 37 36 36 35 34 37 35 33 30 28 29 29 30 34 32 31 32 33 35 36 38 36 38 36 36 36 33 31 27 22 20 18 16 14 15 15 16 14 15 15 12 14 14 14 12 11 14 14 16 15 17 19 17 19 17 17 17 17 18 17 15 16 12 14 13 12 13 11 12 11 11 12 12 13 13 11 14 16 23 25 27 29 30 31 35 35 36 38 36 38 38 39 41 41 40 40 39 45 49 50 52 54 54 57 59 59 60 61 61 63 64 66 64 60 61 57 60 63 62 63 77 80 81 84 85 88 91 91 95 93 93 95 100 96 98 97 98 98 101 101 102 104 107 108 111 113 115 114 117 117 116 122 122 122 124 125 128 130 132 134 -193 -209 -209 -209 -193 -193 -193 141 -193 139 140 139 140 -209 -193 17 14 14 15 14 -193 -193 -193 -193 -193 -193 18 -193 -193 -193 -193 -193 -193 -193 -209 170 171 173 173 -193 -193 -193 -193 -193 663 664 -177 -193 195 195 194 196 -209 201 205 206 205 206 205 206 0 0 0 0 0
    0 0 0 0 0 0 0 0 0 0 0 0 0 0 0 0 0 0 0 0 0 0 0 0 0 0 0 0 0 0 0 0 0 0 0 0 0 0 0 0 0 0 0 0 0 0 0 0 0 0 0 0 0 0 0 0 0 0 0 0 0 0 0 0 0 0 0 0 0 42 43 41 40 39 38 38 39 40 40 38 41 40 41 41 41 41 41 41 41 40 40 37 37 37 38 37 36 37 36 34 38 36 33 31 29 31 30 31 35 33 32 33 34 36 37 39 36 38 36 37 36 35 33 29 23 22 19 17 15 17 16 17 15 17 16 13 14 15 14 12 11 14 14 15 15 17 19 18 19 17 17 18 18 18 18 15 15 12 13 12 11 12 10 11 11 11 11 11 12 13 11 14 18 24 26 28 29 31 31 35 35 36 38 37 38 39 39 41 41 41 41 39 45 48 50 51 52 53 57 59 59 60 60 61 63 64 65 62 59 60 56 58 59 58 60 72 73 75 78 80 86 90 90 95 93 93 95 100 96 98 97 98 98 101 101 102 105 107 108 111 112 114 113 116 117 115 122 122 123 125 125 128 130 132 133 -209 -209 -209 -209 -193 -193 -209 -193 -193 -193 140 139 140 -209 -193 -193 -193 16 17 -193 -193 -193 -209 18 17 -193 17 -193 161 -193 -193 -193 -193 -177 169 171 171 174 174 -193 -193 -209 -193 -193 -177 662 -177 -209 196 195 195 196 -193 200 204 205 204 205 205 206 0 0 0 0 0
    0 0 0 0 0 0 0 0 0 0 0 0 0 0 0 0 0 0 0 0 0 0 0 0 0 0 0 0 0 0 0 0 0 0 0 0 0 0 0 0 0 0 0 0 0 0 0 0 0 0 0 0 0 0 0 0 0 0 0 0 0 0 0 0 0 0 0 0 0 42 42 41 40 39 38 38 39 40 40 39 41 40 40 40 41 40 40 40 40 40 40 37 38 37 38 37 37 37 36 34 38 36 33 31 30 32 31 33 37 37 37 37 37 38 38 39 37 38 36 37 36 35 33 30 24 24 21 19 17 18 17 18 15 17 16 14 14 15 14 12 12 15 14 15 17 18 20 19 20 18 18 19 19 18 17 15 15 12 13 11 10 11 10 10 10 10 11 10 11 12 11 16 20 24 26 27 28 30 31 34 35 37 39 38 39 40 41 42 42 42 42 39 44 47 50 49 50 52 57 59 59 60 60 60 62 64 65 61 59 61 57 58 60 59 66 73 74 75 76 78 84 88 89 95 92 93 95 100 96 98 97 98 98 101 101 102 104 107 108 110 112 113 112 115 116 114 122 123 123 125 126 129 130 131 133 -193 -193 -209 -193 -209 -193 -193 -193 -193 -193 140 139 140 -193 -193 -193 -193 -193 -209 -209 -193 -193 -209 -193 -193 -193 -193 -193 161 162 163 -193 -193 167 170 172 172 174 174 175 175 -209 -209 -193 -193 -193 70 -209 196 195 195 195 197 199 202 -193 -193 204 204 205 0 0 0 0 0
    0 0 0 0 0 0 0 0 0 0 0 0 0 0 0 0 0 0 0 0 0 0 0 0 0 0 0 0 0 0 0 0 0 0 0 0 0 0 0 0 0 0 0 0 0 0 0 0 0 0 0 0 0 0 0 0 0 0 0 0 0 0 0 0 0 0 0 0 0 42 42 41 40 39 38 38 39 40 40 38 40 39 40 39 40 40 40 40 40 40 41 39 39 38 39 38 37 37 36 32 36 34 30 30 33 37 36 38 40 40 40 40 40 41 39 40 39 39 38 38 38 36 35 32 24 23 21 19 18 19 18 18 15 18 17 14 15 15 14 13 12 16 15 16 19 18 20 19 20 18 18 19 19 18 18 16 15 12 13 11 10 10 0 9 9 9 10 9 11 11 12 19 21 25 25 27 28 29 29 33 34 37 -193 38 40 41 41 42 42 42 42 38 42 45 49 48 49 52 58 60 59 61 61 60 63 64 65 61 61 65 61 63 68 67 71 75 76 79 81 83 86 89 89 96 92 93 94 100 96 98 97 97 97 101 101 102 104 107 108 110 112 112 111 114 115 113 122 123 124 126 127 129 130 131 132 133 -193 -209 -209 -209 -193 196 -193 -193 -193 140 139 141 -193 146 151 151 152 153 -193 154 154 153 155 156 157 160 160 162 163 164 167 -193 168 171 173 172 175 175 176 175 -209 -209 -193 -177 -193 70 -193 196 195 194 195 196 198 -193 93 92 -193 -193 -193 0 0 0 0 0
    0 0 0 0 0 0 0 0 0 0 0 0 0 0 0 0 0 0 0 0 0 0 0 0 0 0 0 0 0 0 0 0 0 0 0 0 0 0 0 0 0 0 0 0 0 0 0 0 0 0 0 0 0 0 0 0 0 0 0 0 0 0 0 0 0 0 0 0 0 43 42 41 41 38 38 38 38 39 40 38 39 39 39 39 40 40 40 40 40 41 42 41 40 40 40 39 38 38 37 31 35 32 27 32 35 40 38 39 43 42 42 43 42 42 41 41 41 40 40 40 39 38 38 36 27 26 22 21 20 20 19 19 16 19 17 15 16 16 15 15 14 17 15 16 20 19 20 20 20 18 18 19 19 18 18 17 16 13 13 12 11 9 0 0 9 9 9 9 9 10 13 18 20 24 24 25 26 27 27 30 31 37 -193 39 40 41 42 43 43 42 42 38 42 43 48 48 49 54 60 61 60 62 61 61 63 65 65 61 61 64 62 62 68 66 70 74 76 81 84 86 88 90 90 97 93 93 94 99 96 98 97 97 96 101 101 102 103 106 107 109 112 112 111 114 116 114 122 124 124 127 128 129 129 131 131 131 134 -209 -209 -209 -209 -193 -193 -193 138 140 139 141 -193 147 152 152 153 153 153 154 155 154 155 157 158 162 162 163 164 165 167 -193 169 172 173 173 175 175 177 176 -193 -209 -193 -209 -193 71 197 196 195 195 194 196 197 93 94 92 92 92 94 0 0 0 0 0
    0 0 0 0 0 0 0 0 0 0 0 0 0 0 0 0 0 0 0 0 0 0 0 0 0 0 0 0 0 0 0 0 0 0 0 0 0 0 0 0 0 0 0 0 0 0 0 0 0 0 0 0 0 0 0 0 0 0 0 0 0 0 0 0 0 0 0 0 0 43 43 41 41 39 39 38 39 39 40 39 39 38 39 39 40 40 40 40 41 41 43 41 41 40 40 39 39 39 38 31 35 32 28 34 35 40 40 40 43 42 43 43 42 42 41 42 43 41 41 41 40 40 38 37 31 28 23 22 21 21 18 18 16 18 17 15 15 16 15 16 15 18 15 15 20 18 19 19 19 17 17 19 19 16 17 16 14 12 13 12 12 10 10 10 10 11 11 11 10 9 17 17 19 23 23 24 25 26 27 29 30 38 -193 39 41 42 42 43 43 42 42 39 42 43 48 50 51 54 60 60 60 61 61 61 62 65 65 60 61 63 61 61 67 65 68 71 73 78 83 86 87 89 89 97 93 93 93 99 95 98 97 97 96 101 101 102 103 106 108 109 111 112 111 114 115 113 121 123 124 128 128 129 129 130 131 130 132 133 -193 134 132 -193 137 137 137 139 139 141 -193 148 152 152 152 153 153 154 155 154 156 159 158 164 163 164 165 166 168 169 170 173 174 174 176 176 177 177 -193 -209 -193 -209 -193 -193 197 195 195 195 195 196 198 94 94 92 92 -193 -193 0 0 0 0 0
    0 0 0 0 0 0 0 0 0 0 0 0 0 0 0 0 0 0 0 0 0 0 0 0 0 0 0 0 0 0 0 0 0 0 0 0 0 0 0 0 0 0 0 0 0 0 0 0 0 0 0 0 0 0 0 0 0 0 0 0 0 0 0 0 0 0 0 0 0 43 43 41 41 39 39 39 39 40 40 39 39 39 39 39 40 40 40 40 41 41 44 42 41 40 40 40 40 39 39 33 36 35 33 37 38 41 41 42 45 44 44 44 43 43 42 43 43 42 41 40 39 39 38 36 32 30 25 24 22 21 18 18 17 18 16 15 15 15 13 16 15 18 16 18 20 19 20 19 19 18 17 19 19 17 18 16 14 13 13 11 11 10 10 10 10 11 11 11 10 9 16 15 18 21 23 24 25 27 28 29 30 37 41 39 41 41 42 42 43 42 42 39 42 43 49 51 53 55 61 60 60 61 61 60 62 64 63 58 59 60 59 59 66 65 68 69 72 77 83 86 87 89 89 97 93 93 93 99 95 98 97 97 96 100 101 102 103 106 108 109 111 111 110 112 113 111 119 122 124 129 129 129 129 131 132 131 132 133 127 134 132 137 133 135 136 138 138 140 -193 148 152 153 153 153 153 154 155 154 156 160 158 164 164 165 166 167 169 170 170 174 175 174 177 176 178 177 179 -209 -193 -193 -193 -193 196 194 195 196 195 197 198 -193 94 92 -193 -193 -193 0 0 0 0 0
    0 0 0 0 0 0 0 0 0 0 0 0 0 0 0 0 0 0 0 0 0 0 0 0 0 0 0 0 0 0 0 0 0 0 0 0 0 0 0 0 0 0 0 0 0 0 0 0 0 0 0 0 0 0 0 0 0 0 0 0 0 0 0 0 0 0 0 0 0 43 43 42 42 40 39 38 39 40 40 39 39 39 39 39 41 40 40 40 41 41 43 42 41 41 41 40 40 40 39 34 36 35 35 38 39 41 41 43 46 45 45 45 44 43 43 43 43 42 40 40 38 38 37 35 34 31 25 25 22 21 18 18 17 18 16 16 16 16 14 17 16 19 17 19 20 19 20 19 19 18 17 19 18 17 18 16 15 14 14 11 11 9 11 10 10 11 10 10 10 9 16 14 16 20 22 23 24 27 28 29 29 37 42 39 40 41 41 42 43 42 43 40 42 45 50 53 54 56 61 60 60 60 60 60 61 62 62 57 58 58 58 58 63 64 69 72 73 77 84 88 88 88 88 98 93 93 93 99 95 98 97 97 95 100 101 102 102 106 107 109 111 112 110 111 112 110 117 121 122 128 129 129 130 132 133 133 133 135 130 135 134 137 130 133 135 138 138 141 -193 150 153 154 154 154 154 155 156 155 158 161 159 164 164 165 166 167 170 171 171 175 175 175 177 177 178 178 180 182 -209 -209 188 190 196 194 195 196 196 198 198 -193 95 93 -193 -193 -193 0 0 0 0 0
    0 0 0 0 0 0 0 0 0 0 0 0 0 0 0 0 0 0 0 0 0 0 0 0 0 0 0 0 0 0 0 0 0 0 0 0 0 0 0 0 0 0 0 0 0 0 0 0 0 0 0 0 0 0 0 0 0 0 0 0 0 0 0 0 0 0 0 0 0 43 43 42 42 40 39 38 38 40 40 39 39 38 39 39 40 40 39 39 40 40 43 41 42 40 40 40 40 40 39 35 36 35 36 38 39 41 41 42 47 45 45 45 44 43 43 42 42 41 40 39 38 37 37 35 35 32 26 26 23 21 19 18 18 18 16 17 16 17 15 19 18 20 19 20 21 19 20 19 18 18 17 19 18 16 18 15 14 15 14 11 11 9 11 10 10 11 11 10 10 9 16 15 16 20 21 22 24 26 29 29 29 37 40 38 40 40 40 41 42 42 42 40 42 45 50 53 55 57 61 60 60 61 61 60 61 63 63 58 58 59 61 60 64 65 70 72 73 77 83 87 87 88 88 98 93 93 94 98 95 98 98 97 95 100 101 101 101 106 107 108 111 112 110 111 111 110 115 120 122 127 129 129 131 133 134 135 134 136 136 138 138 139 -193 137 138 140 141 143 151 150 152 155 155 155 156 156 158 157 160 162 159 165 164 165 167 168 170 171 171 175 175 175 177 177 179 179 180 182 -209 -209 189 190 196 194 195 196 196 198 199 200 -193 93 202 202 -193 0 0 0 0 0
    0 0 0 0 0 0 0 0 0 0 0 0 0 0 0 0 0 0 0 0 0 0 0 0 0 0 0 0 0 0 0 0 0 0 0 0 0 0 0 0 0 0 0 0 0 0 0 0 0 0 0 0 0 0 0 0 0 0 0 0 0 0 0 0 0 0 0 0 0 43 44 42 43 40 39 38 38 40 40 39 39 38 39 39 40 40 39 39 40 40 43 42 42 41 40 40 40 40 40 36 36 36 37 39 39 41 41 42 46 45 45 45 44 44 43 43 43 41 40 40 38 37 37 35 35 33 27 27 24 22 19 19 18 18 17 18 18 19 16 21 21 22 21 21 21 19 20 19 18 17 17 18 18 15 16 14 14 14 14 11 11 9 12 10 10 11 11 10 10 9 16 14 16 19 21 22 23 26 29 29 29 36 40 37 39 39 39 40 41 41 41 40 42 44 49 53 54 57 61 61 61 62 62 61 62 64 65 59 60 60 62 60 67 67 71 73 73 76 83 86 87 88 88 97 93 93 93 98 94 98 98 97 95 99 100 101 100 105 106 108 111 112 110 111 111 111 114 118 120 126 128 129 131 134 135 136 135 137 138 139 142 141 139 140 141 142 146 146 152 151 153 156 156 156 157 157 158 159 162 163 159 165 165 166 168 169 170 172 172 175 175 175 178 177 179 179 180 182 -209 186 189 190 196 194 195 197 197 198 199 200 -193 -193 202 202 -193 0 0 0 0 0
    0 0 0 0 0 0 0 0 0 0 0 0 0 0 0 0 0 0 0 0 0 0 0 0 0 0 0 0 0 0 0 0 0 0 0 0 0 0 0 0 0 0 0 0 0 0 0 0 0 0 0 0 0 0 0 0 0 0 0 0 0 0 0 0 0 0 0 0 0 44 44 43 43 41 39 38 39 41 41 40 40 38 40 40 40 41 40 40 40 40 43 42 42 41 41 41 41 41 41 37 37 37 38 39 39 40 41 41 45 44 44 44 43 43 43 42 42 41 40 40 38 37 37 35 35 34 29 28 25 23 20 19 19 19 18 19 19 20 18 22 22 23 22 21 21 19 20 19 18 18 16 18 17 14 16 14 15 14 14 13 13 10 13 12 11 12 12 11 11 9 16 14 17 19 21 21 23 25 28 29 29 35 39 36 38 38 38 39 40 40 41 40 42 44 48 53 55 58 61 62 62 63 63 62 62 64 64 60 59 59 61 59 66 67 71 73 73 77 83 87 87 88 88 96 93 93 93 98 94 98 98 97 95 99 100 101 99 105 106 108 112 112 111 111 111 111 114 118 120 126 127 129 132 134 135 136 135 137 139 140 143 143 141 142 145 146 150 150 153 152 154 159 157 158 158 157 159 161 163 163 159 165 165 166 169 169 170 172 172 176 175 175 178 178 180 180 181 183 -209 187 189 190 195 193 195 197 197 198 199 200 201 -193 202 202 -193 0 0 0 0 0
    0 0 0 0 0 0 0 0 0 0 0 0 0 0 0 0 0 0 0 0 0 0 0 0 0 0 0 0 0 0 0 0 0 0 0 0 0 0 0 0 0 0 0 0 0 0 0 0 0 0 0 0 0 0 0 0 0 0 0 0 0 0 0 0 0 0 0 0 0 43 44 42 43 41 39 38 39 41 41 40 40 38 40 40 41 41 40 40 41 41 43 42 42 42 41 41 41 41 41 37 38 37 37 39 39 39 40 41 42 42 42 42 42 42 43 42 42 42 40 40 38 37 37 35 35 34 30 29 26 24 21 19 20 20 19 20 21 20 19 23 23 23 22 22 21 19 19 18 17 17 15 17 16 14 17 14 15 16 16 15 13 11 15 13 11 12 12 12 11 10 17 14 17 19 21 21 23 25 28 29 29 35 39 35 37 37 38 39 40 40 41 40 43 45 49 54 55 59 62 63 63 64 64 63 62 63 63 60 59 60 60 60 64 67 70 71 72 76 83 87 88 88 89 96 93 93 93 98 95 99 99 98 96 100 101 101 100 105 106 107 112 112 111 111 111 112 115 118 120 125 127 129 132 134 135 136 135 137 138 139 142 142 140 142 145 147 150 150 153 152 153 159 157 158 159 158 160 163 164 164 161 165 165 166 169 170 170 172 172 176 176 175 179 179 180 181 181 183 185 187 190 191 195 194 195 197 197 198 200 200 201 201 202 203 204 0 0 0 0 0
    0 0 0 0 0 0 0 0 0 0 0 0 0 0 0 0 0 0 0 0 0 0 0 0 0 0 0 0 0 0 0 0 0 0 0 0 0 0 0 0 0 0 0 0 0 0 0 0 0 0 0 0 0 0 0 0 0 0 0 0 0 0 0 0 0 0 0 0 0 42 43 42 42 41 40 39 40 41 41 39 40 38 40 40 40 41 39 40 40 40 43 41 41 41 41 41 41 41 41 37 39 38 38 39 38 37 37 40 40 41 41 42 42 42 43 42 41 42 40 40 38 37 37 34 35 35 31 30 27 25 21 20 21 21 20 22 22 22 20 24 24 24 23 22 21 19 20 18 17 17 16 17 16 14 16 13 14 15 16 16 13 11 19 15 13 14 13 12 11 10 17 14 16 19 20 22 23 25 28 30 31 36 39 36 38 38 38 40 41 41 42 41 44 46 50 55 56 59 62 64 63 64 65 63 62 62 64 61 60 61 61 61 66 68 71 71 72 74 81 87 88 89 89 96 93 94 94 98 95 98 99 99 96 100 101 101 100 105 106 106 111 112 112 113 113 114 116 118 120 125 127 128 131 134 135 136 135 137 138 139 141 142 140 141 143 145 149 149 151 151 152 157 157 158 159 158 161 164 165 165 162 165 166 166 169 170 170 172 173 176 177 177 180 180 181 181 181 183 186 187 192 192 196 194 196 197 198 199 200 201 202 201 203 204 205 0 0 0 0 0
    0 0 0 0 0 0 0 0 0 0 0 0 0 0 0 0 0 0 0 0 0 0 0 0 0 0 0 0 0 0 0 0 0 0 0 0 0 0 0 0 0 0 0 0 0 0 0 0 0 0 0 0 0 0 0 0 0 0 0 0 0 0 0 0 0 0 0 0 0 42 42 41 42 40 39 39 40 42 42 40 41 40 41 41 40 41 39 40 40 40 42 41 41 40 40 41 41 41 41 38 39 38 39 39 38 34 34 39 38 40 41 40 41 41 42 41 41 42 40 40 39 37 37 34 35 35 30 29 26 23 19 20 21 21 20 23 23 23 23 26 25 24 24 24 21 19 20 19 18 18 16 17 15 15 16 12 13 13 15 10 12 12 19 15 14 15 14 12 12 11 18 15 18 19 20 22 23 26 29 32 33 37 40 37 38 38 39 40 41 42 43 42 45 48 50 55 55 59 61 63 63 64 65 63 63 62 64 62 61 63 62 63 68 69 71 72 72 74 80 86 88 89 89 96 94 94 94 98 95 98 99 99 96 100 101 101 99 105 106 106 111 111 111 112 112 113 115 117 118 124 126 128 131 134 135 136 135 137 138 138 140 141 139 141 144 146 150 149 151 150 152 157 156 158 159 158 160 164 164 165 163 165 166 167 169 171 171 173 173 176 179 177 180 181 182 182 182 183 187 188 193 194 196 195 196 198 198 199 201 201 203 203 204 205 207 0 0 0 0 0
    0 0 0 0 0 0 0 0 0 0 0 0 0 0 0 0 0 0 0 0 0 0 0 0 0 0 0 0 0 0 0 0 0 0 0 0 0 0 0 0 0 0 0 0 0 0 0 0 0 0 0 0 0 0 0 0 0 0 0 0 0 0 0 0 0 0 0 0 0 41 42 41 41 40 39 38 40 41 41 40 41 40 41 41 41 41 39 40 40 40 42 41 41 40 40 41 41 41 41 39 39 38 39 39 39 33 32 39 38 41 41 41 41 41 43 41 41 42 40 40 39 38 37 34 36 36 32 30 27 22 21 22 23 24 24 28 28 27 28 29 28 26 27 26 20 20 21 18 18 18 18 17 14 17 18 -177 -177 42 45 -193 11 0 17 10 -193 -193 -209 -209 10 10 16 15 19 21 22 23 25 28 32 34 35 37 40 37 39 38 39 40 42 42 43 43 45 48 50 55 55 58 61 63 62 64 64 63 63 62 65 63 62 65 65 66 70 71 73 73 73 74 80 86 89 89 90 97 94 94 95 99 96 97 99 98 96 100 100 101 97 104 104 105 110 110 110 110 111 114 116 117 117 122 127 130 133 135 135 136 135 137 138 137 139 141 138 141 145 147 151 150 151 150 152 157 156 158 159 157 160 163 164 164 161 164 165 166 168 170 170 172 173 177 180 179 181 182 183 182 182 184 190 189 196 196 197 197 197 198 199 199 201 201 203 202 203 205 207 0 0 0 0 0
    0 0 0 0 0 0 0 0 0 0 0 0 0 0 0 0 0 0 0 0 0 0 0 0 0 0 0 0 0 0 0 0 0 0 0 0 0 0 0 0 0 0 0 0 0 0 0 0 0 0 0 0 0 0 0 0 0 0 0 0 0 0 0 0 0 0 0 0 0 42 43 42 42 41 40 39 40 41 41 40 41 40 41 42 41 42 40 40 40 40 42 41 41 41 40 41 41 41 41 39 39 38 39 39 39 33 30 39 38 40 40 40 40 41 43 41 41 42 40 41 40 39 38 36 37 37 34 33 28 26 37 40 41 40 39 39 37 37 37 35 33 30 29 -225 -225 -225 -225 16 16 16 16 15 13 14 15 12 26 -225 -225 -225 -225 -225 -225 -225 -225 -225 -225 -225 0 0 15 -193 -193 24 25 29 29 33 36 37 36 38 39 38 39 39 39 41 42 43 44 44 46 48 50 54 55 58 61 63 62 63 64 62 62 62 65 63 63 66 67 67 71 73 74 74 75 75 81 85 88 89 89 96 94 94 95 99 96 97 99 98 96 100 100 100 96 103 103 103 109 110 110 110 112 114 115 115 114 -209 -209 124 131 136 133 136 135 137 -193 126 -193 139 136 141 143 147 152 151 151 151 152 157 156 158 159 157 159 163 163 164 161 163 164 165 168 169 169 171 173 177 181 180 182 182 183 183 182 185 191 190 197 196 198 197 198 198 199 198 201 201 202 202 203 205 209 0 0 0 0 0
    0 0 0 0 0 0 0 0 0 0 0 0 0 0 0 0 0 0 0 0 0 0 0 0 0 0 0 0 0 0 0 0 0 0 0 0 0 0 0 0 0 0 0 0 0 0 0 0 0 0 0 0 0 0 0 0 0 0 0 0 0 0 0 0 0 0 0 0 0 43 43 42 43 42 41 40 41 41 41 40 41 40 42 43 42 42 40 40 40 40 42 41 41 40 40 41 41 41 42 39 40 39 41 41 41 34 32 38 37 40 39 40 40 40 42 41 42 42 42 43 42 41 40 38 40 39 38 36 30 33 47 52 51 47 44 42 39 40 39 37 35 32 -225 -225 -225 -225 -225 -225 -225 -225 -225 -225 -225 -225 -225 -225 -225 -225 -225 -225 -225 -225 -225 -225 -225 -225 -225 -225 -225 -225 -225 -225 -225 -225 36 38 37 37 37 38 37 37 39 38 39 39 40 42 43 44 45 45 47 48 51 55 -193 58 61 63 62 63 64 63 62 62 64 63 63 66 67 67 71 73 74 74 76 77 81 85 87 88 89 95 93 93 94 99 95 96 99 98 96 100 100 100 95 103 103 101 108 110 109 109 112 113 114 115 114 -193 -209 -193 124 -209 -193 -209 -209 -193 105 -193 131 -193 135 139 139 141 149 149 149 149 151 158 156 158 160 158 159 163 163 163 161 164 164 164 167 168 169 171 172 177 181 180 181 182 183 182 182 185 194 190 198 197 198 198 198 198 199 197 200 200 202 202 203 205 212 0 0 0 0 0
    0 0 0 0 0 0 0 0 0 0 0 0 0 0 0 0 0 0 0 0 0 0 0 0 0 0 0 0 0 0 0 0 0 0 0 0 0 0 0 0 0 0 0 0 0 0 0 0 0 0 0 0 0 0 0 0 0 0 0 0 0 0 0 0 0 0 0 0 0 43 43 42 43 42 41 41 42 42 41 41 42 41 42 44 42 43 40 40 40 40 42 41 41 41 40 41 42 41 42 40 41 41 41 41 41 36 35 39 37 39 39 39 40 40 43 42 42 43 44 45 44 43 42 41 42 41 41 37 36 42 54 51 50 48 45 43 41 41 40 38 36 32 -225 -225 -225 -225 -225 -225 -225 -225 -225 -225 -225 -225 -225 -225 -225 -225 -225 -225 -225 -225 -225 -225 -225 -225 -225 -225 -225 -225 -225 -225 -225 -225 -225 39 39 37 37 38 37 37 39 38 40 40 41 43 44 44 47 46 49 49 51 55 55 58 60 62 62 63 64 63 62 62 65 63 63 66 67 68 71 73 75 75 77 78 82 85 88 89 89 95 93 93 94 99 96 96 99 98 95 99 100 100 95 102 102 101 107 109 108 109 111 112 113 113 112 -209 -209 -193 123 -209 -193 -209 -193 -193 108 -193 -209 -209 128 -193 -193 138 142 147 148 148 151 157 156 158 160 158 159 162 162 163 161 163 164 164 166 168 168 171 172 178 182 180 182 182 183 182 182 185 194 190 197 197 198 198 198 199 199 195 200 200 202 202 202 204 211 0 0 0 0 0
    0 0 0 0 0 0 0 0 0 0 0 0 0 0 0 0 0 0 0 0 0 0 0 0 0 0 0 0 0 0 0 0 0 0 0 0 0 0 0 0 0 0 0 0 0 0 0 0 0 0 0 0 0 0 0 0 0 0 0 0 0 0 0 0 0 0 0 0 0 43 43 42 43 42 41 41 42 42 42 43 44 44 45 47 44 44 41 40 41 41 42 41 41 41 41 42 43 42 42 41 42 42 41 42 41 35 35 39 36 39 38 39 39 40 42 42 42 44 45 46 44 43 43 41 42 40 40 39 39 47 54 52 51 49 46 44 42 42 42 39 37 -225 -225 -225 -225 -225 -225 -225 -225 -225 -225 -225 -225 -225 -225 -225 -225 -225 -225 -225 -225 -225 -225 -225 -225 -225 -225 -225 -225 -225 -225 -225 -225 -225 -225 40 39 38 37 39 39 39 40 39 41 41 42 44 45 45 47 47 50 50 52 55 56 58 61 62 61 62 63 62 62 61 64 63 64 67 68 69 72 74 76 76 79 79 83 85 87 88 89 94 93 93 94 99 96 96 99 98 95 99 100 99 94 101 101 100 106 108 107 107 110 112 112 113 112 -193 114 119 -193 -209 115 -209 -209 -193 -209 -193 -209 135 131 -193 133 135 138 139 143 144 151 156 156 159 162 159 159 162 162 163 162 162 163 163 165 167 168 170 171 177 182 181 182 183 183 181 181 184 192 189 196 196 197 197 197 198 198 193 198 197 201 200 201 201 204 0 0 0 0 0
    0 0 0 0 0 0 0 0 0 0 0 0 0 0 0 0 0 0 0 0 0 0 0 0 0 0 0 0 0 0 0 0 0 0 0 0 0 0 0 0 0 0 0 0 0 0 0 0 0 0 0 0 0 0 0 0 0 0 0 0 0 0 0 0 0 0 0 0 0 44 44 43 43 42 41 41 42 42 43 45 47 47 48 50 48 47 44 42 42 41 42 41 40 40 41 42 43 42 42 41 42 42 42 43 41 36 37 40 37 39 39 40 40 41 44 44 45 47 48 49 47 47 45 43 44 43 44 43 48 56 56 54 53 51 48 45 44 44 43 41 -225 -225 -225 -225 -225 -225 -225 -225 -225 -225 -225 -225 -225 -225 -225 -225 -225 -225 -225 -225 -225 -225 -225 -225 -225 -225 -225 -225 -225 -225 -225 -225 -225 -225 -225 42 40 39 38 39 40 40 41 40 42 42 43 45 46 46 48 48 50 50 52 55 56 58 60 61 61 62 63 62 62 61 64 63 64 68 69 71 73 75 78 77 80 80 83 85 87 88 88 93 92 93 94 99 96 96 98 98 95 98 99 99 94 100 101 99 105 107 105 106 110 112 113 113 112 -209 -193 -193 -209 -209 -209 -209 -209 -193 103 -209 -209 -209 126 134 129 126 132 126 128 132 -209 -193 -193 160 163 162 160 162 162 163 163 163 163 163 163 167 169 170 169 175 181 180 180 181 181 176 180 184 190 187 194 195 196 197 197 197 198 192 197 197 200 200 200 201 203 0 0 0 0 0
    0 0 0 0 0 0 0 0 0 0 0 0 0 0 0 0 0 0 0 0 0 0 0 0 0 0 0 0 0 0 0 0 0 0 0 0 0 0 0 0 0 0 0 0 0 0 0 0 0 0 0 0 0 0 0 0 0 0 0 0 0 0 0 0 0 0 0 0 0 45 44 43 43 42 42 41 42 43 44 46 48 49 50 52 50 50 48 46 44 43 42 39 39 39 41 43 44 43 42 43 44 45 44 44 42 38 40 42 37 40 39 42 41 44 46 47 47 50 51 50 49 48 46 46 50 49 51 49 55 56 56 54 53 51 49 47 46 46 45 -225 -225 -225 -225 -225 -225 -225 -225 -225 -225 -225 -225 -225 -225 -225 -225 -225 -225 -225 -225 -225 -225 -225 -225 -225 -225 -225 -225 -225 -225 -225 -225 -225 -225 -225 -225 43 41 39 38 40 40 40 41 41 43 43 44 46 47 46 49 48 50 50 52 55 55 57 60 60 60 61 62 61 62 61 64 63 64 68 69 71 74 75 79 78 81 81 83 85 86 87 88 92 92 92 94 99 95 95 98 97 94 97 99 98 93 99 100 98 104 107 105 105 109 112 113 114 113 113 116 117 -193 -209 -209 -209 -209 -209 -209 -209 -209 -193 126 134 128 124 126 121 122 128 -209 -193 -193 159 160 163 159 159 160 161 161 161 160 161 158 166 169 170 170 173 179 177 176 178 177 174 178 183 187 186 190 191 193 195 195 197 198 191 196 197 200 199 199 201 202 0 0 0 0 0
    0 0 0 0 0 0 0 0 0 0 0 0 0 0 0 0 0 0 0 0 0 0 0 0 0 0 0 0 0 0 0 0 0 0 0 0 0 0 0 0 0 0 0 0 0 0 0 0 0 0 0 0 0 0 0 0 0 0 0 0 0 0 0 0 0 0 0 0 0 46 46 44 44 43 42 42 43 44 45 48 50 51 52 53 52 52 51 50 48 46 44 42 41 41 44 49 47 47 45 45 46 48 45 45 42 40 -193 44 34 37 38 44 46 48 51 53 52 54 54 53 52 51 51 53 53 53 55 55 55 55 55 54 52 51 51 49 48 48 47 -225 -225 -225 -225 -225 -225 -225 -225 -225 -225 -225 -225 -225 -225 -225 -225 -225 -225 -225 -225 -225 -225 -225 -225 -225 -225 -225 -225 -225 -225 -225 -225 -225 -225 -225 -225 42 41 39 39 40 40 40 40 40 43 43 44 46 47 46 49 48 50 49 52 54 55 56 59 60 60 61 61 61 61 61 63 62 63 67 69 71 74 75 79 79 82 82 84 84 86 87 88 91 92 92 93 98 95 95 98 97 94 97 98 98 93 99 99 96 102 105 102 104 107 109 112 113 111 111 115 116 119 -193 -193 -209 -209 -209 -209 131 134 124 127 -209 124 -193 118 117 118 -209 -209 -193 -209 161 160 162 158 158 158 160 159 159 158 157 154 162 168 169 169 170 173 171 171 172 172 171 175 181 183 183 186 186 187 192 193 196 197 189 194 196 198 198 195 198 200 0 0 0 0 0
    0 0 0 0 0 0 0 0 0 0 0 0 0 0 0 0 0 0 0 0 0 0 0 0 0 0 0 0 0 0 0 0 0 0 0 0 0 0 0 0 0 0 0 0 0 0 0 0 0 0 0 0 0 0 0 0 0 0 0 0 0 0 0 0 0 0 0 0 0 48 47 45 46 44 44 43 44 45 47 50 52 52 52 52 51 51 51 51 48 47 45 44 43 45 48 51 48 48 45 46 46 47 45 44 41 39 -193 -209 -209 43 -209 47 50 51 53 53 50 52 50 48 47 50 52 52 53 56 57 57 57 57 57 54 52 52 52 50 49 49 -225 -225 -225 -225 -225 -225 -225 -225 -225 -225 -225 -225 -225 -225 -225 -225 -225 -225 -225 -225 -225 -225 -225 -225 -225 -225 -225 -225 -225 -225 -225 -225 -225 -225 -225 -225 -225 41 41 39 39 40 40 40 39 39 43 43 44 46 47 47 49 49 50 49 52 54 55 56 58 60 60 60 61 61 61 61 63 62 63 67 69 -193 74 76 80 80 82 82 84 84 85 86 87 90 91 91 93 98 95 96 98 97 95 98 99 99 94 99 100 97 102 104 100 102 106 109 112 112 109 111 115 117 120 117 118 -193 -193 127 128 130 134 126 128 131 124 121 -209 115 -209 108 -209 -209 -209 -209 161 162 158 158 158 159 159 159 158 157 155 163 166 167 166 166 168 167 168 169 169 169 172 175 177 178 181 181 183 188 189 193 193 186 187 189 192 191 187 191 196 0 0 0 0 0
    0 0 0 0 0 0 0 0 0 0 0 0 0 0 0 0 0 0 0 0 0 0 0 0 0 0 0 0 0 0 0 0 0 0 0 0 0 0 0 0 0 0 0 0 0 0 0 0 0 0 0 0 0 0 0 0 0 0 0 0 0 0 0 0 0 0 0 0 0 50 49 47 48 46 46 46 46 47 48 51 52 51 51 52 51 50 51 51 49 48 47 46 45 51 52 53 49 48 45 45 46 46 44 44 -193 37 -193 52 -193 50 -209 50 53 54 55 55 54 56 56 53 53 54 55 55 55 56 57 57 57 57 57 53 53 53 52 51 48 -225 -225 -225 -225 -225 -225 -225 -225 -225 -225 -225 -225 -225 -225 -225 -225 -225 -225 -225 -225 -225 -225 -225 -225 -225 -225 -225 -225 -225 -225 -225 -225 -225 -225 -225 -225 -225 -225 -225 40 39 39 42 41 41 40 41 44 43 45 46 47 46 49 49 50 49 52 54 55 55 58 59 60 60 61 61 61 61 62 62 62 66 69 -193 -193 75 79 79 81 82 83 84 85 85 87 89 91 91 92 97 95 96 99 98 96 98 100 99 95 100 100 97 101 103 99 101 106 110 114 114 110 111 115 116 119 116 117 -193 119 123 124 125 129 -193 125 124 122 -209 -209 -209 -209 -209 -209 -209 -209 -209 161 162 159 159 159 161 161 161 159 159 157 165 168 167 166 166 168 168 169 170 171 170 173 174 175 177 178 176 179 184 185 187 185 184 185 185 187 187 185 187 187 0 0 0 0 0
    0 0 0 0 0 0 0 0 0 0 0 0 0 0 0 0 0 0 0 0 0 0 0 0 0 0 0 0 0 0 0 0 0 0 0 0 0 0 0 0 0 0 0 0 0 0 0 0 0 0 0 0 0 0 0 0 0 0 0 0 0 0 0 0 0 0 0 0 0 50 50 48 48 47 46 47 47 48 49 51 51 51 51 52 50 51 51 53 51 51 51 51 48 53 53 53 49 48 45 45 46 46 44 44 -209 37 -193 49 -193 44 -209 48 49 52 54 54 53 56 56 56 55 56 57 57 56 56 57 58 57 57 57 54 53 53 53 50 -225 -225 -225 -225 -225 -225 -225 -225 -225 -225 -225 -225 -225 -225 -225 -225 -225 -225 -225 -225 -225 -225 -225 -225 -225 -225 -225 -225 -225 -225 -225 -225 -225 -225 -225 -225 -225 -225 -225 -225 -225 38 39 43 43 42 41 41 45 44 46 46 47 45 48 48 50 49 52 53 55 55 57 59 60 60 60 61 61 61 62 62 62 66 68 -193 -193 75 78 79 80 81 83 83 84 85 87 89 91 91 92 97 96 97 100 99 97 99 100 100 96 100 101 98 102 103 99 102 105 109 114 110 108 109 112 115 117 115 117 121 122 125 127 128 131 126 130 132 131 -209 -209 -209 -209 -209 -209 -209 -209 -209 159 161 159 159 160 162 162 161 160 162 163 167 170 168 168 168 169 170 170 171 172 172 175 176 177 178 180 179 179 182 183 184 183 182 182 183 184 185 183 185 184 0 0 0 0 0
    0 0 0 0 0 0 0 0 0 0 0 0 0 0 0 0 0 0 0 0 0 0 0 0 0 0 0 0 0 0 0 0 0 0 0 0 0 0 0 0 0 0 0 0 0 0 0 0 0 0 0 0 0 0 0 0 0 0 0 0 0 0 0 0 0 0 0 0 0 50 49 47 46 45 46 47 47 49 50 52 52 51 52 52 51 52 52 54 51 53 53 53 52 56 54 55 51 50 46 46 47 48 46 46 -209 -209 42 48 -193 43 -209 46 45 50 54 54 54 57 58 57 56 57 58 57 57 57 58 57 57 57 57 55 54 55 55 -225 -225 -225 -225 -225 -225 -225 -225 -225 -225 -225 -225 -225 -225 -225 -225 -225 -225 -225 -225 -225 -225 -225 -225 -225 -225 -225 -225 -225 -225 -225 -225 -225 -225 -225 -225 -225 -225 -225 -225 -225 -225 -225 -225 46 48 46 44 43 46 46 46 45 44 43 45 45 46 47 50 52 53 54 56 58 59 59 60 60 61 61 62 62 62 66 68 72 -193 75 77 78 80 81 83 83 84 85 87 90 92 92 93 98 98 99 101 100 98 100 102 101 99 101 102 100 104 105 103 105 106 110 114 111 109 110 115 115 117 116 118 121 123 125 127 128 130 127 131 133 134 -209 -209 -209 -209 -209 -193 -193 -209 -193 157 160 158 159 160 162 162 161 160 163 164 168 170 166 167 167 169 171 171 172 174 176 179 179 179 180 182 181 180 182 181 182 181 178 180 182 183 183 181 182 181 0 0 0 0 0
    0 0 0 0 0 0 0 0 0 0 0 0 0 0 0 0 0 0 0 0 0 0 0 0 0 0 0 0 0 0 0 0 0 0 0 0 0 0 0 0 0 0 0 0 0 0 0 0 0 0 0 0 0 0 0 0 0 0 0 0 0 0 0 0 0 0 0 0 0 49 49 47 46 46 48 50 51 52 52 54 53 53 53 53 52 53 53 54 52 54 53 54 52 57 55 56 52 52 48 49 50 50 48 48 -209 -209 46 52 42 50 -209 50 49 51 56 55 57 59 59 58 57 58 58 58 58 57 58 57 57 57 57 55 54 -225 -225 -225 -225 -225 -225 -225 -225 -225 -225 -225 -225 -225 -225 -225 -225 -225 -225 -225 -225 -225 -225 -225 -225 -225 -225 -225 -225 -225 -225 -225 -225 -225 -225 -225 -225 -225 -225 -225 -225 -225 -225 -225 -225 -225 -225 -225 -225 -225 -225 -225 -225 46 45 44 42 42 42 42 42 45 48 51 53 54 56 57 59 59 59 60 60 60 61 61 61 65 67 71 73 75 77 78 80 80 83 82 83 84 86 90 92 92 94 98 99 101 102 101 100 101 102 102 100 102 102 100 105 106 105 106 107 110 114 110 109 109 111 111 113 112 115 119 121 123 125 125 128 127 131 133 134 137 135 -209 -209 -209 -193 -209 -209 -209 156 159 158 159 161 162 162 162 161 163 165 168 169 166 167 167 169 171 171 174 175 178 181 181 182 182 184 183 182 184 185 -193 181 175 178 -193 186 187 181 183 182 0 0 0 0 0
    0 0 0 0 0 0 0 0 0 0 0 0 0 0 0 0 0 0 0 0 0 0 0 0 0 0 0 0 0 0 0 0 0 0 0 0 0 0 0 0 0 0 0 0 0 0 0 0 0 0 0 0 0 0 0 0 0 0 0 0 0 0 0 0 0 0 0 0 0 49 50 48 47 47 51 53 54 55 53 55 54 54 54 55 54 54 54 57 54 55 55 55 51 55 54 56 54 54 51 53 52 53 -209 -209 -209 -209 -209 67 -209 -209 -209 -193 -193 54 57 58 59 59 60 59 58 59 59 59 58 58 58 57 57 58 58 56 -225 -225 -225 -225 -225 -225 -225 -225 -225 -225 -225 -225 -225 -225 -225 -225 -225 -225 -225 -225 -225 -225 -225 -225 -225 -225 -225 -225 -225 -225 -225 -225 -225 -225 -225 -225 -225 -225 -225 -225 -225 -225 -225 -225 -225 -225 -225 -225 -225 -225 -225 -225 -225 -225 -225 40 42 42 44 43 44 46 48 52 54 56 57 58 59 59 59 60 60 61 61 62 62 66 68 71 73 74 76 77 79 79 82 81 83 84 87 91 93 93 94 99 101 102 103 102 101 102 103 103 101 102 102 100 105 107 105 107 109 113 118 116 112 113 118 117 120 118 118 120 121 122 124 123 125 125 130 134 135 137 137 141 141 139 140 140 -193 -209 153 156 156 157 158 160 160 160 160 162 165 168 169 166 167 167 169 171 171 174 175 178 182 183 184 184 186 186 185 186 188 187 -209 179 179 185 187 190 186 185 185 0 0 0 0 0
    0 0 0 0 0 0 0 0 0 0 0 0 0 0 0 0 0 0 0 0 0 0 0 0 0 0 0 0 0 0 0 0 0 0 0 0 0 0 0 0 0 0 0 0 0 0 0 0 0 0 0 0 0 0 0 0 0 0 0 0 0 0 0 0 0 0 0 0 0 49 50 49 48 48 52 54 55 56 53 55 54 54 55 55 55 55 55 58 56 57 57 58 55 56 55 57 55 56 53 54 54 -193 -209 -209 -209 -209 -209 76 -209 60 65 56 57 54 58 58 58 59 59 59 59 59 60 59 58 58 58 57 57 57 57 -225 -225 -225 -225 -225 -225 -225 -225 -225 -225 -225 -225 -225 -225 -225 -225 -225 -225 -225 -225 -225 -225 -225 -225 -225 -225 -225 -225 -225 -225 -225 -225 -225 -225 -225 -225 -225 -225 -225 -225 -225 -225 -225 -225 -225 -225 -225 -225 -225 -225 -225 -225 -225 -225 -225 -225 -225 -225 46 49 46 48 49 50 54 55 57 57 58 60 60 60 61 60 61 60 62 62 66 69 71 72 74 75 76 77 78 81 80 83 84 87 92 95 94 96 100 102 103 104 103 102 102 104 104 103 102 103 101 106 108 107 109 111 115 118 118 116 117 121 121 121 120 120 121 122 122 123 122 123 124 130 135 137 139 138 142 141 140 140 140 142 143 151 154 155 157 157 159 159 159 160 161 165 167 168 166 167 167 169 170 170 174 177 179 183 184 185 186 188 190 189 190 194 192 -193 -209 -193 188 189 192 187 186 186 0 0 0 0 0
    0 0 0 0 0 0 0 0 0 0 0 0 0 0 0 0 0 0 0 0 0 0 0 0 0 0 0 0 0 0 0 0 0 0 0 0 0 0 0 0 0 0 0 0 0 0 0 0 0 0 0 0 0 0 0 0 0 0 0 0 0 0 0 0 0 0 0 0 0 51 51 51 50 50 53 55 56 57 55 58 56 55 56 56 55 55 55 57 54 56 57 57 55 55 54 57 55 56 53 54 53 -209 -209 -209 -209 -209 -193 76 -209 61 61 58 58 58 60 58 59 59 60 60 60 60 59 59 58 58 58 57 57 -225 -225 -225 -225 -225 -225 -225 -225 -225 -225 -225 -225 -225 -225 -225 -225 -225 -225 -225 -225 -225 -225 -225 -225 -225 -225 -225 -225 -225 -225 -225 -225 -225 -225 -225 -225 -225 -225 -225 -225 -225 -225 -225 -225 -225 -225 -225 -225 -225 -225 -225 -225 -225 -225 -225 -225 -225 -225 -225 -225 -225 54 51 52 53 53 57 56 58 58 59 61 61 61 61 60 62 61 63 63 66 69 71 72 74 74 76 76 77 79 79 81 83 86 93 98 95 97 101 104 104 105 103 103 103 104 104 104 102 104 103 107 110 109 111 114 116 118 119 117 119 122 122 123 122 122 122 123 123 126 125 126 128 133 136 137 140 138 141 140 139 139 139 141 141 148 153 154 156 156 158 159 160 162 163 166 168 -193 166 168 168 168 169 170 175 -193 179 183 184 186 187 188 190 189 189 193 189 197 -209 185 190 191 194 191 189 190 0 0 0 0 0
    0 0 0 0 0 0 0 0 0 0 0 0 0 0 0 0 0 0 0 0 0 0 0 0 0 0 0 0 0 0 0 0 0 0 0 0 0 0 0 0 0 0 0 0 0 0 0 0 0 0 0 0 0 0 0 0 0 0 0 0 0 0 0 0 0 0 0 0 0 54 52 53 52 51 54 55 56 58 56 61 58 56 56 57 56 56 -193 -209 52 55 -193 56 53 54 51 -209 53 56 54 56 -209 -209 -209 -209 -209 -209 -209 78 -209 61 61 62 65 63 62 60 60 62 63 62 61 60 60 59 59 60 60 59 -225 -225 -225 -225 -225 -225 -225 -225 -225 -225 -225 -225 -225 -225 -225 -225 -225 -225 -225 -225 -225 -225 -225 -225 -225 -225 -225 -225 -225 -225 -225 -225 -225 -225 -225 -225 -225 -225 -225 -225 -225 -225 -225 -225 -225 -225 -225 -225 -225 -225 -225 -225 -225 -225 -225 -225 -225 -225 -225 -225 -225 -225 56 54 55 55 56 59 57 60 59 60 61 62 61 62 61 63 62 64 64 67 70 72 72 74 74 75 75 76 78 77 79 81 86 93 100 97 99 102 105 106 106 104 104 104 105 105 106 103 105 -209 108 111 111 113 115 116 118 118 117 120 122 123 124 123 123 122 124 123 126 124 127 132 135 136 136 139 138 140 139 138 138 137 139 139 144 152 -193 154 155 156 157 159 162 163 166 168 169 167 169 169 169 170 171 -193 -193 181 184 186 188 189 190 191 190 189 192 188 190 -209 184 190 194 197 199 198 200 0 0 0 0 0
    0 0 0 0 0 0 0 0 0 0 0 0 0 0 0 0 0 0 0 0 0 0 0 0 0 0 0 0 0 0 0 0 0 0 0 0 0 0 0 0 0 0 0 0 0 0 0 0 0 0 0 0 0 0 0 0 0 0 0 0 0 0 0 0 0 0 0 0 0 -209 53 54 53 -193 54 55 57 59 -209 62 -209 -209 -209 -209 -209 -209 -193 -193 52 55 -193 57 54 56 51 -209 54 59 -193 60 -209 -209 -209 -209 -209 -209 78 84 -209 70 69 68 68 67 65 64 63 64 65 63 61 60 59 59 58 59 58 -225 -225 -225 -225 -225 -225 -225 -225 -225 -225 -225 -225 -225 -225 -225 -225 -225 -225 -225 -225 -225 -225 -225 -225 -225 -225 -225 -225 -225 -225 -225 -225 -225 -225 -225 -225 -225 -225 -225 -225 -225 -225 -225 -225 -225 -225 -225 -225 -225 -225 -225 -225 -225 -225 -225 -225 -225 -225 -225 -225 -225 -225 -225 -225 56 56 57 58 61 59 61 60 60 61 62 62 63 61 63 62 65 65 67 70 71 71 73 73 74 74 75 76 75 76 80 86 94 102 99 100 102 107 107 107 106 105 105 106 107 107 104 105 -209 109 113 113 114 115 116 118 118 117 119 121 122 123 123 123 122 124 124 129 129 131 137 138 138 138 139 138 139 139 138 138 137 137 138 141 150 -193 154 154 155 156 158 161 163 165 168 -209 -209 174 -193 171 172 173 178 -193 182 186 187 189 191 190 192 190 189 192 -193 -209 -209 184 193 195 197 199 199 201 0 0 0 0 0
    0 0 0 0 0 0 0 0 0 0 0 0 0 0 0 0 0 0 0 0 0 0 0 0 0 0 0 0 0 0 0 0 0 0 0 0 0 0 0 0 0 0 0 0 0 0 0 0 0 0 0 0 0 0 0 0 0 0 0 0 0 0 0 0 0 0 0 0 0 -209 -193 -209 -209 -209 -209 -209 65 -193 -209 -193 -209 -209 -209 -209 -209 -209 -209 -193 52 55 -193 58 -209 -209 -209 -209 -209 -193 -193 64 -209 -209 -209 -209 -209 81 83 86 90 73 71 69 69 68 67 65 64 65 64 62 61 60 59 59 59 -225 -225 -225 -225 -225 -225 -225 -225 -225 -225 -225 -225 -225 -225 -225 -225 -225 -225 -225 -225 -225 -225 -225 -225 -225 -225 -225 -225 -225 -225 -225 -225 -225 -225 -225 -225 -225 -225 -225 -225 -225 -225 -225 -225 -225 -225 -225 -225 -225 -225 -225 -225 -225 -225 -225 -225 -225 -225 -225 -225 -225 -225 -225 -225 -225 -225 57 58 60 60 63 60 62 61 61 62 63 62 63 62 65 63 67 67 68 70 71 71 72 72 73 73 74 75 75 76 79 86 94 104 101 101 103 109 108 108 107 106 105 107 107 108 104 106 -209 110 115 115 115 116 116 118 118 118 120 121 123 124 124 124 124 126 127 131 132 133 136 138 138 138 138 138 139 138 138 138 135 135 135 138 141 142 150 147 -193 154 156 159 161 -209 -209 -209 -193 172 174 170 172 172 178 181 181 187 187 189 190 189 191 189 187 191 186 -209 -209 182 191 -209 -193 -209 -209 -209 0 0 0 0 0
    0 0 0 0 0 0 0 0 0 0 0 0 0 0 0 0 0 0 0 0 0 0 0 0 0 0 0 0 0 0 0 0 0 0 0 0 0 0 0 0 0 0 0 0 0 0 0 0 0 0 0 0 0 0 0 0 0 0 0 0 0 0 0 0 0 0 0 0 0 -209 -209 -209 -209 -209 -193 59 66 -193 -209 -193 -209 -209 -209 -209 -209 -209 53 53 51 0 -256 -1 -13456 -209 -209 -209 -209 -209 -209 67 -209 -209 -209 -209 85 80 82 85 88 74 71 70 70 69 68 67 66 65 64 62 61 60 59 59 -225 -225 -225 -225 -225 -225 -225 -225 -225 -225 -225 -225 -225 -225 -225 -225 -225 -225 -225 -225 -225 -225 -225 -225 -225 -225 -225 -225 -225 -225 -225 -225 -225 -225 -225 -225 -225 -225 -225 -225 -225 -225 -225 -225 -225 -225 -225 -225 -225 -225 -225 -225 -225 -225 -225 -225 -225 -225 -225 -225 -225 -225 -225 -225 -225 -225 -225 58 58 61 61 65 61 64 62 62 63 65 65 65 63 67 66 70 70 70 71 71 72 72 73 73 74 74 76 75 77 79 86 94 104 101 102 103 110 108 108 107 107 105 107 108 108 104 106 -209 112 117 117 117 118 118 119 120 120 121 122 124 125 125 125 124 126 126 128 128 130 134 137 138 138 138 138 139 139 138 138 137 136 135 137 139 140 140 140 143 150 -193 157 -193 -193 -193 -193 -193 -193 -193 168 171 171 177 179 181 187 186 188 188 187 189 -193 187 190 183 -209 175 180 190 199 -193 -193 -209 -209 0 0 0 0 0
    0 0 0 0 0 0 0 0 0 0 0 0 0 0 0 0 0 0 0 0 0 0 0 0 0 0 0 0 0 0 0 0 0 0 0 0 0 0 0 0 0 0 0 0 0 0 0 0 0 0 0 0 0 0 0 0 0 0 0 0 0 0 0 0 0 0 0 0 0 -193 -193 -209 -209 -209 -193 59 64 64 -193 -193 -209 -209 -209 -209 -209 53 51 52 49 52 -209 -209 -209 -209 -209 -209 -209 -209 -209 -209 -209 -209 -193 86 85 81 83 85 84 75 72 71 71 70 70 68 66 64 63 62 61 60 59 -225 -225 -225 -225 -225 -225 -225 -225 -225 -225 -225 -225 -225 -225 -225 -225 -225 -225 -225 -225 -225 -225 -225 -225 -225 -225 -225 -225 -225 -225 -225 -225 -225 -225 -225 -225 -225 -225 -225 -225 -225 -225 -225 -225 -225 -225 -225 -225 -225 -225 -225 -225 -225 -225 -225 -225 -225 -225 -225 -225 -225 -225 -225 -225 -225 -225 -225 -225 59 59 62 63 66 63 66 63 65 66 68 69 69 68 71 71 73 74 73 74 73 73 73 74 73 74 74 76 75 77 80 85 92 104 101 102 103 110 108 109 107 107 105 107 108 108 104 106 -209 113 118 118 118 118 118 119 120 121 122 123 124 125 125 124 124 125 125 126 126 130 135 137 138 139 138 138 138 138 138 137 137 136 135 138 140 142 144 143 143 146 150 155 -209 -209 -193 -193 165 -209 -209 -193 -193 169 173 176 177 183 184 186 186 -193 188 187 186 -193 -193 -209 178 181 190 197 198 204 -193 -193 0 0 0 0 0
    0 0 0 0 0 0 0 0 0 0 0 0 0 0 0 0 0 0 0 0 0 0 0 0 0 0 0 0 0 0 0 0 0 0 0 0 0 0 0 0 0 0 0 0 0 0 0 0 0 0 0 0 0 0 0 0 0 0 0 0 0 0 0 0 0 0 0 0 0 75 72 -193 -209 -209 -209 64 68 -209 -209 -209 -209 -209 -193 -209 61 54 52 52 49 51 52 -209 -209 -209 -209 -209 -209 -209 -209 -209 94 90 89 89 88 84 85 84 83 76 73 72 72 72 71 68 65 63 63 62 61 -225 -225 -225 -225 -225 -225 -225 -225 -225 -225 -225 -225 -225 -225 -225 -225 -225 -225 -225 -225 -225 -225 -225 -225 -225 -225 -225 -225 -225 -225 -225 -225 -225 -225 -225 -225 -225 -225 -225 -225 -225 -225 -225 -225 -225 -225 -225 -225 -225 -225 -225 -225 -225 -225 -225 -225 -225 -225 -225 -225 -225 -225 -225 -225 -225 -225 -225 -225 -225 -225 -225 60 63 64 67 65 68 66 67 69 71 72 73 73 74 75 76 78 75 76 74 74 74 74 74 74 74 76 76 77 79 85 91 103 100 101 103 109 108 109 107 107 105 107 108 108 104 106 -209 112 117 117 117 118 118 119 120 120 122 122 124 125 125 124 124 124 125 126 127 130 136 137 138 140 139 138 139 139 138 138 139 138 138 141 144 148 149 148 148 148 147 151 -193 -209 -209 -209 160 -209 -193 -193 -193 -193 -193 -193 173 181 -193 -209 -209 -193 -193 183 182 185 181 181 179 182 190 198 197 203 -193 -209 0 0 0 0 0
    0 0 0 0 0 0 0 0 0 0 0 0 0 0 0 0 0 0 0 0 0 0 0 0 0 0 0 0 0 0 0 0 0 0 0 0 0 0 0 0 0 0 0 0 0 0 0 0 0 0 0 0 0 0 0 0 0 0 0 0 0 0 0 0 0 0 0 0 0 74 71 72 -209 72 -209 -209 -193 -209 -209 -193 76 -209 -193 -193 -209 -209 50 49 46 49 52 -209 -209 -209 -209 -209 -209 -209 -209 -209 98 93 91 91 89 87 85 84 83 78 76 75 74 74 72 70 68 66 64 64 -225 -225 -225 -225 -225 -225 -225 -225 -225 -225 -225 -225 -225 -225 -225 -225 -225 -225 -225 -225 -225 -225 -225 -225 -225 -225 -225 -225 -225 -225 -225 -225 -225 -225 -225 -225 -225 -225 -225 -225 -225 -225 -225 -225 -225 -225 -225 -225 -225 -225 -225 -225 -225 -225 -225 -225 -225 -225 -225 -225 -225 -225 -225 -225 -225 -225 -225 -225 -225 -225 -225 -225 63 67 64 68 69 70 70 70 72 73 77 79 78 77 79 77 79 77 78 76 75 76 76 75 76 75 78 79 78 81 85 90 102 100 100 103 108 107 108 107 107 105 107 108 108 104 105 -209 111 116 116 116 117 116 118 119 119 121 122 123 125 125 125 124 125 125 126 128 132 136 138 139 141 140 139 139 139 139 138 139 138 138 140 144 149 149 148 149 149 147 152 152 147 -209 -193 156 -193 -193 -193 -193 -193 -193 -193 -193 176 175 -193 178 176 178 179 178 182 179 182 180 183 191 191 196 -209 -209 -209 0 0 0 0 0
    0 0 0 0 0 0 0 0 0 0 0 0 0 0 0 0 0 0 0 0 0 0 0 0 0 0 0 0 0 0 0 0 0 0 0 0 0 0 0 0 0 0 0 0 0 0 0 0 0 0 0 0 0 0 0 0 0 0 0 0 0 0 0 0 0 0 0 0 0 74 70 70 -193 73 -209 -193 -193 -209 -209 -193 76 -193 77 -193 -209 -209 -193 -193 45 47 -193 -209 -209 -209 -209 -209 -209 -209 -209 -209 -209 93 92 93 91 89 87 85 84 81 78 77 76 74 73 72 71 68 67 67 -225 -225 -225 -225 -225 -225 -225 -225 -225 -225 -225 -225 -225 -225 -225 -225 -225 -225 -225 -225 -225 -225 -225 -225 -225 -225 -225 -225 -225 -225 -225 -225 -225 -225 -225 -225 -225 -225 -225 -225 -225 -225 -225 -225 -225 -225 -225 -225 -225 -225 -225 -225 -225 -225 -225 -225 -225 -225 -225 -225 -225 -225 -225 -225 -225 -225 -225 -225 -225 -225 -225 -225 -225 69 67 70 -209 72 76 75 78 78 84 84 83 83 84 80 82 78 81 78 76 78 77 76 77 76 79 79 81 83 85 91 102 99 100 102 107 107 108 107 107 105 107 108 109 104 106 -209 112 117 117 116 117 116 118 119 119 121 121 123 124 124 125 124 125 125 125 128 132 136 138 140 141 140 140 140 139 139 139 140 139 139 142 146 150 151 151 151 150 149 151 151 147 148 151 155 -193 -209 -193 -193 -193 -193 -209 -193 172 171 171 172 171 173 174 175 179 177 180 179 182 189 -209 -209 -209 -209 -209 0 0 0 0 0
    0 0 0 0 0 0 0 0 0 0 0 0 0 0 0 0 0 0 0 0 0 0 0 0 0 0 0 0 0 0 0 0 0 0 0 0 0 0 0 0 0 0 0 0 0 0 0 0 0 0 0 0 0 0 0 0 0 0 0 0 0 0 0 0 0 0 0 0 0 75 66 64 -209 -209 -209 -209 -209 -209 -209 -209 75 75 75 77 76 -209 -209 -209 -193 50 -209 -209 -209 -193 -209 68 -209 -209 -209 -209 -193 92 91 92 91 88 86 85 85 82 80 78 77 75 74 74 73 70 69 -225 -225 -225 -225 -225 -225 -225 -225 -225 -225 -225 -225 -225 -225 -225 -225 -225 -225 -225 -225 -225 -225 -225 -225 -225 -225 -225 -225 -225 -225 -225 -225 -225 -225 -225 -225 -225 -225 -225 -225 -225 -225 -225 -225 -225 -225 -225 -225 -225 -225 -225 -225 -225 -225 -225 -225 -225 -225 -225 -225 -225 -225 -225 -225 -225 -225 -225 -225 -225 -225 -225 -225 -225 -225 69 67 70 -209 73 79 80 83 82 86 86 85 85 86 84 84 81 83 80 78 81 78 77 78 77 80 80 83 84 85 90 101 98 99 102 106 106 108 107 107 105 107 108 109 104 105 -209 112 118 117 117 117 117 118 119 119 121 121 123 124 124 125 124 125 125 125 127 131 135 137 140 141 139 140 140 140 139 139 140 139 139 143 147 150 152 152 152 151 151 152 152 149 151 152 153 -209 -209 -193 168 168 -209 -209 -209 171 170 170 171 171 171 172 173 177 -193 180 -209 -209 -209 -209 -209 -193 -209 -209 0 0 0 0 0
    0 0 0 0 0 0 0 0 0 0 0 0 0 0 0 0 0 0 0 0 0 0 0 0 0 0 0 0 0 0 0 0 0 0 0 0 0 0 0 0 0 0 0 0 0 0 0 0 0 0 0 0 0 0 0 0 0 0 0 0 0 0 0 0 0 0 0 0 0 -193 -209 -209 -209 -209 -209 -209 -209 -209 -209 -209 74 74 75 78 77 80 81 -209 -209 -209 -209 -209 70 71 74 71 77 -209 75 81 88 91 92 92 91 89 87 86 85 83 81 79 76 75 74 74 73 69 68 -225 -225 -225 -225 -225 -225 -225 -225 -225 -225 -225 -225 -225 -225 -225 -225 -225 -225 -225 -225 -225 -225 -225 -225 -225 -225 -225 -225 -225 -225 -225 -225 -225 -225 -225 -225 -225 -225 -225 -225 -225 -225 -225 -225 -225 -225 -225 -225 -225 -225 -225 -225 -225 -225 -225 -225 -225 -225 -225 -225 -225 -225 -225 -225 -225 -225 -225 -225 -225 -225 -225 -225 -225 -225 -225 -225 71 -209 75 82 84 86 84 87 86 85 86 86 85 84 81 83 80 79 81 79 79 79 79 83 83 86 87 87 91 100 98 98 101 106 105 107 106 106 105 107 108 108 103 105 -209 112 118 118 117 117 117 118 119 119 121 121 123 124 124 125 124 125 125 125 128 131 134 136 140 141 139 140 140 140 140 140 141 140 140 146 150 152 153 153 153 153 153 154 154 153 153 153 154 155 156 159 160 161 160 -209 163 169 169 170 170 170 170 170 171 -193 -193 -209 -193 -193 -209 -209 -193 -193 -209 -209 0 0 0 0 0
    0 0 0 0 0 0 0 0 0 0 0 0 0 0 0 0 0 0 0 0 0 0 0 0 0 0 0 0 0 0 0 0 0 0 0 0 0 0 0 0 0 0 0 0 0 0 0 0 0 0 0 0 0 0 0 0 0 0 0 0 0 0 0 0 0 0 0 0 0 75 -209 -209 -209 -209 -209 -209 -209 -209 -209 -209 74 75 76 80 79 82 82 77 81 77 77 75 74 75 77 74 79 76 79 87 92 93 94 94 92 90 88 86 85 82 80 78 77 76 75 75 74 70 -225 -225 -225 -225 -225 -225 -225 -225 -225 -225 -225 -225 -225 -225 -225 -225 -225 -225 -225 -225 -225 -225 -225 -225 -225 -225 -225 -225 -225 -225 -225 -225 -225 -225 -225 -225 -225 -225 -225 -225 -225 -225 -225 -225 -225 -225 -225 -225 -225 -225 -225 -225 -225 -225 -225 -225 -225 -225 -225 -225 -225 -225 -225 -225 -225 -225 -225 -225 -225 -225 -225 -225 -225 -225 -225 -225 -225 -225 -209 77 83 84 86 84 86 86 85 86 85 84 84 81 83 81 80 81 80 81 81 82 85 85 87 88 88 92 99 98 98 101 105 105 106 105 105 104 106 107 108 103 -209 -209 113 118 118 118 118 117 118 119 120 122 122 123 125 125 125 124 125 124 124 126 129 132 135 139 141 139 140 140 140 140 141 142 141 141 147 150 153 153 153 154 153 153 154 154 153 153 154 153 154 155 159 160 162 162 159 163 169 169 169 170 170 171 171 172 173 -193 -193 -193 -193 -209 -209 -209 -209 -209 -209 0 0 0 0 0
    0 0 0 0 0 0 0 0 0 0 0 0 0 0 0 0 0 0 0 0 0 0 0 0 0 0 0 0 0 0 0 0 0 0 0 0 0 0 0 0 0 0 0 0 0 0 0 0 0 0 0 0 0 0 0 0 0 0 0 0 0 0 0 0 0 0 0 0 0 76 -209 -209 -209 -209 -209 -209 -209 -209 -209 -209 74 75 77 82 82 84 84 81 83 79 80 77 75 76 77 75 79 77 83 89 91 93 94 94 94 92 90 87 85 82 81 80 79 77 76 76 77 -225 -225 -225 -225 -225 -225 -225 -225 -225 -225 -225 -225 -225 -225 -225 -225 -225 -225 -225 -225 -225 -225 -225 -225 -225 -225 -225 -225 -225 -225 -225 -225 -225 -225 -225 -225 -225 -225 -225 -225 -225 -225 -225 -225 -225 -225 -225 -225 -225 -225 -225 -225 -225 -225 -225 -225 -225 -225 -225 -225 -225 -225 -225 -225 -225 -225 -225 -225 -225 -225 -225 -225 -225 -225 -225 -225 -225 -225 -225 -225 80 85 86 87 85 86 86 86 86 85 85 85 83 84 83 82 83 82 83 83 84 87 87 88 90 90 93 99 98 98 101 104 104 106 105 105 104 106 107 107 102 -209 -209 113 118 118 118 118 117 118 119 121 122 122 123 125 124 125 124 125 125 124 127 130 133 136 139 141 140 140 140 140 140 141 142 141 143 149 152 153 154 154 154 154 153 154 154 152 151 152 151 151 152 156 157 157 159 160 162 167 168 169 169 170 170 170 170 171 -209 -209 -209 -193 -193 -209 -209 -209 -209 -209 0 0 0 0 0
    0 0 0 0 0 0 0 0 0 0 0 0 0 0 0 0 0 0 0 0 0 0 0 0 0 0 0 0 0 0 0 0 0 0 0 0 0 0 0 0 0 0 0 0 0 0 0 0 0 0 0 0 0 0 0 0 0 0 0 0 0 0 0 0 0 0 0 0 0 77 -209 -209 -209 -209 -209 -177 -177 -177 -209 -209 -193 76 79 -193 -193 -193 -193 81 83 81 82 80 77 78 78 76 81 82 86 91 92 94 95 95 96 94 92 88 85 83 82 81 80 78 77 77 79 -225 -225 -225 -225 -225 -225 -225 -225 -225 -225 -225 -225 -225 -225 -225 -225 -225 -225 -225 -225 -225 -225 -225 -225 -225 -225 -225 -225 -225 -225 -225 -225 -225 -225 -225 -225 -225 -225 -225 -225 -225 -225 -225 -225 -225 -225 -225 -225 -225 -225 -225 -225 -225 -225 -225 -225 -225 -225 -225 -225 -225 -225 -225 -225 -225 -225 -225 -225 -225 -225 -225 -225 -225 -225 -225 -225 -225 -225 -225 -225 -225 85 86 87 86 87 87 86 86 86 86 85 84 85 84 83 84 84 84 84 85 87 86 89 91 91 93 99 98 98 101 104 104 106 106 105 104 105 107 107 102 -209 -209 112 117 116 117 117 117 118 119 120 122 122 123 124 124 125 124 125 125 125 130 133 135 138 140 141 140 140 140 140 140 140 142 142 145 151 153 154 155 155 155 154 154 154 155 154 153 154 153 155 154 157 159 159 160 162 164 168 169 170 170 170 170 170 170 171 -193 -193 -193 -193 146 -209 -209 -209 32 -209 0 0 0 0 0
    0 0 0 0 0 0 0 0 0 0 0 0 0 0 0 0 0 0 0 0 0 0 0 0 0 0 0 0 0 0 0 0 0 0 0 0 0 0 0 0 0 0 0 0 0 0 0 0 0 0 0 0 0 0 0 0 0 0 0 0 0 0 0 0 0 0 0 0 0 83 -209 -209 -209 -209 -177 -177 -177 -193 -209 -209 -209 -209 -209 -193 -193 -209 -193 81 83 81 83 81 79 80 80 79 84 86 88 91 93 95 97 98 99 96 92 88 86 84 83 82 80 78 77 77 82 -225 -225 -225 -225 -225 -225 -225 -225 -225 -225 -225 -225 -225 -225 -225 -225 -225 -225 -225 -225 -225 -225 -225 -225 -225 -225 -225 -225 -225 -225 -225 -225 -225 -225 -225 -225 -225 -225 -225 -225 -225 -225 -225 -225 -225 -225 -225 -225 -225 -225 -225 -225 -225 -225 -225 -225 -225 -225 -225 -225 -225 -225 -225 -225 -225 -225 -225 -225 -225 -225 -225 -225 -225 -225 -225 -225 -225 -225 -225 -225 -225 83 86 -193 88 88 88 87 87 86 87 86 85 86 85 84 85 85 86 85 87 87 86 88 90 91 93 97 97 97 100 104 104 105 105 105 104 105 106 106 101 -209 -209 111 117 116 117 117 117 118 118 120 121 122 122 124 123 125 124 126 126 126 131 134 136 138 140 140 140 140 140 140 140 141 143 143 148 152 154 155 156 156 156 156 156 156 157 157 157 160 160 161 159 160 163 163 162 164 165 168 170 171 171 171 172 170 171 172 173 -193 -193 -193 -193 -209 -209 -209 -209 -209 0 0 0 0 0
    0 0 0 0 0 0 0 0 0 0 0 0 0 0 0 0 0 0 0 0 0 0 0 0 0 0 0 0 0 0 0 0 0 0 0 0 0 0 0 0 0 0 0 0 0 0 0 0 0 0 0 0 0 0 0 0 0 0 0 0 0 0 0 0 0 0 0 0 0 88 -209 -209 -193 -209 -209 -209 -209 -209 -193 -209 654 652 -209 -209 -177 -209 -209 -193 83 79 83 80 79 80 82 83 86 87 89 91 93 96 99 99 99 97 93 89 87 85 84 82 80 78 76 79 83 -225 -225 -225 -225 -225 -225 -225 -225 -225 -225 -225 -225 -225 -225 -225 -225 -225 -225 -225 -225 -225 -225 -225 -225 -225 -225 -225 -225 -225 -225 -225 -225 -225 -225 -225 -225 -225 -225 -225 -225 -225 -225 -225 -225 -225 -225 -225 -225 -225 -225 -225 -225 -225 -225 -225 -225 -225 -225 -225 -225 -225 -225 -225 -225 -225 -225 -225 -225 -225 -225 -225 -225 -225 -225 -225 -225 -225 -225 -225 -225 -225 -225 88 104 94 90 89 88 87 87 87 87 86 86 85 85 85 85 87 87 88 88 87 89 92 92 93 96 96 97 100 103 103 104 105 104 103 104 105 105 101 -209 -209 110 116 116 117 117 117 118 118 120 121 122 122 123 123 125 125 126 126 126 132 134 136 138 140 140 140 140 140 140 140 141 142 143 149 153 155 155 156 157 157 157 158 157 159 160 161 163 164 164 167 164 167 166 165 166 167 168 170 171 171 171 172 171 172 173 173 -193 170 -193 -209 -209 -209 -209 -209 -209 0 0 0 0 0
    0 0 0 0 0 0 0 0 0 0 0 0 0 0 0 0 0 0 0 0 0 0 0 0 0 0 0 0 0 0 0 0 0 0 0 0 0 0 0 0 0 0 0 0 0 0 0 0 0 0 0 0 0 0 0 0 0 0 0 0 0 0 0 0 0 0 0 0 0 94 -209 -209 -209 -209 -209 -209 -209 -209 -193 -209 -209 -209 -209 -193 -193 -209 -209 80 82 78 83 80 79 80 82 83 86 87 90 91 94 97 99 99 99 97 94 92 90 88 87 84 82 77 77 -225 -225 -225 -225 -225 -225 -225 -225 -225 -225 -225 -225 -225 -225 -225 -225 -225 -225 -225 -225 -225 -225 -225 -225 -225 -225 -225 -225 -225 -225 -225 -225 -225 -225 -225 -225 -225 -225 -225 -225 -225 -225 -225 -225 -225 -225 -225 -225 -225 -225 -225 -225 -225 -225 -225 -225 -225 -225 -225 -225 -225 -225 -225 -225 -225 -225 -225 -225 -225 -225 -225 -225 -225 -225 -225 -225 -225 -225 -225 -225 -225 -225 -225 -225 -225 -225 96 90 89 89 88 87 87 87 86 87 86 86 86 86 88 88 89 89 88 90 93 92 94 96 95 97 100 102 103 104 105 105 104 105 106 105 102 -209 -209 111 116 116 116 117 117 119 119 120 121 121 122 123 123 124 124 126 126 126 132 135 137 139 139 140 139 140 140 140 141 142 143 145 150 153 155 156 156 157 157 157 159 157 160 162 163 164 165 164 -193 165 168 168 166 166 168 169 171 171 171 171 172 172 173 175 174 172 172 176 172 171 172 -193 -209 168 0 0 0 0 0
    0 0 0 0 0 0 0 0 0 0 0 0 0 0 0 0 0 0 0 0 0 0 0 0 0 0 0 0 0 0 0 0 0 0 0 0 0 0 0 0 0 0 0 0 0 0 0 0 0 0 0 0 0 0 0 0 0 0 0 0 0 0 0 0 0 0 0 0 0 96 -209 -209 -209 -209 -209 -209 -209 -209 -209 -209 -209 -209 -209 -209 -209 -209 -193 79 81 78 83 80 80 81 83 84 87 88 91 92 95 98 99 99 99 98 96 95 93 91 -225 -225 -225 -225 -225 -225 -225 -225 -225 -225 -225 -225 -225 -225 -225 -225 -225 -225 -225 -225 -225 -225 -225 -225 -225 -225 -225 -225 -225 -225 -225 -225 -225 -225 -225 -225 -225 -225 -225 -225 -225 -225 -225 -225 -225 -225 -225 -225 -225 -225 -225 -225 -225 -225 -225 -225 -225 -225 -225 -225 -225 -225 -225 -225 -225 -225 -225 -225 -225 -225 -225 -225 -225 -225 -225 -225 -225 -225 -225 -225 -225 -225 -225 -225 -225 -225 -225 -225 -225 -225 -225 -225 92 88 88 87 86 87 87 86 87 87 88 88 89 91 92 92 93 92 93 96 94 95 97 97 98 101 102 104 105 106 105 105 105 105 104 102 104 -209 109 115 115 115 117 117 118 118 120 120 121 122 123 122 124 124 125 126 126 132 135 137 139 140 140 139 140 140 141 141 142 144 146 150 154 156 156 156 157 157 157 158 157 159 160 161 162 162 162 163 161 166 167 166 167 169 170 172 173 173 173 173 173 173 176 176 176 176 181 181 -209 173 174 171 169 0 0 0 0 0
    0 0 0 0 0 0 0 0 0 0 0 0 0 0 0 0 0 0 0 0 0 0 0 0 0 0 0 0 0 0 0 0 0 0 0 0 0 0 0 0 0 0 0 0 0 0 0 0 0 0 0 0 0 0 0 0 0 0 0 0 0 0 0 0 0 0 0 0 0 98 95 -193 -193 -209 -209 -209 -209 31 32 34 -209 -209 -209 -209 -209 -209 -193 81 84 79 84 82 82 82 84 86 88 89 92 93 96 99 100 99 99 99 99 99 -225 -225 -225 -225 -225 -225 -225 -225 -225 -225 -225 -225 -225 -225 -225 -225 -225 -225 -225 -225 -225 -225 -225 -225 -225 -225 -225 -225 -225 -225 -225 -225 -225 -225 -225 -225 -225 -225 -225 -225 -225 -225 -225 -225 -225 -225 -225 -225 -225 -225 -225 -225 -225 -225 -225 -225 -225 -225 -225 -225 -225 -225 -225 -225 -225 -225 -225 -225 -225 -225 -225 -225 -225 -225 -225 -225 -225 -225 -225 -225 -225 -225 -225 -225 -225 -225 -225 -225 -225 -225 -225 -225 -225 -225 90 88 88 87 86 87 88 87 88 89 89 91 92 96 97 96 97 95 95 98 96 97 98 98 99 101 103 104 105 106 106 105 105 105 104 102 104 -209 109 114 114 115 117 117 118 118 119 120 121 122 123 122 124 124 126 127 128 132 135 137 139 140 140 140 139 140 140 140 141 142 146 150 152 155 155 155 157 156 157 158 156 158 159 -193 160 160 160 162 162 166 167 168 169 170 172 174 175 174 174 175 175 175 178 177 178 180 183 185 185 181 180 179 173 0 0 0 0 0
    0 0 0 0 0 0 0 0 0 0 0 0 0 0 0 0 0 0 0 0 0 0 0 0 0 0 0 0 0 0 0 0 0 0 0 0 0 0 0 0 0 0 0 0 0 0 0 0 0 0 0 0 0 0 0 0 0 0 0 0 0 0 0 0 0 0 0 0 0 99 95 92 -193 -193 -209 -209 33 30 30 34 35 -193 -209 -209 -209 -209 -209 83 86 81 -193 83 83 83 85 87 89 90 93 93 97 100 100 100 99 99 99 -225 -225 -225 -225 -225 -225 -225 -225 -225 -225 -225 -225 -225 -225 -225 -225 -225 -225 -225 -225 -225 -225 -225 -225 -225 -225 -225 -225 -225 -225 -225 -225 -225 -225 -225 -225 -225 -225 -225 -225 -225 -225 -225 -225 -225 -225 -225 -225 -225 -225 -225 -225 -225 -225 -225 -225 -225 -225 -225 -225 -225 -225 -225 -225 -225 -225 -225 -225 -225 -225 -225 -225 -225 -225 -225 -225 -225 -225 -225 -225 -225 -225 -225 -225 -225 -225 -225 -225 -225 -225 -225 -225 -225 -225 -225 90 89 90 87 86 88 90 89 91 92 91 94 95 97 99 97 98 97 97 99 97 99 99 99 100 102 103 104 105 106 106 105 106 105 104 102 104 103 106 112 112 114 117 118 119 119 120 121 121 122 123 123 124 125 127 128 129 133 135 136 138 139 140 140 140 140 140 140 141 142 146 150 152 154 154 155 156 156 156 157 155 157 -193 -193 -193 -193 161 164 164 167 167 169 171 172 175 176 175 175 175 176 177 177 180 179 179 181 185 186 186 184 184 185 182 0 0 0 0 0
    0 0 0 0 0 0 0 0 0 0 0 0 0 0 0 0 0 0 0 0 0 0 0 0 0 0 0 0 0 0 0 0 0 0 0 0 0 0 0 0 0 0 0 0 0 0 0 0 0 0 0 0 0 0 0 0 0 0 0 0 0 0 0 0 0 0 0 0 0 101 97 92 95 -193 -209 -209 -193 30 31 34 35 35 -193 -209 -209 -209 -209 -193 -209 81 -193 84 84 83 85 88 90 90 93 93 95 99 100 100 98 -225 -225 -225 -225 -225 -225 -225 -225 -225 -225 -225 -225 -225 -225 -225 -225 -225 -225 -225 -225 -225 -225 -225 -225 -225 -225 -225 -225 -225 -225 -225 -225 -225 -225 -225 -225 -225 -225 -225 -225 -225 -225 -225 -225 -225 -225 -225 -225 -225 -225 -225 -225 -225 -225 -225 -225 -225 -225 -225 -225 -225 -225 -225 -225 -225 -225 -225 -225 -225 -225 -225 -225 -225 -225 -225 -225 -225 -225 -225 -225 -225 -225 -225 -225 -225 -225 -225 -225 -225 -225 -225 -225 -225 -225 -225 -225 -225 -225 91 92 88 88 90 95 93 96 96 96 98 98 99 101 99 101 100 100 101 99 100 100 99 100 102 103 104 106 107 107 106 106 106 104 103 104 102 104 108 109 112 116 118 119 119 120 120 121 122 122 122 124 125 127 129 130 133 135 136 137 138 140 140 140 141 141 140 142 143 147 150 151 153 154 154 156 155 155 156 154 157 -193 -193 -193 -193 162 165 165 168 167 169 171 172 175 176 175 175 174 175 177 176 179 180 181 184 186 187 186 185 185 185 183 0 0 0 0 0
    0 0 0 0 0 0 0 0 0 0 0 0 0 0 0 0 0 0 0 0 0 0 0 0 0 0 0 0 0 0 0 0 0 0 0 0 0 0 0 0 0 0 0 0 0 0 0 0 0 0 0 0 0 0 0 0 0 0 0 0 0 0 0 0 0 0 0 0 0 102 99 -193 -193 -193 -209 -193 -193 30 -193 34 35 -193 -193 -209 -209 -209 -209 -209 -209 -209 -209 86 85 85 86 90 92 92 94 92 95 100 100 100 -225 -225 -225 -225 -225 -225 -225 -225 -225 -225 -225 -225 -225 -225 -225 -225 -225 -225 -225 -225 -225 -225 -225 -225 -225 -225 -225 -225 -225 -225 -225 -225 -225 -225 -225 -225 -225 -225 -225 -225 -225 -225 -225 -225 -225 -225 -225 -225 -225 -225 -225 -225 -225 -225 -225 -225 -225 -225 -225 -225 -225 -225 -225 -225 -225 -225 -225 -225 -225 -225 -225 -225 -225 -225 -225 -225 -225 -225 -225 -225 -225 -225 -225 -225 -225 -225 -225 -225 -225 -225 -225 -225 -225 -225 -225 -225 -225 -225 -225 95 95 93 92 94 99 97 100 100 100 101 99 101 102 100 102 102 102 102 101 102 102 101 102 103 103 104 106 106 106 107 107 106 105 104 104 103 104 106 107 109 114 116 118 118 119 119 119 120 121 121 122 125 127 129 130 133 135 136 136 138 139 140 141 143 143 142 143 145 147 150 151 154 154 155 157 156 156 158 155 159 162 -193 162 162 164 167 165 167 167 169 171 172 176 176 176 175 175 177 179 179 181 182 183 186 188 189 189 187 186 186 183 0 0 0 0 0
    0 0 0 0 0 0 0 0 0 0 0 0 0 0 0 0 0 0 0 0 0 0 0 0 0 0 0 0 0 0 0 0 0 0 0 0 0 0 0 0 0 0 0 0 0 0 0 0 0 0 0 0 0 0 0 0 0 0 0 0 0 0 0 0 0 0 0 0 0 106 105 -225 -225 -225 -225 -225 -225 -225 -193 -193 -193 -209 -193 -209 -209 -209 -209 -209 -209 -209 -209 -209 80 81 85 90 93 93 93 -193 -193 626 101 -225 -225 -225 -225 -225 -225 -225 -225 -225 -225 -225 -225 -225 -225 -225 -225 -225 -225 -225 -225 -225 -225 -225 -225 -225 -225 -225 -225 -225 -225 -225 -225 -225 -225 -225 -225 -225 -225 -225 -225 -225 -225 -225 -225 -225 -225 -225 -225 -225 -225 -225 -225 -225 -225 -225 -225 -225 -225 -225 -225 -225 -225 -225 -225 -225 -225 -225 -225 -225 -225 -225 -225 -225 -225 -225 -225 -225 -225 -225 -225 -225 -225 -225 -225 -225 -225 -225 -225 -225 -225 -225 -225 -225 -225 -225 -225 -225 -225 -225 -225 93 93 97 93 97 102 100 101 102 102 103 101 102 103 102 103 103 104 104 103 104 104 103 105 104 104 104 106 105 106 106 106 105 104 103 103 102 103 105 105 107 111 114 115 116 117 117 118 119 120 121 122 126 127 128 130 132 134 135 135 137 139 141 141 143 143 142 144 145 147 149 150 153 153 154 156 155 156 157 154 157 159 160 159 159 160 162 162 164 165 166 170 172 175 175 175 175 176 178 180 180 183 183 184 187 189 191 190 187 187 186 182 0 0 0 0 0
    0 0 0 0 0 0 0 0 0 0 0 0 0 0 0 0 0 0 0 0 0 0 0 0 0 0 0 0 0 0 0 0 0 0 0 0 0 0 0 0 0 0 0 0 0 0 0 0 0 0 0 0 0 0 0 0 0 0 0 0 0 0 0 0 0 0 0 0 0 109 -225 -225 -225 -225 -225 -225 -225 -225 -225 -225 -225 -225 -225 -225 -225 -225 -225 -225 -225 -225 -225 -209 -209 76 84 92 91 90 91 -193 618 -225 -225 -225 -225 -225 -225 -225 -225 -225 -225 -225 -225 -225 -225 -225 -225 -225 -225 -225 -225 -225 -225 -225 -225 -225 -225 -225 -225 -225 -225 -225 -225 -225 -225 -225 -225 -225 -225 -225 -225 -225 -225 -225 -225 -225 -225 -225 -225 -225 -225 -225 -225 -225 -225 -225 -225 -225 -225 -225 -225 -225 -225 -225 -225 -225 -225 -225 -225 -225 -225 -225 -225 -225 -225 -225 -225 -225 -225 -225 -225 -225 -225 -225 -225 -225 -225 -225 -225 -225 -225 -225 -225 -225 -225 -225 -225 -225 -225 -225 -225 -225 -225 -225 89 94 91 95 102 99 101 102 103 103 101 103 103 102 104 105 105 105 105 105 106 105 106 105 105 104 106 105 105 105 105 105 104 103 104 102 103 105 105 106 110 112 114 115 118 118 119 121 121 122 123 126 128 128 130 132 133 134 135 137 138 140 141 143 142 142 143 144 145 146 148 151 151 152 154 153 154 154 152 154 155 156 156 157 158 160 160 162 164 165 170 -193 -193 -193 174 -193 175 176 179 179 182 183 184 187 188 191 192 189 189 188 -193 0 0 0 0 0
    0 0 0 0 0 0 0 0 0 0 0 0 0 0 0 0 0 0 0 0 0 0 0 0 0 0 0 0 0 0 0 0 0 0 0 0 0 0 0 0 0 0 0 0 0 0 0 0 0 0 0 0 0 0 0 0 0 0 0 0 0 0 0 0 0 0 0 0 0 -225 -225 -225 -225 -225 -225 -225 -225 -225 -225 -225 -225 -225 -225 -225 -225 -225 -225 -225 -225 -225 -225 -225 -225 -225 -225 -225 -225 -225 -225 -225 -225 -225 -225 -225 -225 -225 -225 -225 -225 -225 -225 -225 -225 -225 -225 -225 -225 -225 -225 -225 -225 -225 -225 -225 -225 -225 -225 -225 -225 -225 -225 -225 -225 -225 -225 -225 -225 -225 -225 -225 -225 -225 -225 -225 -225 -225 -225 -225 -225 -225 -225 -225 -225 -225 -225 -225 -225 -225 -225 -225 -225 -225 -225 -225 -225 -225 -225 -225 -225 -225 -225 -225 -225 -225 -225 -225 -225 -225 -225 -225 -225 -225 -225 -225 -225 -225 -225 -225 -225 -225 -225 -225 -225 -225 -225 -225 -225 -225 -225 -225 -225 -225 -225 -225 -225 90 89 94 101 99 101 102 103 103 102 103 104 103 105 105 106 105 106 106 107 106 107 107 108 106 108 107 107 107 107 106 106 105 106 104 105 105 105 105 109 111 113 114 116 118 118 120 120 122 123 125 126 127 129 131 132 132 133 135 137 139 140 142 141 142 142 143 143 143 147 151 151 151 153 152 153 153 152 154 155 156 157 158 159 160 160 162 -193 -193 -209 -193 -193 -193 -193 -193 174 175 177 176 180 181 183 186 188 191 192 190 192 193 190 0 0 0 0 0
    0 0 0 0 0 0 0 0 0 0 0 0 0 0 0 0 0 0 0 0 0 0 0 0 0 0 0 0 0 0 0 0 0 0 0 0 0 0 0 0 0 0 0 0 0 0 0 0 0 0 0 0 0 0 0 0 0 0 0 0 0 0 0 0 0 0 0 0 0 -225 -225 -225 -225 -225 -225 -225 -225 -225 -225 -225 -225 -225 -225 -225 -225 -225 -225 -225 -225 -225 -225 -225 -225 -225 -225 -225 -225 -225 -225 -225 -225 -225 -225 -225 -225 -225 -225 -225 -225 -225 -225 -225 -225 -225 -225 -225 -225 -225 -225 -225 -225 -225 -225 -225 -225 -225 -225 -225 -225 -225 -225 -225 -225 -225 -225 -225 -225 -225 -225 -225 -225 -225 -225 -225 -225 -225 -225 -225 -225 -225 -225 -225 -225 -225 -225 -225 -225 -225 -225 -225 -225 -225 -225 -225 -225 -225 -225 -225 -225 -225 -225 -225 -225 -225 -225 -225 -225 -225 -225 -225 -225 -225 -225 -225 -225 -225 -225 -225 -225 -225 -225 -225 -225 -225 -225 -225 -225 -225 -225 -225 -225 -225 -225 -225 -225 -225 -225 99 102 101 103 103 104 104 103 103 104 104 105 105 106 106 107 107 107 107 108 107 110 107 109 106 107 106 107 106 106 105 105 104 104 104 105 105 108 110 112 113 116 117 119 120 -209 123 124 127 127 127 129 130 131 132 132 134 136 138 139 140 139 140 141 142 142 142 146 150 151 152 155 152 152 152 152 153 153 156 157 157 159 160 161 162 163 165 -193 170 173 -193 173 173 173 174 176 176 179 180 182 186 188 192 193 190 193 195 195 0 0 0 0 0
    0 0 0 0 0 0 0 0 0 0 0 0 0 0 0 0 0 0 0 0 0 0 0 0 0 0 0 0 0 0 0 0 0 0 0 0 0 0 0 0 0 0 0 0 0 0 0 0 0 0 0 0 0 0 0 0 0 0 0 0 0 0 0 0 0 0 0 0 0 -225 -225 -225 -225 -225 -225 -225 -225 -225 -225 -225 -225 -225 -225 -225 -225 -225 -225 -225 -225 -225 -225 -225 -225 -225 -225 -225 -225 -225 -225 -225 -225 -225 -225 -225 -225 -225 -225 -225 -225 -225 -225 -225 -225 -225 -225 -225 -225 -225 -225 -225 -225 -225 -225 -225 -225 -225 -225 -225 -225 -225 -225 -225 -225 -225 -225 -225 -225 -225 -225 -225 -225 -225 -225 -225 -225 -225 -225 -225 -225 -225 -225 -225 -225 -225 -225 -225 -225 -225 -225 -225 -225 -225 -225 -225 -225 -225 -225 -225 -225 -225 -225 -225 -225 -225 -225 -225 -225 -225 -225 -225 -225 -225 -225 -225 -225 -225 -225 -225 -225 -225 -225 -225 -225 -225 -225 -225 -225 -225 -225 -225 -225 -225 -225 -225 -225 -225 -225 -225 -225 103 104 103 104 106 104 104 104 104 104 105 107 106 107 107 107 106 106 107 109 106 109 106 107 107 108 107 107 106 107 105 106 106 107 106 109 109 112 112 115 117 118 121 121 123 124 126 127 127 129 131 132 132 133 134 -209 -209 138 139 139 139 141 142 143 146 149 153 155 156 159 156 155 155 153 154 152 155 156 157 158 159 161 160 161 164 168 170 172 171 172 172 173 175 177 178 180 181 183 186 187 189 189 188 190 193 192 0 0 0 0 0
    0 0 0 0 0 0 0 0 0 0 0 0 0 0 0 0 0 0 0 0 0 0 0 0 0 0 0 0 0 0 0 0 0 0 0 0 0 0 0 0 0 0 0 0 0 0 0 0 0 0 0 0 0 0 0 0 0 0 0 0 0 0 0 0 0 0 0 0 0 -225 -225 -225 -225 -225 -225 -225 -225 -225 -225 -225 -225 -225 -225 -225 -225 -225 -225 -225 -225 -225 -225 -225 -225 -225 -225 -225 -225 -225 -225 -225 -225 -225 -225 -225 -225 -225 -225 -225 -225 -225 -225 -225 -225 -225 -225 -225 -225 -225 -225 -225 -225 -225 -225 -225 -225 -225 -225 -225 -225 -225 -225 -225 -225 -225 -225 -225 -225 -225 -225 -225 -225 -225 -225 -225 -225 -225 -225 -225 -225 -225 -225 -225 -225 -225 -225 -225 -225 -225 -225 -225 -225 -225 -225 -225 -225 -225 -225 -225 -225 -225 -225 -225 -225 -225 -225 -225 -225 -225 -225 -225 -225 -225 -225 -225 -225 -225 -225 -225 -225 -225 -225 -225 -225 -225 -225 -225 -225 -225 -225 -225 -225 -225 -225 -225 -225 -225 -225 -225 -225 -225 104 103 107 112 107 105 108 105 106 107 108 107 108 107 107 106 107 107 109 107 111 107 109 108 109 109 108 107 109 107 108 108 110 109 113 111 113 112 115 116 118 120 120 122 123 124 125 126 127 129 131 132 133 134 -209 -209 137 138 139 140 141 145 145 149 152 155 157 157 158 157 156 156 155 156 153 156 158 159 160 161 162 161 159 163 168 169 171 170 171 172 173 174 176 177 179 -193 -193 -193 -209 189 -193 188 191 194 192 0 0 0 0 0
    0 0 0 0 0 0 0 0 0 0 0 0 0 0 0 0 0 0 0 0 0 0 0 0 0 0 0 0 0 0 0 0 0 0 0 0 0 0 0 0 0 0 0 0 0 0 0 0 0 0 0 0 0 0 0 0 0 0 0 0 0 0 0 0 0 0 0 0 0 -225 -225 -225 -225 -225 -225 -225 -225 -225 -225 -225 -225 -225 -225 -225 -225 -225 -225 -225 -225 -225 -225 -225 -225 -225 -225 -225 -225 -225 -225 -225 -225 -225 -225 -225 -225 -225 -225 -225 -225 -225 -225 -225 -225 -225 -225 -225 -225 -225 -225 -225 -225 -225 -225 -225 -225 -225 -225 -225 -225 -225 -225 -225 -225 -225 -225 -225 -225 -225 -225 -225 -225 -225 -225 -225 -225 -225 -225 -225 -225 -225 -225 -225 -225 -225 -225 -225 -225 -225 -225 -225 -225 -225 -225 -225 -225 -225 -225 -225 -225 -225 -225 -225 -225 -225 -225 -225 -225 -225 -225 -225 -225 -225 -225 -225 -225 -225 -225 -225 -225 -225 -225 -225 -225 -225 -225 -225 -225 -225 -225 -225 -225 -225 -225 -225 -225 -225 -225 -225 -225 -225 -225 104 111 117 115 109 112 108 109 108 109 108 110 108 108 107 108 108 111 108 111 108 110 109 110 109 109 108 110 109 109 110 111 110 114 112 114 113 115 118 119 120 121 122 122 123 124 125 125 127 130 131 132 135 136 -209 138 138 139 139 140 144 144 150 154 156 158 158 158 158 156 156 155 155 153 156 158 158 159 162 163 163 161 164 168 169 169 169 171 171 172 173 175 177 179 183 -193 -193 -209 -193 -193 188 191 194 192 0 0 0 0 0
    0 0 0 0 0 0 0 0 0 0 0 0 0 0 0 0 0 0 0 0 0 0 0 0 0 0 0 0 0 0 0 0 0 0 0 0 0 0 0 0 0 0 0 0 0 0 0 0 0 0 0 0 0 0 0 0 0 0 0 0 0 0 0 0 0 0 0 0 0 -225 -225 -225 -225 -225 -225 -225 -225 -225 -225 -225 -225 -225 -225 -225 -225 -225 -225 -225 -225 -225 -225 -225 -225 -225 -225 -225 -225 -225 -225 -225 -225 -225 -225 -225 -225 -225 -225 -225 -225 -225 -225 -225 -225 -225 -225 -225 -225 -225 -225 -225 -225 -225 -225 -225 -225 -225 -225 -225 -225 -225 -225 -225 -225 -225 -225 -225 -225 -225 -225 -225 -225 -225 -225 -225 -225 -225 -225 -225 -225 -225 -225 -225 -225 -225 -225 -225 -225 -225 -225 -225 -225 -225 -225 -225 -225 -225 -225 -225 -225 -225 -225 -225 -225 -225 -225 -225 -225 -225 -225 -225 -225 -225 -225 -225 -225 -225 -225 -225 -225 -225 -225 -225 -225 -225 -225 -225 -225 -225 -225 -225 -225 -225 -225 -225 -225 -225 -225 -225 -225 -225 -225 -225 115 119 118 113 111 109 108 108 109 107 109 108 107 108 108 108 110 108 111 107 109 109 111 109 109 108 110 109 110 110 111 110 115 113 116 115 117 119 120 121 122 122 122 123 124 124 125 126 129 131 132 134 135 136 136 136 137 138 139 142 143 150 155 156 159 158 159 159 157 157 157 156 155 157 159 159 159 162 164 165 165 165 168 170 -193 168 170 170 172 173 174 177 177 -209 -209 -209 -209 -193 -209 -193 191 194 193 0 0 0 0 0
    0 0 0 0 0 0 0 0 0 0 0 0 0 0 0 0 0 0 0 0 0 0 0 0 0 0 0 0 0 0 0 0 0 0 0 0 0 0 0 0 0 0 0 0 0 0 0 0 0 0 0 0 0 0 0 0 0 0 0 0 0 0 0 0 0 0 0 0 0 -225 -225 -225 -225 -225 -225 -225 -225 -225 -225 -225 -225 -225 -225 -225 -225 -225 -225 -225 -225 -225 -225 -225 -225 -225 -225 -225 -225 -225 -225 -225 -225 -225 -225 -225 -225 -225 -225 -225 -225 -225 -225 -225 -225 -225 -225 -225 -225 -225 -225 -225 -225 -225 -225 -225 -225 -225 -225 -225 -225 -225 -225 -225 -225 -225 -225 -225 -225 -225 -225 -225 -225 -225 -225 -225 -225 -225 -225 -225 -225 -225 -225 -225 -225 -225 -225 -225 -225 -225 -225 -225 -225 -225 -225 -225 -225 -225 -225 -225 -225 -225 -225 -225 -225 -225 -225 -225 -225 -225 -225 -225 -225 -225 -225 -225 -225 -225 -225 -225 -225 -225 -225 -225 -225 -225 -225 -225 -225 -225 -225 -225 -225 -225 -225 -225 -225 -225 -225 -225 -225 -225 -225 -225 -225 119 116 111 109 108 106 106 107 106 108 107 107 108 108 109 112 110 112 109 113 111 114 112 112 110 113 111 111 111 113 112 116 115 119 118 119 121 122 122 123 122 122 122 123 124 124 125 128 130 132 134 134 135 136 135 136 137 138 140 142 148 152 153 157 156 157 158 156 157 157 156 156 157 160 159 158 161 164 164 163 166 -193 -193 -193 168 170 170 171 172 172 175 175 -209 -209 -193 -209 -193 -193 188 191 -193 196 0 0 0 0 0
    0 0 0 0 0 0 0 0 0 0 0 0 0 0 0 0 0 0 0 0 0 0 0 0 0 0 0 0 0 0 0 0 0 0 0 0 0 0 0 0 0 0 0 0 0 0 0 0 0 0 0 0 0 0 0 0 0 0 0 0 0 0 0 0 0 0 0 0 0 -225 -225 -225 -225 -225 -225 -225 -225 -225 -225 -225 -225 -225 -225 -225 -225 -225 -225 -225 -225 -225 -225 -225 -225 -225 -225 -225 -225 -225 -225 -225 -225 -225 -225 -225 -225 -225 -225 -225 -225 -225 -225 -225 -225 -225 -225 -225 -225 -225 -225 -225 -225 -225 -225 -225 -225 -225 -225 -225 -225 -225 -225 -225 -225 -225 -225 -225 -225 -225 -225 -225 -225 -225 -225 -225 -225 -225 -225 -225 -225 -225 -225 -225 -225 -225 -225 -225 -225 -225 -225 -225 -225 -225 -225 -225 -225 -225 -225 -225 -225 -225 -225 -225 -225 -225 -225 -225 -225 -225 -225 -225 -225 -225 -225 -225 -225 -225 -225 -225 -225 -225 -225 -225 -225 -225 -225 -225 -225 -225 -225 -225 -225 -225 -225 -225 -225 -225 -225 -225 -225 -225 -225 -225 -225 -225 115 110 109 110 106 107 106 107 109 107 107 109 108 110 114 112 113 111 116 114 116 115 115 113 116 115 115 114 117 116 118 118 121 121 122 123 124 123 124 123 123 121 123 123 124 125 127 129 131 133 134 134 134 134 135 136 137 139 142 149 151 154 157 156 157 158 157 157 158 158 157 159 163 161 162 164 165 164 164 166 167 169 168 168 169 169 169 170 170 171 171 -193 -209 -193 -209 -193 188 188 191 195 197 0 0 0 0 0
    0 0 0 0 0 0 0 0 0 0 0 0 0 0 0 0 0 0 0 0 0 0 0 0 0 0 0 0 0 0 0 0 0 0 0 0 0 0 0 0 0 0 0 0 0 0 0 0 0 0 0 0 0 0 0 0 0 0 0 0 0 0 0 0 0 0 0 0 0 -225 -225 -225 -225 -225 -225 -225 -225 -225 -225 -225 -225 -225 -225 -225 -225 -225 -225 -225 -225 -225 -225 -225 -225 -225 -225 -225 -225 -225 -225 -225 -225 -225 -225 -225 -225 -225 -225 -225 -225 -225 -225 -225 -225 -225 -225 -225 -225 -225 -225 -225 -225 -225 -225 -225 -225 -225 -225 -225 -225 -225 -225 -225 -225 -225 -225 -225 -225 -225 -225 -225 -225 -225 -225 -225 -225 -225 -225 -225 -225 -225 -225 -225 -225 -225 -225 -225 -225 -225 -225 -225 -225 -225 -225 -225 -225 -225 -225 -225 -225 -225 -225 -225 -225 -225 -225 -225 -225 -225 -225 -225 -225 -225 -225 -225 -225 -225 -225 -225 -225 -225 -225 -225 -225 -225 -225 -225 -225 -225 -225 -225 -225 -225 -225 -225 -225 -225 -225 -225 -225 -225 -225 -225 -225 -225 -225 110 107 111 106 107 106 106 108 107 107 109 109 111 115 113 114 113 117 117 117 117 117 115 117 116 116 115 117 118 119 119 122 122 123 124 125 124 125 123 123 121 121 122 123 124 127 128 131 132 133 133 134 134 134 135 136 138 140 148 152 154 158 156 157 157 157 157 158 159 159 161 164 162 163 164 164 164 163 165 165 167 167 168 169 168 169 169 169 170 169 -193 -209 -209 -209 -193 187 187 190 194 195 0 0 0 0 0
    0 0 0 0 0 0 0 0 0 0 0 0 0 0 0 0 0 0 0 0 0 0 0 0 0 0 0 0 0 0 0 0 0 0 0 0 0 0 0 0 0 0 0 0 0 0 0 0 0 0 0 0 0 0 0 0 0 0 0 0 0 0 0 0 0 0 0 0 0 -225 -225 -225 -225 -225 -225 -225 -225 -225 -225 -225 -225 -225 -225 -225 -225 -225 -225 -225 -225 -225 -225 -225 -225 -225 -225 -225 -225 -225 -225 -225 -225 -225 -225 -225 -225 -225 -225 -225 -225 -225 -225 -225 -225 -225 -225 -225 -225 -225 -225 -225 -225 -225 -225 -225 -225 -225 -225 -225 -225 -225 -225 -225 -225 -225 -225 -225 -225 -225 -225 -225 -225 -225 -225 -225 -225 -225 -225 -225 -225 -225 -225 -225 -225 -225 -225 -225 -225 -225 -225 -225 -225 -225 -225 -225 -225 -225 -225 -225 -225 -225 -225 -225 -225 -225 -225 -225 -225 -225 -225 -225 -225 -225 -225 -225 -225 -225 -225 -225 -225 -225 -225 -225 -225 -225 -225 -225 -225 -225 -225 -225 -225 -225 -225 -225 -225 -225 -225 -225 -225 -225 -225 -225 -225 -225 -225 109 107 113 108 108 107 107 108 107 107 110 109 111 116 114 116 117 119 120 120 120 -193 118 -193 119 118 117 119 120 121 121 123 124 125 125 126 124 126 123 124 122 122 122 123 124 127 129 131 132 133 133 134 134 134 135 136 138 140 147 151 153 157 156 157 157 155 156 157 158 158 159 163 161 162 164 164 163 162 164 165 166 167 168 169 168 169 170 169 171 171 -193 -209 -209 -209 186 188 187 190 194 196 0 0 0 0 0
    0 0 0 0 0 0 0 0 0 0 0 0 0 0 0 0 0 0 0 0 0 0 0 0 0 0 0 0 0 0 0 0 0 0 0 0 0 0 0 0 0 0 0 0 0 0 0 0 0 0 0 0 0 0 0 0 0 0 0 0 0 0 0 0 0 0 0 0 0 -225 -225 -225 -225 -225 -225 -225 -225 -225 -225 -225 -225 -225 -225 -225 -225 -225 -225 -225 -225 -225 -225 -225 -225 -225 -225 -225 -225 -225 -225 -225 -225 -225 -225 -225 -225 -225 -225 -225 -225 -225 -225 -225 -225 -225 -225 -225 -225 -225 -225 -225 -225 -225 -225 -225 -225 -225 -225 -225 -225 -225 -225 -225 -225 -225 -225 -225 -225 -225 -225 -225 -225 -225 -225 -225 -225 -225 -225 -225 -225 -225 -225 -225 -225 -225 -225 -225 -225 -225 -225 -225 -225 -225 -225 -225 -225 -225 -225 -225 -225 -225 -225 -225 -225 -225 -225 -225 -225 -225 -225 -225 -225 -225 -225 -225 -225 -225 -225 -225 -225 -225 -225 -225 -225 -225 -225 -225 -225 -225 -225 -225 -225 -225 -225 -225 -225 -225 -225 -225 -225 -225 -225 -225 -225 -225 -225 -225 105 111 108 109 108 108 108 108 108 112 112 114 117 117 117 119 122 122 122 122 122 121 122 122 121 119 121 121 122 122 124 124 126 126 126 124 126 123 123 122 122 122 123 124 127 129 131 133 133 134 134 135 135 136 137 139 141 147 150 153 156 155 156 156 155 155 156 158 158 158 161 161 161 164 165 164 164 166 166 167 167 168 169 169 169 170 170 171 171 176 -209 -209 181 185 187 186 187 190 191 0 0 0 0 0
    0 0 0 0 0 0 0 0 0 0 0 0 0 0 0 0 0 0 0 0 0 0 0 0 0 0 0 0 0 0 0 0 0 0 0 0 0 0 0 0 0 0 0 0 0 0 0 0 0 0 0 0 0 0 0 0 0 0 0 0 0 0 0 0 0 0 0 0 0 -225 -225 -225 -225 -225 -225 -225 -225 -225 -225 -225 -225 -225 -225 -225 -225 -225 -225 -225 -225 -225 -225 -225 -225 -225 -225 -225 -225 -225 -225 -225 -225 -225 -225 -225 -225 -225 -225 -225 -225 -225 -225 -225 -225 -225 -225 -225 -225 -225 -225 -225 -225 -225 -225 -225 -225 -225 -225 -225 -225 -225 -225 -225 -225 -225 -225 -225 -225 -225 -225 -225 -225 -225 -225 -225 -225 -225 -225 -225 -225 -225 -225 -225 -225 -225 -225 -225 -225 -225 -225 -225 -225 -225 -225 -225 -225 -225 -225 -225 -225 -225 -225 -225 -225 -225 -225 -225 -225 -225 -225 -225 -225 -225 -225 -225 -225 -225 -225 -225 -225 -225 -225 -225 -225 -225 -225 -225 -225 -225 -225 -225 -225 -225 -225 -225 -225 -225 -225 -225 -225 -225 -225 -225 -225 -225 -225 -225 -225 110 108 109 109 111 112 110 111 115 115 116 118 118 118 121 123 123 123 124 124 124 124 124 123 121 123 123 123 124 126 126 128 129 130 126 130 126 125 124 124 123 124 124 128 130 132 133 133 134 135 135 136 137 138 140 142 145 148 151 154 154 155 156 155 155 156 157 158 158 160 160 161 164 165 165 165 167 167 168 167 168 169 168 168 169 169 170 170 175 -193 -193 181 184 187 187 188 189 191 0 0 0 0 0
    0 0 0 0 0 0 0 0 0 0 0 0 0 0 0 0 0 0 0 0 0 0 0 0 0 0 0 0 0 0 0 0 0 0 0 0 0 0 0 0 0 0 0 0 0 0 0 0 0 0 0 0 0 0 0 0 0 0 0 0 0 0 0 0 0 0 0 0 0 -225 -225 -225 -225 -225 -225 -225 -225 -225 -225 -225 -225 -225 -225 -225 -225 -225 -225 -225 -225 -225 -225 -225 -225 -225 -225 -225 -225 -225 -225 -225 -225 -225 -225 -225 -225 -225 -225 -225 -225 -225 -225 -225 -225 -225 -225 -225 -225 -225 -225 -225 -225 -225 -225 -225 -225 -225 -225 -225 -225 -225 -225 -225 -225 -225 -225 -225 -225 -225 -225 -225 -225 -225 -225 -225 -225 -225 -225 -225 -225 -225 -225 -225 -225 -225 -225 -225 -225 -225 -225 -225 -225 -225 -225 -225 -225 -225 -225 -225 -225 -225 -225 -225 -225 -225 -225 -225 -225 -225 -225 -225 -225 -225 -225 -225 -225 -225 -225 -225 -225 -225 -225 -225 -225 -225 -225 -225 -225 -225 -225 -225 -225 -225 -225 -225 -225 -225 -225 -225 -225 -225 -225 -225 -225 -225 -225 -225 -225 -225 108 107 108 111 114 112 113 116 116 116 118 118 119 121 124 124 124 125 125 124 124 124 124 121 123 123 124 125 127 128 129 130 132 130 132 129 128 127 126 125 125 125 128 130 131 132 132 133 135 136 137 137 138 141 144 144 147 150 153 155 156 157 156 156 157 159 158 158 159 158 159 161 163 163 164 166 167 168 168 168 169 168 169 170 170 171 172 177 181 182 182 185 186 186 187 188 190 0 0 0 0 0
    0 0 0 0 0 0 0 0 0 0 0 0 0 0 0 0 0 0 0 0 0 0 0 0 0 0 0 0 0 0 0 0 0 0 0 0 0 0 0 0 0 0 0 0 0 0 0 0 0 0 0 0 0 0 0 0 0 0 0 0 0 0 0 0 0 0 0 0 0 -225 -225 -225 -225 -225 -225 -225 -225 -225 -225 -225 -225 -225 -225 -225 -225 -225 -225 -225 -225 -225 -225 -225 -225 -225 -225 -225 -225 -225 -225 -225 -225 -225 -225 -225 -225 -225 -225 -225 -225 -225 -225 -225 -225 -225 -225 -225 -225 -225 -225 -225 -225 -225 -225 -225 -225 -225 -225 -225 -225 -225 -225 -225 -225 -225 -225 -225 -225 -225 -225 -225 -225 -225 -225 -225 -225 -225 -225 -225 -225 -225 -225 -225 -225 -225 -225 -225 -225 -225 -225 -225 -225 -225 -225 -225 -225 -225 -225 -225 -225 -225 -225 -225 -225 -225 -225 -225 -225 -225 -225 -225 -225 -225 -225 -225 -225 -225 -225 -225 -225 -225 -225 -225 -225 -225 -225 -225 -225 -225 -225 -225 -225 -225 -225 -225 -225 -225 -225 -225 -225 -225 -225 -225 -225 -225 -225 -225 -225 -225 -225 104 107 112 113 113 114 116 117 117 119 119 121 122 125 125 125 126 126 125 125 124 124 122 124 124 124 126 129 129 131 132 132 132 134 132 131 131 131 130 128 129 130 131 132 132 132 132 134 135 137 138 139 143 146 146 148 151 156 157 159 159 158 158 159 162 160 157 159 157 159 160 161 162 163 165 167 168 168 168 169 169 169 170 170 170 170 175 179 180 181 183 184 184 186 186 188 0 0 0 0 0
    0 0 0 0 0 0 0 0 0 0 0 0 0 0 0 0 0 0 0 0 0 0 0 0 0 0 0 0 0 0 0 0 0 0 0 0 0 0 0 0 0 0 0 0 0 0 0 0 0 0 0 0 0 0 0 0 0 0 0 0 0 0 0 0 0 0 0 0 0 -225 -225 -225 -225 -225 -225 -225 -225 -225 -225 -225 -225 -225 -225 -225 -225 -225 -225 -225 -225 -225 -225 -225 -225 -225 -225 -225 -225 -225 -225 -225 -225 -225 -225 -225 -225 -225 -225 -225 -225 -225 -225 -225 -225 -225 -225 -225 -225 -225 -225 -225 -225 -225 -225 -225 -225 -225 -225 -225 -225 -225 -225 -225 -225 -225 -225 -225 -225 -225 -225 -225 -225 -225 -225 -225 -225 -225 -225 -225 -225 -225 -225 -225 -225 -225 -225 -225 -225 -225 -225 -225 -225 -225 -225 -225 -225 -225 -225 -225 -225 -225 -225 -225 -225 -225 -225 -225 -225 -225 -225 -225 -225 -225 -225 -225 -225 -225 -225 -225 -225 -225 -225 -225 -225 -225 -225 -225 -225 -225 -225 -225 -225 -225 -225 -225 -225 -225 -225 -225 -225 -225 -225 -225 -225 -225 -225 -225 -225 -225 -225 -225 110 116 115 113 117 118 118 119 120 120 122 123 126 126 125 126 126 125 126 125 125 123 125 125 125 128 130 131 132 133 134 134 135 133 133 134 133 132 131 131 131 132 133 133 132 133 134 136 137 138 140 144 146 146 148 152 163 162 164 163 162 161 163 164 162 157 160 158 159 160 160 161 162 164 167 168 169 169 170 170 170 171 171 171 171 175 178 180 180 183 184 184 186 186 188 0 0 0 0 0
    0 0 0 0 0 0 0 0 0 0 0 0 0 0 0 0 0 0 0 0 0 0 0 0 0 0 0 0 0 0 0 0 0 0 0 0 0 0 0 0 0 0 0 0 0 0 0 0 0 0 0 0 0 0 0 0 0 0 0 0 0 0 0 0 0 0 0 0 0 -225 -225 -225 -225 -225 -225 -225 -225 -225 -225 -225 -225 -225 -225 -225 -225 -225 -225 -225 -225 -225 -225 -225 -225 -225 -225 -225 -225 -225 -225 -225 -225 -225 -225 -225 -225 -225 -225 -225 -225 -225 -225 -225 -225 -225 -225 -225 -225 -225 -225 -225 -225 -225 -225 -225 -225 -225 -225 -225 -225 -225 -225 -225 -225 -225 -225 -225 -225 -225 -225 -225 -225 -225 -225 -225 -225 -225 -225 -225 -225 -225 -225 -225 -225 -225 -225 -225 -225 -225 -225 -225 -225 -225 -225 -225 -225 -225 -225 -225 -225 -225 -225 -225 -225 -225 -225 -225 -225 -225 -225 -225 -225 -225 -225 -225 -225 -225 -225 -225 -225 -225 -225 -225 -225 -225 -225 -225 -225 -225 -225 -225 -225 -225 -225 -225 -225 -225 -225 -225 -225 -225 -225 -225 -225 -225 -225 -225 -225 -225 -225 -225 -225 118 117 116 119 120 120 121 122 122 123 125 127 127 126 127 126 126 126 126 126 124 125 125 126 129 130 131 133 133 134 134 136 134 134 135 134 133 132 132 132 132 133 132 131 132 133 136 137 138 141 -193 -209 -209 -193 -193 168 168 168 167 168 166 166 167 166 158 159 158 159 160 160 160 161 163 167 168 169 170 170 170 171 171 172 172 172 175 178 179 180 182 184 184 186 187 189 0 0 0 0 0
    0 0 0 0 0 0 0 0 0 0 0 0 0 0 0 0 0 0 0 0 0 0 0 0 0 0 0 0 0 0 0 0 0 0 0 0 0 0 0 0 0 0 0 0 0 0 0 0 0 0 0 0 0 0 0 0 0 0 0 0 0 0 0 0 0 0 0 0 0 -225 -225 -225 -225 -225 -225 -225 -225 -225 -225 -225 -225 -225 -225 -225 -225 -225 -225 -225 -225 -225 -225 -225 -225 -225 -225 -225 -225 -225 -225 -225 -225 -225 -225 -225 -225 -225 -225 -225 -225 -225 -225 -225 -225 -225 -225 -225 -225 -225 -225 -225 -225 -225 -225 -225 -225 -225 -225 -225 -225 -225 -225 -225 -225 -225 -225 -225 -225 -225 -225 -225 -225 -225 -225 -225 -225 -225 -225 -225 -225 -225 -225 -225 -225 -225 -225 -225 -225 -225 -225 -225 -225 -225 -225 -225 -225 -225 -225 -225 -225 -225 -225 -225 -225 -225 -225 -225 -225 -225 -225 -225 -225 -225 -225 -225 -225 -225 -225 -225 -225 -225 -225 -225 -225 -225 -225 -225 -225 -225 -225 -225 -225 -225 -225 -225 -225 -225 -225 -225 -225 -225 -225 -225 -225 -225 -225 -225 -225 -225 -225 -225 -225 -225 114 117 120 120 121 122 122 124 125 127 130 129 129 129 129 128 128 128 128 126 127 126 130 132 133 134 135 136 135 136 137 136 136 137 135 134 133 133 132 133 133 133 132 133 133 137 137 139 141 147 -209 -209 -193 160 170 171 170 169 170 169 168 169 168 158 159 159 159 160 161 160 161 163 167 169 170 171 171 171 171 172 172 172 171 175 177 179 180 183 184 185 186 187 189 0 0 0 0 0
    0 0 0 0 0 0 0 0 0 0 0 0 0 0 0 0 0 0 0 0 0 0 0 0 0 0 0 0 0 0 0 0 0 0 0 0 0 0 0 0 0 0 0 0 0 0 0 0 0 0 0 0 0 0 0 0 0 0 0 0 0 0 0 0 0 0 0 0 0 -225 -225 -225 -225 -225 -225 -225 -225 -225 -225 -225 -225 -225 -225 -225 -225 -225 -225 -225 -225 -225 -225 -225 -225 -225 -225 -225 -225 -225 -225 -225 -225 -225 -225 -225 -225 -225 -225 -225 -225 -225 -225 -225 -225 -225 -225 -225 -225 -225 -225 -225 -225 -225 -225 -225 -225 -225 -225 -225 -225 -225 -225 -225 -225 -225 -225 -225 -225 -225 -225 -225 -225 -225 -225 -225 -225 -225 -225 -225 -225 -225 -225 -225 -225 -225 -225 -225 -225 -225 -225 -225 -225 -225 -225 -225 -225 -225 -225 -225 -225 -225 -225 -225 -225 -225 -225 -225 -225 -225 -225 -225 -225 -225 -225 -225 -225 -225 -225 -225 -225 -225 -225 -225 -225 -225 -225 -225 -225 -225 -225 -225 -225 -225 -225 -225 -225 -225 -225 -225 -225 -225 -225 -225 -225 -225 -225 -225 -225 -225 -225 -225 -225 -225 -225 114 118 119 119 120 122 124 125 128 131 131 130 131 131 131 131 131 132 130 132 131 133 135 135 135 136 136 136 137 137 136 135 136 136 135 134 134 133 134 134 134 133 134 134 138 139 141 144 148 -209 149 150 162 172 171 170 169 170 169 169 170 169 160 161 161 161 163 164 163 161 164 169 171 171 172 172 172 172 173 174 173 171 174 176 179 180 183 184 185 186 188 190 0 0 0 0 0
    0 0 0 0 0 0 0 0 0 0 0 0 0 0 0 0 0 0 0 0 0 0 0 0 0 0 0 0 0 0 0 0 0 0 0 0 0 0 0 0 0 0 0 0 0 0 0 0 0 0 0 0 0 0 0 0 0 0 0 0 0 0 0 0 0 0 0 0 0 -225 -225 -225 -225 -225 -225 -225 -225 -225 -225 -225 -225 -225 -225 -225 -225 -225 -225 -225 -225 -225 -225 -225 -225 -225 -225 -225 -225 -225 -225 -225 -225 -225 -225 -225 -225 -225 -225 -225 -225 -225 -225 -225 -225 -225 -225 -225 -225 -225 -225 -225 -225 -225 -225 -225 -225 -225 -225 -225 -225 -225 -225 -225 -225 -225 -225 -225 -225 -225 -225 -225 -225 -225 -225 -225 -225 -225 -225 -225 -225 -225 -225 -225 -225 -225 -225 -225 -225 -225 -225 -225 -225 -225 -225 -225 -225 -225 -225 -225 -225 -225 -225 -225 -225 -225 -225 -225 -225 -225 -225 -225 -225 -225 -225 -225 -225 -225 -225 -225 -225 -225 -225 -225 -225 -225 -225 -225 -225 -225 -225 -225 -225 -225 -225 -225 -225 -225 -225 -225 -225 -225 -225 -225 -225 -225 -225 -225 -225 -225 -225 -225 -225 -225 -225 -225 -225 120 119 121 124 125 127 129 132 131 131 132 132 132 132 132 133 132 134 135 136 138 138 138 139 138 138 139 138 137 137 137 137 136 136 136 135 136 136 136 135 135 137 139 141 141 145 149 150 150 150 160 171 170 169 169 169 169 169 170 169 162 164 163 164 165 165 164 161 164 169 172 172 172 172 172 173 175 177 176 173 176 178 181 182 183 185 185 186 187 189 0 0 0 0 0
    0 0 0 0 0 0 0 0 0 0 0 0 0 0 0 0 0 0 0 0 0 0 0 0 0 0 0 0 0 0 0 0 0 0 0 0 0 0 0 0 0 0 0 0 0 0 0 0 0 0 0 0 0 0 0 0 0 0 0 0 0 0 0 0 0 0 0 0 0 -225 -225 -225 -225 -225 -225 -225 -225 -225 -225 -225 -225 -225 -225 -225 -225 -225 -225 -225 -225 -225 -225 -225 -225 -225 -225 -225 -225 -225 -225 -225 -225 -225 -225 -225 -225 -225 -225 -225 -225 -225 -225 -225 -225 -225 -225 -225 -225 -225 -225 -225 -225 -225 -225 -225 -225 -225 -225 -225 -225 -225 -225 -225 -225 -225 -225 -225 -225 -225 -225 -225 -225 -225 -225 -225 -225 -225 -225 -225 -225 -225 -225 -225 -225 -225 -225 -225 -225 -225 -225 -225 -225 -225 -225 -225 -225 -225 -225 -225 -225 -225 -225 -225 -225 -225 -225 -225 -225 -225 -225 -225 -225 -225 -225 -225 -225 -225 -225 -225 -225 -225 -225 -225 -225 -225 -225 -225 -225 -225 -225 -225 -225 -225 -225 -225 -225 -225 -225 -225 -225 -225 -225 -225 -225 -225 -225 -225 -225 -225 -225 -225 -225 -225 -225 -225 -225 119 119 121 129 127 129 130 133 132 132 132 133 132 133 133 135 133 136 138 139 140 140 140 141 139 139 140 139 138 137 138 138 138 137 138 137 137 137 137 137 136 137 141 142 141 146 150 150 150 151 160 172 170 170 170 171 170 171 173 172 165 167 165 166 166 166 165 160 163 169 173 174 175 175 174 175 177 179 178 174 177 179 181 183 184 186 186 188 188 191 0 0 0 0 0
    0 0 0 0 0 0 0 0 0 0 0 0 0 0 0 0 0 0 0 0 0 0 0 0 0 0 0 0 0 0 0 0 0 0 0 0 0 0 0 0 0 0 0 0 0 0 0 0 0 0 0 0 0 0 0 0 0 0 0 0 0 0 0 0 0 0 0 0 0 -225 -225 -225 -225 -225 -225 -225 -225 -225 -225 -225 -225 -225 -225 -225 -225 -225 -225 -225 -225 -225 -225 -225 -225 -225 -225 -225 -225 -225 -225 -225 -225 -225 -225 -225 -225 -225 -225 -225 -225 -225 -225 -225 -225 -225 -225 -225 -225 -225 -225 -225 -225 -225 -225 -225 -225 -225 -225 -225 -225 -225 -225 -225 -225 -225 -225 -225 -225 -225 -225 -225 -225 -225 -225 -225 -225 -225 -225 -225 -225 -225 -225 -225 -225 -225 -225 -225 -225 -225 -225 -225 -225 -225 -225 -225 -225 -225 -225 -225 -225 -225 -225 -225 -225 -225 -225 -225 -225 -225 -225 -225 -225 -225 -225 -225 -225 -225 -225 -225 -225 -225 -225 -225 -225 -225 -225 -225 -225 -225 -225 -225 -225 -225 -225 -225 -225 -225 -225 -225 -225 -225 -225 -225 -225 -225 -225 -225 -225 -225 -225 -225 -225 -225 -225 -225 -225 -225 119 122 131 129 128 130 133 131 132 132 133 133 133 134 136 136 138 141 141 142 141 142 142 140 139 140 139 139 138 139 139 139 140 140 139 139 139 139 139 137 138 141 142 141 146 150 150 150 151 165 175 172 171 171 171 171 173 176 174 167 169 167 166 167 167 165 160 163 169 174 175 176 176 176 176 178 179 178 175 177 179 182 184 185 187 187 189 190 192 0 0 0 0 0
    0 0 0 0 0 0 0 0 0 0 0 0 0 0 0 0 0 0 0 0 0 0 0 0 0 0 0 0 0 0 0 0 0 0 0 0 0 0 0 0 0 0 0 0 0 0 0 0 0 0 0 0 0 0 0 0 0 0 0 0 0 0 0 0 0 0 0 0 0 -225 -225 -225 -225 -225 -225 -225 -225 -225 -225 -225 -225 -225 -225 -225 -225 -225 -225 -225 -225 -225 -225 -225 -225 -225 -225 -225 -225 -225 -225 -225 -225 -225 -225 -225 -225 -225 -225 -225 -225 -225 -225 -225 -225 -225 -225 -225 -225 -225 -225 -225 -225 -225 -225 -225 -225 -225 -225 -225 -225 -225 -225 -225 -225 -225 -225 -225 -225 -225 -225 -225 -225 -225 -225 -225 -225 -225 -225 -225 -225 -225 -225 -225 -225 -225 -225 -225 -225 -225 -225 -225 -225 -225 -225 -225 -225 -225 -225 -225 -225 -225 -225 -225 -225 -225 -225 -225 -225 -225 -225 -225 -225 -225 -225 -225 -225 -225 -225 -225 -225 -225 -225 -225 -225 -225 -225 -225 -225 -225 -225 -225 -225 -225 -225 -225 -225 -225 -225 -225 -225 -225 -225 -225 -225 -225 -225 -225 -225 -225 -225 -225 -225 -225 -225 -225 -225 -225 -225 123 133 131 128 131 133 131 132 133 134 135 135 136 138 138 141 144 143 144 143 143 144 142 141 142 140 140 139 139 140 140 140 140 140 140 140 140 141 139 140 143 144 144 149 152 152 152 152 164 173 171 171 171 171 171 174 177 175 167 169 168 167 167 167 165 162 163 168 173 174 176 175 174 175 176 178 177 174 176 178 182 185 186 188 189 190 192 194 0 0 0 0 0
    0 0 0 0 0 0 0 0 0 0 0 0 0 0 0 0 0 0 0 0 0 0 0 0 0 0 0 0 0 0 0 0 0 0 0 0 0 0 0 0 0 0 0 0 0 0 0 0 0 0 0 0 0 0 0 0 0 0 0 0 0 0 0 0 0 0 0 0 0 -225 -225 -225 -225 -225 -225 -225 -225 -225 -225 -225 -225 -225 -225 -225 -225 -225 -225 -225 -225 -225 -225 -225 -225 -225 -225 -225 -225 -225 -225 -225 -225 -225 -225 -225 -225 -225 -225 -225 -225 -225 -225 -225 -225 -225 -225 -225 -225 -225 -225 -225 -225 -225 -225 -225 -225 -225 -225 -225 -225 -225 -225 -225 -225 -225 -225 -225 -225 -225 -225 -225 -225 -225 -225 -225 -225 -225 -225 -225 -225 -225 -225 -225 -225 -225 -225 -225 -225 -225 -225 -225 -225 -225 -225 -225 -225 -225 -225 -225 -225 -225 -225 -225 -225 -225 -225 -225 -225 -225 -225 -225 -225 -225 -225 -225 -225 -225 -225 -225 -225 -225 -225 -225 -225 -225 -225 -225 -225 -225 -225 -225 -225 -225 -225 -225 -225 -225 -225 -225 -225 -225 -225 -225 -225 -225 -225 -225 -225 -225 -225 -225 -225 -225 -225 -225 -225 -225 -225 -225 135 133 126 132 134 132 133 134 136 136 137 137 139 140 143 147 144 145 144 144 146 144 144 144 141 141 141 141 143 141 142 141 142 142 142 143 144 141 142 145 145 144 148 151 151 151 152 164 173 171 172 172 172 172 176 177 176 169 169 169 168 168 168 165 163 164 168 172 174 175 174 174 174 176 178 177 174 176 177 182 185 186 189 191 193 195 196 0 0 0 0 0
    0 0 0 0 0 0 0 0 0 0 0 0 0 0 0 0 0 0 0 0 0 0 0 0 0 0 0 0 0 0 0 0 0 0 0 0 0 0 0 0 0 0 0 0 0 0 0 0 0 0 0 0 0 0 0 0 0 0 0 0 0 0 0 0 0 0 0 0 0 152 -225 -225 -225 -225 -225 -225 -225 -225 -225 -225 -225 -225 -225 -225 -225 -225 -225 -225 -225 -225 -225 -225 -225 -225 -225 -225 -225 -225 -225 -225 -225 -225 -225 -225 -225 -225 -225 -225 -225 -225 -225 -225 -225 -225 -225 -225 -225 -225 -225 -225 -225 -225 -225 -225 -225 -225 -225 -225 -225 -225 -225 -225 -225 -225 -225 -225 -225 -225 -225 -225 -225 -225 -225 -225 -225 -225 -225 -225 -225 -225 -225 -225 -225 -225 -225 -225 -225 -225 -225 -225 -225 -225 -225 -225 -225 -225 -225 -225 -225 -225 -225 -225 -225 -225 -225 -225 -225 -225 -225 -225 -225 -225 -225 -225 -225 -225 -225 -225 -225 -225 -225 -225 -225 -225 -225 -225 -225 -225 -225 -225 -225 -225 -225 -225 -225 -225 -225 -225 -225 -225 -225 -225 -225 -225 -225 -225 -225 -225 -225 -225 -225 -225 -225 -225 -225 -225 -225 -225 -225 132 128 132 135 133 134 136 137 138 139 139 141 140 143 147 145 144 144 144 146 145 145 146 142 143 143 143 145 143 144 144 144 146 147 147 149 146 147 148 148 147 149 151 151 151 152 162 171 170 172 172 172 173 177 178 176 169 169 169 169 168 169 166 164 165 169 172 174 174 174 174 174 175 177 177 175 176 177 181 184 185 188 190 192 194 196 0 0 0 0 0
    0 0 0 0 0 0 0 0 0 0 0 0 0 0 0 0 0 0 0 0 0 0 0 0 0 0 0 0 0 0 0 0 0 0 0 0 0 0 0 0 0 0 0 0 0 0 0 0 0 0 0 0 0 0 0 0 0 0 0 0 0 0 0 0 0 0 0 0 0 152 -225 -225 -225 -225 -225 -225 -225 -225 -225 -225 -225 -225 -225 -225 -225 -225 -225 -225 -225 -225 -225 -225 -225 -225 -225 -225 -225 -225 -225 -225 -225 -225 -225 -225 -225 -225 -225 -225 -225 -225 -225 -225 -225 -225 -225 -225 -225 -225 -225 -225 -225 -225 -225 -225 -225 -225 -225 -225 -225 -225 -225 -225 -225 -225 -225 -225 -225 -225 -225 -225 -225 -225 -225 -225 -225 -225 -225 -225 -225 -225 -225 -225 -225 -225 -225 -225 -225 -225 -225 -225 -225 -225 -225 -225 -225 -225 -225 -225 -225 -225 -225 -225 -225 -225 -225 -225 -225 -225 -225 -225 -225 -225 -225 -225 -225 -225 -225 -225 -225 -225 -225 -225 -225 -225 -225 -225 -225 -225 -225 -225 -225 -225 -225 -225 -225 -225 -225 -225 -225 -225 -225 -225 -225 -225 -225 -225 -225 -225 -225 -225 -225 -225 -225 -225 -225 -225 -225 -225 -225 -225 126 133 136 134 135 137 138 139 140 139 141 140 142 146 144 143 143 145 147 146 147 148 144 145 146 145 148 146 147 147 147 148 150 150 151 148 149 149 148 147 149 151 150 150 151 160 171 170 171 172 172 173 178 178 176 169 170 170 170 170 170 167 166 166 169 173 174 174 174 173 173 175 176 176 174 175 176 181 184 185 188 190 192 193 195 0 0 0 0 0
    0 0 0 0 0 0 0 0 0 0 0 0 0 0 0 0 0 0 0 0 0 0 0 0 0 0 0 0 0 0 0 0 0 0 0 0 0 0 0 0 0 0 0 0 0 0 0 0 0 0 0 0 0 0 0 0 0 0 0 0 0 0 0 0 0 0 0 0 0 152 156 -225 -225 -225 -225 -225 -225 -225 -225 -225 -225 -225 -225 -225 -225 -225 -225 -225 -225 -225 -225 -225 -225 -225 -225 -225 -225 -225 -225 -225 -225 -225 -225 -225 -225 -225 -225 -225 -225 -225 -225 -225 -225 -225 -225 -225 -225 -225 -225 -225 -225 -225 -225 -225 -225 -225 -225 -225 -225 -225 -225 -225 -225 -225 -225 -225 -225 -225 -225 -225 -225 -225 -225 -225 -225 -225 -225 -225 -225 -225 -225 -225 -225 -225 -225 -225 -225 -225 -225 -225 -225 -225 -225 -225 -225 -225 -225 -225 -225 -225 -225 -225 -225 -225 -225 -225 -225 -225 -225 -225 -225 -225 -225 -225 -225 -225 -225 -225 -225 -225 -225 -225 -225 -225 -225 -225 -225 -225 -225 -225 -225 -225 -225 -225 -225 -225 -225 -225 -225 -225 -225 -225 -225 -225 -225 -225 -225 -225 -225 -225 -225 -225 -225 -225 -225 -225 -225 -225 -225 -225 126 131 134 132 133 135 135 137 138 137 139 139 140 145 142 142 144 146 148 147 149 149 146 147 148 147 149 147 148 148 149 149 149 150 150 147 149 149 148 147 149 150 150 150 151 159 -209 169 171 172 172 173 177 177 175 169 171 171 170 170 170 167 167 167 169 173 174 174 174 173 173 175 176 175 175 175 175 180 184 185 188 190 191 193 194 0 0 0 0 0</data></disparity>
</opencv_storage>
