<?xml version="1.0"?>
<opencv_storage>
<gps_time_stamp>279111</gps_time_stamp>
<gps_x>-1.3945509910583496e+001</gps_x>
<gps_y>1.1269621849060059e+001</gps_y>
<gps_z>-2.2924952507019043e+000</gps_z>
<image_time_stamp>269960</image_time_stamp>
<disparity type_id="opencv-matrix">
  <rows>93</rows>
  <cols>320</cols>
  <dt>s</dt>
  <data>
    0 0 0 0 0 0 0 0 0 0 0 0 0 0 0 0 0 0 0 0 0 0 0 0 0 0 0 0 0 0 0 0 0 0 0 0 0 0 0 0 0 0 0 0 0 0 0 0 0 0 0 0 0 0 0 0 0 0 0 0 0 0 0 0 0 0 0 0 0 0 0 0 0 0 0 0 0 0 0 0 0 0 0 0 0 0 0 0 0 0 0 0 0 0 0 0 0 0 0 0 0 0 0 0 0 0 0 0 0 0 0 0 0 0 0 0 0 0 0 0 0 0 0 0 0 0 0 0 0 0 0 0 0 0 0 0 0 0 0 0 0 0 0 0 0 0 0 0 0 0 0 0 0 0 0 0 0 0 0 0 0 0 0 0 0 0 0 0 0 0 0 0 0 0 0 0 0 0 0 0 0 0 0 0 0 0 0 0 0 0 0 0 0 0 0 0 0 0 0 0 0 0 0 0 0 0 0 0 0 0 0 0 0 0 0 0 0 0 0 0 0 0 0 0 0 0 0 0 0 0 0 0 0 0 0 0 0 0 0 0 0 0 0 0 0 0 0 0 0 0 0 0 0 0 0 0 0 0 0 0 0 0 0 0 0 0 0 0 0 0 0 0 0 0 0 0 0 0 0 0 0 0 0 0 0 0 0 0 0 0 0 0 0 0 0 0 0 0 0 0 0 0 0 0 0 0 0 0 0 0 0 0 0 0 0 0 0 0 0 0
    0 0 0 0 0 0 0 0 0 0 0 0 0 0 0 0 0 0 0 0 0 0 0 0 0 0 0 0 0 0 0 0 0 0 0 0 0 0 0 0 0 0 0 0 0 0 0 0 0 0 0 0 0 0 0 0 0 0 0 0 0 0 0 0 0 0 0 0 0 0 0 0 0 0 0 0 0 0 0 0 0 0 0 0 0 0 0 0 0 0 0 0 0 0 0 0 0 0 0 0 0 0 0 0 0 0 0 0 0 0 0 0 0 0 0 0 0 0 0 0 0 0 0 0 0 0 0 0 0 0 0 0 0 0 0 0 0 0 0 0 0 0 0 0 0 0 0 0 0 0 0 0 0 0 0 0 0 0 0 0 0 0 0 0 0 0 0 0 0 0 0 0 0 0 0 0 0 0 0 0 0 0 0 0 0 0 0 0 0 0 0 0 0 0 0 0 0 0 0 0 0 0 0 0 0 0 0 0 0 0 0 0 0 0 0 0 0 0 0 0 0 0 0 0 0 0 0 0 0 0 0 0 0 0 0 0 0 0 0 0 0 0 0 0 0 0 0 0 0 0 0 0 0 0 0 0 0 0 0 0 0 0 0 0 0 0 0 0 0 0 0 0 0 0 0 0 0 0 0 0 0 0 0 0 0 0 0 0 0 0 0 0 0 0 0 0 0 0 0 0 0 0 0 0 0 0 0 0 0 0 0 0 0 0 0 0 0 0 0 0
    0 0 0 0 0 0 0 0 0 0 0 0 0 0 0 0 0 0 0 0 0 0 0 0 0 0 0 0 0 0 0 0 0 0 0 0 0 0 0 0 0 0 0 0 0 0 0 0 0 0 0 0 0 0 0 0 0 0 0 0 0 0 0 0 0 0 0 0 0 0 0 0 0 0 0 0 0 0 0 0 0 0 0 0 0 0 0 0 0 0 0 0 0 0 0 0 0 0 0 0 0 0 0 0 0 0 0 0 0 0 0 0 0 0 0 0 0 0 0 0 0 0 0 0 0 0 0 0 0 0 0 0 0 0 0 0 0 0 0 0 0 0 0 0 0 0 0 0 0 0 0 0 0 0 0 0 0 0 0 0 0 0 0 0 0 0 0 0 0 0 0 0 0 0 0 0 0 0 0 0 0 0 0 0 0 0 0 0 0 0 0 0 0 0 0 0 0 0 0 0 0 0 0 0 0 0 0 0 0 0 0 0 0 0 0 0 0 0 0 0 0 0 0 0 0 0 0 0 0 0 0 0 0 0 0 0 0 0 0 0 0 0 0 0 0 0 0 0 0 0 0 0 0 0 0 0 0 0 0 0 0 0 0 0 0 0 0 0 0 0 0 0 0 0 0 0 0 0 0 0 0 0 0 0 0 0 0 0 0 0 0 0 0 0 0 0 0 0 0 0 0 0 0 0 0 0 0 0 0 0 0 0 0 0 0 0 0 0 0 0
    0 0 0 0 0 0 0 0 0 0 0 0 0 0 0 0 0 0 0 0 0 0 0 0 0 0 0 0 0 0 0 0 0 0 0 0 0 0 0 0 0 0 0 0 0 0 0 0 0 0 0 0 0 0 0 0 0 0 0 0 0 0 0 0 0 0 0 0 0 -193 238 -209 -209 -193 -209 -193 -193 -209 -209 -209 -209 -209 -209 -209 -209 -209 -209 -209 -209 -209 -209 -193 -209 323 -209 -209 -209 -209 -209 -209 -209 -209 -209 -209 -209 -209 -209 -209 -209 -209 -209 -209 -209 -209 -209 -209 -209 -209 -209 -209 -209 -209 -209 -209 44 45 -193 44 49 -193 -209 -209 -193 -209 -209 -193 -209 -193 12 16 -193 -209 -209 -193 -209 -193 -193 -209 -193 -209 -193 -209 -209 -209 -209 -209 -209 -193 -193 -209 -193 -193 -209 -209 -209 -209 -209 -209 -209 -209 -209 -209 -209 -209 -209 -209 49 48 48 45 -193 -209 -209 -209 -209 -209 -209 -209 -209 -209 -209 -209 -209 -209 -209 -209 16 15 19 18 20 22 -209 -209 -209 -193 -193 -193 -209 -209 -209 -209 119 115 118 -193 -193 115 113 -193 12 13 22 27 26 23 24 29 27 27 29 28 27 27 28 28 27 28 29 28 30 31 31 31 35 36 35 35 34 37 36 36 36 37 38 40 40 40 40 41 41 41 41 41 40 42 41 43 43 44 45 44 45 45 45 47 46 47 48 47 50 52 53 53 51 52 52 51 52 52 50 51 52 53 55 58 57 57 59 61 58 55 -225 -225 -225 -225 -225 -225 -225 -225 -225 -225 67 68 66 0 0 0 0 0
    0 0 0 0 0 0 0 0 0 0 0 0 0 0 0 0 0 0 0 0 0 0 0 0 0 0 0 0 0 0 0 0 0 0 0 0 0 0 0 0 0 0 0 0 0 0 0 0 0 0 0 0 0 0 0 0 0 0 0 0 0 0 0 0 0 0 0 0 0 -193 238 -209 -209 -209 -209 -193 -193 -209 -209 -193 -209 -209 -209 -209 -209 -209 -209 -209 -209 -209 -209 -193 324 324 -209 -209 -209 -209 -209 -209 -209 -209 -209 -209 -209 -209 -209 -209 -209 -209 -209 -209 -193 -209 -209 -209 -209 -209 -209 -209 -209 -209 -209 -193 43 45 -193 43 49 46 -193 -209 -193 -209 -209 -193 -209 -193 12 16 -193 -209 -209 -193 -209 -193 -209 -209 -193 -209 -193 -209 -209 -209 -209 -209 -209 -193 -193 -209 -193 -193 -209 -209 -209 -209 -209 -209 -209 -209 -209 -209 -209 -209 -209 -209 49 48 48 45 -193 -209 -209 -209 -209 -209 -209 -209 -209 -209 -209 -209 -209 -209 -209 -209 -209 15 19 18 21 22 -209 -209 -209 -193 -193 -209 -209 -209 -209 -209 120 116 -193 -193 -193 115 114 -193 13 14 21 26 25 23 24 28 27 27 29 28 27 27 28 28 27 29 29 28 30 31 31 31 34 36 35 35 34 37 36 36 36 37 38 40 40 40 40 41 41 41 41 41 40 42 41 42 43 43 45 44 45 45 45 47 46 47 48 46 50 52 53 53 51 51 51 51 52 52 51 51 52 53 55 58 57 57 60 62 59 55 -225 -225 -225 -225 65 62 62 63 64 63 66 68 66 0 0 0 0 0
    0 0 0 0 0 0 0 0 0 0 0 0 0 0 0 0 0 0 0 0 0 0 0 0 0 0 0 0 0 0 0 0 0 0 0 0 0 0 0 0 0 0 0 0 0 0 0 0 0 0 0 0 0 0 0 0 0 0 0 0 0 0 0 0 0 0 0 0 0 -209 238 -209 -209 -209 -209 -193 59 -209 -209 -209 -209 -209 -209 -209 -209 -209 -209 -209 -209 -209 -209 -209 -193 -193 -209 -209 -209 -209 -209 -209 -209 -209 -209 -209 -209 -209 -209 -209 -209 -209 -209 -209 691 -209 -209 -209 -209 -209 -209 -209 -193 -209 -209 43 46 47 48 45 50 47 -193 -209 -193 -209 -209 -193 -209 -209 12 18 -209 -209 -193 -193 -209 -193 -193 -209 -193 -209 -193 -209 -209 -209 51 46 -193 -193 -193 -209 -209 -225 -225 -209 -209 -209 -209 -209 -209 -209 -209 -209 -209 -209 -209 -209 -209 47 46 -193 -209 -209 -209 -209 -209 -209 -209 -209 -209 -209 -209 -209 -209 -209 -209 -209 -209 18 21 19 20 -193 -209 -209 -209 -209 -209 -209 -209 -209 -209 -209 119 115 -209 -209 -193 113 -193 11 11 13 19 24 24 23 23 28 27 26 29 28 27 28 28 28 28 29 30 29 30 31 31 31 34 35 34 34 34 36 36 36 37 37 38 41 40 41 41 41 41 41 42 41 41 42 41 43 43 43 45 44 45 45 45 47 46 47 49 46 51 52 53 53 51 51 51 51 52 52 50 51 53 55 58 60 60 60 63 67 61 57 58 -225 -225 68 64 62 62 62 63 63 64 67 64 0 0 0 0 0
    0 0 0 0 0 0 0 0 0 0 0 0 0 0 0 0 0 0 0 0 0 0 0 0 0 0 0 0 0 0 0 0 0 0 0 0 0 0 0 0 0 0 0 0 0 0 0 0 0 0 0 0 0 0 0 0 0 0 0 0 0 0 0 0 0 0 0 0 0 -209 -209 -209 -209 -209 -209 -209 -193 -209 -209 -209 -209 -209 -209 -209 -209 -209 -209 -209 -209 -209 -209 -209 -209 -209 -209 -209 -209 -209 -209 -209 -209 -209 -209 -209 -209 -209 -209 -209 -209 -193 -193 -209 -209 -209 -209 -209 -209 -209 -209 -193 -193 47 45 45 47 48 49 46 51 50 -193 -209 0 0 0 0 -193 -193 12 18 -193 -193 -193 16 15 15 -193 13 -193 -209 10 0 -209 -209 -225 -225 -225 -225 -225 -225 -225 -225 -225 -225 -225 -225 -225 -225 -209 -225 -209 -209 -209 -209 -209 -209 -209 -209 -209 -209 -209 -209 -209 -209 -209 -209 -209 -209 -209 -209 -209 -209 -209 -209 -209 -209 -209 -209 -209 21 21 -193 -209 -209 -209 -209 -209 -209 -209 -209 -209 -209 -193 -193 -209 -193 -193 -193 -209 10 11 12 15 21 24 22 23 27 26 25 28 27 27 27 28 28 28 29 30 29 30 31 30 32 34 35 34 34 34 36 37 37 37 38 39 41 41 41 41 41 41 41 42 41 41 42 41 43 43 44 46 45 45 45 45 47 47 49 50 46 51 52 53 53 51 50 50 50 51 51 49 50 53 57 59 63 62 61 64 65 59 57 58 -225 60 67 63 62 62 62 62 62 63 66 64 0 0 0 0 0
    0 0 0 0 0 0 0 0 0 0 0 0 0 0 0 0 0 0 0 0 0 0 0 0 0 0 0 0 0 0 0 0 0 0 0 0 0 0 0 0 0 0 0 0 0 0 0 0 0 0 0 0 0 0 0 0 0 0 0 0 0 0 0 0 0 0 0 0 0 -209 -209 -193 -209 -209 -209 -209 -193 -209 -209 -209 -209 -177 -209 -209 -209 -209 -209 -209 -209 -209 -209 -209 -209 -209 -209 -209 -209 -209 -209 -209 -209 -209 -209 -209 -209 -209 -209 -193 -193 -193 116 -209 -209 -209 -209 -209 -209 -209 -209 -209 46 46 45 45 47 47 48 46 49 50 52 -209 0 0 0 0 0 0 12 15 13 19 16 16 16 15 15 15 15 16 12 15 -225 -225 -225 -225 -225 -225 -225 -225 -225 -225 -225 -225 -225 -225 -225 -225 -225 -225 -225 -225 -225 -225 -225 -209 -209 -209 -209 -209 -209 -209 -209 -209 -209 17 19 -209 -209 -209 -209 -209 -209 -209 -209 -209 -209 -209 -209 21 21 -209 -209 -209 -209 -209 -209 -209 -209 -209 -209 -209 -209 -209 -209 -209 -193 -209 -193 0 9 10 11 17 24 21 22 26 25 25 28 27 27 27 28 28 28 29 31 29 30 31 31 32 34 35 34 34 34 36 37 37 37 38 39 41 41 41 41 41 41 41 41 41 41 42 42 43 43 44 46 45 45 45 45 48 48 49 50 47 52 53 52 52 51 49 50 49 50 51 49 52 55 59 64 67 64 62 64 62 59 58 59 61 61 66 62 62 63 62 62 62 63 66 64 0 0 0 0 0
    0 0 0 0 0 0 0 0 0 0 0 0 0 0 0 0 0 0 0 0 0 0 0 0 0 0 0 0 0 0 0 0 0 0 0 0 0 0 0 0 0 0 0 0 0 0 0 0 0 0 0 0 0 0 0 0 0 0 0 0 0 0 0 0 0 0 0 0 0 -209 -193 -177 -193 -209 -209 -209 -193 -209 -209 -209 -209 -177 -193 -209 -209 -209 -209 -209 -209 -209 -209 -209 -209 -209 -209 -209 -209 -209 -209 -209 -209 -209 -209 -209 -209 -209 -209 112 -209 -193 115 -209 -209 -209 -209 -209 -209 -209 -209 -209 45 42 42 43 46 45 47 47 49 50 52 -193 0 -193 0 -225 -225 -225 -225 13 12 20 15 16 16 15 15 15 15 16 12 15 -225 -225 -225 -225 -225 -225 -225 -225 -225 -225 -225 -225 -225 -225 -225 -225 -225 -225 -225 -225 -225 -225 -225 -225 -225 -225 -225 -209 -209 -209 -209 -209 -209 -209 -209 -209 -209 -209 -209 -209 -209 -209 -209 -209 20 20 21 18 19 20 21 21 -209 -209 -209 -209 -209 -209 -209 -209 -209 -209 -209 -193 0 -193 0 0 8 10 11 17 24 22 23 26 25 25 28 27 27 27 27 29 28 29 32 29 31 31 31 33 34 34 34 33 35 36 37 37 37 37 38 40 40 41 41 41 41 41 41 41 41 42 42 43 44 44 46 45 46 46 46 47 48 50 51 47 52 52 52 52 51 50 50 49 50 51 50 55 58 62 67 68 66 64 65 62 59 59 60 62 61 66 63 62 63 63 63 63 63 66 64 0 0 0 0 0
    0 0 0 0 0 0 0 0 0 0 0 0 0 0 0 0 0 0 0 0 0 0 0 0 0 0 0 0 0 0 0 0 0 0 0 0 0 0 0 0 0 0 0 0 0 0 0 0 0 0 0 0 0 0 0 0 0 0 0 0 0 0 0 0 0 0 0 0 0 -193 -177 -177 -177 -209 -209 -209 -209 -209 -209 -209 -209 -209 -209 -209 -209 -209 -209 -209 -209 -209 -209 -209 -209 -209 -209 -209 -209 -209 -209 -209 -209 -209 -209 -209 -209 -209 -209 -209 -209 -209 -193 -209 -209 -209 -209 -209 -209 -209 -193 -193 43 41 40 42 45 44 47 47 -225 -225 -225 -225 -225 -225 -225 -225 -225 -225 -225 14 13 21 15 16 16 15 15 15 15 16 11 16 -225 -225 -225 -225 -225 -225 -225 -225 -225 -225 -225 -225 -225 -225 -225 -225 -225 -225 -225 -225 -225 -225 -225 -225 -225 20 -209 -209 -209 -209 -209 -209 -209 -209 -209 -209 -193 -209 -209 -209 -209 -209 -209 -209 26 25 25 22 22 23 23 24 -193 -209 -209 -209 -209 -209 -209 -209 -209 -209 -209 0 0 0 0 0 0 9 11 17 24 23 24 26 25 25 28 27 27 28 27 29 29 29 32 30 31 31 31 33 34 34 35 33 35 36 37 37 37 37 38 40 40 41 41 41 41 41 42 41 42 42 43 44 44 44 46 45 46 46 46 48 48 50 51 48 52 52 51 52 51 50 50 50 50 51 52 56 58 62 68 68 66 63 64 60 57 58 59 61 60 65 62 62 63 63 63 63 63 66 63 0 0 0 0 0
    0 0 0 0 0 0 0 0 0 0 0 0 0 0 0 0 0 0 0 0 0 0 0 0 0 0 0 0 0 0 0 0 0 0 0 0 0 0 0 0 0 0 0 0 0 0 0 0 0 0 0 0 0 0 0 0 0 0 0 0 0 0 0 0 0 0 0 0 0 -193 -193 -193 -193 -209 -209 -209 -209 -209 -209 -209 -209 -209 -209 -209 -209 -209 -209 -209 -209 -209 -209 -209 -209 -209 -209 -209 -209 -209 -209 -209 -209 -209 -209 -209 -209 -209 -209 -209 -193 -209 -209 -209 -209 -209 -209 -209 44 -209 -209 -209 43 40 -225 -225 -225 -225 -225 -225 -225 -225 -225 -225 -225 -225 -225 -225 -225 -225 -225 15 14 21 15 16 17 15 15 15 16 16 11 15 -225 -225 -225 -225 -225 -225 -225 -225 -225 -225 -225 -225 -225 -225 -225 -225 -225 -225 -225 22 19 16 15 14 14 12 10 11 0 -193 -193 -209 -209 -209 -209 -209 0 0 -209 -209 -209 -193 -209 -209 29 31 28 26 26 25 26 -193 -193 -209 -209 -209 -209 -209 -209 -209 -209 -209 0 0 0 0 0 9 10 13 15 20 24 24 24 26 25 25 28 27 27 28 27 29 29 29 32 30 31 31 31 34 34 34 35 33 34 35 37 37 36 37 38 39 40 41 41 41 41 41 42 41 42 42 43 44 44 44 46 45 46 47 47 47 49 50 51 49 52 52 51 52 51 49 50 49 50 51 51 56 58 63 69 70 66 63 63 58 57 58 58 60 60 65 62 62 63 63 62 63 63 65 63 0 0 0 0 0
    0 0 0 0 0 0 0 0 0 0 0 0 0 0 0 0 0 0 0 0 0 0 0 0 0 0 0 0 0 0 0 0 0 0 0 0 0 0 0 0 0 0 0 0 0 0 0 0 0 0 0 0 0 0 0 0 0 0 0 0 0 0 0 0 0 0 0 0 0 -193 -193 -177 -193 -209 -209 -209 -209 -209 -209 -209 -209 -209 -209 -209 -209 -209 -209 -209 -209 -209 -209 -209 -209 -209 -209 -209 -209 -209 -209 -209 -209 -209 -209 -209 -209 -209 -193 -209 -193 -209 -209 -209 -209 -209 -209 -209 44 53 -209 -209 -225 -225 -225 -225 -225 -225 -225 -225 -225 -225 -225 -225 -225 -225 -225 -225 -225 -225 15 14 16 20 15 15 17 15 15 15 15 15 11 15 13 0 0 0 12 -177 15 16 15 15 15 17 22 140 148 -177 -177 -177 -193 24 19 13 13 13 12 12 11 12 0 0 -209 -209 -209 -209 -209 -193 10 14 -209 12 10 9 19 25 26 25 24 23 23 23 22 20 16 9 9 9 9 -209 8 -209 -193 -193 0 0 0 0 0 11 12 18 18 21 24 25 24 26 25 25 28 28 27 28 27 29 29 29 32 30 31 31 31 34 34 34 35 33 34 35 37 37 37 37 39 39 40 40 41 41 41 41 42 42 43 42 43 43 44 44 45 45 45 46 47 47 50 50 52 50 52 52 51 52 51 49 49 49 50 51 51 56 59 66 71 71 66 64 62 58 57 58 58 60 60 65 62 62 64 63 63 63 63 65 63 0 0 0 0 0
    0 0 0 0 0 0 0 0 0 0 0 0 0 0 0 0 0 0 0 0 0 0 0 0 0 0 0 0 0 0 0 0 0 0 0 0 0 0 0 0 0 0 0 0 0 0 0 0 0 0 0 0 0 0 0 0 0 0 0 0 0 0 0 0 0 0 0 0 0 -193 -193 -193 -193 -209 -209 -209 -209 -209 -209 -193 -193 -193 -209 -209 -209 -209 -209 -209 -209 -193 -209 -209 -209 -209 -209 -209 -209 -209 -209 -209 -209 0 -193 -193 -209 -193 -193 -193 0 -193 -209 -209 -193 -209 -209 -209 -209 -209 -209 -209 -193 -225 -225 -225 -225 -225 -225 -225 -225 -193 0 0 0 0 0 12 14 13 14 13 18 19 15 16 17 15 15 15 16 14 11 14 13 0 9 0 14 9 20 21 20 19 17 18 21 20 19 0 -193 17 16 23 19 18 18 18 17 17 17 19 -193 -193 -209 -209 -209 -209 -193 -193 -209 14 -193 12 11 11 16 21 23 22 20 20 20 21 19 17 15 13 12 12 12 15 0 -193 0 -193 0 0 0 0 0 16 14 21 20 22 24 25 25 25 25 25 28 28 28 28 27 29 29 29 32 30 30 31 31 34 34 34 35 33 33 36 37 38 37 38 39 39 40 41 41 41 41 42 42 42 43 43 44 43 44 44 45 45 45 47 47 47 51 50 52 51 52 52 50 52 51 49 49 47 48 49 48 54 -225 64 70 69 64 64 61 59 58 58 59 60 60 65 63 62 64 63 63 63 63 65 62 0 0 0 0 0
    0 0 0 0 0 0 0 0 0 0 0 0 0 0 0 0 0 0 0 0 0 0 0 0 0 0 0 0 0 0 0 0 0 0 0 0 0 0 0 0 0 0 0 0 0 0 0 0 0 0 0 0 0 0 0 0 0 0 0 0 0 0 0 0 0 0 0 0 0 -193 -193 -177 -177 -209 -209 -209 -209 -209 -193 134 132 132 -193 -209 -209 -209 -209 -209 -209 -209 -209 -209 -209 -209 -209 -209 -209 -209 -193 0 0 0 0 0 0 0 0 -193 -193 -193 -209 -209 -193 -209 22 -193 19 -209 -209 -193 16 27 -209 -209 -209 0 0 0 0 -193 10 0 0 0 0 15 13 13 13 12 19 19 15 15 17 15 15 15 15 14 12 14 13 9 12 9 18 11 23 23 22 21 19 19 22 24 22 9 -193 20 20 24 21 20 19 19 18 19 18 19 12 19 20 20 21 18 -209 -193 0 12 9 11 9 11 15 19 21 20 18 17 18 20 18 16 15 14 14 16 15 15 0 -193 0 0 0 0 0 0 8 19 15 21 21 22 24 25 25 25 25 26 28 27 27 27 27 29 29 29 32 31 30 31 31 34 34 34 35 34 32 35 37 38 37 38 39 38 39 41 41 41 40 41 41 42 43 43 44 44 44 44 45 45 45 48 47 47 51 51 53 52 52 52 50 52 51 48 49 47 48 49 47 52 56 59 62 62 61 61 60 59 59 59 60 60 61 64 63 62 64 63 63 63 63 64 62 0 0 0 0 0
    0 0 0 0 0 0 0 0 0 0 0 0 0 0 0 0 0 0 0 0 0 0 0 0 0 0 0 0 0 0 0 0 0 0 0 0 0 0 0 0 0 0 0 0 0 0 0 0 0 0 0 0 0 0 0 0 0 0 0 0 0 0 0 0 0 0 0 0 0 -193 -209 -193 -193 -209 36 -209 -209 -209 -209 -209 -209 -209 -193 -209 -209 -193 -209 -209 45 -193 -193 -209 -209 -209 -209 -209 -209 -193 0 0 0 0 0 0 0 0 -193 -193 -209 -193 -193 -209 -209 -193 28 -193 -193 22 17 13 18 27 -209 -209 -193 -193 -209 -209 -193 -193 22 21 -193 -193 -193 22 16 14 15 14 19 19 15 15 16 15 15 15 15 14 12 15 14 11 16 11 21 13 23 22 22 21 19 19 22 21 22 9 17 18 18 23 20 19 19 19 19 19 19 20 16 20 20 20 20 18 14 13 10 12 10 11 9 11 14 18 20 18 17 16 18 20 18 16 15 14 15 17 16 15 0 0 0 0 0 0 0 0 10 21 18 22 22 23 24 25 25 25 25 26 27 27 27 27 27 29 28 28 32 31 31 31 32 35 34 35 36 34 32 35 37 38 36 37 39 38 39 40 41 41 40 42 41 43 43 43 44 43 44 44 44 45 45 48 47 47 51 51 53 52 52 52 50 52 51 49 49 47 48 48 47 51 54 56 57 59 59 59 59 58 58 59 59 60 60 63 63 62 64 63 63 63 63 64 63 0 0 0 0 0
    0 0 0 0 0 0 0 0 0 0 0 0 0 0 0 0 0 0 0 0 0 0 0 0 0 0 0 0 0 0 0 0 0 0 0 0 0 0 0 0 0 0 0 0 0 0 0 0 0 0 0 0 0 0 0 0 0 0 0 0 0 0 0 0 0 0 0 0 0 -209 -209 33 34 39 38 38 36 36 -193 -209 -209 -193 -193 -209 -209 -209 -209 -209 49 -209 -209 -209 -209 -209 -209 -209 0 0 0 0 0 0 0 0 0 0 0 -193 9 -193 22 -193 14 16 -193 8 20 16 18 15 20 26 -209 -209 -193 -209 -209 -209 27 23 20 19 20 15 14 19 17 15 15 14 20 19 16 16 17 15 16 15 16 14 13 16 15 12 18 14 21 15 23 21 21 21 19 18 21 16 16 9 15 16 16 21 19 18 18 19 19 19 19 20 16 20 19 20 19 18 13 13 10 12 11 12 10 11 15 18 19 18 17 16 18 19 18 16 15 15 17 18 18 16 9 -193 -193 10 -193 0 0 9 15 23 19 22 23 23 24 25 25 25 25 26 27 27 27 27 27 29 28 28 32 31 31 31 32 35 34 35 36 34 32 35 37 38 34 37 39 37 38 40 40 41 40 42 41 43 43 43 44 43 44 44 44 44 44 48 47 47 51 50 53 52 52 51 49 52 51 48 49 47 48 48 46 50 53 56 58 60 59 60 60 59 59 59 59 60 60 63 63 62 65 63 63 63 63 64 64 0 0 0 0 0
    0 0 0 0 0 0 0 0 0 0 0 0 0 0 0 0 0 0 0 0 0 0 0 0 0 0 0 0 0 0 0 0 0 0 0 0 0 0 0 0 0 0 0 0 0 0 0 0 0 0 0 0 0 0 0 0 0 0 0 0 0 0 0 0 0 0 0 0 0 -209 -209 -209 31 37 35 -209 32 33 -209 -193 -193 -193 -193 -209 -209 -209 -209 -209 -209 -209 -209 -193 -193 12 -209 -193 0 0 0 0 0 0 0 0 0 0 0 10 13 21 20 14 17 15 19 14 19 16 20 20 22 26 -193 -209 -209 -209 -209 -209 25 22 20 19 20 16 16 19 18 15 15 14 21 19 16 16 17 15 16 15 17 15 14 16 16 14 19 16 21 17 22 20 21 21 20 19 21 18 19 11 19 17 17 20 18 18 18 18 19 18 19 19 16 19 19 20 19 18 14 14 12 13 13 13 11 12 18 20 20 18 18 17 19 19 18 16 16 16 18 20 19 17 10 -193 -193 -193 -193 -193 -193 20 25 24 19 22 23 23 24 24 24 24 25 25 27 26 27 27 27 29 28 28 32 32 31 31 32 35 34 35 36 34 32 35 36 37 34 36 38 37 38 40 40 42 40 42 42 43 43 43 44 43 44 43 43 44 44 48 46 47 51 50 53 52 52 51 49 52 51 49 49 47 49 48 47 50 53 56 58 58 59 59 59 59 59 59 59 59 60 62 64 62 64 63 63 63 63 63 64 0 0 0 0 0
    0 0 0 0 0 0 0 0 0 0 0 0 0 0 0 0 0 0 0 0 0 0 0 0 0 0 0 0 0 0 0 0 0 0 0 0 0 0 0 0 0 0 0 0 0 0 0 0 0 0 0 0 0 0 0 0 0 0 0 0 0 0 0 0 0 0 0 0 0 -209 -209 -193 -193 35 -193 -209 32 34 -193 -193 -193 -193 -193 -193 -209 -209 -193 -193 -193 -193 17 16 14 12 10 0 0 0 0 0 0 0 0 0 0 8 10 11 17 22 21 18 20 17 19 15 19 17 21 21 23 25 25 25 24 -209 -193 26 27 24 22 21 22 19 19 20 18 14 14 14 21 18 16 16 17 15 16 15 17 15 15 17 17 15 20 18 21 18 21 20 20 21 21 20 22 20 21 13 21 18 18 20 18 18 18 18 18 18 19 18 16 19 19 19 18 18 15 14 14 15 15 15 14 15 21 21 21 19 18 18 20 20 19 17 17 18 20 21 21 18 15 26 26 27 -193 -193 -193 21 25 24 19 22 23 24 24 24 24 24 24 25 27 26 26 26 27 28 28 28 32 32 31 31 32 35 34 35 35 35 32 35 36 37 34 36 38 36 37 40 40 41 40 42 42 43 43 43 43 43 43 43 43 44 44 47 46 47 51 50 53 52 52 51 49 52 51 49 49 47 48 48 47 50 52 55 57 58 58 58 59 59 59 59 59 59 61 62 64 62 64 63 62 63 63 62 64 0 0 0 0 0
    0 0 0 0 0 0 0 0 0 0 0 0 0 0 0 0 0 0 0 0 0 0 0 0 0 0 0 0 0 0 0 0 0 0 0 0 0 0 0 0 0 0 0 0 0 0 0 0 0 0 0 0 0 0 0 0 0 0 0 0 0 0 0 0 0 0 0 0 0 13 10 18 24 -193 -209 -209 -193 31 -193 -193 -193 -193 -193 -209 -209 19 20 20 19 19 17 17 15 14 12 -193 -193 -193 0 0 0 0 0 0 0 0 0 -193 17 24 21 19 21 19 20 16 19 17 22 21 23 25 24 23 22 -193 24 24 26 24 22 22 23 21 20 22 19 15 17 16 22 18 17 16 17 15 16 16 17 15 17 18 18 17 20 18 21 18 21 20 19 20 20 20 22 20 21 14 21 18 19 20 18 18 18 18 19 18 19 19 17 20 20 19 19 19 16 16 18 17 17 18 18 18 22 21 21 19 18 18 20 19 19 17 16 18 19 21 21 17 13 27 28 29 30 -209 -193 -193 27 24 19 22 23 24 24 24 24 24 24 25 26 25 25 26 27 28 27 28 31 32 31 31 32 34 33 35 35 35 32 35 36 37 34 36 38 36 37 39 39 41 39 42 42 43 43 43 43 43 43 43 43 44 44 47 46 47 50 50 53 52 52 51 49 51 51 48 49 47 48 48 48 52 54 56 58 58 59 59 60 59 59 59 59 59 61 62 64 62 63 63 62 63 63 62 64 0 0 0 0 0
    0 0 0 0 0 0 0 0 0 0 0 0 0 0 0 0 0 0 0 0 0 0 0 0 0 0 0 0 0 0 0 0 0 0 0 0 0 0 0 0 0 0 0 0 0 0 0 0 0 0 0 0 0 0 0 0 0 0 0 0 0 0 0 0 0 0 0 0 0 13 11 16 19 20 21 20 25 26 -193 -193 -193 -193 -209 -209 -193 18 18 19 18 18 16 16 14 14 12 -193 0 0 0 0 0 0 0 0 0 0 0 0 13 -193 21 20 20 20 21 17 20 17 21 21 22 23 22 21 20 20 21 20 24 22 21 22 22 21 21 22 19 16 18 18 22 17 18 17 17 16 17 16 18 16 18 19 18 18 20 19 22 19 21 20 19 20 20 20 21 17 18 14 20 18 18 20 18 18 19 19 19 19 19 19 17 21 20 20 20 20 18 17 20 19 20 19 20 19 22 21 20 19 18 18 19 19 18 16 15 17 18 20 20 16 12 28 34 34 33 36 34 -209 29 -193 19 22 24 24 24 24 24 24 24 25 26 25 25 26 26 27 27 28 31 32 31 31 32 34 33 34 35 34 32 35 35 37 34 36 37 36 37 39 39 41 39 42 42 43 43 43 43 43 43 43 43 44 43 47 46 47 50 50 53 52 52 52 50 51 51 48 49 47 49 50 50 55 56 57 58 59 59 60 60 59 59 59 59 59 61 61 64 62 63 63 62 63 63 62 64 0 0 0 0 0
    0 0 0 0 0 0 0 0 0 0 0 0 0 0 0 0 0 0 0 0 0 0 0 0 0 0 0 0 0 0 0 0 0 0 0 0 0 0 0 0 0 0 0 0 0 0 0 0 0 0 0 0 0 0 0 0 0 0 0 0 0 0 0 0 0 0 0 0 0 13 11 15 17 18 16 19 24 24 20 -209 -209 25 -209 22 15 14 17 17 16 17 15 15 14 14 12 -193 -193 9 0 0 0 0 0 0 0 0 0 0 14 -193 21 20 20 19 20 15 18 16 20 20 22 22 21 20 20 20 21 19 23 21 21 21 21 21 20 21 20 18 19 19 22 18 19 18 17 16 17 17 18 17 19 19 19 19 21 21 22 20 22 20 19 20 20 20 19 15 16 14 18 17 18 19 18 19 19 19 19 19 19 19 17 20 19 20 20 19 16 15 17 15 15 18 19 18 21 20 20 18 18 17 19 18 18 15 15 17 18 20 20 15 16 29 35 35 34 37 36 -193 31 24 19 22 24 24 24 24 25 25 25 26 26 25 25 26 26 28 28 29 32 32 31 31 31 34 32 34 34 33 32 35 35 36 35 36 37 36 37 39 39 41 40 42 42 43 43 43 43 43 43 43 43 44 43 47 46 47 50 50 53 52 52 52 50 51 51 49 50 48 49 51 51 55 56 57 58 58 59 59 59 59 59 59 59 59 61 60 64 62 63 63 62 63 63 62 65 0 0 0 0 0
    0 0 0 0 0 0 0 0 0 0 0 0 0 0 0 0 0 0 0 0 0 0 0 0 0 0 0 0 0 0 0 0 0 0 0 0 0 0 0 0 0 0 0 0 0 0 0 0 0 0 0 0 0 0 0 0 0 0 0 0 0 0 0 0 0 0 0 0 0 13 12 15 16 16 14 18 23 24 19 -209 -209 22 21 20 15 15 16 17 16 17 16 15 14 14 11 -193 -209 -193 10 0 0 0 0 0 0 0 9 -177 19 25 22 20 20 19 19 17 18 17 19 20 21 21 21 21 21 21 21 20 23 21 21 21 21 20 19 21 20 18 19 19 20 18 19 18 17 16 17 17 19 19 20 20 20 21 22 21 23 21 21 19 18 19 20 19 19 16 16 15 18 17 18 19 18 19 18 18 18 18 19 18 15 19 17 18 18 18 14 14 15 14 15 20 21 19 21 21 20 19 19 18 19 18 18 15 15 16 16 18 18 13 18 28 33 35 35 38 37 -193 32 24 19 22 24 24 24 24 25 25 25 26 26 25 25 26 27 28 28 29 32 32 32 31 32 33 31 34 34 33 33 35 35 37 35 37 37 37 38 39 39 41 40 43 42 44 43 43 43 43 43 43 42 43 43 46 46 47 50 50 53 52 52 52 50 51 51 49 50 48 50 52 52 56 56 57 57 58 58 59 58 59 58 59 58 59 61 60 64 62 63 64 63 63 63 62 65 0 0 0 0 0
    0 0 0 0 0 0 0 0 0 0 0 0 0 0 0 0 0 0 0 0 0 0 0 0 0 0 0 0 0 0 0 0 0 0 0 0 0 0 0 0 0 0 0 0 0 0 0 0 0 0 0 0 0 0 0 0 0 0 0 0 0 0 0 0 0 0 0 0 0 14 13 16 16 16 14 16 20 20 16 18 15 18 18 19 16 15 16 17 15 16 15 14 12 13 11 -193 0 -193 10 10 10 9 0 0 0 9 10 10 15 22 20 19 20 18 18 18 17 17 19 19 21 20 21 21 20 21 20 19 22 20 20 20 20 20 19 21 20 18 18 18 18 18 19 19 17 18 18 19 20 21 21 21 21 21 22 22 23 21 20 18 17 18 19 19 19 16 17 16 19 18 18 19 17 18 18 18 18 18 18 18 15 19 16 18 18 18 15 15 18 18 20 23 22 22 22 21 21 20 19 19 20 18 18 16 15 15 15 17 16 12 19 28 32 36 36 39 38 36 34 23 19 22 24 25 24 24 25 25 25 26 26 25 25 26 27 29 28 29 32 31 32 31 32 33 31 34 34 33 34 35 35 37 36 37 37 38 39 40 39 41 41 43 43 44 43 43 43 43 43 43 42 43 42 46 46 47 50 50 52 52 52 52 50 52 52 50 50 49 51 53 53 57 57 57 58 59 58 59 58 58 58 58 58 59 61 60 64 63 63 64 63 63 63 62 65 0 0 0 0 0
    0 0 0 0 0 0 0 0 0 0 0 0 0 0 0 0 0 0 0 0 0 0 0 0 0 0 0 0 0 0 0 0 0 0 0 0 0 0 0 0 0 0 0 0 0 0 0 0 0 0 0 0 0 0 0 0 0 0 0 0 0 0 0 0 0 0 0 0 0 13 12 14 14 13 12 13 14 14 13 13 11 14 14 18 16 15 16 17 16 16 15 15 13 14 13 13 13 13 12 12 11 10 9 9 0 9 10 10 12 17 17 17 18 16 17 18 16 18 19 19 20 19 20 20 19 20 18 16 20 18 19 19 18 19 18 20 18 17 17 17 17 18 20 20 19 19 19 20 21 21 22 21 22 22 22 22 23 21 20 18 17 18 19 19 19 16 18 17 19 18 18 19 18 18 18 17 18 17 18 17 14 18 15 18 18 18 16 16 20 21 24 26 23 23 22 22 21 20 20 19 19 18 18 16 15 15 15 16 16 11 23 33 35 37 37 40 39 36 34 22 19 22 24 24 24 24 25 25 25 26 26 25 25 26 27 29 28 30 32 31 32 31 32 32 31 33 33 32 34 35 35 37 37 38 38 38 39 40 39 42 41 43 43 45 43 43 43 43 43 43 42 43 42 46 47 47 50 50 52 52 52 52 50 51 52 50 51 50 51 54 54 57 57 57 58 59 58 59 58 58 58 58 59 60 61 60 64 63 63 64 63 63 63 62 65 0 0 0 0 0
    0 0 0 0 0 0 0 0 0 0 0 0 0 0 0 0 0 0 0 0 0 0 0 0 0 0 0 0 0 0 0 0 0 0 0 0 0 0 0 0 0 0 0 0 0 0 0 0 0 0 0 0 0 0 0 0 0 0 0 0 0 0 0 0 0 0 0 0 0 14 14 17 15 13 12 13 12 13 12 12 11 13 12 16 14 15 15 16 16 17 16 17 14 15 16 16 17 15 14 13 12 11 10 9 0 9 10 10 13 18 17 18 18 17 18 19 17 18 19 18 19 18 19 19 17 19 16 14 19 17 19 19 18 19 18 20 18 17 17 18 17 18 19 19 18 19 19 19 20 21 22 21 22 21 22 22 23 22 20 19 17 17 19 19 20 18 19 18 19 19 19 19 18 18 18 16 18 16 17 17 13 18 16 19 19 20 18 17 20 22 24 27 23 23 22 22 21 20 20 20 19 18 17 16 14 14 13 15 14 10 24 31 35 38 38 42 41 -193 -193 21 19 22 24 24 24 25 25 25 25 26 26 25 25 26 27 28 29 30 31 31 32 31 32 32 32 33 33 32 34 35 35 37 38 38 38 39 40 40 40 42 41 43 43 45 43 43 43 43 43 43 42 43 42 46 47 48 50 51 52 52 52 52 50 52 52 50 51 51 52 54 55 57 57 57 57 58 58 59 58 58 58 59 59 60 61 60 63 63 63 65 63 63 63 63 65 0 0 0 0 0
    0 0 0 0 0 0 0 0 0 0 0 0 0 0 0 0 0 0 0 0 0 0 0 0 0 0 0 0 0 0 0 0 0 0 0 0 0 0 0 0 0 0 0 0 0 0 0 0 0 0 0 0 0 0 0 0 0 0 0 0 0 0 0 0 0 0 0 0 0 13 14 17 15 14 12 14 13 14 13 12 11 13 12 15 13 14 14 16 16 17 17 18 15 17 17 18 18 16 15 13 12 11 10 9 0 0 10 10 13 19 17 19 19 18 19 20 18 19 19 18 18 18 17 17 16 17 14 12 15 14 18 18 15 18 17 19 17 17 17 18 17 18 19 18 18 19 19 19 19 21 21 20 22 21 22 22 22 22 19 18 16 15 17 19 20 18 20 18 19 19 19 19 18 18 18 16 18 16 17 17 14 19 17 20 21 21 19 18 20 23 -193 27 22 23 21 22 21 21 20 20 19 19 17 17 14 14 14 15 14 14 19 19 22 21 21 -193 -193 20 23 20 19 22 23 24 24 25 25 25 26 27 27 26 26 27 28 29 29 30 31 31 32 31 32 32 32 33 33 32 35 34 35 37 38 38 38 39 40 40 40 42 41 42 43 45 43 43 43 43 43 43 42 43 42 47 48 48 51 52 52 53 52 53 51 52 52 51 51 51 52 55 55 57 58 57 57 58 57 59 58 58 58 59 59 60 61 61 63 63 64 65 64 64 63 63 66 0 0 0 0 0
    0 0 0 0 0 0 0 0 0 0 0 0 0 0 0 0 0 0 0 0 0 0 0 0 0 0 0 0 0 0 0 0 0 0 0 0 0 0 0 0 0 0 0 0 0 0 0 0 0 0 0 0 0 0 0 0 0 0 0 0 0 0 0 0 0 0 0 0 0 13 14 17 15 14 13 15 14 15 14 13 11 13 13 15 13 14 15 18 19 18 19 19 17 17 18 18 17 15 15 12 12 11 9 0 0 0 9 10 12 19 17 20 19 19 20 20 19 19 19 18 17 17 17 16 15 15 13 12 12 11 14 14 13 16 15 18 16 18 17 18 18 18 19 18 18 19 19 19 19 20 20 19 21 20 21 -193 -193 -193 17 17 14 13 14 17 19 17 19 17 19 19 19 19 18 18 18 16 18 16 18 18 15 19 18 21 23 22 22 21 20 21 21 23 21 22 21 21 21 20 20 20 19 19 17 17 15 15 16 17 17 17 19 19 20 20 20 18 19 19 22 20 20 22 23 24 24 25 24 25 26 27 27 26 27 28 28 30 30 30 31 31 33 32 32 32 32 32 33 32 35 34 35 37 38 38 38 39 40 40 40 41 41 42 43 45 43 43 43 43 43 43 42 43 42 47 49 49 52 53 53 53 52 53 51 52 52 51 51 51 52 55 55 57 57 57 57 58 57 58 58 58 58 59 59 60 60 61 63 63 64 65 64 64 64 64 66 0 0 0 0 0
    0 0 0 0 0 0 0 0 0 0 0 0 0 0 0 0 0 0 0 0 0 0 0 0 0 0 0 0 0 0 0 0 0 0 0 0 0 0 0 0 0 0 0 0 0 0 0 0 0 0 0 0 0 0 0 0 0 0 0 0 0 0 0 0 0 0 0 0 0 13 14 16 15 14 13 15 15 14 14 13 11 12 12 14 13 14 17 19 21 19 20 19 17 17 17 17 16 14 14 11 11 11 10 8 0 9 10 12 14 21 19 21 20 20 20 20 19 19 19 18 17 17 16 16 15 15 13 12 11 11 13 13 12 15 14 17 15 18 17 18 18 18 19 18 19 19 18 19 18 19 19 17 20 19 20 -193 -193 -193 17 18 15 14 14 16 18 17 19 17 19 18 18 19 18 18 18 16 18 16 18 19 17 19 19 21 22 22 22 21 21 21 20 21 20 21 20 20 20 20 20 20 19 18 17 18 16 16 18 18 18 19 20 19 20 21 20 19 19 19 21 20 20 22 22 24 24 24 24 25 26 27 27 27 27 28 29 30 30 31 32 31 34 32 32 33 32 33 34 32 35 34 35 37 38 38 38 39 40 40 40 42 42 41 42 44 42 43 43 43 43 43 42 43 41 47 49 49 52 53 53 53 52 53 51 52 52 51 51 51 52 55 55 56 56 56 56 58 57 58 58 58 58 59 60 60 60 61 63 64 64 66 65 64 65 65 66 0 0 0 0 0
    0 0 0 0 0 0 0 0 0 0 0 0 0 0 0 0 0 0 0 0 0 0 0 0 0 0 0 0 0 0 0 0 0 0 0 0 0 0 0 0 0 0 0 0 0 0 0 0 0 0 0 0 0 0 0 0 0 0 0 0 0 0 0 0 0 0 0 0 0 14 14 16 14 14 13 14 15 14 14 13 11 13 13 16 15 16 20 20 21 19 20 18 17 17 17 16 16 14 14 11 11 11 10 9 0 9 10 13 15 21 21 22 21 20 20 20 19 19 19 18 17 17 17 16 15 15 13 12 11 12 13 13 12 14 14 16 14 17 16 18 18 18 19 18 18 19 18 19 18 19 19 17 19 19 18 18 16 19 16 18 16 16 15 17 18 18 19 18 18 18 18 19 18 18 18 16 18 17 19 20 19 20 20 22 22 22 23 22 22 21 20 21 20 22 20 20 20 19 20 20 20 18 17 19 18 17 19 19 20 20 20 20 20 21 21 19 19 19 20 21 20 22 21 23 23 24 24 25 25 27 27 27 27 28 29 30 30 31 32 32 34 32 32 33 33 33 34 32 35 34 35 37 38 38 39 39 40 41 41 42 42 41 42 44 42 42 42 42 42 43 42 43 41 48 49 49 52 53 53 53 52 53 52 52 52 51 51 51 52 55 54 55 56 56 56 58 57 58 58 58 58 59 60 61 60 62 63 65 65 66 66 65 65 65 65 0 0 0 0 0
    0 0 0 0 0 0 0 0 0 0 0 0 0 0 0 0 0 0 0 0 0 0 0 0 0 0 0 0 0 0 0 0 0 0 0 0 0 0 0 0 0 0 0 0 0 0 0 0 0 0 0 0 0 0 0 0 0 0 0 0 0 0 0 0 0 0 0 0 0 15 14 16 14 14 13 13 14 14 14 14 11 13 14 18 19 20 22 20 21 18 19 18 16 16 16 16 16 13 15 12 11 12 11 9 9 10 11 13 14 19 19 22 20 20 20 20 20 19 19 18 17 17 17 16 15 15 13 13 13 13 14 14 13 16 14 17 14 17 17 18 18 18 18 18 18 19 18 19 18 18 18 17 18 19 16 16 15 18 16 18 16 17 16 18 19 18 19 18 18 18 18 19 18 18 18 16 19 18 20 21 21 22 22 23 22 22 23 23 -193 21 21 21 21 22 20 20 20 19 20 20 20 19 17 19 18 18 20 20 21 21 21 21 21 22 21 20 19 19 20 21 20 22 21 23 23 24 24 24 25 27 26 27 27 28 29 29 30 31 32 32 34 32 33 33 33 34 34 32 35 34 36 37 38 38 38 39 40 40 40 41 41 40 41 42 41 42 42 42 42 42 42 43 41 49 49 49 52 54 53 53 52 53 52 52 52 51 51 51 52 54 54 55 56 56 56 58 57 58 58 58 59 60 61 61 60 63 64 66 66 66 66 65 65 65 65 0 0 0 0 0
    0 0 0 0 0 0 0 0 0 0 0 0 0 0 0 0 0 0 0 0 0 0 0 0 0 0 0 0 0 0 0 0 0 0 0 0 0 0 0 0 0 0 0 0 0 0 0 0 0 0 0 0 0 0 0 0 0 0 0 0 0 0 0 0 0 0 0 0 0 15 14 16 14 14 13 13 14 14 14 14 11 13 14 19 20 21 22 20 21 18 19 18 16 16 16 15 16 13 15 13 12 14 14 12 12 12 13 14 14 16 16 19 19 20 20 20 19 19 19 18 17 18 17 16 15 15 14 15 14 14 14 15 14 17 15 17 15 17 17 18 18 19 18 18 18 19 18 19 18 18 17 17 18 19 16 16 15 18 16 18 16 18 16 18 19 18 19 18 17 18 18 18 18 18 18 17 19 20 20 21 -193 -193 23 23 23 23 -193 -193 123 22 22 21 21 23 21 20 20 19 21 20 21 19 18 20 19 -193 20 -193 22 22 22 21 22 23 22 21 19 19 19 21 20 22 20 22 23 23 24 24 24 27 27 27 28 28 29 29 30 31 31 32 34 32 33 33 33 33 34 33 35 34 35 36 38 37 38 39 39 39 40 41 40 39 41 41 41 41 41 41 41 42 41 42 41 49 49 49 53 54 53 53 52 53 52 52 52 52 51 51 52 54 54 54 55 55 56 58 57 58 58 58 59 60 61 61 61 64 64 66 66 67 67 66 66 66 64 0 0 0 0 0
    0 0 0 0 0 0 0 0 0 0 0 0 0 0 0 0 0 0 0 0 0 0 0 0 0 0 0 0 0 0 0 0 0 0 0 0 0 0 0 0 0 0 0 0 0 0 0 0 0 0 0 0 0 0 0 0 0 0 0 0 0 0 0 0 0 0 0 0 0 14 14 15 14 14 13 13 14 16 14 14 13 14 16 17 17 17 18 17 19 17 18 17 16 15 16 15 16 14 15 14 14 15 16 13 14 14 14 15 14 16 17 17 18 19 19 20 19 19 19 18 17 18 17 16 15 15 14 16 14 15 15 16 15 17 15 17 15 18 18 18 18 19 18 18 18 19 18 19 17 17 17 17 17 19 15 16 15 18 16 18 16 18 16 18 19 18 19 19 17 18 17 18 18 19 19 18 20 20 21 22 -193 -193 -193 24 23 23 -193 -193 124 22 22 22 22 23 21 20 19 19 21 20 21 19 19 20 20 20 21 -193 22 22 22 22 22 23 22 21 19 19 19 21 20 21 20 22 23 23 24 24 25 27 27 27 28 29 29 29 30 31 31 32 34 33 33 34 34 33 34 33 35 34 35 36 37 37 38 38 39 39 39 40 40 39 40 40 40 40 41 41 41 41 40 42 42 48 48 49 53 55 54 53 53 53 52 52 52 52 51 52 52 54 53 54 55 55 55 56 57 57 58 58 59 59 61 61 61 65 65 67 66 67 67 66 66 66 64 0 0 0 0 0
    0 0 0 0 0 0 0 0 0 0 0 0 0 0 0 0 0 0 0 0 0 0 0 0 0 0 0 0 0 0 0 0 0 0 0 0 0 0 0 0 0 0 0 0 0 0 0 0 0 0 0 0 0 0 0 0 0 0 0 0 0 0 0 0 0 0 0 0 0 14 14 16 14 14 14 13 15 17 14 15 14 15 16 16 16 17 16 16 18 16 18 16 15 15 16 15 17 14 16 15 14 16 17 14 15 15 15 16 14 16 17 16 18 19 18 20 19 18 18 18 17 18 17 16 16 16 15 17 14 15 15 16 16 18 16 18 15 18 18 18 18 19 17 18 17 19 17 19 17 17 16 17 17 19 15 16 15 18 16 18 16 18 16 18 19 18 19 19 16 18 16 18 18 19 19 19 20 21 21 22 -193 -193 -193 23 23 23 -193 -209 -193 22 22 22 22 23 22 20 20 19 21 20 21 19 19 20 20 20 21 -193 22 22 22 22 22 23 22 21 19 19 19 21 20 21 20 22 23 23 24 24 25 27 27 27 28 29 29 29 30 31 31 32 33 33 33 34 34 33 35 33 35 34 35 35 37 36 37 38 38 38 38 40 39 39 40 40 40 40 41 41 41 41 39 42 42 47 47 48 53 55 54 54 53 53 52 52 52 52 51 52 52 54 53 54 54 54 54 56 56 56 57 57 58 59 60 61 61 66 65 68 66 67 68 66 66 66 64 0 0 0 0 0
    0 0 0 0 0 0 0 0 0 0 0 0 0 0 0 0 0 0 0 0 0 0 0 0 0 0 0 0 0 0 0 0 0 0 0 0 0 0 0 0 0 0 0 0 0 0 0 0 0 0 0 0 0 0 0 0 0 0 0 0 0 0 0 0 0 0 0 0 0 14 14 16 14 14 14 13 15 17 14 14 14 15 16 16 16 17 15 16 18 15 18 16 15 15 16 15 17 14 16 15 15 16 18 14 16 15 15 16 15 16 18 16 18 18 18 20 19 18 18 18 17 18 17 17 16 16 16 18 14 16 16 17 16 18 16 18 16 18 18 17 18 19 16 18 17 19 17 19 17 18 17 18 18 20 16 17 16 18 16 18 16 18 16 18 19 18 19 19 16 18 17 19 18 20 19 19 20 21 21 21 22 23 22 22 22 22 23 24 24 22 22 22 22 23 21 20 20 20 22 20 21 20 19 20 20 20 21 -193 22 22 22 22 22 23 22 21 20 20 20 21 20 21 20 22 22 23 24 24 25 27 27 27 28 29 29 29 29 31 31 31 33 33 33 34 33 34 35 34 35 35 35 35 37 36 37 38 38 38 38 39 39 39 40 39 39 40 41 41 41 41 38 41 41 45 46 47 52 55 53 53 53 53 52 52 52 52 50 52 52 53 53 53 54 54 54 55 55 55 56 56 57 58 59 61 61 67 65 68 67 67 68 67 66 66 63 0 0 0 0 0
    0 0 0 0 0 0 0 0 0 0 0 0 0 0 0 0 0 0 0 0 0 0 0 0 0 0 0 0 0 0 0 0 0 0 0 0 0 0 0 0 0 0 0 0 0 0 0 0 0 0 0 0 0 0 0 0 0 0 0 0 0 0 0 0 0 0 0 0 0 15 14 16 14 14 14 13 14 16 13 14 14 15 16 16 16 17 15 16 17 15 18 16 15 15 16 15 17 15 16 15 15 16 18 14 16 16 16 16 15 16 18 16 17 18 17 20 18 18 18 18 17 19 17 18 16 17 16 19 15 17 16 18 16 19 17 19 16 19 18 17 17 19 16 18 17 19 18 20 18 18 17 18 18 20 16 18 16 19 16 19 16 18 16 18 18 18 18 19 16 18 18 19 18 20 20 19 21 21 20 21 22 22 22 22 22 21 23 24 23 21 22 22 22 23 21 20 20 19 22 20 21 20 19 21 21 20 21 258 -193 -193 22 23 22 23 22 21 20 20 20 21 20 21 20 22 22 22 23 24 24 27 26 27 28 28 29 29 29 31 30 31 33 32 34 34 34 35 35 34 35 35 35 35 37 36 37 38 38 38 38 39 39 39 40 39 39 41 41 41 41 41 37 41 41 44 45 46 51 54 53 52 52 53 52 52 52 52 50 52 52 53 53 53 53 53 54 55 55 55 55 55 56 57 59 60 61 67 66 69 67 67 68 67 67 65 63 0 0 0 0 0
    0 0 0 0 0 0 0 0 0 0 0 0 0 0 0 0 0 0 0 0 0 0 0 0 0 0 0 0 0 0 0 0 0 0 0 0 0 0 0 0 0 0 0 0 0 0 0 0 0 0 0 0 0 0 0 0 0 0 0 0 0 0 0 0 0 0 0 0 0 15 14 16 14 14 13 14 14 16 13 14 15 15 16 16 16 17 14 16 17 14 18 15 14 14 17 15 18 15 16 16 16 16 18 14 16 15 16 16 15 16 17 15 17 18 16 19 18 17 18 18 17 19 17 18 16 17 17 19 15 17 16 18 17 19 16 19 16 18 18 17 17 20 16 18 17 20 18 20 18 19 17 19 19 20 16 18 16 19 17 19 17 18 16 18 18 18 18 19 16 18 18 20 18 20 20 20 21 22 21 21 22 22 22 22 22 21 23 -193 24 22 22 22 21 23 21 19 20 19 21 20 21 20 20 21 -193 21 21 257 -193 -193 23 23 22 23 22 21 20 20 20 21 19 21 20 22 22 22 23 23 24 27 26 27 28 28 28 28 29 30 29 30 32 32 33 34 34 35 35 35 35 35 35 35 37 36 37 38 38 38 38 39 39 39 40 39 39 41 41 41 41 41 37 41 41 44 44 45 50 53 52 52 52 52 51 52 52 52 50 52 52 53 54 53 53 53 54 55 55 54 55 55 56 57 58 60 61 68 66 69 67 67 68 67 67 66 63 0 0 0 0 0
    0 0 0 0 0 0 0 0 0 0 0 0 0 0 0 0 0 0 0 0 0 0 0 0 0 0 0 0 0 0 0 0 0 0 0 0 0 0 0 0 0 0 0 0 0 0 0 0 0 0 0 0 0 0 0 0 0 0 0 0 0 0 0 0 0 0 0 0 0 14 14 16 14 14 13 14 14 17 13 14 15 15 16 16 16 17 14 15 16 14 17 15 14 14 16 15 18 15 17 16 16 17 18 15 16 16 16 16 15 16 17 15 17 18 16 19 18 17 18 19 17 19 17 18 16 18 17 18 15 17 16 18 17 19 16 18 17 18 18 17 17 20 15 18 17 20 19 20 18 19 17 19 19 20 16 19 16 19 17 19 17 18 16 18 17 18 18 19 15 19 18 20 18 21 20 20 22 22 21 21 22 23 23 23 22 21 -193 -209 -209 22 23 22 21 23 22 19 20 20 22 20 20 20 19 21 -193 21 21 -193 -193 -193 23 23 23 23 22 21 20 20 20 20 19 21 20 21 21 22 23 23 24 27 26 27 28 28 28 28 28 30 29 29 30 31 32 32 33 35 35 35 35 35 35 35 37 36 37 38 37 38 37 38 39 39 40 40 39 41 42 41 41 41 37 41 42 44 45 46 49 53 51 51 51 52 51 51 52 52 50 52 52 53 54 53 53 53 54 54 54 54 55 54 56 56 58 60 61 67 66 69 67 67 68 67 67 66 63 0 0 0 0 0
    0 0 0 0 0 0 0 0 0 0 0 0 0 0 0 0 0 0 0 0 0 0 0 0 0 0 0 0 0 0 0 0 0 0 0 0 0 0 0 0 0 0 0 0 0 0 0 0 0 0 0 0 0 0 0 0 0 0 0 0 0 0 0 0 0 0 0 0 0 14 14 15 14 14 14 14 14 17 13 14 15 15 16 15 15 17 14 15 16 14 17 15 14 14 16 15 18 15 17 16 16 17 18 15 16 15 16 16 15 16 17 15 16 17 16 19 17 17 18 19 18 20 17 18 16 18 17 18 15 17 16 18 17 19 17 18 17 18 18 18 17 20 15 19 17 20 18 20 18 19 17 19 19 20 16 19 16 20 18 19 17 18 17 18 17 18 18 19 15 19 18 21 18 21 20 21 22 -193 21 21 22 23 23 23 22 22 -193 -193 -209 22 23 23 21 23 22 20 20 20 21 20 20 20 20 20 -193 21 22 -193 23 -193 23 23 22 22 21 20 20 20 20 20 19 21 20 21 21 22 23 24 25 27 27 28 28 28 28 28 28 29 28 29 29 30 31 31 32 34 35 35 35 35 35 35 37 36 36 37 37 37 37 38 39 39 40 40 40 42 42 42 42 42 38 42 42 43 45 46 48 52 50 51 51 52 51 51 52 52 51 53 52 53 54 53 53 53 54 54 54 54 55 54 56 56 57 59 60 66 65 68 67 67 68 67 67 66 64 0 0 0 0 0
    0 0 0 0 0 0 0 0 0 0 0 0 0 0 0 0 0 0 0 0 0 0 0 0 0 0 0 0 0 0 0 0 0 0 0 0 0 0 0 0 0 0 0 0 0 0 0 0 0 0 0 0 0 0 0 0 0 0 0 0 0 0 0 0 0 0 0 0 0 14 13 15 14 14 14 14 14 16 14 14 15 15 16 15 15 16 14 15 16 14 17 14 15 15 16 16 18 15 17 16 17 16 18 15 16 15 16 16 15 16 17 15 16 17 16 19 17 18 19 19 17 20 17 18 17 18 18 18 15 18 16 19 17 19 17 19 17 19 18 18 17 20 15 19 17 20 18 20 18 19 17 19 19 19 16 20 16 20 18 19 17 18 16 18 16 18 17 19 15 19 19 21 19 21 21 21 -193 -193 22 21 22 23 23 23 22 22 -193 -177 -209 22 24 23 21 23 22 20 21 20 21 20 20 20 20 20 -193 21 22 -193 23 22 23 23 22 22 21 20 20 19 20 19 18 21 21 21 21 22 23 25 25 27 27 28 29 28 29 28 28 29 28 29 28 29 30 31 32 34 34 34 34 35 34 35 36 36 36 37 36 37 37 38 39 39 40 40 40 42 42 42 42 42 39 42 43 43 45 45 47 52 50 50 51 51 50 51 52 52 51 53 53 53 54 54 53 54 53 54 54 54 55 54 55 56 57 59 60 64 64 67 67 67 67 67 67 66 64 0 0 0 0 0
    0 0 0 0 0 0 0 0 0 0 0 0 0 0 0 0 0 0 0 0 0 0 0 0 0 0 0 0 0 0 0 0 0 0 0 0 0 0 0 0 0 0 0 0 0 0 0 0 0 0 0 0 0 0 0 0 0 0 0 0 0 0 0 0 0 0 0 0 0 13 13 15 14 14 14 14 14 16 14 14 14 15 16 15 15 16 14 15 16 14 18 14 15 15 16 16 18 16 17 16 17 16 18 16 16 15 16 16 15 16 17 15 16 18 16 19 17 18 19 19 17 20 17 18 17 18 18 18 15 18 16 19 17 19 17 19 18 19 18 19 17 20 15 19 17 21 19 20 17 19 17 20 19 19 16 20 17 20 18 20 18 18 16 18 16 18 17 19 15 19 19 22 19 21 21 21 -193 -193 22 21 22 22 23 23 22 21 -193 -193 -193 22 24 23 20 23 21 20 20 21 21 20 20 20 19 20 21 21 22 20 22 21 22 23 22 21 20 19 20 20 20 19 18 21 21 22 22 22 23 25 26 28 27 28 29 28 29 28 27 29 28 28 27 29 29 30 31 33 34 34 34 34 34 35 36 36 36 37 36 37 37 38 39 39 40 40 40 42 43 42 42 42 41 43 44 44 47 47 48 51 50 50 51 50 50 51 53 52 52 53 53 53 54 54 53 54 54 54 54 54 55 55 55 56 57 58 59 63 63 66 68 67 67 67 66 66 64 0 0 0 0 0
    0 0 0 0 0 0 0 0 0 0 0 0 0 0 0 0 0 0 0 0 0 0 0 0 0 0 0 0 0 0 0 0 0 0 0 0 0 0 0 0 0 0 0 0 0 0 0 0 0 0 0 0 0 0 0 0 0 0 0 0 0 0 0 0 0 0 0 0 0 13 13 16 13 14 14 14 14 15 14 14 14 14 16 15 14 17 14 15 16 14 18 15 16 16 16 16 18 16 18 16 17 16 18 16 16 15 16 16 15 16 17 15 15 18 16 19 17 18 18 19 17 20 17 18 17 18 18 18 15 18 16 19 17 19 17 18 18 18 17 19 16 20 15 19 18 21 19 20 18 19 17 20 20 19 17 21 17 21 18 20 18 18 17 18 16 18 17 18 16 19 19 21 19 21 21 21 -193 -193 22 20 21 22 22 23 21 20 21 -193 23 22 24 22 19 23 21 20 20 20 21 19 20 20 19 20 21 21 22 20 22 21 22 23 22 21 20 19 20 20 21 19 18 21 21 22 22 23 23 25 -193 -193 -193 28 28 28 29 28 27 29 27 29 28 29 30 29 31 32 33 34 33 34 33 35 37 36 36 36 36 37 37 38 39 39 40 41 41 43 43 43 43 43 41 44 45 45 49 48 48 51 50 50 51 50 50 51 52 53 52 53 53 54 55 54 54 54 54 54 55 55 56 55 56 57 57 58 59 62 63 64 68 66 67 67 66 66 64 0 0 0 0 0
    0 0 0 0 0 0 0 0 0 0 0 0 0 0 0 0 0 0 0 0 0 0 0 0 0 0 0 0 0 0 0 0 0 0 0 0 0 0 0 0 0 0 0 0 0 0 0 0 0 0 0 0 0 0 0 0 0 0 0 0 0 0 0 0 0 0 0 0 0 13 13 16 13 14 14 14 14 15 14 15 14 14 16 15 14 17 14 15 16 14 18 15 16 16 16 16 18 15 18 16 17 15 18 16 16 15 16 16 15 16 17 16 15 18 16 19 17 18 18 19 17 20 17 19 17 18 18 17 15 19 16 19 17 19 16 18 18 18 17 19 16 20 16 19 19 21 19 21 18 20 18 21 21 20 18 21 18 21 19 20 18 18 17 18 16 18 17 18 16 19 20 22 19 21 21 21 -193 -193 22 20 21 22 22 23 21 20 21 23 23 21 24 22 19 22 20 19 20 20 20 19 20 20 19 21 21 21 22 21 22 21 23 23 22 21 20 18 20 20 21 19 19 21 22 22 22 23 23 25 26 28 -193 28 28 28 29 28 27 29 27 29 28 29 30 29 30 31 32 34 32 34 33 34 36 35 35 36 35 37 37 38 39 38 41 41 41 43 43 43 43 43 42 44 47 45 49 49 48 50 50 50 51 49 51 51 52 53 52 53 54 54 55 54 54 54 54 54 55 55 56 56 57 58 58 59 59 61 63 63 68 66 67 67 66 66 65 0 0 0 0 0
    0 0 0 0 0 0 0 0 0 0 0 0 0 0 0 0 0 0 0 0 0 0 0 0 0 0 0 0 0 0 0 0 0 0 0 0 0 0 0 0 0 0 0 0 0 0 0 0 0 0 0 0 0 0 0 0 0 0 0 0 0 0 0 0 0 0 0 0 0 13 13 16 13 14 14 15 14 15 14 15 14 14 16 15 14 17 14 15 16 15 18 15 16 16 16 17 18 15 18 16 17 15 18 16 16 15 16 16 15 16 16 16 15 18 16 18 17 18 18 19 16 19 16 18 17 17 18 17 16 19 15 19 18 19 16 18 18 18 16 19 16 19 16 19 19 20 19 20 18 20 18 20 20 19 18 21 18 21 19 20 18 18 17 18 16 18 17 18 16 19 19 21 19 21 21 21 -193 -193 22 21 21 22 -193 23 22 21 21 -193 -193 21 23 21 19 22 20 19 19 20 20 19 20 20 18 21 22 22 22 22 22 22 22 23 22 20 19 17 19 19 21 19 19 21 22 22 22 23 24 25 26 28 27 28 28 28 28 28 27 29 27 29 28 30 29 29 30 31 31 34 31 33 32 34 37 35 35 35 35 37 37 38 39 38 41 41 42 42 43 43 44 43 42 44 48 45 50 50 49 50 50 50 51 49 52 51 52 53 53 53 54 54 55 54 54 55 54 55 55 55 57 57 57 58 58 59 59 61 63 62 68 66 66 67 66 66 65 0 0 0 0 0
    0 0 0 0 0 0 0 0 0 0 0 0 0 0 0 0 0 0 0 0 0 0 0 0 0 0 0 0 0 0 0 0 0 0 0 0 0 0 0 0 0 0 0 0 0 0 0 0 0 0 0 0 0 0 0 0 0 0 0 0 0 0 0 0 0 0 0 0 0 13 12 15 13 14 14 15 14 14 14 15 14 14 17 15 14 17 15 15 17 15 18 15 17 16 16 17 18 15 18 15 17 15 18 16 16 16 16 16 15 16 16 16 15 18 16 18 17 18 18 18 16 19 16 18 17 16 18 16 15 18 14 18 17 19 16 17 19 18 16 19 16 19 16 19 19 20 19 20 18 19 18 19 20 19 17 21 17 20 19 20 18 18 17 18 16 18 17 18 16 19 19 21 19 21 21 21 24 -193 22 21 22 22 -193 23 22 21 22 24 22 21 23 21 19 22 20 19 19 20 20 19 20 20 18 21 22 22 23 22 22 21 22 23 22 19 18 14 17 18 21 20 20 22 23 23 23 24 25 26 26 28 27 28 28 29 28 28 27 29 28 30 28 30 29 29 30 30 31 34 31 33 32 34 36 35 35 34 35 37 37 39 39 37 41 42 42 42 42 43 44 44 43 45 48 46 50 51 49 50 50 51 51 49 52 51 52 53 53 53 54 54 55 54 54 55 54 55 56 55 57 57 57 58 58 59 59 61 62 61 68 66 66 66 65 66 65 0 0 0 0 0
    0 0 0 0 0 0 0 0 0 0 0 0 0 0 0 0 0 0 0 0 0 0 0 0 0 0 0 0 0 0 0 0 0 0 0 0 0 0 0 0 0 0 0 0 0 0 0 0 0 0 0 0 0 0 0 0 0 0 0 0 0 0 0 0 0 0 0 0 0 13 12 15 13 14 15 15 14 14 14 15 13 14 17 15 14 18 15 15 17 16 18 15 17 16 15 17 17 15 18 16 17 15 17 17 16 16 16 16 15 16 17 16 15 18 16 18 18 18 18 18 16 19 16 18 17 16 18 16 15 18 14 18 17 19 16 17 19 18 16 19 16 19 16 19 19 19 19 20 18 19 18 19 19 19 17 21 18 20 19 20 18 18 17 19 16 18 17 18 16 19 19 21 19 21 21 21 23 -193 22 21 22 22 23 23 22 21 22 24 22 21 23 21 19 21 20 19 19 20 20 19 20 21 18 21 22 22 23 22 22 21 21 23 22 18 18 13 16 18 21 20 20 22 24 23 23 25 25 26 26 28 27 28 28 29 28 28 28 29 28 30 28 30 29 30 30 30 31 33 30 33 31 33 37 35 35 34 35 37 37 38 39 36 41 42 42 41 42 43 44 43 43 45 48 46 50 51 49 50 51 51 51 50 53 51 52 53 53 53 54 53 54 54 54 54 55 55 56 55 57 58 57 59 59 59 59 61 63 61 68 65 65 66 65 66 65 0 0 0 0 0
    0 0 0 0 0 0 0 0 0 0 0 0 0 0 0 0 0 0 0 0 0 0 0 0 0 0 0 0 0 0 0 0 0 0 0 0 0 0 0 0 0 0 0 0 0 0 0 0 0 0 0 0 0 0 0 0 0 0 0 0 0 0 0 0 0 0 0 0 0 12 13 15 13 14 15 14 13 13 14 15 13 13 17 15 14 18 15 16 17 16 18 15 17 16 15 17 17 15 17 16 17 15 17 16 16 16 16 16 15 16 17 16 15 18 16 17 18 17 17 17 16 19 15 18 17 15 18 17 15 18 15 18 16 19 16 17 19 18 17 20 17 18 17 19 18 19 18 19 17 19 18 18 19 18 17 21 18 19 19 20 18 18 17 19 16 18 18 18 16 19 19 20 18 21 21 20 23 23 21 21 21 22 22 23 22 20 21 23 21 20 22 20 19 21 19 19 19 20 20 19 20 20 18 21 22 21 23 22 21 21 21 23 22 18 17 13 15 19 21 20 20 22 24 23 24 25 25 26 26 28 27 27 28 28 28 28 28 29 28 31 28 30 30 30 30 30 31 34 30 33 31 34 37 35 35 34 36 37 38 39 39 36 41 41 42 41 42 43 43 43 44 45 47 46 50 51 49 50 51 50 51 50 53 51 52 53 52 53 54 53 54 54 54 54 55 55 55 55 57 58 57 59 59 59 58 60 63 61 68 65 65 66 65 66 65 0 0 0 0 0
    0 0 0 0 0 0 0 0 0 0 0 0 0 0 0 0 0 0 0 0 0 0 0 0 0 0 0 0 0 0 0 0 0 0 0 0 0 0 0 0 0 0 0 0 0 0 0 0 0 0 0 0 0 0 0 0 0 0 0 0 0 0 0 0 0 0 0 0 0 12 13 14 13 14 14 15 14 13 14 15 13 13 17 15 14 18 15 16 17 17 18 15 17 16 15 18 17 15 17 16 16 15 17 16 15 16 16 16 15 16 17 16 15 18 15 17 18 17 17 17 16 18 15 18 17 15 18 17 16 18 15 17 16 19 16 17 19 18 16 20 17 18 17 19 18 18 18 19 18 19 18 18 19 18 17 20 18 18 19 20 18 18 18 19 16 18 18 17 16 19 19 20 18 20 20 19 23 23 21 20 21 21 21 22 21 20 20 22 20 19 22 20 19 21 19 19 19 20 20 19 20 20 18 21 22 21 22 22 21 21 21 22 22 18 18 12 16 20 23 21 20 22 25 23 24 25 25 25 26 27 27 27 28 28 28 28 28 29 28 31 29 30 30 30 30 30 31 34 30 33 31 34 37 35 35 35 36 38 38 39 39 36 41 41 42 40 41 42 43 43 44 45 47 46 50 51 49 50 51 50 51 50 53 50 52 52 52 52 54 53 54 54 54 54 55 55 55 55 57 57 57 58 58 59 58 60 62 61 68 65 65 66 65 66 65 0 0 0 0 0
    0 0 0 0 0 0 0 0 0 0 0 0 0 0 0 0 0 0 0 0 0 0 0 0 0 0 0 0 0 0 0 0 0 0 0 0 0 0 0 0 0 0 0 0 0 0 0 0 0 0 0 0 0 0 0 0 0 0 0 0 0 0 0 0 0 0 0 0 0 12 13 14 13 14 14 15 14 14 15 15 13 14 18 15 14 19 15 17 17 17 18 15 17 16 15 18 16 15 17 16 16 15 17 16 15 16 16 15 16 16 18 16 15 18 15 16 18 17 17 16 16 18 15 18 17 15 18 17 16 17 16 17 15 19 16 16 19 17 16 19 17 18 17 18 18 18 18 19 18 19 18 18 19 18 18 20 18 18 19 20 18 18 18 19 17 18 19 17 17 19 19 20 18 20 20 18 22 22 19 20 20 20 20 21 21 19 19 22 19 18 21 20 19 20 19 18 18 20 19 18 19 20 18 21 22 21 22 22 21 22 21 22 22 18 18 12 17 21 23 21 20 22 25 23 24 24 25 25 26 27 26 26 27 27 28 28 28 29 28 32 29 30 30 30 30 30 31 33 29 33 32 34 37 35 35 35 37 38 38 39 39 37 41 41 41 40 41 42 43 43 44 44 47 46 49 51 49 50 50 50 51 50 53 50 51 52 51 52 54 52 53 54 54 54 55 55 55 54 57 57 57 58 58 58 58 60 62 61 67 65 65 66 65 66 66 0 0 0 0 0
    0 0 0 0 0 0 0 0 0 0 0 0 0 0 0 0 0 0 0 0 0 0 0 0 0 0 0 0 0 0 0 0 0 0 0 0 0 0 0 0 0 0 0 0 0 0 0 0 0 0 0 0 0 0 0 0 0 0 0 0 0 0 0 0 0 0 0 0 0 12 13 14 13 14 14 15 13 14 14 15 13 14 18 15 14 19 16 17 17 17 17 15 17 16 15 18 16 15 17 16 16 16 17 17 15 17 16 16 16 16 18 16 15 19 16 16 18 16 17 16 17 18 15 19 17 14 18 17 16 16 16 16 14 20 16 16 19 17 17 19 17 17 17 18 18 18 18 19 17 19 19 17 19 18 18 20 18 17 19 20 18 18 19 20 17 18 20 17 17 20 19 19 17 19 20 17 22 21 17 19 20 19 18 20 20 19 19 22 19 18 21 20 19 20 19 18 18 19 19 18 19 20 18 21 22 21 22 22 21 22 21 23 21 18 18 12 17 19 23 21 20 22 25 23 24 24 24 24 25 26 25 25 26 27 27 27 28 29 28 33 29 31 30 30 30 31 31 33 29 32 32 34 37 35 35 35 37 39 39 39 39 37 41 41 41 39 41 42 43 43 43 44 46 45 49 50 48 49 50 50 50 50 53 49 51 51 51 52 53 52 53 -193 54 54 55 55 55 54 56 57 -193 58 58 58 58 60 62 61 66 65 65 67 65 66 66 0 0 0 0 0
    0 0 0 0 0 0 0 0 0 0 0 0 0 0 0 0 0 0 0 0 0 0 0 0 0 0 0 0 0 0 0 0 0 0 0 0 0 0 0 0 0 0 0 0 0 0 0 0 0 0 0 0 0 0 0 0 0 0 0 0 0 0 0 0 0 0 0 0 0 12 14 13 13 13 14 15 13 13 14 14 13 15 18 15 15 19 16 17 17 17 17 15 17 16 14 18 15 15 17 15 16 16 17 17 14 17 16 16 16 16 19 16 15 19 16 16 18 16 17 16 18 18 15 19 17 14 18 17 16 15 17 16 14 20 16 16 19 17 17 20 17 17 18 18 18 17 18 18 17 19 19 17 19 18 18 20 19 16 19 19 18 18 19 21 17 18 20 17 17 20 19 19 17 19 19 15 21 20 14 19 20 20 19 21 21 20 21 22 19 19 20 20 19 20 19 18 19 19 19 19 19 20 18 21 22 20 22 22 21 21 20 22 20 17 17 13 16 19 22 21 20 22 25 23 -193 24 -193 24 -193 25 25 25 26 26 27 27 28 29 28 33 29 31 30 30 30 31 31 33 29 32 32 34 36 34 35 35 38 39 39 39 39 38 41 42 42 40 41 43 43 44 43 44 45 45 48 50 48 49 49 50 50 50 52 49 51 51 51 51 53 52 52 -193 54 53 55 55 55 54 56 57 -193 58 58 58 58 59 62 61 65 64 65 67 65 66 66 0 0 0 0 0
    0 0 0 0 0 0 0 0 0 0 0 0 0 0 0 0 0 0 0 0 0 0 0 0 0 0 0 0 0 0 0 0 0 0 0 0 0 0 0 0 0 0 0 0 0 0 0 0 0 0 0 0 0 0 0 0 0 0 0 0 0 0 0 0 0 0 0 0 0 13 15 13 13 13 14 14 13 13 14 13 13 15 18 15 15 19 16 18 17 17 17 15 17 16 14 18 15 15 16 16 17 16 17 17 14 18 17 15 16 16 20 16 15 19 16 16 19 16 17 15 18 17 14 19 17 14 18 17 17 15 17 17 13 20 17 17 19 17 17 20 17 17 18 17 17 16 17 17 16 18 18 15 18 17 17 18 18 16 19 19 18 19 19 22 18 18 21 17 18 20 18 -193 17 19 19 14 20 19 12 16 19 17 18 20 21 20 21 21 19 20 20 20 19 20 19 19 19 19 19 19 18 20 18 21 21 19 21 21 20 20 18 20 17 15 15 13 15 18 22 21 20 22 25 23 24 24 24 24 -193 25 25 24 26 26 27 27 28 28 28 33 30 30 29 30 30 30 31 32 29 32 32 34 36 34 34 36 38 39 39 39 39 39 41 41 41 40 41 43 44 44 44 44 45 45 47 50 47 48 49 50 50 51 52 49 51 51 50 51 53 51 52 -193 53 53 55 55 55 54 56 57 -193 58 -193 -193 58 59 61 61 64 64 65 66 65 66 66 0 0 0 0 0
    0 0 0 0 0 0 0 0 0 0 0 0 0 0 0 0 0 0 0 0 0 0 0 0 0 0 0 0 0 0 0 0 0 0 0 0 0 0 0 0 0 0 0 0 0 0 0 0 0 0 0 0 0 0 0 0 0 0 0 0 0 0 0 0 0 0 0 0 0 13 16 13 13 13 14 13 12 13 13 12 13 15 18 15 15 19 16 18 17 17 17 15 17 16 14 18 14 15 16 16 17 16 17 17 14 18 17 15 16 17 20 16 16 19 16 16 19 16 17 15 18 18 15 20 18 14 19 18 17 15 18 17 14 20 18 17 19 17 17 20 17 16 18 17 17 16 17 17 15 17 18 15 18 17 17 18 17 15 18 18 18 20 19 22 19 19 21 18 18 -193 -193 -193 17 19 19 15 20 19 12 15 18 17 18 20 21 20 21 21 20 20 20 20 19 20 19 18 20 19 18 18 18 20 18 21 21 18 20 20 19 18 16 17 15 15 15 13 14 17 21 21 20 22 25 22 24 23 23 23 -193 25 25 24 26 26 26 27 29 28 28 33 30 31 30 30 30 31 31 32 30 32 32 34 36 35 34 36 39 39 39 39 40 39 41 41 41 40 41 43 43 44 44 44 45 45 46 49 47 47 48 49 49 50 51 49 50 50 50 51 52 51 51 53 53 52 55 55 55 54 56 57 -193 58 58 58 59 59 61 62 63 64 65 66 65 66 66 0 0 0 0 0
    0 0 0 0 0 0 0 0 0 0 0 0 0 0 0 0 0 0 0 0 0 0 0 0 0 0 0 0 0 0 0 0 0 0 0 0 0 0 0 0 0 0 0 0 0 0 0 0 0 0 0 0 0 0 0 0 0 0 0 0 0 0 0 0 0 0 0 0 0 14 16 13 14 13 14 13 12 13 13 12 13 15 18 15 15 19 16 18 16 17 17 15 17 16 14 18 14 15 16 16 17 16 17 17 14 18 17 15 17 18 21 16 16 20 16 16 19 16 17 15 18 18 15 20 18 15 19 18 18 16 18 18 14 19 18 18 19 18 18 20 17 17 18 17 17 16 17 17 15 17 18 15 18 17 17 18 17 16 18 17 18 20 19 22 18 19 21 18 18 -193 18 -193 17 19 19 15 19 18 12 15 16 16 16 19 20 20 21 20 20 20 20 21 19 20 19 19 20 19 19 19 18 20 18 21 20 17 19 19 18 17 16 16 15 16 16 17 16 19 21 21 20 22 24 22 23 23 23 23 24 24 24 23 26 25 26 27 29 28 28 32 30 31 30 30 30 31 31 32 30 31 32 34 36 35 34 37 40 40 39 39 40 39 41 41 41 40 41 43 43 44 43 44 44 45 46 48 46 47 47 48 49 50 51 49 50 50 50 51 52 51 51 53 53 52 55 55 54 54 56 58 -209 59 59 59 59 60 61 62 63 63 65 66 65 66 66 0 0 0 0 0
    0 0 0 0 0 0 0 0 0 0 0 0 0 0 0 0 0 0 0 0 0 0 0 0 0 0 0 0 0 0 0 0 0 0 0 0 0 0 0 0 0 0 0 0 0 0 0 0 0 0 0 0 0 0 0 0 0 0 0 0 0 0 0 0 0 0 0 0 0 14 16 13 14 13 14 13 12 13 13 12 14 16 17 15 16 19 16 18 16 16 17 16 17 16 14 18 14 15 17 16 16 16 17 16 14 17 17 15 16 18 21 17 16 20 17 17 19 16 17 16 18 18 15 20 18 16 19 19 18 17 19 18 15 19 18 19 19 18 18 20 17 17 18 17 17 16 17 18 14 18 18 15 18 18 17 18 18 18 19 18 19 20 18 21 18 18 21 17 18 -193 19 19 17 20 19 16 20 19 14 17 18 17 17 18 19 20 21 19 20 20 19 21 19 20 19 18 20 18 18 19 18 20 19 20 20 17 19 19 19 18 17 16 17 18 19 20 19 21 22 22 21 22 24 21 23 22 23 22 23 24 24 23 25 25 26 27 29 28 28 31 31 30 30 30 30 31 31 32 31 31 33 35 36 35 34 38 40 40 39 39 40 39 40 40 41 40 41 43 43 44 44 45 45 45 46 48 46 47 47 48 48 50 50 49 50 50 50 51 52 51 51 53 53 52 55 55 54 54 56 -193 -209 59 60 60 59 60 61 62 62 63 65 66 65 66 66 0 0 0 0 0
    0 0 0 0 0 0 0 0 0 0 0 0 0 0 0 0 0 0 0 0 0 0 0 0 0 0 0 0 0 0 0 0 0 0 0 0 0 0 0 0 0 0 0 0 0 0 0 0 0 0 0 0 0 0 0 0 0 0 0 0 0 0 0 0 0 0 0 0 0 14 16 13 13 12 14 13 12 13 13 13 14 16 17 15 17 19 16 18 16 16 17 16 17 15 15 17 13 16 17 15 16 15 16 16 14 17 16 15 16 17 20 16 16 20 16 17 18 17 17 15 18 18 15 20 18 17 19 19 19 17 19 18 16 18 18 19 19 17 17 20 17 16 19 17 17 16 18 18 15 19 19 16 19 19 18 19 18 19 19 19 20 20 19 21 19 18 20 18 18 20 18 19 17 20 19 16 20 19 15 18 19 19 18 20 20 21 22 20 21 20 20 20 20 20 19 19 20 19 19 19 18 20 19 21 20 18 19 20 19 19 18 17 18 20 20 21 20 22 22 22 21 22 23 21 23 22 22 22 23 24 24 23 25 25 27 27 29 28 28 30 31 30 30 30 30 32 31 32 31 31 33 35 36 36 34 38 40 40 39 39 40 40 40 40 41 40 41 44 43 45 44 45 45 45 46 48 46 47 47 48 48 50 50 49 50 50 51 51 52 51 51 53 52 51 55 55 54 54 -193 -193 -209 -193 61 61 60 60 61 62 61 63 65 66 64 66 66 0 0 0 0 0
    0 0 0 0 0 0 0 0 0 0 0 0 0 0 0 0 0 0 0 0 0 0 0 0 0 0 0 0 0 0 0 0 0 0 0 0 0 0 0 0 0 0 0 0 0 0 0 0 0 0 0 0 0 0 0 0 0 0 0 0 0 0 0 0 0 0 0 0 0 15 17 13 14 12 15 13 12 13 14 13 15 17 17 15 17 18 16 18 16 16 17 16 17 15 15 17 13 16 17 15 16 16 15 15 15 17 15 16 15 17 19 17 16 20 16 17 18 17 17 16 19 19 16 20 19 18 19 20 19 18 19 19 17 18 18 19 19 18 17 19 16 16 18 17 17 16 18 19 15 19 19 16 19 19 18 18 18 20 19 20 20 21 19 21 19 18 20 18 18 19 18 19 17 19 19 16 20 19 16 19 20 20 20 21 20 21 22 21 21 21 20 20 20 21 19 19 20 19 19 20 19 21 19 20 20 19 19 20 20 20 18 18 19 20 21 21 20 22 22 22 21 22 23 20 22 22 22 22 23 24 24 24 26 26 27 27 30 29 28 30 32 31 30 30 31 32 31 32 32 31 34 35 36 36 33 39 41 40 39 39 40 40 40 40 41 40 41 44 43 44 44 45 45 45 46 48 45 46 47 48 48 49 50 49 50 51 51 51 52 51 51 53 52 51 54 55 54 -193 -193 -193 -209 60 63 61 60 61 61 62 61 62 64 65 63 65 65 0 0 0 0 0
    0 0 0 0 0 0 0 0 0 0 0 0 0 0 0 0 0 0 0 0 0 0 0 0 0 0 0 0 0 0 0 0 0 0 0 0 0 0 0 0 0 0 0 0 0 0 0 0 0 0 0 0 0 0 0 0 0 0 0 0 0 0 0 0 0 0 0 0 0 15 17 13 14 13 15 13 13 14 14 13 15 17 16 14 17 18 16 19 16 16 17 16 17 16 15 17 13 16 17 14 16 16 15 15 16 17 16 17 16 18 18 17 17 19 16 17 18 17 17 16 19 19 16 21 20 18 20 20 19 19 19 19 18 18 19 19 19 18 18 19 17 17 18 17 17 16 18 19 15 19 18 16 18 19 17 18 18 20 19 20 20 20 18 21 19 18 20 18 18 19 18 19 17 19 19 17 21 19 18 20 20 21 20 21 21 21 23 22 22 21 20 21 20 21 20 19 21 19 19 20 19 21 20 20 20 19 19 20 20 20 18 18 19 20 21 22 20 22 22 23 21 22 23 20 22 22 22 22 23 24 25 25 26 27 27 28 31 29 28 29 32 31 30 30 31 32 31 32 32 31 34 35 36 36 33 39 40 39 39 39 40 40 40 41 41 40 41 44 43 44 44 45 45 45 46 48 46 47 47 48 47 49 50 50 50 51 51 51 53 51 51 53 52 51 54 55 -193 -193 56 -209 -209 60 63 62 60 61 61 62 60 61 63 64 62 63 63 0 0 0 0 0
    0 0 0 0 0 0 0 0 0 0 0 0 0 0 0 0 0 0 0 0 0 0 0 0 0 0 0 0 0 0 0 0 0 0 0 0 0 0 0 0 0 0 0 0 0 0 0 0 0 0 0 0 0 0 0 0 0 0 0 0 0 0 0 0 0 0 0 0 0 15 16 13 14 14 15 14 14 14 14 14 15 17 15 14 16 17 15 18 15 16 17 16 17 16 15 17 13 16 17 14 16 17 14 15 16 17 16 17 16 18 17 17 17 18 16 17 17 18 17 17 19 19 17 21 20 19 20 21 19 19 19 19 19 18 19 19 19 18 18 19 17 17 18 17 17 16 18 19 15 19 18 17 19 19 18 18 18 19 19 20 19 20 18 20 19 17 20 18 18 19 18 19 17 19 19 17 21 19 19 20 21 21 21 21 21 21 23 22 22 21 21 21 21 22 20 19 21 19 20 20 19 21 20 20 20 19 19 20 19 20 19 19 20 21 22 22 21 22 22 23 22 22 23 20 22 22 22 22 23 24 25 25 27 27 27 28 31 29 29 29 33 31 30 31 32 32 32 33 33 31 34 35 36 36 33 39 40 39 39 39 40 40 40 40 41 40 41 44 43 44 44 45 45 45 45 48 46 47 47 48 47 49 49 50 50 52 52 52 53 52 52 53 52 51 54 55 54 -193 -193 -193 -209 60 65 63 60 61 61 62 60 60 62 62 60 61 60 0 0 0 0 0
    0 0 0 0 0 0 0 0 0 0 0 0 0 0 0 0 0 0 0 0 0 0 0 0 0 0 0 0 0 0 0 0 0 0 0 0 0 0 0 0 0 0 0 0 0 0 0 0 0 0 0 0 0 0 0 0 0 0 0 0 0 0 0 0 0 0 0 0 0 15 16 13 14 15 15 14 15 14 15 14 15 17 15 14 16 16 15 18 15 16 17 16 17 17 16 17 14 16 17 14 16 17 14 15 16 17 16 17 16 18 16 17 17 18 16 18 17 18 16 18 19 20 17 21 20 19 20 21 19 20 19 19 19 18 19 19 19 18 18 19 17 17 18 17 17 17 18 19 16 19 18 17 19 19 18 18 18 19 19 20 19 20 18 20 19 17 20 18 18 19 17 19 18 19 20 18 21 19 19 20 21 21 21 21 20 21 23 22 22 20 21 21 21 22 21 20 21 19 20 21 20 20 20 20 20 20 19 20 20 20 20 19 20 21 22 22 21 22 22 22 21 22 22 20 21 22 22 22 23 24 25 25 27 27 28 28 31 28 29 28 32 31 30 31 32 32 32 33 34 31 34 35 36 36 33 38 39 39 39 39 40 39 39 40 41 40 41 43 43 44 44 45 45 45 45 48 46 46 47 48 47 48 49 51 50 52 52 52 53 52 52 54 52 51 54 55 54 -193 -193 -193 -209 60 66 64 61 61 61 62 60 61 61 61 60 59 59 0 0 0 0 0
    0 0 0 0 0 0 0 0 0 0 0 0 0 0 0 0 0 0 0 0 0 0 0 0 0 0 0 0 0 0 0 0 0 0 0 0 0 0 0 0 0 0 0 0 0 0 0 0 0 0 0 0 0 0 0 0 0 0 0 0 0 0 0 0 0 0 0 0 0 15 16 13 15 15 15 15 16 14 15 15 15 17 15 14 17 16 16 18 15 17 17 16 17 17 16 18 14 16 17 15 16 18 14 16 16 17 16 17 16 18 16 17 17 17 16 18 17 18 16 19 19 20 18 21 20 19 20 20 19 20 19 19 20 17 19 19 19 19 18 19 17 17 19 17 17 17 18 19 16 19 19 17 19 19 18 18 19 19 18 20 19 20 17 20 19 17 20 18 18 18 17 19 17 19 19 18 21 19 19 20 21 21 21 21 20 21 23 22 22 20 21 20 21 22 21 20 21 20 21 21 20 21 20 20 20 20 20 21 20 21 20 20 20 21 21 22 21 22 22 22 21 21 22 20 21 21 22 22 23 25 26 26 27 27 28 28 30 28 29 28 32 31 31 31 32 32 33 33 34 32 34 35 36 36 33 38 39 38 39 39 40 39 39 40 41 40 41 43 42 43 43 45 45 45 45 47 46 46 47 48 47 48 49 51 51 52 52 52 54 52 52 54 52 52 54 55 54 -193 55 -193 -193 60 67 64 60 61 61 63 60 61 61 61 60 60 58 0 0 0 0 0
    0 0 0 0 0 0 0 0 0 0 0 0 0 0 0 0 0 0 0 0 0 0 0 0 0 0 0 0 0 0 0 0 0 0 0 0 0 0 0 0 0 0 0 0 0 0 0 0 0 0 0 0 0 0 0 0 0 0 0 0 0 0 0 0 0 0 0 0 0 14 15 13 15 16 15 15 17 14 16 15 16 17 15 15 17 16 16 18 15 17 17 16 17 17 15 18 14 16 17 15 16 18 15 16 17 17 16 17 17 18 16 18 17 17 17 18 17 19 17 19 19 20 18 21 20 19 19 20 18 19 19 19 19 17 19 19 19 19 18 18 17 17 19 18 18 18 18 19 17 20 19 17 19 19 18 18 19 19 18 19 19 19 17 20 19 17 20 17 18 18 17 19 17 19 20 18 21 19 20 20 21 21 21 21 20 21 22 21 21 20 20 20 21 22 21 20 21 20 21 21 21 21 21 20 20 21 20 21 21 21 21 21 21 21 22 22 21 22 22 22 21 21 22 19 21 20 21 22 22 24 26 26 27 28 28 28 30 29 29 28 32 31 31 31 32 31 33 33 34 32 34 35 36 37 34 38 39 38 38 39 39 39 39 40 41 40 41 42 42 43 43 45 44 45 45 47 46 47 47 48 47 49 49 52 51 53 53 53 54 53 53 54 53 52 54 55 54 54 55 -209 -193 60 66 63 59 61 60 62 60 60 60 59 56 56 53 0 0 0 0 0
    0 0 0 0 0 0 0 0 0 0 0 0 0 0 0 0 0 0 0 0 0 0 0 0 0 0 0 0 0 0 0 0 0 0 0 0 0 0 0 0 0 0 0 0 0 0 0 0 0 0 0 0 0 0 0 0 0 0 0 0 0 0 0 0 0 0 0 0 0 14 15 13 14 16 15 16 17 14 16 15 16 17 14 15 17 16 16 18 15 17 17 16 17 17 15 18 14 16 18 15 16 18 15 16 17 17 16 16 16 18 16 17 17 17 17 18 17 19 17 19 20 20 18 21 21 19 20 20 18 19 19 18 19 17 19 18 18 18 18 18 17 17 19 18 18 18 18 19 17 20 19 18 19 19 17 18 19 19 18 20 19 19 17 20 19 17 20 17 18 18 18 19 17 19 20 18 21 19 20 21 21 22 21 22 20 21 22 21 21 20 20 20 21 22 21 20 21 20 21 21 21 21 21 21 21 22 20 22 21 21 21 21 21 22 -193 -193 22 22 22 22 21 21 22 19 20 20 21 22 22 24 26 26 27 28 28 29 30 29 30 29 32 31 31 31 32 31 33 33 33 32 34 35 37 37 34 37 38 38 38 39 39 39 38 41 41 41 41 42 42 43 43 45 44 45 45 47 46 47 48 48 47 49 49 52 51 53 53 53 54 53 53 54 53 52 54 55 54 54 55 56 55 59 66 62 58 60 60 62 59 60 58 54 53 51 47 0 0 0 0 0
    0 0 0 0 0 0 0 0 0 0 0 0 0 0 0 0 0 0 0 0 0 0 0 0 0 0 0 0 0 0 0 0 0 0 0 0 0 0 0 0 0 0 0 0 0 0 0 0 0 0 0 0 0 0 0 0 0 0 0 0 0 0 0 0 0 0 0 0 0 14 15 14 15 17 15 16 17 15 16 16 16 17 15 16 17 15 17 18 15 17 17 16 17 17 16 18 15 17 18 15 16 18 15 17 17 17 16 17 17 18 16 17 17 17 16 18 17 20 18 20 20 21 19 21 21 18 19 19 18 19 19 18 19 17 18 18 18 18 17 18 18 17 18 18 18 18 18 19 17 20 19 18 19 19 17 18 18 19 18 20 19 19 17 20 19 16 20 17 18 18 18 20 18 19 20 18 21 19 21 21 21 22 21 22 20 20 22 21 21 20 20 20 21 22 22 20 21 21 21 22 22 21 21 21 21 22 20 22 21 21 21 21 21 22 -193 22 22 22 22 22 21 21 21 19 20 19 21 22 22 24 26 26 27 28 28 29 30 29 31 29 32 31 32 32 32 31 33 32 33 32 33 34 36 37 34 36 37 37 38 38 39 39 38 41 41 41 41 42 42 43 43 45 44 45 44 47 46 47 47 48 47 49 49 53 52 54 53 53 54 53 53 54 53 52 53 54 54 54 55 55 54 59 64 61 58 59 59 61 59 59 54 53 52 -209 46 0 0 0 0 0
    0 0 0 0 0 0 0 0 0 0 0 0 0 0 0 0 0 0 0 0 0 0 0 0 0 0 0 0 0 0 0 0 0 0 0 0 0 0 0 0 0 0 0 0 0 0 0 0 0 0 0 0 0 0 0 0 0 0 0 0 0 0 0 0 0 0 0 0 0 14 14 14 15 17 14 16 18 15 17 16 16 17 15 16 17 15 16 17 15 18 17 16 17 17 16 18 15 17 18 15 16 18 15 17 17 17 17 17 17 18 16 17 17 17 16 18 18 20 18 21 20 21 19 21 21 18 19 19 18 19 19 18 19 16 18 18 18 18 17 18 17 17 18 18 17 18 18 19 17 20 19 18 18 19 17 18 18 18 18 19 19 19 17 20 18 16 20 18 18 18 19 20 18 20 20 19 21 -193 21 21 20 21 20 21 20 20 21 20 20 19 20 20 21 22 21 20 21 21 21 22 22 21 22 22 21 22 20 22 21 21 22 21 21 22 -193 -193 22 22 22 22 21 21 21 19 20 19 20 22 22 24 26 26 27 28 29 29 30 29 31 30 32 32 32 32 32 31 33 32 32 32 32 34 36 37 35 36 37 37 38 38 38 39 39 42 42 42 42 42 42 43 43 45 44 45 44 47 47 46 47 48 46 49 48 53 52 54 53 53 54 54 54 54 53 52 53 54 54 54 55 55 52 58 61 60 58 58 57 60 58 56 49 49 49 49 -193 0 0 0 0 0
    0 0 0 0 0 0 0 0 0 0 0 0 0 0 0 0 0 0 0 0 0 0 0 0 0 0 0 0 0 0 0 0 0 0 0 0 0 0 0 0 0 0 0 0 0 0 0 0 0 0 0 0 0 0 0 0 0 0 0 0 0 0 0 0 0 0 0 0 0 15 14 15 15 17 14 16 18 15 17 16 16 17 15 16 17 15 16 17 15 17 17 16 17 17 16 18 15 17 18 15 16 19 15 17 17 18 18 18 18 19 16 17 17 17 16 19 17 20 18 20 20 20 19 21 20 18 19 19 17 19 19 18 19 16 18 18 18 18 17 18 18 17 18 18 17 18 18 19 17 20 19 18 19 19 17 18 18 18 18 19 19 19 17 20 18 17 20 18 18 18 19 21 18 21 20 19 21 -193 21 20 20 21 19 21 19 20 21 20 20 18 20 20 21 21 21 21 21 22 21 22 22 21 22 22 21 22 20 22 21 21 22 21 21 22 -193 22 22 22 22 22 21 21 21 20 20 18 20 22 21 23 26 26 27 29 29 30 30 30 32 30 32 32 32 32 32 30 33 32 32 33 33 35 36 37 36 36 37 38 38 38 38 39 39 41 41 42 42 41 42 43 43 44 44 46 44 47 47 46 47 48 47 49 48 53 52 54 54 54 54 54 54 54 53 52 53 54 54 54 55 56 54 58 61 60 60 59 60 63 63 63 -209 -209 48 -209 -209 0 0 0 0 0
    0 0 0 0 0 0 0 0 0 0 0 0 0 0 0 0 0 0 0 0 0 0 0 0 0 0 0 0 0 0 0 0 0 0 0 0 0 0 0 0 0 0 0 0 0 0 0 0 0 0 0 0 0 0 0 0 0 0 0 0 0 0 0 0 0 0 0 0 0 15 14 15 15 17 14 16 18 15 17 16 16 17 15 17 17 15 16 17 15 18 17 16 17 16 17 18 15 17 18 15 16 19 15 17 17 18 18 18 18 19 17 17 18 18 16 19 17 20 18 20 19 20 18 20 20 18 19 19 17 19 19 18 19 16 18 18 18 18 17 18 17 16 18 18 17 18 18 19 17 20 19 18 19 19 18 18 18 19 18 20 20 19 18 21 19 17 20 18 18 19 20 21 19 21 21 20 22 21 22 20 20 21 19 21 19 20 20 20 19 18 20 19 21 21 21 21 21 22 21 22 22 21 22 22 21 22 21 23 21 21 22 22 21 22 -193 23 22 23 23 22 22 21 21 20 20 18 20 22 21 23 26 26 27 29 29 30 30 30 32 30 32 32 33 32 32 30 33 32 32 34 34 35 36 38 37 36 37 38 38 38 38 39 39 41 41 42 41 41 42 43 42 44 43 45 44 46 47 46 47 48 47 49 48 53 52 53 54 54 54 54 54 54 53 53 53 54 54 55 56 56 55 59 61 61 62 61 62 66 68 -209 -209 -209 -193 -209 -209 0 0 0 0 0
    0 0 0 0 0 0 0 0 0 0 0 0 0 0 0 0 0 0 0 0 0 0 0 0 0 0 0 0 0 0 0 0 0 0 0 0 0 0 0 0 0 0 0 0 0 0 0 0 0 0 0 0 0 0 0 0 0 0 0 0 0 0 0 0 0 0 0 0 0 15 14 15 15 17 14 16 18 15 17 17 16 17 15 17 18 15 17 18 16 18 18 17 17 16 17 18 15 17 18 15 17 19 16 17 17 18 18 18 18 19 17 17 18 19 16 19 18 20 18 20 20 20 18 20 20 19 19 19 17 19 19 18 19 17 18 18 19 19 17 19 18 17 19 19 18 18 18 19 17 20 20 18 19 18 18 18 18 19 19 20 20 20 19 22 19 18 21 19 19 19 21 21 19 22 21 20 22 22 22 21 20 21 20 21 19 20 20 19 19 18 19 19 21 21 21 21 22 22 21 22 22 21 22 22 22 23 21 23 22 22 22 22 22 22 -193 23 23 23 23 22 22 21 21 20 20 18 20 22 21 23 26 26 28 29 29 30 30 30 32 30 32 32 33 32 32 30 33 32 32 34 34 35 36 38 37 37 37 38 39 39 39 40 40 42 41 42 41 41 41 42 42 44 43 45 44 46 48 46 47 48 47 50 48 53 52 53 54 54 54 54 54 54 53 53 53 54 54 54 56 56 54 58 59 59 62 60 62 65 -209 -209 -209 -209 -209 -209 -209 0 0 0 0 0
    0 0 0 0 0 0 0 0 0 0 0 0 0 0 0 0 0 0 0 0 0 0 0 0 0 0 0 0 0 0 0 0 0 0 0 0 0 0 0 0 0 0 0 0 0 0 0 0 0 0 0 0 0 0 0 0 0 0 0 0 0 0 0 0 0 0 0 0 0 15 13 15 16 16 13 16 17 15 17 17 16 17 16 18 19 16 17 18 16 18 18 17 17 16 18 19 16 18 18 16 18 19 16 17 17 19 18 19 19 19 18 18 18 20 16 19 18 20 18 20 20 20 18 20 20 18 18 19 17 19 19 18 19 17 19 18 19 19 17 19 19 17 20 20 19 19 19 19 17 21 20 18 19 18 18 18 18 19 19 21 21 20 19 22 18 19 21 19 19 19 21 22 20 22 21 21 23 23 23 21 20 22 20 22 20 20 20 19 19 18 20 19 20 21 20 21 22 23 21 22 22 21 22 23 22 23 21 23 22 22 22 -193 22 23 -193 23 23 23 23 23 22 21 21 21 21 18 20 22 21 24 27 26 28 30 30 31 30 30 33 31 32 33 33 32 31 30 33 32 32 34 35 35 35 38 37 37 38 39 39 39 40 41 40 42 41 42 40 40 41 42 42 43 43 45 44 46 48 47 47 48 47 50 47 52 52 52 53 54 53 54 54 54 53 53 53 54 54 55 56 57 54 57 57 56 -209 -209 -209 -209 -209 -209 -193 -209 -209 -209 -193 0 0 0 0 0
    0 0 0 0 0 0 0 0 0 0 0 0 0 0 0 0 0 0 0 0 0 0 0 0 0 0 0 0 0 0 0 0 0 0 0 0 0 0 0 0 0 0 0 0 0 0 0 0 0 0 0 0 0 0 0 0 0 0 0 0 0 0 0 0 0 0 0 0 0 16 13 15 16 16 13 16 17 15 17 17 17 17 17 19 19 17 18 19 16 18 19 17 16 16 18 19 16 19 19 16 19 20 18 18 18 20 19 19 20 20 19 18 19 21 17 20 19 20 19 20 20 20 18 20 19 19 18 19 18 20 19 18 19 18 19 19 20 19 18 20 19 18 20 20 19 19 19 20 17 21 21 19 20 18 20 21 17 20 19 20 21 19 20 23 19 19 21 20 20 20 22 -193 20 -193 22 -193 23 23 24 22 21 22 20 22 20 20 20 19 19 19 20 20 21 22 21 22 23 23 21 -193 22 -193 23 23 22 23 21 23 22 22 23 -193 -193 23 23 24 24 24 24 23 23 22 22 21 21 19 20 21 21 24 27 26 28 30 30 31 30 31 34 32 33 33 34 33 31 31 33 32 32 35 35 35 35 38 38 38 38 39 39 40 41 41 41 42 41 42 40 40 41 42 42 44 43 46 44 46 48 47 47 49 47 50 47 52 51 50 53 53 52 53 53 54 53 53 52 54 53 54 56 57 56 57 -193 59 -209 -193 -209 -209 -209 -209 91 -209 -209 -209 -193 0 0 0 0 0
    0 0 0 0 0 0 0 0 0 0 0 0 0 0 0 0 0 0 0 0 0 0 0 0 0 0 0 0 0 0 0 0 0 0 0 0 0 0 0 0 0 0 0 0 0 0 0 0 0 0 0 0 0 0 0 0 0 0 0 0 0 0 0 0 0 0 0 0 0 16 13 15 16 17 13 17 17 16 18 18 17 17 17 19 19 17 18 19 17 18 19 17 17 16 19 19 17 20 20 17 20 21 20 19 18 21 20 20 21 21 20 19 20 22 18 21 20 21 20 21 21 21 19 21 20 20 19 20 18 20 20 19 20 18 19 20 20 20 18 21 20 18 21 20 19 20 19 20 17 21 21 20 21 19 22 23 18 23 21 21 21 20 21 23 19 20 22 21 20 21 23 -193 21 23 23 -193 24 24 24 22 21 23 20 22 20 20 21 20 20 20 21 22 22 23 22 -193 -193 -193 22 -193 23 22 23 23 22 23 21 23 22 22 23 -193 23 24 23 24 25 25 25 24 24 23 23 22 22 20 19 21 21 24 27 26 29 30 30 32 31 31 35 33 34 34 34 33 32 31 34 33 33 35 35 35 35 38 38 38 38 40 40 40 41 42 42 42 42 42 40 40 41 43 42 44 43 46 44 46 49 47 47 49 47 50 47 51 51 49 53 53 52 53 53 53 53 52 51 53 52 53 54 55 53 51 -209 -209 -209 -193 61 -193 -209 -209 -209 -209 -193 -209 33 0 0 0 0 0
    0 0 0 0 0 0 0 0 0 0 0 0 0 0 0 0 0 0 0 0 0 0 0 0 0 0 0 0 0 0 0 0 0 0 0 0 0 0 0 0 0 0 0 0 0 0 0 0 0 0 0 0 0 0 0 0 0 0 0 0 0 0 0 0 0 0 0 0 0 16 13 15 16 16 13 17 17 17 18 19 18 18 18 20 20 18 18 19 17 18 20 18 17 17 19 20 17 20 20 18 20 21 21 19 19 22 21 22 22 23 22 21 22 24 20 22 21 22 21 22 21 21 20 21 20 20 20 20 19 21 21 20 21 19 20 20 20 20 19 21 21 19 22 21 20 20 20 20 17 22 22 20 21 19 23 24 20 23 21 22 22 22 22 23 21 22 23 -193 -193 22 -193 -193 22 -193 24 -193 25 25 25 23 22 23 21 23 21 21 21 21 20 21 22 23 23 24 23 25 26 26 23 -193 23 23 23 23 22 23 22 23 23 23 24 24 24 25 24 25 26 26 27 26 25 24 23 23 23 21 19 21 21 24 28 27 30 31 32 33 33 32 36 35 36 34 36 34 33 32 35 34 34 35 36 35 35 37 39 38 39 40 40 41 42 43 42 42 42 42 40 40 41 43 42 44 43 46 45 46 49 47 47 49 47 50 47 51 51 48 52 53 52 53 53 54 54 53 53 54 53 54 55 55 53 42 -209 -209 -209 -209 -209 -209 -209 -209 -209 37 38 34 33 0 0 0 0 0
    0 0 0 0 0 0 0 0 0 0 0 0 0 0 0 0 0 0 0 0 0 0 0 0 0 0 0 0 0 0 0 0 0 0 0 0 0 0 0 0 0 0 0 0 0 0 0 0 0 0 0 0 0 0 0 0 0 0 0 0 0 0 0 0 0 0 0 0 0 16 12 14 16 16 13 17 18 17 18 19 18 18 19 20 21 19 19 20 18 19 20 18 17 17 20 20 18 21 21 19 22 22 22 20 20 23 21 22 23 24 23 23 24 25 22 24 22 23 22 23 22 21 20 21 20 21 20 21 20 23 23 21 23 21 22 22 22 22 21 23 22 20 23 22 21 21 21 21 18 22 23 21 23 21 24 25 22 24 22 24 25 24 24 24 23 24 25 -193 -209 23 -209 26 24 26 -193 25 26 26 26 25 24 25 23 24 23 22 22 23 21 22 24 25 25 25 24 26 27 27 23 24 23 23 23 23 22 23 23 24 -193 25 25 26 26 28 26 27 28 29 29 29 28 27 26 26 26 25 20 21 23 25 30 29 35 35 35 35 36 36 40 -193 -193 38 39 35 35 34 36 35 35 36 37 35 35 37 39 39 39 41 41 41 43 43 43 42 41 42 40 40 41 43 42 44 43 46 45 46 50 47 47 49 47 51 47 50 50 47 52 53 51 53 53 54 55 54 54 55 54 55 57 -193 55 -209 -209 -209 -209 -209 48 49 48 -209 -209 36 37 33 34 0 0 0 0 0
    0 0 0 0 0 0 0 0 0 0 0 0 0 0 0 0 0 0 0 0 0 0 0 0 0 0 0 0 0 0 0 0 0 0 0 0 0 0 0 0 0 0 0 0 0 0 0 0 0 0 0 0 0 0 0 0 0 0 0 0 0 0 0 0 0 0 0 0 0 15 12 13 15 15 12 16 18 18 19 20 20 19 20 22 22 20 20 21 19 19 21 18 18 17 21 21 19 22 23 22 25 24 24 22 22 24 22 22 24 24 24 24 26 28 24 26 -209 24 23 24 23 22 21 22 21 22 21 22 22 23 24 23 -193 -193 -193 -193 -193 -193 25 26 25 23 25 25 24 23 22 22 19 23 24 22 24 22 25 27 24 25 23 25 26 24 25 25 25 26 27 27 27 26 29 28 26 28 -193 26 28 27 27 27 26 26 26 26 26 25 25 26 25 26 29 29 27 27 26 28 29 29 27 25 24 23 24 24 23 23 24 26 27 27 29 29 30 32 30 30 33 32 32 32 31 30 30 31 31 30 -193 -209 30 29 35 35 38 39 38 37 39 40 44 -193 48 -209 -193 36 36 36 37 36 35 36 37 34 35 37 39 39 40 41 41 42 43 44 43 42 41 42 40 40 41 42 42 44 43 46 45 47 50 47 47 50 47 51 47 50 50 47 52 52 51 52 52 53 55 54 54 55 52 51 53 53 54 -209 -193 -193 -209 -209 -193 55 -209 -209 -209 -209 -209 -209 -209 0 0 0 0 0
    0 0 0 0 0 0 0 0 0 0 0 0 0 0 0 0 0 0 0 0 0 0 0 0 0 0 0 0 0 0 0 0 0 0 0 0 0 0 0 0 0 0 0 0 0 0 0 0 0 0 0 0 0 0 0 0 0 0 0 0 0 0 0 0 0 0 0 0 0 14 11 12 13 13 12 16 19 19 20 21 21 20 21 23 23 22 22 23 21 20 22 20 19 18 22 23 22 24 26 26 27 28 28 25 23 25 22 23 24 -193 25 27 29 32 29 29 28 26 26 26 25 24 23 23 23 23 23 24 23 24 26 -193 -193 30 31 30 32 33 31 31 30 26 27 27 28 25 25 25 22 25 27 24 29 26 29 30 26 27 24 26 26 24 25 26 26 27 28 29 30 29 31 30 29 32 31 29 32 29 29 30 29 28 28 29 29 28 29 32 29 32 36 35 32 30 31 32 32 32 34 29 30 27 29 27 25 26 27 28 31 30 33 33 33 34 33 33 35 33 33 32 30 30 32 31 32 30 -193 -209 38 30 36 35 38 38 36 35 37 39 43 -209 -193 -209 -209 35 35 36 36 35 35 35 36 33 35 37 39 39 39 41 41 42 43 44 43 42 41 41 40 40 41 42 42 44 43 46 46 47 50 48 47 50 48 51 48 50 50 46 51 52 51 52 51 52 54 53 53 54 45 43 44 47 51 -209 -193 90 -209 -209 -209 -209 -209 195 -193 -209 -209 -209 -209 0 0 0 0 0
    0 0 0 0 0 0 0 0 0 0 0 0 0 0 0 0 0 0 0 0 0 0 0 0 0 0 0 0 0 0 0 0 0 0 0 0 0 0 0 0 0 0 0 0 0 0 0 0 0 0 0 0 0 0 0 0 0 0 0 0 0 0 0 0 0 0 0 0 0 13 10 10 12 12 13 18 21 21 22 23 23 22 23 24 24 24 23 24 -209 21 23 21 20 20 22 24 24 25 27 28 28 29 29 29 26 27 25 24 -193 -209 -209 33 33 35 35 33 33 31 30 29 28 27 26 25 25 24 24 24 24 25 -193 -193 -193 34 33 33 33 35 33 34 34 32 32 33 35 34 33 33 31 29 32 29 33 30 30 31 27 27 25 25 25 24 24 25 25 26 27 28 30 31 32 33 32 35 34 33 36 32 31 32 30 30 29 29 30 28 29 32 30 31 35 35 33 31 33 33 35 33 36 30 33 27 30 26 25 26 27 27 30 29 33 33 33 34 33 34 36 34 33 32 30 31 32 32 32 29 -193 -209 29 28 35 31 36 37 32 32 36 40 -193 -209 -209 -209 -209 35 33 36 36 35 35 35 36 33 35 37 39 39 39 41 41 42 43 44 43 42 41 41 40 40 42 43 42 44 43 46 46 47 51 48 47 50 48 51 48 50 50 46 51 52 50 52 50 51 53 51 50 51 -193 41 42 -209 -193 -209 -193 89 -209 -209 -209 -209 194 -193 -209 -209 -209 -209 -209 0 0 0 0 0
    0 0 0 0 0 0 0 0 0 0 0 0 0 0 0 0 0 0 0 0 0 0 0 0 0 0 0 0 0 0 0 0 0 0 0 0 0 0 0 0 0 0 0 0 0 0 0 0 0 0 0 0 0 0 0 0 0 0 0 0 0 0 0 0 0 0 0 0 0 11 9 0 9 10 14 19 24 24 24 24 24 24 25 25 25 25 -193 -209 -209 -209 -209 -209 -209 22 24 27 27 28 29 31 29 29 30 29 27 27 27 -209 -209 -209 -193 -209 -193 36 37 36 35 35 35 33 33 31 30 27 27 25 25 24 24 25 -193 -193 29 -193 -193 31 31 33 32 34 35 33 34 35 37 38 38 38 37 34 34 32 34 29 29 29 25 25 24 24 24 23 23 24 24 25 27 28 29 30 32 34 34 -193 35 34 36 33 31 32 31 30 29 29 30 28 30 31 30 31 34 33 33 32 34 34 35 31 34 27 28 26 27 25 24 26 26 27 29 29 33 32 33 33 33 35 36 35 34 32 31 33 34 33 32 29 29 36 32 29 34 31 36 37 30 31 34 -209 51 -209 -209 -193 -209 35 32 36 36 35 35 35 36 33 35 37 40 38 39 40 40 41 43 43 43 42 41 41 40 40 42 43 42 44 43 46 46 47 51 48 48 50 48 51 48 50 50 46 51 51 50 51 49 50 52 50 48 -193 -209 -209 -193 -209 -209 -209 82 88 -209 -209 -209 -209 -209 -209 -209 -209 -209 -209 -193 0 0 0 0 0
    0 0 0 0 0 0 0 0 0 0 0 0 0 0 0 0 0 0 0 0 0 0 0 0 0 0 0 0 0 0 0 0 0 0 0 0 0 0 0 0 0 0 0 0 0 0 0 0 0 0 0 0 0 0 0 0 0 0 0 0 0 0 0 0 0 0 0 0 0 -209 0 0 0 10 15 19 -209 24 24 24 24 24 25 25 25 -209 -209 -209 718 -209 -209 -209 -209 -193 27 29 29 29 30 30 29 28 28 28 26 26 -209 -209 -209 -209 -209 -209 -193 35 36 35 34 33 34 32 32 31 30 28 28 27 27 26 27 27 27 28 29 -193 -209 -193 -193 30 -193 31 32 29 31 33 35 37 37 37 35 32 33 31 31 28 27 27 24 23 23 24 24 23 23 23 24 25 26 27 28 29 32 33 34 -193 -193 34 37 34 31 32 31 30 30 29 30 28 29 31 30 31 33 33 33 32 34 34 34 30 32 27 28 26 28 25 25 26 27 27 29 29 32 31 31 32 32 34 36 35 34 32 31 34 33 32 31 28 28 30 29 27 31 31 35 38 29 31 33 -209 50 -193 -193 -209 -209 34 31 35 36 35 35 35 36 33 35 37 40 38 39 40 40 41 42 43 42 41 41 41 -193 41 42 43 42 44 43 46 47 46 51 48 48 50 48 51 49 49 50 47 51 51 50 51 49 50 52 50 47 -209 -209 -209 -209 -209 -209 -209 83 89 -209 -209 -209 -209 -209 -193 -209 -209 -209 -209 110 0 0 0 0 0
    0 0 0 0 0 0 0 0 0 0 0 0 0 0 0 0 0 0 0 0 0 0 0 0 0 0 0 0 0 0 0 0 0 0 0 0 0 0 0 0 0 0 0 0 0 0 0 0 0 0 0 0 0 0 0 0 0 0 0 0 0 0 0 0 0 0 0 0 0 0 0 0 0 10 16 18 22 23 23 24 24 23 26 25 -193 -209 -209 -209 -193 -209 -209 -209 -209 -209 -209 35 36 31 32 30 29 27 27 27 24 24 -209 -209 -209 -209 -209 -193 -193 35 36 35 34 33 34 32 32 32 31 30 29 29 29 29 29 28 28 29 29 -193 -209 -209 -209 -193 -193 31 32 28 30 32 33 36 35 36 33 30 31 29 -193 28 27 27 24 23 23 24 24 24 24 24 24 25 26 27 27 29 31 32 33 33 35 33 35 33 31 32 32 30 30 30 31 29 30 31 30 29 31 31 31 30 33 32 32 28 32 26 27 27 28 25 26 27 27 28 29 29 32 31 31 31 32 34 37 35 35 32 31 34 33 33 31 26 25 23 24 24 -193 27 33 -209 26 25 -209 -193 50 -209 -193 -209 -209 30 29 34 35 35 34 34 36 33 35 37 39 37 38 39 40 40 41 42 41 -193 40 40 -209 41 42 43 42 43 43 46 47 46 51 47 48 50 48 51 49 49 50 47 51 51 50 51 49 50 52 50 46 -209 -193 -209 -209 -209 -209 -209 82 91 -193 -193 -209 -209 -209 -193 -193 -209 -209 -209 111 0 0 0 0 0
    0 0 0 0 0 0 0 0 0 0 0 0 0 0 0 0 0 0 0 0 0 0 0 0 0 0 0 0 0 0 0 0 0 0 0 0 0 0 0 0 0 0 0 0 0 0 0 0 0 0 0 0 0 0 0 0 0 0 0 0 0 0 0 0 0 0 0 0 0 0 0 0 0 10 14 16 21 22 23 24 24 24 27 28 27 -193 -209 -209 -209 -209 -209 -209 -193 -193 -193 37 39 34 33 31 29 27 26 26 23 23 -193 -209 -209 -209 -209 -193 -193 34 36 35 34 33 34 32 33 33 32 31 30 31 31 30 29 28 27 -193 28 -209 -193 -209 -209 -193 -209 -209 -193 -193 29 31 31 34 34 36 34 32 33 32 -193 29 27 28 25 24 24 25 25 25 25 24 24 25 26 28 28 30 31 33 33 34 35 33 35 34 32 34 33 32 32 31 32 29 30 30 30 29 30 30 30 29 33 32 33 29 31 25 25 27 27 24 26 27 27 28 30 30 33 31 31 31 32 35 37 35 35 33 33 35 34 33 30 26 25 24 24 24 -193 -209 31 -209 -209 -209 -209 -209 -209 -209 -209 -209 -209 29 29 34 35 34 34 34 35 33 35 36 39 36 38 39 39 39 41 41 41 -193 40 40 -209 41 42 42 42 43 43 45 46 46 51 47 48 50 48 51 50 50 50 48 52 52 51 51 50 50 52 50 45 -193 -193 28 -209 -209 -209 -209 -209 -209 -209 -193 -209 -209 -209 195 -193 -209 -209 -209 -193 0 0 0 0 0
    0 0 0 0 0 0 0 0 0 0 0 0 0 0 0 0 0 0 0 0 0 0 0 0 0 0 0 0 0 0 0 0 0 0 0 0 0 0 0 0 0 0 0 0 0 0 0 0 0 0 0 0 0 0 0 0 0 0 0 0 0 0 0 0 0 0 0 0 0 0 0 0 0 11 13 18 -193 23 24 26 25 25 28 28 28 27 -209 -209 -209 -209 -209 -209 -193 38 41 38 38 32 31 29 28 27 26 25 23 23 -209 -209 -209 -193 -209 -193 -209 -193 -193 -193 34 33 -193 -193 33 34 32 32 31 33 31 31 29 29 28 27 27 -209 -193 678 -209 -209 85 -209 -209 -209 27 29 30 32 33 36 34 33 34 33 30 29 28 29 26 25 24 25 25 25 24 24 24 25 26 28 28 30 32 33 33 34 35 34 35 34 32 33 33 33 32 31 32 29 30 30 30 29 30 30 31 30 33 33 33 30 32 26 26 28 30 25 27 27 27 29 31 31 33 31 32 30 33 36 37 35 35 33 34 36 35 34 31 27 27 28 26 27 -193 -209 29 -209 25 -209 -209 -209 -209 -209 -209 -209 -209 29 29 34 35 34 34 34 35 32 34 36 39 36 37 38 38 38 40 40 40 -193 40 40 40 40 42 42 42 43 43 45 46 46 51 48 48 50 49 51 50 50 50 48 52 51 51 51 50 49 51 49 44 -209 25 28 30 -209 -209 -209 -209 -209 -193 -209 -209 -209 -193 197 197 196 -209 -209 -209 0 0 0 0 0
    0 0 0 0 0 0 0 0 0 0 0 0 0 0 0 0 0 0 0 0 0 0 0 0 0 0 0 0 0 0 0 0 0 0 0 0 0 0 0 0 0 0 0 0 0 0 0 0 0 0 0 0 0 0 0 0 0 0 0 0 0 0 0 0 0 0 0 0 0 -209 -193 -209 -193 14 18 22 -209 26 28 28 27 27 29 29 28 26 -209 -209 -209 -209 -209 -209 35 41 42 39 39 32 30 29 28 26 26 25 23 24 -209 -193 -209 -209 -209 -209 -209 -209 -209 -209 -193 -209 -209 -193 32 33 31 32 31 34 32 31 30 30 29 29 29 -209 -193 676 -193 -193 85 -209 -209 -209 27 28 30 32 33 35 34 34 34 33 30 28 27 28 25 24 24 24 24 24 24 24 23 24 25 27 27 30 31 33 33 33 34 33 34 34 32 32 34 35 34 33 33 31 31 32 32 29 31 31 31 30 34 33 34 33 34 28 30 31 33 27 29 28 28 29 30 29 30 28 30 29 31 34 35 34 35 34 36 36 35 34 31 28 28 31 28 30 -209 -209 27 26 24 -209 -193 -209 -193 -209 -209 -209 -209 30 30 34 36 35 34 34 35 32 34 36 39 35 36 37 38 37 39 39 39 -193 40 40 40 41 42 42 42 43 43 45 46 45 51 48 48 50 49 51 50 50 50 48 51 51 50 51 49 48 50 47 43 18 24 28 32 -209 -209 -193 -209 -209 -209 -209 -209 -209 -193 195 195 192 -209 -209 -209 0 0 0 0 0
    0 0 0 0 0 0 0 0 0 0 0 0 0 0 0 0 0 0 0 0 0 0 0 0 0 0 0 0 0 0 0 0 0 0 0 0 0 0 0 0 0 0 0 0 0 0 0 0 0 0 0 0 0 0 0 0 0 0 0 0 0 0 0 0 0 0 0 0 0 23 -209 -209 -209 20 21 24 29 27 28 28 27 27 28 28 27 26 -209 -209 -209 -209 -209 -209 34 40 42 40 38 31 28 28 27 26 25 25 23 -193 -209 -193 -209 -193 -209 -209 -209 -209 -209 -209 -193 -209 -209 -209 32 33 32 33 33 35 33 33 31 32 31 31 31 -209 -209 -209 -209 -209 85 -209 -209 -209 26 28 29 31 32 34 33 33 33 32 29 28 26 28 26 25 24 24 25 25 25 24 24 25 26 28 28 30 31 32 33 33 34 33 33 33 32 31 34 35 34 33 34 31 31 32 32 29 30 31 31 30 34 34 34 34 35 31 32 33 34 29 31 29 29 30 30 31 30 28 30 29 31 32 33 33 32 34 36 35 35 33 31 27 28 29 29 31 -209 -209 29 -209 -209 -209 -209 -209 -209 -209 -209 -209 -209 31 31 34 36 35 34 34 35 32 34 36 38 34 35 37 37 36 38 39 38 -193 40 40 40 41 42 42 42 43 43 44 46 45 51 48 48 50 50 51 51 50 50 49 51 51 50 50 49 47 50 47 42 21 24 29 35 -209 -209 -193 -209 -209 -209 -209 -209 -209 -209 -193 191 -193 -209 -209 -209 0 0 0 0 0
    0 0 0 0 0 0 0 0 0 0 0 0 0 0 0 0 0 0 0 0 0 0 0 0 0 0 0 0 0 0 0 0 0 0 0 0 0 0 0 0 0 0 0 0 0 0 0 0 0 0 0 0 0 0 0 0 0 0 0 0 0 0 0 0 0 0 0 0 0 27 -209 -209 23 23 23 28 28 27 28 29 28 28 29 29 28 27 29 -209 -209 -209 -209 -209 -193 -209 -193 39 38 30 27 -193 26 25 25 -193 22 -193 -209 29 31 34 37 -193 -209 37 -193 -193 -193 -193 -193 31 31 32 32 34 34 36 35 34 32 34 33 34 34 -209 -193 -209 -209 -209 -209 -209 -209 -209 26 28 29 30 30 32 32 33 33 31 28 27 26 27 26 26 24 25 25 26 26 25 25 25 26 28 29 30 32 33 33 34 35 34 33 33 32 31 33 34 34 31 34 30 31 32 31 30 31 31 32 30 34 34 33 34 35 31 31 33 33 30 32 30 31 31 31 33 30 30 30 29 31 31 32 32 30 33 36 36 35 32 31 28 29 34 33 35 -209 -193 -209 -209 -209 -209 -209 -209 -209 -209 -209 -209 -209 30 30 33 36 35 34 34 35 32 34 35 38 34 35 36 37 36 38 39 38 37 40 40 41 41 42 42 42 43 43 44 45 45 51 48 48 50 50 51 51 50 51 50 51 51 50 50 49 47 50 47 42 23 26 30 35 35 36 -193 -209 53 53 -193 -209 -209 -209 -193 -209 -209 167 170 -209 0 0 0 0 0
    0 0 0 0 0 0 0 0 0 0 0 0 0 0 0 0 0 0 0 0 0 0 0 0 0 0 0 0 0 0 0 0 0 0 0 0 0 0 0 0 0 0 0 0 0 0 0 0 0 0 0 0 0 0 0 0 0 0 0 0 0 0 0 0 0 0 0 0 0 26 24 26 23 23 24 30 28 27 28 30 29 29 29 29 28 28 31 -209 648 640 -209 -209 31 -209 -193 36 32 28 25 -209 -209 23 24 -193 21 24 -193 30 33 35 37 37 38 36 35 30 -193 -193 -193 30 31 31 32 34 35 36 36 35 34 35 35 35 35 -193 -193 -209 -209 -193 -193 -209 -209 -209 26 27 28 29 29 30 31 33 33 32 29 28 26 28 27 27 25 25 26 26 26 26 25 26 26 28 29 30 32 33 34 35 35 35 33 34 33 32 33 35 33 32 34 32 31 33 32 30 31 32 32 30 33 33 32 34 34 31 32 34 33 32 34 32 33 33 32 35 31 31 31 30 32 31 32 32 28 32 34 35 33 31 32 29 29 38 -209 -209 -193 -193 -209 -209 -209 -209 -209 -209 -209 -193 -193 -209 -209 29 30 31 36 35 34 33 35 31 33 34 38 33 34 36 36 36 37 38 38 37 41 41 41 41 42 42 42 42 43 43 45 44 52 49 50 51 51 51 52 50 51 50 51 51 50 49 49 47 51 48 42 -193 25 31 35 35 36 -209 -209 -209 -209 -209 -209 -209 -209 -193 -209 -209 168 -193 -193 0 0 0 0 0
    0 0 0 0 0 0 0 0 0 0 0 0 0 0 0 0 0 0 0 0 0 0 0 0 0 0 0 0 0 0 0 0 0 0 0 0 0 0 0 0 0 0 0 0 0 0 0 0 0 0 0 0 0 0 0 0 0 0 0 0 0 0 0 0 0 0 0 0 0 25 24 26 24 25 27 33 29 28 29 30 30 29 30 29 28 28 31 -209 650 641 -193 27 -193 -209 -209 33 -193 26 23 -193 21 20 21 -209 18 -193 -209 -193 -209 -193 37 37 38 36 34 30 32 -193 -193 30 31 31 32 34 35 36 37 36 36 36 36 36 35 35 29 -193 -193 -193 -193 -209 -209 -193 25 26 27 28 27 28 30 33 32 33 30 29 27 29 28 28 26 26 26 26 26 26 26 27 27 29 30 31 32 33 32 33 33 32 31 32 32 31 32 36 33 32 35 32 32 33 32 31 31 32 32 30 33 32 31 34 34 32 32 35 34 34 35 34 35 35 33 36 32 32 31 31 33 31 31 32 27 31 32 33 31 29 32 -209 32 -193 -209 45 41 43 40 -193 -193 -209 -209 -209 -209 -193 -209 -193 -209 29 30 30 36 34 34 33 35 31 33 34 37 33 34 36 37 36 37 38 38 37 40 40 40 41 42 42 42 42 43 43 46 45 53 51 51 52 53 52 52 50 51 50 51 50 50 49 49 47 51 50 44 -193 26 34 38 40 -209 -209 -209 -209 -209 -209 -193 -193 -209 -209 -209 -193 -209 68 68 0 0 0 0 0
    0 0 0 0 0 0 0 0 0 0 0 0 0 0 0 0 0 0 0 0 0 0 0 0 0 0 0 0 0 0 0 0 0 0 0 0 0 0 0 0 0 0 0 0 0 0 0 0 0 0 0 0 0 0 0 0 0 0 0 0 0 0 0 0 0 0 0 0 0 27 28 27 26 27 28 33 29 28 29 30 30 29 30 29 28 29 31 -209 646 639 -209 -193 -193 -209 -193 29 -209 -209 -193 -209 -209 -209 20 -209 14 24 -209 -193 -209 -193 38 38 39 37 35 31 -193 -193 -193 31 32 31 32 34 35 35 36 35 35 35 35 35 34 33 30 29 30 -193 -193 -193 26 25 26 26 28 28 28 29 31 34 33 33 31 29 27 30 29 29 27 27 27 27 27 27 27 28 29 31 32 32 32 33 32 32 32 31 30 31 31 31 33 36 33 31 34 32 31 33 31 30 30 32 33 30 33 32 30 34 34 30 31 34 33 34 35 33 34 35 33 36 32 32 32 32 33 31 31 32 27 32 32 34 31 28 -209 -209 -209 46 46 47 41 43 40 39 41 -209 -209 -209 -209 -209 -193 -209 -209 29 30 32 37 35 34 33 35 32 34 34 37 33 34 36 37 36 37 38 38 37 40 40 40 41 42 42 42 42 43 44 47 46 54 52 52 53 53 52 52 50 51 50 50 50 50 49 50 47 52 50 44 -193 27 38 41 42 41 -209 -209 51 -209 -209 -209 -209 -209 -209 -209 -209 67 68 69 0 0 0 0 0
    0 0 0 0 0 0 0 0 0 0 0 0 0 0 0 0 0 0 0 0 0 0 0 0 0 0 0 0 0 0 0 0 0 0 0 0 0 0 0 0 0 0 0 0 0 0 0 0 0 0 0 0 0 0 0 0 0 0 0 0 0 0 0 0 0 0 0 0 0 28 28 29 27 28 29 32 29 28 29 30 30 30 30 29 28 30 32 -193 -209 636 -209 -209 -209 -193 -193 -193 -209 -209 -209 -209 -209 -209 -209 -209 -209 -193 35 33 33 36 38 38 38 36 34 30 -193 -193 -193 -193 30 30 31 32 34 -193 35 -193 -193 33 34 33 34 32 31 29 30 29 -193 27 26 25 26 25 28 28 29 29 31 34 33 32 30 29 27 29 28 28 26 26 27 26 26 27 26 27 28 29 31 30 30 31 31 31 31 30 30 31 31 32 33 36 33 31 34 31 31 33 31 30 30 32 33 30 33 32 30 35 34 29 30 33 32 32 33 32 34 35 32 36 32 32 32 33 33 31 30 32 26 31 32 33 29 -193 -209 -209 45 50 52 50 45 43 42 39 43 -209 -209 -209 -209 -209 -209 -209 -209 31 32 35 38 36 35 35 36 33 34 34 37 33 35 36 37 36 37 38 38 37 41 41 40 41 42 42 42 42 43 44 50 49 54 53 53 53 54 52 52 50 51 50 50 50 50 48 50 47 51 51 45 45 40 42 43 45 45 51 -193 -193 -193 54 -209 -209 78 -209 78 -193 68 68 69 0 0 0 0 0
    0 0 0 0 0 0 0 0 0 0 0 0 0 0 0 0 0 0 0 0 0 0 0 0 0 0 0 0 0 0 0 0 0 0 0 0 0 0 0 0 0 0 0 0 0 0 0 0 0 0 0 0 0 0 0 0 0 0 0 0 0 0 0 0 0 0 0 0 0 28 28 29 28 27 28 30 28 28 28 30 29 29 29 29 28 30 32 -193 -193 -209 -209 -209 23 21 -193 26 -209 -209 -209 -209 -209 -209 -209 -209 -209 -209 -209 34 -193 35 36 35 36 34 31 28 30 29 28 27 28 27 -193 29 -193 -193 -193 -193 -193 -193 32 32 34 32 32 30 31 30 29 28 27 26 26 26 29 30 30 30 32 35 32 32 30 28 26 28 27 27 26 25 26 25 25 26 25 26 27 27 30 29 29 31 30 30 30 30 31 31 32 33 33 36 33 31 34 31 31 32 30 30 30 32 32 30 32 31 29 34 33 29 30 32 31 32 32 33 34 36 32 36 32 32 32 33 33 31 30 31 26 30 31 31 28 -209 -209 -193 51 54 54 53 48 44 43 41 44 -209 -209 -209 -209 -193 -209 -209 -209 32 33 37 37 36 36 35 36 33 35 35 37 34 35 37 37 37 38 38 39 37 41 41 41 41 42 43 43 43 44 46 54 52 55 54 53 54 54 52 53 50 51 50 50 50 50 48 50 47 51 51 46 48 -193 46 45 48 50 54 -193 58 57 56 64 73 75 75 74 72 68 68 69 0 0 0 0 0
    0 0 0 0 0 0 0 0 0 0 0 0 0 0 0 0 0 0 0 0 0 0 0 0 0 0 0 0 0 0 0 0 0 0 0 0 0 0 0 0 0 0 0 0 0 0 0 0 0 0 0 0 0 0 0 0 0 0 0 0 0 0 0 0 0 0 0 0 0 30 29 29 28 28 28 29 28 27 27 29 28 28 29 29 29 31 32 30 -209 -209 -193 -193 25 23 24 26 -209 -209 -209 -209 -209 -193 -209 -209 -209 22 -209 -193 31 33 36 34 34 34 31 29 29 29 28 27 27 26 -193 -193 -209 -193 -193 -193 -193 -209 29 30 33 31 33 31 32 31 31 29 29 27 28 27 31 33 34 32 34 36 33 33 31 29 26 28 28 27 26 26 27 26 26 26 26 27 28 27 29 28 29 30 30 30 30 30 31 32 33 35 35 36 34 32 35 32 31 32 30 30 30 31 32 29 31 30 29 33 32 29 29 31 30 32 32 33 35 36 33 36 32 33 33 33 33 31 29 31 25 29 29 29 -193 -177 -193 -193 -193 58 -193 56 51 43 42 40 44 -209 -209 -209 -209 -193 -209 -209 -209 33 34 37 37 36 36 36 36 35 36 36 38 36 36 37 38 38 38 39 39 38 41 41 41 42 42 44 44 44 45 50 56 54 56 55 54 54 55 53 53 51 51 50 49 50 50 48 50 48 52 52 47 51 51 51 51 52 54 57 60 62 64 61 65 71 73 73 72 71 67 67 69 0 0 0 0 0
    0 0 0 0 0 0 0 0 0 0 0 0 0 0 0 0 0 0 0 0 0 0 0 0 0 0 0 0 0 0 0 0 0 0 0 0 0 0 0 0 0 0 0 0 0 0 0 0 0 0 0 0 0 0 0 0 0 0 0 0 0 0 0 0 0 0 0 0 0 31 28 28 27 27 27 28 26 26 26 29 29 29 29 29 29 32 32 30 26 26 28 26 27 -193 -209 -193 -209 -193 -193 -193 23 20 -209 -209 15 20 -209 34 30 32 36 32 33 33 31 29 29 30 29 27 27 27 25 25 -209 -209 -209 -209 -193 -209 28 29 32 30 32 31 32 31 31 30 30 29 28 28 30 33 34 33 35 36 33 34 33 31 28 29 29 29 28 29 29 28 28 27 27 28 29 28 30 28 29 29 30 30 30 29 31 32 34 36 35 37 35 32 35 31 30 31 29 29 30 31 31 29 30 29 28 30 30 26 26 29 28 31 32 34 35 36 34 37 33 34 34 34 33 32 30 31 25 28 29 27 -193 -177 -209 -193 58 62 64 -193 -209 -209 -209 38 42 -209 -209 -209 -209 138 -209 -209 -209 34 36 37 37 36 37 36 37 35 36 37 38 37 37 38 39 38 39 39 39 40 41 41 41 42 43 45 45 44 44 55 59 56 56 56 55 55 55 53 53 51 51 51 49 50 50 49 51 49 53 53 50 53 55 55 56 56 58 60 63 66 67 65 67 71 73 72 71 71 67 67 69 0 0 0 0 0
    0 0 0 0 0 0 0 0 0 0 0 0 0 0 0 0 0 0 0 0 0 0 0 0 0 0 0 0 0 0 0 0 0 0 0 0 0 0 0 0 0 0 0 0 0 0 0 0 0 0 0 0 0 0 0 0 0 0 0 0 0 0 0 0 0 0 0 0 0 31 29 28 26 27 27 27 26 27 27 29 29 29 29 29 29 33 33 29 26 27 28 27 27 -193 -209 26 26 23 22 21 22 20 20 15 16 20 27 31 28 30 35 31 32 32 31 29 29 30 29 26 26 26 23 24 -209 -209 -209 -209 -209 -209 -209 29 32 29 31 30 32 31 31 30 31 29 29 28 30 32 33 34 35 36 34 35 34 31 29 30 28 28 28 29 29 28 28 27 27 28 30 29 30 28 28 29 29 29 30 29 31 32 35 36 36 37 34 32 34 31 30 30 29 29 29 30 30 28 29 28 26 28 26 22 23 26 25 29 31 34 34 36 35 37 34 34 34 34 33 33 30 31 25 28 28 25 0 0 -193 -193 -193 -177 -209 -209 -209 -209 -209 36 41 -209 -209 -209 -209 -193 -209 -209 -209 36 37 37 37 37 37 36 37 35 36 37 38 38 38 38 39 39 39 40 40 40 41 41 41 41 42 44 44 42 43 52 58 55 56 56 55 55 55 53 53 51 51 50 49 50 50 49 51 50 53 54 53 55 56 57 58 58 61 63 65 66 67 66 67 70 71 71 70 71 67 67 69 0 0 0 0 0
    0 0 0 0 0 0 0 0 0 0 0 0 0 0 0 0 0 0 0 0 0 0 0 0 0 0 0 0 0 0 0 0 0 0 0 0 0 0 0 0 0 0 0 0 0 0 0 0 0 0 0 0 0 0 0 0 0 0 0 0 0 0 0 0 0 0 0 0 0 30 30 28 27 28 27 27 27 27 28 29 29 29 29 29 30 33 33 28 27 27 28 27 27 26 25 26 26 23 22 21 21 20 20 18 19 19 24 27 26 28 35 30 30 31 30 29 30 30 29 26 27 26 22 23 24 -209 -209 -209 -209 -209 -209 27 29 28 30 29 30 29 30 29 29 28 29 28 29 30 31 33 34 35 34 33 -193 -193 -193 29 27 27 27 27 27 26 27 26 27 27 31 28 29 27 28 27 29 28 29 28 30 32 36 36 37 37 34 33 34 31 30 30 29 28 29 30 29 27 28 27 25 27 25 21 23 24 22 27 28 32 31 36 35 37 34 34 34 35 34 33 30 31 26 28 29 25 0 0 -193 -193 -193 -193 -193 -209 -209 -193 -193 32 -209 -209 -193 -209 -209 -209 -209 -209 -209 38 39 37 36 37 37 36 37 35 36 37 38 38 38 38 39 39 40 40 40 41 41 41 41 41 42 44 44 42 43 -209 59 56 56 -193 55 55 55 53 53 51 51 50 49 51 51 49 52 51 54 55 54 56 58 59 61 60 62 64 65 66 67 66 66 68 69 70 69 70 67 67 69 0 0 0 0 0
    0 0 0 0 0 0 0 0 0 0 0 0 0 0 0 0 0 0 0 0 0 0 0 0 0 0 0 0 0 0 0 0 0 0 0 0 0 0 0 0 0 0 0 0 0 0 0 0 0 0 0 0 0 0 0 0 0 0 0 0 0 0 0 0 0 0 0 0 0 29 31 28 28 28 27 27 27 27 28 28 29 29 29 29 30 32 33 28 27 28 29 27 29 27 26 27 27 24 23 22 22 21 20 19 20 18 23 24 23 25 32 28 29 30 30 29 30 31 30 26 27 27 22 22 22 21 21 22 -209 -209 -193 25 26 25 27 27 28 27 27 27 27 26 28 27 28 28 29 32 32 34 33 31 -193 -193 -193 28 26 26 26 26 26 25 27 25 27 27 30 28 29 27 27 26 27 26 27 26 28 30 35 35 37 36 32 32 32 30 29 28 28 27 29 29 28 27 27 26 25 27 26 22 24 24 23 25 26 29 28 36 35 37 34 35 35 35 34 34 31 31 26 30 30 25 -193 0 -193 -193 -193 -193 -209 -193 0 -177 19 31 -209 -209 -209 -209 -209 -209 -209 47 47 -193 39 37 36 37 37 36 37 35 36 37 38 39 38 39 39 39 40 40 40 41 41 41 41 41 42 43 44 42 -193 -193 -193 56 56 57 54 54 55 52 53 51 51 51 49 51 51 50 53 52 54 56 55 57 59 60 62 61 63 64 65 66 66 65 65 66 68 69 68 70 67 67 69 0 0 0 0 0</data></disparity>
</opencv_storage>
