<?xml version="1.0"?>
<opencv_storage>
<gps_time_stamp>318622</gps_time_stamp>
<gps_x>-1.2413614273071289e+001</gps_x>
<gps_y>1.0952611923217773e+001</gps_y>
<gps_z>-2.0027363300323486e+000</gps_z>
<image_time_stamp>309460</image_time_stamp>
<disparity type_id="opencv-matrix">
  <rows>85</rows>
  <cols>320</cols>
  <dt>s</dt>
  <data>
    0 0 0 0 0 0 0 0 0 0 0 0 0 0 0 0 0 0 0 0 0 0 0 0 0 0 0 0 0 0 0 0 0 0 0 0 0 0 0 0 0 0 0 0 0 0 0 0 0 0 0 0 0 0 0 0 0 0 0 0 0 0 0 0 0 0 0 0 0 50 50 48 48 46 45 46 46 45 47 47 46 44 44 48 45 45 46 43 42 42 44 44 42 41 41 37 38 39 38 34 34 -193 -193 19 12 12 12 -193 -193 11 13 14 15 18 18 15 19 20 20 19 18 18 18 16 15 14 12 13 13 12 12 11 12 11 11 10 9 9 9 9 9 9 9 9 10 11 11 11 14 13 13 15 19 18 20 22 22 22 24 24 24 22 22 22 20 18 18 16 16 15 14 14 12 11 11 11 10 10 9 9 0 0 9 10 9 10 0 9 10 16 19 21 25 28 31 32 34 38 40 41 45 45 47 46 49 51 51 50 53 53 56 56 58 61 68 66 65 69 -177 73 74 77 77 77 79 83 82 79 82 84 82 85 86 87 89 92 96 100 98 100 102 103 102 104 105 106 -193 109 -193 112 117 116 117 119 120 121 121 121 122 121 124 129 130 132 130 133 133 133 134 133 130 129 137 139 142 146 149 153 153 154 157 165 161 161 162 165 162 164 166 165 164 170 170 170 -177 -193 -177 -177 324 -193 103 -193 -193 -193 14 13 9 -209 -193 -193 -193 -193 -193 190 191 0 0 0 0 0
    0 0 0 0 0 0 0 0 0 0 0 0 0 0 0 0 0 0 0 0 0 0 0 0 0 0 0 0 0 0 0 0 0 0 0 0 0 0 0 0 0 0 0 0 0 0 0 0 0 0 0 0 0 0 0 0 0 0 0 0 0 0 0 0 0 0 0 0 0 50 50 48 48 47 47 48 47 47 49 49 47 45 45 49 45 46 46 43 42 42 44 43 42 40 40 37 38 38 37 33 33 -193 -193 20 -193 13 13 -193 12 13 15 17 19 21 21 18 20 21 20 19 18 18 18 16 15 14 12 14 12 12 12 11 12 11 11 11 9 10 9 9 9 9 9 9 10 10 11 11 13 13 13 14 18 17 20 21 22 22 24 24 24 22 22 22 20 18 19 17 16 15 14 14 12 11 10 10 9 9 0 0 0 0 9 9 9 10 0 9 10 16 21 22 25 29 32 33 35 38 40 41 45 47 48 47 49 51 52 51 53 52 56 56 58 60 68 66 67 70 75 73 74 78 77 78 80 83 82 79 83 84 83 87 89 90 93 95 98 100 99 101 102 103 103 106 106 107 108 110 112 113 116 115 117 119 120 121 121 121 122 121 124 130 130 131 129 132 133 133 133 133 130 128 137 140 144 147 150 155 154 155 157 164 160 160 161 164 161 163 164 163 163 -193 170 171 -177 -209 -177 -177 -177 105 103 -193 -193 -193 -193 -193 -193 -193 -193 -193 -193 -193 -193 190 191 0 0 0 0 0
    0 0 0 0 0 0 0 0 0 0 0 0 0 0 0 0 0 0 0 0 0 0 0 0 0 0 0 0 0 0 0 0 0 0 0 0 0 0 0 0 0 0 0 0 0 0 0 0 0 0 0 0 0 0 0 0 0 0 0 0 0 0 0 0 0 0 0 0 0 51 50 48 48 48 49 50 49 49 51 50 49 48 47 50 46 46 47 43 43 42 44 44 42 40 40 37 38 38 36 32 32 27 -193 19 14 15 16 -209 -193 -193 -209 -193 -209 -209 -193 21 22 22 21 20 19 18 18 16 16 14 12 14 12 12 12 11 12 11 11 11 9 10 9 9 9 9 0 9 10 10 10 10 12 12 12 13 17 16 19 20 21 21 22 22 23 21 21 21 20 18 19 17 16 15 14 14 12 11 11 10 0 9 0 0 0 0 9 9 9 10 9 9 10 17 22 23 25 29 32 34 36 38 40 41 46 48 49 48 50 52 53 53 54 53 57 57 59 61 69 68 69 70 76 74 75 78 78 78 80 83 82 79 83 84 84 87 90 91 96 98 100 101 100 101 102 104 104 107 107 108 109 111 113 114 116 115 117 119 120 121 122 122 122 122 125 131 130 131 129 132 132 132 133 132 129 128 137 139 142 146 150 155 154 155 157 164 159 160 160 163 160 161 162 162 162 -193 171 171 -193 -193 -177 -177 -177 106 103 -193 -193 -193 -193 -193 -193 -193 -193 -193 -193 -193 -193 -193 191 0 0 0 0 0
    0 0 0 0 0 0 0 0 0 0 0 0 0 0 0 0 0 0 0 0 0 0 0 0 0 0 0 0 0 0 0 0 0 0 0 0 0 0 0 0 0 0 0 0 0 0 0 0 0 0 0 0 0 0 0 0 0 0 0 0 0 0 0 0 0 0 0 0 0 52 51 48 49 51 51 52 51 51 52 52 51 50 49 51 48 48 48 45 43 43 44 44 42 41 41 38 39 39 37 33 32 27 29 20 15 17 21 -209 -193 51 53 -193 46 -193 45 45 -193 -193 22 21 21 19 18 16 16 14 11 13 12 12 11 11 12 11 11 11 10 11 9 10 9 9 9 9 9 9 9 10 10 11 11 12 16 15 18 18 20 20 21 21 22 20 21 21 20 18 19 18 16 15 14 14 12 11 10 10 0 9 0 0 0 0 9 9 9 11 10 10 10 18 22 23 25 28 30 33 36 38 39 41 46 49 50 49 51 52 53 54 55 53 58 58 60 62 70 70 70 71 77 75 76 79 79 78 80 82 81 78 83 84 83 86 90 91 98 100 101 102 101 102 103 105 105 108 108 109 110 112 114 114 116 116 117 120 121 121 122 122 123 123 126 132 130 131 129 131 132 132 133 132 127 126 135 137 140 145 150 156 155 156 157 164 159 159 159 162 159 160 161 162 161 172 172 171 -193 -193 -177 -177 -177 106 103 -193 19 -193 -193 102 -193 -193 -193 -193 -193 -193 -193 -193 -193 0 0 0 0 0
    0 0 0 0 0 0 0 0 0 0 0 0 0 0 0 0 0 0 0 0 0 0 0 0 0 0 0 0 0 0 0 0 0 0 0 0 0 0 0 0 0 0 0 0 0 0 0 0 0 0 0 0 0 0 0 0 0 0 0 0 0 0 0 0 0 0 0 0 0 54 52 49 51 53 53 54 53 53 54 53 53 52 51 52 49 49 49 46 44 44 45 45 43 43 42 40 41 41 39 37 35 30 36 23 -193 -193 -193 60 -193 53 54 -193 48 47 46 47 41 -193 -209 -193 -193 20 18 15 16 13 11 13 11 12 11 11 11 11 11 11 10 11 9 10 10 10 9 9 9 9 9 9 9 10 10 11 16 14 17 17 19 19 20 20 21 20 20 20 20 19 18 18 16 15 14 14 12 11 10 10 0 0 0 0 0 0 9 10 10 11 10 11 11 19 24 24 26 29 32 35 37 39 40 41 47 50 51 51 52 53 54 55 56 52 58 59 60 63 71 72 72 72 78 75 77 79 80 79 79 82 81 78 82 83 82 85 89 91 97 99 101 101 101 102 102 106 106 109 108 109 111 113 114 114 115 116 117 120 121 122 122 122 123 123 126 131 130 131 128 131 132 132 133 132 127 126 134 137 139 144 150 157 155 156 157 164 159 159 159 162 159 160 161 161 160 171 172 172 176 178 -193 -177 -177 106 104 -193 17 -193 99 101 0 0 0 0 0 0 -193 -193 -193 0 0 0 0 0
    0 0 0 0 0 0 0 0 0 0 0 0 0 0 0 0 0 0 0 0 0 0 0 0 0 0 0 0 0 0 0 0 0 0 0 0 0 0 0 0 0 0 0 0 0 0 0 0 0 0 0 0 0 0 0 0 0 0 0 0 0 0 0 0 0 0 0 0 0 56 53 53 54 55 55 56 55 55 55 54 53 53 53 53 50 50 50 46 45 46 46 46 44 45 44 44 44 44 42 41 39 38 43 -209 -193 60 62 60 53 54 54 52 50 48 47 48 43 -193 -209 -209 -209 20 18 14 16 13 11 13 11 12 11 11 11 11 11 12 10 11 9 11 10 10 10 9 9 9 9 9 9 9 9 10 14 13 16 17 19 18 20 20 20 20 20 20 19 18 18 17 16 14 13 14 12 11 10 10 0 0 0 0 0 0 9 10 9 12 11 12 11 19 24 25 27 30 32 35 37 39 39 41 47 49 50 51 52 53 54 56 56 52 57 59 60 63 71 74 74 74 79 76 77 80 80 79 79 81 81 78 82 82 82 84 89 91 95 97 99 100 100 101 102 106 106 109 108 110 111 113 113 114 115 116 117 121 121 122 122 123 123 124 127 131 129 130 128 132 132 133 134 132 127 128 135 136 138 142 150 157 155 156 157 164 159 159 160 162 159 159 160 161 159 171 172 172 177 178 182 -209 -177 106 104 -193 -193 -193 -193 -193 0 0 0 0 0 0 -193 -193 -193 0 0 0 0 0
    0 0 0 0 0 0 0 0 0 0 0 0 0 0 0 0 0 0 0 0 0 0 0 0 0 0 0 0 0 0 0 0 0 0 0 0 0 0 0 0 0 0 0 0 0 0 0 0 0 0 0 0 0 0 0 0 0 0 0 0 0 0 0 0 0 0 0 0 0 56 -193 56 56 58 58 58 57 57 57 56 55 55 54 53 51 51 50 47 47 48 47 47 47 49 47 49 48 48 45 46 45 44 50 53 55 60 61 60 52 53 54 53 52 51 50 51 47 55 -193 -209 -209 -193 -193 14 14 13 11 14 11 11 10 11 11 11 12 12 11 11 10 11 10 11 10 10 10 10 10 10 9 9 9 10 13 12 16 17 18 17 19 19 20 19 20 19 18 18 17 16 15 14 13 13 12 11 9 10 0 0 0 9 0 0 9 11 10 12 11 14 14 21 24 25 26 29 29 32 35 37 38 41 47 49 50 51 52 53 53 56 56 51 56 59 60 64 71 77 74 74 80 77 78 79 80 79 78 81 81 77 82 81 82 83 89 89 93 94 95 96 99 100 101 106 106 109 108 109 110 112 112 113 113 115 116 121 121 123 123 123 124 125 128 132 130 131 129 132 132 133 134 131 128 131 137 138 142 145 151 160 157 157 158 165 160 160 160 162 159 159 160 160 158 171 172 173 178 178 182 -193 -193 -193 103 -209 14 -193 -209 -193 -193 -193 -193 -193 -193 -193 -193 -193 -193 0 0 0 0 0
    0 0 0 0 0 0 0 0 0 0 0 0 0 0 0 0 0 0 0 0 0 0 0 0 0 0 0 0 0 0 0 0 0 0 0 0 0 0 0 0 0 0 0 0 0 0 0 0 0 0 0 0 0 0 0 0 0 0 0 0 0 0 0 0 0 0 0 0 0 59 61 60 60 61 59 59 59 58 58 57 56 56 55 54 52 52 51 48 49 51 49 49 50 51 50 51 50 50 47 49 49 47 51 52 54 58 57 58 50 51 53 52 53 52 52 53 51 56 57 -209 -209 -209 -193 15 14 13 11 14 11 11 10 11 11 11 12 12 11 12 10 12 11 11 10 10 10 10 10 10 9 0 9 9 11 10 14 15 17 17 19 18 19 19 19 18 18 17 15 15 14 13 12 12 12 11 9 10 0 0 0 0 0 0 9 11 10 14 15 18 20 23 23 24 26 27 28 30 34 37 39 41 47 49 51 52 52 53 53 56 56 50 54 57 60 65 71 78 75 75 80 77 78 79 80 79 78 80 81 77 81 80 82 82 88 88 91 92 93 94 98 99 100 105 106 109 108 109 110 111 112 113 112 115 116 121 121 123 122 123 123 125 129 132 131 132 131 133 133 134 134 131 130 133 136 134 136 140 150 161 158 158 159 165 161 160 161 162 159 159 160 161 158 170 171 173 178 178 181 182 180 182 -193 -193 -193 -209 -209 -209 181 183 -193 -209 -209 -193 -193 -193 -193 0 0 0 0 0
    0 0 0 0 0 0 0 0 0 0 0 0 0 0 0 0 0 0 0 0 0 0 0 0 0 0 0 0 0 0 0 0 0 0 0 0 0 0 0 0 0 0 0 0 0 0 0 0 0 0 0 0 0 0 0 0 0 0 0 0 0 0 0 0 0 0 0 0 0 59 60 60 61 61 60 60 59 59 59 57 57 57 56 55 53 53 52 50 53 55 51 51 53 52 51 52 51 51 48 50 51 51 54 54 56 57 56 57 51 51 52 52 53 53 53 53 52 57 57 57 -209 -209 -209 16 14 13 12 13 11 11 10 11 11 11 12 12 11 12 9 11 10 11 11 10 10 10 10 10 9 0 9 0 9 0 12 13 15 17 19 18 19 19 20 19 19 17 15 15 13 13 12 12 11 11 9 10 0 0 0 0 0 0 0 10 9 13 19 20 23 24 24 24 26 26 27 29 33 36 39 42 47 50 52 52 52 52 53 55 56 48 54 58 61 67 72 79 75 75 79 77 78 78 79 78 77 79 80 76 80 78 81 82 87 88 90 92 92 93 98 99 100 105 106 109 108 109 110 111 111 113 112 115 115 121 121 122 122 123 123 126 131 132 132 132 133 134 134 134 134 132 133 136 137 137 137 141 150 159 158 158 159 164 161 160 162 162 161 160 161 162 159 169 171 173 176 177 180 181 180 181 180 183 182 183 185 185 183 184 -193 186 -193 -193 -193 -193 -193 0 0 0 0 0
    0 0 0 0 0 0 0 0 0 0 0 0 0 0 0 0 0 0 0 0 0 0 0 0 0 0 0 0 0 0 0 0 0 0 0 0 0 0 0 0 0 0 0 0 0 0 0 0 0 0 0 0 0 0 0 0 0 0 0 0 0 0 0 0 0 0 0 0 0 58 60 60 61 60 60 60 59 59 59 58 58 57 56 55 53 53 51 50 53 55 52 53 54 53 52 53 52 52 50 51 52 52 55 55 57 57 57 58 52 53 53 53 54 53 54 54 53 56 56 57 -193 -209 -209 -193 14 14 13 14 11 11 11 12 11 11 11 12 12 12 10 12 10 11 11 11 10 10 10 10 0 0 9 0 9 0 12 12 15 17 19 19 20 20 20 19 20 18 15 15 14 13 12 12 11 12 10 11 0 0 0 0 9 9 0 10 10 15 21 20 22 26 26 25 26 26 26 28 32 37 39 43 48 50 52 54 53 53 53 56 58 51 55 62 68 71 73 79 75 75 79 77 78 77 78 78 76 78 79 76 78 77 79 82 85 84 89 90 91 92 96 98 100 104 105 109 108 108 110 111 111 113 111 115 113 120 120 121 121 122 122 127 133 132 132 133 133 134 134 134 134 132 134 137 136 136 137 140 149 157 159 158 158 164 161 160 162 162 162 162 163 163 161 168 170 173 175 176 179 180 179 181 180 182 180 182 184 185 184 184 185 188 193 195 -193 -193 -193 0 0 0 0 0
    0 0 0 0 0 0 0 0 0 0 0 0 0 0 0 0 0 0 0 0 0 0 0 0 0 0 0 0 0 0 0 0 0 0 0 0 0 0 0 0 0 0 0 0 0 0 0 0 0 0 0 0 0 0 0 0 0 0 0 0 0 0 0 0 0 0 0 0 0 58 59 60 60 60 59 59 58 59 60 59 58 57 56 55 54 53 51 52 53 55 53 53 54 53 53 53 53 53 50 52 52 53 55 56 57 57 57 60 54 55 55 54 55 54 55 55 53 56 56 57 56 53 -209 -209 15 15 13 13 11 11 10 12 11 11 11 12 11 12 10 12 10 12 12 11 11 11 11 11 0 0 9 0 9 0 12 12 16 19 19 20 20 21 20 20 21 20 16 16 14 14 12 12 12 13 11 12 10 10 9 10 11 12 9 14 14 20 23 21 23 29 26 26 26 26 26 27 31 36 39 43 48 49 52 53 53 53 53 56 57 52 55 67 72 73 73 79 76 75 79 77 78 77 77 77 76 78 78 75 77 76 76 80 82 79 83 86 89 90 95 97 100 105 105 108 107 108 109 110 111 113 110 115 114 121 121 122 122 123 123 129 133 132 133 133 134 134 135 134 134 132 134 136 135 134 135 137 147 156 160 159 159 165 162 161 163 163 163 163 164 164 162 167 170 173 175 176 179 180 179 181 181 182 180 183 185 185 187 188 187 191 196 198 199 -193 -193 0 0 0 0 0
    0 0 0 0 0 0 0 0 0 0 0 0 0 0 0 0 0 0 0 0 0 0 0 0 0 0 0 0 0 0 0 0 0 0 0 0 0 0 0 0 0 0 0 0 0 0 0 0 0 0 0 0 0 0 0 0 0 0 0 0 0 0 0 0 0 0 0 0 0 57 59 59 60 59 59 59 58 60 60 59 58 57 56 55 54 53 52 52 53 55 53 53 54 52 52 53 52 53 51 52 52 53 56 56 57 58 58 60 54 55 56 55 56 55 55 55 55 57 56 56 55 52 -209 -209 14 15 14 12 11 10 10 11 10 10 10 11 12 12 10 12 11 12 12 11 11 11 12 11 9 9 9 9 10 0 13 13 17 20 20 21 21 21 21 21 21 21 17 18 16 15 13 14 13 15 13 13 12 11 12 12 13 15 11 15 18 22 23 21 23 29 26 26 26 26 26 26 29 35 -209 43 -193 48 51 52 53 53 52 54 57 52 55 68 74 74 74 80 76 76 79 77 78 77 77 77 75 77 77 74 76 75 74 78 79 78 77 81 86 89 95 97 101 105 105 108 108 108 109 109 110 113 109 116 115 121 122 123 122 123 121 128 133 132 133 133 134 134 135 134 134 132 133 134 133 133 134 135 145 155 161 159 160 165 163 162 164 163 164 163 164 165 163 167 169 172 174 176 179 179 180 181 182 182 181 183 185 185 187 190 188 192 197 199 200 199 -193 0 0 0 0 0
    0 0 0 0 0 0 0 0 0 0 0 0 0 0 0 0 0 0 0 0 0 0 0 0 0 0 0 0 0 0 0 0 0 0 0 0 0 0 0 0 0 0 0 0 0 0 0 0 0 0 0 0 0 0 0 0 0 0 0 0 0 0 0 0 0 0 0 0 0 57 58 59 60 59 59 59 58 60 61 60 58 57 56 55 54 53 51 49 53 56 53 53 54 51 52 53 53 54 53 55 55 55 57 58 59 59 59 61 56 56 57 57 58 57 57 57 56 57 57 56 55 53 46 -193 14 16 14 13 11 10 10 11 10 11 11 12 12 12 10 13 11 12 12 11 11 11 12 12 10 10 10 10 12 10 15 15 18 21 20 21 21 21 21 21 22 22 18 19 17 16 14 14 13 15 14 14 14 12 13 14 16 18 15 16 19 21 22 20 23 29 26 25 26 26 26 27 29 34 -193 -193 -193 47 50 52 52 52 52 52 55 53 55 68 74 74 75 81 77 76 79 77 77 76 76 76 74 76 76 73 75 74 74 78 79 79 77 79 83 86 90 95 99 104 106 107 108 108 108 108 108 109 107 116 -209 -193 121 123 123 121 120 129 134 132 134 134 135 135 135 134 133 132 133 133 133 132 133 134 144 154 160 159 161 165 163 162 165 163 164 163 164 164 163 165 169 172 173 176 179 180 180 181 182 182 180 184 185 186 189 191 189 194 198 200 201 200 201 0 0 0 0 0
    0 0 0 0 0 0 0 0 0 0 0 0 0 0 0 0 0 0 0 0 0 0 0 0 0 0 0 0 0 0 0 0 0 0 0 0 0 0 0 0 0 0 0 0 0 0 0 0 0 0 0 0 0 0 0 0 0 0 0 0 0 0 0 0 0 0 0 0 0 58 58 59 60 59 59 59 58 59 60 59 57 56 55 54 53 52 49 45 52 56 52 52 53 51 52 53 54 55 55 56 57 57 58 59 59 60 60 61 57 57 58 57 58 58 57 57 56 57 56 55 55 53 47 44 16 19 17 15 13 11 12 12 12 12 12 13 14 13 12 14 13 13 13 13 13 13 14 14 12 12 12 11 14 12 17 16 18 22 21 22 21 22 22 21 22 22 19 21 19 18 15 16 15 16 16 17 18 16 16 16 17 18 14 13 12 18 18 18 22 28 25 25 26 26 26 27 29 33 -209 -193 -193 47 49 51 51 51 51 50 53 53 55 67 75 74 75 81 77 76 79 76 77 75 75 75 73 75 75 73 75 74 73 78 79 80 78 78 81 83 88 91 -209 -209 -209 106 109 107 106 107 107 101 102 -209 -209 -209 -209 -193 127 -209 120 133 136 133 134 134 135 135 135 134 133 132 133 133 133 133 133 133 142 153 159 158 161 164 164 162 165 163 164 163 164 164 163 165 169 171 173 176 179 179 180 181 182 182 180 184 185 186 189 191 189 195 -193 -193 203 202 203 0 0 0 0 0
    0 0 0 0 0 0 0 0 0 0 0 0 0 0 0 0 0 0 0 0 0 0 0 0 0 0 0 0 0 0 0 0 0 0 0 0 0 0 0 0 0 0 0 0 0 0 0 0 0 0 0 0 0 0 0 0 0 0 0 0 0 0 0 0 0 0 0 0 0 58 59 59 59 59 58 58 56 58 60 59 57 56 55 54 55 54 51 48 55 57 52 52 53 51 53 53 55 56 56 58 58 58 59 60 60 62 61 61 58 58 60 59 60 59 58 58 57 57 56 55 54 52 47 45 -193 21 19 18 14 12 13 13 13 13 12 14 14 14 13 15 15 14 15 15 16 16 18 18 14 14 14 13 16 13 18 17 18 22 21 22 22 22 22 22 23 23 19 21 20 19 17 17 17 18 19 20 21 20 21 21 20 19 19 16 13 19 17 18 21 27 25 25 25 25 -193 -193 -193 -193 -209 -193 -193 48 50 51 51 52 52 51 53 54 55 66 75 74 75 80 76 76 78 76 76 75 75 75 73 74 75 72 75 75 73 77 78 80 78 78 81 81 85 -193 -209 -209 -209 103 106 105 103 104 102 93 95 -209 -209 -209 -209 -209 -209 -209 131 134 136 133 134 134 135 135 135 133 133 132 133 132 132 132 133 131 140 152 157 157 161 164 164 162 165 163 164 163 164 164 164 165 168 171 172 176 178 179 179 181 181 182 180 184 185 186 189 191 188 194 -193 -193 203 203 204 0 0 0 0 0
    0 0 0 0 0 0 0 0 0 0 0 0 0 0 0 0 0 0 0 0 0 0 0 0 0 0 0 0 0 0 0 0 0 0 0 0 0 0 0 0 0 0 0 0 0 0 0 0 0 0 0 0 0 0 0 0 0 0 0 0 0 0 0 0 0 0 0 0 0 59 59 59 59 58 58 57 54 57 59 58 57 56 57 56 58 57 -193 -209 -209 -209 40 46 44 45 52 53 56 57 58 60 60 59 62 63 63 63 61 61 58 59 61 59 60 59 59 59 58 58 56 55 54 52 49 46 45 -193 21 19 15 13 14 14 14 14 13 15 16 15 14 17 18 16 18 17 18 17 18 18 15 16 16 15 18 16 19 18 19 23 21 23 22 22 22 22 23 24 20 23 21 20 18 19 20 21 22 23 24 23 24 23 22 21 21 17 12 18 17 17 21 25 25 25 25 25 25 27 32 37 -209 45 -193 49 50 51 52 52 52 52 53 55 55 65 74 74 75 80 76 76 78 76 76 75 74 75 73 74 75 73 75 76 73 78 77 77 76 78 81 81 85 90 92 93 98 102 104 105 103 105 -209 -209 -209 -209 -209 -209 -209 -209 133 134 133 133 135 132 134 134 135 135 135 133 132 131 132 131 131 131 131 -193 -209 -193 -209 156 160 163 164 163 166 163 165 163 164 164 164 165 168 170 172 175 178 179 179 181 181 182 180 184 184 185 189 191 188 193 199 -193 202 202 203 0 0 0 0 0
    0 0 0 0 0 0 0 0 0 0 0 0 0 0 0 0 0 0 0 0 0 0 0 0 0 0 0 0 0 0 0 0 0 0 0 0 0 0 0 0 0 0 0 0 0 0 0 0 0 0 0 0 0 0 0 0 0 0 0 0 0 0 0 0 0 0 0 0 0 59 59 59 59 58 57 56 52 57 58 59 58 56 58 57 61 62 63 -209 -209 -209 -209 -209 37 -193 51 -193 60 60 62 64 62 64 67 68 67 67 65 63 60 62 62 60 60 60 59 58 58 57 55 54 53 52 49 47 45 42 -193 20 15 14 15 15 14 14 13 15 17 17 17 19 19 18 20 19 20 19 19 19 18 18 19 19 21 20 21 20 21 23 21 23 23 23 23 23 24 24 22 25 22 22 20 21 22 21 23 23 24 23 24 23 22 21 21 16 12 16 16 16 20 24 25 25 26 26 26 27 33 37 -209 45 47 49 50 51 52 52 52 52 53 55 55 64 74 74 75 80 76 76 78 76 75 75 75 75 73 75 75 74 75 77 73 77 75 74 75 76 80 79 83 89 90 91 93 97 100 102 101 102 96 93 -209 -209 -193 -209 -209 -209 134 134 131 131 134 134 135 133 133 133 135 132 132 131 132 130 131 132 132 -209 -209 -209 -209 -193 160 162 163 163 166 163 164 163 164 164 164 165 167 169 171 174 177 178 179 181 181 182 181 184 185 186 189 191 188 194 -193 -193 202 203 203 0 0 0 0 0
    0 0 0 0 0 0 0 0 0 0 0 0 0 0 0 0 0 0 0 0 0 0 0 0 0 0 0 0 0 0 0 0 0 0 0 0 0 0 0 0 0 0 0 0 0 0 0 0 0 0 0 0 0 0 0 0 0 0 0 0 0 0 0 0 0 0 0 0 0 60 60 59 59 57 57 55 52 56 57 58 56 55 57 56 60 57 60 -209 -209 -209 -209 -209 37 -209 -209 -209 64 62 64 68 65 67 69 69 69 68 67 66 62 65 64 62 62 61 60 59 59 58 55 53 52 51 49 48 46 43 -193 21 16 14 15 15 14 15 14 15 18 18 19 20 20 19 21 20 21 20 20 19 19 20 20 21 22 22 22 21 21 23 21 23 22 23 23 23 24 25 23 26 23 22 21 22 22 21 23 23 24 23 24 23 22 22 21 16 12 17 16 17 20 24 24 25 25 25 26 28 35 38 41 45 48 49 50 51 52 52 52 53 53 56 55 64 72 73 74 79 76 76 77 76 76 76 75 76 75 76 77 76 76 78 74 78 76 75 75 75 79 78 81 88 89 89 89 91 93 94 97 98 92 91 90 92 90 93 -209 -209 -209 -209 -193 127 133 134 135 132 133 133 135 132 131 131 131 128 131 131 131 -209 -209 -209 -209 -209 162 164 164 164 166 164 164 162 163 163 164 165 167 -193 170 173 177 178 179 181 182 183 182 185 185 186 189 190 188 193 -193 -193 201 202 202 0 0 0 0 0
    0 0 0 0 0 0 0 0 0 0 0 0 0 0 0 0 0 0 0 0 0 0 0 0 0 0 0 0 0 0 0 0 0 0 0 0 0 0 0 0 0 0 0 0 0 0 0 0 0 0 0 0 0 0 0 0 0 0 0 0 0 0 0 0 0 0 0 0 0 62 63 60 59 57 56 55 51 55 56 56 55 54 55 54 56 55 -193 45 48 -209 47 -209 -209 52 61 -193 63 62 64 69 67 68 69 68 69 68 67 66 62 65 64 63 63 62 61 61 60 60 56 53 53 52 50 50 48 45 43 -193 17 15 15 16 15 15 14 15 19 20 20 20 21 20 22 21 21 20 20 19 19 20 21 22 22 22 22 21 22 23 21 23 22 22 22 22 24 25 23 26 24 23 22 22 23 22 24 23 24 24 24 24 23 22 22 17 12 17 16 17 21 23 24 24 25 26 26 28 37 40 42 46 48 50 50 51 51 51 52 52 53 56 55 63 72 72 73 78 75 75 77 77 76 76 76 77 76 77 78 77 77 80 76 81 78 78 77 76 80 80 82 88 88 88 87 90 93 92 94 94 89 90 90 92 92 94 98 -209 -209 -209 125 127 133 135 135 133 133 133 135 132 131 131 130 127 130 131 131 -209 -209 -209 -209 -209 164 164 163 164 166 163 162 161 161 161 163 164 166 -193 170 173 177 178 179 181 182 183 183 185 186 186 189 190 188 192 197 -193 201 201 201 0 0 0 0 0
    0 0 0 0 0 0 0 0 0 0 0 0 0 0 0 0 0 0 0 0 0 0 0 0 0 0 0 0 0 0 0 0 0 0 0 0 0 0 0 0 0 0 0 0 0 0 0 0 0 0 0 0 0 0 0 0 0 0 0 0 0 0 0 0 0 0 0 0 0 66 65 59 59 58 56 54 51 53 55 56 55 54 56 55 56 56 61 -193 -193 -209 -193 71 68 68 71 66 67 66 68 71 69 70 70 70 71 69 69 67 63 67 65 64 64 63 61 61 61 60 56 54 52 52 50 50 47 44 43 -193 19 16 17 17 16 17 15 16 20 21 22 21 23 22 23 22 22 21 20 19 19 20 20 21 22 22 23 22 22 24 21 23 22 23 23 23 24 25 23 27 25 25 23 23 23 22 25 24 25 24 24 24 23 23 23 17 13 18 15 16 20 23 22 24 25 25 25 28 39 41 43 47 48 50 49 50 51 51 51 52 53 57 56 63 70 71 72 76 75 75 76 77 76 77 76 77 76 77 79 78 78 81 76 82 79 79 77 74 77 77 80 87 85 86 83 87 89 87 91 93 89 91 93 97 99 101 102 106 116 -209 123 125 131 134 135 133 133 133 135 132 131 131 130 126 128 130 130 -209 -209 -193 -193 -193 -209 157 159 160 166 162 160 159 160 159 161 163 164 -193 -193 171 175 175 177 179 180 181 182 184 185 185 188 190 188 192 197 198 200 200 200 0 0 0 0 0
    0 0 0 0 0 0 0 0 0 0 0 0 0 0 0 0 0 0 0 0 0 0 0 0 0 0 0 0 0 0 0 0 0 0 0 0 0 0 0 0 0 0 0 0 0 0 0 0 0 0 0 0 0 0 0 0 0 0 0 0 0 0 0 0 0 0 0 0 0 67 65 62 61 61 56 53 50 53 54 55 56 56 58 56 57 59 63 66 69 69 70 71 69 69 70 68 68 67 68 70 69 71 71 71 71 70 69 67 64 67 65 64 64 63 61 61 61 60 55 54 52 51 50 49 46 44 42 -193 21 18 19 18 18 19 18 19 21 23 24 23 25 23 24 23 23 22 21 20 20 20 21 22 23 23 24 23 23 24 22 23 23 23 23 23 24 25 24 27 25 25 22 23 23 21 24 24 25 24 25 24 23 23 23 18 14 19 16 17 21 23 22 24 25 25 25 29 40 43 44 48 48 50 50 50 51 50 51 52 53 57 57 62 69 70 71 74 74 74 75 77 76 77 76 77 77 77 80 79 78 81 77 83 80 79 78 75 79 78 81 84 83 83 83 85 86 86 89 90 89 93 99 101 103 105 104 108 113 117 121 123 128 133 135 133 133 133 135 132 131 131 130 126 128 130 130 -193 -209 -209 -193 149 -209 154 155 156 163 161 158 158 158 157 159 159 159 -193 158 169 170 169 171 173 173 174 175 180 182 185 189 190 189 193 197 197 199 199 200 0 0 0 0 0
    0 0 0 0 0 0 0 0 0 0 0 0 0 0 0 0 0 0 0 0 0 0 0 0 0 0 0 0 0 0 0 0 0 0 0 0 0 0 0 0 0 0 0 0 0 0 0 0 0 0 0 0 0 0 0 0 0 0 0 0 0 0 0 0 0 0 0 0 0 66 64 60 61 62 57 52 52 54 54 55 57 56 57 56 57 59 63 69 73 73 74 74 71 71 71 70 69 68 69 71 70 73 73 73 73 71 69 68 65 68 65 65 65 62 61 61 60 60 55 54 51 50 50 49 46 44 42 -193 21 19 19 19 19 21 20 20 22 24 26 24 26 24 25 25 25 23 23 21 21 21 22 22 23 24 25 24 24 26 23 24 24 25 25 25 25 26 25 27 25 24 22 23 24 22 25 24 26 25 25 24 24 23 24 19 15 19 17 18 21 23 23 24 25 25 24 29 42 46 46 49 48 50 50 51 51 50 51 53 53 57 57 62 68 69 70 72 73 74 74 77 76 77 77 78 78 78 81 80 78 81 78 83 81 80 80 76 83 83 83 84 84 85 85 86 86 86 89 89 88 92 97 102 104 105 104 107 108 111 -209 121 126 132 135 132 133 133 135 132 131 131 130 126 128 130 130 -177 -209 138 140 147 -209 152 153 154 160 162 158 159 159 158 159 160 159 158 156 165 163 159 157 161 164 167 168 173 172 183 186 187 188 191 194 195 197 198 199 0 0 0 0 0
    0 0 0 0 0 0 0 0 0 0 0 0 0 0 0 0 0 0 0 0 0 0 0 0 0 0 0 0 0 0 0 0 0 0 0 0 0 0 0 0 0 0 0 0 0 0 0 0 0 0 0 0 0 0 0 0 0 0 0 0 0 0 0 0 0 0 0 0 0 66 64 60 62 63 60 58 60 61 59 58 61 57 58 56 58 59 64 70 72 72 73 75 72 72 73 73 72 72 72 73 72 74 76 75 74 72 70 68 65 68 65 65 66 63 62 62 62 61 57 55 51 50 50 49 46 44 43 -193 21 21 20 20 20 22 21 21 23 25 27 25 28 25 26 26 25 25 24 23 23 22 23 23 24 24 25 25 25 26 24 26 26 27 30 29 28 29 27 29 25 24 20 22 24 22 26 25 26 25 25 25 25 24 25 20 18 20 20 21 22 23 23 24 28 29 26 34 44 47 47 49 49 50 49 51 51 51 52 54 54 58 58 62 66 67 68 71 73 74 74 78 77 78 78 79 79 79 82 81 79 82 79 84 83 82 82 78 85 85 85 86 86 88 88 89 89 88 90 90 90 93 95 101 103 105 104 107 109 111 116 121 125 131 135 132 132 133 135 132 131 131 130 126 129 131 131 -193 -193 139 140 145 147 147 147 150 152 160 157 158 158 158 160 161 159 159 156 165 160 160 156 159 165 168 169 172 173 178 -209 -209 -193 188 -193 190 195 196 197 0 0 0 0 0
    0 0 0 0 0 0 0 0 0 0 0 0 0 0 0 0 0 0 0 0 0 0 0 0 0 0 0 0 0 0 0 0 0 0 0 0 0 0 0 0 0 0 0 0 0 0 0 0 0 0 0 0 0 0 0 0 0 0 0 0 0 0 0 0 0 0 0 0 0 65 64 58 62 62 60 59 67 67 63 61 63 59 59 58 60 59 64 69 71 71 72 72 71 71 72 71 70 70 71 72 71 74 74 74 74 71 70 68 65 68 64 64 65 62 61 61 61 61 57 56 52 50 50 48 46 44 44 -193 22 22 21 20 20 23 22 23 24 28 34 34 36 28 29 28 28 27 27 25 24 22 24 24 25 25 25 26 26 27 25 28 28 29 38 39 37 37 34 35 29 -209 18 23 24 23 -193 24 26 25 25 25 25 25 25 20 20 21 -193 23 24 23 24 26 29 31 29 33 42 45 45 48 48 50 49 51 51 51 52 54 55 58 58 61 65 65 67 70 73 74 74 79 78 79 78 80 80 79 82 82 79 83 80 84 83 84 84 81 87 86 87 87 87 89 89 90 90 89 91 91 91 95 98 105 106 107 106 108 112 112 118 122 126 131 134 131 131 132 134 132 131 131 130 126 129 131 131 -209 138 141 143 145 146 146 146 147 151 157 156 157 158 158 159 161 160 161 156 166 165 164 162 166 170 174 175 176 177 180 -209 -209 -209 -193 -209 -209 -193 194 194 0 0 0 0 0
    0 0 0 0 0 0 0 0 0 0 0 0 0 0 0 0 0 0 0 0 0 0 0 0 0 0 0 0 0 0 0 0 0 0 0 0 0 0 0 0 0 0 0 0 0 0 0 0 0 0 0 0 0 0 0 0 0 0 0 0 0 0 0 0 0 0 0 0 0 65 63 58 60 61 60 59 67 69 63 62 64 60 60 60 61 58 63 69 71 71 72 72 71 71 72 70 70 70 71 71 71 73 73 73 73 70 69 68 65 68 64 64 66 63 62 62 61 61 57 56 52 50 49 48 46 45 44 42 24 23 21 20 20 25 -209 26 25 34 39 42 42 37 36 36 36 36 35 31 26 -225 -225 -225 -225 -225 25 25 25 26 24 27 27 28 38 39 38 39 -225 -225 -225 -209 -209 -193 20 -193 -193 21 22 21 21 22 22 24 23 16 20 23 27 27 27 26 26 27 32 36 34 37 42 45 45 48 48 50 49 51 51 51 52 54 55 58 58 61 64 64 66 69 74 74 74 80 78 79 79 80 80 79 82 81 79 82 80 83 83 84 84 82 88 87 88 88 88 90 90 91 90 90 91 92 93 96 99 104 106 106 105 106 109 108 115 121 124 130 134 131 131 132 134 132 131 131 131 127 131 132 132 -209 139 143 145 145 146 147 146 147 150 155 155 157 158 158 159 162 161 161 156 166 164 164 163 167 171 178 179 179 180 -209 -209 -209 -209 -209 -209 -193 -193 -193 -193 0 0 0 0 0
    0 0 0 0 0 0 0 0 0 0 0 0 0 0 0 0 0 0 0 0 0 0 0 0 0 0 0 0 0 0 0 0 0 0 0 0 0 0 0 0 0 0 0 0 0 0 0 0 0 0 0 0 0 0 0 0 0 0 0 0 0 0 0 0 0 0 0 0 0 64 63 58 59 60 59 59 65 67 61 61 62 59 59 59 60 58 63 69 71 71 72 72 71 71 71 70 70 70 70 71 71 73 73 72 72 69 67 67 64 68 64 64 65 63 62 62 62 62 58 56 53 50 50 49 47 46 45 42 40 36 -193 23 27 34 39 39 -193 38 42 44 44 41 39 39 39 39 39 35 -225 -225 -225 -225 -225 -225 -225 -225 -225 -225 -225 -225 -225 -225 -225 -225 -225 -225 -225 -225 -225 -225 -225 -225 -225 -225 -225 -225 -225 -225 -225 -225 -225 -225 -225 -225 -225 -225 -225 -225 38 36 34 35 37 38 38 40 44 46 46 48 48 50 49 51 51 51 51 55 55 58 58 61 64 64 66 69 74 74 75 80 78 79 79 81 81 79 82 81 79 82 80 83 83 84 85 83 88 87 88 89 88 90 90 91 91 90 91 93 94 97 98 104 106 107 106 107 111 110 118 122 124 128 133 131 130 131 134 132 131 131 131 128 130 133 133 -193 139 143 145 145 147 148 148 148 150 156 156 157 158 158 159 162 161 161 156 164 161 161 163 167 171 177 179 180 180 183 -209 -209 -209 -193 -209 -209 -209 194 -193 0 0 0 0 0
    0 0 0 0 0 0 0 0 0 0 0 0 0 0 0 0 0 0 0 0 0 0 0 0 0 0 0 0 0 0 0 0 0 0 0 0 0 0 0 0 0 0 0 0 0 0 0 0 0 0 0 0 0 0 0 0 0 0 0 0 0 0 0 0 0 0 0 0 0 64 62 57 59 60 60 60 67 69 64 63 64 61 61 62 62 59 64 70 72 71 72 72 71 71 72 71 70 70 71 71 70 72 73 71 71 69 65 64 63 68 63 63 65 63 62 62 62 62 58 57 54 50 51 50 49 47 45 42 41 41 35 28 34 39 41 41 43 41 43 45 45 42 40 40 40 40 39 35 -225 -225 -225 -225 -225 -225 -225 -225 -225 -225 -225 -225 -225 -225 -225 -225 -225 -225 -225 -225 -225 -225 -225 -225 -225 -225 -225 -225 -225 -225 -225 -225 -225 -225 -225 -225 -225 -225 -225 -225 -225 38 38 39 39 40 40 41 44 47 47 48 47 49 49 52 51 51 51 55 56 59 59 61 64 63 65 68 73 74 75 80 78 79 80 81 81 78 82 81 79 82 80 83 84 85 86 85 89 89 89 90 89 91 91 91 92 91 92 97 99 101 102 106 107 108 107 109 112 112 119 122 124 126 132 131 130 131 134 132 131 131 131 129 130 133 132 -193 139 142 143 144 146 148 148 149 151 156 156 158 158 158 158 162 161 161 157 163 162 162 166 169 173 177 179 180 181 183 -193 -209 -209 -193 -209 -209 -209 194 194 0 0 0 0 0
    0 0 0 0 0 0 0 0 0 0 0 0 0 0 0 0 0 0 0 0 0 0 0 0 0 0 0 0 0 0 0 0 0 0 0 0 0 0 0 0 0 0 0 0 0 0 0 0 0 0 0 0 0 0 0 0 0 0 0 0 0 0 0 0 0 0 0 0 0 64 63 58 59 60 60 61 67 69 64 64 66 63 63 64 63 60 64 70 72 71 72 72 71 71 72 71 71 71 71 71 70 73 73 73 73 70 65 64 63 69 64 63 65 62 61 61 61 61 57 57 54 49 50 50 49 47 45 42 41 40 35 29 35 39 41 41 44 42 44 45 46 43 41 41 41 40 39 36 -225 -225 -225 -225 -225 -225 -225 -225 -225 -225 -225 -225 -225 -225 -225 -225 -225 -225 -225 -225 -225 -225 -225 -225 -225 -225 -225 -225 -225 -225 -225 -225 -225 -225 -225 -225 -225 -225 -225 -225 -225 38 39 40 39 40 40 42 45 49 48 49 48 50 50 53 52 53 53 57 57 59 59 61 63 63 64 68 72 73 74 79 78 79 80 80 81 78 82 81 79 82 81 83 84 85 87 87 90 90 90 91 90 92 92 93 92 93 93 101 104 103 105 107 108 109 107 109 113 114 120 123 123 125 131 130 129 130 133 131 131 131 131 129 130 133 132 -193 139 142 144 144 146 148 148 148 150 156 156 158 158 159 158 161 161 161 157 162 163 164 167 170 173 177 178 180 180 182 -193 -209 -193 -193 -193 -193 -193 193 193 0 0 0 0 0
    0 0 0 0 0 0 0 0 0 0 0 0 0 0 0 0 0 0 0 0 0 0 0 0 0 0 0 0 0 0 0 0 0 0 0 0 0 0 0 0 0 0 0 0 0 0 0 0 0 0 0 0 0 0 0 0 0 0 0 0 0 0 0 0 0 0 0 0 0 65 64 59 61 62 62 63 68 69 65 66 67 64 64 64 64 59 64 69 71 71 72 72 71 71 72 71 71 71 71 70 69 71 71 71 71 68 63 62 62 68 63 63 64 61 60 61 61 61 58 58 55 50 52 52 51 49 46 44 41 42 41 39 39 40 41 42 45 43 45 47 47 44 43 43 43 42 41 38 -225 -225 -225 -225 -225 -225 -225 -225 -225 -225 -225 -225 -225 -225 -225 -225 -225 -225 -225 -225 -225 -225 -225 -225 -225 -225 -225 -225 -225 -225 -225 -225 -225 -225 -225 -225 -225 -225 -225 -225 -225 38 40 42 40 41 41 44 45 50 49 50 49 52 51 54 53 54 54 57 57 59 58 60 63 62 63 67 72 73 74 79 78 78 79 80 81 78 82 81 78 82 81 83 85 85 87 87 90 91 91 91 91 93 93 93 93 94 94 102 -193 104 -193 108 110 111 110 112 117 118 121 123 124 124 130 128 128 129 132 131 130 131 131 129 131 134 133 -193 140 144 146 146 147 149 149 149 150 155 156 157 158 159 158 161 160 161 156 160 162 164 167 169 172 176 178 179 180 182 -193 -209 -193 -193 -193 -193 -193 191 190 0 0 0 0 0
    0 0 0 0 0 0 0 0 0 0 0 0 0 0 0 0 0 0 0 0 0 0 0 0 0 0 0 0 0 0 0 0 0 0 0 0 0 0 0 0 0 0 0 0 0 0 0 0 0 0 0 0 0 0 0 0 0 0 0 0 0 0 0 0 0 0 0 0 0 67 66 61 64 66 66 67 70 72 68 68 68 67 66 67 66 58 63 69 72 72 73 73 72 72 72 72 72 72 72 71 70 72 71 72 71 67 62 62 63 67 63 63 64 61 61 62 62 61 59 59 57 52 53 52 51 49 47 44 42 43 42 41 41 41 42 43 45 45 47 49 49 47 46 46 45 44 42 -225 -225 -225 -225 -225 -225 -225 -225 -225 -225 -225 -225 -225 -225 -225 -225 -225 -225 -225 -225 -225 -225 -225 -225 -225 -225 -225 -225 -225 -225 -225 -225 -225 -225 -225 -225 -225 -225 -225 -225 -225 -225 -225 37 42 40 42 41 45 45 51 49 51 50 52 51 54 53 54 54 58 57 59 58 60 63 62 64 67 72 73 74 79 78 78 79 80 81 78 82 81 78 82 82 83 85 86 87 87 90 91 91 92 92 93 93 93 93 95 97 104 106 105 106 109 111 113 113 117 119 121 122 124 124 125 129 128 128 129 132 131 131 131 132 130 131 134 133 -193 139 142 144 144 147 149 150 149 150 155 155 156 157 158 157 160 159 160 156 159 162 164 167 169 172 176 176 178 180 182 183 -209 -209 -193 -209 189 190 191 189 0 0 0 0 0
    0 0 0 0 0 0 0 0 0 0 0 0 0 0 0 0 0 0 0 0 0 0 0 0 0 0 0 0 0 0 0 0 0 0 0 0 0 0 0 0 0 0 0 0 0 0 0 0 0 0 0 0 0 0 0 0 0 0 0 0 0 0 0 0 0 0 0 0 0 68 67 63 65 68 68 68 71 72 69 69 69 68 67 68 68 58 63 69 70 71 72 73 72 73 73 73 73 72 73 72 71 71 71 71 71 65 62 62 63 67 63 63 64 61 61 62 62 62 59 59 57 54 54 53 51 50 47 44 43 44 44 42 41 42 43 45 47 49 51 51 51 50 50 48 47 46 44 -225 -225 -225 -225 -225 -225 -225 -225 -225 -225 -225 -225 -225 -225 -225 -225 -225 -225 -225 -225 -225 -225 -225 -225 -225 -225 -225 -225 -225 -225 -225 -225 -225 -225 -225 -225 -225 -225 -225 -225 -225 -225 -225 -225 -225 -225 44 42 47 46 51 49 52 51 53 53 55 54 54 54 57 56 59 58 60 62 63 64 67 72 72 74 79 78 78 79 80 80 77 82 81 78 82 82 84 85 86 87 88 90 91 91 92 92 94 94 95 96 99 102 106 109 108 108 110 111 113 114 117 119 121 121 124 124 124 128 128 127 128 131 131 130 131 132 131 132 135 134 -193 140 141 143 142 145 148 149 149 150 154 155 156 157 157 156 159 158 159 156 158 162 164 167 169 171 174 174 176 177 180 182 -193 -209 -193 -193 189 192 192 190 0 0 0 0 0
    0 0 0 0 0 0 0 0 0 0 0 0 0 0 0 0 0 0 0 0 0 0 0 0 0 0 0 0 0 0 0 0 0 0 0 0 0 0 0 0 0 0 0 0 0 0 0 0 0 0 0 0 0 0 0 0 0 0 0 0 0 0 0 0 0 0 0 0 0 68 66 64 65 68 68 69 70 71 69 69 69 69 68 69 69 60 65 68 70 71 72 73 73 73 73 72 72 72 72 71 70 70 69 67 71 64 62 62 62 66 63 63 64 60 61 62 61 61 59 59 58 55 55 53 52 51 46 43 44 44 43 42 42 44 45 46 48 50 52 52 52 52 50 49 48 47 -225 -225 -225 -225 -225 -225 -225 -225 -225 -225 -225 -225 -225 -225 -225 -225 -225 -225 -225 -225 -225 -225 -225 -225 -225 -225 -225 -225 -225 -225 -225 -225 -225 -225 -225 -225 -225 -225 -225 -225 -225 -225 -225 -225 -225 -225 -225 -225 42 52 49 53 51 53 52 54 54 55 53 54 53 56 55 58 58 59 62 63 64 68 72 72 74 78 77 77 78 79 79 76 81 80 78 81 82 84 85 86 87 87 90 91 91 92 92 94 95 96 98 102 105 108 110 109 108 111 112 112 115 117 119 119 121 122 123 123 127 127 127 128 131 131 131 131 133 133 134 137 136 -193 -193 140 143 142 146 150 151 151 152 155 156 156 156 157 156 158 158 159 156 157 163 164 167 168 169 172 172 175 175 179 180 -193 -209 -193 -193 189 192 192 191 0 0 0 0 0
    0 0 0 0 0 0 0 0 0 0 0 0 0 0 0 0 0 0 0 0 0 0 0 0 0 0 0 0 0 0 0 0 0 0 0 0 0 0 0 0 0 0 0 0 0 0 0 0 0 0 0 0 0 0 0 0 0 0 0 0 0 0 0 0 0 0 0 0 0 68 65 66 66 68 69 69 71 71 69 70 70 69 68 68 69 63 66 69 71 72 73 76 74 74 74 73 73 72 73 72 70 71 70 69 71 65 63 64 65 66 63 63 64 60 61 62 61 61 59 59 58 56 56 55 54 52 46 42 44 44 43 42 43 45 46 48 50 52 53 53 52 52 51 50 49 -225 -225 -225 -225 -225 -225 -225 -225 -225 -225 -225 -225 -225 -225 -225 -225 -225 -225 -225 -225 -225 -225 -225 -225 -225 -225 -225 -225 -225 -225 -225 -225 -225 -225 -225 -225 -225 -225 -225 -225 -225 -225 -225 -225 -225 -225 -225 -225 -225 -225 57 54 56 53 54 54 55 55 55 53 54 54 56 55 58 57 59 61 63 64 68 72 72 74 77 76 76 76 78 79 75 80 79 77 80 82 83 85 86 87 87 90 91 91 92 92 93 95 96 99 102 105 109 111 110 109 111 113 113 115 118 119 119 120 122 123 123 126 127 126 127 131 131 131 133 135 135 135 138 136 133 138 138 140 140 147 152 154 153 153 156 156 155 156 157 155 157 157 158 156 157 162 164 167 168 169 172 172 174 174 177 178 -193 -193 -193 -193 189 192 192 192 0 0 0 0 0
    0 0 0 0 0 0 0 0 0 0 0 0 0 0 0 0 0 0 0 0 0 0 0 0 0 0 0 0 0 0 0 0 0 0 0 0 0 0 0 0 0 0 0 0 0 0 0 0 0 0 0 0 0 0 0 0 0 0 0 0 0 0 0 0 0 0 0 0 0 68 64 67 66 69 70 70 71 71 70 71 70 70 68 68 69 66 68 69 71 0 -256 -1 29009 74 73 73 73 72 72 72 71 72 71 71 72 67 67 68 69 68 66 65 64 61 62 63 61 61 60 59 59 57 58 57 56 55 44 44 44 43 43 43 46 48 49 51 52 54 54 54 54 52 52 50 49 -225 -225 -225 -225 -225 -225 -225 -225 -225 -225 -225 -225 -225 -225 -225 -225 -225 -225 -225 -225 -225 -225 -225 -225 -225 -225 -225 -225 -225 -225 -225 -225 -225 -225 -225 -225 -225 -225 -225 -225 -225 -225 -225 -225 -225 -225 -225 -225 -225 -225 -225 51 55 53 55 54 56 55 55 54 55 55 57 56 59 58 59 62 65 64 68 71 72 73 76 75 75 75 77 78 75 80 78 76 81 84 85 86 86 87 88 90 91 91 91 92 93 95 97 100 104 106 109 112 111 110 112 114 113 116 119 119 120 120 122 123 123 125 126 126 126 129 130 130 131 134 135 135 139 -193 129 -209 -209 -209 -209 -193 161 156 154 154 156 155 154 155 156 154 155 156 157 155 156 160 163 167 -193 170 172 172 174 173 174 175 178 -193 -193 -193 190 193 192 193 0 0 0 0 0
    0 0 0 0 0 0 0 0 0 0 0 0 0 0 0 0 0 0 0 0 0 0 0 0 0 0 0 0 0 0 0 0 0 0 0 0 0 0 0 0 0 0 0 0 0 0 0 0 0 0 0 0 0 0 0 0 0 0 0 0 0 0 0 0 0 0 0 0 0 68 64 67 67 69 70 71 72 72 71 72 72 71 70 69 69 68 70 69 71 71 72 73 73 73 72 72 72 71 72 71 71 72 72 73 73 69 69 68 70 68 67 66 65 62 64 63 62 61 60 60 59 58 58 57 56 53 42 48 44 44 45 50 53 53 54 54 55 56 55 56 54 53 52 50 -225 -225 -225 -225 -225 -225 -225 -225 -225 -225 -225 -225 -225 -225 -225 -225 -225 -225 -225 -225 -225 -225 -225 -225 -225 -225 -225 -225 -225 -225 -225 -225 -225 -225 -225 -225 -225 -225 -225 -225 -225 -225 -225 -225 -225 -225 -225 -225 -225 -225 -225 -225 -225 -225 55 58 56 58 56 57 56 57 57 58 57 60 59 60 63 67 66 69 72 73 74 76 75 75 74 76 77 74 79 78 76 81 86 86 88 87 88 88 90 91 91 91 91 92 94 97 99 103 106 109 111 111 110 111 113 113 116 118 119 120 120 122 123 123 126 126 125 126 129 131 130 132 -193 -193 140 147 -193 -209 -209 -209 -209 -209 -193 160 156 154 153 155 154 154 155 155 154 153 154 155 154 155 157 159 -193 -209 -193 172 171 172 171 173 173 174 174 -209 -209 189 192 192 193 0 0 0 0 0
    0 0 0 0 0 0 0 0 0 0 0 0 0 0 0 0 0 0 0 0 0 0 0 0 0 0 0 0 0 0 0 0 0 0 0 0 0 0 0 0 0 0 0 0 0 0 0 0 0 0 0 0 0 0 0 0 0 0 0 0 0 0 0 0 0 0 0 0 0 68 65 67 68 70 70 71 72 72 72 72 72 72 70 70 70 68 69 69 71 70 72 72 72 72 72 71 72 71 72 70 71 72 72 73 74 69 70 69 71 68 68 66 65 62 64 63 62 61 61 60 59 59 59 58 57 54 -193 52 45 47 52 55 57 56 56 57 57 57 57 57 55 54 53 -225 -225 -225 -225 -225 -225 -225 -225 -225 -225 -225 -225 -225 -225 -225 -225 -225 -225 -225 -225 -225 -225 -225 -225 -225 -225 -225 -225 -225 -225 -225 -225 -225 -225 -225 -225 -225 -225 -225 -225 -225 -225 -225 -225 -225 -225 -225 -225 -225 -225 -225 -225 -225 -225 -225 -225 63 57 59 57 59 57 58 58 59 58 61 60 61 63 68 67 70 73 73 74 76 75 75 74 76 76 73 80 78 76 82 86 87 88 88 88 88 90 90 90 90 90 92 94 98 100 102 106 108 110 109 109 111 113 113 116 118 119 120 120 122 123 123 126 125 125 126 128 131 130 -193 -193 -193 143 148 150 151 -209 145 144 145 148 154 156 154 153 155 155 154 155 156 154 153 154 155 153 154 -193 -209 -209 -209 -209 170 -209 171 -209 171 170 172 -209 -209 -209 188 191 193 194 0 0 0 0 0
    0 0 0 0 0 0 0 0 0 0 0 0 0 0 0 0 0 0 0 0 0 0 0 0 0 0 0 0 0 0 0 0 0 0 0 0 0 0 0 0 0 0 0 0 0 0 0 0 0 0 0 0 0 0 0 0 0 0 0 0 0 0 0 0 0 0 0 0 0 68 65 67 69 70 70 71 72 72 72 73 73 72 70 69 70 68 69 69 70 70 72 72 72 72 71 71 72 71 71 70 71 72 72 73 74 70 71 70 71 68 68 67 65 63 65 63 62 61 62 60 60 61 61 60 60 64 -193 54 48 52 56 58 59 58 58 58 58 59 58 57 56 54 -225 -225 -225 -225 -225 -225 -225 -225 -225 -225 -225 -225 -225 -225 -225 -225 -225 -225 -225 -225 -225 -225 -225 -225 -225 -225 -225 -225 -225 -225 -225 -225 -225 -225 -225 -225 -225 -225 -225 -225 -225 -225 -225 -225 -225 -225 -225 -225 -225 -225 -225 -225 -225 -225 -225 -225 -225 -225 57 59 57 60 58 59 58 60 58 62 62 62 64 69 68 70 74 74 75 76 75 75 74 76 76 73 80 78 75 82 87 87 88 87 88 87 90 90 90 90 89 91 94 98 100 102 106 108 109 108 109 111 114 114 117 118 119 120 120 122 123 124 125 125 126 126 129 131 132 -193 136 140 141 144 142 145 141 140 138 141 145 -193 156 155 154 155 155 155 156 156 154 152 153 154 153 153 -193 -209 -209 -209 -209 -209 -209 -209 -209 170 -193 -193 -209 -209 -209 185 189 191 -193 0 0 0 0 0
    0 0 0 0 0 0 0 0 0 0 0 0 0 0 0 0 0 0 0 0 0 0 0 0 0 0 0 0 0 0 0 0 0 0 0 0 0 0 0 0 0 0 0 0 0 0 0 0 0 0 0 0 0 0 0 0 0 0 0 0 0 0 0 0 0 0 0 0 0 68 64 67 68 70 70 71 72 73 72 73 73 72 71 70 70 69 70 69 70 70 72 72 72 72 71 71 71 71 71 71 72 73 74 74 76 72 72 71 71 68 68 67 66 64 66 64 63 61 64 61 61 63 63 62 66 68 67 61 -193 -209 64 65 64 62 60 60 59 60 59 58 57 -225 -225 -225 -225 -225 -225 -225 -225 -225 -225 -225 -225 -225 -225 -225 -225 -225 -225 -225 -225 -225 -225 -225 -225 -225 -225 -225 -225 -225 -225 -225 -225 -225 -225 -225 -225 -225 -225 -225 -225 -225 -225 -225 -225 -225 -225 -225 -225 -225 -225 -225 -225 -225 -225 -225 -225 -225 -225 -225 60 61 60 64 62 62 61 62 60 64 64 63 65 69 69 71 73 73 74 76 75 75 73 75 75 73 80 78 75 82 86 87 88 87 87 87 89 89 89 90 89 91 93 97 99 101 105 107 107 107 108 109 112 113 115 117 118 119 120 121 123 123 125 125 127 127 131 132 133 -193 136 140 140 143 140 140 -193 137 137 139 143 151 155 154 153 155 155 154 155 156 154 152 153 153 153 153 153 152 -209 -209 -209 -209 -209 -209 -209 169 168 -193 -209 -209 -209 -209 -209 -193 -209 0 0 0 0 0
    0 0 0 0 0 0 0 0 0 0 0 0 0 0 0 0 0 0 0 0 0 0 0 0 0 0 0 0 0 0 0 0 0 0 0 0 0 0 0 0 0 0 0 0 0 0 0 0 0 0 0 0 0 0 0 0 0 0 0 0 0 0 0 0 0 0 0 0 0 67 62 65 67 69 69 70 71 71 71 72 72 73 70 70 70 69 70 69 70 70 72 71 72 72 71 71 71 71 71 70 72 73 73 74 78 74 72 72 72 69 69 68 66 65 66 64 63 61 64 61 62 65 66 67 66 66 65 65 69 70 70 69 68 66 64 62 61 60 59 58 57 -225 -225 -225 -225 -225 -225 -225 -225 -225 -225 -225 -225 -225 -225 -225 -225 -225 -225 -225 -225 -225 -225 -225 -225 -225 -225 -225 -225 -225 -225 -225 -225 -225 -225 -225 -225 -225 -225 -225 -225 -225 -225 -225 -225 -225 -225 -225 -225 -225 -225 -225 -225 -225 -225 -225 -225 -225 -225 -225 64 64 62 65 65 63 62 63 61 64 65 64 65 69 68 71 73 73 74 76 74 74 73 75 75 73 79 78 76 82 86 87 87 87 88 87 89 90 90 90 89 92 93 96 98 100 103 105 105 106 106 107 111 111 114 116 116 117 118 120 121 122 123 124 125 126 129 129 132 135 136 140 140 144 140 140 139 138 138 138 140 148 151 151 151 153 154 154 155 156 155 153 154 154 153 153 153 152 -193 -209 -209 -209 -193 -209 -209 169 168 170 -209 -209 -209 -209 -209 -209 -209 0 0 0 0 0
    0 0 0 0 0 0 0 0 0 0 0 0 0 0 0 0 0 0 0 0 0 0 0 0 0 0 0 0 0 0 0 0 0 0 0 0 0 0 0 0 0 0 0 0 0 0 0 0 0 0 0 0 0 0 0 0 0 0 0 0 0 0 0 0 0 0 0 0 0 66 62 63 66 67 68 69 70 70 71 73 74 73 72 71 71 69 70 69 69 69 72 70 71 71 70 70 70 70 70 68 72 73 74 75 80 78 75 73 73 70 69 68 66 65 66 64 64 61 64 61 62 69 70 68 66 66 65 67 71 73 72 71 70 68 66 65 64 62 60 58 -225 -225 -225 -225 -225 -225 -225 -225 -225 -225 -225 -225 -225 -225 -225 -225 -225 -225 -225 -225 -225 -225 -225 -225 -225 -225 -225 -225 -225 -225 -225 -225 -225 -225 -225 -225 -225 -225 -225 -225 -225 -225 -225 -225 -225 -225 -225 -225 -225 -225 -225 -225 -225 -225 -225 -225 -225 -225 -225 -225 67 67 65 68 68 66 64 65 63 66 66 66 66 69 69 70 73 73 73 75 74 74 73 75 75 73 78 78 76 81 86 87 87 87 88 87 90 90 90 90 89 92 93 95 96 97 100 102 102 103 104 106 111 110 113 115 115 117 118 119 121 121 123 124 125 126 129 129 131 134 134 -193 139 144 140 140 140 140 140 142 143 148 150 150 150 151 152 152 153 154 154 152 153 154 153 153 153 152 -193 -209 -209 -193 -193 -209 -193 168 167 169 165 -209 158 -209 -209 -209 -209 0 0 0 0 0
    0 0 0 0 0 0 0 0 0 0 0 0 0 0 0 0 0 0 0 0 0 0 0 0 0 0 0 0 0 0 0 0 0 0 0 0 0 0 0 0 0 0 0 0 0 0 0 0 0 0 0 0 0 0 0 0 0 0 0 0 0 0 0 0 0 0 0 0 0 66 62 62 66 66 65 69 -193 -225 -225 -225 -225 76 75 74 -209 70 71 70 69 69 72 68 69 70 69 68 68 69 69 67 73 74 75 78 82 80 78 75 74 70 70 68 67 67 66 65 65 62 66 62 69 71 70 68 67 67 68 70 72 74 73 72 71 69 69 68 67 64 61 -225 -225 -225 -225 -225 -225 -225 -225 -225 -225 -225 -225 -225 -225 -225 -225 -225 -225 -225 -225 -225 -225 -225 -225 -225 -225 -225 -225 -225 -225 -225 -225 -225 -225 -225 -225 -225 -225 -225 -225 -225 -225 -225 -225 -225 -225 -225 -225 -225 -225 -225 -225 -225 -225 -225 -225 -225 -225 -225 -225 -225 68 69 67 69 69 67 66 67 64 67 68 68 68 70 70 71 73 73 73 75 74 75 74 76 76 74 79 79 76 81 85 87 87 87 88 88 90 90 90 91 90 92 93 94 94 94 98 100 102 103 104 106 110 111 112 115 115 117 119 120 121 121 123 124 125 125 128 128 130 133 133 135 137 140 138 137 138 140 141 144 143 148 150 150 150 151 151 151 152 152 153 151 153 152 152 152 151 150 -209 -209 -209 170 -193 -209 -193 169 168 169 166 -209 -209 -209 151 -209 147 0 0 0 0 0
    0 0 0 0 0 0 0 0 0 0 0 0 0 0 0 0 0 0 0 0 0 0 0 0 0 0 0 0 0 0 0 0 0 0 0 0 0 0 0 0 0 0 0 0 0 0 0 0 0 0 0 0 0 0 0 0 0 0 0 0 0 0 0 0 0 0 0 0 0 66 63 61 67 68 63 -225 -225 -225 -225 -225 -225 85 87 87 91 -209 -209 70 69 70 72 67 68 69 68 68 69 69 69 68 74 76 77 80 82 82 79 75 74 70 70 68 68 68 67 66 67 64 68 65 72 71 70 68 69 72 71 73 75 77 75 74 72 71 70 69 69 66 62 -225 -225 -225 -225 -225 -225 -225 -225 -225 -225 -225 -225 -225 -225 -225 -225 -225 -225 -225 -225 -225 -225 -225 -225 -225 -225 -225 -225 -225 -225 -225 -225 -225 -225 -225 -225 -225 -225 -225 -225 -225 -225 -225 -225 -225 -225 -225 -225 -225 -225 -225 -225 -225 -225 -225 -225 -225 -225 -225 -225 -225 68 68 68 69 69 68 66 67 65 68 69 68 69 70 70 71 73 74 74 76 75 76 75 77 77 76 79 80 77 82 84 87 87 87 88 88 89 90 90 91 90 92 92 93 93 94 97 99 100 101 102 103 106 108 109 111 112 116 118 119 120 121 123 123 124 124 127 126 128 133 132 134 137 140 138 136 139 141 141 144 143 146 148 149 149 150 150 151 152 152 154 153 154 154 155 154 153 153 -193 -209 -209 168 168 -193 168 170 169 170 167 170 -209 -209 -209 -209 153 0 0 0 0 0
    0 0 0 0 0 0 0 0 0 0 0 0 0 0 0 0 0 0 0 0 0 0 0 0 0 0 0 0 0 0 0 0 0 0 0 0 0 0 0 0 0 0 0 0 0 0 0 0 0 0 0 0 0 0 0 0 0 0 0 0 0 0 0 0 0 0 0 0 0 67 67 61 69 71 -225 -225 -225 -225 -225 -225 -225 84 87 86 90 -209 -209 68 67 69 71 67 69 68 68 69 69 70 71 70 75 77 78 81 81 80 76 71 71 68 68 67 67 66 66 65 68 67 69 69 71 71 70 69 71 74 74 75 77 78 76 75 73 72 71 71 70 68 -225 -225 -225 -225 -225 -225 -225 -225 -225 -225 -225 -225 -225 -225 -225 -225 -225 -225 -225 -225 -225 -225 -225 -225 -225 -225 -225 -225 -225 -225 -225 -225 -225 -225 -225 -225 -225 -225 -225 -225 -225 -225 -225 -225 -225 -225 -225 -225 -225 -225 -225 -225 -225 -225 -225 -225 -225 -225 -225 -225 -225 -225 -225 69 69 71 71 69 68 68 66 68 69 69 69 71 71 72 74 75 75 76 76 77 76 78 78 77 79 81 79 82 84 86 86 86 87 87 89 89 90 91 90 92 92 93 93 93 97 98 99 100 101 103 105 107 107 109 110 114 117 119 120 120 122 122 124 124 -193 125 128 133 133 135 138 142 139 139 140 142 142 145 144 146 145 149 149 150 150 152 154 154 158 157 157 158 160 159 157 156 160 158 161 164 166 -193 168 170 170 172 173 178 182 -209 -193 -193 -209 0 0 0 0 0
    0 0 0 0 0 0 0 0 0 0 0 0 0 0 0 0 0 0 0 0 0 0 0 0 0 0 0 0 0 0 0 0 0 0 0 0 0 0 0 0 0 0 0 0 0 0 0 0 0 0 0 0 0 0 0 0 0 0 0 0 0 0 0 0 0 0 0 0 0 67 70 63 73 74 -225 -225 -225 -225 -225 -225 -225 -193 85 80 83 -209 71 67 67 68 70 68 69 70 71 72 74 76 75 75 82 81 81 81 80 77 73 71 71 70 69 68 68 67 68 68 69 69 70 70 70 71 71 71 74 77 76 77 79 79 78 76 74 73 72 72 71 -225 -225 -225 -225 -225 -225 -225 -225 -225 -225 -225 -225 -225 -225 -225 -225 -225 -225 -225 -225 -225 -225 -225 -225 -225 -225 -225 -225 -225 -225 -225 -225 -225 -225 -225 -225 -225 -225 -225 -225 -225 -225 -225 -225 -225 -225 -225 -225 -225 -225 -225 -225 -225 -225 -225 -225 -225 -225 -225 -225 -225 -225 -225 -225 70 70 71 72 70 70 70 68 69 70 69 70 71 72 72 73 75 75 77 76 77 76 79 78 78 79 81 79 82 83 85 84 85 86 87 89 90 90 92 91 93 94 94 93 94 96 97 97 99 100 102 104 106 107 109 113 116 119 119 120 120 121 122 123 123 -193 -209 -193 131 133 135 137 141 139 139 140 141 142 145 144 147 144 149 148 -193 -193 -209 -209 153 159 159 159 161 162 162 161 160 163 164 165 165 166 169 169 172 172 176 181 183 185 185 186 186 -193 0 0 0 0 0
    0 0 0 0 0 0 0 0 0 0 0 0 0 0 0 0 0 0 0 0 0 0 0 0 0 0 0 0 0 0 0 0 0 0 0 0 0 0 0 0 0 0 0 0 0 0 0 0 0 0 0 0 0 0 0 0 0 0 0 0 0 0 0 0 0 0 0 0 0 -209 75 -193 -225 -225 -225 -225 -225 -225 -225 -225 75 75 -209 73 75 73 73 -193 71 69 70 69 72 75 77 80 82 85 85 84 87 83 82 79 79 77 74 74 73 72 72 71 70 68 70 72 71 72 72 71 71 72 74 74 76 79 78 78 80 80 78 76 75 74 73 73 73 -225 -225 -225 -225 -225 -225 -225 -225 -225 -225 -225 -225 -225 -225 -225 -225 -225 -225 -225 -225 -225 -225 -225 -225 -225 -225 -225 -225 -225 -225 -225 -225 -225 -225 -225 -225 -225 -225 -225 -225 -225 -225 -225 -225 -225 -225 -225 -225 -225 -225 -225 -225 -225 -225 -225 -225 -225 -225 -225 -225 -225 -225 -225 -225 72 72 72 76 71 71 71 71 70 71 71 71 71 72 72 73 75 75 76 76 77 77 80 80 81 80 82 80 83 83 85 83 84 86 87 88 90 91 92 92 94 95 95 93 94 94 96 96 99 100 102 104 106 107 109 113 117 119 120 120 120 121 122 123 122 123 122 124 127 130 132 136 140 137 138 139 142 143 145 144 146 143 147 147 148 148 150 152 152 158 159 160 162 163 163 163 163 164 166 166 167 168 171 171 174 175 179 181 183 184 185 185 186 186 0 0 0 0 0
    0 0 0 0 0 0 0 0 0 0 0 0 0 0 0 0 0 0 0 0 0 0 0 0 0 0 0 0 0 0 0 0 0 0 0 0 0 0 0 0 0 0 0 0 0 0 0 0 0 0 0 0 0 0 0 0 0 0 0 0 0 0 0 0 0 0 0 0 0 77 78 76 75 75 75 73 73 68 70 70 74 73 73 73 75 73 74 -209 -193 -209 -209 70 81 -209 88 89 90 91 91 89 91 85 84 81 79 77 75 75 75 74 74 72 71 70 72 74 72 72 72 71 72 75 76 76 78 81 80 80 81 80 78 77 76 75 74 74 -225 -225 -225 -225 -225 -225 -225 -225 -225 -225 -225 -225 -225 -225 -225 -225 -225 -225 -225 -225 -225 -225 -225 -225 -225 -225 -225 -225 -225 -225 -225 -225 -225 -225 -225 -225 -225 -225 -225 -225 -225 -225 -225 -225 -225 -225 -225 -225 -225 -225 -225 -225 -225 -225 -225 -225 -225 -225 -225 -225 -225 -225 -225 -225 -225 73 73 74 77 71 70 71 71 70 70 70 71 71 73 72 74 75 75 77 76 77 78 81 82 82 81 84 83 85 85 86 84 85 86 87 87 90 91 92 93 94 95 95 93 95 96 99 100 102 102 104 105 106 107 109 111 114 118 119 120 120 121 122 123 122 123 123 123 127 129 131 135 138 137 138 139 141 143 145 144 145 142 145 146 146 147 150 152 153 157 160 161 163 163 163 164 164 164 165 165 166 168 170 171 174 176 180 182 183 185 186 186 187 188 0 0 0 0 0
    0 0 0 0 0 0 0 0 0 0 0 0 0 0 0 0 0 0 0 0 0 0 0 0 0 0 0 0 0 0 0 0 0 0 0 0 0 0 0 0 0 0 0 0 0 0 0 0 0 0 0 0 0 0 0 0 0 0 0 0 0 0 0 0 0 0 0 0 0 78 78 77 76 76 75 75 75 71 72 71 74 73 73 73 74 72 73 -193 -209 66 -209 70 -209 -177 92 91 92 92 92 91 92 86 85 81 80 77 76 77 76 75 77 74 72 72 73 74 72 72 72 73 79 80 81 81 82 84 83 83 82 80 79 78 77 76 74 -225 -225 -225 -225 -225 -225 -225 -225 -225 -225 -225 -225 -225 -225 -225 -225 -225 -225 -225 -225 -225 -225 -225 -225 -225 -225 -225 -225 -225 -225 -225 -225 -225 -225 -225 -225 -225 -225 -225 -225 -225 -225 -225 -225 -225 -225 -225 -225 -225 -225 -225 -225 -225 -225 -225 -225 -225 -225 -225 -225 -225 -225 -225 -225 -225 -225 -225 74 75 75 69 69 70 68 68 69 69 70 72 74 74 76 79 78 78 77 78 80 82 83 83 82 85 84 86 87 88 86 86 87 88 88 90 91 92 93 94 95 95 94 96 97 101 101 103 103 105 106 107 107 109 111 115 118 119 119 119 121 121 122 121 122 122 123 127 129 130 134 136 137 138 138 141 143 145 145 146 144 146 146 145 147 149 151 152 157 160 161 163 163 164 164 164 165 166 165 167 168 171 171 174 177 180 182 183 185 186 187 188 189 0 0 0 0 0
    0 0 0 0 0 0 0 0 0 0 0 0 0 0 0 0 0 0 0 0 0 0 0 0 0 0 0 0 0 0 0 0 0 0 0 0 0 0 0 0 0 0 0 0 0 0 0 0 0 0 0 0 0 0 0 0 0 0 0 0 0 0 0 0 0 0 0 0 0 77 78 78 77 77 76 76 76 73 74 73 74 74 72 73 73 71 -193 -209 -209 59 62 69 -209 -177 94 91 91 91 91 90 92 86 84 80 80 77 76 76 75 74 76 75 72 72 74 73 72 72 77 80 83 84 84 85 85 85 85 84 83 80 80 79 78 76 -225 -225 -225 -225 -225 -225 -225 -225 -225 -225 -225 -225 -225 -225 -225 -225 -225 -225 -225 -225 -225 -225 -225 -225 -225 -225 -225 -225 -225 -225 -225 -225 -225 -225 -225 -225 -225 -225 -225 -225 -225 -225 -225 -225 -225 -225 -225 -225 -225 -225 -225 -225 -225 -225 -225 -225 -225 -225 -225 -225 -225 -225 -225 -225 -225 -225 -225 -225 -225 74 75 70 69 71 68 67 69 70 71 73 75 75 77 80 79 79 78 78 80 82 84 83 82 86 86 87 88 89 87 87 88 89 87 90 91 92 93 94 95 95 94 97 98 103 103 104 104 106 107 108 108 110 113 116 118 119 119 119 120 121 121 120 121 122 123 127 128 129 133 136 137 138 139 143 145 147 147 147 146 148 147 146 147 149 151 151 155 159 161 163 162 163 165 165 166 167 166 168 169 172 173 177 179 182 184 185 186 187 188 189 190 0 0 0 0 0
    0 0 0 0 0 0 0 0 0 0 0 0 0 0 0 0 0 0 0 0 0 0 0 0 0 0 0 0 0 0 0 0 0 0 0 0 0 0 0 0 0 0 0 0 0 0 0 0 0 0 0 0 0 0 0 0 0 0 0 0 0 0 0 0 0 0 0 0 0 78 78 78 78 77 77 77 77 73 75 74 75 75 -193 -209 -209 -209 -209 -209 -209 -209 -193 -193 -209 97 92 90 90 89 89 88 90 85 82 77 78 76 75 76 75 74 78 78 75 74 76 74 73 78 80 81 84 85 85 85 85 86 84 84 82 81 81 80 79 -225 -225 -225 -225 -225 -225 -225 -225 -225 -225 -225 -225 -225 -225 -225 -225 -225 -225 -225 -225 -225 -225 -225 -225 -225 -225 -225 -225 -225 -225 -225 -225 -225 -225 -225 -225 -225 -225 -225 -225 -225 -225 -225 -225 -225 -225 -225 -225 -225 -225 -225 -225 -225 -225 -225 -225 -225 -225 -225 -225 -225 -225 -225 -225 -225 -225 -225 -225 -225 -225 -225 -225 62 63 68 67 68 69 69 72 74 77 76 78 82 80 79 79 79 80 83 85 86 85 88 88 89 89 90 89 88 88 89 89 91 93 94 94 95 97 97 96 98 99 104 104 105 105 106 106 107 109 111 114 117 118 119 119 120 120 121 121 120 121 122 123 128 129 131 134 138 138 139 140 144 145 146 146 147 145 147 147 146 147 150 151 152 155 158 160 162 162 163 164 165 166 167 167 168 170 173 175 179 182 183 184 185 186 187 188 189 190 0 0 0 0 0
    0 0 0 0 0 0 0 0 0 0 0 0 0 0 0 0 0 0 0 0 0 0 0 0 0 0 0 0 0 0 0 0 0 0 0 0 0 0 0 0 0 0 0 0 0 0 0 0 0 0 0 0 0 0 0 0 0 0 0 0 0 0 0 0 0 0 0 0 0 78 78 78 77 77 76 77 76 73 75 74 76 77 -209 -209 -209 -209 -209 -209 -209 -209 -209 -209 98 97 93 90 89 88 87 87 89 84 82 78 79 76 77 77 77 77 79 79 77 75 80 78 80 83 83 84 86 86 86 86 86 86 85 84 83 82 82 82 -225 -225 -225 -225 -225 -225 -225 -225 -225 -225 -225 -225 -225 -225 -225 -225 -225 -225 -225 -225 -225 -225 -225 -225 -225 -225 -225 -225 -225 -225 -225 -225 -225 -225 -225 -225 -225 -225 -225 -225 -225 -225 -225 -225 -225 -225 -225 -225 -225 -225 -225 -225 -225 -225 -225 -225 -225 -225 -225 -225 -225 -225 -225 -225 -225 -225 -225 -225 -225 -225 -225 -225 -225 -225 -225 60 66 62 60 63 70 72 76 76 78 82 80 80 80 79 81 85 87 87 87 89 89 90 90 91 90 90 89 91 90 92 94 95 94 95 97 97 95 97 99 105 104 105 105 106 106 107 109 111 114 117 118 120 119 119 120 121 121 120 121 123 123 130 130 133 135 139 139 139 140 144 145 146 146 146 144 147 147 146 147 150 152 153 157 160 161 163 162 163 164 164 165 167 166 168 169 172 173 177 180 183 184 184 185 186 188 189 191 0 0 0 0 0
    0 0 0 0 0 0 0 0 0 0 0 0 0 0 0 0 0 0 0 0 0 0 0 0 0 0 0 0 0 0 0 0 0 0 0 0 0 0 0 0 0 0 0 0 0 0 0 0 0 0 0 0 0 0 0 0 0 0 0 0 0 0 0 0 0 0 0 0 0 78 77 78 77 76 76 76 76 73 75 74 76 80 75 -209 -209 -209 -209 -209 -209 -209 -193 -193 94 94 92 90 89 87 87 87 89 84 83 78 80 77 77 77 78 77 79 79 76 75 83 87 87 87 86 87 88 87 87 87 86 86 85 85 83 82 -225 -225 -225 -225 -225 -225 -225 -225 -225 -225 -225 -225 -225 -225 -225 -225 -225 -225 -225 -225 -225 -225 -225 -225 -225 -225 -225 -225 -225 -225 -225 -225 -225 -225 -225 -225 -225 -225 -225 -225 -225 -225 -225 -225 -225 -225 -225 -225 -225 -225 -225 -225 -225 -225 -225 -225 -225 -225 -225 -225 -225 -225 -225 -225 -225 -225 -225 -225 -225 -225 -225 -225 -225 -225 -225 -225 -225 -225 -225 70 66 66 70 74 78 77 79 82 81 80 79 79 81 86 88 89 89 90 90 91 92 93 92 92 92 93 93 95 96 97 96 96 99 98 97 99 100 105 104 105 106 106 107 109 111 114 116 119 119 120 120 120 120 121 121 120 121 123 124 128 129 132 135 138 138 140 141 144 145 146 146 146 146 148 149 146 147 150 153 153 157 159 160 161 160 162 163 163 165 166 165 167 167 170 171 173 178 181 182 183 184 186 187 189 191 0 0 0 0 0
    0 0 0 0 0 0 0 0 0 0 0 0 0 0 0 0 0 0 0 0 0 0 0 0 0 0 0 0 0 0 0 0 0 0 0 0 0 0 0 0 0 0 0 0 0 0 0 0 0 0 0 0 0 0 0 0 0 0 0 0 0 0 0 0 0 0 0 0 0 78 78 78 77 76 76 76 76 74 75 75 77 81 81 -193 81 84 -193 -209 92 -209 -193 -193 92 92 89 88 88 85 87 86 90 84 85 80 -193 77 78 78 80 79 82 81 79 81 89 89 89 88 88 88 89 89 88 87 86 86 86 86 84 -225 -225 -225 -225 -225 -225 -225 -225 -225 -225 -225 -225 -225 -225 -225 -225 -225 -225 -225 -225 -225 -225 -225 -225 -225 -225 -225 -225 -225 -225 -225 -225 -225 -225 -225 -225 -225 -225 -225 -225 -225 -225 -225 -225 -225 -225 -225 -225 -225 -225 -225 -225 -225 -225 -225 -225 -225 -225 -225 -225 -225 -225 -225 -225 -225 -225 -225 -225 -225 -225 -225 -225 -225 -225 -225 -225 -225 -225 -225 -225 -225 -225 71 71 75 81 79 81 82 82 81 79 78 83 86 89 91 91 92 92 92 94 95 94 94 94 97 95 97 98 97 97 97 99 99 97 99 101 105 105 106 106 107 109 111 113 116 118 120 120 -193 -209 121 121 121 122 121 122 124 124 129 129 132 134 136 137 139 140 143 145 146 146 147 147 148 149 147 148 150 152 153 155 158 159 159 158 160 161 161 163 165 164 167 167 169 170 171 175 179 178 178 179 179 185 186 189 0 0 0 0 0
    0 0 0 0 0 0 0 0 0 0 0 0 0 0 0 0 0 0 0 0 0 0 0 0 0 0 0 0 0 0 0 0 0 0 0 0 0 0 0 0 0 0 0 0 0 0 0 0 0 0 0 0 0 0 0 0 0 0 0 0 0 0 0 0 0 0 0 0 0 79 78 78 77 76 76 76 76 74 75 76 77 83 85 87 88 89 -193 94 95 96 93 -193 -209 -209 -193 88 87 84 87 86 91 86 87 84 -193 81 83 82 84 82 85 84 84 87 90 90 90 90 89 90 90 90 89 87 86 86 86 85 -225 -225 -225 -225 -225 -225 -225 -225 -225 -225 -225 -225 -225 -225 -225 -225 -225 -225 -225 -225 -225 -225 -225 -225 -225 -225 -225 -225 -225 -225 -225 -225 -225 -225 -225 -225 -225 -225 -225 -225 -225 -225 -225 -225 -225 -225 -225 -225 -225 -225 -225 -225 -225 -225 -225 -225 -225 -225 -225 -225 -225 -225 -225 -225 -225 -225 -225 -225 -225 -225 -225 -225 -225 -225 -225 -225 -225 -225 -225 -225 -225 -225 -225 -225 66 71 82 79 81 82 81 82 80 80 86 88 90 93 93 95 94 95 96 97 96 96 96 98 95 97 98 98 98 97 99 98 96 99 101 106 106 106 107 108 110 112 114 115 116 118 118 120 119 -193 120 120 121 121 122 125 125 130 130 132 133 135 136 138 139 141 142 145 145 146 146 147 149 147 147 149 151 153 155 157 158 158 157 158 159 159 162 163 163 166 166 169 170 170 173 176 175 175 176 174 183 184 187 0 0 0 0 0
    0 0 0 0 0 0 0 0 0 0 0 0 0 0 0 0 0 0 0 0 0 0 0 0 0 0 0 0 0 0 0 0 0 0 0 0 0 0 0 0 0 0 0 0 0 0 0 0 0 0 0 0 0 0 0 0 0 0 0 0 0 0 0 0 0 0 0 0 0 79 79 80 78 77 76 77 77 74 76 77 80 87 88 90 91 92 91 95 97 95 91 88 -209 -209 -193 -193 86 84 87 86 91 86 87 86 87 84 86 83 86 84 86 86 87 89 91 91 91 91 90 91 91 90 89 88 87 87 86 -225 -225 -225 -225 -225 -225 -225 -225 -225 -225 -225 -225 -225 -225 -225 -225 -225 -225 -225 -225 -225 -225 -225 -225 -225 -225 -225 -225 -225 -225 -225 -225 -225 -225 -225 -225 -225 -225 -225 -225 -225 -225 -225 -225 -225 -225 -225 -225 -225 -225 -225 -225 -225 -225 -225 -225 -225 -225 -225 -225 -225 -225 -225 -225 -225 -225 -225 -225 -225 -225 -225 -225 -225 -225 -225 -225 -225 -225 -225 -225 -225 -225 -225 -225 -225 -225 70 82 81 83 85 82 78 78 79 86 87 90 93 93 96 95 95 97 97 97 97 98 99 98 99 99 99 99 98 100 98 98 100 102 106 106 105 106 108 110 112 111 112 114 116 115 117 116 117 118 118 119 121 122 127 127 131 131 132 134 135 137 139 139 141 142 144 145 146 147 147 149 148 149 150 152 153 154 156 157 157 156 157 158 158 161 162 162 165 165 168 169 170 172 174 173 174 173 172 179 182 186 0 0 0 0 0
    0 0 0 0 0 0 0 0 0 0 0 0 0 0 0 0 0 0 0 0 0 0 0 0 0 0 0 0 0 0 0 0 0 0 0 0 0 0 0 0 0 0 0 0 0 0 0 0 0 0 0 0 0 0 0 0 0 0 0 0 0 0 0 0 0 0 0 0 0 80 80 81 80 78 77 79 78 76 79 81 83 88 90 90 91 93 92 96 96 96 92 88 -209 -209 -193 -193 86 83 85 85 -193 84 85 86 87 85 86 85 87 86 88 89 89 90 92 92 92 92 91 91 91 91 90 89 89 88 -225 -225 -225 -225 -225 -225 -225 -225 -225 -225 -225 -225 -225 -225 -225 -225 -225 -225 -225 -225 -225 -225 -225 -225 -225 -225 -225 -225 -225 -225 -225 -225 -225 -225 -225 -225 -225 -225 -225 -225 -225 -225 -225 -225 -225 -225 -225 -225 -225 -225 -225 -225 -225 -225 -225 -225 -225 -225 -225 -225 -225 -225 -225 -225 -225 -225 -225 -225 -225 -225 -225 -225 -225 -225 -225 -225 -225 -225 -225 -225 -225 -225 -225 -225 -225 -225 -225 -225 82 83 83 84 79 -193 74 74 81 87 91 94 93 97 97 97 99 99 99 99 100 102 100 101 101 101 102 100 101 100 100 101 102 103 103 102 104 106 109 110 109 111 113 116 115 117 115 116 117 117 118 121 122 127 128 132 132 133 135 137 138 139 140 142 143 145 146 147 147 148 150 148 149 150 152 152 153 154 156 155 154 156 156 156 158 159 161 -193 -193 -193 -193 169 171 174 173 173 171 -193 174 181 184 0 0 0 0 0
    0 0 0 0 0 0 0 0 0 0 0 0 0 0 0 0 0 0 0 0 0 0 0 0 0 0 0 0 0 0 0 0 0 0 0 0 0 0 0 0 0 0 0 0 0 0 0 0 0 0 0 0 0 0 0 0 0 0 0 0 0 0 0 0 0 0 0 0 0 -193 85 85 84 81 79 82 80 80 81 84 86 89 91 91 92 93 92 95 95 95 90 87 86 -193 -193 84 85 82 84 84 -209 84 86 -209 88 86 87 86 88 87 89 90 90 91 92 93 93 92 92 91 91 91 90 90 89 -225 -225 -225 -225 -225 -225 -225 -225 -225 -225 -225 -225 -225 -225 -225 -225 -225 -225 -225 -225 -225 -225 -225 -225 -225 -225 -225 -225 -225 -225 -225 -225 -225 -225 -225 -225 -225 -225 -225 -225 -225 -225 -225 -225 -225 -225 -225 -225 -225 -225 -225 -225 -225 -225 -225 -225 -225 -225 -225 -225 -225 -225 -225 -225 -225 -225 -225 -225 -225 -225 -225 -225 -225 -225 -225 -225 -225 -225 -225 -225 -225 -225 -225 -225 -225 -225 -225 -225 -225 -225 -209 80 -193 -193 70 72 72 -193 86 92 95 94 99 99 100 101 101 102 101 102 104 102 102 102 101 102 101 101 99 99 99 101 101 102 100 103 105 108 109 108 109 112 114 114 116 114 115 116 117 -209 -209 122 128 129 133 133 134 136 138 139 140 141 142 143 144 144 146 146 147 149 148 149 151 153 153 154 155 156 155 155 156 157 155 157 157 158 -193 -193 -209 -193 -193 170 175 177 175 173 172 173 178 184 0 0 0 0 0
    0 0 0 0 0 0 0 0 0 0 0 0 0 0 0 0 0 0 0 0 0 0 0 0 0 0 0 0 0 0 0 0 0 0 0 0 0 0 0 0 0 0 0 0 0 0 0 0 0 0 0 0 0 0 0 0 0 0 0 0 0 0 0 0 0 0 0 0 0 -209 -209 -209 -209 -209 -209 -209 -209 -193 83 86 87 89 90 90 90 91 91 92 91 91 88 87 87 86 85 86 87 85 87 -193 -209 -209 -209 -209 -193 87 88 87 88 88 90 90 91 92 93 94 94 93 92 91 91 91 90 89 -225 -225 -225 -225 -225 -225 -225 -225 -225 -225 -225 -225 -225 -225 -225 -225 -225 -225 -225 -225 -225 -225 -225 -225 -225 -225 -225 -225 -225 -225 -225 -225 -225 -225 -225 -225 -225 -225 -225 -225 -225 -225 -225 -225 -225 -225 -225 -225 -225 -225 -225 -225 -225 -225 -225 -225 -225 -225 -225 -225 -225 -225 -225 -225 -225 -225 -225 -225 -225 -225 -225 -225 -225 -225 -225 -225 -225 -225 -225 -225 -225 -225 -225 -225 -225 -225 -225 -225 -225 -225 -225 -225 -209 65 68 69 72 72 -193 87 94 97 95 100 100 101 102 103 103 102 104 105 104 104 103 103 104 103 103 102 102 102 104 105 105 104 105 107 108 110 108 109 110 112 112 115 113 114 115 -209 -209 -209 123 128 130 133 133 134 136 137 138 139 139 140 140 142 142 143 145 146 148 147 149 151 153 153 154 155 157 157 156 157 157 156 157 156 157 -193 -193 164 165 167 168 171 173 173 172 171 171 175 181 0 0 0 0 0
    0 0 0 0 0 0 0 0 0 0 0 0 0 0 0 0 0 0 0 0 0 0 0 0 0 0 0 0 0 0 0 0 0 0 0 0 0 0 0 0 0 0 0 0 0 0 0 0 0 0 0 0 0 0 0 0 0 0 0 0 0 0 0 0 0 0 0 0 0 -209 -209 -209 -209 -209 -209 -209 -209 -209 83 86 88 88 89 -193 -193 -193 -193 91 90 90 88 88 88 89 88 89 91 89 90 -209 -209 -209 -209 -209 92 -193 89 89 91 90 91 92 92 94 94 95 95 93 93 92 92 91 90 -225 -225 -225 -225 -225 -225 -225 -225 -225 -225 -225 -225 -225 -225 -225 -225 -225 -225 -225 -225 -225 -225 -225 -225 -225 -225 -225 -225 -225 -225 -225 -225 -225 -225 -225 -225 -225 -225 -225 -225 -225 -225 -225 -225 -225 -225 -225 -225 -225 -225 -225 -225 -225 -225 -225 -225 -225 -225 -225 -225 -225 -225 -225 -225 -225 -225 -225 -225 -225 -225 -225 -225 -225 -225 -225 -225 -225 -225 -225 -225 -225 -225 -225 -225 -225 -225 -225 -225 -225 -225 -225 -225 -225 -225 64 67 68 71 71 71 -193 95 98 97 100 101 102 103 104 104 104 105 106 105 105 104 103 104 103 103 102 102 103 104 105 106 105 106 108 108 110 108 109 109 111 111 114 112 113 113 117 -209 -209 122 127 128 131 132 133 134 136 137 138 139 138 139 140 140 142 145 146 147 147 149 151 -193 153 154 154 156 156 156 156 156 155 156 156 156 156 159 163 164 166 167 170 171 172 172 170 170 174 180 0 0 0 0 0
    0 0 0 0 0 0 0 0 0 0 0 0 0 0 0 0 0 0 0 0 0 0 0 0 0 0 0 0 0 0 0 0 0 0 0 0 0 0 0 0 0 0 0 0 0 0 0 0 0 0 0 0 0 0 0 0 0 0 0 0 0 0 0 0 0 0 0 0 0 -193 -193 99 100 99 100 99 92 92 87 88 89 88 89 89 88 89 -193 91 90 89 88 88 88 89 88 90 91 91 92 -193 -209 -193 101 102 97 100 98 100 96 93 93 94 94 95 96 96 95 93 93 93 93 92 -225 -225 -225 -225 -225 -225 -225 -225 -225 -225 -225 -225 -225 -225 -225 -225 -225 -225 -225 -225 -225 -225 -225 -225 -225 -225 -225 -225 -225 -225 -225 -225 -225 -225 -225 -225 -225 -225 -225 -225 -225 -225 -225 -225 -225 -225 -225 -225 -225 -225 -225 -225 -225 -225 -225 -225 -225 -225 -225 -225 -225 -225 -225 -225 -225 -225 -225 -225 -225 -225 -225 -225 -225 -225 -225 -225 -225 -225 -225 -225 -225 -225 -225 -225 -225 -225 -225 -225 -225 -225 -225 -225 -225 -225 -225 -225 68 68 70 70 70 -193 -193 99 98 100 101 102 103 103 104 104 106 106 107 106 106 105 106 105 105 105 105 104 105 106 106 106 107 108 107 110 108 108 109 111 111 113 112 113 113 117 -209 -209 122 125 127 131 132 133 134 136 137 139 140 139 140 141 141 143 145 146 147 147 149 150 -193 -193 152 153 155 154 155 155 155 155 155 156 156 156 159 163 164 166 167 170 171 171 172 171 171 174 178 0 0 0 0 0
    0 0 0 0 0 0 0 0 0 0 0 0 0 0 0 0 0 0 0 0 0 0 0 0 0 0 0 0 0 0 0 0 0 0 0 0 0 0 0 0 0 0 0 0 0 0 0 0 0 0 0 0 0 0 0 0 0 0 0 0 0 0 0 0 0 0 0 0 0 101 98 98 99 99 99 100 93 94 -193 89 90 89 90 90 89 90 90 93 91 90 88 88 87 -193 88 -193 91 92 93 -209 -193 102 101 102 99 103 102 102 99 97 96 97 97 98 97 95 94 94 94 93 93 -225 -225 -225 -225 -225 -225 -225 -225 -225 -225 -225 -225 -225 -225 -225 -225 -225 -225 -225 -225 -225 -225 -225 -225 -225 -225 -225 -225 -225 -225 -225 -225 -225 -225 -225 -225 -225 -225 -225 -225 -225 -225 -225 -225 -225 -225 -225 -225 -225 -225 -225 -225 -225 -225 -225 -225 -225 -225 -225 -225 -225 -225 -225 -225 -225 -225 -225 -225 -225 -225 -225 -225 -225 -225 -225 -225 -225 -225 -225 -225 -225 -225 -225 -225 -225 -225 -225 -225 -225 -225 -225 -225 -225 -225 -225 -225 -225 -225 70 71 72 71 -193 -209 100 97 100 101 102 103 102 103 103 105 106 107 106 106 106 106 106 105 106 105 105 106 106 106 106 106 108 107 109 107 108 108 110 111 113 112 113 114 118 -193 -209 122 125 128 131 133 133 134 136 137 139 139 139 139 140 140 142 144 144 145 144 147 149 149 150 150 151 154 153 154 155 155 154 154 155 156 155 159 164 165 167 168 171 173 173 174 173 173 176 178 0 0 0 0 0
    0 0 0 0 0 0 0 0 0 0 0 0 0 0 0 0 0 0 0 0 0 0 0 0 0 0 0 0 0 0 0 0 0 0 0 0 0 0 0 0 0 0 0 0 0 0 0 0 0 0 0 0 0 0 0 0 0 0 0 0 0 0 0 0 0 0 0 0 0 101 97 98 99 100 100 100 97 99 94 93 93 93 92 93 92 92 91 94 93 92 89 90 89 -209 -209 -209 92 93 93 97 98 100 100 100 99 101 101 102 101 100 98 99 98 98 97 96 95 94 94 93 -225 -225 -225 -225 -225 -225 -225 -225 -225 -225 -225 -225 -225 -225 -225 -225 -225 -225 -225 -225 -225 -225 -225 -225 -225 -225 -225 -225 -225 -225 -225 -225 -225 -225 -225 -225 -225 -225 -225 -225 -225 -225 -225 -225 -225 -225 -225 -225 -225 -225 -225 -225 -225 -225 -225 -225 -225 -225 -225 -225 -225 -225 -225 -225 -225 -225 -225 -225 -225 -225 -225 -225 -225 -225 -225 -225 -225 -225 -225 -225 -225 -225 -225 -225 -225 -225 -225 -225 -225 -225 -225 -225 -225 -225 -225 -225 -225 -225 -225 -225 72 76 78 88 91 98 94 97 99 101 102 102 104 105 106 107 108 108 108 108 108 108 107 108 107 106 106 106 107 107 107 108 106 108 107 108 108 110 111 111 111 112 114 118 119 -193 122 125 129 132 134 134 135 137 138 139 139 139 139 139 139 141 143 143 143 144 147 148 149 149 149 149 152 153 154 155 156 155 155 156 157 156 161 165 167 169 169 172 175 175 178 177 177 180 181 0 0 0 0 0
    0 0 0 0 0 0 0 0 0 0 0 0 0 0 0 0 0 0 0 0 0 0 0 0 0 0 0 0 0 0 0 0 0 0 0 0 0 0 0 0 0 0 0 0 0 0 0 0 0 0 0 0 0 0 0 0 0 0 0 0 0 0 0 0 0 0 0 0 0 101 97 98 99 100 101 99 98 99 97 96 97 96 94 95 94 94 93 96 95 94 91 92 -209 -193 -193 -193 -193 94 94 97 99 100 101 102 101 102 102 104 103 102 100 100 99 98 98 97 95 94 -225 -225 -225 -225 -225 -225 -225 -225 -225 -225 -225 -225 -225 -225 -225 -225 -225 -225 -225 -225 -225 -225 -225 -225 -225 -225 -225 -225 -225 -225 -225 -225 -225 -225 -225 -225 -225 -225 -225 -225 -225 -225 -225 -225 -225 -225 -225 -225 -225 -225 -225 -225 -225 -225 -225 -225 -225 -225 -225 -225 -225 -225 -225 -225 -225 -225 -225 -225 -225 -225 -225 -225 -225 -225 -225 -225 -225 -225 -225 -225 -225 -225 -225 -225 -225 -225 -225 -225 -225 -225 -225 -225 -225 -225 -225 -225 -225 -225 -225 -225 -225 -225 -225 71 74 85 87 97 93 94 99 102 103 104 105 105 107 107 109 108 109 108 108 109 108 109 108 107 107 106 106 106 106 108 106 108 107 108 109 111 111 111 110 113 114 118 119 121 122 125 130 133 134 135 137 137 139 139 139 139 139 138 138 141 143 142 143 143 147 147 148 148 147 148 150 152 153 154 156 157 156 157 158 157 161 166 167 170 170 172 176 176 179 180 179 181 182 0 0 0 0 0
    0 0 0 0 0 0 0 0 0 0 0 0 0 0 0 0 0 0 0 0 0 0 0 0 0 0 0 0 0 0 0 0 0 0 0 0 0 0 0 0 0 0 0 0 0 0 0 0 0 0 0 0 0 0 0 0 0 0 0 0 0 0 0 0 0 0 0 0 0 -193 -193 97 99 100 -193 -193 97 99 98 99 100 100 98 99 99 98 95 99 98 98 95 95 -193 -193 95 -193 97 97 97 99 101 103 104 105 104 104 105 106 106 105 103 102 100 99 99 97 95 -225 -225 -225 -225 -225 -225 -225 -225 -225 -225 -225 -225 -225 -225 -225 -225 -225 -225 -225 -225 -225 -225 -225 -225 -225 -225 -225 -225 -225 -225 -225 -225 -225 -225 -225 -225 -225 -225 -225 -225 -225 -225 -225 -225 -225 -225 -225 -225 -225 -225 -225 -225 -225 -225 -225 -225 -225 -225 -225 -225 -225 -225 -225 -225 -225 -225 -225 -225 -225 -225 -225 -225 -225 -225 -225 -225 -225 -225 -225 -225 -225 -225 -225 -225 -225 -225 -225 -225 -225 -225 -225 -225 -225 -225 -225 -225 -225 -225 -225 -225 -225 -225 -225 -225 -225 78 87 90 97 96 94 97 102 103 104 105 106 108 108 109 109 109 109 109 110 109 111 109 108 108 108 107 109 109 109 108 109 109 111 110 114 113 111 111 113 116 119 120 121 122 125 130 132 134 134 135 136 138 138 138 138 138 138 137 140 141 141 141 143 146 147 147 147 146 147 150 151 152 153 155 156 155 156 156 155 159 166 167 170 170 173 176 176 179 180 179 182 182 0 0 0 0 0
    0 0 0 0 0 0 0 0 0 0 0 0 0 0 0 0 0 0 0 0 0 0 0 0 0 0 0 0 0 0 0 0 0 0 0 0 0 0 0 0 0 0 0 0 0 0 0 0 0 0 0 0 0 0 0 0 0 0 0 0 0 0 0 0 0 0 0 0 0 -193 -193 98 -193 -193 -209 -193 -193 -193 99 101 103 103 102 102 103 101 99 101 101 101 98 97 96 -193 99 -193 100 100 100 101 103 104 107 107 106 106 107 108 107 106 105 102 101 101 100 98 -225 -225 -225 -225 -225 -225 -225 -225 -225 -225 -225 -225 -225 -225 -225 -225 -225 -225 -225 -225 -225 -225 -225 -225 -225 -225 -225 -225 -225 -225 -225 -225 -225 -225 -225 -225 -225 -225 -225 -225 -225 -225 -225 -225 -225 -225 -225 -225 -225 -225 -225 -225 -225 -225 -225 -225 -225 -225 -225 -225 -225 -225 -225 -225 -225 -225 -225 -225 -225 -225 -225 -225 -225 -225 -225 -225 -225 -225 -225 -225 -225 -225 -225 -225 -225 -225 -225 -225 -225 -225 -225 -225 -225 -225 -225 -225 -225 -225 -225 -225 -225 -225 -225 -225 -225 -225 -225 -225 90 96 101 89 91 100 101 103 105 106 107 107 109 109 109 110 109 111 110 112 111 110 110 111 110 113 113 113 111 113 112 114 113 115 114 111 111 113 114 119 120 120 122 124 130 132 133 134 134 134 137 138 138 137 137 137 136 140 142 142 141 143 146 147 147 147 146 148 150 152 154 157 159 164 159 160 159 158 163 167 167 170 171 172 175 176 179 180 180 182 183 0 0 0 0 0
    0 0 0 0 0 0 0 0 0 0 0 0 0 0 0 0 0 0 0 0 0 0 0 0 0 0 0 0 0 0 0 0 0 0 0 0 0 0 0 0 0 0 0 0 0 0 0 0 0 0 0 0 0 0 0 0 0 0 0 0 0 0 0 0 0 0 0 0 0 117 -209 -209 -193 -209 -209 -193 -193 -193 97 101 104 106 104 104 106 104 103 104 104 103 -193 100 -193 102 103 103 102 102 102 103 106 107 109 108 108 108 109 109 109 107 105 104 102 102 101 -225 -225 -225 -225 -225 -225 -225 -225 -225 -225 -225 -225 -225 -225 -225 -225 -225 -225 -225 -225 -225 -225 -225 -225 -225 -225 -225 -225 -225 -225 -225 -225 -225 -225 -225 -225 -225 -225 -225 -225 -225 -225 -225 -225 -225 -225 -225 -225 -225 -225 -225 -225 -225 -225 -225 -225 -225 -225 -225 -225 -225 -225 -225 -225 -225 -225 -225 -225 -225 -225 -225 -225 -225 -225 -225 -225 -225 -225 -225 -225 -225 -225 -225 -225 -225 -225 -225 -225 -225 -225 -225 -225 -225 -225 -225 -225 -225 -225 -225 -225 -225 -225 -225 -225 -225 -225 -225 -225 -225 -225 95 98 87 91 97 98 99 101 103 106 107 109 109 110 111 111 112 113 115 113 112 114 115 113 116 117 116 114 114 114 114 113 115 114 110 111 113 114 117 120 121 122 124 130 132 133 133 134 134 137 138 138 137 137 138 137 140 143 143 142 143 146 146 146 146 145 147 149 152 154 159 161 167 163 165 163 163 165 169 169 171 171 172 173 176 179 180 180 182 183 0 0 0 0 0
    0 0 0 0 0 0 0 0 0 0 0 0 0 0 0 0 0 0 0 0 0 0 0 0 0 0 0 0 0 0 0 0 0 0 0 0 0 0 0 0 0 0 0 0 0 0 0 0 0 0 0 0 0 0 0 0 0 0 0 0 0 0 0 0 0 0 0 0 0 -193 -209 -209 -193 -209 -193 -193 -193 99 101 102 106 110 107 106 107 -193 104 -193 -193 104 -193 -193 -209 -209 107 107 104 103 104 106 109 110 111 110 109 110 110 111 109 107 106 105 104 103 -225 -225 -225 -225 -225 -225 -225 -225 -225 -225 -225 -225 -225 -225 -225 -225 -225 -225 -225 -225 -225 -225 -225 -225 -225 -225 -225 -225 -225 -225 -225 -225 -225 -225 -225 -225 -225 -225 -225 -225 -225 -225 -225 -225 -225 -225 -225 -225 -225 -225 -225 -225 -225 -225 -225 -225 -225 -225 -225 -225 -225 -225 -225 -225 -225 -225 -225 -225 -225 -225 -225 -225 -225 -225 -225 -225 -225 -225 -225 -225 -225 -225 -225 -225 -225 -225 -225 -225 -225 -225 -225 -225 -225 -225 -225 -225 -225 -225 -225 -225 -225 -225 -225 -225 -225 -225 -225 -225 -225 -225 -225 -225 100 89 93 98 99 99 100 101 106 106 110 110 111 114 114 115 116 117 117 115 117 117 117 119 119 118 117 116 116 116 115 116 116 112 112 116 118 120 121 122 123 125 128 130 133 134 135 135 138 139 139 138 139 139 139 142 143 142 141 142 144 144 144 144 143 146 148 150 152 155 158 -193 164 166 163 166 166 170 170 171 172 173 175 177 179 180 181 183 183 0 0 0 0 0
    0 0 0 0 0 0 0 0 0 0 0 0 0 0 0 0 0 0 0 0 0 0 0 0 0 0 0 0 0 0 0 0 0 0 0 0 0 0 0 0 0 0 0 0 0 0 0 0 0 0 0 0 0 0 0 0 0 0 0 0 0 0 0 0 0 0 0 0 0 -193 -209 -193 -209 -209 101 96 -193 100 103 104 107 111 108 107 107 -193 105 -193 105 104 -209 -209 -209 109 113 116 108 109 110 112 114 114 114 113 112 112 112 111 109 107 107 106 105 -225 -225 -225 -225 -225 -225 -225 -225 -225 -225 -225 -225 -225 -225 -225 -225 -225 -225 -225 -225 -225 -225 -225 -225 -225 -225 -225 -225 -225 -225 -225 -225 -225 -225 -225 -225 -225 -225 -225 -225 -225 -225 -225 -225 -225 -225 -225 -225 -225 -225 -225 -225 -225 -225 -225 -225 -225 -225 -225 -225 -225 -225 -225 -225 -225 -225 -225 -225 -225 -225 -225 -225 -225 -225 -225 -225 -225 -225 -225 -225 -225 -225 -225 -225 -225 -225 -225 -225 -225 -225 -225 -225 -225 -225 -225 -225 -225 -225 -225 -225 -225 -225 -225 -225 -225 -225 -225 -225 -225 -225 -225 -225 -225 100 87 91 95 98 99 98 101 106 107 113 113 115 117 117 118 118 119 119 118 119 120 119 120 121 120 119 116 117 118 116 117 117 115 115 118 120 122 123 123 124 126 127 129 133 134 135 134 137 138 139 138 139 139 140 143 143 142 141 142 144 143 144 144 143 147 149 150 152 -209 -209 -193 -209 -209 -209 157 165 170 169 171 172 172 176 179 180 181 182 183 184 0 0 0 0 0
    0 0 0 0 0 0 0 0 0 0 0 0 0 0 0 0 0 0 0 0 0 0 0 0 0 0 0 0 0 0 0 0 0 0 0 0 0 0 0 0 0 0 0 0 0 0 0 0 0 0 0 0 0 0 0 0 0 0 0 0 0 0 0 0 0 0 0 0 0 -209 -209 -209 -193 -209 -209 -209 -209 -209 106 106 110 114 111 113 110 -193 107 -193 107 106 -209 -193 110 113 116 118 113 119 118 117 118 118 118 117 115 115 113 110 109 108 107 105 -225 -225 -225 -225 -225 -225 -225 -225 -225 -225 -225 -225 -225 -225 -225 -225 -225 -225 -225 -225 -225 -225 -225 -225 -225 -225 -225 -225 -225 -225 -225 -225 -225 -225 -225 -225 -225 -225 -225 -225 -225 -225 -225 -225 -225 -225 -225 -225 -225 -225 -225 -225 -225 -225 -225 -225 -225 -225 -225 -225 -225 -225 -225 -225 -225 -225 -225 -225 -225 -225 -225 -225 -225 -225 -225 -225 -225 -225 -225 -225 -225 -225 -225 -225 -225 -225 -225 -225 -225 -225 -225 -225 -225 -225 -225 -225 -225 -225 -225 -225 -225 -225 -225 -225 -225 -225 -225 -225 -225 -225 -225 -225 -225 -225 -225 87 91 92 99 101 102 103 106 110 116 117 117 119 118 119 119 120 120 120 120 121 120 121 122 121 120 117 118 118 117 118 118 117 118 121 121 122 123 123 124 125 126 124 129 130 133 131 134 133 135 132 137 138 139 142 143 142 142 143 146 145 146 145 146 149 151 152 152 -193 -193 -209 -209 -193 -209 -209 167 171 170 171 172 173 177 180 181 182 182 183 184 0 0 0 0 0
    0 0 0 0 0 0 0 0 0 0 0 0 0 0 0 0 0 0 0 0 0 0 0 0 0 0 0 0 0 0 0 0 0 0 0 0 0 0 0 0 0 0 0 0 0 0 0 0 0 0 0 0 0 0 0 0 0 0 0 0 0 0 0 0 0 0 0 0 0 -209 -209 -177 429 426 -209 -209 -193 -209 -193 107 111 115 113 116 114 110 111 116 112 111 114 116 116 117 119 121 119 121 121 120 120 120 120 119 117 115 112 111 110 108 107 -225 -225 -225 -225 -225 -225 -225 -225 -225 -225 -225 -225 -225 -225 -225 -225 -225 -225 -225 -225 -225 -225 -225 -225 -225 -225 -225 -225 -225 -225 -225 -225 -225 -225 -225 -225 -225 -225 -225 -225 -225 -225 -225 -225 -225 -225 -225 -225 -225 -225 -225 -225 -225 -225 -225 -225 -225 -225 -225 -225 -225 -225 -225 -225 -225 -225 -225 -225 -225 -225 -225 -225 -225 -225 -225 -225 -225 -225 -225 -225 -225 -225 -225 -225 -225 -225 -225 -225 -225 -225 -225 -225 -225 -225 -225 -225 -225 -225 -225 -225 -225 -225 -225 -225 -225 -225 -225 -225 -225 -225 -225 -225 -225 -225 -225 -225 -225 96 96 100 103 104 105 107 112 116 118 117 119 118 119 120 121 121 121 121 123 122 122 123 122 120 118 118 118 118 118 118 117 119 121 122 124 124 124 125 126 126 123 127 128 128 129 131 129 132 131 135 137 139 142 144 143 143 145 147 147 148 147 147 150 152 153 153 -193 -193 -193 -209 166 166 168 167 170 170 171 171 172 176 180 181 182 182 184 183 0 0 0 0 0
    0 0 0 0 0 0 0 0 0 0 0 0 0 0 0 0 0 0 0 0 0 0 0 0 0 0 0 0 0 0 0 0 0 0 0 0 0 0 0 0 0 0 0 0 0 0 0 0 0 0 0 0 0 0 0 0 0 0 0 0 0 0 0 0 0 0 0 0 0 -209 -209 -209 -177 -209 -209 -209 -209 -209 -193 108 113 116 115 117 116 113 115 119 117 116 118 119 119 119 121 122 121 122 123 123 122 122 122 121 118 116 115 114 112 110 -225 -225 -225 -225 -225 -225 -225 -225 -225 -225 -225 -225 -225 -225 -225 -225 -225 -225 -225 -225 -225 -225 -225 -225 -225 -225 -225 -225 -225 -225 -225 -225 -225 -225 -225 -225 -225 -225 -225 -225 -225 -225 -225 -225 -225 -225 -225 -225 -225 -225 -225 -225 -225 -225 -225 -225 -225 -225 -225 -225 -225 -225 -225 -225 -225 -225 -225 -225 -225 -225 -225 -225 -225 -225 -225 -225 -225 -225 -225 -225 -225 -225 -225 -225 -225 -225 -225 -225 -225 -225 -225 -225 -225 -225 -225 -225 -225 -225 -225 -225 -225 -225 -225 -225 -225 -225 -225 -225 -225 -225 -225 -225 -225 -225 -225 -225 -225 -225 -225 101 102 105 104 105 109 114 117 118 118 120 120 121 121 123 123 122 122 125 123 124 125 124 122 121 121 120 120 121 120 119 121 123 123 125 125 124 126 126 126 123 125 127 125 127 129 127 128 130 135 137 139 142 144 143 143 145 148 148 149 149 149 152 154 156 155 -193 -193 -193 -193 165 -193 164 165 168 169 169 170 170 173 178 178 180 178 181 181 0 0 0 0 0
    0 0 0 0 0 0 0 0 0 0 0 0 0 0 0 0 0 0 0 0 0 0 0 0 0 0 0 0 0 0 0 0 0 0 0 0 0 0 0 0 0 0 0 0 0 0 0 0 0 0 0 0 0 0 0 0 0 0 0 0 0 0 0 0 0 0 0 0 0 -177 -209 -209 -209 -209 -209 -209 -209 -209 -209 116 116 119 117 118 115 115 117 120 119 118 119 120 121 121 123 124 123 124 125 125 124 124 123 121 119 119 117 115 114 -225 -225 -225 -225 -225 -225 -225 -225 -225 -225 -225 -225 -225 -225 -225 -225 -225 -225 -225 -225 -225 -225 -225 -225 -225 -225 -225 -225 -225 -225 -225 -225 -225 -225 -225 -225 -225 -225 -225 -225 -225 -225 -225 -225 -225 -225 -225 -225 -225 -225 -225 -225 -225 -225 -225 -225 -225 -225 -225 -225 -225 -225 -225 -225 -225 -225 -225 -225 -225 -225 -225 -225 -225 -225 -225 -225 -225 -225 -225 -225 -225 -225 -225 -225 -225 -225 -225 -225 -225 -225 -225 -225 -225 -225 -225 -225 -225 -225 -225 -225 -225 -225 -225 -225 -225 -225 -225 -225 -225 -225 -225 -225 -225 -225 -225 -225 -225 -225 -225 -225 -225 103 107 106 107 112 117 119 119 118 120 120 121 122 123 123 123 123 126 125 125 126 127 124 123 122 123 122 122 121 121 123 124 124 127 127 125 128 128 126 123 126 127 124 125 126 125 127 130 135 139 141 142 145 144 144 145 148 148 150 150 151 153 156 157 157 160 158 164 164 164 -193 164 166 168 168 169 170 170 172 175 175 176 174 178 178 0 0 0 0 0
    0 0 0 0 0 0 0 0 0 0 0 0 0 0 0 0 0 0 0 0 0 0 0 0 0 0 0 0 0 0 0 0 0 0 0 0 0 0 0 0 0 0 0 0 0 0 0 0 0 0 0 0 0 0 0 0 0 0 0 0 0 0 0 0 0 0 0 0 0 -177 -177 -209 -209 -209 -209 -177 -209 -209 -209 -209 116 119 116 116 114 116 117 120 119 119 121 122 124 125 125 126 125 127 129 128 127 125 124 123 121 120 119 117 -225 -225 -225 -225 -225 -225 -225 -225 -225 -225 -225 -225 -225 -225 -225 -225 -225 -225 -225 -225 -225 -225 -225 -225 -225 -225 -225 -225 -225 -225 -225 -225 -225 -225 -225 -225 -225 -225 -225 -225 -225 -225 -225 -225 -225 -225 -225 -225 -225 -225 -225 -225 -225 -225 -225 -225 -225 -225 -225 -225 -225 -225 -225 -225 -225 -225 -225 -225 -225 -225 -225 -225 -225 -225 -225 -225 -225 -225 -225 -225 -225 -225 -225 -225 -225 -225 -225 -225 -225 -225 -225 -225 -225 -225 -225 -225 -225 -225 -225 -225 -225 -225 -225 -225 -225 -225 -225 -225 -225 -225 -225 -225 -225 -225 -225 -225 -225 -225 -225 -225 -225 -225 -225 110 108 108 114 118 119 120 119 120 122 123 123 126 125 125 125 129 128 127 128 128 125 125 124 125 125 123 123 122 125 126 125 128 128 126 128 128 127 123 127 128 126 125 129 127 -209 -209 -193 139 142 143 145 143 144 146 148 149 151 151 152 154 156 157 156 158 157 165 165 165 163 165 167 169 169 170 170 171 173 175 174 175 173 176 177 0 0 0 0 0
    0 0 0 0 0 0 0 0 0 0 0 0 0 0 0 0 0 0 0 0 0 0 0 0 0 0 0 0 0 0 0 0 0 0 0 0 0 0 0 0 0 0 0 0 0 0 0 0 0 0 0 0 0 0 0 0 0 0 0 0 0 0 0 0 0 0 0 0 0 -209 -209 -209 -209 -177 -193 -209 -209 -209 -209 118 118 120 118 119 118 118 119 122 122 121 123 124 127 127 127 128 127 129 130 129 128 125 125 124 123 122 120 -225 -225 -225 -225 -225 -225 -225 -225 -225 -225 -225 -225 -225 -225 -225 -225 -225 -225 -225 -225 -225 -225 -225 -225 -225 -225 -225 -225 -225 -225 -225 -225 -225 -225 -225 -225 -225 -225 -225 -225 -225 -225 -225 -225 -225 -225 -225 -225 -225 -225 -225 -225 -225 -225 -225 -225 -225 -225 -225 -225 -225 -225 -225 -225 -225 -225 -225 -225 -225 -225 -225 -225 -225 -225 -225 -225 -225 -225 -225 -225 -225 -225 -225 -225 -225 -225 -225 -225 -225 -225 -225 -225 -225 -225 -225 -225 -225 -225 -225 -225 -225 -225 -225 -225 -225 -225 -225 -225 -225 -225 -225 -225 -225 -225 -225 -225 -225 -225 -225 -225 -225 -225 -225 -225 -225 111 111 115 119 120 121 120 121 123 124 124 127 127 127 126 131 129 129 130 130 127 127 126 127 126 125 125 124 128 127 127 129 129 127 130 130 130 125 132 133 133 136 137 139 -209 -193 139 138 141 141 142 141 141 145 148 147 150 150 151 153 155 155 154 154 156 163 164 165 164 166 168 170 169 170 170 171 172 174 173 172 171 173 174 0 0 0 0 0
    0 0 0 0 0 0 0 0 0 0 0 0 0 0 0 0 0 0 0 0 0 0 0 0 0 0 0 0 0 0 0 0 0 0 0 0 0 0 0 0 0 0 0 0 0 0 0 0 0 0 0 0 0 0 0 0 0 0 0 0 0 0 0 0 0 0 0 0 0 -209 -209 -209 -177 -177 -193 -209 -209 -209 -193 119 119 120 119 120 119 119 120 125 124 124 127 128 130 130 130 130 130 131 132 131 129 126 126 126 125 123 -225 -225 -225 -225 -225 -225 -225 -225 -225 -225 -225 -225 -225 -225 -225 -225 -225 -225 -225 -225 -225 -225 -225 -225 -225 -225 -225 -225 -225 -225 -225 -225 -225 -225 -225 -225 -225 -225 -225 -225 -225 -225 -225 -225 -225 -225 -225 -225 -225 -225 -225 -225 -225 -225 -225 -225 -225 -225 -225 -225 -225 -225 -225 -225 -225 -225 -225 -225 -225 -225 -225 -225 -225 -225 -225 -225 -225 -225 -225 -225 -225 -225 -225 -225 -225 -225 -225 -225 -225 -225 -225 -225 -225 -225 -225 -225 -225 -225 -225 -225 -225 -225 -225 -225 -225 -225 -225 -225 -225 -225 -225 -225 -225 -225 -225 -225 -225 -225 -225 -225 -225 -225 -225 -225 -225 -225 -225 112 116 118 119 122 121 121 123 124 124 126 127 129 128 132 130 131 131 132 130 130 127 129 128 128 127 127 130 129 128 131 130 129 132 132 132 127 134 134 135 136 137 138 137 136 137 135 139 140 142 141 142 145 149 149 151 151 153 153 154 155 154 153 156 163 165 166 166 168 169 170 170 171 170 170 172 173 172 171 170 172 173 0 0 0 0 0
    0 0 0 0 0 0 0 0 0 0 0 0 0 0 0 0 0 0 0 0 0 0 0 0 0 0 0 0 0 0 0 0 0 0 0 0 0 0 0 0 0 0 0 0 0 0 0 0 0 0 0 0 0 0 0 0 0 0 0 0 0 0 0 0 0 0 0 0 0 -209 -209 -209 -209 -177 -209 -209 -209 -209 -209 -209 -193 -193 -193 124 120 120 122 126 126 127 131 131 132 132 132 132 132 133 133 131 129 128 128 127 126 -225 -225 -225 -225 -225 -225 -225 -225 -225 -225 -225 -225 -225 -225 -225 -225 -225 -225 -225 -225 -225 -225 -225 -225 -225 -225 -225 -225 -225 -225 -225 -225 -225 -225 -225 -225 -225 -225 -225 -225 -225 -225 -225 -225 -225 -225 -225 -225 -225 -225 -225 -225 -225 -225 -225 -225 -225 -225 -225 -225 -225 -225 -225 -225 -225 -225 -225 -225 -225 -225 -225 -225 -225 -225 -225 -225 -225 -225 -225 -225 -225 -225 -225 -225 -225 -225 -225 -225 -225 -225 -225 -225 -225 -225 -225 -225 -225 -225 -225 -225 -225 -225 -225 -225 -225 -225 -225 -225 -225 -225 -225 -225 -225 -225 -225 -225 -225 -225 -225 -225 -225 -225 -225 -225 -225 -225 -225 -225 -225 115 117 119 120 120 120 122 123 123 127 128 131 132 134 132 133 133 134 132 133 130 131 131 130 130 130 132 131 130 132 132 130 133 133 133 128 134 135 136 137 137 139 138 138 138 136 137 138 141 140 142 147 151 151 153 154 154 155 155 156 154 154 157 164 166 167 167 -193 168 170 169 171 170 170 172 174 173 172 171 174 174 0 0 0 0 0
    0 0 0 0 0 0 0 0 0 0 0 0 0 0 0 0 0 0 0 0 0 0 0 0 0 0 0 0 0 0 0 0 0 0 0 0 0 0 0 0 0 0 0 0 0 0 0 0 0 0 0 0 0 0 0 0 0 0 0 0 0 0 0 0 0 0 0 0 0 -209 -209 -209 -209 -209 -209 -209 -193 -209 -209 -209 138 140 -193 134 127 127 128 130 131 130 133 132 133 133 133 133 133 133 133 131 131 130 130 129 -225 -225 -225 -225 -225 -225 -225 -225 -225 -225 -225 -225 -225 -225 -225 -225 -225 -225 -225 -225 -225 -225 -225 -225 -225 -225 -225 -225 -225 -225 -225 -225 -225 -225 -225 -225 -225 -225 -225 -225 -225 -225 -225 -225 -225 -225 -225 -225 -225 -225 -225 -225 -225 -225 -225 -225 -225 -225 -225 -225 -225 -225 -225 -225 -225 -225 -225 -225 -225 -225 -225 -225 -225 -225 -225 -225 -225 -225 -225 -225 -225 -225 -225 -225 -225 -225 -225 -225 -225 -225 -225 -225 -225 -225 -225 -225 -225 -225 -225 -225 -225 -225 -225 -225 -225 -225 -225 -225 -225 -225 -225 -225 -225 -225 -225 -225 -225 -225 -225 -225 -225 -225 -225 -225 -225 -225 -225 -225 -225 -225 -225 115 118 118 118 118 121 123 122 126 130 134 135 136 134 135 135 135 135 135 131 132 132 132 132 132 134 133 132 134 134 133 134 135 135 131 137 138 138 139 139 141 140 139 139 137 137 137 139 138 141 144 -209 -209 153 153 154 154 155 155 154 154 156 164 166 167 167 168 169 170 170 171 171 171 172 174 174 172 172 176 175 0 0 0 0 0
    0 0 0 0 0 0 0 0 0 0 0 0 0 0 0 0 0 0 0 0 0 0 0 0 0 0 0 0 0 0 0 0 0 0 0 0 0 0 0 0 0 0 0 0 0 0 0 0 0 0 0 0 0 0 0 0 0 0 0 0 0 0 0 0 0 0 0 0 0 -209 -209 -209 -209 -193 228 225 -193 -209 -209 -209 139 143 142 139 -193 134 131 132 133 132 134 134 134 135 134 134 134 134 134 133 131 130 130 -225 -225 -225 -225 -225 -225 -225 -225 -225 -225 -225 -225 -225 -225 -225 -225 -225 -225 -225 -225 -225 -225 -225 -225 -225 -225 -225 -225 -225 -225 -225 -225 -225 -225 -225 -225 -225 -225 -225 -225 -225 -225 -225 -225 -225 -225 -225 -225 -225 -225 -225 -225 -225 -225 -225 -225 -225 -225 -225 -225 -225 -225 -225 -225 -225 -225 -225 -225 -225 -225 -225 -225 -225 -225 -225 -225 -225 -225 -225 -225 -225 -225 -225 -225 -225 -225 -225 -225 -225 -225 -225 -225 -225 -225 -225 -225 -225 -225 -225 -225 -225 -225 -225 -225 -225 -225 -225 -225 -225 -225 -225 -225 -225 -225 -225 -225 -225 -225 -225 -225 -225 -225 -225 -225 -225 -225 -225 -225 -225 -225 -225 -225 -225 109 108 114 115 122 123 122 125 130 135 136 138 136 137 137 137 137 137 134 134 134 134 134 134 136 134 134 136 136 135 136 136 137 135 139 141 140 140 141 143 142 139 140 138 136 135 136 136 138 140 145 149 -209 -209 153 153 154 155 154 155 157 163 165 166 166 167 168 169 169 170 170 170 172 174 173 172 172 177 177 0 0 0 0 0
    0 0 0 0 0 0 0 0 0 0 0 0 0 0 0 0 0 0 0 0 0 0 0 0 0 0 0 0 0 0 0 0 0 0 0 0 0 0 0 0 0 0 0 0 0 0 0 0 0 0 0 0 0 0 0 0 0 0 0 0 0 0 0 0 0 0 0 0 0 -209 -209 -209 -209 -209 228 -209 -193 -209 -209 -193 139 142 141 139 139 137 136 135 136 135 136 136 136 136 136 135 134 134 134 133 131 -225 -225 -225 -225 -225 -225 -225 -225 -225 -225 -225 -225 -225 -225 -225 -225 -225 -225 -225 -225 -225 -225 -225 -225 -225 -225 -225 -225 -225 -225 -225 -225 -225 -225 -225 -225 -225 -225 -225 -225 -225 -225 -225 -225 -225 -225 -225 -225 -225 -225 -225 -225 -225 -225 -225 -225 -225 -225 -225 -225 -225 -225 -225 -225 -225 -225 -225 -225 -225 -225 -225 -225 -225 -225 -225 -225 -225 -225 -225 -225 -225 -225 -225 -225 -225 -225 -225 -225 -225 -225 -225 -225 -225 -225 -225 -225 -225 -225 -225 -225 -225 -225 -225 -225 -225 -225 -225 -225 -225 -225 -225 -225 -225 -225 -225 -225 -225 -225 -225 -225 -225 -225 -225 -225 -225 -225 -225 -225 -225 -225 -225 -225 -225 -225 -225 -225 -225 117 123 124 125 124 125 130 136 137 139 137 138 137 138 138 138 135 135 135 135 135 136 137 136 136 137 139 138 138 138 140 138 140 143 141 141 142 144 143 140 142 140 137 138 137 138 140 142 142 146 150 151 152 152 153 154 153 154 156 163 164 166 165 168 168 170 169 170 -193 -193 172 175 174 175 175 178 -193 0 0 0 0 0
    0 0 0 0 0 0 0 0 0 0 0 0 0 0 0 0 0 0 0 0 0 0 0 0 0 0 0 0 0 0 0 0 0 0 0 0 0 0 0 0 0 0 0 0 0 0 0 0 0 0 0 0 0 0 0 0 0 0 0 0 0 0 0 0 0 0 0 0 0 -209 -209 -209 -209 -209 -209 -193 -209 -209 -209 136 138 140 139 139 140 139 139 138 138 138 138 138 139 138 137 136 135 135 134 132 -225 -225 -225 -225 -225 -225 -225 -225 -225 -225 -225 -225 -225 -225 -225 -225 -225 -225 -225 -225 -225 -225 -225 -225 -225 -225 -225 -225 -225 -225 -225 -225 -225 -225 -225 -225 -225 -225 -225 -225 -225 -225 -225 -225 -225 -225 -225 -225 -225 -225 -225 -225 -225 -225 -225 -225 -225 -225 -225 -225 -225 -225 -225 -225 -225 -225 -225 -225 -225 -225 -225 -225 -225 -225 -225 -225 -225 -225 -225 -225 -225 -225 -225 -225 -225 -225 -225 -225 -225 -225 -225 -225 -225 -225 -225 -225 -225 -225 -225 -225 -225 -225 -225 -225 -225 -225 -225 -225 -225 -225 -225 -225 -225 -225 -225 -225 -225 -225 -225 -225 -225 -225 -225 -225 -225 -225 -225 -225 -225 -225 -225 -225 -225 -225 -225 -225 -225 -225 -225 119 123 123 123 122 131 139 139 141 138 140 139 139 140 139 136 136 136 137 137 138 139 138 138 139 142 140 140 141 143 140 143 146 144 143 145 147 147 144 147 145 141 147 142 142 143 145 144 147 149 150 151 151 -193 153 -193 154 157 165 166 167 166 168 169 170 169 170 -193 -193 172 175 176 177 177 180 182 0 0 0 0 0
    0 0 0 0 0 0 0 0 0 0 0 0 0 0 0 0 0 0 0 0 0 0 0 0 0 0 0 0 0 0 0 0 0 0 0 0 0 0 0 0 0 0 0 0 0 0 0 0 0 0 0 0 0 0 0 0 0 0 0 0 0 0 0 0 0 0 0 0 0 -209 -209 -209 -209 -209 -209 -209 -209 -209 138 137 139 141 140 139 141 141 140 139 140 139 140 140 140 139 137 137 137 136 136 -225 -225 -225 -225 -225 -225 -225 -225 -225 -225 -225 -225 -225 -225 -225 -225 -225 -225 -225 -225 -225 -225 -225 -225 -225 -225 -225 -225 -225 -225 -225 -225 -225 -225 -225 -225 -225 -225 -225 -225 -225 -225 -225 -225 -225 -225 -225 -225 -225 -225 -225 -225 -225 -225 -225 -225 -225 -225 -225 -225 -225 -225 -225 -225 -225 -225 -225 -225 -225 -225 -225 -225 -225 -225 -225 -225 -225 -225 -225 -225 -225 -225 -225 -225 -225 -225 -225 -225 -225 -225 -225 -225 -225 -225 -225 -225 -225 -225 -225 -225 -225 -225 -225 -225 -225 -225 -225 -225 -225 -225 -225 -225 -225 -225 -225 -225 -225 -225 -225 -225 -225 -225 -225 -225 -225 -225 -225 -225 -225 -225 -225 -225 -225 -225 -225 -225 -225 -225 -225 -225 -225 120 120 119 120 132 142 140 141 139 140 140 139 140 139 137 137 137 138 138 138 140 139 139 140 142 141 141 142 145 141 144 148 147 147 148 150 149 147 151 150 146 153 147 147 145 147 146 146 149 150 151 -209 -209 -209 -193 -193 158 167 167 168 167 168 168 170 169 169 -209 -209 -193 -193 175 176 178 180 181 0 0 0 0 0
    0 0 0 0 0 0 0 0 0 0 0 0 0 0 0 0 0 0 0 0 0 0 0 0 0 0 0 0 0 0 0 0 0 0 0 0 0 0 0 0 0 0 0 0 0 0 0 0 0 0 0 0 0 0 0 0 0 0 0 0 0 0 0 0 0 0 0 0 0 -193 -209 -209 -209 -209 -209 -209 -209 -209 138 138 139 141 140 140 142 141 141 141 142 141 141 141 140 139 139 138 138 137 -225 -225 -225 -225 -225 -225 -225 -225 -225 -225 -225 -225 -225 -225 -225 -225 -225 -225 -225 -225 -225 -225 -225 -225 -225 -225 -225 -225 -225 -225 -225 -225 -225 -225 -225 -225 -225 -225 -225 -225 -225 -225 -225 -225 -225 -225 -225 -225 -225 -225 -225 -225 -225 -225 -225 -225 -225 -225 -225 -225 -225 -225 -225 -225 -225 -225 -225 -225 -225 -225 -225 -225 -225 -225 -225 -225 -225 -225 -225 -225 -225 -225 -225 -225 -225 -225 -225 -225 -225 -225 -225 -225 -225 -225 -225 -225 -225 -225 -225 -225 -225 -225 -225 -225 -225 -225 -225 -225 -225 -225 -225 -225 -225 -225 -225 -225 -225 -225 -225 -225 -225 -225 -225 -225 -225 -225 -225 -225 -225 -225 -225 -225 -225 -225 -225 -225 -225 -225 -225 -225 -225 -225 -225 122 122 121 132 144 139 140 138 141 141 140 141 141 138 138 138 139 138 139 140 139 139 140 143 143 143 144 147 144 146 150 149 149 150 151 150 149 152 151 148 152 148 147 146 148 147 147 151 151 152 -209 -209 -209 -209 -193 157 165 166 168 168 168 168 169 168 168 167 165 -193 -193 -193 -193 175 178 180 0 0 0 0 0
    0 0 0 0 0 0 0 0 0 0 0 0 0 0 0 0 0 0 0 0 0 0 0 0 0 0 0 0 0 0 0 0 0 0 0 0 0 0 0 0 0 0 0 0 0 0 0 0 0 0 0 0 0 0 0 0 0 0 0 0 0 0 0 0 0 0 0 0 0 -193 -209 -209 -209 -209 -209 -209 137 137 139 139 140 142 141 142 143 143 143 142 143 143 142 141 140 140 140 139 139 -225 -225 -225 -225 -225 -225 -225 -225 -225 -225 -225 -225 -225 -225 -225 -225 -225 -225 -225 -225 -225 -225 -225 -225 -225 -225 -225 -225 -225 -225 -225 -225 -225 -225 -225 -225 -225 -225 -225 -225 -225 -225 -225 -225 -225 -225 -225 -225 -225 -225 -225 -225 -225 -225 -225 -225 -225 -225 -225 -225 -225 -225 -225 -225 -225 -225 -225 -225 -225 -225 -225 -225 -225 -225 -225 -225 -225 -225 -225 -225 -225 -225 -225 -225 -225 -225 -225 -225 -225 -225 -225 -225 -225 -225 -225 -225 -225 -225 -225 -225 -225 -225 -225 -225 -225 -225 -225 -225 -225 -225 -225 -225 -225 -225 -225 -225 -225 -225 -225 -225 -225 -225 -225 -225 -225 -225 -225 -225 -225 -225 -225 -225 -225 -225 -225 -225 -225 -225 -225 -225 -225 -225 -225 -225 -225 126 123 133 144 139 140 139 141 141 141 142 141 139 139 139 140 140 140 142 141 141 142 144 144 145 147 148 145 148 151 150 150 150 151 150 149 153 152 148 151 149 148 148 150 149 151 153 155 155 155 -209 157 -193 158 155 162 163 165 167 167 167 168 168 169 168 167 169 173 174 176 176 178 179 0 0 0 0 0
    0 0 0 0 0 0 0 0 0 0 0 0 0 0 0 0 0 0 0 0 0 0 0 0 0 0 0 0 0 0 0 0 0 0 0 0 0 0 0 0 0 0 0 0 0 0 0 0 0 0 0 0 0 0 0 0 0 0 0 0 0 0 0 0 0 0 0 0 0 -177 -209 -209 -209 -209 -209 137 138 138 139 140 140 143 142 144 146 146 145 145 145 145 143 142 141 140 140 139 -225 -225 -225 -225 -225 -225 -225 -225 -225 -225 -225 -225 -225 -225 -225 -225 -225 -225 -225 -225 -225 -225 -225 -225 -225 -225 -225 -225 -225 -225 -225 -225 -225 -225 -225 -225 -225 -225 -225 -225 -225 -225 -225 -225 -225 -225 -225 -225 -225 -225 -225 -225 -225 -225 -225 -225 -225 -225 -225 -225 -225 -225 -225 -225 -225 -225 -225 -225 -225 -225 -225 -225 -225 -225 -225 -225 -225 -225 -225 -225 -225 -225 -225 -225 -225 -225 -225 -225 -225 -225 -225 -225 -225 -225 -225 -225 -225 -225 -225 -225 -225 -225 -225 -225 -225 -225 -225 -225 -225 -225 -225 -225 -225 -225 -225 -225 -225 -225 -225 -225 -225 -225 -225 -225 -225 -225 -225 -225 -225 -225 -225 -225 -225 -225 -225 -225 -225 -225 -225 -225 -225 -225 -225 -225 -225 -225 -225 123 133 144 139 140 139 141 142 141 144 143 141 142 142 143 142 142 145 143 142 144 146 146 147 149 150 147 149 152 152 151 152 152 150 150 153 152 150 150 149 149 149 151 150 152 153 154 156 156 157 158 157 159 156 160 162 163 166 165 165 166 167 167 167 167 169 174 176 178 178 179 180 0 0 0 0 0
    0 0 0 0 0 0 0 0 0 0 0 0 0 0 0 0 0 0 0 0 0 0 0 0 0 0 0 0 0 0 0 0 0 0 0 0 0 0 0 0 0 0 0 0 0 0 0 0 0 0 0 0 0 0 0 0 0 0 0 0 0 0 0 0 0 0 0 0 0 -193 -209 -209 -209 -209 -193 137 138 139 140 140 141 143 143 145 147 147 147 146 147 146 143 143 142 140 140 -225 -225 -225 -225 -225 -225 -225 -225 -225 -225 -225 -225 -225 -225 -225 -225 -225 -225 -225 -225 -225 -225 -225 -225 -225 -225 -225 -225 -225 -225 -225 -225 -225 -225 -225 -225 -225 -225 -225 -225 -225 -225 -225 -225 -225 -225 -225 -225 -225 -225 -225 -225 -225 -225 -225 -225 -225 -225 -225 -225 -225 -225 -225 -225 -225 -225 -225 -225 -225 -225 -225 -225 -225 -225 -225 -225 -225 -225 -225 -225 -225 -225 -225 -225 -225 -225 -225 -225 -225 -225 -225 -225 -225 -225 -225 -225 -225 -225 -225 -225 -225 -225 -225 -225 -225 -225 -225 -225 -225 -225 -225 -225 -225 -225 -225 -225 -225 -225 -225 -225 -225 -225 -225 -225 -225 -225 -225 -225 -225 -225 -225 -225 -225 -225 -225 -225 -225 -225 -225 -225 -225 -225 -225 -225 -225 -225 -225 -225 -225 132 144 140 140 138 141 142 141 144 144 142 143 144 145 144 144 147 144 143 145 147 147 148 149 150 148 150 153 152 152 152 152 151 151 154 153 152 152 151 152 151 152 151 151 153 153 155 155 156 158 156 158 156 159 161 162 165 165 164 165 166 167 166 167 168 172 175 177 177 179 179 0 0 0 0 0
    0 0 0 0 0 0 0 0 0 0 0 0 0 0 0 0 0 0 0 0 0 0 0 0 0 0 0 0 0 0 0 0 0 0 0 0 0 0 0 0 0 0 0 0 0 0 0 0 0 0 0 0 0 0 0 0 0 0 0 0 0 0 0 0 0 0 0 0 0 -193 282 282 282 -193 140 138 140 141 141 143 142 144 144 147 148 148 148 147 146 145 145 143 142 141 -225 -225 -225 -225 -225 -225 -225 -225 -225 -225 -225 -225 -225 -225 -225 -225 -225 -225 -225 -225 -225 -225 -225 -225 -225 -225 -225 -225 -225 -225 -225 -225 -225 -225 -225 -225 -225 -225 -225 -225 -225 -225 -225 -225 -225 -225 -225 -225 -225 -225 -225 -225 -225 -225 -225 -225 -225 -225 -225 -225 -225 -225 -225 -225 -225 -225 -225 -225 -225 -225 -225 -225 -225 -225 -225 -225 -225 -225 -225 -225 -225 -225 -225 -225 -225 -225 -225 -225 -225 -225 -225 -225 -225 -225 -225 -225 -225 -225 -225 -225 -225 -225 -225 -225 -225 -225 -225 -225 -225 -225 -225 -225 -225 -225 -225 -225 -225 -225 -225 -225 -225 -225 -225 -225 -225 -225 -225 -225 -225 -225 -225 -225 -225 -225 -225 -225 -225 -225 -225 -225 -225 -225 -225 -225 -225 -225 -225 -225 -225 -225 -225 143 141 137 136 142 142 141 144 144 143 144 146 147 146 146 148 146 145 146 147 147 148 150 150 149 150 153 153 152 152 153 151 152 155 154 153 154 153 153 152 153 153 152 154 154 154 155 156 158 157 158 156 -193 159 161 163 162 159 161 162 163 164 166 168 172 173 176 177 178 178 0 0 0 0 0</data></disparity>
</opencv_storage>
