<?xml version="1.0"?>
<opencv_storage>
<gps_time_stamp>279810</gps_time_stamp>
<gps_x>-1.3983333587646484e+001</gps_x>
<gps_y>1.1277403831481934e+001</gps_y>
<gps_z>-2.3066713809967041e+000</gps_z>
<image_time_stamp>270657</image_time_stamp>
<disparity type_id="opencv-matrix">
  <rows>94</rows>
  <cols>320</cols>
  <dt>s</dt>
  <data>
    0 0 0 0 0 0 0 0 0 0 0 0 0 0 0 0 0 0 0 0 0 0 0 0 0 0 0 0 0 0 0 0 0 0 0 0 0 0 0 0 0 0 0 0 0 0 0 0 0 0 0 0 0 0 0 0 0 0 0 0 0 0 0 0 0 0 0 0 0 15 15 14 15 15 14 15 17 13 14 13 15 14 14 14 15 14 15 16 18 15 16 18 16 17 17 17 18 15 17 17 15 19 15 14 17 15 17 16 17 17 14 19 19 18 17 18 20 21 18 20 22 21 22 20 20 20 19 20 18 17 19 15 18 19 18 18 20 20 18 16 21 18 18 20 18 17 20 18 17 18 17 16 15 16 17 15 17 17 15 21 20 -193 -193 -193 17 22 22 20 19 20 21 23 17 19 22 20 21 22 21 20 19 22 22 17 20 17 13 15 20 22 20 21 21 22 21 21 22 21 20 22 21 22 22 21 22 22 22 22 22 22 22 21 23 24 22 23 23 23 23 23 24 24 21 24 23 21 21 25 25 23 22 23 28 24 25 24 24 24 25 27 26 25 28 28 30 30 30 31 30 31 33 33 32 31 33 32 34 33 35 34 33 35 36 36 37 37 36 36 38 41 41 41 41 42 42 43 44 44 42 43 44 44 44 46 48 48 49 49 49 49 52 51 51 52 52 52 52 53 53 51 54 54 53 54 54 55 55 56 57 58 58 59 59 59 59 0 0 0 0 0
    0 0 0 0 0 0 0 0 0 0 0 0 0 0 0 0 0 0 0 0 0 0 0 0 0 0 0 0 0 0 0 0 0 0 0 0 0 0 0 0 0 0 0 0 0 0 0 0 0 0 0 0 0 0 0 0 0 0 0 0 0 0 0 0 0 0 0 0 0 15 16 15 15 15 14 15 17 13 14 13 15 14 14 15 16 14 16 17 18 15 16 18 16 18 17 17 18 16 18 17 15 18 15 14 16 15 17 16 17 17 15 20 19 18 17 18 19 22 17 20 21 21 22 20 20 20 19 20 18 18 19 15 18 19 18 18 20 20 18 16 20 19 19 20 18 17 20 17 17 18 16 16 15 16 17 14 17 18 16 21 21 -193 -193 -193 18 22 21 20 20 21 22 23 18 20 23 21 22 22 21 21 19 23 23 17 20 17 13 16 19 20 19 20 20 21 20 20 21 21 20 21 22 22 22 21 22 22 22 23 22 22 22 21 23 24 22 23 23 24 24 23 24 24 21 23 20 21 21 25 27 23 22 23 28 24 25 24 24 24 25 27 26 25 27 27 29 30 31 31 30 31 33 33 33 32 33 33 34 34 35 35 34 35 36 36 37 37 36 36 38 41 41 41 41 42 42 43 44 44 42 43 44 45 44 47 48 48 49 48 49 49 52 51 50 52 52 52 53 53 54 51 54 54 53 54 54 55 55 56 57 58 58 59 59 59 59 0 0 0 0 0
    0 0 0 0 0 0 0 0 0 0 0 0 0 0 0 0 0 0 0 0 0 0 0 0 0 0 0 0 0 0 0 0 0 0 0 0 0 0 0 0 0 0 0 0 0 0 0 0 0 0 0 0 0 0 0 0 0 0 0 0 0 0 0 0 0 0 0 0 0 16 16 15 16 16 14 15 17 13 14 13 16 14 14 15 15 14 16 17 18 15 17 18 16 18 17 17 18 16 17 17 15 18 14 14 17 15 16 16 17 17 16 20 19 18 17 19 19 22 17 21 21 21 22 20 20 20 19 20 18 18 19 15 18 19 19 18 20 20 19 17 20 20 19 20 18 18 20 17 17 18 16 16 15 16 17 14 18 18 16 21 20 -193 20 19 18 21 20 19 20 21 22 23 18 20 23 22 22 22 21 -193 20 24 23 18 20 17 15 19 20 21 19 20 20 21 20 20 21 21 20 21 22 22 23 21 22 23 22 23 22 21 22 21 23 23 21 23 22 23 22 23 23 24 22 23 21 21 23 25 28 24 23 24 28 24 24 24 24 23 24 26 25 24 27 27 29 29 30 31 29 31 32 33 33 32 33 33 34 35 36 35 34 35 37 37 38 37 36 36 38 41 41 41 41 42 42 43 44 44 43 44 45 46 44 48 49 49 49 48 49 49 51 51 50 52 52 52 53 53 54 51 54 54 53 54 54 55 56 56 57 59 58 59 59 59 59 0 0 0 0 0
    0 0 0 0 0 0 0 0 0 0 0 0 0 0 0 0 0 0 0 0 0 0 0 0 0 0 0 0 0 0 0 0 0 0 0 0 0 0 0 0 0 0 0 0 0 0 0 0 0 0 0 0 0 0 0 0 0 0 0 0 0 0 0 0 0 0 0 0 0 16 17 15 16 16 14 15 17 13 14 13 17 14 14 15 16 14 16 17 18 15 17 18 17 19 17 17 18 17 17 17 15 18 14 15 17 15 16 16 17 17 17 20 19 18 18 20 19 22 18 21 20 20 21 20 19 20 18 19 17 18 19 15 18 18 18 18 19 20 19 18 20 20 20 20 18 17 20 17 17 18 16 16 15 17 17 14 18 19 17 21 21 19 20 19 19 20 19 18 20 20 21 22 18 20 23 22 22 22 -193 -193 -193 24 24 19 20 18 18 21 21 21 20 20 20 20 21 20 20 21 20 20 22 21 22 20 21 22 21 23 22 21 22 21 22 22 20 21 21 21 20 21 21 23 22 23 22 22 23 25 26 25 25 24 28 24 25 24 24 23 24 26 25 24 27 27 28 29 30 31 29 30 32 33 33 33 33 33 34 35 36 35 35 36 37 37 38 37 36 36 38 41 41 41 41 42 43 43 44 44 43 44 45 46 45 48 49 48 48 48 49 49 51 51 50 52 53 53 53 53 54 52 54 54 53 54 54 55 56 56 57 59 58 59 60 60 59 0 0 0 0 0
    0 0 0 0 0 0 0 0 0 0 0 0 0 0 0 0 0 0 0 0 0 0 0 0 0 0 0 0 0 0 0 0 0 0 0 0 0 0 0 0 0 0 0 0 0 0 0 0 0 0 0 0 0 0 0 0 0 0 0 0 0 0 0 0 0 0 0 0 0 16 16 15 17 16 14 16 17 13 15 14 17 14 14 15 15 14 17 18 18 15 18 18 17 19 17 17 18 17 17 17 16 17 13 15 17 15 16 16 16 17 17 20 18 18 17 19 18 21 18 20 19 19 21 19 19 19 18 19 16 18 19 16 18 18 18 18 19 20 20 19 19 20 19 20 17 17 19 16 16 18 15 16 15 18 18 14 20 20 19 22 22 20 20 19 20 20 20 19 20 19 20 22 18 20 23 22 23 22 -193 -193 -193 -193 -193 19 20 18 19 21 21 21 20 21 21 21 22 20 21 21 20 20 21 21 22 20 21 22 21 23 22 21 22 21 22 22 21 21 21 21 21 21 20 24 23 24 23 23 24 25 25 25 25 25 27 24 25 24 24 23 24 26 25 24 26 26 28 28 30 32 29 30 32 33 34 33 33 33 35 36 36 36 35 36 38 37 38 37 36 37 38 41 41 41 41 43 43 44 44 44 43 44 45 46 44 47 48 48 48 48 49 49 51 51 50 52 53 53 53 53 54 52 54 54 53 54 54 55 56 56 57 59 58 59 60 60 59 0 0 0 0 0
    0 0 0 0 0 0 0 0 0 0 0 0 0 0 0 0 0 0 0 0 0 0 0 0 0 0 0 0 0 0 0 0 0 0 0 0 0 0 0 0 0 0 0 0 0 0 0 0 0 0 0 0 0 0 0 0 0 0 0 0 0 0 0 0 0 0 0 0 0 16 16 15 16 16 14 15 17 14 15 14 17 14 14 15 15 14 17 18 17 16 18 18 17 20 17 17 18 17 17 17 16 17 13 15 16 15 16 16 15 16 17 19 17 18 16 18 16 20 17 20 18 19 20 19 18 19 17 19 15 17 18 16 18 18 18 18 19 20 20 19 19 20 19 20 17 17 19 17 17 18 16 17 16 19 19 15 20 20 19 21 22 19 19 18 19 19 20 19 19 19 20 21 18 20 22 22 -193 22 -193 -177 -193 -193 -193 20 20 18 19 21 21 21 21 22 22 21 22 21 21 21 20 20 21 21 21 19 21 21 21 23 22 22 22 22 22 22 21 21 21 21 21 21 20 23 23 24 23 23 24 24 24 25 24 24 26 24 24 24 24 24 24 25 25 24 27 26 28 28 29 32 30 30 32 33 34 33 34 34 35 36 36 36 35 36 38 37 38 36 36 37 39 41 41 41 42 43 43 44 44 45 44 44 45 46 44 47 47 48 48 48 49 48 50 51 50 52 53 53 53 54 54 53 54 55 54 54 54 55 56 56 57 59 58 59 60 60 60 0 0 0 0 0
    0 0 0 0 0 0 0 0 0 0 0 0 0 0 0 0 0 0 0 0 0 0 0 0 0 0 0 0 0 0 0 0 0 0 0 0 0 0 0 0 0 0 0 0 0 0 0 0 0 0 0 0 0 0 0 0 0 0 0 0 0 0 0 0 0 0 0 0 0 15 16 15 16 16 14 15 16 14 15 15 16 15 15 15 16 14 16 18 16 15 17 17 17 20 17 17 18 17 17 17 16 17 13 16 17 15 16 17 15 17 17 19 17 17 16 18 16 19 17 19 17 18 19 19 18 18 17 18 15 17 18 16 18 19 18 18 19 20 20 20 18 20 18 20 18 17 19 17 17 19 16 18 17 19 20 16 20 20 20 21 21 19 19 18 19 19 19 18 19 18 19 20 18 20 22 21 -193 22 -193 -177 -193 -193 -193 20 21 18 20 20 21 21 21 22 22 21 23 21 21 21 20 20 21 20 21 19 21 21 21 23 22 22 23 23 22 22 21 21 21 22 21 21 19 23 23 24 23 23 23 24 24 25 24 24 25 24 24 24 25 24 24 26 26 25 27 27 29 28 30 32 30 30 31 33 34 33 34 34 35 36 36 36 35 36 37 37 37 36 37 38 39 41 41 42 42 43 43 44 45 45 44 45 45 46 45 47 47 47 48 48 49 48 50 51 50 52 52 53 53 54 55 53 54 55 54 55 55 56 56 56 57 59 58 59 60 60 59 0 0 0 0 0
    0 0 0 0 0 0 0 0 0 0 0 0 0 0 0 0 0 0 0 0 0 0 0 0 0 0 0 0 0 0 0 0 0 0 0 0 0 0 0 0 0 0 0 0 0 0 0 0 0 0 0 0 0 0 0 0 0 0 0 0 0 0 0 0 0 0 0 0 0 14 15 15 15 15 14 15 16 14 15 16 16 15 16 15 16 14 16 18 15 16 17 17 17 19 17 17 17 17 17 17 16 17 14 16 17 15 16 18 15 17 17 18 16 17 16 18 16 19 18 19 17 18 19 19 18 19 16 19 15 18 18 16 18 19 18 19 19 20 20 20 18 19 18 20 18 17 19 18 18 19 16 18 17 20 21 17 -193 20 20 21 22 19 19 18 19 19 19 18 19 18 19 20 18 20 22 21 23 22 -193 -177 -193 -193 -193 20 20 18 19 20 21 21 20 22 22 21 23 21 21 21 20 20 21 21 21 19 21 21 20 23 22 22 23 23 22 22 22 22 22 22 22 21 20 23 23 24 23 23 23 23 23 -193 24 24 25 24 24 24 25 24 25 26 27 26 28 28 29 28 30 31 30 29 31 33 34 34 34 34 36 36 36 36 36 36 37 37 37 35 37 38 39 42 42 42 43 43 44 44 45 45 45 45 46 46 45 47 47 48 47 48 48 48 50 51 50 52 52 53 53 54 55 53 55 56 55 55 55 56 56 57 58 59 58 59 60 60 60 0 0 0 0 0
    0 0 0 0 0 0 0 0 0 0 0 0 0 0 0 0 0 0 0 0 0 0 0 0 0 0 0 0 0 0 0 0 0 0 0 0 0 0 0 0 0 0 0 0 0 0 0 0 0 0 0 0 0 0 0 0 0 0 0 0 0 0 0 0 0 0 0 0 0 13 15 14 15 15 15 15 16 14 15 16 16 16 16 15 16 14 16 17 15 16 17 16 17 19 16 18 17 17 16 17 16 18 14 16 17 15 16 18 15 17 17 18 16 16 16 18 15 18 17 18 17 18 19 19 17 19 17 19 15 17 18 16 18 19 17 18 18 20 20 20 18 19 18 19 18 18 19 18 18 19 16 19 18 20 21 18 -193 20 20 21 22 19 19 18 19 18 19 18 19 17 19 20 18 20 22 21 23 22 -193 -193 -193 -193 -193 20 20 19 20 20 21 21 20 22 22 22 23 22 -193 21 20 20 21 21 21 19 21 20 20 22 22 21 22 23 22 22 22 21 21 22 21 21 20 22 23 24 23 23 23 23 23 24 24 24 25 24 24 24 25 24 25 26 27 26 28 28 29 28 30 31 30 29 31 33 35 34 35 35 35 37 37 37 36 36 37 37 37 36 37 39 39 42 42 43 43 44 44 44 46 46 45 45 46 46 46 47 47 48 47 48 49 48 50 51 50 51 52 53 53 54 55 53 55 56 56 55 55 56 57 57 58 59 58 59 60 60 60 0 0 0 0 0
    0 0 0 0 0 0 0 0 0 0 0 0 0 0 0 0 0 0 0 0 0 0 0 0 0 0 0 0 0 0 0 0 0 0 0 0 0 0 0 0 0 0 0 0 0 0 0 0 0 0 0 0 0 0 0 0 0 0 0 0 0 0 0 0 0 0 0 0 0 13 15 14 14 14 15 14 16 14 15 16 16 16 17 14 16 14 15 17 15 16 17 16 17 18 16 18 16 16 15 17 15 17 14 16 17 15 16 18 15 16 16 17 16 16 16 18 15 19 18 18 17 18 19 19 17 19 16 19 15 17 18 16 18 19 17 18 18 20 19 20 18 19 18 20 19 18 20 19 19 20 17 19 19 21 21 19 -193 20 20 21 21 19 18 18 19 18 19 18 19 17 19 20 18 20 22 22 24 22 -193 -193 -193 -193 -193 20 20 19 19 20 21 21 20 22 22 21 23 22 22 20 21 20 21 21 21 19 21 20 20 22 21 21 22 22 21 21 21 21 21 21 21 21 20 22 23 24 23 23 23 23 23 24 24 24 25 24 24 24 25 25 25 26 28 26 28 28 29 28 30 31 30 29 31 33 35 34 35 35 35 37 37 37 36 35 37 36 37 36 38 39 39 42 42 43 43 44 44 44 46 46 45 45 46 46 46 46 47 48 47 48 49 48 50 51 50 51 52 53 53 55 55 54 55 56 56 56 56 56 57 57 58 59 58 59 60 60 60 0 0 0 0 0
    0 0 0 0 0 0 0 0 0 0 0 0 0 0 0 0 0 0 0 0 0 0 0 0 0 0 0 0 0 0 0 0 0 0 0 0 0 0 0 0 0 0 0 0 0 0 0 0 0 0 0 0 0 0 0 0 0 0 0 0 0 0 0 0 0 0 0 0 0 12 14 13 14 14 15 14 15 14 15 16 16 16 17 14 16 14 15 17 14 16 16 16 17 18 16 18 16 16 15 16 15 17 14 16 17 15 16 18 15 16 16 17 16 16 16 18 15 18 18 18 17 18 18 19 17 19 17 18 15 17 18 16 18 19 17 18 18 20 19 19 18 19 17 20 19 19 20 19 19 20 18 20 20 21 21 19 21 20 20 21 21 18 18 18 18 17 19 18 19 17 19 20 19 20 22 22 -193 23 -193 -193 -193 -193 -193 20 20 19 19 20 21 21 20 22 22 21 23 22 -193 20 21 20 21 21 21 19 21 20 20 22 21 21 21 22 21 21 21 20 21 21 21 21 20 22 23 -193 -193 23 23 23 23 24 24 24 24 24 24 24 25 25 25 26 28 26 28 28 29 28 30 31 30 29 31 32 34 34 35 34 36 37 37 37 37 36 37 36 37 37 39 39 39 42 43 43 44 43 44 45 47 46 45 45 46 46 46 46 47 47 47 49 48 48 50 51 50 51 52 53 52 55 55 54 55 57 57 56 56 56 57 57 58 59 58 59 60 60 60 0 0 0 0 0
    0 0 0 0 0 0 0 0 0 0 0 0 0 0 0 0 0 0 0 0 0 0 0 0 0 0 0 0 0 0 0 0 0 0 0 0 0 0 0 0 0 0 0 0 0 0 0 0 0 0 0 0 0 0 0 0 0 0 0 0 0 0 0 0 0 0 0 0 0 12 14 13 14 14 16 14 15 15 16 16 16 17 17 14 16 15 15 17 15 16 16 16 17 18 15 18 16 16 15 16 15 17 14 16 17 15 16 19 15 17 16 17 16 16 16 18 16 18 18 18 17 18 19 19 17 19 17 18 15 17 18 16 17 19 16 18 17 19 19 19 17 19 18 20 19 19 21 21 20 21 19 20 21 21 -193 19 21 19 20 20 21 18 18 18 18 17 19 18 19 16 19 20 19 21 23 22 -193 24 -193 -193 -193 -209 -193 21 21 19 19 20 20 20 20 22 21 21 23 -193 -193 20 -193 20 21 21 -193 19 20 20 20 21 21 21 21 21 21 21 21 20 20 21 21 21 21 22 -193 -177 -193 -193 23 23 23 24 24 24 24 24 24 24 25 25 25 26 28 26 28 28 29 28 30 30 30 29 31 32 34 34 35 34 36 36 36 37 37 36 37 36 37 38 40 40 40 43 43 43 44 43 44 45 47 46 46 46 46 46 46 46 47 47 47 49 48 48 50 51 50 51 52 53 52 55 55 54 56 58 57 56 56 56 57 57 58 59 58 59 60 60 60 0 0 0 0 0
    0 0 0 0 0 0 0 0 0 0 0 0 0 0 0 0 0 0 0 0 0 0 0 0 0 0 0 0 0 0 0 0 0 0 0 0 0 0 0 0 0 0 0 0 0 0 0 0 0 0 0 0 0 0 0 0 0 0 0 0 0 0 0 0 0 0 0 0 0 12 15 13 14 14 16 14 15 15 16 16 15 17 17 15 16 16 16 17 15 17 16 16 17 18 15 18 16 16 15 16 15 17 14 16 17 15 16 18 15 17 16 17 16 16 16 18 16 18 18 18 17 18 19 19 17 19 17 19 15 18 18 16 17 19 16 18 17 19 18 19 17 19 18 20 19 19 21 21 21 22 20 21 -193 22 -193 20 21 19 20 20 21 18 17 18 18 17 18 18 19 16 19 20 19 21 23 23 25 24 24 25 -193 -209 -193 -193 20 19 18 20 20 20 20 22 21 21 23 -177 -177 -193 -193 19 20 21 -193 19 20 20 20 21 20 20 20 21 20 20 21 20 20 21 21 22 21 22 -193 -177 -193 -193 -193 24 23 24 24 24 24 23 24 24 24 25 25 26 28 27 28 28 29 28 30 30 31 29 32 32 34 34 34 33 35 36 36 36 37 36 36 37 37 39 40 41 40 43 43 43 44 43 45 44 47 46 46 46 46 46 46 46 47 47 47 49 48 48 50 51 50 51 51 53 51 55 55 54 56 59 58 57 57 57 58 57 58 59 58 59 60 60 60 0 0 0 0 0
    0 0 0 0 0 0 0 0 0 0 0 0 0 0 0 0 0 0 0 0 0 0 0 0 0 0 0 0 0 0 0 0 0 0 0 0 0 0 0 0 0 0 0 0 0 0 0 0 0 0 0 0 0 0 0 0 0 0 0 0 0 0 0 0 0 0 0 0 0 12 -193 -193 13 13 16 14 14 15 16 16 15 17 17 15 17 16 16 17 15 17 16 16 17 18 15 18 16 16 15 16 15 17 15 16 17 15 16 18 15 17 16 17 16 16 16 18 16 17 17 18 17 18 19 19 18 19 18 19 16 18 18 16 17 18 15 18 17 19 18 19 17 19 18 20 20 20 22 22 22 22 21 22 -193 -193 -209 20 20 19 20 20 20 18 17 17 18 17 18 18 19 16 19 21 20 22 24 24 25 25 25 25 -193 -193 -193 -193 19 19 18 19 19 20 19 22 21 21 23 -193 -193 -193 -193 20 21 21 -193 19 20 20 20 21 20 20 20 20 20 20 20 20 20 21 20 22 21 21 23 -177 -193 -193 -193 24 23 25 24 24 24 23 24 24 24 25 25 26 29 27 29 29 29 29 30 30 31 29 32 32 34 34 34 33 35 35 35 36 37 36 36 37 37 39 41 41 41 43 43 43 43 43 44 44 47 46 46 46 46 46 46 46 47 48 47 49 48 48 50 51 50 51 51 53 51 54 55 54 56 59 59 57 58 58 58 58 58 59 58 59 59 60 60 0 0 0 0 0
    0 0 0 0 0 0 0 0 0 0 0 0 0 0 0 0 0 0 0 0 0 0 0 0 0 0 0 0 0 0 0 0 0 0 0 0 0 0 0 0 0 0 0 0 0 0 0 0 0 0 0 0 0 0 0 0 0 0 0 0 0 0 0 0 0 0 0 0 0 -193 -193 -193 14 13 16 14 14 15 16 15 15 18 17 15 17 17 16 17 15 17 17 16 17 18 15 18 16 16 15 16 16 17 14 16 17 15 16 18 15 16 16 17 16 16 16 18 16 17 18 18 17 19 20 20 18 20 18 19 16 19 18 16 17 18 15 18 17 19 18 19 18 19 18 20 20 20 22 22 22 22 21 22 22 22 22 19 20 18 20 20 20 18 17 18 18 17 19 19 19 17 20 22 21 22 24 25 26 25 25 -193 -193 -193 -193 20 19 19 18 19 19 19 19 22 21 21 22 21 21 20 22 20 21 21 -193 20 21 20 21 21 20 20 20 20 20 20 20 20 20 21 20 22 22 21 -193 -177 -193 -193 24 24 24 25 25 25 24 23 24 24 24 25 25 26 29 27 29 29 29 29 30 30 31 29 32 32 34 34 34 33 35 35 35 36 37 37 37 38 38 40 42 41 41 43 43 43 44 44 45 44 47 46 45 46 46 46 46 47 47 48 47 49 49 49 51 51 50 51 51 53 51 54 55 54 56 59 59 57 58 58 58 58 58 59 58 59 59 60 60 0 0 0 0 0
    0 0 0 0 0 0 0 0 0 0 0 0 0 0 0 0 0 0 0 0 0 0 0 0 0 0 0 0 0 0 0 0 0 0 0 0 0 0 0 0 0 0 0 0 0 0 0 0 0 0 0 0 0 0 0 0 0 0 0 0 0 0 0 0 0 0 0 0 0 13 16 -193 -193 -193 16 14 14 14 16 15 15 18 17 15 17 17 17 17 16 18 17 17 17 18 15 18 16 17 16 16 16 17 14 16 16 15 16 18 15 17 16 18 16 16 17 18 17 17 17 18 16 18 19 20 18 20 18 19 17 19 19 17 17 19 15 18 17 19 18 19 18 19 19 20 20 21 22 23 22 23 22 23 22 22 22 20 20 18 20 20 20 18 17 18 18 18 19 19 20 18 21 23 22 23 26 26 26 26 25 26 -193 -193 -193 20 19 20 18 20 19 19 19 22 21 21 22 21 21 20 22 21 22 22 -193 21 21 21 21 21 20 20 19 19 20 20 20 20 20 21 20 23 22 22 23 -193 -193 -193 24 25 24 26 25 25 25 24 24 24 24 25 25 25 28 27 29 29 29 29 30 30 31 29 33 31 33 33 34 33 35 35 36 37 38 38 38 39 39 40 42 42 41 44 43 43 44 44 45 44 47 46 45 46 45 46 46 46 47 48 47 49 49 49 51 51 50 51 51 54 52 54 54 54 55 59 59 57 58 58 58 58 59 59 58 59 59 59 60 0 0 0 0 0
    0 0 0 0 0 0 0 0 0 0 0 0 0 0 0 0 0 0 0 0 0 0 0 0 0 0 0 0 0 0 0 0 0 0 0 0 0 0 0 0 0 0 0 0 0 0 0 0 0 0 0 0 0 0 0 0 0 0 0 0 0 0 0 0 0 0 0 0 0 13 16 13 -193 -193 16 14 14 14 16 14 15 18 17 16 17 18 17 18 17 19 18 18 18 19 16 18 17 17 16 16 17 17 14 17 17 14 16 18 15 17 16 18 16 17 17 18 18 18 18 19 16 18 -193 -193 18 19 18 19 17 19 19 17 17 18 15 19 17 19 18 20 18 20 19 21 20 21 23 23 23 24 23 24 23 23 22 20 20 18 19 19 19 18 17 18 18 18 20 20 20 19 22 24 23 24 27 27 27 27 26 26 -177 -193 -193 21 20 20 19 21 20 20 20 22 21 21 22 21 21 21 22 21 22 22 -193 -193 22 22 21 21 21 20 19 18 20 20 20 19 19 21 20 23 22 22 24 -193 -193 24 25 26 25 27 26 26 25 24 24 24 24 25 24 25 28 26 28 29 29 29 30 31 32 30 33 31 33 33 34 32 34 35 36 36 38 38 39 39 39 40 42 42 42 43 43 43 44 45 46 44 47 46 45 46 45 46 46 46 47 48 47 49 49 50 51 51 50 51 52 54 52 54 55 54 56 59 59 58 58 58 58 58 59 59 58 60 59 59 60 0 0 0 0 0
    0 0 0 0 0 0 0 0 0 0 0 0 0 0 0 0 0 0 0 0 0 0 0 0 0 0 0 0 0 0 0 0 0 0 0 0 0 0 0 0 0 0 0 0 0 0 0 0 0 0 0 0 0 0 0 0 0 0 0 0 0 0 0 0 0 0 0 0 0 13 16 14 14 13 15 14 13 14 16 14 14 18 16 16 18 18 18 19 18 20 19 19 19 20 17 19 18 18 17 17 18 18 15 18 18 14 17 19 16 17 16 18 17 17 17 18 19 18 18 20 17 19 -193 -193 19 19 19 20 17 20 19 17 17 18 15 19 18 19 18 20 19 20 20 22 21 22 24 24 24 25 25 25 24 24 23 20 20 18 19 19 18 18 16 17 18 19 21 22 21 21 23 26 24 25 29 28 28 28 26 26 -177 -193 -193 21 21 21 20 22 20 21 21 23 21 21 22 21 20 21 22 21 22 22 -193 22 22 22 22 22 21 21 20 19 20 20 20 19 19 21 20 23 23 22 -209 -177 -193 25 25 26 25 27 26 26 25 24 24 23 23 25 24 25 28 26 28 29 29 29 30 31 31 30 33 31 33 33 34 32 34 35 35 36 38 38 39 39 39 40 42 42 42 44 43 43 45 45 46 44 47 46 45 46 45 46 46 46 47 48 47 49 49 50 51 52 50 51 52 54 53 54 55 54 56 59 59 58 58 58 58 59 59 59 58 59 58 59 60 0 0 0 0 0
    0 0 0 0 0 0 0 0 0 0 0 0 0 0 0 0 0 0 0 0 0 0 0 0 0 0 0 0 0 0 0 0 0 0 0 0 0 0 0 0 0 0 0 0 0 0 0 0 0 0 0 0 0 0 0 0 0 0 0 0 0 0 0 0 0 0 0 0 0 14 17 14 15 13 15 14 12 13 15 13 14 18 16 17 18 19 18 19 19 20 20 20 20 21 18 19 20 18 18 17 19 19 16 20 19 15 19 20 18 18 17 19 18 18 18 19 20 19 19 22 18 20 -193 -193 20 20 20 20 18 21 19 18 17 19 15 20 18 19 18 20 19 20 20 22 20 22 -209 24 24 25 25 25 24 24 24 21 20 18 19 19 17 18 17 15 18 20 21 22 21 23 24 27 26 26 29 29 28 28 26 27 -193 -193 -193 22 21 22 20 23 21 22 21 24 22 21 22 20 20 21 22 21 22 -193 -193 -193 23 23 22 22 21 21 20 19 20 20 20 20 20 21 20 -193 -193 -193 -209 -177 -193 25 26 27 26 27 26 26 26 25 25 24 23 25 24 25 28 26 28 29 29 29 31 30 31 30 33 31 33 33 34 31 35 35 35 36 38 38 39 39 38 39 42 42 42 43 43 43 45 45 47 44 47 46 45 46 45 46 45 46 47 47 47 49 49 50 50 52 50 51 52 54 53 55 55 55 56 59 59 58 58 58 59 60 59 59 58 59 58 58 59 0 0 0 0 0
    0 0 0 0 0 0 0 0 0 0 0 0 0 0 0 0 0 0 0 0 0 0 0 0 0 0 0 0 0 0 0 0 0 0 0 0 0 0 0 0 0 0 0 0 0 0 0 0 0 0 0 0 0 0 0 0 0 0 0 0 0 0 0 0 0 0 0 0 0 15 17 14 16 13 15 14 12 13 16 13 14 18 16 18 18 20 19 19 20 21 21 21 21 22 19 20 20 19 19 18 20 20 17 21 20 17 21 21 20 20 18 21 19 20 20 21 22 21 22 24 20 21 -193 -193 21 21 20 21 19 21 20 18 17 19 16 20 18 19 18 21 19 20 21 22 21 23 24 25 25 26 26 26 25 25 25 22 21 20 20 20 18 21 19 15 19 23 23 23 22 25 25 28 26 27 30 29 29 29 27 27 25 25 23 22 22 22 21 23 21 22 22 24 23 22 23 21 21 22 23 22 23 -193 -193 -193 24 24 23 23 22 22 21 20 21 21 20 21 20 22 21 -193 -193 -193 25 -193 26 26 27 28 27 28 27 27 26 26 25 24 23 25 24 25 28 26 28 29 29 28 31 30 31 30 33 31 33 34 34 32 35 35 35 36 38 38 39 39 38 39 43 42 42 43 43 43 45 45 47 44 47 45 45 46 45 46 45 46 47 47 47 49 49 50 50 52 50 52 52 55 54 55 55 55 56 59 60 58 59 59 59 60 59 59 59 60 58 58 58 0 0 0 0 0
    0 0 0 0 0 0 0 0 0 0 0 0 0 0 0 0 0 0 0 0 0 0 0 0 0 0 0 0 0 0 0 0 0 0 0 0 0 0 0 0 0 0 0 0 0 0 0 0 0 0 0 0 0 0 0 0 0 0 0 0 0 0 0 0 0 0 0 0 0 15 17 14 16 13 15 14 12 13 16 13 14 18 17 18 18 20 20 20 21 22 22 23 22 23 20 21 21 20 20 19 20 21 18 22 21 19 22 22 22 21 20 22 21 22 22 22 23 23 23 25 22 23 -193 -193 -193 22 21 22 20 23 21 19 18 19 16 21 19 20 19 21 20 20 21 22 22 24 -193 25 24 26 26 27 26 25 25 24 23 22 23 23 22 25 24 24 24 30 27 27 25 26 27 29 27 28 31 30 29 29 27 27 25 25 23 23 22 23 22 24 23 23 23 25 24 23 23 23 22 23 24 24 25 -193 -193 -193 26 26 -209 24 23 23 22 22 23 22 22 22 22 24 23 25 -209 -209 26 27 27 28 29 30 29 30 29 28 28 27 26 24 23 24 24 25 28 26 28 29 28 28 30 30 31 30 33 31 33 34 34 34 36 36 37 37 39 39 39 39 38 39 43 42 42 43 43 43 45 46 47 43 47 45 45 46 44 46 45 46 46 47 47 49 49 50 50 52 50 52 52 55 54 55 55 55 56 59 59 58 59 59 59 60 60 59 59 61 59 59 58 0 0 0 0 0
    0 0 0 0 0 0 0 0 0 0 0 0 0 0 0 0 0 0 0 0 0 0 0 0 0 0 0 0 0 0 0 0 0 0 0 0 0 0 0 0 0 0 0 0 0 0 0 0 0 0 0 0 0 0 0 0 0 0 0 0 0 0 0 0 0 0 0 0 0 15 17 14 15 12 14 13 13 14 16 13 14 18 18 19 20 21 21 22 24 -193 24 -193 25 25 22 23 23 21 21 21 22 22 20 23 23 21 24 23 23 22 21 23 22 23 23 23 25 25 25 27 23 24 -193 26 -193 23 22 22 21 24 -193 21 20 22 18 24 22 22 21 22 21 21 22 23 23 25 25 25 25 26 27 27 27 26 25 26 25 25 26 26 26 29 34 37 34 36 32 30 28 28 29 29 29 29 32 32 31 31 29 28 27 26 25 24 25 25 24 25 24 25 25 26 26 24 25 25 25 25 28 28 29 29 30 28 30 29 -193 -193 -209 25 24 24 25 24 24 25 -209 26 25 26 -193 27 29 29 30 30 31 32 31 31 30 29 30 30 28 24 23 24 25 26 28 26 27 28 27 28 30 29 30 30 32 31 34 36 36 36 36 37 38 38 39 39 39 38 38 39 43 42 42 43 43 43 45 46 48 43 47 45 45 46 44 46 45 46 46 47 47 49 49 50 50 52 50 52 52 55 -193 -193 55 55 55 58 59 58 58 58 58 59 60 59 59 61 59 59 -193 0 0 0 0 0
    0 0 0 0 0 0 0 0 0 0 0 0 0 0 0 0 0 0 0 0 0 0 0 0 0 0 0 0 0 0 0 0 0 0 0 0 0 0 0 0 0 0 0 0 0 0 0 0 0 0 0 0 0 0 0 0 0 0 0 0 0 0 0 0 0 0 0 0 0 -193 17 14 15 13 15 13 13 14 15 12 15 19 18 20 22 23 24 25 26 27 27 27 27 26 25 24 25 23 23 23 24 24 23 25 25 23 26 24 25 23 22 24 -193 25 25 25 28 27 27 29 26 26 26 26 24 24 23 23 22 25 -193 -193 -193 -193 -209 29 -209 -209 -209 -209 -209 -209 -209 26 26 28 28 27 27 27 28 28 28 27 26 28 28 30 32 33 31 35 38 40 38 38 35 32 30 30 31 30 30 31 33 33 34 33 33 30 30 29 28 27 28 27 27 28 27 27 27 29 28 26 28 28 28 30 32 34 35 36 37 35 37 35 34 -193 28 27 26 26 27 27 27 28 28 30 29 30 32 33 33 32 34 34 34 34 32 31 31 30 34 35 32 28 30 38 -193 33 31 25 25 26 26 26 26 25 -193 -209 -193 30 35 38 37 38 37 39 39 39 39 39 39 38 38 39 42 42 42 43 43 44 45 47 48 43 48 45 45 46 44 46 45 46 46 46 47 49 49 50 50 52 50 51 52 55 -193 -193 55 55 55 58 58 57 57 58 57 59 59 59 60 61 -209 62 -209 0 0 0 0 0
    0 0 0 0 0 0 0 0 0 0 0 0 0 0 0 0 0 0 0 0 0 0 0 0 0 0 0 0 0 0 0 0 0 0 0 0 0 0 0 0 0 0 0 0 0 0 0 0 0 0 0 0 0 0 0 0 0 0 0 0 0 0 0 0 0 0 0 0 0 -193 18 15 16 13 16 15 15 15 13 11 16 20 19 21 -209 26 27 28 29 29 29 29 28 28 27 26 27 25 26 25 26 27 26 27 27 24 26 25 26 25 24 27 -193 30 29 29 31 30 29 31 28 28 27 27 26 25 24 24 24 26 -193 -193 26 -193 -209 30 -209 -209 -209 -209 -209 -209 32 35 33 33 32 31 29 29 30 29 29 29 29 32 32 34 36 35 34 36 37 39 37 37 36 32 30 30 31 30 31 31 34 33 36 35 35 33 33 32 31 31 33 30 32 31 31 31 30 32 31 29 31 31 33 34 35 36 37 39 40 38 40 38 38 37 34 29 28 28 31 30 30 31 32 34 33 34 36 36 35 35 36 36 35 34 33 30 31 31 35 35 33 32 -193 44 41 -193 35 23 23 24 22 21 15 12 10 -209 -209 -209 35 -193 36 37 37 39 39 39 39 39 39 37 37 38 42 41 42 43 42 43 46 47 49 43 49 46 45 46 45 46 45 46 46 46 47 49 49 50 50 52 50 51 52 54 -193 -193 55 55 55 57 58 57 57 58 57 58 58 58 60 -193 -193 -209 -209 0 0 0 0 0
    0 0 0 0 0 0 0 0 0 0 0 0 0 0 0 0 0 0 0 0 0 0 0 0 0 0 0 0 0 0 0 0 0 0 0 0 0 0 0 0 0 0 0 0 0 0 0 0 0 0 0 0 0 0 0 0 0 0 0 0 0 0 0 0 0 0 0 0 0 -209 -209 -209 -209 14 18 22 -209 -209 -209 -209 -209 -209 -193 -209 -193 29 30 31 32 32 31 31 30 29 29 29 29 28 29 29 30 30 31 29 29 26 28 26 28 27 27 -193 -193 -193 33 31 33 32 31 32 30 30 29 29 28 27 26 26 25 27 26 -209 -209 -193 950 -193 -209 -209 -209 -209 -209 -193 38 39 36 35 34 31 30 29 30 29 30 31 32 34 35 35 37 36 36 36 36 38 37 36 36 31 31 30 31 31 32 32 34 33 36 35 37 34 34 33 32 32 34 32 34 32 33 33 32 34 32 30 33 32 34 36 37 37 38 40 42 40 41 39 37 32 26 26 26 27 30 30 30 30 31 33 33 35 37 37 35 36 37 37 36 34 33 31 31 32 34 35 30 -209 -209 -209 -193 -209 -209 15 16 17 13 9 0 0 0 -209 -209 -209 -193 -193 35 36 37 38 38 38 39 38 38 37 37 38 42 41 41 42 42 43 45 47 49 43 49 46 45 47 45 46 45 46 46 46 47 49 48 50 50 52 50 51 52 54 -193 -193 55 55 55 57 57 56 56 57 56 57 57 57 59 -193 9 -193 -209 0 0 0 0 0
    0 0 0 0 0 0 0 0 0 0 0 0 0 0 0 0 0 0 0 0 0 0 0 0 0 0 0 0 0 0 0 0 0 0 0 0 0 0 0 0 0 0 0 0 0 0 0 0 0 0 0 0 0 0 0 0 0 0 0 0 0 0 0 0 0 0 0 0 0 -193 18 -193 12 13 18 23 -209 -209 -209 -209 -209 -209 -193 -209 -193 30 32 33 34 34 32 33 31 29 31 30 31 30 30 30 31 32 33 29 31 28 31 29 30 29 -193 -193 -193 -193 34 -193 33 31 31 31 30 30 28 29 28 27 26 25 24 26 26 26 -209 -209 947 -209 -209 -209 -209 -209 -209 -209 37 39 36 35 34 30 29 28 29 29 29 31 33 35 37 37 38 37 37 37 37 38 38 36 37 32 32 31 31 31 33 33 35 34 36 35 37 34 34 33 32 31 34 32 34 32 33 33 33 34 33 31 33 33 35 37 38 39 39 42 43 42 43 42 41 -193 -193 24 26 28 30 30 31 30 31 32 33 -193 36 36 34 35 36 37 37 34 33 31 31 32 34 34 27 19 -209 -209 -209 -209 -209 17 18 18 15 11 0 0 0 -193 -193 -209 -193 -209 34 35 37 38 38 38 39 38 38 37 37 38 42 41 41 42 42 43 45 46 48 43 49 46 45 47 45 47 45 46 47 46 47 49 48 50 50 52 50 51 52 54 54 -193 55 54 55 57 57 56 56 57 55 57 56 55 57 -193 0 -193 -193 0 0 0 0 0
    0 0 0 0 0 0 0 0 0 0 0 0 0 0 0 0 0 0 0 0 0 0 0 0 0 0 0 0 0 0 0 0 0 0 0 0 0 0 0 0 0 0 0 0 0 0 0 0 0 0 0 0 0 0 0 0 0 0 0 0 0 0 0 0 0 0 0 0 0 18 19 -193 -209 13 16 20 -209 -209 -209 -209 -209 -209 -209 -193 -193 32 35 35 36 -193 34 35 32 31 34 32 32 32 31 33 33 34 35 28 30 28 30 29 31 30 -193 -193 -193 -193 35 -193 -193 30 30 30 30 30 28 29 28 27 26 25 24 26 26 -209 -209 -209 -209 -209 -209 -209 -209 -209 -209 36 36 38 35 35 34 30 29 28 28 28 29 31 32 35 37 38 38 38 37 38 38 39 38 36 37 32 32 31 31 31 33 33 36 34 38 36 38 35 35 33 33 31 33 31 33 31 32 32 33 34 33 32 34 34 36 37 38 38 38 40 41 40 41 41 41 34 -193 25 27 28 30 30 30 29 29 31 31 34 35 35 33 34 36 37 37 35 33 31 31 32 34 34 27 17 -209 -209 -209 -209 -209 -209 19 20 19 12 9 9 9 11 -193 -193 -193 -193 33 34 36 38 38 38 39 38 38 37 37 38 42 41 41 42 42 43 45 46 48 43 49 46 45 47 45 47 45 46 46 46 47 49 48 50 50 52 50 51 52 54 54 54 55 54 54 57 57 56 56 56 55 56 57 56 58 -193 0 -193 -193 0 0 0 0 0
    0 0 0 0 0 0 0 0 0 0 0 0 0 0 0 0 0 0 0 0 0 0 0 0 0 0 0 0 0 0 0 0 0 0 0 0 0 0 0 0 0 0 0 0 0 0 0 0 0 0 0 0 0 0 0 0 0 0 0 0 0 0 0 0 0 0 0 0 0 -193 18 18 12 13 15 17 14 -209 -209 -209 158 -209 -209 31 34 33 35 36 37 -193 36 37 34 33 35 34 34 34 33 34 34 35 36 28 30 28 30 29 31 -193 32 -193 34 -193 -193 -209 -193 29 30 30 29 30 29 29 28 27 27 25 25 26 27 -193 -209 -209 -209 -209 -209 -209 -209 -209 -209 36 36 37 35 35 35 31 29 28 27 27 28 31 31 34 37 38 38 37 38 38 38 39 37 35 35 31 31 30 30 31 32 32 35 34 38 36 38 35 35 33 33 31 32 31 32 31 32 32 33 34 33 33 35 35 36 37 38 38 37 39 40 39 39 39 -193 27 -193 24 26 28 29 30 31 30 30 30 30 33 34 33 31 32 34 37 36 35 33 32 31 32 34 34 28 -209 -209 -209 -193 -193 45 -209 22 22 21 -209 0 9 10 11 9 -193 -209 -193 33 34 37 38 39 39 39 38 38 37 37 38 42 41 41 42 42 43 44 46 48 43 49 45 45 47 45 47 45 46 46 46 47 49 48 50 50 52 50 52 52 54 54 54 54 54 54 56 57 56 56 56 55 56 57 56 57 -193 -193 -193 -193 0 0 0 0 0
    0 0 0 0 0 0 0 0 0 0 0 0 0 0 0 0 0 0 0 0 0 0 0 0 0 0 0 0 0 0 0 0 0 0 0 0 0 0 0 0 0 0 0 0 0 0 0 0 0 0 0 0 0 0 0 0 0 0 0 0 0 0 0 0 0 0 0 0 0 -193 20 21 20 16 -193 -209 -209 -209 -209 -193 159 -209 -193 32 33 33 35 35 35 -193 -193 37 34 -193 -193 34 34 35 34 35 35 36 37 31 30 28 28 28 -193 -209 -209 -193 -193 -193 -193 -209 -209 -193 30 30 29 29 28 28 28 27 27 26 26 27 28 28 28 -209 -193 -209 -209 -209 -209 -209 -193 -209 38 39 38 37 37 34 31 28 28 27 28 31 31 33 35 36 37 36 37 37 36 38 35 34 33 30 31 29 30 30 31 31 35 34 37 35 37 34 34 33 33 31 32 31 32 32 34 33 33 34 34 33 35 35 36 36 38 37 37 39 40 38 39 -209 -193 -193 -193 -193 24 26 26 30 33 30 30 30 30 34 34 33 31 30 33 36 36 35 32 31 31 30 32 31 27 -209 -209 -209 -193 41 48 -209 36 -209 -193 -209 0 9 10 10 0 -193 -209 -193 32 33 36 38 38 38 38 38 38 38 38 38 42 41 41 42 42 42 44 46 48 42 49 45 45 47 45 46 45 46 46 46 47 48 48 50 50 52 50 51 52 53 53 54 54 54 54 56 56 55 56 56 54 56 57 56 56 -193 -193 -193 -193 0 0 0 0 0
    0 0 0 0 0 0 0 0 0 0 0 0 0 0 0 0 0 0 0 0 0 0 0 0 0 0 0 0 0 0 0 0 0 0 0 0 0 0 0 0 0 0 0 0 0 0 0 0 0 0 0 0 0 0 0 0 0 0 0 0 0 0 0 0 0 0 0 0 0 -209 24 26 27 -193 -209 -209 -209 -193 -209 -209 -209 -193 32 33 33 33 34 34 34 -193 -193 36 -193 -193 -193 -193 34 35 33 35 35 37 37 31 29 27 -193 -193 -209 -193 -193 -193 -193 -193 767 767 -193 -193 31 30 29 29 28 28 28 28 28 26 27 27 29 29 -193 -193 468 -193 -209 -209 -209 -209 -209 -209 40 40 39 39 39 -193 34 -193 28 28 28 31 31 31 33 34 35 35 36 37 36 37 35 34 33 30 31 29 30 30 30 31 34 33 36 34 36 33 33 33 34 32 33 32 34 33 35 34 34 35 34 34 36 36 36 35 37 36 36 38 38 37 37 34 -193 26 25 23 22 22 23 27 32 27 28 29 30 35 34 33 31 31 34 37 36 35 31 30 31 30 32 30 27 -209 -209 34 41 41 45 46 39 -193 27 -193 18 15 16 15 13 15 -209 -193 31 31 36 38 38 38 38 38 38 38 38 38 42 41 41 42 42 42 44 45 47 42 49 45 45 46 45 46 45 46 46 46 47 48 48 50 50 52 50 51 52 53 53 54 54 53 54 56 56 55 55 56 54 56 56 55 56 -193 0 -193 -193 0 0 0 0 0
    0 0 0 0 0 0 0 0 0 0 0 0 0 0 0 0 0 0 0 0 0 0 0 0 0 0 0 0 0 0 0 0 0 0 0 0 0 0 0 0 0 0 0 0 0 0 0 0 0 0 0 0 0 0 0 0 0 0 0 0 0 0 0 0 0 0 0 0 0 28 26 28 28 -193 498 -193 -209 -193 -209 -209 -209 31 31 34 32 33 34 33 32 33 34 35 -193 31 -193 32 33 35 32 35 34 36 37 30 28 -209 -209 -209 -193 764 765 763 -193 -193 766 -177 -193 -193 32 30 30 30 29 29 29 29 29 27 28 28 29 -193 -193 -193 468 -193 -193 -209 -193 -193 35 -193 39 38 37 37 37 -193 33 30 29 29 29 33 32 32 32 33 34 33 36 37 36 37 35 34 33 30 31 29 30 30 30 31 33 33 36 35 36 34 34 34 34 33 34 32 33 33 36 35 34 35 34 35 36 35 36 34 37 35 35 36 36 36 37 35 38 29 36 29 26 25 24 27 31 27 27 27 29 34 33 32 30 30 34 37 36 35 31 31 32 31 32 30 27 27 28 35 40 40 44 44 40 43 36 -209 16 16 16 17 15 15 -209 -193 30 31 36 38 38 38 38 38 38 38 38 38 42 41 41 42 42 42 44 45 47 42 48 45 45 46 45 46 45 45 46 45 47 48 48 50 50 52 50 51 52 53 53 54 54 53 54 56 56 55 55 56 54 56 57 55 56 0 0 -193 -209 0 0 0 0 0
    0 0 0 0 0 0 0 0 0 0 0 0 0 0 0 0 0 0 0 0 0 0 0 0 0 0 0 0 0 0 0 0 0 0 0 0 0 0 0 0 0 0 0 0 0 0 0 0 0 0 0 0 0 0 0 0 0 0 0 0 0 0 0 0 0 0 0 0 0 27 26 27 28 28 -209 36 38 -193 -193 -193 35 30 30 33 31 33 33 32 32 33 35 36 31 34 33 35 35 35 33 35 33 36 36 30 28 27 -193 -193 -209 -193 -193 764 -193 -193 -193 -193 -193 -193 30 30 30 30 29 30 30 30 30 28 29 29 30 30 -193 -193 -193 -193 -193 -193 32 30 34 35 -193 36 35 36 36 -193 33 30 29 29 29 33 33 32 32 32 33 32 35 36 35 36 35 34 34 31 32 30 30 30 30 31 32 33 35 34 36 34 34 34 34 33 33 32 32 32 36 35 34 34 34 35 36 35 36 33 37 35 35 35 35 34 36 34 36 30 34 31 29 27 26 29 31 28 27 28 29 33 31 31 29 30 33 36 35 35 31 33 33 33 32 30 27 27 28 34 39 39 44 44 42 44 -193 -193 16 16 16 18 17 15 23 -209 30 31 35 37 37 38 38 38 37 38 38 39 42 41 41 42 42 42 44 45 47 42 47 45 45 46 45 46 45 45 46 45 47 47 47 50 50 52 50 51 52 53 53 54 53 53 54 56 56 55 55 55 54 56 57 53 54 0 0 0 -193 0 0 0 0 0
    0 0 0 0 0 0 0 0 0 0 0 0 0 0 0 0 0 0 0 0 0 0 0 0 0 0 0 0 0 0 0 0 0 0 0 0 0 0 0 0 0 0 0 0 0 0 0 0 0 0 0 0 0 0 0 0 0 0 0 0 0 0 0 0 0 0 0 0 0 26 25 27 28 29 34 35 36 35 37 39 33 29 30 33 31 33 32 32 31 33 36 36 31 36 35 36 36 36 33 35 33 35 35 31 29 28 28 28 -193 -193 -209 -209 27 28 -193 -193 -193 -193 29 29 30 30 29 30 30 30 30 29 30 30 31 31 31 30 31 32 33 32 33 31 32 -193 -193 30 29 31 32 -193 -193 31 29 30 31 34 34 33 32 31 33 32 35 36 35 37 34 35 34 31 32 30 30 30 29 31 32 33 34 34 35 34 35 35 35 34 34 33 34 33 36 34 33 34 34 35 36 34 35 32 37 35 35 34 34 32 35 34 36 30 35 32 33 29 30 32 34 33 30 31 32 33 32 32 30 31 32 35 34 33 31 34 34 33 31 29 27 27 27 33 38 39 44 -209 -193 -209 -209 -209 19 19 18 19 19 17 -193 -209 30 31 35 37 37 37 37 38 37 38 38 39 43 41 41 42 42 42 44 44 46 42 47 45 45 46 45 46 45 45 46 45 46 47 47 50 50 53 50 51 53 53 53 54 53 53 54 56 56 55 56 55 55 57 57 54 54 0 0 0 -193 0 0 0 0 0
    0 0 0 0 0 0 0 0 0 0 0 0 0 0 0 0 0 0 0 0 0 0 0 0 0 0 0 0 0 0 0 0 0 0 0 0 0 0 0 0 0 0 0 0 0 0 0 0 0 0 0 0 0 0 0 0 0 0 0 0 0 0 0 0 0 0 0 0 0 26 26 27 29 31 39 35 34 35 37 39 32 29 29 33 31 32 32 31 30 32 35 35 29 35 32 34 34 34 32 33 31 33 33 30 28 28 28 27 25 25 24 -209 26 27 28 28 28 28 29 29 30 30 29 30 30 30 30 29 30 30 31 31 31 30 31 32 34 33 35 31 32 31 29 28 29 31 32 -193 31 32 31 33 35 36 35 35 34 33 34 33 35 37 36 38 34 34 33 31 32 30 30 29 28 30 30 32 33 32 34 33 34 34 34 34 33 32 33 33 36 32 32 33 34 35 35 34 33 30 36 34 34 32 32 30 33 33 35 30 35 33 34 31 31 33 35 34 31 31 34 33 32 32 31 31 31 34 34 31 32 34 34 33 30 29 28 28 27 33 38 38 42 -209 38 -209 -209 -209 22 22 21 22 -193 -193 -209 -209 31 32 35 37 37 37 37 38 37 38 38 39 43 41 41 42 42 42 44 44 46 42 46 45 44 45 45 45 45 44 46 44 46 46 47 50 50 53 50 51 53 53 53 54 53 53 54 56 56 55 56 56 56 57 58 55 -193 0 0 0 -193 0 0 0 0 0
    0 0 0 0 0 0 0 0 0 0 0 0 0 0 0 0 0 0 0 0 0 0 0 0 0 0 0 0 0 0 0 0 0 0 0 0 0 0 0 0 0 0 0 0 0 0 0 0 0 0 0 0 0 0 0 0 0 0 0 0 0 0 0 0 0 0 0 0 0 26 26 27 29 32 37 30 28 30 32 36 30 28 28 31 30 31 31 30 29 31 34 34 27 35 -193 -193 -193 -193 30 31 29 32 31 28 27 27 28 27 24 25 24 24 26 26 27 28 28 28 29 29 29 30 29 30 30 31 30 29 30 31 32 32 33 32 33 35 36 35 36 33 33 32 29 28 29 31 33 -193 32 33 32 34 36 37 35 36 33 34 34 34 36 37 35 37 32 34 32 31 32 29 30 29 27 29 29 31 31 31 32 31 32 32 32 32 31 31 31 32 35 30 29 31 32 32 33 30 29 27 33 33 30 29 29 28 31 32 34 30 34 32 32 30 31 32 34 33 30 30 34 32 31 32 31 31 31 34 33 30 33 34 34 33 30 27 28 28 25 33 -193 37 -209 -209 37 -193 36 -209 23 24 -209 26 38 -209 -209 -193 31 32 35 38 37 37 37 38 37 38 38 39 43 41 41 43 42 43 44 44 45 42 46 45 44 45 45 45 45 44 45 44 46 46 46 50 51 53 50 51 53 53 53 53 53 53 53 55 55 55 55 56 56 57 58 56 -193 0 0 0 0 0 0 0 0 0
    0 0 0 0 0 0 0 0 0 0 0 0 0 0 0 0 0 0 0 0 0 0 0 0 0 0 0 0 0 0 0 0 0 0 0 0 0 0 0 0 0 0 0 0 0 0 0 0 0 0 0 0 0 0 0 0 0 0 0 0 0 0 0 0 0 0 0 0 0 25 26 27 28 32 34 31 28 28 29 32 29 27 26 29 28 30 30 30 29 30 32 33 27 33 -193 -193 28 27 27 28 27 30 29 27 26 27 27 26 23 24 23 24 25 26 27 28 28 30 30 29 29 30 29 30 30 31 31 30 31 32 33 33 34 32 33 35 36 35 34 33 33 32 30 29 30 32 34 34 34 34 33 34 35 35 32 34 32 32 33 32 34 35 34 36 32 33 32 31 33 30 31 29 27 29 28 31 30 30 31 29 30 30 31 31 30 30 30 31 35 30 29 31 32 32 33 29 28 27 32 32 29 27 28 27 31 32 34 30 35 33 33 31 33 33 35 34 31 30 35 32 32 32 32 32 32 34 33 29 34 35 35 34 31 29 30 29 -209 31 -209 33 -209 -209 35 -209 -209 38 -209 -209 -209 -209 -193 -209 -209 40 32 33 35 39 38 38 37 38 37 38 38 39 42 40 41 43 42 43 44 44 45 41 45 45 44 44 44 45 45 44 45 44 45 45 46 48 50 53 49 50 52 52 52 53 52 53 53 55 55 55 56 56 56 58 59 57 -193 0 0 0 0 0 0 0 0 0
    0 0 0 0 0 0 0 0 0 0 0 0 0 0 0 0 0 0 0 0 0 0 0 0 0 0 0 0 0 0 0 0 0 0 0 0 0 0 0 0 0 0 0 0 0 0 0 0 0 0 0 0 0 0 0 0 0 0 0 0 0 0 0 0 0 0 0 0 0 25 25 26 27 32 31 30 28 27 27 30 27 26 26 29 28 29 29 29 28 29 31 31 25 28 -193 26 26 26 26 26 27 28 28 27 26 26 27 24 22 22 23 23 24 25 27 29 29 30 30 30 30 30 30 30 30 31 31 31 32 33 33 33 34 31 32 34 34 -193 31 32 32 31 30 29 31 33 35 35 35 36 34 35 35 34 32 34 32 33 33 32 34 35 35 36 33 34 34 33 35 33 32 31 29 30 29 31 30 30 31 29 30 30 30 31 30 31 31 31 35 32 29 32 34 33 33 30 28 28 32 34 30 27 28 27 30 33 35 31 36 34 35 33 34 34 36 35 33 31 36 32 32 32 33 33 32 33 34 29 36 37 36 35 32 31 30 28 -209 -209 -209 21 -209 -209 -209 -209 -209 -209 -209 -209 -209 -209 -193 -209 38 39 32 32 35 39 38 37 37 37 37 38 38 39 42 40 40 42 42 42 43 43 44 41 44 44 43 44 44 44 45 44 45 44 45 45 46 47 50 52 49 49 52 52 52 53 52 53 53 55 55 55 56 57 57 58 59 57 -193 -193 -209 -193 -193 0 0 0 0 0
    0 0 0 0 0 0 0 0 0 0 0 0 0 0 0 0 0 0 0 0 0 0 0 0 0 0 0 0 0 0 0 0 0 0 0 0 0 0 0 0 0 0 0 0 0 0 0 0 0 0 0 0 0 0 0 0 0 0 0 0 0 0 0 0 0 0 0 0 0 25 26 27 27 34 31 30 28 27 27 29 27 26 25 29 28 29 29 29 28 29 32 31 26 29 27 28 27 26 26 25 26 27 26 25 25 25 28 24 21 21 22 23 24 25 26 29 29 30 30 30 30 31 30 30 30 31 31 31 32 33 32 33 35 31 31 32 -193 -193 29 30 30 29 29 28 30 32 33 35 34 35 34 36 35 35 33 35 34 34 34 33 34 35 34 36 32 34 34 34 35 33 32 30 28 30 27 29 28 29 31 29 30 30 30 33 32 34 33 32 34 32 30 33 35 34 34 31 29 28 32 34 30 27 28 27 30 33 34 31 35 34 36 33 35 36 36 35 34 32 36 32 33 33 33 33 33 33 34 29 39 39 38 37 36 39 -209 31 -209 -209 -209 12 -209 -193 10 -193 -193 -193 95 99 -193 -193 -193 -193 41 40 33 32 36 39 38 37 37 37 37 38 38 39 41 40 40 42 42 42 43 43 44 41 44 44 43 44 44 44 45 43 45 44 45 45 47 47 51 53 49 49 52 52 52 53 53 53 54 56 56 56 57 57 57 58 59 57 -193 -193 -209 -193 -209 0 0 0 0 0
    0 0 0 0 0 0 0 0 0 0 0 0 0 0 0 0 0 0 0 0 0 0 0 0 0 0 0 0 0 0 0 0 0 0 0 0 0 0 0 0 0 0 0 0 0 0 0 0 0 0 0 0 0 0 0 0 0 0 0 0 0 0 0 0 0 0 0 0 0 26 26 29 27 37 30 28 26 26 26 27 26 25 25 28 28 29 28 28 28 30 32 31 27 30 28 29 28 27 26 25 25 26 25 24 23 24 26 24 22 21 21 22 23 -193 25 29 28 29 30 30 30 31 31 31 29 31 31 30 31 33 31 31 34 30 31 -193 -193 -193 29 31 30 30 29 28 30 31 32 34 34 35 34 36 36 36 34 36 35 34 34 33 33 34 34 35 31 33 33 34 36 33 31 29 27 29 26 28 28 29 32 31 32 32 31 33 33 34 33 32 32 31 30 32 35 34 34 30 28 28 32 34 29 27 28 27 30 33 35 32 36 36 37 35 37 38 38 36 36 33 36 32 33 33 33 33 33 32 34 29 40 40 39 38 38 44 -209 -209 -209 -209 -193 -193 -209 -177 0 -209 94 93 95 98 -193 -193 47 47 44 40 33 33 36 38 37 37 37 37 37 38 38 38 41 40 40 42 42 42 43 43 44 41 43 44 43 43 43 43 44 42 43 43 43 46 45 46 52 54 50 50 52 52 52 53 53 53 54 56 56 56 57 57 57 58 59 56 -209 -193 -209 -193 -209 0 0 0 0 0
    0 0 0 0 0 0 0 0 0 0 0 0 0 0 0 0 0 0 0 0 0 0 0 0 0 0 0 0 0 0 0 0 0 0 0 0 0 0 0 0 0 0 0 0 0 0 0 0 0 0 0 0 0 0 0 0 0 0 0 0 0 0 0 0 0 0 0 0 0 26 29 31 29 38 34 29 28 28 27 28 26 26 26 28 28 29 28 28 28 30 31 30 27 29 28 29 28 27 27 26 25 26 25 23 23 24 26 24 22 21 21 22 23 23 25 29 28 29 30 30 30 30 30 30 28 30 30 30 31 32 31 31 33 30 31 31 -193 31 30 32 30 30 29 28 30 31 33 35 35 37 36 39 37 37 35 36 35 34 34 33 33 34 34 35 30 32 33 34 36 34 30 28 27 28 26 26 26 27 30 30 31 30 30 31 32 32 33 31 31 31 30 32 35 35 34 31 28 29 33 34 29 27 27 27 30 34 36 33 37 38 39 38 39 40 39 37 37 33 37 32 33 33 33 33 32 31 34 28 39 39 38 38 38 47 -209 -209 -209 -209 -193 -193 -193 -177 0 -209 95 93 96 99 -193 -193 -193 45 42 40 34 35 37 39 38 38 38 38 37 39 39 39 41 40 40 42 42 42 43 43 43 41 43 44 42 43 42 43 43 42 43 42 42 45 45 48 53 54 50 50 53 52 52 54 53 54 54 56 56 56 57 57 57 57 59 55 -209 -209 -209 -209 -209 0 0 0 0 0
    0 0 0 0 0 0 0 0 0 0 0 0 0 0 0 0 0 0 0 0 0 0 0 0 0 0 0 0 0 0 0 0 0 0 0 0 0 0 0 0 0 0 0 0 0 0 0 0 0 0 0 0 0 0 0 0 0 0 0 0 0 0 0 0 0 0 0 0 0 26 30 31 29 37 34 29 28 28 28 28 27 27 27 28 28 29 29 28 28 29 31 29 27 29 28 28 28 27 27 26 25 25 24 23 23 23 24 23 22 21 22 23 23 23 24 29 28 29 30 30 29 30 30 30 27 29 30 28 30 29 29 29 31 29 30 27 29 30 30 34 31 32 31 28 31 33 35 36 37 38 38 40 39 39 36 37 37 35 34 33 33 34 34 35 31 32 33 34 36 34 30 26 25 26 25 24 25 25 28 27 28 28 28 28 30 31 31 30 30 30 29 32 35 35 33 30 28 30 33 35 30 28 27 27 31 34 36 33 37 38 40 40 40 41 40 38 38 34 37 33 33 33 33 33 32 31 34 27 39 39 37 38 38 46 -209 -209 -209 -193 -193 -193 -193 -193 0 -209 -193 93 95 99 -209 -193 -193 -193 42 40 35 37 38 39 38 38 38 38 38 39 39 39 41 40 40 42 41 42 42 42 43 41 43 43 42 42 42 42 42 42 42 42 42 46 47 50 53 55 51 51 53 53 53 54 54 54 54 56 56 56 57 57 57 57 58 54 -209 -193 -209 -209 -209 0 0 0 0 0
    0 0 0 0 0 0 0 0 0 0 0 0 0 0 0 0 0 0 0 0 0 0 0 0 0 0 0 0 0 0 0 0 0 0 0 0 0 0 0 0 0 0 0 0 0 0 0 0 0 0 0 0 0 0 0 0 0 0 0 0 0 0 0 0 0 0 0 0 0 26 30 29 28 35 34 29 29 29 28 28 27 27 28 28 28 29 29 28 28 29 30 28 27 29 28 28 28 27 27 25 25 25 24 22 22 23 24 23 23 21 22 23 22 22 24 30 28 29 30 30 29 30 31 30 26 29 29 27 28 -193 26 27 29 -193 -193 23 -209 -193 28 33 32 32 33 30 32 35 35 36 38 38 38 38 38 38 35 37 37 34 34 32 33 34 35 34 31 32 34 35 37 35 31 25 26 25 26 25 25 25 27 27 28 28 28 28 29 32 30 31 30 30 29 32 34 34 32 31 29 31 33 35 31 29 28 29 32 35 36 32 36 38 41 42 43 43 44 38 38 34 37 33 33 33 33 33 33 30 34 27 39 39 37 39 -177 -177 -193 -209 -209 124 129 -193 -193 -193 0 -209 -193 -193 95 99 -209 -209 47 49 45 41 37 38 39 39 39 39 38 38 38 39 39 39 41 40 40 41 -193 42 42 42 43 41 42 43 42 42 42 41 41 40 39 39 39 48 49 52 54 56 52 52 53 53 53 54 54 54 54 56 56 56 57 57 57 57 58 54 -209 -193 -209 72 67 0 0 0 0 0
    0 0 0 0 0 0 0 0 0 0 0 0 0 0 0 0 0 0 0 0 0 0 0 0 0 0 0 0 0 0 0 0 0 0 0 0 0 0 0 0 0 0 0 0 0 0 0 0 0 0 0 0 0 0 0 0 0 0 0 0 0 0 0 0 0 0 0 0 0 27 30 29 28 32 34 29 29 29 28 28 28 27 29 28 29 29 29 28 28 29 31 28 27 29 29 28 28 28 27 26 26 25 25 23 23 24 24 23 23 22 22 23 21 21 23 29 28 28 30 29 29 30 31 30 26 29 30 26 29 -193 26 26 27 -193 -193 23 24 24 25 28 28 30 32 29 32 35 34 36 37 36 37 36 36 35 33 35 34 32 32 31 32 33 34 33 31 32 34 36 37 36 32 26 28 28 28 26 26 27 29 30 30 31 30 30 32 33 32 33 30 31 31 32 34 34 32 31 29 32 33 34 32 30 28 30 33 35 36 32 36 39 42 42 50 44 45 38 39 34 37 33 33 34 33 33 33 30 34 27 39 38 36 -193 41 49 -209 -209 -209 -193 -209 -193 -177 0 0 -209 -193 -193 96 -193 -209 -209 -193 -193 -193 40 37 39 38 39 39 39 38 38 38 39 39 39 41 39 40 41 -193 -193 42 41 42 41 42 43 42 42 41 41 41 39 37 36 37 -209 49 54 55 56 52 52 53 53 53 54 54 54 54 56 56 56 57 57 57 57 58 55 57 60 69 71 67 0 0 0 0 0
    0 0 0 0 0 0 0 0 0 0 0 0 0 0 0 0 0 0 0 0 0 0 0 0 0 0 0 0 0 0 0 0 0 0 0 0 0 0 0 0 0 0 0 0 0 0 0 0 0 0 0 0 0 0 0 0 0 0 0 0 0 0 0 0 0 0 0 0 0 28 30 29 28 31 34 30 31 30 29 29 28 28 30 28 29 29 29 28 28 29 30 27 27 28 28 27 28 28 27 26 26 26 25 24 24 24 25 24 24 23 22 23 21 20 23 -193 27 28 -193 29 -193 30 32 30 26 28 30 26 31 -209 26 25 25 24 25 23 23 23 24 24 26 28 31 29 32 36 33 36 36 35 36 35 34 34 31 34 31 30 30 29 29 31 33 32 30 32 33 35 36 34 31 24 27 28 29 27 27 30 31 33 32 33 32 32 35 35 33 34 31 32 33 33 34 34 33 32 30 33 34 33 33 31 30 31 34 36 37 35 38 40 47 43 53 45 43 38 39 35 37 34 34 34 33 33 33 30 34 27 38 38 34 -209 42 -209 -209 -209 -209 -209 -209 -193 0 0 0 -209 -193 -193 -193 -209 -209 -209 -209 -193 -209 40 37 39 38 38 39 38 38 38 38 38 39 39 41 39 40 -193 -193 -193 41 41 42 40 42 43 41 42 41 41 40 37 34 -209 -209 -209 -209 -209 56 59 52 52 53 53 53 54 54 54 54 56 56 56 57 -193 -193 57 58 55 58 60 68 72 70 0 0 0 0 0
    0 0 0 0 0 0 0 0 0 0 0 0 0 0 0 0 0 0 0 0 0 0 0 0 0 0 0 0 0 0 0 0 0 0 0 0 0 0 0 0 0 0 0 0 0 0 0 0 0 0 0 0 0 0 0 0 0 0 0 0 0 0 0 0 0 0 0 0 0 28 30 29 28 30 35 30 32 31 30 29 29 28 31 28 29 28 29 28 -193 29 30 27 27 28 28 27 27 28 27 26 26 26 25 24 25 25 26 -193 24 23 23 -193 21 20 23 -193 -193 -193 -177 -193 690 30 32 31 26 27 -193 -193 -209 -193 24 23 24 23 24 22 23 23 24 24 24 27 29 26 32 38 33 37 35 34 35 35 34 34 31 34 30 29 29 28 28 28 30 28 27 28 29 31 30 28 28 23 26 27 28 27 28 30 32 34 33 34 33 33 36 36 34 34 33 32 33 33 34 34 33 32 31 32 35 33 33 32 31 34 36 38 39 39 39 41 49 45 51 43 -193 38 39 35 37 34 34 34 34 33 34 30 34 27 37 36 -193 -209 -209 -209 -209 -209 -209 -209 -209 -193 -193 0 -193 -209 -193 -193 -209 -209 -209 -209 -209 -209 -209 -193 37 38 38 38 38 38 38 38 38 38 39 38 41 39 40 -193 -177 -193 41 41 42 40 42 43 41 42 42 42 41 38 30 -193 -193 -209 -209 -209 59 64 52 52 54 53 53 54 54 54 54 56 56 56 57 -193 57 57 57 55 58 60 68 73 73 0 0 0 0 0
    0 0 0 0 0 0 0 0 0 0 0 0 0 0 0 0 0 0 0 0 0 0 0 0 0 0 0 0 0 0 0 0 0 0 0 0 0 0 0 0 0 0 0 0 0 0 0 0 0 0 0 0 0 0 0 0 0 0 0 0 0 0 0 0 0 0 0 0 0 29 31 29 28 30 36 31 33 31 31 30 29 29 32 28 29 28 29 28 -193 29 31 26 28 28 28 27 28 28 27 26 25 25 24 24 24 25 26 25 25 24 23 24 22 21 23 -193 -193 -193 -177 -193 -177 30 32 31 26 27 -193 22 -193 -209 24 24 24 24 25 23 23 23 24 23 24 25 26 24 32 38 32 36 35 34 35 35 34 33 31 34 29 29 28 27 26 25 27 -209 22 23 25 27 -193 -193 -193 16 22 25 27 27 28 30 31 33 33 33 33 32 36 35 33 34 33 31 33 33 33 33 32 32 31 31 34 31 32 32 31 35 38 38 40 41 40 41 47 43 45 41 40 37 39 35 37 34 35 35 34 34 34 31 35 27 35 31 11 -209 -209 -209 -209 -209 -209 -209 -209 -209 -209 -193 -193 -193 -209 -209 -209 51 -193 -209 -209 -209 -209 -209 37 39 37 37 38 38 38 38 38 38 39 38 40 39 -193 -193 -177 -177 -193 40 42 40 42 43 41 42 42 43 41 41 -193 -209 -193 -209 -209 -209 60 67 52 52 54 53 53 54 54 54 54 56 56 56 57 57 57 57 57 56 58 59 68 74 75 0 0 0 0 0
    0 0 0 0 0 0 0 0 0 0 0 0 0 0 0 0 0 0 0 0 0 0 0 0 0 0 0 0 0 0 0 0 0 0 0 0 0 0 0 0 0 0 0 0 0 0 0 0 0 0 0 0 0 0 0 0 0 0 0 0 0 0 0 0 0 0 0 0 0 29 30 28 27 28 36 29 32 30 30 29 29 28 32 28 29 28 29 28 -193 29 30 26 28 28 28 26 27 28 27 26 25 25 25 24 25 25 25 25 24 24 24 25 22 22 23 -193 -193 -193 691 -193 689 30 31 31 26 29 -193 23 -209 -209 -209 24 25 25 25 23 23 24 25 24 -193 25 26 25 33 38 32 36 34 34 34 35 34 33 31 33 28 27 26 26 24 24 27 26 25 26 -193 -193 -193 -209 -193 14 22 25 27 27 27 30 29 31 31 31 31 30 35 34 32 33 34 31 33 32 33 32 32 32 31 30 34 31 33 32 32 36 38 39 42 42 43 42 48 43 -193 40 39 36 39 35 37 35 35 35 34 34 35 31 35 28 33 28 14 19 17 12 13 -209 -209 59 55 -209 46 -193 46 50 -193 -193 47 49 53 -209 -209 -209 -209 -209 38 -193 37 37 38 38 37 38 37 38 39 38 40 -193 -177 -177 -177 -177 -193 40 42 40 42 42 41 42 42 43 41 41 -193 -209 -209 -209 -209 -209 60 67 52 52 54 53 53 54 54 54 54 56 56 56 57 57 57 58 59 57 59 61 68 73 74 0 0 0 0 0
    0 0 0 0 0 0 0 0 0 0 0 0 0 0 0 0 0 0 0 0 0 0 0 0 0 0 0 0 0 0 0 0 0 0 0 0 0 0 0 0 0 0 0 0 0 0 0 0 0 0 0 0 0 0 0 0 0 0 0 0 0 0 0 0 0 0 0 0 0 28 28 27 27 27 34 29 31 -177 -177 29 28 28 32 28 29 28 30 29 28 30 30 26 27 28 28 26 27 28 27 27 27 27 26 25 27 26 26 26 25 24 24 25 23 22 23 -193 -193 -193 690 690 689 30 32 31 -193 -193 -193 -209 -193 -209 -209 24 26 24 25 23 23 23 24 23 23 24 -209 25 34 39 32 36 34 33 34 34 33 32 30 33 27 27 26 26 23 24 27 28 27 30 29 31 30 29 -193 21 22 27 28 27 27 29 28 29 29 29 29 28 34 33 31 33 34 32 33 33 33 32 32 32 31 30 35 31 35 34 34 38 40 41 44 44 47 44 46 41 39 39 37 36 38 35 37 35 36 35 34 35 35 31 34 28 32 27 18 22 19 19 17 -193 -209 -209 -209 -209 47 -209 48 50 52 51 48 49 52 -209 -193 -193 -193 -209 -193 -209 37 38 39 38 38 38 38 38 40 38 40 -177 -177 -177 -177 -177 -193 39 41 39 42 42 41 42 42 44 42 41 -193 -209 -209 -209 -209 -209 60 66 52 52 54 53 53 54 54 54 54 56 56 57 57 58 58 59 60 59 60 62 65 73 73 0 0 0 0 0
    0 0 0 0 0 0 0 0 0 0 0 0 0 0 0 0 0 0 0 0 0 0 0 0 0 0 0 0 0 0 0 0 0 0 0 0 0 0 0 0 0 0 0 0 0 0 0 0 0 0 0 0 0 0 0 0 0 0 0 0 0 0 0 0 0 0 0 0 0 27 28 27 26 26 31 27 29 28 28 28 27 27 30 27 29 27 30 29 28 30 31 26 28 29 29 26 27 28 28 28 27 28 27 27 28 27 27 26 25 25 25 26 24 23 23 -193 -193 -193 689 -193 687 30 31 30 27 -193 29 28 -193 -209 30 25 26 24 24 22 22 22 22 21 22 22 -193 25 32 38 31 36 33 32 33 33 32 31 29 32 27 26 26 26 23 26 27 28 27 29 28 30 28 29 -193 -193 22 29 29 29 28 30 29 29 29 29 27 27 34 32 30 33 35 32 34 33 33 32 32 32 32 30 35 31 35 35 36 39 41 42 47 46 51 45 42 40 38 37 36 35 38 35 36 35 36 35 35 35 35 32 34 29 33 28 23 -193 20 20 17 20 -209 -209 -209 -209 48 -193 50 50 51 51 48 49 52 -209 -193 82 85 -193 -193 -193 37 38 39 38 38 38 38 38 39 38 40 -193 -193 -193 -193 -193 40 39 41 39 42 42 41 43 42 44 42 42 -193 -193 -209 -209 -193 -209 62 -209 52 52 54 54 54 54 54 54 55 56 57 57 57 58 59 59 60 60 61 62 63 72 71 0 0 0 0 0
    0 0 0 0 0 0 0 0 0 0 0 0 0 0 0 0 0 0 0 0 0 0 0 0 0 0 0 0 0 0 0 0 0 0 0 0 0 0 0 0 0 0 0 0 0 0 0 0 0 0 0 0 0 0 0 0 0 0 0 0 0 0 0 0 0 0 0 0 0 28 28 27 26 27 30 27 29 -177 -177 28 27 26 30 28 29 27 30 29 28 30 31 26 29 30 29 27 28 28 28 28 28 28 27 27 28 28 28 27 26 26 25 26 -193 23 24 -193 -193 -193 689 688 686 -193 30 29 27 31 28 28 -193 -193 33 26 27 24 24 22 22 22 22 22 23 23 24 26 30 37 30 35 32 32 32 32 31 30 29 31 26 27 26 26 24 28 27 28 28 29 28 29 28 29 24 27 23 31 30 30 30 30 30 31 29 29 28 27 34 31 31 34 36 32 34 33 33 32 33 33 32 29 34 30 35 35 37 39 43 44 51 50 54 48 43 -193 -193 37 35 33 38 35 36 35 36 35 35 35 35 32 34 30 33 27 -193 -209 -209 16 13 -209 -209 54 53 50 49 49 51 51 52 52 51 52 -193 -209 74 79 82 -193 -193 -209 37 38 39 38 38 38 38 38 39 38 40 -193 -193 40 39 -193 40 39 41 39 42 42 41 43 42 43 41 41 -193 -209 -209 -209 -209 -209 67 -209 52 52 54 54 54 54 54 54 55 57 57 57 57 58 59 59 61 60 61 62 61 69 67 0 0 0 0 0
    0 0 0 0 0 0 0 0 0 0 0 0 0 0 0 0 0 0 0 0 0 0 0 0 0 0 0 0 0 0 0 0 0 0 0 0 0 0 0 0 0 0 0 0 0 0 0 0 0 0 0 0 0 0 0 0 0 0 0 0 0 0 0 0 0 0 0 0 0 28 28 27 26 28 29 27 29 -177 -177 27 27 26 29 28 29 27 30 29 29 30 31 26 28 30 29 27 28 29 28 29 28 29 27 28 28 28 28 28 26 27 25 27 -193 24 24 -193 -193 -193 688 688 685 -193 29 28 27 30 28 27 38 -193 35 29 33 24 25 23 24 23 24 23 25 25 26 27 30 37 30 35 31 31 31 32 31 30 28 31 26 27 26 26 25 30 28 29 28 29 29 29 29 29 25 28 25 31 30 30 30 30 29 29 28 28 26 25 32 29 29 32 37 32 34 33 33 31 33 33 32 28 34 30 35 36 38 41 44 45 53 52 54 -209 -209 -209 -193 37 34 33 38 35 35 35 36 35 35 35 35 32 33 31 34 27 -193 -209 -209 13 -209 -193 -209 -209 54 53 52 52 53 53 55 56 56 -193 61 -209 -209 79 83 -193 -193 -209 36 37 39 38 38 38 37 37 39 38 40 -193 39 40 39 -193 40 39 41 39 41 42 41 42 41 42 38 36 -193 -193 -209 -209 -209 77 -193 83 52 52 54 54 54 55 55 55 55 57 57 57 57 59 59 60 61 60 62 62 61 65 60 0 0 0 0 0
    0 0 0 0 0 0 0 0 0 0 0 0 0 0 0 0 0 0 0 0 0 0 0 0 0 0 0 0 0 0 0 0 0 0 0 0 0 0 0 0 0 0 0 0 0 0 0 0 0 0 0 0 0 0 0 0 0 0 0 0 0 0 0 0 0 0 0 0 0 27 28 27 26 29 29 27 29 28 -177 27 27 26 29 28 29 27 30 29 28 30 30 26 28 30 29 27 28 28 28 29 27 29 27 29 29 29 29 28 27 27 26 28 26 25 25 -193 -193 -193 -177 687 685 -193 29 28 27 30 28 26 32 -193 -209 -209 -209 -193 26 23 25 24 25 24 26 26 -193 27 31 37 30 35 31 31 31 32 31 30 28 31 26 27 27 27 25 32 28 30 29 30 29 29 29 29 25 27 24 31 30 30 30 29 29 28 27 27 24 23 27 26 27 30 37 33 34 34 34 32 34 34 33 28 34 30 34 36 38 41 43 45 53 52 53 51 48 -209 -193 38 35 33 38 36 35 35 36 35 35 35 35 32 32 33 34 27 30 -209 -209 -209 -209 -193 -193 -193 56 -193 -193 57 56 58 59 61 61 -193 -193 -209 -193 79 -193 -193 -209 -193 37 37 39 38 38 38 37 37 39 38 40 -193 39 40 39 -193 40 39 41 39 41 41 40 42 41 41 35 -209 -193 659 -209 -193 -209 -209 66 -209 53 53 54 55 54 55 55 55 55 57 57 58 57 59 59 60 60 61 63 63 62 65 60 0 0 0 0 0
    0 0 0 0 0 0 0 0 0 0 0 0 0 0 0 0 0 0 0 0 0 0 0 0 0 0 0 0 0 0 0 0 0 0 0 0 0 0 0 0 0 0 0 0 0 0 0 0 0 0 0 0 0 0 0 0 0 0 0 0 0 0 0 0 0 0 0 0 0 28 27 27 26 29 28 27 29 28 28 27 27 26 29 28 29 28 30 29 29 30 30 27 28 30 28 27 28 28 28 29 27 29 27 29 29 29 29 28 27 28 26 29 26 26 27 -193 -193 -193 -193 -193 685 -193 29 27 28 30 27 25 25 -193 -209 -209 -209 -209 -209 22 -193 24 26 25 26 26 27 27 32 38 31 36 32 31 32 32 31 30 28 31 26 27 27 27 25 33 28 30 29 30 29 29 29 29 25 27 24 31 31 30 29 28 28 27 26 26 23 22 25 25 26 30 38 34 35 35 35 33 35 35 34 28 34 30 34 36 38 42 44 46 53 50 51 -193 45 -193 39 38 35 34 38 36 35 35 36 34 34 35 35 32 31 33 34 26 31 -209 -209 -209 -209 -193 -193 -193 57 58 58 58 58 59 60 63 63 -209 -209 -209 -209 -193 -193 -193 -193 -193 37 37 39 38 38 38 38 38 40 39 40 38 39 40 40 -193 40 39 41 38 41 41 40 42 40 40 36 40 -209 -193 -209 -209 -193 -193 57 56 53 53 54 55 55 55 55 55 55 57 58 58 57 59 59 60 60 61 63 63 64 66 63 0 0 0 0 0
    0 0 0 0 0 0 0 0 0 0 0 0 0 0 0 0 0 0 0 0 0 0 0 0 0 0 0 0 0 0 0 0 0 0 0 0 0 0 0 0 0 0 0 0 0 0 0 0 0 0 0 0 0 0 0 0 0 0 0 0 0 0 0 0 0 0 0 0 0 28 27 27 25 29 27 26 28 27 27 26 26 26 28 28 29 27 29 28 29 29 30 28 29 31 29 28 29 29 29 29 27 29 26 29 28 28 28 28 27 28 27 29 26 26 -193 -193 -193 -177 687 687 -193 -193 29 27 28 31 27 25 26 -193 -209 40 -193 -193 35 -209 27 -193 -193 24 25 -193 -209 27 31 37 31 35 31 31 31 32 31 30 28 30 25 26 27 27 25 34 29 31 30 30 30 30 30 30 25 28 25 32 31 30 29 28 28 27 26 26 23 22 24 25 26 31 38 35 36 36 36 34 37 37 35 29 34 30 34 34 37 43 44 45 53 -193 -193 -209 -209 -209 -193 39 35 35 39 36 34 34 36 34 34 34 34 31 30 34 34 26 33 -209 -209 -193 -193 -193 -193 53 56 57 58 57 58 59 60 62 62 -209 -209 -209 -209 -193 -209 -193 194 -193 38 38 39 38 38 38 38 38 40 39 41 39 40 40 40 -193 41 39 41 38 41 41 40 42 40 40 37 41 45 54 57 54 57 56 57 56 54 54 54 55 55 55 55 55 55 57 58 58 57 58 58 60 60 60 63 63 63 64 62 0 0 0 0 0
    0 0 0 0 0 0 0 0 0 0 0 0 0 0 0 0 0 0 0 0 0 0 0 0 0 0 0 0 0 0 0 0 0 0 0 0 0 0 0 0 0 0 0 0 0 0 0 0 0 0 0 0 0 0 0 0 0 0 0 0 0 0 0 0 0 0 0 0 0 28 27 27 25 30 27 26 28 -177 27 26 26 26 28 28 29 28 30 29 29 30 29 28 29 31 29 29 29 29 29 29 27 29 26 29 28 29 28 28 28 29 27 29 26 26 -193 -177 -177 687 686 687 -193 29 29 26 28 30 27 25 26 26 30 36 39 38 36 -209 31 -193 27 -193 25 25 27 27 30 36 30 35 31 31 31 31 31 30 28 30 25 25 26 26 25 33 29 31 30 30 30 30 30 30 25 27 25 31 30 29 28 27 28 27 26 26 22 21 24 25 26 31 38 36 37 37 36 35 38 38 37 29 35 31 34 33 37 45 -193 43 52 -209 -209 -209 -209 -209 -209 39 36 36 39 36 34 34 35 33 33 34 34 31 30 34 34 26 34 -209 -209 50 53 51 53 53 55 56 57 56 58 -193 59 61 62 -209 -209 -209 -209 -209 -209 -193 -193 -209 38 38 39 39 38 38 38 39 40 40 41 39 40 41 40 -193 41 40 41 39 41 41 40 42 40 40 37 42 48 54 56 56 58 56 56 56 54 54 54 55 55 55 55 56 55 57 57 58 57 58 58 59 59 60 64 63 63 62 59 0 0 0 0 0
    0 0 0 0 0 0 0 0 0 0 0 0 0 0 0 0 0 0 0 0 0 0 0 0 0 0 0 0 0 0 0 0 0 0 0 0 0 0 0 0 0 0 0 0 0 0 0 0 0 0 0 0 0 0 0 0 0 0 0 0 0 0 0 0 0 0 0 0 0 28 27 27 25 31 27 27 28 27 27 27 27 28 28 29 29 28 30 29 29 30 29 28 29 31 29 29 29 29 29 29 27 29 26 29 28 29 29 29 29 30 -193 29 26 26 -193 -177 -177 -177 686 686 -193 29 29 26 28 30 26 25 25 25 27 31 36 33 35 -209 33 -193 29 -209 -193 26 28 27 30 36 30 35 31 31 31 31 30 30 27 29 24 24 25 25 24 31 28 30 30 30 30 30 30 29 25 25 25 30 29 29 28 27 28 27 27 26 22 22 24 24 25 31 38 36 37 37 37 36 39 39 38 29 35 30 33 -193 38 48 -209 42 -209 -209 -209 -209 -209 -209 -209 -193 37 37 40 37 34 33 35 33 33 33 33 30 29 34 34 26 34 -209 -209 51 55 50 49 51 53 54 54 54 57 -193 59 -209 -209 -209 -209 -209 -209 -209 -193 -193 -209 -193 37 37 39 38 38 38 38 39 40 40 42 39 40 41 40 41 41 41 41 39 41 42 41 42 40 40 38 42 50 54 56 57 59 56 56 56 55 54 54 55 55 55 55 56 55 56 57 57 56 57 57 58 58 59 63 61 61 59 57 0 0 0 0 0
    0 0 0 0 0 0 0 0 0 0 0 0 0 0 0 0 0 0 0 0 0 0 0 0 0 0 0 0 0 0 0 0 0 0 0 0 0 0 0 0 0 0 0 0 0 0 0 0 0 0 0 0 0 0 0 0 0 0 0 0 0 0 0 0 0 0 0 0 0 28 27 27 25 32 28 28 29 28 28 27 28 29 28 29 29 28 29 28 29 29 28 28 28 31 29 28 29 29 29 29 27 29 26 29 29 29 29 29 30 31 28 29 26 27 -193 -177 -177 -177 -193 -177 -193 29 29 25 28 29 25 24 25 25 28 31 35 33 35 -193 35 -209 -193 -209 -193 -193 29 27 30 36 30 35 31 31 31 31 31 30 27 28 23 23 24 24 24 30 28 29 29 29 30 30 29 28 25 25 25 29 30 29 29 28 29 28 28 27 23 22 24 24 25 31 38 37 38 38 37 36 40 40 40 30 34 27 -193 -193 -209 -209 -209 -209 -209 -209 -209 -209 -209 -209 -209 40 38 38 40 37 34 33 35 33 33 33 33 30 29 33 34 26 32 -209 -209 51 56 -193 47 -193 51 53 52 53 57 -193 -209 -209 -209 -209 219 -209 -193 -209 -209 -209 -209 93 36 37 39 38 38 38 39 39 40 40 42 40 41 41 41 42 41 41 41 40 42 42 42 43 41 42 41 44 52 55 57 58 59 55 56 56 55 54 54 55 55 55 55 56 55 56 57 57 56 56 56 57 57 58 62 59 63 61 60 0 0 0 0 0
    0 0 0 0 0 0 0 0 0 0 0 0 0 0 0 0 0 0 0 0 0 0 0 0 0 0 0 0 0 0 0 0 0 0 0 0 0 0 0 0 0 0 0 0 0 0 0 0 0 0 0 0 0 0 0 0 0 0 0 0 0 0 0 0 0 0 0 0 0 27 26 27 25 31 28 28 29 28 28 27 27 29 28 29 29 28 29 28 29 29 27 28 28 30 28 28 29 28 29 28 27 28 26 29 28 29 29 29 30 31 28 29 26 26 -193 -177 -177 -177 686 687 -193 30 29 25 27 28 24 23 24 25 28 30 33 33 36 -193 -209 -209 -209 -209 28 -193 29 28 31 37 31 36 32 32 32 32 31 30 27 28 23 23 24 23 24 29 28 29 29 30 30 30 29 28 24 24 25 29 29 29 29 29 29 29 29 27 23 22 25 25 25 31 -193 38 39 38 38 37 41 42 41 30 33 26 -193 -193 -193 -209 -209 -209 12 15 -209 -209 -193 -209 -193 40 38 38 40 37 33 33 34 33 33 33 33 30 28 33 33 26 29 -209 -209 -209 -193 -193 48 -209 50 53 52 52 -209 -209 -209 -209 -209 -209 -209 195 197 -209 -209 -209 -193 94 36 37 39 38 38 38 39 39 40 41 42 40 41 41 41 42 41 41 42 40 42 43 42 43 42 44 42 45 53 56 57 57 58 55 55 55 55 54 54 55 55 55 55 56 55 56 57 57 55 56 55 57 56 58 62 59 68 -209 69 0 0 0 0 0
    0 0 0 0 0 0 0 0 0 0 0 0 0 0 0 0 0 0 0 0 0 0 0 0 0 0 0 0 0 0 0 0 0 0 0 0 0 0 0 0 0 0 0 0 0 0 0 0 0 0 0 0 0 0 0 0 0 0 0 0 0 0 0 0 0 0 0 0 0 27 26 26 24 29 27 27 28 27 27 27 27 29 28 29 29 28 28 28 29 29 26 27 27 29 28 28 28 28 28 28 26 28 25 28 28 29 28 28 30 31 28 29 26 26 -193 -193 685 688 -193 -193 29 31 31 26 29 30 25 24 25 26 29 30 33 33 36 37 -209 -209 -209 -209 -209 -209 -209 -209 32 39 33 37 33 33 33 33 32 31 27 28 23 23 23 23 24 29 28 30 30 30 30 30 29 28 24 23 25 29 29 29 29 29 30 29 30 28 22 23 26 26 26 33 -193 39 39 39 39 38 42 43 43 31 32 26 28 -193 -193 -209 -209 -209 -193 11 -209 -209 43 -209 -193 40 38 38 40 37 33 33 34 33 33 33 33 30 28 33 33 25 28 21 -209 -209 -193 -193 52 -209 54 54 -193 -177 -193 -209 -209 -209 -209 -193 -193 194 197 -209 -209 -209 -193 -193 36 37 39 38 38 38 39 39 40 41 42 40 40 41 40 41 41 41 42 40 42 43 43 44 43 45 43 46 53 55 55 56 57 54 54 55 54 53 54 55 54 54 55 56 55 56 57 57 55 56 55 57 57 58 63 64 72 78 80 0 0 0 0 0
    0 0 0 0 0 0 0 0 0 0 0 0 0 0 0 0 0 0 0 0 0 0 0 0 0 0 0 0 0 0 0 0 0 0 0 0 0 0 0 0 0 0 0 0 0 0 0 0 0 0 0 0 0 0 0 0 0 0 0 0 0 0 0 0 0 0 0 0 0 26 25 25 23 25 25 25 26 26 26 26 26 29 28 29 29 28 29 28 29 29 26 28 28 29 28 28 28 28 28 28 26 28 25 28 27 28 27 28 30 31 29 29 26 26 -193 -193 -193 -193 -193 -193 30 32 32 26 30 31 26 26 26 28 29 31 33 33 36 36 -193 -193 -209 -209 -209 -209 -209 -209 -193 -193 35 38 34 34 34 34 33 32 27 28 22 22 23 22 24 29 28 30 30 30 30 30 29 27 22 22 25 28 28 29 29 29 30 31 32 28 22 23 28 27 28 34 -193 40 40 39 39 39 42 44 44 32 32 26 28 -193 -193 -209 -209 -209 -193 -209 -209 -209 43 -209 -193 39 38 38 40 37 33 33 35 33 33 33 33 30 28 33 33 26 29 -209 14 -209 -193 -209 -193 52 -193 50 -193 -177 -193 -209 -209 -209 -209 198 197 194 198 -209 -209 -193 37 39 36 37 39 38 38 39 39 39 40 41 42 40 40 41 40 41 41 42 42 41 43 44 43 45 44 46 44 46 51 53 53 54 56 53 53 54 54 53 54 -193 54 54 55 56 55 56 57 57 56 56 56 58 57 58 64 68 74 77 82 0 0 0 0 0
    0 0 0 0 0 0 0 0 0 0 0 0 0 0 0 0 0 0 0 0 0 0 0 0 0 0 0 0 0 0 0 0 0 0 0 0 0 0 0 0 0 0 0 0 0 0 0 0 0 0 0 0 0 0 0 0 0 0 0 0 0 0 0 0 0 0 0 0 0 26 24 23 23 23 23 24 25 25 25 25 25 28 27 29 29 28 29 29 30 30 26 29 28 29 28 29 28 28 28 28 26 27 25 27 27 28 26 27 30 32 30 29 26 26 -193 -193 -193 -193 -193 29 30 32 32 26 29 30 26 27 26 27 29 30 32 33 35 35 35 -209 -209 -209 -209 -209 -209 -209 -193 43 37 39 35 35 35 35 35 33 27 28 22 22 22 21 23 27 27 29 29 30 30 30 29 27 22 22 26 29 -193 30 30 30 32 33 35 30 23 24 30 27 28 34 39 38 39 38 38 37 41 43 42 33 33 26 -193 -193 -193 -209 -209 -209 -209 -209 -209 -209 43 -209 39 37 38 38 40 37 33 33 35 33 33 33 33 30 28 33 33 26 30 26 -193 -193 -193 -209 -193 -193 38 -193 38 45 40 -209 -209 -209 -209 -193 -209 -193 -209 -209 34 34 36 38 35 37 39 38 38 39 39 39 40 41 42 40 40 41 40 41 41 42 42 41 43 45 44 46 45 47 45 46 49 51 50 52 55 51 51 54 54 53 53 -193 -193 54 55 56 55 56 58 58 57 57 57 58 57 59 65 69 75 76 82 0 0 0 0 0
    0 0 0 0 0 0 0 0 0 0 0 0 0 0 0 0 0 0 0 0 0 0 0 0 0 0 0 0 0 0 0 0 0 0 0 0 0 0 0 0 0 0 0 0 0 0 0 0 0 0 0 0 0 0 0 0 0 0 0 0 0 0 0 0 0 0 0 0 0 25 22 23 24 23 24 24 24 24 25 24 24 28 27 28 29 28 28 28 30 30 26 29 28 28 28 30 28 28 28 28 27 27 26 27 26 28 26 27 30 32 30 -193 26 26 -193 -193 -193 -193 -193 29 30 31 32 26 29 29 26 26 26 27 29 30 32 33 33 34 35 -193 -193 -209 -209 -209 -209 -209 -209 44 39 41 36 37 37 36 36 35 28 28 22 22 21 20 23 26 27 29 29 29 29 30 29 27 23 22 26 29 -193 30 30 31 33 33 36 32 -209 25 32 28 28 34 37 37 38 37 37 35 40 41 41 33 33 26 -193 -193 -193 -209 -209 -209 -209 -209 -209 -209 45 -209 -193 37 38 39 39 37 33 33 35 33 33 33 32 30 28 33 33 26 30 29 -193 -193 -193 -209 36 -193 37 37 36 41 36 39 -209 -209 -209 -209 -209 -209 -193 26 33 34 35 36 35 37 38 38 38 38 39 39 39 40 42 39 40 41 40 41 41 42 42 41 43 45 45 46 46 47 45 46 48 50 48 50 54 49 50 53 54 52 53 54 54 53 55 56 55 55 57 57 56 57 57 58 57 58 63 68 75 75 81 0 0 0 0 0
    0 0 0 0 0 0 0 0 0 0 0 0 0 0 0 0 0 0 0 0 0 0 0 0 0 0 0 0 0 0 0 0 0 0 0 0 0 0 0 0 0 0 0 0 0 0 0 0 0 0 0 0 0 0 0 0 0 0 0 0 0 0 0 0 0 0 0 0 0 -209 22 23 27 25 25 26 25 25 26 25 25 28 27 28 29 28 29 29 30 31 26 28 28 26 27 30 27 27 27 27 26 27 26 28 27 30 28 30 32 37 -193 -209 25 25 35 30 29 30 29 29 30 32 32 26 30 30 27 30 29 29 30 30 -193 -193 -193 35 -193 -209 -209 -209 -209 -209 -209 -193 -193 45 41 41 38 38 38 37 37 36 29 28 23 23 22 21 23 26 27 28 29 28 29 30 28 27 23 22 26 28 -193 30 30 31 33 34 36 35 -193 29 33 28 28 34 36 36 37 36 36 34 39 40 39 33 33 26 28 -193 -193 -209 -209 -209 -209 -209 -209 -209 -209 -209 35 32 35 38 38 37 33 33 35 33 33 33 32 31 28 33 33 26 29 26 -209 -209 -193 -193 -193 -209 -209 -193 -193 38 31 35 30 -209 -209 -209 -209 -209 28 28 34 34 34 35 35 37 38 37 38 38 39 39 39 40 42 39 40 40 40 41 41 42 42 41 43 46 45 46 46 47 45 45 46 48 47 48 53 47 49 53 54 52 53 54 53 53 55 55 55 55 57 57 56 57 57 58 58 58 62 68 74 74 81 0 0 0 0 0
    0 0 0 0 0 0 0 0 0 0 0 0 0 0 0 0 0 0 0 0 0 0 0 0 0 0 0 0 0 0 0 0 0 0 0 0 0 0 0 0 0 0 0 0 0 0 0 0 0 0 0 0 0 0 0 0 0 0 0 0 0 0 0 0 0 0 0 0 0 -209 23 24 29 25 25 26 26 26 -193 -193 25 28 27 28 29 28 28 28 30 31 26 28 28 25 26 32 27 26 25 -209 27 27 28 32 30 -193 -193 -193 -209 -209 -209 -209 -193 26 36 30 30 -193 29 28 29 31 31 26 29 30 29 37 36 -193 33 -193 -193 -193 -193 34 -193 -193 -209 -209 -209 -209 -209 -193 -209 47 42 42 39 39 39 38 38 38 31 29 25 25 25 23 25 27 28 29 30 29 30 30 29 27 23 23 27 29 -193 31 31 33 35 36 38 37 42 37 35 29 29 35 35 35 36 35 35 33 38 39 34 33 32 26 28 29 34 35 -209 -209 -209 -209 -209 -209 -209 -209 -193 28 29 37 36 36 33 32 35 33 33 33 32 31 28 33 32 26 28 24 21 -209 -209 -209 -193 -209 -193 -193 -193 38 34 34 32 -193 -193 -209 -209 29 31 30 35 35 34 34 35 37 37 37 37 38 39 39 39 40 41 39 39 40 40 40 41 42 42 41 43 46 45 46 46 47 44 44 45 47 45 46 52 46 48 53 53 52 53 54 53 53 55 55 55 55 57 57 56 57 57 58 57 58 60 69 74 74 81 0 0 0 0 0
    0 0 0 0 0 0 0 0 0 0 0 0 0 0 0 0 0 0 0 0 0 0 0 0 0 0 0 0 0 0 0 0 0 0 0 0 0 0 0 0 0 0 0 0 0 0 0 0 0 0 0 0 0 0 0 0 0 0 0 0 0 0 0 0 0 0 0 0 0 -209 24 24 31 25 25 27 27 26 26 -193 25 28 28 29 29 29 29 29 30 32 26 30 30 -193 -193 37 -209 -209 -209 -209 28 27 27 31 30 30 -193 -193 -193 -209 -209 -209 -209 -193 36 29 30 -193 -193 -193 28 30 30 25 28 28 30 38 38 38 35 33 -193 37 34 32 -193 -193 -193 -209 -209 -209 -193 -193 -209 48 43 44 41 41 41 40 40 39 34 30 27 28 28 26 28 29 30 30 32 30 31 31 30 28 25 24 29 30 30 34 33 34 36 38 40 39 43 39 36 31 30 35 35 35 35 34 35 33 37 38 30 33 32 26 28 30 33 34 -193 -209 -209 -209 -209 -209 -209 -193 27 27 27 36 34 36 32 32 35 33 33 33 31 31 28 32 32 26 27 24 23 27 30 -209 29 -209 -193 32 -193 39 37 36 36 35 36 -193 37 36 34 34 37 36 35 34 36 37 37 37 37 38 39 39 39 39 41 39 39 40 39 40 41 42 42 41 43 45 44 46 46 46 44 44 44 45 44 44 49 45 46 53 53 52 53 54 53 53 55 55 54 54 57 56 56 56 57 57 57 58 60 70 75 74 81 0 0 0 0 0
    0 0 0 0 0 0 0 0 0 0 0 0 0 0 0 0 0 0 0 0 0 0 0 0 0 0 0 0 0 0 0 0 0 0 0 0 0 0 0 0 0 0 0 0 0 0 0 0 0 0 0 0 0 0 0 0 0 0 0 0 0 0 0 0 0 0 0 0 0 -193 25 25 34 25 25 28 27 27 27 -193 26 28 29 30 29 30 29 29 30 32 27 31 31 26 -193 37 -209 23 23 -209 25 25 26 28 -209 28 -193 -193 -193 -209 37 -209 -209 -193 -193 -193 -193 -177 -177 -193 27 29 29 25 27 27 30 39 40 40 36 31 35 37 31 31 -193 31 32 35 -193 -209 -209 -193 -209 50 44 45 42 41 41 41 41 40 35 31 28 30 31 29 30 31 32 31 33 32 32 31 32 30 25 25 29 29 29 34 32 33 36 39 40 39 43 41 37 31 29 35 33 33 34 33 34 32 36 36 28 32 32 27 28 30 32 32 32 29 28 29 30 29 -209 27 27 26 27 36 33 36 32 32 35 33 33 33 31 32 28 33 32 26 27 25 -193 31 33 -209 30 -193 -209 36 -193 39 38 36 37 37 37 38 38 37 36 36 38 37 35 35 36 37 37 37 37 37 38 39 39 39 41 39 39 40 39 40 40 42 42 41 43 45 44 46 46 46 43 43 43 43 42 43 47 44 46 53 53 52 53 53 53 53 54 54 54 54 56 56 56 57 57 57 57 58 60 71 75 74 81 0 0 0 0 0
    0 0 0 0 0 0 0 0 0 0 0 0 0 0 0 0 0 0 0 0 0 0 0 0 0 0 0 0 0 0 0 0 0 0 0 0 0 0 0 0 0 0 0 0 0 0 0 0 0 0 0 0 0 0 0 0 0 0 0 0 0 0 0 0 0 0 0 0 0 31 28 27 36 27 27 29 28 28 28 28 27 29 29 30 30 30 30 30 31 33 27 31 31 26 -193 37 -209 -209 -193 -209 25 25 26 28 -209 -209 -193 -193 -209 -193 37 -209 -209 -193 -193 -193 -193 -177 -177 -177 27 28 28 25 27 -209 -193 41 41 41 36 29 33 36 29 30 28 -193 31 -193 -209 -209 -209 -193 -193 50 45 45 42 42 41 41 41 40 35 32 29 31 33 30 32 32 33 32 34 32 33 31 32 31 27 27 32 31 30 35 33 34 36 39 40 39 43 41 37 29 27 34 31 31 32 31 32 30 34 35 27 33 32 27 27 31 32 31 31 29 28 28 29 28 28 27 27 26 27 37 33 36 32 32 35 33 33 33 31 32 29 34 33 27 32 32 -193 -193 -193 -193 33 -209 -209 35 -193 37 37 35 37 36 37 37 37 36 36 36 39 37 36 35 36 38 37 37 37 37 38 39 39 39 40 39 39 40 39 40 40 42 42 41 42 45 44 46 45 45 43 43 42 43 42 42 46 43 46 53 53 52 53 53 53 53 54 54 54 54 56 55 56 56 57 57 57 57 60 71 74 73 79 0 0 0 0 0
    0 0 0 0 0 0 0 0 0 0 0 0 0 0 0 0 0 0 0 0 0 0 0 0 0 0 0 0 0 0 0 0 0 0 0 0 0 0 0 0 0 0 0 0 0 0 0 0 0 0 0 0 0 0 0 0 0 0 0 0 0 0 0 0 0 0 0 0 0 32 28 28 36 28 28 31 29 29 29 28 27 29 30 30 29 30 30 30 31 33 27 32 32 26 28 39 -209 -209 -193 -209 -209 23 25 -193 -209 -193 -209 -209 -209 -209 -193 -209 -209 -177 -177 -177 -177 -177 -177 -177 26 27 26 -193 26 -209 -209 42 43 43 -209 27 30 -209 -193 31 29 -193 -193 36 38 40 -193 43 43 50 45 45 42 41 41 40 40 39 35 33 29 32 34 31 33 33 34 32 34 32 33 31 32 32 28 28 31 30 30 33 32 33 36 39 40 38 42 41 36 -193 25 33 29 30 30 29 30 29 32 34 26 33 32 26 26 30 31 30 30 30 29 28 29 28 28 28 27 27 28 38 32 36 33 32 35 34 34 34 31 34 29 35 35 29 38 40 43 44 42 40 38 -209 -209 34 -209 34 36 34 36 36 36 37 37 36 36 36 38 37 36 35 36 37 37 36 36 36 37 39 39 39 40 39 39 40 40 40 40 42 42 41 42 45 44 46 45 45 43 43 42 43 43 43 46 44 46 53 54 52 53 53 53 53 54 54 54 54 55 55 55 56 56 57 57 57 60 71 73 72 77 0 0 0 0 0
    0 0 0 0 0 0 0 0 0 0 0 0 0 0 0 0 0 0 0 0 0 0 0 0 0 0 0 0 0 0 0 0 0 0 0 0 0 0 0 0 0 0 0 0 0 0 0 0 0 0 0 0 0 0 0 0 0 0 0 0 0 0 0 0 0 0 0 0 0 31 28 28 35 28 28 31 29 29 29 28 28 30 30 30 29 30 30 29 31 33 27 32 32 26 -209 -209 -209 15 -193 -209 22 -193 -193 -209 -209 30 -193 32 -209 -209 37 -209 -177 -177 -177 -177 -177 -177 -177 -177 -193 -193 -193 -193 -193 -209 -209 -209 -209 -209 -209 27 31 -193 29 31 30 30 33 35 37 39 39 42 42 49 44 44 41 41 41 40 40 39 35 33 30 33 34 32 33 33 34 32 34 32 33 31 32 33 31 31 33 31 31 32 32 33 35 39 40 37 41 -209 -193 -193 24 32 28 28 28 28 29 28 30 32 26 31 31 25 25 28 28 29 29 29 28 28 29 28 28 27 27 27 27 38 32 36 32 32 35 33 33 33 31 34 30 35 35 31 41 42 44 46 46 48 42 -209 -209 30 -209 32 36 33 36 36 36 37 37 36 36 36 38 37 36 35 36 37 36 36 36 36 37 39 39 39 40 39 39 40 40 40 40 42 42 41 42 44 44 45 45 44 42 43 43 44 43 44 45 44 46 53 54 52 53 54 53 53 54 54 54 53 55 55 54 55 55 54 56 54 57 -225 -225 70 73 0 0 0 0 0
    0 0 0 0 0 0 0 0 0 0 0 0 0 0 0 0 0 0 0 0 0 0 0 0 0 0 0 0 0 0 0 0 0 0 0 0 0 0 0 0 0 0 0 0 0 0 0 0 0 0 0 0 0 0 0 0 0 0 0 0 0 0 0 0 0 0 0 0 0 29 27 27 33 27 27 31 29 29 30 29 28 31 31 31 30 31 30 -193 31 33 27 31 31 25 21 -193 17 16 19 19 20 20 -193 -209 -209 31 36 32 -193 -209 37 -209 -193 -177 -177 -177 -177 -177 -177 -177 546 -177 -193 -193 -193 -209 -209 -193 50 54 -209 29 33 33 30 31 31 31 34 34 36 36 37 39 40 45 42 43 40 40 40 39 39 38 35 33 30 34 35 33 34 34 34 32 34 33 33 32 32 33 32 32 33 31 31 30 30 31 32 32 30 30 35 -209 -193 -193 23 32 28 28 28 28 28 28 30 32 26 30 30 26 27 28 28 29 29 29 29 28 29 28 28 27 27 27 27 37 32 35 32 32 35 33 34 34 31 34 30 36 37 34 42 44 46 51 52 55 49 -209 -193 -209 -209 30 35 33 36 36 37 37 37 36 36 37 39 38 36 35 36 37 37 36 36 35 37 39 39 39 40 39 39 40 39 40 40 42 42 41 42 44 44 46 45 44 42 44 44 44 44 44 44 44 46 53 54 52 53 54 53 54 54 54 54 53 55 54 54 54 53 52 54 49 50 -225 -225 -225 68 0 0 0 0 0
    0 0 0 0 0 0 0 0 0 0 0 0 0 0 0 0 0 0 0 0 0 0 0 0 0 0 0 0 0 0 0 0 0 0 0 0 0 0 0 0 0 0 0 0 0 0 0 0 0 0 0 0 0 0 0 0 0 0 0 0 0 0 0 0 0 0 0 0 0 28 27 27 29 26 26 -177 28 28 30 29 28 31 31 31 30 31 31 -193 31 32 26 30 30 24 20 21 19 20 21 23 21 21 23 -209 -209 30 -193 31 -193 -209 -193 -209 -193 -177 -177 -177 693 691 691 -193 545 -177 -193 -193 -193 -209 -209 46 50 53 -209 36 -193 -209 -193 31 30 29 32 32 34 33 35 37 39 41 41 41 38 38 38 37 37 36 34 33 30 34 35 34 34 34 34 33 34 34 34 33 33 33 33 32 35 32 33 31 32 32 33 31 31 29 33 30 34 22 23 32 28 29 29 28 29 29 31 33 27 32 30 28 30 29 29 29 29 30 30 28 29 28 28 27 27 27 27 37 31 35 32 31 35 33 34 34 31 35 31 37 39 37 43 45 47 50 53 55 50 48 0 -209 -209 31 35 33 37 36 37 37 38 37 37 38 40 38 36 35 36 37 37 36 36 36 37 40 39 39 40 39 39 40 39 40 40 42 41 41 42 44 44 47 46 45 44 46 46 46 45 45 43 44 47 54 55 52 54 54 53 54 55 54 54 53 55 54 54 54 53 51 53 48 50 -225 -225 -225 58 0 0 0 0 0
    0 0 0 0 0 0 0 0 0 0 0 0 0 0 0 0 0 0 0 0 0 0 0 0 0 0 0 0 0 0 0 0 0 0 0 0 0 0 0 0 0 0 0 0 0 0 0 0 0 0 0 0 0 0 0 0 0 0 0 0 0 0 0 0 0 0 0 0 0 28 27 27 25 -177 -177 -177 27 27 28 27 27 31 31 31 30 31 31 -193 31 32 26 30 29 24 19 21 19 21 22 25 23 22 24 -193 -193 -193 -193 30 30 -193 35 -209 -193 -177 690 690 692 690 691 -193 -177 -177 -193 -193 -193 -209 -209 49 50 -209 -209 -193 -209 -209 -193 29 29 -193 30 31 31 30 32 35 38 39 39 40 37 38 38 37 37 35 34 33 29 34 35 35 35 36 35 34 35 35 35 34 33 34 33 33 36 32 33 31 32 32 33 30 31 27 30 26 31 21 23 32 28 29 29 29 30 30 33 34 29 36 34 31 35 33 31 29 30 31 31 29 31 29 29 28 28 28 29 37 32 35 32 31 35 34 34 35 32 36 34 39 41 40 45 48 48 49 52 53 49 46 -209 -193 -193 29 35 33 37 37 37 38 38 37 38 39 42 39 38 36 37 38 38 37 37 36 38 40 40 40 41 39 39 40 39 40 40 42 42 41 43 46 46 49 48 48 46 49 51 49 49 49 43 44 46 53 55 52 53 54 53 54 54 54 54 53 55 54 53 54 53 50 53 49 51 -225 -225 -225 55 0 0 0 0 0
    0 0 0 0 0 0 0 0 0 0 0 0 0 0 0 0 0 0 0 0 0 0 0 0 0 0 0 0 0 0 0 0 0 0 0 0 0 0 0 0 0 0 0 0 0 0 0 0 0 0 0 0 0 0 0 0 0 0 0 0 0 0 0 0 0 0 0 0 0 28 27 29 26 25 24 27 26 26 28 27 26 31 31 31 30 31 31 29 32 32 26 29 29 25 21 21 19 21 23 25 23 21 23 26 24 29 -193 -193 -193 -193 33 -209 -209 -193 -177 -177 693 691 -193 -177 -177 -177 -193 -193 -193 -209 -209 -209 -209 -209 -209 -209 -209 -193 -193 28 28 -193 29 30 31 30 32 34 38 38 38 39 36 36 36 35 35 34 34 33 29 35 36 35 36 36 35 34 35 35 35 34 34 34 33 33 36 32 33 30 31 31 32 29 29 26 29 25 33 22 23 32 28 30 30 30 31 31 33 35 31 36 35 33 35 33 30 29 29 30 31 30 33 31 30 29 30 30 32 38 33 36 33 33 36 35 36 37 35 39 38 42 45 43 47 50 48 50 51 52 50 45 -193 27 -193 30 34 33 37 37 38 38 39 38 39 41 43 40 39 37 37 38 38 37 37 36 38 40 40 40 41 39 40 40 39 40 40 42 42 42 44 47 48 51 51 51 50 53 54 52 53 51 43 44 43 52 55 51 53 54 53 54 54 54 54 53 55 54 53 55 53 51 53 50 52 53 -225 53 55 0 0 0 0 0
    0 0 0 0 0 0 0 0 0 0 0 0 0 0 0 0 0 0 0 0 0 0 0 0 0 0 0 0 0 0 0 0 0 0 0 0 0 0 0 0 0 0 0 0 0 0 0 0 0 0 0 0 0 0 0 0 0 0 0 0 0 0 0 0 0 0 0 0 0 27 27 30 25 24 24 26 26 26 27 26 26 30 30 30 30 31 31 30 33 32 27 31 30 26 24 23 21 22 24 -193 -193 21 24 25 -193 -193 -209 -193 -193 -193 -193 -193 -209 -193 -177 -177 -177 -177 -193 -177 -177 -177 -193 -193 -209 0 0 -209 -209 -209 -209 -209 -193 -209 -209 29 29 -193 -193 30 32 30 31 32 36 35 35 37 33 33 34 33 33 31 32 32 29 36 36 36 35 36 34 34 35 34 35 33 33 34 33 33 36 33 33 30 31 31 31 29 29 25 27 23 34 22 23 32 28 30 31 30 31 32 33 35 31 35 33 32 34 33 29 29 28 31 33 31 36 34 32 31 32 33 34 38 35 37 35 35 38 37 38 39 -193 42 42 44 48 45 49 51 48 51 51 52 51 45 -193 -209 -209 28 32 32 37 37 -193 38 39 38 40 43 47 44 42 38 38 39 40 39 38 37 39 41 40 41 42 40 40 40 39 39 41 43 43 43 45 49 50 53 52 52 51 53 54 51 53 47 43 44 43 50 54 51 53 54 53 54 54 54 54 53 55 54 53 54 53 50 52 48 51 51 50 52 53 0 0 0 0 0
    0 0 0 0 0 0 0 0 0 0 0 0 0 0 0 0 0 0 0 0 0 0 0 0 0 0 0 0 0 0 0 0 0 0 0 0 0 0 0 0 0 0 0 0 0 0 0 0 0 0 0 0 0 0 0 0 0 0 0 0 0 0 0 0 0 0 0 0 0 27 27 29 23 23 23 24 24 25 25 25 25 30 30 30 30 31 30 30 33 31 26 28 28 26 24 24 22 23 24 26 24 22 24 24 23 27 26 -193 -209 -209 -209 -209 -209 -177 693 -177 -177 -177 -177 -177 -193 -193 -193 25 22 0 0 -209 -209 -209 -209 -209 -209 -193 -193 30 -193 -193 -193 31 33 31 32 32 35 34 33 35 31 32 32 31 31 29 31 31 29 36 35 36 35 36 34 34 34 34 35 33 32 34 33 34 37 33 34 30 32 32 31 29 29 25 27 23 35 23 24 33 28 31 32 31 32 32 34 35 32 36 34 34 36 34 29 30 28 34 38 35 38 37 36 36 36 36 37 39 37 38 37 38 41 40 40 -193 -193 45 46 47 50 47 50 51 47 51 49 52 50 44 -193 -209 -209 -209 -209 -193 -209 -209 -209 -209 -209 -209 -209 -209 53 -209 -193 42 40 40 41 39 40 37 41 41 40 41 42 40 40 40 40 39 42 45 45 45 48 52 52 54 53 52 51 52 51 49 49 46 43 44 43 49 54 51 53 54 53 54 54 54 54 53 54 54 53 54 52 49 51 47 48 49 -225 51 52 0 0 0 0 0
    0 0 0 0 0 0 0 0 0 0 0 0 0 0 0 0 0 0 0 0 0 0 0 0 0 0 0 0 0 0 0 0 0 0 0 0 0 0 0 0 0 0 0 0 0 0 0 0 0 0 0 0 0 0 0 0 0 0 0 0 0 0 0 0 0 0 0 0 0 27 27 29 22 22 22 22 22 24 24 24 25 29 30 30 30 30 29 29 31 30 25 26 27 25 25 25 24 24 25 27 26 23 24 24 24 26 25 26 -193 -209 -193 -209 -193 -177 693 -177 -177 -177 -177 -193 26 27 21 26 -209 0 -193 46 -209 -193 -209 24 -193 -193 -193 -209 -193 -193 -193 30 32 30 31 30 35 32 32 33 30 30 30 30 30 28 30 30 29 36 34 36 34 36 34 33 34 33 35 33 32 34 33 34 36 33 34 30 31 32 31 29 30 26 28 24 36 28 25 34 28 32 32 31 32 32 34 35 32 35 33 33 36 33 30 30 27 38 41 39 41 39 39 37 37 38 39 40 39 40 40 41 46 44 44 47 46 48 49 50 51 49 51 52 46 51 49 52 52 47 -193 -209 -209 -209 -209 -209 -209 -209 -209 -209 -209 -209 -209 -209 -209 -209 -209 -209 41 -193 40 38 42 36 43 44 40 40 43 41 40 40 40 40 45 50 51 52 53 54 54 55 54 52 51 51 49 47 47 45 43 43 43 47 53 51 53 54 53 54 54 54 54 53 54 54 53 54 52 48 51 47 48 -225 -225 51 51 0 0 0 0 0
    0 0 0 0 0 0 0 0 0 0 0 0 0 0 0 0 0 0 0 0 0 0 0 0 0 0 0 0 0 0 0 0 0 0 0 0 0 0 0 0 0 0 0 0 0 0 0 0 0 0 0 0 0 0 0 0 0 0 0 0 0 0 0 0 0 0 0 0 0 27 27 28 22 22 21 21 22 23 24 24 24 28 29 29 29 -193 28 28 29 28 25 25 27 25 26 26 26 26 26 28 27 24 25 25 25 26 25 26 27 29 -209 -209 -177 -177 695 -177 -177 -193 -193 -193 26 27 22 26 -193 0 -209 44 -193 -193 25 -193 32 -193 -209 -209 -209 -193 28 29 31 29 30 30 34 31 31 32 29 29 29 29 29 -193 -193 28 29 35 33 36 34 36 33 33 34 33 35 33 32 34 33 34 37 33 34 30 32 32 31 30 30 26 28 25 36 30 28 33 28 33 32 31 32 32 34 34 32 35 33 33 35 32 29 30 25 35 41 38 40 39 38 37 37 39 40 41 41 41 43 45 50 48 48 51 49 51 52 52 52 50 52 52 45 51 49 54 54 53 -193 -209 -209 -193 -209 126 133 139 -193 -193 -209 -193 62 61 60 -193 -209 54 50 52 49 47 49 -193 -193 -193 51 47 49 46 44 44 43 45 52 -193 57 58 57 56 56 56 54 53 51 50 48 46 46 45 42 42 41 46 53 50 53 53 52 53 54 53 54 52 54 54 53 54 52 48 51 48 48 -225 -225 51 51 0 0 0 0 0
    0 0 0 0 0 0 0 0 0 0 0 0 0 0 0 0 0 0 0 0 0 0 0 0 0 0 0 0 0 0 0 0 0 0 0 0 0 0 0 0 0 0 0 0 0 0 0 0 0 0 0 0 0 0 0 0 0 0 0 0 0 0 0 0 0 0 0 0 0 27 27 28 23 22 22 22 23 24 24 24 24 28 28 28 28 -193 26 26 27 27 23 24 26 25 26 28 27 28 27 30 27 24 26 25 25 27 26 26 26 28 -209 -209 -209 -177 -193 -193 -193 -193 26 27 27 28 24 28 29 -193 -209 44 -193 -193 -193 -193 33 -209 -209 -209 -209 -193 27 28 30 29 29 30 33 30 30 30 28 28 28 28 -193 -193 -193 -193 29 35 32 36 34 35 33 33 33 33 35 33 31 34 33 34 37 33 34 30 32 32 31 30 30 26 28 26 35 31 30 34 29 33 33 32 33 33 34 34 33 35 33 33 35 33 30 29 -193 -209 42 40 41 40 38 38 39 40 41 41 42 43 45 49 52 51 51 53 51 52 53 52 52 51 52 52 45 53 51 56 57 58 55 -193 61 61 -193 -209 -209 -209 -193 68 64 61 61 62 61 61 59 57 55 55 54 52 52 -193 -193 -193 -193 -193 56 55 52 57 56 60 56 62 59 60 59 58 56 56 54 53 51 50 47 46 46 45 42 43 42 46 53 51 53 53 52 53 54 53 53 52 54 53 52 55 52 49 51 49 49 -225 -225 51 50 0 0 0 0 0
    0 0 0 0 0 0 0 0 0 0 0 0 0 0 0 0 0 0 0 0 0 0 0 0 0 0 0 0 0 0 0 0 0 0 0 0 0 0 0 0 0 0 0 0 0 0 0 0 0 0 0 0 0 0 0 0 0 0 0 0 0 0 0 0 0 0 0 0 0 26 25 27 23 23 23 23 24 25 25 25 24 27 27 27 27 -193 -209 -193 25 25 21 23 24 23 26 27 27 28 27 31 27 24 25 24 24 26 26 25 25 26 -209 -209 -209 -209 -209 -193 28 27 27 28 29 30 25 29 30 20 35 42 -193 -193 -209 -193 -209 -209 -209 20 -209 -193 24 26 28 28 29 29 32 30 30 29 27 28 28 27 -193 -177 -193 -193 29 35 32 37 34 35 33 33 33 33 35 33 31 34 32 34 37 33 34 30 32 32 31 30 30 26 28 27 36 32 33 34 30 34 34 33 34 33 35 34 33 36 33 32 35 33 30 29 -193 -193 45 42 42 41 40 40 39 40 41 42 44 45 47 50 51 50 51 53 51 52 52 52 51 50 51 52 45 52 50 55 55 56 55 55 55 57 55 54 54 55 60 60 60 59 60 61 60 60 60 57 57 57 56 53 53 -193 -193 -193 -193 -193 55 55 52 56 -193 61 56 63 59 61 60 58 57 57 54 53 51 50 48 46 46 45 42 43 42 46 54 51 53 53 52 53 54 53 53 51 53 53 52 55 53 49 52 50 50 -225 -225 53 52 0 0 0 0 0
    0 0 0 0 0 0 0 0 0 0 0 0 0 0 0 0 0 0 0 0 0 0 0 0 0 0 0 0 0 0 0 0 0 0 0 0 0 0 0 0 0 0 0 0 0 0 0 0 0 0 0 0 0 0 0 0 0 0 0 0 0 0 0 0 0 0 0 0 0 -193 23 26 23 23 24 24 26 27 26 26 24 27 27 27 27 -193 -193 24 23 23 20 22 23 21 25 -193 27 26 26 30 26 24 24 24 24 26 26 25 25 -193 -209 -209 -209 -193 25 25 28 27 27 29 30 30 26 29 30 22 31 38 -209 27 -209 -193 -193 26 -209 20 -193 -193 24 26 28 28 30 29 32 30 30 29 27 27 27 26 -193 -177 -193 -193 30 35 32 37 34 35 33 33 34 33 36 33 30 33 31 33 36 32 33 29 31 32 31 30 30 26 28 27 36 33 34 33 30 34 34 33 34 33 34 34 33 35 33 33 35 32 29 29 23 -193 49 42 42 41 41 42 39 40 41 41 43 45 46 49 50 49 50 53 51 52 51 51 50 50 52 52 45 53 51 56 56 55 55 54 55 55 55 54 53 54 57 57 57 57 58 59 59 59 59 57 57 57 57 54 53 55 54 56 55 56 54 55 51 54 53 60 56 63 59 60 59 58 57 57 54 53 51 50 47 46 46 45 42 44 43 46 53 52 54 54 53 53 54 53 53 51 53 53 52 54 52 49 53 50 46 -225 -225 -225 54 0 0 0 0 0
    0 0 0 0 0 0 0 0 0 0 0 0 0 0 0 0 0 0 0 0 0 0 0 0 0 0 0 0 0 0 0 0 0 0 0 0 0 0 0 0 0 0 0 0 0 0 0 0 0 0 0 0 0 0 0 0 0 0 0 0 0 0 0 0 0 0 0 0 0 18 21 -209 23 24 24 25 28 28 28 28 26 27 28 28 28 -193 -177 -193 21 21 19 21 -193 -193 -193 -193 28 27 26 30 25 24 23 23 23 25 25 24 24 -193 -193 -209 -209 -193 25 -193 28 28 27 29 31 31 26 30 32 23 32 36 -193 -193 21 21 -193 24 25 21 24 26 25 26 29 28 31 30 32 30 31 29 27 27 27 26 -177 -177 -177 -193 30 34 32 37 33 34 32 32 33 33 35 32 30 33 31 33 35 32 32 29 31 32 31 31 30 27 29 29 35 33 34 33 30 34 33 32 33 32 34 33 32 34 31 31 33 30 28 27 21 -193 49 37 38 39 40 41 38 40 40 41 43 45 46 49 49 49 50 53 51 52 51 51 50 50 52 52 46 54 52 57 56 55 55 55 54 55 54 54 52 53 56 56 56 57 58 59 59 59 59 58 58 58 59 57 56 57 56 57 56 57 55 56 52 54 -209 62 56 63 59 60 59 58 57 56 54 53 50 49 46 46 45 45 43 44 43 47 53 52 54 54 54 54 54 53 53 51 53 52 52 54 52 49 52 48 -193 -225 -225 -225 -225 0 0 0 0 0
    0 0 0 0 0 0 0 0 0 0 0 0 0 0 0 0 0 0 0 0 0 0 0 0 0 0 0 0 0 0 0 0 0 0 0 0 0 0 0 0 0 0 0 0 0 0 0 0 0 0 0 0 0 0 0 0 0 0 0 0 0 0 0 0 0 0 0 0 0 18 21 -209 23 24 24 25 27 28 28 29 26 27 28 28 28 159 159 -193 20 21 18 21 -209 -209 -193 -177 -193 -209 26 29 24 24 22 22 22 24 24 23 23 -209 -209 -193 -193 325 25 -193 28 28 27 30 32 32 27 32 34 26 36 36 30 -193 -193 -193 -193 -193 27 23 24 26 26 26 28 29 31 30 31 30 32 29 27 28 27 26 -177 -177 -193 -193 29 33 31 35 32 33 32 32 32 33 35 32 30 33 31 33 34 32 32 30 31 32 31 31 30 27 29 29 35 32 35 32 30 34 33 32 32 31 33 31 32 34 30 30 32 29 27 26 21 -193 -209 28 28 30 33 39 37 39 39 40 42 44 44 48 47 48 50 53 50 52 51 52 51 51 53 53 47 56 54 57 56 55 55 55 55 55 54 54 53 53 57 57 56 57 58 58 58 59 59 57 58 58 58 57 56 57 57 56 56 56 55 55 51 53 -209 63 56 63 58 60 58 57 56 56 53 53 49 48 46 45 45 45 43 45 44 48 53 53 55 55 54 55 54 53 53 51 53 52 51 53 51 48 53 47 35 -225 -225 -225 -225 0 0 0 0 0
    0 0 0 0 0 0 0 0 0 0 0 0 0 0 0 0 0 0 0 0 0 0 0 0 0 0 0 0 0 0 0 0 0 0 0 0 0 0 0 0 0 0 0 0 0 0 0 0 0 0 0 0 0 0 0 0 0 0 0 0 0 0 0 0 0 0 0 0 0 17 21 24 23 24 25 26 27 -177 28 30 26 27 28 28 28 159 158 -193 19 20 18 21 -209 -209 -193 -177 -193 -193 26 28 24 24 22 22 23 23 24 23 23 -209 20 22 -193 324 25 -193 28 28 27 29 32 32 27 32 33 26 33 34 29 25 26 -193 -193 -193 29 -193 25 26 26 26 28 29 32 30 31 30 33 29 28 28 28 26 -177 -177 -193 25 29 33 32 35 32 32 33 32 33 34 35 33 30 33 32 33 34 32 32 30 30 32 31 31 29 28 29 29 35 32 35 32 30 34 33 32 32 31 33 31 32 34 29 30 32 28 27 26 23 24 -209 27 26 27 30 38 36 38 39 39 42 43 43 48 46 47 49 53 50 52 51 52 51 53 54 54 50 57 56 57 56 54 54 55 54 55 54 54 53 53 56 56 56 56 57 58 58 58 59 57 58 58 58 57 57 57 57 57 56 57 55 54 52 53 -209 62 56 62 57 59 57 57 56 56 53 52 49 48 46 46 46 46 44 45 45 48 52 52 55 55 55 55 54 53 53 52 53 52 51 53 52 50 55 -209 -225 -225 -225 -225 -225 0 0 0 0 0
    0 0 0 0 0 0 0 0 0 0 0 0 0 0 0 0 0 0 0 0 0 0 0 0 0 0 0 0 0 0 0 0 0 0 0 0 0 0 0 0 0 0 0 0 0 0 0 0 0 0 0 0 0 0 0 0 0 0 0 0 0 0 0 0 0 0 0 0 0 16 21 -193 25 25 26 27 29 28 29 31 26 27 28 28 27 -177 -177 21 18 20 18 21 -193 -193 -193 -177 -193 -209 26 28 24 23 22 22 23 23 24 23 23 24 20 22 -193 323 25 -193 28 28 27 30 32 32 27 32 33 27 34 35 31 30 37 -193 -193 -193 39 25 25 25 26 25 26 29 30 30 30 30 34 29 28 29 28 27 -193 -193 28 25 29 33 34 34 32 32 34 33 34 35 35 33 31 33 33 33 34 32 32 31 30 32 32 32 29 28 30 29 35 32 35 32 31 34 33 33 33 31 33 30 33 34 28 29 30 28 27 26 25 26 30 26 26 26 30 36 35 37 39 38 40 42 42 46 45 46 48 52 50 52 51 52 51 54 54 55 -193 57 57 58 57 55 55 55 55 55 55 55 54 54 57 57 57 57 58 58 58 58 59 58 58 57 58 56 56 57 56 56 55 56 54 54 52 53 -209 63 56 61 57 59 57 57 56 56 53 52 49 49 46 46 46 46 44 45 45 48 51 52 54 55 55 55 54 53 53 52 53 53 52 54 54 54 57 59 -225 -225 -225 -225 -225 0 0 0 0 0
    0 0 0 0 0 0 0 0 0 0 0 0 0 0 0 0 0 0 0 0 0 0 0 0 0 0 0 0 0 0 0 0 0 0 0 0 0 0 0 0 0 0 0 0 0 0 0 0 0 0 0 0 0 0 0 0 0 0 0 0 0 0 0 0 0 0 0 0 0 15 20 -209 25 26 26 28 30 29 30 32 27 28 28 29 -193 -177 -177 22 18 20 18 21 -209 -209 422 -177 -193 -193 -193 27 23 23 22 22 22 23 24 22 22 23 19 22 -193 323 25 -193 28 29 28 31 33 33 27 34 35 28 37 37 36 -209 45 47 46 43 -193 32 27 26 26 25 26 30 31 30 29 30 35 30 29 30 28 28 -193 -193 29 25 29 32 35 33 32 32 34 33 34 36 35 34 32 33 33 33 33 32 31 31 30 32 32 32 29 29 30 30 36 32 35 32 32 35 34 34 33 32 35 -193 35 35 28 30 31 30 27 26 26 27 30 26 26 26 31 35 35 36 38 37 39 40 40 44 44 45 47 51 50 52 51 52 51 55 55 55 53 58 58 58 57 56 56 56 56 56 55 55 54 55 56 57 57 57 58 58 58 59 59 58 58 58 58 57 56 57 57 56 57 57 56 55 54 54 -209 65 56 60 57 58 57 57 56 56 53 53 49 49 47 47 47 47 45 45 45 49 51 52 54 56 55 55 54 53 53 52 53 54 52 54 54 56 58 60 -225 -225 -225 -225 -225 0 0 0 0 0
    0 0 0 0 0 0 0 0 0 0 0 0 0 0 0 0 0 0 0 0 0 0 0 0 0 0 0 0 0 0 0 0 0 0 0 0 0 0 0 0 0 0 0 0 0 0 0 0 0 0 0 0 0 0 0 0 0 0 0 0 0 0 0 0 0 0 0 0 0 14 20 -209 26 26 27 30 31 30 31 34 28 29 29 30 -193 -177 -177 -193 19 19 17 -193 -209 -209 421 -177 -177 -193 -193 26 22 24 22 22 22 23 24 22 21 23 20 22 -193 -193 26 26 29 30 29 32 34 34 28 35 35 30 38 38 38 -209 48 47 45 42 38 30 28 26 27 26 27 31 31 30 30 31 36 31 30 30 29 28 29 30 30 25 29 34 35 33 31 32 34 33 34 35 34 33 32 33 33 33 33 32 31 31 30 32 32 31 29 29 30 29 36 32 36 32 33 35 34 34 34 33 35 31 36 35 29 32 32 32 27 26 27 28 30 26 26 27 33 36 36 36 37 37 38 40 40 43 43 44 46 51 49 51 51 53 51 55 55 55 53 58 58 58 57 56 56 55 56 56 55 55 54 54 56 56 57 56 57 58 58 59 59 59 59 59 59 58 58 59 58 57 58 58 55 56 54 54 -209 66 57 60 57 58 57 57 56 56 53 53 49 50 47 48 47 47 45 46 46 50 52 53 55 56 55 55 55 54 54 53 54 54 53 54 54 55 57 60 -225 -225 -225 -225 -225 0 0 0 0 0
    0 0 0 0 0 0 0 0 0 0 0 0 0 0 0 0 0 0 0 0 0 0 0 0 0 0 0 0 0 0 0 0 0 0 0 0 0 0 0 0 0 0 0 0 0 0 0 0 0 0 0 0 0 0 0 0 0 0 0 0 0 0 0 0 0 0 0 0 0 14 20 -209 26 27 27 30 31 30 30 34 28 30 30 30 -193 -177 -193 -209 19 19 17 19 -193 -193 -193 -177 -193 -209 -193 25 23 24 22 22 23 23 23 22 22 23 20 23 24 -193 27 27 29 30 30 33 34 33 28 34 35 30 38 37 35 -193 45 46 43 40 38 31 28 27 28 27 28 31 31 29 30 32 36 32 31 31 30 29 31 31 31 26 29 34 34 32 31 32 34 33 35 35 34 33 32 33 34 33 33 32 31 31 30 32 32 30 28 30 31 29 37 32 36 32 33 35 34 34 34 33 35 31 36 34 29 34 34 32 26 25 27 27 28 26 25 28 33 36 36 36 38 37 38 40 40 43 43 44 46 50 49 51 51 53 51 55 55 56 -193 58 58 59 57 56 55 55 55 55 55 55 54 54 56 57 56 56 57 57 58 58 59 58 58 59 59 58 58 59 -193 57 58 57 55 56 55 55 -209 66 57 60 57 58 57 57 56 56 53 53 50 50 47 48 47 47 46 46 47 49 51 52 55 56 55 55 55 54 54 53 54 54 53 54 53 54 57 59 -225 -225 -225 -225 -225 0 0 0 0 0
    0 0 0 0 0 0 0 0 0 0 0 0 0 0 0 0 0 0 0 0 0 0 0 0 0 0 0 0 0 0 0 0 0 0 0 0 0 0 0 0 0 0 0 0 0 0 0 0 0 0 0 0 0 0 0 0 0 0 0 0 0 0 0 0 0 0 0 0 0 17 21 -193 27 28 28 30 30 30 30 34 28 30 30 30 29 -193 28 -193 20 20 18 21 19 -193 -193 -177 -193 -209 -193 26 24 25 23 23 24 24 23 23 22 24 21 23 24 29 27 27 29 30 30 33 34 33 28 34 35 32 39 39 38 -209 44 47 43 40 38 32 29 28 28 27 30 32 31 29 30 32 37 32 32 31 31 31 32 31 31 26 29 34 33 31 31 32 34 33 35 35 33 33 33 33 34 33 33 32 31 32 30 32 33 30 28 32 32 30 37 32 36 32 34 35 33 33 34 32 34 31 35 33 29 34 34 32 26 25 26 26 26 25 24 28 32 36 36 36 38 37 38 40 40 43 43 44 46 50 49 51 51 53 51 56 56 56 -209 58 58 59 58 56 56 56 56 56 56 55 55 55 57 57 56 56 57 57 57 57 58 58 57 59 59 58 58 59 59 58 58 57 55 56 55 55 -193 67 58 59 57 58 57 56 56 55 52 52 49 50 46 47 47 47 46 45 47 48 49 50 53 54 54 54 54 53 53 53 54 54 53 53 52 52 55 -209 -225 -225 -225 -225 -225 0 0 0 0 0
    0 0 0 0 0 0 0 0 0 0 0 0 0 0 0 0 0 0 0 0 0 0 0 0 0 0 0 0 0 0 0 0 0 0 0 0 0 0 0 0 0 0 0 0 0 0 0 0 0 0 0 0 0 0 0 0 0 0 0 0 0 0 0 0 0 0 0 0 0 21 22 30 28 29 29 31 30 30 29 33 27 29 29 30 28 28 28 27 21 22 21 22 20 20 21 -193 -193 32 26 26 25 26 24 24 24 24 23 23 23 24 22 24 24 29 27 27 29 30 30 33 33 33 28 35 36 33 40 40 38 -209 -193 48 42 39 37 31 28 28 28 28 31 32 31 30 31 33 37 33 33 31 31 32 32 32 31 26 29 33 32 30 30 32 33 33 34 34 33 33 33 33 34 33 33 32 32 32 31 32 32 30 28 33 32 31 38 32 36 33 34 35 34 33 34 32 34 31 35 31 30 34 34 31 27 27 27 27 27 25 24 31 32 35 37 37 38 37 38 40 40 44 44 44 46 49 49 51 51 53 51 56 56 57 -209 58 59 59 58 57 57 57 57 57 57 56 56 56 57 57 56 56 56 56 56 56 57 57 57 58 58 58 58 59 59 58 61 58 56 57 56 56 61 68 59 59 57 58 57 56 56 55 51 51 48 49 46 47 47 46 46 45 46 47 48 49 51 52 53 53 53 52 53 52 54 54 53 53 52 51 54 54 -225 -225 -225 -225 -225 0 0 0 0 0
    0 0 0 0 0 0 0 0 0 0 0 0 0 0 0 0 0 0 0 0 0 0 0 0 0 0 0 0 0 0 0 0 0 0 0 0 0 0 0 0 0 0 0 0 0 0 0 0 0 0 0 0 0 0 0 0 0 0 0 0 0 0 0 0 0 0 0 0 0 23 24 31 29 29 30 31 30 29 28 32 27 28 28 28 -193 -193 28 28 22 23 22 23 21 21 21 22 24 29 26 26 26 27 25 25 26 25 23 23 23 -193 22 24 24 -193 -193 27 29 29 29 32 32 31 28 35 35 32 38 39 37 -209 -193 48 40 38 36 32 30 31 29 30 32 33 31 31 32 33 36 33 33 31 31 32 32 32 31 26 30 33 32 30 31 32 33 32 34 34 33 33 33 34 34 33 33 32 32 32 31 33 32 29 29 33 32 32 38 33 36 33 35 34 34 33 34 32 34 31 35 31 31 34 34 32 28 31 31 30 31 27 26 35 33 35 37 37 38 37 38 40 40 44 44 44 46 49 49 51 51 53 51 56 56 57 -209 58 59 59 58 57 57 57 57 57 57 56 56 56 56 57 56 55 55 55 55 56 56 57 56 58 57 57 56 56 55 56 60 58 56 58 57 -209 62 68 59 59 57 58 57 57 56 55 51 50 48 49 46 46 47 46 45 44 46 45 47 47 49 50 51 53 53 53 53 53 54 54 54 54 52 50 53 -193 -225 -225 -225 -225 -225 0 0 0 0 0
    0 0 0 0 0 0 0 0 0 0 0 0 0 0 0 0 0 0 0 0 0 0 0 0 0 0 0 0 0 0 0 0 0 0 0 0 0 0 0 0 0 0 0 0 0 0 0 0 0 0 0 0 0 0 0 0 0 0 0 0 0 0 0 0 0 0 0 0 0 22 24 29 28 29 29 30 29 29 28 31 26 27 -193 -193 -193 -193 27 27 23 23 22 22 20 21 20 20 23 26 26 26 27 28 27 27 28 27 -209 24 24 24 23 24 24 -193 -193 26 28 28 28 30 30 30 27 35 34 31 37 40 -209 -209 -193 -193 41 -209 34 32 29 32 29 31 32 32 31 31 31 33 36 33 32 31 31 32 32 32 31 26 31 33 31 30 31 32 32 32 34 33 32 33 33 34 33 33 33 33 33 32 32 34 32 30 33 35 34 34 39 33 36 33 35 34 34 33 34 32 34 31 36 31 33 35 35 33 29 33 34 32 33 29 29 37 34 36 38 37 38 38 38 39 39 43 44 43 45 49 49 51 51 53 51 56 56 56 -193 58 58 59 58 57 57 57 58 57 57 56 55 55 55 56 55 54 55 55 55 56 56 57 57 58 58 58 57 55 -209 56 60 -193 -193 -193 -193 -193 61 67 60 59 58 59 58 57 56 55 50 50 49 49 46 46 47 46 44 44 45 44 45 45 47 47 49 51 53 53 53 53 55 55 55 55 53 51 53 56 -225 -225 -225 -225 -225 0 0 0 0 0
    0 0 0 0 0 0 0 0 0 0 0 0 0 0 0 0 0 0 0 0 0 0 0 0 0 0 0 0 0 0 0 0 0 0 0 0 0 0 0 0 0 0 0 0 0 0 0 0 0 0 0 0 0 0 0 0 0 0 0 0 0 0 0 0 0 0 0 0 0 22 23 27 27 28 27 29 28 27 26 29 25 26 -193 -193 -209 -177 -193 26 23 24 22 21 20 21 20 20 23 26 25 27 28 29 28 28 29 28 -193 25 25 24 23 23 24 -209 -193 25 -193 -193 27 29 29 29 27 34 34 31 38 41 -193 -209 -193 56 -193 -209 30 29 28 30 29 31 32 31 31 31 32 33 36 33 32 31 31 32 32 32 31 25 32 32 31 30 31 32 32 32 34 33 32 33 33 34 33 33 34 33 33 32 33 34 32 30 35 35 36 35 39 33 36 32 35 34 34 33 34 33 34 32 36 31 36 36 35 33 30 35 35 33 34 30 32 38 36 37 38 38 39 38 39 39 39 43 44 43 45 50 49 52 51 53 51 56 56 56 54 58 59 60 59 59 59 58 59 59 58 57 56 56 55 56 55 55 55 55 55 56 56 58 57 60 59 59 59 -209 -209 -209 -209 -193 -193 -193 -193 -193 62 68 60 59 59 59 58 58 57 56 50 50 50 49 46 46 46 46 44 44 45 44 46 46 47 47 49 52 54 53 54 54 56 56 56 57 54 52 54 -193 -225 -225 -225 -225 -225 0 0 0 0 0
    0 0 0 0 0 0 0 0 0 0 0 0 0 0 0 0 0 0 0 0 0 0 0 0 0 0 0 0 0 0 0 0 0 0 0 0 0 0 0 0 0 0 0 0 0 0 0 0 0 0 0 0 0 0 0 0 0 0 0 0 0 0 0 0 0 0 0 0 0 21 24 26 27 28 27 28 28 -193 25 -193 24 -193 -193 -209 -177 -177 -193 26 24 24 22 22 20 21 21 21 23 26 26 27 28 29 28 28 29 29 -193 26 26 24 23 23 24 -193 -193 24 -193 -193 26 27 27 27 26 30 30 29 35 37 33 37 -193 -193 39 -209 27 28 28 30 28 32 32 31 31 32 32 33 36 33 32 31 32 32 32 32 31 26 32 31 30 30 31 32 32 32 34 32 32 33 33 34 33 32 33 32 32 31 33 33 31 29 36 36 37 36 39 33 36 32 35 33 33 33 34 32 34 31 35 29 36 36 35 34 32 37 37 34 35 31 35 39 36 37 38 38 39 39 39 40 40 43 44 43 46 50 50 52 52 53 52 55 56 56 53 57 58 60 59 59 59 59 59 59 58 57 56 56 55 56 55 54 54 55 55 55 55 57 57 60 59 60 60 62 63 -193 -209 -193 -193 -193 -193 -193 64 69 61 59 60 61 59 59 58 57 50 51 51 48 46 45 45 45 44 44 45 44 46 46 47 47 49 51 53 53 53 53 55 55 55 55 53 51 52 52 -225 -225 -225 -225 -225 0 0 0 0 0
    0 0 0 0 0 0 0 0 0 0 0 0 0 0 0 0 0 0 0 0 0 0 0 0 0 0 0 0 0 0 0 0 0 0 0 0 0 0 0 0 0 0 0 0 0 0 0 0 0 0 0 0 0 0 0 0 0 0 0 0 0 0 0 0 0 0 0 0 0 21 24 26 27 28 27 27 28 -209 -193 -209 23 23 -193 -193 -177 -177 -193 24 23 24 22 22 20 21 21 21 23 -193 -193 27 28 30 28 29 30 29 28 26 27 24 23 23 23 23 23 23 24 -193 -193 -193 25 24 25 26 28 27 32 33 31 34 37 -193 37 -193 25 27 27 29 29 32 32 30 32 33 32 33 36 32 32 31 32 31 31 31 30 26 32 30 30 30 31 32 32 32 34 32 32 32 32 33 32 32 32 31 31 30 33 32 30 29 35 36 37 36 38 33 35 32 35 32 32 32 33 31 33 30 34 28 35 36 34 34 35 39 39 37 38 35 37 39 35 37 38 38 39 39 39 40 40 44 44 43 46 51 51 53 52 53 53 56 56 56 52 57 57 59 58 57 58 -193 -193 -193 -193 -209 -193 56 55 56 54 54 54 54 54 54 53 55 52 57 57 57 58 58 59 -209 -193 -193 -193 -193 -193 -193 62 68 61 60 60 61 60 59 58 57 50 51 51 48 45 45 45 44 43 44 45 43 46 45 46 46 48 51 54 53 54 53 55 55 55 54 51 48 51 51 -225 -225 -225 -225 -225 0 0 0 0 0</data></disparity>
</opencv_storage>
