<?xml version="1.0"?>
<opencv_storage>
<gps_time_stamp>320424</gps_time_stamp>
<gps_x>-1.2426283836364746e+001</gps_x>
<gps_y>1.0742938995361328e+001</gps_y>
<gps_z>-2.0072288513183594e+000</gps_z>
<image_time_stamp>311257</image_time_stamp>
<disparity type_id="opencv-matrix">
  <rows>88</rows>
  <cols>320</cols>
  <dt>s</dt>
  <data>
    0 0 0 0 0 0 0 0 0 0 0 0 0 0 0 0 0 0 0 0 0 0 0 0 0 0 0 0 0 0 0 0 0 0 0 0 0 0 0 0 0 0 0 0 0 0 0 0 0 0 0 0 0 0 0 0 0 0 0 0 0 0 0 0 0 0 0 0 0 -193 -193 -193 -193 56 58 62 61 61 60 60 60 61 61 60 59 59 59 60 60 61 60 61 60 63 61 61 61 61 60 60 60 60 59 59 60 60 58 58 57 56 55 54 53 51 49 48 47 47 47 45 45 44 44 43 42 -225 -225 -225 -225 -225 -225 -225 -225 -225 -225 -225 -225 -225 -225 -225 -225 -225 -225 -225 -225 -225 -225 14 13 13 15 18 19 17 15 14 14 14 13 14 12 12 14 12 11 12 13 13 12 14 15 12 16 17 16 14 16 18 18 15 18 18 16 16 17 16 15 14 17 15 13 13 19 23 24 -177 -177 -193 38 41 42 43 43 47 53 51 54 62 60 65 63 65 64 64 66 66 64 68 65 70 66 73 74 74 75 76 76 77 76 77 75 75 75 75 74 71 71 -209 -193 -193 109 112 -193 800 800 -193 101 -193 102 103 -193 108 -193 115 116 116 118 119 -209 998 -193 -193 420 128 -193 131 134 -177 -177 -177 -193 -177 -193 580 578 576 578 400 403 -193 108 108 -193 -193 -193 -193 -209 -209 -193 32 -193 -177 -177 -177 -177 -177 -193 -193 -193 -177 -193 186 185 184 184 187 188 189 189 188 189 191 195 -209 -209 0 0 0 0 0
    0 0 0 0 0 0 0 0 0 0 0 0 0 0 0 0 0 0 0 0 0 0 0 0 0 0 0 0 0 0 0 0 0 0 0 0 0 0 0 0 0 0 0 0 0 0 0 0 0 0 0 0 0 0 0 0 0 0 0 0 0 0 0 0 0 0 0 0 0 -209 -193 -209 60 57 59 62 61 61 60 60 60 61 61 61 60 60 60 62 61 62 61 62 60 62 60 59 59 59 58 59 58 59 58 58 59 59 58 58 57 56 55 54 53 51 49 48 46 46 46 45 44 44 43 43 42 40 -225 -225 -225 -225 -225 -225 -225 -225 -225 -225 -225 -225 -225 -225 -225 10 10 10 12 12 13 13 13 12 15 16 20 15 14 13 13 13 12 13 12 11 12 11 10 11 13 13 12 13 15 12 15 16 16 14 16 17 18 15 17 18 18 17 18 16 16 14 17 15 13 13 18 22 23 26 -177 -193 38 41 -177 43 43 47 53 52 55 62 61 64 63 65 64 64 66 66 64 68 65 70 66 74 75 74 74 75 75 76 76 75 74 74 74 74 74 71 71 -193 -193 -193 109 112 -193 799 799 -193 101 102 102 103 -193 108 -193 115 116 117 119 119 -209 998 999 -177 421 128 -193 130 133 -177 -177 -177 -177 -177 290 580 578 577 578 401 404 -193 109 109 -193 107 106 -193 105 -209 -193 29 -193 -209 -193 -193 -209 -209 -193 -193 -209 -193 185 186 186 185 185 187 188 189 189 188 188 190 -193 -209 -209 0 0 0 0 0
    0 0 0 0 0 0 0 0 0 0 0 0 0 0 0 0 0 0 0 0 0 0 0 0 0 0 0 0 0 0 0 0 0 0 0 0 0 0 0 0 0 0 0 0 0 0 0 0 0 0 0 0 0 0 0 0 0 0 0 0 0 0 0 0 0 0 0 0 0 -209 -209 -209 59 57 59 62 61 61 60 59 60 61 61 61 60 60 60 62 62 62 61 61 60 61 59 58 57 58 57 57 57 57 57 58 58 58 58 58 57 56 55 54 53 51 49 47 45 45 45 44 43 43 42 42 41 40 -225 -225 -225 -225 -225 -225 -225 -225 -225 -225 -225 -225 -225 0 9 0 0 0 11 10 12 13 12 12 14 15 20 15 15 13 13 12 12 13 12 10 11 10 10 10 12 12 11 12 14 12 14 16 16 14 15 16 17 14 17 18 17 15 17 16 15 14 17 16 13 13 18 22 23 26 31 -193 38 40 -177 43 43 47 53 53 54 62 61 64 62 65 64 64 65 66 63 67 63 68 62 72 73 73 73 75 76 78 77 76 74 74 74 74 75 72 71 -209 -193 -209 107 110 -193 -177 -193 -177 101 102 102 103 -193 108 -193 115 116 117 119 120 -193 997 998 -177 -193 127 -193 129 133 460 463 468 288 290 290 581 579 577 -177 -193 -177 -193 109 111 108 108 107 -193 105 -209 104 -193 -193 -209 -209 -193 -209 -209 -193 -209 184 184 185 186 186 186 186 187 188 189 189 188 188 190 -193 -193 -209 0 0 0 0 0
    0 0 0 0 0 0 0 0 0 0 0 0 0 0 0 0 0 0 0 0 0 0 0 0 0 0 0 0 0 0 0 0 0 0 0 0 0 0 0 0 0 0 0 0 0 0 0 0 0 0 0 0 0 0 0 0 0 0 0 0 0 0 0 0 0 0 0 0 0 -209 -209 57 59 58 59 62 60 60 59 59 59 60 60 60 59 59 59 61 61 61 60 60 59 60 58 57 56 57 56 56 56 56 56 57 58 58 57 57 57 56 55 54 53 51 50 49 46 45 45 44 43 42 41 41 40 39 37 -225 -225 -225 -225 -225 -225 -225 -225 -225 -225 -225 0 0 0 0 0 0 11 10 13 13 13 12 13 13 18 13 14 12 13 12 12 14 12 11 12 9 9 9 10 11 10 10 12 11 14 16 16 14 14 16 17 15 16 18 17 15 17 16 15 15 17 16 14 13 18 21 23 25 30 -193 38 39 41 43 43 46 52 53 54 62 61 63 62 64 64 64 65 66 62 67 64 69 65 73 74 74 74 75 77 79 78 78 75 75 75 75 77 73 72 -209 -209 -209 -177 -177 100 -193 -177 102 101 102 102 103 -193 108 110 115 117 118 119 120 -193 995 -193 128 -193 127 132 129 133 -193 -177 -193 -193 291 291 582 580 578 -177 -193 405 -193 110 111 109 108 108 -193 -193 -209 104 -209 -193 -193 -209 -177 -193 -193 183 183 183 184 185 186 186 186 186 187 188 189 188 187 188 189 193 196 199 0 0 0 0 0
    0 0 0 0 0 0 0 0 0 0 0 0 0 0 0 0 0 0 0 0 0 0 0 0 0 0 0 0 0 0 0 0 0 0 0 0 0 0 0 0 0 0 0 0 0 0 0 0 0 0 0 0 0 0 0 0 0 0 0 0 0 0 0 0 0 0 0 0 0 -209 -209 56 57 56 58 60 59 59 58 58 58 59 59 59 58 58 58 60 59 60 59 59 58 59 57 56 56 56 55 55 55 55 55 56 57 57 57 57 57 56 55 55 53 52 51 51 48 46 45 44 43 41 41 40 38 38 36 34 -225 -225 -225 -225 -225 -225 -225 -225 -225 0 0 0 9 0 9 9 12 11 13 13 13 13 13 13 17 13 14 12 13 12 12 13 13 11 12 9 10 9 10 12 10 10 12 11 14 16 17 14 14 16 17 15 16 16 16 14 17 15 15 15 17 17 16 14 18 21 23 24 29 -193 38 39 41 43 43 46 51 52 53 61 61 63 62 64 64 64 65 66 62 68 65 69 69 73 75 75 74 75 77 79 79 79 75 75 75 76 79 74 74 -177 -193 -177 -177 -177 -193 101 101 102 101 103 103 103 -193 108 110 115 118 118 -193 121 -193 994 -193 130 130 128 133 129 133 -193 -177 -193 -193 292 291 583 580 -177 -177 -193 406 -193 110 111 110 109 -193 274 -193 -193 103 -209 -209 -193 -209 -177 173 177 181 181 182 183 184 186 186 186 185 187 188 188 188 187 187 188 191 195 199 0 0 0 0 0
    0 0 0 0 0 0 0 0 0 0 0 0 0 0 0 0 0 0 0 0 0 0 0 0 0 0 0 0 0 0 0 0 0 0 0 0 0 0 0 0 0 0 0 0 0 0 0 0 0 0 0 0 0 0 0 0 0 0 0 0 0 0 0 0 0 0 0 0 0 58 -209 54 55 54 55 58 58 58 57 57 58 58 59 59 58 58 57 59 59 59 59 58 57 58 56 55 55 54 54 54 54 54 54 55 56 56 56 56 56 55 55 54 53 52 51 51 49 46 45 44 42 40 39 38 36 36 35 34 -225 -225 -225 -225 -225 -225 -225 -225 -225 0 0 0 0 0 10 10 13 12 13 13 13 13 13 13 17 13 14 13 13 13 12 13 12 10 11 9 9 9 10 11 10 10 11 11 13 16 16 14 14 16 16 15 15 15 15 14 16 14 15 15 17 17 16 15 18 21 23 24 29 -193 37 39 41 43 43 45 49 52 52 60 60 62 61 63 64 64 66 66 63 68 67 70 70 73 74 74 74 74 76 78 79 80 76 75 76 78 81 -193 -193 -177 -177 -177 -177 -177 -193 100 100 102 102 103 103 104 -193 109 111 115 -193 119 -177 122 -193 993 -193 130 131 128 -193 129 133 -193 -177 -193 -193 292 292 584 -193 -177 -177 -177 406 -193 109 111 -193 -193 -193 274 273 276 102 -193 -193 -193 -193 -209 173 176 179 180 180 183 184 185 186 186 185 186 187 188 187 186 186 187 190 194 198 0 0 0 0 0
    0 0 0 0 0 0 0 0 0 0 0 0 0 0 0 0 0 0 0 0 0 0 0 0 0 0 0 0 0 0 0 0 0 0 0 0 0 0 0 0 0 0 0 0 0 0 0 0 0 0 0 0 0 0 0 0 0 0 0 0 0 0 0 0 0 0 0 0 0 54 53 52 52 52 54 56 56 58 56 57 57 58 59 59 57 58 57 60 59 59 59 57 57 58 56 54 55 54 53 53 53 53 53 54 55 55 55 56 56 54 54 54 53 52 51 50 49 47 46 44 43 39 38 37 35 35 35 34 -225 -225 -225 -225 -225 -225 -225 0 0 0 0 0 9 9 10 10 12 12 13 13 12 12 12 12 15 13 14 13 13 14 12 13 12 10 11 9 9 9 9 12 11 11 12 12 13 16 16 14 14 15 16 16 14 15 14 14 15 13 15 15 17 17 16 15 17 21 23 24 28 -193 37 39 41 43 43 45 49 53 52 60 60 61 61 63 64 64 65 66 62 69 70 72 73 75 76 76 75 76 77 77 79 80 76 75 75 79 84 -193 -193 -177 -193 -177 492 493 -193 98 100 102 102 103 103 104 -193 109 111 115 -193 119 -193 -193 -193 993 125 131 131 -193 -193 128 133 -177 -177 -193 -193 -177 293 -209 141 -193 -177 -177 -177 -209 108 110 -193 -193 274 273 273 275 -193 -209 -193 162 166 -193 172 175 177 178 179 182 183 184 185 186 184 186 186 187 187 186 186 186 189 194 198 0 0 0 0 0
    0 0 0 0 0 0 0 0 0 0 0 0 0 0 0 0 0 0 0 0 0 0 0 0 0 0 0 0 0 0 0 0 0 0 0 0 0 0 0 0 0 0 0 0 0 0 0 0 0 0 0 0 0 0 0 0 0 0 0 0 0 0 0 0 0 0 0 0 0 51 50 50 50 50 52 54 54 57 55 56 56 57 58 58 56 57 56 60 58 59 58 56 56 57 56 54 54 54 53 53 53 53 52 52 54 54 54 54 55 53 53 53 52 51 50 49 49 46 46 44 43 39 37 35 33 34 35 33 -225 -225 -225 -225 -225 -225 -225 0 0 0 0 0 0 0 10 9 11 11 12 12 12 11 12 12 15 13 14 13 13 14 12 12 12 10 10 9 9 9 9 11 11 11 12 12 13 15 16 14 14 15 15 15 15 14 14 14 14 13 15 15 17 16 16 15 16 21 23 24 28 -193 37 39 41 43 44 45 50 54 53 60 60 60 61 62 62 63 63 65 60 69 72 74 75 75 76 77 76 77 78 78 80 82 76 75 75 82 -193 82 83 -193 -193 -193 492 494 96 97 100 102 102 104 104 104 -193 109 112 115 -177 120 122 -193 -193 994 125 131 131 -177 -177 -193 133 -177 -177 -193 -193 -177 -177 -193 141 -193 -177 -177 -177 -209 108 109 365 366 274 273 272 275 -193 -209 161 162 166 167 172 174 176 177 178 181 183 184 185 186 184 185 186 187 187 186 186 186 -193 194 198 0 0 0 0 0
    0 0 0 0 0 0 0 0 0 0 0 0 0 0 0 0 0 0 0 0 0 0 0 0 0 0 0 0 0 0 0 0 0 0 0 0 0 0 0 0 0 0 0 0 0 0 0 0 0 0 0 0 0 0 0 0 0 0 0 0 0 0 0 0 0 0 0 0 0 51 49 48 48 48 49 50 49 53 52 53 54 55 56 57 55 56 55 59 -193 57 56 54 54 56 55 53 53 53 53 52 52 51 51 50 52 52 52 53 52 52 52 51 51 50 50 49 48 46 46 45 44 39 37 35 32 33 35 33 32 -225 -225 -225 -225 -225 -225 0 0 0 0 0 0 0 9 9 11 11 12 12 12 11 12 12 14 11 13 12 13 13 12 12 11 10 11 10 10 9 10 12 12 12 13 13 14 15 16 14 15 15 15 15 15 14 14 14 14 13 14 16 18 16 16 15 17 21 23 24 28 -177 37 39 41 44 44 46 51 55 55 60 60 59 60 60 61 61 60 62 58 67 71 72 74 74 75 77 76 77 79 80 83 86 78 77 77 86 89 86 86 -193 84 90 -193 -177 97 97 101 103 103 105 105 105 109 110 113 116 -177 121 123 -193 -193 -193 125 131 -193 -177 -177 -193 -193 -177 -177 -193 -193 -177 294 -193 140 -193 -177 -177 -193 -193 107 109 365 366 273 273 272 275 275 -209 160 161 166 168 171 173 175 176 176 181 -193 -193 185 186 -193 -193 -193 187 187 186 186 186 -193 194 197 0 0 0 0 0
    0 0 0 0 0 0 0 0 0 0 0 0 0 0 0 0 0 0 0 0 0 0 0 0 0 0 0 0 0 0 0 0 0 0 0 0 0 0 0 0 0 0 0 0 0 0 0 0 0 0 0 0 0 0 0 0 0 0 0 0 0 0 0 0 0 0 0 0 0 51 49 47 47 47 47 46 44 47 47 50 49 51 52 53 52 53 52 57 52 55 53 52 53 54 54 53 53 53 52 52 52 51 50 50 51 50 51 51 51 50 50 50 49 49 49 48 48 46 45 45 44 39 37 35 32 32 34 34 32 -225 -225 -225 -225 -225 -225 0 0 0 0 0 0 0 0 0 10 10 12 12 12 12 13 13 15 12 14 13 14 14 13 12 12 10 12 11 10 9 10 12 12 12 13 13 14 15 16 15 15 15 15 15 15 13 14 14 14 13 15 16 18 16 17 15 17 21 23 24 28 -177 -193 40 42 44 45 47 52 55 54 60 59 59 59 59 59 59 59 60 58 66 71 72 74 74 75 77 75 76 79 81 84 88 -209 -209 -193 88 93 89 88 89 88 90 93 -193 99 98 102 104 104 106 106 106 110 110 114 116 -193 121 123 -193 -193 124 125 131 -193 -177 -177 -177 -193 -177 -177 -177 -193 -193 -193 398 -193 -193 -177 -177 -193 -193 107 109 -209 366 273 273 272 275 -193 -193 160 162 165 169 171 173 174 175 175 180 -193 -193 -209 186 -193 -193 -193 187 187 186 186 186 -193 -193 197 0 0 0 0 0
    0 0 0 0 0 0 0 0 0 0 0 0 0 0 0 0 0 0 0 0 0 0 0 0 0 0 0 0 0 0 0 0 0 0 0 0 0 0 0 0 0 0 0 0 0 0 0 0 0 0 0 0 0 0 0 0 0 0 0 0 0 0 0 0 0 0 0 0 0 50 48 47 47 47 46 46 44 46 46 49 47 48 48 49 48 48 48 51 45 52 49 51 52 53 53 52 53 52 51 51 51 50 49 49 49 47 49 50 50 49 49 49 48 49 49 48 48 46 45 45 44 39 36 33 31 31 33 33 33 -225 -225 -225 -225 -225 -225 0 0 0 0 0 0 0 0 0 10 10 12 13 13 12 13 14 15 13 14 14 14 14 13 11 11 10 11 10 10 9 10 12 12 12 13 13 14 15 16 15 14 15 15 14 14 13 14 14 13 14 15 17 18 16 17 15 17 21 23 23 28 -177 -193 40 42 44 45 47 52 55 54 59 58 58 59 59 59 59 58 59 58 65 71 72 74 74 75 77 75 76 79 81 85 -193 -209 -209 -193 89 96 91 90 91 90 91 95 101 100 99 103 104 104 106 106 106 110 111 115 117 -193 122 124 28 31 123 124 130 -193 -193 -177 -177 -193 -177 -177 -193 -193 -193 -193 -193 -193 -193 -177 -177 -209 156 -193 -193 -209 -209 273 274 -193 275 -193 -193 -193 161 165 -193 170 172 173 174 174 179 -193 -193 -209 185 -193 -193 -193 187 187 186 186 186 -193 193 197 0 0 0 0 0
    0 0 0 0 0 0 0 0 0 0 0 0 0 0 0 0 0 0 0 0 0 0 0 0 0 0 0 0 0 0 0 0 0 0 0 0 0 0 0 0 0 0 0 0 0 0 0 0 0 0 0 0 0 0 0 0 0 0 0 0 0 0 0 0 0 0 0 0 0 48 47 47 47 46 46 46 43 45 45 48 46 47 45 46 45 45 46 46 43 46 45 49 51 52 53 51 52 51 50 51 50 49 49 48 48 45 47 49 49 48 48 48 47 48 48 48 47 45 44 44 44 39 36 32 30 31 32 32 32 -225 -225 -225 -225 -225 -225 0 0 0 0 0 0 0 9 10 11 12 13 14 13 13 13 13 14 13 14 13 14 14 12 10 10 9 10 10 9 0 9 11 12 12 13 13 14 15 15 15 15 15 15 15 15 14 14 15 13 13 15 17 18 16 16 15 18 21 23 24 28 -193 38 41 42 44 45 48 53 55 54 59 59 58 59 59 59 59 58 59 58 64 71 72 73 74 74 75 74 75 77 78 82 86 -209 -209 86 90 97 93 92 92 92 93 98 101 102 101 105 106 106 108 107 108 111 112 117 118 -193 123 124 28 32 123 124 129 -193 -193 -177 -177 -193 -177 -177 -193 -193 -193 -209 -193 -193 -193 -193 -177 -209 156 -193 161 164 -193 -193 -193 -193 -193 161 -193 -193 -193 -193 -209 -193 172 173 173 173 178 -193 -193 -193 -193 183 -193 186 186 187 186 186 187 -193 194 197 0 0 0 0 0
    0 0 0 0 0 0 0 0 0 0 0 0 0 0 0 0 0 0 0 0 0 0 0 0 0 0 0 0 0 0 0 0 0 0 0 0 0 0 0 0 0 0 0 0 0 0 0 0 0 0 0 0 0 0 0 0 0 0 0 0 0 0 0 0 0 0 0 0 0 48 47 47 47 46 46 45 43 44 45 47 45 46 44 47 45 44 45 46 42 44 44 47 50 51 52 51 52 51 50 50 50 49 48 47 47 44 46 49 49 48 47 47 47 48 48 47 47 44 44 44 44 39 37 34 30 31 32 32 32 -225 -225 -225 -225 -225 -225 0 0 0 0 0 0 0 9 10 11 12 12 14 13 13 15 15 14 14 14 14 15 14 12 9 9 9 9 9 9 0 9 10 12 12 13 13 14 16 15 15 16 15 16 15 15 14 14 16 14 14 16 16 19 16 15 16 18 22 24 24 29 37 38 41 43 44 45 48 53 55 54 59 59 58 59 59 59 58 58 59 59 63 71 71 72 72 73 74 72 73 75 75 80 87 -209 -209 88 91 97 95 94 94 95 94 99 102 -193 103 106 107 107 108 109 109 113 113 118 119 124 123 124 -193 -193 123 123 128 -193 -177 -177 -177 131 -193 -193 -193 131 -209 135 -177 -193 -193 -193 -177 -209 156 159 161 164 -193 159 159 -193 -193 161 -193 -193 -209 -193 -193 -177 -193 172 173 173 176 -193 11 -193 -193 183 -193 186 186 187 186 187 187 -193 -193 197 0 0 0 0 0
    0 0 0 0 0 0 0 0 0 0 0 0 0 0 0 0 0 0 0 0 0 0 0 0 0 0 0 0 0 0 0 0 0 0 0 0 0 0 0 0 0 0 0 0 0 0 0 0 0 0 0 0 0 0 0 0 0 0 0 0 0 0 0 0 0 0 0 0 0 48 48 47 48 46 46 45 43 45 45 46 44 45 42 44 44 44 46 47 43 45 45 48 51 51 52 51 52 51 50 50 50 48 47 46 47 44 45 48 48 47 46 46 46 46 46 46 46 43 43 43 43 39 37 35 31 30 32 32 32 -225 -225 -225 -225 -225 0 0 0 0 0 0 0 0 0 8 10 11 11 13 13 12 15 16 14 14 14 14 15 14 13 10 9 0 0 9 10 9 10 11 13 12 14 14 14 16 16 16 16 15 17 15 15 15 14 15 14 14 15 15 19 16 14 15 18 22 24 24 29 36 38 41 43 44 45 48 53 55 54 59 59 58 59 59 59 58 58 59 60 62 70 71 71 71 72 72 71 72 74 75 79 87 -209 -193 88 90 95 94 94 94 96 95 100 102 -193 104 106 107 107 108 109 109 113 114 -193 120 124 124 124 -193 -193 123 122 127 128 -177 -177 -177 130 133 -193 131 130 -193 134 -177 403 -193 -193 -177 -209 156 160 162 165 164 159 160 -193 -193 -193 -209 -193 -193 0 -177 -177 -177 -193 172 172 175 -193 -193 -193 -193 183 -193 186 187 187 187 187 -209 -193 -193 -193 0 0 0 0 0
    0 0 0 0 0 0 0 0 0 0 0 0 0 0 0 0 0 0 0 0 0 0 0 0 0 0 0 0 0 0 0 0 0 0 0 0 0 0 0 0 0 0 0 0 0 0 0 0 0 0 0 0 0 0 0 0 0 0 0 0 0 0 0 0 0 0 0 0 0 48 48 48 48 47 46 45 42 44 44 45 42 41 39 42 43 43 45 46 44 45 46 49 51 51 52 51 52 50 49 50 49 48 47 46 46 44 46 50 47 45 44 44 44 45 45 44 44 43 43 43 43 39 38 36 32 31 32 32 32 -225 -225 -225 -225 23 20 21 16 9 0 0 0 0 0 0 0 9 10 12 11 11 15 15 14 13 14 13 14 13 12 9 9 0 9 9 10 9 10 11 13 13 14 14 15 15 15 16 16 15 17 15 15 15 14 15 14 14 14 14 18 14 13 14 17 21 23 24 29 37 38 41 43 44 45 49 54 55 56 59 60 59 59 59 59 58 58 59 60 61 70 71 70 71 72 72 71 72 74 77 79 85 88 87 87 89 92 93 93 94 97 95 100 103 -193 104 106 107 106 107 108 109 113 -193 120 121 125 124 124 124 123 123 122 126 127 -177 -177 -193 129 132 133 131 130 -193 -193 -177 -177 -193 -193 -177 -209 156 160 162 165 164 159 160 158 158 -193 -209 -209 -193 -177 -177 0 0 -193 -193 172 174 -193 -193 -193 -193 184 185 -177 188 188 189 -193 -209 -193 -193 -209 0 0 0 0 0
    0 0 0 0 0 0 0 0 0 0 0 0 0 0 0 0 0 0 0 0 0 0 0 0 0 0 0 0 0 0 0 0 0 0 0 0 0 0 0 0 0 0 0 0 0 0 0 0 0 0 0 0 0 0 0 0 0 0 0 0 0 0 0 0 0 0 0 0 0 48 49 49 48 47 46 45 43 44 44 44 41 40 39 40 42 41 42 42 42 42 43 46 49 47 49 49 51 50 48 49 48 47 47 47 46 43 43 46 -193 41 -209 -209 41 42 44 43 42 43 43 43 43 39 37 36 32 30 31 31 31 -225 -225 -225 25 23 21 22 20 14 12 11 10 0 0 0 0 10 10 12 12 12 16 16 14 13 14 13 14 13 13 10 9 9 9 10 10 9 10 11 13 12 13 13 14 15 15 15 15 14 16 14 15 14 13 14 15 14 14 14 18 15 14 15 18 21 23 24 30 37 39 42 43 44 45 49 53 55 55 58 60 59 59 59 59 58 58 59 61 60 68 69 69 70 71 71 70 72 74 79 80 85 87 86 86 88 90 92 92 94 98 95 100 103 -193 104 105 106 106 107 109 109 113 -193 -193 121 124 123 124 123 123 123 121 126 126 -177 -193 127 128 131 133 131 130 -193 -193 -177 -177 -177 -193 -177 -209 156 161 163 166 165 159 160 159 -193 -209 -177 -209 -193 0 0 0 0 -193 -193 172 173 -193 -193 -193 -193 -193 -193 -193 -193 -193 191 -193 -193 -193 -193 -193 0 0 0 0 0
    0 0 0 0 0 0 0 0 0 0 0 0 0 0 0 0 0 0 0 0 0 0 0 0 0 0 0 0 0 0 0 0 0 0 0 0 0 0 0 0 0 0 0 0 0 0 0 0 0 0 0 0 0 0 0 0 0 0 0 0 0 0 0 0 0 0 0 0 0 48 49 49 49 47 46 45 43 44 44 43 40 38 36 38 39 39 40 38 37 41 42 42 44 43 44 44 49 48 47 47 48 47 47 47 45 42 41 -209 -209 -209 -209 -209 -193 41 42 42 41 42 42 43 42 38 36 35 28 27 28 28 30 -225 -225 21 22 23 20 21 20 16 14 13 11 10 9 0 9 11 11 13 13 13 16 15 14 13 14 13 13 12 12 0 9 0 9 9 10 9 10 11 14 12 13 13 14 14 14 14 14 13 15 13 13 13 13 14 14 13 13 13 17 15 13 13 15 20 22 24 29 -193 38 41 43 44 44 48 53 54 55 58 61 59 59 59 60 59 60 60 63 60 68 69 69 70 71 71 71 72 75 81 82 85 87 86 86 87 88 91 91 92 -193 95 100 103 -193 104 105 106 106 106 108 109 113 -177 120 121 124 123 123 123 123 123 121 125 126 -193 127 127 127 131 132 131 130 -193 -193 -177 -193 -177 -209 -193 -177 156 -193 163 166 166 159 160 -193 -209 -209 -177 -177 -193 0 0 0 0 0 -193 171 172 175 177 183 -209 -209 -193 -193 103 -193 -209 107 115 -193 -193 -193 0 0 0 0 0
    0 0 0 0 0 0 0 0 0 0 0 0 0 0 0 0 0 0 0 0 0 0 0 0 0 0 0 0 0 0 0 0 0 0 0 0 0 0 0 0 0 0 0 0 0 0 0 0 0 0 0 0 0 0 0 0 0 0 0 0 0 0 0 0 0 0 0 0 0 48 49 49 49 47 46 45 43 45 44 43 40 37 36 37 39 38 38 36 32 35 -193 -209 -209 -209 35 40 45 46 45 45 47 48 47 47 44 -209 -209 13 15 18 18 -193 26 35 -193 39 38 41 41 41 40 33 29 28 25 23 22 22 27 14 12 17 21 22 20 21 20 17 16 15 12 11 9 9 10 11 11 11 12 12 15 15 15 15 15 14 13 12 12 0 9 0 0 9 10 10 10 11 13 12 13 13 14 14 14 14 14 13 15 13 13 13 13 13 13 12 12 12 16 14 12 12 14 19 22 24 30 37 39 41 42 43 44 47 52 52 53 57 62 60 60 60 60 59 61 62 64 60 68 69 69 70 71 71 71 72 74 82 82 84 87 86 86 87 88 90 90 91 -193 94 99 103 -193 104 104 105 105 105 108 108 112 -177 119 -193 -193 122 122 123 123 123 121 125 126 -193 127 127 127 130 131 130 129 131 -193 -177 -193 -177 -209 -177 -177 -193 -193 163 167 166 159 160 -193 -209 -209 -209 -177 -193 0 0 0 0 0 -193 170 170 173 176 -209 -209 106 103 102 104 106 106 107 112 114 -193 -193 0 0 0 0 0
    0 0 0 0 0 0 0 0 0 0 0 0 0 0 0 0 0 0 0 0 0 0 0 0 0 0 0 0 0 0 0 0 0 0 0 0 0 0 0 0 0 0 0 0 0 0 0 0 0 0 0 0 0 0 0 0 0 0 0 0 0 0 0 0 0 0 0 0 0 48 49 50 49 47 47 45 44 46 45 45 41 38 37 38 39 38 39 -209 -193 -193 0 -209 -209 -177 12 25 38 43 42 42 45 46 44 44 -193 16 17 11 11 13 11 13 21 24 23 23 31 38 36 -193 30 26 24 24 11 9 0 10 0 0 10 13 17 20 19 20 19 17 18 16 13 12 11 11 12 12 12 11 11 13 14 15 14 14 15 14 12 11 11 0 0 0 0 9 10 10 11 11 13 12 13 13 14 13 14 14 14 14 15 13 13 13 13 13 13 13 12 12 14 13 11 11 13 17 20 24 30 38 40 41 42 43 44 47 51 52 54 57 64 60 61 61 61 60 63 63 66 60 69 69 69 70 71 71 71 72 74 80 82 84 86 85 85 86 87 88 90 90 -193 93 98 102 105 103 104 105 105 104 107 108 111 -177 118 -193 -177 -193 120 122 122 122 120 124 126 -193 127 127 126 129 131 130 129 131 -193 -193 -193 -209 -209 -177 -177 -193 -193 -193 168 167 159 160 -193 -209 -193 -209 -209 -193 0 0 -193 0 0 -209 -193 169 172 -193 -193 105 106 103 103 104 106 106 107 110 113 110 -193 0 0 0 0 0
    0 0 0 0 0 0 0 0 0 0 0 0 0 0 0 0 0 0 0 0 0 0 0 0 0 0 0 0 0 0 0 0 0 0 0 0 0 0 0 0 0 0 0 0 0 0 0 0 0 0 0 0 0 0 0 0 0 0 0 0 0 0 0 0 0 0 0 0 0 48 49 50 49 48 47 46 45 46 46 46 43 40 39 40 40 39 40 -209 -193 0 0 0 0 0 0 15 28 38 33 39 43 43 41 38 12 11 13 10 10 10 9 10 14 17 16 15 26 29 -193 16 22 20 15 12 0 0 0 0 0 0 0 11 14 18 18 19 19 17 18 16 13 13 12 12 12 12 12 11 10 12 13 14 13 13 13 13 12 12 11 0 9 9 9 10 11 11 11 12 14 12 13 13 14 13 14 14 14 14 16 14 14 14 13 13 14 13 12 12 14 13 11 11 12 15 18 23 29 37 40 41 42 43 44 47 50 50 54 57 64 60 61 61 62 61 64 65 66 60 69 69 70 71 72 72 72 74 75 80 83 83 86 84 84 85 85 87 89 89 95 93 97 102 105 103 103 104 105 104 107 107 110 -193 116 -193 -177 119 119 -193 121 121 120 124 126 -193 127 128 126 128 131 130 129 130 -193 -193 -209 -193 136 -177 -193 -209 -209 -193 -193 -209 -193 160 -193 -209 36 -209 28 -193 -193 0 -193 -193 -209 -193 -209 -193 172 -193 103 105 107 104 104 105 -193 -193 -193 -193 -193 109 -193 0 0 0 0 0
    0 0 0 0 0 0 0 0 0 0 0 0 0 0 0 0 0 0 0 0 0 0 0 0 0 0 0 0 0 0 0 0 0 0 0 0 0 0 0 0 0 0 0 0 0 0 0 0 0 0 0 0 0 0 0 0 0 0 0 0 0 0 0 0 0 0 0 0 0 49 49 50 50 48 48 46 46 48 47 46 44 41 40 42 42 40 40 -193 0 0 0 0 0 0 0 0 0 -177 0 26 -209 -209 -209 -209 0 9 11 9 9 10 9 9 12 12 9 -193 -209 23 0 0 0 0 0 0 0 0 0 0 0 0 0 0 11 16 17 19 18 16 18 16 13 13 12 12 11 12 12 11 10 12 12 13 13 14 13 13 12 12 11 9 10 11 10 11 12 12 12 13 14 13 13 14 15 14 15 14 14 15 16 14 13 14 13 13 14 13 12 12 13 13 11 11 11 14 14 22 -193 36 40 41 42 43 44 46 50 48 53 56 62 60 60 61 61 61 64 65 66 60 69 70 71 72 73 73 74 76 77 82 84 83 86 84 84 84 85 86 87 88 94 93 96 102 104 102 102 103 104 102 106 106 109 -193 114 -193 -177 117 118 303 -193 121 119 124 126 -193 127 128 126 128 131 130 129 130 135 588 -193 137 136 -209 138 140 -209 -209 -193 -209 -193 159 -209 -209 -209 -209 30 -209 -209 -193 82 -193 98 101 -193 -209 -193 103 104 105 108 105 104 -193 -193 -193 962 963 961 -193 -209 0 0 0 0 0
    0 0 0 0 0 0 0 0 0 0 0 0 0 0 0 0 0 0 0 0 0 0 0 0 0 0 0 0 0 0 0 0 0 0 0 0 0 0 0 0 0 0 0 0 0 0 0 0 0 0 0 0 0 0 0 0 0 0 0 0 0 0 0 0 0 0 0 0 0 49 49 50 49 48 48 46 46 48 47 47 44 41 40 42 42 40 -193 0 0 0 0 0 0 0 0 0 0 0 0 0 0 0 -193 0 0 0 0 0 0 9 0 9 10 10 0 -193 -193 0 0 0 0 0 0 0 0 0 0 0 0 0 0 0 10 14 15 18 17 15 18 16 14 12 11 12 11 12 12 11 10 12 12 13 13 14 12 13 12 12 11 11 11 12 12 13 13 13 13 14 15 14 14 14 15 13 14 14 13 14 14 13 13 13 13 13 14 13 12 12 13 13 11 12 12 14 15 21 -193 -209 40 41 42 43 44 46 49 46 53 55 62 59 60 61 61 61 64 65 66 60 70 71 73 75 76 76 78 79 79 83 85 83 86 84 84 84 85 85 85 87 94 92 95 101 104 101 102 102 102 101 105 105 107 -193 112 -193 -177 116 117 302 -193 -177 119 124 126 -193 127 128 126 128 131 130 129 131 135 588 -193 137 137 135 138 138 133 -193 -209 -209 -209 -209 -209 -209 -209 -209 30 -209 -209 -193 85 -193 101 102 105 104 -193 103 104 106 108 106 105 963 963 -177 962 963 962 -177 959 0 0 0 0 0
    0 0 0 0 0 0 0 0 0 0 0 0 0 0 0 0 0 0 0 0 0 0 0 0 0 0 0 0 0 0 0 0 0 0 0 0 0 0 0 0 0 0 0 0 0 0 0 0 0 0 0 0 0 0 0 0 0 0 0 0 0 0 0 0 0 0 0 0 0 48 49 50 50 49 48 47 48 49 48 48 45 41 41 43 42 40 -193 0 0 0 0 0 0 0 0 0 0 0 0 0 0 0 0 0 0 0 9 0 0 9 0 0 10 9 0 -193 -193 0 0 0 0 0 0 0 0 0 0 0 0 0 0 0 9 12 14 17 16 15 18 16 14 12 11 12 11 12 11 11 11 12 12 13 13 15 12 13 12 12 11 11 12 12 12 13 14 14 14 14 15 14 14 14 15 13 14 13 13 14 14 13 13 13 13 12 13 12 12 11 12 12 11 12 12 14 15 -193 -177 -209 40 41 43 43 44 46 49 45 53 55 61 59 60 61 61 61 64 65 66 59 71 71 78 79 79 81 81 81 82 84 85 84 86 85 85 85 85 85 85 86 93 92 94 100 103 100 101 101 102 100 105 105 106 -193 111 -193 -177 115 116 -193 -193 -177 119 123 125 -193 127 128 126 128 131 130 129 131 135 -177 -193 138 137 136 138 138 135 120 -209 -193 -209 -209 -209 -209 -193 -209 -193 -209 -193 -193 86 87 102 102 105 104 -193 103 104 105 107 106 -209 962 962 -177 962 963 962 -177 -177 0 0 0 0 0
    0 0 0 0 0 0 0 0 0 0 0 0 0 0 0 0 0 0 0 0 0 0 0 0 0 0 0 0 0 0 0 0 0 0 0 0 0 0 0 0 0 0 0 0 0 0 0 0 0 0 0 0 0 0 0 0 0 0 0 0 0 0 0 0 0 0 0 0 0 48 49 50 50 49 49 48 49 49 49 48 47 41 41 43 41 38 -193 0 0 0 0 0 0 0 0 0 0 0 0 0 0 0 0 0 0 0 10 9 9 9 0 9 9 0 0 0 0 0 0 0 0 0 0 0 0 0 0 0 0 0 0 0 0 10 11 12 12 12 17 15 13 11 10 12 11 12 11 11 11 12 12 14 13 15 12 13 12 12 11 12 12 13 12 14 14 14 15 15 16 15 15 15 15 14 14 14 13 14 14 13 13 13 13 11 12 12 11 10 11 12 10 11 13 15 16 21 -209 38 41 42 42 43 44 46 49 44 51 54 61 59 60 61 61 61 64 66 66 59 73 72 84 82 83 84 84 83 84 85 87 84 87 86 86 86 86 86 86 86 93 92 93 100 103 99 100 101 101 100 104 104 105 108 110 112 -193 114 116 -193 -177 -177 118 123 125 -193 127 128 126 128 131 131 129 131 135 -177 -177 138 138 137 138 139 138 -209 -193 -193 -209 -193 113 -193 -193 -193 -193 -193 -193 -209 87 86 101 101 105 103 -193 103 104 104 106 -193 -209 961 -177 -177 961 963 962 -177 -177 0 0 0 0 0
    0 0 0 0 0 0 0 0 0 0 0 0 0 0 0 0 0 0 0 0 0 0 0 0 0 0 0 0 0 0 0 0 0 0 0 0 0 0 0 0 0 0 0 0 0 0 0 0 0 0 0 0 0 0 0 0 0 0 0 0 0 0 0 0 0 0 0 0 0 48 50 50 50 49 49 48 50 49 49 47 48 43 42 44 41 36 0 0 0 0 0 0 0 0 0 0 0 0 0 0 0 0 0 0 0 0 10 9 9 9 0 0 0 0 0 0 0 0 0 0 0 0 0 0 0 0 0 0 0 0 0 0 0 9 10 10 10 10 15 14 12 10 9 11 11 12 11 11 11 11 12 14 12 14 12 13 12 12 11 12 12 13 12 14 14 14 15 15 15 15 15 15 16 14 14 14 13 13 14 13 13 13 13 11 11 11 11 10 11 11 9 10 13 14 15 20 -209 37 41 42 42 43 44 46 49 44 50 54 60 59 60 61 61 61 64 66 66 59 73 79 87 84 84 86 86 84 85 86 88 85 88 87 86 87 87 87 87 86 92 91 92 99 102 99 100 100 100 100 104 104 104 107 109 111 115 113 115 -193 -177 -177 118 123 125 -193 127 129 126 128 130 131 129 130 135 -177 -177 -193 139 138 139 140 140 -209 143 -193 -193 -193 112 110 110 109 -209 -193 109 -209 87 86 100 101 103 102 -193 102 103 104 105 -193 -209 -177 -177 -177 960 962 962 -177 -177 0 0 0 0 0
    0 0 0 0 0 0 0 0 0 0 0 0 0 0 0 0 0 0 0 0 0 0 0 0 0 0 0 0 0 0 0 0 0 0 0 0 0 0 0 0 0 0 0 0 0 0 0 0 0 0 0 0 0 0 0 0 0 0 0 0 0 0 0 0 0 0 0 0 0 49 51 50 50 49 49 48 50 49 49 47 49 45 45 47 43 36 0 0 0 0 0 0 0 0 0 0 0 0 0 0 0 0 0 0 0 0 0 0 0 0 0 0 0 0 0 0 0 0 0 0 0 0 0 0 0 0 0 0 0 0 0 0 0 9 10 10 10 10 15 14 12 9 9 11 11 12 11 11 10 11 12 13 11 13 11 12 11 12 11 12 12 13 12 13 14 14 15 15 15 15 15 15 15 14 14 13 13 13 14 13 13 14 13 12 12 12 12 10 11 10 9 11 14 14 16 21 -209 -209 41 42 43 43 44 46 49 43 50 54 60 58 60 61 61 60 64 66 66 58 73 86 88 86 86 88 88 85 86 87 88 85 89 88 87 87 87 87 87 86 92 91 92 98 102 98 99 99 100 100 104 104 104 107 109 111 114 113 115 -193 119 119 118 123 125 -193 127 129 125 128 130 131 130 131 135 -177 590 140 140 140 139 142 142 -209 144 -193 -193 -193 111 111 110 109 -193 112 -193 -209 88 86 100 101 103 102 -193 102 103 104 105 -193 -209 -193 -193 -177 960 961 -177 -193 -193 0 0 0 0 0
    0 0 0 0 0 0 0 0 0 0 0 0 0 0 0 0 0 0 0 0 0 0 0 0 0 0 0 0 0 0 0 0 0 0 0 0 0 0 0 0 0 0 0 0 0 0 0 0 0 0 0 0 0 0 0 0 0 0 0 0 0 0 0 0 0 0 0 0 0 49 51 50 50 49 49 49 51 48 49 47 48 47 47 50 45 35 0 0 0 0 0 0 0 0 0 0 0 0 0 0 0 0 0 0 0 0 0 0 0 0 0 0 0 0 0 0 0 0 0 0 -193 0 0 0 0 0 0 0 0 0 0 0 0 9 10 10 10 10 13 13 13 9 0 12 11 12 11 12 11 11 12 13 11 13 11 12 11 12 11 12 12 12 12 13 14 14 14 15 15 15 14 15 14 14 13 13 12 13 14 13 13 14 14 12 12 13 12 10 11 12 10 11 16 15 16 21 -209 -209 39 41 42 43 43 45 49 43 49 54 60 58 59 60 60 60 63 66 64 -193 70 87 91 87 87 89 89 87 88 88 89 86 89 89 87 87 87 87 86 86 91 91 91 96 101 97 99 99 100 99 103 103 104 107 109 110 114 114 115 -193 119 119 118 123 126 -193 127 129 126 128 131 132 131 132 -193 -177 -177 141 141 141 -193 143 143 -193 144 -193 -193 -193 111 111 110 109 110 111 -193 -209 89 -193 -193 102 104 -193 -193 103 104 105 105 -193 -193 -193 -193 -193 -193 -193 -193 -193 -193 0 0 0 0 0
    0 0 0 0 0 0 0 0 0 0 0 0 0 0 0 0 0 0 0 0 0 0 0 0 0 0 0 0 0 0 0 0 0 0 0 0 0 0 0 0 0 0 0 0 0 0 0 0 0 0 0 0 0 0 0 0 0 0 0 0 0 0 0 0 0 0 0 0 0 50 51 51 50 50 49 49 51 48 49 47 47 48 48 49 44 33 0 0 0 0 0 0 0 0 0 0 0 0 0 0 0 0 0 0 0 0 0 0 0 0 0 0 0 0 0 0 0 0 0 0 -193 0 0 0 0 0 0 0 0 0 0 0 0 9 9 9 9 9 11 11 13 0 0 11 10 11 11 12 11 10 12 12 11 12 11 11 11 12 11 12 12 12 12 14 14 14 14 15 15 15 14 14 14 14 12 12 12 13 13 13 13 14 14 12 12 12 12 10 12 12 10 11 16 15 17 -193 -209 -209 -193 41 42 42 43 45 49 43 48 54 60 57 58 59 59 59 63 65 62 45 59 87 94 -193 88 91 90 87 89 89 90 87 89 90 87 87 87 87 86 86 91 90 91 95 101 96 98 99 99 99 -193 103 103 107 108 110 114 114 116 -193 119 119 119 124 126 125 127 130 126 128 131 133 132 133 -193 -209 -177 141 141 141 -193 143 143 141 144 -193 -193 -193 111 111 110 109 110 112 -193 -209 92 -209 -193 -193 105 -193 -193 -209 -193 106 107 -193 -193 -193 -193 -193 -193 -193 -193 -193 -193 0 0 0 0 0
    0 0 0 0 0 0 0 0 0 0 0 0 0 0 0 0 0 0 0 0 0 0 0 0 0 0 0 0 0 0 0 0 0 0 0 0 0 0 0 0 0 0 0 0 0 0 0 0 0 0 0 0 0 0 0 0 0 0 0 0 0 0 0 0 0 0 0 0 0 51 52 51 50 50 50 49 51 49 49 47 46 48 48 49 44 34 -193 0 0 0 0 0 0 0 0 0 0 0 0 0 0 0 0 0 0 0 0 0 0 0 0 0 0 0 0 0 0 0 0 0 -193 0 0 0 9 0 0 0 0 0 9 9 10 10 9 9 9 9 9 0 13 0 0 9 9 10 10 11 10 10 11 12 10 12 10 11 10 11 11 11 12 12 12 14 14 14 14 15 15 14 14 14 13 13 12 12 11 12 12 12 12 13 13 12 12 12 11 10 11 11 10 11 15 15 17 -193 -209 -209 -193 41 42 42 43 45 48 42 47 53 59 56 57 58 57 57 62 63 60 -177 -177 -193 94 91 88 91 -193 87 89 89 89 87 90 90 87 87 87 88 87 87 91 90 91 94 100 95 97 98 99 99 -193 103 103 107 109 110 114 115 116 -177 -193 120 120 124 126 125 126 130 125 128 131 133 133 134 -193 -209 -177 141 142 142 -193 143 143 142 144 146 -193 -193 111 112 111 110 111 113 -193 -193 101 -209 -193 -209 106 -193 -209 -209 -193 -193 109 -209 -193 -193 -193 -193 -193 -209 -193 -193 -193 0 0 0 0 0
    0 0 0 0 0 0 0 0 0 0 0 0 0 0 0 0 0 0 0 0 0 0 0 0 0 0 0 0 0 0 0 0 0 0 0 0 0 0 0 0 0 0 0 0 0 0 0 0 0 0 0 0 0 0 0 0 0 0 0 0 0 0 0 0 0 0 0 0 0 51 52 52 50 50 50 50 51 49 49 47 46 49 49 47 43 36 -209 0 0 0 0 0 0 0 0 0 0 0 0 0 0 0 0 0 0 0 0 0 0 0 0 0 0 0 0 0 0 0 0 0 -193 0 0 0 10 9 9 9 11 11 11 11 11 11 10 10 10 9 8 0 15 0 0 9 9 9 9 10 10 9 11 11 10 11 10 10 10 11 10 11 12 12 11 13 13 13 14 15 14 14 14 14 13 13 12 12 11 12 13 13 12 13 13 11 11 11 10 0 10 10 9 10 15 15 18 23 -209 -209 -209 41 42 43 43 45 49 42 49 54 59 55 57 56 56 56 60 61 57 -177 57 71 93 95 89 92 -193 -193 88 89 89 87 90 90 87 88 88 88 87 87 90 90 91 93 100 95 97 98 99 99 -193 103 103 107 109 111 114 116 117 -177 -193 120 -209 124 126 126 126 130 125 128 132 -193 134 135 -193 -193 -193 142 142 142 -193 144 144 142 143 -193 -193 -193 112 114 112 111 112 114 111 111 -193 -209 -193 -209 -209 -209 -193 -209 191 -193 -209 -209 -193 -193 -193 -193 -209 -209 -209 -209 -209 0 0 0 0 0
    0 0 0 0 0 0 0 0 0 0 0 0 0 0 0 0 0 0 0 0 0 0 0 0 0 0 0 0 0 0 0 0 0 0 0 0 0 0 0 0 0 0 0 0 0 0 0 0 0 0 0 0 0 0 0 0 0 0 0 0 0 0 0 0 0 0 0 0 0 52 52 52 51 51 50 50 51 49 50 47 46 48 49 43 42 36 -193 0 0 0 0 0 0 0 0 0 0 0 0 0 0 0 0 0 0 0 0 0 0 0 0 0 0 0 0 0 0 0 0 0 0 9 9 0 10 9 9 9 11 10 10 11 11 11 10 10 10 9 9 -177 18 0 0 9 9 9 9 10 9 0 10 10 9 11 10 10 10 11 10 11 12 11 11 13 13 13 13 14 14 14 14 15 13 14 13 12 11 12 12 12 12 12 12 11 10 11 9 0 0 9 0 9 14 14 17 -193 -209 -209 -193 41 42 43 44 46 50 43 52 54 59 55 56 55 55 55 59 59 55 46 57 70 -177 -177 90 -193 -177 -193 88 89 89 86 89 90 87 88 88 89 88 88 90 90 91 93 100 95 96 98 99 99 -193 103 104 107 109 111 114 116 117 -193 -193 -193 -209 124 126 126 125 130 125 128 132 -193 -193 135 -193 -193 -193 142 143 143 -193 145 144 142 143 -193 -193 -193 -193 116 115 113 115 116 114 116 -193 -209 -193 -209 168 171 178 183 189 197 200 -193 -193 -209 -193 -193 -209 -209 -209 -209 -209 0 0 0 0 0
    0 0 0 0 0 0 0 0 0 0 0 0 0 0 0 0 0 0 0 0 0 0 0 0 0 0 0 0 0 0 0 0 0 0 0 0 0 0 0 0 0 0 0 0 0 0 0 0 0 0 0 0 0 0 0 0 0 0 0 0 0 0 0 0 0 0 0 0 0 52 53 52 51 51 50 50 51 48 49 46 44 47 47 42 42 38 -193 0 0 0 0 0 0 0 0 0 0 0 0 0 0 0 0 0 0 0 0 0 0 0 0 0 0 0 9 0 0 9 0 0 0 9 9 0 10 9 0 9 10 10 10 11 11 11 10 10 10 10 10 -177 21 0 0 9 9 9 9 10 9 0 9 9 9 10 10 9 9 11 10 10 11 11 11 13 13 13 13 14 14 13 14 15 12 13 12 12 11 12 12 12 12 13 13 12 11 12 11 10 10 9 0 9 12 13 17 25 -209 -193 42 42 43 44 46 48 51 44 55 56 59 54 55 54 54 54 58 57 54 46 57 -177 -177 -177 92 -209 -177 -177 87 88 88 84 89 88 87 88 88 90 89 89 91 90 91 93 99 95 95 98 99 100 103 103 104 107 109 110 114 117 118 -193 121 -193 724 124 126 126 124 130 124 127 132 -177 -193 136 137 138 -193 142 143 143 -193 145 144 -193 143 -193 981 148 -193 117 117 116 117 118 -193 -193 -209 -209 162 169 167 170 176 181 187 195 198 -193 -209 -209 -209 -193 -209 -209 -209 -209 -193 0 0 0 0 0
    0 0 0 0 0 0 0 0 0 0 0 0 0 0 0 0 0 0 0 0 0 0 0 0 0 0 0 0 0 0 0 0 0 0 0 0 0 0 0 0 0 0 0 0 0 0 0 0 0 0 0 0 0 0 0 0 0 0 0 0 0 0 0 0 0 0 0 0 0 53 53 53 51 51 50 50 50 48 48 46 44 47 45 42 42 -193 -193 -209 0 0 0 0 0 0 0 0 0 0 0 0 0 0 0 0 0 0 0 0 0 0 0 9 0 0 10 0 9 9 9 0 0 9 9 0 9 9 0 0 0 0 10 10 10 10 9 10 10 10 11 9 22 11 10 9 9 9 9 10 9 0 9 9 9 9 9 9 0 10 9 10 11 11 11 13 13 13 13 14 13 13 14 14 12 13 12 11 11 13 12 13 13 13 14 13 12 13 12 12 11 11 9 9 12 13 17 25 -209 -193 42 43 44 46 48 50 53 47 57 57 59 54 54 52 52 53 57 56 53 46 57 -177 -177 -177 -193 -193 -177 -177 86 87 87 81 88 87 86 87 88 90 89 89 91 91 91 93 100 95 95 99 99 100 103 103 104 107 109 111 113 117 118 -209 121 -193 724 124 126 126 123 130 124 127 132 -177 -177 -193 137 138 -193 141 143 144 -193 -193 144 -193 -193 -193 981 -193 -193 -209 -209 -193 119 -209 -209 -209 377 -193 162 -193 165 -193 -193 175 185 191 195 -193 -209 -209 195 200 -209 -209 -193 -209 -209 0 0 0 0 0
    0 0 0 0 0 0 0 0 0 0 0 0 0 0 0 0 0 0 0 0 0 0 0 0 0 0 0 0 0 0 0 0 0 0 0 0 0 0 0 0 0 0 0 0 0 0 0 0 0 0 0 0 0 0 0 0 0 0 0 0 0 0 0 0 0 0 0 0 0 53 53 53 51 51 50 50 50 48 48 47 43 46 43 41 44 43 -193 -193 -193 0 0 0 0 0 0 0 0 0 0 0 0 0 0 0 0 0 0 0 0 0 9 10 -193 10 11 9 10 9 9 9 0 9 9 0 9 9 0 0 0 0 10 0 9 9 0 9 9 9 9 -177 22 13 11 10 9 10 10 10 10 0 9 9 10 10 10 9 9 11 9 10 11 11 11 13 12 12 12 13 13 12 13 14 12 13 13 12 12 14 13 13 13 13 14 13 13 13 11 12 11 11 10 10 12 13 18 26 -209 -209 42 43 45 48 51 52 54 50 57 58 59 53 53 51 51 53 56 55 53 47 57 -177 -177 -177 -193 -177 -177 -177 86 86 86 -209 -193 -193 85 86 88 -177 89 89 90 -193 91 93 99 95 94 99 100 101 104 104 104 107 109 111 114 -193 119 -209 120 -193 724 123 125 125 122 129 123 126 132 642 639 -193 -193 137 -193 141 143 143 -193 -193 144 142 -193 -193 981 -193 984 -193 -193 -209 -209 -193 -193 162 -193 -193 163 -193 164 166 170 168 177 186 190 193 -209 -209 -193 198 -209 -209 -209 -209 -209 0 0 0 0 0
    0 0 0 0 0 0 0 0 0 0 0 0 0 0 0 0 0 0 0 0 0 0 0 0 0 0 0 0 0 0 0 0 0 0 0 0 0 0 0 0 0 0 0 0 0 0 0 0 0 0 0 0 0 0 0 0 0 0 0 0 0 0 0 0 0 0 0 0 0 53 53 54 51 52 50 49 49 48 48 47 43 46 42 41 45 45 -193 -193 -177 -193 0 0 0 0 0 0 0 0 0 0 0 0 0 0 0 0 9 0 10 10 11 12 10 11 12 10 10 10 10 9 0 9 0 0 9 10 0 0 9 10 10 10 9 9 0 9 9 9 9 9 20 14 13 11 10 10 10 10 10 9 10 10 11 11 11 10 10 11 10 11 12 11 11 14 13 13 13 14 13 13 13 14 12 13 14 12 12 14 13 14 13 13 13 13 12 13 12 12 12 12 11 10 12 14 19 27 -193 -193 42 45 46 50 53 53 54 53 57 58 59 53 53 51 51 52 56 55 52 48 57 61 -177 -177 -193 -177 -177 -177 -193 -193 -193 -209 -209 -193 -193 86 88 91 -193 89 90 -193 90 93 99 95 94 99 100 101 104 104 104 107 109 111 114 -193 119 -193 120 -209 724 123 124 125 -193 -193 123 126 132 -193 -193 -193 136 137 -209 141 -193 143 -193 -193 143 141 -193 140 -193 -193 984 -193 -193 -209 -193 -193 -193 -193 -193 -193 -193 -193 163 166 168 167 169 -209 -193 -193 -209 -209 -193 -193 -193 -193 -209 701 -193 0 0 0 0 0
    0 0 0 0 0 0 0 0 0 0 0 0 0 0 0 0 0 0 0 0 0 0 0 0 0 0 0 0 0 0 0 0 0 0 0 0 0 0 0 0 0 0 0 0 0 0 0 0 0 0 0 0 0 0 0 0 0 0 0 0 0 0 0 0 0 0 0 0 0 53 53 54 52 52 51 49 49 48 48 47 42 46 42 42 46 48 -177 -177 -177 -193 0 0 0 0 0 0 0 0 0 9 0 0 0 9 9 0 10 10 12 11 12 13 11 12 13 10 11 10 10 9 9 9 0 0 9 11 10 10 10 11 10 10 9 9 0 0 0 0 0 9 17 13 13 11 10 10 10 10 10 9 10 10 11 12 12 11 11 12 10 12 12 12 12 14 13 13 13 14 13 13 14 15 13 14 15 13 13 14 14 14 14 13 13 13 13 13 13 12 12 12 11 11 12 14 19 28 -193 -209 44 47 50 52 55 55 55 56 57 58 58 54 54 51 51 53 56 56 -177 49 57 60 -177 -177 18 -177 -193 -209 -209 -193 -209 -209 -193 -177 -193 85 88 -193 -193 89 90 -193 90 93 100 95 95 100 100 101 104 104 104 108 109 112 114 -193 119 -193 120 -193 724 122 123 -193 829 828 123 125 131 -193 -193 -193 135 137 -209 140 -193 142 139 -193 143 141 -193 -193 -193 -193 -209 -193 -209 -193 390 -177 -193 -193 -193 -193 -193 -193 163 166 168 166 168 -193 180 183 -209 -209 -209 -193 700 701 -209 701 707 0 0 0 0 0
    0 0 0 0 0 0 0 0 0 0 0 0 0 0 0 0 0 0 0 0 0 0 0 0 0 0 0 0 0 0 0 0 0 0 0 0 0 0 0 0 0 0 0 0 0 0 0 0 0 0 0 0 0 0 0 0 0 0 0 0 0 0 0 0 0 0 0 0 0 53 53 54 52 52 51 49 49 48 48 47 43 47 43 43 48 49 -177 -193 -193 -209 -193 0 0 0 0 0 0 9 9 10 10 10 11 11 11 10 13 12 13 13 12 14 12 13 14 11 11 10 10 10 9 10 0 0 9 12 10 10 11 12 11 11 9 9 0 0 0 0 0 0 15 13 14 10 10 10 11 10 11 9 10 10 12 12 12 11 12 12 11 13 12 12 11 14 13 12 13 14 13 13 14 15 14 15 16 14 14 15 15 14 14 14 13 14 13 13 13 12 13 12 11 11 13 14 20 27 -193 -193 43 49 -193 -193 58 57 56 58 58 59 59 55 55 52 53 54 58 -193 -177 52 57 58 -177 -177 18 -193 23 -209 -209 -209 -209 -209 -209 -193 84 85 87 -209 88 89 89 -193 90 93 100 96 95 101 101 102 105 105 105 108 110 112 114 -193 119 119 120 -193 724 -193 121 835 830 828 122 124 130 -193 -193 -193 135 136 -209 -193 -193 142 -193 -193 143 -193 -193 -193 -193 -193 -209 -209 -209 -193 390 -193 -193 161 -193 -193 162 -193 162 166 167 166 167 168 178 178 173 176 -193 -193 -209 -209 -209 701 -209 0 0 0 0 0
    0 0 0 0 0 0 0 0 0 0 0 0 0 0 0 0 0 0 0 0 0 0 0 0 0 0 0 0 0 0 0 0 0 0 0 0 0 0 0 0 0 0 0 0 0 0 0 0 0 0 0 0 0 0 0 0 0 0 0 0 0 0 0 0 0 0 0 0 0 53 53 54 52 52 51 49 49 48 48 47 43 48 44 45 48 49 -193 -193 51 -193 -193 -193 0 0 0 0 9 10 10 12 12 12 13 13 12 11 15 14 15 14 13 14 14 14 15 13 12 12 11 11 11 11 10 10 10 13 10 10 11 11 11 10 0 0 0 0 0 0 0 0 14 13 14 11 10 11 11 11 11 10 10 11 12 12 12 12 12 12 11 14 12 13 12 14 13 12 14 14 13 14 14 16 14 16 16 14 14 15 16 14 14 14 13 14 14 13 14 12 13 13 11 12 13 15 20 27 -193 -193 -209 51 -193 -193 61 58 57 59 58 60 60 57 56 54 55 55 59 59 -177 54 56 57 -177 -177 18 -193 22 23 -193 -209 -209 -209 -209 -209 83 84 87 -209 88 89 89 90 90 93 100 97 97 101 102 103 105 105 105 109 110 113 115 -193 119 119 119 -193 724 -193 120 -177 832 829 -193 124 128 133 134 -193 134 136 -193 -193 -193 141 -193 -193 -193 -193 -193 -193 142 -193 -209 -209 -209 -193 390 -193 -193 160 -193 -193 162 -193 163 166 167 166 167 168 177 176 175 177 -209 -193 -193 188 -209 -209 -209 0 0 0 0 0
    0 0 0 0 0 0 0 0 0 0 0 0 0 0 0 0 0 0 0 0 0 0 0 0 0 0 0 0 0 0 0 0 0 0 0 0 0 0 0 0 0 0 0 0 0 0 0 0 0 0 0 0 0 0 0 0 0 0 0 0 0 0 0 0 0 0 0 0 0 53 53 54 51 52 51 49 49 48 48 47 43 48 45 46 48 48 52 51 51 -193 -193 -193 -193 0 0 9 10 10 11 12 12 13 13 13 13 12 16 15 16 16 14 16 15 16 16 14 14 14 12 13 12 12 11 12 11 14 10 11 11 12 11 10 0 0 0 0 0 0 0 0 13 13 14 11 11 11 11 11 12 10 11 11 12 12 12 12 13 12 12 14 12 13 12 14 13 12 14 14 13 14 14 15 14 15 16 14 13 14 15 13 14 14 13 14 14 13 14 12 13 12 11 11 12 14 20 27 40 -209 49 53 -193 58 62 59 58 60 58 60 60 59 58 55 56 56 60 61 -177 55 56 56 -177 -177 18 22 23 23 -193 -193 -209 -209 -209 -209 81 83 86 -209 87 88 88 89 90 93 100 99 98 102 103 103 105 106 106 109 110 114 115 -193 119 119 119 -193 -193 -193 118 -177 834 829 -193 -193 127 133 133 -193 134 135 -193 -193 -193 140 -193 -193 -193 -193 -193 -193 141 -193 -193 -193 -193 -193 389 -193 -193 -193 -193 -193 -193 162 162 166 167 166 167 168 177 175 177 180 -209 -193 -193 -209 -209 -209 -209 0 0 0 0 0
    0 0 0 0 0 0 0 0 0 0 0 0 0 0 0 0 0 0 0 0 0 0 0 0 0 0 0 0 0 0 0 0 0 0 0 0 0 0 0 0 0 0 0 0 0 0 0 0 0 0 0 0 0 0 0 0 0 0 0 0 0 0 0 0 0 0 0 0 0 53 53 54 51 51 51 49 49 48 48 48 44 49 45 46 48 48 52 51 51 52 -193 1008 -209 -193 0 10 11 11 12 14 14 14 14 15 14 13 17 16 17 17 15 17 15 16 16 15 14 14 13 14 13 13 12 13 12 15 11 12 12 13 12 11 9 9 0 0 0 0 0 0 12 13 13 11 11 11 12 11 12 11 11 12 13 13 12 12 13 12 12 13 12 12 12 13 13 12 13 14 13 13 14 14 14 14 15 14 13 14 15 13 14 14 13 14 14 13 14 12 13 12 10 10 11 13 19 26 40 -209 52 52 57 58 62 59 58 60 58 60 60 61 59 57 58 58 61 62 57 57 56 55 101 106 19 22 22 23 -193 21 -193 -209 -209 -193 79 81 84 -193 86 87 87 88 89 92 100 100 100 103 103 104 106 107 107 110 111 116 116 -193 119 119 119 -193 -177 115 115 -193 -177 -193 -193 -177 127 132 -193 -193 133 135 -193 -193 -193 139 -193 -193 -193 -193 11 -193 -193 -193 -193 -193 388 -193 388 -193 -209 -193 -193 -193 -193 161 161 165 166 165 167 168 177 175 178 -209 -209 -177 -193 100 -193 100 97 0 0 0 0 0
    0 0 0 0 0 0 0 0 0 0 0 0 0 0 0 0 0 0 0 0 0 0 0 0 0 0 0 0 0 0 0 0 0 0 0 0 0 0 0 0 0 0 0 0 0 0 0 0 0 0 0 0 0 0 0 0 0 0 0 0 0 0 0 0 0 0 0 0 0 52 52 54 50 51 51 49 49 48 48 48 44 50 46 47 48 48 52 51 51 52 51 -193 -193 -209 0 10 12 12 13 15 15 15 15 15 15 14 17 16 17 18 16 18 15 16 16 16 16 14 14 15 14 15 14 16 13 17 13 13 14 15 13 12 9 9 0 0 0 0 0 0 11 12 12 11 11 11 12 11 12 11 11 12 13 13 13 12 13 12 12 13 12 12 12 13 12 12 13 13 12 13 14 14 14 14 15 14 13 14 15 13 13 14 13 14 14 13 13 12 13 12 9 9 10 12 17 24 -209 -209 51 48 54 57 61 59 58 60 57 59 60 63 60 58 59 59 62 63 59 58 56 55 101 106 19 22 22 22 -193 20 -209 -209 -193 -193 78 80 82 84 85 86 87 88 89 92 100 101 101 103 104 104 106 108 108 111 112 117 117 119 119 119 119 -193 -177 113 113 -177 -177 -193 734 -177 -193 -193 -193 -193 133 135 132 -193 137 138 -193 -193 -193 -193 -193 -193 -193 -193 -193 -193 -193 -193 387 -209 -193 -193 15 16 -193 -193 161 164 166 164 166 166 177 -209 -209 -209 -209 -193 -193 98 101 97 95 0 0 0 0 0
    0 0 0 0 0 0 0 0 0 0 0 0 0 0 0 0 0 0 0 0 0 0 0 0 0 0 0 0 0 0 0 0 0 0 0 0 0 0 0 0 0 0 0 0 0 0 0 0 0 0 0 0 0 0 0 0 0 0 0 0 0 0 0 0 0 0 0 0 0 52 52 54 50 51 51 49 50 48 49 48 44 50 46 47 48 48 52 51 51 51 51 -193 53 -209 -193 10 12 13 14 16 16 17 17 17 16 15 18 17 18 19 17 19 16 17 17 16 17 15 15 16 15 17 16 18 16 18 15 14 14 16 14 13 10 10 0 0 0 0 0 9 11 13 13 11 11 11 12 11 12 11 11 12 13 12 12 12 13 12 12 13 12 12 12 13 13 12 13 13 13 13 14 14 14 14 15 14 14 13 14 13 13 14 12 14 13 13 13 12 13 11 0 0 9 12 15 24 -193 115 -209 46 52 56 59 58 57 59 57 59 60 65 61 59 60 61 63 65 61 59 57 55 100 106 18 22 22 21 16 19 -209 -209 -209 -193 77 79 79 82 83 85 86 87 89 92 100 102 102 103 104 105 106 108 108 112 113 117 118 120 119 119 120 -177 -177 112 -193 -177 -209 -193 734 -177 -193 -193 -193 -193 -193 -193 -193 -193 137 138 -193 139 -193 -193 -193 -193 -193 -193 -193 -193 -193 -209 386 -193 -193 -193 15 17 20 -193 -193 -193 166 163 165 -209 -209 -209 -209 103 101 -193 95 97 100 95 94 0 0 0 0 0
    0 0 0 0 0 0 0 0 0 0 0 0 0 0 0 0 0 0 0 0 0 0 0 0 0 0 0 0 0 0 0 0 0 0 0 0 0 0 0 0 0 0 0 0 0 0 0 0 0 0 0 0 0 0 0 0 0 0 0 0 0 0 0 0 0 0 0 0 0 52 52 54 50 50 51 49 50 48 49 48 44 51 47 48 47 47 51 50 51 51 50 53 -209 -209 -209 12 14 15 16 17 18 18 18 18 18 17 19 18 19 20 19 19 16 17 17 16 17 15 16 16 16 17 17 18 17 18 16 15 15 16 15 14 11 11 9 9 10 10 9 10 12 13 13 11 11 11 11 10 11 10 10 11 12 12 12 12 13 11 12 13 12 12 12 13 13 12 13 13 13 14 14 14 14 14 14 14 13 13 14 12 13 13 12 13 13 12 13 11 12 10 0 0 0 11 12 22 -209 -209 -193 49 52 55 58 57 56 58 55 58 59 66 62 60 62 62 64 66 63 61 57 56 100 106 -193 22 21 21 16 19 -209 -209 -209 -193 77 78 78 80 82 84 86 87 89 92 100 103 103 104 105 105 106 109 109 112 -193 118 -193 120 119 119 120 -177 -177 112 -193 -177 -193 -193 -193 732 -193 130 -193 -193 -193 -193 -193 -193 136 137 135 139 -193 -193 -193 -193 -193 -193 -193 -193 -193 -209 385 390 -193 -193 18 20 22 -193 -193 -193 -209 -209 -209 -209 -209 -209 -209 102 100 99 95 96 99 94 93 0 0 0 0 0
    0 0 0 0 0 0 0 0 0 0 0 0 0 0 0 0 0 0 0 0 0 0 0 0 0 0 0 0 0 0 0 0 0 0 0 0 0 0 0 0 0 0 0 0 0 0 0 0 0 0 0 0 0 0 0 0 0 0 0 0 0 0 0 0 0 0 0 0 0 51 51 54 49 50 51 49 50 48 49 48 44 51 47 48 47 46 51 49 50 50 49 52 -193 -209 -209 16 18 19 19 19 19 18 18 19 18 18 19 19 19 20 19 19 17 17 17 16 16 15 15 16 16 16 17 18 18 19 18 17 17 17 16 14 11 11 10 9 10 10 9 10 12 12 12 10 11 10 10 10 10 10 10 11 12 12 12 11 13 11 12 13 12 13 12 13 12 12 14 14 13 15 14 14 14 15 15 13 13 13 14 12 13 13 12 13 13 12 13 11 11 0 0 0 0 9 0 18 -209 -209 -193 51 52 54 57 56 56 58 54 58 59 67 62 61 63 63 65 67 65 62 58 58 99 106 -193 22 21 21 16 19 -209 -209 -193 -193 76 78 77 -193 -193 84 86 87 89 93 101 104 104 105 105 105 106 109 109 113 363 119 -193 120 119 119 -193 -193 -177 -193 -193 222 -177 125 -193 -193 -193 129 130 -193 -193 -193 129 -193 136 137 135 140 143 -193 -193 -193 -193 -209 -193 -193 -193 -209 -177 390 -193 -209 20 22 23 24 24 24 23 -209 -209 -193 -209 -209 -209 101 99 98 94 95 98 93 92 0 0 0 0 0
    0 0 0 0 0 0 0 0 0 0 0 0 0 0 0 0 0 0 0 0 0 0 0 0 0 0 0 0 0 0 0 0 0 0 0 0 0 0 0 0 0 0 0 0 0 0 0 0 0 0 0 0 0 0 0 0 0 0 0 0 0 0 0 0 0 0 0 0 0 51 51 53 49 50 51 49 50 48 48 48 44 51 47 48 46 45 50 48 49 49 47 -193 -177 -193 -193 19 20 20 19 20 19 18 19 19 19 18 19 19 20 21 20 20 18 17 17 16 16 15 15 15 16 16 17 18 18 19 19 18 18 18 18 17 13 13 12 11 12 12 11 11 12 12 11 10 10 10 10 10 10 10 10 11 12 12 12 12 13 11 12 13 11 13 12 13 12 12 14 14 13 15 14 14 14 15 14 13 13 12 13 11 12 13 12 13 12 11 11 10 9 0 0 0 0 0 0 12 -177 -177 53 49 51 53 56 56 55 57 53 58 59 67 63 61 63 64 65 67 66 63 59 61 97 106 -193 22 22 21 16 20 -209 -209 -193 -209 -193 77 -193 -193 -193 83 85 88 89 92 100 104 104 104 105 105 106 109 109 113 364 118 -193 120 118 119 -193 -193 -177 -193 -193 222 -177 125 125 -193 123 129 130 129 130 132 128 -193 135 136 135 140 143 -193 -193 -193 -193 -209 -193 -209 -209 -193 -193 -209 -209 -209 -193 21 23 24 25 24 23 -209 -209 -177 111 -193 103 100 98 96 93 93 96 92 91 0 0 0 0 0
    0 0 0 0 0 0 0 0 0 0 0 0 0 0 0 0 0 0 0 0 0 0 0 0 0 0 0 0 0 0 0 0 0 0 0 0 0 0 0 0 0 0 0 0 0 0 0 0 0 0 0 0 0 0 0 0 0 0 0 0 0 0 0 0 0 0 0 0 0 50 50 53 49 50 50 49 50 47 48 48 44 51 47 48 45 44 49 47 48 48 46 -193 -177 -193 -193 19 19 20 19 20 19 18 19 19 19 19 20 20 21 21 21 20 19 18 17 17 17 15 15 16 17 17 18 19 19 19 19 19 19 20 19 18 15 15 14 13 14 14 12 13 12 12 11 10 10 11 11 10 10 11 10 11 12 12 12 11 12 10 11 12 11 13 12 13 12 12 13 13 13 15 14 13 13 13 13 13 13 11 12 11 12 12 12 12 11 10 10 9 0 0 0 0 0 0 0 0 -177 -177 -177 49 51 52 55 54 54 55 51 58 58 67 63 62 63 64 64 67 66 64 59 -193 96 105 -193 23 22 21 17 20 -209 -209 -209 -209 -193 76 -193 -193 -193 82 86 88 89 92 100 104 104 104 105 105 106 109 109 112 364 118 -193 119 118 119 -209 -193 -177 -193 -193 -177 -177 126 125 123 123 129 129 128 129 131 127 134 134 136 -193 140 144 -193 -193 -209 -193 -209 -193 -209 -209 116 -193 116 -193 -193 -209 20 23 24 25 24 23 -209 -209 -177 107 103 102 100 98 96 92 93 95 91 90 0 0 0 0 0
    0 0 0 0 0 0 0 0 0 0 0 0 0 0 0 0 0 0 0 0 0 0 0 0 0 0 0 0 0 0 0 0 0 0 0 0 0 0 0 0 0 0 0 0 0 0 0 0 0 0 0 0 0 0 0 0 0 0 0 0 0 0 0 0 0 0 0 0 0 50 50 53 49 49 50 49 50 47 48 48 44 51 46 47 45 44 48 47 47 47 46 -193 -177 -193 -193 21 20 21 18 19 19 17 18 18 19 19 20 20 21 22 22 22 20 19 18 17 17 16 15 17 17 18 18 20 20 20 20 20 20 20 20 18 16 15 14 13 13 13 12 14 12 12 12 11 11 11 11 11 10 11 11 12 12 12 12 11 11 10 10 11 11 13 12 13 13 13 14 14 14 15 14 14 14 13 13 13 13 11 12 11 11 11 11 11 9 9 9 0 0 0 0 0 0 0 0 0 -193 -177 -177 48 51 51 53 53 53 54 48 57 58 66 63 61 63 64 64 67 67 65 -177 -193 94 103 -193 -193 -193 21 17 21 -209 -193 -209 -209 -193 76 -193 76 -193 -193 87 89 89 92 100 104 103 104 105 105 106 109 109 112 -193 116 117 119 117 118 -177 -193 -177 118 -193 -177 -177 126 126 123 124 129 -193 -193 129 131 128 134 135 -193 -209 141 145 -193 -209 -209 981 -193 884 -209 -193 115 114 114 115 113 -193 18 22 22 23 23 22 -209 340 -193 -177 -177 102 100 99 97 93 93 95 91 90 0 0 0 0 0
    0 0 0 0 0 0 0 0 0 0 0 0 0 0 0 0 0 0 0 0 0 0 0 0 0 0 0 0 0 0 0 0 0 0 0 0 0 0 0 0 0 0 0 0 0 0 0 0 0 0 0 0 0 0 0 0 0 0 0 0 0 0 0 0 0 0 0 0 0 50 50 53 49 49 50 49 50 47 48 48 44 51 47 47 45 44 48 46 47 47 45 -193 -177 -193 -193 22 20 21 16 18 17 16 17 17 19 19 20 21 21 22 22 22 20 19 18 17 17 16 16 17 18 18 19 20 20 20 20 20 19 19 19 17 15 15 14 13 13 13 12 14 12 12 12 12 12 12 12 12 11 12 11 12 12 12 12 12 11 10 10 12 12 13 13 13 14 14 14 15 14 16 15 14 15 14 13 14 13 12 12 11 12 11 11 11 10 9 9 9 0 0 0 0 0 0 0 0 -193 -177 -177 47 50 50 52 52 52 53 46 57 57 65 62 61 62 63 62 67 68 65 -177 89 94 101 101 -193 -193 -193 -193 -209 -193 82 -193 -209 -193 76 75 76 -193 -193 88 90 89 92 100 103 103 103 104 105 105 108 108 111 -193 115 116 118 117 118 -177 -193 -193 118 -193 -209 -177 126 126 123 123 129 -193 -193 129 131 -193 -193 136 -193 -193 142 146 145 -209 -209 982 -193 884 -193 -193 114 113 113 114 112 -193 16 20 20 20 21 20 21 340 -209 -177 -177 -177 100 99 97 93 93 95 91 90 0 0 0 0 0
    0 0 0 0 0 0 0 0 0 0 0 0 0 0 0 0 0 0 0 0 0 0 0 0 0 0 0 0 0 0 0 0 0 0 0 0 0 0 0 0 0 0 0 0 0 0 0 0 0 0 0 0 0 0 0 0 0 0 0 0 0 0 0 0 0 0 0 0 0 50 49 53 49 49 50 49 50 47 48 49 44 51 47 47 45 44 48 46 47 47 45 -193 -177 -177 -193 22 18 17 13 13 15 15 16 16 18 19 20 21 21 21 21 21 20 19 18 17 16 17 16 18 18 18 19 21 20 20 20 20 18 18 18 16 15 15 14 13 13 14 13 14 13 12 12 12 13 13 12 14 12 13 12 12 13 12 12 12 11 11 11 13 12 14 14 14 14 14 15 15 15 16 15 14 15 14 13 13 12 11 12 11 12 11 12 11 10 10 10 10 9 0 0 0 0 0 0 0 -193 -177 46 47 51 50 51 51 51 52 45 57 57 64 61 60 61 62 61 66 68 65 -193 89 93 99 99 -193 -193 -193 -209 -209 82 80 -193 -209 -193 76 75 76 -209 -193 88 90 89 92 99 103 102 102 103 104 104 108 108 110 362 113 114 117 116 117 -193 121 -193 118 121 -209 -177 126 126 122 123 129 -193 -193 128 131 -193 -193 -209 -193 -193 143 146 145 -193 -209 982 -193 884 -193 -193 113 111 112 113 111 -193 15 19 18 17 20 19 19 -193 -193 -177 -177 -177 100 98 96 93 92 94 90 89 0 0 0 0 0
    0 0 0 0 0 0 0 0 0 0 0 0 0 0 0 0 0 0 0 0 0 0 0 0 0 0 0 0 0 0 0 0 0 0 0 0 0 0 0 0 0 0 0 0 0 0 0 0 0 0 0 0 0 0 0 0 0 0 0 0 0 0 0 0 0 0 0 0 0 50 49 53 49 50 50 49 50 48 49 49 44 51 48 47 46 44 49 46 47 47 46 46 -177 -177 -177 22 16 14 11 11 12 12 13 14 16 19 -193 21 20 21 21 20 20 19 18 16 15 17 16 18 18 18 19 20 20 20 19 19 17 17 17 15 15 14 14 13 13 13 12 13 13 13 13 13 13 13 13 14 12 13 12 12 13 13 13 12 13 13 13 15 14 15 15 15 15 14 15 16 15 16 15 14 14 14 13 13 12 11 12 11 12 12 12 12 11 11 11 10 10 9 9 0 0 0 0 9 30 -177 46 48 51 49 50 50 50 51 44 55 56 62 60 59 60 61 60 65 67 63 -193 90 92 98 99 98 -193 -193 -209 -209 -177 79 -209 -209 -193 -193 -193 75 -209 -193 88 90 89 92 99 102 101 102 102 103 103 107 107 108 362 111 113 117 116 117 -193 -193 -209 118 121 -193 -177 127 126 122 123 129 -193 -193 129 131 -193 -177 -209 -193 -193 -193 146 145 145 -209 983 -209 885 -193 -193 111 110 110 111 110 -193 15 18 16 15 18 18 18 -193 -193 -177 -177 -177 99 97 96 92 92 93 90 -193 0 0 0 0 0
    0 0 0 0 0 0 0 0 0 0 0 0 0 0 0 0 0 0 0 0 0 0 0 0 0 0 0 0 0 0 0 0 0 0 0 0 0 0 0 0 0 0 0 0 0 0 0 0 0 0 0 0 0 0 0 0 0 0 0 0 0 0 0 0 0 0 0 0 0 50 49 53 49 50 50 49 51 48 49 49 44 52 49 47 46 44 49 46 47 47 46 46 -177 -177 -177 -193 -193 13 10 9 10 11 11 12 14 18 19 21 20 20 21 20 21 20 18 17 15 17 16 18 18 18 19 20 19 20 19 19 18 16 16 15 14 14 13 13 13 13 12 13 12 12 13 13 13 13 14 14 12 14 13 13 14 14 14 13 15 15 15 17 15 16 15 15 16 14 15 16 15 15 15 15 15 14 13 14 12 11 12 12 12 11 12 12 12 11 11 10 10 10 10 9 9 0 0 10 -177 -177 45 47 51 48 49 48 49 50 43 53 55 60 58 58 59 59 58 64 65 61 -209 90 92 97 99 98 96 97 -193 -209 80 78 74 -209 -193 -193 -193 74 -209 -193 87 89 89 92 98 102 100 101 101 102 103 106 106 107 -177 110 112 116 115 116 463 120 120 118 121 -193 -177 127 126 122 122 129 620 622 -193 -193 -193 -177 -209 -193 -209 -193 146 145 144 -209 -193 -209 -193 -193 -193 111 109 109 110 109 20 16 18 16 15 17 16 16 -209 -193 -177 -177 -177 98 96 95 92 92 93 90 -193 0 0 0 0 0
    0 0 0 0 0 0 0 0 0 0 0 0 0 0 0 0 0 0 0 0 0 0 0 0 0 0 0 0 0 0 0 0 0 0 0 0 0 0 0 0 0 0 0 0 0 0 0 0 0 0 0 0 0 0 0 0 0 0 0 0 0 0 0 0 0 0 0 0 0 50 49 53 49 50 51 49 51 48 49 49 44 52 49 47 47 44 49 46 46 47 45 45 -177 -177 -177 -209 -209 11 9 0 9 9 10 11 12 16 17 19 19 20 20 21 21 20 18 19 16 19 17 19 18 18 19 20 19 19 18 18 17 15 15 14 14 13 12 12 12 12 12 13 12 12 13 13 13 14 14 15 13 15 14 14 15 15 14 14 17 17 16 19 17 18 17 16 17 15 15 16 14 15 15 15 15 14 13 14 11 12 12 12 12 11 12 12 12 12 11 10 11 10 10 9 9 9 9 9 -193 46 44 46 50 47 47 47 47 49 42 48 54 59 57 57 57 58 57 62 63 59 -209 -209 92 96 98 97 96 97 -193 -193 82 79 73 -209 164 -209 -193 -193 -193 -193 86 89 89 92 98 101 99 100 100 101 102 105 105 106 363 110 111 116 114 116 463 119 119 118 121 121 -177 127 126 121 122 129 620 622 -193 -193 -177 -177 -193 -193 -209 -193 145 144 143 -193 -193 -209 -209 -193 -193 110 108 109 109 108 21 18 18 16 15 17 16 16 -209 -193 -177 -177 -177 98 96 95 92 91 92 -193 -209 0 0 0 0 0
    0 0 0 0 0 0 0 0 0 0 0 0 0 0 0 0 0 0 0 0 0 0 0 0 0 0 0 0 0 0 0 0 0 0 0 0 0 0 0 0 0 0 0 0 0 0 0 0 0 0 0 0 0 0 0 0 0 0 0 0 0 0 0 0 0 0 0 0 0 50 49 53 49 50 51 50 51 48 49 49 45 52 50 47 47 44 49 46 46 47 45 45 -177 -177 -177 -193 -193 9 9 0 0 9 9 10 12 14 15 18 18 19 20 20 21 20 19 20 18 20 19 20 19 19 20 20 18 19 16 18 17 14 13 13 13 12 12 11 11 11 11 13 12 12 13 13 13 14 14 15 13 15 14 14 15 15 14 15 17 19 18 20 20 19 19 18 18 16 15 16 14 15 15 14 15 13 13 14 11 12 13 12 12 12 13 12 11 12 12 11 11 10 10 9 10 9 10 9 -177 44 43 45 48 46 45 45 46 47 41 44 52 58 55 56 56 -193 56 61 61 57 -209 -209 92 95 98 97 97 97 -193 -193 83 -193 73 -209 -193 -193 -209 -193 75 78 86 89 89 92 97 101 98 99 99 100 101 104 104 105 364 109 110 115 113 115 -193 119 119 117 121 121 -177 127 126 121 122 129 621 -177 -193 -193 -177 -193 141 -193 -193 141 144 143 142 987 -193 -209 -209 -193 -193 109 107 108 108 107 23 20 19 16 15 17 16 16 -209 -193 -177 -177 -177 98 95 95 92 91 -193 -193 -193 0 0 0 0 0
    0 0 0 0 0 0 0 0 0 0 0 0 0 0 0 0 0 0 0 0 0 0 0 0 0 0 0 0 0 0 0 0 0 0 0 0 0 0 0 0 0 0 0 0 0 0 0 0 0 0 0 0 0 0 0 0 0 0 0 0 0 0 0 0 0 0 0 0 0 50 50 53 50 50 51 50 51 49 49 49 45 52 50 47 48 44 49 46 46 46 45 44 -177 -177 -177 -193 -193 0 9 0 0 0 9 9 11 12 13 15 16 19 19 20 21 20 19 21 19 21 20 20 20 20 21 20 18 18 15 17 16 13 11 12 12 12 11 11 11 11 12 13 12 12 14 13 14 15 14 15 13 16 15 14 15 15 15 16 18 20 20 22 22 21 22 20 20 18 17 17 15 15 15 14 15 14 13 14 12 12 14 13 13 12 13 12 12 13 12 11 11 10 10 9 10 10 10 9 -177 -209 43 44 47 45 44 44 45 46 41 42 49 56 53 55 55 55 55 59 59 56 -193 -209 92 94 98 97 96 97 -193 -177 82 78 73 -209 -193 74 -193 73 75 77 85 89 89 92 96 101 97 99 98 100 100 103 103 104 -193 108 110 114 113 115 -193 118 118 117 121 121 -177 127 126 121 122 130 -177 -177 -177 -193 -177 -193 -193 -193 143 141 144 142 -193 987 -193 -209 -193 -209 -193 107 106 106 107 106 24 21 19 17 15 16 15 15 -193 -193 -177 -177 -177 98 95 95 92 -193 -193 -193 -193 0 0 0 0 0
    0 0 0 0 0 0 0 0 0 0 0 0 0 0 0 0 0 0 0 0 0 0 0 0 0 0 0 0 0 0 0 0 0 0 0 0 0 0 0 0 0 0 0 0 0 0 0 0 0 0 0 0 0 0 0 0 0 0 0 0 0 0 0 0 0 0 0 0 0 50 50 53 50 50 51 50 52 49 49 50 45 52 51 48 48 45 49 46 46 46 44 44 -193 -177 -177 -193 -209 8 9 0 0 0 0 9 10 11 12 13 14 18 18 18 20 19 19 21 19 21 19 19 19 20 20 19 16 17 14 15 16 12 11 11 12 11 11 11 10 10 11 12 12 11 14 13 14 15 14 15 14 16 15 14 15 15 16 17 19 21 21 23 22 22 23 21 21 19 18 17 16 15 15 15 16 14 14 14 12 12 14 13 13 12 13 12 12 12 12 11 11 10 10 9 10 10 11 9 -177 -193 42 43 46 44 44 44 45 46 41 42 47 55 52 53 53 53 54 58 57 55 51 -177 91 93 97 96 -193 -193 -177 -177 79 77 73 -193 -193 74 73 73 75 77 85 89 89 92 96 101 97 98 97 99 99 102 102 103 -193 108 109 114 112 115 116 118 118 117 121 121 -193 127 127 122 124 131 -177 -177 -177 -193 -177 140 -193 -193 143 141 143 142 -193 987 -193 -193 -193 -209 -193 -209 104 103 -209 -209 23 21 19 17 14 15 14 13 -193 -193 -193 -193 95 96 93 94 91 -193 -193 -193 -193 0 0 0 0 0
    0 0 0 0 0 0 0 0 0 0 0 0 0 0 0 0 0 0 0 0 0 0 0 0 0 0 0 0 0 0 0 0 0 0 0 0 0 0 0 0 0 0 0 0 0 0 0 0 0 0 0 0 0 0 0 0 0 0 0 0 0 0 0 0 0 0 0 0 0 50 50 53 50 50 51 51 52 50 50 50 46 52 51 47 48 45 48 46 45 46 44 44 -193 -177 -177 -193 -209 9 10 0 0 0 0 9 10 11 11 11 12 14 15 15 16 16 16 19 18 20 19 18 18 19 19 17 14 15 13 14 15 12 11 11 12 11 11 10 10 10 11 12 12 11 13 12 13 14 14 14 13 16 15 14 15 15 17 18 21 22 21 23 23 23 23 21 21 20 19 18 17 16 16 15 16 15 14 13 12 11 15 13 13 12 13 12 12 13 12 11 12 10 10 9 10 10 11 10 -177 -177 -193 43 46 44 44 44 45 46 42 44 48 55 51 53 53 53 53 56 55 54 51 -193 91 92 95 95 -193 -193 -177 -177 77 -193 -193 -209 74 75 73 73 76 78 85 88 88 92 96 101 96 98 97 98 98 101 101 102 -193 108 109 114 112 115 117 118 118 118 122 122 -193 127 127 123 126 131 -193 -193 -193 -209 -209 139 -193 -193 143 141 142 141 -193 987 -193 -193 140 -209 -209 -209 -209 -193 23 23 22 20 18 17 14 14 -193 -193 -193 -193 -209 -193 -193 -193 -193 -193 -193 174 179 179 -193 0 0 0 0 0
    0 0 0 0 0 0 0 0 0 0 0 0 0 0 0 0 0 0 0 0 0 0 0 0 0 0 0 0 0 0 0 0 0 0 0 0 0 0 0 0 0 0 0 0 0 0 0 0 0 0 0 0 0 0 0 0 0 0 0 0 0 0 0 0 0 0 0 0 0 50 50 52 50 50 51 51 52 50 50 50 46 52 51 48 48 45 48 47 45 46 44 44 -193 -177 -177 -209 -209 -193 9 0 0 0 0 9 10 10 9 9 11 13 13 13 13 14 15 19 18 19 19 18 18 18 19 16 13 15 13 14 15 13 12 11 12 11 11 10 10 10 11 11 11 11 13 12 13 14 13 13 13 15 15 13 15 16 18 19 22 22 22 24 24 23 24 22 22 20 20 19 18 16 16 15 16 15 14 13 13 12 14 13 13 12 12 12 12 12 12 11 11 10 10 10 10 11 12 10 0 -209 -193 43 45 44 -193 -193 46 48 44 49 54 57 53 55 55 55 55 57 57 56 55 -177 -193 91 93 93 94 95 -193 -193 77 -193 -193 -209 75 75 74 74 76 79 85 88 88 92 96 101 96 98 97 98 99 101 101 102 105 108 109 113 113 115 117 119 119 118 122 123 123 127 128 123 127 131 -193 134 -193 -193 -209 139 -193 -193 141 140 141 140 -193 -209 -193 140 -193 237 -193 -193 25 22 23 22 22 20 18 17 14 14 -193 -193 -193 -193 -209 -193 0 -193 0 -193 175 175 179 181 182 0 0 0 0 0
    0 0 0 0 0 0 0 0 0 0 0 0 0 0 0 0 0 0 0 0 0 0 0 0 0 0 0 0 0 0 0 0 0 0 0 0 0 0 0 0 0 0 0 0 0 0 0 0 0 0 0 0 0 0 0 0 0 0 0 0 0 0 0 0 0 0 0 0 0 50 50 52 51 50 52 51 52 51 50 50 47 52 51 48 49 45 48 47 45 45 44 43 -193 -193 -177 -209 -193 -209 9 0 0 0 0 10 11 10 9 9 11 12 13 12 12 13 16 19 20 20 20 18 19 19 20 16 13 15 13 14 15 13 12 12 12 11 11 10 9 10 10 11 10 10 12 11 12 13 13 12 12 15 14 13 15 17 19 19 22 22 22 24 24 24 25 23 23 21 21 19 19 17 17 16 16 16 14 13 13 12 15 13 13 12 12 11 12 12 12 11 11 10 10 9 10 11 12 -193 -209 -177 -193 43 45 44 -193 -193 46 48 46 50 55 58 54 56 56 57 57 58 58 58 57 63 67 70 -193 -193 -193 93 84 -209 78 77 79 -209 77 77 76 75 78 82 85 88 88 92 95 101 97 98 98 99 99 102 102 103 106 108 109 113 113 115 117 119 119 119 122 123 124 126 128 124 128 131 132 133 -193 -193 -209 138 -193 -193 140 139 139 139 -193 -193 -193 141 -193 237 238 24 25 22 22 -193 21 20 18 16 13 14 12 -193 -193 -193 -209 -193 0 -193 0 -193 -177 176 180 182 183 0 0 0 0 0
    0 0 0 0 0 0 0 0 0 0 0 0 0 0 0 0 0 0 0 0 0 0 0 0 0 0 0 0 0 0 0 0 0 0 0 0 0 0 0 0 0 0 0 0 0 0 0 0 0 0 0 0 0 0 0 0 0 0 0 0 0 0 0 0 0 0 0 0 0 51 51 53 51 51 52 52 52 51 50 51 47 52 51 48 48 45 48 47 45 45 43 43 -193 -193 -177 -209 -209 -209 9 0 0 0 9 11 11 10 10 9 11 13 14 13 12 15 19 21 22 22 22 20 20 19 20 17 14 14 13 14 14 12 12 11 12 11 11 10 9 10 11 11 10 10 12 10 11 13 12 12 12 15 14 13 15 17 20 20 22 23 23 25 25 25 25 23 24 23 22 20 20 18 17 17 16 16 14 13 13 12 14 13 12 11 11 11 12 12 12 11 12 10 10 10 10 12 13 -193 -209 -177 -177 42 44 43 44 44 46 48 47 51 55 57 54 56 57 58 57 59 59 59 59 64 67 69 70 70 69 84 79 82 78 80 85 87 81 81 80 79 82 85 87 89 89 93 96 102 97 98 99 100 100 102 102 103 106 108 110 113 114 115 117 119 119 119 123 124 124 126 128 124 128 130 131 132 -193 -193 -193 -193 -209 -193 139 139 139 139 139 -193 -193 142 -193 -193 -209 24 24 22 22 -193 -193 19 17 15 13 13 -193 10 -193 -193 -209 0 0 -193 0 -193 178 177 181 -193 183 0 0 0 0 0
    0 0 0 0 0 0 0 0 0 0 0 0 0 0 0 0 0 0 0 0 0 0 0 0 0 0 0 0 0 0 0 0 0 0 0 0 0 0 0 0 0 0 0 0 0 0 0 0 0 0 0 0 0 0 0 0 0 0 0 0 0 0 0 0 0 0 0 0 0 52 51 53 52 51 52 52 53 52 50 51 48 52 51 47 48 45 47 46 44 44 42 42 41 40 -193 22 20 -193 11 -193 9 9 11 13 12 10 10 9 10 13 -209 -209 -209 -209 22 23 24 24 23 21 21 20 20 18 14 14 13 14 13 11 11 10 11 10 10 10 9 9 10 10 10 10 11 10 11 12 12 12 12 14 14 12 15 17 19 21 22 23 23 25 25 25 25 23 24 23 22 20 20 18 17 17 16 16 14 12 12 11 13 12 12 11 11 11 11 12 11 11 11 10 10 9 10 13 13 -193 -209 -193 -193 -193 43 43 43 43 45 48 48 51 55 57 54 56 57 58 58 60 61 61 60 66 68 69 70 70 70 74 76 79 78 82 87 88 85 85 85 84 85 88 88 91 91 94 97 103 98 99 100 100 101 102 102 103 106 109 111 113 114 116 118 119 120 119 123 124 124 126 127 125 128 130 130 131 -193 -193 36 -193 -193 -193 -193 -193 -193 139 -193 -193 -193 143 -193 -209 -209 24 24 21 -193 161 -193 -193 17 15 13 13 -193 10 -193 9 -193 0 0 -193 0 -193 179 179 181 -193 184 0 0 0 0 0
    0 0 0 0 0 0 0 0 0 0 0 0 0 0 0 0 0 0 0 0 0 0 0 0 0 0 0 0 0 0 0 0 0 0 0 0 0 0 0 0 0 0 0 0 0 0 0 0 0 0 0 0 0 0 0 0 0 0 0 0 0 0 0 0 0 0 0 0 0 53 52 53 53 52 52 52 53 52 51 51 48 51 51 47 48 45 46 46 44 44 42 41 41 39 41 26 -193 -193 -193 -193 -193 -209 -193 -193 -193 12 14 -209 -209 -209 -209 -209 -209 -209 30 -193 26 25 24 22 22 20 21 19 15 14 13 13 12 11 10 10 11 10 10 10 9 10 10 11 11 10 11 10 11 12 11 11 12 13 13 12 14 15 19 20 22 22 23 24 24 24 25 23 23 22 22 20 20 18 17 16 16 16 14 12 12 11 12 11 11 10 11 10 11 12 11 11 11 10 10 9 10 13 14 15 11 -209 -193 31 42 42 42 43 45 48 51 52 55 57 55 57 58 59 59 61 63 62 61 66 67 68 70 70 69 72 73 77 77 82 87 88 86 86 86 87 88 90 89 92 92 96 99 103 99 100 100 101 101 102 102 103 106 109 111 113 115 116 118 120 120 120 123 125 125 126 127 125 128 130 130 131 -193 -193 -193 -193 -193 -193 -193 -193 -193 139 140 -193 141 144 148 -209 -209 -193 -193 -193 158 161 163 -193 -193 -193 -193 13 -193 10 -193 9 -193 -193 -193 -193 0 -193 179 179 181 -193 184 0 0 0 0 0
    0 0 0 0 0 0 0 0 0 0 0 0 0 0 0 0 0 0 0 0 0 0 0 0 0 0 0 0 0 0 0 0 0 0 0 0 0 0 0 0 0 0 0 0 0 0 0 0 0 0 0 0 0 0 0 0 0 0 0 0 0 0 0 0 0 0 0 0 0 53 52 54 53 52 53 52 53 52 51 51 49 51 51 48 49 46 46 47 44 44 42 41 41 39 41 39 -209 63 73 72 71 72 71 71 73 72 -209 54 -209 59 -209 -209 -209 -193 -209 38 30 28 26 23 23 21 21 19 15 14 13 13 12 11 10 10 11 10 10 10 9 10 10 11 11 10 10 9 10 11 10 10 11 12 12 11 13 14 19 19 21 21 21 22 22 23 24 22 23 22 22 20 20 19 17 17 16 16 14 12 12 11 11 11 10 10 10 10 11 12 11 11 11 10 10 9 9 13 16 17 13 20 20 24 -193 41 41 42 44 49 52 53 56 57 55 57 59 60 60 62 64 63 62 66 67 67 69 70 69 70 73 75 77 82 87 88 87 87 88 88 89 90 90 93 95 98 100 104 100 101 102 102 102 102 102 103 -193 109 111 113 115 117 118 120 121 121 123 125 125 125 127 125 128 129 129 130 131 -193 -193 -193 -193 -193 -193 -193 -193 139 140 142 141 145 149 -209 154 -193 -193 -193 158 160 162 163 -193 -193 -193 13 -193 10 -193 9 -193 -193 -193 -193 0 -193 -193 180 182 -193 185 0 0 0 0 0
    0 0 0 0 0 0 0 0 0 0 0 0 0 0 0 0 0 0 0 0 0 0 0 0 0 0 0 0 0 0 0 0 0 0 0 0 0 0 0 0 0 0 0 0 0 0 0 0 0 0 0 0 0 0 0 0 0 0 0 0 0 0 0 0 0 0 0 0 0 54 52 53 53 52 53 53 53 53 51 52 50 52 52 49 49 46 47 48 45 45 42 41 41 40 43 43 54 65 72 70 70 70 70 70 71 70 61 57 59 60 61 -209 -209 -209 -209 -209 35 31 29 25 24 22 22 20 16 14 13 13 11 11 10 10 11 10 10 10 9 10 10 11 11 10 11 10 10 10 10 10 10 11 11 10 12 14 18 17 19 19 20 20 21 22 22 21 22 21 21 20 20 19 17 16 15 15 14 12 11 11 10 10 10 10 10 10 10 11 10 11 11 10 10 10 10 13 17 18 15 22 22 26 30 38 39 41 43 49 53 53 56 58 56 58 60 61 61 62 65 64 64 66 67 67 69 70 70 70 73 75 76 83 87 88 88 88 89 89 90 91 91 95 99 100 102 104 101 101 103 103 103 103 103 103 -193 109 112 112 116 117 -193 121 121 121 123 125 125 125 126 125 127 128 127 128 129 131 132 134 -193 -193 -193 -193 -193 139 141 -193 -193 146 150 -209 154 157 157 156 158 160 162 162 164 -193 -193 12 -193 -193 -193 -193 -193 -193 -193 -193 0 -193 -193 181 182 -193 185 0 0 0 0 0
    0 0 0 0 0 0 0 0 0 0 0 0 0 0 0 0 0 0 0 0 0 0 0 0 0 0 0 0 0 0 0 0 0 0 0 0 0 0 0 0 0 0 0 0 0 0 0 0 0 0 0 0 0 0 0 0 0 0 0 0 0 0 0 0 0 0 0 0 0 55 53 54 53 52 53 53 53 53 52 53 51 53 53 50 51 48 48 51 47 46 43 42 42 41 45 49 54 65 71 69 68 68 69 69 70 69 60 57 60 61 63 60 -209 -209 -193 -209 36 34 31 27 27 23 22 21 17 14 12 12 10 10 9 9 10 10 10 10 9 10 10 11 11 10 11 10 10 10 10 10 10 10 10 9 11 13 15 15 18 18 19 19 20 21 22 21 22 21 21 20 20 19 17 16 15 15 13 12 11 11 10 10 10 10 9 9 10 12 11 12 12 11 11 11 12 14 18 20 19 25 26 28 30 34 36 39 41 48 54 52 56 57 56 58 62 62 61 63 66 65 65 67 67 66 70 71 71 72 74 76 78 85 88 89 89 90 89 91 91 92 92 96 101 101 102 104 101 102 103 103 103 103 103 104 106 110 112 112 116 118 -193 121 121 121 123 125 125 125 125 124 125 126 126 126 127 130 131 133 136 -193 -193 -193 -193 139 141 -193 -193 -193 -209 -193 155 157 157 156 157 160 161 163 165 166 167 170 170 171 172 -193 173 175 -193 -193 0 -193 -193 182 183 186 186 0 0 0 0 0
    0 0 0 0 0 0 0 0 0 0 0 0 0 0 0 0 0 0 0 0 0 0 0 0 0 0 0 0 0 0 0 0 0 0 0 0 0 0 0 0 0 0 0 0 0 0 0 0 0 0 0 0 0 0 0 0 0 0 0 0 0 0 0 0 0 0 0 0 0 59 56 56 54 53 54 54 54 54 53 54 53 55 56 53 53 53 52 55 52 52 49 45 49 46 52 58 58 69 71 69 68 69 69 69 69 68 60 58 60 61 62 59 56 55 51 50 40 37 33 28 27 23 21 21 17 13 11 11 10 10 0 9 10 10 10 10 9 10 10 11 11 10 11 11 11 10 10 10 10 10 10 9 10 11 13 13 17 15 18 18 19 20 21 21 21 20 21 20 20 19 16 16 14 15 13 12 11 11 10 10 9 9 9 9 10 12 11 13 13 12 12 12 13 17 20 22 22 25 27 29 31 35 37 39 41 47 53 52 55 56 56 58 63 62 62 64 66 65 65 67 67 65 70 72 71 73 75 77 79 86 88 88 90 91 90 92 93 93 93 97 102 101 102 104 102 102 104 103 103 103 104 104 107 110 113 112 117 119 -193 121 122 122 123 125 125 124 125 124 125 126 126 127 129 132 133 134 137 138 138 139 139 139 142 -193 -193 -193 -209 -193 155 156 156 156 157 160 161 163 166 167 169 171 171 173 174 175 176 178 180 -193 0 -193 -193 183 184 186 187 0 0 0 0 0
    0 0 0 0 0 0 0 0 0 0 0 0 0 0 0 0 0 0 0 0 0 0 0 0 0 0 0 0 0 0 0 0 0 0 0 0 0 0 0 0 0 0 0 0 0 0 0 0 0 0 0 0 0 0 0 0 0 0 0 0 0 0 0 0 0 0 0 0 0 63 61 60 57 56 56 57 57 57 56 57 56 58 59 58 58 60 58 60 59 59 61 -193 63 -209 54 60 60 70 70 67 67 68 68 68 68 67 60 58 59 60 60 58 56 55 52 51 43 39 34 29 26 22 19 21 17 11 11 11 9 9 0 9 10 10 10 10 9 10 10 12 12 11 12 12 11 10 10 10 10 10 9 0 9 10 11 11 14 14 16 16 18 19 20 20 21 20 20 19 19 18 16 16 14 14 13 12 10 11 9 10 9 9 9 9 10 12 11 13 13 13 13 13 14 20 21 23 23 25 27 27 29 33 36 38 40 45 50 49 53 54 55 57 62 62 62 64 66 65 65 67 67 66 70 71 71 73 75 77 78 85 87 88 89 91 91 93 93 94 94 98 103 101 101 104 102 103 104 103 103 103 105 105 107 110 112 112 116 118 118 120 121 121 122 124 124 124 124 124 125 125 126 128 131 135 135 136 138 139 139 140 140 139 144 -193 -193 -193 -209 153 155 155 156 156 157 160 162 164 167 168 170 173 172 174 175 176 178 179 180 180 -193 -193 -193 183 185 187 187 0 0 0 0 0
    0 0 0 0 0 0 0 0 0 0 0 0 0 0 0 0 0 0 0 0 0 0 0 0 0 0 0 0 0 0 0 0 0 0 0 0 0 0 0 0 0 0 0 0 0 0 0 0 0 0 0 0 0 0 0 0 0 0 0 0 0 0 0 0 0 0 0 0 0 63 62 62 61 61 62 64 63 63 66 65 63 64 62 60 60 61 60 61 60 61 64 65 68 64 56 59 58 70 68 65 65 67 67 68 68 67 61 59 60 60 61 58 56 55 52 53 46 -193 33 29 -193 21 18 20 16 11 11 10 9 9 0 9 10 10 10 10 10 11 11 13 13 12 13 13 12 11 11 11 10 10 9 9 9 9 9 10 13 12 15 15 17 17 19 20 20 19 20 18 17 17 15 15 14 14 13 12 10 11 9 10 9 9 9 9 10 12 11 14 14 13 14 14 17 21 23 23 23 25 27 27 29 31 33 36 37 44 49 49 52 53 54 56 62 61 62 64 66 65 66 68 68 66 71 71 71 73 74 76 77 84 -193 -193 88 90 90 93 94 94 95 99 103 101 102 103 103 103 104 103 103 103 105 105 107 109 112 112 116 118 118 120 121 121 121 123 124 123 124 124 124 126 127 131 135 137 137 137 140 141 141 141 142 141 146 149 149 151 152 154 155 155 156 156 157 161 162 165 167 169 171 174 173 175 177 177 179 180 180 181 181 184 184 184 186 188 188 0 0 0 0 0
    0 0 0 0 0 0 0 0 0 0 0 0 0 0 0 0 0 0 0 0 0 0 0 0 0 0 0 0 0 0 0 0 0 0 0 0 0 0 0 0 0 0 0 0 0 0 0 0 0 0 0 0 0 0 0 0 0 0 0 0 0 0 0 0 0 0 0 0 0 62 61 61 59 61 67 70 71 69 71 70 68 67 64 61 61 61 61 62 61 63 66 67 68 65 58 59 56 70 67 64 65 66 67 68 68 67 61 60 60 60 62 59 57 56 54 56 -193 -209 -193 -193 -193 20 18 20 16 11 11 10 0 10 0 9 10 10 10 11 11 12 11 13 13 12 13 14 12 12 11 11 11 10 9 9 9 9 0 9 12 11 15 15 16 17 19 20 20 18 20 17 17 17 15 15 14 14 14 13 11 11 9 10 9 9 9 0 10 12 11 14 13 13 13 15 17 21 24 24 25 26 29 30 32 34 35 36 37 45 51 51 53 54 56 57 63 61 61 63 65 64 65 67 67 64 69 70 69 72 74 76 -193 -193 -193 36 88 89 90 95 96 96 97 101 104 101 102 103 103 104 104 103 103 103 105 106 107 109 111 111 116 119 118 120 121 121 121 123 123 123 123 124 124 126 128 133 137 138 138 138 141 142 142 141 143 141 147 150 150 151 153 154 154 155 156 156 156 161 163 165 167 170 171 175 174 176 178 178 180 180 180 181 182 184 185 185 187 189 189 0 0 0 0 0
    0 0 0 0 0 0 0 0 0 0 0 0 0 0 0 0 0 0 0 0 0 0 0 0 0 0 0 0 0 0 0 0 0 0 0 0 0 0 0 0 0 0 0 0 0 0 0 0 0 0 0 0 0 0 0 0 0 0 0 0 0 0 0 0 0 0 0 0 0 60 60 59 55 57 60 70 73 72 73 72 70 69 66 63 63 62 62 63 62 65 67 68 69 68 61 61 58 71 66 65 67 68 68 69 69 69 66 67 64 63 66 61 60 59 57 58 58 -209 -193 -193 20 19 17 18 15 11 11 10 9 11 9 10 11 10 11 11 12 12 11 14 14 13 14 15 13 12 12 11 11 10 9 10 9 9 9 10 12 11 16 15 16 18 19 20 19 18 20 17 18 18 15 15 14 14 14 13 11 12 9 10 9 9 9 9 10 12 11 14 13 13 13 16 19 22 24 28 26 27 31 33 35 36 37 39 39 45 52 52 54 55 57 58 64 61 62 62 64 63 64 65 66 61 66 65 64 63 69 -209 37 39 38 39 -193 -177 -177 -177 99 97 98 101 105 101 101 102 103 104 104 103 103 103 106 106 107 108 110 110 115 118 118 120 120 120 120 122 122 122 123 124 124 126 129 133 137 139 138 139 142 143 142 141 142 140 146 149 149 149 151 153 153 154 155 156 155 160 162 165 167 171 171 175 173 176 178 178 180 180 180 181 181 184 186 185 188 190 190 0 0 0 0 0
    0 0 0 0 0 0 0 0 0 0 0 0 0 0 0 0 0 0 0 0 0 0 0 0 0 0 0 0 0 0 0 0 0 0 0 0 0 0 0 0 0 0 0 0 0 0 0 0 0 0 0 0 0 0 0 0 0 0 0 0 0 0 0 0 0 0 0 0 0 60 59 58 55 57 59 69 72 71 72 70 70 69 67 65 64 63 63 65 64 67 68 69 -193 -193 65 64 64 71 66 66 67 68 68 70 70 70 68 71 68 68 69 65 63 62 60 60 62 -209 -193 -193 19 17 16 18 16 12 12 11 10 12 10 11 11 11 11 12 12 12 11 14 15 14 15 15 14 13 12 11 11 10 10 10 10 10 10 11 14 12 17 16 17 18 19 20 19 19 20 17 19 18 16 16 15 15 14 15 13 13 11 11 11 12 12 11 10 13 13 15 14 13 14 16 21 23 24 35 28 29 34 36 37 38 39 40 40 45 52 51 53 55 56 58 62 61 62 62 64 63 64 65 66 61 64 64 63 -193 -209 39 37 39 40 40 -193 -177 88 96 98 97 98 101 105 100 101 102 104 104 104 103 104 103 106 107 107 107 108 109 114 117 117 119 119 120 120 122 122 122 123 125 124 126 129 134 137 139 139 139 143 144 143 141 143 140 148 150 149 149 151 153 153 154 155 156 155 160 163 165 167 171 172 175 174 176 178 177 180 180 180 181 182 185 187 186 189 192 191 0 0 0 0 0
    0 0 0 0 0 0 0 0 0 0 0 0 0 0 0 0 0 0 0 0 0 0 0 0 0 0 0 0 0 0 0 0 0 0 0 0 0 0 0 0 0 0 0 0 0 0 0 0 0 0 0 0 0 0 0 0 0 0 0 0 0 0 0 0 0 0 0 0 0 60 59 58 55 56 58 68 72 70 73 71 71 70 69 68 68 66 66 67 67 68 69 69 68 68 66 66 68 72 67 68 67 68 69 70 70 70 69 72 70 70 70 67 65 66 63 63 65 68 27 27 17 16 16 18 17 13 13 12 10 12 10 11 11 11 11 12 13 13 12 15 16 15 16 16 14 14 13 12 12 10 11 11 10 11 11 12 15 13 19 17 19 20 20 21 20 20 22 19 21 19 17 16 15 15 15 16 14 14 13 13 12 14 14 13 12 14 15 16 14 14 14 16 21 24 25 39 34 34 37 39 39 40 40 41 41 44 51 51 53 54 56 57 61 61 61 61 63 63 64 66 66 63 65 66 64 67 67 -209 38 39 39 40 -193 -177 88 98 98 97 98 100 104 99 99 101 104 104 104 103 104 104 107 108 108 106 108 108 114 116 117 118 119 120 119 121 121 121 123 124 123 125 128 133 137 138 139 139 142 144 143 141 144 140 150 151 151 151 151 153 154 154 156 156 156 160 163 166 167 172 172 176 174 176 178 178 180 180 180 181 181 184 187 186 189 192 191 0 0 0 0 0
    0 0 0 0 0 0 0 0 0 0 0 0 0 0 0 0 0 0 0 0 0 0 0 0 0 0 0 0 0 0 0 0 0 0 0 0 0 0 0 0 0 0 0 0 0 0 0 0 0 0 0 0 0 0 0 0 0 0 0 0 0 0 0 0 0 0 0 0 0 61 61 59 58 59 59 69 72 70 73 71 72 71 70 70 69 68 68 69 68 69 69 69 69 69 69 69 70 75 69 70 70 70 70 71 71 71 71 73 72 71 71 68 65 66 63 64 66 68 -209 24 16 15 16 18 17 13 13 12 10 12 11 11 11 12 12 13 14 13 13 16 17 16 17 17 15 15 14 13 13 12 12 12 12 13 13 15 17 14 20 19 20 21 21 22 22 22 23 21 22 21 19 17 16 16 16 16 15 14 14 14 14 16 16 15 15 16 19 18 16 16 17 19 22 24 25 39 38 38 39 40 40 41 41 41 42 44 50 50 53 54 56 57 59 60 61 61 62 62 63 66 66 63 64 67 65 70 72 74 -209 -193 -193 -193 -193 80 88 98 98 97 98 99 103 98 99 101 103 104 104 103 104 104 107 108 109 106 107 108 113 115 116 117 119 119 119 120 120 120 123 125 125 127 130 135 137 138 139 139 141 143 142 140 143 139 149 149 150 151 151 153 153 154 155 156 155 160 162 165 167 172 172 176 174 176 178 178 180 181 180 181 181 184 187 186 189 192 191 0 0 0 0 0
    0 0 0 0 0 0 0 0 0 0 0 0 0 0 0 0 0 0 0 0 0 0 0 0 0 0 0 0 0 0 0 0 0 0 0 0 0 0 0 0 0 0 0 0 0 0 0 0 0 0 0 0 0 0 0 0 0 0 0 0 0 0 0 0 0 0 0 0 0 63 63 60 60 -193 62 70 75 71 74 72 73 71 -193 70 71 70 70 70 69 70 70 70 70 69 70 71 71 76 71 72 72 72 72 73 72 72 72 73 73 72 72 69 66 66 63 63 64 66 -193 23 16 15 16 18 17 13 14 13 12 14 13 12 13 13 13 14 15 14 14 17 19 17 18 19 18 18 16 15 16 13 15 13 14 15 14 17 18 15 20 20 21 22 22 23 23 23 24 23 23 22 19 18 17 16 16 16 16 14 14 14 14 15 15 15 15 15 19 19 16 16 17 19 22 24 26 38 39 39 40 41 41 41 41 42 42 44 50 50 53 54 56 57 59 60 61 61 62 62 63 65 66 64 64 67 67 72 74 75 77 78 79 80 78 81 87 96 98 97 98 100 103 99 99 101 104 104 104 104 104 104 107 108 109 105 107 107 112 112 114 115 117 118 118 118 118 117 124 128 128 131 133 136 138 138 139 139 140 141 141 138 141 137 -193 146 149 150 150 151 151 153 154 155 155 159 162 164 166 172 172 176 174 176 178 178 180 181 180 181 181 184 188 187 190 193 192 0 0 0 0 0
    0 0 0 0 0 0 0 0 0 0 0 0 0 0 0 0 0 0 0 0 0 0 0 0 0 0 0 0 0 0 0 0 0 0 0 0 0 0 0 0 0 0 0 0 0 0 0 0 0 0 0 0 0 0 0 0 0 0 0 0 0 0 0 0 0 0 0 0 0 63 63 61 62 66 66 72 77 71 74 72 -193 70 -193 70 71 70 71 71 71 71 71 71 71 70 71 71 72 77 72 73 74 74 73 74 74 74 74 75 75 73 74 71 69 68 65 64 64 65 -193 -209 18 17 18 19 18 14 15 14 13 16 14 13 14 14 14 15 16 15 15 18 21 18 20 20 19 19 18 16 18 14 16 15 15 16 15 18 18 16 20 20 21 22 23 23 23 24 24 23 23 22 20 19 18 16 16 16 16 14 16 16 16 17 16 15 15 14 17 15 13 13 15 19 22 24 24 34 37 36 37 39 39 40 40 41 42 43 49 50 53 54 56 57 58 61 61 61 62 62 63 65 65 65 63 67 67 73 74 76 78 79 80 81 81 82 87 94 96 96 97 99 103 99 99 101 104 104 105 104 105 105 107 108 108 105 106 106 109 109 109 111 114 115 115 115 115 -193 123 128 128 132 135 136 137 138 139 138 140 141 141 139 -193 -193 -193 -193 147 145 146 -193 -193 -193 153 154 153 157 161 162 165 170 171 174 173 176 178 177 180 180 179 181 181 184 187 187 190 193 192 0 0 0 0 0
    0 0 0 0 0 0 0 0 0 0 0 0 0 0 0 0 0 0 0 0 0 0 0 0 0 0 0 0 0 0 0 0 0 0 0 0 0 0 0 0 0 0 0 0 0 0 0 0 0 0 0 0 0 0 0 0 0 0 0 0 0 0 0 0 0 0 0 0 0 61 60 59 59 61 61 71 -209 69 73 72 71 70 71 72 72 73 77 77 75 75 75 73 73 72 72 72 73 78 74 74 77 75 74 75 74 74 74 75 75 74 74 72 70 69 66 65 64 63 62 -209 21 20 20 20 19 16 16 15 14 17 16 14 15 15 15 17 18 18 19 21 23 21 23 22 21 21 20 19 20 16 19 17 18 18 18 20 19 17 21 21 21 22 23 23 23 24 25 24 24 23 21 19 18 17 17 18 18 17 19 20 20 21 20 19 18 18 19 16 14 15 16 18 21 23 24 33 37 35 36 39 38 39 39 40 41 42 50 52 53 54 56 57 57 60 61 61 62 62 63 65 65 66 63 66 66 72 74 76 79 80 81 81 81 82 87 93 94 95 96 100 103 99 100 101 105 105 105 105 106 105 107 108 108 105 105 105 108 107 109 113 114 115 115 115 115 -209 123 -193 -209 -193 -209 136 136 137 -193 -193 139 140 139 139 -193 -209 -193 142 143 141 142 -193 -193 -193 148 150 150 154 158 158 163 168 170 173 173 175 177 177 179 180 178 180 180 183 187 187 189 193 192 0 0 0 0 0
    0 0 0 0 0 0 0 0 0 0 0 0 0 0 0 0 0 0 0 0 0 0 0 0 0 0 0 0 0 0 0 0 0 0 0 0 0 0 0 0 0 0 0 0 0 0 0 0 0 0 0 0 0 0 0 0 0 0 0 0 0 0 0 0 0 0 0 0 0 59 -193 -193 -193 -209 -209 -209 -209 66 -193 75 -193 70 -193 75 75 -193 -209 85 80 80 80 74 72 73 74 73 75 80 76 76 80 76 75 76 75 75 75 75 76 74 75 72 71 69 67 66 64 64 62 -209 21 20 20 20 20 17 17 16 16 17 16 15 16 15 17 19 20 21 23 24 25 24 25 24 24 23 22 20 21 19 21 20 21 21 21 21 21 19 21 21 22 23 23 23 23 24 25 25 25 24 22 20 19 17 19 20 21 20 22 23 23 23 23 22 21 21 20 17 14 16 17 18 19 22 24 34 37 35 35 37 38 38 38 39 39 41 49 52 53 54 56 56 57 60 61 61 62 62 63 64 65 66 63 65 66 71 74 75 79 80 81 81 80 81 86 92 94 94 95 99 103 100 100 102 105 105 106 106 107 106 107 108 108 105 106 106 108 106 109 114 115 116 116 115 115 -193 122 127 126 129 -209 135 136 136 -193 -193 140 141 -209 -193 80 -209 -209 -193 -193 -209 -193 -209 -209 140 143 148 149 153 156 156 162 168 169 172 172 175 175 176 178 179 177 179 179 183 186 186 188 193 192 0 0 0 0 0
    0 0 0 0 0 0 0 0 0 0 0 0 0 0 0 0 0 0 0 0 0 0 0 0 0 0 0 0 0 0 0 0 0 0 0 0 0 0 0 0 0 0 0 0 0 0 0 0 0 0 0 0 0 0 0 0 0 0 0 0 0 0 0 0 0 0 0 0 0 -209 39 -193 -193 -209 -209 -209 -209 -209 70 75 -193 72 76 78 78 80 86 86 83 83 82 75 74 75 79 76 78 82 78 79 82 78 77 76 76 76 75 75 76 74 74 72 70 67 65 64 63 62 61 58 -209 19 19 20 20 17 17 16 17 16 16 15 17 16 18 20 22 22 25 26 26 26 26 25 25 25 23 21 22 20 22 21 23 23 22 22 21 19 21 21 22 23 23 24 23 24 25 25 25 25 22 19 19 18 20 22 22 22 23 25 25 25 24 24 22 23 22 20 16 19 20 21 22 24 25 33 38 36 36 37 38 38 38 39 39 40 49 52 53 54 56 56 57 59 61 60 62 62 63 64 65 65 63 64 67 70 75 77 81 81 82 82 82 82 86 90 93 93 94 99 103 100 101 102 105 105 106 107 107 106 108 109 109 105 106 106 108 106 109 114 115 116 117 117 117 -209 123 -193 -193 -193 -209 -193 -193 138 -193 -193 146 148 -209 -193 -193 -193 -193 -209 -193 -193 -193 -193 -209 138 141 147 149 153 156 157 163 168 170 171 172 174 174 174 176 177 175 178 178 182 185 186 187 193 192 0 0 0 0 0
    0 0 0 0 0 0 0 0 0 0 0 0 0 0 0 0 0 0 0 0 0 0 0 0 0 0 0 0 0 0 0 0 0 0 0 0 0 0 0 0 0 0 0 0 0 0 0 0 0 0 0 0 0 0 0 0 0 0 0 0 0 0 0 0 0 0 0 0 0 38 36 -193 44 -209 -209 -209 -209 58 67 -193 -209 -193 -193 83 85 84 88 88 85 85 84 77 75 77 84 78 80 83 80 81 83 78 77 76 75 75 74 73 74 73 72 70 69 66 63 63 62 62 61 60 -193 -193 20 20 19 17 17 16 18 16 16 16 17 17 19 20 22 23 25 26 27 26 27 26 25 25 24 22 22 21 23 23 24 23 23 23 21 20 22 22 22 23 24 24 24 25 26 26 25 24 22 20 19 18 21 22 22 23 24 25 25 25 25 24 23 24 23 22 18 21 22 22 23 25 26 32 38 37 36 37 38 38 38 39 39 39 49 52 53 54 55 56 57 59 60 60 61 62 63 64 65 66 64 65 69 71 76 77 81 81 81 82 83 83 86 89 92 92 93 99 102 99 100 102 105 105 106 106 107 106 108 108 109 105 106 107 109 106 110 114 115 117 118 118 118 -193 -193 -193 -193 -193 -209 -193 -209 -209 -209 -209 -209 -209 -209 -209 77 77 -193 -193 -193 -193 146 -193 -193 140 141 145 147 150 -193 -209 157 167 169 170 171 174 173 173 174 174 174 177 179 181 -193 187 188 -193 193 0 0 0 0 0
    0 0 0 0 0 0 0 0 0 0 0 0 0 0 0 0 0 0 0 0 0 0 0 0 0 0 0 0 0 0 0 0 0 0 0 0 0 0 0 0 0 0 0 0 0 0 0 0 0 0 0 0 0 0 0 0 0 0 0 0 0 0 0 0 0 0 0 0 0 -193 34 36 41 -209 -209 -209 -209 53 -209 -209 -209 -193 94 86 87 85 88 88 86 86 86 80 83 84 88 83 84 84 83 82 83 80 78 76 75 75 73 73 73 71 71 69 68 65 63 63 62 62 62 60 60 -209 21 21 19 17 18 16 18 16 17 17 18 18 20 21 23 24 26 27 27 27 27 26 25 25 24 22 22 21 23 23 24 23 23 22 21 20 21 22 22 23 24 25 25 26 27 27 25 25 22 20 20 18 21 23 23 24 24 26 26 26 25 25 24 24 23 22 18 21 22 23 23 25 26 31 39 36 36 37 38 38 39 39 39 39 50 54 54 55 56 57 57 59 60 60 61 62 63 63 64 66 64 65 70 72 76 77 81 81 81 82 83 83 86 88 92 91 93 98 102 99 100 101 104 104 105 105 107 105 107 108 108 105 107 107 109 106 109 114 114 116 118 118 -193 62 -193 -193 -193 -193 -193 -209 -209 -209 -209 -209 -193 -209 -193 -209 77 77 79 -193 -193 -193 -193 -193 -209 -193 141 146 -193 -209 -209 -209 -209 -193 154 -193 -193 -209 -209 -209 -209 -209 -209 -193 -193 179 -193 -209 -209 -193 192 0 0 0 0 0
    0 0 0 0 0 0 0 0 0 0 0 0 0 0 0 0 0 0 0 0 0 0 0 0 0 0 0 0 0 0 0 0 0 0 0 0 0 0 0 0 0 0 0 0 0 0 0 0 0 0 0 0 0 0 0 0 0 0 0 0 0 0 0 0 0 0 0 0 0 -193 34 37 -209 -209 -209 -209 -209 50 -209 -209 -193 95 98 -193 90 86 90 90 89 88 89 88 90 88 91 85 85 85 84 82 84 81 79 76 76 76 74 73 73 71 71 69 68 66 63 63 62 62 61 59 60 59 -193 23 19 17 17 17 19 17 18 17 19 19 21 22 24 24 26 27 27 27 27 26 25 25 24 22 22 21 23 23 24 23 23 23 22 20 22 22 23 23 25 25 25 26 27 27 25 25 23 21 20 18 22 24 24 27 26 28 27 27 26 26 25 25 24 23 19 22 23 24 24 25 26 30 38 35 35 35 38 38 39 40 40 40 51 54 54 55 56 57 57 59 61 60 61 62 63 63 64 66 64 65 71 73 77 78 81 81 82 82 83 83 85 87 91 91 92 97 101 99 100 101 104 103 104 105 106 104 106 107 107 105 107 107 109 106 110 114 113 116 117 118 -193 66 65 -193 -193 -193 -209 -209 -209 -209 -209 -209 -209 -209 -209 -209 77 -193 -193 -193 -193 -193 -193 -209 -193 -193 -193 -209 -193 -193 -193 -193 -209 -209 -193 -209 -209 -209 -209 -209 -209 133 134 -193 -209 -209 -193 -193 -193 -193 188 0 0 0 0 0
    0 0 0 0 0 0 0 0 0 0 0 0 0 0 0 0 0 0 0 0 0 0 0 0 0 0 0 0 0 0 0 0 0 0 0 0 0 0 0 0 0 0 0 0 0 0 0 0 0 0 0 0 0 0 0 0 0 0 0 0 0 0 0 0 0 0 0 0 0 32 34 37 -193 -209 -193 -209 -209 -209 -209 -193 95 98 99 94 92 89 92 92 91 90 91 91 94 91 93 87 86 85 85 84 83 80 79 75 75 75 74 72 73 71 71 69 69 66 63 63 62 62 61 59 60 59 53 28 19 18 18 17 19 18 18 18 19 20 21 23 24 26 27 28 27 27 27 26 25 24 23 22 22 21 23 23 24 24 24 24 22 21 22 22 23 23 25 25 25 25 27 27 25 25 23 22 20 19 23 28 25 31 28 30 28 28 27 27 25 26 24 23 18 22 23 24 25 26 27 32 39 36 36 36 39 39 39 41 41 41 51 55 54 55 56 58 58 59 61 60 61 62 63 63 64 66 65 65 72 73 77 78 81 81 82 82 84 83 85 87 90 90 91 95 101 98 99 101 103 102 104 104 105 103 106 106 106 104 106 107 109 106 110 113 112 115 116 117 117 70 -193 -209 -209 -209 -209 -209 -209 -209 -209 -209 -209 -209 -209 -209 80 -193 84 85 -193 -193 -209 -193 -209 -209 -209 -209 -193 156 154 -193 157 162 161 -209 -209 -193 -209 -193 -209 -209 -209 -209 -209 -209 -193 -193 179 181 183 0 0 0 0 0
    0 0 0 0 0 0 0 0 0 0 0 0 0 0 0 0 0 0 0 0 0 0 0 0 0 0 0 0 0 0 0 0 0 0 0 0 0 0 0 0 0 0 0 0 0 0 0 0 0 0 0 0 0 0 0 0 0 0 0 0 0 0 0 0 0 0 0 0 0 34 35 37 -193 37 38 -209 -193 -209 -209 93 98 98 99 97 97 94 96 96 94 93 94 95 99 93 95 89 87 86 86 85 84 80 80 75 75 75 74 72 72 71 71 68 68 66 63 63 62 62 60 59 60 59 52 40 19 19 18 18 20 18 18 18 19 -193 -193 -209 26 28 30 30 29 29 28 27 25 24 23 22 22 21 23 23 25 25 25 26 24 22 23 22 23 23 25 25 24 25 26 26 24 25 23 22 21 21 24 31 26 34 29 32 29 29 28 27 26 26 24 23 18 21 22 24 26 27 31 38 42 38 38 38 41 41 41 42 42 42 51 55 54 55 56 58 58 59 61 60 60 62 63 63 64 66 65 64 72 73 77 78 80 80 81 81 84 83 84 86 90 90 91 94 100 97 98 100 102 100 103 103 104 103 105 106 106 103 107 108 109 106 110 114 112 115 116 117 116 -209 -209 -209 -209 -209 -193 -193 -209 -209 -209 -193 -209 -193 -209 -209 -193 -193 85 86 85 -193 -193 -177 -209 -209 -209 -209 157 157 155 -209 161 -193 165 -209 -209 -193 -193 -209 -209 -209 -209 -209 -209 -209 175 178 180 181 182 0 0 0 0 0
    0 0 0 0 0 0 0 0 0 0 0 0 0 0 0 0 0 0 0 0 0 0 0 0 0 0 0 0 0 0 0 0 0 0 0 0 0 0 0 0 0 0 0 0 0 0 0 0 0 0 0 0 0 0 0 0 0 0 0 0 0 0 0 0 0 0 0 0 0 34 36 37 40 38 -193 -209 -209 -193 97 97 97 98 99 96 97 95 96 97 96 95 98 96 101 95 96 90 88 88 87 86 84 82 81 76 75 75 73 71 70 70 69 68 67 66 62 62 61 61 60 59 59 59 47 -193 20 21 20 19 21 19 18 20 21 174 -193 -209 -193 33 34 34 33 31 30 28 26 25 24 23 23 22 24 23 26 26 26 27 24 23 23 22 23 22 25 26 24 25 27 27 25 25 23 21 20 21 24 35 28 35 30 33 29 29 29 29 26 27 24 25 20 23 24 24 27 30 35 41 44 40 40 39 41 42 41 42 42 41 51 55 55 55 56 58 58 59 60 59 60 62 62 62 64 65 65 64 72 73 77 79 81 81 81 81 84 84 84 86 90 90 91 94 100 96 97 99 101 99 101 102 103 102 105 105 105 103 107 108 109 107 111 113 112 113 113 115 113 -193 -209 114 121 -193 -193 119 116 -209 -209 -209 -209 -193 -209 -193 83 84 85 85 85 -193 -193 -209 -209 -209 -209 -209 156 -193 155 -209 164 -193 168 -193 -209 -209 -209 -209 -209 -209 -209 -209 -209 -209 173 177 180 182 -193 0 0 0 0 0
    0 0 0 0 0 0 0 0 0 0 0 0 0 0 0 0 0 0 0 0 0 0 0 0 0 0 0 0 0 0 0 0 0 0 0 0 0 0 0 0 0 0 0 0 0 0 0 0 0 0 0 0 0 0 0 0 0 0 0 0 0 0 0 0 0 0 0 0 0 35 36 37 39 -209 -209 -209 -209 -193 95 94 95 95 97 95 95 96 96 98 98 96 97 95 99 93 93 89 88 87 88 86 84 82 82 76 75 75 73 70 69 69 69 67 66 66 62 61 61 62 60 59 59 59 53 -193 -193 25 23 22 23 22 20 22 22 175 180 -193 -193 38 37 37 38 34 34 32 28 27 26 25 24 23 25 24 26 25 25 25 23 23 23 21 23 22 26 31 29 27 29 30 25 25 21 13 14 21 25 34 28 35 31 34 30 30 30 30 28 29 25 26 22 24 27 27 32 34 37 42 45 42 41 41 42 43 43 44 43 43 52 55 54 56 56 58 58 58 59 59 59 61 61 62 63 65 66 66 73 74 77 79 79 80 81 81 83 84 84 86 91 91 92 94 100 96 96 98 101 97 100 101 102 100 104 104 -193 102 106 108 109 107 111 112 110 110 109 111 109 106 -193 108 117 118 119 119 119 118 -209 -209 -209 -209 -193 -193 81 83 85 85 84 -209 -193 -193 -177 -193 -193 -193 154 154 154 -209 -193 -193 168 170 -193 -209 -209 -209 -209 -209 -209 -209 -209 -209 -209 178 183 -193 -209 0 0 0 0 0
    0 0 0 0 0 0 0 0 0 0 0 0 0 0 0 0 0 0 0 0 0 0 0 0 0 0 0 0 0 0 0 0 0 0 0 0 0 0 0 0 0 0 0 0 0 0 0 0 0 0 0 0 0 0 0 0 0 0 0 0 0 0 0 0 0 0 0 0 0 -209 -209 -209 -209 -209 -209 -209 -209 -193 92 92 93 94 95 95 94 95 96 97 97 96 97 94 98 93 92 88 87 87 87 85 83 81 82 77 76 75 73 69 68 69 68 67 65 66 62 60 60 60 59 59 58 58 52 55 51 31 30 26 28 27 26 26 26 -193 -209 -193 38 42 41 40 44 37 37 37 32 28 27 26 24 22 24 23 26 23 23 23 21 20 20 17 19 13 25 -225 -225 -225 -225 -225 -225 -225 -225 -225 -225 21 26 -193 -193 35 31 33 29 28 28 28 27 29 26 27 24 29 34 33 38 39 40 44 47 45 44 44 44 44 44 45 44 44 51 54 54 55 56 57 57 58 59 58 59 61 61 61 63 65 66 67 -193 74 78 79 79 79 80 80 83 84 84 86 91 91 92 93 99 95 95 96 100 96 98 100 101 99 102 103 103 101 106 107 108 107 111 111 109 109 107 108 107 105 103 105 112 116 117 120 121 -193 -209 132 131 -209 -209 -193 -193 -193 86 86 84 -177 -209 -209 149 150 150 151 153 153 153 -193 -193 -193 -193 171 -193 -193 -209 -209 -209 -209 -209 -209 -209 -209 -209 -193 -209 -209 -209 0 0 0 0 0
    0 0 0 0 0 0 0 0 0 0 0 0 0 0 0 0 0 0 0 0 0 0 0 0 0 0 0 0 0 0 0 0 0 0 0 0 0 0 0 0 0 0 0 0 0 0 0 0 0 0 0 0 0 0 0 0 0 0 0 0 0 0 0 0 0 0 0 0 0 97 98 -193 92 96 92 94 96 94 94 93 94 95 95 96 94 96 98 99 99 98 98 95 98 93 92 89 88 88 88 85 84 82 82 77 76 75 74 70 68 69 68 67 65 68 63 60 60 60 59 58 58 58 51 54 53 40 38 35 37 36 38 35 38 36 36 39 44 46 47 53 53 42 41 42 40 39 30 28 24 19 21 21 24 21 24 -225 -225 -225 -225 -225 -225 -225 -225 -225 -225 -225 -225 -225 -225 -225 -225 -225 -225 -225 -225 -225 -225 -225 -225 -225 -225 -225 -225 -225 -225 -225 -225 -225 -225 35 -225 -225 -225 44 42 47 48 48 45 46 45 46 45 47 45 46 52 54 53 55 55 57 57 57 58 57 58 60 60 61 62 64 66 67 -209 -209 76 77 77 77 79 80 83 84 84 87 91 92 92 93 99 95 95 96 99 95 97 99 100 97 101 102 102 99 105 107 107 107 111 111 109 109 109 109 107 107 105 106 111 115 117 120 121 -193 -193 132 132 133 137 -193 -193 -209 -209 -209 -193 -193 -209 -209 147 148 147 149 152 153 152 151 -193 -193 -193 -193 -209 -209 -209 -209 -209 -209 -209 -209 -209 -209 -209 -209 -209 -209 -209 0 0 0 0 0
    0 0 0 0 0 0 0 0 0 0 0 0 0 0 0 0 0 0 0 0 0 0 0 0 0 0 0 0 0 0 0 0 0 0 0 0 0 0 0 0 0 0 0 0 0 0 0 0 0 0 0 0 0 0 0 0 0 0 0 0 0 0 0 0 0 0 0 0 0 95 93 92 93 99 94 97 98 94 94 94 95 96 95 96 94 96 98 99 99 98 98 95 99 94 92 90 88 88 88 86 84 83 83 79 77 76 75 71 69 70 70 68 67 69 64 60 60 59 58 57 57 57 49 51 50 42 40 38 38 38 40 38 40 39 39 42 46 50 54 54 53 48 43 44 43 43 36 28 24 15 15 -225 -225 -225 -225 -225 -225 -225 -225 -225 -225 -225 -225 -225 -225 -225 -225 -225 -225 -225 -225 -225 -225 -225 -225 -225 -225 -225 -225 -225 -225 -225 -225 -225 -225 -225 -225 -225 -225 -225 -225 -225 -225 -225 44 51 50 51 47 48 46 47 46 48 46 46 51 53 52 54 54 56 56 56 57 57 57 59 60 61 62 64 67 67 71 72 74 75 76 76 77 78 81 84 83 86 91 91 92 92 99 95 95 95 99 95 97 99 99 97 101 101 102 99 105 107 107 107 111 112 110 110 110 110 107 109 106 106 112 116 119 120 122 124 126 130 131 132 134 135 137 -209 -209 -209 -209 -209 -209 -209 146 147 147 149 152 153 153 153 158 -193 -193 -193 -193 -193 -209 -209 -209 -209 -209 -209 -209 -209 -193 -209 -193 -209 -209 0 0 0 0 0
    0 0 0 0 0 0 0 0 0 0 0 0 0 0 0 0 0 0 0 0 0 0 0 0 0 0 0 0 0 0 0 0 0 0 0 0 0 0 0 0 0 0 0 0 0 0 0 0 0 0 0 0 0 0 0 0 0 0 0 0 0 0 0 0 0 0 0 0 0 93 92 92 95 99 95 97 98 94 94 94 96 96 95 97 95 96 99 99 99 98 98 95 98 95 92 91 89 89 89 86 85 83 83 79 76 76 75 71 70 71 70 67 67 70 62 59 59 58 58 57 57 57 48 50 49 42 39 38 37 37 39 37 40 39 39 41 45 51 54 55 53 51 45 46 45 45 36 28 24 15 15 -225 -225 -225 -225 -225 -225 -225 -225 -225 -225 -225 -225 -225 -225 -225 -225 -225 -225 -225 -225 -225 -225 -225 -225 -225 -225 -225 -225 -225 -225 -225 -225 -225 -225 -225 -225 -225 -225 -225 -225 -225 -225 -225 44 51 50 51 48 48 47 48 47 49 46 46 50 52 51 53 54 55 55 56 56 56 57 58 59 60 62 64 67 68 71 72 74 75 75 76 77 78 80 83 82 86 91 91 92 92 99 95 95 95 99 95 97 99 99 97 101 101 102 99 105 107 107 108 111 112 111 111 111 111 108 110 106 105 112 117 121 122 124 125 126 127 129 128 129 129 130 127 124 -193 -193 -193 -209 -209 144 146 145 147 150 152 151 152 157 163 167 -193 172 175 -193 -209 -209 -209 -209 -209 -209 -193 -193 -209 -193 -209 -209 0 0 0 0 0</data></disparity>
</opencv_storage>
