<?xml version="1.0"?>
<opencv_storage>
<gps_time_stamp>294211</gps_time_stamp>
<gps_x>-1.2359174728393555e+001</gps_x>
<gps_y>1.1066087722778320e+001</gps_y>
<gps_z>-2.1727135181427002e+000</gps_z>
<image_time_stamp>285059</image_time_stamp>
<disparity type_id="opencv-matrix">
  <rows>87</rows>
  <cols>320</cols>
  <dt>s</dt>
  <data>
    0 0 0 0 0 0 0 0 0 0 0 0 0 0 0 0 0 0 0 0 0 0 0 0 0 0 0 0 0 0 0 0 0 0 0 0 0 0 0 0 0 0 0 0 0 0 0 0 0 0 0 0 0 0 0 0 0 0 0 0 0 0 0 0 0 0 0 0 0 67 66 67 69 67 66 67 67 62 65 66 66 61 66 70 69 71 72 73 74 75 75 76 76 79 79 77 78 78 78 77 77 78 75 74 75 75 77 -209 101 -209 100 104 -193 95 92 93 85 84 85 84 85 88 87 88 87 88 90 90 90 91 97 92 92 92 92 93 94 93 93 90 91 93 93 93 92 92 95 101 100 99 100 100 -209 -209 -209 -209 91 92 -193 93 91 95 100 100 102 101 103 103 105 108 108 107 107 106 108 108 109 108 107 109 110 108 109 109 109 108 109 109 109 108 110 109 108 108 106 107 107 108 109 107 113 114 -193 125 128 130 123 123 123 121 121 120 121 121 120 121 121 120 121 122 122 121 120 124 123 122 123 123 121 121 121 121 124 123 124 123 123 127 128 127 127 123 127 128 129 130 128 131 132 132 132 133 133 132 133 132 133 132 132 132 132 132 132 132 135 134 137 136 137 137 139 139 139 138 138 138 140 140 142 141 140 140 139 140 140 139 139 142 141 142 142 144 144 143 147 148 147 145 147 149 148 148 149 149 149 148 151 151 -193 153 152 152 151 150 151 0 0 0 0 0
    0 0 0 0 0 0 0 0 0 0 0 0 0 0 0 0 0 0 0 0 0 0 0 0 0 0 0 0 0 0 0 0 0 0 0 0 0 0 0 0 0 0 0 0 0 0 0 0 0 0 0 0 0 0 0 0 0 0 0 0 0 0 0 0 0 0 0 0 0 67 66 67 69 67 65 67 67 63 63 65 66 61 66 70 68 70 71 72 74 74 74 75 75 78 78 76 77 77 76 77 77 77 75 74 75 75 76 83 85 -209 86 -193 86 88 86 86 81 82 84 84 84 86 86 87 87 88 91 90 91 91 97 93 92 93 93 93 95 93 93 90 92 94 94 94 93 92 98 101 101 99 100 101 -209 -209 -193 -209 -193 91 92 92 90 94 99 100 103 104 106 106 110 111 111 110 109 108 109 109 110 108 107 109 109 109 111 111 110 109 110 110 109 108 110 108 108 107 106 107 107 107 107 -193 110 109 118 -193 -193 126 120 120 121 119 120 119 120 120 119 120 120 119 121 121 122 121 120 124 123 122 123 123 121 120 120 120 123 123 123 123 123 127 127 127 127 122 126 127 128 129 127 130 131 132 131 132 132 132 132 131 132 132 132 132 132 132 132 132 135 134 137 136 137 137 138 139 139 138 139 139 140 141 142 141 140 139 139 139 139 138 138 141 140 142 142 143 144 143 147 148 146 145 147 148 148 147 149 149 148 148 151 151 -193 153 153 153 152 152 152 0 0 0 0 0
    0 0 0 0 0 0 0 0 0 0 0 0 0 0 0 0 0 0 0 0 0 0 0 0 0 0 0 0 0 0 0 0 0 0 0 0 0 0 0 0 0 0 0 0 0 0 0 0 0 0 0 0 0 0 0 0 0 0 0 0 0 0 0 0 0 0 0 0 0 68 66 67 69 67 65 67 67 63 63 66 66 62 67 71 68 71 71 73 74 74 74 75 75 77 77 76 77 76 76 76 77 77 76 75 76 77 78 82 84 79 84 84 85 87 86 87 83 83 85 84 85 86 86 86 86 87 91 91 91 91 97 93 93 93 93 93 95 94 93 90 92 94 94 94 94 92 98 101 101 99 99 98 -193 -193 -193 90 89 90 91 91 90 93 97 100 104 106 108 108 112 112 111 110 109 108 108 108 109 107 107 108 108 109 112 112 112 111 111 111 109 108 108 107 107 106 105 106 106 107 108 106 109 108 113 119 -209 -209 117 118 119 118 119 118 119 119 119 120 120 119 121 121 122 121 120 124 123 122 123 122 120 120 120 120 123 122 123 122 123 126 127 127 126 122 125 126 127 129 127 130 130 131 131 131 132 132 132 131 133 132 133 132 133 133 132 133 135 135 137 136 137 137 138 139 139 139 139 139 141 141 143 141 140 140 139 140 140 139 138 141 140 142 142 143 144 143 146 148 146 146 147 148 148 148 149 149 148 149 151 151 152 154 154 154 153 153 153 0 0 0 0 0
    0 0 0 0 0 0 0 0 0 0 0 0 0 0 0 0 0 0 0 0 0 0 0 0 0 0 0 0 0 0 0 0 0 0 0 0 0 0 0 0 0 0 0 0 0 0 0 0 0 0 0 0 0 0 0 0 0 0 0 0 0 0 0 0 0 0 0 0 0 69 66 67 69 67 66 67 67 65 62 66 67 63 69 72 68 71 71 73 74 74 73 74 74 77 76 75 76 75 75 75 76 76 75 74 76 77 78 81 85 82 86 85 85 86 85 86 84 83 85 84 84 85 85 86 86 87 92 91 91 92 98 94 93 93 93 93 95 94 94 91 92 94 94 94 94 92 96 98 99 95 94 -193 89 88 88 89 89 90 90 90 90 92 95 100 105 107 110 109 114 113 113 111 110 108 109 107 108 106 106 106 106 107 110 109 110 110 111 112 109 108 109 107 108 106 106 106 107 108 110 110 113 110 114 118 118 -193 116 117 118 117 117 117 118 118 118 119 119 118 120 121 121 121 120 123 122 122 123 122 120 120 120 120 123 123 123 123 123 126 126 127 126 121 125 125 126 127 127 129 129 130 130 130 131 132 132 131 133 132 133 132 133 133 133 133 135 135 137 137 137 137 138 139 139 139 139 139 141 142 143 142 141 140 139 140 140 139 138 141 140 141 142 142 144 143 145 147 145 146 148 148 148 148 149 149 148 149 151 152 153 154 154 154 154 153 153 0 0 0 0 0
    0 0 0 0 0 0 0 0 0 0 0 0 0 0 0 0 0 0 0 0 0 0 0 0 0 0 0 0 0 0 0 0 0 0 0 0 0 0 0 0 0 0 0 0 0 0 0 0 0 0 0 0 0 0 0 0 0 0 0 0 0 0 0 0 0 0 0 0 0 70 66 68 68 67 66 68 68 66 62 67 69 66 71 74 71 73 73 74 75 74 74 75 75 77 77 75 75 74 73 74 74 74 73 73 74 75 77 79 84 80 85 84 84 85 85 86 84 84 85 84 85 86 86 87 87 88 93 92 92 92 98 95 93 93 93 93 95 94 93 91 91 93 93 93 92 91 92 92 92 90 -193 89 87 87 87 88 88 89 90 91 91 93 95 100 105 107 109 109 113 113 114 111 110 108 109 107 108 106 105 105 106 107 109 108 110 110 111 113 111 111 111 109 109 109 107 107 107 109 110 111 112 110 111 117 117 117 113 116 117 115 116 116 117 117 117 118 118 117 120 121 121 121 121 122 122 122 123 122 121 121 121 121 124 123 123 123 123 125 126 126 126 121 125 125 126 127 127 128 128 129 130 129 132 132 133 132 133 132 133 132 133 133 132 133 134 134 136 136 136 137 137 138 138 138 139 138 140 142 143 142 141 141 140 141 140 140 139 142 140 141 142 142 144 143 146 148 146 147 149 149 148 148 149 149 148 149 151 151 152 153 153 153 153 152 153 0 0 0 0 0
    0 0 0 0 0 0 0 0 0 0 0 0 0 0 0 0 0 0 0 0 0 0 0 0 0 0 0 0 0 0 0 0 0 0 0 0 0 0 0 0 0 0 0 0 0 0 0 0 0 0 0 0 0 0 0 0 0 0 0 0 0 0 0 0 0 0 0 0 0 70 66 67 68 67 66 68 68 67 61 68 69 67 72 73 71 73 72 73 74 74 74 75 75 78 77 77 79 76 75 75 75 75 72 72 72 73 74 76 79 77 82 82 83 85 85 86 85 85 85 85 86 87 87 88 88 88 94 92 92 93 98 95 93 93 94 93 95 94 93 91 91 93 93 93 92 92 94 94 93 92 90 90 88 87 87 88 88 89 90 91 91 94 96 101 105 108 110 110 113 112 112 110 110 108 109 106 108 107 106 105 106 106 109 107 110 110 111 113 112 112 111 110 111 109 108 108 108 109 110 111 111 110 111 116 117 116 114 116 118 116 116 116 116 116 117 118 118 116 120 120 120 121 120 122 122 122 122 121 121 121 121 121 124 123 123 123 123 124 126 126 126 120 125 125 127 126 127 127 127 127 128 127 131 131 133 131 133 132 133 132 133 132 132 132 133 134 136 136 136 136 137 138 138 138 139 138 139 141 143 143 141 141 140 141 141 140 139 142 140 141 142 143 144 144 146 148 146 148 149 149 148 148 149 149 148 149 150 150 151 153 153 153 153 153 153 0 0 0 0 0
    0 0 0 0 0 0 0 0 0 0 0 0 0 0 0 0 0 0 0 0 0 0 0 0 0 0 0 0 0 0 0 0 0 0 0 0 0 0 0 0 0 0 0 0 0 0 0 0 0 0 0 0 0 0 0 0 0 0 0 0 0 0 0 0 0 0 0 0 0 70 66 67 68 67 67 69 69 68 61 69 70 70 73 73 71 73 72 73 74 74 75 76 76 77 77 77 80 77 76 76 76 75 74 73 73 75 76 78 82 80 82 82 82 85 85 86 85 85 85 85 87 88 87 88 88 89 96 93 93 93 98 96 94 94 94 93 95 94 94 91 90 92 92 92 93 92 95 96 96 94 92 -193 89 87 87 88 88 88 90 91 91 92 95 100 104 107 109 110 111 111 112 109 110 107 108 106 108 107 107 105 107 107 110 109 110 110 111 111 110 110 109 109 110 108 107 108 108 110 110 111 111 111 112 116 117 116 115 117 117 115 115 115 115 115 115 116 116 116 119 119 120 121 120 122 122 121 122 121 121 121 121 121 124 122 123 123 123 123 125 125 125 118 125 125 126 126 127 126 125 126 127 126 128 130 132 130 132 131 133 132 132 132 131 132 133 133 136 135 136 136 137 138 138 139 139 139 139 142 143 143 142 141 141 142 141 140 140 142 140 141 142 143 144 145 146 147 146 148 149 148 148 148 149 149 148 149 150 150 151 153 153 153 153 153 153 0 0 0 0 0
    0 0 0 0 0 0 0 0 0 0 0 0 0 0 0 0 0 0 0 0 0 0 0 0 0 0 0 0 0 0 0 0 0 0 0 0 0 0 0 0 0 0 0 0 0 0 0 0 0 0 0 0 0 0 0 0 0 0 0 0 0 0 0 0 0 0 0 0 0 70 65 66 66 67 66 69 68 68 60 72 73 72 74 74 71 74 72 73 74 74 75 76 76 77 78 79 82 79 79 77 77 77 76 74 73 75 77 79 81 81 82 81 82 85 85 87 86 86 86 86 88 89 88 88 89 89 97 93 93 93 98 97 95 94 95 93 96 95 94 92 91 93 93 93 93 93 96 96 97 -193 -209 -209 -193 87 88 89 89 89 90 91 90 92 94 100 104 108 110 112 114 113 114 110 112 108 109 106 107 107 106 105 106 106 109 108 110 110 112 111 109 109 108 108 109 107 106 107 108 110 109 110 109 110 110 115 116 115 114 116 117 115 115 115 114 114 115 116 115 115 119 119 120 120 120 121 121 121 122 120 122 122 122 122 125 122 122 122 123 122 123 124 123 115 123 124 125 125 127 125 123 124 126 -193 -193 128 131 129 132 131 133 132 133 133 132 132 133 133 135 135 136 137 137 139 139 139 139 139 140 142 142 143 141 141 141 143 141 141 140 142 140 142 142 142 143 145 145 146 145 148 149 148 147 147 148 148 147 149 149 149 151 152 152 152 153 152 152 0 0 0 0 0
    0 0 0 0 0 0 0 0 0 0 0 0 0 0 0 0 0 0 0 0 0 0 0 0 0 0 0 0 0 0 0 0 0 0 0 0 0 0 0 0 0 0 0 0 0 0 0 0 0 0 0 0 0 0 0 0 0 0 0 0 0 0 0 0 0 0 0 0 0 70 64 65 65 66 66 68 68 68 60 73 75 74 74 74 72 74 72 73 74 74 75 -193 76 77 78 80 84 82 83 81 78 79 76 74 73 75 78 80 82 83 84 82 83 85 86 87 87 88 88 88 90 90 89 89 89 89 97 92 92 92 97 97 95 94 95 93 96 95 95 92 91 94 95 94 93 95 -193 -209 -209 -209 -209 -209 -193 88 88 89 89 89 90 91 91 92 96 102 106 110 113 115 116 115 115 113 115 110 109 106 106 105 104 102 103 103 106 107 109 110 112 112 110 110 109 108 108 107 105 107 107 109 109 110 109 111 111 116 116 114 114 116 116 115 114 115 114 113 115 115 115 116 119 119 120 120 120 121 121 121 122 121 123 122 122 123 125 122 122 122 122 121 122 122 122 114 122 125 126 126 127 125 123 124 -193 -193 -209 -193 130 128 131 130 133 132 133 133 131 132 132 133 135 135 -193 -193 138 139 139 139 139 139 139 142 142 142 141 142 142 143 142 141 141 142 140 141 141 141 143 145 145 146 145 148 148 147 147 147 147 147 146 148 148 148 150 151 151 151 152 151 152 0 0 0 0 0
    0 0 0 0 0 0 0 0 0 0 0 0 0 0 0 0 0 0 0 0 0 0 0 0 0 0 0 0 0 0 0 0 0 0 0 0 0 0 0 0 0 0 0 0 0 0 0 0 0 0 0 0 0 0 0 0 0 0 0 0 0 0 0 0 0 0 0 0 0 69 64 64 64 65 66 68 68 68 61 73 76 76 76 74 73 75 74 74 75 76 76 -193 79 80 80 83 87 85 88 85 78 79 76 76 75 76 80 81 83 84 85 83 84 85 86 87 88 89 89 89 90 90 90 90 90 89 96 92 92 91 96 96 94 94 95 94 96 95 96 92 91 94 95 95 94 96 -209 -209 -209 -209 -209 -209 93 90 89 89 89 89 90 90 90 92 95 102 106 109 112 113 115 114 114 110 111 108 107 105 -209 102 102 100 101 102 104 105 107 108 109 108 107 107 107 106 106 105 104 105 107 110 110 113 113 115 115 117 117 114 114 116 116 114 114 115 113 113 115 115 114 115 118 119 119 120 120 121 121 121 122 121 123 122 122 123 124 122 122 122 122 120 121 121 121 114 123 125 126 126 126 125 123 124 127 -193 -209 -193 -193 129 131 130 132 131 132 132 131 131 132 133 135 136 -193 -193 138 139 138 138 139 139 139 141 141 142 141 141 142 142 141 142 141 142 139 141 141 141 142 144 145 145 145 148 148 147 147 147 147 147 146 148 148 148 150 151 152 153 153 152 152 0 0 0 0 0
    0 0 0 0 0 0 0 0 0 0 0 0 0 0 0 0 0 0 0 0 0 0 0 0 0 0 0 0 0 0 0 0 0 0 0 0 0 0 0 0 0 0 0 0 0 0 0 0 0 0 0 0 0 0 0 0 0 0 0 0 0 0 0 0 0 0 0 0 0 69 63 64 64 65 67 69 69 69 61 74 78 77 77 75 74 78 76 76 77 78 80 -209 83 84 83 84 87 87 -193 84 78 79 77 78 78 79 83 84 86 86 87 85 85 86 87 88 89 89 90 90 92 92 92 92 91 90 96 91 91 91 96 96 94 94 95 93 96 96 96 93 91 94 95 94 93 96 -209 -209 -209 -209 -193 -209 92 91 90 90 89 89 90 91 91 93 97 102 105 107 108 109 110 109 109 107 107 106 106 104 103 103 -193 104 103 -193 -193 105 107 108 108 107 106 106 106 105 106 104 103 106 107 111 111 115 115 116 116 118 117 114 114 117 115 114 114 114 113 113 114 114 113 115 118 118 119 120 121 121 121 122 123 121 124 123 123 123 124 123 122 122 122 120 121 121 121 116 123 126 127 127 127 125 125 124 127 -193 -193 -193 131 130 131 130 132 132 132 132 131 132 132 133 135 -193 -193 -193 138 138 138 138 139 139 139 140 141 141 141 141 141 142 142 142 142 142 140 140 141 141 142 144 145 145 145 148 148 148 147 147 147 148 148 149 149 148 150 152 152 153 153 153 151 0 0 0 0 0
    0 0 0 0 0 0 0 0 0 0 0 0 0 0 0 0 0 0 0 0 0 0 0 0 0 0 0 0 0 0 0 0 0 0 0 0 0 0 0 0 0 0 0 0 0 0 0 0 0 0 0 0 0 0 0 0 0 0 0 0 0 0 0 0 0 0 0 0 0 69 63 64 64 65 67 69 69 69 62 74 78 77 77 75 75 82 82 80 79 80 83 -193 86 86 -209 83 86 85 87 83 76 75 74 74 82 82 85 86 87 87 87 87 85 86 86 88 -193 -209 89 90 91 92 92 92 91 90 95 90 90 89 95 96 94 94 94 93 96 96 96 92 91 93 94 94 92 95 -193 -209 -193 94 93 93 93 94 91 92 90 91 91 94 93 97 99 102 104 105 105 107 107 107 106 105 106 106 105 104 103 103 104 104 104 103 104 105 107 108 108 107 105 107 107 106 106 105 104 107 107 112 110 113 113 115 116 118 117 114 115 117 115 114 114 114 112 113 113 113 112 114 118 118 119 120 121 121 122 122 124 122 124 123 123 123 124 123 123 122 122 120 121 121 122 119 124 127 127 127 128 126 126 124 127 125 125 128 130 129 131 130 132 132 132 132 132 132 133 133 135 135 137 -209 138 138 138 138 139 140 139 140 141 142 141 142 142 142 141 142 142 142 140 140 140 141 142 145 146 145 145 148 148 148 148 148 147 148 148 149 148 147 149 150 150 152 151 152 151 0 0 0 0 0
    0 0 0 0 0 0 0 0 0 0 0 0 0 0 0 0 0 0 0 0 0 0 0 0 0 0 0 0 0 0 0 0 0 0 0 0 0 0 0 0 0 0 0 0 0 0 0 0 0 0 0 0 0 0 0 0 0 0 0 0 0 0 0 0 0 0 0 0 0 70 63 64 64 65 67 -193 69 -193 -193 74 77 77 77 75 76 83 82 79 78 80 81 84 83 83 -209 83 85 86 86 83 79 76 76 79 82 82 85 86 87 88 89 88 87 86 -193 -193 -209 -209 89 -193 90 90 90 90 -193 88 91 88 88 88 94 95 93 94 94 93 95 96 96 92 90 91 93 93 92 94 -193 94 -193 94 94 93 94 95 92 93 92 92 92 96 95 99 102 102 103 104 104 106 106 106 105 105 105 105 105 105 103 103 105 105 104 104 104 106 107 108 107 107 105 106 106 106 106 106 105 109 109 114 112 114 115 116 116 118 117 115 115 117 116 115 114 115 112 112 113 113 112 114 117 118 119 120 122 122 122 122 124 122 125 123 123 123 124 123 123 122 122 120 121 121 122 121 123 127 128 128 129 127 127 125 129 128 128 130 131 131 132 131 133 132 132 132 132 132 132 133 134 135 136 135 137 138 138 138 139 140 139 140 140 142 141 142 142 142 141 142 142 143 141 141 141 142 143 146 146 146 146 149 149 148 148 148 147 147 148 148 147 146 148 149 149 150 148 151 150 0 0 0 0 0
    0 0 0 0 0 0 0 0 0 0 0 0 0 0 0 0 0 0 0 0 0 0 0 0 0 0 0 0 0 0 0 0 0 0 0 0 0 0 0 0 0 0 0 0 0 0 0 0 0 0 0 0 0 0 0 0 0 0 0 0 0 0 0 0 0 0 0 0 0 70 64 64 64 66 274 274 -193 -193 -193 74 77 76 76 74 76 86 81 80 78 79 80 82 82 81 81 85 85 88 89 87 83 78 77 77 80 79 82 85 86 87 89 88 87 -193 -193 -209 -209 -209 -209 -193 89 89 89 89 88 87 90 87 87 87 93 95 93 93 94 93 95 96 96 92 90 92 93 93 92 94 -209 -209 -193 -193 93 92 93 94 92 94 93 94 94 99 98 102 104 104 104 105 106 106 106 106 105 104 105 105 104 104 103 103 104 104 103 103 -193 105 106 107 106 105 -193 105 105 104 105 105 104 109 112 117 115 116 116 118 117 119 117 116 117 118 117 116 115 115 114 114 114 113 112 113 115 117 119 120 122 122 121 121 124 122 124 123 123 122 123 123 123 122 122 120 121 122 123 122 123 127 128 129 128 127 127 126 130 129 128 130 131 132 133 132 133 133 133 133 133 133 133 134 135 135 136 136 137 138 138 139 139 140 140 140 140 142 141 142 142 142 141 143 142 143 141 142 142 142 144 147 147 146 147 149 148 148 148 148 147 147 148 148 146 146 148 -193 -193 -193 -193 151 151 0 0 0 0 0
    0 0 0 0 0 0 0 0 0 0 0 0 0 0 0 0 0 0 0 0 0 0 0 0 0 0 0 0 0 0 0 0 0 0 0 0 0 0 0 0 0 0 0 0 0 0 0 0 0 0 0 0 0 0 0 0 0 0 0 0 0 0 0 0 0 0 0 0 0 70 64 64 -193 272 273 274 274 274 -193 74 76 76 76 74 79 89 85 85 81 79 80 82 81 81 80 84 83 86 88 84 81 77 76 76 79 78 81 84 86 86 88 87 87 -193 -193 87 -209 -209 -209 -209 -209 -209 -209 -209 -209 85 -209 86 85 87 92 94 93 93 94 93 95 97 96 92 90 92 94 94 91 92 -209 -209 -209 -209 -193 -193 92 94 92 96 96 98 97 101 100 103 103 104 105 105 107 107 108 107 106 106 106 105 104 103 103 102 103 104 103 103 -193 105 105 106 105 105 104 105 105 104 106 106 104 110 112 117 115 116 117 118 117 119 117 116 117 118 116 116 115 115 114 114 114 113 112 113 115 116 119 120 122 122 122 122 125 123 125 123 123 122 123 123 123 122 123 121 122 123 123 123 123 127 128 129 128 128 128 127 130 129 128 130 131 132 132 132 133 133 133 133 133 133 133 133 135 135 136 136 137 138 138 139 139 140 140 140 140 142 141 142 142 141 141 143 142 143 141 142 141 142 144 147 147 146 148 149 148 148 148 148 147 147 148 147 146 146 148 148 -193 -193 -193 -193 150 0 0 0 0 0
    0 0 0 0 0 0 0 0 0 0 0 0 0 0 0 0 0 0 0 0 0 0 0 0 0 0 0 0 0 0 0 0 0 0 0 0 0 0 0 0 0 0 0 0 0 0 0 0 0 0 0 0 0 0 0 0 0 0 0 0 0 0 0 0 0 0 0 0 0 70 64 -193 -193 272 273 274 274 274 -193 73 75 75 75 -193 74 89 83 85 75 75 74 76 79 80 79 83 81 -193 86 84 84 81 79 78 81 79 82 85 87 86 87 88 87 -193 -193 -209 -209 -209 -209 -209 -209 -209 -209 -209 -209 -209 -209 84 84 86 91 94 92 93 93 93 95 97 96 92 91 92 94 94 90 -209 -209 -209 -209 -209 -209 -209 90 94 92 96 97 101 99 102 102 104 103 104 106 105 107 108 109 107 106 106 105 105 103 102 101 101 102 103 102 103 -193 105 105 106 105 105 104 105 106 105 108 107 107 115 116 118 117 117 117 118 118 119 116 116 117 118 116 116 115 116 115 115 115 113 113 115 116 117 119 120 122 122 122 122 125 123 124 123 122 122 123 124 123 122 123 122 122 124 124 124 124 127 128 129 128 129 128 128 130 129 128 130 130 132 132 132 132 132 133 133 133 132 132 132 134 135 136 136 137 138 138 139 140 141 140 141 141 142 142 142 142 141 142 143 142 143 142 142 141 142 144 148 147 147 149 149 148 149 148 148 147 146 148 147 146 145 146 146 145 148 148 148 150 0 0 0 0 0
    0 0 0 0 0 0 0 0 0 0 0 0 0 0 0 0 0 0 0 0 0 0 0 0 0 0 0 0 0 0 0 0 0 0 0 0 0 0 0 0 0 0 0 0 0 0 0 0 0 0 0 0 0 0 0 0 0 0 0 0 0 0 0 0 0 0 0 0 0 71 -193 272 272 272 273 274 274 274 -193 73 74 75 74 -193 78 87 84 84 76 76 75 77 78 79 77 80 79 -193 86 85 86 85 86 87 87 88 86 88 89 87 88 89 87 86 87 -209 -209 -209 -209 -209 -209 -209 -209 -209 -209 -209 -209 83 83 86 91 94 92 93 93 93 95 97 96 92 90 92 93 93 90 -209 -209 -209 -209 -209 -209 -193 91 96 93 96 97 100 98 102 102 104 103 105 106 106 108 107 107 106 105 105 104 104 102 101 100 100 101 103 101 102 103 105 105 106 105 106 105 105 107 107 110 110 115 118 119 119 118 118 118 119 118 119 116 117 118 118 117 116 116 116 116 116 115 113 115 115 116 117 120 120 122 122 122 122 125 123 124 123 122 122 123 124 124 123 124 123 123 125 126 125 124 126 129 129 128 128 128 128 129 128 128 129 129 131 132 131 131 132 132 132 132 132 132 131 134 134 135 135 136 137 138 139 140 140 140 141 140 142 141 142 141 140 141 143 142 143 142 142 141 142 144 148 148 148 150 149 149 149 149 149 147 147 149 147 147 147 148 147 147 150 149 151 152 0 0 0 0 0
    0 0 0 0 0 0 0 0 0 0 0 0 0 0 0 0 0 0 0 0 0 0 0 0 0 0 0 0 0 0 0 0 0 0 0 0 0 0 0 0 0 0 0 0 0 0 0 0 0 0 0 0 0 0 0 0 0 0 0 0 0 0 0 0 0 0 0 0 0 71 -193 272 272 272 273 274 274 275 61 73 74 74 73 72 76 85 80 77 74 74 75 75 77 78 76 81 -193 -209 -209 -209 -209 -209 -209 -209 -209 -193 85 87 87 85 85 86 84 83 85 -209 -209 -209 -209 -209 -209 -209 -209 -193 -209 -209 -209 83 83 86 92 94 92 93 93 93 95 96 95 92 89 91 92 92 90 -209 -209 -209 -209 -209 -209 -193 92 96 94 97 97 100 97 100 102 105 103 106 105 105 106 107 107 105 103 104 103 103 101 101 100 101 102 103 102 103 103 105 105 106 105 105 104 105 107 107 114 114 119 120 120 120 118 118 118 119 118 118 116 117 118 118 117 117 116 116 116 116 115 113 116 116 117 117 120 120 122 122 122 122 124 122 123 123 122 122 123 125 124 123 124 124 124 126 127 126 124 125 128 128 127 128 127 127 128 127 127 128 128 130 131 131 131 131 131 132 132 132 132 132 134 134 135 135 136 136 137 138 140 140 140 141 140 141 141 141 140 139 140 142 141 142 142 142 141 142 145 148 148 148 150 149 149 149 149 149 148 148 149 147 149 148 149 149 149 151 151 -193 153 0 0 0 0 0
    0 0 0 0 0 0 0 0 0 0 0 0 0 0 0 0 0 0 0 0 0 0 0 0 0 0 0 0 0 0 0 0 0 0 0 0 0 0 0 0 0 0 0 0 0 0 0 0 0 0 0 0 0 0 0 0 0 0 0 0 0 0 0 0 0 0 0 0 0 71 65 -193 -193 -193 273 -193 -193 -193 60 73 73 73 72 70 74 82 76 75 73 74 75 75 76 78 76 -209 -193 -193 -209 -209 -209 -209 -209 -209 -209 -209 82 82 75 76 80 82 81 79 82 -193 -193 -193 -209 -209 -209 -209 -209 420 -193 -209 -209 80 81 85 92 94 92 93 93 94 95 96 95 92 90 91 93 93 90 -209 -209 -209 -209 -209 -209 91 91 94 93 97 97 98 98 100 101 105 104 106 106 106 107 108 108 106 -193 105 104 103 101 101 101 101 102 104 102 103 103 105 106 106 106 107 106 106 111 113 120 118 120 120 118 118 116 116 117 117 116 117 115 117 117 117 116 116 116 116 116 116 115 114 117 116 117 117 120 120 122 122 122 122 124 122 123 124 123 123 123 125 125 123 125 125 124 126 128 127 124 124 128 128 127 128 128 127 128 128 127 128 129 130 131 131 131 132 132 133 133 133 133 131 134 133 134 134 135 135 137 138 140 140 141 141 140 142 142 142 141 139 141 142 141 143 142 142 141 142 144 148 147 148 150 149 149 149 149 149 147 148 149 146 149 148 149 149 148 150 150 152 153 0 0 0 0 0
    0 0 0 0 0 0 0 0 0 0 0 0 0 0 0 0 0 0 0 0 0 0 0 0 0 0 0 0 0 0 0 0 0 0 0 0 0 0 0 0 0 0 0 0 0 0 0 0 0 0 0 0 0 0 0 0 0 0 0 0 0 0 0 0 0 0 0 0 0 71 66 66 65 67 -193 67 67 67 60 72 72 72 71 69 73 79 76 75 74 74 74 75 76 77 -209 -209 -177 -177 -209 -209 -209 -209 -209 -209 -209 -209 -209 -209 71 73 75 77 77 75 -193 79 -193 -209 -209 -209 -209 -209 -209 419 -193 -193 -209 -193 83 86 93 94 93 93 93 94 95 96 96 92 91 92 94 95 92 -209 -209 -209 -209 -209 -209 -193 90 93 94 97 99 100 100 102 102 106 105 106 107 106 108 108 108 107 105 106 105 104 101 101 100 100 101 102 101 102 102 104 104 105 105 106 106 106 109 110 119 118 119 119 116 116 115 115 116 116 115 116 114 117 117 116 116 115 115 116 117 116 115 114 118 117 117 118 120 120 122 121 121 122 124 122 123 124 123 123 124 125 125 124 125 125 123 126 127 127 124 124 127 128 128 128 128 128 128 128 128 129 129 130 131 131 131 132 132 132 132 132 132 130 134 133 134 134 135 136 138 139 140 140 141 142 141 142 142 144 142 140 142 143 142 143 144 143 141 142 144 148 146 148 150 148 149 149 149 148 146 148 148 144 147 146 146 147 147 149 151 151 152 0 0 0 0 0
    0 0 0 0 0 0 0 0 0 0 0 0 0 0 0 0 0 0 0 0 0 0 0 0 0 0 0 0 0 0 0 0 0 0 0 0 0 0 0 0 0 0 0 0 0 0 0 0 0 0 0 0 0 0 0 0 0 0 0 0 0 0 0 0 0 0 0 0 0 72 67 67 65 67 67 67 67 67 60 72 72 72 71 70 74 80 76 75 74 74 75 75 76 -193 -209 -209 -177 -193 -193 -209 -209 -209 -209 -209 -209 -193 -209 -193 70 72 -193 74 76 -209 -193 -193 -209 -209 -209 -209 -209 418 -209 418 -209 -209 -209 -193 84 87 95 94 93 93 94 94 95 97 96 92 91 92 96 95 93 90 -209 -209 -209 -209 -209 -193 89 92 93 96 99 100 101 102 102 105 105 106 107 107 107 108 108 107 105 106 105 104 101 101 100 100 101 102 101 102 103 104 104 105 105 105 105 105 106 107 114 116 118 118 115 116 115 116 116 116 115 115 114 117 116 116 115 115 115 115 117 116 115 115 118 118 118 119 120 121 122 122 122 122 123 122 122 124 123 123 124 125 125 124 125 125 123 126 127 127 124 124 128 128 128 130 129 129 129 129 129 130 131 131 132 131 131 132 132 132 132 132 132 131 134 134 135 135 136 137 139 139 140 140 141 142 141 142 142 143 142 141 143 143 143 143 144 143 141 142 145 147 145 148 149 148 148 148 148 147 145 146 146 142 145 145 144 146 146 148 149 148 149 0 0 0 0 0
    0 0 0 0 0 0 0 0 0 0 0 0 0 0 0 0 0 0 0 0 0 0 0 0 0 0 0 0 0 0 0 0 0 0 0 0 0 0 0 0 0 0 0 0 0 0 0 0 0 0 0 0 0 0 0 0 0 0 0 0 0 0 0 0 0 0 0 0 0 72 67 67 64 66 66 66 66 66 60 71 71 71 69 68 72 80 76 75 74 75 75 76 -193 -193 -209 -209 -193 -193 -193 -209 -209 -209 -209 -209 -209 -193 69 67 69 70 71 72 74 73 76 -193 -209 -209 -209 -209 416 -193 -209 -209 -209 -209 83 83 85 87 97 95 94 94 94 94 95 97 96 92 92 93 96 96 94 91 -209 -209 -209 -209 -209 -193 89 92 94 97 99 101 102 103 104 106 105 107 107 107 108 108 108 107 106 107 105 104 102 102 101 101 101 102 101 102 102 104 104 105 105 105 105 105 107 108 -209 115 116 117 114 113 114 115 115 115 114 114 113 116 116 115 114 114 114 115 116 115 114 115 118 118 118 119 120 121 121 121 121 122 123 122 122 124 123 123 124 125 125 124 125 125 123 125 127 127 125 125 128 129 129 130 129 129 129 129 129 130 131 131 131 131 131 132 132 132 133 133 133 133 135 135 136 136 136 137 138 138 140 140 142 141 141 142 143 144 143 141 145 144 143 143 144 143 141 141 144 146 144 147 149 147 147 148 147 146 144 146 145 142 147 146 145 148 147 149 150 149 149 0 0 0 0 0
    0 0 0 0 0 0 0 0 0 0 0 0 0 0 0 0 0 0 0 0 0 0 0 0 0 0 0 0 0 0 0 0 0 0 0 0 0 0 0 0 0 0 0 0 0 0 0 0 0 0 0 0 0 0 0 0 0 0 0 0 0 0 0 0 0 0 0 0 0 72 68 67 64 66 66 66 66 66 60 70 71 71 69 68 72 76 75 73 73 -193 74 -193 -193 -193 -209 -209 -209 -209 -209 -209 -209 -193 -209 -209 -209 -193 -193 66 68 69 70 71 73 73 75 -209 -209 -209 -209 -209 -209 -209 73 -209 76 74 82 83 85 88 98 95 95 94 94 94 95 96 96 93 93 93 97 97 96 93 91 -209 -193 -209 -193 90 90 93 95 99 100 101 102 102 103 106 105 107 107 107 107 108 108 108 107 108 108 107 104 103 102 101 101 102 101 102 102 103 104 104 105 105 105 104 -193 -209 -209 -193 110 111 110 109 110 112 112 113 113 113 113 117 115 114 113 113 113 114 116 115 113 115 119 119 118 119 120 121 121 121 121 122 122 122 122 125 123 123 124 125 124 124 125 125 122 124 126 127 124 125 127 129 129 130 130 128 128 130 130 130 131 131 131 130 131 132 132 132 133 134 134 134 136 136 137 137 136 136 137 137 139 139 141 140 141 142 142 143 142 140 144 143 142 142 143 142 140 141 144 144 143 146 148 146 147 147 147 145 143 146 145 142 148 147 145 149 149 150 150 149 147 0 0 0 0 0
    0 0 0 0 0 0 0 0 0 0 0 0 0 0 0 0 0 0 0 0 0 0 0 0 0 0 0 0 0 0 0 0 0 0 0 0 0 0 0 0 0 0 0 0 0 0 0 0 0 0 0 0 0 0 0 0 0 0 0 0 0 0 0 0 0 0 0 0 0 72 68 67 64 66 67 67 66 66 60 71 71 71 71 69 72 77 75 73 73 74 74 -193 -193 -193 -209 -209 -209 -209 -209 -209 -209 -209 -209 -209 -209 -193 -193 63 65 68 70 -193 -193 74 77 76 -193 -193 -209 -209 78 -209 77 79 81 78 86 86 88 89 99 95 96 94 94 94 95 96 96 93 94 94 97 97 96 94 92 91 92 92 91 91 91 92 95 97 99 100 100 101 102 105 104 106 106 106 106 107 108 108 107 108 109 108 106 105 104 103 102 103 101 102 102 103 103 104 106 106 107 107 109 -193 -209 -193 110 110 109 108 110 111 111 114 114 113 113 117 115 114 113 113 112 113 116 115 111 116 119 119 118 119 120 121 121 121 121 122 122 122 122 124 123 124 124 125 124 124 124 125 122 123 126 126 124 125 126 129 129 130 130 128 127 130 131 130 131 130 131 130 131 132 132 132 134 135 136 135 137 137 137 136 136 135 136 135 137 138 140 139 140 142 142 144 142 141 145 143 142 143 143 143 140 141 145 144 143 146 147 145 146 147 146 144 143 146 144 143 148 147 146 150 150 150 151 149 147 0 0 0 0 0
    0 0 0 0 0 0 0 0 0 0 0 0 0 0 0 0 0 0 0 0 0 0 0 0 0 0 0 0 0 0 0 0 0 0 0 0 0 0 0 0 0 0 0 0 0 0 0 0 0 0 0 0 0 0 0 0 0 0 0 0 0 0 0 0 0 0 0 0 0 72 68 67 64 67 -193 67 67 67 60 70 71 71 70 68 -193 -209 75 74 75 75 75 76 76 77 -193 -193 -193 -209 -209 -209 -209 -209 -209 -193 -193 64 65 64 67 69 -193 -193 76 76 78 78 83 83 85 82 80 84 85 90 89 87 90 94 93 93 99 95 96 94 94 94 94 96 96 93 94 94 97 97 97 95 93 92 93 93 93 93 92 92 95 95 97 97 98 98 100 103 103 105 105 106 105 106 107 107 -193 108 110 110 108 108 106 104 103 103 102 102 102 103 104 105 106 107 110 109 109 -193 -193 -193 107 107 107 106 108 109 109 113 112 111 112 116 114 112 112 112 110 113 115 114 110 117 119 119 118 119 120 121 121 121 121 122 122 123 122 124 124 124 124 125 124 124 124 125 122 122 125 125 124 125 126 130 130 130 130 129 128 131 131 131 131 132 132 132 132 134 134 134 136 136 137 137 138 137 137 136 137 136 136 135 137 138 140 139 140 142 142 144 142 142 146 143 143 144 143 143 140 141 145 143 142 146 147 145 146 146 146 144 143 146 143 144 150 150 149 152 152 152 152 151 150 0 0 0 0 0
    0 0 0 0 0 0 0 0 0 0 0 0 0 0 0 0 0 0 0 0 0 0 0 0 0 0 0 0 0 0 0 0 0 0 0 0 0 0 0 0 0 0 0 0 0 0 0 0 0 0 0 0 0 0 0 0 0 0 0 0 0 0 0 0 0 0 0 0 0 72 68 66 63 67 -193 67 67 67 61 71 71 71 70 69 72 -209 -193 -209 76 -193 -193 -193 -193 79 77 79 79 -209 -209 -209 -209 -209 -209 -193 -193 64 65 64 67 69 69 71 73 74 77 77 85 86 88 88 87 89 88 91 91 88 90 95 92 93 98 95 97 94 94 94 93 96 96 93 95 93 97 97 97 95 93 92 93 94 93 94 93 93 96 97 99 99 99 99 100 103 103 104 105 105 105 106 107 107 107 108 109 110 110 110 108 106 104 104 104 104 104 105 106 107 108 109 111 111 109 109 -193 107 106 106 106 105 107 108 108 112 111 111 112 115 113 112 111 111 109 112 114 112 109 118 120 119 119 119 120 120 121 121 121 122 122 123 122 124 124 124 124 125 124 124 123 124 123 122 124 125 123 125 126 131 131 130 131 130 129 131 132 132 132 132 133 133 133 135 135 135 137 137 138 138 139 138 138 137 138 137 137 137 138 138 140 140 141 142 142 145 143 144 146 144 143 144 143 142 140 142 144 142 142 146 146 144 146 146 145 143 143 146 142 146 152 153 151 153 153 152 153 152 152 0 0 0 0 0
    0 0 0 0 0 0 0 0 0 0 0 0 0 0 0 0 0 0 0 0 0 0 0 0 0 0 0 0 0 0 0 0 0 0 0 0 0 0 0 0 0 0 0 0 0 0 0 0 0 0 0 0 0 0 0 0 0 0 0 0 0 0 0 0 0 0 0 0 0 72 68 67 63 67 -193 67 67 67 61 71 72 72 72 71 -193 -209 -193 -209 77 -193 -193 -193 -193 78 77 78 78 76 -193 -209 -209 -209 -193 68 67 65 66 65 68 70 69 71 -193 75 79 82 87 89 91 91 89 90 89 92 94 93 92 99 94 94 98 95 97 94 94 94 93 96 96 94 95 93 96 97 97 95 92 91 92 93 93 95 94 95 98 98 101 99 100 100 100 102 103 104 105 105 106 106 107 107 108 109 110 111 111 110 110 107 105 105 104 105 105 105 107 108 109 110 112 112 110 110 108 107 106 107 108 107 107 108 108 111 110 110 111 113 111 110 109 110 108 110 112 110 109 118 119 119 119 119 120 121 121 121 121 122 123 123 122 123 124 124 124 124 123 124 123 124 123 121 123 124 123 126 126 131 131 130 131 130 129 132 132 132 132 132 133 133 133 135 135 135 137 137 138 139 139 138 139 138 138 138 138 138 138 139 141 141 141 143 143 145 144 145 146 144 143 144 143 142 141 143 146 142 143 147 146 145 146 146 145 143 143 146 142 147 152 153 151 154 154 153 153 153 -193 0 0 0 0 0
    0 0 0 0 0 0 0 0 0 0 0 0 0 0 0 0 0 0 0 0 0 0 0 0 0 0 0 0 0 0 0 0 0 0 0 0 0 0 0 0 0 0 0 0 0 0 0 0 0 0 0 0 0 0 0 0 0 0 0 0 0 0 0 0 0 0 0 0 0 73 69 67 64 67 -193 67 68 67 61 71 72 72 72 72 -193 -209 -193 74 78 -193 -193 -193 -193 -193 78 79 79 77 75 73 70 71 69 68 66 64 66 66 69 71 71 -209 -193 82 83 84 87 89 89 90 90 91 91 94 97 98 95 100 94 94 96 95 97 94 94 94 93 96 96 94 95 93 95 96 96 94 92 90 91 92 93 96 94 94 96 97 99 99 100 100 101 102 103 104 105 105 106 106 107 107 108 109 110 111 112 111 110 108 106 105 105 105 105 106 108 108 110 110 111 112 110 111 110 108 108 109 110 109 109 110 109 113 111 110 112 112 111 110 109 110 108 110 111 109 109 118 119 119 119 120 120 121 122 122 122 123 123 124 122 123 125 124 124 124 123 124 123 124 123 121 123 124 123 126 126 131 131 130 131 130 129 131 132 132 132 132 133 132 133 134 134 134 136 136 138 138 139 138 139 139 139 139 138 139 139 140 142 142 142 143 143 145 143 145 146 144 143 144 143 142 141 144 146 142 144 148 146 146 147 147 145 143 144 146 141 148 151 152 152 155 155 154 154 153 -193 0 0 0 0 0
    0 0 0 0 0 0 0 0 0 0 0 0 0 0 0 0 0 0 0 0 0 0 0 0 0 0 0 0 0 0 0 0 0 0 0 0 0 0 0 0 0 0 0 0 0 0 0 0 0 0 0 0 0 0 0 0 0 0 0 0 0 0 0 0 0 0 0 0 0 74 69 68 66 68 272 67 67 67 61 70 71 71 70 72 -209 -209 -209 74 78 79 81 -193 80 80 80 81 80 78 76 73 70 71 69 67 66 67 -193 -193 -193 88 90 90 88 89 87 87 88 90 89 90 90 91 90 94 96 99 98 99 93 93 95 95 96 94 93 93 93 96 96 94 94 92 94 94 95 93 91 90 91 92 95 97 96 95 96 97 99 98 99 99 101 102 103 105 106 106 107 107 107 107 109 109 111 112 112 112 111 109 107 106 106 106 106 107 110 109 111 111 112 113 111 112 112 110 111 111 112 110 111 112 110 115 113 112 115 114 113 111 110 111 109 111 112 109 110 118 118 119 119 119 120 121 121 122 122 123 123 124 122 122 126 124 124 124 123 124 123 124 124 121 122 124 123 127 126 132 131 130 131 131 128 132 132 132 131 132 133 133 133 135 134 135 137 137 138 139 139 138 139 138 138 138 138 138 139 140 142 142 142 143 143 144 143 144 144 143 142 143 142 142 142 145 146 142 146 148 146 146 146 146 144 142 144 145 141 150 152 153 154 156 157 154 154 -193 -193 0 0 0 0 0
    0 0 0 0 0 0 0 0 0 0 0 0 0 0 0 0 0 0 0 0 0 0 0 0 0 0 0 0 0 0 0 0 0 0 0 0 0 0 0 0 0 0 0 0 0 0 0 0 0 0 0 0 0 0 0 0 0 0 0 0 0 0 0 0 0 0 0 0 0 74 69 68 67 69 -193 67 67 67 61 70 71 71 -193 70 -209 -209 -209 -209 78 79 -193 79 80 79 79 80 79 78 76 73 73 74 72 72 -193 -193 92 90 91 90 92 92 91 89 88 87 88 89 88 89 90 92 91 95 94 97 96 96 93 93 93 94 95 93 93 93 93 96 96 95 94 92 95 95 95 94 92 91 91 92 96 98 95 95 96 97 98 96 96 97 99 102 103 105 106 105 106 107 108 107 108 109 111 111 112 111 111 -193 108 107 107 106 106 106 109 109 110 111 113 113 113 114 113 111 113 113 113 111 111 112 112 116 114 113 116 115 114 113 111 111 109 111 111 109 111 118 117 118 118 119 120 121 121 121 122 123 123 124 122 122 127 124 124 124 123 124 123 124 125 121 123 124 124 127 126 131 131 130 130 130 128 131 132 131 130 131 133 133 133 135 135 136 138 138 138 139 139 137 139 138 138 138 138 138 139 140 142 142 143 143 142 143 142 143 143 142 141 141 141 141 141 145 146 143 147 148 147 147 147 147 145 143 146 146 142 152 153 155 156 157 159 156 156 156 -193 0 0 0 0 0
    0 0 0 0 0 0 0 0 0 0 0 0 0 0 0 0 0 0 0 0 0 0 0 0 0 0 0 0 0 0 0 0 0 0 0 0 0 0 0 0 0 0 0 0 0 0 0 0 0 0 0 0 0 0 0 0 0 0 0 0 0 0 0 0 0 0 0 0 0 74 69 69 68 69 274 -193 -193 68 61 71 71 -193 -193 -193 -209 -209 -209 74 79 79 81 79 79 78 78 80 79 78 78 76 78 78 80 81 85 89 90 89 91 91 93 94 93 91 90 89 90 89 88 88 91 92 90 93 92 94 95 94 92 92 92 94 94 93 93 92 93 96 96 95 94 92 95 95 95 93 92 91 91 91 96 97 95 95 96 96 97 94 94 94 97 100 101 102 104 104 105 106 107 106 107 108 110 110 111 110 110 109 108 108 108 107 107 107 110 109 110 111 113 113 112 113 113 111 113 113 113 112 112 113 113 116 114 114 116 114 114 112 110 111 109 111 111 108 112 118 117 117 118 118 119 120 120 120 121 122 122 123 122 121 128 125 125 124 124 125 124 125 126 121 123 125 124 127 126 131 130 129 129 130 127 130 131 130 129 131 133 134 134 136 136 137 138 138 138 138 139 138 139 139 139 139 139 140 140 141 142 142 143 142 142 143 142 142 142 141 140 140 140 141 141 146 146 144 147 148 147 147 147 147 145 144 147 146 144 151 152 154 156 158 160 158 157 157 156 0 0 0 0 0
    0 0 0 0 0 0 0 0 0 0 0 0 0 0 0 0 0 0 0 0 0 0 0 0 0 0 0 0 0 0 0 0 0 0 0 0 0 0 0 0 0 0 0 0 0 0 0 0 0 0 0 0 0 0 0 0 0 0 0 0 0 0 0 0 0 0 0 0 0 74 69 69 69 70 274 274 274 -193 61 -193 71 -193 -193 74 -209 -209 75 74 79 80 83 81 81 79 78 81 79 78 78 77 78 79 82 83 84 89 90 89 91 92 94 93 93 93 92 89 90 88 88 88 89 90 88 91 91 92 93 93 92 91 92 94 94 93 92 92 93 96 96 95 94 92 94 94 94 93 91 91 91 92 97 99 99 98 99 99 99 97 97 97 98 100 101 103 105 104 105 105 106 106 107 107 108 108 109 109 109 108 108 107 108 108 108 106 109 108 110 111 112 112 111 112 113 112 114 114 114 113 114 115 116 116 114 114 116 112 112 111 109 110 109 111 110 107 114 117 116 116 118 118 119 119 119 119 120 121 121 122 121 121 129 125 125 125 125 125 125 126 127 122 124 127 125 127 127 130 130 129 129 130 127 130 130 130 129 131 132 133 133 136 136 137 137 137 137 137 137 137 139 139 140 140 141 141 141 142 144 143 144 142 142 142 142 142 142 141 139 140 140 140 141 147 146 144 148 148 147 147 147 147 145 145 147 146 146 151 152 153 156 157 159 158 157 158 157 0 0 0 0 0
    0 0 0 0 0 0 0 0 0 0 0 0 0 0 0 0 0 0 0 0 0 0 0 0 0 0 0 0 0 0 0 0 0 0 0 0 0 0 0 0 0 0 0 0 0 0 0 0 0 0 0 0 0 0 0 0 0 0 0 0 0 0 0 0 0 0 0 0 0 75 70 70 70 71 -193 274 274 -193 62 71 71 71 70 74 77 76 74 73 78 79 84 80 80 78 79 80 78 77 79 76 81 82 84 85 85 89 90 89 91 90 92 92 91 92 90 88 90 88 88 88 88 89 87 -193 -193 91 92 92 91 91 91 93 93 93 92 92 93 96 96 95 93 91 93 93 94 92 91 91 92 93 98 99 99 99 99 100 100 98 99 99 100 101 102 104 105 105 106 106 106 105 107 106 107 107 108 108 109 108 108 107 108 107 107 106 108 107 108 109 110 111 111 111 112 112 114 115 115 114 115 115 116 116 114 114 115 111 110 109 109 109 109 110 109 107 114 116 116 116 117 118 119 119 119 119 120 121 121 121 121 120 128 124 124 124 125 126 125 126 127 123 126 129 127 128 128 130 130 130 129 130 127 129 129 130 128 130 131 132 133 134 135 135 135 136 136 136 137 136 138 138 140 140 141 142 143 143 145 144 144 142 142 142 141 141 142 140 139 139 140 140 143 147 145 144 148 148 147 147 147 147 145 146 148 147 148 153 153 154 157 156 159 158 158 160 159 0 0 0 0 0
    0 0 0 0 0 0 0 0 0 0 0 0 0 0 0 0 0 0 0 0 0 0 0 0 0 0 0 0 0 0 0 0 0 0 0 0 0 0 0 0 0 0 0 0 0 0 0 0 0 0 0 0 0 0 0 0 0 0 0 0 0 0 0 0 0 0 0 0 0 75 71 71 -193 -177 -177 274 274 -193 63 72 72 72 72 74 79 82 79 78 81 82 85 82 82 81 80 82 79 78 80 77 82 83 84 85 86 88 89 88 90 89 92 91 90 91 90 89 90 88 89 88 88 89 87 -193 -193 -193 -193 -193 90 90 90 93 93 93 92 92 93 97 96 96 93 91 93 93 94 92 91 92 93 94 99 100 100 100 100 100 100 100 100 101 101 102 103 104 106 106 106 106 107 106 107 107 108 108 109 109 109 109 108 108 108 107 106 105 106 105 106 108 109 110 111 111 113 113 115 116 116 116 116 116 117 115 114 115 114 111 110 109 109 109 109 110 108 107 115 115 115 115 117 118 119 119 119 119 120 121 121 121 121 120 127 124 124 124 125 126 126 126 128 124 127 130 128 128 129 128 129 129 128 129 126 128 127 128 127 128 128 131 131 133 133 135 135 136 135 136 137 136 138 138 138 139 140 141 142 142 145 144 145 142 142 141 141 141 141 140 139 139 140 141 144 148 145 145 149 148 147 148 147 147 145 147 149 146 149 152 152 153 156 155 158 158 159 161 160 0 0 0 0 0
    0 0 0 0 0 0 0 0 0 0 0 0 0 0 0 0 0 0 0 0 0 0 0 0 0 0 0 0 0 0 0 0 0 0 0 0 0 0 0 0 0 0 0 0 0 0 0 0 0 0 0 0 0 0 0 0 0 0 0 0 0 0 0 0 0 0 0 0 0 76 72 -193 -177 -177 -177 273 -193 -193 64 72 72 73 72 75 78 83 80 79 80 80 85 80 81 80 79 82 80 80 82 78 84 83 84 85 84 86 86 85 87 87 89 89 89 90 89 89 90 88 89 88 88 -209 -193 -193 142 -193 145 142 -193 90 90 93 92 93 92 91 94 97 96 96 93 90 92 93 93 91 90 93 93 93 98 99 99 99 100 100 100 100 101 102 102 102 103 105 106 105 105 105 107 105 106 107 108 109 110 109 110 109 109 109 108 107 106 104 106 105 105 107 109 111 112 112 114 114 116 117 117 116 117 117 118 116 115 115 114 111 111 110 110 109 111 111 109 108 116 115 116 115 117 118 119 119 119 119 120 121 121 121 121 121 126 125 124 124 126 126 127 127 128 125 127 131 129 128 130 127 128 129 127 128 125 128 127 127 126 127 127 129 129 131 132 134 134 136 135 136 136 136 137 137 137 138 138 139 141 141 144 144 145 142 142 142 142 142 141 140 140 139 140 142 146 148 146 147 149 148 147 148 147 146 145 147 148 145 149 151 151 152 155 154 157 158 159 162 161 0 0 0 0 0
    0 0 0 0 0 0 0 0 0 0 0 0 0 0 0 0 0 0 0 0 0 0 0 0 0 0 0 0 0 0 0 0 0 0 0 0 0 0 0 0 0 0 0 0 0 0 0 0 0 0 0 0 0 0 0 0 0 0 0 0 0 0 0 0 0 0 0 0 0 76 72 -209 -193 -177 -177 -193 -193 -193 64 72 72 72 71 75 80 86 84 82 82 83 87 83 83 81 82 83 82 81 81 80 83 82 84 84 84 85 86 85 86 86 88 87 88 89 88 88 89 88 89 87 -193 36 33 -177 142 145 146 142 -177 89 89 92 92 93 91 91 94 97 96 96 93 90 92 93 93 91 91 94 94 93 97 97 96 98 99 100 99 100 100 101 101 102 102 103 105 104 104 105 106 105 106 107 108 109 111 110 110 110 109 108 108 107 106 104 106 105 105 108 111 113 113 113 115 114 116 116 116 116 117 117 118 116 115 116 115 112 112 111 110 109 111 111 109 109 117 116 116 115 117 118 119 119 119 119 120 121 121 121 121 121 126 125 124 124 126 126 128 127 129 126 128 131 130 128 130 127 128 129 127 129 125 127 127 127 126 128 127 129 128 131 131 133 133 135 134 134 135 135 136 136 137 137 138 139 141 141 145 143 145 142 142 141 142 141 141 140 140 139 140 142 147 148 146 147 149 148 147 148 147 146 145 147 148 145 149 150 151 152 154 154 155 157 158 160 160 0 0 0 0 0
    0 0 0 0 0 0 0 0 0 0 0 0 0 0 0 0 0 0 0 0 0 0 0 0 0 0 0 0 0 0 0 0 0 0 0 0 0 0 0 0 0 0 0 0 0 0 0 0 0 0 0 0 0 0 0 0 0 0 0 0 0 0 0 0 0 0 0 0 0 75 72 -193 -177 -177 -177 -193 -193 -193 63 72 72 72 71 75 82 87 85 85 83 84 87 83 83 82 82 81 81 82 81 81 82 82 83 84 84 85 85 85 86 85 88 87 87 88 87 87 89 87 89 87 -193 36 33 -193 -193 -193 146 -193 -177 89 89 92 92 93 91 90 94 97 96 96 93 90 92 94 93 91 91 94 95 94 96 97 96 98 99 100 99 100 101 102 102 103 103 103 105 105 104 105 106 105 106 107 108 109 110 109 110 109 108 108 107 107 106 104 105 104 104 107 109 111 111 111 113 113 115 116 115 116 116 117 118 115 115 116 114 112 112 111 111 109 112 111 109 110 117 115 115 115 117 118 118 118 118 118 119 120 120 120 120 121 124 125 124 124 127 127 128 127 129 127 128 132 131 127 130 126 127 128 127 128 125 127 127 127 126 129 127 129 128 131 131 132 133 134 133 134 134 134 135 135 136 137 138 139 141 142 145 144 144 142 141 141 143 141 141 140 140 139 140 142 147 147 146 147 149 147 147 147 147 146 146 148 148 146 150 151 151 152 154 153 155 156 157 159 159 0 0 0 0 0
    0 0 0 0 0 0 0 0 0 0 0 0 0 0 0 0 0 0 0 0 0 0 0 0 0 0 0 0 0 0 0 0 0 0 0 0 0 0 0 0 0 0 0 0 0 0 0 0 0 0 0 0 0 0 0 0 0 0 0 0 0 0 0 0 0 0 0 0 0 75 72 -193 -177 -177 -177 -177 -193 70 64 72 72 73 72 76 84 88 87 86 82 83 84 82 82 81 81 79 80 81 81 81 82 82 82 83 84 84 85 85 85 85 88 86 87 88 87 87 -193 -193 -193 -193 -193 35 33 35 -193 32 -193 -193 -177 -193 89 91 91 93 91 90 94 97 96 96 93 90 93 96 95 92 92 95 95 94 96 97 96 98 99 99 97 98 99 100 100 100 101 100 103 103 103 104 105 105 105 105 106 108 109 108 109 109 108 107 107 107 106 104 105 103 103 106 108 110 110 111 113 112 114 116 115 116 116 117 118 114 115 116 113 111 111 111 110 109 111 110 108 110 117 115 115 115 117 117 117 117 118 117 118 119 119 119 120 120 123 124 124 124 127 127 129 128 129 127 127 132 131 127 130 126 126 128 127 128 126 127 127 128 126 129 127 130 128 130 129 132 132 134 132 133 133 134 135 135 136 137 138 140 142 142 145 145 144 142 141 141 143 141 142 141 140 139 140 143 147 147 145 147 148 147 147 147 147 146 147 149 149 148 151 152 152 152 153 153 154 156 157 159 160 0 0 0 0 0
    0 0 0 0 0 0 0 0 0 0 0 0 0 0 0 0 0 0 0 0 0 0 0 0 0 0 0 0 0 0 0 0 0 0 0 0 0 0 0 0 0 0 0 0 0 0 0 0 0 0 0 0 0 0 0 0 0 0 0 0 0 0 0 0 0 0 0 0 0 73 71 -193 -177 -177 -177 -193 71 70 64 72 72 74 73 78 82 85 85 83 81 81 82 81 81 81 80 79 80 81 80 81 81 81 82 83 84 84 -193 -193 -193 85 88 86 87 87 -193 -193 -193 -193 -209 -193 35 35 33 34 33 32 -193 -193 -177 -193 89 91 91 92 90 91 94 97 97 96 93 90 94 98 96 93 93 96 97 95 98 99 98 99 101 101 98 100 100 101 101 100 102 101 104 104 104 105 106 106 107 106 107 108 109 109 110 108 106 106 105 105 104 103 103 103 103 107 110 -193 112 114 115 112 114 116 115 116 116 117 118 114 114 115 112 111 110 110 109 109 111 110 107 111 117 115 115 115 117 117 117 117 117 117 118 118 118 118 119 120 122 124 123 124 127 127 129 128 128 128 127 131 131 127 130 127 126 129 127 128 126 127 127 129 127 130 128 130 127 130 128 132 131 133 132 133 134 134 135 135 136 137 138 140 142 143 145 145 144 142 141 141 143 141 142 141 141 140 142 144 148 146 144 147 148 147 147 147 147 147 148 149 149 149 152 152 153 153 154 154 155 156 157 158 160 0 0 0 0 0
    0 0 0 0 0 0 0 0 0 0 0 0 0 0 0 0 0 0 0 0 0 0 0 0 0 0 0 0 0 0 0 0 0 0 0 0 0 0 0 0 0 0 0 0 0 0 0 0 0 0 0 0 0 0 0 0 0 0 0 0 0 0 0 0 0 0 0 0 0 72 71 71 -193 -177 -193 70 71 70 66 73 73 76 75 78 81 84 84 82 80 81 81 81 81 81 80 79 80 81 80 80 81 80 82 -193 -193 -193 -193 -193 -193 179 -209 -209 -193 -193 86 87 -193 87 -193 -193 35 35 33 34 33 32 -193 -193 -177 -177 88 91 91 92 90 91 93 97 97 97 94 91 98 101 100 98 98 101 101 99 100 100 98 98 99 99 95 99 -193 102 102 102 104 103 105 106 106 105 106 106 106 106 106 107 108 108 109 106 105 105 104 105 104 103 104 104 105 109 113 114 115 116 116 115 115 117 114 116 117 117 117 113 114 115 111 111 110 110 109 109 111 110 107 112 117 115 115 115 117 117 117 117 118 117 118 118 119 118 120 120 121 124 124 125 127 126 128 128 128 128 126 131 131 127 130 128 127 130 129 129 127 128 128 130 127 130 128 130 129 131 129 132 132 133 133 133 134 134 135 135 135 135 137 138 140 141 144 145 143 141 141 141 142 141 142 141 140 141 142 145 148 145 144 147 148 147 147 147 147 147 148 150 149 150 152 152 153 153 154 153 154 155 156 157 158 0 0 0 0 0
    0 0 0 0 0 0 0 0 0 0 0 0 0 0 0 0 0 0 0 0 0 0 0 0 0 0 0 0 0 0 0 0 0 0 0 0 0 0 0 0 0 0 0 0 0 0 0 0 0 0 0 0 0 0 0 0 0 0 0 0 0 0 0 0 0 0 0 0 0 71 70 70 70 -193 69 70 71 70 69 73 75 77 77 79 80 83 83 82 80 80 81 80 81 81 80 79 80 81 80 80 81 80 -193 -193 34 33 33 33 -193 -193 -209 785 785 -193 86 86 87 87 37 35 36 35 33 35 33 32 -193 -193 -177 -177 88 90 90 92 90 91 93 97 97 96 94 91 98 101 101 99 100 104 103 101 99 100 93 94 92 93 90 93 95 98 99 100 102 101 103 105 105 105 106 106 106 106 107 109 109 110 111 108 106 106 106 107 105 105 105 106 107 111 114 115 115 115 116 116 115 116 114 116 116 117 116 113 113 115 111 110 110 110 109 110 111 110 107 114 117 115 115 116 117 117 117 118 118 118 118 119 120 119 121 121 122 125 124 125 128 126 128 127 128 128 125 130 131 127 130 129 128 131 129 130 128 128 128 130 128 130 129 131 130 132 130 132 132 133 133 133 133 133 134 134 134 134 135 137 139 140 143 145 142 141 141 141 142 141 141 141 140 140 143 145 149 145 146 148 148 147 148 148 148 147 149 150 149 149 152 151 153 153 153 153 154 154 155 156 158 0 0 0 0 0
    0 0 0 0 0 0 0 0 0 0 0 0 0 0 0 0 0 0 0 0 0 0 0 0 0 0 0 0 0 0 0 0 0 0 0 0 0 0 0 0 0 0 0 0 0 0 0 0 0 0 0 0 0 0 0 0 0 0 0 0 0 0 0 0 0 0 0 0 0 70 69 70 69 69 67 70 71 69 70 73 74 77 76 78 79 82 83 82 80 80 80 80 81 81 80 79 81 81 80 81 81 80 -193 -193 32 32 31 32 -193 -193 -193 786 786 -193 -193 86 -193 86 37 35 36 35 33 35 33 32 -193 -193 -177 -193 88 90 91 92 91 92 93 97 97 96 94 92 99 102 103 101 104 107 106 104 101 101 91 93 90 93 90 91 92 94 96 98 100 100 102 104 104 104 105 106 106 107 106 110 110 110 110 108 107 106 106 107 106 105 106 107 109 112 115 116 115 116 117 117 116 116 114 115 115 116 116 112 112 114 111 110 110 110 110 111 112 112 108 116 118 116 116 116 117 117 117 118 118 118 119 119 120 119 121 121 121 126 124 125 128 126 127 127 127 128 124 129 130 127 130 129 128 131 130 130 129 128 129 130 128 130 130 131 130 132 130 132 132 133 133 132 133 133 134 135 135 135 134 137 138 140 141 143 141 140 140 141 142 140 141 140 139 140 141 144 148 145 146 148 149 148 149 148 148 147 149 149 149 149 151 150 152 153 153 154 154 154 155 156 157 0 0 0 0 0
    0 0 0 0 0 0 0 0 0 0 0 0 0 0 0 0 0 0 0 0 0 0 0 0 0 0 0 0 0 0 0 0 0 0 0 0 0 0 0 0 0 0 0 0 0 0 0 0 0 0 0 0 0 0 0 0 0 0 0 0 0 0 0 0 0 0 0 0 0 69 69 69 69 69 66 70 70 68 70 72 73 76 76 78 79 81 83 81 80 80 80 80 81 80 80 79 81 81 80 81 81 79 -193 -193 32 32 31 32 32 -193 -193 -193 787 -193 85 86 87 86 -193 -193 36 35 33 35 32 32 33 -177 -193 -193 88 90 91 92 92 92 93 97 97 97 94 91 98 101 102 99 103 107 106 102 100 99 89 91 88 92 90 91 92 93 94 97 98 99 101 102 102 102 103 104 104 105 104 107 108 109 108 107 106 106 106 107 106 105 106 107 110 113 115 116 115 116 117 118 117 115 114 115 114 116 115 112 112 114 111 110 110 111 111 113 114 113 110 118 118 117 116 116 117 117 117 118 118 118 118 119 119 119 121 121 121 126 125 126 128 126 127 127 126 127 123 128 130 126 130 130 129 132 131 131 130 128 130 130 129 130 130 132 131 132 131 131 132 132 132 132 133 133 135 136 136 137 136 137 138 140 140 141 140 140 139 141 141 140 140 140 139 139 139 142 147 143 146 148 148 148 149 148 148 147 149 149 148 148 150 149 152 152 153 153 153 154 -193 155 156 0 0 0 0 0
    0 0 0 0 0 0 0 0 0 0 0 0 0 0 0 0 0 0 0 0 0 0 0 0 0 0 0 0 0 0 0 0 0 0 0 0 0 0 0 0 0 0 0 0 0 0 0 0 0 0 0 0 0 0 0 0 0 0 0 0 0 0 0 0 0 0 0 0 0 68 68 68 68 68 64 69 69 67 70 71 72 75 76 78 78 81 82 81 80 80 80 80 81 80 80 79 80 81 80 80 81 79 -193 32 32 32 31 32 32 -193 -193 -193 788 -193 84 85 86 86 87 85 -209 34 32 -193 -193 -193 -193 -193 -209 89 88 90 90 92 92 92 93 97 97 97 94 91 95 99 99 97 -209 -193 108 -193 102 101 93 93 88 92 90 91 92 93 93 96 97 97 100 102 102 101 102 103 103 104 104 106 106 107 107 106 105 105 106 106 106 106 106 107 110 113 113 113 112 114 114 116 115 113 113 114 114 114 113 111 111 114 111 111 111 112 112 115 115 114 111 118 118 116 115 116 117 117 117 118 117 117 117 118 119 119 121 122 121 126 125 126 127 125 126 126 126 126 123 127 129 126 129 130 129 132 131 131 130 129 131 131 130 131 131 133 133 134 133 133 133 134 134 134 134 135 137 138 138 138 137 138 139 140 140 140 139 139 139 140 141 139 140 140 139 139 139 142 146 142 145 148 148 147 148 148 148 147 149 149 147 149 150 149 151 151 151 152 152 -193 -193 154 155 0 0 0 0 0
    0 0 0 0 0 0 0 0 0 0 0 0 0 0 0 0 0 0 0 0 0 0 0 0 0 0 0 0 0 0 0 0 0 0 0 0 0 0 0 0 0 0 0 0 0 0 0 0 0 0 0 0 0 0 0 0 0 0 0 0 0 0 0 0 0 0 0 0 0 68 68 68 68 68 64 69 69 67 71 71 72 75 75 77 77 80 82 82 80 81 80 80 81 80 79 79 80 81 80 80 80 78 80 -193 32 31 31 33 -193 -193 -193 -209 790 -209 84 86 87 86 86 85 -209 34 -209 -193 192 -193 195 -193 -193 89 88 90 90 92 92 92 93 96 97 96 93 90 92 95 95 94 -209 -193 -209 -209 -209 103 -209 98 93 95 92 92 93 94 95 96 96 97 99 101 102 101 102 103 103 104 103 104 104 105 105 104 104 104 105 106 106 107 107 108 110 111 111 111 110 111 112 115 114 112 112 114 114 114 111 110 111 113 111 111 112 113 114 116 116 115 113 118 118 116 116 116 116 116 116 117 117 117 117 118 118 118 121 122 122 127 125 126 127 125 125 126 125 126 123 126 129 126 129 131 129 132 132 131 131 130 131 132 131 131 132 134 134 135 135 135 135 135 135 136 135 136 137 138 138 138 138 138 138 139 138 139 139 138 138 140 141 140 140 140 139 138 139 142 145 142 145 148 148 147 148 148 147 146 149 149 147 149 150 149 150 151 151 151 150 151 151 153 153 0 0 0 0 0
    0 0 0 0 0 0 0 0 0 0 0 0 0 0 0 0 0 0 0 0 0 0 0 0 0 0 0 0 0 0 0 0 0 0 0 0 0 0 0 0 0 0 0 0 0 0 0 0 0 0 0 0 0 0 0 0 0 0 0 0 0 0 0 0 0 0 0 0 0 67 68 69 68 -193 65 69 69 67 72 71 72 75 75 77 77 81 83 82 80 81 80 80 81 80 79 79 80 81 80 80 80 78 80 -193 -193 -193 31 -193 -193 180 -193 -209 -209 -209 -193 -193 87 86 87 85 -209 -193 -209 194 192 -193 195 -193 -193 89 88 90 90 92 92 92 93 96 96 96 93 90 92 94 94 94 -209 -193 -209 -209 -209 103 -193 99 93 95 92 92 93 93 94 95 95 96 98 100 100 100 102 102 102 103 102 102 102 104 104 103 103 103 105 106 106 108 108 109 111 111 112 112 112 113 113 115 114 112 112 114 114 113 110 110 111 113 112 112 113 113 115 117 117 116 116 118 118 117 116 116 117 117 117 118 117 118 118 118 119 119 122 122 122 127 126 126 127 125 125 126 125 126 123 125 128 126 129 131 130 133 133 132 131 130 131 132 131 130 132 133 134 135 135 135 135 136 137 136 135 137 138 139 139 139 138 138 137 138 137 138 138 138 138 141 141 140 140 140 139 138 139 142 144 142 145 148 148 147 148 148 147 146 148 148 146 148 149 148 150 150 150 151 150 151 151 152 153 0 0 0 0 0
    0 0 0 0 0 0 0 0 0 0 0 0 0 0 0 0 0 0 0 0 0 0 0 0 0 0 0 0 0 0 0 0 0 0 0 0 0 0 0 0 0 0 0 0 0 0 0 0 0 0 0 0 0 0 0 0 0 0 0 0 0 0 0 0 0 0 0 0 0 66 67 68 68 -193 66 69 69 -193 72 71 72 75 75 76 -193 80 -193 81 80 81 80 80 81 80 79 79 80 81 80 80 80 77 79 81 -193 -193 -193 -193 -177 -177 -209 -209 -209 -193 84 85 86 85 -177 -177 -209 -209 -193 -177 192 193 195 -193 -193 89 88 90 90 92 93 91 93 96 96 95 93 90 92 94 93 93 -209 -193 -209 -209 -209 100 103 95 -193 93 92 92 92 93 94 96 96 96 98 100 99 100 102 102 102 103 101 101 100 103 101 99 101 101 104 107 107 109 109 111 112 112 112 112 112 112 112 114 113 112 113 114 113 113 111 110 111 113 112 112 113 114 116 118 117 116 116 118 117 117 117 117 117 117 118 119 118 119 119 120 121 121 123 123 122 127 126 126 126 125 125 126 125 126 123 125 128 127 129 131 130 132 133 131 131 130 131 131 131 129 131 132 134 135 136 136 136 137 138 137 137 137 138 139 139 139 137 138 138 138 137 137 -209 138 138 142 140 139 139 140 139 138 138 141 143 142 146 149 148 147 148 148 147 146 148 148 146 147 148 147 149 150 150 151 150 150 150 152 152 0 0 0 0 0
    0 0 0 0 0 0 0 0 0 0 0 0 0 0 0 0 0 0 0 0 0 0 0 0 0 0 0 0 0 0 0 0 0 0 0 0 0 0 0 0 0 0 0 0 0 0 0 0 0 0 0 0 0 0 0 0 0 0 0 0 0 0 0 0 0 0 0 0 0 66 67 68 68 -193 66 69 69 -193 72 71 71 75 74 76 -193 80 -193 81 80 81 80 80 82 80 79 79 80 81 80 79 80 77 79 80 -193 -193 -193 -193 -193 -177 -209 -209 -209 -193 -193 85 86 85 -177 -177 -209 -209 193 -177 192 193 194 -193 -193 89 88 90 90 92 93 91 93 96 96 95 92 89 91 92 92 91 -209 -193 -209 -209 93 97 99 95 91 93 93 93 94 96 96 97 96 96 97 99 98 98 100 100 100 101 100 100 100 102 101 100 102 104 106 108 109 112 111 113 114 113 112 112 111 111 110 112 112 111 113 113 113 112 110 109 111 112 113 112 114 114 117 118 117 116 117 118 117 117 116 117 117 118 118 119 119 120 121 121 122 122 124 125 123 127 127 126 126 125 125 126 125 126 123 125 128 127 128 131 130 132 132 131 131 129 130 130 130 128 130 131 133 134 135 135 136 138 139 139 138 138 139 139 139 139 137 138 138 138 137 136 138 138 138 143 140 139 139 139 139 138 138 142 142 143 147 149 149 148 149 148 147 146 148 147 145 146 148 147 149 150 150 151 150 150 150 152 152 0 0 0 0 0
    0 0 0 0 0 0 0 0 0 0 0 0 0 0 0 0 0 0 0 0 0 0 0 0 0 0 0 0 0 0 0 0 0 0 0 0 0 0 0 0 0 0 0 0 0 0 0 0 0 0 0 0 0 0 0 0 0 0 0 0 0 0 0 0 0 0 0 0 0 66 67 68 68 -193 67 69 -193 -193 71 -193 -193 74 73 75 75 78 81 81 80 80 80 79 82 80 79 79 81 81 80 80 80 77 80 80 -193 -193 -193 -193 -193 -209 -193 -209 -193 -209 -193 85 86 85 -177 85 -209 -209 193 -177 192 193 -193 -193 -193 89 88 90 90 92 93 90 93 96 95 95 92 89 90 91 91 91 91 89 95 95 96 98 100 99 98 97 97 96 97 97 96 96 96 95 96 99 97 97 100 100 100 101 100 101 101 104 104 104 105 106 107 108 109 111 111 114 115 113 112 111 111 111 109 111 111 110 114 113 114 111 109 109 111 112 113 112 114 115 117 118 117 117 118 118 117 117 116 117 118 118 118 120 119 121 121 122 122 123 125 125 123 127 127 126 126 125 125 126 125 126 124 124 128 127 128 131 129 132 132 130 130 128 130 129 129 127 129 129 131 131 134 133 135 138 139 140 139 140 140 141 140 140 138 138 138 137 137 136 138 138 139 143 140 139 139 140 139 138 139 142 142 144 148 149 149 148 148 148 146 146 147 146 145 146 147 146 149 149 150 151 150 150 150 151 152 0 0 0 0 0
    0 0 0 0 0 0 0 0 0 0 0 0 0 0 0 0 0 0 0 0 0 0 0 0 0 0 0 0 0 0 0 0 0 0 0 0 0 0 0 0 0 0 0 0 0 0 0 0 0 0 0 0 0 0 0 0 0 0 0 0 0 0 0 0 0 0 0 0 0 66 67 68 68 -193 68 70 -193 -193 71 71 71 74 73 74 74 76 80 79 79 80 79 79 81 80 79 79 81 81 80 80 81 78 80 80 81 -193 -193 -193 -193 -209 -193 -193 -193 -209 -193 85 86 86 -177 -193 -209 -209 193 -177 192 194 -193 -177 -177 -193 88 90 91 93 94 89 92 95 95 94 91 89 90 91 91 91 91 90 96 95 99 98 100 100 101 99 99 99 98 97 97 96 95 95 96 99 98 99 101 101 101 102 101 102 102 104 104 104 105 106 106 108 108 110 111 114 115 114 114 112 113 113 109 111 109 108 113 111 112 110 108 109 111 112 113 113 115 115 117 118 117 117 118 117 117 117 117 118 118 119 119 120 119 121 121 122 122 122 123 124 122 126 127 125 125 125 125 126 125 126 125 124 128 127 128 131 128 131 131 130 130 128 130 128 128 126 128 128 130 129 133 132 135 137 139 140 140 140 140 141 141 141 139 140 139 138 137 136 138 138 139 143 140 140 140 140 140 139 139 142 141 144 147 148 148 147 147 147 145 145 146 146 144 145 147 147 149 149 149 150 148 149 149 150 150 0 0 0 0 0
    0 0 0 0 0 0 0 0 0 0 0 0 0 0 0 0 0 0 0 0 0 0 0 0 0 0 0 0 0 0 0 0 0 0 0 0 0 0 0 0 0 0 0 0 0 0 0 0 0 0 0 0 0 0 0 0 0 0 0 0 0 0 0 0 0 0 0 0 0 66 66 68 68 -193 68 70 -193 -193 71 71 71 73 72 73 73 75 78 78 78 79 79 79 81 80 80 79 81 81 80 80 81 78 80 80 80 80 -193 32 32 -209 -193 -193 797 -209 -193 84 86 85 86 -193 -209 -209 -193 -193 192 -193 -193 32 35 -193 87 -177 90 92 93 87 92 95 95 94 91 88 89 89 89 89 88 88 92 92 95 96 99 100 101 100 100 101 100 99 99 98 97 96 97 99 99 100 101 101 102 103 102 103 102 104 104 104 105 106 107 108 110 112 112 115 115 114 114 113 113 112 108 109 107 107 110 111 112 110 109 111 113 113 114 114 116 116 117 118 117 117 119 117 117 117 117 118 119 119 119 121 120 121 122 122 122 123 124 124 122 125 128 125 125 126 125 127 125 126 125 124 128 127 127 130 127 130 131 129 130 128 129 128 128 126 128 128 130 130 132 132 134 136 138 138 139 140 140 141 141 141 140 141 140 139 139 138 141 140 140 144 141 140 141 141 141 139 140 143 141 144 147 147 147 146 146 146 144 144 145 144 144 146 147 148 149 148 149 149 148 149 148 149 149 0 0 0 0 0
    0 0 0 0 0 0 0 0 0 0 0 0 0 0 0 0 0 0 0 0 0 0 0 0 0 0 0 0 0 0 0 0 0 0 0 0 0 0 0 0 0 0 0 0 0 0 0 0 0 0 0 0 0 0 0 0 0 0 0 0 0 0 0 0 0 0 0 0 0 66 66 68 68 -193 68 70 69 -193 71 71 71 -193 72 72 -193 74 76 76 77 78 78 78 81 80 80 79 81 82 80 80 82 78 79 80 80 -193 31 32 -193 -209 -209 -193 798 -193 802 -193 85 85 -193 -193 -209 -209 -193 -193 -193 -193 33 32 35 -209 -177 -177 90 92 93 88 92 96 95 94 91 88 89 89 88 90 89 90 93 93 96 97 100 101 101 100 101 101 101 101 101 100 99 98 100 101 101 102 103 103 103 104 103 104 104 105 -193 105 105 106 107 109 110 112 113 115 115 114 114 113 113 113 108 109 107 108 109 110 111 110 109 112 113 112 113 114 115 116 117 117 117 117 119 117 117 117 117 119 119 119 120 121 121 122 123 123 123 123 124 125 122 125 128 125 125 126 126 127 126 127 126 124 128 127 126 128 126 128 130 128 129 127 128 127 127 126 129 128 130 129 132 132 133 135 137 137 138 139 139 141 141 142 141 141 141 140 140 140 141 141 141 144 141 141 141 141 142 141 142 143 142 145 147 147 147 145 145 145 143 144 145 143 144 146 148 149 149 149 149 150 149 149 149 150 149 0 0 0 0 0
    0 0 0 0 0 0 0 0 0 0 0 0 0 0 0 0 0 0 0 0 0 0 0 0 0 0 0 0 0 0 0 0 0 0 0 0 0 0 0 0 0 0 0 0 0 0 0 0 0 0 0 0 0 0 0 0 0 0 0 0 0 0 0 0 0 0 0 0 0 66 66 68 67 -193 68 70 69 68 71 71 71 -193 72 -193 -193 -193 -193 -193 77 77 77 78 81 80 80 79 81 82 80 80 82 78 -193 80 81 -193 -193 33 -209 827 827 -193 799 -193 803 -193 -193 -193 -209 -209 -193 34 33 -193 -193 145 33 32 -193 -177 -177 90 90 92 93 90 92 96 95 94 91 90 90 92 91 92 91 92 95 94 95 95 96 99 99 98 98 100 99 99 101 100 100 100 101 102 102 103 104 104 104 104 104 104 105 105 -193 106 106 108 108 110 111 114 114 116 115 114 115 114 115 115 110 110 108 108 109 110 111 110 109 113 113 113 113 114 115 116 116 116 116 116 118 117 116 116 117 119 119 119 120 121 121 123 123 123 123 123 124 124 122 124 129 125 125 127 126 127 126 127 127 124 129 127 126 127 125 126 128 127 128 126 127 126 127 126 128 128 129 129 131 131 132 133 135 135 137 138 138 140 140 141 140 141 140 140 140 141 142 141 142 144 141 141 142 142 142 142 143 144 142 146 148 147 147 146 146 146 145 146 146 145 147 148 149 150 150 150 150 150 150 150 149 150 150 0 0 0 0 0
    0 0 0 0 0 0 0 0 0 0 0 0 0 0 0 0 0 0 0 0 0 0 0 0 0 0 0 0 0 0 0 0 0 0 0 0 0 0 0 0 0 0 0 0 0 0 0 0 0 0 0 0 0 0 0 0 0 0 0 0 0 0 0 0 0 0 0 0 0 65 65 67 67 -193 68 70 69 68 71 71 71 -193 72 -209 -177 -193 -193 -193 -193 77 77 78 81 79 80 79 81 82 81 81 83 -193 -193 -193 -193 -209 -209 -193 825 826 826 -193 800 -193 804 -193 85 -193 -193 35 -209 34 34 -193 143 145 -193 -193 144 -177 90 91 91 93 93 91 92 97 96 95 92 92 92 95 94 95 92 93 95 95 95 95 95 97 96 96 97 98 99 99 101 101 101 101 103 103 103 104 105 105 104 105 105 106 106 107 107 107 107 110 110 111 111 114 114 116 116 115 115 115 115 116 110 110 108 108 109 111 110 109 109 113 114 113 114 114 114 117 116 116 115 116 118 116 116 116 116 118 119 119 120 121 122 123 123 123 123 124 124 124 122 124 129 125 125 127 127 128 127 128 128 124 130 128 126 127 125 126 128 127 128 125 127 126 127 126 128 127 129 128 130 130 132 133 135 136 137 138 139 140 141 141 141 142 141 141 142 142 143 143 143 144 141 141 142 142 142 142 143 143 142 146 148 147 148 147 147 147 147 149 149 149 151 151 151 152 153 153 152 152 151 150 150 151 151 0 0 0 0 0
    0 0 0 0 0 0 0 0 0 0 0 0 0 0 0 0 0 0 0 0 0 0 0 0 0 0 0 0 0 0 0 0 0 0 0 0 0 0 0 0 0 0 0 0 0 0 0 0 0 0 0 0 0 0 0 0 0 0 0 0 0 0 0 0 0 0 0 0 0 65 65 67 67 -193 -193 -193 69 68 71 71 71 72 72 -193 -177 -193 -193 -193 76 76 77 77 81 79 80 79 81 82 81 81 83 799 805 813 -193 -193 821 821 823 825 825 -193 801 -193 804 -209 85 -193 -177 -177 37 35 -177 143 143 145 145 -193 144 144 91 91 91 93 94 91 92 97 96 96 92 92 91 95 93 94 92 92 94 94 95 95 95 97 97 97 99 100 100 100 102 102 102 102 104 104 105 106 107 106 106 107 108 109 109 109 108 107 108 110 110 110 110 113 114 116 117 115 115 115 116 117 111 111 109 109 111 113 111 110 109 112 113 112 113 113 113 117 115 115 115 116 118 116 116 116 116 119 119 119 120 121 122 124 124 124 124 125 125 125 123 124 130 126 126 128 128 129 128 129 129 125 131 129 127 127 126 127 128 128 128 126 129 127 128 127 128 128 130 129 131 131 132 133 135 137 139 140 141 142 143 143 143 145 143 143 144 144 144 144 144 144 140 141 142 142 141 143 142 143 142 146 148 147 148 147 147 148 149 150 150 151 153 153 153 154 154 154 153 153 151 151 151 151 151 0 0 0 0 0
    0 0 0 0 0 0 0 0 0 0 0 0 0 0 0 0 0 0 0 0 0 0 0 0 0 0 0 0 0 0 0 0 0 0 0 0 0 0 0 0 0 0 0 0 0 0 0 0 0 0 0 0 0 0 0 0 0 0 0 0 0 0 0 0 0 0 0 0 0 65 65 67 66 -193 -193 -193 69 67 71 71 71 72 71 -193 -177 623 -193 -193 76 76 77 77 81 80 80 79 81 82 81 81 83 800 806 -193 -193 -193 821 -193 823 -193 -193 -193 802 -177 -193 -193 85 -193 -177 -177 -193 -177 -193 144 143 145 144 144 144 145 91 91 92 94 94 92 92 97 96 96 92 92 90 94 92 93 92 93 94 95 98 96 97 99 98 98 100 100 101 100 102 102 102 103 105 105 106 107 108 107 107 109 109 110 110 110 109 108 109 110 110 110 110 111 111 114 114 113 113 112 114 116 111 113 -193 112 113 115 111 110 109 111 111 111 112 112 112 117 115 115 115 116 118 116 116 117 117 119 119 119 120 121 122 123 123 123 124 125 125 125 123 124 130 126 126 128 128 129 128 129 129 125 132 129 127 128 127 127 129 129 129 127 130 127 129 128 129 129 130 130 131 131 132 133 136 138 139 140 141 143 145 145 144 146 143 143 143 144 143 143 144 143 140 141 143 143 142 144 143 143 142 147 148 147 148 148 147 149 150 151 151 152 154 154 154 155 155 155 154 154 152 152 152 151 152 0 0 0 0 0
    0 0 0 0 0 0 0 0 0 0 0 0 0 0 0 0 0 0 0 0 0 0 0 0 0 0 0 0 0 0 0 0 0 0 0 0 0 0 0 0 0 0 0 0 0 0 0 0 0 0 0 0 0 0 0 0 0 0 0 0 0 0 0 0 0 0 0 0 0 66 66 67 67 255 256 257 -193 67 71 71 71 71 71 -193 -177 -193 -193 -193 75 76 77 77 81 80 80 79 82 82 81 81 83 801 806 32 31 29 -193 33 -193 -193 -193 -193 -193 -177 -193 -193 85 -193 -177 -177 -209 -193 -193 144 143 145 144 145 144 145 91 92 92 94 94 92 92 97 96 95 92 93 90 94 93 93 92 93 94 94 96 96 96 99 98 98 98 99 99 98 101 100 101 102 104 105 106 107 109 108 108 110 111 112 112 111 110 109 110 111 110 110 109 109 109 110 111 110 111 110 112 114 111 -193 -193 114 115 117 113 111 111 113 112 111 113 113 112 117 115 114 115 117 119 117 117 117 117 119 119 120 121 122 123 124 124 123 124 125 125 125 123 124 130 126 126 128 128 129 129 128 129 125 132 129 127 128 127 127 129 129 129 127 130 128 130 128 130 130 131 130 131 132 133 133 135 136 138 140 141 144 145 145 144 145 143 143 143 144 143 143 144 143 140 141 143 143 142 145 143 143 143 148 148 148 148 148 148 150 151 152 152 153 154 154 154 155 155 155 154 154 152 152 152 151 151 0 0 0 0 0
    0 0 0 0 0 0 0 0 0 0 0 0 0 0 0 0 0 0 0 0 0 0 0 0 0 0 0 0 0 0 0 0 0 0 0 0 0 0 0 0 0 0 0 0 0 0 0 0 0 0 0 0 0 0 0 0 0 0 0 0 0 0 0 0 0 0 0 0 0 67 67 68 67 255 256 258 -193 67 71 71 71 71 72 72 -177 -193 -193 -193 76 77 77 78 81 80 80 80 82 82 81 81 83 801 806 33 32 30 31 35 -193 -209 -193 -193 -193 -177 -209 83 85 86 -209 -193 -193 -209 -209 143 143 145 144 145 145 145 91 92 92 94 93 92 92 97 96 95 92 93 90 94 93 93 91 93 93 93 94 94 93 96 96 97 95 96 97 96 100 99 100 101 102 104 106 107 109 108 109 110 110 112 113 111 111 109 110 111 111 110 110 109 109 109 110 109 109 108 110 111 110 112 112 114 114 117 114 114 114 116 113 112 114 114 113 117 115 114 114 117 119 117 117 117 118 119 119 120 121 122 123 124 124 123 125 126 126 125 124 124 131 126 126 128 128 128 129 128 129 125 131 129 127 127 128 127 130 130 130 127 130 130 131 130 130 130 131 131 132 133 133 133 135 136 138 139 140 144 145 144 144 145 143 142 143 144 143 143 143 143 141 141 143 143 142 145 143 142 143 148 148 149 149 149 148 151 152 153 153 153 154 154 155 156 156 156 155 154 153 152 152 151 151 0 0 0 0 0
    0 0 0 0 0 0 0 0 0 0 0 0 0 0 0 0 0 0 0 0 0 0 0 0 0 0 0 0 0 0 0 0 0 0 0 0 0 0 0 0 0 0 0 0 0 0 0 0 0 0 0 0 0 0 0 0 0 0 0 0 0 0 0 0 0 0 0 0 0 68 68 68 68 255 256 258 -193 66 71 -193 71 -193 -193 73 -193 -193 -193 -193 -193 78 78 78 82 80 80 80 82 82 81 81 -193 803 -193 -193 -193 -193 -193 -193 -193 -193 -193 -209 -209 -177 79 83 85 86 -193 338 -193 -193 -193 -193 -193 -193 -193 144 145 -193 91 92 92 94 93 92 92 96 96 96 92 94 90 94 94 93 92 93 92 92 91 92 91 93 94 94 92 94 97 97 101 101 101 103 103 105 106 107 109 109 109 110 110 111 112 110 109 108 110 111 110 111 110 109 109 110 110 109 109 108 109 111 111 114 113 115 115 118 115 114 114 115 112 112 114 113 112 117 115 114 114 118 118 117 117 118 117 119 119 119 120 122 123 123 123 122 125 126 127 126 125 125 131 127 127 128 128 128 128 127 129 125 131 129 127 127 128 127 130 130 130 128 130 130 131 131 130 130 131 130 132 133 133 133 135 136 138 140 141 144 146 144 144 145 143 142 142 144 142 143 143 143 141 141 143 144 142 145 143 142 143 148 149 150 149 149 149 151 153 153 153 153 154 155 156 157 157 158 156 156 154 154 154 -193 -193 0 0 0 0 0
    0 0 0 0 0 0 0 0 0 0 0 0 0 0 0 0 0 0 0 0 0 0 0 0 0 0 0 0 0 0 0 0 0 0 0 0 0 0 0 0 0 0 0 0 0 0 0 0 0 0 0 0 0 0 0 0 0 0 0 0 0 0 0 0 0 0 0 0 0 69 69 69 -193 255 -177 259 -193 64 71 -193 -193 -193 -193 -193 -193 -193 -193 77 -193 79 79 79 82 80 80 80 82 82 81 81 -193 805 -209 -209 -193 -209 -209 -209 -209 -209 -193 -193 -209 -193 80 83 84 86 -193 -193 -193 -193 -193 -193 -193 -193 -193 144 145 -193 91 93 92 94 93 92 92 96 95 95 91 94 90 94 95 94 93 94 93 94 92 93 92 93 93 92 91 92 95 98 101 102 103 105 106 107 108 109 110 109 109 110 109 110 111 109 108 106 108 108 108 109 108 108 109 110 110 109 108 108 109 111 113 115 113 115 115 117 116 114 114 114 112 111 113 113 112 116 115 114 114 118 118 117 117 118 117 118 118 119 120 121 122 123 122 122 125 126 126 125 126 124 130 127 126 127 128 127 128 127 128 125 131 130 128 128 129 128 131 130 130 128 130 131 132 132 131 131 132 131 133 133 134 133 136 137 139 141 142 145 146 144 143 145 143 142 142 144 143 143 143 143 141 142 144 145 143 146 144 143 145 149 150 150 150 150 150 152 154 154 154 155 155 157 157 158 157 159 158 157 155 154 155 153 162 0 0 0 0 0
    0 0 0 0 0 0 0 0 0 0 0 0 0 0 0 0 0 0 0 0 0 0 0 0 0 0 0 0 0 0 0 0 0 0 0 0 0 0 0 0 0 0 0 0 0 0 0 0 0 0 0 0 0 0 0 0 0 0 0 0 0 0 0 0 0 0 0 0 0 69 69 70 257 255 256 259 -193 62 71 70 70 74 74 74 75 77 78 78 79 80 79 79 82 81 80 80 82 82 80 81 -209 -193 -209 -209 -209 -209 -209 -209 -209 -209 -193 -193 -209 -193 80 83 84 87 88 -193 -193 -193 -193 -193 -193 -193 -193 144 145 -193 91 94 92 94 92 91 92 95 95 95 91 94 90 95 96 94 93 94 92 92 90 91 91 92 93 92 91 92 95 97 100 100 102 104 105 106 107 110 110 109 109 110 109 110 111 108 107 105 107 108 108 109 108 108 110 110 110 109 108 108 110 112 114 115 113 114 115 118 117 114 114 113 112 112 113 112 112 114 115 114 115 118 118 117 118 118 117 118 118 119 120 122 123 123 123 122 126 127 127 126 126 123 129 127 126 127 127 126 128 127 128 126 130 130 129 129 130 129 131 131 131 130 131 132 133 132 131 132 132 132 134 134 134 133 136 139 140 142 143 144 146 143 143 145 143 142 142 144 143 143 143 143 141 142 144 145 143 146 144 145 147 150 150 152 150 151 151 153 154 154 155 155 156 158 159 160 160 162 162 -193 -193 156 158 -209 169 0 0 0 0 0
    0 0 0 0 0 0 0 0 0 0 0 0 0 0 0 0 0 0 0 0 0 0 0 0 0 0 0 0 0 0 0 0 0 0 0 0 0 0 0 0 0 0 0 0 0 0 0 0 0 0 0 0 0 0 0 0 0 0 0 0 0 0 0 0 0 0 0 0 0 70 70 70 257 255 256 260 -193 63 71 70 70 74 75 74 75 78 78 78 79 81 79 79 81 81 80 80 83 -193 -193 -193 -209 -193 -209 -209 -209 -209 -209 -209 -209 -193 83 -193 -209 -193 81 83 84 87 88 -193 -193 -193 -193 142 141 -193 142 144 145 147 92 96 93 96 91 90 91 94 94 94 90 92 90 93 94 92 92 92 91 91 90 91 92 93 96 95 93 94 97 98 100 99 101 102 -193 105 106 109 110 109 109 110 109 109 110 108 106 105 107 108 108 109 109 108 110 110 111 110 108 109 110 112 114 116 113 112 114 117 117 113 114 112 112 111 113 112 112 113 115 114 115 118 118 118 118 119 117 118 118 119 120 122 123 122 122 122 125 126 126 125 125 123 128 127 125 126 127 126 127 126 128 126 129 130 129 129 130 130 132 132 132 131 132 133 134 133 132 132 133 133 134 135 136 135 138 142 144 145 146 147 147 145 144 146 144 143 143 144 142 143 143 142 141 142 144 145 142 146 143 145 147 150 150 151 150 151 151 152 153 153 154 155 157 159 162 163 164 165 -193 -193 -193 -209 -209 -193 172 0 0 0 0 0
    0 0 0 0 0 0 0 0 0 0 0 0 0 0 0 0 0 0 0 0 0 0 0 0 0 0 0 0 0 0 0 0 0 0 0 0 0 0 0 0 0 0 0 0 0 0 0 0 0 0 0 0 0 0 0 0 0 0 0 0 0 0 0 0 0 0 0 0 0 70 70 71 256 255 256 260 -193 63 71 70 70 74 75 75 75 77 78 78 79 81 80 79 81 81 81 81 -193 -193 33 34 32 29 -209 -209 -193 -193 -193 -209 -193 -193 83 83 79 81 81 82 83 87 88 -193 -177 -193 -193 142 141 142 141 143 144 146 -209 -193 96 99 90 89 91 93 93 93 89 91 89 92 93 91 91 91 90 90 90 91 91 93 97 95 93 94 97 98 100 99 101 101 -193 103 -193 107 108 107 108 109 108 108 110 108 106 105 107 109 108 110 109 108 110 111 111 110 109 109 110 113 116 118 114 112 112 115 118 113 114 112 111 111 112 112 113 111 115 114 115 117 118 118 119 119 117 118 118 119 120 122 123 122 122 123 125 125 125 125 125 122 127 127 125 125 127 126 127 126 128 126 127 130 129 128 130 131 133 133 133 131 132 133 134 133 132 133 133 133 135 135 136 136 139 141 144 145 146 148 147 143 143 144 143 140 141 143 141 142 142 142 140 142 145 146 143 147 144 146 148 151 151 152 150 150 150 151 152 152 152 154 -193 -193 164 -193 166 -209 -209 -193 -193 -209 -209 173 175 0 0 0 0 0
    0 0 0 0 0 0 0 0 0 0 0 0 0 0 0 0 0 0 0 0 0 0 0 0 0 0 0 0 0 0 0 0 0 0 0 0 0 0 0 0 0 0 0 0 0 0 0 0 0 0 0 0 0 0 0 0 0 0 0 0 0 0 0 0 0 0 0 0 0 70 71 -193 256 -177 256 260 71 63 71 70 70 73 75 74 75 77 78 78 79 81 80 79 81 81 81 82 -193 34 33 34 31 29 -193 -209 -193 -193 -193 -193 133 83 83 84 79 81 81 82 82 87 88 -193 -193 -193 -209 142 -193 -193 -193 142 143 144 -209 117 99 101 86 88 91 92 92 93 89 90 89 92 94 92 92 92 91 92 91 92 91 92 94 93 92 93 95 95 98 98 100 100 101 103 104 107 107 106 106 107 105 106 107 106 103 104 106 109 108 111 109 109 110 110 110 111 109 110 110 111 114 116 114 110 109 111 118 112 113 113 111 111 112 113 113 111 115 114 115 117 118 119 119 119 117 118 118 119 120 122 123 122 122 123 125 125 124 124 124 122 126 127 125 125 126 126 127 126 127 126 126 129 128 128 128 130 132 131 132 129 130 132 132 132 132 133 133 133 135 136 136 135 137 138 140 141 -193 -209 142 137 137 137 139 134 137 139 139 139 140 141 140 142 145 148 145 149 146 148 149 152 151 152 150 150 150 151 152 151 151 -193 -209 -209 -193 -209 169 172 -209 -209 -209 -209 -209 -209 178 0 0 0 0 0
    0 0 0 0 0 0 0 0 0 0 0 0 0 0 0 0 0 0 0 0 0 0 0 0 0 0 0 0 0 0 0 0 0 0 0 0 0 0 0 0 0 0 0 0 0 0 0 0 0 0 0 0 0 0 0 0 0 0 0 0 0 0 0 0 0 0 0 0 0 70 71 -193 256 256 256 260 72 64 71 71 69 73 75 75 75 76 78 78 79 81 79 79 80 81 81 82 35 35 34 35 32 30 31 -209 992 -193 -193 -193 -177 83 83 84 79 80 80 82 82 87 88 -193 -193 335 -209 -193 -193 -193 -193 -193 -193 -209 -193 -193 -193 -193 84 87 91 92 92 93 89 91 89 93 95 94 93 93 92 92 91 91 91 91 93 92 91 92 95 96 98 98 100 100 101 103 104 107 106 106 106 106 105 105 106 105 103 103 105 108 107 110 109 108 110 110 111 111 110 110 110 111 113 115 113 110 109 109 118 113 113 114 112 112 113 113 114 111 115 115 115 117 118 119 119 119 117 118 118 119 120 122 122 122 122 122 124 124 123 124 124 122 125 127 125 125 126 126 127 126 127 126 125 129 128 128 126 128 129 129 130 127 128 130 129 132 131 133 133 133 137 136 137 135 136 135 -193 -209 -209 -209 -209 128 130 -193 -209 130 134 135 137 137 139 140 140 140 144 147 146 -193 147 150 150 153 152 153 150 151 151 152 152 151 152 -193 -177 -209 -193 -193 174 175 176 -209 -209 -209 -209 -209 -209 0 0 0 0 0
    0 0 0 0 0 0 0 0 0 0 0 0 0 0 0 0 0 0 0 0 0 0 0 0 0 0 0 0 0 0 0 0 0 0 0 0 0 0 0 0 0 0 0 0 0 0 0 0 0 0 0 0 0 0 0 0 0 0 0 0 0 0 0 0 0 0 0 0 0 70 70 -193 256 256 256 260 72 66 71 -193 70 72 75 75 75 76 77 77 79 80 79 79 80 81 81 82 35 35 35 35 31 29 31 -209 -193 -193 -193 -193 -177 83 83 83 79 80 80 82 82 88 88 -193 -193 -177 -209 -193 -193 142 -193 -193 -193 -209 -193 -193 -209 -193 -209 88 92 92 93 93 88 90 89 94 97 95 93 93 92 92 91 91 91 91 94 93 92 93 96 98 100 100 101 101 102 104 105 107 107 107 106 107 106 106 106 105 103 102 104 107 106 109 108 108 110 110 111 111 110 110 110 111 113 115 114 111 109 109 118 114 114 115 112 112 113 114 114 111 114 115 114 116 118 119 119 119 118 118 118 119 120 121 122 121 121 122 124 123 123 124 124 122 125 128 125 125 126 127 127 126 127 127 125 128 128 128 125 126 127 126 128 126 127 128 126 132 130 132 133 133 137 137 137 137 135 135 -209 -209 -193 -193 -193 -193 -193 -209 -209 -209 128 128 131 129 133 134 137 -193 145 148 -193 -209 146 150 153 155 -193 153 149 150 150 151 150 149 -209 -209 -193 -209 -193 -193 178 178 -209 -209 -209 -209 -209 -209 -193 0 0 0 0 0
    0 0 0 0 0 0 0 0 0 0 0 0 0 0 0 0 0 0 0 0 0 0 0 0 0 0 0 0 0 0 0 0 0 0 0 0 0 0 0 0 0 0 0 0 0 0 0 0 0 0 0 0 0 0 0 0 0 0 0 0 0 0 0 0 0 0 0 0 0 70 70 258 255 255 256 260 73 67 72 -193 70 71 74 75 75 76 77 77 79 80 79 79 80 81 82 82 -193 -193 35 35 31 30 31 -193 -209 -209 -209 -193 -177 82 82 83 79 80 80 82 82 87 87 -193 -193 -177 -193 144 -193 143 141 -193 -193 20 -193 116 113 110 109 89 93 92 93 93 88 89 88 92 95 94 93 92 92 93 92 93 92 92 94 93 93 94 96 97 99 100 101 101 102 103 105 107 107 107 106 107 106 106 106 105 103 101 104 107 106 109 108 109 110 110 111 111 110 110 110 112 112 116 114 112 110 110 117 114 113 114 112 112 113 114 114 111 114 115 114 115 117 119 119 120 118 118 119 119 120 121 121 120 121 122 123 123 122 124 124 123 124 129 125 125 127 127 127 126 127 127 124 128 128 127 124 124 125 124 126 125 125 126 124 131 129 133 134 134 138 138 136 137 133 134 -193 -209 -193 -209 -209 -193 -209 -209 -209 -209 -209 123 123 -209 -193 -209 -209 -209 -209 -209 -209 -209 -209 -209 -209 -209 -209 -209 -209 -209 -193 -209 -209 -209 -209 -209 -209 -209 -209 -209 -209 -209 -209 -209 -209 -209 -209 -209 -209 0 0 0 0 0
    0 0 0 0 0 0 0 0 0 0 0 0 0 0 0 0 0 0 0 0 0 0 0 0 0 0 0 0 0 0 0 0 0 0 0 0 0 0 0 0 0 0 0 0 0 0 0 0 0 0 0 0 0 0 0 0 0 0 0 0 0 0 0 0 0 0 0 0 0 69 70 258 255 255 255 260 73 69 72 72 70 71 74 74 74 -193 77 77 79 80 79 79 80 81 82 83 -193 -193 34 34 31 31 31 31 -209 -209 -209 -209 -177 81 81 82 79 79 80 82 82 87 87 -193 -209 -209 -193 144 142 143 142 143 -193 19 -193 116 114 112 111 90 95 92 93 93 87 88 86 92 95 94 93 92 93 93 93 94 94 93 94 94 94 94 96 96 98 99 100 100 102 103 105 106 108 107 106 106 106 106 106 105 105 104 106 109 107 110 108 109 110 109 111 111 109 109 109 111 111 114 113 112 110 110 116 115 114 115 113 113 113 115 115 112 114 116 115 115 117 119 120 120 118 118 119 119 120 120 121 120 121 122 124 123 123 125 125 124 124 130 126 125 127 128 128 127 127 128 124 128 128 128 124 123 124 123 124 124 125 125 122 131 130 134 136 137 141 141 -209 139 133 -193 -209 -193 -209 -209 -209 -209 -209 -209 -209 -209 -209 -209 -209 -209 -209 -209 -209 -209 -209 -209 -193 -209 -209 -209 -209 223 -209 -209 -209 -209 76 81 -193 -193 -209 -209 -209 -209 -209 -209 -209 -209 -209 -209 -209 -209 -209 -209 -209 0 0 0 0 0
    0 0 0 0 0 0 0 0 0 0 0 0 0 0 0 0 0 0 0 0 0 0 0 0 0 0 0 0 0 0 0 0 0 0 0 0 0 0 0 0 0 0 0 0 0 0 0 0 0 0 0 0 0 0 0 0 0 0 0 0 0 0 0 0 0 0 0 0 0 69 70 258 255 255 255 259 73 69 72 72 70 71 73 74 73 -193 76 76 79 80 79 80 80 81 83 83 690 -193 34 34 32 32 32 31 -193 -193 -209 -209 -193 -177 81 81 79 79 81 82 82 87 87 -209 -193 -193 287 145 143 143 142 143 -193 -193 -209 116 114 112 112 95 99 92 94 94 87 88 86 92 97 96 94 92 93 93 93 93 93 93 94 93 94 93 95 94 97 99 100 99 101 102 -193 105 106 105 104 105 105 105 106 105 105 105 107 110 110 111 110 109 110 109 110 110 109 109 110 111 112 115 114 113 110 110 116 115 114 115 113 113 113 115 115 113 114 116 115 116 117 119 119 119 118 118 119 119 120 121 121 119 121 123 125 123 123 126 127 125 125 131 127 126 128 128 128 127 127 128 124 128 128 129 124 123 124 124 124 124 125 125 122 125 126 130 -193 -193 143 -209 -209 138 134 -209 -209 -193 -209 -209 -209 -209 -209 -209 -209 -209 -209 -209 -209 -209 -209 -209 -209 -193 -177 -193 -193 -209 -209 -193 222 227 -193 -193 -209 -209 75 -193 -209 -209 -209 -209 -209 -209 -209 -209 -209 -209 -209 -209 -209 -193 22 23 21 0 0 0 0 0
    0 0 0 0 0 0 0 0 0 0 0 0 0 0 0 0 0 0 0 0 0 0 0 0 0 0 0 0 0 0 0 0 0 0 0 0 0 0 0 0 0 0 0 0 0 0 0 0 0 0 0 0 0 0 0 0 0 0 0 0 0 0 0 0 0 0 0 0 0 69 70 -177 255 254 254 -193 74 70 73 -193 70 70 73 73 -193 -193 76 76 79 80 79 80 79 81 83 -193 691 690 -193 35 33 32 32 31 -193 -193 -209 -193 78 79 80 80 79 79 81 82 82 87 87 -209 -193 -193 286 145 143 143 142 142 -193 -209 -209 -193 -193 113 113 105 105 92 95 94 87 88 86 92 98 98 96 93 94 94 94 94 94 95 95 95 96 95 96 95 99 101 101 99 101 102 -193 104 106 105 104 105 104 104 105 105 105 105 107 109 109 110 109 109 108 108 109 109 108 109 109 110 111 115 115 115 111 111 115 115 114 115 113 113 113 115 115 113 112 115 114 115 117 119 119 119 119 119 119 120 121 121 121 120 122 123 125 124 124 126 128 127 127 132 127 127 128 129 129 127 127 128 124 128 128 129 124 123 124 124 124 124 124 124 121 123 123 126 -209 -209 -209 -209 -209 140 -209 -209 -209 -193 -209 -209 -209 -209 -209 -209 -209 -209 -209 -209 -209 -209 -209 -209 -209 -193 -177 -177 -177 -209 -209 222 223 227 230 231 -209 -209 -209 -193 -193 -193 -209 -193 -209 -209 -209 -209 -209 -209 -209 -209 -209 21 20 21 19 0 0 0 0 0
    0 0 0 0 0 0 0 0 0 0 0 0 0 0 0 0 0 0 0 0 0 0 0 0 0 0 0 0 0 0 0 0 0 0 0 0 0 0 0 0 0 0 0 0 0 0 0 0 0 0 0 0 0 0 0 0 0 0 0 0 0 0 0 0 0 0 0 0 0 69 71 259 -193 254 -193 -193 74 70 73 73 70 70 73 73 -193 613 76 75 78 79 79 80 79 81 82 -193 691 691 -193 35 34 34 33 -193 -193 -193 -193 -193 77 78 79 79 79 80 81 83 82 87 87 -193 -193 -193 -177 145 143 143 142 142 -193 -193 -193 -193 -193 -193 114 106 105 92 97 97 87 88 85 92 99 100 99 94 96 97 96 96 96 97 98 100 100 99 100 100 102 104 103 102 101 102 104 103 105 105 103 104 104 103 104 104 105 105 106 108 108 110 109 108 107 107 107 107 107 107 108 109 110 114 114 115 111 111 115 115 114 115 113 113 112 115 115 113 112 115 114 116 116 118 119 119 119 119 119 120 121 121 121 121 123 124 126 125 125 128 129 129 128 132 128 127 128 130 129 128 128 128 124 128 128 130 124 123 124 124 124 124 124 123 120 121 121 124 -209 -209 -209 -209 -209 -193 -209 -209 -193 -193 179 179 -193 179 176 -193 -193 -209 -209 -209 -209 -209 -209 -209 -209 -209 -177 -177 -177 -193 -209 -193 223 228 230 232 -209 238 -209 -209 -193 -209 -209 -209 -193 -209 -209 -209 -209 -209 -209 -209 -209 -193 17 20 -193 0 0 0 0 0
    0 0 0 0 0 0 0 0 0 0 0 0 0 0 0 0 0 0 0 0 0 0 0 0 0 0 0 0 0 0 0 0 0 0 0 0 0 0 0 0 0 0 0 0 0 0 0 0 0 0 0 0 0 0 0 0 0 0 0 0 0 0 0 0 0 0 0 0 0 69 71 -177 -193 -193 -193 -193 -193 71 73 73 71 71 73 73 -193 613 76 75 78 78 78 80 79 80 81 -193 691 691 -193 -193 -193 -193 -193 -193 -209 -209 77 78 77 78 79 79 79 80 81 83 83 87 87 -193 -193 -209 -177 144 142 143 142 142 -209 -193 -177 -177 -193 -193 113 106 105 92 100 101 87 88 86 93 101 101 101 98 98 99 100 99 99 100 100 102 102 102 102 102 104 106 104 103 102 103 104 104 104 105 102 103 103 103 103 103 104 105 106 107 108 109 108 108 107 106 106 106 107 107 108 108 109 113 113 115 111 112 115 115 114 116 113 114 112 116 115 114 112 116 114 116 116 118 119 119 119 119 119 120 121 121 121 121 123 125 126 126 126 129 130 130 129 133 129 128 129 130 130 128 128 128 124 128 128 130 124 123 123 123 123 123 123 123 118 121 120 124 -209 -209 -209 -209 -209 -209 -209 -209 -209 173 -193 -209 -209 175 174 -209 -193 -209 -209 -209 -209 -209 -209 -209 -209 -209 -177 -177 -177 -193 -209 -193 223 227 230 232 -193 238 -209 -193 130 133 -209 -209 -193 -193 -209 -209 -209 -209 -209 -209 -209 14 16 20 -193 0 0 0 0 0
    0 0 0 0 0 0 0 0 0 0 0 0 0 0 0 0 0 0 0 0 0 0 0 0 0 0 0 0 0 0 0 0 0 0 0 0 0 0 0 0 0 0 0 0 0 0 0 0 0 0 0 0 0 0 0 0 0 0 0 0 0 0 0 0 0 0 0 0 0 70 71 260 74 -193 -193 -193 -193 -193 74 73 71 71 73 74 -193 613 75 75 78 78 78 80 79 80 81 81 692 691 -193 -193 -193 -193 -193 -209 -209 -193 77 78 77 77 79 79 80 80 82 83 83 87 87 -193 -177 -209 -193 144 142 -177 142 -193 -209 -209 -177 242 241 -193 111 -193 105 93 102 102 87 88 86 93 101 102 102 100 100 102 102 101 101 103 103 104 103 103 103 103 104 105 104 103 102 103 104 104 104 104 102 103 103 103 104 104 105 106 107 108 109 109 109 109 107 107 107 107 107 108 109 109 109 113 113 115 112 112 115 116 115 116 114 114 113 116 116 114 112 116 114 116 116 118 119 119 119 119 119 120 121 121 121 121 123 125 126 126 126 129 130 129 130 133 129 129 129 131 130 128 128 128 124 128 128 130 124 122 122 122 122 122 122 122 118 121 120 123 -209 -209 -209 -209 -209 147 -193 -209 -209 173 178 -209 -209 175 -193 -209 -209 -209 -209 -209 -209 -209 -209 -209 -209 -209 -177 -177 -177 -193 -193 -193 223 227 229 232 -209 -193 -209 -193 128 -193 -193 -193 -193 -193 -209 -209 -209 -209 -209 -209 -209 16 -193 21 -193 0 0 0 0 0
    0 0 0 0 0 0 0 0 0 0 0 0 0 0 0 0 0 0 0 0 0 0 0 0 0 0 0 0 0 0 0 0 0 0 0 0 0 0 0 0 0 0 0 0 0 0 0 0 0 0 0 0 0 0 0 0 0 0 0 0 0 0 0 0 0 0 0 0 0 70 71 260 75 -193 -193 -193 -193 -193 74 74 71 72 74 74 74 -193 76 75 78 78 79 81 79 80 81 80 692 -193 -193 -193 -193 -193 -209 -209 -209 77 77 78 77 77 79 79 80 80 83 84 83 87 87 -193 87 -209 -209 143 -177 -193 -193 -209 -209 -209 -177 241 241 241 -193 -193 105 92 102 102 87 87 86 92 101 101 102 100 101 102 102 101 102 103 103 104 103 102 103 102 104 105 104 103 102 103 104 103 103 103 101 102 103 103 104 105 106 107 110 112 112 111 111 111 109 109 109 109 108 108 110 109 110 113 112 115 111 112 114 115 114 115 114 114 113 117 116 114 112 117 115 116 117 118 119 119 119 119 119 119 120 120 121 120 123 125 126 126 127 129 130 129 129 133 130 129 129 131 130 129 129 129 125 127 128 130 124 122 122 122 122 122 122 122 117 121 121 124 124 -209 -209 149 -209 150 -193 -209 -209 173 177 -209 -209 175 -193 -209 -209 -209 -209 -209 -209 -209 -209 -209 -209 -209 -209 128 133 138 -193 -193 -193 -193 -193 -209 -209 -209 -209 -193 -193 -193 -209 -209 -193 -193 -209 -209 -209 -209 -209 -209 -209 -209 -193 -209 -209 0 0 0 0 0
    0 0 0 0 0 0 0 0 0 0 0 0 0 0 0 0 0 0 0 0 0 0 0 0 0 0 0 0 0 0 0 0 0 0 0 0 0 0 0 0 0 0 0 0 0 0 0 0 0 0 0 0 0 0 0 0 0 0 0 0 0 0 0 0 0 0 0 0 0 71 -193 -193 75 -193 -193 -193 74 -193 75 74 72 72 74 75 75 -193 76 75 79 79 80 82 80 80 80 79 -193 -209 -193 36 -193 -209 -193 75 -209 77 77 77 77 77 80 80 81 81 83 84 84 87 87 -193 87 87 -209 142 -177 -193 -209 -193 -193 -193 -193 240 240 241 237 -193 98 91 100 99 88 87 87 92 101 101 101 100 100 102 102 101 101 102 103 103 103 103 103 102 104 104 104 102 101 102 103 102 102 101 100 100 102 103 105 105 107 109 112 114 115 114 114 114 111 111 110 110 108 109 110 110 110 113 112 115 111 112 114 115 114 115 114 114 112 117 116 114 113 117 115 116 117 118 118 118 118 118 118 119 120 120 120 119 123 125 126 127 128 130 131 129 130 132 130 129 129 131 130 129 129 129 125 127 128 130 124 122 121 121 122 122 122 121 116 121 121 124 -209 -209 -209 -193 -209 -209 158 -209 -209 -209 -209 -209 -209 -193 -209 -209 -209 -209 -209 -209 -209 -209 -209 -209 -209 -209 -193 130 134 138 -209 -193 -193 -193 -209 -209 -209 -209 -209 -193 -193 -193 -209 -209 -209 -209 -209 -209 -209 -209 -209 -209 -209 -209 -209 -209 263 0 0 0 0 0
    0 0 0 0 0 0 0 0 0 0 0 0 0 0 0 0 0 0 0 0 0 0 0 0 0 0 0 0 0 0 0 0 0 0 0 0 0 0 0 0 0 0 0 0 0 0 0 0 0 0 0 0 0 0 0 0 0 0 0 0 0 0 0 0 0 0 0 0 0 71 -193 -193 75 -193 -193 -193 74 72 75 74 72 73 74 75 76 76 76 75 78 78 80 82 80 80 80 78 80 -209 -193 -193 -193 76 75 75 79 78 78 78 77 77 81 81 82 82 84 84 84 87 87 87 87 87 -209 -193 -209 -193 -209 -209 -193 -193 -193 -193 240 -193 237 -193 94 91 98 98 90 88 89 93 102 102 102 101 101 102 102 101 102 103 103 104 103 103 103 103 104 104 104 103 101 102 103 102 101 101 100 101 102 104 105 106 107 109 111 113 114 114 114 115 112 112 111 111 110 110 111 110 111 113 112 115 111 112 114 114 114 114 114 114 112 117 116 114 114 117 115 116 117 118 118 118 118 118 118 119 120 120 121 121 124 126 127 128 129 131 131 129 129 132 130 129 128 130 129 129 129 129 126 126 128 130 124 122 120 121 121 121 121 121 115 120 121 125 128 -209 -209 -209 -209 -209 -209 -209 -193 -209 -209 -193 -209 -209 -193 -193 81 -209 -209 -209 -209 -209 -209 -209 -209 -209 -209 -209 138 141 -209 -209 -193 -193 -193 -209 -209 -209 -209 -209 -193 128 130 131 -209 -209 -209 -209 171 -209 -193 -193 -209 -209 -209 -209 262 0 0 0 0 0
    0 0 0 0 0 0 0 0 0 0 0 0 0 0 0 0 0 0 0 0 0 0 0 0 0 0 0 0 0 0 0 0 0 0 0 0 0 0 0 0 0 0 0 0 0 0 0 0 0 0 0 0 0 0 0 0 0 0 0 0 0 0 0 0 0 0 0 0 0 71 -193 -193 75 -193 -193 -193 73 72 74 74 72 73 75 76 76 76 76 76 78 78 80 82 80 80 79 78 79 -193 80 77 76 75 75 75 80 78 79 78 78 78 83 83 83 83 84 85 84 87 87 86 86 87 -193 -209 -209 -193 -209 -209 -209 -209 -193 -193 -193 -193 238 94 93 92 98 98 93 89 91 94 102 103 103 103 103 -193 -193 -193 104 105 105 106 104 104 104 104 105 105 104 103 101 102 103 103 101 101 101 102 104 105 106 106 107 109 111 112 114 114 115 115 113 113 112 111 111 111 112 111 111 113 113 115 112 113 115 114 113 114 114 114 112 117 116 113 115 118 116 117 118 119 118 118 118 118 119 119 121 121 121 121 125 128 127 128 129 131 131 129 128 131 130 128 128 130 129 129 128 129 127 126 128 130 124 122 120 120 121 121 121 121 115 120 121 125 126 -209 -209 -209 -209 -209 -209 -209 115 -193 -209 -209 -209 -209 -209 -209 -209 -209 -209 -209 -209 -209 -209 -209 -209 -209 -209 -209 -209 150 -209 -209 -209 -209 -209 -209 -209 -209 -209 -209 -193 127 129 129 -193 -209 -193 227 -209 -193 171 -193 -209 -209 -209 -209 263 0 0 0 0 0
    0 0 0 0 0 0 0 0 0 0 0 0 0 0 0 0 0 0 0 0 0 0 0 0 0 0 0 0 0 0 0 0 0 0 0 0 0 0 0 0 0 0 0 0 0 0 0 0 0 0 0 0 0 0 0 0 0 0 0 0 0 0 0 0 0 0 0 0 0 71 -193 260 75 -193 -193 -193 72 72 74 74 72 73 75 76 77 76 76 75 77 77 80 82 80 80 79 78 79 78 79 77 -193 75 74 75 80 78 79 79 79 78 83 84 84 83 85 85 84 86 87 85 85 86 -193 -193 -209 -209 -209 -209 -209 -209 89 90 -193 -193 238 93 93 92 97 97 95 90 93 94 102 102 102 103 103 -193 -193 -193 103 -193 105 107 104 104 104 104 105 105 104 104 101 102 103 103 102 102 103 104 106 107 108 108 108 110 111 111 112 111 112 114 112 113 112 111 111 112 112 112 111 113 113 115 112 114 115 114 114 114 114 114 112 117 116 113 116 118 116 116 118 119 118 118 118 118 119 119 120 120 121 121 124 127 126 128 128 130 130 128 127 130 130 128 127 130 129 129 128 129 127 126 129 130 124 122 119 119 120 120 120 120 115 119 120 124 124 -193 116 -209 -193 -209 -209 117 116 117 117 -193 -193 -209 -209 -209 -209 -209 -209 -209 -209 -209 -209 -209 -209 162 -209 -209 -193 153 -209 -209 -209 -209 -209 -209 262 -209 -209 -209 -209 -193 129 129 -209 -209 -193 -193 172 171 172 173 -193 172 -209 -193 -177 0 0 0 0 0
    0 0 0 0 0 0 0 0 0 0 0 0 0 0 0 0 0 0 0 0 0 0 0 0 0 0 0 0 0 0 0 0 0 0 0 0 0 0 0 0 0 0 0 0 0 0 0 0 0 0 0 0 0 0 0 0 0 0 0 0 0 0 0 0 0 0 0 0 0 71 -193 260 75 -193 -193 -193 72 72 74 74 72 74 75 76 77 77 75 75 76 76 79 81 80 79 78 78 78 78 79 77 -193 75 -193 75 81 78 80 -193 -193 -193 85 84 85 84 85 85 84 86 86 84 84 86 -193 -193 -193 -209 -193 -209 -209 -209 88 89 88 90 -193 92 92 92 96 97 96 91 94 93 102 102 102 103 102 103 103 103 104 -193 106 108 105 104 105 105 105 105 104 103 101 102 103 103 101 102 103 104 106 107 108 108 108 110 112 112 112 112 113 114 111 113 111 111 111 112 111 111 111 113 113 115 112 114 115 114 114 115 115 114 113 117 116 113 117 118 116 116 118 119 117 117 117 118 118 119 120 120 120 121 122 124 123 126 126 127 127 126 126 128 130 127 127 129 128 129 128 129 128 125 129 130 125 122 119 119 120 120 120 120 116 119 120 123 123 119 117 -193 119 -193 120 118 117 118 118 117 114 -209 -209 -209 -209 -209 -209 -209 -209 -209 -209 -209 -209 -209 -209 -209 -209 148 -209 -209 -209 -209 -209 -209 -209 -209 -209 -209 -209 -209 -193 -193 -209 -209 -209 -209 171 171 173 -193 -193 172 -209 -177 263 0 0 0 0 0
    0 0 0 0 0 0 0 0 0 0 0 0 0 0 0 0 0 0 0 0 0 0 0 0 0 0 0 0 0 0 0 0 0 0 0 0 0 0 0 0 0 0 0 0 0 0 0 0 0 0 0 0 0 0 0 0 0 0 0 0 0 0 0 0 0 0 0 0 0 71 -193 260 74 -193 72 72 72 72 75 75 73 74 75 77 77 77 75 75 76 76 79 80 80 79 78 77 78 78 79 77 -193 74 -209 75 83 79 82 836 836 838 86 85 85 84 86 85 84 86 86 83 84 86 86 90 87 -193 -193 -193 -209 -209 87 87 87 89 -193 91 91 92 96 96 96 92 96 94 101 101 101 102 102 102 101 101 102 103 103 105 102 102 102 103 103 103 103 102 101 102 102 102 100 101 101 102 105 106 107 107 -193 110 113 113 113 112 113 114 111 113 112 111 111 112 111 112 111 113 114 115 113 114 115 114 114 115 116 115 114 117 116 114 119 118 117 117 118 119 117 117 117 118 119 119 120 120 120 121 122 122 122 123 124 124 124 124 124 125 130 126 126 128 128 129 128 129 128 125 129 129 126 122 119 119 120 120 120 120 118 119 120 122 122 118 117 117 118 118 120 118 118 118 118 117 115 120 -209 -209 -209 -209 -209 -209 -209 -209 -209 -209 -209 -209 -209 -209 -209 -209 -209 -209 -209 -209 -209 -209 -209 -209 -209 -209 -209 -209 -193 -209 -209 -209 -209 -209 -193 -209 -193 -193 -193 172 -209 263 263 0 0 0 0 0
    0 0 0 0 0 0 0 0 0 0 0 0 0 0 0 0 0 0 0 0 0 0 0 0 0 0 0 0 0 0 0 0 0 0 0 0 0 0 0 0 0 0 0 0 0 0 0 0 0 0 0 0 0 0 0 0 0 0 0 0 0 0 0 0 0 0 0 0 0 70 -193 259 74 -193 71 -193 72 72 74 74 -193 74 75 77 77 77 75 75 76 76 78 80 79 79 78 77 77 77 78 77 -193 -193 -209 75 83 80 -193 836 836 838 86 -193 86 84 86 84 84 86 86 83 84 86 86 89 87 87 -193 949 -209 -209 85 -193 -193 89 90 91 91 92 96 96 96 93 97 94 101 100 100 101 100 100 98 99 99 100 100 102 99 99 100 101 101 102 101 101 100 102 102 102 99 100 101 102 -193 -209 -193 -193 -193 110 113 112 113 112 113 114 111 113 112 111 112 112 111 112 111 112 114 114 112 114 115 114 114 114 116 114 115 118 116 115 120 119 118 117 118 119 117 117 118 119 120 120 120 121 120 121 121 122 121 122 122 122 121 122 122 123 130 125 125 127 128 129 128 129 128 125 128 129 127 123 120 120 121 121 121 121 120 119 121 122 120 116 116 116 117 118 120 117 118 -209 -209 -193 115 -209 -209 -209 -209 -209 -209 -209 -209 -209 -209 -209 -209 -209 -209 -209 -209 -209 -209 -209 -209 -209 -209 -209 -209 -209 -209 -209 -209 -209 -209 -209 -209 -209 219 -209 -209 -209 -209 -209 -209 -209 -209 263 263 0 0 0 0 0
    0 0 0 0 0 0 0 0 0 0 0 0 0 0 0 0 0 0 0 0 0 0 0 0 0 0 0 0 0 0 0 0 0 0 0 0 0 0 0 0 0 0 0 0 0 0 0 0 0 0 0 0 0 0 0 0 0 0 0 0 0 0 0 0 0 0 0 0 0 70 -193 259 74 -193 71 -193 71 71 74 74 72 73 75 76 77 76 75 75 76 76 78 80 79 78 77 76 77 77 77 76 -193 -193 632 -193 -193 -193 -193 836 836 838 86 -193 86 84 86 84 83 86 86 83 85 87 87 89 86 86 -193 950 -209 -193 83 -193 -193 89 90 91 90 92 96 96 97 93 97 93 101 100 100 100 99 98 96 96 97 96 96 98 96 97 99 101 101 102 101 102 101 103 -193 103 -193 100 -193 -193 -209 -209 -209 -193 -193 110 112 111 111 111 112 112 110 112 112 111 112 112 111 112 111 113 114 114 112 114 114 114 113 114 115 113 115 117 115 115 120 117 117 116 118 119 117 117 118 119 121 120 121 121 121 122 122 121 120 121 121 120 120 121 121 122 129 125 125 126 128 128 127 128 128 124 128 128 128 123 120 121 122 122 122 121 121 119 121 122 121 117 116 116 117 118 119 117 118 -209 -209 -209 116 -209 -209 -209 -209 -209 -209 -209 -209 -209 -209 -209 -209 -209 -209 -209 -209 -209 -209 -209 -209 -209 -209 -209 -209 -209 -209 -209 -209 -209 131 -209 -209 -209 218 -193 -209 -209 -209 -209 -209 -209 -209 262 262 0 0 0 0 0
    0 0 0 0 0 0 0 0 0 0 0 0 0 0 0 0 0 0 0 0 0 0 0 0 0 0 0 0 0 0 0 0 0 0 0 0 0 0 0 0 0 0 0 0 0 0 0 0 0 0 0 0 0 0 0 0 0 0 0 0 0 0 0 0 0 0 0 0 0 69 -193 258 74 -193 71 -193 71 70 -193 73 71 73 75 76 76 76 75 75 76 76 77 79 79 78 77 76 77 76 77 76 -193 653 632 -193 -193 -209 -193 835 835 837 -193 -193 86 85 85 83 83 86 86 84 85 87 88 90 86 86 -193 -193 -209 -193 81 -193 -209 88 90 91 90 92 96 96 97 94 98 94 102 101 101 101 100 98 96 97 97 97 97 98 96 97 100 -193 -193 -193 -193 -209 101 -193 -209 -193 -193 100 -193 -193 -209 -209 -209 -209 106 109 110 109 110 111 110 111 109 111 111 111 112 112 110 112 111 114 115 113 112 114 114 114 113 113 114 112 114 116 112 114 119 115 116 115 117 119 117 117 118 119 121 121 121 122 121 122 122 122 121 122 121 120 120 121 121 121 129 125 125 126 128 128 127 128 128 124 128 128 129 123 121 121 122 122 122 122 121 119 121 122 121 116 116 114 116 117 119 116 117 -209 -209 -209 -193 -209 -209 -209 -209 -209 -209 -209 -209 -209 -209 -193 251 250 -193 -193 -209 -209 -209 -209 -209 -209 -209 -209 -209 -209 -209 -209 -209 -193 128 -209 -209 -209 -209 -209 -209 -193 -209 -209 -209 -209 -209 -209 -209 0 0 0 0 0
    0 0 0 0 0 0 0 0 0 0 0 0 0 0 0 0 0 0 0 0 0 0 0 0 0 0 0 0 0 0 0 0 0 0 0 0 0 0 0 0 0 0 0 0 0 0 0 0 0 0 0 0 0 0 0 0 0 0 0 0 0 0 0 0 0 0 0 0 0 68 70 257 73 -193 70 -193 71 70 -193 73 71 72 74 75 76 75 74 75 76 76 77 78 78 77 77 76 76 76 77 77 -193 -193 632 -193 82 -193 -193 833 833 836 -193 840 -209 -209 -193 82 83 86 86 85 86 88 88 90 86 86 84 -193 -209 -193 80 81 -193 87 90 91 90 92 96 96 98 94 99 93 101 101 101 102 101 98 97 98 100 100 100 100 98 98 100 -193 -193 -193 -193 -193 -193 -193 -209 -209 -193 -193 -193 101 -209 -209 -209 -209 105 107 108 108 108 109 109 109 109 111 110 110 112 112 -193 112 111 113 115 113 112 114 114 114 113 113 114 112 114 115 111 114 118 116 116 115 118 120 118 118 118 119 121 121 122 122 122 123 122 122 121 121 121 120 120 122 121 122 129 125 125 126 128 128 127 128 128 124 128 128 130 123 122 122 122 122 122 122 122 117 121 121 120 115 115 114 118 118 123 -193 -209 -209 -209 -209 -209 -209 -209 -209 -209 -209 -209 -209 -209 -209 -209 -209 -193 251 249 251 -209 -209 -193 -209 -209 -209 -193 -193 -209 -209 -209 69 -209 -209 -209 -209 -209 -209 -209 -209 -209 -209 -209 -209 -209 -209 -193 -193 -209 0 0 0 0 0
    0 0 0 0 0 0 0 0 0 0 0 0 0 0 0 0 0 0 0 0 0 0 0 0 0 0 0 0 0 0 0 0 0 0 0 0 0 0 0 0 0 0 0 0 0 0 0 0 0 0 0 0 0 0 0 0 0 0 0 0 0 0 0 0 0 0 0 0 0 67 70 257 -193 -193 71 -193 71 70 -193 73 72 72 74 75 75 75 74 74 75 75 76 78 78 77 76 76 -193 -193 77 77 -193 -193 632 -193 -209 644 -193 832 832 835 839 839 839 -209 -193 81 83 87 87 85 86 88 89 90 86 86 84 -193 -193 -193 78 81 -193 87 90 91 90 93 96 97 98 94 99 92 100 100 100 101 101 97 96 97 100 100 100 100 98 98 100 101 -193 -209 -193 -193 -193 -193 -209 -209 -193 -193 100 101 103 -209 105 -209 105 107 108 108 108 109 109 107 108 109 109 109 110 111 -193 111 111 113 115 113 113 114 114 114 113 113 114 112 115 115 112 114 118 116 117 116 118 120 118 118 118 119 121 121 121 121 121 122 122 121 120 120 119 119 119 121 121 122 129 125 125 126 128 128 127 128 128 124 128 128 130 123 122 122 122 122 122 122 122 115 121 121 120 114 115 113 -193 -209 -209 -193 -209 -209 140 -193 -209 -193 -193 -209 -193 -209 -209 -209 -209 -209 -193 -193 -193 -193 -209 -209 -209 -209 -209 -209 -209 -209 -193 -193 -193 -209 -209 -209 -209 -209 -209 -209 -209 -209 -209 -209 -209 -193 -209 -209 -193 -209 -209 -209 -209 0 0 0 0 0
    0 0 0 0 0 0 0 0 0 0 0 0 0 0 0 0 0 0 0 0 0 0 0 0 0 0 0 0 0 0 0 0 0 0 0 0 0 0 0 0 0 0 0 0 0 0 0 0 0 0 0 0 0 0 0 0 0 0 0 0 0 0 0 0 0 0 0 0 0 66 69 257 73 -193 71 -193 71 71 74 74 72 72 74 75 75 -193 74 74 75 75 76 77 77 77 76 76 -193 -193 -193 76 -209 -193 -193 -193 -209 642 -177 831 831 834 839 838 837 -193 -193 81 84 87 87 86 87 89 89 90 86 85 83 949 -193 -193 78 80 -193 87 90 90 90 93 96 96 98 94 98 92 98 98 99 100 99 94 95 96 98 99 99 99 98 98 100 100 102 -193 -209 -193 -193 -193 -209 -209 -193 96 96 97 99 -209 102 103 104 107 107 107 108 108 108 106 107 108 108 108 109 110 108 112 111 114 115 113 112 114 114 114 113 114 114 113 115 115 112 115 118 116 116 116 118 119 118 118 119 120 121 121 122 121 121 122 121 120 120 120 119 119 119 122 122 122 129 125 126 126 129 128 127 128 128 124 128 128 130 123 122 122 122 122 122 122 122 114 120 120 117 113 116 114 119 118 134 -193 -193 -209 -193 -193 -193 -193 -193 -209 -209 -209 -209 -209 -209 -209 -209 -193 -193 -193 -209 -193 -209 -209 -209 -193 -209 -193 -193 -193 -193 -209 -209 -209 -209 -209 -209 -209 -209 -209 -209 191 -193 193 -209 -209 -209 434 -209 -209 -209 0 0 0 0 0
    0 0 0 0 0 0 0 0 0 0 0 0 0 0 0 0 0 0 0 0 0 0 0 0 0 0 0 0 0 0 0 0 0 0 0 0 0 0 0 0 0 0 0 0 0 0 0 0 0 0 0 0 0 0 0 0 0 0 0 0 0 0 0 0 0 0 0 0 0 66 69 257 73 -193 71 -193 71 71 75 74 72 72 75 76 75 -193 74 74 75 75 76 77 77 77 76 76 75 76 77 76 -209 -209 -193 -193 -193 641 -177 831 830 833 838 838 837 -193 843 -193 84 88 88 87 88 89 90 91 86 85 83 949 -193 189 -193 80 -193 87 -193 90 90 92 96 96 97 93 98 92 97 99 100 100 101 97 97 98 100 100 100 99 98 98 99 100 103 102 102 101 100 -209 -209 -193 -209 94 94 95 97 99 102 104 105 107 107 108 108 110 109 107 107 108 108 108 109 108 107 111 111 114 114 112 112 114 113 113 112 113 114 114 115 115 112 116 119 116 117 117 118 119 119 119 119 120 121 121 121 121 121 122 121 120 119 119 119 119 119 122 122 122 129 126 126 126 129 128 128 128 129 124 127 128 131 123 123 122 122 122 122 122 122 112 121 120 117 115 117 113 118 -193 -209 -193 -209 -209 -209 -193 -193 0 -193 -193 -209 -209 -209 -209 -209 -209 -209 -209 -193 -193 -209 -193 -209 -209 -193 -193 -209 -193 -193 -193 -193 -209 -193 -209 -209 -193 604 603 -209 -209 -209 -193 -209 194 -209 -209 -209 -193 -209 -209 -209 0 0 0 0 0</data></disparity>
</opencv_storage>
