<?xml version="1.0"?>
<opencv_storage>
<gps_time_stamp>319510</gps_time_stamp>
<gps_x>-1.2409740447998047e+001</gps_x>
<gps_y>1.0954359054565430e+001</gps_y>
<gps_z>-2.0100665092468262e+000</gps_z>
<image_time_stamp>310360</image_time_stamp>
<disparity type_id="opencv-matrix">
  <rows>88</rows>
  <cols>320</cols>
  <dt>s</dt>
  <data>
    0 0 0 0 0 0 0 0 0 0 0 0 0 0 0 0 0 0 0 0 0 0 0 0 0 0 0 0 0 0 0 0 0 0 0 0 0 0 0 0 0 0 0 0 0 0 0 0 0 0 0 0 0 0 0 0 0 0 0 0 0 0 0 0 0 0 0 0 0 89 87 83 87 -209 -193 -193 55 52 50 50 49 53 54 53 52 52 55 56 56 56 55 55 56 55 56 56 56 56 55 55 54 54 53 51 49 48 47 47 46 45 44 45 44 43 42 41 40 39 38 36 34 32 -225 -225 -225 -225 -225 -225 -225 21 16 15 16 15 14 13 13 15 13 13 12 13 12 12 12 12 10 12 11 12 12 12 12 11 12 13 11 12 11 12 11 12 13 13 12 14 14 14 13 14 14 14 14 14 14 15 14 14 16 15 16 16 19 23 24 -193 -193 29 32 37 40 41 42 43 48 49 52 53 51 51 52 53 53 50 57 58 64 69 70 71 71 74 74 74 74 78 79 82 84 85 88 87 88 -177 -177 91 92 92 96 93 96 99 97 98 96 98 99 -193 -193 -193 -177 -177 -193 -177 -177 -177 -177 -177 -193 -193 -177 -177 -177 -177 -177 395 395 -193 -209 -209 -193 -193 -209 -209 -193 -209 -209 150 153 -193 153 152 155 154 154 154 154 -193 156 -193 -209 -193 166 167 171 174 173 176 176 173 178 176 176 176 177 178 177 178 177 180 183 185 186 186 186 186 188 192 193 196 198 200 201 202 203 0 0 0 0 0
    0 0 0 0 0 0 0 0 0 0 0 0 0 0 0 0 0 0 0 0 0 0 0 0 0 0 0 0 0 0 0 0 0 0 0 0 0 0 0 0 0 0 0 0 0 0 0 0 0 0 0 0 0 0 0 0 0 0 0 0 0 0 0 0 0 0 0 0 0 76 85 81 86 -209 -193 -193 53 51 49 50 49 53 53 53 52 53 55 56 56 56 55 55 55 55 55 55 55 55 54 54 53 53 52 50 48 47 47 46 45 44 44 44 43 42 41 41 38 38 37 34 32 31 30 -225 -225 -225 -225 -225 15 20 16 15 16 15 14 13 12 15 13 14 13 13 12 12 12 12 10 12 11 12 12 12 12 11 13 15 12 13 12 12 12 12 12 13 12 13 13 14 14 14 14 14 14 14 14 15 14 12 15 14 16 15 19 22 23 27 -193 29 33 38 41 41 42 43 48 48 52 52 51 51 53 53 54 52 59 61 68 70 70 71 71 74 74 74 74 78 78 81 82 84 87 87 87 -193 -193 90 92 92 96 92 96 100 99 99 98 99 100 -193 -193 -177 -193 -177 -193 -177 -177 -177 -177 -177 -193 -193 -177 -177 -177 -193 -177 397 -193 -209 -209 -209 -209 -209 -209 243 -193 -209 -209 150 153 -193 153 -193 154 153 154 -193 -193 -209 154 -209 -193 -209 165 169 171 176 174 177 177 173 180 177 177 177 178 180 178 178 177 177 182 184 185 185 185 186 187 192 193 196 199 200 201 202 204 0 0 0 0 0
    0 0 0 0 0 0 0 0 0 0 0 0 0 0 0 0 0 0 0 0 0 0 0 0 0 0 0 0 0 0 0 0 0 0 0 0 0 0 0 0 0 0 0 0 0 0 0 0 0 0 0 0 0 0 0 0 0 0 0 0 0 0 0 0 0 0 0 0 0 74 83 80 86 -209 -193 -193 52 50 48 49 49 53 53 53 53 54 57 57 56 56 54 55 54 54 55 55 54 54 53 54 53 53 52 50 48 47 46 46 45 44 44 44 43 42 41 41 37 36 35 33 30 30 29 -225 -225 -225 -225 -225 16 19 14 14 14 14 13 12 12 14 12 14 13 13 12 12 12 12 10 12 11 12 12 12 13 11 13 15 12 12 12 12 12 12 13 13 11 12 13 13 13 14 13 14 14 14 14 15 13 13 15 14 16 15 18 22 22 26 -193 28 33 38 41 42 43 44 49 49 52 52 51 52 53 55 55 56 60 65 69 71 70 71 71 74 74 74 74 78 78 80 81 83 -193 86 86 87 86 90 93 92 96 92 97 100 99 99 98 99 99 -177 -177 -193 -177 -177 -177 -177 -177 -177 -177 -177 -193 -209 -177 -177 -177 -193 -177 397 -193 -209 -209 -209 -209 -209 -209 243 148 -193 -209 150 152 -193 -193 -193 154 153 153 -193 151 150 152 -209 -193 -209 -209 -209 171 177 174 178 175 171 181 177 177 177 177 180 177 177 177 176 182 184 185 185 184 185 187 191 192 196 199 201 202 203 205 0 0 0 0 0
    0 0 0 0 0 0 0 0 0 0 0 0 0 0 0 0 0 0 0 0 0 0 0 0 0 0 0 0 0 0 0 0 0 0 0 0 0 0 0 0 0 0 0 0 0 0 0 0 0 0 0 0 0 0 0 0 0 0 0 0 0 0 0 0 0 0 0 0 0 71 80 78 -209 40 45 51 51 49 48 49 50 53 54 54 53 55 57 58 57 55 53 54 53 53 54 53 53 53 52 53 51 52 51 49 48 47 47 47 46 45 44 44 43 42 41 40 36 33 31 31 29 29 28 -225 -225 -225 -225 -225 16 18 14 13 14 16 14 12 12 15 13 14 14 14 12 12 12 12 11 11 11 12 12 12 13 11 12 14 12 12 11 11 11 11 12 12 11 12 12 12 13 13 13 14 14 13 13 14 14 12 15 14 16 15 18 21 21 25 -193 26 31 38 41 42 43 44 49 49 52 52 51 53 54 55 56 57 60 68 70 71 70 71 71 74 74 74 75 78 77 79 80 83 -193 86 86 86 86 90 93 92 96 92 97 100 99 99 98 98 99 -177 333 333 -177 -177 -193 -177 -177 -177 -177 -177 -193 -193 -177 -177 -177 268 -177 -193 -209 273 -209 -209 -209 -193 -193 -193 148 -193 -193 150 152 151 152 -193 153 153 152 -193 150 148 149 -209 212 -209 -193 -193 -209 176 174 176 172 168 180 175 175 175 176 179 176 176 177 174 182 184 185 185 185 186 188 191 190 195 198 201 204 204 206 0 0 0 0 0
    0 0 0 0 0 0 0 0 0 0 0 0 0 0 0 0 0 0 0 0 0 0 0 0 0 0 0 0 0 0 0 0 0 0 0 0 0 0 0 0 0 0 0 0 0 0 0 0 0 0 0 0 0 0 0 0 0 0 0 0 0 0 0 0 0 0 0 0 0 56 -193 -209 40 40 43 49 49 48 48 49 50 53 54 54 53 54 56 56 55 53 51 52 52 51 52 52 52 52 51 52 50 51 50 48 48 47 46 46 46 45 44 44 43 42 41 40 35 32 29 29 28 28 27 -225 -225 -225 -225 -225 16 16 13 13 14 16 15 13 13 15 14 14 14 14 13 12 12 11 10 11 10 11 11 11 12 11 11 12 11 11 10 9 10 10 11 12 10 12 11 11 13 13 13 13 13 13 12 14 14 12 13 12 17 15 18 22 21 25 27 27 32 -193 40 42 43 44 49 49 52 52 51 53 54 55 57 58 60 69 70 71 70 71 71 74 74 74 74 78 77 79 79 82 85 85 85 86 84 89 93 92 95 93 97 100 99 100 99 98 99 -177 -177 -177 -193 -177 -193 -177 -177 -177 -177 -177 -209 -193 -177 -177 -177 -193 -177 -193 -209 270 -209 -209 -209 -193 -209 -209 147 -193 -193 149 -193 -193 -193 -193 153 153 152 151 149 147 147 148 -177 147 148 148 -209 174 173 175 171 168 181 175 175 175 175 179 176 176 177 173 181 183 184 184 184 186 188 190 191 194 196 200 203 204 206 0 0 0 0 0
    0 0 0 0 0 0 0 0 0 0 0 0 0 0 0 0 0 0 0 0 0 0 0 0 0 0 0 0 0 0 0 0 0 0 0 0 0 0 0 0 0 0 0 0 0 0 0 0 0 0 0 0 0 0 0 0 0 0 0 0 0 0 0 0 0 0 0 0 0 52 49 44 41 41 42 46 45 46 47 48 48 53 54 53 52 53 53 53 52 52 48 50 49 49 51 50 51 50 49 50 48 50 49 47 47 46 46 46 45 44 44 44 42 42 41 40 35 31 28 28 26 27 26 26 -225 -225 -225 -225 18 14 13 12 12 14 13 12 12 14 14 14 14 13 12 12 11 11 10 11 10 11 11 12 11 10 10 12 11 11 10 9 10 10 11 11 10 10 9 10 13 13 13 13 13 13 13 14 15 12 13 12 17 14 16 21 21 25 28 28 32 36 39 41 43 43 48 49 52 52 51 53 54 54 57 59 60 69 70 71 70 71 71 74 74 74 74 78 77 78 79 81 84 85 85 85 83 89 94 92 95 93 97 100 99 100 99 97 99 -177 -177 -177 -193 -193 -193 -177 -177 -177 -177 -177 -193 -193 -177 -177 -177 -193 -177 -193 -209 -193 -193 -209 -209 -209 145 -209 146 -193 -193 -193 -193 -209 -193 153 153 -193 151 151 148 146 145 146 -177 -193 145 146 -193 171 175 175 170 168 181 175 175 175 175 179 176 176 177 172 181 183 184 185 185 186 188 190 190 192 193 194 199 202 204 0 0 0 0 0
    0 0 0 0 0 0 0 0 0 0 0 0 0 0 0 0 0 0 0 0 0 0 0 0 0 0 0 0 0 0 0 0 0 0 0 0 0 0 0 0 0 0 0 0 0 0 0 0 0 0 0 0 0 0 0 0 0 0 0 0 0 0 0 0 0 0 0 0 0 49 47 45 43 42 43 44 44 45 46 48 48 52 54 53 52 52 50 47 48 50 47 48 48 48 50 49 50 49 47 49 46 48 47 45 45 45 44 45 44 44 43 43 42 41 41 41 36 30 27 26 26 26 26 25 -225 -225 -225 16 14 12 11 10 10 11 11 9 11 12 12 13 14 13 12 13 13 12 12 12 12 12 12 12 11 10 10 11 11 11 10 9 9 10 10 11 10 10 0 10 12 12 12 12 13 13 12 14 14 13 13 12 17 13 15 21 21 25 28 28 31 35 38 41 43 43 48 49 52 52 52 53 54 54 57 59 59 68 69 71 70 70 71 73 73 74 74 78 77 78 79 81 84 84 85 85 83 88 94 92 95 93 97 99 99 99 98 96 98 -193 -177 -177 -193 -193 -193 -193 -177 -177 -177 -177 -193 -193 -193 -177 -177 -193 -177 -209 -193 -209 0 -209 -209 -209 144 -209 145 -193 -193 -193 -193 -193 -193 153 153 -193 151 151 148 146 143 144 -177 -193 143 -177 -193 173 180 177 172 168 181 175 175 175 175 178 176 176 177 172 182 184 185 186 186 187 188 190 191 192 193 193 198 201 204 0 0 0 0 0
    0 0 0 0 0 0 0 0 0 0 0 0 0 0 0 0 0 0 0 0 0 0 0 0 0 0 0 0 0 0 0 0 0 0 0 0 0 0 0 0 0 0 0 0 0 0 0 0 0 0 0 0 0 0 0 0 0 0 0 0 0 0 0 0 0 0 0 0 0 47 46 44 43 43 43 43 42 44 46 47 48 51 53 52 52 53 49 41 -193 50 45 47 47 48 48 48 48 47 46 47 45 46 44 44 43 43 43 43 43 43 43 42 41 40 40 40 36 30 27 26 25 25 25 23 -225 -225 21 13 13 12 9 0 0 0 0 0 0 9 10 11 12 11 10 11 12 12 11 11 11 12 12 12 11 10 10 11 12 11 10 9 10 11 10 11 11 10 9 10 12 13 13 13 13 13 12 13 14 13 12 12 16 13 14 20 21 25 28 28 32 35 38 41 43 43 48 49 52 52 51 53 53 54 57 60 59 67 69 71 69 70 70 73 73 73 73 78 77 78 79 80 84 84 84 85 81 87 95 92 94 93 97 99 98 98 98 94 98 -193 -177 -177 -177 -193 -193 -193 -177 -177 -177 -177 -193 -193 -193 -177 -177 -193 -193 -209 259 -193 0 -193 -193 -209 143 -193 144 -193 -193 -193 -193 -193 -193 152 152 -193 150 150 147 146 142 144 -193 -193 142 -193 -193 178 181 178 175 171 180 175 175 175 175 178 176 176 177 172 182 184 185 186 186 187 188 190 191 192 193 194 198 201 203 0 0 0 0 0
    0 0 0 0 0 0 0 0 0 0 0 0 0 0 0 0 0 0 0 0 0 0 0 0 0 0 0 0 0 0 0 0 0 0 0 0 0 0 0 0 0 0 0 0 0 0 0 0 0 0 0 0 0 0 0 0 0 0 0 0 0 0 0 0 0 0 0 0 0 46 46 44 44 43 43 43 41 42 45 47 48 51 52 51 52 53 -209 -209 -193 -193 45 47 47 48 47 46 47 46 45 45 44 44 43 43 43 43 42 42 42 42 42 42 40 40 39 39 36 30 27 26 24 24 24 22 13 19 16 11 10 9 0 0 0 0 0 0 0 0 0 9 9 9 9 10 11 11 10 10 10 12 12 12 11 9 9 10 11 10 9 9 10 11 11 11 12 11 11 10 12 12 13 13 13 13 12 13 14 12 12 11 15 13 13 18 20 25 28 29 32 -193 38 41 43 44 48 50 52 52 52 53 53 54 57 60 58 66 69 70 69 70 70 72 72 73 73 78 77 78 78 80 84 85 85 85 82 88 95 93 95 94 96 98 97 97 97 94 97 91 -193 -193 -177 -193 -193 -193 -177 -177 -177 -177 -193 -177 -177 -177 -177 262 -193 -193 259 -193 0 -193 -193 -209 -193 142 -193 -193 -193 -193 -193 152 150 152 151 151 150 150 147 146 142 144 -193 -193 143 -193 -193 179 181 178 177 172 180 174 174 174 174 177 176 175 176 172 184 185 185 186 186 186 188 189 190 191 193 195 201 202 204 0 0 0 0 0
    0 0 0 0 0 0 0 0 0 0 0 0 0 0 0 0 0 0 0 0 0 0 0 0 0 0 0 0 0 0 0 0 0 0 0 0 0 0 0 0 0 0 0 0 0 0 0 0 0 0 0 0 0 0 0 0 0 0 0 0 0 0 0 0 0 0 0 0 0 46 46 45 44 44 43 43 41 42 44 44 45 49 48 47 48 52 -209 -193 -209 -193 45 46 45 47 46 45 45 44 43 44 43 43 42 42 43 43 42 43 42 42 42 42 39 39 38 38 34 30 27 26 22 22 23 19 12 12 12 9 9 0 0 0 0 0 0 0 0 0 0 9 0 0 0 0 10 10 9 9 10 11 12 12 10 9 9 10 11 10 10 10 11 11 11 12 13 12 11 11 12 12 13 12 12 12 12 12 14 12 11 11 14 13 12 17 19 25 28 29 31 34 37 41 43 43 47 50 52 52 52 53 53 54 57 60 57 64 69 70 69 70 71 73 73 73 74 78 77 78 79 80 83 85 85 85 83 87 95 93 94 95 96 98 97 97 97 94 97 92 -193 -193 -177 -209 -209 -193 -177 -177 -177 -177 -193 -193 -193 -177 -177 263 -193 263 259 -193 0 -193 -193 -209 -193 140 -193 -193 -193 -209 150 151 150 151 151 151 149 149 147 146 142 145 -193 146 -193 -193 -209 179 182 177 177 172 178 174 174 174 174 176 175 175 176 173 185 185 186 187 186 187 189 189 190 190 191 193 200 201 202 0 0 0 0 0
    0 0 0 0 0 0 0 0 0 0 0 0 0 0 0 0 0 0 0 0 0 0 0 0 0 0 0 0 0 0 0 0 0 0 0 0 0 0 0 0 0 0 0 0 0 0 0 0 0 0 0 0 0 0 0 0 0 0 0 0 0 0 0 0 0 0 0 0 0 46 46 45 46 45 44 43 42 42 44 43 44 45 42 42 44 -209 -209 38 -209 -193 44 45 45 46 45 44 44 44 43 43 43 43 42 42 43 43 41 42 42 41 41 40 37 34 32 33 28 27 25 23 15 18 21 17 11 11 12 9 9 0 0 0 0 0 0 0 0 9 9 10 0 0 0 0 10 10 10 10 10 11 11 12 10 10 9 9 11 10 10 10 11 12 11 12 13 12 11 10 11 12 12 12 12 12 12 12 13 12 12 11 13 12 11 16 19 25 28 28 30 32 37 40 43 43 46 50 51 52 51 52 52 53 56 58 56 63 68 70 69 70 71 72 73 74 74 78 78 78 79 80 83 84 84 84 83 87 93 92 93 95 95 97 96 96 96 93 96 93 90 -193 -177 -209 -209 -193 -177 -177 -177 -177 -177 -193 -193 -177 -193 263 -193 263 260 -193 0 -209 -193 -209 -193 -209 -193 -193 -193 -209 150 151 148 151 150 150 149 149 147 147 142 146 145 -193 -193 -193 -209 178 181 175 177 172 177 174 174 174 174 176 175 175 177 174 185 188 189 189 188 188 189 190 190 189 189 190 194 198 201 0 0 0 0 0
    0 0 0 0 0 0 0 0 0 0 0 0 0 0 0 0 0 0 0 0 0 0 0 0 0 0 0 0 0 0 0 0 0 0 0 0 0 0 0 0 0 0 0 0 0 0 0 0 0 0 0 0 0 0 0 0 0 0 0 0 0 0 0 0 0 0 0 0 0 46 46 46 46 46 45 44 43 43 44 42 42 41 36 38 40 39 38 38 -193 -209 42 42 43 44 43 42 42 42 42 42 41 42 40 39 41 41 39 39 -193 37 36 37 32 28 27 27 25 25 22 16 11 12 17 14 10 9 11 9 9 9 0 0 0 0 0 0 9 9 9 10 0 0 0 0 10 9 10 9 10 11 12 12 10 10 9 9 11 10 10 10 11 12 11 12 13 12 12 10 11 12 13 13 13 13 12 12 14 13 12 11 12 12 10 15 18 25 28 28 29 31 36 39 42 42 44 49 50 51 51 51 51 51 56 57 55 62 68 69 69 70 70 71 72 74 74 77 79 79 79 80 82 84 83 83 82 85 92 91 92 95 94 96 96 96 96 93 96 94 91 93 -177 -193 -209 -209 -177 -177 -177 -177 -177 -177 -177 -193 -193 -209 -193 264 261 -193 0 -209 -209 -209 -193 -193 -193 -193 -193 148 149 151 147 150 149 149 148 149 147 147 142 146 145 -209 -193 -193 -209 180 181 176 178 173 177 174 175 175 175 176 177 176 178 175 185 189 191 191 190 189 190 190 191 190 190 191 196 199 200 0 0 0 0 0
    0 0 0 0 0 0 0 0 0 0 0 0 0 0 0 0 0 0 0 0 0 0 0 0 0 0 0 0 0 0 0 0 0 0 0 0 0 0 0 0 0 0 0 0 0 0 0 0 0 0 0 0 0 0 0 0 0 0 0 0 0 0 0 0 0 0 0 0 0 46 46 46 47 47 46 45 44 47 46 43 41 38 36 37 38 36 35 35 38 -209 40 40 40 42 42 40 41 40 40 40 40 39 28 34 40 37 35 -193 -193 26 27 30 26 25 25 -193 -193 23 15 10 9 9 13 12 9 0 10 9 9 9 0 0 0 0 0 0 9 10 9 10 0 0 0 0 9 10 11 11 11 12 12 13 11 11 10 10 12 11 12 12 12 13 12 13 14 13 13 11 12 13 13 13 13 13 12 12 14 13 12 12 12 12 10 14 16 24 27 27 29 32 36 39 41 41 43 48 51 51 51 51 51 52 56 57 56 62 69 70 69 70 70 71 72 74 74 77 80 79 79 79 82 83 83 83 82 84 90 91 91 95 93 97 97 97 97 94 97 96 91 95 -177 -193 -177 -193 -193 -177 -177 -177 -193 -177 -177 -193 -193 -209 264 263 261 265 0 -209 -209 125 -193 -193 -193 -193 -193 147 148 150 146 149 148 148 148 148 147 147 142 146 146 -209 -193 -193 -193 183 181 178 179 175 178 175 176 176 176 177 177 176 178 175 185 189 191 191 190 189 189 191 191 190 190 190 193 198 199 0 0 0 0 0
    0 0 0 0 0 0 0 0 0 0 0 0 0 0 0 0 0 0 0 0 0 0 0 0 0 0 0 0 0 0 0 0 0 0 0 0 0 0 0 0 0 0 0 0 0 0 0 0 0 0 0 0 0 0 0 0 0 0 0 0 0 0 0 0 0 0 0 0 0 46 46 47 47 47 46 45 45 49 47 42 41 39 39 38 37 35 34 31 -209 -209 -209 29 36 41 40 35 37 36 35 37 38 -209 11 27 40 29 26 -193 -193 19 23 25 19 19 19 20 -193 14 10 0 9 9 12 11 9 0 10 9 9 9 0 9 9 0 0 0 9 9 9 9 0 0 0 0 9 10 11 11 12 12 13 13 12 12 11 11 12 12 12 13 13 13 13 13 14 13 14 12 12 13 13 13 13 13 12 12 14 13 12 12 12 12 10 13 15 22 26 26 29 32 36 39 41 41 42 48 51 51 51 51 51 52 55 56 56 60 69 70 70 70 70 71 74 75 75 77 80 79 79 79 81 83 83 83 82 84 90 91 91 95 93 97 98 98 98 95 98 98 92 97 -177 -177 -177 -177 -193 -193 -177 -177 -193 -177 -193 -193 -193 -209 -193 264 262 265 -209 -209 -209 125 -193 131 132 134 -193 145 146 149 145 147 147 147 147 147 147 147 142 146 146 -209 -177 -193 -193 185 182 179 181 176 178 174 176 176 176 176 177 176 178 175 185 189 191 192 191 190 190 192 192 191 191 192 192 197 198 0 0 0 0 0
    0 0 0 0 0 0 0 0 0 0 0 0 0 0 0 0 0 0 0 0 0 0 0 0 0 0 0 0 0 0 0 0 0 0 0 0 0 0 0 0 0 0 0 0 0 0 0 0 0 0 0 0 0 0 0 0 0 0 0 0 0 0 0 0 0 0 0 0 0 45 46 47 47 47 46 45 44 47 47 42 41 41 41 42 37 35 34 -209 -177 -209 -209 19 25 33 -209 20 -193 -193 -193 28 -193 0 0 -177 -209 10 9 21 12 13 18 20 13 13 14 15 -193 10 9 0 0 8 11 10 0 0 11 9 9 9 0 9 9 0 0 0 9 9 9 9 0 0 0 9 10 10 12 11 12 12 12 13 12 12 11 11 13 12 12 13 14 14 13 14 14 14 15 13 12 13 13 13 13 13 12 12 13 13 12 11 11 11 10 12 13 20 -193 -193 28 35 37 40 42 42 43 49 52 52 51 52 52 53 56 57 57 60 68 70 69 69 70 71 74 75 76 77 81 80 79 80 81 83 82 82 82 83 88 90 91 95 92 97 99 98 98 96 98 99 92 98 -209 -177 -177 -177 -193 -193 -193 -193 -193 -193 -193 -209 -209 -209 -193 -193 264 265 -209 -209 -209 125 -193 130 131 133 135 142 143 148 143 145 146 146 146 147 147 147 142 146 147 -193 -209 -193 -193 186 184 179 182 176 178 174 176 176 176 176 177 176 177 176 185 188 191 192 190 190 190 192 192 192 193 194 196 200 200 0 0 0 0 0
    0 0 0 0 0 0 0 0 0 0 0 0 0 0 0 0 0 0 0 0 0 0 0 0 0 0 0 0 0 0 0 0 0 0 0 0 0 0 0 0 0 0 0 0 0 0 0 0 0 0 0 0 0 0 0 0 0 0 0 0 0 0 0 0 0 0 0 0 0 45 46 47 47 47 46 45 43 46 46 41 40 41 42 44 -193 -209 -209 -209 -193 -193 -193 -193 17 -193 -193 0 0 0 0 -193 0 0 0 0 0 0 0 14 10 11 14 15 11 12 13 13 10 9 0 0 0 0 10 9 0 0 11 9 9 9 0 10 9 0 0 0 9 9 9 9 0 9 9 9 10 10 12 11 12 12 12 12 12 13 12 12 13 13 13 14 14 14 13 14 14 14 15 13 12 13 13 13 13 13 12 12 12 12 12 10 10 11 10 11 13 19 -193 -193 28 37 38 40 42 42 42 49 52 52 51 53 53 55 57 58 59 59 67 69 68 68 68 70 74 75 75 77 80 80 79 80 81 83 82 82 82 83 87 90 90 95 92 97 100 99 99 98 99 100 94 100 -193 -177 -177 -177 -193 -193 -193 -193 -177 -193 -193 -209 -209 266 -193 -193 -209 266 -193 -209 -209 126 133 130 131 132 134 -193 141 147 143 143 145 145 146 146 146 147 143 146 148 -193 -209 -193 -193 190 187 179 182 177 178 175 176 176 176 177 178 177 177 177 185 188 190 190 190 189 189 192 192 193 196 198 197 198 198 0 0 0 0 0
    0 0 0 0 0 0 0 0 0 0 0 0 0 0 0 0 0 0 0 0 0 0 0 0 0 0 0 0 0 0 0 0 0 0 0 0 0 0 0 0 0 0 0 0 0 0 0 0 0 0 0 0 0 0 0 0 0 0 0 0 0 0 0 0 0 0 0 0 0 45 46 47 48 47 46 45 43 46 45 40 39 42 44 48 -177 -177 -209 -193 -193 108 -193 -193 -193 -193 0 0 0 0 0 0 0 0 0 0 0 0 0 10 0 9 10 10 9 9 10 10 0 0 0 0 0 0 9 0 0 0 11 9 9 9 9 12 10 10 0 0 10 9 9 9 9 9 9 10 10 10 12 11 12 12 12 12 12 12 12 11 12 13 12 13 13 14 13 14 13 14 13 12 12 13 13 13 13 13 12 11 12 12 12 10 10 10 9 10 12 18 19 21 27 37 38 41 42 42 42 49 53 53 52 54 55 56 59 60 60 59 67 69 68 66 67 69 75 75 75 76 79 80 79 80 80 83 82 82 82 83 86 90 90 94 92 97 100 100 100 99 99 101 95 101 -177 -193 -193 -193 -193 -193 -177 -177 -177 91 -193 -193 -193 266 -193 -193 -209 -193 110 110 -193 126 132 130 130 132 134 -193 140 145 142 143 145 145 145 146 146 147 143 146 148 -193 -177 -177 -193 -209 -209 -193 181 177 178 175 176 176 176 177 178 177 177 177 183 187 188 189 189 188 188 191 191 191 192 196 197 196 195 0 0 0 0 0
    0 0 0 0 0 0 0 0 0 0 0 0 0 0 0 0 0 0 0 0 0 0 0 0 0 0 0 0 0 0 0 0 0 0 0 0 0 0 0 0 0 0 0 0 0 0 0 0 0 0 0 0 0 0 0 0 0 0 0 0 0 0 0 0 0 0 0 0 0 45 46 48 48 47 46 45 44 46 46 40 40 43 47 -209 -177 -177 -209 111 113 108 -193 0 0 0 0 0 0 0 0 0 0 0 0 0 0 0 0 0 0 0 0 0 0 0 0 0 0 0 0 0 0 0 0 0 0 0 11 10 10 10 9 15 12 11 9 0 10 9 9 9 9 9 9 10 10 9 11 11 12 11 11 12 12 12 12 12 12 13 13 14 13 14 13 14 13 13 13 12 11 12 12 13 12 13 12 12 12 12 12 10 10 11 10 10 13 17 18 20 25 34 37 39 41 41 41 49 54 54 53 56 57 57 60 61 61 59 68 69 68 65 66 69 75 74 75 75 77 80 79 80 80 82 81 81 81 82 85 89 89 -193 91 97 100 100 100 99 99 101 -209 -193 -177 -193 -193 -193 -193 -193 -193 -193 -177 -193 -209 -209 -193 266 -193 -177 -193 -193 110 108 120 126 132 130 131 132 133 -193 -209 144 142 143 145 144 145 146 146 147 144 146 148 -177 -177 207 -193 -193 -209 -193 180 177 177 175 176 176 176 176 178 177 176 177 183 188 190 190 190 191 190 195 196 195 196 -193 199 199 194 0 0 0 0 0
    0 0 0 0 0 0 0 0 0 0 0 0 0 0 0 0 0 0 0 0 0 0 0 0 0 0 0 0 0 0 0 0 0 0 0 0 0 0 0 0 0 0 0 0 0 0 0 0 0 0 0 0 0 0 0 0 0 0 0 0 0 0 0 0 0 0 0 0 0 45 46 48 48 47 46 46 46 47 47 42 40 44 49 -209 -177 -177 -209 110 113 108 0 0 0 0 0 0 0 0 0 0 0 0 0 0 0 0 0 0 0 0 0 0 0 0 0 0 0 0 0 0 0 0 0 0 0 0 10 9 9 9 9 15 13 11 0 0 10 9 9 9 9 9 9 10 10 9 11 11 11 11 11 12 11 12 12 11 12 13 13 13 13 14 12 14 12 13 12 11 11 12 11 12 12 14 12 12 12 13 12 11 10 12 10 11 14 17 18 20 25 33 35 38 41 41 41 49 55 55 55 57 58 58 61 62 62 59 69 70 68 64 66 68 74 73 74 74 75 79 78 79 79 82 81 82 82 82 84 89 89 -193 92 96 101 100 100 100 99 -193 -209 -193 -177 97 99 -193 -193 95 -193 -193 -177 -193 -209 -209 -193 266 -193 398 -193 107 110 -193 121 127 133 130 132 133 134 -193 -209 143 142 142 145 144 145 145 146 146 145 -177 148 -177 210 208 -193 203 203 -193 179 178 177 174 176 176 176 176 177 176 174 175 181 188 191 192 192 194 194 197 198 199 202 203 -193 -193 -193 0 0 0 0 0
    0 0 0 0 0 0 0 0 0 0 0 0 0 0 0 0 0 0 0 0 0 0 0 0 0 0 0 0 0 0 0 0 0 0 0 0 0 0 0 0 0 0 0 0 0 0 0 0 0 0 0 0 0 0 0 0 0 0 0 0 0 0 0 0 0 0 0 0 0 45 46 48 47 47 47 46 47 47 47 42 40 44 51 -209 -209 -177 -209 110 113 108 0 0 0 0 0 0 0 0 0 0 0 0 0 0 0 0 0 0 0 0 -193 -193 0 0 -193 0 0 0 0 0 0 0 0 0 0 0 9 0 0 0 9 13 12 11 0 0 10 9 9 9 10 9 9 10 11 10 11 11 12 11 12 12 11 12 12 12 12 13 13 13 13 14 12 14 12 13 12 11 11 12 11 12 11 13 12 12 12 12 11 10 11 12 10 11 14 18 19 21 25 35 36 39 41 41 42 49 56 56 56 58 59 59 61 62 63 58 68 70 69 65 66 68 73 73 73 73 73 78 78 79 79 82 82 82 82 83 85 -193 -193 -193 92 96 101 100 100 100 98 101 -193 -193 -177 -193 99 98 -193 -193 -193 -193 -177 -193 -209 -209 -193 -193 -209 -177 112 108 113 105 121 129 133 131 133 133 134 -193 -193 143 143 142 145 144 145 145 146 146 145 -177 -193 -177 210 208 207 203 204 203 -193 179 177 174 175 175 175 175 175 175 172 173 177 186 188 189 189 191 191 196 197 199 202 203 203 202 -193 0 0 0 0 0
    0 0 0 0 0 0 0 0 0 0 0 0 0 0 0 0 0 0 0 0 0 0 0 0 0 0 0 0 0 0 0 0 0 0 0 0 0 0 0 0 0 0 0 0 0 0 0 0 0 0 0 0 0 0 0 0 0 0 0 0 0 0 0 0 0 0 0 0 0 45 47 48 47 47 46 46 47 47 48 43 41 46 52 66 -209 -209 -193 111 113 108 -193 0 -193 0 0 0 0 0 0 0 0 0 0 0 0 0 0 0 0 0 0 0 0 0 -193 0 0 0 0 0 0 0 0 0 0 0 9 0 9 9 9 11 11 11 0 0 11 10 10 10 10 10 10 11 12 10 11 11 11 11 12 12 11 12 12 12 12 13 13 13 13 14 13 14 12 13 12 12 11 12 11 12 11 13 12 12 12 12 11 10 10 12 10 11 13 18 19 21 26 38 38 40 42 42 43 48 56 55 55 57 58 58 60 61 62 58 67 71 69 65 66 68 73 71 72 72 72 78 78 79 79 83 83 84 84 84 85 -193 90 93 93 96 101 99 100 99 97 101 96 -193 -177 -193 -193 -193 -193 -193 -177 -177 -177 -193 -193 -209 -193 -193 -209 -193 115 112 118 114 122 129 133 131 133 134 134 -193 -193 142 143 142 145 144 145 145 146 145 146 -177 -177 -177 211 208 207 203 204 203 -193 179 177 174 174 174 174 174 175 174 172 172 174 185 186 188 189 192 193 197 198 201 204 204 204 203 -193 0 0 0 0 0
    0 0 0 0 0 0 0 0 0 0 0 0 0 0 0 0 0 0 0 0 0 0 0 0 0 0 0 0 0 0 0 0 0 0 0 0 0 0 0 0 0 0 0 0 0 0 0 0 0 0 0 0 0 0 0 0 0 0 0 0 0 0 0 0 0 0 0 0 0 46 48 47 47 47 46 46 47 46 47 42 41 46 52 66 -209 -209 -177 113 115 110 -193 0 -193 0 0 0 0 0 0 0 0 0 0 0 0 0 0 0 0 0 0 0 0 0 -193 0 0 0 0 0 0 10 12 9 9 10 11 9 10 10 10 9 9 10 0 0 11 10 11 10 11 10 10 11 12 9 11 10 11 10 12 11 11 12 11 11 12 13 12 13 13 14 13 14 12 13 12 12 11 11 11 12 11 12 12 12 11 11 10 9 9 11 10 11 13 19 20 22 27 40 40 41 43 43 44 47 55 54 53 55 57 57 59 59 61 57 65 70 68 -177 65 67 71 68 69 68 71 77 78 79 79 83 84 85 85 85 86 -193 91 94 94 95 100 99 99 99 96 100 95 -193 -193 580 -193 -193 -193 -193 -177 -177 -177 -209 -193 -209 -193 -193 -209 -193 117 115 120 121 122 130 133 132 133 134 135 -193 -193 142 144 143 145 144 145 145 146 145 146 -177 -177 -177 211 208 207 204 204 -193 -193 178 176 174 174 174 174 174 175 174 172 174 174 186 187 189 190 192 194 196 197 200 203 203 204 203 -193 0 0 0 0 0
    0 0 0 0 0 0 0 0 0 0 0 0 0 0 0 0 0 0 0 0 0 0 0 0 0 0 0 0 0 0 0 0 0 0 0 0 0 0 0 0 0 0 0 0 0 0 0 0 0 0 0 0 0 0 0 0 0 0 0 0 0 0 0 0 0 0 0 0 0 46 48 47 46 46 45 45 46 45 46 42 41 46 52 61 -209 -209 -177 115 117 112 -193 0 0 0 0 0 0 0 0 0 0 0 0 0 0 0 0 0 0 0 0 0 0 0 0 0 0 0 0 0 0 10 14 11 10 11 12 10 10 10 10 9 0 10 0 0 11 10 11 10 11 10 10 11 12 9 11 10 10 10 12 11 11 12 11 11 12 12 12 13 13 13 12 14 12 12 12 12 11 11 10 11 10 12 11 12 11 11 10 10 9 11 10 11 14 21 23 24 31 41 41 42 44 44 45 46 55 53 52 54 56 56 58 58 60 57 64 69 67 -177 64 66 70 67 66 65 71 78 79 79 80 84 85 87 87 87 87 92 92 94 94 95 100 98 98 98 95 99 95 93 -193 581 -193 -193 -193 -209 -177 -177 -177 -209 -193 -209 -193 -193 -193 -193 118 117 -193 121 122 129 133 132 133 134 135 -193 -209 141 145 143 145 145 145 144 145 144 146 -177 -177 -177 -177 208 208 -193 -193 -193 -193 177 175 175 175 175 175 175 176 176 173 175 175 185 185 186 187 189 189 193 196 199 202 202 203 202 -193 0 0 0 0 0
    0 0 0 0 0 0 0 0 0 0 0 0 0 0 0 0 0 0 0 0 0 0 0 0 0 0 0 0 0 0 0 0 0 0 0 0 0 0 0 0 0 0 0 0 0 0 0 0 0 0 0 0 0 0 0 0 0 0 0 0 0 0 0 0 0 0 0 0 0 46 48 47 46 46 45 45 46 44 46 42 41 45 52 -209 -193 -193 -177 115 116 112 0 0 0 0 0 0 0 0 0 0 0 0 0 0 0 0 0 0 0 0 0 0 0 0 0 0 0 0 0 0 0 10 15 12 11 12 12 11 11 11 10 9 10 11 0 0 12 11 10 10 11 10 10 11 12 9 10 10 10 10 12 12 12 12 11 11 13 12 12 12 13 13 12 13 12 12 12 12 11 11 10 11 11 12 11 12 11 11 10 11 10 12 11 11 16 24 26 27 33 40 41 43 45 45 45 46 55 52 51 52 54 54 56 -177 58 56 63 69 67 65 65 67 70 67 66 66 71 79 80 80 81 85 86 88 88 88 88 93 93 94 95 94 100 97 98 98 95 99 96 93 99 -209 -193 -193 -193 -209 -177 770 770 -193 -193 -209 -193 -193 265 -177 119 118 -193 121 121 129 133 132 133 134 135 -193 -209 -193 147 143 145 145 145 144 145 144 146 143 148 -209 -177 -177 -193 -193 -193 -193 168 175 175 176 176 176 176 176 176 177 174 175 174 184 184 185 186 188 189 193 196 199 201 201 202 -193 -209 0 0 0 0 0
    0 0 0 0 0 0 0 0 0 0 0 0 0 0 0 0 0 0 0 0 0 0 0 0 0 0 0 0 0 0 0 0 0 0 0 0 0 0 0 0 0 0 0 0 0 0 0 0 0 0 0 0 0 0 0 0 0 0 0 0 0 0 0 0 0 0 0 0 0 46 48 47 46 46 45 45 46 44 46 42 41 44 52 -209 -209 -193 -177 115 117 112 0 0 0 0 0 0 0 0 0 0 0 0 0 9 9 0 0 0 0 0 0 0 0 0 0 0 0 0 0 0 0 10 15 11 11 11 11 11 11 11 10 0 10 11 0 0 12 11 11 10 11 10 10 11 12 9 10 10 10 10 12 11 12 12 12 11 13 12 12 12 13 12 12 13 12 12 12 12 11 11 11 12 11 12 11 12 11 11 10 11 11 12 11 12 17 24 27 29 34 39 41 43 45 45 46 45 54 51 51 51 52 53 54 55 56 54 62 68 65 64 64 67 70 68 67 67 71 80 80 80 81 85 -193 89 89 89 89 93 93 95 96 94 99 97 97 98 95 98 97 92 98 -209 -193 -193 -193 -209 -177 -177 -177 -193 -193 -209 -193 -193 265 -177 -193 119 -193 122 121 128 133 132 134 134 136 -193 -209 141 147 143 145 145 145 144 145 143 146 142 148 -193 -209 -193 -193 157 156 160 167 174 175 177 176 176 176 176 176 176 174 175 174 184 184 185 186 188 189 192 195 197 199 199 201 202 -209 0 0 0 0 0
    0 0 0 0 0 0 0 0 0 0 0 0 0 0 0 0 0 0 0 0 0 0 0 0 0 0 0 0 0 0 0 0 0 0 0 0 0 0 0 0 0 0 0 0 0 0 0 0 0 0 0 0 0 0 0 0 0 0 0 0 0 0 0 0 0 0 0 0 0 46 47 46 45 45 45 45 46 44 46 42 41 42 50 56 -209 -209 -193 115 116 -193 0 0 0 0 0 0 0 0 0 0 0 0 0 9 0 0 0 0 0 0 0 0 0 0 0 0 0 0 0 0 0 10 13 10 10 10 10 10 10 11 10 0 10 11 0 0 13 11 12 11 11 11 11 11 13 10 11 10 10 10 13 11 12 12 12 11 13 12 12 12 12 12 12 13 13 11 12 12 11 12 11 12 11 12 12 12 12 11 11 11 11 12 12 12 17 24 28 30 34 39 41 44 45 45 46 44 54 50 50 49 50 52 52 53 54 52 60 65 62 63 -193 67 70 69 68 69 71 81 80 80 80 84 -193 89 89 89 89 94 94 95 97 94 99 97 97 98 95 98 98 92 98 -209 103 103 -193 -193 -177 -177 -193 -193 -193 -209 -209 -177 265 -193 121 120 121 122 -193 128 132 132 134 135 137 -193 -193 141 148 144 145 146 145 144 145 143 146 142 147 148 -209 -193 154 156 155 159 165 174 175 176 176 176 176 176 175 176 174 175 175 182 185 185 186 188 189 191 194 196 201 200 202 204 -209 0 0 0 0 0
    0 0 0 0 0 0 0 0 0 0 0 0 0 0 0 0 0 0 0 0 0 0 0 0 0 0 0 0 0 0 0 0 0 0 0 0 0 0 0 0 0 0 0 0 0 0 0 0 0 0 0 0 0 0 0 0 0 0 0 0 0 0 0 0 0 0 0 0 0 46 47 46 45 45 45 45 45 44 45 42 40 40 45 50 -209 -209 -209 -209 -193 -193 0 0 0 0 0 0 0 0 0 0 0 0 0 9 9 9 0 10 0 0 0 0 0 0 0 0 0 0 0 9 0 11 14 10 11 10 10 10 10 10 9 0 11 10 0 0 14 12 13 12 12 12 12 12 14 11 12 11 11 11 13 11 12 12 12 11 13 12 12 12 13 12 12 12 13 12 13 13 11 12 12 13 12 13 12 12 12 12 11 11 12 12 12 12 17 24 31 33 36 39 42 44 45 45 45 43 53 50 50 49 49 51 51 52 53 51 58 60 -193 -209 -209 -193 -209 70 71 73 72 82 81 80 80 84 -177 89 90 90 90 95 96 96 99 94 100 98 98 98 95 98 98 92 98 -209 102 103 -193 -193 -177 -177 -193 -193 -193 122 -209 -177 -193 -209 121 121 122 122 -209 128 132 132 135 136 138 -193 143 141 148 143 145 145 145 144 144 143 145 141 146 147 -209 -193 152 154 154 158 163 174 175 176 177 176 176 176 176 177 175 176 175 177 183 184 185 187 186 189 190 194 201 200 202 203 -193 0 0 0 0 0
    0 0 0 0 0 0 0 0 0 0 0 0 0 0 0 0 0 0 0 0 0 0 0 0 0 0 0 0 0 0 0 0 0 0 0 0 0 0 0 0 0 0 0 0 0 0 0 0 0 0 0 0 0 0 0 0 0 0 0 0 0 0 0 0 0 0 0 0 0 46 47 46 45 45 44 44 45 43 45 41 39 39 42 42 39 34 -209 -209 0 0 0 0 0 0 0 0 0 0 0 0 0 0 0 9 10 10 9 11 0 0 0 0 0 0 0 0 0 0 0 0 0 9 11 9 10 10 10 10 10 11 10 9 11 11 10 9 15 12 13 13 13 12 13 12 14 11 12 12 11 12 13 11 13 13 12 11 13 12 12 12 13 12 12 13 14 12 14 14 12 13 13 13 12 13 12 12 12 12 11 11 12 11 12 11 16 23 36 35 38 41 43 46 46 46 45 43 52 50 50 49 49 51 -193 52 52 50 57 56 -193 -209 -177 -193 -209 -209 74 76 73 84 81 80 -193 -193 -177 89 89 89 89 95 97 96 99 94 99 98 98 98 95 97 98 92 98 -209 101 103 -193 -193 -177 768 -193 -193 -193 122 -209 -177 266 -193 122 121 122 123 -209 127 131 132 135 136 139 139 143 141 148 143 144 145 144 143 143 142 144 140 144 146 -193 -193 151 154 154 158 160 174 175 177 178 177 177 177 177 178 177 177 175 173 182 183 184 185 185 187 188 190 195 198 201 202 204 0 0 0 0 0
    0 0 0 0 0 0 0 0 0 0 0 0 0 0 0 0 0 0 0 0 0 0 0 0 0 0 0 0 0 0 0 0 0 0 0 0 0 0 0 0 0 0 0 0 0 0 0 0 0 0 0 0 0 0 0 0 0 0 0 0 0 0 0 0 0 0 0 0 0 46 47 46 45 45 44 44 44 43 44 41 39 39 40 40 38 33 -209 -209 -193 -193 0 0 0 0 0 0 0 0 0 0 0 0 0 10 10 12 10 12 9 0 0 0 0 0 0 0 0 0 0 0 0 9 10 10 10 11 10 11 10 11 10 10 10 11 10 10 14 12 13 13 12 12 13 12 14 11 12 12 11 12 12 11 13 12 11 11 13 12 11 12 12 12 12 13 14 13 14 14 12 13 14 13 12 12 12 12 12 12 11 11 12 11 12 10 15 22 37 32 36 39 42 45 46 45 45 42 51 51 50 49 49 51 -193 51 52 49 55 55 -193 -209 -177 -209 -209 -209 -193 81 76 84 82 81 -193 -193 -177 -193 88 88 88 94 96 96 99 93 98 99 97 98 95 96 99 93 98 -209 101 103 -193 -193 767 766 -193 -193 -193 121 -209 -177 267 -193 122 121 122 122 892 126 130 130 134 135 138 -193 143 141 148 143 144 145 144 143 142 141 142 139 142 145 -177 -193 151 153 154 159 159 174 176 178 179 178 178 178 178 179 178 178 176 173 183 184 185 187 188 190 192 193 196 199 201 202 203 0 0 0 0 0
    0 0 0 0 0 0 0 0 0 0 0 0 0 0 0 0 0 0 0 0 0 0 0 0 0 0 0 0 0 0 0 0 0 0 0 0 0 0 0 0 0 0 0 0 0 0 0 0 0 0 0 0 0 0 0 0 0 0 0 0 0 0 0 0 0 0 0 0 0 45 46 46 45 45 44 44 43 43 43 41 38 39 39 37 36 31 -209 -209 -193 -193 0 0 0 0 0 0 0 0 0 0 0 9 0 9 10 12 11 13 10 10 0 9 0 0 0 0 0 0 0 0 0 10 11 11 10 11 10 11 10 10 9 9 9 10 9 10 14 12 12 13 12 12 13 12 13 12 12 12 12 12 12 11 13 12 11 11 13 11 11 12 12 12 12 13 14 13 14 14 12 13 14 13 12 12 12 11 12 12 11 11 12 12 11 10 15 22 37 31 34 38 41 44 45 45 44 42 50 52 51 49 49 52 -177 52 52 49 53 54 54 -209 -177 -209 -209 -209 -193 83 79 84 82 81 81 83 -177 -193 87 87 87 92 95 95 98 93 97 99 97 97 96 96 99 93 98 -193 101 103 -193 -193 767 766 -193 -193 -193 119 -209 267 267 267 -193 122 122 123 893 126 130 129 132 134 137 139 142 142 148 144 144 145 144 142 142 141 141 139 141 143 -177 -209 150 152 152 159 158 172 176 176 178 177 177 177 177 178 178 177 176 172 183 184 185 188 188 191 192 194 196 198 200 202 202 0 0 0 0 0
    0 0 0 0 0 0 0 0 0 0 0 0 0 0 0 0 0 0 0 0 0 0 0 0 0 0 0 0 0 0 0 0 0 0 0 0 0 0 0 0 0 0 0 0 0 0 0 0 0 0 0 0 0 0 0 0 0 0 0 0 0 0 0 0 0 0 0 0 0 45 46 47 45 46 44 44 44 43 44 42 39 39 37 35 35 30 -209 -193 12 -193 0 0 0 0 0 0 0 0 0 0 0 10 9 10 10 12 13 14 12 11 9 10 9 9 0 9 0 0 0 10 9 11 11 11 10 11 10 11 9 10 10 9 10 10 9 10 13 12 12 13 12 12 12 12 13 12 12 12 12 12 12 11 13 12 12 11 13 11 11 12 12 11 12 12 13 12 13 13 12 12 13 13 12 13 12 12 12 12 11 11 12 12 11 11 15 22 36 30 32 36 40 43 44 44 43 41 50 52 51 49 49 52 212 -193 51 49 51 53 54 -193 150 -177 -209 -209 81 83 79 84 82 81 81 83 -177 86 86 86 86 91 94 94 97 93 97 99 98 98 96 96 99 93 98 -177 100 104 -193 -177 766 765 -193 -193 -193 118 -209 266 267 -193 122 122 122 123 -193 126 130 128 132 133 136 138 141 142 147 144 144 145 143 142 141 140 140 139 139 143 -177 -209 -193 -209 -193 160 -209 172 176 175 177 175 175 175 175 177 178 176 176 172 182 183 184 187 188 191 192 195 197 199 200 202 201 0 0 0 0 0
    0 0 0 0 0 0 0 0 0 0 0 0 0 0 0 0 0 0 0 0 0 0 0 0 0 0 0 0 0 0 0 0 0 0 0 0 0 0 0 0 0 0 0 0 0 0 0 0 0 0 0 0 0 0 0 0 0 0 0 0 0 0 0 0 0 0 0 0 0 45 45 47 45 46 44 44 44 43 44 43 40 40 38 36 37 32 -193 -193 13 13 0 9 0 0 0 9 9 0 0 9 9 11 10 12 12 14 14 16 14 12 11 11 10 10 10 10 0 9 10 13 10 11 12 11 10 11 11 11 9 10 10 10 10 11 11 11 13 12 12 13 12 12 13 12 13 12 12 12 12 12 12 11 13 12 12 12 13 12 11 12 12 12 12 12 13 12 13 13 12 12 13 13 12 13 12 12 12 12 11 11 12 13 12 11 15 21 34 29 30 35 40 42 43 43 42 41 49 53 51 49 49 52 212 -193 51 49 -177 52 -193 -193 151 149 148 152 -193 82 79 83 82 82 82 83 -177 86 86 86 85 90 93 93 96 93 96 100 98 98 97 96 100 94 98 -177 -193 -193 -209 -177 -193 764 -193 -193 -193 117 -193 266 267 -193 -193 122 122 124 -193 125 130 128 132 -193 136 138 140 142 146 144 144 145 143 142 141 140 140 139 139 142 -177 -193 -193 -209 -193 -209 -209 173 177 174 176 174 174 174 174 176 177 175 176 171 182 184 185 188 189 191 192 194 196 199 200 201 201 0 0 0 0 0
    0 0 0 0 0 0 0 0 0 0 0 0 0 0 0 0 0 0 0 0 0 0 0 0 0 0 0 0 0 0 0 0 0 0 0 0 0 0 0 0 0 0 0 0 0 0 0 0 0 0 0 0 0 0 0 0 0 0 0 0 0 0 0 0 0 0 0 0 0 44 45 48 45 46 44 44 44 43 44 43 41 41 39 38 39 35 37 -209 15 15 9 10 0 0 0 10 11 0 9 11 11 13 -193 14 12 14 14 16 14 13 12 13 11 11 11 12 10 11 12 14 11 11 12 12 11 11 10 10 9 10 10 10 10 11 12 12 13 12 12 13 12 12 13 12 12 12 12 12 12 12 12 11 13 12 11 12 12 11 11 12 12 11 12 12 13 13 13 13 12 12 13 13 12 13 12 11 12 11 11 10 11 12 11 11 14 21 36 29 30 34 39 41 42 41 41 40 47 53 51 49 49 52 -193 -193 50 49 46 50 -193 -209 152 151 149 153 -193 81 79 83 82 82 82 83 -177 85 85 85 85 -193 -193 92 96 93 96 100 98 98 98 97 100 -193 -193 -177 -193 -193 -209 -177 -193 764 -193 -193 109 116 119 266 267 267 -193 122 -193 123 -193 125 130 128 132 -193 136 138 140 142 145 144 144 145 143 142 141 140 139 139 138 141 -193 -193 -193 191 194 196 190 176 177 173 174 173 173 173 173 174 176 175 176 172 183 184 185 187 188 190 190 193 196 198 200 200 201 0 0 0 0 0
    0 0 0 0 0 0 0 0 0 0 0 0 0 0 0 0 0 0 0 0 0 0 0 0 0 0 0 0 0 0 0 0 0 0 0 0 0 0 0 0 0 0 0 0 0 0 0 0 0 0 0 0 0 0 0 0 0 0 0 0 0 0 0 0 0 0 0 0 0 45 45 48 45 46 45 44 44 44 44 43 41 41 41 39 40 37 39 -209 -193 19 11 11 0 9 9 11 12 -193 -193 13 14 14 -193 14 13 14 14 15 13 13 12 13 12 12 12 13 11 12 13 16 12 12 13 12 11 11 11 10 0 9 9 9 10 11 12 13 13 13 13 13 12 12 13 12 12 11 11 12 11 12 12 10 12 11 11 11 12 11 11 12 12 11 12 12 13 13 13 13 12 12 13 12 12 13 12 11 11 11 11 10 11 12 11 10 12 21 37 29 31 34 39 40 41 40 40 40 46 54 51 49 -193 52 -193 -193 50 49 44 -193 -193 -209 152 151 148 153 -193 81 79 82 82 82 82 83 -193 86 86 86 85 89 -193 92 96 -193 96 101 99 99 99 97 101 -193 -193 -177 -193 -193 -193 -177 -193 764 -193 -193 109 114 119 266 267 267 -193 -209 -193 123 123 124 129 128 132 -193 135 138 140 142 144 145 143 144 142 141 140 140 139 138 137 -177 198 198 195 192 193 196 191 177 176 172 173 172 172 172 172 173 175 175 175 172 183 184 185 187 188 190 190 194 196 198 200 201 202 0 0 0 0 0
    0 0 0 0 0 0 0 0 0 0 0 0 0 0 0 0 0 0 0 0 0 0 0 0 0 0 0 0 0 0 0 0 0 0 0 0 0 0 0 0 0 0 0 0 0 0 0 0 0 0 0 0 0 0 0 0 0 0 0 0 0 0 0 0 0 0 0 0 0 45 46 49 46 46 45 45 44 44 44 44 42 42 42 41 41 39 40 -209 -209 -209 13 13 9 10 10 13 14 -193 -193 16 16 -193 -209 17 16 15 14 14 13 13 12 14 12 13 14 15 13 14 15 17 13 14 14 13 11 12 11 10 9 9 9 9 9 12 13 14 14 13 13 14 12 12 12 11 11 11 11 11 11 12 12 11 12 11 11 11 12 11 11 12 12 12 12 13 13 13 14 13 12 13 13 12 12 13 12 11 11 10 10 10 10 11 9 0 9 21 -177 29 31 35 38 40 40 40 40 39 46 54 51 49 -193 52 -193 -193 50 49 43 45 -193 -209 -177 -177 147 153 -193 80 78 81 83 83 83 83 -193 86 86 86 86 88 -177 92 96 -177 96 102 100 100 100 98 102 -193 -193 -177 -193 -193 -193 -177 -209 764 765 -193 109 112 118 267 267 267 -177 -209 -193 122 123 -193 128 128 131 132 134 137 139 142 143 145 143 144 142 141 139 140 138 138 136 -177 198 199 197 193 193 198 190 175 175 172 172 171 171 171 171 173 175 174 175 172 183 185 186 188 189 190 192 195 196 198 200 201 201 0 0 0 0 0
    0 0 0 0 0 0 0 0 0 0 0 0 0 0 0 0 0 0 0 0 0 0 0 0 0 0 0 0 0 0 0 0 0 0 0 0 0 0 0 0 0 0 0 0 0 0 0 0 0 0 0 0 0 0 0 0 0 0 0 0 0 0 0 0 0 0 0 0 0 45 46 50 46 46 46 45 45 44 45 45 42 43 43 42 42 -193 42 -193 -209 -209 -193 18 -193 11 12 15 17 -193 -193 19 20 -209 -209 19 19 16 16 14 14 13 13 14 13 13 15 16 14 16 17 18 15 15 14 14 12 13 11 10 9 9 9 10 9 12 13 14 13 13 13 13 12 12 12 11 11 11 11 12 11 13 13 12 14 12 12 12 12 11 11 12 11 11 12 12 12 12 14 13 12 12 12 12 11 12 11 10 10 9 9 0 9 9 0 0 -177 20 36 29 31 35 38 39 40 40 40 39 45 54 50 48 -193 50 50 -193 49 48 43 44 -193 -193 -177 -177 147 153 79 79 78 80 83 83 83 82 84 86 86 86 86 87 -177 92 94 -193 96 101 100 100 100 99 103 -193 -193 -177 -209 -177 -177 -177 -209 764 765 -193 108 110 117 267 267 267 -193 -193 -193 -193 123 -193 127 127 130 130 132 -193 138 142 142 145 143 144 142 141 140 140 138 -177 -177 -177 198 199 197 193 -193 -209 188 173 175 173 172 171 171 171 171 173 175 174 175 173 184 185 186 189 189 190 192 194 195 197 198 200 200 0 0 0 0 0
    0 0 0 0 0 0 0 0 0 0 0 0 0 0 0 0 0 0 0 0 0 0 0 0 0 0 0 0 0 0 0 0 0 0 0 0 0 0 0 0 0 0 0 0 0 0 0 0 0 0 0 0 0 0 0 0 0 0 0 0 0 0 0 0 0 0 0 0 0 45 46 50 46 47 46 46 45 45 45 45 43 44 44 43 43 42 42 42 -209 -209 -209 -193 -209 14 14 15 17 14 -193 20 -209 -209 -209 21 20 17 17 16 15 14 14 15 14 14 15 16 15 18 19 19 18 18 17 16 15 15 12 11 9 9 9 9 9 12 12 14 12 12 12 12 12 11 11 11 11 12 12 12 12 13 14 13 15 12 12 12 12 10 11 11 11 10 12 12 12 12 13 13 11 12 11 11 10 12 11 10 9 9 0 0 9 9 0 0 -177 20 34 29 31 35 39 39 40 40 40 39 44 53 49 47 47 49 50 48 48 48 42 44 47 -193 -177 -177 -209 -177 79 78 78 80 84 83 83 82 85 -193 87 87 87 -193 -177 92 94 -193 96 101 100 100 101 99 103 -193 -209 -209 -209 326 -177 -177 -209 -177 -177 -193 108 109 116 -193 -193 -193 -177 -193 -193 -193 122 -193 125 126 129 130 132 -193 138 142 142 145 143 144 142 141 140 140 138 139 136 -177 199 199 197 193 191 -209 -209 171 174 172 172 171 171 171 171 173 175 175 176 173 183 184 185 187 187 188 190 193 194 196 197 200 199 0 0 0 0 0
    0 0 0 0 0 0 0 0 0 0 0 0 0 0 0 0 0 0 0 0 0 0 0 0 0 0 0 0 0 0 0 0 0 0 0 0 0 0 0 0 0 0 0 0 0 0 0 0 0 0 0 0 0 0 0 0 0 0 0 0 0 0 0 0 0 0 0 0 0 46 46 50 46 47 47 46 46 45 46 46 43 44 45 43 43 43 42 42 -193 -209 -209 -209 -209 16 16 15 17 14 18 -193 -209 -209 -209 21 20 17 18 16 16 15 15 16 14 14 17 17 16 19 19 20 19 19 18 18 17 16 13 12 10 9 0 9 9 12 12 14 12 12 11 12 12 12 11 11 11 12 13 13 13 13 15 13 15 12 12 12 12 11 11 11 11 10 11 12 11 11 12 12 11 12 11 12 11 12 12 11 10 10 9 10 9 9 0 0 -177 20 32 28 30 35 39 40 40 40 40 40 43 53 48 46 46 48 49 47 47 47 42 44 47 -193 -209 -193 -209 -193 79 78 79 80 84 84 83 82 85 -177 -193 -193 -193 -193 -193 93 95 97 96 101 100 100 101 99 103 -193 -209 -209 -209 326 -177 -177 -193 -177 -177 -193 -193 108 115 -193 -193 -193 -177 -193 -193 -209 -193 -209 125 126 129 131 133 135 138 141 141 145 143 144 142 141 140 140 138 139 136 138 -177 -177 197 -193 -193 -209 -209 168 172 171 171 171 171 171 171 172 175 176 176 175 183 184 184 186 186 187 188 191 193 195 197 199 199 0 0 0 0 0
    0 0 0 0 0 0 0 0 0 0 0 0 0 0 0 0 0 0 0 0 0 0 0 0 0 0 0 0 0 0 0 0 0 0 0 0 0 0 0 0 0 0 0 0 0 0 0 0 0 0 0 0 0 0 0 0 0 0 0 0 0 0 0 0 0 0 0 0 0 46 47 51 46 47 48 47 46 45 46 46 44 45 47 43 43 43 43 43 42 -209 -209 -193 -209 -193 19 17 18 15 19 -193 -209 -209 -193 21 20 18 18 17 16 16 16 17 15 15 18 19 18 20 20 21 20 20 20 19 18 17 13 12 11 10 10 11 10 13 13 14 12 12 12 13 12 12 11 12 12 13 14 14 13 14 15 14 16 12 13 12 12 12 12 11 11 11 12 12 11 12 12 12 12 12 11 12 12 13 12 12 11 10 10 11 9 9 9 9 9 19 29 28 30 35 39 40 41 41 41 41 43 52 47 45 45 47 48 46 46 46 41 42 46 -193 -193 -209 -209 -193 79 77 79 80 84 83 82 82 85 -177 -193 -193 -193 -193 -193 94 96 98 96 101 100 100 101 99 103 -193 -193 -209 -209 326 -177 -193 -193 -177 -193 -193 -193 -193 -193 -193 -193 117 -177 -193 115 -193 -193 -193 -193 125 128 131 133 135 138 141 141 145 142 143 142 141 140 140 138 138 135 137 -177 199 196 -193 -209 164 167 168 170 171 171 171 172 172 172 173 176 177 177 176 184 184 185 185 186 187 187 190 190 192 194 197 198 0 0 0 0 0
    0 0 0 0 0 0 0 0 0 0 0 0 0 0 0 0 0 0 0 0 0 0 0 0 0 0 0 0 0 0 0 0 0 0 0 0 0 0 0 0 0 0 0 0 0 0 0 0 0 0 0 0 0 0 0 0 0 0 0 0 0 0 0 0 0 0 0 0 0 47 47 51 47 47 48 47 46 45 46 46 44 45 47 44 44 45 44 44 43 42 -209 -193 -209 -193 20 18 18 15 19 20 -193 21 21 21 20 18 18 18 16 17 16 17 16 16 19 19 18 20 20 20 20 20 19 18 17 15 13 11 11 10 10 11 11 13 13 13 12 12 12 13 13 13 11 12 12 13 14 14 13 14 15 14 16 12 12 12 12 12 12 12 12 11 12 13 12 13 13 12 13 13 12 13 12 13 12 13 12 11 10 11 10 9 10 9 9 18 28 28 30 35 40 41 41 41 41 41 43 51 46 44 44 45 47 45 45 44 40 42 45 -193 -193 -193 -177 -209 -193 77 78 79 84 83 82 81 84 -177 -193 -193 -193 -193 -193 94 96 98 96 101 99 100 100 99 103 101 -193 -193 -193 326 -177 -209 -193 -193 -193 -209 -209 -209 -209 -193 114 115 -177 -193 113 -193 -193 -193 -193 124 -193 -193 133 -193 139 142 141 145 142 143 142 141 140 140 138 138 135 136 -209 198 193 -209 -209 162 166 167 169 170 171 172 172 172 172 173 176 177 178 177 185 186 185 186 186 187 187 190 190 192 -193 198 199 0 0 0 0 0
    0 0 0 0 0 0 0 0 0 0 0 0 0 0 0 0 0 0 0 0 0 0 0 0 0 0 0 0 0 0 0 0 0 0 0 0 0 0 0 0 0 0 0 0 0 0 0 0 0 0 0 0 0 0 0 0 0 0 0 0 0 0 0 0 0 0 0 0 0 47 47 51 47 47 48 47 46 45 46 46 44 44 47 44 44 45 44 45 44 43 -193 -193 -209 -193 21 18 17 16 18 20 20 21 21 21 20 19 18 18 16 17 17 17 17 17 19 19 18 20 20 20 20 19 19 17 16 15 13 12 11 10 10 11 10 13 13 13 13 12 13 13 13 14 12 12 12 13 14 14 13 13 14 14 16 13 13 12 13 12 13 12 12 12 13 13 13 13 13 13 13 12 12 13 12 12 12 13 11 11 11 11 10 10 10 10 9 17 25 27 29 34 39 40 41 41 41 41 42 49 44 42 43 43 46 44 44 43 39 42 45 50 -193 -193 -193 -193 -193 76 78 79 83 82 81 80 83 -177 -193 -193 -193 -193 -193 94 96 99 96 100 99 100 100 99 103 100 -193 98 96 325 -177 -193 -193 932 -193 -193 -209 -209 -209 112 113 114 -193 -193 112 -193 112 -193 -209 124 -193 -193 134 -193 140 143 141 146 142 142 142 141 140 139 138 137 134 135 -193 196 -177 -209 -209 160 166 167 169 170 172 172 173 173 173 173 176 177 178 178 185 187 186 187 187 187 188 191 -193 -193 -193 -193 200 0 0 0 0 0
    0 0 0 0 0 0 0 0 0 0 0 0 0 0 0 0 0 0 0 0 0 0 0 0 0 0 0 0 0 0 0 0 0 0 0 0 0 0 0 0 0 0 0 0 0 0 0 0 0 0 0 0 0 0 0 0 0 0 0 0 0 0 0 0 0 0 0 0 0 47 47 51 47 47 49 47 46 45 46 46 44 44 47 44 43 45 44 45 44 43 -193 -193 -209 -209 21 18 16 15 16 19 19 21 20 20 19 18 18 18 16 17 17 17 18 17 20 20 19 21 20 20 20 19 19 16 16 14 12 11 11 10 10 11 10 13 13 13 13 13 13 14 14 14 12 13 13 13 14 14 13 13 15 15 16 14 14 13 13 13 13 12 13 12 13 13 13 13 13 12 13 12 12 13 12 12 12 13 12 11 11 11 10 10 10 10 10 16 22 26 27 32 38 40 41 41 41 41 41 47 44 42 42 -193 46 44 44 43 40 42 45 49 -209 -193 -209 -193 -193 76 78 79 82 81 80 80 83 388 -193 87 -209 -193 -193 94 95 99 95 100 99 99 100 99 102 100 94 98 95 325 -177 -193 -193 931 93 -193 -193 -193 -193 112 112 114 -193 -193 113 -193 111 105 -209 123 -193 -193 -193 -209 141 143 142 146 142 142 142 140 140 139 137 136 131 132 129 193 -193 -209 -209 159 165 167 169 171 172 173 174 174 174 174 177 177 177 178 186 187 187 187 187 188 188 191 -193 -193 -193 -193 201 0 0 0 0 0
    0 0 0 0 0 0 0 0 0 0 0 0 0 0 0 0 0 0 0 0 0 0 0 0 0 0 0 0 0 0 0 0 0 0 0 0 0 0 0 0 0 0 0 0 0 0 0 0 0 0 0 0 0 0 0 0 0 0 0 0 0 0 0 0 0 0 0 0 0 47 47 51 47 47 49 47 46 45 46 46 43 44 47 44 43 45 44 44 43 42 -193 -193 -209 -209 21 16 14 13 14 17 17 19 19 19 19 17 17 17 16 17 17 17 18 17 20 20 19 20 20 20 20 18 18 16 15 13 12 11 11 10 10 11 10 12 13 13 13 13 13 14 14 14 12 14 13 14 15 15 14 13 16 16 17 15 15 14 14 14 14 12 13 12 12 13 13 12 12 12 13 12 12 13 12 12 12 13 12 12 11 11 10 11 11 11 10 15 21 24 26 31 38 39 41 41 41 41 40 45 44 42 42 43 46 44 44 43 41 42 45 50 -209 -177 -177 -193 -177 76 78 78 81 81 80 79 82 -177 86 86 87 87 -193 93 94 98 95 99 98 99 99 98 101 100 95 99 96 -177 -177 -193 -193 931 92 -193 -193 -193 -193 112 112 114 -193 -193 113 -193 111 106 -209 122 -193 -193 -209 -209 141 143 142 146 142 142 141 140 140 138 -193 -193 128 129 125 191 -209 -209 -209 159 164 167 169 171 172 173 175 175 175 175 177 177 177 178 185 187 187 187 187 188 188 192 -193 -193 -193 -193 200 0 0 0 0 0
    0 0 0 0 0 0 0 0 0 0 0 0 0 0 0 0 0 0 0 0 0 0 0 0 0 0 0 0 0 0 0 0 0 0 0 0 0 0 0 0 0 0 0 0 0 0 0 0 0 0 0 0 0 0 0 0 0 0 0 0 0 0 0 0 0 0 0 0 0 47 47 51 47 47 49 47 46 44 45 45 43 44 47 43 43 45 44 44 43 42 -209 34 -209 -209 21 13 13 12 12 15 15 17 18 18 18 17 17 18 17 17 17 16 18 17 20 19 19 20 20 19 19 17 17 15 14 13 12 11 11 10 10 11 10 12 12 12 13 12 12 13 14 14 12 15 14 14 15 15 14 14 17 17 17 16 16 16 15 15 15 13 14 12 13 13 13 13 12 12 13 11 11 13 12 12 12 13 12 12 12 12 11 12 11 11 11 15 20 23 25 29 38 39 41 41 41 41 40 44 44 42 42 43 46 43 43 43 41 42 45 50 -209 -177 -177 -177 -177 75 77 78 80 80 80 79 82 84 85 85 86 86 -193 -177 93 97 94 98 97 97 98 97 100 100 95 100 98 324 325 -193 -177 929 -193 -193 -177 -193 -177 112 112 113 113 -193 112 108 -193 106 103 -193 -209 -193 -209 136 144 144 143 145 142 141 141 139 139 138 -209 -193 125 125 -209 -193 -193 -209 -209 158 162 166 168 171 171 173 175 175 175 175 177 177 176 177 184 185 185 185 186 186 -193 190 -193 -193 -193 -193 200 0 0 0 0 0
    0 0 0 0 0 0 0 0 0 0 0 0 0 0 0 0 0 0 0 0 0 0 0 0 0 0 0 0 0 0 0 0 0 0 0 0 0 0 0 0 0 0 0 0 0 0 0 0 0 0 0 0 0 0 0 0 0 0 0 0 0 0 0 0 0 0 0 0 0 47 47 51 47 47 48 47 46 44 45 45 43 44 47 43 43 45 44 44 43 41 -209 33 -209 -193 20 13 12 12 12 14 14 16 17 17 17 17 17 18 17 17 18 16 19 18 20 19 19 19 19 19 19 16 16 14 13 12 11 11 10 10 10 10 10 11 11 11 12 12 12 13 13 13 13 15 14 14 15 15 14 15 17 19 17 18 18 18 17 17 17 14 15 13 13 13 12 13 12 11 13 11 11 14 12 13 13 14 13 12 13 13 11 12 11 11 11 14 20 22 24 27 36 39 40 41 41 41 39 43 44 42 42 43 46 43 43 43 42 42 46 51 -193 -177 -177 -177 163 -193 76 78 80 80 80 79 81 83 84 84 85 85 -193 92 92 96 93 98 97 97 97 97 99 99 -193 -193 -193 324 325 -193 -193 -177 -193 -193 -193 -193 -177 111 111 112 113 -193 111 107 -193 106 106 112 107 -209 -209 135 144 142 142 143 142 141 140 139 139 -193 -193 -193 -209 -209 -209 -209 642 -193 -209 155 158 163 166 169 171 173 176 176 176 176 177 177 176 177 183 185 184 184 185 186 -209 -193 -193 -193 -193 -193 201 0 0 0 0 0
    0 0 0 0 0 0 0 0 0 0 0 0 0 0 0 0 0 0 0 0 0 0 0 0 0 0 0 0 0 0 0 0 0 0 0 0 0 0 0 0 0 0 0 0 0 0 0 0 0 0 0 0 0 0 0 0 0 0 0 0 0 0 0 0 0 0 0 0 0 47 47 50 47 46 48 47 45 44 44 44 43 44 47 43 42 44 44 44 43 41 -209 -193 -209 20 19 13 12 12 12 14 13 15 15 16 16 16 16 17 16 17 18 16 19 19 20 20 20 19 19 18 18 16 16 14 13 12 12 11 11 10 10 10 10 11 11 11 12 12 12 14 13 13 13 15 14 14 15 15 14 15 18 20 18 20 20 20 19 19 19 16 16 14 14 14 13 13 13 12 12 11 11 14 12 13 12 14 13 12 13 13 11 12 11 11 10 14 19 22 24 26 35 38 40 41 42 41 39 43 45 43 43 44 45 43 43 43 43 42 47 52 51 -177 -177 -177 162 -193 76 77 79 80 80 80 82 83 84 84 84 84 88 91 91 95 92 97 97 97 97 97 98 99 -193 -193 -193 -177 -177 -193 -193 -193 -209 102 -209 -193 -193 110 110 111 112 -193 111 108 109 108 109 114 116 -193 -209 130 138 138 140 142 141 141 140 139 139 139 -193 637 -193 -177 -209 -209 639 -193 -209 155 156 161 164 168 170 173 176 176 176 176 177 177 175 176 182 184 184 185 186 186 187 -193 -193 -193 -209 202 203 0 0 0 0 0
    0 0 0 0 0 0 0 0 0 0 0 0 0 0 0 0 0 0 0 0 0 0 0 0 0 0 0 0 0 0 0 0 0 0 0 0 0 0 0 0 0 0 0 0 0 0 0 0 0 0 0 0 0 0 0 0 0 0 0 0 0 0 0 0 0 0 0 0 0 47 46 50 46 46 47 46 45 43 44 44 42 44 46 42 42 44 43 44 43 41 -193 -209 -209 20 18 13 12 11 11 13 13 15 15 15 16 16 16 17 15 16 18 16 20 19 20 19 20 19 19 18 18 16 16 14 13 12 12 11 11 11 10 10 10 11 11 11 12 12 12 14 13 13 13 15 14 14 15 15 15 17 19 21 19 21 21 21 20 20 20 17 16 15 14 14 13 14 13 12 12 11 10 14 12 13 12 13 12 12 13 12 11 12 11 11 11 13 18 22 24 25 32 37 39 40 41 41 39 42 46 44 43 44 46 43 44 43 43 42 46 51 50 -177 -193 158 160 -193 76 77 79 80 81 80 82 83 83 83 84 84 87 90 90 94 92 97 97 97 97 98 98 100 -193 -177 -193 -193 -177 -193 -193 -193 -209 -193 -193 -193 -193 111 110 111 111 111 111 109 110 110 111 114 116 -177 -209 127 135 137 139 141 140 141 140 139 140 140 -193 -193 -177 -193 -209 -193 -193 -193 -193 156 156 160 163 168 170 173 176 176 176 176 177 176 174 175 180 184 184 184 185 185 -193 -193 -193 -193 -209 203 205 0 0 0 0 0
    0 0 0 0 0 0 0 0 0 0 0 0 0 0 0 0 0 0 0 0 0 0 0 0 0 0 0 0 0 0 0 0 0 0 0 0 0 0 0 0 0 0 0 0 0 0 0 0 0 0 0 0 0 0 0 0 0 0 0 0 0 0 0 0 0 0 0 0 0 47 46 49 46 45 46 45 44 43 43 44 42 44 46 42 41 44 43 44 43 -193 -193 -209 -193 20 17 12 11 11 10 12 12 13 13 14 16 16 15 16 15 16 18 16 20 19 19 19 20 19 19 17 18 15 15 14 13 12 12 12 11 11 10 10 11 11 11 11 11 11 12 13 13 12 12 15 14 14 15 15 16 18 20 21 21 22 22 22 21 21 20 19 18 17 15 15 14 14 14 13 12 11 11 13 12 12 11 12 11 12 12 11 10 12 11 11 11 13 16 21 24 25 30 35 39 40 41 41 40 43 48 45 45 46 47 44 45 45 44 42 47 51 51 -193 -193 157 158 -193 76 77 79 80 81 81 82 83 83 83 83 83 86 89 89 92 91 97 97 97 97 98 98 100 -177 -177 -193 -193 -193 110 -193 -209 -193 108 111 109 110 112 111 112 112 112 111 110 111 112 113 114 -193 -177 -193 126 134 137 139 140 140 141 140 139 140 140 -193 -177 -177 -209 -209 -193 -193 -193 156 156 156 160 163 168 170 173 176 177 177 177 177 177 173 173 178 184 184 184 185 185 -193 -193 -193 83 -193 -193 207 0 0 0 0 0
    0 0 0 0 0 0 0 0 0 0 0 0 0 0 0 0 0 0 0 0 0 0 0 0 0 0 0 0 0 0 0 0 0 0 0 0 0 0 0 0 0 0 0 0 0 0 0 0 0 0 0 0 0 0 0 0 0 0 0 0 0 0 0 0 0 0 0 0 0 47 46 48 45 44 46 45 44 43 43 43 42 44 46 42 41 44 43 43 42 -193 -193 -193 -193 21 18 13 11 11 11 12 12 13 13 14 15 15 15 16 14 16 18 16 20 19 19 19 20 19 18 16 17 14 14 13 13 11 12 11 11 10 10 10 10 10 10 10 10 10 11 11 11 11 12 14 13 13 15 16 17 19 21 21 21 22 23 23 22 21 21 20 19 17 16 15 14 15 14 13 12 11 11 13 12 12 11 11 11 11 12 11 10 12 11 11 11 12 16 20 23 25 28 33 38 40 41 41 40 43 50 47 47 49 50 47 49 49 49 45 53 55 55 57 62 -193 -177 74 75 76 79 80 81 81 82 84 83 83 84 83 86 89 89 92 91 96 97 97 98 98 97 100 -193 -193 -193 110 112 113 111 109 110 110 112 110 111 112 112 112 113 113 112 112 113 114 115 -193 -193 -177 -209 127 134 137 139 139 139 141 140 139 -193 -193 -177 -177 -177 -209 -209 -209 -193 -193 156 157 157 160 163 168 171 173 176 177 177 177 177 176 173 173 178 184 184 185 186 186 188 -193 80 78 78 -193 206 0 0 0 0 0
    0 0 0 0 0 0 0 0 0 0 0 0 0 0 0 0 0 0 0 0 0 0 0 0 0 0 0 0 0 0 0 0 0 0 0 0 0 0 0 0 0 0 0 0 0 0 0 0 0 0 0 0 0 0 0 0 0 0 0 0 0 0 0 0 0 0 0 0 0 47 46 48 46 44 46 45 44 43 43 43 43 45 46 42 41 44 43 43 42 -193 -193 -193 -177 -193 18 13 11 11 10 11 11 12 12 13 13 13 12 13 12 14 17 16 19 19 19 19 20 19 17 15 16 12 12 12 12 11 11 10 10 9 9 10 9 9 9 9 10 9 10 11 11 11 11 14 14 13 15 17 18 20 22 22 21 23 23 23 22 21 21 20 19 18 17 15 15 15 14 13 12 12 12 13 12 13 12 12 11 11 11 11 10 12 10 11 10 12 16 19 22 24 26 31 37 39 40 40 40 43 50 48 49 51 52 51 53 53 53 51 57 58 58 59 61 69 -209 73 75 76 78 80 82 82 83 85 84 84 84 83 86 89 89 92 91 96 97 97 98 99 97 101 100 104 107 112 114 115 113 112 112 112 113 111 111 112 112 112 113 113 112 112 114 116 -193 -193 -193 -177 -193 129 135 137 139 139 139 140 139 138 -193 -193 -177 -177 -177 -209 -209 -209 -193 -193 157 157 157 160 163 168 172 173 176 177 177 177 177 177 173 172 177 184 184 185 187 187 189 -193 -193 76 75 -193 206 0 0 0 0 0
    0 0 0 0 0 0 0 0 0 0 0 0 0 0 0 0 0 0 0 0 0 0 0 0 0 0 0 0 0 0 0 0 0 0 0 0 0 0 0 0 0 0 0 0 0 0 0 0 0 0 0 0 0 0 0 0 0 0 0 0 0 0 0 0 0 0 0 0 0 48 46 48 46 44 45 45 44 43 43 43 43 45 46 43 42 44 43 43 42 -193 -193 -193 -177 -193 16 13 10 10 9 11 10 11 12 12 12 12 12 13 12 13 16 15 18 18 18 18 19 18 16 15 14 13 12 11 12 11 11 11 10 10 10 10 10 9 9 9 9 8 9 10 10 11 11 14 14 13 16 18 19 21 22 22 22 23 23 23 22 21 22 21 20 19 18 16 15 15 15 13 12 12 12 13 12 13 12 12 11 11 11 11 10 12 10 10 10 12 17 19 22 23 25 30 36 39 40 41 40 43 50 48 50 51 52 52 53 54 54 54 58 58 58 59 61 67 72 73 74 75 78 80 83 83 83 85 85 85 85 84 86 88 90 92 92 95 97 97 98 99 98 101 102 106 109 113 115 116 115 114 114 114 114 113 112 113 112 113 114 113 112 114 115 -193 -209 -193 -193 -177 -193 -193 136 137 139 139 139 141 139 139 141 -193 -177 -177 -193 -209 -209 -193 159 158 157 158 158 162 163 168 172 173 176 178 178 178 177 177 173 173 176 184 184 186 187 187 188 -193 -193 -193 73 -209 206 0 0 0 0 0
    0 0 0 0 0 0 0 0 0 0 0 0 0 0 0 0 0 0 0 0 0 0 0 0 0 0 0 0 0 0 0 0 0 0 0 0 0 0 0 0 0 0 0 0 0 0 0 0 0 0 0 0 0 0 0 0 0 0 0 0 0 0 0 0 0 0 0 0 0 48 46 48 46 44 45 44 44 43 43 43 43 44 46 43 41 44 44 43 43 41 40 -193 -193 -193 16 14 11 11 -193 11 11 12 12 13 12 12 11 13 12 13 15 15 18 18 18 18 19 18 17 15 14 13 12 11 12 11 11 11 11 10 10 10 10 9 9 9 9 0 9 10 10 11 11 13 13 12 15 17 19 21 22 22 22 23 23 23 22 22 22 21 20 19 18 16 15 15 15 13 13 12 12 13 13 14 12 12 12 11 11 11 10 11 10 10 10 12 18 19 22 23 25 28 34 38 40 40 41 43 50 50 52 52 53 53 55 55 56 56 59 59 58 59 60 66 71 72 74 74 77 80 84 83 83 86 86 86 86 86 87 88 91 92 92 95 97 98 98 99 99 101 102 105 108 111 114 116 115 115 115 115 115 114 114 115 114 115 115 115 114 116 117 -193 -209 -209 -193 -177 -193 -193 -193 138 140 139 139 141 140 140 141 143 143 149 149 -193 -209 156 158 158 158 158 159 162 164 169 173 173 175 178 178 178 177 178 174 173 177 183 184 186 187 186 188 -193 -193 -193 -193 -209 203 0 0 0 0 0
    0 0 0 0 0 0 0 0 0 0 0 0 0 0 0 0 0 0 0 0 0 0 0 0 0 0 0 0 0 0 0 0 0 0 0 0 0 0 0 0 0 0 0 0 0 0 0 0 0 0 0 0 0 0 0 0 0 0 0 0 0 0 0 0 0 0 0 0 0 49 47 48 46 43 45 44 43 43 42 43 43 44 45 43 41 44 44 44 43 41 41 -193 -193 -193 18 17 12 12 -193 11 11 13 13 13 11 12 11 14 12 13 17 17 19 20 20 20 20 19 18 16 14 13 12 11 12 11 11 11 10 10 10 11 11 9 9 9 9 0 9 10 10 10 11 12 12 12 15 16 19 20 21 22 21 22 22 23 22 21 21 21 20 19 19 16 15 15 15 13 13 12 12 13 13 14 12 12 12 10 11 11 9 11 9 10 10 11 18 19 22 23 24 27 31 36 39 40 40 43 49 51 53 53 54 55 56 56 57 58 60 59 59 60 61 66 70 72 74 74 77 80 85 83 83 86 87 87 87 86 87 89 92 93 94 95 98 98 99 100 99 100 102 104 107 110 112 115 114 114 115 115 115 114 114 115 114 116 116 116 116 118 118 122 -193 -193 -193 -177 -193 -193 -193 139 140 140 140 142 141 141 142 144 144 149 150 152 152 155 157 158 158 158 159 162 164 168 173 172 175 177 178 178 177 178 174 173 179 184 185 187 188 187 188 -193 -193 -193 -193 -209 200 0 0 0 0 0
    0 0 0 0 0 0 0 0 0 0 0 0 0 0 0 0 0 0 0 0 0 0 0 0 0 0 0 0 0 0 0 0 0 0 0 0 0 0 0 0 0 0 0 0 0 0 0 0 0 0 0 0 0 0 0 0 0 0 0 0 0 0 0 0 0 0 0 0 0 51 48 48 47 43 45 44 43 43 42 43 43 44 45 43 41 44 44 44 43 41 41 41 42 43 -193 21 15 13 -193 12 13 15 16 18 13 15 13 18 13 14 19 19 20 20 20 20 20 20 19 17 14 14 12 11 12 11 12 12 11 11 10 11 11 10 10 9 9 0 9 9 9 10 10 11 11 12 14 16 18 19 20 21 21 21 21 22 22 21 21 21 20 19 19 17 16 15 15 13 14 13 13 13 12 13 12 12 12 10 11 10 9 11 9 10 10 11 18 20 22 23 24 27 31 35 38 39 40 44 49 52 54 54 55 56 56 57 58 59 60 59 59 60 61 67 71 73 75 74 77 80 85 83 83 86 87 87 88 87 88 89 93 93 95 94 98 98 99 99 99 100 102 102 107 110 111 114 113 114 115 115 115 115 115 115 115 117 118 118 118 120 120 124 127 -193 -193 -193 -193 -193 -193 140 141 140 141 143 142 142 143 145 144 149 150 153 153 156 159 159 159 159 161 163 164 169 173 172 174 177 178 178 178 179 175 174 181 184 185 188 188 187 188 -193 -193 -193 65 -193 197 0 0 0 0 0
    0 0 0 0 0 0 0 0 0 0 0 0 0 0 0 0 0 0 0 0 0 0 0 0 0 0 0 0 0 0 0 0 0 0 0 0 0 0 0 0 0 0 0 0 0 0 0 0 0 0 0 0 0 0 0 0 0 0 0 0 0 0 0 0 0 0 0 0 0 52 49 49 48 43 45 44 44 43 42 43 43 44 45 43 42 44 44 44 43 42 42 42 42 44 -193 23 19 17 -193 -193 -193 -193 -193 -209 -209 -209 20 -193 17 15 19 20 20 20 20 20 20 20 19 18 15 14 11 11 12 11 12 11 11 11 10 11 11 10 10 9 9 0 9 9 9 10 10 10 11 11 13 15 18 18 19 19 20 20 20 21 21 20 21 20 21 19 20 17 16 15 15 13 14 13 13 13 12 13 12 12 12 10 10 10 9 11 10 11 10 12 19 19 22 23 24 26 29 32 35 37 39 44 49 52 55 55 56 57 57 58 58 59 61 59 59 61 61 67 70 72 75 74 77 80 86 84 83 86 88 88 89 88 89 90 93 93 95 93 97 98 99 99 99 100 102 101 106 108 109 111 111 113 114 115 115 115 115 117 117 120 121 121 120 123 124 128 132 133 -193 -193 138 139 140 142 142 141 142 143 142 142 143 145 145 150 152 155 154 157 161 161 162 162 163 165 167 170 173 172 174 176 177 178 177 179 175 174 183 184 185 187 187 187 187 189 -193 -193 -193 -193 193 0 0 0 0 0
    0 0 0 0 0 0 0 0 0 0 0 0 0 0 0 0 0 0 0 0 0 0 0 0 0 0 0 0 0 0 0 0 0 0 0 0 0 0 0 0 0 0 0 0 0 0 0 0 0 0 0 0 0 0 0 0 0 0 0 0 0 0 0 0 0 0 0 0 0 54 52 51 50 44 46 45 44 43 42 43 43 44 45 44 42 45 45 44 43 42 42 42 43 45 43 -209 -209 58 59 58 58 57 58 58 58 57 -209 -193 -193 19 21 21 21 20 20 20 20 19 19 18 15 14 11 10 11 10 12 11 10 10 10 11 11 10 10 9 9 9 9 9 9 10 10 10 11 11 13 15 17 16 19 18 19 19 20 20 20 20 20 20 21 19 20 17 16 15 15 13 15 13 14 13 13 14 13 12 12 10 11 10 10 11 10 11 10 13 21 21 23 24 25 27 30 32 34 36 39 45 47 52 56 56 57 58 58 58 59 60 61 58 59 61 61 66 68 71 74 74 76 79 86 85 84 87 90 89 90 90 90 90 93 94 96 92 97 97 99 99 99 99 102 101 105 107 108 110 110 112 112 114 115 115 116 117 118 122 123 124 124 126 129 132 134 135 136 138 139 140 141 142 143 141 143 144 142 142 144 146 148 152 154 156 155 158 162 162 162 163 164 166 168 171 174 173 174 176 177 178 177 179 175 175 184 185 187 189 190 189 189 191 195 191 -193 -193 190 0 0 0 0 0
    0 0 0 0 0 0 0 0 0 0 0 0 0 0 0 0 0 0 0 0 0 0 0 0 0 0 0 0 0 0 0 0 0 0 0 0 0 0 0 0 0 0 0 0 0 0 0 0 0 0 0 0 0 0 0 0 0 0 0 0 0 0 0 0 0 0 0 0 0 56 54 53 53 46 48 46 45 43 43 43 43 44 46 44 43 45 45 45 44 43 43 43 44 45 44 53 57 60 60 58 58 58 58 59 59 58 51 47 48 -193 23 23 23 22 21 21 21 20 20 19 14 13 11 10 11 10 12 11 10 11 10 12 11 10 10 9 9 9 9 9 9 10 11 10 11 11 12 14 15 15 17 17 18 17 18 19 19 19 20 19 20 18 19 16 15 14 14 13 15 13 13 13 13 14 13 13 13 10 11 11 10 12 11 11 10 16 23 23 24 25 25 28 29 30 31 33 39 44 47 51 55 56 57 58 58 59 59 60 62 59 59 61 61 64 65 69 74 73 75 79 86 86 86 88 91 90 91 91 91 91 93 94 96 92 96 96 98 99 99 99 102 101 105 106 108 109 109 111 111 114 115 114 116 118 119 123 125 127 127 129 132 134 136 136 137 139 140 141 143 143 144 142 144 145 143 144 145 148 150 153 156 157 156 159 162 162 162 163 165 167 169 172 173 173 174 176 176 178 176 179 176 176 184 185 188 190 190 189 189 191 197 193 -193 -193 190 0 0 0 0 0
    0 0 0 0 0 0 0 0 0 0 0 0 0 0 0 0 0 0 0 0 0 0 0 0 0 0 0 0 0 0 0 0 0 0 0 0 0 0 0 0 0 0 0 0 0 0 0 0 0 0 0 0 0 0 0 0 0 0 0 0 0 0 0 0 0 0 0 0 0 58 56 55 55 48 51 48 45 43 43 43 43 44 47 45 45 47 47 46 45 44 43 44 47 47 48 54 57 62 59 58 58 59 59 59 59 57 53 53 52 49 29 31 24 24 23 22 21 21 20 20 15 15 11 10 12 11 12 11 10 11 11 12 12 10 11 10 11 10 11 10 10 11 11 10 11 11 12 13 14 14 16 16 17 17 18 18 19 19 19 18 19 17 18 15 14 13 13 12 14 13 13 13 13 14 13 13 14 10 12 13 11 13 11 12 11 20 28 25 25 26 26 28 29 29 30 31 38 44 47 51 56 56 57 58 58 58 59 60 60 57 58 59 58 61 65 69 75 75 77 80 87 87 87 88 92 90 91 91 91 91 92 94 95 91 95 96 97 98 100 98 101 100 -193 -193 108 108 109 110 111 114 115 115 117 118 120 124 125 128 128 130 133 135 136 136 138 139 140 142 143 143 144 142 145 145 145 145 146 149 152 155 158 158 157 160 162 163 163 164 166 169 171 173 174 174 175 176 176 178 176 180 179 178 184 184 186 187 187 186 186 188 194 -193 -193 -193 190 0 0 0 0 0
    0 0 0 0 0 0 0 0 0 0 0 0 0 0 0 0 0 0 0 0 0 0 0 0 0 0 0 0 0 0 0 0 0 0 0 0 0 0 0 0 0 0 0 0 0 0 0 0 0 0 0 0 0 0 0 0 0 0 0 0 0 0 0 0 0 0 0 0 0 59 58 57 57 53 55 52 45 43 44 44 44 46 50 47 49 50 51 48 46 46 46 48 52 50 53 55 58 65 59 58 58 59 59 59 59 57 53 54 53 50 42 41 28 25 24 22 21 21 21 20 14 15 12 10 12 11 12 11 11 11 12 13 12 11 12 11 12 12 12 11 11 12 12 11 11 12 12 12 13 13 15 14 17 17 18 18 19 19 19 17 19 16 16 14 13 13 13 12 14 12 13 14 13 14 13 13 14 10 12 15 11 15 13 16 16 23 36 29 26 28 28 29 30 30 31 32 39 45 48 52 56 57 57 58 57 57 58 59 59 56 56 57 57 59 64 70 77 78 77 79 86 87 87 88 91 90 90 91 91 91 92 93 95 91 94 95 96 98 99 98 100 99 -193 -193 107 107 108 110 111 114 116 116 119 119 120 124 125 128 129 130 133 135 137 136 138 139 140 142 143 144 144 142 146 146 146 146 147 149 152 155 160 158 157 160 162 162 163 165 167 170 171 173 174 174 175 177 177 179 177 180 180 180 183 183 182 182 182 182 184 187 194 -193 -193 -193 191 0 0 0 0 0
    0 0 0 0 0 0 0 0 0 0 0 0 0 0 0 0 0 0 0 0 0 0 0 0 0 0 0 0 0 0 0 0 0 0 0 0 0 0 0 0 0 0 0 0 0 0 0 0 0 0 0 0 0 0 0 0 0 0 0 0 0 0 0 0 0 0 0 0 0 61 60 60 60 59 60 61 -209 45 49 46 48 50 52 51 53 53 53 51 50 50 51 54 56 55 57 58 59 67 59 58 58 60 60 60 59 58 55 56 56 52 44 42 39 28 26 23 21 21 20 19 15 15 12 11 13 12 12 11 11 11 12 13 12 11 12 11 12 12 12 11 11 12 12 11 12 13 12 12 12 13 15 14 17 16 17 18 19 19 19 17 19 15 16 14 13 13 13 12 14 12 13 13 12 13 13 12 12 10 11 15 10 12 12 11 15 23 37 31 27 29 29 30 30 30 32 33 39 46 49 52 55 57 57 58 58 58 58 59 60 57 57 58 58 59 63 70 77 80 78 79 86 88 88 88 91 89 90 91 91 91 91 91 93 90 93 94 93 96 97 96 98 95 101 -193 105 106 107 108 111 113 117 116 119 119 120 124 125 129 130 131 133 135 137 136 138 140 141 142 143 144 144 142 146 146 146 146 147 150 -193 155 162 158 156 158 159 161 162 164 167 170 172 173 174 174 175 177 176 178 177 179 179 178 180 180 181 181 181 181 185 187 193 -193 -193 -193 193 0 0 0 0 0
    0 0 0 0 0 0 0 0 0 0 0 0 0 0 0 0 0 0 0 0 0 0 0 0 0 0 0 0 0 0 0 0 0 0 0 0 0 0 0 0 0 0 0 0 0 0 0 0 0 0 0 0 0 0 0 0 0 0 0 0 0 0 0 0 0 0 0 0 0 62 61 60 60 60 63 67 71 71 70 59 59 56 55 53 54 53 53 52 51 51 52 55 57 56 58 58 59 66 59 58 59 60 61 60 59 59 56 57 57 53 46 43 42 33 28 24 22 21 20 18 15 16 13 12 14 12 13 12 11 12 12 13 12 11 13 11 12 13 12 11 11 12 13 11 12 14 13 13 13 14 16 15 19 17 18 19 19 19 19 18 19 14 17 14 14 14 13 13 14 12 12 12 12 12 12 11 10 9 10 13 9 10 10 9 11 23 37 33 28 30 30 30 31 31 32 33 39 46 49 51 55 56 57 57 58 58 58 59 60 58 57 59 59 59 62 70 78 83 79 80 86 89 89 89 91 89 89 91 91 91 89 90 91 89 91 91 91 93 94 93 94 91 94 99 101 100 102 105 107 109 113 -209 119 115 119 124 125 130 130 132 133 134 136 136 138 140 141 142 143 144 144 142 145 145 145 145 148 150 -193 153 161 156 154 157 157 159 160 164 167 170 172 173 174 175 176 177 177 179 178 179 178 178 178 178 179 180 180 180 184 -193 -193 -193 -193 -193 196 0 0 0 0 0
    0 0 0 0 0 0 0 0 0 0 0 0 0 0 0 0 0 0 0 0 0 0 0 0 0 0 0 0 0 0 0 0 0 0 0 0 0 0 0 0 0 0 0 0 0 0 0 0 0 0 0 0 0 0 0 0 0 0 0 0 0 0 0 0 0 0 0 0 0 61 61 60 59 58 61 65 69 71 70 62 62 58 56 55 55 54 54 53 52 52 53 56 58 57 59 60 60 67 61 59 61 62 63 61 60 61 58 58 58 55 53 48 48 37 33 23 21 21 20 18 16 16 14 12 14 13 13 12 12 12 13 14 12 11 13 11 12 12 12 11 11 12 13 12 13 14 13 14 15 16 19 16 20 18 20 20 20 20 19 18 20 15 18 14 15 14 14 14 14 13 12 12 12 12 12 12 10 10 10 11 10 10 10 10 11 23 37 33 29 31 32 32 32 32 33 33 39 46 50 51 54 56 57 58 58 58 58 59 60 59 57 58 58 58 60 69 78 85 80 80 86 90 90 90 92 89 89 91 91 90 88 88 89 86 90 90 89 90 91 91 91 90 87 -193 94 -209 -209 -209 -209 -209 -209 -193 121 116 119 127 125 130 130 133 133 134 136 136 138 140 141 142 143 144 144 142 145 146 145 146 149 151 -193 151 155 154 152 156 156 157 160 167 168 172 173 174 174 176 178 178 177 180 179 179 179 178 178 178 178 179 180 179 185 189 -193 -193 -193 -209 -193 0 0 0 0 0
    0 0 0 0 0 0 0 0 0 0 0 0 0 0 0 0 0 0 0 0 0 0 0 0 0 0 0 0 0 0 0 0 0 0 0 0 0 0 0 0 0 0 0 0 0 0 0 0 0 0 0 0 0 0 0 0 0 0 0 0 0 0 0 0 0 0 0 0 0 61 61 61 59 59 60 65 71 73 70 62 62 59 56 56 56 55 55 54 54 54 55 58 60 59 61 62 62 68 63 61 64 63 64 63 62 63 59 60 60 57 56 52 53 39 35 23 21 20 20 18 16 16 14 13 14 13 13 12 12 12 13 14 12 11 13 12 13 13 12 12 12 12 14 12 15 16 14 16 17 19 20 17 21 19 20 20 20 20 20 19 21 16 19 15 16 14 14 15 14 14 13 13 13 12 13 13 10 11 10 12 13 13 12 13 14 23 37 34 30 32 33 33 33 33 34 34 38 46 51 51 54 56 58 58 59 58 58 59 60 60 58 58 59 58 60 69 77 85 80 80 86 92 90 90 92 89 89 91 90 90 87 87 87 85 89 89 80 87 89 89 88 90 83 -193 -209 -209 -209 -209 -209 -209 -209 -209 118 111 118 -193 127 131 131 133 133 134 135 135 137 139 140 141 142 144 144 142 146 147 147 147 150 152 151 151 152 152 151 154 155 156 161 169 169 174 175 175 175 177 179 178 177 180 179 179 179 179 178 178 179 180 180 179 185 189 -193 -193 -193 -193 -209 0 0 0 0 0
    0 0 0 0 0 0 0 0 0 0 0 0 0 0 0 0 0 0 0 0 0 0 0 0 0 0 0 0 0 0 0 0 0 0 0 0 0 0 0 0 0 0 0 0 0 0 0 0 0 0 0 0 0 0 0 0 0 0 0 0 0 0 0 0 0 0 0 0 0 62 62 61 60 60 61 65 71 73 71 62 62 59 57 56 57 56 55 55 55 55 57 59 61 60 62 63 63 69 65 63 66 64 65 65 63 64 60 61 61 57 57 54 55 -193 37 23 21 21 20 19 17 16 15 14 15 14 13 13 13 13 14 14 12 12 14 13 13 13 13 12 12 13 15 13 16 17 16 18 19 20 21 18 21 20 21 21 21 20 20 19 21 17 19 15 17 15 14 15 14 15 14 13 13 11 13 12 10 11 9 10 11 13 12 14 16 23 35 34 31 32 33 34 34 34 35 35 38 46 52 52 55 57 59 59 60 59 59 59 60 61 59 59 60 59 63 70 77 85 79 80 85 91 90 90 91 88 88 91 90 90 87 87 86 84 89 89 78 87 88 88 88 90 82 -193 -209 -209 -209 -209 -209 -209 -209 -209 117 109 114 -193 -193 124 126 131 131 134 134 134 136 137 138 140 141 143 145 145 148 150 150 150 152 155 152 151 152 151 150 153 153 153 158 169 170 177 177 175 175 177 179 179 178 180 179 178 179 179 178 178 179 180 180 179 186 189 -193 -193 -193 -193 -193 0 0 0 0 0
    0 0 0 0 0 0 0 0 0 0 0 0 0 0 0 0 0 0 0 0 0 0 0 0 0 0 0 0 0 0 0 0 0 0 0 0 0 0 0 0 0 0 0 0 0 0 0 0 0 0 0 0 0 0 0 0 0 0 0 0 0 0 0 0 0 0 0 0 0 61 61 60 59 58 59 65 73 75 74 63 62 59 57 56 57 56 56 56 56 56 58 61 63 62 64 65 65 70 66 65 68 66 67 66 65 65 61 62 62 58 58 56 57 52 41 25 22 23 21 20 18 17 16 14 16 15 13 14 13 14 14 15 13 14 15 15 14 15 14 14 13 14 16 14 16 18 17 19 20 21 21 18 21 21 21 21 21 21 20 20 21 18 19 16 18 16 15 16 15 15 15 14 16 13 15 17 13 13 13 13 14 13 15 16 15 23 30 34 30 30 32 33 33 34 34 36 38 46 54 53 54 56 59 59 59 59 59 59 60 61 60 59 60 60 63 70 75 84 78 78 85 89 89 89 90 87 87 90 89 89 86 86 86 83 89 89 77 87 88 88 87 90 83 -209 -209 -209 -209 -209 -209 -209 -193 -209 -209 -209 -193 -209 -209 -209 -209 127 129 134 132 132 135 135 137 139 139 142 143 144 147 149 150 150 151 154 152 151 152 152 153 154 154 -209 -209 170 172 180 178 175 174 176 178 178 177 179 179 178 179 179 178 178 179 179 179 177 185 -209 -209 -209 -193 -193 -209 0 0 0 0 0
    0 0 0 0 0 0 0 0 0 0 0 0 0 0 0 0 0 0 0 0 0 0 0 0 0 0 0 0 0 0 0 0 0 0 0 0 0 0 0 0 0 0 0 0 0 0 0 0 0 0 0 0 0 0 0 0 0 0 0 0 0 0 0 0 0 0 0 0 0 60 60 59 59 55 56 -209 75 78 77 62 61 59 58 57 58 58 58 57 59 59 61 64 65 64 66 67 68 70 68 67 69 67 67 67 66 66 62 63 63 59 59 57 58 57 44 -209 22 23 22 20 19 18 17 14 16 15 14 15 14 14 15 16 15 15 17 18 16 18 17 16 16 16 18 16 18 20 19 21 21 22 22 20 22 21 21 21 21 21 21 20 21 19 19 16 19 17 16 16 17 17 18 16 20 16 17 18 16 14 14 13 14 12 15 17 16 21 25 35 30 30 31 32 32 33 33 36 37 46 54 53 54 56 58 58 59 58 59 59 60 61 60 59 61 61 65 70 74 82 77 77 84 88 88 89 89 86 86 90 89 -193 -193 -193 85 83 89 89 76 88 90 90 88 91 88 -193 -193 -209 -209 -209 -209 -209 -209 -209 -209 -209 -209 -209 -209 -209 -209 126 127 132 -193 129 132 133 136 139 138 141 140 143 145 148 149 149 149 152 149 150 151 151 153 154 -193 -209 -209 169 171 180 177 173 172 176 177 176 176 179 179 177 178 179 177 177 178 179 177 -193 -209 -209 -209 -209 -209 -209 -209 0 0 0 0 0
    0 0 0 0 0 0 0 0 0 0 0 0 0 0 0 0 0 0 0 0 0 0 0 0 0 0 0 0 0 0 0 0 0 0 0 0 0 0 0 0 0 0 0 0 0 0 0 0 0 0 0 0 0 0 0 0 0 0 0 0 0 0 0 0 0 0 0 0 0 60 59 59 58 52 52 -209 75 78 -209 61 60 58 57 57 59 58 59 59 63 63 65 67 67 67 67 68 68 70 68 67 70 67 67 66 65 65 61 62 63 59 59 58 59 58 51 50 22 24 23 21 19 18 17 15 17 16 14 16 14 16 17 18 17 18 20 20 19 20 19 19 19 19 20 18 20 22 21 24 24 23 23 21 23 22 22 22 22 21 21 20 21 19 19 16 18 17 16 16 19 18 20 18 21 17 18 19 17 15 15 13 14 11 15 17 16 18 24 33 30 30 31 32 32 34 34 37 39 46 54 53 54 56 58 58 59 58 59 59 60 62 61 60 62 61 65 69 72 81 77 77 83 88 88 88 88 86 87 90 89 -193 -193 -193 86 84 88 88 75 89 91 89 90 94 91 96 99 97 99 -209 -209 -209 -209 -209 -209 -209 -209 -209 -209 -209 124 127 126 131 130 130 132 132 135 -193 -193 140 139 142 144 146 -193 -193 -193 151 149 151 -209 -209 -193 -209 -209 -209 -209 -209 164 171 -193 167 167 175 178 176 175 179 179 176 177 178 176 175 177 178 176 -209 -209 -209 -209 -209 -209 -209 -177 0 0 0 0 0
    0 0 0 0 0 0 0 0 0 0 0 0 0 0 0 0 0 0 0 0 0 0 0 0 0 0 0 0 0 0 0 0 0 0 0 0 0 0 0 0 0 0 0 0 0 0 0 0 0 0 0 0 0 0 0 0 0 0 0 0 0 0 0 0 0 0 0 0 0 61 61 60 59 52 -209 -209 -193 -193 -209 55 57 57 57 56 58 58 61 61 69 68 68 68 68 68 69 70 69 70 69 69 70 67 67 66 65 65 61 62 62 58 59 58 58 57 53 52 -193 31 24 23 21 19 18 16 18 17 15 17 15 16 17 18 17 19 20 20 19 21 20 21 21 21 21 21 22 23 23 26 26 25 24 23 24 23 23 23 22 21 21 21 22 20 21 19 19 17 17 17 19 18 20 18 21 18 19 19 18 16 16 15 15 12 17 18 17 18 23 31 29 30 31 32 32 34 34 38 41 46 53 54 54 55 58 57 58 58 59 60 60 62 62 60 62 62 64 68 72 80 77 77 83 88 87 88 88 87 87 90 89 89 86 -193 86 85 88 87 77 89 93 90 90 93 91 95 101 99 99 -193 -209 -209 -209 -209 -209 -209 107 116 -209 -193 123 124 123 125 125 126 130 129 132 -209 -209 -209 -209 -209 -209 -209 -209 -209 -209 -209 -209 -193 -209 -209 -193 -209 -209 -209 -209 -209 -209 -209 -193 -193 162 -209 177 173 173 177 178 176 176 177 175 174 176 177 175 -209 -209 -209 -209 -209 -209 -209 -209 0 0 0 0 0
    0 0 0 0 0 0 0 0 0 0 0 0 0 0 0 0 0 0 0 0 0 0 0 0 0 0 0 0 0 0 0 0 0 0 0 0 0 0 0 0 0 0 0 0 0 0 0 0 0 0 0 0 0 0 0 0 0 0 0 0 0 0 0 0 0 0 0 0 0 64 65 65 64 -209 -209 -193 -193 -193 -209 51 54 56 55 56 60 60 65 68 71 71 70 70 70 69 70 71 69 70 69 70 71 69 68 68 66 65 62 61 62 58 59 58 57 55 53 53 49 42 31 24 22 20 18 18 19 18 16 18 16 17 18 19 18 19 20 21 19 21 21 21 22 22 22 22 23 25 25 27 28 27 26 24 24 23 23 23 22 21 21 22 22 21 21 20 20 18 17 18 20 19 21 19 21 19 19 20 19 17 17 15 16 13 18 19 18 18 23 31 29 30 31 33 33 35 35 38 42 46 53 54 54 55 58 57 58 58 59 60 60 61 62 60 63 63 65 69 72 80 77 77 83 88 87 87 88 87 88 90 89 89 86 87 87 87 88 88 80 89 93 89 90 92 91 93 100 101 102 103 104 104 -209 102 -209 103 105 111 110 114 120 122 121 -193 -209 124 127 126 129 -193 -209 -209 -209 -209 -209 -209 -209 -209 -209 -209 -209 -193 -209 -193 157 -209 -209 -209 -209 -193 -193 -209 -193 -209 -193 -209 177 173 173 178 178 176 176 177 175 174 176 176 174 -209 -209 -193 -193 -193 749 -193 -209 0 0 0 0 0
    0 0 0 0 0 0 0 0 0 0 0 0 0 0 0 0 0 0 0 0 0 0 0 0 0 0 0 0 0 0 0 0 0 0 0 0 0 0 0 0 0 0 0 0 0 0 0 0 0 0 0 0 0 0 0 0 0 0 0 0 0 0 0 0 0 0 0 0 0 69 72 73 72 73 -193 74 -193 -209 -209 45 49 52 -209 -209 -209 65 70 73 74 72 71 72 71 71 71 72 70 71 70 71 71 69 68 68 66 65 61 61 61 58 58 58 56 54 53 52 50 44 41 29 23 20 19 18 19 19 16 18 17 17 18 19 19 20 20 21 20 22 21 22 22 23 23 22 24 25 25 28 28 27 26 25 24 24 23 23 22 21 21 22 22 21 21 21 21 19 18 18 20 20 22 20 22 19 20 20 20 18 18 16 17 13 19 20 19 20 23 30 30 30 31 33 33 35 35 38 43 45 52 54 54 55 58 57 58 58 59 60 60 62 63 60 65 64 67 70 72 78 76 76 82 87 86 86 87 87 88 90 89 89 87 88 89 89 89 89 85 90 94 91 91 92 93 94 100 102 104 105 105 105 105 101 100 102 105 109 108 112 119 121 119 121 -193 124 127 128 132 -209 -209 -209 -209 -209 -209 -209 -209 -209 -209 -209 -209 -209 -209 -209 -193 -209 -209 -209 -209 -209 -209 -209 -209 -193 -193 -209 176 173 173 178 177 176 177 178 175 175 177 177 -193 749 -209 -209 748 748 748 -193 -209 0 0 0 0 0
    0 0 0 0 0 0 0 0 0 0 0 0 0 0 0 0 0 0 0 0 0 0 0 0 0 0 0 0 0 0 0 0 0 0 0 0 0 0 0 0 0 0 0 0 0 0 0 0 0 0 0 0 0 0 0 0 0 0 0 0 0 0 0 0 0 0 0 0 0 72 74 73 73 73 -193 74 -193 -209 -209 43 46 -209 -209 -209 -209 -193 71 74 74 73 73 74 73 73 75 74 72 72 71 72 71 69 68 67 65 64 62 62 61 58 58 57 55 53 52 52 51 46 43 41 24 21 19 18 19 19 17 19 17 18 19 20 20 21 21 21 21 22 22 23 23 24 23 23 24 26 25 28 29 28 27 25 25 24 24 23 22 21 22 22 23 22 21 22 23 21 19 18 21 20 23 21 22 20 20 21 20 18 19 17 17 14 20 21 21 22 25 32 31 31 31 33 34 35 35 38 43 45 52 54 54 55 57 57 58 58 59 60 60 62 64 61 66 66 68 70 72 77 76 76 80 86 84 85 86 87 88 90 89 89 87 89 90 90 89 90 88 91 95 92 92 92 95 94 99 103 104 104 105 105 104 102 101 103 105 110 111 115 119 120 118 119 119 122 124 128 -209 -209 -209 -209 -209 -209 -209 -209 -209 -209 -209 151 -209 -209 -209 -209 -193 -209 -209 -209 -209 -209 -209 159 161 158 164 -209 175 173 173 179 177 176 177 177 175 175 177 177 -193 -209 -209 -209 -209 -209 -209 -209 -209 0 0 0 0 0
    0 0 0 0 0 0 0 0 0 0 0 0 0 0 0 0 0 0 0 0 0 0 0 0 0 0 0 0 0 0 0 0 0 0 0 0 0 0 0 0 0 0 0 0 0 0 0 0 0 0 0 0 0 0 0 0 0 0 0 0 0 0 0 0 0 0 0 0 0 74 75 74 74 73 -193 -193 -209 -209 -209 43 46 -209 -209 -209 -209 -193 71 74 77 75 75 76 76 76 79 78 75 73 73 73 72 70 70 68 66 63 62 62 61 58 57 57 55 53 53 52 51 47 45 43 -193 22 20 18 19 19 17 20 18 19 20 21 21 21 21 22 21 23 22 23 23 23 22 22 24 25 25 28 29 28 28 26 26 26 24 24 23 21 22 23 23 22 20 21 21 19 16 13 20 19 24 21 23 20 20 21 21 18 19 16 17 13 20 21 22 24 28 33 33 32 32 33 33 34 35 38 44 45 51 54 54 54 57 56 57 57 58 60 59 61 63 62 66 67 68 69 71 76 75 75 79 85 83 84 86 87 88 90 89 89 -193 90 91 90 90 90 89 91 94 92 93 92 95 93 98 103 104 103 105 104 103 101 100 103 104 107 110 115 119 120 116 118 118 121 122 124 -209 -209 -209 -209 -209 -209 -193 -209 -193 -193 150 151 151 152 153 154 -193 -193 -209 -209 -209 -193 -193 160 161 157 164 -193 174 173 173 178 177 176 176 176 174 174 177 176 -193 85 -209 -209 -209 -209 -209 -209 -209 0 0 0 0 0
    0 0 0 0 0 0 0 0 0 0 0 0 0 0 0 0 0 0 0 0 0 0 0 0 0 0 0 0 0 0 0 0 0 0 0 0 0 0 0 0 0 0 0 0 0 0 0 0 0 0 0 0 0 0 0 0 0 0 0 0 0 0 0 0 0 0 0 0 0 76 77 76 74 -193 -193 -193 -209 47 -209 47 53 -209 -209 -209 -209 -193 72 76 79 78 78 78 79 80 84 81 78 75 75 75 74 72 72 69 68 65 63 62 61 58 58 57 55 53 53 52 51 48 46 45 29 23 20 19 19 19 18 20 19 20 21 22 22 23 23 23 23 24 24 24 24 24 23 23 24 25 25 28 29 28 29 28 27 27 26 27 24 22 23 23 23 23 21 22 21 18 15 13 21 19 24 21 23 21 21 21 21 19 20 17 18 13 20 22 23 25 29 34 35 33 34 34 34 35 36 39 45 45 50 54 54 54 56 55 56 56 58 59 59 61 63 62 65 66 66 68 70 74 74 74 77 85 82 83 85 87 87 89 88 88 -193 90 91 91 90 90 90 91 94 93 93 93 95 93 99 105 105 104 105 104 105 102 103 103 105 107 109 111 116 117 115 118 119 121 121 124 -209 -209 -209 -209 139 -209 -209 -209 -209 -193 -193 150 150 151 -209 -193 -209 -209 -209 -209 156 156 -193 160 161 159 165 175 175 173 174 178 176 175 175 176 173 174 176 175 -193 84 82 82 82 -193 -209 -209 -209 0 0 0 0 0
    0 0 0 0 0 0 0 0 0 0 0 0 0 0 0 0 0 0 0 0 0 0 0 0 0 0 0 0 0 0 0 0 0 0 0 0 0 0 0 0 0 0 0 0 0 0 0 0 0 0 0 0 0 0 0 0 0 0 0 0 0 0 0 0 0 0 0 0 0 76 77 76 -193 71 -209 62 -209 46 -193 52 -209 -209 -209 -209 73 72 74 75 79 80 81 82 81 82 84 82 79 75 74 75 73 73 72 69 68 65 64 63 60 58 58 57 55 53 53 52 51 49 47 46 -193 24 22 21 21 20 19 21 21 22 23 25 24 24 25 26 -193 -193 -193 25 26 26 25 25 25 26 25 28 29 28 29 28 28 27 28 30 27 24 24 25 -193 -209 23 24 13 11 9 10 21 19 24 21 22 20 20 21 21 19 20 17 18 13 20 23 25 26 30 35 36 34 35 35 36 36 38 39 44 45 48 53 53 53 55 55 56 56 58 60 59 61 63 62 64 65 65 67 69 72 73 73 76 84 82 83 85 88 87 89 88 88 -193 89 91 91 89 90 90 91 94 93 93 93 96 94 100 105 105 105 106 105 106 104 105 104 106 107 109 111 116 116 115 118 119 121 123 126 126 123 122 132 -193 148 149 -209 -209 -209 -193 -193 -193 151 -209 -209 -209 -193 -209 -209 -193 154 -193 157 159 159 166 178 175 173 174 179 176 175 175 175 173 174 176 175 -193 83 -193 -193 81 -193 -209 -209 -209 0 0 0 0 0
    0 0 0 0 0 0 0 0 0 0 0 0 0 0 0 0 0 0 0 0 0 0 0 0 0 0 0 0 0 0 0 0 0 0 0 0 0 0 0 0 0 0 0 0 0 0 0 0 0 0 0 0 0 0 0 0 0 0 0 0 0 0 0 0 0 0 0 0 0 76 77 77 75 74 -193 74 -209 -209 -193 -209 76 84 82 78 78 76 77 76 81 82 83 84 84 84 85 83 80 76 74 75 72 73 72 70 68 65 64 62 59 58 58 57 54 52 52 52 51 50 49 47 41 30 25 24 23 21 22 23 24 24 25 28 27 28 30 32 30 31 29 28 29 29 28 27 27 27 26 29 30 28 29 29 29 28 30 34 30 31 31 -193 -209 -177 -193 -193 -209 -209 -209 -193 20 17 21 19 21 19 20 20 21 20 21 19 20 16 22 24 28 28 32 35 36 35 36 36 37 37 38 39 44 44 47 52 53 53 55 55 56 57 58 60 60 61 63 62 64 64 64 66 69 72 72 73 75 84 83 83 85 88 87 88 88 88 88 89 91 91 -193 91 91 91 94 94 95 94 97 96 100 104 104 104 104 103 104 103 102 101 104 105 106 107 110 112 112 118 120 122 122 125 127 129 129 135 139 142 146 -209 -193 -209 -209 -209 -209 -193 -209 -209 -209 -193 -209 -193 156 156 -193 159 164 163 167 180 176 174 174 179 176 175 175 175 173 174 176 175 -193 85 84 -193 83 84 -193 -209 -209 0 0 0 0 0
    0 0 0 0 0 0 0 0 0 0 0 0 0 0 0 0 0 0 0 0 0 0 0 0 0 0 0 0 0 0 0 0 0 0 0 0 0 0 0 0 0 0 0 0 0 0 0 0 0 0 0 0 0 0 0 0 0 0 0 0 0 0 0 0 0 0 0 0 0 75 76 77 75 75 76 79 79 79 85 82 80 82 81 80 77 78 80 77 82 84 84 85 85 85 86 83 83 77 76 76 73 73 73 71 69 66 65 64 60 60 59 58 54 52 52 52 51 50 49 48 41 38 35 28 28 23 24 25 26 25 26 31 39 30 36 45 44 44 41 38 38 36 37 36 28 -225 27 29 29 28 28 28 28 27 28 32 29 -177 -193 -193 81 91 92 93 -209 -209 -209 -209 -209 -209 -209 -209 -209 -193 21 -193 543 -193 26 25 -225 -225 25 -225 -225 32 36 36 37 36 37 37 38 37 39 39 43 43 46 50 52 52 55 55 56 57 58 60 60 61 63 63 64 64 63 65 68 71 72 72 74 84 83 83 85 87 86 87 88 87 87 89 91 90 -193 92 92 92 95 95 96 95 98 96 99 104 104 104 105 104 106 104 103 103 105 106 108 108 110 111 113 117 119 119 119 122 122 124 124 129 135 -209 -209 -209 -193 -193 -209 -209 -193 -209 -209 -209 -209 -193 -193 -193 159 160 -193 163 166 166 168 180 176 174 175 179 176 175 175 176 173 175 176 175 -193 -193 85 -193 83 83 84 -193 -193 0 0 0 0 0
    0 0 0 0 0 0 0 0 0 0 0 0 0 0 0 0 0 0 0 0 0 0 0 0 0 0 0 0 0 0 0 0 0 0 0 0 0 0 0 0 0 0 0 0 0 0 0 0 0 0 0 0 0 0 0 0 0 0 0 0 0 0 0 0 0 0 0 0 0 74 74 75 75 74 77 82 83 84 86 84 83 84 83 81 79 81 81 77 83 85 85 86 86 85 86 84 83 79 76 76 73 73 72 71 69 67 66 66 62 62 61 60 55 53 53 52 52 51 50 50 42 43 42 38 37 30 28 34 36 36 -193 40 46 44 44 49 48 47 47 45 45 44 44 44 -225 -225 -225 -225 -225 -225 -225 -225 -225 -225 -225 -225 -225 -225 -225 -225 -225 -225 -225 -225 -225 -225 -225 -225 -225 -225 -225 -225 -225 -225 -225 -225 -225 -225 -225 -225 -225 -225 -225 -225 -225 -225 38 38 39 37 37 37 38 37 39 39 43 43 46 50 51 51 55 55 56 57 58 60 61 62 64 64 64 65 64 66 68 70 71 71 73 82 83 83 85 87 86 87 88 87 87 88 90 90 -177 92 92 92 95 96 96 95 99 98 99 104 104 105 106 106 106 104 104 104 106 106 108 110 112 114 116 118 119 119 119 121 120 121 122 125 133 -193 -193 -193 -193 -193 -209 -209 -209 -209 -209 -209 -209 -209 -209 156 158 161 -193 165 167 167 168 180 176 174 175 179 176 176 176 176 174 176 177 176 172 -193 -209 -209 -193 80 81 -193 -193 0 0 0 0 0
    0 0 0 0 0 0 0 0 0 0 0 0 0 0 0 0 0 0 0 0 0 0 0 0 0 0 0 0 0 0 0 0 0 0 0 0 0 0 0 0 0 0 0 0 0 0 0 0 0 0 0 0 0 0 0 0 0 0 0 0 0 0 0 0 0 0 0 0 0 73 73 74 74 75 80 82 82 84 87 84 84 85 84 83 83 84 84 80 85 86 87 87 87 86 86 84 83 80 77 77 72 72 72 70 68 66 66 66 62 64 63 62 55 54 53 52 52 51 51 51 43 48 48 44 43 42 39 44 44 44 46 46 49 51 50 51 50 48 48 47 47 46 46 45 -225 -225 -225 -225 -225 -225 -225 -225 -225 -225 -225 -225 -225 -225 -225 -225 -225 -225 -225 -225 -225 -225 -225 -225 -225 -225 -225 -225 -225 -225 -225 -225 -225 -225 -225 -225 -225 -225 -225 -225 -225 -225 38 38 39 37 38 37 38 37 39 40 43 44 46 50 51 51 54 54 55 56 58 59 62 62 64 64 64 65 64 66 68 69 71 71 72 81 83 83 85 87 85 86 87 87 86 87 89 89 -177 92 93 93 95 96 97 96 99 99 99 103 103 104 106 105 106 105 105 105 107 107 110 113 116 117 120 121 122 121 121 123 123 123 125 125 130 133 128 -193 -193 -193 -193 -193 -193 145 141 145 148 -193 154 155 156 160 -193 161 164 166 168 180 175 174 174 179 176 175 175 175 173 176 177 176 172 180 182 -193 -193 81 82 81 82 0 0 0 0 0
    0 0 0 0 0 0 0 0 0 0 0 0 0 0 0 0 0 0 0 0 0 0 0 0 0 0 0 0 0 0 0 0 0 0 0 0 0 0 0 0 0 0 0 0 0 0 0 0 0 0 0 0 0 0 0 0 0 0 0 0 0 0 0 0 0 0 0 0 0 73 73 73 75 78 80 82 81 83 85 84 84 84 83 83 83 84 84 82 86 87 87 88 86 86 86 84 83 79 77 76 72 72 72 71 69 67 66 66 62 66 65 65 56 55 54 53 53 53 52 51 43 45 46 43 42 43 41 44 44 44 46 46 50 52 50 51 50 48 48 48 47 46 46 45 -225 -225 -225 -225 -225 -225 -225 -225 -225 -225 -225 -225 -225 -225 -225 -225 -225 -225 -225 -225 -225 -225 -225 -225 -225 -225 -225 -225 -225 -225 -225 -225 -225 -225 -225 -225 -225 -225 -225 -225 -225 -225 38 37 38 37 38 38 39 38 39 42 44 46 48 50 51 51 54 54 54 56 57 59 61 62 64 63 64 64 64 66 68 69 70 70 72 81 84 84 85 87 85 86 87 86 86 86 88 88 -177 92 92 93 95 96 97 96 99 99 98 103 103 104 105 105 106 106 106 105 106 107 111 115 118 119 121 122 123 122 122 123 123 123 125 123 125 124 124 133 121 -193 -193 -193 -193 146 143 147 147 153 154 155 156 159 159 158 159 163 168 178 173 173 173 178 175 175 174 175 173 175 177 176 172 180 183 -193 -193 82 82 80 80 0 0 0 0 0
    0 0 0 0 0 0 0 0 0 0 0 0 0 0 0 0 0 0 0 0 0 0 0 0 0 0 0 0 0 0 0 0 0 0 0 0 0 0 0 0 0 0 0 0 0 0 0 0 0 0 0 0 0 0 0 0 0 0 0 0 0 0 0 0 0 0 0 0 0 74 73 73 76 79 80 81 82 84 84 84 84 84 83 83 83 84 84 83 86 87 87 89 87 87 86 84 83 80 77 77 73 73 72 72 70 68 67 67 62 67 67 66 56 55 55 54 54 54 53 51 43 44 45 43 43 43 41 45 45 44 47 47 52 52 50 51 50 49 49 48 48 46 46 45 -225 -225 -225 -225 -225 -225 -225 -225 -225 -225 -225 -225 -225 -225 -225 -225 -225 -225 -225 -225 -225 -225 -225 -225 -225 -225 -225 -225 -225 -225 -225 -225 -225 -225 -225 -225 -225 -225 -225 -225 -225 -225 -225 38 38 39 40 40 40 40 41 44 45 48 48 49 51 51 53 53 53 56 56 58 62 62 64 63 64 64 64 66 68 68 70 70 72 80 85 85 86 87 85 85 87 86 86 85 87 87 -177 -193 92 92 95 96 97 97 99 99 99 104 104 105 106 107 107 107 107 106 107 108 111 116 119 120 122 122 123 123 123 124 124 125 129 129 132 133 132 135 136 135 -193 -193 -193 142 138 143 146 152 154 156 156 158 158 156 157 160 167 175 171 172 172 177 174 174 174 174 172 175 176 176 172 179 181 182 -193 -193 -193 80 -193 0 0 0 0 0
    0 0 0 0 0 0 0 0 0 0 0 0 0 0 0 0 0 0 0 0 0 0 0 0 0 0 0 0 0 0 0 0 0 0 0 0 0 0 0 0 0 0 0 0 0 0 0 0 0 0 0 0 0 0 0 0 0 0 0 0 0 0 0 0 0 0 0 0 0 73 72 73 75 79 80 81 82 83 84 83 84 84 83 83 83 84 84 83 86 86 86 88 87 86 85 84 82 79 78 77 72 72 72 72 70 68 67 67 62 67 68 66 56 55 54 55 54 55 53 52 44 47 48 47 45 46 43 47 46 46 48 50 52 52 51 51 51 49 49 49 48 46 46 -225 -225 -225 -225 -225 -225 -225 -225 -225 -225 -225 -225 -225 -225 -225 -225 -225 -225 -225 -225 -225 -225 -225 -225 -225 -225 -225 -225 -225 -225 -225 -225 -225 -225 -225 -225 -225 -225 -225 -225 -225 -225 -225 -225 -225 -225 44 44 43 43 44 44 48 47 51 50 50 52 53 54 55 54 57 57 59 63 62 64 63 64 64 64 66 68 68 70 69 72 78 85 85 86 87 85 85 87 86 86 85 87 87 -177 92 92 93 95 97 97 97 99 100 99 104 104 105 106 107 108 108 108 108 109 109 111 116 119 121 122 123 124 124 124 125 125 127 131 131 133 133 133 134 135 134 135 134 136 140 140 146 150 153 155 157 157 159 158 157 157 159 166 172 169 170 170 175 173 173 173 173 172 174 175 175 171 176 178 180 -193 -193 -193 -193 -193 0 0 0 0 0
    0 0 0 0 0 0 0 0 0 0 0 0 0 0 0 0 0 0 0 0 0 0 0 0 0 0 0 0 0 0 0 0 0 0 0 0 0 0 0 0 0 0 0 0 0 0 0 0 0 0 0 0 0 0 0 0 0 0 0 0 0 0 0 0 0 0 0 0 0 73 72 73 75 78 80 81 82 83 84 83 84 84 83 83 83 84 83 82 85 85 85 87 87 86 85 84 82 78 79 78 71 71 71 71 69 67 66 66 63 68 69 66 57 56 56 56 55 56 54 53 47 52 52 52 50 51 47 52 49 47 51 52 53 53 52 52 51 50 50 49 47 46 45 -225 -225 -225 -225 -225 -225 -225 -225 -225 -225 -225 -225 -225 -225 -225 -225 -225 -225 -225 -225 -225 -225 -225 -225 -225 -225 -225 -225 -225 -225 -225 -225 -225 -225 -225 -225 -225 -225 -225 -225 -225 -225 -225 -225 -225 -225 -225 45 44 44 45 43 49 47 52 51 52 54 56 56 58 57 60 59 60 64 62 65 63 64 64 64 66 67 68 69 69 72 76 85 85 86 87 85 86 88 87 86 85 87 87 191 92 93 93 95 98 98 98 99 100 99 103 104 106 107 107 108 109 109 109 110 110 112 116 120 121 122 123 123 122 123 124 124 125 130 130 132 133 134 135 135 134 136 133 135 139 142 149 151 153 154 156 156 157 157 156 157 158 165 170 168 170 170 174 172 172 172 173 171 173 175 175 171 177 179 181 180 -193 -193 -193 -193 0 0 0 0 0
    0 0 0 0 0 0 0 0 0 0 0 0 0 0 0 0 0 0 0 0 0 0 0 0 0 0 0 0 0 0 0 0 0 0 0 0 0 0 0 0 0 0 0 0 0 0 0 0 0 0 0 0 0 0 0 0 0 0 0 0 0 0 0 0 0 0 0 0 0 73 72 73 75 79 80 82 82 84 84 84 85 85 84 83 83 84 84 82 86 0 -256 -1 31725 87 86 84 82 79 82 81 73 71 71 72 69 68 67 67 65 69 70 67 57 57 57 57 57 56 55 55 51 54 54 53 52 53 51 53 50 49 52 54 54 55 53 53 51 52 51 49 47 46 -225 -225 -225 -225 -225 -225 -225 -225 -225 -225 -225 -225 -225 -225 -225 -225 -225 -225 -225 -225 -225 -225 -225 -225 -225 -225 -225 -225 -225 -225 -225 -225 -225 -225 -225 -225 -225 -225 -225 -225 -225 -225 -225 -225 -225 -225 -225 -225 -225 -225 45 48 44 52 50 54 53 54 55 57 57 59 58 59 59 60 63 62 65 63 65 65 65 66 68 68 70 69 72 76 85 85 86 87 86 86 88 87 87 86 88 88 -193 93 94 94 96 98 98 98 99 100 99 104 104 106 107 108 109 109 110 110 111 111 113 116 119 120 122 122 122 122 122 123 123 125 129 130 132 132 134 135 135 135 136 134 136 139 142 147 149 152 154 156 156 158 158 158 158 159 166 170 169 169 170 173 172 172 172 172 171 173 175 175 171 179 181 182 182 -193 -209 -193 190 0 0 0 0 0
    0 0 0 0 0 0 0 0 0 0 0 0 0 0 0 0 0 0 0 0 0 0 0 0 0 0 0 0 0 0 0 0 0 0 0 0 0 0 0 0 0 0 0 0 0 0 0 0 0 0 0 0 0 0 0 0 0 0 0 0 0 0 0 0 0 0 0 0 0 73 72 72 75 78 80 82 82 84 84 83 85 84 84 83 83 84 83 82 85 83 84 86 86 85 86 82 80 79 82 82 73 71 71 71 68 68 67 67 66 68 70 67 59 59 59 58 57 57 56 56 52 54 53 53 52 53 52 52 51 52 54 56 56 57 55 55 53 53 52 50 48 45 -225 -225 -225 -225 -225 -225 -225 -225 -225 -225 -225 -225 -225 -225 -225 -225 -225 -225 -225 -225 -225 -225 -225 -225 -225 -225 -225 -225 -225 -225 -225 -225 -225 -225 -225 -225 -225 -225 -225 -225 -225 -225 -225 -225 -225 -225 -225 -225 -225 -225 -225 54 49 55 53 56 55 56 57 58 58 59 58 60 59 59 62 61 64 63 65 66 66 67 68 69 70 70 72 76 83 84 84 86 86 87 89 88 88 86 88 89 90 93 94 94 97 98 98 99 100 100 100 104 105 106 108 108 109 110 111 111 113 113 115 117 119 121 121 121 122 122 122 123 123 125 130 130 133 134 135 136 136 136 137 137 137 139 140 143 146 150 153 155 157 159 160 158 159 160 165 169 168 169 170 173 172 172 172 172 171 173 175 174 171 179 181 183 182 183 186 189 192 0 0 0 0 0
    0 0 0 0 0 0 0 0 0 0 0 0 0 0 0 0 0 0 0 0 0 0 0 0 0 0 0 0 0 0 0 0 0 0 0 0 0 0 0 0 0 0 0 0 0 0 0 0 0 0 0 0 0 0 0 0 0 0 0 0 0 0 0 0 0 0 0 0 0 73 72 72 74 79 81 82 83 85 84 84 85 85 84 84 85 85 84 84 86 85 85 88 88 86 87 82 79 79 81 81 73 71 71 70 68 68 67 67 67 68 70 67 60 60 59 58 57 57 55 54 50 54 53 53 52 53 52 52 53 55 56 58 58 58 57 56 55 55 53 50 48 -225 -225 -225 -225 -225 -225 -225 -225 -225 -225 -225 -225 -225 -225 -225 -225 -225 -225 -225 -225 -225 -225 -225 -225 -225 -225 -225 -225 -225 -225 -225 -225 -225 -225 -225 -225 -225 -225 -225 -225 -225 -225 -225 -225 -225 -225 -225 -225 -225 -225 -225 -225 55 52 57 55 57 56 57 57 59 59 60 60 61 60 61 63 62 65 64 66 66 66 67 69 69 71 70 73 75 82 82 83 85 86 86 88 88 88 86 89 90 90 92 94 93 96 98 98 99 99 100 99 103 105 106 108 108 109 110 111 111 113 112 114 116 119 121 121 122 123 122 124 125 126 127 132 133 135 136 137 137 138 137 138 137 137 138 138 140 144 149 152 155 157 158 159 158 159 160 164 167 166 168 169 172 171 171 171 171 170 172 174 173 170 178 180 182 181 183 185 186 188 0 0 0 0 0
    0 0 0 0 0 0 0 0 0 0 0 0 0 0 0 0 0 0 0 0 0 0 0 0 0 0 0 0 0 0 0 0 0 0 0 0 0 0 0 0 0 0 0 0 0 0 0 0 0 0 0 0 0 0 0 0 0 0 0 0 0 0 0 0 0 0 0 0 0 76 74 73 76 81 81 82 82 84 83 84 86 85 84 85 85 85 85 85 85 83 83 86 85 84 87 80 79 80 82 80 74 71 71 70 69 69 67 67 68 68 70 67 61 60 60 59 57 57 55 54 51 54 53 53 53 53 53 54 55 57 58 59 59 59 58 58 57 56 54 51 -225 -225 -225 -225 -225 -225 -225 -225 -225 -225 -225 -225 -225 -225 -225 -225 -225 -225 -225 -225 -225 -225 -225 -225 -225 -225 -225 -225 -225 -225 -225 -225 -225 -225 -225 -225 -225 -225 -225 -225 -225 -225 -225 -225 -225 -225 -225 -225 -225 -225 -225 -225 -225 -225 51 56 53 56 56 56 58 60 61 62 62 64 62 62 63 63 66 64 66 66 67 68 69 70 71 71 73 75 82 81 82 85 86 86 88 88 88 87 90 91 91 92 93 93 95 97 97 98 98 100 99 103 105 106 108 108 109 109 110 110 112 112 114 116 118 121 121 122 124 124 126 128 129 132 135 135 136 138 138 138 138 138 137 137 137 138 138 142 148 151 153 156 158 159 159 158 160 160 164 167 166 167 168 170 170 170 171 171 170 172 173 173 171 176 179 181 181 182 185 186 188 0 0 0 0 0
    0 0 0 0 0 0 0 0 0 0 0 0 0 0 0 0 0 0 0 0 0 0 0 0 0 0 0 0 0 0 0 0 0 0 0 0 0 0 0 0 0 0 0 0 0 0 0 0 0 0 0 0 0 0 0 0 0 0 0 0 0 0 0 0 0 0 0 0 0 78 76 75 78 82 81 83 83 84 82 83 85 84 83 84 84 84 84 84 85 82 82 84 83 82 86 79 79 81 82 80 75 73 72 70 70 70 68 67 69 69 71 67 62 62 61 60 59 58 57 57 55 55 54 54 54 54 55 56 57 59 60 61 61 60 60 59 58 57 55 52 -225 -225 -225 -225 -225 -225 -225 -225 -225 -225 -225 -225 -225 -225 -225 -225 -225 -225 -225 -225 -225 -225 -225 -225 -225 -225 -225 -225 -225 -225 -225 -225 -225 -225 -225 -225 -225 -225 -225 -225 -225 -225 -225 -225 -225 -225 -225 -225 -225 -225 -225 -225 -225 -225 -225 55 54 57 58 59 61 64 65 67 66 66 65 64 64 63 66 64 67 67 68 69 70 71 72 73 74 76 81 80 80 84 86 86 88 88 88 87 90 92 92 92 94 93 96 97 97 98 98 100 99 103 105 106 107 108 109 109 110 110 112 112 114 115 117 120 121 122 124 125 128 131 133 135 136 137 138 139 139 138 139 139 139 139 139 140 140 144 148 150 152 155 158 159 159 159 159 159 163 166 164 166 168 170 170 170 171 170 170 171 173 173 171 175 177 -193 -209 184 187 189 189 0 0 0 0 0
    0 0 0 0 0 0 0 0 0 0 0 0 0 0 0 0 0 0 0 0 0 0 0 0 0 0 0 0 0 0 0 0 0 0 0 0 0 0 0 0 0 0 0 0 0 0 0 0 0 0 0 0 0 0 0 0 0 0 0 0 0 0 0 0 0 0 0 0 0 80 78 76 80 82 83 85 85 85 84 84 85 84 84 84 83 84 84 82 84 82 82 83 84 83 86 79 80 82 83 80 77 74 74 71 71 70 68 67 69 68 70 65 62 61 60 59 58 57 53 53 56 56 55 55 55 55 57 58 59 61 62 62 63 62 61 60 59 58 56 -225 -225 -225 -225 -225 -225 -225 -225 -225 -225 -225 -225 -225 -225 -225 -225 -225 -225 -225 -225 -225 -225 -225 -225 -225 -225 -225 -225 -225 -225 -225 -225 -225 -225 -225 -225 -225 -225 -225 -225 -225 -225 -225 -225 -225 -225 -225 -225 -225 -225 -225 -225 -225 -225 -225 -225 54 55 59 -209 64 67 69 69 70 69 68 67 66 66 63 66 65 67 68 69 70 71 71 72 74 75 76 81 80 80 84 86 86 88 88 88 87 91 93 92 92 94 93 97 98 98 99 99 100 99 103 105 106 107 108 108 109 110 110 112 113 113 114 116 120 121 123 125 126 130 133 135 136 137 138 138 139 139 139 140 139 140 140 140 141 141 144 148 148 152 154 156 158 159 159 159 159 162 165 164 166 168 170 170 170 171 170 170 172 173 173 171 173 -193 -193 -193 182 186 188 188 0 0 0 0 0</data></disparity>
</opencv_storage>
