<?xml version="1.0"?>
<opencv_storage>
<gps_time_stamp>307410</gps_time_stamp>
<gps_x>-1.2415273666381836e+001</gps_x>
<gps_y>1.0966544151306152e+001</gps_y>
<gps_z>-2.0152459144592285e+000</gps_z>
<image_time_stamp>298256</image_time_stamp>
<disparity type_id="opencv-matrix">
  <rows>88</rows>
  <cols>320</cols>
  <dt>s</dt>
  <data>
    0 0 0 0 0 0 0 0 0 0 0 0 0 0 0 0 0 0 0 0 0 0 0 0 0 0 0 0 0 0 0 0 0 0 0 0 0 0 0 0 0 0 0 0 0 0 0 0 0 0 0 0 0 0 0 0 0 0 0 0 0 0 0 0 0 0 0 0 0 46 46 44 46 47 46 46 46 46 44 43 44 43 42 41 40 40 40 40 42 41 42 42 42 42 41 -209 40 36 31 29 32 28 29 29 30 30 32 27 27 26 26 24 25 23 23 23 24 24 23 23 24 22 25 24 21 17 16 14 14 10 10 12 10 12 11 11 11 0 10 10 9 9 9 9 9 10 10 9 0 0 0 0 0 0 0 0 9 9 9 9 9 9 9 0 9 0 9 10 10 10 12 17 20 21 21 23 24 25 29 27 29 29 30 31 34 35 35 35 40 40 42 44 44 44 46 53 55 54 59 63 61 60 60 60 67 61 62 62 -193 -193 67 -193 67 65 70 68 69 68 66 -177 66 -193 69 -193 -193 145 -193 -193 -193 84 85 87 86 88 -177 93 92 93 94 95 97 98 97 95 94 103 103 103 104 108 111 113 119 128 124 124 124 129 126 127 132 132 131 133 131 132 130 131 131 128 126 125 -193 -177 931 -193 930 -193 97 -193 38 37 38 114 -193 114 -177 -177 -193 -209 -193 -193 -193 -193 -209 -209 -209 466 -193 464 -193 459 -209 442 -193 102 -193 99 101 -193 -193 271 277 -209 -209 0 0 0 0 0
    0 0 0 0 0 0 0 0 0 0 0 0 0 0 0 0 0 0 0 0 0 0 0 0 0 0 0 0 0 0 0 0 0 0 0 0 0 0 0 0 0 0 0 0 0 0 0 0 0 0 0 0 0 0 0 0 0 0 0 0 0 0 0 0 0 0 0 0 0 45 46 44 45 46 46 46 46 46 44 43 44 43 42 42 40 40 40 40 42 41 42 42 42 42 41 -193 40 36 31 29 32 28 28 29 29 29 31 27 27 25 25 24 25 23 23 23 23 23 22 21 24 20 24 21 16 12 11 10 11 0 0 10 9 10 10 10 11 0 9 9 9 9 9 10 9 10 11 9 9 9 0 0 0 0 9 0 9 9 9 10 10 9 10 0 9 0 9 10 10 10 11 17 20 22 21 23 -177 25 29 28 29 29 30 31 33 35 35 35 40 40 42 44 44 44 46 54 55 56 60 65 62 61 61 61 68 61 62 62 542 544 67 542 67 64 70 67 68 68 66 -177 66 -193 69 -193 -193 147 -193 -193 -193 84 85 87 87 88 -193 94 92 93 94 95 97 98 98 95 95 103 103 103 104 108 110 111 118 -193 124 124 124 129 126 127 132 131 130 132 130 131 129 131 131 127 126 125 -193 -177 931 -193 -193 94 -177 -193 38 37 -193 -177 109 -177 -177 117 -193 -193 -193 -193 259 262 -209 -209 -193 467 466 466 -193 462 -209 442 -193 102 101 100 102 -193 -193 270 277 -193 -209 0 0 0 0 0
    0 0 0 0 0 0 0 0 0 0 0 0 0 0 0 0 0 0 0 0 0 0 0 0 0 0 0 0 0 0 0 0 0 0 0 0 0 0 0 0 0 0 0 0 0 0 0 0 0 0 0 0 0 0 0 0 0 0 0 0 0 0 0 0 0 0 0 0 0 45 46 44 45 45 45 45 46 46 44 43 44 43 42 41 40 40 40 40 42 41 42 42 42 42 41 -193 -193 36 31 29 32 28 28 28 29 29 30 27 27 25 25 24 24 23 22 22 23 22 21 19 22 16 19 16 10 -193 -193 0 -193 0 0 0 0 0 0 0 9 0 0 0 9 0 9 10 10 10 11 9 10 9 0 0 0 0 9 0 9 9 9 10 10 9 10 0 9 8 9 10 10 11 12 17 20 22 21 24 -177 -177 -177 28 29 29 29 31 33 35 35 35 40 40 42 44 45 45 46 55 56 57 60 67 64 61 61 61 68 61 62 62 542 544 546 543 67 64 70 68 68 68 67 -177 66 -193 -193 -193 -193 -193 -193 -193 -193 84 86 87 87 88 -193 94 93 94 95 95 98 99 98 96 96 104 103 104 104 108 111 112 118 -193 123 123 124 128 126 126 131 130 130 132 130 130 129 130 130 127 126 125 -193 -177 -193 -193 -193 95 -177 97 38 37 -193 111 108 -177 -177 116 -193 0 0 0 259 -177 -209 -209 -193 468 467 467 467 464 -193 -209 101 101 100 98 101 -193 -193 269 275 277 -193 0 0 0 0 0
    0 0 0 0 0 0 0 0 0 0 0 0 0 0 0 0 0 0 0 0 0 0 0 0 0 0 0 0 0 0 0 0 0 0 0 0 0 0 0 0 0 0 0 0 0 0 0 0 0 0 0 0 0 0 0 0 0 0 0 0 0 0 0 0 0 0 0 0 0 45 46 44 45 45 45 45 45 45 44 43 43 42 42 41 40 39 40 40 42 41 42 42 42 42 41 -193 -193 36 31 28 33 28 28 28 29 29 30 27 27 25 26 24 25 23 22 23 23 22 21 19 21 15 13 12 0 0 -193 0 0 0 0 0 0 0 0 9 9 0 0 0 9 9 10 10 10 10 11 10 10 9 0 0 0 0 10 9 9 9 9 10 10 9 10 0 9 9 9 11 11 11 12 17 19 22 21 -193 -177 -177 -177 28 28 29 29 31 33 35 35 35 40 40 41 44 46 46 47 56 58 59 61 69 67 63 63 63 69 62 62 62 543 545 547 544 -193 64 70 -193 68 -193 -193 -177 67 -177 -193 -193 -193 -193 -193 80 -193 84 86 88 87 89 -193 95 94 94 95 96 98 99 99 97 98 105 104 105 105 109 113 113 118 126 122 122 123 127 125 126 131 129 129 131 130 130 128 130 130 127 127 124 -193 -177 -193 -177 -193 95 97 -177 -193 -177 -193 111 108 109 112 115 -209 0 0 0 -193 -177 -209 -209 -193 469 468 469 468 467 468 -209 100 99 97 95 99 -193 263 267 271 274 276 0 0 0 0 0
    0 0 0 0 0 0 0 0 0 0 0 0 0 0 0 0 0 0 0 0 0 0 0 0 0 0 0 0 0 0 0 0 0 0 0 0 0 0 0 0 0 0 0 0 0 0 0 0 0 0 0 0 0 0 0 0 0 0 0 0 0 0 0 0 0 0 0 0 0 46 46 45 45 44 46 44 45 45 44 43 43 42 42 41 40 39 39 40 42 41 42 42 42 42 41 -193 -193 36 31 28 33 29 28 29 29 29 30 27 27 25 26 24 24 23 22 23 23 22 21 18 20 14 10 10 0 0 0 0 0 0 0 0 0 9 9 9 9 0 0 0 9 9 9 10 10 10 11 10 11 9 9 0 0 0 10 0 9 9 9 10 9 9 10 0 9 9 9 11 10 11 12 17 19 22 21 24 -177 -177 -177 28 28 -177 29 31 33 35 35 35 40 -193 -193 45 47 47 48 57 61 61 61 70 69 66 66 66 70 62 62 -193 543 544 547 544 -193 63 69 -177 68 608 608 -177 67 -193 -193 -193 72 -193 -193 80 -193 84 86 88 88 89 -193 95 94 95 96 96 99 100 100 99 101 105 106 106 107 111 114 114 118 125 121 121 122 127 125 125 130 128 128 130 129 130 128 129 130 127 127 124 -193 -177 -193 -177 -177 95 97 -193 -209 -193 109 111 109 108 111 114 -193 -193 -193 -193 -193 -193 -193 -193 -193 469 469 470 469 468 470 -209 99 95 93 91 95 -193 259 264 267 269 271 0 0 0 0 0
    0 0 0 0 0 0 0 0 0 0 0 0 0 0 0 0 0 0 0 0 0 0 0 0 0 0 0 0 0 0 0 0 0 0 0 0 0 0 0 0 0 0 0 0 0 0 0 0 0 0 0 0 0 0 0 0 0 0 0 0 0 0 0 0 0 0 0 0 0 46 46 45 45 44 46 44 45 45 44 43 43 42 42 41 40 39 40 40 41 41 42 42 41 42 41 -193 38 35 30 28 33 29 28 29 29 28 30 28 28 25 25 24 24 23 22 23 23 22 21 19 20 14 11 9 0 0 0 0 0 0 0 0 0 9 9 9 9 0 0 0 9 9 9 10 9 10 10 10 11 10 9 0 0 0 9 0 0 0 0 9 9 0 9 0 0 0 0 10 10 11 11 16 19 22 21 24 -177 -177 -177 28 28 -177 29 31 33 35 35 35 40 -193 -193 45 49 49 49 58 62 63 62 72 72 69 69 69 71 62 62 -193 542 544 547 545 -193 63 69 -177 68 608 609 -177 67 -193 -193 70 72 -193 75 80 82 84 87 89 88 90 -193 96 95 95 98 97 100 101 101 100 103 105 108 108 108 112 115 114 118 123 120 121 121 126 124 124 129 127 128 130 129 129 127 129 130 127 128 124 -193 -177 -193 -177 -177 95 97 -193 -209 -193 109 111 109 107 111 -193 -177 -193 -193 -193 -209 -193 -193 -193 -209 470 470 470 470 469 471 -209 -193 92 90 89 91 -193 -209 -193 183 -209 -209 0 0 0 0 0
    0 0 0 0 0 0 0 0 0 0 0 0 0 0 0 0 0 0 0 0 0 0 0 0 0 0 0 0 0 0 0 0 0 0 0 0 0 0 0 0 0 0 0 0 0 0 0 0 0 0 0 0 0 0 0 0 0 0 0 0 0 0 0 0 0 0 0 0 0 46 46 45 45 44 46 44 45 45 44 43 43 42 42 -193 41 39 40 40 41 41 42 41 41 41 41 39 38 34 30 27 33 29 28 29 29 28 29 28 28 25 25 24 24 23 22 23 23 22 21 19 20 15 12 10 0 0 0 0 0 0 0 0 0 9 9 9 9 0 0 0 9 9 9 9 9 9 10 10 11 10 9 0 0 0 9 0 0 0 0 0 0 0 0 0 0 0 0 10 10 11 10 16 20 22 21 24 -177 -177 -177 28 28 -177 29 31 33 35 35 35 40 -193 -209 45 49 49 48 58 63 64 62 72 74 71 71 71 72 63 62 -193 542 544 547 545 -177 62 69 -177 68 609 609 -177 68 -177 -193 71 73 74 75 80 82 84 87 89 88 90 92 96 96 96 99 97 101 -193 102 101 103 105 108 107 108 111 114 113 117 120 119 120 120 -193 123 123 128 126 128 130 129 130 128 130 130 128 129 125 -193 -177 -177 -177 -177 96 97 -193 -193 -193 109 111 108 107 110 -209 -177 -193 -193 -209 -193 -193 160 161 -193 471 471 471 470 -177 -193 -209 -193 -177 88 -193 -193 -193 180 184 184 183 186 0 0 0 0 0
    0 0 0 0 0 0 0 0 0 0 0 0 0 0 0 0 0 0 0 0 0 0 0 0 0 0 0 0 0 0 0 0 0 0 0 0 0 0 0 0 0 0 0 0 0 0 0 0 0 0 0 0 0 0 0 0 0 0 0 0 0 0 0 0 0 0 0 0 0 46 46 45 45 44 46 44 45 45 44 43 43 42 43 -193 -193 39 39 40 41 41 42 41 41 41 40 39 37 34 30 27 33 29 28 28 28 28 28 28 28 25 26 25 24 23 23 23 23 22 21 19 20 16 13 11 0 0 0 0 0 0 0 0 9 10 10 9 9 9 0 0 0 9 9 9 9 9 10 10 11 11 9 9 0 9 9 0 0 0 0 0 0 0 0 0 9 0 0 10 10 11 11 16 21 23 22 25 -177 -177 -177 28 28 -177 29 31 33 35 35 35 40 -193 -209 44 48 48 48 57 62 64 62 73 75 73 73 73 73 64 62 -177 542 544 547 545 545 62 68 -193 68 610 609 -177 -193 -177 -209 71 73 75 75 80 83 84 88 89 89 91 92 97 97 97 99 98 101 102 102 101 103 105 107 107 107 110 115 113 116 119 119 119 120 -193 123 123 128 126 128 129 129 130 129 131 131 129 130 126 -193 -177 -177 -177 -177 96 97 -193 -193 108 110 111 108 106 109 -193 -177 -193 -209 -209 -193 -193 160 160 -193 472 -193 473 471 -177 -193 -209 -193 -193 -209 -209 -209 -193 -193 186 186 184 187 0 0 0 0 0
    0 0 0 0 0 0 0 0 0 0 0 0 0 0 0 0 0 0 0 0 0 0 0 0 0 0 0 0 0 0 0 0 0 0 0 0 0 0 0 0 0 0 0 0 0 0 0 0 0 0 0 0 0 0 0 0 0 0 0 0 0 0 0 0 0 0 0 0 0 46 46 45 44 44 46 44 45 45 45 43 44 42 43 -193 -193 40 39 40 41 41 42 41 41 40 40 38 36 33 30 27 33 28 28 28 28 27 28 28 28 26 27 26 25 24 23 24 23 22 21 20 20 16 13 12 10 9 9 9 9 9 9 10 10 11 12 10 10 0 0 0 0 0 0 9 9 9 10 10 12 11 10 9 9 9 9 0 0 0 0 0 0 0 0 0 0 0 0 10 10 10 10 16 23 24 22 -177 -177 -177 -177 29 29 -177 29 31 32 35 35 34 39 40 -193 44 48 48 47 57 62 65 62 73 76 75 74 74 74 64 62 545 542 543 547 545 545 62 68 -193 69 610 610 -177 -193 -177 -193 -209 73 75 75 81 84 85 88 90 89 91 92 97 97 97 99 98 101 102 102 101 102 104 107 108 107 111 115 113 116 119 119 119 120 124 123 123 128 126 128 129 130 131 130 132 132 131 132 -193 -193 -193 -177 -177 -177 97 97 -193 -193 108 110 111 109 106 109 -193 -193 -193 -209 -209 -193 -193 160 160 -193 -193 -209 475 473 -177 -193 -209 -193 -209 -193 -193 -193 -209 -209 187 189 187 188 0 0 0 0 0
    0 0 0 0 0 0 0 0 0 0 0 0 0 0 0 0 0 0 0 0 0 0 0 0 0 0 0 0 0 0 0 0 0 0 0 0 0 0 0 0 0 0 0 0 0 0 0 0 0 0 0 0 0 0 0 0 0 0 0 0 0 0 0 0 0 0 0 0 0 46 46 45 44 44 46 44 45 45 45 43 44 42 43 -193 -193 40 40 40 41 41 41 39 39 39 38 36 35 32 30 27 32 28 28 28 27 27 27 28 28 26 27 26 26 25 24 24 23 22 21 20 20 16 14 13 11 10 10 10 10 11 11 11 11 12 12 10 10 0 0 0 0 0 9 9 9 9 10 11 12 11 10 9 0 9 9 0 0 0 0 0 0 0 0 0 0 0 0 10 10 10 10 15 23 24 22 -177 -177 -177 -177 -177 -177 -177 28 30 32 35 35 34 39 40 -193 44 47 47 46 57 61 64 -193 73 77 77 75 75 75 65 62 544 542 543 546 544 544 62 68 -193 69 610 610 -177 -177 -177 -193 -209 74 76 76 82 84 85 89 90 90 91 92 97 97 96 99 97 100 101 101 101 101 103 107 109 107 111 116 113 115 118 119 119 120 -193 123 123 128 126 128 129 130 131 130 -193 -193 -193 -193 -209 -193 -193 -177 -177 -177 97 97 -193 -193 108 111 111 110 107 110 -193 -193 -193 -193 681 684 -193 -193 161 -193 -193 -193 -193 -193 -177 -193 -209 -209 -209 -193 -177 -193 -193 186 188 189 188 188 0 0 0 0 0
    0 0 0 0 0 0 0 0 0 0 0 0 0 0 0 0 0 0 0 0 0 0 0 0 0 0 0 0 0 0 0 0 0 0 0 0 0 0 0 0 0 0 0 0 0 0 0 0 0 0 0 0 0 0 0 0 0 0 0 0 0 0 0 0 0 0 0 0 0 46 46 45 45 44 46 44 45 45 45 44 45 43 44 -193 43 -209 40 39 40 40 40 38 38 37 36 35 34 32 30 28 32 28 28 28 27 26 27 28 28 27 28 27 26 25 25 25 23 22 21 20 20 17 15 14 13 12 11 11 11 12 12 12 12 11 11 11 11 9 0 0 9 9 9 10 9 9 11 11 12 11 9 9 0 0 0 0 0 0 0 0 0 0 0 0 0 0 0 10 10 11 11 16 22 24 22 -177 -177 -177 -177 -177 -177 -177 28 30 32 35 35 34 39 -193 -193 44 46 46 46 56 59 63 -193 73 77 78 76 76 76 64 62 544 542 543 546 544 544 62 68 -193 69 611 611 609 -177 -177 -193 -193 74 76 76 82 85 85 89 90 90 91 91 96 96 96 98 97 100 100 100 100 99 102 107 110 107 111 116 114 114 118 119 119 120 -193 123 123 128 126 128 128 130 132 -193 -193 -193 -193 -209 -209 -193 -193 -209 -193 -177 97 97 100 -193 108 112 112 112 108 112 -193 -193 -209 -177 681 685 -193 -193 161 -193 -193 -193 -193 -193 -177 -193 -209 -209 -209 -193 -177 -193 -193 186 188 190 188 188 0 0 0 0 0
    0 0 0 0 0 0 0 0 0 0 0 0 0 0 0 0 0 0 0 0 0 0 0 0 0 0 0 0 0 0 0 0 0 0 0 0 0 0 0 0 0 0 0 0 0 0 0 0 0 0 0 0 0 0 0 0 0 0 0 0 0 0 0 0 0 0 0 0 0 46 46 45 45 44 47 44 45 45 45 44 45 43 44 42 43 -209 41 40 40 39 39 36 36 35 35 34 34 32 30 28 33 28 28 28 27 26 27 29 28 27 29 27 27 26 26 26 23 23 21 21 20 17 16 15 14 13 13 12 12 14 13 14 13 12 12 11 11 10 0 0 9 10 10 10 9 9 10 11 11 10 9 0 0 0 0 0 0 0 0 0 0 0 0 0 0 0 9 11 10 11 11 16 23 25 23 -177 -177 -177 -177 -177 -177 -177 28 30 32 35 35 33 38 -193 -177 43 46 46 45 55 57 60 -209 71 77 79 75 75 75 63 61 544 542 543 546 544 544 62 68 -193 69 611 611 609 -177 -177 -177 -193 -193 76 77 83 85 85 89 90 90 91 91 96 95 95 97 96 100 100 100 100 98 99 106 109 106 109 116 113 113 117 119 -193 120 860 123 123 128 127 129 128 131 132 -193 964 960 -177 -209 -193 195 196 197 -193 -193 96 96 100 -193 107 113 113 113 110 113 -209 -193 -209 -177 681 686 -193 -193 161 -193 -193 -193 -193 -193 -177 -193 -193 -209 -209 -193 -177 -193 -193 187 189 190 188 188 0 0 0 0 0
    0 0 0 0 0 0 0 0 0 0 0 0 0 0 0 0 0 0 0 0 0 0 0 0 0 0 0 0 0 0 0 0 0 0 0 0 0 0 0 0 0 0 0 0 0 0 0 0 0 0 0 0 0 0 0 0 0 0 0 0 0 0 0 0 0 0 0 0 0 46 46 45 45 44 47 45 46 45 46 44 45 44 45 42 44 42 42 41 41 40 39 36 35 34 34 32 33 31 30 29 32 28 28 27 27 26 26 29 28 28 28 27 27 26 26 26 23 23 20 21 20 18 18 17 15 16 14 14 13 15 14 15 13 13 12 11 11 11 9 0 10 11 10 10 9 9 10 11 11 10 9 9 9 9 9 0 0 0 0 0 0 0 0 0 0 0 9 10 10 11 11 17 23 25 23 -177 -177 -177 -177 -177 28 28 28 30 32 35 35 33 38 -193 -177 43 45 45 45 53 55 57 -209 68 76 77 74 74 74 62 -193 544 542 543 546 544 544 62 68 -193 68 -193 -193 -193 -177 -177 -177 -193 -193 77 77 83 86 86 90 90 90 91 91 95 95 94 96 96 99 99 99 99 96 95 106 109 106 107 115 112 112 117 -193 -193 861 861 124 124 128 128 130 129 132 133 -193 964 961 -177 -209 195 195 195 197 -193 -193 96 96 100 -193 108 -193 115 115 114 114 -209 -209 -193 681 -193 687 164 160 161 161 -193 -193 -209 -209 481 -193 -193 -209 -193 -209 -193 -193 188 188 189 190 188 187 0 0 0 0 0
    0 0 0 0 0 0 0 0 0 0 0 0 0 0 0 0 0 0 0 0 0 0 0 0 0 0 0 0 0 0 0 0 0 0 0 0 0 0 0 0 0 0 0 0 0 0 0 0 0 0 0 0 0 0 0 0 0 0 0 0 0 0 0 0 0 0 0 0 0 46 46 45 46 44 47 45 46 46 46 45 46 44 45 42 44 -193 42 41 41 40 38 35 35 34 34 31 32 31 30 29 31 28 27 27 26 25 26 28 28 28 28 -193 27 26 26 27 23 22 20 22 20 18 19 18 16 17 15 14 13 15 14 13 12 11 11 10 10 10 0 0 10 11 10 10 9 9 9 10 11 10 9 10 10 10 10 10 9 9 9 9 0 0 0 0 0 0 9 10 10 11 11 17 23 25 23 -177 -177 -177 -177 -177 28 28 28 30 32 35 35 32 37 40 -193 43 44 44 45 51 54 55 -177 64 76 -209 -193 -193 73 -177 -177 544 542 543 546 544 544 63 68 -193 68 -193 -193 -193 -177 -177 -177 -193 -193 76 77 83 86 86 90 91 91 92 91 95 95 94 95 95 98 98 98 98 95 93 105 108 106 106 116 112 113 117 -193 863 862 862 125 125 129 129 131 129 133 134 -193 -193 -193 -193 -209 196 195 195 197 -193 -193 97 96 100 -177 108 -193 116 117 117 115 -209 -193 -177 -193 -209 -193 164 160 160 160 157 156 158 -193 482 -193 -193 -209 -209 -209 -209 187 189 188 189 190 188 187 0 0 0 0 0
    0 0 0 0 0 0 0 0 0 0 0 0 0 0 0 0 0 0 0 0 0 0 0 0 0 0 0 0 0 0 0 0 0 0 0 0 0 0 0 0 0 0 0 0 0 0 0 0 0 0 0 0 0 0 0 0 0 0 0 0 0 0 0 0 0 0 0 0 0 46 46 45 46 44 48 45 46 46 46 45 46 44 46 42 44 -193 -193 41 41 40 38 35 34 33 33 30 31 30 29 28 30 27 27 26 26 25 25 28 27 28 29 -193 27 27 27 27 22 22 20 22 20 18 20 18 16 17 15 15 13 14 15 13 12 11 11 10 10 9 0 0 10 10 10 10 9 9 9 10 11 10 10 11 11 11 10 11 10 9 9 9 9 0 0 0 0 0 9 10 10 11 11 17 24 25 23 -177 -177 -177 -177 -177 28 28 28 30 32 34 34 31 37 40 -193 42 43 43 44 50 53 54 45 61 75 -209 -193 -193 72 -177 -177 544 542 543 546 544 544 63 68 68 68 -193 -193 -193 -177 -177 -177 -193 -193 76 77 83 86 86 90 90 91 92 91 95 94 93 94 95 97 98 98 98 95 93 104 105 105 105 115 112 113 118 869 864 863 863 125 125 129 130 131 130 134 135 -193 139 -193 -193 -209 196 195 195 197 -193 -193 97 96 100 -177 109 -193 118 119 120 117 -193 -177 191 -193 -209 -193 164 160 160 160 157 156 157 -193 -209 -209 -209 -209 -209 -209 -209 187 190 189 189 190 188 187 0 0 0 0 0
    0 0 0 0 0 0 0 0 0 0 0 0 0 0 0 0 0 0 0 0 0 0 0 0 0 0 0 0 0 0 0 0 0 0 0 0 0 0 0 0 0 0 0 0 0 0 0 0 0 0 0 0 0 0 0 0 0 0 0 0 0 0 0 0 0 0 0 0 0 46 46 45 46 44 48 45 46 46 46 45 46 44 46 42 44 -193 -193 41 41 41 39 36 34 33 33 30 31 30 29 28 29 27 27 26 25 25 25 28 27 28 29 -193 28 28 27 28 -193 -193 20 22 20 18 20 18 16 17 15 15 13 14 15 13 11 10 10 9 9 0 0 0 9 10 9 9 9 9 9 10 11 10 11 12 12 11 11 12 11 10 10 9 9 9 9 9 0 0 9 11 10 11 11 18 24 25 23 -177 -177 -177 -177 -177 28 28 28 30 31 34 34 31 37 39 39 42 43 43 45 49 52 53 44 58 -193 55 55 56 70 -177 -177 544 542 542 546 544 544 63 68 68 68 69 67 67 -177 -177 -177 -193 -193 76 77 83 86 86 90 90 90 91 91 94 94 93 93 94 96 97 98 97 94 92 103 104 103 104 115 111 113 118 869 864 863 863 126 126 129 131 132 130 -193 135 -193 140 -193 -193 -193 -193 195 195 197 -209 -193 97 96 100 -209 109 -209 119 120 -177 119 122 191 193 191 -209 -209 164 160 160 160 157 155 157 -193 -209 -209 -209 -209 -209 -193 184 188 190 189 189 189 188 187 0 0 0 0 0
    0 0 0 0 0 0 0 0 0 0 0 0 0 0 0 0 0 0 0 0 0 0 0 0 0 0 0 0 0 0 0 0 0 0 0 0 0 0 0 0 0 0 0 0 0 0 0 0 0 0 0 0 0 0 0 0 0 0 0 0 0 0 0 0 0 0 0 0 0 46 46 45 47 44 48 45 47 46 46 45 46 44 46 42 45 -193 -193 41 41 40 39 36 34 33 33 30 31 29 29 28 29 27 26 26 25 25 25 29 27 28 -193 -193 28 28 28 29 -193 -177 20 22 21 18 20 19 17 17 15 15 13 13 14 12 10 10 10 10 9 9 9 0 10 11 10 10 9 10 9 10 11 11 12 12 13 13 12 13 12 11 11 10 10 9 9 9 0 9 9 11 11 11 11 18 24 26 23 -177 -177 -177 -177 -177 27 27 27 29 31 33 34 31 37 39 39 42 43 43 45 49 52 52 43 57 -193 54 54 55 69 60 58 544 542 542 545 543 543 63 68 69 68 69 68 67 -177 -177 -177 -193 -193 76 77 83 86 86 90 90 91 91 91 95 95 93 93 94 96 97 98 97 94 91 101 103 102 103 115 112 115 118 -193 -193 -193 -193 126 126 129 132 132 131 -209 -193 -193 141 141 141 -193 -193 -177 195 -193 -209 -193 97 95 99 -209 -193 22 -193 121 -177 121 123 193 194 192 188 -193 164 159 160 159 157 155 157 157 156 -209 -209 -209 -193 182 184 187 190 189 188 189 188 187 0 0 0 0 0
    0 0 0 0 0 0 0 0 0 0 0 0 0 0 0 0 0 0 0 0 0 0 0 0 0 0 0 0 0 0 0 0 0 0 0 0 0 0 0 0 0 0 0 0 0 0 0 0 0 0 0 0 0 0 0 0 0 0 0 0 0 0 0 0 0 0 0 0 0 47 46 45 48 44 49 46 47 46 46 45 46 45 47 42 45 -193 -193 41 41 40 38 36 34 33 32 29 30 29 29 28 29 27 26 26 25 25 25 29 27 28 -193 -193 28 29 28 29 -193 -177 20 22 21 19 21 20 17 18 15 16 13 13 14 12 10 10 10 10 9 11 10 10 11 12 10 10 10 10 9 10 10 10 11 12 12 12 12 13 12 12 11 10 10 9 9 9 0 9 9 11 11 11 11 18 24 25 22 -177 -177 -177 -177 -177 27 27 27 29 31 33 34 31 36 39 38 42 42 42 45 49 52 52 43 56 54 55 55 55 68 59 -193 545 542 542 545 543 543 63 68 69 68 69 68 67 -177 -177 -177 -193 -193 75 -193 82 86 87 90 90 91 91 91 95 95 93 92 95 97 97 98 97 94 91 101 103 103 104 115 114 116 119 -193 124 -193 -193 126 125 129 132 133 131 -193 -193 -193 141 -193 -193 -193 -193 195 194 -209 -193 -193 97 95 98 -177 -209 20 -209 123 -193 123 125 -193 195 194 -193 -209 162 158 159 158 157 155 157 157 156 -209 -209 -209 176 181 183 187 189 189 188 189 188 187 0 0 0 0 0
    0 0 0 0 0 0 0 0 0 0 0 0 0 0 0 0 0 0 0 0 0 0 0 0 0 0 0 0 0 0 0 0 0 0 0 0 0 0 0 0 0 0 0 0 0 0 0 0 0 0 0 0 0 0 0 0 0 0 0 0 0 0 0 0 0 0 0 0 0 48 47 47 49 44 49 46 47 46 46 45 46 45 47 42 44 -193 -193 41 40 39 38 36 34 33 32 29 30 29 29 28 29 27 26 26 25 25 25 29 27 28 -193 -193 28 29 28 29 23 -193 20 22 21 18 21 19 16 17 15 15 13 13 13 12 10 11 11 11 10 12 11 11 12 12 11 10 10 11 9 10 10 10 11 12 12 13 13 14 12 12 11 10 10 10 9 9 0 9 9 11 11 11 11 17 24 25 22 -177 -177 -177 -177 -177 27 27 27 29 31 33 33 31 36 39 38 42 42 42 45 49 51 51 43 55 53 55 55 55 67 58 -193 545 542 542 545 543 543 63 68 69 68 69 68 67 -177 -177 -177 -193 -209 75 -193 82 86 86 89 89 90 91 92 95 95 93 92 95 97 98 98 98 94 91 101 104 103 104 115 116 118 119 -193 124 124 128 125 125 129 133 133 132 -193 -193 -209 141 -193 -193 -177 -193 194 194 -209 -193 -193 97 95 98 627 -209 19 -209 -193 -193 124 126 -193 -193 194 -209 -209 161 157 158 157 156 155 156 157 156 -209 -209 -209 173 179 183 186 188 188 188 189 188 187 0 0 0 0 0
    0 0 0 0 0 0 0 0 0 0 0 0 0 0 0 0 0 0 0 0 0 0 0 0 0 0 0 0 0 0 0 0 0 0 0 0 0 0 0 0 0 0 0 0 0 0 0 0 0 0 0 0 0 0 0 0 0 0 0 0 0 0 0 0 0 0 0 0 0 48 47 47 49 44 49 45 46 46 46 45 46 45 46 42 44 -193 42 41 40 39 38 36 35 33 32 29 30 28 28 28 29 27 26 26 25 25 25 29 27 28 -193 -193 28 29 29 29 23 23 20 23 21 19 21 20 16 17 15 16 13 14 14 12 11 13 12 11 11 13 12 12 12 12 11 11 11 11 9 11 11 11 12 12 12 13 13 14 12 12 11 11 11 10 9 9 9 9 10 11 11 10 11 17 23 24 22 24 24 24 -177 -177 26 27 27 29 31 32 33 30 36 39 38 41 42 42 45 48 51 50 42 53 52 54 54 55 65 58 57 546 542 -193 544 542 542 63 68 69 68 69 67 67 -177 -177 -177 -193 -209 75 -209 81 85 86 89 89 91 91 92 96 96 94 92 95 97 98 98 98 94 91 100 103 103 104 115 116 119 119 131 124 125 128 125 125 128 133 -193 -193 -193 -193 -209 -193 -193 -193 -177 -193 194 -193 -193 -193 310 -193 96 98 -177 -209 19 -209 -209 -209 -193 -193 -193 -193 195 -209 -209 160 157 157 156 156 155 156 157 156 -209 -209 -209 -193 178 182 185 188 188 188 189 189 187 0 0 0 0 0
    0 0 0 0 0 0 0 0 0 0 0 0 0 0 0 0 0 0 0 0 0 0 0 0 0 0 0 0 0 0 0 0 0 0 0 0 0 0 0 0 0 0 0 0 0 0 0 0 0 0 0 0 0 0 0 0 0 0 0 0 0 0 0 0 0 0 0 0 0 48 47 47 48 43 49 45 46 46 45 45 45 45 46 42 44 42 42 42 41 40 39 37 35 33 32 28 29 27 28 27 28 26 26 26 25 25 25 28 27 28 -193 -193 27 28 28 29 24 23 21 23 22 20 22 20 17 17 16 16 14 15 15 13 12 15 13 13 12 15 12 12 13 13 11 12 12 12 10 12 11 11 13 12 12 13 13 14 12 12 11 11 11 11 10 9 9 9 9 11 11 10 11 15 22 23 21 24 23 24 -177 26 26 27 27 28 31 32 33 31 36 39 38 41 42 42 45 48 50 49 42 52 52 -193 56 56 66 58 57 -177 -193 -193 543 541 -193 62 67 69 68 69 67 67 -193 -177 -177 -193 -209 75 -193 80 85 -193 89 89 91 91 93 96 97 94 92 95 98 99 99 98 94 92 101 103 103 104 115 117 120 120 131 125 125 128 125 125 128 133 -193 -193 -193 -209 -209 -193 -193 -193 -177 -193 194 -193 307 868 310 -193 97 98 -209 -209 18 -209 -209 -193 -209 -193 -193 -193 195 -209 -209 159 157 157 155 156 154 156 -193 -193 -209 -209 -177 -209 177 182 -193 -193 188 188 189 189 -193 0 0 0 0 0
    0 0 0 0 0 0 0 0 0 0 0 0 0 0 0 0 0 0 0 0 0 0 0 0 0 0 0 0 0 0 0 0 0 0 0 0 0 0 0 0 0 0 0 0 0 0 0 0 0 0 0 0 0 0 0 0 0 0 0 0 0 0 0 0 0 0 0 0 0 48 47 48 47 43 48 45 45 46 45 45 45 44 46 42 43 42 41 42 41 40 41 39 37 35 33 29 30 27 28 27 28 26 26 26 26 25 25 28 27 27 27 27 27 28 28 28 24 24 22 24 23 21 22 20 18 18 16 17 14 15 16 14 13 16 15 14 13 16 13 13 13 13 12 12 12 12 10 12 11 11 12 12 12 13 12 14 12 12 11 10 11 11 10 9 9 9 9 11 11 10 10 14 20 22 21 23 22 23 26 26 25 26 27 28 30 32 33 31 36 39 39 41 43 42 45 47 49 47 43 48 52 56 58 58 66 59 58 -193 59 -193 -193 -193 -177 62 67 69 67 69 67 66 -193 -177 -177 -209 -209 75 -193 81 85 -193 89 -193 91 91 93 96 97 94 92 95 98 99 99 98 95 92 101 102 102 104 115 117 120 120 130 125 125 127 125 124 127 133 -193 -193 763 -209 -209 966 964 962 -177 -193 -193 -193 306 -193 309 -193 97 98 -209 -209 18 -193 -193 -177 -193 -193 130 -193 -209 -209 -209 -193 157 157 155 156 154 -193 -193 -193 -209 -209 90 -209 176 181 -193 -193 -193 188 190 190 -193 0 0 0 0 0
    0 0 0 0 0 0 0 0 0 0 0 0 0 0 0 0 0 0 0 0 0 0 0 0 0 0 0 0 0 0 0 0 0 0 0 0 0 0 0 0 0 0 0 0 0 0 0 0 0 0 0 0 0 0 0 0 0 0 0 0 0 0 0 0 0 0 0 0 0 48 47 48 46 42 48 45 45 45 45 44 44 44 45 42 43 42 42 43 42 41 42 41 39 38 35 30 30 28 28 27 29 27 26 26 26 25 25 28 26 27 27 26 27 27 28 28 25 25 23 24 23 22 23 21 18 18 18 18 16 17 19 17 16 19 18 16 16 18 15 14 14 14 14 13 13 13 11 13 12 12 13 12 12 13 12 13 12 12 12 10 11 11 10 9 9 9 9 11 11 10 11 14 19 22 21 24 22 23 26 26 26 27 27 28 30 32 33 31 36 38 38 41 42 42 45 47 49 47 44 47 53 57 58 59 64 59 59 -193 60 -193 -193 65 -177 62 67 69 68 69 67 67 -193 -177 -193 -193 -193 76 -193 82 85 -193 88 -193 91 91 92 96 97 94 92 96 98 99 99 99 95 92 100 102 102 104 115 118 120 120 131 125 125 127 125 124 127 132 133 -177 764 -193 -209 966 964 963 -193 -193 -209 -209 306 -193 308 -193 97 97 -209 -209 17 20 -193 -177 -177 -193 -193 -193 -209 -209 -193 -193 157 158 155 156 155 157 -193 -193 -193 -209 90 -209 176 181 -209 -209 -193 188 190 190 189 0 0 0 0 0
    0 0 0 0 0 0 0 0 0 0 0 0 0 0 0 0 0 0 0 0 0 0 0 0 0 0 0 0 0 0 0 0 0 0 0 0 0 0 0 0 0 0 0 0 0 0 0 0 0 0 0 0 0 0 0 0 0 0 0 0 0 0 0 0 0 0 0 0 0 48 47 49 46 43 48 45 45 45 45 44 44 45 45 42 43 42 42 43 43 43 43 42 41 39 36 30 31 28 28 28 30 27 27 27 26 25 25 27 26 26 26 26 26 27 28 28 25 25 23 25 24 23 23 21 19 19 19 19 18 18 19 19 18 20 19 17 18 18 16 15 15 15 15 13 14 13 11 13 12 12 13 12 12 13 12 13 12 12 12 11 11 11 10 9 9 9 9 11 11 10 11 13 17 21 20 24 22 24 26 26 26 27 28 29 30 32 33 32 36 38 39 41 43 43 45 47 49 47 45 48 52 56 58 58 64 59 59 -193 60 60 62 64 64 61 67 69 68 69 67 67 -193 -193 -209 -193 -193 -193 -193 82 85 -193 88 -193 91 90 91 96 97 94 92 96 99 99 99 99 95 92 101 103 104 105 116 119 121 120 130 125 125 126 125 124 126 132 132 -177 -193 -177 -209 -177 -177 -177 -193 127 -193 -209 305 308 308 306 98 97 -209 -209 16 19 18 -177 -177 -193 -193 -209 -209 -193 -193 -193 157 159 156 157 157 160 -193 162 -209 -209 90 -209 176 181 -209 -193 -193 188 189 190 189 0 0 0 0 0
    0 0 0 0 0 0 0 0 0 0 0 0 0 0 0 0 0 0 0 0 0 0 0 0 0 0 0 0 0 0 0 0 0 0 0 0 0 0 0 0 0 0 0 0 0 0 0 0 0 0 0 0 0 0 0 0 0 0 0 0 0 0 0 0 0 0 0 0 0 48 47 49 46 43 48 44 45 45 45 44 44 45 45 42 43 43 42 44 44 44 43 44 42 40 37 31 31 29 29 29 31 28 27 27 26 25 25 27 26 26 26 26 26 26 27 27 25 25 24 25 25 24 25 22 20 20 21 22 21 20 20 19 19 21 20 18 19 19 16 17 16 16 15 13 15 13 11 14 12 11 13 11 12 12 12 13 12 12 12 10 11 11 9 9 0 9 9 10 11 10 11 12 16 20 20 24 23 24 27 27 27 28 29 29 30 33 33 32 36 38 39 40 43 43 45 47 49 47 45 48 52 56 58 58 64 60 60 61 62 61 62 65 64 62 67 69 68 69 67 67 -193 -209 -193 -193 -193 77 -193 83 -193 -193 89 89 91 90 92 96 97 94 93 96 98 99 99 99 96 92 102 103 105 106 116 120 121 121 130 125 125 126 125 124 126 131 131 -177 -177 -177 -193 -209 -193 -193 128 126 -193 -193 304 308 307 305 -193 -193 -209 -209 16 19 19 15 -177 -177 -193 -209 -209 -193 -193 -193 158 160 158 158 159 162 165 164 -209 -209 90 -193 175 180 -193 90 -193 -193 188 -193 189 0 0 0 0 0
    0 0 0 0 0 0 0 0 0 0 0 0 0 0 0 0 0 0 0 0 0 0 0 0 0 0 0 0 0 0 0 0 0 0 0 0 0 0 0 0 0 0 0 0 0 0 0 0 0 0 0 0 0 0 0 0 0 0 0 0 0 0 0 0 0 0 0 0 0 48 47 49 45 43 48 44 44 45 44 44 44 45 45 42 43 43 43 45 45 45 43 45 44 42 39 35 33 30 30 30 31 28 27 27 26 25 25 26 26 26 26 25 26 26 27 27 26 26 24 25 25 25 25 23 21 20 22 23 23 22 21 21 21 21 21 19 20 19 16 16 16 16 15 13 15 13 11 14 12 11 12 11 11 12 12 12 11 12 12 10 10 10 9 0 0 0 9 10 10 10 10 12 14 18 20 26 24 25 28 27 28 29 30 30 31 33 34 33 36 38 39 40 43 43 45 47 48 47 45 47 51 55 57 57 63 60 61 62 63 62 63 65 64 62 67 68 67 68 67 67 71 73 -193 -193 -193 78 -193 83 85 -193 88 88 90 89 90 94 96 93 93 95 97 99 99 99 96 92 104 104 105 106 115 120 121 121 131 125 125 126 125 124 126 131 130 -177 -193 -177 -193 -209 -193 -193 127 126 -193 -193 304 307 306 305 -193 -193 -209 -209 17 19 19 17 17 18 16 23 -209 -209 -193 157 158 161 -177 -177 161 164 166 166 -209 170 -193 -193 174 178 -193 90 89 -193 -193 -193 -193 0 0 0 0 0
    0 0 0 0 0 0 0 0 0 0 0 0 0 0 0 0 0 0 0 0 0 0 0 0 0 0 0 0 0 0 0 0 0 0 0 0 0 0 0 0 0 0 0 0 0 0 0 0 0 0 0 0 0 0 0 0 0 0 0 0 0 0 0 0 0 0 0 0 0 48 47 49 45 43 47 44 44 45 44 44 43 45 45 42 43 43 43 46 46 46 45 47 46 45 41 38 36 32 32 31 32 28 27 27 27 25 25 26 26 25 25 25 25 25 26 27 27 26 25 26 26 25 26 24 22 20 22 22 24 22 22 21 22 22 22 20 21 19 18 17 17 16 15 14 15 13 12 14 12 12 13 12 12 13 12 13 12 12 12 11 10 10 9 0 0 0 9 10 10 11 11 12 14 17 20 27 24 25 27 27 28 29 31 30 30 34 34 34 37 39 40 41 43 43 45 46 48 47 45 47 50 53 56 56 61 59 61 61 63 63 63 65 64 62 67 67 66 67 66 67 70 74 75 -193 -193 78 -193 83 85 -193 88 87 89 87 88 92 95 93 92 94 97 99 99 99 96 92 103 102 103 104 116 121 122 122 131 126 125 126 126 124 125 131 130 -193 -193 -177 -193 -193 133 133 127 127 -193 -193 304 307 306 305 -193 -193 -209 -209 17 20 20 18 18 18 17 21 -177 -209 -177 157 158 161 -177 -177 162 165 166 -193 -209 170 -193 -193 173 176 178 -193 89 -209 -193 -193 -193 0 0 0 0 0
    0 0 0 0 0 0 0 0 0 0 0 0 0 0 0 0 0 0 0 0 0 0 0 0 0 0 0 0 0 0 0 0 0 0 0 0 0 0 0 0 0 0 0 0 0 0 0 0 0 0 0 0 0 0 0 0 0 0 0 0 0 0 0 0 0 0 0 0 0 48 47 49 44 43 47 44 44 45 44 44 43 45 46 42 43 43 43 45 46 46 46 47 47 45 42 39 37 35 34 32 33 28 27 27 27 26 25 26 25 25 25 25 25 25 26 27 27 27 26 26 26 26 26 25 23 21 22 21 23 23 22 22 22 22 22 20 21 19 18 17 17 16 15 13 15 13 12 14 12 12 13 12 13 13 12 13 12 12 13 10 10 10 9 0 0 0 9 10 11 11 12 13 15 17 21 27 24 25 27 27 28 29 30 30 30 34 35 35 38 40 41 41 44 44 45 46 48 47 44 46 49 52 55 54 59 59 60 61 63 63 63 66 65 63 67 67 67 67 67 67 70 74 75 75 76 78 80 83 85 85 88 87 89 88 88 92 95 93 93 94 96 99 99 99 96 92 102 101 102 104 115 120 122 122 131 126 125 125 126 124 125 131 129 -193 -193 -193 -177 130 132 132 127 128 -193 -193 303 307 306 305 -193 -193 -209 -209 18 20 19 18 -177 16 15 17 18 -209 -177 157 159 162 161 -177 -193 -193 -193 -193 -209 170 -193 -193 172 175 -193 -193 -193 -193 -193 -193 -193 0 0 0 0 0
    0 0 0 0 0 0 0 0 0 0 0 0 0 0 0 0 0 0 0 0 0 0 0 0 0 0 0 0 0 0 0 0 0 0 0 0 0 0 0 0 0 0 0 0 0 0 0 0 0 0 0 0 0 0 0 0 0 0 0 0 0 0 0 0 0 0 0 0 0 48 47 49 44 43 47 44 44 45 44 44 43 45 46 43 44 44 44 45 46 46 45 47 46 45 42 40 38 36 36 34 34 29 27 27 27 26 26 25 25 24 24 24 24 24 25 27 27 27 26 26 26 26 26 25 23 22 23 21 23 23 23 23 23 23 23 21 22 20 19 18 17 17 15 13 15 13 12 13 12 11 13 12 13 12 12 12 12 11 12 10 10 9 9 0 0 0 0 9 11 11 11 13 17 19 21 27 25 26 27 27 28 29 31 31 30 35 36 36 38 40 42 42 44 44 45 46 47 46 45 47 49 51 55 55 59 59 61 62 64 64 64 66 65 64 68 67 66 66 66 67 69 74 75 75 76 77 79 82 85 83 87 86 89 88 89 93 96 94 94 95 97 99 100 99 97 93 103 105 104 106 116 120 121 122 131 126 125 125 127 125 126 131 129 127 130 -193 130 129 131 132 128 130 -193 -193 -177 -177 306 305 -177 -193 -209 -209 19 20 18 -177 -177 13 13 -193 -193 -193 159 158 159 163 162 -193 -193 -193 -193 -193 -209 170 -193 -193 -193 -193 -193 -209 -193 -193 -193 90 -193 0 0 0 0 0
    0 0 0 0 0 0 0 0 0 0 0 0 0 0 0 0 0 0 0 0 0 0 0 0 0 0 0 0 0 0 0 0 0 0 0 0 0 0 0 0 0 0 0 0 0 0 0 0 0 0 0 0 0 0 0 0 0 0 0 0 0 0 0 0 0 0 0 0 0 48 47 49 44 43 47 44 45 44 45 44 44 45 46 43 44 44 44 45 46 46 45 47 46 45 43 41 39 37 37 35 34 29 27 27 27 26 26 25 25 23 24 24 24 24 24 27 28 27 27 27 27 26 26 26 24 23 23 21 23 22 23 23 23 23 23 21 21 20 18 17 17 16 15 12 14 13 12 14 13 11 13 12 13 12 12 12 12 11 12 11 10 9 9 0 0 0 0 0 12 13 13 15 19 21 22 27 26 27 27 28 29 29 32 32 30 35 36 37 38 40 42 42 44 44 45 46 47 46 45 47 48 49 54 54 58 59 61 63 64 64 64 66 65 65 68 67 66 66 67 68 69 74 75 75 77 77 79 82 84 80 85 85 87 87 88 92 95 93 94 95 96 98 100 99 97 92 104 106 107 108 116 120 121 121 131 126 125 125 127 125 126 130 128 126 130 128 130 129 131 132 128 132 -193 -193 -177 -177 -177 -177 -177 -193 -209 -209 18 -177 -177 -177 -177 11 11 -209 -209 156 159 158 159 163 162 -193 -177 -193 -193 -193 -193 171 88 172 -193 -193 -193 -209 87 -193 90 90 89 0 0 0 0 0
    0 0 0 0 0 0 0 0 0 0 0 0 0 0 0 0 0 0 0 0 0 0 0 0 0 0 0 0 0 0 0 0 0 0 0 0 0 0 0 0 0 0 0 0 0 0 0 0 0 0 0 0 0 0 0 0 0 0 0 0 0 0 0 0 0 0 0 0 0 48 47 49 44 43 46 44 45 45 45 44 44 46 47 44 45 45 45 45 46 46 45 46 45 45 43 41 39 38 37 36 35 29 27 27 27 26 26 25 25 23 24 24 25 25 25 28 28 28 28 28 27 27 27 27 25 24 24 21 22 22 23 23 23 23 23 21 21 20 18 17 17 16 15 13 15 13 13 15 13 11 14 13 14 12 12 13 12 12 13 11 10 9 9 0 0 0 0 9 14 17 15 16 19 21 22 28 26 27 27 29 30 30 32 33 30 36 35 37 38 40 41 42 44 44 45 45 46 46 45 47 46 46 52 54 58 58 61 64 65 65 65 66 65 66 68 67 65 66 67 69 69 74 74 74 75 75 77 79 81 76 82 83 86 86 88 91 96 93 94 95 96 98 99 99 97 92 104 107 107 109 117 121 121 122 131 125 125 125 127 126 125 130 128 126 129 128 129 128 130 132 128 133 -193 -193 -177 -177 -177 -177 -177 -193 -209 -209 18 -177 -177 -177 -177 11 11 -193 -209 156 159 158 159 163 162 -193 -177 -193 -193 -193 170 171 -193 173 -193 -193 -193 -193 -193 -193 90 90 89 0 0 0 0 0
    0 0 0 0 0 0 0 0 0 0 0 0 0 0 0 0 0 0 0 0 0 0 0 0 0 0 0 0 0 0 0 0 0 0 0 0 0 0 0 0 0 0 0 0 0 0 0 0 0 0 0 0 0 0 0 0 0 0 0 0 0 0 0 0 0 0 0 0 0 48 46 49 44 43 46 44 45 45 46 45 44 46 48 45 45 45 45 45 46 46 45 46 45 45 43 42 40 38 37 35 35 29 27 27 27 26 26 26 26 23 24 24 25 24 25 28 28 28 27 28 27 27 27 27 24 23 23 20 21 22 23 23 23 23 23 21 22 21 19 18 17 15 15 13 14 13 12 14 13 12 14 14 14 13 13 13 12 12 13 11 11 9 9 9 0 9 0 9 15 19 16 16 20 21 22 27 26 27 27 28 30 30 31 32 30 36 35 37 39 40 41 42 44 44 45 44 45 45 44 46 44 42 48 52 58 59 61 65 65 65 65 66 65 66 67 67 63 65 67 68 63 65 65 67 63 66 65 70 72 72 80 83 86 86 88 91 96 93 94 94 96 97 99 98 96 91 104 107 107 109 116 121 121 121 129 125 124 125 126 126 125 130 127 125 128 128 129 128 130 132 128 133 -209 -193 -177 -177 -177 -177 -177 -193 -209 -193 18 -177 -177 -177 -177 -177 10 -193 -209 157 159 158 159 162 162 165 -193 -193 -193 168 170 171 -193 173 -193 -193 -193 -193 -193 -193 90 91 89 0 0 0 0 0
    0 0 0 0 0 0 0 0 0 0 0 0 0 0 0 0 0 0 0 0 0 0 0 0 0 0 0 0 0 0 0 0 0 0 0 0 0 0 0 0 0 0 0 0 0 0 0 0 0 0 0 0 0 0 0 0 0 0 0 0 0 0 0 0 0 0 0 0 0 48 46 49 44 43 46 45 46 46 46 45 45 47 49 45 46 45 45 45 46 46 46 46 46 45 44 43 41 39 38 36 35 29 27 27 27 26 26 26 26 23 24 24 25 24 24 29 28 28 27 27 27 27 27 27 23 23 23 20 21 21 24 23 24 23 23 22 22 22 20 18 18 15 15 13 14 13 13 16 15 13 14 14 14 13 13 13 12 11 12 12 11 9 10 10 9 9 10 10 17 20 18 18 20 21 22 26 26 27 27 28 29 29 31 32 30 35 34 37 39 40 41 42 43 43 44 44 44 43 43 45 42 41 45 51 57 58 60 65 64 64 65 66 65 66 67 67 63 65 66 66 61 60 61 64 62 61 60 61 64 70 80 83 87 87 88 91 96 94 93 93 95 96 98 97 96 91 99 104 105 107 116 119 120 120 127 125 124 124 126 125 125 129 127 125 127 128 129 128 130 132 129 135 -209 -209 -177 -177 -177 -177 -177 -209 -209 -193 18 -177 -177 -177 -177 -177 10 -193 -209 157 159 158 159 162 161 165 -193 -193 167 168 170 170 -193 174 -193 -193 -193 -193 -193 -193 91 91 90 0 0 0 0 0
    0 0 0 0 0 0 0 0 0 0 0 0 0 0 0 0 0 0 0 0 0 0 0 0 0 0 0 0 0 0 0 0 0 0 0 0 0 0 0 0 0 0 0 0 0 0 0 0 0 0 0 0 0 0 0 0 0 0 0 0 0 0 0 0 0 0 0 0 0 48 46 50 44 43 46 45 45 45 46 46 44 47 49 45 46 46 46 45 46 46 46 46 46 45 44 43 41 40 39 36 35 29 27 27 27 26 26 26 26 23 24 24 24 24 24 29 28 28 27 27 27 27 27 27 24 22 23 19 20 21 24 24 24 24 24 22 23 22 21 18 18 16 15 14 15 15 14 18 18 15 14 14 14 13 13 13 12 12 13 13 12 10 11 11 10 10 10 10 18 21 18 18 20 21 22 25 25 27 27 28 29 29 30 32 29 34 32 37 39 39 40 42 43 43 43 43 43 43 43 45 41 40 45 53 57 58 59 65 63 63 64 65 64 65 66 66 61 65 65 66 61 60 61 64 65 66 63 66 68 71 77 81 85 86 86 88 94 92 93 93 94 94 96 96 94 91 95 100 103 107 115 118 118 120 125 124 123 124 125 125 124 129 127 126 127 128 129 128 130 132 130 136 -209 -209 -177 -177 -177 -177 -193 156 -193 -193 17 15 14 -177 -177 -177 9 -193 -193 -193 -177 158 160 162 162 165 -193 -193 167 -193 -193 -193 -193 174 -193 -193 175 177 -193 -193 91 91 90 0 0 0 0 0
    0 0 0 0 0 0 0 0 0 0 0 0 0 0 0 0 0 0 0 0 0 0 0 0 0 0 0 0 0 0 0 0 0 0 0 0 0 0 0 0 0 0 0 0 0 0 0 0 0 0 0 0 0 0 0 0 0 0 0 0 0 0 0 0 0 0 0 0 0 48 46 50 44 43 45 44 45 45 45 45 44 46 49 45 46 45 46 45 47 46 46 46 46 46 45 43 42 40 39 37 35 29 27 27 27 26 26 26 26 23 24 23 24 23 23 28 27 27 27 28 27 27 27 27 24 24 24 20 20 22 25 25 26 25 25 23 23 23 21 19 18 16 17 15 17 18 16 21 21 18 14 14 14 13 13 13 12 12 13 13 13 11 12 12 11 12 10 11 20 21 18 18 20 21 22 25 25 28 27 28 29 29 30 31 29 32 30 35 38 38 39 42 43 43 43 43 43 43 44 47 42 42 48 54 57 58 59 64 62 63 64 65 64 64 66 66 61 66 65 65 61 59 62 64 67 69 67 68 68 71 77 82 87 88 88 90 95 93 93 94 94 94 96 96 95 92 98 101 103 108 115 117 117 119 122 123 123 123 124 124 124 128 127 125 126 128 129 128 130 132 131 137 -209 -209 -193 -193 -193 -177 -193 156 -193 -193 17 15 13 -177 -177 -177 9 -193 -193 157 -177 159 161 163 162 165 -193 -193 -193 -193 -193 -193 171 176 173 175 176 178 179 180 -193 -193 -193 0 0 0 0 0
    0 0 0 0 0 0 0 0 0 0 0 0 0 0 0 0 0 0 0 0 0 0 0 0 0 0 0 0 0 0 0 0 0 0 0 0 0 0 0 0 0 0 0 0 0 0 0 0 0 0 0 0 0 0 0 0 0 0 0 0 0 0 0 0 0 0 0 0 0 48 46 50 44 43 45 44 45 45 46 45 44 47 49 45 46 46 47 46 47 47 47 46 47 46 45 44 42 41 39 37 35 29 27 27 27 26 27 26 26 23 25 24 24 23 24 27 26 27 26 27 27 27 27 27 25 25 25 22 21 23 28 26 27 26 25 23 23 23 21 18 18 16 17 15 19 19 18 23 23 19 15 13 14 13 13 13 12 12 13 13 13 11 12 12 11 12 9 9 20 20 17 16 20 21 22 26 26 29 28 29 29 30 30 31 30 32 30 34 38 37 38 41 42 42 43 42 43 42 45 47 43 43 50 55 58 59 60 65 63 63 64 66 64 65 66 66 61 66 66 65 60 59 63 65 68 70 70 70 70 72 75 82 89 90 90 92 96 94 94 96 94 94 96 96 96 95 100 103 105 109 115 117 116 118 120 122 121 121 122 124 123 127 126 125 125 128 129 128 129 132 130 138 -209 -209 -177 -209 -209 -209 155 156 -193 -193 -177 -177 -177 -177 -177 -177 10 -193 -193 157 159 159 161 163 162 165 -193 -193 -193 -193 -193 -193 172 177 175 176 177 178 180 181 183 -193 -193 0 0 0 0 0
    0 0 0 0 0 0 0 0 0 0 0 0 0 0 0 0 0 0 0 0 0 0 0 0 0 0 0 0 0 0 0 0 0 0 0 0 0 0 0 0 0 0 0 0 0 0 0 0 0 0 0 0 0 0 0 0 0 0 0 0 0 0 0 0 0 0 0 0 0 48 46 51 45 44 46 45 45 45 45 45 44 46 48 45 46 47 47 46 48 47 47 46 47 46 45 44 42 41 40 37 35 29 28 28 27 27 27 27 27 24 25 24 24 24 24 26 26 27 26 27 27 27 27 27 25 26 25 24 21 23 31 28 29 27 26 24 24 24 22 19 19 17 20 17 20 20 21 24 24 20 15 14 14 14 13 13 12 12 14 13 13 12 14 14 13 16 13 11 20 21 18 16 19 22 23 26 27 30 28 30 30 30 30 31 30 32 30 34 38 35 37 40 42 42 42 42 42 42 45 47 43 45 51 56 59 60 61 65 63 63 63 65 63 63 64 64 59 63 63 62 59 58 61 63 67 70 72 72 71 73 74 80 88 89 90 92 95 94 93 96 94 94 96 96 97 97 101 103 105 109 114 117 116 117 119 120 120 120 121 123 122 126 126 124 124 127 129 128 127 131 128 138 -209 -209 93 -209 -209 -209 -193 -193 -193 -193 -177 -177 -177 -177 -177 -177 10 -193 -193 157 158 158 161 163 162 165 -193 -193 -193 -193 -193 -193 172 178 175 176 178 179 181 181 183 -193 183 0 0 0 0 0
    0 0 0 0 0 0 0 0 0 0 0 0 0 0 0 0 0 0 0 0 0 0 0 0 0 0 0 0 0 0 0 0 0 0 0 0 0 0 0 0 0 0 0 0 0 0 0 0 0 0 0 0 0 0 0 0 0 0 0 0 0 0 0 0 0 0 0 0 0 48 47 51 46 46 47 45 45 45 45 45 43 46 47 45 46 47 46 46 48 48 47 47 48 47 46 44 43 42 40 37 35 29 28 28 28 27 28 28 28 25 26 25 25 24 25 27 27 27 27 27 27 27 27 27 26 26 25 24 22 23 30 28 29 26 26 24 24 24 23 20 20 18 22 21 23 22 22 25 25 22 17 15 16 16 16 16 12 12 13 13 12 11 13 14 13 20 17 13 19 22 18 16 18 23 23 27 27 31 29 30 30 30 30 30 30 31 29 32 37 34 37 40 41 42 42 42 43 42 45 48 43 48 53 57 60 61 62 65 63 63 63 64 63 62 63 64 58 62 61 61 60 58 61 65 71 73 74 75 75 76 77 81 86 88 89 91 93 93 92 96 94 95 96 96 97 98 101 103 105 109 114 117 116 117 118 120 120 120 120 122 122 126 125 124 123 126 128 128 125 129 -193 -209 18 -193 -193 -209 -193 -193 -193 -193 -193 -193 15 13 -177 -177 -177 -177 11 -193 -193 156 158 158 161 162 162 165 -193 -193 -193 0 -193 -193 173 178 176 177 179 180 181 182 184 184 183 0 0 0 0 0
    0 0 0 0 0 0 0 0 0 0 0 0 0 0 0 0 0 0 0 0 0 0 0 0 0 0 0 0 0 0 0 0 0 0 0 0 0 0 0 0 0 0 0 0 0 0 0 0 0 0 0 0 0 0 0 0 0 0 0 0 0 0 0 0 0 0 0 0 0 48 46 51 47 47 47 46 46 45 46 45 43 46 47 45 46 46 47 46 48 48 48 47 49 47 46 45 44 42 41 38 36 30 29 29 29 29 29 30 30 27 29 27 24 24 25 26 26 26 25 26 26 27 27 26 25 26 25 25 23 24 31 29 32 29 28 27 26 27 26 23 24 23 26 25 25 25 25 25 25 22 18 15 -225 -225 24 22 12 12 12 12 11 10 11 14 16 21 17 13 17 21 18 16 17 23 -193 -193 28 33 30 30 30 30 29 29 30 31 30 31 36 34 36 40 41 41 41 42 43 43 45 49 44 52 54 57 60 61 62 64 63 64 64 65 64 63 65 65 59 63 61 60 60 58 63 67 72 74 75 76 76 78 79 82 87 90 90 93 93 92 92 97 95 95 96 96 98 99 102 103 105 109 115 117 116 117 118 120 119 120 120 122 121 124 125 124 122 124 126 126 124 126 122 126 -193 20 -209 -193 -193 -193 148 147 146 146 -193 -193 -193 -193 -193 -177 -193 -193 154 156 157 157 161 162 162 165 -193 -193 -193 0 0 -193 173 178 176 177 180 180 182 182 184 -177 183 0 0 0 0 0
    0 0 0 0 0 0 0 0 0 0 0 0 0 0 0 0 0 0 0 0 0 0 0 0 0 0 0 0 0 0 0 0 0 0 0 0 0 0 0 0 0 0 0 0 0 0 0 0 0 0 0 0 0 0 0 0 0 0 0 0 0 0 0 0 0 0 0 0 0 47 46 51 47 47 47 46 46 45 46 45 43 46 46 45 46 46 47 46 48 48 48 47 49 48 47 45 44 42 41 38 37 31 31 31 31 31 31 32 33 30 37 36 25 24 25 25 25 25 23 24 24 25 26 25 24 25 25 26 25 27 33 31 34 31 32 32 33 33 34 32 37 35 38 36 31 29 27 26 25 24 -225 -225 -225 -225 -225 -225 -225 -225 -225 -225 -225 -225 -225 -225 -225 -225 -225 -225 -225 -225 -225 -225 15 23 -209 -209 28 36 31 30 30 30 30 29 30 30 30 31 36 34 36 39 40 41 41 41 43 43 46 50 45 54 55 57 60 61 61 63 63 64 65 66 66 65 67 68 64 68 65 63 61 60 66 68 73 74 75 76 76 78 78 81 86 89 90 93 93 93 93 99 96 96 97 97 98 100 102 104 -209 109 116 117 116 117 118 120 119 120 120 121 121 124 124 123 121 123 124 124 124 125 123 126 131 134 137 139 143 143 145 144 144 147 145 147 -193 -193 -193 -193 -193 -193 154 156 157 157 161 162 161 164 164 166 166 -193 -193 -209 172 178 176 177 180 181 182 183 185 185 184 0 0 0 0 0
    0 0 0 0 0 0 0 0 0 0 0 0 0 0 0 0 0 0 0 0 0 0 0 0 0 0 0 0 0 0 0 0 0 0 0 0 0 0 0 0 0 0 0 0 0 0 0 0 0 0 0 0 0 0 0 0 0 0 0 0 0 0 0 0 0 0 0 0 0 47 46 51 47 47 47 45 46 45 45 45 43 45 46 45 46 46 47 46 48 48 48 47 49 48 46 45 44 43 42 39 38 33 33 35 35 34 34 36 37 35 40 42 35 26 27 27 25 24 22 23 22 24 24 24 25 26 27 28 27 32 32 33 35 35 36 36 37 37 37 39 40 39 39 37 34 32 30 29 27 -225 -225 -225 -225 -225 -225 -225 -225 -225 -225 -225 -225 -225 -225 -225 -225 -225 -225 -225 -225 -225 -225 -225 -225 -225 -209 -209 42 41 36 34 32 32 31 30 31 30 31 31 36 34 36 40 41 41 42 42 43 44 47 51 47 55 56 57 59 60 61 62 63 64 65 67 67 66 68 69 67 69 66 65 64 65 70 70 75 76 77 78 78 79 79 81 86 89 91 95 93 93 93 100 96 96 97 97 98 101 102 103 -209 109 116 117 117 117 118 119 119 119 120 120 120 122 123 122 119 121 122 122 121 122 122 124 131 -193 139 140 143 143 144 144 144 147 145 147 151 150 152 153 153 153 154 156 157 157 162 163 163 164 164 165 166 168 170 169 173 179 177 178 181 181 182 183 185 185 184 0 0 0 0 0
    0 0 0 0 0 0 0 0 0 0 0 0 0 0 0 0 0 0 0 0 0 0 0 0 0 0 0 0 0 0 0 0 0 0 0 0 0 0 0 0 0 0 0 0 0 0 0 0 0 0 0 0 0 0 0 0 0 0 0 0 0 0 0 0 0 0 0 0 0 46 45 51 47 47 46 45 45 45 45 45 43 45 45 46 46 46 47 46 47 47 46 46 47 46 44 43 43 43 42 39 38 37 37 39 39 38 37 38 40 40 41 44 41 34 33 35 29 26 23 24 23 25 25 25 26 28 29 31 30 35 32 36 39 39 39 40 41 41 41 43 42 40 39 37 37 35 33 31 -225 -225 -225 -225 -225 -225 -225 -225 -225 -225 -225 -225 -225 -225 -225 -225 -225 -225 -225 -225 -225 -225 -225 -225 -225 -225 -225 -225 43 42 38 36 33 33 32 30 31 31 33 32 36 35 37 40 41 41 42 42 44 45 48 52 49 56 57 57 59 60 60 60 63 64 65 67 67 66 67 69 68 69 66 66 64 67 70 70 73 75 77 79 81 81 79 81 86 89 91 96 93 93 94 101 97 97 98 98 98 101 102 103 -193 109 117 118 117 118 118 120 119 119 120 120 120 122 122 121 119 120 120 118 115 115 106 114 123 -193 -193 141 144 145 145 145 145 148 146 147 150 149 151 -193 -193 -193 154 155 158 159 163 164 165 166 166 166 168 169 171 170 174 180 178 178 181 181 182 183 185 185 184 0 0 0 0 0
    0 0 0 0 0 0 0 0 0 0 0 0 0 0 0 0 0 0 0 0 0 0 0 0 0 0 0 0 0 0 0 0 0 0 0 0 0 0 0 0 0 0 0 0 0 0 0 0 0 0 0 0 0 0 0 0 0 0 0 0 0 0 0 0 0 0 0 0 0 46 45 51 48 48 46 46 46 45 45 45 44 45 45 46 46 46 47 45 46 46 46 46 45 45 43 43 44 44 43 40 39 39 41 43 42 40 41 40 44 44 44 47 45 -193 39 40 37 29 25 27 25 26 26 26 27 30 33 35 33 36 35 39 40 40 39 41 42 42 42 43 42 40 39 39 39 37 36 -225 -225 -225 -225 -225 -225 -225 -225 -225 -225 -225 -225 -225 -225 -225 -225 -225 -225 -225 -225 -225 -225 -225 -225 -225 -225 -225 -225 -225 -225 40 39 37 34 34 34 32 33 33 36 35 37 36 38 41 41 42 43 43 45 46 50 52 51 57 57 57 59 60 59 60 62 64 64 67 67 67 68 69 69 69 67 68 67 71 71 72 74 75 78 80 84 83 80 83 89 90 93 99 95 95 95 101 98 99 99 99 100 102 103 103 -209 109 117 118 118 118 119 120 119 119 120 120 120 121 121 121 119 120 121 119 117 115 109 114 121 -209 -209 138 140 141 142 144 145 149 149 149 151 151 152 154 153 154 155 155 157 158 162 162 163 166 167 167 169 170 172 171 174 178 176 177 180 180 182 183 184 185 184 0 0 0 0 0
    0 0 0 0 0 0 0 0 0 0 0 0 0 0 0 0 0 0 0 0 0 0 0 0 0 0 0 0 0 0 0 0 0 0 0 0 0 0 0 0 0 0 0 0 0 0 0 0 0 0 0 0 0 0 0 0 0 0 0 0 0 0 0 0 0 0 0 0 0 45 45 50 48 49 47 46 47 45 46 46 45 46 46 47 46 46 47 45 46 46 45 45 44 44 43 42 43 43 43 41 40 41 42 45 44 42 43 40 44 44 42 43 43 -193 40 41 39 32 28 29 26 25 26 26 27 31 34 35 35 38 37 39 40 40 40 41 42 43 42 43 42 40 40 41 41 38 -225 -225 -225 -225 -225 -225 -225 -225 -225 -225 -225 -225 -225 -225 -225 -225 -225 -225 -225 -225 -225 -225 -225 -225 -225 -225 -225 -225 -225 -225 -225 -225 -225 39 35 35 37 36 36 36 38 38 38 38 39 41 42 42 44 43 45 48 51 53 52 57 57 58 60 61 59 60 63 65 65 67 67 68 68 69 69 69 67 68 68 72 72 73 73 73 77 80 85 83 80 83 88 89 92 100 97 97 98 102 99 100 100 100 100 102 103 104 103 109 115 117 118 118 119 120 119 119 120 120 120 121 121 121 120 120 121 119 118 117 111 114 -193 103 -209 -209 -209 -193 138 140 140 144 144 146 148 152 154 156 155 156 157 157 159 159 161 161 162 166 169 168 170 170 172 173 175 178 176 178 180 180 182 183 185 186 185 0 0 0 0 0
    0 0 0 0 0 0 0 0 0 0 0 0 0 0 0 0 0 0 0 0 0 0 0 0 0 0 0 0 0 0 0 0 0 0 0 0 0 0 0 0 0 0 0 0 0 0 0 0 0 0 0 0 0 0 0 0 0 0 0 0 0 0 0 0 0 0 0 0 0 44 44 50 48 49 47 47 47 45 47 46 45 47 46 47 46 46 47 45 45 45 44 45 44 43 42 42 43 43 43 41 40 41 43 45 44 42 42 40 44 44 45 46 49 50 43 44 44 38 37 36 31 24 25 25 26 34 37 37 37 39 38 40 41 41 40 41 42 43 42 43 42 42 42 42 43 -225 -225 -225 -225 -225 -225 -225 -225 -225 -225 -225 -225 -225 -225 -225 -225 -225 -225 -225 -225 -225 -225 -225 -225 -225 -225 -225 -225 -225 -225 -225 -225 -225 -225 -225 34 34 37 36 36 37 39 38 39 38 39 42 42 43 44 44 46 51 53 54 54 58 58 58 60 61 59 60 62 65 65 67 66 67 67 68 69 69 66 68 68 71 71 72 72 71 76 79 86 85 84 85 88 88 90 99 98 97 98 102 100 101 101 101 101 103 104 104 -193 109 115 117 118 119 119 120 121 120 121 120 120 121 121 120 119 119 118 112 116 116 116 117 122 -209 -209 -209 -193 -193 138 138 139 -193 -193 120 -193 -193 -193 -193 154 155 157 158 160 162 162 161 162 165 168 168 168 169 171 173 177 178 178 180 181 181 183 184 186 187 185 0 0 0 0 0
    0 0 0 0 0 0 0 0 0 0 0 0 0 0 0 0 0 0 0 0 0 0 0 0 0 0 0 0 0 0 0 0 0 0 0 0 0 0 0 0 0 0 0 0 0 0 0 0 0 0 0 0 0 0 0 0 0 0 0 0 0 0 0 0 0 0 0 0 0 42 42 48 47 48 46 47 47 46 48 47 46 47 47 48 46 46 47 45 45 45 44 44 43 42 42 42 43 42 43 41 41 40 43 45 44 42 42 39 44 45 52 50 52 54 48 48 50 43 42 39 -193 -193 24 26 27 39 39 39 39 40 39 41 41 41 41 42 43 43 42 42 42 42 42 -225 -225 -225 -225 -225 -225 -225 -225 -225 -225 -225 -225 -225 -225 -225 -225 -225 -225 -225 -225 -225 -225 -225 -225 -225 -225 -225 -225 -225 -225 -225 -225 -225 -225 -225 -225 -225 -225 36 37 37 37 37 39 39 39 39 40 43 43 44 46 45 48 53 54 55 55 57 58 58 60 61 58 59 61 64 65 66 66 66 67 68 68 68 65 68 67 71 71 72 73 72 77 81 87 86 87 88 89 89 90 97 98 96 98 102 100 101 101 101 101 103 104 104 -193 109 116 117 119 119 120 121 121 121 122 120 120 120 120 120 118 118 117 110 118 119 122 121 123 122 -209 132 -193 -193 138 138 139 140 -193 124 128 -193 134 -209 -209 154 157 157 161 163 164 163 165 167 169 169 169 171 173 176 180 181 181 182 182 183 183 185 186 187 187 0 0 0 0 0
    0 0 0 0 0 0 0 0 0 0 0 0 0 0 0 0 0 0 0 0 0 0 0 0 0 0 0 0 0 0 0 0 0 0 0 0 0 0 0 0 0 0 0 0 0 0 0 0 0 0 0 0 0 0 0 0 0 0 0 0 0 0 0 0 0 0 0 0 0 41 41 45 46 46 45 46 47 46 48 48 47 48 48 50 47 46 48 45 45 0 -256 -1 4497 42 41 41 42 41 42 42 41 40 44 46 44 42 42 39 42 48 53 51 53 54 50 50 52 46 43 41 42 -193 24 29 27 38 37 37 37 39 38 40 40 40 40 41 43 43 42 42 42 41 -225 -225 -225 -225 -225 -225 -225 -225 -225 -225 -225 -225 -225 -225 -225 -225 -225 -225 -225 -225 -225 -225 -225 -225 -225 -225 -225 -225 -225 -225 -225 -225 -225 -225 -225 -225 -225 -225 -225 38 38 38 38 38 39 40 40 40 41 44 44 45 47 46 50 54 55 56 56 57 58 58 60 60 58 59 61 64 64 66 66 66 67 67 68 69 66 69 67 71 71 72 73 -193 78 81 87 87 88 89 90 90 90 97 98 96 97 102 99 101 101 101 101 102 104 104 -193 109 116 117 118 119 120 121 121 121 121 119 120 119 119 120 119 119 119 120 122 123 125 125 125 124 125 126 131 -193 137 138 138 139 137 134 137 137 136 139 -209 152 154 154 158 162 163 162 164 168 170 171 172 174 175 178 181 182 183 183 183 184 184 186 188 188 189 0 0 0 0 0
    0 0 0 0 0 0 0 0 0 0 0 0 0 0 0 0 0 0 0 0 0 0 0 0 0 0 0 0 0 0 0 0 0 0 0 0 0 0 0 0 0 0 0 0 0 0 0 0 0 0 0 0 0 0 0 0 0 0 0 0 0 0 0 0 0 0 0 0 0 41 41 43 44 45 44 45 46 46 47 49 48 49 48 51 48 47 48 45 45 45 44 43 42 42 41 40 41 40 43 42 42 41 46 49 47 45 44 -193 47 52 53 51 52 53 50 50 51 47 44 42 43 -193 25 34 28 37 35 34 35 37 37 39 39 39 39 41 42 42 42 41 -225 -225 -225 -225 -225 -225 -225 -225 -225 -225 -225 -225 -225 -225 -225 -225 -225 -225 -225 -225 -225 -225 -225 -225 -225 -225 -225 -225 -225 -225 -225 -225 -225 -225 -225 -225 -225 -225 -225 -225 -225 38 39 38 39 39 40 42 42 42 43 47 46 48 50 49 51 56 56 56 56 57 58 58 60 60 58 59 60 63 63 65 65 65 67 67 68 68 66 69 67 70 70 70 72 -193 77 81 86 87 88 90 89 89 90 95 97 96 97 101 99 100 101 101 101 102 103 104 103 108 114 115 117 118 119 119 119 120 120 118 119 118 118 119 120 121 121 121 123 125 127 126 126 124 124 124 122 131 136 -193 137 138 138 137 137 138 137 140 148 153 154 154 157 161 162 161 164 168 170 171 172 176 176 179 182 183 184 185 184 185 185 187 189 189 192 0 0 0 0 0
    0 0 0 0 0 0 0 0 0 0 0 0 0 0 0 0 0 0 0 0 0 0 0 0 0 0 0 0 0 0 0 0 0 0 0 0 0 0 0 0 0 0 0 0 0 0 0 0 0 0 0 0 0 0 0 0 0 0 0 0 0 0 0 0 0 0 0 0 0 41 41 42 44 44 43 44 46 46 47 49 49 49 49 51 48 48 48 46 44 44 44 43 42 42 41 41 41 42 46 44 44 44 50 54 53 54 58 60 58 59 57 56 55 55 52 50 50 47 44 43 43 42 32 37 36 38 35 33 34 37 37 38 39 39 38 41 42 42 42 -225 -225 -225 -225 -225 -225 -225 -225 -225 -225 -225 -225 -225 -225 -225 -225 -225 -225 -225 -225 -225 -225 -225 -225 -225 -225 -225 -225 -225 -225 -225 -225 -225 -225 -225 -225 -225 -225 -225 -225 -225 -225 38 39 39 39 40 41 44 44 45 48 51 50 52 53 52 54 57 57 57 56 57 58 58 60 60 58 59 60 62 62 64 63 63 66 66 67 68 65 69 68 70 71 72 74 75 78 81 85 86 87 90 89 90 91 95 98 97 98 101 99 101 101 101 101 102 103 104 103 107 110 112 116 117 118 119 119 120 120 117 118 117 118 120 121 121 122 122 124 125 125 125 123 122 120 121 119 -193 131 132 134 137 137 136 138 138 138 141 148 152 154 154 157 160 162 161 164 167 169 170 171 174 175 179 182 183 184 184 184 185 185 187 189 190 192 0 0 0 0 0
    0 0 0 0 0 0 0 0 0 0 0 0 0 0 0 0 0 0 0 0 0 0 0 0 0 0 0 0 0 0 0 0 0 0 0 0 0 0 0 0 0 0 0 0 0 0 0 0 0 0 0 0 0 0 0 0 0 0 0 0 0 0 0 0 0 0 0 0 0 41 40 41 43 43 42 43 44 45 46 49 49 51 50 52 48 47 49 46 44 44 43 43 42 43 42 42 44 48 50 49 48 48 53 57 59 60 64 63 63 63 60 58 57 55 52 50 49 46 43 42 43 42 -225 -225 -225 -225 35 34 35 37 37 39 39 39 38 41 42 43 -225 -225 -225 -225 -225 -225 -225 -225 -225 -225 -225 -225 -225 -225 -225 -225 -225 -225 -225 -225 -225 -225 -225 -225 -225 -225 -225 -225 -225 -225 -225 -225 -225 -225 -225 -225 -225 -225 -225 -225 -225 -225 -225 -225 39 39 40 42 43 46 46 48 51 53 52 54 55 54 55 59 58 58 57 58 58 58 60 60 57 59 59 61 61 62 62 62 65 65 66 67 66 -193 -209 -209 -209 73 75 75 78 81 84 86 87 89 89 91 91 94 97 97 97 101 99 101 101 102 102 103 104 105 105 107 109 111 115 116 118 119 120 121 122 120 121 121 121 122 124 124 124 124 125 126 126 125 123 122 119 120 119 122 133 134 135 137 137 136 138 137 137 140 142 149 -193 153 155 159 161 161 164 167 169 171 171 174 174 178 182 183 184 184 183 184 185 187 190 190 194 0 0 0 0 0
    0 0 0 0 0 0 0 0 0 0 0 0 0 0 0 0 0 0 0 0 0 0 0 0 0 0 0 0 0 0 0 0 0 0 0 0 0 0 0 0 0 0 0 0 0 0 0 0 0 0 0 0 0 0 0 0 0 0 0 0 0 0 0 0 0 0 0 0 0 41 40 41 42 42 42 42 43 43 45 49 51 53 52 53 48 48 50 47 46 45 44 44 44 47 47 44 55 56 54 54 52 54 56 61 66 65 67 65 65 65 63 59 57 55 52 50 47 44 42 41 42 -225 -225 -225 -225 -225 -225 -225 36 38 39 39 39 39 38 41 -225 -225 -225 -225 -225 -225 -225 -225 -225 -225 -225 -225 -225 -225 -225 -225 -225 -225 -225 -225 -225 -225 -225 -225 -225 -225 -225 -225 -225 -225 -225 -225 -225 -225 -225 -225 -225 -225 -225 -225 -225 -225 -225 -225 -225 -225 -225 45 42 46 48 51 51 52 55 56 55 57 58 56 57 61 60 59 58 58 59 59 61 60 58 59 59 61 61 62 62 62 64 64 65 67 66 70 -209 -209 -209 75 77 77 80 83 85 87 87 89 90 91 91 93 96 97 97 101 100 101 102 103 104 105 105 106 106 108 109 110 113 114 116 118 118 120 121 120 121 122 122 122 125 126 128 127 128 129 128 128 127 124 120 121 121 127 133 135 136 137 137 137 138 138 138 142 146 149 153 153 155 158 160 160 164 167 169 170 171 174 173 177 181 182 183 183 182 184 184 187 189 189 193 0 0 0 0 0
    0 0 0 0 0 0 0 0 0 0 0 0 0 0 0 0 0 0 0 0 0 0 0 0 0 0 0 0 0 0 0 0 0 0 0 0 0 0 0 0 0 0 0 0 0 0 0 0 0 0 0 0 0 0 0 0 0 0 0 0 0 0 0 0 0 0 0 0 0 40 40 40 41 41 41 42 43 43 45 48 50 53 53 53 49 51 52 49 48 49 47 49 51 54 54 55 63 69 -193 -193 55 58 62 64 68 67 68 65 66 65 61 57 56 53 50 47 46 44 42 -225 -225 -225 -225 -225 -225 -225 -225 -225 -225 -225 -225 -225 -225 -225 -225 -225 -225 -225 -225 -225 -225 -225 -225 -225 -225 -225 -225 -225 -225 -225 -225 -225 -225 -225 -225 -225 -225 -225 -225 -225 -225 -225 -225 -225 -225 -225 -225 -225 -225 -225 -225 -225 -225 -225 -225 -225 -225 -225 -225 -225 -225 -225 -225 -225 -225 51 51 53 54 55 56 59 58 60 61 59 60 63 62 62 60 60 60 60 63 61 59 61 61 63 62 62 62 61 63 63 64 65 65 69 -209 -209 -209 75 78 78 81 84 86 87 88 90 90 91 92 93 95 96 96 99 99 101 102 104 104 105 106 107 107 108 110 111 112 115 115 117 118 119 121 119 121 121 121 122 124 126 128 127 128 131 131 131 130 129 129 125 127 136 137 137 137 138 138 137 139 139 140 144 149 151 154 155 156 159 160 161 163 165 168 169 169 172 172 176 180 182 183 183 183 184 184 186 189 189 191 0 0 0 0 0
    0 0 0 0 0 0 0 0 0 0 0 0 0 0 0 0 0 0 0 0 0 0 0 0 0 0 0 0 0 0 0 0 0 0 0 0 0 0 0 0 0 0 0 0 0 0 0 0 0 0 0 0 0 0 0 0 0 0 0 0 0 0 0 0 0 0 0 0 0 39 39 40 40 40 40 40 42 41 45 48 51 53 54 52 50 53 54 53 52 54 54 60 69 70 73 71 73 73 74 72 61 67 69 67 69 67 68 67 66 65 61 57 56 52 50 47 45 44 -225 -225 -225 -225 -225 -225 -225 -225 -225 -225 -225 -225 -225 -225 -225 -225 -225 -225 -225 -225 -225 -225 -225 -225 -225 -225 -225 -225 -225 -225 -225 -225 -225 -225 -225 -225 -225 -225 -225 -225 -225 -225 -225 -225 -225 -225 -225 -225 -225 -225 -225 -225 -225 -225 -225 -225 -225 -225 -225 -225 -225 -225 -225 -225 -225 -225 -225 -225 -225 55 56 58 59 63 61 62 62 62 63 65 64 64 62 62 63 63 66 63 61 63 62 64 63 62 62 61 63 62 63 65 65 69 70 -209 -209 -209 77 79 82 84 85 88 88 90 91 92 92 93 95 96 95 97 97 99 101 103 104 106 107 109 109 109 111 112 113 115 116 117 118 119 121 119 121 121 121 121 124 126 128 128 129 131 131 132 131 130 131 129 132 137 138 138 139 140 141 140 141 141 141 141 145 147 151 153 153 156 157 158 162 164 165 166 167 170 171 174 180 182 184 183 183 184 184 186 189 188 191 0 0 0 0 0
    0 0 0 0 0 0 0 0 0 0 0 0 0 0 0 0 0 0 0 0 0 0 0 0 0 0 0 0 0 0 0 0 0 0 0 0 0 0 0 0 0 0 0 0 0 0 0 0 0 0 0 0 0 0 0 0 0 0 0 0 0 0 0 0 0 0 0 0 0 41 40 41 40 42 39 -193 44 -193 -209 54 56 57 58 54 52 55 54 55 54 58 62 71 73 74 76 74 75 74 76 75 71 71 71 69 70 69 69 67 66 66 61 57 56 54 53 50 -225 -225 -225 -225 -225 -225 -225 -225 -225 -225 -225 -225 -225 -225 -225 -225 -225 -225 -225 -225 -225 -225 -225 -225 -225 -225 -225 -225 -225 -225 -225 -225 -225 -225 -225 -225 -225 -225 -225 -225 -225 -225 -225 -225 -225 -225 -225 -225 -225 -225 -225 -225 -225 -225 -225 -225 -225 -225 -225 -225 -225 -225 -225 -225 -225 -225 -225 -225 -225 -225 -225 -225 57 59 60 64 62 62 63 63 64 66 65 65 63 65 66 67 69 66 63 65 64 65 64 63 62 60 63 63 63 65 66 69 -209 -209 -209 -209 77 80 82 84 85 87 88 89 90 92 92 92 94 96 95 97 97 99 100 103 104 106 107 109 110 109 111 112 113 115 115 116 116 117 120 117 119 119 120 121 123 125 126 126 127 130 130 130 130 128 129 128 131 137 138 138 139 141 143 143 144 146 146 146 148 150 152 154 152 155 156 157 160 163 164 165 166 168 169 171 176 180 182 181 181 183 184 186 188 189 191 0 0 0 0 0
    0 0 0 0 0 0 0 0 0 0 0 0 0 0 0 0 0 0 0 0 0 0 0 0 0 0 0 0 0 0 0 0 0 0 0 0 0 0 0 0 0 0 0 0 0 0 0 0 0 0 0 0 0 0 0 0 0 0 0 0 0 0 0 0 0 0 0 0 0 53 56 55 58 56 58 59 59 63 60 57 57 56 58 55 55 57 56 57 -193 62 -193 73 74 75 77 76 77 76 78 77 74 73 73 72 73 71 70 68 67 66 62 59 59 57 56 -225 -225 -225 -225 -225 -225 -225 -225 -225 -225 -225 -225 -225 -225 -225 -225 -225 -225 -225 -225 -225 -225 -225 -225 -225 -225 -225 -225 -225 -225 -225 -225 -225 -225 -225 -225 -225 -225 -225 -225 -225 -225 -225 -225 -225 -225 -225 -225 -225 -225 -225 -225 -225 -225 -225 -225 -225 -225 -225 -225 -225 -225 -225 -225 -225 -225 -225 -225 -225 -225 -225 -225 -225 59 60 61 64 62 64 65 64 66 67 66 66 66 67 68 68 70 68 67 68 67 67 66 64 62 60 62 62 63 65 66 69 70 -209 -209 -209 78 80 83 84 85 87 87 88 89 91 92 92 93 96 96 98 98 100 101 104 104 107 108 109 110 110 111 112 112 114 114 115 115 116 120 117 117 118 119 119 122 123 124 124 126 128 129 129 129 126 128 129 131 136 137 138 138 140 143 144 146 150 151 151 152 153 154 155 153 154 155 155 157 158 158 160 161 164 164 168 170 173 178 177 179 182 184 186 188 189 190 0 0 0 0 0
    0 0 0 0 0 0 0 0 0 0 0 0 0 0 0 0 0 0 0 0 0 0 0 0 0 0 0 0 0 0 0 0 0 0 0 0 0 0 0 0 0 0 0 0 0 0 0 0 0 0 0 0 0 0 0 0 0 0 0 0 0 0 0 0 0 0 0 0 0 57 59 58 61 59 61 62 62 65 59 56 55 55 56 55 56 59 57 59 63 71 74 75 76 77 77 76 76 76 77 76 75 74 74 73 73 71 71 68 67 66 63 61 61 -225 -225 -225 -225 -225 -225 -225 -225 -225 -225 -225 -225 -225 -225 -225 -225 -225 -225 -225 -225 -225 -225 -225 -225 -225 -225 -225 -225 -225 -225 -225 -225 -225 -225 -225 -225 -225 -225 -225 -225 -225 -225 -225 -225 -225 -225 -225 -225 -225 -225 -225 -225 -225 -225 -225 -225 -225 -225 -225 -225 -225 -225 -225 -225 -225 -225 -225 -225 -225 -225 -225 -225 -225 -225 -225 -225 61 62 65 64 66 66 66 66 67 67 67 67 67 68 69 70 69 69 70 70 69 69 66 64 61 62 61 62 63 66 68 70 71 -209 -209 78 80 83 84 84 86 86 87 88 90 91 91 93 95 96 98 99 100 101 103 104 107 108 110 111 110 111 112 113 115 114 115 115 116 120 117 116 117 118 118 121 123 123 123 125 128 128 127 127 126 128 131 131 135 135 137 137 139 141 142 146 152 153 153 154 156 157 157 156 156 156 156 158 158 157 160 161 163 163 167 170 172 175 174 175 180 184 185 187 188 187 0 0 0 0 0
    0 0 0 0 0 0 0 0 0 0 0 0 0 0 0 0 0 0 0 0 0 0 0 0 0 0 0 0 0 0 0 0 0 0 0 0 0 0 0 0 0 0 0 0 0 0 0 0 0 0 0 0 0 0 0 0 0 0 0 0 0 0 0 0 0 0 0 0 0 63 64 64 67 65 64 66 66 68 61 58 55 54 56 54 55 62 58 65 -193 74 75 76 76 78 77 77 77 76 76 76 76 76 74 74 74 72 71 69 68 68 67 65 -225 -225 -225 -225 -225 -225 -225 -225 -225 -225 -225 -225 -225 -225 -225 -225 -225 -225 -225 -225 -225 -225 -225 -225 -225 -225 -225 -225 -225 -225 -225 -225 -225 -225 -225 -225 -225 -225 -225 -225 -225 -225 -225 -225 -225 -225 -225 -225 -225 -225 -225 -225 -225 -225 -225 -225 -225 -225 -225 -225 -225 -225 -225 -225 -225 -225 -225 -225 -225 -225 -225 -225 -225 -225 -225 -225 -225 -225 61 66 66 67 68 67 67 68 68 67 67 67 69 69 71 70 70 71 71 69 68 64 62 59 60 60 60 61 65 69 71 72 73 76 77 79 83 84 84 86 86 86 87 89 90 91 92 95 96 98 98 100 101 103 104 106 108 110 111 111 111 113 114 115 114 115 115 115 120 116 115 115 116 116 120 122 123 122 125 127 127 126 127 126 130 133 133 135 135 137 137 138 140 139 143 152 153 154 154 155 157 158 156 158 157 157 159 160 160 162 163 164 162 167 170 170 171 172 171 172 177 179 184 -193 183 0 0 0 0 0
    0 0 0 0 0 0 0 0 0 0 0 0 0 0 0 0 0 0 0 0 0 0 0 0 0 0 0 0 0 0 0 0 0 0 0 0 0 0 0 0 0 0 0 0 0 0 0 0 0 0 0 0 0 0 0 0 0 0 0 0 0 0 0 0 0 0 0 0 0 65 65 66 69 68 67 67 67 69 63 61 55 54 54 54 55 60 57 62 -193 73 75 76 77 78 78 78 78 77 78 77 76 76 74 74 74 71 71 70 70 70 -225 -225 -225 -225 -225 -225 -225 -225 -225 -225 -225 -225 -225 -225 -225 -225 -225 -225 -225 -225 -225 -225 -225 -225 -225 -225 -225 -225 -225 -225 -225 -225 -225 -225 -225 -225 -225 -225 -225 -225 -225 -225 -225 -225 -225 -225 -225 -225 -225 -225 -225 -225 -225 -225 -225 -225 -225 -225 -225 -225 -225 -225 -225 -225 -225 -225 -225 -225 -225 -225 -225 -225 -225 -225 -225 -225 -225 -225 -225 -225 -225 -225 -225 71 71 70 69 70 69 68 68 68 69 70 71 71 71 71 71 70 70 66 64 61 61 61 62 62 66 69 72 73 74 76 77 78 82 84 85 86 86 86 86 89 90 90 92 93 95 96 97 99 101 102 104 107 108 110 112 112 112 113 114 115 114 115 114 115 119 116 115 114 116 116 120 122 122 -193 124 126 127 126 127 127 132 133 132 135 135 137 136 137 138 137 140 147 152 153 153 155 156 158 157 159 158 158 160 162 161 164 164 165 163 167 170 171 170 171 -193 170 171 173 179 -193 177 0 0 0 0 0
    0 0 0 0 0 0 0 0 0 0 0 0 0 0 0 0 0 0 0 0 0 0 0 0 0 0 0 0 0 0 0 0 0 0 0 0 0 0 0 0 0 0 0 0 0 0 0 0 0 0 0 0 0 0 0 0 0 0 0 0 0 0 0 0 0 0 0 0 0 65 66 67 69 70 68 69 69 70 66 63 58 56 55 55 56 61 58 64 72 73 76 77 77 79 79 80 80 79 80 78 78 78 75 74 74 72 72 71 -225 -225 -225 -225 -225 -225 -225 -225 -225 -225 -225 -225 -225 -225 -225 -225 -225 -225 -225 -225 -225 -225 -225 -225 -225 -225 -225 -225 -225 -225 -225 -225 -225 -225 -225 -225 -225 -225 -225 -225 -225 -225 -225 -225 -225 -225 -225 -225 -225 -225 -225 -225 -225 -225 -225 -225 -225 -225 -225 -225 -225 -225 -225 -225 -225 -225 -225 -225 -225 -225 -225 -225 -225 -225 -225 -225 -225 -225 -225 -225 -225 -225 -225 -225 -225 -225 71 69 68 70 68 69 69 69 70 70 71 72 71 72 71 70 70 68 67 66 63 63 63 64 67 68 72 71 73 76 77 79 83 84 85 86 86 86 87 89 90 90 92 93 95 96 97 99 101 103 104 107 108 111 113 113 114 115 114 115 113 114 113 115 119 117 117 116 118 119 121 123 123 121 124 125 127 126 126 127 130 130 131 134 135 136 136 137 138 138 140 145 150 152 153 155 156 159 158 161 159 158 161 -193 163 165 -193 -193 165 169 171 172 172 172 172 171 174 175 182 171 175 0 0 0 0 0
    0 0 0 0 0 0 0 0 0 0 0 0 0 0 0 0 0 0 0 0 0 0 0 0 0 0 0 0 0 0 0 0 0 0 0 0 0 0 0 0 0 0 0 0 0 0 0 0 0 0 0 0 0 0 0 0 0 0 0 0 0 0 0 0 0 0 0 0 0 65 66 67 69 71 68 69 70 70 66 63 60 56 55 55 56 60 58 69 74 74 78 79 79 81 81 82 82 79 80 78 78 78 75 75 75 73 73 -225 -225 -225 -225 -225 -225 -225 -225 -225 -225 -225 -225 -225 -225 -225 -225 -225 -225 -225 -225 -225 -225 -225 -225 -225 -225 -225 -225 -225 -225 -225 -225 -225 -225 -225 -225 -225 -225 -225 -225 -225 -225 -225 -225 -225 -225 -225 -225 -225 -225 -225 -225 -225 -225 -225 -225 -225 -225 -225 -225 -225 -225 -225 -225 -225 -225 -225 -225 -225 -225 -225 -225 -225 -225 -225 -225 -225 -225 -225 -225 -225 -225 -225 -225 -225 -225 -225 -225 68 67 70 68 68 68 69 70 71 71 72 71 72 71 71 71 69 69 69 68 68 66 68 70 70 73 71 73 75 77 79 83 84 85 85 85 86 86 88 89 90 91 92 95 95 96 98 100 102 103 106 108 111 113 114 115 116 115 115 113 113 113 116 119 117 118 117 119 119 121 122 122 120 122 123 125 124 124 126 128 128 130 132 134 136 136 137 138 138 140 144 149 150 153 155 156 159 159 162 160 159 162 163 163 166 -193 -193 -193 -193 -193 173 172 174 173 172 177 177 -209 -193 180 0 0 0 0 0
    0 0 0 0 0 0 0 0 0 0 0 0 0 0 0 0 0 0 0 0 0 0 0 0 0 0 0 0 0 0 0 0 0 0 0 0 0 0 0 0 0 0 0 0 0 0 0 0 0 0 0 0 0 0 0 0 0 0 0 0 0 0 0 0 0 0 0 0 0 64 66 66 69 71 68 69 70 70 68 67 66 57 57 56 59 66 67 73 77 77 81 82 82 83 83 84 82 80 82 79 79 78 76 76 76 -225 -225 -225 -225 -225 -225 -225 -225 -225 -225 -225 -225 -225 -225 -225 -225 -225 -225 -225 -225 -225 -225 -225 -225 -225 -225 -225 -225 -225 -225 -225 -225 -225 -225 -225 -225 -225 -225 -225 -225 -225 -225 -225 -225 -225 -225 -225 -225 -225 -225 -225 -225 -225 -225 -225 -225 -225 -225 -225 -225 -225 -225 -225 -225 -225 -225 -225 -225 -225 -225 -225 -225 -225 -225 -225 -225 -225 -225 -225 -225 -225 -225 -225 -225 -225 -225 -225 -225 -225 -225 -225 63 69 66 67 68 68 69 70 71 72 71 72 71 71 71 70 71 71 69 70 68 70 71 71 73 73 74 76 77 79 82 84 84 84 84 84 84 86 87 88 90 91 94 95 97 98 100 102 102 105 107 108 112 113 115 115 115 114 111 111 112 115 118 117 118 119 120 121 122 123 122 120 121 -193 122 121 122 123 126 128 129 132 134 135 136 137 138 138 140 143 148 149 151 -193 -193 156 157 162 160 160 163 -193 165 -193 -209 -193 -193 -193 -193 173 172 173 172 171 179 179 -193 -193 186 0 0 0 0 0
    0 0 0 0 0 0 0 0 0 0 0 0 0 0 0 0 0 0 0 0 0 0 0 0 0 0 0 0 0 0 0 0 0 0 0 0 0 0 0 0 0 0 0 0 0 0 0 0 0 0 0 0 0 0 0 0 0 0 0 0 0 0 0 0 0 0 0 0 0 65 67 67 69 70 68 69 70 71 70 69 71 60 60 60 66 72 72 74 78 77 81 82 83 84 83 84 82 80 82 80 80 80 77 79 -225 -225 -225 -225 -225 -225 -225 -225 -225 -225 -225 -225 -225 -225 -225 -225 -225 -225 -225 -225 -225 -225 -225 -225 -225 -225 -225 -225 -225 -225 -225 -225 -225 -225 -225 -225 -225 -225 -225 -225 -225 -225 -225 -225 -225 -225 -225 -225 -225 -225 -225 -225 -225 -225 -225 -225 -225 -225 -225 -225 -225 -225 -225 -225 -225 -225 -225 -225 -225 -225 -225 -225 -225 -225 -225 -225 -225 -225 -225 -225 -225 -225 -225 -225 -225 -225 -225 -225 -225 -225 -225 -225 -225 66 63 66 68 66 69 70 71 72 71 72 71 70 71 70 71 71 70 71 70 72 73 73 74 75 76 78 78 80 82 83 84 84 82 82 82 85 85 87 -193 91 -209 94 97 98 99 101 102 103 105 106 109 110 113 113 113 112 111 111 112 114 117 117 119 120 121 122 122 123 122 121 122 -193 122 122 122 123 126 129 129 131 133 135 135 136 136 136 138 140 145 147 148 -209 -209 -193 156 161 160 -209 -193 -209 -209 -193 -209 -193 -193 -193 -193 171 171 171 -193 169 176 175 -193 -193 186 0 0 0 0 0
    0 0 0 0 0 0 0 0 0 0 0 0 0 0 0 0 0 0 0 0 0 0 0 0 0 0 0 0 0 0 0 0 0 0 0 0 0 0 0 0 0 0 0 0 0 0 0 0 0 0 0 0 0 0 0 0 0 0 0 0 0 0 0 0 0 0 0 0 0 67 67 67 69 70 68 70 71 71 71 72 74 66 66 70 73 75 75 77 80 79 83 84 83 84 83 84 83 81 82 80 81 80 -225 -225 -225 -225 -225 -225 -225 -225 -225 -225 -225 -225 -225 -225 -225 -225 -225 -225 -225 -225 -225 -225 -225 -225 -225 -225 -225 -225 -225 -225 -225 -225 -225 -225 -225 -225 -225 -225 -225 -225 -225 -225 -225 -225 -225 -225 -225 -225 -225 -225 -225 -225 -225 -225 -225 -225 -225 -225 -225 -225 -225 -225 -225 -225 -225 -225 -225 -225 -225 -225 -225 -225 -225 -225 -225 -225 -225 -225 -225 -225 -225 -225 -225 -225 -225 -225 -225 -225 -225 -225 -225 -225 -225 -225 -225 -225 60 63 67 64 69 71 71 72 71 72 71 71 71 70 71 72 71 72 71 72 72 72 74 74 75 77 77 79 82 83 85 84 83 83 81 84 85 86 -209 -193 -209 94 97 98 99 100 101 101 103 104 107 108 111 112 112 112 111 112 113 114 117 117 119 121 122 122 122 123 122 122 -193 123 125 125 125 127 129 130 130 130 132 134 135 135 135 135 137 139 142 142 146 -209 -209 -193 -193 -193 -193 159 -193 -209 -193 167 -209 -209 -209 -209 -193 -193 -193 -193 -209 166 172 -209 -209 181 -193 0 0 0 0 0
    0 0 0 0 0 0 0 0 0 0 0 0 0 0 0 0 0 0 0 0 0 0 0 0 0 0 0 0 0 0 0 0 0 0 0 0 0 0 0 0 0 0 0 0 0 0 0 0 0 0 0 0 0 0 0 0 0 0 0 0 0 0 0 0 0 0 0 0 0 70 68 69 70 71 70 71 72 72 73 74 76 74 74 77 81 83 82 83 83 83 85 84 84 84 83 85 82 81 81 79 -225 -225 -225 -225 -225 -225 -225 -225 -225 -225 -225 -225 -225 -225 -225 -225 -225 -225 -225 -225 -225 -225 -225 -225 -225 -225 -225 -225 -225 -225 -225 -225 -225 -225 -225 -225 -225 -225 -225 -225 -225 -225 -225 -225 -225 -225 -225 -225 -225 -225 -225 -225 -225 -225 -225 -225 -225 -225 -225 -225 -225 -225 -225 -225 -225 -225 -225 -225 -225 -225 -225 -225 -225 -225 -225 -225 -225 -225 -225 -225 -225 -225 -225 -225 -225 -225 -225 -225 -225 -225 -225 -225 -225 -225 -225 -225 -225 -225 -225 -225 -225 -225 71 -209 72 75 72 73 72 72 72 72 72 73 72 73 72 73 73 73 74 74 75 76 76 78 82 83 86 85 83 84 82 84 84 85 -209 -209 -209 -193 96 96 98 99 99 100 101 102 106 107 110 112 112 112 111 113 114 115 117 119 121 122 124 124 124 125 124 125 127 127 131 130 129 131 132 132 131 130 132 134 136 136 136 136 138 140 142 141 142 -193 -209 -209 -209 -209 -209 -209 -209 -209 165 167 -193 -193 -193 -193 -193 -193 -193 -209 -209 164 -193 -209 -209 182 186 0 0 0 0 0
    0 0 0 0 0 0 0 0 0 0 0 0 0 0 0 0 0 0 0 0 0 0 0 0 0 0 0 0 0 0 0 0 0 0 0 0 0 0 0 0 0 0 0 0 0 0 0 0 0 0 0 0 0 0 0 0 0 0 0 0 0 0 0 0 0 0 0 0 0 69 67 68 70 71 70 71 73 73 74 75 78 77 80 82 85 86 85 86 85 85 85 85 84 84 83 84 83 82 83 -225 -225 -225 -225 -225 -225 -225 -225 -225 -225 -225 -225 -225 -225 -225 -225 -225 -225 -225 -225 -225 -225 -225 -225 -225 -225 -225 -225 -225 -225 -225 -225 -225 -225 -225 -225 -225 -225 -225 -225 -225 -225 -225 -225 -225 -225 -225 -225 -225 -225 -225 -225 -225 -225 -225 -225 -225 -225 -225 -225 -225 -225 -225 -225 -225 -225 -225 -225 -225 -225 -225 -225 -225 -225 -225 -225 -225 -225 -225 -225 -225 -225 -225 -225 -225 -225 -225 -225 -225 -225 -225 -225 -225 -225 -225 -225 -225 -225 -225 -225 -225 -225 -225 -225 -225 72 77 72 74 72 74 73 72 73 73 73 74 73 74 73 73 74 74 74 76 76 79 83 84 86 86 85 86 85 86 85 86 -209 -209 -209 93 96 97 98 99 99 100 101 102 107 108 112 114 113 113 112 114 115 116 118 120 122 124 126 126 126 126 126 127 128 128 131 131 131 131 132 131 132 131 133 134 137 137 137 137 139 142 144 143 144 141 141 143 145 -209 -209 -209 -209 -209 -209 169 -209 -193 -193 -193 -193 -193 -193 -209 -209 -193 -209 -209 -209 182 186 0 0 0 0 0
    0 0 0 0 0 0 0 0 0 0 0 0 0 0 0 0 0 0 0 0 0 0 0 0 0 0 0 0 0 0 0 0 0 0 0 0 0 0 0 0 0 0 0 0 0 0 0 0 0 0 0 0 0 0 0 0 0 0 0 0 0 0 0 0 0 0 0 0 0 69 67 68 69 70 70 71 73 72 74 76 79 79 83 83 85 87 87 88 86 86 86 85 85 84 85 85 83 -225 -225 -225 -225 -225 -225 -225 -225 -225 -225 -225 -225 -225 -225 -225 -225 -225 -225 -225 -225 -225 -225 -225 -225 -225 -225 -225 -225 -225 -225 -225 -225 -225 -225 -225 -225 -225 -225 -225 -225 -225 -225 -225 -225 -225 -225 -225 -225 -225 -225 -225 -225 -225 -225 -225 -225 -225 -225 -225 -225 -225 -225 -225 -225 -225 -225 -225 -225 -225 -225 -225 -225 -225 -225 -225 -225 -225 -225 -225 -225 -225 -225 -225 -225 -225 -225 -225 -225 -225 -225 -225 -225 -225 -225 -225 -225 -225 -225 -225 -225 -225 -225 -225 -225 -225 -225 -225 72 77 72 74 72 74 74 73 74 74 74 75 75 76 75 75 76 76 77 78 79 82 85 85 87 87 87 88 87 89 88 88 90 90 92 94 97 97 98 100 100 101 102 103 109 109 113 115 114 114 113 114 115 116 119 122 123 125 127 127 127 127 126 128 128 128 130 130 130 130 131 131 131 130 133 135 137 139 139 140 143 145 146 145 145 142 143 146 146 -209 -209 -209 -193 -209 168 169 -193 -193 -193 -193 167 167 167 167 -193 -193 -209 -209 -209 -209 -193 0 0 0 0 0
    0 0 0 0 0 0 0 0 0 0 0 0 0 0 0 0 0 0 0 0 0 0 0 0 0 0 0 0 0 0 0 0 0 0 0 0 0 0 0 0 0 0 0 0 0 0 0 0 0 0 0 0 0 0 0 0 0 0 0 0 0 0 0 0 0 0 0 0 0 70 69 69 69 71 71 72 73 74 77 79 83 84 86 86 87 89 89 88 87 88 87 86 86 85 85 85 -225 -225 -225 -225 -225 -225 -225 -225 -225 -225 -225 -225 -225 -225 -225 -225 -225 -225 -225 -225 -225 -225 -225 -225 -225 -225 -225 -225 -225 -225 -225 -225 -225 -225 -225 -225 -225 -225 -225 -225 -225 -225 -225 -225 -225 -225 -225 -225 -225 -225 -225 -225 -225 -225 -225 -225 -225 -225 -225 -225 -225 -225 -225 -225 -225 -225 -225 -225 -225 -225 -225 -225 -225 -225 -225 -225 -225 -225 -225 -225 -225 -225 -225 -225 -225 -225 -225 -225 -225 -225 -225 -225 -225 -225 -225 -225 -225 -225 -225 -225 -225 -225 -225 -225 -225 -225 -225 -225 72 80 72 75 74 76 75 75 76 76 76 77 77 78 77 77 77 78 78 80 81 83 87 87 88 89 88 89 89 91 90 90 91 91 92 94 97 98 97 100 100 102 103 104 109 110 113 115 114 114 113 114 116 117 120 123 124 126 127 127 127 126 126 127 127 127 130 129 131 131 132 133 134 132 135 138 141 145 145 147 148 148 147 146 144 142 142 144 145 -209 -209 -209 -193 -193 166 -193 -193 -193 -193 -193 166 167 166 165 164 163 -209 -209 -209 -209 -209 0 0 0 0 0
    0 0 0 0 0 0 0 0 0 0 0 0 0 0 0 0 0 0 0 0 0 0 0 0 0 0 0 0 0 0 0 0 0 0 0 0 0 0 0 0 0 0 0 0 0 0 0 0 0 0 0 0 0 0 0 0 0 0 0 0 0 0 0 0 0 0 0 0 0 -209 71 70 70 71 71 73 75 77 80 84 86 87 89 89 89 90 90 89 89 89 88 88 88 87 -225 -225 -225 -225 -225 -225 -225 -225 -225 -225 -225 -225 -225 -225 -225 -225 -225 -225 -225 -225 -225 -225 -225 -225 -225 -225 -225 -225 -225 -225 -225 -225 -225 -225 -225 -225 -225 -225 -225 -225 -225 -225 -225 -225 -225 -225 -225 -225 -225 -225 -225 -225 -225 -225 -225 -225 -225 -225 -225 -225 -225 -225 -225 -225 -225 -225 -225 -225 -225 -225 -225 -225 -225 -225 -225 -225 -225 -225 -225 -225 -225 -225 -225 -225 -225 -225 -225 -225 -225 -225 -225 -225 -225 -225 -225 -225 -225 -225 -225 -225 -225 -225 -225 -225 -225 -225 -225 -225 -225 -225 -225 84 75 78 76 80 78 79 79 78 78 81 82 82 81 82 81 83 84 85 84 84 88 88 89 90 89 90 89 91 90 90 91 91 91 93 96 97 96 99 100 101 103 104 109 109 112 115 114 114 113 114 116 117 120 124 124 126 127 126 126 126 125 127 126 127 130 129 131 132 133 134 136 135 137 141 143 148 148 148 149 149 149 148 146 146 146 147 148 149 146 -209 154 157 164 166 -193 -193 -193 -193 -193 165 165 162 162 160 166 166 -209 -209 -193 0 0 0 0 0
    0 0 0 0 0 0 0 0 0 0 0 0 0 0 0 0 0 0 0 0 0 0 0 0 0 0 0 0 0 0 0 0 0 0 0 0 0 0 0 0 0 0 0 0 0 0 0 0 0 0 0 0 0 0 0 0 0 0 0 0 0 0 0 0 0 0 0 0 0 -209 -193 71 70 71 72 75 77 79 83 86 88 89 91 91 91 91 90 90 89 89 89 89 88 -225 -225 -225 -225 -225 -225 -225 -225 -225 -225 -225 -225 -225 -225 -225 -225 -225 -225 -225 -225 -225 -225 -225 -225 -225 -225 -225 -225 -225 -225 -225 -225 -225 -225 -225 -225 -225 -225 -225 -225 -225 -225 -225 -225 -225 -225 -225 -225 -225 -225 -225 -225 -225 -225 -225 -225 -225 -225 -225 -225 -225 -225 -225 -225 -225 -225 -225 -225 -225 -225 -225 -225 -225 -225 -225 -225 -225 -225 -225 -225 -225 -225 -225 -225 -225 -225 -225 -225 -225 -225 -225 -225 -225 -225 -225 -225 -225 -225 -225 -225 -225 -225 -225 -225 -225 -225 -225 -225 -225 -225 -225 -225 -225 77 80 78 83 79 81 81 80 79 83 84 84 83 84 84 85 85 86 85 84 88 88 89 90 89 90 90 91 91 91 93 94 93 95 98 98 98 100 100 99 101 103 108 108 111 114 114 114 114 115 116 116 119 123 124 126 127 126 126 126 126 128 127 129 131 130 132 133 133 134 136 135 137 141 144 148 148 149 150 150 150 148 146 148 147 149 150 150 145 145 153 155 -193 162 163 160 -193 -193 -193 -193 164 161 161 159 166 164 -193 -193 185 0 0 0 0 0
    0 0 0 0 0 0 0 0 0 0 0 0 0 0 0 0 0 0 0 0 0 0 0 0 0 0 0 0 0 0 0 0 0 0 0 0 0 0 0 0 0 0 0 0 0 0 0 0 0 0 0 0 0 0 0 0 0 0 0 0 0 0 0 0 0 0 0 0 0 93 82 73 72 72 75 80 82 84 86 88 89 90 91 91 91 91 90 89 89 89 88 -225 -225 -225 -225 -225 -225 -225 -225 -225 -225 -225 -225 -225 -225 -225 -225 -225 -225 -225 -225 -225 -225 -225 -225 -225 -225 -225 -225 -225 -225 -225 -225 -225 -225 -225 -225 -225 -225 -225 -225 -225 -225 -225 -225 -225 -225 -225 -225 -225 -225 -225 -225 -225 -225 -225 -225 -225 -225 -225 -225 -225 -225 -225 -225 -225 -225 -225 -225 -225 -225 -225 -225 -225 -225 -225 -225 -225 -225 -225 -225 -225 -225 -225 -225 -225 -225 -225 -225 -225 -225 -225 -225 -225 -225 -225 -225 -225 -225 -225 -225 -225 -225 -225 -225 -225 -225 -225 -225 -225 -225 -225 -225 -225 -225 -225 77 81 79 84 80 81 81 81 81 84 86 86 85 86 87 87 88 88 87 86 90 89 91 91 90 91 91 92 92 93 95 97 95 97 99 99 99 100 100 99 101 104 108 108 110 114 114 114 114 115 116 116 119 123 123 126 127 126 127 127 127 130 129 130 132 131 132 133 133 134 136 135 137 141 144 149 149 150 151 152 151 151 149 151 150 151 151 151 147 147 151 153 -193 158 162 158 161 162 162 162 162 160 161 158 166 -209 -209 187 185 0 0 0 0 0
    0 0 0 0 0 0 0 0 0 0 0 0 0 0 0 0 0 0 0 0 0 0 0 0 0 0 0 0 0 0 0 0 0 0 0 0 0 0 0 0 0 0 0 0 0 0 0 0 0 0 0 0 0 0 0 0 0 0 0 0 0 0 0 0 0 0 0 0 0 96 90 86 84 78 83 87 88 89 90 91 91 91 92 93 92 91 91 90 90 90 -225 -225 -225 -225 -225 -225 -225 -225 -225 -225 -225 -225 -225 -225 -225 -225 -225 -225 -225 -225 -225 -225 -225 -225 -225 -225 -225 -225 -225 -225 -225 -225 -225 -225 -225 -225 -225 -225 -225 -225 -225 -225 -225 -225 -225 -225 -225 -225 -225 -225 -225 -225 -225 -225 -225 -225 -225 -225 -225 -225 -225 -225 -225 -225 -225 -225 -225 -225 -225 -225 -225 -225 -225 -225 -225 -225 -225 -225 -225 -225 -225 -225 -225 -225 -225 -225 -225 -225 -225 -225 -225 -225 -225 -225 -225 -225 -225 -225 -225 -225 -225 -225 -225 -225 -225 -225 -225 -225 -225 -225 -225 -225 -225 -225 -225 -225 -225 83 81 85 82 83 83 83 84 86 88 87 88 88 89 90 90 89 90 90 91 91 92 93 92 93 93 94 93 95 96 98 96 97 99 100 100 100 99 100 101 105 109 109 111 115 114 116 116 117 117 117 119 123 123 125 127 126 127 127 128 130 130 131 132 131 133 134 134 135 137 136 139 142 145 149 150 151 151 153 152 152 152 153 152 153 152 153 149 148 151 153 -193 -193 160 156 158 160 160 158 159 157 158 155 166 -209 -193 189 186 0 0 0 0 0
    0 0 0 0 0 0 0 0 0 0 0 0 0 0 0 0 0 0 0 0 0 0 0 0 0 0 0 0 0 0 0 0 0 0 0 0 0 0 0 0 0 0 0 0 0 0 0 0 0 0 0 0 0 0 0 0 0 0 0 0 0 0 0 0 0 0 0 0 0 98 96 92 92 90 90 92 92 93 93 92 92 92 92 93 92 91 90 89 -225 -225 -225 -225 -225 -225 -225 -225 -225 -225 -225 -225 -225 -225 -225 -225 -225 -225 -225 -225 -225 -225 -225 -225 -225 -225 -225 -225 -225 -225 -225 -225 -225 -225 -225 -225 -225 -225 -225 -225 -225 -225 -225 -225 -225 -225 -225 -225 -225 -225 -225 -225 -225 -225 -225 -225 -225 -225 -225 -225 -225 -225 -225 -225 -225 -225 -225 -225 -225 -225 -225 -225 -225 -225 -225 -225 -225 -225 -225 -225 -225 -225 -225 -225 -225 -225 -225 -225 -225 -225 -225 -225 -225 -225 -225 -225 -225 -225 -225 -225 -225 -225 -225 -225 -225 -225 -225 -225 -225 -225 -225 -225 -225 -225 -225 -225 -225 -225 -225 -225 82 86 84 85 85 85 86 87 89 89 89 91 91 91 92 91 92 92 93 93 93 94 94 94 95 95 94 98 98 100 97 98 99 100 101 101 100 100 101 105 109 109 111 114 114 116 116 117 117 117 119 122 123 125 126 126 127 127 128 130 131 131 132 132 133 134 134 135 138 137 139 142 145 148 149 150 151 153 153 153 152 153 153 153 153 154 151 151 153 154 156 -193 159 156 157 156 156 155 157 155 157 154 160 -209 -193 188 186 0 0 0 0 0
    0 0 0 0 0 0 0 0 0 0 0 0 0 0 0 0 0 0 0 0 0 0 0 0 0 0 0 0 0 0 0 0 0 0 0 0 0 0 0 0 0 0 0 0 0 0 0 0 0 0 0 0 0 0 0 0 0 0 0 0 0 0 0 0 0 0 0 0 0 100 100 98 97 98 98 99 99 97 96 94 94 94 93 93 92 91 91 -225 -225 -225 -225 -225 -225 -225 -225 -225 -225 -225 -225 -225 -225 -225 -225 -225 -225 -225 -225 -225 -225 -225 -225 -225 -225 -225 -225 -225 -225 -225 -225 -225 -225 -225 -225 -225 -225 -225 -225 -225 -225 -225 -225 -225 -225 -225 -225 -225 -225 -225 -225 -225 -225 -225 -225 -225 -225 -225 -225 -225 -225 -225 -225 -225 -225 -225 -225 -225 -225 -225 -225 -225 -225 -225 -225 -225 -225 -225 -225 -225 -225 -225 -225 -225 -225 -225 -225 -225 -225 -225 -225 -225 -225 -225 -225 -225 -225 -225 -225 -225 -225 -225 -225 -225 -225 -225 -225 -225 -225 -225 -225 -225 -225 -225 -225 -225 -225 -225 -225 -225 -225 -225 86 87 87 87 89 89 91 91 91 92 92 93 94 92 94 94 94 94 94 95 96 95 97 95 95 98 99 101 99 99 100 101 102 102 102 102 102 105 109 109 110 114 113 116 116 116 116 117 119 122 123 124 125 126 127 128 128 131 130 131 132 132 134 135 134 135 138 138 139 142 144 147 146 147 149 152 153 153 153 153 154 154 155 155 153 153 154 156 158 159 162 157 157 155 155 154 155 154 156 155 -193 -209 -209 -193 -193 0 0 0 0 0
    0 0 0 0 0 0 0 0 0 0 0 0 0 0 0 0 0 0 0 0 0 0 0 0 0 0 0 0 0 0 0 0 0 0 0 0 0 0 0 0 0 0 0 0 0 0 0 0 0 0 0 0 0 0 0 0 0 0 0 0 0 0 0 0 0 0 0 0 0 102 103 102 101 102 103 103 102 100 99 96 96 94 93 93 92 -225 -225 -225 -225 -225 -225 -225 -225 -225 -225 -225 -225 -225 -225 -225 -225 -225 -225 -225 -225 -225 -225 -225 -225 -225 -225 -225 -225 -225 -225 -225 -225 -225 -225 -225 -225 -225 -225 -225 -225 -225 -225 -225 -225 -225 -225 -225 -225 -225 -225 -225 -225 -225 -225 -225 -225 -225 -225 -225 -225 -225 -225 -225 -225 -225 -225 -225 -225 -225 -225 -225 -225 -225 -225 -225 -225 -225 -225 -225 -225 -225 -225 -225 -225 -225 -225 -225 -225 -225 -225 -225 -225 -225 -225 -225 -225 -225 -225 -225 -225 -225 -225 -225 -225 -225 -225 -225 -225 -225 -225 -225 -225 -225 -225 -225 -225 -225 -225 -225 -225 -225 -225 -225 -225 -225 -225 90 91 89 91 90 91 91 91 93 93 93 95 94 96 97 96 97 96 98 99 97 99 97 97 100 100 101 99 99 100 100 102 102 101 102 103 105 108 108 110 112 112 115 116 115 116 116 118 -193 122 124 125 125 126 127 128 130 130 130 132 132 134 135 134 136 138 139 140 143 145 146 145 146 149 152 152 153 152 153 154 154 155 155 153 152 154 156 157 155 157 156 156 154 154 153 154 154 156 156 158 -209 -193 -209 -193 0 0 0 0 0
    0 0 0 0 0 0 0 0 0 0 0 0 0 0 0 0 0 0 0 0 0 0 0 0 0 0 0 0 0 0 0 0 0 0 0 0 0 0 0 0 0 0 0 0 0 0 0 0 0 0 0 0 0 0 0 0 0 0 0 0 0 0 0 0 0 0 0 0 0 102 103 103 103 103 104 104 102 100 100 97 96 95 94 95 -225 -225 -225 -225 -225 -225 -225 -225 -225 -225 -225 -225 -225 -225 -225 -225 -225 -225 -225 -225 -225 -225 -225 -225 -225 -225 -225 -225 -225 -225 -225 -225 -225 -225 -225 -225 -225 -225 -225 -225 -225 -225 -225 -225 -225 -225 -225 -225 -225 -225 -225 -225 -225 -225 -225 -225 -225 -225 -225 -225 -225 -225 -225 -225 -225 -225 -225 -225 -225 -225 -225 -225 -225 -225 -225 -225 -225 -225 -225 -225 -225 -225 -225 -225 -225 -225 -225 -225 -225 -225 -225 -225 -225 -225 -225 -225 -225 -225 -225 -225 -225 -225 -225 -225 -225 -225 -225 -225 -225 -225 -225 -225 -225 -225 -225 -225 -225 -225 -225 -225 -225 -225 -225 -225 -225 -225 -225 89 88 87 90 88 90 90 91 92 92 93 95 94 97 98 97 98 98 100 100 98 99 97 97 100 99 100 99 98 99 100 102 102 101 102 103 105 107 108 109 111 111 114 115 115 116 116 117 -209 -209 122 123 124 125 126 127 128 129 129 132 131 134 135 134 135 138 138 139 142 144 146 144 146 148 151 152 152 152 153 154 154 154 155 152 151 154 155 155 154 156 157 156 154 154 152 153 153 155 155 -209 -209 -209 -209 180 0 0 0 0 0
    0 0 0 0 0 0 0 0 0 0 0 0 0 0 0 0 0 0 0 0 0 0 0 0 0 0 0 0 0 0 0 0 0 0 0 0 0 0 0 0 0 0 0 0 0 0 0 0 0 0 0 0 0 0 0 0 0 0 0 0 0 0 0 0 0 0 0 0 0 103 104 103 103 103 104 104 102 101 99 98 98 96 -225 -225 -225 -225 -225 -225 -225 -225 -225 -225 -225 -225 -225 -225 -225 -225 -225 -225 -225 -225 -225 -225 -225 -225 -225 -225 -225 -225 -225 -225 -225 -225 -225 -225 -225 -225 -225 -225 -225 -225 -225 -225 -225 -225 -225 -225 -225 -225 -225 -225 -225 -225 -225 -225 -225 -225 -225 -225 -225 -225 -225 -225 -225 -225 -225 -225 -225 -225 -225 -225 -225 -225 -225 -225 -225 -225 -225 -225 -225 -225 -225 -225 -225 -225 -225 -225 -225 -225 -225 -225 -225 -225 -225 -225 -225 -225 -225 -225 -225 -225 -225 -225 -225 -225 -225 -225 -225 -225 -225 -225 -225 -225 -225 -225 -225 -225 -225 -225 -225 -225 -225 -225 -225 -225 -225 -225 -225 -225 -225 -225 87 86 89 88 89 89 91 92 93 93 95 95 99 100 99 101 100 102 102 101 101 99 98 101 100 101 99 99 100 100 102 102 101 102 102 105 106 107 108 110 109 113 115 115 115 115 116 -209 -209 -209 121 123 124 126 127 127 129 128 131 131 132 133 132 134 136 136 138 140 141 143 142 143 147 150 152 152 152 153 154 154 154 154 152 151 153 155 155 156 161 160 159 155 156 155 155 154 155 156 157 -209 -193 -209 174 0 0 0 0 0
    0 0 0 0 0 0 0 0 0 0 0 0 0 0 0 0 0 0 0 0 0 0 0 0 0 0 0 0 0 0 0 0 0 0 0 0 0 0 0 0 0 0 0 0 0 0 0 0 0 0 0 0 0 0 0 0 0 0 0 0 0 0 0 0 0 0 0 0 0 105 105 104 104 104 104 104 102 101 100 98 98 -225 -225 -225 -225 -225 -225 -225 -225 -225 -225 -225 -225 -225 -225 -225 -225 -225 -225 -225 -225 -225 -225 -225 -225 -225 -225 -225 -225 -225 -225 -225 -225 -225 -225 -225 -225 -225 -225 -225 -225 -225 -225 -225 -225 -225 -225 -225 -225 -225 -225 -225 -225 -225 -225 -225 -225 -225 -225 -225 -225 -225 -225 -225 -225 -225 -225 -225 -225 -225 -225 -225 -225 -225 -225 -225 -225 -225 -225 -225 -225 -225 -225 -225 -225 -225 -225 -225 -225 -225 -225 -225 -225 -225 -225 -225 -225 -225 -225 -225 -225 -225 -225 -225 -225 -225 -225 -225 -225 -225 -225 -225 -225 -225 -225 -225 -225 -225 -225 -225 -225 -225 -225 -225 -225 -225 -225 -225 -225 -225 -225 -225 83 86 90 87 88 89 90 92 93 93 95 95 99 100 100 102 101 103 103 102 102 100 99 102 101 101 100 100 100 101 102 102 101 101 102 104 105 106 107 109 108 111 113 114 113 115 116 -193 -209 -209 121 124 124 126 127 127 130 128 130 131 132 132 131 133 135 135 136 138 138 140 140 141 144 149 151 152 152 152 153 153 153 154 153 152 154 156 157 162 165 164 162 158 158 156 157 156 156 156 -209 -209 -209 -209 -209 0 0 0 0 0
    0 0 0 0 0 0 0 0 0 0 0 0 0 0 0 0 0 0 0 0 0 0 0 0 0 0 0 0 0 0 0 0 0 0 0 0 0 0 0 0 0 0 0 0 0 0 0 0 0 0 0 0 0 0 0 0 0 0 0 0 0 0 0 0 0 0 0 0 0 106 106 105 105 105 104 104 102 102 101 -225 -225 -225 -225 -225 -225 -225 -225 -225 -225 -225 -225 -225 -225 -225 -225 -225 -225 -225 -225 -225 -225 -225 -225 -225 -225 -225 -225 -225 -225 -225 -225 -225 -225 -225 -225 -225 -225 -225 -225 -225 -225 -225 -225 -225 -225 -225 -225 -225 -225 -225 -225 -225 -225 -225 -225 -225 -225 -225 -225 -225 -225 -225 -225 -225 -225 -225 -225 -225 -225 -225 -225 -225 -225 -225 -225 -225 -225 -225 -225 -225 -225 -225 -225 -225 -225 -225 -225 -225 -225 -225 -225 -225 -225 -225 -225 -225 -225 -225 -225 -225 -225 -225 -225 -225 -225 -225 -225 -225 -225 -225 -225 -225 -225 -225 -225 -225 -225 -225 -225 -225 -225 -225 -225 -225 -225 -225 -225 -225 -225 -225 -225 -225 -225 85 92 88 89 91 91 94 94 94 97 96 100 101 100 102 101 102 102 101 102 100 100 101 100 101 101 101 101 101 103 104 103 103 104 105 105 106 107 108 108 109 111 112 112 115 116 117 119 121 121 123 124 125 126 126 128 127 128 131 133 133 133 135 136 136 137 138 138 140 140 141 142 147 150 150 151 152 153 152 153 153 152 151 154 156 158 164 168 167 165 162 160 161 160 158 155 155 -209 -209 -209 -209 -209 0 0 0 0 0
    0 0 0 0 0 0 0 0 0 0 0 0 0 0 0 0 0 0 0 0 0 0 0 0 0 0 0 0 0 0 0 0 0 0 0 0 0 0 0 0 0 0 0 0 0 0 0 0 0 0 0 0 0 0 0 0 0 0 0 0 0 0 0 0 0 0 0 0 0 107 107 106 106 105 105 105 103 102 -225 -225 -225 -225 -225 -225 -225 -225 -225 -225 -225 -225 -225 -225 -225 -225 -225 -225 -225 -225 -225 -225 -225 -225 -225 -225 -225 -225 -225 -225 -225 -225 -225 -225 -225 -225 -225 -225 -225 -225 -225 -225 -225 -225 -225 -225 -225 -225 -225 -225 -225 -225 -225 -225 -225 -225 -225 -225 -225 -225 -225 -225 -225 -225 -225 -225 -225 -225 -225 -225 -225 -225 -225 -225 -225 -225 -225 -225 -225 -225 -225 -225 -225 -225 -225 -225 -225 -225 -225 -225 -225 -225 -225 -225 -225 -225 -225 -225 -225 -225 -225 -225 -225 -225 -225 -225 -225 -225 -225 -225 -225 -225 -225 -225 -225 -225 -225 -225 -225 -225 -225 -225 -225 -225 -225 -225 -225 -225 -225 -225 -225 -225 -225 -225 -225 -225 90 87 88 90 91 95 94 94 97 97 100 101 100 102 101 102 102 101 101 100 100 101 100 100 101 101 103 103 104 106 105 106 107 107 107 106 108 109 108 108 110 110 110 114 116 116 118 119 120 122 123 124 124 125 126 126 128 131 133 134 134 135 137 137 138 139 139 140 141 141 142 146 148 148 149 151 152 152 153 154 153 153 155 160 164 167 169 169 167 164 163 164 164 162 157 157 -209 -209 -209 -209 -193 0 0 0 0 0
    0 0 0 0 0 0 0 0 0 0 0 0 0 0 0 0 0 0 0 0 0 0 0 0 0 0 0 0 0 0 0 0 0 0 0 0 0 0 0 0 0 0 0 0 0 0 0 0 0 0 0 0 0 0 0 0 0 0 0 0 0 0 0 0 0 0 0 0 0 109 108 107 106 106 106 106 -225 -225 -225 -225 -225 -225 -225 -225 -225 -225 -225 -225 -225 -225 -225 -225 -225 -225 -225 -225 -225 -225 -225 -225 -225 -225 -225 -225 -225 -225 -225 -225 -225 -225 -225 -225 -225 -225 -225 -225 -225 -225 -225 -225 -225 -225 -225 -225 -225 -225 -225 -225 -225 -225 -225 -225 -225 -225 -225 -225 -225 -225 -225 -225 -225 -225 -225 -225 -225 -225 -225 -225 -225 -225 -225 -225 -225 -225 -225 -225 -225 -225 -225 -225 -225 -225 -225 -225 -225 -225 -225 -225 -225 -225 -225 -225 -225 -225 -225 -225 -225 -225 -225 -225 -225 -225 -225 -225 -225 -225 -225 -225 -225 -225 -225 -225 -225 -225 -225 -225 -225 -225 -225 -225 -225 -225 -225 -225 -225 -225 -225 -225 -225 -225 -225 -225 -225 -225 -225 86 86 89 90 94 93 93 96 97 100 101 101 103 103 104 104 103 103 102 102 103 101 101 102 103 105 105 107 108 108 108 109 108 107 107 109 109 108 108 109 109 109 114 116 116 118 119 120 122 122 124 124 124 125 125 126 131 131 133 133 135 135 136 137 139 138 140 141 141 142 144 146 145 146 150 151 151 153 154 154 155 158 163 166 167 168 168 167 166 165 165 165 165 162 165 166 164 -193 -193 -193 0 0 0 0 0
    0 0 0 0 0 0 0 0 0 0 0 0 0 0 0 0 0 0 0 0 0 0 0 0 0 0 0 0 0 0 0 0 0 0 0 0 0 0 0 0 0 0 0 0 0 0 0 0 0 0 0 0 0 0 0 0 0 0 0 0 0 0 0 0 0 0 0 0 0 109 108 107 107 107 -225 -225 -225 -225 -225 -225 -225 -225 -225 -225 -225 -225 -225 -225 -225 -225 -225 -225 -225 -225 -225 -225 -225 -225 -225 -225 -225 -225 -225 -225 -225 -225 -225 -225 -225 -225 -225 -225 -225 -225 -225 -225 -225 -225 -225 -225 -225 -225 -225 -225 -225 -225 -225 -225 -225 -225 -225 -225 -225 -225 -225 -225 -225 -225 -225 -225 -225 -225 -225 -225 -225 -225 -225 -225 -225 -225 -225 -225 -225 -225 -225 -225 -225 -225 -225 -225 -225 -225 -225 -225 -225 -225 -225 -225 -225 -225 -225 -225 -225 -225 -225 -225 -225 -225 -225 -225 -225 -225 -225 -225 -225 -225 -225 -225 -225 -225 -225 -225 -225 -225 -225 -225 -225 -225 -225 -225 -225 -225 -225 -225 -225 -225 -225 -225 -225 -225 -225 -225 -225 -225 -225 -225 86 87 90 93 93 92 95 97 100 101 102 103 103 104 104 104 104 103 103 104 102 103 103 105 106 105 108 108 108 109 110 110 109 109 111 110 110 108 110 110 108 111 115 116 118 119 120 122 122 124 124 124 125 125 125 129 129 130 131 133 134 135 136 138 139 140 141 142 142 143 143 143 144 148 149 150 152 154 155 155 160 165 168 169 168 169 168 167 166 167 166 166 164 166 167 167 169 -193 161 0 0 0 0 0
    0 0 0 0 0 0 0 0 0 0 0 0 0 0 0 0 0 0 0 0 0 0 0 0 0 0 0 0 0 0 0 0 0 0 0 0 0 0 0 0 0 0 0 0 0 0 0 0 0 0 0 0 0 0 0 0 0 0 0 0 0 0 0 0 0 0 0 0 0 109 108 108 108 -225 -225 -225 -225 -225 -225 -225 -225 -225 -225 -225 -225 -225 -225 -225 -225 -225 -225 -225 -225 -225 -225 -225 -225 -225 -225 -225 -225 -225 -225 -225 -225 -225 -225 -225 -225 -225 -225 -225 -225 -225 -225 -225 -225 -225 -225 -225 -225 -225 -225 -225 -225 -225 -225 -225 -225 -225 -225 -225 -225 -225 -225 -225 -225 -225 -225 -225 -225 -225 -225 -225 -225 -225 -225 -225 -225 -225 -225 -225 -225 -225 -225 -225 -225 -225 -225 -225 -225 -225 -225 -225 -225 -225 -225 -225 -225 -225 -225 -225 -225 -225 -225 -225 -225 -225 -225 -225 -225 -225 -225 -225 -225 -225 -225 -225 -225 -225 -225 -225 -225 -225 -225 -225 -225 -225 -225 -225 -225 -225 -225 -225 -225 -225 -225 -225 -225 -225 -225 -225 -225 -225 -225 -225 -225 86 88 92 93 91 94 97 101 102 102 104 104 105 105 106 105 105 105 106 105 104 105 107 107 107 108 109 109 110 111 111 111 111 114 112 113 110 112 113 109 112 115 115 118 119 120 122 122 124 125 124 125 125 125 128 127 128 130 131 133 135 137 139 140 141 143 143 143 144 143 142 143 146 146 147 150 153 156 155 159 164 167 168 168 168 167 166 165 167 167 166 163 165 166 166 169 -193 159 0 0 0 0 0
    0 0 0 0 0 0 0 0 0 0 0 0 0 0 0 0 0 0 0 0 0 0 0 0 0 0 0 0 0 0 0 0 0 0 0 0 0 0 0 0 0 0 0 0 0 0 0 0 0 0 0 0 0 0 0 0 0 0 0 0 0 0 0 0 0 0 0 0 0 108 108 -225 -225 -225 -225 -225 -225 -225 -225 -225 -225 -225 -225 -225 -225 -225 -225 -225 -225 -225 -225 -225 -225 -225 -225 -225 -225 -225 -225 -225 -225 -225 -225 -225 -225 -225 -225 -225 -225 -225 -225 -225 -225 -225 -225 -225 -225 -225 -225 -225 -225 -225 -225 -225 -225 -225 -225 -225 -225 -225 -225 -225 -225 -225 -225 -225 -225 -225 -225 -225 -225 -225 -225 -225 -225 -225 -225 -225 -225 -225 -225 -225 -225 -225 -225 -225 -225 -225 -225 -225 -225 -225 -225 -225 -225 -225 -225 -225 -225 -225 -225 -225 -225 -225 -225 -225 -225 -225 -225 -225 -225 -225 -225 -225 -225 -225 -225 -225 -225 -225 -225 -225 -225 -225 -225 -225 -225 -225 -225 -225 -225 -225 -225 -225 -225 -225 -225 -225 -225 -225 -225 -225 -225 -225 -225 -225 -225 -225 88 89 91 89 92 93 99 101 100 103 103 105 105 106 106 106 106 108 107 107 108 109 109 108 110 110 110 110 111 111 110 111 114 112 114 111 113 113 110 112 114 113 117 118 119 122 122 123 124 124 124 124 124 127 126 127 129 131 133 134 137 139 140 142 144 144 144 145 145 143 144 147 148 149 153 155 157 157 159 163 166 168 168 169 168 167 167 168 168 167 165 167 168 168 169 -193 167 0 0 0 0 0
    0 0 0 0 0 0 0 0 0 0 0 0 0 0 0 0 0 0 0 0 0 0 0 0 0 0 0 0 0 0 0 0 0 0 0 0 0 0 0 0 0 0 0 0 0 0 0 0 0 0 0 0 0 0 0 0 0 0 0 0 0 0 0 0 0 0 0 0 0 -225 -225 -225 -225 -225 -225 -225 -225 -225 -225 -225 -225 -225 -225 -225 -225 -225 -225 -225 -225 -225 -225 -225 -225 -225 -225 -225 -225 -225 -225 -225 -225 -225 -225 -225 -225 -225 -225 -225 -225 -225 -225 -225 -225 -225 -225 -225 -225 -225 -225 -225 -225 -225 -225 -225 -225 -225 -225 -225 -225 -225 -225 -225 -225 -225 -225 -225 -225 -225 -225 -225 -225 -225 -225 -225 -225 -225 -225 -225 -225 -225 -225 -225 -225 -225 -225 -225 -225 -225 -225 -225 -225 -225 -225 -225 -225 -225 -225 -225 -225 -225 -225 -225 -225 -225 -225 -225 -225 -225 -225 -225 -225 -225 -225 -225 -225 -225 -225 -225 -225 -225 -225 -225 -225 -225 -225 -225 -225 -225 -225 -225 -225 -225 -225 -225 -225 -225 -225 -225 -225 -225 -225 -225 -225 -225 -225 -225 -225 -225 -225 -225 91 89 91 92 99 101 100 103 104 105 105 107 107 107 107 111 109 109 111 111 111 110 112 111 110 111 111 111 111 112 115 113 115 112 114 115 112 114 115 113 117 118 119 121 121 122 123 123 124 124 124 127 125 127 129 131 133 134 137 139 140 142 144 143 143 144 145 144 145 147 149 150 153 155 157 156 157 162 165 167 167 -193 -193 -193 167 168 168 167 166 168 169 169 170 171 170 0 0 0 0 0
    0 0 0 0 0 0 0 0 0 0 0 0 0 0 0 0 0 0 0 0 0 0 0 0 0 0 0 0 0 0 0 0 0 0 0 0 0 0 0 0 0 0 0 0 0 0 0 0 0 0 0 0 0 0 0 0 0 0 0 0 0 0 0 0 0 0 0 0 0 -225 -225 -225 -225 -225 -225 -225 -225 -225 -225 -225 -225 -225 -225 -225 -225 -225 -225 -225 -225 -225 -225 -225 -225 -225 -225 -225 -225 -225 -225 -225 -225 -225 -225 -225 -225 -225 -225 -225 -225 -225 -225 -225 -225 -225 -225 -225 -225 -225 -225 -225 -225 -225 -225 -225 -225 -225 -225 -225 -225 -225 -225 -225 -225 -225 -225 -225 -225 -225 -225 -225 -225 -225 -225 -225 -225 -225 -225 -225 -225 -225 -225 -225 -225 -225 -225 -225 -225 -225 -225 -225 -225 -225 -225 -225 -225 -225 -225 -225 -225 -225 -225 -225 -225 -225 -225 -225 -225 -225 -225 -225 -225 -225 -225 -225 -225 -225 -225 -225 -225 -225 -225 -225 -225 -225 -225 -225 -225 -225 -225 -225 -225 -225 -225 -225 -225 -225 -225 -225 -225 -225 -225 -225 -225 -225 -225 -225 -225 -225 -225 -225 -225 91 91 90 98 99 97 101 102 104 104 107 107 107 107 111 110 111 112 112 112 111 113 111 111 112 112 112 112 114 116 114 117 115 117 118 116 117 116 114 117 118 119 120 121 122 123 123 124 124 125 127 126 128 131 133 134 135 137 139 141 142 143 142 143 144 145 145 145 146 148 150 153 155 156 155 156 159 -193 -193 -193 -193 -193 -193 -193 -193 168 168 167 168 170 171 172 173 171 0 0 0 0 0
    0 0 0 0 0 0 0 0 0 0 0 0 0 0 0 0 0 0 0 0 0 0 0 0 0 0 0 0 0 0 0 0 0 0 0 0 0 0 0 0 0 0 0 0 0 0 0 0 0 0 0 0 0 0 0 0 0 0 0 0 0 0 0 0 0 0 0 0 0 -225 -225 -225 -225 -225 -225 -225 -225 -225 -225 -225 -225 -225 -225 -225 -225 -225 -225 -225 -225 -225 -225 -225 -225 -225 -225 -225 -225 -225 -225 -225 -225 -225 -225 -225 -225 -225 -225 -225 -225 -225 -225 -225 -225 -225 -225 -225 -225 -225 -225 -225 -225 -225 -225 -225 -225 -225 -225 -225 -225 -225 -225 -225 -225 -225 -225 -225 -225 -225 -225 -225 -225 -225 -225 -225 -225 -225 -225 -225 -225 -225 -225 -225 -225 -225 -225 -225 -225 -225 -225 -225 -225 -225 -225 -225 -225 -225 -225 -225 -225 -225 -225 -225 -225 -225 -225 -225 -225 -225 -225 -225 -225 -225 -225 -225 -225 -225 -225 -225 -225 -225 -225 -225 -225 -225 -225 -225 -225 -225 -225 -225 -225 -225 -225 -225 -225 -225 -225 -225 -225 -225 -225 -225 -225 -225 -225 -225 -225 -225 -225 -225 -225 -225 92 91 98 100 98 101 102 104 104 107 108 107 107 111 111 111 112 113 112 112 113 112 111 113 112 112 113 115 117 115 119 118 120 121 120 119 118 116 118 118 118 119 119 121 123 123 124 124 125 127 126 128 130 132 133 134 136 139 141 142 143 142 142 144 145 144 143 144 145 148 153 155 -193 -193 -209 -193 -193 -193 -193 -193 -193 -193 -193 -193 168 167 166 168 169 171 171 172 171 0 0 0 0 0
    0 0 0 0 0 0 0 0 0 0 0 0 0 0 0 0 0 0 0 0 0 0 0 0 0 0 0 0 0 0 0 0 0 0 0 0 0 0 0 0 0 0 0 0 0 0 0 0 0 0 0 0 0 0 0 0 0 0 0 0 0 0 0 0 0 0 0 0 0 -225 -225 -225 -225 -225 -225 -225 -225 -225 -225 -225 -225 -225 -225 -225 -225 -225 -225 -225 -225 -225 -225 -225 -225 -225 -225 -225 -225 -225 -225 -225 -225 -225 -225 -225 -225 -225 -225 -225 -225 -225 -225 -225 -225 -225 -225 -225 -225 -225 -225 -225 -225 -225 -225 -225 -225 -225 -225 -225 -225 -225 -225 -225 -225 -225 -225 -225 -225 -225 -225 -225 -225 -225 -225 -225 -225 -225 -225 -225 -225 -225 -225 -225 -225 -225 -225 -225 -225 -225 -225 -225 -225 -225 -225 -225 -225 -225 -225 -225 -225 -225 -225 -225 -225 -225 -225 -225 -225 -225 -225 -225 -225 -225 -225 -225 -225 -225 -225 -225 -225 -225 -225 -225 -225 -225 -225 -225 -225 -225 -225 -225 -225 -225 -225 -225 -225 -225 -225 -225 -225 -225 -225 -225 -225 -225 -225 -225 -225 -225 -225 -225 -225 -225 -225 94 98 103 100 102 104 105 106 109 109 109 109 112 111 112 113 113 112 112 114 112 111 114 113 114 115 117 118 117 120 121 122 124 123 122 122 119 121 121 119 120 119 121 123 124 124 124 125 126 125 126 128 129 131 133 136 139 141 142 144 143 143 144 145 146 145 146 147 150 153 156 -193 -193 -193 -193 -193 23 -193 -193 -193 -193 -193 -193 -209 -193 165 168 169 170 170 171 170 0 0 0 0 0
    0 0 0 0 0 0 0 0 0 0 0 0 0 0 0 0 0 0 0 0 0 0 0 0 0 0 0 0 0 0 0 0 0 0 0 0 0 0 0 0 0 0 0 0 0 0 0 0 0 0 0 0 0 0 0 0 0 0 0 0 0 0 0 0 0 0 0 0 0 -225 -225 -225 -225 -225 -225 -225 -225 -225 -225 -225 -225 -225 -225 -225 -225 -225 -225 -225 -225 -225 -225 -225 -225 -225 -225 -225 -225 -225 -225 -225 -225 -225 -225 -225 -225 -225 -225 -225 -225 -225 -225 -225 -225 -225 -225 -225 -225 -225 -225 -225 -225 -225 -225 -225 -225 -225 -225 -225 -225 -225 -225 -225 -225 -225 -225 -225 -225 -225 -225 -225 -225 -225 -225 -225 -225 -225 -225 -225 -225 -225 -225 -225 -225 -225 -225 -225 -225 -225 -225 -225 -225 -225 -225 -225 -225 -225 -225 -225 -225 -225 -225 -225 -225 -225 -225 -225 -225 -225 -225 -225 -225 -225 -225 -225 -225 -225 -225 -225 -225 -225 -225 -225 -225 -225 -225 -225 -225 -225 -225 -225 -225 -225 -225 -225 -225 -225 -225 -225 -225 -225 -225 -225 -225 -225 -225 -225 -225 -225 -225 -225 -225 -225 -225 -225 99 104 102 104 105 107 107 110 110 111 110 113 112 112 113 113 112 113 115 113 113 115 115 116 117 118 119 117 120 121 122 124 123 122 123 121 123 123 121 122 120 122 124 123 124 124 124 124 123 124 125 125 127 131 135 138 142 142 144 143 143 144 145 146 145 146 147 150 153 155 156 154 155 156 -193 -193 -193 -193 -193 -193 -193 -193 -193 -193 164 167 169 170 170 171 170 0 0 0 0 0</data></disparity>
</opencv_storage>
