<?xml version="1.0"?>
<opencv_storage>
<gps_time_stamp>290312</gps_time_stamp>
<gps_x>-1.2373998641967773e+001</gps_x>
<gps_y>1.1131619453430176e+001</gps_y>
<gps_z>-2.2271723747253418e+000</gps_z>
<image_time_stamp>281157</image_time_stamp>
<disparity type_id="opencv-matrix">
  <rows>88</rows>
  <cols>320</cols>
  <dt>s</dt>
  <data>
    0 0 0 0 0 0 0 0 0 0 0 0 0 0 0 0 0 0 0 0 0 0 0 0 0 0 0 0 0 0 0 0 0 0 0 0 0 0 0 0 0 0 0 0 0 0 0 0 0 0 0 0 0 0 0 0 0 0 0 0 0 0 0 0 0 0 0 0 0 66 65 70 71 74 71 72 66 -209 -193 -209 -209 -209 -193 -193 60 -209 -209 -209 -193 67 63 67 65 64 64 64 65 64 65 67 66 65 66 65 66 66 67 67 66 67 71 67 67 67 62 59 59 60 60 57 58 58 57 60 63 63 60 55 59 64 66 70 74 72 72 75 72 69 68 67 66 62 66 62 59 59 62 65 68 70 72 -193 70 71 71 71 71 72 71 72 72 73 74 74 73 70 69 68 67 67 63 61 61 63 63 66 67 68 68 71 -209 69 70 69 69 69 65 63 61 60 61 58 61 66 67 69 71 72 76 76 76 77 74 74 74 73 72 71 71 70 67 69 69 65 67 67 62 -209 54 -209 -209 108 -193 -209 71 69 69 68 71 73 74 74 74 73 74 75 75 71 72 60 58 67 65 63 62 64 69 70 74 74 73 73 73 73 72 72 72 66 70 80 87 82 83 85 87 87 87 87 87 87 91 94 94 92 100 -209 104 104 105 105 105 105 105 105 104 105 106 105 106 106 108 117 -193 120 129 123 125 124 124 124 124 124 126 123 127 124 129 130 131 131 134 -193 -193 142 148 0 0 0 0 0
    0 0 0 0 0 0 0 0 0 0 0 0 0 0 0 0 0 0 0 0 0 0 0 0 0 0 0 0 0 0 0 0 0 0 0 0 0 0 0 0 0 0 0 0 0 0 0 0 0 0 0 0 0 0 0 0 0 0 0 0 0 0 0 0 0 0 0 0 0 65 66 70 72 74 72 72 68 -193 -193 -193 -193 60 60 62 63 68 71 71 70 69 65 68 66 65 65 65 65 64 65 67 66 65 66 65 67 67 67 67 67 69 71 67 67 67 61 59 59 59 60 57 57 57 -209 60 63 62 60 52 57 60 62 67 73 71 71 73 72 71 70 69 67 62 66 61 59 58 61 63 66 70 -209 -209 70 71 70 70 71 71 71 72 73 74 74 75 74 72 -193 70 -209 65 59 59 57 58 56 58 54 55 54 -209 -209 66 68 67 67 67 63 61 60 60 60 59 62 66 69 70 72 72 78 76 76 77 74 73 73 72 72 70 70 69 67 70 69 64 67 67 -193 -209 -209 -209 -209 -209 -193 -193 71 71 70 69 71 72 74 75 74 75 76 76 77 74 75 71 70 70 69 63 62 62 66 70 74 73 73 74 74 74 73 73 73 64 70 82 87 82 83 85 88 86 87 87 87 86 91 94 94 -193 99 -209 103 103 104 104 104 104 104 104 104 105 105 105 106 107 109 117 -193 120 128 123 125 124 124 124 124 124 125 123 127 124 130 130 132 132 135 -193 -193 142 148 0 0 0 0 0
    0 0 0 0 0 0 0 0 0 0 0 0 0 0 0 0 0 0 0 0 0 0 0 0 0 0 0 0 0 0 0 0 0 0 0 0 0 0 0 0 0 0 0 0 0 0 0 0 0 0 0 0 0 0 0 0 0 0 0 0 0 0 0 0 0 0 0 0 0 63 65 70 71 73 70 -193 -193 -209 60 -193 61 63 64 66 68 69 72 71 70 69 66 68 67 65 66 65 65 63 65 67 66 65 65 65 67 68 68 68 67 70 72 68 67 67 61 59 59 60 60 57 58 58 -193 60 63 63 60 52 57 58 60 65 71 70 70 71 72 -193 73 75 -193 68 69 66 62 -209 -193 -209 -209 -209 -209 -209 -209 -193 68 70 71 72 73 73 74 75 75 76 76 -209 -209 -209 -193 -209 -209 -209 -209 -209 -209 -193 53 54 52 -209 -209 -209 -193 -193 63 64 -193 60 60 60 61 59 62 65 68 70 72 72 79 76 76 77 74 73 73 72 71 70 70 69 67 70 69 64 68 68 61 -209 -209 -209 -209 -209 -193 72 72 71 71 69 71 71 73 74 74 75 75 76 76 75 75 73 73 70 69 65 63 64 67 71 74 73 73 74 74 74 74 74 74 64 71 85 -193 83 83 85 88 87 87 87 87 86 91 94 94 -193 99 104 103 103 104 103 103 103 104 104 103 104 105 104 106 107 109 116 119 119 127 122 124 123 123 123 123 123 125 122 127 124 130 130 133 133 135 138 146 143 148 0 0 0 0 0
    0 0 0 0 0 0 0 0 0 0 0 0 0 0 0 0 0 0 0 0 0 0 0 0 0 0 0 0 0 0 0 0 0 0 0 0 0 0 0 0 0 0 0 0 0 0 0 0 0 0 0 0 0 0 0 0 0 0 0 0 0 0 0 0 0 0 0 0 0 61 64 70 71 -209 -209 -209 -209 -209 61 -193 62 65 65 67 68 69 71 70 70 69 65 68 67 66 66 65 65 64 65 67 65 65 65 66 67 68 68 68 68 71 72 68 67 67 61 59 59 60 60 57 58 58 -177 60 63 64 60 56 59 61 61 66 70 71 69 70 70 71 73 74 71 68 69 67 63 -209 -193 -209 63 -209 -209 -209 -209 -193 67 70 72 72 73 73 74 75 75 76 76 -193 -193 -209 -209 -209 -209 -193 -209 -209 54 55 52 53 52 -209 -193 -209 -209 -193 62 63 62 61 61 62 62 61 63 65 68 70 71 71 79 76 76 78 73 72 73 71 71 70 69 69 66 70 69 65 70 69 -193 -209 -209 -209 -209 78 -209 75 73 73 72 70 70 71 73 74 73 74 75 75 76 75 76 73 75 72 71 70 68 69 70 71 75 72 73 74 74 74 74 75 74 67 72 86 -193 83 84 85 88 87 86 87 87 86 91 93 93 91 97 -193 102 102 103 102 103 103 103 103 102 104 104 103 106 106 109 117 120 120 128 122 124 123 123 123 123 123 124 122 126 123 131 130 133 133 135 137 145 142 148 0 0 0 0 0
    0 0 0 0 0 0 0 0 0 0 0 0 0 0 0 0 0 0 0 0 0 0 0 0 0 0 0 0 0 0 0 0 0 0 0 0 0 0 0 0 0 0 0 0 0 0 0 0 0 0 0 0 0 0 0 0 0 0 0 0 0 0 0 0 0 0 0 0 0 62 64 70 70 -193 -209 -209 -193 -209 61 -193 61 64 64 65 67 68 70 70 70 69 66 68 67 66 66 66 65 63 65 67 65 65 64 66 67 68 68 68 68 71 71 67 66 66 60 59 58 59 60 57 57 57 -177 60 64 64 61 57 64 67 65 67 71 73 72 71 73 73 74 -209 -209 70 70 67 63 -209 -193 -193 -193 -209 -209 -209 -193 -193 68 71 72 73 74 73 74 75 75 75 75 -193 -193 -209 -209 -193 -209 56 -193 54 52 53 51 52 51 -193 -177 -209 -193 -193 61 63 62 61 62 63 64 62 65 66 69 70 71 71 78 75 76 77 72 71 72 70 70 69 68 68 65 70 69 64 70 70 -209 -209 -209 -209 -209 79 75 76 74 73 72 69 69 70 72 74 74 75 75 76 76 76 77 75 78 75 73 73 73 73 72 73 76 73 74 75 75 74 75 75 74 64 72 87 96 84 84 85 88 87 86 87 87 86 90 92 92 90 95 -193 101 102 103 102 103 103 103 103 102 103 103 102 105 105 109 117 121 120 130 122 125 123 123 123 123 123 124 122 127 123 131 130 133 133 134 136 144 142 148 0 0 0 0 0
    0 0 0 0 0 0 0 0 0 0 0 0 0 0 0 0 0 0 0 0 0 0 0 0 0 0 0 0 0 0 0 0 0 0 0 0 0 0 0 0 0 0 0 0 0 0 0 0 0 0 0 0 0 0 0 0 0 0 0 0 0 0 0 0 0 0 0 0 0 64 65 70 70 70 69 68 65 61 63 -193 62 65 65 65 66 67 69 70 70 69 67 69 67 67 66 66 66 64 66 67 65 65 64 66 67 68 68 68 68 71 71 67 66 66 60 59 58 60 60 57 57 57 -177 60 64 64 61 58 65 67 66 67 71 73 73 72 76 81 77 80 76 73 73 -209 62 -209 -193 -193 -209 -209 -209 -209 -209 -209 68 -193 -193 75 77 75 76 76 76 76 76 -193 -193 -209 -209 -209 -193 55 54 53 51 51 51 52 -193 -193 -177 -209 -209 -193 -193 -193 -193 60 61 -193 65 64 66 67 70 71 72 72 79 76 76 76 71 71 71 70 69 68 67 67 64 69 68 63 70 -193 -209 -209 -209 -209 75 77 72 73 71 71 70 67 68 69 71 73 73 75 76 76 77 77 78 76 80 78 75 75 75 75 74 74 76 73 74 75 75 74 75 75 74 59 71 -177 -177 84 85 86 88 87 87 87 87 86 90 91 92 90 95 -193 101 102 103 102 103 103 103 103 102 104 104 103 106 106 109 115 120 120 128 122 125 123 123 123 124 123 125 122 127 123 130 130 132 133 134 136 144 142 148 0 0 0 0 0
    0 0 0 0 0 0 0 0 0 0 0 0 0 0 0 0 0 0 0 0 0 0 0 0 0 0 0 0 0 0 0 0 0 0 0 0 0 0 0 0 0 0 0 0 0 0 0 0 0 0 0 0 0 0 0 0 0 0 0 0 0 0 0 0 0 0 0 0 0 71 69 72 71 70 69 69 67 63 65 -193 64 66 66 65 66 66 69 69 70 68 68 69 67 67 67 66 65 64 67 66 64 66 64 67 68 68 68 68 69 71 71 66 66 66 60 59 58 60 60 57 57 57 -177 60 64 64 61 58 64 66 65 65 68 70 70 71 76 79 77 77 77 77 78 -209 -209 -209 -209 -209 -209 -209 -209 -209 -209 -209 -209 -209 -209 79 82 79 80 80 80 79 79 77 78 -209 -209 -209 -209 -209 -209 -209 49 48 48 51 -193 -193 -177 -193 -193 -209 282 -209 -209 -209 -209 -209 -209 -193 66 67 69 71 71 71 79 75 76 76 71 71 71 69 69 67 67 67 64 68 68 62 69 66 -193 -209 -209 -209 -209 78 72 72 71 71 70 68 68 69 70 71 72 74 75 75 76 76 77 76 81 78 76 75 76 76 75 75 76 74 74 75 76 75 76 75 75 -177 -193 94 101 85 85 86 88 87 87 87 87 86 90 91 91 90 95 -193 101 102 103 102 103 103 103 103 103 105 105 104 108 107 111 115 -193 120 128 122 125 124 124 124 124 124 124 122 126 123 131 130 133 133 134 136 144 143 148 0 0 0 0 0
    0 0 0 0 0 0 0 0 0 0 0 0 0 0 0 0 0 0 0 0 0 0 0 0 0 0 0 0 0 0 0 0 0 0 0 0 0 0 0 0 0 0 0 0 0 0 0 0 0 0 0 0 0 0 0 0 0 0 0 0 0 0 0 0 0 0 0 0 0 -193 -209 76 -209 -209 -193 -209 -209 -209 -193 -209 -193 68 67 66 67 67 69 70 70 67 68 69 67 68 67 66 66 64 67 66 65 66 65 67 68 68 68 67 70 71 70 66 65 65 60 59 59 60 60 57 58 58 -177 60 63 64 60 59 64 64 63 63 67 69 70 71 76 78 76 78 79 79 82 -209 -209 -209 -209 -209 -209 43 -193 -193 -209 -209 -209 -209 -209 83 84 82 83 83 83 83 82 80 81 -193 -193 -193 -209 -209 -209 -209 -209 -209 -209 -193 -193 124 125 -193 -193 -209 282 -209 -209 -193 -209 -209 639 642 -209 -209 -209 -193 -209 71 -193 75 75 75 71 71 71 69 69 67 66 66 63 67 67 62 69 64 60 63 -209 -209 -209 74 71 72 71 72 71 70 70 70 70 71 71 73 73 74 74 75 76 76 81 77 76 76 76 76 75 76 76 74 75 75 76 75 76 75 75 -177 -193 100 102 85 86 86 89 87 87 87 87 85 90 91 91 89 94 102 101 102 102 102 102 103 103 103 103 105 106 106 109 108 111 115 -193 120 129 123 125 124 124 124 124 124 124 122 126 123 131 130 133 134 134 136 144 143 148 0 0 0 0 0
    0 0 0 0 0 0 0 0 0 0 0 0 0 0 0 0 0 0 0 0 0 0 0 0 0 0 0 0 0 0 0 0 0 0 0 0 0 0 0 0 0 0 0 0 0 0 0 0 0 0 0 0 0 0 0 0 0 0 0 0 0 0 0 0 0 0 0 0 0 -209 -209 73 70 -193 68 -209 -209 -209 -193 -209 -209 -209 -209 -209 -193 66 69 70 70 68 69 69 67 68 67 67 66 66 67 66 65 66 65 67 68 67 67 67 70 70 70 65 64 65 61 59 59 60 60 58 58 58 -177 60 63 64 60 59 62 63 61 61 63 68 70 71 75 75 76 -209 79 81 84 -209 -209 -209 -209 -209 -209 44 -209 46 -209 -209 -209 -209 -209 -209 -193 -193 82 84 84 83 82 81 81 79 -193 -193 -209 -209 -209 -209 -209 -193 -209 -193 -193 126 127 -209 -209 -209 -209 -209 -209 -209 -209 -209 -209 642 -209 -193 -193 -193 -209 71 -193 75 75 75 71 71 71 69 69 67 66 66 63 67 67 62 69 63 60 -209 -209 -209 71 73 71 71 71 72 71 70 70 70 70 70 71 72 71 72 73 74 75 75 79 76 75 75 75 76 76 76 76 74 75 75 76 75 76 75 75 -193 -193 104 104 86 86 87 89 87 87 87 86 84 89 90 90 88 93 102 100 102 101 101 102 102 103 103 103 105 -193 107 111 110 112 115 -177 120 129 123 126 124 124 124 124 124 124 122 126 -193 130 130 133 134 134 136 143 144 147 0 0 0 0 0
    0 0 0 0 0 0 0 0 0 0 0 0 0 0 0 0 0 0 0 0 0 0 0 0 0 0 0 0 0 0 0 0 0 0 0 0 0 0 0 0 0 0 0 0 0 0 0 0 0 0 0 0 0 0 0 0 0 0 0 0 0 0 0 0 0 0 0 0 0 -209 -209 -193 -193 -193 -209 -209 -209 -209 -209 -209 -209 -193 -209 -209 -209 -193 69 70 69 67 68 68 67 68 67 67 66 66 67 66 66 66 65 67 67 67 66 66 69 70 70 64 64 65 61 59 59 61 61 58 59 59 -177 60 63 63 59 58 -193 61 60 60 62 67 68 69 -193 -209 -209 -209 -193 83 -193 -193 -209 -209 -209 -209 -209 -209 47 49 -209 -209 -209 -209 -193 -193 -209 -209 -209 -193 82 83 81 81 79 -193 78 -193 -209 -209 -209 -193 -209 -193 -209 48 -209 -209 -209 -209 -209 -209 -209 -193 275 -193 -209 -209 -209 641 -209 -209 -209 -209 -209 70 -193 75 75 76 71 71 71 69 69 66 66 66 63 67 67 62 68 63 62 67 66 -193 71 73 71 71 71 72 71 71 70 70 70 70 71 71 71 71 71 72 74 74 77 75 74 74 75 76 76 77 76 74 75 75 76 74 76 75 -193 -209 -193 106 105 86 86 87 89 87 87 87 87 85 90 91 91 89 94 102 101 101 101 101 101 102 102 103 -193 105 -193 109 112 111 113 115 -177 120 128 123 126 124 125 124 124 124 125 122 126 -193 130 129 133 133 134 136 142 143 147 0 0 0 0 0
    0 0 0 0 0 0 0 0 0 0 0 0 0 0 0 0 0 0 0 0 0 0 0 0 0 0 0 0 0 0 0 0 0 0 0 0 0 0 0 0 0 0 0 0 0 0 0 0 0 0 0 0 0 0 0 0 0 0 0 0 0 0 0 0 0 0 0 0 0 -209 -209 -209 -209 -209 -209 -209 -209 -209 -209 -209 -193 328 -193 331 -193 -193 -193 70 69 68 68 68 67 68 67 66 66 67 67 66 66 66 65 67 67 66 65 65 69 69 70 64 64 65 62 60 60 61 61 58 59 59 -193 60 62 63 59 58 -193 61 61 61 63 67 68 69 72 -209 -209 -209 -209 -209 -209 -193 -177 -209 -209 -209 -209 46 50 50 -209 -209 -209 -209 -209 -209 -209 -209 -209 -209 -209 -193 81 79 78 -193 -193 -193 -209 -209 -209 -209 -209 -193 -209 -209 -209 -193 -209 -209 -209 -209 -209 274 272 273 -193 -209 -209 -209 -209 -209 -209 -209 -209 -193 -193 75 75 76 71 71 72 69 69 66 66 66 63 67 67 62 68 64 64 68 68 71 71 73 71 70 72 72 72 72 71 71 71 71 72 71 71 71 70 71 72 72 75 74 73 74 74 76 76 77 75 73 74 74 75 73 75 74 -193 -209 -193 106 105 87 87 87 89 87 86 87 87 84 90 91 90 89 95 102 101 101 100 100 101 102 102 103 -209 106 -193 109 112 111 112 115 -177 -193 129 123 126 124 125 125 125 124 125 123 126 -193 130 129 133 134 134 136 141 143 147 0 0 0 0 0
    0 0 0 0 0 0 0 0 0 0 0 0 0 0 0 0 0 0 0 0 0 0 0 0 0 0 0 0 0 0 0 0 0 0 0 0 0 0 0 0 0 0 0 0 0 0 0 0 0 0 0 0 0 0 0 0 0 0 0 0 0 0 0 0 0 0 0 0 0 -193 68 -193 -209 -209 -209 -209 -193 -209 -209 -209 324 327 327 331 -193 -193 -209 71 70 69 69 68 68 68 67 66 66 67 66 66 66 65 66 67 67 66 64 65 69 68 70 64 64 65 62 60 60 62 62 59 60 60 59 60 62 63 59 59 64 64 64 63 67 70 71 73 76 -209 -209 -209 -209 -209 -209 -177 -209 -209 -209 -209 -209 49 52 51 -193 -209 -193 -193 -193 -193 -209 -209 -209 -209 -209 -209 81 79 77 -193 76 -193 -209 -209 -209 -209 -209 -193 -209 -209 -209 -193 -209 -209 -209 -209 -209 271 270 272 -209 -209 -209 -209 -209 -209 -209 -209 -209 70 -193 75 75 76 71 71 72 70 69 66 66 66 63 67 67 62 69 63 -193 -193 -209 -193 73 73 71 70 72 72 72 72 72 71 71 72 72 71 71 70 70 70 71 73 75 75 75 75 75 76 77 77 75 73 74 73 74 73 74 74 -193 91 101 106 105 87 87 88 90 87 86 87 87 84 89 90 89 86 96 102 102 102 101 101 102 102 102 102 -209 105 -193 109 112 111 112 115 -177 120 129 123 126 124 125 125 125 124 125 123 126 -193 131 130 134 134 135 136 -193 143 147 0 0 0 0 0
    0 0 0 0 0 0 0 0 0 0 0 0 0 0 0 0 0 0 0 0 0 0 0 0 0 0 0 0 0 0 0 0 0 0 0 0 0 0 0 0 0 0 0 0 0 0 0 0 0 0 0 0 0 0 0 0 0 0 0 0 0 0 0 0 0 0 0 0 0 69 66 70 70 -209 -209 -209 197 -209 -209 -209 -209 330 328 335 -209 -209 -209 71 70 70 69 68 68 68 67 66 67 67 66 65 66 65 66 67 67 66 64 66 70 68 70 64 64 65 63 61 61 62 62 59 60 60 59 60 62 63 59 59 65 64 63 62 67 70 71 73 78 -209 -209 -177 -209 -209 -209 -209 -177 -209 -209 -209 -209 50 -209 -193 -193 -193 174 -193 -193 -193 -209 -209 -209 -209 -209 -209 -193 -193 -193 -193 76 -193 -209 -209 -209 -209 -209 -193 -209 -209 -209 -209 -209 -209 -209 -209 -209 -193 -193 -193 -209 -209 -193 -193 -209 -209 -209 -209 908 70 -193 75 75 75 71 71 72 70 70 67 66 66 62 67 67 62 68 62 -209 -209 -209 -193 74 73 70 69 72 72 72 72 72 71 71 72 72 71 71 70 69 69 70 72 74 74 74 74 74 76 77 77 75 74 74 74 75 74 75 74 -209 94 104 106 106 88 88 88 90 87 87 87 87 85 89 90 90 85 99 103 103 102 101 101 102 102 103 102 -209 105 -193 109 112 111 112 114 -193 120 128 122 125 124 125 125 125 124 125 123 126 -193 -193 129 134 135 136 136 142 143 147 0 0 0 0 0
    0 0 0 0 0 0 0 0 0 0 0 0 0 0 0 0 0 0 0 0 0 0 0 0 0 0 0 0 0 0 0 0 0 0 0 0 0 0 0 0 0 0 0 0 0 0 0 0 0 0 0 0 0 0 0 0 0 0 0 0 0 0 0 0 0 0 0 0 0 -177 64 69 -209 -209 -209 197 194 197 194 -209 -209 -209 -209 335 -209 -209 -209 72 71 71 70 69 69 68 67 67 67 68 66 66 67 65 67 68 68 66 64 66 70 68 70 64 64 66 64 62 62 63 63 59 61 61 60 60 62 62 58 59 64 64 63 -193 66 70 70 73 76 -193 -209 -193 -209 -209 -209 -209 -193 -209 -209 -209 -209 -177 -209 -209 175 174 172 169 -193 -193 -209 -209 -209 -209 -209 -209 82 -193 -193 -193 77 78 -193 -209 -209 -209 -209 -193 -209 -209 -209 -209 -209 -209 -209 -193 -209 -193 -209 -209 -209 702 708 -193 -209 -209 -209 -209 -209 70 -193 75 75 75 72 72 72 70 70 67 66 66 62 67 66 62 67 61 -193 -193 -209 -193 71 70 67 68 71 72 72 72 72 72 71 72 73 70 69 68 66 67 67 70 71 71 72 72 72 75 77 76 75 75 75 75 75 74 75 -193 -209 96 105 107 106 88 87 88 90 87 87 87 87 83 89 90 89 -193 102 104 104 102 102 102 103 103 103 102 -209 -193 -193 -193 114 112 113 114 -193 -193 127 122 125 124 125 125 125 124 125 123 126 -193 131 129 134 135 136 137 142 143 147 0 0 0 0 0
    0 0 0 0 0 0 0 0 0 0 0 0 0 0 0 0 0 0 0 0 0 0 0 0 0 0 0 0 0 0 0 0 0 0 0 0 0 0 0 0 0 0 0 0 0 0 0 0 0 0 0 0 0 0 0 0 0 0 0 0 0 0 0 0 0 0 0 0 0 67 65 -209 -209 -209 195 198 196 -209 -209 -209 -209 -209 -193 -177 -209 -209 72 72 71 71 69 69 69 68 67 67 68 68 66 66 67 66 68 68 68 65 64 67 70 68 70 64 65 66 65 63 63 64 63 60 61 61 60 60 62 62 58 58 66 65 64 -193 69 71 71 73 74 -193 -209 -193 -209 -209 -209 -209 -209 -209 -209 -209 -209 -177 -209 -209 -193 -209 169 166 166 -209 -209 -193 -209 -209 -209 -209 -209 -209 -193 -209 76 77 -209 -209 -209 -209 -209 -209 -209 -209 -209 -209 -209 -209 -209 -209 -209 -209 -209 -209 -209 -209 708 -193 -209 -193 -209 -209 -209 69 -209 75 75 75 72 72 72 71 71 67 67 67 63 67 67 63 66 62 62 67 -193 -193 69 68 65 68 71 72 73 73 73 72 72 73 73 70 68 66 64 65 66 69 69 69 70 71 71 75 77 76 75 75 75 75 76 75 74 -193 -209 96 105 107 106 88 87 88 90 87 87 86 86 82 88 89 89 -209 103 104 104 103 102 102 103 103 103 102 -209 -193 -193 -193 114 114 114 116 -209 -209 128 123 125 124 125 125 124 124 125 123 126 -193 131 129 134 135 136 137 141 143 146 0 0 0 0 0
    0 0 0 0 0 0 0 0 0 0 0 0 0 0 0 0 0 0 0 0 0 0 0 0 0 0 0 0 0 0 0 0 0 0 0 0 0 0 0 0 0 0 0 0 0 0 0 0 0 0 0 0 0 0 0 0 0 0 0 0 0 0 0 0 0 0 0 0 0 68 65 -209 -209 -209 -209 -209 198 -209 -209 -209 -209 -209 -209 -193 -193 -209 72 72 71 71 69 69 69 67 67 67 68 67 66 66 67 66 68 68 68 65 64 67 69 68 70 64 64 65 65 63 63 64 63 60 61 61 60 60 61 61 58 57 66 64 62 -209 73 73 72 74 -193 -193 -209 -209 -209 -193 -193 -209 -209 -209 -209 -209 -209 -193 -209 -209 -209 -209 -209 163 -193 -209 -209 403 -193 -209 -209 -209 -209 -209 -209 -209 -193 70 -209 -209 -209 -209 -209 -193 -209 -209 -209 -209 -209 -209 -209 -209 -209 -209 -209 -209 -209 -209 -193 -209 -209 -193 -209 -209 -209 70 -193 75 75 75 72 72 72 71 71 67 67 67 63 67 67 63 66 63 62 -193 -193 -193 -193 65 62 66 70 72 73 73 72 72 72 73 74 70 69 68 66 66 67 68 69 68 69 69 70 73 76 75 75 76 76 75 76 75 74 -193 -209 97 106 108 106 89 88 88 91 87 87 87 86 82 88 89 89 -209 103 104 104 103 102 102 102 102 102 102 102 -193 -193 -193 113 114 114 116 -209 121 128 123 125 124 125 124 124 124 125 123 126 -193 130 129 135 -193 136 137 141 143 146 0 0 0 0 0
    0 0 0 0 0 0 0 0 0 0 0 0 0 0 0 0 0 0 0 0 0 0 0 0 0 0 0 0 0 0 0 0 0 0 0 0 0 0 0 0 0 0 0 0 0 0 0 0 0 0 0 0 0 0 0 0 0 0 0 0 0 0 0 0 0 0 0 0 0 -209 64 -209 -193 -209 191 196 196 -209 349 -209 -209 -209 -209 -209 -193 -209 71 72 71 71 69 69 68 67 66 66 67 67 66 66 66 66 68 68 68 65 66 68 69 69 70 64 64 66 66 64 64 65 63 60 62 62 60 59 61 61 57 57 66 64 63 -209 73 74 72 73 70 67 -193 -209 -209 -193 -193 -209 -209 -209 50 -209 -193 55 -209 -209 -209 -209 -209 -209 -209 -209 -209 -209 -209 -209 -193 -209 -209 -209 -209 -209 -209 62 -209 -209 -209 -193 -193 -193 58 59 -209 -209 -209 -209 -209 150 -209 -193 -209 -209 79 -209 -209 -209 -209 -209 -209 -209 -209 70 81 75 75 75 73 73 73 72 72 68 68 68 64 68 68 66 69 68 68 -193 -193 -209 -193 -193 62 65 69 70 71 71 71 71 72 73 74 70 70 69 69 68 68 69 69 69 69 69 70 73 75 75 75 76 76 76 76 76 74 -193 -209 98 106 108 107 89 88 88 91 87 87 87 86 82 87 88 89 -209 -209 -193 104 103 102 102 102 102 102 101 102 -193 -193 -193 113 114 114 116 -209 121 128 123 125 124 125 124 124 124 125 123 126 123 130 128 135 135 136 138 142 143 146 0 0 0 0 0
    0 0 0 0 0 0 0 0 0 0 0 0 0 0 0 0 0 0 0 0 0 0 0 0 0 0 0 0 0 0 0 0 0 0 0 0 0 0 0 0 0 0 0 0 0 0 0 0 0 0 0 0 0 0 0 0 0 0 0 0 0 0 0 0 0 0 0 0 0 -209 -193 -193 187 188 191 193 194 -209 351 -209 -209 -209 -209 -209 -193 -193 71 71 71 70 69 69 68 67 66 67 67 66 65 66 65 66 68 68 67 65 68 69 69 69 70 64 64 66 66 64 64 65 63 60 62 62 60 59 60 61 57 57 68 70 67 -209 74 75 74 73 70 67 66 -209 -209 -209 -193 -193 -193 -193 51 53 54 55 -209 -209 -209 -209 -209 -209 -193 263 265 -193 266 -193 -193 -209 -209 -209 -193 -209 -209 -209 -209 -209 -193 -209 -209 -193 59 60 -193 -193 -193 -193 -209 -193 -209 150 -209 -209 -209 -209 -209 715 -209 -209 -193 -209 -209 70 81 75 76 75 74 73 73 73 73 69 69 69 66 70 70 69 72 71 71 -193 -193 -209 -209 -209 66 67 70 70 71 71 71 71 72 73 74 71 71 70 70 70 69 70 71 70 71 71 71 73 74 74 74 75 75 75 76 75 74 74 85 96 105 106 104 89 88 88 91 87 87 87 87 82 87 88 89 -209 -209 105 104 103 102 102 102 102 102 101 102 -193 -193 -177 112 113 113 115 -209 120 127 122 125 124 125 124 124 124 125 123 126 124 129 128 135 136 136 139 143 144 146 0 0 0 0 0
    0 0 0 0 0 0 0 0 0 0 0 0 0 0 0 0 0 0 0 0 0 0 0 0 0 0 0 0 0 0 0 0 0 0 0 0 0 0 0 0 0 0 0 0 0 0 0 0 0 0 0 0 0 0 0 0 0 0 0 0 0 0 0 0 0 0 0 0 0 -193 -193 -193 -193 -209 189 191 194 -209 350 -209 -209 -209 -209 -209 -209 71 71 72 71 70 69 69 68 67 66 67 67 65 65 66 64 66 67 67 66 65 68 68 69 68 70 64 64 66 66 64 64 65 63 60 62 62 60 59 60 60 57 57 63 68 67 -209 74 76 77 73 72 69 68 -209 -209 -193 -193 -193 -193 -193 52 54 55 -209 -209 -209 -209 -209 -209 -209 -209 -209 -193 -209 266 -193 -193 -193 -209 -209 -193 -209 -209 -209 -193 127 -193 -209 -209 -193 59 60 -193 -209 -193 -193 -209 -193 -209 -193 -209 -209 77 -209 -209 -209 -209 -209 -209 -209 -209 71 82 75 75 75 74 73 73 73 74 70 71 71 68 72 72 72 74 73 73 -193 -193 74 -209 -209 69 69 72 72 72 72 72 72 73 74 75 71 72 71 71 71 70 71 72 72 73 72 72 74 73 74 74 75 75 75 75 75 74 75 88 95 101 102 102 89 89 88 91 87 87 87 86 82 86 87 87 -209 -209 104 104 103 102 102 102 102 102 101 101 -193 -209 -193 110 111 112 114 -209 -193 127 122 125 123 124 124 124 124 124 123 126 123 129 128 136 136 136 138 143 144 146 0 0 0 0 0
    0 0 0 0 0 0 0 0 0 0 0 0 0 0 0 0 0 0 0 0 0 0 0 0 0 0 0 0 0 0 0 0 0 0 0 0 0 0 0 0 0 0 0 0 0 0 0 0 0 0 0 0 0 0 0 0 0 0 0 0 0 0 0 0 0 0 0 0 0 -193 -193 -209 -209 -209 -193 -193 -209 -209 -209 -209 -209 -209 -209 -209 -209 71 71 72 71 69 68 69 67 66 66 67 66 65 65 66 64 66 67 66 65 63 67 66 66 67 69 63 63 66 66 64 64 65 63 60 62 62 60 59 59 59 57 57 62 65 66 -209 74 76 79 72 74 70 -193 -209 -209 -177 -193 -193 -193 -209 53 -209 -193 -193 -209 -209 -209 -209 -209 -209 -209 -209 -209 -209 265 -193 264 260 -209 -209 -193 -209 -209 -209 -193 -193 -193 55 55 55 57 58 58 -193 -193 -193 -193 -193 -209 -209 -209 -209 -193 -209 -209 -209 -209 -209 -209 -209 -193 71 82 75 75 75 75 74 74 74 74 71 72 71 71 73 73 72 74 72 73 -193 -193 -209 -209 -209 -193 71 73 73 73 73 72 73 73 74 75 72 73 73 73 73 72 73 73 74 74 73 74 75 74 74 74 75 75 75 75 75 74 -209 90 99 102 102 101 90 89 89 91 87 87 87 86 83 86 87 87 -209 -209 104 -193 103 103 102 102 102 102 101 101 99 -209 -193 108 110 111 113 -209 -209 127 122 125 123 124 124 124 124 124 123 125 123 128 127 135 136 136 138 142 144 146 0 0 0 0 0
    0 0 0 0 0 0 0 0 0 0 0 0 0 0 0 0 0 0 0 0 0 0 0 0 0 0 0 0 0 0 0 0 0 0 0 0 0 0 0 0 0 0 0 0 0 0 0 0 0 0 0 0 0 0 0 0 0 0 0 0 0 0 0 0 0 0 0 0 0 -209 -209 -209 -209 -209 -209 -209 -193 -209 -209 -209 -209 -209 -209 -209 -193 70 70 71 70 68 67 68 67 65 66 67 65 64 65 66 64 66 67 65 63 63 66 65 64 66 69 63 63 65 66 64 64 65 63 60 61 61 60 58 58 59 -193 57 62 64 66 -209 -209 74 78 -193 -209 -209 -209 -209 -209 -209 -209 -209 -193 -209 -193 -209 -193 -209 -209 -209 141 139 -209 -209 -209 -209 -209 -209 265 -193 -209 -193 -209 -209 -193 -193 -209 56 54 54 53 54 55 55 -209 57 -193 -193 -193 -193 -193 -193 162 -193 -209 -209 -209 -209 -209 -209 -209 -209 -209 -209 484 -193 83 76 75 75 75 74 74 74 75 71 72 72 72 73 73 72 72 70 71 72 -193 73 -209 -209 -209 72 73 73 72 73 73 73 73 75 75 74 74 75 75 76 74 74 74 74 74 73 74 75 74 74 75 76 75 75 76 75 -193 -209 -209 -193 106 103 101 90 89 88 91 87 87 87 86 83 86 87 87 -209 -209 104 -193 103 103 102 103 102 102 101 101 99 -209 -193 108 109 110 112 -209 -209 126 122 125 123 124 124 124 123 124 123 125 123 127 125 133 135 135 138 142 145 146 0 0 0 0 0
    0 0 0 0 0 0 0 0 0 0 0 0 0 0 0 0 0 0 0 0 0 0 0 0 0 0 0 0 0 0 0 0 0 0 0 0 0 0 0 0 0 0 0 0 0 0 0 0 0 0 0 0 0 0 0 0 0 0 0 0 0 0 0 0 0 0 0 0 0 -209 -209 -209 -209 -209 -209 -209 -209 -209 -193 -209 -209 -209 -209 -209 72 70 69 71 69 68 67 68 66 65 67 67 65 64 65 66 64 66 66 65 62 62 65 64 61 65 68 62 63 65 65 64 64 65 63 60 61 61 60 58 58 58 -193 57 60 63 66 -193 -209 -209 -209 -193 -209 -209 -193 -193 -209 -209 -209 -209 -193 -209 -193 -193 51 -209 -209 -209 142 141 -209 -209 -209 -209 -209 -209 -193 -193 -209 -193 -209 -209 -193 -209 -209 -209 53 53 53 54 55 -193 -209 -177 -193 -193 -193 -193 -193 159 164 -193 -209 -209 -209 -209 -209 -209 -193 -209 -209 -193 484 -193 84 76 75 74 75 74 74 74 74 71 72 72 73 73 75 72 71 70 71 72 73 72 -209 -209 -209 72 73 73 72 73 72 73 74 76 76 74 75 76 76 76 74 74 73 73 74 73 73 74 73 73 74 74 74 74 74 74 -209 -209 -209 -209 -209 106 102 89 88 88 91 87 87 86 86 83 86 87 87 -209 -209 104 105 103 103 102 102 102 102 101 101 -193 -209 -193 -193 111 110 -193 -193 -209 126 123 125 123 124 124 124 124 124 123 125 123 126 125 133 134 135 138 142 145 146 0 0 0 0 0
    0 0 0 0 0 0 0 0 0 0 0 0 0 0 0 0 0 0 0 0 0 0 0 0 0 0 0 0 0 0 0 0 0 0 0 0 0 0 0 0 0 0 0 0 0 0 0 0 0 0 0 0 0 0 0 0 0 0 0 0 0 0 0 0 0 0 0 0 0 -193 -193 -193 58 63 -209 -209 -193 -209 -209 -193 -193 -209 -209 -209 71 68 67 70 68 67 67 67 66 66 67 67 65 64 64 66 64 66 66 64 62 64 66 65 60 66 68 62 63 65 66 64 64 65 63 60 61 61 59 58 58 58 -193 57 60 61 62 -209 -209 68 -209 -209 -209 -209 -209 -209 -209 -209 -209 -193 -193 -209 -193 -193 51 53 -209 -209 144 143 -209 -209 -209 -209 -209 -209 -193 -193 -209 -209 -209 -209 -193 -209 -209 -209 51 52 51 53 54 55 -209 -177 -193 -193 -193 -193 -193 160 165 -209 -209 -209 -209 -209 -209 -209 273 -193 -193 -193 481 -193 84 75 74 74 74 73 73 73 74 71 73 72 73 73 75 73 71 71 71 73 73 73 -209 -209 -209 -209 74 74 72 73 72 73 73 75 75 74 75 76 76 76 74 74 74 73 73 73 73 74 73 74 74 74 74 73 73 73 -209 -209 -209 -209 -209 -209 101 88 88 88 91 87 86 87 86 84 86 86 86 -209 -209 105 106 103 103 102 102 102 102 101 101 -193 -209 -209 -193 -193 -193 -193 -193 -209 127 123 125 123 124 124 124 124 124 123 124 123 126 125 133 133 135 137 142 145 146 0 0 0 0 0
    0 0 0 0 0 0 0 0 0 0 0 0 0 0 0 0 0 0 0 0 0 0 0 0 0 0 0 0 0 0 0 0 0 0 0 0 0 0 0 0 0 0 0 0 0 0 0 0 0 0 0 0 0 0 0 0 0 0 0 0 0 0 0 0 0 0 0 0 0 65 62 62 60 65 66 64 65 66 -193 65 -209 -193 -209 69 69 66 66 69 67 67 66 67 65 65 67 67 64 64 64 66 65 67 66 64 62 66 68 67 60 68 69 63 63 66 66 64 64 65 63 60 61 61 59 58 58 58 -193 57 62 62 62 -193 -209 66 -209 -209 -209 -209 -209 -209 -209 -209 -209 -209 -193 -193 -193 -209 -193 -193 -209 -209 -209 -209 -209 -209 -209 -209 -209 -209 -209 -209 -209 -209 -209 -193 -209 -209 -209 -209 50 50 49 52 54 55 -209 59 60 -193 -193 -193 -193 160 -209 -209 -209 -209 -209 -209 -209 -209 272 -193 -193 -193 -193 -209 83 74 73 73 73 73 73 73 73 70 73 73 73 74 75 74 73 72 72 74 74 74 -193 -209 -209 75 74 75 73 73 71 73 73 74 -193 74 74 75 75 75 73 73 73 72 72 72 73 73 73 74 74 74 74 73 73 73 -193 70 -209 -209 -193 -209 -193 89 89 88 91 86 86 87 86 84 86 86 86 -209 -209 105 106 103 103 102 102 102 102 101 101 -193 -209 -209 -193 110 109 -193 -209 654 127 123 125 124 124 124 124 123 124 122 124 122 125 124 131 132 134 137 141 145 146 0 0 0 0 0
    0 0 0 0 0 0 0 0 0 0 0 0 0 0 0 0 0 0 0 0 0 0 0 0 0 0 0 0 0 0 0 0 0 0 0 0 0 0 0 0 0 0 0 0 0 0 0 0 0 0 0 0 0 0 0 0 0 0 0 0 0 0 0 0 0 0 0 0 0 66 64 64 62 66 68 65 65 66 64 65 65 68 -193 67 66 63 66 68 66 66 65 66 64 65 67 66 64 64 64 67 65 67 67 64 63 69 70 69 -193 71 71 63 64 66 66 64 64 64 63 59 61 61 59 57 58 58 58 57 64 64 64 63 -209 -209 -209 -209 -209 -209 -209 -209 -209 -209 -209 -209 -209 -193 -209 -209 -209 -209 -209 -209 -209 -209 -209 -209 -209 -209 -209 -209 -193 -209 -209 -209 -209 -209 -209 -209 -209 -193 -209 -193 45 49 51 55 -209 -193 62 -193 -193 -193 -193 -193 -209 -209 -209 -209 -209 -209 -209 -209 270 -193 274 275 -209 -209 84 72 72 72 72 72 72 72 73 70 73 73 74 74 76 75 74 73 73 74 75 75 73 -193 74 76 75 76 74 74 73 73 73 -193 -193 -209 73 72 72 71 71 71 71 70 71 72 73 73 73 74 74 74 74 74 73 -193 -209 72 -209 -209 -193 -209 -209 88 88 88 90 86 86 86 86 84 85 86 85 -209 -209 104 104 102 102 101 102 102 102 100 101 95 -209 -209 108 110 109 -193 -209 -193 126 122 124 123 124 123 123 123 123 122 124 122 124 124 131 131 133 136 140 146 146 0 0 0 0 0
    0 0 0 0 0 0 0 0 0 0 0 0 0 0 0 0 0 0 0 0 0 0 0 0 0 0 0 0 0 0 0 0 0 0 0 0 0 0 0 0 0 0 0 0 0 0 0 0 0 0 0 0 0 0 0 0 0 0 0 0 0 0 0 0 0 0 0 0 0 67 65 65 63 67 69 66 66 66 65 66 67 67 -209 65 64 62 66 67 65 66 64 65 64 66 67 66 64 64 64 67 66 67 67 63 64 71 71 -209 -209 73 71 64 64 67 66 64 64 64 63 59 61 61 59 58 58 59 58 58 66 66 66 66 -209 -209 -209 -209 -209 -209 -209 -209 -209 -209 -209 -209 -209 -209 -209 -209 -209 -209 -209 -209 -209 -209 -209 -209 -209 -209 -209 -209 -209 -209 -209 -209 -209 -209 -209 -193 -209 349 -209 -193 -193 45 45 47 -209 -193 -193 -209 -193 -193 -209 -193 -209 -193 -209 -209 -209 -209 -209 -209 270 -209 -209 -209 -209 -209 84 71 71 71 71 71 71 71 72 70 73 73 73 74 75 74 73 -193 73 74 75 75 73 73 74 76 76 77 75 -193 73 74 74 -209 -209 -193 72 71 71 70 70 70 70 70 71 72 73 74 74 74 74 74 74 74 73 -193 -193 72 -209 68 -193 -209 -209 88 88 88 90 86 86 86 86 84 85 85 85 -209 -193 103 104 102 102 101 101 101 101 100 100 94 -209 -209 -209 -193 -209 107 -209 -209 124 121 124 123 123 123 123 123 123 122 124 122 125 124 131 132 134 135 140 145 146 0 0 0 0 0
    0 0 0 0 0 0 0 0 0 0 0 0 0 0 0 0 0 0 0 0 0 0 0 0 0 0 0 0 0 0 0 0 0 0 0 0 0 0 0 0 0 0 0 0 0 0 0 0 0 0 0 0 0 0 0 0 0 0 0 0 0 0 0 0 0 0 0 0 0 66 64 64 63 67 69 66 66 66 63 66 68 68 65 65 63 62 66 66 65 66 64 64 64 66 67 65 64 64 64 67 67 67 67 64 66 72 71 -209 -209 75 72 64 65 67 66 64 63 63 63 59 61 61 59 58 59 59 59 58 66 66 65 64 60 -209 -209 -209 -209 -209 -209 -209 -209 -209 -209 -209 -209 -209 -209 -209 -209 -209 -209 -209 -209 -209 -209 -209 -209 -209 -209 -209 -209 -209 -193 -193 -193 -193 -209 -209 -209 349 -193 350 -209 43 45 -209 -209 -209 -193 -209 -209 -209 -209 -209 -193 253 254 -209 -209 -209 -209 -209 -209 -209 -209 -209 -209 -209 83 70 70 71 71 71 70 71 71 69 73 73 73 73 74 73 71 -193 72 73 73 74 70 72 73 75 75 75 75 -193 74 75 74 -193 -209 72 72 71 71 70 70 70 70 70 71 71 73 73 74 74 74 74 74 73 73 -193 68 70 66 67 67 -209 -209 87 88 88 90 86 86 86 86 84 85 85 85 -209 -209 102 104 101 102 101 102 102 101 100 100 95 -193 -209 -209 -209 -209 -209 -209 -209 124 -209 123 123 123 123 123 123 123 122 123 122 124 124 130 132 134 135 139 145 145 0 0 0 0 0
    0 0 0 0 0 0 0 0 0 0 0 0 0 0 0 0 0 0 0 0 0 0 0 0 0 0 0 0 0 0 0 0 0 0 0 0 0 0 0 0 0 0 0 0 0 0 0 0 0 0 0 0 0 0 0 0 0 0 0 0 0 0 0 0 0 0 0 0 0 63 61 61 60 66 67 64 64 61 61 63 64 65 65 65 63 62 67 66 65 66 64 64 64 66 67 64 64 64 64 67 67 67 67 65 69 73 72 -209 -209 76 72 65 65 67 66 64 63 63 63 59 61 61 59 58 60 60 60 58 -193 66 63 61 56 -209 -209 -209 -209 -209 -209 -209 -209 -209 -209 -209 -209 -209 -209 -209 -209 -209 -209 -209 -193 -209 -209 -209 -209 -209 -209 -209 -209 -209 -193 -193 243 -209 -209 -209 -209 349 350 351 -209 -193 -209 -209 -209 -209 -209 -209 -209 -209 -209 -209 -193 250 251 -209 -209 -209 -209 -209 -209 -209 -209 -209 -209 -209 81 69 69 70 70 70 70 70 71 69 73 73 73 73 73 72 71 -193 72 72 72 73 69 70 71 73 73 73 73 73 73 74 74 74 73 72 72 71 71 68 68 69 68 68 70 70 72 73 74 74 74 74 74 73 73 -193 69 70 66 66 67 -209 -209 87 87 87 89 86 85 86 86 84 85 85 85 -209 -209 102 104 102 102 102 102 102 102 101 101 95 102 -209 -209 -209 -209 -209 601 -209 124 -193 123 122 123 123 123 123 123 122 123 -193 124 124 128 131 133 134 139 145 144 0 0 0 0 0
    0 0 0 0 0 0 0 0 0 0 0 0 0 0 0 0 0 0 0 0 0 0 0 0 0 0 0 0 0 0 0 0 0 0 0 0 0 0 0 0 0 0 0 0 0 0 0 0 0 0 0 0 0 0 0 0 0 0 0 0 0 0 0 0 0 0 0 0 0 62 60 61 58 65 64 61 60 57 -193 -193 59 60 61 63 62 62 66 65 65 66 65 64 64 66 67 64 65 65 65 68 67 67 67 66 71 73 72 -209 -209 76 72 65 65 67 66 64 62 62 63 59 61 61 59 59 61 61 61 -193 -193 65 61 -209 -193 59 -209 64 -209 -209 -193 51 -193 -209 -209 -209 -209 -209 -209 -209 -209 -209 -209 -209 -209 -209 -209 -209 -209 -209 -209 -209 -209 -209 -193 -209 -193 -209 -209 -209 -209 350 -193 353 -209 -193 -209 -209 -209 -209 -209 -209 -209 -209 -209 -209 -209 -193 -209 -209 -209 -209 -209 -209 -209 -209 -209 -209 -209 -209 79 68 68 70 70 70 70 70 71 68 73 73 73 73 73 72 72 -193 72 71 71 71 67 68 69 71 70 70 71 71 71 73 72 72 71 69 70 68 69 67 66 67 67 66 69 69 71 71 73 74 74 73 73 73 73 -193 -193 70 68 68 69 -209 -209 86 87 87 89 85 85 86 85 84 85 85 85 -209 -209 103 105 102 103 102 102 102 102 101 101 -193 -209 -209 -209 -209 -193 -193 -209 -209 123 -209 123 122 123 123 123 123 123 -193 123 -209 123 124 127 130 133 134 138 144 143 0 0 0 0 0
    0 0 0 0 0 0 0 0 0 0 0 0 0 0 0 0 0 0 0 0 0 0 0 0 0 0 0 0 0 0 0 0 0 0 0 0 0 0 0 0 0 0 0 0 0 0 0 0 0 0 0 0 0 0 0 0 0 0 0 0 0 0 0 0 0 0 0 0 0 64 61 63 59 65 62 59 58 55 -193 -193 -193 59 62 62 61 62 66 64 65 66 65 63 64 67 66 64 65 65 65 68 67 67 66 67 71 72 71 -209 -209 74 71 65 65 67 66 64 62 62 63 59 61 61 59 59 61 62 62 -193 -193 62 60 62 63 70 66 66 -209 -209 -209 54 53 -209 55 -209 -209 -209 -209 -209 -209 -209 -209 -209 -209 -209 -209 -209 -209 -193 -209 -209 -209 -209 -193 -209 -193 -209 -193 -193 -209 355 -193 355 -209 -209 -209 -209 -209 -209 -209 -209 -209 -209 -209 -209 -193 -193 -209 -209 -193 -209 -193 -209 -209 -209 -209 -209 -209 -193 75 67 67 70 69 69 69 69 70 68 73 73 73 73 73 72 72 71 72 71 71 72 69 69 70 70 70 69 70 70 69 70 70 69 69 67 68 67 68 66 65 66 66 66 69 69 70 70 73 73 73 73 73 72 72 -209 -209 70 70 68 70 -193 -193 86 87 87 89 86 85 85 85 83 85 85 84 -209 -209 103 -193 102 103 102 102 102 102 101 102 -193 -209 -193 -209 -209 -193 110 -193 -209 -209 -209 -193 122 123 123 123 123 123 -193 123 -209 123 124 127 130 132 133 137 144 142 0 0 0 0 0
    0 0 0 0 0 0 0 0 0 0 0 0 0 0 0 0 0 0 0 0 0 0 0 0 0 0 0 0 0 0 0 0 0 0 0 0 0 0 0 0 0 0 0 0 0 0 0 0 0 0 0 0 0 0 0 0 0 0 0 0 0 0 0 0 0 0 0 0 0 68 62 64 58 63 59 58 58 56 56 58 -193 59 65 63 62 63 66 63 65 65 64 63 64 66 66 63 65 64 65 68 67 67 66 68 72 72 -209 -209 -209 74 71 66 66 67 65 63 62 62 63 59 61 62 60 59 61 62 62 -193 -193 59 58 61 64 -193 67 68 -209 -209 56 53 52 55 57 -193 -209 -209 13 -209 -193 15 -209 -209 -209 -209 -209 -209 -193 382 380 -209 -209 -209 -193 -209 -209 -209 -193 -193 -209 -193 -209 355 -209 -209 -209 -209 -209 -193 -193 -193 -209 -209 -209 205 207 206 -193 -209 -209 -209 -193 -209 -209 -209 -209 -209 -209 69 72 67 67 69 69 69 69 69 70 68 73 73 73 73 73 73 72 71 72 70 70 72 70 71 72 71 72 70 71 70 69 70 69 68 68 67 68 67 68 66 66 66 66 66 70 70 71 72 74 74 74 74 74 73 -193 -209 -209 -193 72 70 -193 -193 -193 86 87 87 89 86 85 85 85 84 84 85 84 -209 -209 101 -193 102 103 102 102 102 102 101 102 -209 -209 -193 -193 -193 111 111 -193 -209 123 -209 -193 122 122 123 123 123 122 -193 123 -209 124 124 128 131 133 133 137 143 142 0 0 0 0 0
    0 0 0 0 0 0 0 0 0 0 0 0 0 0 0 0 0 0 0 0 0 0 0 0 0 0 0 0 0 0 0 0 0 0 0 0 0 0 0 0 0 0 0 0 0 0 0 0 0 0 0 0 0 0 0 0 0 0 0 0 0 0 0 0 0 0 0 0 0 66 62 62 -193 -193 57 56 56 54 55 57 57 59 67 63 62 64 67 63 66 65 64 63 64 66 65 63 65 64 65 67 67 66 66 69 72 72 -193 -209 -209 75 71 66 66 67 65 63 62 62 64 60 62 62 60 60 61 62 62 -193 60 58 57 59 64 72 65 65 -209 -193 -193 60 -193 60 60 -193 -209 -209 -209 -209 -193 16 -193 -209 -209 -209 -209 -209 -193 -193 380 379 -209 -209 -193 -209 -209 -209 469 -209 -209 -209 -209 354 -193 -209 -209 -209 -193 65 -193 63 -193 -209 -209 -193 206 205 -193 -209 -209 -209 -193 -209 -209 -193 -193 -209 -209 67 72 67 67 69 69 69 69 69 70 68 73 73 73 73 73 73 73 71 72 71 71 72 71 70 71 71 72 71 72 -193 71 71 70 69 69 68 68 67 67 66 66 66 66 66 71 71 72 73 74 74 74 74 74 72 -209 -209 -209 -193 -193 -209 -193 -193 -193 86 87 88 89 85 85 85 85 84 84 84 84 -209 -209 100 -193 102 103 102 101 102 102 101 102 96 -193 -193 -193 112 112 111 116 -193 122 -193 -193 122 122 122 122 122 122 -193 123 -209 124 125 129 132 133 134 137 143 141 0 0 0 0 0
    0 0 0 0 0 0 0 0 0 0 0 0 0 0 0 0 0 0 0 0 0 0 0 0 0 0 0 0 0 0 0 0 0 0 0 0 0 0 0 0 0 0 0 0 0 0 0 0 0 0 0 0 0 0 0 0 0 0 0 0 0 0 0 0 0 0 0 0 0 65 59 -209 -209 -193 50 49 51 51 53 56 57 60 67 63 63 66 67 64 66 0 -256 -1 21382 66 64 63 65 64 65 67 66 66 65 68 70 70 -193 -209 -209 73 70 65 65 67 65 63 62 62 64 60 62 62 60 60 61 63 63 58 61 59 58 60 68 -193 -209 64 -209 -193 -209 -193 -193 -193 -193 -193 -193 -193 -209 -209 -193 -193 -209 -209 -209 -209 -209 -209 -209 -209 -209 -209 -193 387 -193 -193 -209 -209 467 -209 -209 -209 -209 352 357 -209 -209 -193 -193 -193 66 64 66 -193 -209 -209 205 -193 -193 -209 -209 -193 -193 -209 -209 -209 -209 -209 -209 68 72 67 67 69 69 69 69 69 70 68 73 72 73 73 73 73 73 71 72 71 71 71 71 70 71 70 73 71 72 -193 -209 -193 70 69 69 68 68 67 67 66 66 66 67 67 71 71 73 73 74 74 74 73 73 70 -209 -209 -209 -193 -209 -209 -193 -193 -193 87 88 88 89 86 85 85 85 84 85 85 84 -209 -209 101 -193 102 103 102 102 102 102 101 102 -193 -193 -193 -193 112 112 111 117 116 121 120 -193 122 122 122 122 122 122 -193 122 -209 123 125 130 132 134 134 137 143 141 0 0 0 0 0
    0 0 0 0 0 0 0 0 0 0 0 0 0 0 0 0 0 0 0 0 0 0 0 0 0 0 0 0 0 0 0 0 0 0 0 0 0 0 0 0 0 0 0 0 0 0 0 0 0 0 0 0 0 0 0 0 0 0 0 0 0 0 0 0 0 0 0 0 0 61 -193 -193 -193 51 49 49 52 52 55 57 59 63 68 64 65 67 67 65 67 66 65 64 67 67 65 64 66 64 66 67 66 65 64 68 69 69 -193 -209 69 71 70 65 65 67 64 63 62 62 64 60 62 62 60 61 62 63 64 58 61 60 61 63 67 67 64 62 -209 -193 -209 -193 -193 -193 -193 -193 -209 -193 -193 -209 -193 -209 -209 -209 -209 -209 -209 -209 -209 -209 -209 -209 -209 -209 -209 -193 -209 -209 -209 -209 -209 -209 -209 -193 -209 -209 -209 -209 -193 -209 -209 -209 -193 -209 -209 -209 -209 -209 -193 -193 -209 -193 -209 -209 -209 -209 -193 -193 -193 68 72 67 67 69 69 69 69 69 70 68 72 72 72 73 72 72 73 71 72 72 71 71 72 72 73 71 73 72 72 -193 -209 71 71 69 70 69 69 68 68 68 68 67 68 69 71 72 73 73 73 74 74 73 72 68 68 -193 -209 -193 -193 -193 -193 -209 -193 87 87 87 89 85 85 85 85 84 84 84 84 -209 -209 -193 -193 103 103 102 102 103 102 101 102 -193 -193 -193 -193 112 112 111 117 -193 122 -193 -193 122 122 122 122 122 122 -193 122 -209 123 126 130 134 135 136 138 144 141 0 0 0 0 0
    0 0 0 0 0 0 0 0 0 0 0 0 0 0 0 0 0 0 0 0 0 0 0 0 0 0 0 0 0 0 0 0 0 0 0 0 0 0 0 0 0 0 0 0 0 0 0 0 0 0 0 0 0 0 0 0 0 0 0 0 0 0 0 0 0 0 0 0 0 61 57 53 51 51 49 51 52 53 56 59 62 67 69 66 67 68 68 67 68 67 66 66 68 67 65 65 66 64 66 67 66 65 64 68 68 67 67 -209 66 69 69 64 64 66 64 63 62 62 64 60 62 62 60 61 61 63 63 57 59 59 61 61 64 63 63 62 -193 62 -193 60 -193 -193 62 -193 -193 -193 -193 -193 -193 -209 -193 -209 -209 -209 -209 -209 -209 -209 -209 -209 -193 -209 -209 -209 -209 -209 -209 -209 -209 -209 -209 -209 -209 -209 -209 -209 -193 -193 -209 -209 -209 -209 -209 -209 -209 -193 -193 -193 -193 -193 -209 -209 -209 -193 -193 -209 -209 68 71 67 67 69 69 69 69 69 70 67 72 72 72 73 73 72 73 72 73 73 72 72 73 73 76 76 77 75 74 -193 -193 74 74 71 71 70 69 68 68 68 67 66 67 69 70 71 72 73 72 73 73 72 70 65 66 69 -209 -193 -193 -193 -193 -209 -193 87 87 87 88 85 85 85 85 83 83 84 83 -193 -209 -193 -193 103 104 103 103 103 103 102 103 -193 102 -193 -193 113 114 113 118 -209 123 -193 122 122 122 122 122 122 122 -193 122 -209 123 126 130 134 135 136 138 144 141 0 0 0 0 0
    0 0 0 0 0 0 0 0 0 0 0 0 0 0 0 0 0 0 0 0 0 0 0 0 0 0 0 0 0 0 0 0 0 0 0 0 0 0 0 0 0 0 0 0 0 0 0 0 0 0 0 0 0 0 0 0 0 0 0 0 0 0 0 0 0 0 0 0 0 63 62 56 52 52 51 52 53 54 57 59 62 67 68 66 68 69 68 68 69 67 67 67 69 67 66 66 66 65 66 67 66 65 65 68 68 66 64 -193 63 68 69 64 64 66 64 64 62 62 65 60 63 62 60 61 61 62 63 57 58 58 60 61 62 -209 -193 -193 -209 -193 -209 61 -209 -209 -193 -209 -193 -193 -193 -193 -193 -209 -193 -209 -209 -209 -209 -209 -209 -209 -209 -209 -209 -209 -209 -209 -209 -209 -193 -209 -209 -209 -209 -209 -209 -193 -193 -193 -193 -193 -193 -193 -193 -209 -209 -209 -209 -193 -209 -193 -193 191 -209 -209 -209 -209 -193 -209 -209 66 71 66 66 69 69 69 68 68 69 67 72 72 72 72 72 72 72 71 71 71 71 71 73 74 78 82 82 82 78 -193 -193 75 75 73 70 70 67 67 66 67 65 63 65 68 69 71 72 73 72 73 73 72 69 63 64 -193 -209 -193 -209 -193 -209 -209 87 87 87 86 88 85 85 84 84 83 82 82 82 82 97 101 -193 103 104 103 103 103 103 102 103 -209 103 -177 -193 116 115 115 118 -209 123 -193 122 122 122 122 122 122 122 -193 122 -193 123 127 130 135 135 136 138 144 141 0 0 0 0 0
    0 0 0 0 0 0 0 0 0 0 0 0 0 0 0 0 0 0 0 0 0 0 0 0 0 0 0 0 0 0 0 0 0 0 0 0 0 0 0 0 0 0 0 0 0 0 0 0 0 0 0 0 0 0 0 0 0 0 0 0 0 0 0 0 0 0 0 0 0 64 65 61 57 56 55 55 56 57 59 60 63 66 67 66 68 69 68 68 69 67 67 68 69 67 65 66 66 65 66 66 66 65 65 68 67 65 63 64 62 67 69 64 64 66 64 64 63 62 65 61 63 62 60 61 61 63 63 58 59 58 61 63 66 66 -193 -193 -193 -209 -209 -193 -209 -193 -209 -209 -209 -193 -193 -193 -209 -209 63 -209 -209 -209 -209 -209 -209 -209 -209 -209 -209 -209 -209 -209 -209 -209 -209 -193 -209 -209 -209 -209 450 -193 -193 -193 67 68 66 -209 -209 -209 -209 -209 -209 -209 -209 -193 -209 -193 -209 -209 -209 -209 -209 -209 -209 64 71 65 66 68 68 68 68 68 69 67 72 72 71 72 72 72 72 72 71 71 71 71 74 77 81 86 87 86 83 -193 -193 76 75 72 68 69 67 67 66 67 66 64 66 69 69 72 73 74 74 74 74 73 69 64 65 -193 -209 -209 -193 -193 -193 -209 87 88 88 87 87 85 84 84 84 82 80 80 79 80 96 101 105 103 104 103 103 103 103 102 103 -209 102 -177 -193 -209 115 116 118 -209 123 -209 122 122 122 122 122 122 122 -193 122 -193 123 127 129 135 135 136 138 144 141 0 0 0 0 0
    0 0 0 0 0 0 0 0 0 0 0 0 0 0 0 0 0 0 0 0 0 0 0 0 0 0 0 0 0 0 0 0 0 0 0 0 0 0 0 0 0 0 0 0 0 0 0 0 0 0 0 0 0 0 0 0 0 0 0 0 0 0 0 0 0 0 0 0 0 62 63 61 59 59 58 58 58 59 60 61 66 67 67 67 69 69 68 69 69 67 68 68 68 67 65 66 65 64 66 66 65 64 66 68 67 65 64 66 63 67 69 64 64 66 64 64 63 63 65 61 63 63 61 62 61 63 63 58 60 59 63 65 66 67 -193 -209 -209 -209 -209 -209 -209 -177 -209 -193 -209 -193 -193 -209 -209 -209 66 -209 -209 -209 -209 -209 -209 -193 278 -209 -209 -209 -209 -209 -209 -193 -209 -193 -209 445 -209 -193 -193 -193 -193 68 67 68 66 -209 -209 -209 -209 -209 -209 -209 -209 -209 -209 -209 -209 -209 -209 -193 -209 -209 -209 65 71 65 66 68 68 68 68 68 69 66 72 72 70 72 72 72 72 72 72 73 72 74 76 81 83 87 89 -193 -193 -193 -193 78 76 73 69 70 67 67 67 67 66 64 66 69 70 73 74 75 74 75 74 74 70 68 67 72 76 -209 -177 -193 -209 -209 88 90 89 87 87 85 85 84 84 81 79 79 78 78 92 96 104 103 103 102 103 103 103 102 102 -193 102 -177 -193 116 116 116 118 121 123 122 122 122 122 122 122 122 122 -193 122 122 123 126 127 134 134 135 137 144 141 0 0 0 0 0
    0 0 0 0 0 0 0 0 0 0 0 0 0 0 0 0 0 0 0 0 0 0 0 0 0 0 0 0 0 0 0 0 0 0 0 0 0 0 0 0 0 0 0 0 0 0 0 0 0 0 0 0 0 0 0 0 0 0 0 0 0 0 0 0 0 0 0 0 0 60 61 60 59 59 58 58 59 59 60 62 67 67 66 68 69 69 68 69 69 67 68 69 68 66 66 66 65 65 66 66 65 65 67 69 68 66 66 68 64 69 69 64 64 66 64 65 63 63 65 61 64 63 61 62 62 63 64 58 60 60 64 65 64 64 -193 -209 -209 -209 -209 -209 -209 -209 -193 -193 -193 -193 -193 68 71 -193 67 -209 -209 -209 -209 -209 -193 -209 -209 -209 -209 -209 -209 -209 -209 -209 -193 -193 -209 -193 -193 -193 -193 -209 -193 -193 68 -193 -193 -209 -209 -209 -209 -209 -209 -209 -209 -209 -209 -209 -209 -209 -209 -209 -193 -209 -209 67 71 65 66 68 68 68 67 67 68 66 71 71 69 71 73 72 72 72 72 73 72 73 75 79 81 86 90 -193 -209 -209 86 85 85 80 71 70 66 67 66 65 64 62 65 69 69 73 74 75 75 75 74 74 71 72 69 74 81 -193 -209 81 82 84 87 89 89 87 87 84 84 84 83 80 78 78 77 77 90 90 103 102 103 102 102 102 102 101 102 -209 100 -193 -193 110 113 115 118 121 122 122 122 122 122 122 122 122 122 122 122 122 123 125 126 134 134 135 137 144 140 0 0 0 0 0
    0 0 0 0 0 0 0 0 0 0 0 0 0 0 0 0 0 0 0 0 0 0 0 0 0 0 0 0 0 0 0 0 0 0 0 0 0 0 0 0 0 0 0 0 0 0 0 0 0 0 0 0 0 0 0 0 0 0 0 0 0 0 0 0 0 0 0 0 0 59 60 59 58 59 59 58 58 58 59 60 66 65 64 67 68 68 68 69 69 67 69 69 68 67 66 67 66 65 66 65 65 65 68 68 67 65 66 67 67 70 70 64 64 66 64 65 63 63 66 62 64 63 61 63 62 64 64 59 60 60 64 64 62 62 -193 -193 -209 -209 -209 -193 -209 -209 -193 -193 -193 -193 -193 67 -193 -193 66 -209 -209 -209 -209 -209 -193 -193 58 -209 57 60 -209 -209 -209 -209 -193 -209 -209 -209 -193 69 -193 -209 -193 -193 69 -209 -209 -209 -209 -209 -193 -209 -209 -209 -209 -209 -209 -209 -209 -193 -193 -209 -193 -209 -209 68 72 65 65 68 68 67 67 67 68 65 70 70 68 70 72 72 71 72 71 72 71 72 73 77 78 86 91 -193 -209 -209 -209 -209 -193 -209 -209 68 64 65 64 64 62 61 64 69 69 73 73 75 75 75 75 74 73 74 73 80 85 86 85 83 83 85 87 88 88 86 86 84 84 83 82 79 77 76 76 76 87 87 101 101 102 101 102 102 102 101 101 -193 98 -209 -193 -209 110 113 117 120 122 122 122 123 122 122 122 122 122 122 122 122 122 124 124 130 131 133 136 144 140 0 0 0 0 0
    0 0 0 0 0 0 0 0 0 0 0 0 0 0 0 0 0 0 0 0 0 0 0 0 0 0 0 0 0 0 0 0 0 0 0 0 0 0 0 0 0 0 0 0 0 0 0 0 0 0 0 0 0 0 0 0 0 0 0 0 0 0 0 0 0 0 0 0 0 57 58 57 57 58 58 58 57 58 58 60 66 63 62 66 67 67 68 69 68 67 69 69 68 66 67 66 66 66 66 65 65 65 68 67 67 65 67 67 68 69 70 64 64 66 64 65 64 63 66 62 64 64 62 63 62 64 64 59 59 59 62 63 59 -193 -193 -209 -209 -209 -209 -209 -209 -209 -209 -193 -193 -193 -193 -193 -209 -209 66 -209 -209 -209 -209 -209 -193 -193 58 -209 57 61 -193 -209 -193 68 -209 -209 -209 -209 -193 70 71 -209 -209 -209 -209 -209 -209 -193 -193 -209 671 -209 -209 -209 -209 -209 -209 -193 -209 -209 -193 -209 -193 -209 -209 68 71 66 66 68 68 67 67 67 67 64 70 70 67 68 71 71 70 71 71 71 70 70 71 75 78 87 92 -193 -193 -209 -209 -209 -209 -209 58 68 64 65 65 64 62 61 65 69 69 72 73 75 75 75 75 74 73 75 77 82 85 85 85 84 83 84 86 87 87 85 85 83 83 83 81 79 76 76 75 76 83 86 98 98 101 100 102 102 102 100 101 -193 95 87 98 102 -193 109 116 120 121 123 122 123 122 123 122 123 122 122 122 122 121 123 123 127 129 132 136 144 140 0 0 0 0 0
    0 0 0 0 0 0 0 0 0 0 0 0 0 0 0 0 0 0 0 0 0 0 0 0 0 0 0 0 0 0 0 0 0 0 0 0 0 0 0 0 0 0 0 0 0 0 0 0 0 0 0 0 0 0 0 0 0 0 0 0 0 0 0 0 0 0 0 0 0 56 57 57 56 57 59 59 59 59 59 62 67 63 63 66 67 66 68 68 68 67 69 69 67 66 66 66 66 66 65 64 64 65 68 68 67 66 69 69 69 69 70 65 65 66 64 65 64 63 66 63 64 64 62 64 63 64 64 59 58 57 59 60 57 -193 -193 -209 -209 -209 -209 -209 76 -209 -209 -193 -209 -193 -193 -193 -209 -209 63 -209 -209 -209 -209 -209 -209 -193 59 -209 58 62 59 -209 -193 69 -209 -209 75 -209 -209 -209 74 -193 78 77 -209 -209 -193 -193 -193 -193 672 -193 -209 -193 -193 -209 -209 -193 -193 -193 -209 -209 -209 -193 -193 66 71 65 65 68 67 66 66 66 67 63 69 69 67 68 70 70 69 70 70 69 69 69 70 72 -209 -193 93 -193 -209 -209 -209 -209 81 -193 64 68 65 66 67 65 62 61 66 70 70 72 73 75 75 76 75 75 73 76 79 83 86 85 85 84 84 84 86 87 86 84 84 83 83 82 80 78 76 75 74 75 78 85 94 95 99 98 100 100 100 98 99 -193 92 86 92 97 102 105 111 117 120 122 122 123 122 123 123 123 122 123 122 122 121 124 123 129 130 133 136 144 140 0 0 0 0 0
    0 0 0 0 0 0 0 0 0 0 0 0 0 0 0 0 0 0 0 0 0 0 0 0 0 0 0 0 0 0 0 0 0 0 0 0 0 0 0 0 0 0 0 0 0 0 0 0 0 0 0 0 0 0 0 0 0 0 0 0 0 0 0 0 0 0 0 0 0 57 58 58 58 59 60 59 59 59 59 62 65 62 62 66 66 66 68 68 67 67 69 68 66 65 66 65 66 66 64 63 64 65 67 67 67 66 69 70 69 70 70 66 65 67 64 65 64 64 66 63 65 65 63 65 63 64 64 59 58 56 57 59 56 57 59 60 -209 -209 -209 75 76 -209 -209 -193 -209 -193 -209 60 -209 -209 60 -209 -209 -209 -209 -209 -209 -193 60 -193 -193 63 61 -193 -193 69 -209 -209 77 -193 -193 -209 -209 -209 86 83 -209 76 78 -193 -193 -209 676 -209 -209 -193 -193 -209 -209 -209 -209 -209 -209 -193 -193 -209 -193 65 71 64 64 67 67 66 66 66 66 63 69 69 66 67 70 70 69 69 70 69 69 69 69 -209 -209 -209 -193 -209 -209 -209 -209 -209 78 76 68 68 65 66 66 64 61 61 67 70 71 73 74 75 75 76 76 75 74 77 80 85 87 86 86 85 85 85 86 86 86 84 83 83 83 82 79 78 76 75 74 75 78 83 90 91 94 94 95 96 95 93 95 87 90 87 89 93 100 105 109 115 119 -209 122 123 122 123 123 123 123 123 122 123 122 124 123 127 128 129 135 142 140 0 0 0 0 0
    0 0 0 0 0 0 0 0 0 0 0 0 0 0 0 0 0 0 0 0 0 0 0 0 0 0 0 0 0 0 0 0 0 0 0 0 0 0 0 0 0 0 0 0 0 0 0 0 0 0 0 0 0 0 0 0 0 0 0 0 0 0 0 0 0 0 0 0 0 57 58 58 58 59 60 59 58 57 57 60 62 61 62 65 65 66 67 68 66 67 68 67 65 65 65 65 66 66 64 63 64 66 67 66 67 66 70 70 70 70 70 66 66 67 65 65 64 64 66 63 65 65 63 66 64 65 65 60 59 59 59 62 58 60 60 63 -209 -209 74 75 -209 -209 -209 -193 -209 -193 -209 58 -209 -209 -209 -209 -209 -209 -209 -209 -209 -193 -193 -193 -209 -193 -209 -209 -193 -193 -209 -209 76 -193 92 -209 -209 -209 89 88 89 80 81 -193 -209 -209 -209 -209 -209 321 324 -209 -209 -209 -209 -209 -193 850 851 -193 -209 65 71 65 65 67 67 66 66 65 66 63 68 68 65 67 70 70 70 70 70 69 69 69 69 71 -209 -209 -209 -209 -209 -209 -209 -209 74 75 70 68 66 68 69 67 64 64 69 71 73 73 74 75 75 76 76 75 75 78 82 85 88 87 87 86 86 86 86 87 86 84 84 83 83 82 80 78 77 76 75 75 78 83 88 88 90 90 90 91 91 89 91 85 88 87 89 91 96 102 107 114 119 122 122 124 122 123 123 124 123 124 122 123 122 125 123 126 127 126 134 141 139 0 0 0 0 0
    0 0 0 0 0 0 0 0 0 0 0 0 0 0 0 0 0 0 0 0 0 0 0 0 0 0 0 0 0 0 0 0 0 0 0 0 0 0 0 0 0 0 0 0 0 0 0 0 0 0 0 0 0 0 0 0 0 0 0 0 0 0 0 0 0 0 0 0 0 55 57 57 57 58 58 58 56 57 57 61 62 61 63 65 65 66 67 67 66 67 68 66 64 65 65 66 67 67 64 63 64 66 66 64 67 67 70 70 70 70 70 66 66 67 65 65 64 64 66 64 66 65 64 66 65 66 66 60 60 62 63 65 61 62 62 65 67 64 73 72 -193 75 70 75 -193 -177 67 58 -209 -209 61 -209 -209 -193 63 63 64 61 61 -193 -193 -193 60 61 62 64 -209 -193 -193 -209 -209 -209 -209 -209 -209 88 89 79 80 77 -209 -209 -193 -209 -209 -209 -209 -209 -209 -209 -193 -193 -209 851 852 -209 -209 66 71 65 65 68 67 66 66 65 66 63 68 68 66 68 71 71 71 71 71 70 70 70 69 71 -193 -193 -209 -209 -209 -209 -209 -209 -209 75 -209 70 68 70 70 69 67 67 70 71 73 73 73 74 75 75 76 75 75 80 84 86 88 88 87 87 86 86 87 87 87 85 85 84 84 84 82 80 78 78 76 76 78 82 86 86 87 86 87 87 87 86 87 84 87 86 89 91 94 101 107 113 118 122 121 124 123 123 123 124 123 124 123 124 122 124 123 125 126 126 134 141 139 0 0 0 0 0
    0 0 0 0 0 0 0 0 0 0 0 0 0 0 0 0 0 0 0 0 0 0 0 0 0 0 0 0 0 0 0 0 0 0 0 0 0 0 0 0 0 0 0 0 0 0 0 0 0 0 0 0 0 0 0 0 0 0 0 0 0 0 0 0 0 0 0 0 0 55 56 57 56 58 58 58 57 57 58 60 61 61 64 65 65 66 67 67 66 67 68 66 65 65 66 66 68 67 64 64 65 67 67 63 67 67 70 70 70 70 70 66 66 67 65 65 65 64 66 64 66 65 64 66 65 66 65 61 60 63 63 65 61 62 63 64 64 65 71 71 69 74 71 74 65 67 68 59 60 64 64 -193 63 68 67 67 68 64 63 62 61 64 61 61 62 64 65 67 69 68 66 67 68 -193 -209 77 -209 -193 -209 -209 -209 -209 -209 -193 -209 -209 -209 -209 -209 -209 -193 68 -193 -193 852 -209 71 68 71 66 66 68 67 66 66 66 67 63 68 68 66 69 72 72 71 71 71 70 70 69 68 68 65 -193 -209 -209 -209 -209 -209 -209 -209 -193 72 70 69 69 71 70 69 68 70 71 72 71 72 73 74 74 75 75 76 81 84 86 88 87 87 87 86 86 86 87 86 85 86 85 85 85 84 82 82 81 79 78 80 83 85 86 85 85 85 85 86 85 85 84 85 86 88 90 92 97 104 109 117 121 121 124 122 123 123 123 123 124 122 123 121 123 123 125 126 127 134 140 139 0 0 0 0 0
    0 0 0 0 0 0 0 0 0 0 0 0 0 0 0 0 0 0 0 0 0 0 0 0 0 0 0 0 0 0 0 0 0 0 0 0 0 0 0 0 0 0 0 0 0 0 0 0 0 0 0 0 0 0 0 0 0 0 0 0 0 0 0 0 0 0 0 0 0 55 56 57 56 57 58 59 57 58 58 61 61 61 64 65 63 66 66 66 66 67 68 65 65 66 66 67 68 67 65 65 66 67 67 64 66 67 69 69 70 70 70 66 66 67 65 65 65 64 66 64 66 65 64 66 64 65 66 61 60 62 63 66 62 63 64 64 63 65 70 70 68 73 71 73 70 69 71 60 61 64 63 69 63 69 65 66 67 65 64 63 62 64 61 61 63 65 64 66 67 68 65 66 66 63 -209 71 -209 -209 -209 -193 -193 -193 -193 69 -193 -193 -193 -209 -193 69 69 69 70 -193 -193 69 70 68 71 67 67 69 68 67 67 66 67 64 69 69 67 70 72 72 71 71 70 69 68 68 66 66 62 65 59 61 63 -209 -209 64 70 72 72 71 70 70 72 72 73 70 71 71 72 71 72 73 73 74 75 75 77 81 83 86 88 86 86 87 86 86 86 86 86 84 86 86 85 86 86 85 86 85 84 82 84 86 86 86 84 83 83 84 85 83 83 83 84 86 88 89 90 94 102 107 116 120 121 123 122 123 123 123 123 124 122 123 120 122 122 124 126 128 134 141 139 0 0 0 0 0
    0 0 0 0 0 0 0 0 0 0 0 0 0 0 0 0 0 0 0 0 0 0 0 0 0 0 0 0 0 0 0 0 0 0 0 0 0 0 0 0 0 0 0 0 0 0 0 0 0 0 0 0 0 0 0 0 0 0 0 0 0 0 0 0 0 0 0 0 0 58 57 58 58 58 59 59 59 59 59 61 61 60 64 65 63 66 66 66 66 68 67 65 65 66 66 67 68 67 65 66 67 67 67 64 66 67 68 69 69 70 70 66 66 67 65 65 65 64 65 63 66 65 63 66 64 65 66 62 61 62 64 67 64 65 65 64 65 67 70 71 66 74 73 74 -193 70 71 63 64 66 63 68 63 69 64 65 66 66 65 64 62 64 62 63 65 66 65 66 67 69 66 67 67 63 -209 69 -209 70 -209 -193 -193 -193 72 69 -193 -193 -193 -193 -193 -193 68 68 68 63 63 67 70 67 71 67 67 69 68 67 67 67 68 65 69 70 68 70 72 72 71 70 70 69 68 67 65 67 63 66 63 65 67 66 67 67 69 70 72 72 73 71 73 73 75 72 72 71 72 71 72 73 74 74 75 75 76 80 82 86 88 86 86 87 86 86 86 86 85 83 86 86 86 87 89 88 90 90 90 89 89 89 89 88 87 86 85 85 86 85 84 84 85 86 88 89 89 93 100 105 114 120 120 123 122 122 122 123 122 123 121 122 119 121 121 122 124 125 134 140 139 0 0 0 0 0
    0 0 0 0 0 0 0 0 0 0 0 0 0 0 0 0 0 0 0 0 0 0 0 0 0 0 0 0 0 0 0 0 0 0 0 0 0 0 0 0 0 0 0 0 0 0 0 0 0 0 0 0 0 0 0 0 0 0 0 0 0 0 0 0 0 0 0 0 0 59 59 59 59 59 60 60 60 60 60 63 61 61 65 66 64 67 66 66 67 68 68 66 65 67 66 67 68 67 65 66 67 67 65 64 66 66 68 68 69 69 69 66 66 67 65 65 65 64 65 63 66 65 63 66 65 65 67 63 62 63 66 68 66 66 66 64 66 68 70 70 64 75 75 75 -193 70 69 65 66 66 63 68 65 68 63 65 67 67 67 65 63 64 63 64 67 66 65 66 68 69 67 67 67 63 59 68 -209 69 -209 -193 -209 -193 71 69 -193 -193 -193 -193 -193 68 66 66 65 61 62 67 69 64 72 67 67 69 69 68 68 68 69 66 70 70 69 71 72 71 71 70 70 69 68 68 65 67 65 67 67 67 68 68 68 68 69 70 70 71 72 68 72 70 72 72 72 72 73 72 73 73 74 74 74 74 76 78 80 86 88 86 86 87 86 86 86 86 86 84 86 87 87 89 90 90 93 94 95 96 97 95 94 91 90 88 88 87 87 86 84 84 85 87 88 89 89 92 98 103 111 118 119 122 121 122 122 122 122 123 121 122 118 120 120 120 122 122 132 139 138 0 0 0 0 0
    0 0 0 0 0 0 0 0 0 0 0 0 0 0 0 0 0 0 0 0 0 0 0 0 0 0 0 0 0 0 0 0 0 0 0 0 0 0 0 0 0 0 0 0 0 0 0 0 0 0 0 0 0 0 0 0 0 0 0 0 0 0 0 0 0 0 0 0 0 61 60 60 60 60 60 61 60 60 61 62 61 61 65 66 66 68 67 67 68 69 69 67 67 68 68 69 68 67 66 67 67 67 64 63 65 65 67 68 69 69 70 66 66 67 66 66 65 64 65 62 67 66 63 66 65 66 68 64 64 64 67 68 67 67 67 64 67 68 70 69 63 75 75 75 72 69 67 65 65 66 64 68 66 67 64 66 67 68 67 66 63 63 63 65 67 66 64 64 67 68 67 67 66 63 61 68 69 69 -209 -193 -209 -209 69 68 -193 -193 -193 -193 69 68 66 68 66 62 63 68 70 64 72 68 68 69 69 69 69 69 69 67 71 71 71 72 72 72 72 71 72 71 70 70 68 70 69 69 69 68 69 68 68 67 67 68 68 67 67 66 72 71 72 73 73 72 72 71 72 72 73 72 73 73 74 75 78 86 88 86 86 87 86 86 87 87 86 84 88 88 89 90 92 92 95 97 99 99 101 100 100 96 93 89 88 87 86 85 84 85 86 87 88 89 89 92 97 100 108 114 118 121 121 121 121 122 122 122 121 121 117 118 116 115 119 120 129 137 137 0 0 0 0 0
    0 0 0 0 0 0 0 0 0 0 0 0 0 0 0 0 0 0 0 0 0 0 0 0 0 0 0 0 0 0 0 0 0 0 0 0 0 0 0 0 0 0 0 0 0 0 0 0 0 0 0 0 0 0 0 0 0 0 0 0 0 0 0 0 0 0 0 0 0 63 62 63 61 62 62 61 61 61 61 62 61 60 64 65 65 67 66 67 67 68 68 67 67 68 68 69 69 68 67 68 67 66 64 62 64 64 66 67 69 69 70 66 66 67 66 66 66 64 64 62 67 66 63 66 65 67 68 65 65 65 68 69 68 68 67 65 68 69 70 67 60 74 75 74 70 70 67 66 67 67 65 68 67 67 64 -193 67 68 67 65 62 62 63 64 66 65 63 63 66 67 66 66 66 63 63 68 70 70 67 -193 -209 -193 -193 68 -193 -193 -193 -193 69 68 66 68 67 63 64 68 69 66 72 69 69 70 70 70 70 69 70 68 72 72 71 72 72 73 73 73 74 73 72 73 73 73 71 71 69 70 69 69 68 66 66 67 67 66 -193 61 66 64 75 78 72 71 71 70 70 71 71 71 71 72 73 74 76 85 88 85 85 86 86 86 87 87 86 85 88 89 90 90 92 93 97 99 101 101 103 102 103 101 100 93 90 87 86 85 84 85 86 88 88 90 89 93 98 101 108 113 117 120 120 121 121 121 121 122 119 120 115 116 114 113 117 119 126 135 136 0 0 0 0 0
    0 0 0 0 0 0 0 0 0 0 0 0 0 0 0 0 0 0 0 0 0 0 0 0 0 0 0 0 0 0 0 0 0 0 0 0 0 0 0 0 0 0 0 0 0 0 0 0 0 0 0 0 0 0 0 0 0 0 0 0 0 0 0 0 0 0 0 0 0 64 62 64 62 62 62 62 61 61 61 62 61 61 65 65 65 66 66 67 67 68 68 67 68 69 69 70 70 69 68 68 68 66 65 63 64 64 65 65 68 69 70 66 66 67 66 66 66 65 64 61 67 65 62 66 65 67 69 66 65 65 69 69 68 68 67 65 69 69 69 65 59 73 73 71 67 69 66 66 66 66 64 68 68 67 64 -193 68 68 67 65 63 62 63 64 66 65 63 63 65 67 66 66 66 63 65 69 71 71 69 74 -209 -193 67 66 68 -193 -193 -193 69 68 66 69 68 64 64 68 69 67 73 70 70 71 71 71 71 70 71 69 72 72 72 73 72 72 72 73 74 74 73 74 74 74 72 71 69 70 69 69 69 66 65 68 67 67 60 60 62 60 72 80 72 70 70 69 69 70 70 70 71 71 73 73 75 84 87 84 84 86 86 86 86 86 86 85 89 89 91 91 94 95 98 100 102 103 104 104 106 105 105 103 98 88 86 87 86 86 87 88 89 89 89 94 98 100 107 110 115 119 119 119 119 119 120 120 117 116 111 112 111 110 113 118 123 133 136 0 0 0 0 0
    0 0 0 0 0 0 0 0 0 0 0 0 0 0 0 0 0 0 0 0 0 0 0 0 0 0 0 0 0 0 0 0 0 0 0 0 0 0 0 0 0 0 0 0 0 0 0 0 0 0 0 0 0 0 0 0 0 0 0 0 0 0 0 0 0 0 0 0 0 66 64 67 64 64 63 63 62 62 61 63 61 61 65 67 65 67 67 68 68 68 69 68 69 70 70 71 70 69 69 68 68 66 66 65 66 64 64 65 67 68 69 65 66 67 65 65 66 65 64 61 67 65 61 65 66 68 69 66 66 66 69 69 68 68 67 65 69 70 70 66 60 72 72 69 66 69 65 64 64 64 63 68 67 66 63 66 68 68 67 66 63 63 65 66 67 65 63 63 66 67 66 66 67 64 65 69 70 70 68 73 72 -193 -193 -193 -193 -193 -193 -193 68 67 65 68 68 64 64 68 68 62 72 70 70 70 71 71 71 71 71 70 72 72 72 73 71 71 71 71 73 73 71 72 73 75 72 70 69 69 69 69 69 66 65 66 67 65 -193 -209 -193 48 61 71 69 68 69 69 69 70 70 70 70 70 71 71 72 82 86 83 82 84 85 85 85 85 85 84 88 89 91 91 95 96 99 101 103 104 106 106 107 107 106 106 105 -193 -193 92 -193 87 88 88 90 90 90 94 97 95 105 106 109 115 115 115 115 115 115 113 110 110 108 109 110 109 112 117 122 130 134 0 0 0 0 0
    0 0 0 0 0 0 0 0 0 0 0 0 0 0 0 0 0 0 0 0 0 0 0 0 0 0 0 0 0 0 0 0 0 0 0 0 0 0 0 0 0 0 0 0 0 0 0 0 0 0 0 0 0 0 0 0 0 0 0 0 0 0 0 0 0 0 0 0 0 68 66 68 66 66 64 65 63 63 62 62 61 61 65 67 65 66 67 68 69 69 70 69 70 71 70 70 70 68 68 68 67 66 65 66 66 64 64 64 66 68 69 65 66 67 65 65 66 64 63 60 68 65 60 65 67 69 69 67 66 66 69 69 69 68 67 65 69 70 69 66 -225 -225 -225 69 66 68 63 62 62 63 63 68 66 66 63 67 68 68 68 66 63 63 65 66 67 65 63 64 66 67 66 66 68 65 67 69 70 70 68 72 69 70 61 -193 -193 -177 -177 -193 66 65 63 67 67 66 65 68 67 62 72 69 69 70 71 71 71 71 71 70 73 73 73 72 69 69 69 67 70 69 69 70 72 75 72 69 68 69 68 68 68 67 66 67 69 68 67 65 61 58 69 73 69 68 69 69 68 70 71 71 71 70 71 71 71 78 83 79 79 82 83 84 84 84 83 83 86 88 89 90 94 96 99 102 103 104 107 107 109 108 108 107 106 106 106 105 106 -193 -193 -193 -193 100 95 97 94 92 99 100 102 106 106 107 108 108 107 107 107 107 107 107 108 108 110 116 121 124 131 0 0 0 0 0
    0 0 0 0 0 0 0 0 0 0 0 0 0 0 0 0 0 0 0 0 0 0 0 0 0 0 0 0 0 0 0 0 0 0 0 0 0 0 0 0 0 0 0 0 0 0 0 0 0 0 0 0 0 0 0 0 0 0 0 0 0 0 0 0 0 0 0 0 0 69 67 69 67 67 65 65 64 63 63 64 61 61 65 67 65 66 68 68 69 69 70 69 70 71 70 69 70 68 68 67 67 66 64 65 65 63 63 64 66 68 69 65 66 67 65 65 65 64 63 60 68 65 61 66 68 69 69 68 67 67 69 69 69 68 67 66 70 71 70 -225 -225 -225 -225 -225 67 69 63 63 63 63 64 68 66 66 63 67 68 68 68 66 62 64 66 66 67 65 63 63 66 67 67 67 69 66 68 70 70 70 70 72 69 68 60 58 60 -193 -193 -193 65 64 62 66 67 66 65 68 66 61 71 68 68 69 71 71 71 71 71 70 73 73 73 72 68 68 68 66 69 68 67 72 73 75 73 69 68 69 68 68 69 68 67 67 70 70 70 73 69 64 70 73 70 69 70 70 67 71 71 72 71 71 71 70 70 75 80 77 77 80 81 83 83 84 83 83 85 87 89 90 93 96 100 102 104 105 107 108 110 109 107 106 106 107 107 107 109 109 112 114 113 109 108 106 103 91 98 98 100 103 102 102 104 105 105 105 105 105 105 106 107 107 108 114 119 121 126 0 0 0 0 0
    0 0 0 0 0 0 0 0 0 0 0 0 0 0 0 0 0 0 0 0 0 0 0 0 0 0 0 0 0 0 0 0 0 0 0 0 0 0 0 0 0 0 0 0 0 0 0 0 0 0 0 0 0 0 0 0 0 0 0 0 0 0 0 0 0 0 0 0 0 69 68 70 68 68 66 66 66 66 65 66 62 61 66 67 66 66 68 68 68 68 70 69 70 71 69 68 69 68 68 66 66 65 63 65 65 62 63 64 65 67 69 65 65 67 65 65 65 64 64 60 68 65 61 66 69 69 69 68 67 67 70 70 70 69 68 68 -193 72 71 -225 -225 -225 -225 70 67 68 62 62 63 62 65 68 66 65 63 67 68 68 68 66 63 65 67 67 67 65 63 63 66 67 66 66 69 67 69 71 71 71 70 71 69 67 60 58 59 58 60 65 66 65 63 66 67 67 67 68 64 62 71 68 68 69 71 71 71 71 71 70 73 73 73 72 68 68 69 68 73 69 70 73 74 75 74 69 69 69 69 69 69 68 68 68 72 71 71 73 72 71 71 71 70 69 71 70 67 71 72 73 72 71 71 70 70 74 78 75 75 78 80 82 83 84 84 84 86 88 89 90 94 96 100 103 103 104 105 106 107 107 106 105 105 107 107 107 111 111 115 116 117 115 113 113 111 102 99 96 99 101 98 101 104 105 105 106 106 106 106 106 107 107 108 112 117 118 122 0 0 0 0 0
    0 0 0 0 0 0 0 0 0 0 0 0 0 0 0 0 0 0 0 0 0 0 0 0 0 0 0 0 0 0 0 0 0 0 0 0 0 0 0 0 0 0 0 0 0 0 0 0 0 0 0 0 0 0 0 0 0 0 0 0 0 0 0 0 0 0 0 0 0 70 69 72 69 70 68 68 68 68 67 68 64 65 68 69 68 67 69 69 69 68 71 69 70 70 69 68 69 68 67 66 66 65 63 65 65 62 62 65 65 66 69 65 66 67 65 65 65 65 64 60 68 66 61 67 70 69 69 67 66 67 70 69 69 68 68 68 -193 72 69 47 -225 -225 70 69 67 68 63 63 63 62 66 67 66 64 64 68 68 68 67 65 64 66 68 67 66 65 63 64 66 66 66 66 69 68 70 72 72 71 71 70 67 64 59 57 57 57 60 66 66 66 65 67 67 68 68 67 63 62 70 67 67 68 70 -193 70 71 71 69 73 73 73 72 70 70 70 72 73 -193 71 73 73 75 75 69 69 69 69 69 69 69 69 68 72 71 71 73 72 71 71 68 63 68 71 70 66 71 72 73 73 72 71 70 70 73 76 74 73 77 79 82 84 85 85 86 88 88 90 92 95 96 100 102 102 102 103 103 105 105 104 103 103 106 107 108 111 111 114 116 117 116 116 118 118 112 -209 94 99 89 92 96 101 103 104 105 106 106 106 107 107 107 108 111 115 115 119 0 0 0 0 0
    0 0 0 0 0 0 0 0 0 0 0 0 0 0 0 0 0 0 0 0 0 0 0 0 0 0 0 0 0 0 0 0 0 0 0 0 0 0 0 0 0 0 0 0 0 0 0 0 0 0 0 0 0 0 0 0 0 0 0 0 0 0 0 0 0 0 0 0 0 71 71 75 71 71 70 70 70 70 70 69 66 68 69 69 68 67 69 69 69 69 71 69 70 70 69 68 69 68 68 66 67 65 64 66 66 62 63 64 64 65 69 64 65 67 65 65 64 65 64 61 68 66 61 68 71 70 69 68 67 69 70 70 70 67 67 69 -193 71 64 46 54 65 71 -193 67 69 63 63 64 63 68 67 65 64 64 68 68 67 67 65 64 67 68 67 65 64 64 64 65 65 65 65 69 68 71 72 72 71 71 70 66 62 58 57 57 56 -193 -193 65 67 66 67 67 68 68 67 63 63 69 66 67 68 70 70 70 70 70 69 73 73 72 73 73 72 73 76 76 75 75 75 75 75 77 70 69 70 69 70 70 69 70 69 73 72 72 73 72 71 72 69 61 64 70 69 66 71 72 73 73 72 71 70 69 72 74 72 72 75 77 82 84 85 86 87 88 89 91 92 96 96 100 103 102 102 102 102 104 103 103 101 101 105 107 108 112 113 115 116 118 117 117 120 121 121 121 -209 -209 -209 -209 -209 -193 104 106 106 108 106 106 106 107 107 107 109 113 113 118 0 0 0 0 0
    0 0 0 0 0 0 0 0 0 0 0 0 0 0 0 0 0 0 0 0 0 0 0 0 0 0 0 0 0 0 0 0 0 0 0 0 0 0 0 0 0 0 0 0 0 0 0 0 0 0 0 0 0 0 0 0 0 0 0 0 0 0 0 0 0 0 0 0 0 71 71 75 72 72 71 72 71 72 72 72 68 70 70 69 67 67 69 69 69 68 70 68 69 69 67 67 68 67 67 65 67 65 66 67 67 63 63 64 63 63 68 64 64 66 65 65 64 65 65 61 69 67 63 69 70 70 69 68 67 69 70 70 69 68 68 70 71 70 -209 48 55 67 -209 74 70 71 65 66 66 66 70 68 66 65 65 69 68 67 67 65 65 67 68 67 64 65 64 65 66 65 65 66 70 70 71 73 73 71 71 70 67 62 59 57 57 -193 -193 -193 66 67 67 66 67 68 67 66 62 64 69 64 66 67 69 69 69 69 70 68 72 72 -193 72 73 -193 73 77 75 75 74 74 73 75 79 70 69 70 70 71 71 71 71 69 74 74 73 74 72 72 72 70 64 64 68 70 66 72 73 74 74 73 72 71 69 72 72 70 71 74 76 81 84 85 87 87 89 89 91 93 96 97 100 103 102 102 101 101 102 102 101 100 100 103 106 107 111 113 115 117 118 118 118 121 122 123 123 123 122 -193 -209 -193 -193 -193 117 105 115 -193 104 105 107 107 107 108 111 110 116 0 0 0 0 0
    0 0 0 0 0 0 0 0 0 0 0 0 0 0 0 0 0 0 0 0 0 0 0 0 0 0 0 0 0 0 0 0 0 0 0 0 0 0 0 0 0 0 0 0 0 0 0 0 0 0 0 0 0 0 0 0 0 0 0 0 0 0 0 0 0 0 0 0 0 73 72 75 74 74 73 73 73 74 74 74 71 72 71 70 69 69 70 69 70 69 70 68 69 68 67 67 68 67 67 66 67 66 67 68 67 63 64 65 64 64 68 64 64 66 66 66 65 66 66 63 70 69 66 69 70 69 68 68 67 68 69 69 68 65 66 69 69 68 -209 50 56 67 -209 -209 -193 72 67 68 68 70 71 68 66 66 67 70 69 68 68 65 67 69 68 66 63 65 65 65 66 64 64 66 70 69 70 72 72 70 70 69 65 60 60 58 -193 -209 -193 -193 66 68 68 66 67 68 67 66 62 64 68 64 66 66 69 69 69 69 69 68 72 72 -193 72 73 77 76 78 76 75 74 73 73 74 81 71 70 70 -177 71 72 72 72 70 74 75 74 74 73 73 72 71 68 67 68 67 68 74 78 78 77 76 73 73 69 71 69 66 69 72 74 80 83 85 87 87 89 89 92 94 97 98 100 102 102 101 101 100 102 101 100 99 100 102 105 107 110 111 114 116 118 118 119 122 123 124 125 125 125 -193 126 129 125 124 123 -193 122 -193 108 105 110 109 108 108 111 111 115 0 0 0 0 0
    0 0 0 0 0 0 0 0 0 0 0 0 0 0 0 0 0 0 0 0 0 0 0 0 0 0 0 0 0 0 0 0 0 0 0 0 0 0 0 0 0 0 0 0 0 0 0 0 0 0 0 0 0 0 0 0 0 0 0 0 0 0 0 0 0 0 0 0 0 74 74 78 76 77 75 75 75 75 76 75 73 72 71 70 69 69 70 69 70 69 70 67 68 68 66 66 68 67 66 66 67 66 66 68 66 62 63 65 64 63 67 64 64 67 66 66 65 66 66 63 69 69 67 69 70 69 68 68 67 68 68 67 67 63 64 68 68 67 61 -209 59 67 75 -209 -209 74 70 71 72 73 72 69 67 68 68 70 69 68 67 66 68 69 68 67 63 65 65 66 66 64 63 65 70 67 68 69 71 69 69 69 66 63 64 59 59 58 65 -193 66 68 68 66 67 68 67 65 61 63 68 63 64 65 69 68 68 68 69 68 71 72 -193 72 74 78 77 78 76 75 74 71 71 72 83 72 71 71 -177 72 73 73 73 70 75 76 75 75 74 73 73 73 71 71 73 73 68 75 81 80 80 81 76 75 73 74 72 69 71 75 75 80 84 85 87 88 89 89 92 94 96 98 100 101 101 100 100 100 101 101 100 99 100 102 105 106 109 109 112 114 117 118 118 122 123 125 126 127 126 130 129 132 129 129 125 125 125 125 -193 112 120 118 114 110 113 115 116 0 0 0 0 0
    0 0 0 0 0 0 0 0 0 0 0 0 0 0 0 0 0 0 0 0 0 0 0 0 0 0 0 0 0 0 0 0 0 0 0 0 0 0 0 0 0 0 0 0 0 0 0 0 0 0 0 0 0 0 0 0 0 0 0 0 0 0 0 0 0 0 0 0 0 74 73 78 77 76 76 74 75 75 76 76 73 72 71 70 70 69 70 68 68 68 69 66 68 67 66 66 67 66 66 65 67 65 66 67 65 62 63 65 63 63 67 64 65 67 66 66 66 66 66 64 69 69 68 71 71 70 69 69 68 69 69 67 67 63 65 68 68 68 64 60 64 68 74 83 80 74 72 73 75 76 72 69 68 69 69 70 70 69 68 67 69 70 67 67 63 65 65 66 66 65 63 65 68 64 66 68 70 68 69 70 68 67 67 61 61 59 67 -193 67 68 68 66 68 68 67 66 62 63 67 64 66 66 69 69 69 69 70 69 72 73 73 73 74 77 76 76 75 75 76 72 71 72 82 73 73 -193 -193 73 74 74 75 71 75 76 76 76 75 74 74 74 73 73 74 74 71 75 81 81 81 83 80 79 79 81 78 77 -193 83 79 84 87 86 88 89 91 90 92 94 96 98 99 101 101 100 100 100 101 101 100 100 100 103 104 106 108 108 110 110 115 116 116 121 122 124 126 128 128 131 131 133 132 132 130 130 130 130 130 124 125 123 119 110 113 116 116 0 0 0 0 0
    0 0 0 0 0 0 0 0 0 0 0 0 0 0 0 0 0 0 0 0 0 0 0 0 0 0 0 0 0 0 0 0 0 0 0 0 0 0 0 0 0 0 0 0 0 0 0 0 0 0 0 0 0 0 0 0 0 0 0 0 0 0 0 0 0 0 0 0 0 75 74 78 76 75 74 74 74 74 76 75 73 73 72 71 71 70 70 68 68 69 68 65 67 66 65 66 67 66 65 65 67 65 67 67 65 62 62 64 63 63 67 64 64 67 66 66 66 66 66 64 67 69 68 71 71 70 70 70 69 70 70 68 68 63 65 68 68 68 64 61 64 68 72 80 79 74 73 74 78 78 74 70 69 70 70 71 70 69 68 67 70 70 68 68 64 65 66 66 66 64 63 65 66 62 66 69 71 69 70 71 69 69 68 62 62 60 68 -193 67 68 68 67 68 68 68 66 62 64 67 64 66 66 69 69 68 69 70 69 72 72 73 73 73 75 75 75 75 76 76 71 71 72 80 75 74 74 74 74 75 77 77 73 75 76 75 76 76 75 74 73 73 74 75 75 74 76 80 80 82 84 84 83 86 88 89 90 94 93 89 88 90 88 90 90 92 90 93 94 96 98 99 101 101 100 101 100 101 101 100 100 101 103 103 105 107 107 109 109 113 114 115 120 122 124 127 129 129 132 132 134 133 133 132 133 133 133 134 130 131 131 132 -209 116 119 117 0 0 0 0 0
    0 0 0 0 0 0 0 0 0 0 0 0 0 0 0 0 0 0 0 0 0 0 0 0 0 0 0 0 0 0 0 0 0 0 0 0 0 0 0 0 0 0 0 0 0 0 0 0 0 0 0 0 0 0 0 0 0 0 0 0 0 0 0 0 0 0 0 0 0 74 73 78 76 75 74 74 74 74 76 75 73 73 73 72 71 71 70 67 68 69 67 65 67 65 65 66 67 66 65 66 68 64 69 68 65 62 62 64 63 62 67 65 64 67 66 66 66 66 67 65 68 69 69 71 71 70 70 70 70 71 70 67 67 62 65 67 67 67 63 61 65 67 72 80 79 75 73 75 79 80 74 70 70 71 70 71 70 70 69 68 71 71 68 68 64 66 66 66 66 64 64 64 63 61 66 70 72 69 71 72 69 70 69 62 62 61 69 70 68 68 68 67 69 69 69 67 63 65 67 64 67 67 69 69 69 69 70 70 72 72 72 72 73 74 74 75 76 76 76 71 71 72 80 75 75 75 75 75 76 78 79 74 77 79 77 77 78 78 76 75 75 75 76 76 77 78 80 81 81 85 86 86 90 91 91 93 98 99 93 91 91 89 90 90 92 91 93 94 96 98 99 101 101 100 100 100 100 100 100 101 101 103 102 105 107 108 109 109 112 115 116 121 123 125 127 129 129 132 132 134 133 134 132 133 133 134 136 134 134 135 137 138 -193 127 118 0 0 0 0 0
    0 0 0 0 0 0 0 0 0 0 0 0 0 0 0 0 0 0 0 0 0 0 0 0 0 0 0 0 0 0 0 0 0 0 0 0 0 0 0 0 0 0 0 0 0 0 0 0 0 0 0 0 0 0 0 0 0 0 0 0 0 0 0 0 0 0 0 0 0 73 72 78 76 76 75 74 74 74 76 76 73 73 73 72 72 72 71 69 70 71 68 66 68 66 66 67 67 66 65 66 68 65 70 69 66 62 62 62 62 62 67 64 64 67 66 66 66 66 67 65 68 70 70 72 71 70 71 71 70 71 70 65 65 61 63 65 66 64 62 61 65 67 72 82 82 76 74 75 81 82 75 71 70 71 71 71 71 70 69 69 72 71 67 68 65 66 67 67 67 64 64 66 63 60 66 70 72 69 71 72 70 70 70 62 62 61 69 69 67 68 68 67 69 69 69 66 62 65 67 64 67 67 69 69 69 70 70 70 72 72 72 72 73 73 73 74 75 76 76 72 71 72 79 75 75 74 75 75 76 78 79 75 78 81 79 79 81 81 79 78 78 78 78 78 79 80 80 82 82 84 88 88 93 93 94 96 99 99 95 91 91 88 89 89 92 90 93 94 96 98 99 99 100 100 100 99 99 100 100 101 102 103 103 105 107 108 110 110 113 116 117 121 123 125 127 129 128 131 131 133 132 133 132 133 133 134 136 135 136 137 139 140 139 138 135 0 0 0 0 0
    0 0 0 0 0 0 0 0 0 0 0 0 0 0 0 0 0 0 0 0 0 0 0 0 0 0 0 0 0 0 0 0 0 0 0 0 0 0 0 0 0 0 0 0 0 0 0 0 0 0 0 0 0 0 0 0 0 0 0 0 0 0 0 0 0 0 0 0 0 73 72 78 77 77 76 74 74 74 77 76 73 74 73 72 72 72 72 68 70 71 67 66 68 65 66 67 67 67 65 67 68 65 70 69 66 62 62 61 61 62 66 64 64 67 66 67 67 67 67 66 68 70 71 72 71 71 72 72 72 72 70 64 63 61 61 64 -193 63 62 62 66 -209 -209 -209 -209 -193 75 76 81 83 75 71 71 72 71 72 71 71 70 70 -193 71 67 68 65 66 67 67 67 64 65 67 63 59 63 68 71 69 72 73 71 72 72 64 63 63 69 69 67 68 68 67 69 69 69 67 62 65 67 65 68 67 70 70 69 70 70 70 72 72 73 72 73 74 73 74 76 77 77 72 71 72 79 75 75 75 75 75 76 78 79 75 79 83 82 81 84 84 82 82 81 81 79 78 80 80 79 82 82 84 86 89 94 94 94 96 98 97 93 91 90 87 88 88 92 90 93 94 95 98 98 98 100 99 100 98 98 100 100 102 102 103 103 105 108 109 111 110 113 116 116 120 122 124 126 128 127 130 130 132 131 132 131 133 134 135 137 136 137 139 140 142 141 139 138 0 0 0 0 0
    0 0 0 0 0 0 0 0 0 0 0 0 0 0 0 0 0 0 0 0 0 0 0 0 0 0 0 0 0 0 0 0 0 0 0 0 0 0 0 0 0 0 0 0 0 0 0 0 0 0 0 0 0 0 0 0 0 0 0 0 0 0 0 0 0 0 0 0 0 73 73 77 77 76 75 73 73 73 76 75 74 73 73 72 73 73 72 68 70 72 66 66 68 65 66 67 67 67 65 67 68 64 70 69 64 60 61 60 61 63 67 65 65 68 67 67 67 67 67 66 68 71 72 73 71 71 71 72 71 71 69 61 61 60 61 64 65 64 64 64 -193 -209 -209 -209 -209 -209 74 75 80 81 74 73 72 -193 72 72 73 72 71 -193 -177 -209 68 70 70 67 67 67 68 65 66 67 60 58 62 66 69 69 72 73 72 73 73 65 64 65 69 69 67 67 68 67 69 69 69 67 63 66 67 66 68 68 70 70 70 70 71 71 72 72 72 72 72 73 72 73 75 76 76 71 71 72 78 75 75 75 75 75 76 78 79 75 79 83 83 83 85 86 84 83 83 82 80 79 80 81 80 83 83 84 86 87 92 93 93 96 98 98 94 91 90 86 86 87 91 89 91 92 94 98 98 97 99 99 99 98 98 100 101 102 103 104 104 105 107 108 109 109 110 114 114 117 121 -193 125 128 127 130 129 131 130 132 132 134 135 136 139 139 140 141 142 143 143 141 141 0 0 0 0 0
    0 0 0 0 0 0 0 0 0 0 0 0 0 0 0 0 0 0 0 0 0 0 0 0 0 0 0 0 0 0 0 0 0 0 0 0 0 0 0 0 0 0 0 0 0 0 0 0 0 0 0 0 0 0 0 0 0 0 0 0 0 0 0 0 0 0 0 0 0 74 75 76 76 75 74 73 73 72 75 74 74 74 74 74 74 74 74 69 71 73 65 66 68 66 67 68 67 67 64 68 67 63 69 66 60 59 61 58 62 65 67 67 66 69 67 67 67 67 67 65 66 69 70 72 72 72 72 73 73 72 70 58 62 59 59 62 63 64 64 64 -177 -177 -209 -193 -209 -193 -193 74 79 81 73 73 72 -193 72 73 74 73 -209 -177 -177 -177 -209 -193 -209 -209 -209 67 66 64 64 62 54 56 59 60 61 67 71 73 72 73 73 65 64 65 69 69 67 67 67 67 70 70 70 68 63 66 67 69 69 69 70 71 70 71 72 71 72 72 73 72 71 72 72 73 74 75 76 71 70 72 77 75 75 75 75 75 76 79 80 76 79 84 84 85 87 87 85 84 84 84 83 80 81 81 81 83 83 84 85 86 89 92 94 95 97 97 95 91 90 87 84 86 90 88 90 91 93 98 98 97 98 99 99 99 98 100 101 103 103 104 104 105 107 107 109 108 109 113 112 115 121 -193 125 128 128 130 129 131 130 -193 -193 134 -193 -193 140 141 141 142 143 142 142 140 142 0 0 0 0 0
    0 0 0 0 0 0 0 0 0 0 0 0 0 0 0 0 0 0 0 0 0 0 0 0 0 0 0 0 0 0 0 0 0 0 0 0 0 0 0 0 0 0 0 0 0 0 0 0 0 0 0 0 0 0 0 0 0 0 0 0 0 0 0 0 0 0 0 0 0 78 83 84 81 72 71 68 66 68 73 72 72 73 75 76 75 75 75 69 73 75 66 66 69 66 67 68 67 66 64 67 67 62 67 63 60 60 -225 -225 -225 -225 -225 -225 66 68 65 65 65 65 65 64 63 68 68 73 74 74 74 75 75 75 74 61 68 61 61 65 66 67 65 -193 -209 -209 -209 -193 615 621 -209 74 81 82 74 73 72 -193 72 72 73 -193 -209 -177 -177 -177 -209 -209 -209 -209 417 -209 -209 -209 -209 -209 50 56 61 64 65 68 72 73 73 74 74 64 63 65 69 68 66 67 67 68 71 72 71 69 65 68 67 69 70 68 70 71 70 71 72 72 72 72 73 72 70 71 69 70 73 73 74 70 70 71 76 75 75 75 74 75 77 80 81 77 80 84 85 87 89 88 87 86 85 86 84 82 82 81 80 82 82 83 84 84 87 90 94 95 96 97 96 92 91 89 84 85 88 87 88 90 92 98 97 96 96 98 98 98 97 99 100 103 104 104 105 106 107 107 108 108 108 111 111 112 -193 122 125 127 127 128 128 129 130 132 132 133 135 136 139 141 141 142 142 141 141 140 140 0 0 0 0 0
    0 0 0 0 0 0 0 0 0 0 0 0 0 0 0 0 0 0 0 0 0 0 0 0 0 0 0 0 0 0 0 0 0 0 0 0 0 0 0 0 0 0 0 0 0 0 0 0 0 0 0 0 0 0 0 0 0 0 0 0 0 0 0 0 0 0 0 0 0 85 90 91 -225 67 58 57 58 65 72 71 71 73 75 77 76 76 76 73 74 77 67 66 69 65 67 68 67 66 64 66 66 62 68 60 -225 -225 -225 -225 -225 -225 -225 -225 -225 68 64 65 65 65 64 64 62 68 68 74 76 76 77 78 79 80 79 73 73 70 64 67 -225 -225 -225 -225 -225 -225 -225 -225 -225 -193 -209 74 81 78 74 73 72 -193 73 73 73 73 -193 -193 -177 -177 -209 365 375 -209 -209 -209 -209 -209 -209 -209 -209 57 62 68 64 67 72 73 73 -193 -193 64 62 64 69 69 67 67 67 68 72 73 73 72 71 72 71 71 73 71 71 -193 72 73 73 73 73 72 73 72 69 70 68 69 72 73 74 70 70 71 75 74 75 74 74 74 76 79 81 77 79 84 85 88 90 90 88 87 86 87 86 84 83 82 80 82 82 82 82 82 85 88 92 95 97 97 96 94 93 91 89 87 88 86 87 89 91 99 97 95 95 97 97 97 96 98 100 103 104 105 106 106 107 108 109 110 109 112 113 112 -193 121 124 125 126 127 127 128 130 131 131 132 134 135 138 140 140 141 141 141 141 139 140 0 0 0 0 0
    0 0 0 0 0 0 0 0 0 0 0 0 0 0 0 0 0 0 0 0 0 0 0 0 0 0 0 0 0 0 0 0 0 0 0 0 0 0 0 0 0 0 0 0 0 0 0 0 0 0 0 0 0 0 0 0 0 0 0 0 0 0 0 0 0 0 0 0 0 -225 -225 -225 -225 -225 -225 -225 55 62 72 70 71 73 75 76 76 76 75 73 74 79 69 68 70 66 68 69 68 68 65 68 68 62 -225 -225 -225 -225 -225 -225 -225 -225 -225 -225 -225 -225 -225 -225 -225 65 64 64 62 67 68 73 75 75 76 78 -225 -225 -225 -225 -225 -225 -225 -225 -225 -225 -225 -225 -225 -225 -225 -225 -225 -225 -225 -225 -225 -225 -225 76 74 -193 -193 72 73 -193 -193 -193 -193 -209 -209 -209 -209 -209 375 -193 377 -209 -209 -209 -209 410 419 -193 -209 69 74 73 -209 -193 -193 61 60 64 70 70 68 68 68 69 73 74 75 74 73 78 79 72 71 68 70 71 71 71 71 71 71 71 72 72 67 68 64 69 74 73 73 71 70 71 74 74 74 74 74 75 76 79 81 78 79 85 86 87 91 92 90 89 88 88 87 85 85 83 81 82 82 82 82 82 84 87 91 94 95 96 95 93 92 91 90 86 86 85 85 88 89 99 97 93 94 96 96 95 94 97 99 102 103 104 106 106 108 109 110 111 111 113 115 113 119 120 122 124 125 126 125 127 128 130 130 131 133 134 136 137 138 139 139 139 139 138 139 0 0 0 0 0
    0 0 0 0 0 0 0 0 0 0 0 0 0 0 0 0 0 0 0 0 0 0 0 0 0 0 0 0 0 0 0 0 0 0 0 0 0 0 0 0 0 0 0 0 0 0 0 0 0 0 0 0 0 0 0 0 0 0 0 0 0 0 0 0 0 0 0 0 0 -225 -225 -225 -225 -225 -225 -225 -225 -225 -225 -225 -225 71 -225 -225 -225 -225 -225 -225 -225 -225 -225 69 71 66 68 69 69 68 -225 -225 -225 -225 -225 -225 -225 -225 -225 -225 -225 -225 -225 -225 -225 -225 -225 -225 -225 -225 -225 -225 -225 -225 -225 -225 -225 -225 -225 -225 -225 -225 -225 -225 -225 -225 -225 -225 -225 -225 -225 -225 -225 -225 -225 -225 -225 -225 -225 -225 -225 -225 -225 -225 -225 -225 -225 -225 -225 -225 -225 -225 -225 -225 -225 -225 -225 -225 -225 -225 -225 -225 -225 -225 -225 -225 -225 -225 -225 -225 -225 -225 -225 -225 -225 -225 -225 -225 -225 -225 -225 69 70 71 75 79 80 76 78 93 -225 -225 -225 -225 -225 -225 -225 -225 -225 71 73 -225 -225 -225 -225 -225 -225 -225 -225 -225 -225 -225 70 72 74 70 70 71 73 74 75 78 78 77 82 86 88 88 91 93 92 92 92 91 89 87 86 84 82 84 83 82 82 82 82 85 89 91 91 91 91 91 90 89 88 84 85 85 85 89 88 97 98 93 93 94 94 94 92 95 98 101 103 104 106 106 108 109 110 111 112 115 116 114 119 119 122 123 125 125 124 125 126 129 130 131 133 133 135 137 138 139 139 138 138 137 139 0 0 0 0 0
    0 0 0 0 0 0 0 0 0 0 0 0 0 0 0 0 0 0 0 0 0 0 0 0 0 0 0 0 0 0 0 0 0 0 0 0 0 0 0 0 0 0 0 0 0 0 0 0 0 0 0 0 0 0 0 0 0 0 0 0 0 0 0 0 0 0 0 0 0 -225 -225 -225 -225 -225 -225 -225 -225 -225 -225 -225 -225 -225 -225 -225 -225 -225 -225 -225 -225 -225 -225 -225 -225 -225 -225 -225 -225 -225 -225 -225 -225 -225 -225 -225 -225 -225 -225 -225 -225 -225 -225 -225 -225 -225 -225 -225 -225 -225 -225 -225 -225 -225 -225 -225 -225 -225 -225 -225 -225 -225 -225 -225 -225 -225 -225 -225 -225 -225 -225 -225 -225 -225 -225 -225 -225 -225 -225 -225 -225 -225 -225 -225 -225 -225 -225 -225 -225 -225 -225 -225 -225 -225 -225 -225 -225 -225 -225 -225 -225 -225 -225 -225 -225 -225 -225 -225 -225 -225 -225 -225 -225 -225 -225 -225 -225 -225 -225 -225 -225 -225 -225 -225 -225 -225 -225 -225 -225 -225 -225 -225 -225 -225 -225 -225 -225 -225 -225 -225 -225 -225 -225 -225 -225 -225 -225 -225 -225 -225 -225 -225 -225 -225 -225 -225 -225 -225 75 75 75 75 74 76 79 86 -209 -193 93 96 94 96 98 95 91 87 86 84 83 83 84 83 83 82 81 83 87 88 88 88 89 90 90 89 90 86 87 89 88 93 91 96 99 92 93 93 93 93 91 94 97 100 102 104 106 106 107 109 110 111 111 115 115 114 117 118 121 122 124 125 124 125 125 128 128 130 133 132 135 137 138 139 139 138 138 137 139 0 0 0 0 0
    0 0 0 0 0 0 0 0 0 0 0 0 0 0 0 0 0 0 0 0 0 0 0 0 0 0 0 0 0 0 0 0 0 0 0 0 0 0 0 0 0 0 0 0 0 0 0 0 0 0 0 0 0 0 0 0 0 0 0 0 0 0 0 0 0 0 0 0 0 -225 -225 -225 -225 -225 -225 -225 -225 -225 -225 -225 -225 -225 -225 -225 -225 -225 -225 -225 -225 -225 -225 -225 -225 -225 -225 -225 -225 -225 -225 -225 -225 -225 -225 -225 -225 -225 -225 -225 -225 -225 -225 -225 -225 -225 -225 -225 -225 -225 -225 -225 -225 -225 -225 -225 -225 -225 -225 -225 -225 -225 -225 -225 -225 -225 -225 -225 -225 -225 -225 -225 -225 -225 -225 -225 -225 -225 -225 -225 -225 -225 -225 -225 -225 -225 -225 -225 -225 -225 -225 -225 -225 -225 -225 -225 -225 -225 -225 -225 -225 -225 -225 -225 -225 -225 -225 -225 -225 -225 -225 -225 -225 -225 -225 -225 -225 -225 -225 -225 -225 -225 -225 -225 -225 -225 -225 -225 -225 -225 -225 -225 -225 -225 -225 -225 -225 -225 -225 -225 -225 -225 -225 -225 -225 -225 -225 -225 -225 -225 -225 -225 -225 -225 -225 -225 -225 -225 -225 -225 -225 -225 -225 -225 -225 -225 -225 -225 100 102 100 -225 -225 -225 -225 -225 86 84 83 84 84 84 83 83 83 85 88 89 89 89 90 91 90 90 92 89 90 91 92 97 97 99 103 96 95 94 95 94 92 95 98 101 102 103 106 106 107 108 109 110 110 112 113 112 115 115 -209 -209 124 124 123 124 125 127 128 130 133 132 135 138 139 140 139 138 138 137 139 0 0 0 0 0
    0 0 0 0 0 0 0 0 0 0 0 0 0 0 0 0 0 0 0 0 0 0 0 0 0 0 0 0 0 0 0 0 0 0 0 0 0 0 0 0 0 0 0 0 0 0 0 0 0 0 0 0 0 0 0 0 0 0 0 0 0 0 0 0 0 0 0 0 0 -225 -225 -225 -225 -225 -225 -225 -225 -225 -225 -225 -225 -225 -225 -225 -225 -225 -225 -225 -225 -225 -225 -225 -225 -225 -225 -225 -225 -225 -225 -225 -225 -225 -225 -225 -225 -225 -225 -225 -225 -225 -225 -225 -225 -225 -225 -225 -225 -225 -225 -225 -225 -225 -225 -225 -225 -225 -225 -225 -225 -225 -225 -225 -225 -225 -225 -225 -225 -225 -225 -225 -225 -225 -225 -225 -225 -225 -225 -225 -225 -225 -225 -225 -225 -225 -225 -225 -225 -225 -225 -225 -225 -225 -225 -225 -225 -225 -225 -225 -225 -225 -225 -225 -225 -225 -225 -225 -225 -225 -225 -225 -225 -225 -225 -225 -225 -225 -225 -225 -225 -225 -225 -225 -225 -225 -225 -225 -225 -225 -225 -225 -225 -225 -225 -225 -225 -225 -225 -225 -225 -225 -225 -225 -225 -225 -225 -225 -225 -225 -225 -225 -225 -225 -225 -225 -225 -225 -225 -225 -225 -225 -225 -225 -225 -225 -225 -225 -225 -225 -225 -225 -225 -225 -225 -225 -225 84 83 84 85 84 84 85 85 86 89 90 90 90 91 92 91 90 92 90 92 92 95 101 102 103 107 108 104 102 101 102 97 99 99 101 102 102 105 105 106 107 108 109 109 111 112 110 114 115 -209 -209 -209 -209 122 124 125 127 128 129 132 131 134 137 138 139 138 138 138 137 139 0 0 0 0 0
    0 0 0 0 0 0 0 0 0 0 0 0 0 0 0 0 0 0 0 0 0 0 0 0 0 0 0 0 0 0 0 0 0 0 0 0 0 0 0 0 0 0 0 0 0 0 0 0 0 0 0 0 0 0 0 0 0 0 0 0 0 0 0 0 0 0 0 0 0 -225 -225 -225 -225 -225 -225 -225 -225 -225 -225 -225 -225 -225 -225 -225 -225 -225 -225 -225 -225 -225 -225 -225 -225 -225 -225 -225 -225 -225 -225 -225 -225 -225 -225 -225 -225 -225 -225 -225 -225 -225 -225 -225 -225 -225 -225 -225 -225 -225 -225 -225 -225 -225 -225 -225 -225 -225 -225 -225 -225 -225 -225 -225 -225 -225 -225 -225 -225 -225 -225 -225 -225 -225 -225 -225 -225 -225 -225 -225 -225 -225 -225 -225 -225 -225 -225 -225 -225 -225 -225 -225 -225 -225 -225 -225 -225 -225 -225 -225 -225 -225 -225 -225 -225 -225 -225 -225 -225 -225 -225 -225 -225 -225 -225 -225 -225 -225 -225 -225 -225 -225 -225 -225 -225 -225 -225 -225 -225 -225 -225 -225 -225 -225 -225 -225 -225 -225 -225 -225 -225 -225 -225 -225 -225 -225 -225 -225 -225 -225 -225 -225 -225 -225 -225 -225 -225 -225 -225 -225 -225 -225 -225 -225 -225 -225 -225 -225 -225 -225 -225 -225 -225 -225 -225 -225 -225 -225 84 84 85 84 85 86 86 88 89 90 91 91 92 93 92 91 92 93 95 96 101 106 107 108 112 115 113 109 107 107 103 103 101 101 103 103 105 105 105 107 108 109 110 111 113 -209 -209 116 -209 -209 -209 -209 -209 124 125 127 128 127 130 129 132 136 137 138 137 137 138 137 139 0 0 0 0 0
    0 0 0 0 0 0 0 0 0 0 0 0 0 0 0 0 0 0 0 0 0 0 0 0 0 0 0 0 0 0 0 0 0 0 0 0 0 0 0 0 0 0 0 0 0 0 0 0 0 0 0 0 0 0 0 0 0 0 0 0 0 0 0 0 0 0 0 0 0 -225 -225 -225 -225 -225 -225 -225 -225 -225 -225 -225 -225 -225 -225 -225 -225 -225 -225 -225 -225 -225 -225 -225 -225 -225 -225 -225 -225 -225 -225 -225 -225 -225 -225 -225 -225 -225 -225 -225 -225 -225 -225 -225 -225 -225 -225 -225 -225 -225 -225 -225 -225 -225 -225 -225 -225 -225 -225 -225 -225 -225 -225 -225 -225 -225 -225 -225 -225 -225 -225 -225 -225 -225 -225 -225 -225 -225 -225 -225 -225 -225 -225 -225 -225 -225 -225 -225 -225 -225 -225 -225 -225 -225 -225 -225 -225 -225 -225 -225 -225 -225 -225 -225 -225 -225 -225 -225 -225 -225 -225 -225 -225 -225 -225 -225 -225 -225 -225 -225 -225 -225 -225 -225 -225 -225 -225 -225 -225 -225 -225 -225 -225 -225 -225 -225 -225 -225 -225 -225 -225 -225 -225 -225 -225 -225 -225 -225 -225 -225 -225 -225 -225 -225 -225 -225 -225 -225 -225 -225 -225 -225 -225 -225 -225 -225 -225 -225 -225 -225 -225 -225 -225 -225 -225 -225 -225 -225 -225 -225 85 84 85 86 87 88 90 91 91 91 92 93 93 92 93 95 98 100 103 107 108 109 114 117 117 113 112 110 106 105 104 102 104 103 105 105 106 107 108 109 110 111 112 112 114 115 -209 -209 122 -209 120 122 123 125 127 126 129 128 131 135 135 137 136 136 137 137 138 0 0 0 0 0
    0 0 0 0 0 0 0 0 0 0 0 0 0 0 0 0 0 0 0 0 0 0 0 0 0 0 0 0 0 0 0 0 0 0 0 0 0 0 0 0 0 0 0 0 0 0 0 0 0 0 0 0 0 0 0 0 0 0 0 0 0 0 0 0 0 0 0 0 0 -225 -225 -225 -225 -225 -225 -225 -225 -225 -225 -225 -225 -225 -225 -225 -225 -225 -225 -225 -225 -225 -225 -225 -225 -225 -225 -225 -225 -225 -225 -225 -225 -225 -225 -225 -225 -225 -225 -225 -225 -225 -225 -225 -225 -225 -225 -225 -225 -225 -225 -225 -225 -225 -225 -225 -225 -225 -225 -225 -225 -225 -225 -225 -225 -225 -225 -225 -225 -225 -225 -225 -225 -225 -225 -225 -225 -225 -225 -225 -225 -225 -225 -225 -225 -225 -225 -225 -225 -225 -225 -225 -225 -225 -225 -225 -225 -225 -225 -225 -225 -225 -225 -225 -225 -225 -225 -225 -225 -225 -225 -225 -225 -225 -225 -225 -225 -225 -225 -225 -225 -225 -225 -225 -225 -225 -225 -225 -225 -225 -225 -225 -225 -225 -225 -225 -225 -225 -225 -225 -225 -225 -225 -225 -225 -225 -225 -225 -225 -225 -225 -225 -225 -225 -225 -225 -225 -225 -225 -225 -225 -225 -225 -225 -225 -225 -225 -225 -225 -225 -225 -225 -225 -225 -225 -225 -225 -225 -225 -225 -225 85 85 87 88 89 90 91 91 91 92 93 94 93 95 96 99 101 103 108 108 111 115 117 118 116 116 113 108 108 105 101 103 102 104 105 106 107 108 109 111 111 111 111 111 111 -209 -209 -209 -209 117 120 121 124 126 126 129 128 130 134 135 136 135 136 137 137 139 0 0 0 0 0
    0 0 0 0 0 0 0 0 0 0 0 0 0 0 0 0 0 0 0 0 0 0 0 0 0 0 0 0 0 0 0 0 0 0 0 0 0 0 0 0 0 0 0 0 0 0 0 0 0 0 0 0 0 0 0 0 0 0 0 0 0 0 0 0 0 0 0 0 0 -225 -225 -225 -225 -225 -225 -225 -225 -225 -225 -225 -225 -225 -225 -225 -225 -225 -225 -225 -225 -225 -225 -225 -225 -225 -225 -225 -225 -225 -225 -225 -225 -225 -225 -225 -225 -225 -225 -225 -225 -225 -225 -225 -225 -225 -225 -225 -225 -225 -225 -225 -225 -225 -225 -225 -225 -225 -225 -225 -225 -225 -225 -225 -225 -225 -225 -225 -225 -225 -225 -225 -225 -225 -225 -225 -225 -225 -225 -225 -225 -225 -225 -225 -225 -225 -225 -225 -225 -225 -225 -225 -225 -225 -225 -225 -225 -225 -225 -225 -225 -225 -225 -225 -225 -225 -225 -225 -225 -225 -225 -225 -225 -225 -225 -225 -225 -225 -225 -225 -225 -225 -225 -225 -225 -225 -225 -225 -225 -225 -225 -225 -225 -225 -225 -225 -225 -225 -225 -225 -225 -225 -225 -225 -225 -225 -225 -225 -225 -225 -225 -225 -225 -225 -225 -225 -225 -225 -225 -225 -225 -225 -225 -225 -225 -225 -225 -225 -225 -225 -225 -225 -225 -225 -225 -225 -225 -225 -225 -225 -225 -225 86 88 89 90 91 90 90 90 91 91 91 91 93 94 98 102 104 109 110 114 116 118 119 118 118 116 110 108 105 99 100 100 101 104 105 107 108 108 110 110 110 109 109 109 110 -209 -209 -209 114 118 -209 -209 -209 125 129 127 130 133 135 136 135 135 137 138 139 0 0 0 0 0
    0 0 0 0 0 0 0 0 0 0 0 0 0 0 0 0 0 0 0 0 0 0 0 0 0 0 0 0 0 0 0 0 0 0 0 0 0 0 0 0 0 0 0 0 0 0 0 0 0 0 0 0 0 0 0 0 0 0 0 0 0 0 0 0 0 0 0 0 0 -225 -225 -225 -225 -225 -225 -225 -225 -225 -225 -225 -225 -225 -225 -225 -225 -225 -225 -225 -225 -225 -225 -225 -225 -225 -225 -225 -225 -225 -225 -225 -225 -225 -225 -225 -225 -225 -225 -225 -225 -225 -225 -225 -225 -225 -225 -225 -225 -225 -225 -225 -225 -225 -225 -225 -225 -225 -225 -225 -225 -225 -225 -225 -225 -225 -225 -225 -225 -225 -225 -225 -225 -225 -225 -225 -225 -225 -225 -225 -225 -225 -225 -225 -225 -225 -225 -225 -225 -225 -225 -225 -225 -225 -225 -225 -225 -225 -225 -225 -225 -225 -225 -225 -225 -225 -225 -225 -225 -225 -225 -225 -225 -225 -225 -225 -225 -225 -225 -225 -225 -225 -225 -225 -225 -225 -225 -225 -225 -225 -225 -225 -225 -225 -225 -225 -225 -225 -225 -225 -225 -225 -225 -225 -225 -225 -225 -225 -225 -225 -225 -225 -225 -225 -225 -225 -225 -225 -225 -225 -225 -225 -225 -225 -225 -225 -225 -225 -225 -225 -225 -225 -225 -225 -225 -225 -225 -225 -225 -225 -225 -225 -225 -225 89 91 91 90 89 88 89 90 90 89 91 92 97 102 105 111 113 116 117 118 119 119 119 118 115 113 109 103 102 101 103 105 105 106 107 107 109 108 108 108 107 107 107 -209 -209 -209 112 -209 -209 -209 -209 125 128 127 131 134 136 136 135 136 138 138 139 0 0 0 0 0
    0 0 0 0 0 0 0 0 0 0 0 0 0 0 0 0 0 0 0 0 0 0 0 0 0 0 0 0 0 0 0 0 0 0 0 0 0 0 0 0 0 0 0 0 0 0 0 0 0 0 0 0 0 0 0 0 0 0 0 0 0 0 0 0 0 0 0 0 0 -225 -225 -225 -225 -225 -225 -225 -225 -225 -225 -225 -225 -225 -225 -225 -225 -225 -225 -225 -225 -225 -225 -225 -225 -225 -225 -225 -225 -225 -225 -225 -225 -225 -225 -225 -225 -225 -225 -225 -225 -225 -225 -225 -225 -225 -225 -225 -225 -225 -225 -225 -225 -225 -225 -225 -225 -225 -225 -225 -225 -225 -225 -225 -225 -225 -225 -225 -225 -225 -225 -225 -225 -225 -225 -225 -225 -225 -225 -225 -225 -225 -225 -225 -225 -225 -225 -225 -225 -225 -225 -225 -225 -225 -225 -225 -225 -225 -225 -225 -225 -225 -225 -225 -225 -225 -225 -225 -225 -225 -225 -225 -225 -225 -225 -225 -225 -225 -225 -225 -225 -225 -225 -225 -225 -225 -225 -225 -225 -225 -225 -225 -225 -225 -225 -225 -225 -225 -225 -225 -225 -225 -225 -225 -225 -225 -225 -225 -225 -225 -225 -225 -225 -225 -225 -225 -225 -225 -225 -225 -225 -225 -225 -225 -225 -225 -225 -225 -225 -225 -225 -225 -225 -225 -225 -225 -225 -225 -225 -225 -225 -225 -225 -225 -225 93 93 92 89 88 89 89 89 89 90 90 95 102 105 113 115 117 118 119 119 120 119 119 117 116 113 108 107 105 105 106 106 106 106 106 107 106 106 106 105 105 106 105 -209 -209 111 -209 -209 -209 -209 125 128 128 132 135 136 136 135 137 138 139 139 0 0 0 0 0
    0 0 0 0 0 0 0 0 0 0 0 0 0 0 0 0 0 0 0 0 0 0 0 0 0 0 0 0 0 0 0 0 0 0 0 0 0 0 0 0 0 0 0 0 0 0 0 0 0 0 0 0 0 0 0 0 0 0 0 0 0 0 0 0 0 0 0 0 0 -225 -225 -225 -225 -225 -225 -225 -225 -225 -225 -225 -225 -225 -225 -225 -225 -225 -225 -225 -225 -225 -225 -225 -225 -225 -225 -225 -225 -225 -225 -225 -225 -225 -225 -225 -225 -225 -225 -225 -225 -225 -225 -225 -225 -225 -225 -225 -225 -225 -225 -225 -225 -225 -225 -225 -225 -225 -225 -225 -225 -225 -225 -225 -225 -225 -225 -225 -225 -225 -225 -225 -225 -225 -225 -225 -225 -225 -225 -225 -225 -225 -225 -225 -225 -225 -225 -225 -225 -225 -225 -225 -225 -225 -225 -225 -225 -225 -225 -225 -225 -225 -225 -225 -225 -225 -225 -225 -225 -225 -225 -225 -225 -225 -225 -225 -225 -225 -225 -225 -225 -225 -225 -225 -225 -225 -225 -225 -225 -225 -225 -225 -225 -225 -225 -225 -225 -225 -225 -225 -225 -225 -225 -225 -225 -225 -225 -225 -225 -225 -225 -225 -225 -225 -225 -225 -225 -225 -225 -225 -225 -225 -225 -225 -225 -225 -225 -225 -225 -225 -225 -225 -225 -225 -225 -225 -225 -225 -225 -225 -225 -225 -225 -225 -225 -225 96 93 90 89 88 87 86 85 87 88 92 101 105 111 114 117 118 119 119 120 120 119 117 118 115 111 110 107 106 107 106 105 105 106 107 105 105 105 105 105 106 106 107 107 111 -209 -209 -209 -209 125 126 127 131 134 135 134 133 135 137 138 138 0 0 0 0 0
    0 0 0 0 0 0 0 0 0 0 0 0 0 0 0 0 0 0 0 0 0 0 0 0 0 0 0 0 0 0 0 0 0 0 0 0 0 0 0 0 0 0 0 0 0 0 0 0 0 0 0 0 0 0 0 0 0 0 0 0 0 0 0 0 0 0 0 0 0 -225 -225 -225 -225 -225 -225 -225 -225 -225 -225 -225 -225 -225 -225 -225 -225 -225 -225 -225 -225 -225 -225 -225 -225 -225 -225 -225 -225 -225 -225 -225 -225 -225 -225 -225 -225 -225 -225 -225 -225 -225 -225 -225 -225 -225 -225 -225 -225 -225 -225 -225 -225 -225 -225 -225 -225 -225 -225 -225 -225 -225 -225 -225 -225 -225 -225 -225 -225 -225 -225 -225 -225 -225 -225 -225 -225 -225 -225 -225 -225 -225 -225 -225 -225 -225 -225 -225 -225 -225 -225 -225 -225 -225 -225 -225 -225 -225 -225 -225 -225 -225 -225 -225 -225 -225 -225 -225 -225 -225 -225 -225 -225 -225 -225 -225 -225 -225 -225 -225 -225 -225 -225 -225 -225 -225 -225 -225 -225 -225 -225 -225 -225 -225 -225 -225 -225 -225 -225 -225 -225 -225 -225 -225 -225 -225 -225 -225 -225 -225 -225 -225 -225 -225 -225 -225 -225 -225 -225 -225 -225 -225 -225 -225 -225 -225 -225 -225 -225 -225 -225 -225 -225 -225 -225 -225 -225 -225 -225 -225 -225 -225 -225 -225 -225 -225 98 94 90 87 84 80 79 77 79 80 88 94 104 110 112 117 119 119 119 120 120 120 118 119 117 112 111 109 107 108 106 105 106 106 107 105 105 105 104 105 105 106 106 106 109 -209 -209 -209 -209 -209 125 127 131 132 133 131 130 132 136 138 137 0 0 0 0 0
    0 0 0 0 0 0 0 0 0 0 0 0 0 0 0 0 0 0 0 0 0 0 0 0 0 0 0 0 0 0 0 0 0 0 0 0 0 0 0 0 0 0 0 0 0 0 0 0 0 0 0 0 0 0 0 0 0 0 0 0 0 0 0 0 0 0 0 0 0 -225 -225 -225 -225 -225 -225 -225 -225 -225 -225 -225 -225 -225 -225 -225 -225 -225 -225 -225 -225 -225 -225 -225 -225 -225 -225 -225 -225 -225 -225 -225 -225 -225 -225 -225 -225 -225 -225 -225 -225 -225 -225 -225 -225 -225 -225 -225 -225 -225 -225 -225 -225 -225 -225 -225 -225 -225 -225 -225 -225 -225 -225 -225 -225 -225 -225 -225 -225 -225 -225 -225 -225 -225 -225 -225 -225 -225 -225 -225 -225 -225 -225 -225 -225 -225 -225 -225 -225 -225 -225 -225 -225 -225 -225 -225 -225 -225 -225 -225 -225 -225 -225 -225 -225 -225 -225 -225 -225 -225 -225 -225 -225 -225 -225 -225 -225 -225 -225 -225 -225 -225 -225 -225 -225 -225 -225 -225 -225 -225 -225 -225 -225 -225 -225 -225 -225 -225 -225 -225 -225 -225 -225 -225 -225 -225 -225 -225 -225 -225 -225 -225 -225 -225 -225 -225 -225 -225 -225 -225 -225 -225 -225 -225 -225 -225 -225 -225 -225 -225 -225 -225 -225 -225 -225 -225 -225 -225 -225 -225 -225 -225 -225 -225 -225 -225 97 93 88 85 80 76 74 72 72 69 -193 -193 101 106 108 113 117 118 119 120 121 -193 118 -193 -209 113 114 114 107 109 107 106 107 107 107 106 105 105 104 105 105 106 107 107 109 114 -209 -209 -209 -209 -209 127 132 132 133 132 131 134 138 140 139 0 0 0 0 0
    0 0 0 0 0 0 0 0 0 0 0 0 0 0 0 0 0 0 0 0 0 0 0 0 0 0 0 0 0 0 0 0 0 0 0 0 0 0 0 0 0 0 0 0 0 0 0 0 0 0 0 0 0 0 0 0 0 0 0 0 0 0 0 0 0 0 0 0 0 -225 -225 -225 -225 -225 -225 -225 -225 -225 -225 -225 -225 -225 -225 -225 -225 -225 -225 -225 -225 -225 -225 -225 -225 -225 -225 -225 -225 -225 -225 -225 -225 -225 -225 -225 -225 -225 -225 -225 -225 -225 -225 -225 -225 -225 -225 -225 -225 -225 -225 -225 -225 -225 -225 -225 -225 -225 -225 -225 -225 -225 -225 -225 -225 -225 -225 -225 -225 -225 -225 -225 -225 -225 -225 -225 -225 -225 -225 -225 -225 -225 -225 -225 -225 -225 -225 -225 -225 -225 -225 -225 -225 -225 -225 -225 -225 -225 -225 -225 -225 -225 -225 -225 -225 -225 -225 -225 -225 -225 -225 -225 -225 -225 -225 -225 -225 -225 -225 -225 -225 -225 -225 -225 -225 -225 -225 -225 -225 -225 -225 -225 -225 -225 -225 -225 -225 -225 -225 -225 -225 -225 -225 -225 -225 -225 -225 -225 -225 -225 -225 -225 -225 -225 -225 -225 -225 -225 -225 -225 -225 -225 -225 -225 -225 -225 -225 -225 -225 -225 -225 -225 -225 -225 -225 -225 -225 -225 -225 -225 -225 -225 -225 -225 -225 -225 -193 -209 88 87 -193 88 -193 74 76 -209 -209 -193 101 105 106 108 110 116 119 121 124 -193 -193 -209 -209 119 120 -193 107 109 107 106 106 106 106 105 104 104 104 105 104 106 107 107 111 115 -193 119 -193 121 123 125 130 130 132 132 132 134 138 140 139 0 0 0 0 0
    0 0 0 0 0 0 0 0 0 0 0 0 0 0 0 0 0 0 0 0 0 0 0 0 0 0 0 0 0 0 0 0 0 0 0 0 0 0 0 0 0 0 0 0 0 0 0 0 0 0 0 0 0 0 0 0 0 0 0 0 0 0 0 0 0 0 0 0 0 -225 -225 -225 -225 -225 -225 -225 -225 -225 -225 -225 -225 -225 -225 -225 -225 -225 -225 -225 -225 -225 -225 -225 -225 -225 -225 -225 -225 -225 -225 -225 -225 -225 -225 -225 -225 -225 -225 -225 -225 -225 -225 -225 -225 -225 -225 -225 -225 -225 -225 -225 -225 -225 -225 -225 -225 -225 -225 -225 -225 -225 -225 -225 -225 -225 -225 -225 -225 -225 -225 -225 -225 -225 -225 -225 -225 -225 -225 -225 -225 -225 -225 -225 -225 -225 -225 -225 -225 -225 -225 -225 -225 -225 -225 -225 -225 -225 -225 -225 -225 -225 -225 -225 -225 -225 -225 -225 -225 -225 -225 -225 -225 -225 -225 -225 -225 -225 -225 -225 -225 -225 -225 -225 -225 -225 -225 -225 -225 -225 -225 -225 -225 -225 -225 -225 -225 -225 -225 -225 -225 -225 -225 -225 -225 -225 -225 -225 -225 -225 -225 -225 -225 -225 -225 -225 -225 -225 -225 -225 -225 -225 -225 -225 -225 -225 -225 -225 -225 -225 -225 -225 0 -225 -225 13 15 15 17 20 -193 129 -177 -177 -177 -177 125 -209 -209 83 88 -193 -209 -193 -193 -209 -209 103 106 109 110 110 110 116 117 121 125 127 -193 -193 -193 -193 121 122 105 108 106 105 106 106 106 105 104 104 104 104 104 106 107 108 112 116 117 119 120 120 122 123 127 128 131 132 132 135 138 140 139 0 0 0 0 0
    0 0 0 0 0 0 0 0 0 0 0 0 0 0 0 0 0 0 0 0 0 0 0 0 0 0 0 0 0 0 0 0 0 0 0 0 0 0 0 0 0 0 0 0 0 0 0 0 0 0 0 0 0 0 0 0 0 0 0 0 0 0 0 0 0 0 0 0 0 -225 -225 -225 -225 -225 -225 -225 -225 -225 -225 -225 -225 -225 -225 -225 -225 -225 -225 -225 -225 -225 -225 -225 -225 -225 -225 -225 -225 -225 -225 -225 -225 -225 -225 -225 -225 -225 -225 -225 -225 -225 -225 -225 -225 -225 -225 -225 -225 -225 -225 -225 -225 -225 -225 -225 -225 -225 -225 -225 -225 -225 -225 -225 -225 -225 -225 -225 -225 -225 -225 -225 -225 -225 -225 -225 -225 -225 -225 -225 -225 -225 -225 -225 -225 -225 -225 -225 -225 -225 -225 -225 -225 -225 -225 -225 -225 -225 -225 -225 -225 -225 -225 -225 -225 -225 -225 -225 -225 -225 -225 -225 -225 -225 -225 -225 -225 -225 -225 -225 -225 -225 -225 -225 -225 -225 -225 -225 -225 -225 -225 -225 -225 -225 -225 -225 -225 -225 -225 -225 -225 -225 -225 -225 -225 -225 -225 -225 -225 -225 -225 -225 -225 -225 -225 -225 -225 -225 -225 -225 -225 -225 -225 -225 -225 -225 -225 -225 -225 -225 0 11 14 20 -193 11 12 -177 13 18 -177 128 -177 124 125 126 125 123 -193 73 79 -209 -209 68 -209 -209 -209 106 109 114 117 115 113 117 118 121 122 124 121 122 122 121 121 121 105 108 106 104 106 106 105 105 104 105 104 105 104 107 108 108 112 116 117 118 118 119 120 121 123 125 127 128 130 133 137 138 138 0 0 0 0 0
    0 0 0 0 0 0 0 0 0 0 0 0 0 0 0 0 0 0 0 0 0 0 0 0 0 0 0 0 0 0 0 0 0 0 0 0 0 0 0 0 0 0 0 0 0 0 0 0 0 0 0 0 0 0 0 0 0 0 0 0 0 0 0 0 0 0 0 0 0 -225 -225 -225 -225 -225 -225 -225 -225 -225 -225 -225 -225 -225 -225 -225 -225 -225 -225 -225 -225 -225 -225 -225 -225 -225 -225 -225 -225 -225 -225 -225 -225 -225 -225 -225 -225 -225 -225 -225 -225 -225 -225 -225 -225 -225 -225 -225 -225 -225 -225 -225 -225 -225 -225 -225 -225 -225 -225 -225 -225 -225 -225 -225 -225 -225 -225 -225 -225 -225 -225 -225 -225 -225 -225 -225 -225 -225 -225 -225 -225 -225 -225 -225 -225 -225 -225 -225 -225 -225 -225 -225 -225 -225 -225 -225 -225 -225 -225 -225 -225 -225 -225 -225 -225 -225 -225 -225 -225 -225 -225 -225 -225 -225 -225 -225 -225 -225 -225 -225 -225 -225 -225 -225 -225 -225 -225 -225 -225 -225 -225 -225 -225 -225 -225 -225 -225 -225 -225 -225 -225 -225 -225 -225 -225 -225 -225 -225 -225 -225 -225 -225 -225 -225 -225 -225 -225 -225 -225 -225 -225 -225 -225 -225 -225 -225 -225 -209 0 0 0 0 14 -209 -177 -177 -209 -193 -177 -193 129 128 -193 125 125 127 126 124 123 -209 -209 -209 -209 -209 -209 -209 -209 108 111 112 114 111 109 114 116 118 119 120 120 121 121 120 120 121 108 109 107 104 106 106 105 104 103 104 104 105 106 108 108 109 113 116 117 118 117 118 118 120 121 122 124 124 125 127 135 137 138 0 0 0 0 0</data></disparity>
</opencv_storage>
