<?xml version="1.0"?>
<opencv_storage>
<gps_time_stamp>282424</gps_time_stamp>
<gps_x>-1.3973894119262695e+001</gps_x>
<gps_y>1.1284299850463867e+001</gps_y>
<gps_z>-2.3082704544067383e+000</gps_z>
<image_time_stamp>273257</image_time_stamp>
<disparity type_id="opencv-matrix">
  <rows>92</rows>
  <cols>320</cols>
  <dt>s</dt>
  <data>
    0 0 0 0 0 0 0 0 0 0 0 0 0 0 0 0 0 0 0 0 0 0 0 0 0 0 0 0 0 0 0 0 0 0 0 0 0 0 0 0 0 0 0 0 0 0 0 0 0 0 0 0 0 0 0 0 0 0 0 0 0 0 0 0 0 0 0 0 0 32 34 35 35 35 34 35 34 33 35 34 35 33 35 33 34 35 34 35 34 35 34 32 37 32 31 32 33 31 30 31 31 27 30 32 28 26 24 24 25 27 29 35 -193 -209 -209 -209 -209 -209 -209 -193 -209 -209 38 41 -209 -209 -193 44 49 46 32 37 32 33 35 34 33 32 31 32 28 31 30 25 25 24 30 36 35 36 36 35 37 38 38 29 23 23 21 23 24 30 28 30 31 30 30 31 30 30 26 26 22 23 25 25 25 36 32 33 36 36 36 34 35 35 30 40 41 37 43 48 -209 -209 -209 -209 -209 -209 44 43 43 -193 -193 -209 -193 -193 -209 -193 -193 40 35 38 35 35 37 36 35 35 33 36 32 37 36 29 34 31 30 24 25 25 -209 -193 -193 -209 -193 -193 35 -193 -209 -209 -209 -209 -209 -209 -209 -209 -209 -209 -209 -209 -209 -209 -209 -209 38 39 40 44 42 42 43 43 43 46 49 47 46 49 47 47 48 47 47 46 47 47 46 48 48 46 49 48 51 52 48 56 58 59 60 59 60 60 60 61 60 60 60 61 69 65 61 62 66 64 63 63 65 63 63 66 66 64 66 67 68 0 0 0 0 0
    0 0 0 0 0 0 0 0 0 0 0 0 0 0 0 0 0 0 0 0 0 0 0 0 0 0 0 0 0 0 0 0 0 0 0 0 0 0 0 0 0 0 0 0 0 0 0 0 0 0 0 0 0 0 0 0 0 0 0 0 0 0 0 0 0 0 0 0 0 32 33 35 35 34 34 35 34 34 34 34 34 33 35 33 34 35 34 35 35 35 34 32 37 32 32 32 33 32 31 32 31 27 30 31 27 25 22 23 24 27 30 36 -193 -193 -209 -193 -193 -193 -193 35 -193 37 37 -209 -209 -209 -209 -193 48 45 29 -193 30 32 34 33 33 31 30 32 27 31 30 24 25 25 30 35 35 36 36 35 37 39 38 28 23 23 21 24 24 29 27 30 31 30 30 32 30 30 26 26 22 23 26 26 26 35 32 33 36 36 36 35 35 35 29 40 40 35 42 45 -209 -209 46 -209 -209 40 44 42 42 41 42 42 44 -209 -209 41 39 40 35 38 35 36 37 36 36 36 34 37 32 38 37 29 34 34 34 24 24 -193 -209 -209 -193 -193 -209 30 -193 -193 -209 -209 -209 -209 -209 -209 -209 -209 -209 -209 -209 -209 -193 -193 58 -209 38 39 40 44 42 42 43 43 44 46 49 46 46 49 47 47 48 47 47 46 48 48 46 48 49 47 50 49 52 53 50 57 58 59 60 59 59 59 59 59 59 59 60 61 69 65 61 62 66 64 63 63 65 63 63 66 66 64 66 67 68 0 0 0 0 0
    0 0 0 0 0 0 0 0 0 0 0 0 0 0 0 0 0 0 0 0 0 0 0 0 0 0 0 0 0 0 0 0 0 0 0 0 0 0 0 0 0 0 0 0 0 0 0 0 0 0 0 0 0 0 0 0 0 0 0 0 0 0 0 0 0 0 0 0 0 32 33 35 35 35 34 35 35 34 34 34 34 33 35 33 34 35 35 35 35 35 34 32 37 32 32 32 33 32 31 32 32 27 31 32 26 25 22 22 25 29 36 40 -193 -193 -209 -193 -209 -193 -193 -193 -193 36 -193 -209 -209 -209 -209 -193 42 -209 26 34 29 31 33 33 32 -193 31 32 27 31 29 24 25 25 30 34 35 36 35 34 37 39 37 26 23 22 21 24 24 28 27 29 30 30 30 32 30 30 27 26 23 23 -193 -193 26 34 31 32 36 36 36 34 35 35 29 39 39 33 41 43 -209 -193 42 -209 44 40 43 42 41 41 41 -209 -209 -209 -209 39 37 40 35 38 35 36 37 37 36 36 -193 -193 33 38 38 29 35 36 37 -193 -193 -193 -209 -193 -193 -193 -209 31 -193 -209 -193 -209 -209 -193 -209 -193 -209 -209 -209 -209 -209 -193 62 63 53 44 39 40 41 44 43 43 43 44 44 46 48 46 46 49 47 46 47 46 47 46 48 47 46 49 50 48 51 50 53 54 52 57 58 58 58 58 58 58 57 58 58 58 60 61 70 65 61 63 67 64 63 63 65 63 63 66 66 64 66 68 68 0 0 0 0 0
    0 0 0 0 0 0 0 0 0 0 0 0 0 0 0 0 0 0 0 0 0 0 0 0 0 0 0 0 0 0 0 0 0 0 0 0 0 0 0 0 0 0 0 0 0 0 0 0 0 0 0 0 0 0 0 0 0 0 0 0 0 0 0 0 0 0 0 0 0 33 33 35 36 35 34 35 34 34 34 34 34 33 35 33 34 36 35 35 35 35 34 32 37 32 32 33 33 32 32 33 32 27 32 32 27 27 25 24 27 31 38 42 -193 41 -193 -193 -193 -193 -193 -193 33 35 -193 33 -209 -209 -209 -193 38 -209 24 32 28 30 -193 -193 -193 -193 31 33 27 31 28 24 25 24 30 32 34 36 35 34 37 39 38 25 23 22 21 24 24 28 26 29 30 29 30 32 30 30 27 26 23 23 -193 -193 -193 33 31 31 35 36 35 33 35 35 29 38 38 31 38 -193 -193 -209 -209 -209 -209 39 42 41 40 40 40 -209 -209 42 42 39 38 41 36 39 36 37 38 37 37 37 -177 -177 34 39 38 29 36 37 39 27 37 28 -209 -209 -193 -209 -209 34 -193 -193 -193 40 -193 43 -193 -193 -209 -209 -209 -209 -209 65 64 64 54 -193 40 40 42 44 43 43 43 44 45 46 47 46 47 49 47 46 47 46 46 47 48 47 46 49 50 48 51 51 53 54 53 57 57 58 57 57 57 58 56 57 58 58 60 61 70 64 61 63 67 65 63 63 65 63 64 66 66 65 67 68 68 0 0 0 0 0
    0 0 0 0 0 0 0 0 0 0 0 0 0 0 0 0 0 0 0 0 0 0 0 0 0 0 0 0 0 0 0 0 0 0 0 0 0 0 0 0 0 0 0 0 0 0 0 0 0 0 0 0 0 0 0 0 0 0 0 0 0 0 0 0 0 0 0 0 0 32 32 35 35 35 35 36 35 35 34 34 34 32 35 32 34 36 35 35 35 35 35 32 38 33 32 33 34 32 32 33 32 27 31 32 27 26 23 22 24 -193 35 42 39 40 39 39 40 -209 -193 -193 33 36 -193 34 -193 -209 -209 -209 37 -193 24 30 27 29 -193 -193 -193 -193 31 33 27 31 27 24 25 24 30 32 34 35 35 34 37 39 38 23 23 21 21 -193 24 27 26 29 30 29 30 32 29 30 27 26 23 23 -193 26 -193 33 31 31 35 36 35 33 35 35 29 38 37 30 35 37 35 -209 43 -209 -209 -209 -193 -193 39 40 40 -193 41 42 41 38 39 43 37 40 37 38 39 38 38 38 -177 -177 35 39 39 29 36 37 36 28 32 29 -209 -209 -209 -209 -209 -209 -209 -209 -209 -209 -209 -209 -193 -193 -209 -209 -209 -209 -209 65 63 63 46 -193 40 41 43 44 43 43 44 45 45 46 46 45 47 49 47 46 47 46 46 47 48 47 46 49 50 49 52 51 53 54 54 56 57 57 56 56 56 57 55 57 57 57 61 62 70 64 61 63 67 65 64 63 65 64 64 66 66 65 67 68 68 0 0 0 0 0
    0 0 0 0 0 0 0 0 0 0 0 0 0 0 0 0 0 0 0 0 0 0 0 0 0 0 0 0 0 0 0 0 0 0 0 0 0 0 0 0 0 0 0 0 0 0 0 0 0 0 0 0 0 0 0 0 0 0 0 0 0 0 0 0 0 0 0 0 0 32 31 34 35 36 36 36 34 35 33 33 34 32 35 32 34 35 35 35 35 35 35 33 39 33 33 34 34 33 32 33 32 27 31 31 26 24 21 20 20 22 27 39 36 37 37 37 39 38 -193 35 35 38 -193 39 -209 -209 45 43 37 23 24 29 27 28 -177 -193 -193 -177 31 32 27 32 26 24 24 24 29 30 33 33 34 32 36 39 38 23 23 21 21 -209 24 27 26 29 30 29 30 32 29 30 27 26 23 23 -193 27 -193 33 32 32 35 36 36 33 36 35 29 37 37 30 34 36 35 -209 51 61 -209 -209 -209 -209 39 39 40 39 39 41 40 37 39 44 38 41 39 39 40 39 39 39 -177 -177 36 40 40 30 38 38 36 -209 -209 -209 -209 -209 -209 -209 -209 -209 -209 -209 53 -209 -209 43 41 40 48 -209 -209 -209 -209 -193 -193 -193 41 40 40 41 43 43 43 43 44 45 45 45 45 44 47 49 47 46 47 45 47 47 48 47 46 50 50 49 52 51 53 53 53 56 56 56 55 55 56 56 55 57 57 57 60 62 69 64 61 63 67 65 64 64 66 64 64 66 66 65 67 68 68 0 0 0 0 0
    0 0 0 0 0 0 0 0 0 0 0 0 0 0 0 0 0 0 0 0 0 0 0 0 0 0 0 0 0 0 0 0 0 0 0 0 0 0 0 0 0 0 0 0 0 0 0 0 0 0 0 0 0 0 0 0 0 0 0 0 0 0 0 0 0 0 0 0 0 33 31 36 -193 -193 -193 39 35 35 31 -193 33 31 33 31 33 35 35 35 36 37 36 34 39 33 33 34 34 33 32 33 32 27 31 31 27 26 -193 -193 21 23 -209 -209 32 34 35 36 38 37 36 34 35 -193 -209 -193 38 -209 43 42 37 24 24 28 27 28 -177 -193 -177 -177 31 32 28 35 28 24 24 24 29 29 31 31 32 30 35 39 37 22 23 22 21 -209 24 27 26 29 30 29 30 32 29 30 27 26 23 23 -193 27 -193 34 32 32 35 36 36 33 36 35 29 37 37 32 37 39 38 -209 51 59 -209 -209 -209 -209 39 39 40 40 39 41 39 39 39 46 40 42 40 40 41 40 40 40 -177 -177 36 40 40 30 38 39 37 -209 -209 -209 -209 -193 -193 -193 67 65 63 60 57 55 51 45 40 40 45 -193 45 -209 -209 -209 -209 47 41 40 41 42 43 43 43 43 44 46 46 45 44 43 48 49 47 46 46 46 47 48 49 47 47 50 51 50 52 51 53 53 53 55 55 55 54 54 54 55 54 55 57 57 60 62 69 64 61 64 67 66 64 64 66 64 64 66 66 65 66 68 68 0 0 0 0 0
    0 0 0 0 0 0 0 0 0 0 0 0 0 0 0 0 0 0 0 0 0 0 0 0 0 0 0 0 0 0 0 0 0 0 0 0 0 0 0 0 0 0 0 0 0 0 0 0 0 0 0 0 0 0 0 0 0 0 0 0 0 0 0 0 0 0 0 0 0 37 35 -193 -209 45 43 40 -209 -193 -209 -193 30 30 32 30 32 35 -193 35 -193 -193 -193 -193 -193 -193 33 -193 -193 -193 32 33 32 28 32 33 28 28 -209 -209 -209 -209 -209 -209 -209 33 35 35 37 36 35 34 36 -209 -209 -193 38 -193 -193 -209 37 -193 26 28 27 29 655 654 653 -177 33 33 29 39 32 25 25 24 29 28 29 29 30 29 33 38 34 22 23 22 22 -193 24 27 26 29 30 29 30 32 30 31 27 28 24 24 29 28 28 35 32 32 35 36 36 33 35 35 28 37 37 32 37 39 41 -209 47 -193 -209 -209 -209 -209 40 40 41 41 41 43 42 42 42 49 42 44 41 41 42 41 41 41 -177 -177 36 40 40 30 38 40 41 42 46 53 -193 -193 -193 64 66 65 65 63 60 58 51 -193 38 39 42 41 44 39 -193 45 48 43 40 40 42 42 43 43 43 42 44 46 46 45 44 44 49 48 47 46 46 46 47 48 49 47 47 50 51 50 52 51 53 52 53 55 54 54 53 54 53 54 52 55 56 57 60 64 70 65 62 65 67 66 65 64 66 64 64 66 66 65 65 67 67 0 0 0 0 0
    0 0 0 0 0 0 0 0 0 0 0 0 0 0 0 0 0 0 0 0 0 0 0 0 0 0 0 0 0 0 0 0 0 0 0 0 0 0 0 0 0 0 0 0 0 0 0 0 0 0 0 0 0 0 0 0 0 0 0 0 0 0 0 0 0 0 0 0 0 36 34 39 -209 -193 -209 -209 -209 -209 -193 -209 31 30 31 30 31 33 -193 -193 -193 311 313 -193 -193 -193 -193 -193 -177 -177 31 33 33 28 34 34 29 30 30 -193 -209 -209 -209 -209 -209 -193 -193 -209 -209 -209 -209 37 39 -193 44 42 38 -193 -193 -209 37 -193 27 29 28 30 654 653 653 -177 34 35 34 41 41 27 26 25 29 28 28 28 29 28 32 36 32 23 24 23 23 25 25 28 26 29 31 30 31 33 31 33 29 31 26 25 32 30 30 36 33 33 35 36 36 33 35 34 28 36 36 31 36 39 42 -209 52 56 -193 -193 -209 -209 -193 41 42 42 41 42 42 42 42 49 43 45 42 42 43 42 41 42 -177 -193 36 40 40 30 38 41 44 49 51 56 58 60 64 64 65 64 65 63 61 58 -193 39 38 39 41 40 46 42 42 44 46 41 40 40 41 41 41 42 42 42 43 45 45 44 43 44 48 48 47 46 47 46 47 48 50 47 47 50 51 49 52 51 52 52 54 54 52 53 52 53 53 54 52 54 57 58 62 65 69 66 62 66 68 67 65 64 66 65 64 66 66 65 65 66 66 0 0 0 0 0
    0 0 0 0 0 0 0 0 0 0 0 0 0 0 0 0 0 0 0 0 0 0 0 0 0 0 0 0 0 0 0 0 0 0 0 0 0 0 0 0 0 0 0 0 0 0 0 0 0 0 0 0 0 0 0 0 0 0 0 0 0 0 0 0 0 0 0 0 0 34 30 -209 -209 -209 -209 -209 -209 -209 -209 -209 -209 30 30 29 30 -193 -193 -193 -193 312 313 -193 -193 -193 -193 -193 -177 -177 -193 33 33 28 34 34 29 31 -209 -193 -209 -209 -209 -209 -209 -209 -209 -209 -209 -209 -209 -209 -193 -193 44 43 40 40 40 -209 39 -193 30 30 29 30 -193 -193 -193 -193 34 35 37 42 41 32 28 28 31 29 28 28 29 28 31 34 31 25 27 24 24 27 26 29 27 30 31 31 32 34 32 34 30 33 29 29 35 32 32 37 34 33 35 35 35 32 34 34 27 34 35 31 35 37 41 -209 53 56 -193 -209 -209 -209 -193 41 42 42 41 42 42 42 42 49 43 46 43 43 44 42 42 42 -177 -193 37 40 41 32 41 46 52 57 56 59 60 62 65 64 65 64 65 63 60 58 -193 38 37 38 40 41 46 43 42 42 45 41 40 40 41 40 41 41 41 41 42 44 44 44 43 44 48 49 47 46 47 47 47 48 50 47 47 50 51 49 52 50 52 52 54 54 52 53 52 53 52 54 52 55 57 58 62 65 68 65 62 67 68 67 66 65 67 65 65 66 66 65 64 65 66 0 0 0 0 0
    0 0 0 0 0 0 0 0 0 0 0 0 0 0 0 0 0 0 0 0 0 0 0 0 0 0 0 0 0 0 0 0 0 0 0 0 0 0 0 0 0 0 0 0 0 0 0 0 0 0 0 0 0 0 0 0 0 0 0 0 0 0 0 0 0 0 0 0 0 36 -193 -209 -209 -209 -193 -209 -209 -209 -193 -209 -177 30 -193 29 31 -193 -193 33 37 -209 -209 -193 -193 -193 -193 -193 -177 -177 -193 33 33 28 35 35 -193 -209 -209 -209 -209 -193 -209 -209 -193 -209 -209 -209 -209 -209 -209 -209 43 -193 45 44 43 42 42 -193 40 -193 32 31 30 31 -193 -193 -193 30 34 35 38 41 41 36 32 31 33 32 29 29 29 29 31 32 31 26 29 27 26 28 27 29 28 31 31 31 32 34 32 35 31 34 31 32 37 33 33 38 34 34 35 35 34 32 34 33 27 34 34 31 35 38 43 50 54 56 54 54 52 -209 42 41 41 41 41 41 42 42 42 49 43 47 43 43 45 43 43 43 -193 -193 38 42 43 36 47 54 57 59 59 60 61 62 64 63 64 63 66 65 62 60 -193 37 36 39 40 42 47 44 -193 -193 45 40 40 39 40 40 40 40 40 40 41 43 44 44 44 44 49 49 48 47 48 47 48 48 50 46 46 50 50 49 51 49 51 51 54 54 51 53 52 53 53 55 54 55 57 59 62 65 65 64 61 67 68 68 67 65 67 66 66 66 66 65 64 65 66 0 0 0 0 0
    0 0 0 0 0 0 0 0 0 0 0 0 0 0 0 0 0 0 0 0 0 0 0 0 0 0 0 0 0 0 0 0 0 0 0 0 0 0 0 0 0 0 0 0 0 0 0 0 0 0 0 0 0 0 0 0 0 0 0 0 0 0 0 0 0 0 0 0 0 -193 -193 -193 -193 -209 -209 -209 -209 -209 -209 -209 -177 -193 -209 -209 -209 -209 -209 -209 -209 -209 -209 -193 -177 -193 -193 -193 -177 -177 -193 34 34 28 36 36 -193 -209 -209 -209 -209 591 596 -209 -209 -209 -209 -209 -209 -209 -209 -209 43 -193 46 46 45 47 44 50 40 32 34 32 31 32 33 33 32 30 35 35 38 41 39 37 35 34 35 34 30 30 30 30 31 31 32 27 30 30 29 30 29 31 30 32 32 31 32 34 32 35 31 35 33 36 39 35 35 39 35 35 35 35 35 32 34 33 27 34 35 32 37 38 43 50 54 55 54 55 51 42 42 41 41 41 40 41 42 41 42 48 43 47 44 43 45 44 43 43 42 43 40 43 47 40 55 58 60 62 62 62 63 63 66 64 64 64 67 66 64 63 59 35 36 40 42 45 49 47 45 -193 49 40 40 39 40 39 39 40 40 39 41 42 43 44 44 45 50 49 48 47 48 47 48 48 50 47 46 50 50 48 50 49 51 51 54 54 52 53 53 54 54 55 54 56 57 59 62 64 62 63 61 67 68 69 67 66 68 67 66 67 67 66 64 65 65 0 0 0 0 0
    0 0 0 0 0 0 0 0 0 0 0 0 0 0 0 0 0 0 0 0 0 0 0 0 0 0 0 0 0 0 0 0 0 0 0 0 0 0 0 0 0 0 0 0 0 0 0 0 0 0 0 0 0 0 0 0 0 0 0 0 0 0 0 0 0 0 0 0 0 32 -209 -209 -209 -209 -209 -209 -209 -209 -209 -193 -177 -209 -193 -177 -193 -209 -209 -209 -209 -209 -209 -177 -177 -193 -193 -193 -177 -177 -193 34 34 28 37 37 -209 -209 -209 -193 -209 589 592 -209 -209 -209 -209 -209 -209 -209 -209 37 40 41 43 41 41 -193 39 45 40 34 35 34 33 33 34 34 33 30 35 34 37 40 38 36 35 34 35 34 30 30 30 30 31 30 32 29 31 33 33 32 31 33 33 33 33 32 33 35 33 37 33 37 37 39 41 37 37 39 35 35 36 35 35 32 34 33 27 35 35 32 38 39 45 53 54 57 -193 58 54 -193 42 41 41 41 41 41 42 42 42 46 42 47 44 43 45 44 44 44 43 44 41 45 51 42 58 62 63 64 64 65 64 64 67 65 65 65 68 68 66 64 60 33 33 40 42 46 49 47 46 40 48 -193 40 39 39 39 39 39 39 38 40 40 42 44 44 45 50 49 48 47 48 47 48 48 50 47 46 50 50 49 50 49 51 50 54 54 51 53 54 55 56 57 57 59 61 63 66 68 63 63 61 68 68 70 68 66 68 67 67 67 67 66 64 64 65 0 0 0 0 0
    0 0 0 0 0 0 0 0 0 0 0 0 0 0 0 0 0 0 0 0 0 0 0 0 0 0 0 0 0 0 0 0 0 0 0 0 0 0 0 0 0 0 0 0 0 0 0 0 0 0 0 0 0 0 0 0 0 0 0 0 0 0 0 0 0 0 0 0 0 -193 -209 -209 -209 -209 -209 -209 -209 -209 -209 -209 -177 -209 -209 -209 -209 -209 -209 -209 -209 -193 -209 -177 -177 33 -193 -193 -177 -177 -193 34 34 -193 -193 36 -193 -209 -209 -209 -193 -209 589 -209 -209 -209 -209 -209 -209 -209 -209 36 39 39 40 39 37 37 38 43 41 34 36 35 34 34 35 -193 34 31 36 34 37 40 38 36 34 34 33 34 29 29 29 28 29 29 30 30 31 34 35 33 33 34 36 35 36 35 35 35 35 38 35 37 41 42 43 38 39 39 36 36 36 36 35 33 35 33 28 37 37 35 42 44 48 54 54 57 -193 59 -209 37 -193 38 41 40 41 41 42 41 42 43 41 46 43 43 45 44 44 44 44 45 42 49 54 51 59 65 64 65 65 65 64 65 67 65 65 65 68 68 67 65 60 -193 35 41 -209 45 49 48 47 44 50 46 42 40 40 38 38 38 38 37 38 39 40 44 44 46 50 50 48 48 48 47 48 48 50 47 47 50 50 49 50 49 51 51 54 54 52 54 55 57 58 60 61 62 66 67 68 69 64 64 61 65 68 70 68 66 68 67 67 67 67 66 64 64 65 0 0 0 0 0
    0 0 0 0 0 0 0 0 0 0 0 0 0 0 0 0 0 0 0 0 0 0 0 0 0 0 0 0 0 0 0 0 0 0 0 0 0 0 0 0 0 0 0 0 0 0 0 0 0 0 0 0 0 0 0 0 0 0 0 0 0 0 0 0 0 0 0 0 0 -193 -209 -209 -209 -209 -209 -193 -209 -209 -209 -209 -209 -209 -209 -209 -209 -209 -209 -209 -193 -209 -193 -193 -193 33 33 35 -193 -193 29 33 34 -193 -193 -193 501 -209 -209 -209 -209 -209 587 -209 -209 -209 -209 -209 -209 -209 -209 37 39 39 39 38 38 38 38 41 41 36 37 36 35 36 36 -193 35 32 37 35 38 40 38 36 35 34 33 34 30 31 30 30 30 29 31 30 31 34 34 33 34 35 37 36 37 37 37 37 38 38 37 37 41 43 43 38 39 38 34 35 35 35 34 32 34 32 28 39 38 35 -193 41 44 48 52 -209 52 -209 -209 36 38 35 38 39 40 40 42 41 42 41 40 46 43 43 45 44 44 43 44 46 43 51 55 54 61 66 65 65 64 65 63 64 66 64 64 64 68 69 67 66 60 34 35 43 -209 46 49 51 50 49 53 -193 46 44 42 39 38 38 38 36 37 38 40 46 46 47 51 51 49 48 49 48 48 49 50 48 47 51 51 50 51 50 52 52 54 55 52 55 56 60 61 63 65 66 67 68 69 69 65 66 61 62 66 70 68 66 68 67 67 68 67 66 65 65 65 0 0 0 0 0
    0 0 0 0 0 0 0 0 0 0 0 0 0 0 0 0 0 0 0 0 0 0 0 0 0 0 0 0 0 0 0 0 0 0 0 0 0 0 0 0 0 0 0 0 0 0 0 0 0 0 0 0 0 0 0 0 0 0 0 0 0 0 0 0 0 0 0 0 0 -209 -209 -209 -209 -209 -209 -209 -209 -209 -209 -209 -209 -209 -209 -209 -209 -209 -209 -209 -209 -209 -193 -193 -193 33 33 35 33 31 29 33 34 -193 -193 35 -193 -209 -209 -209 -209 -209 -193 -209 -209 -209 -193 -209 -209 -209 38 38 39 39 39 38 39 39 39 40 40 36 37 36 36 36 36 -193 35 33 37 34 38 40 38 36 36 36 35 36 34 34 32 32 32 31 31 31 31 33 34 33 34 34 36 36 37 37 38 38 38 38 38 39 41 43 44 38 40 38 35 36 36 35 34 33 34 32 30 38 36 35 36 38 40 43 44 44 44 -193 41 40 42 38 40 39 40 40 42 41 42 39 40 45 43 43 45 43 43 43 45 47 43 54 56 57 62 67 66 65 64 65 63 65 66 63 64 64 68 70 68 67 -193 29 -209 -209 -209 -193 -193 -193 -193 -193 -193 -193 -209 49 -209 -209 37 36 -193 33 34 35 39 -193 48 50 52 52 50 49 50 49 49 49 50 48 48 51 51 51 52 51 53 53 55 55 54 56 58 63 63 66 68 68 69 69 70 70 66 67 62 61 62 69 68 66 68 67 67 68 68 67 65 65 66 0 0 0 0 0
    0 0 0 0 0 0 0 0 0 0 0 0 0 0 0 0 0 0 0 0 0 0 0 0 0 0 0 0 0 0 0 0 0 0 0 0 0 0 0 0 0 0 0 0 0 0 0 0 0 0 0 0 0 0 0 0 0 0 0 0 0 0 0 0 0 0 0 0 0 -209 -209 -209 -209 -209 -209 -209 -209 30 -193 -209 -209 -193 -209 -209 -209 -209 -209 -209 -209 -209 -193 -193 -193 33 33 34 33 31 29 33 33 -193 -193 34 -209 -209 -209 -209 -209 -209 -209 -209 -209 -209 -193 -209 -209 -209 39 38 39 38 38 38 38 38 38 39 40 36 37 37 36 36 37 36 36 33 37 35 38 41 39 38 38 38 37 38 37 36 35 35 35 34 32 33 32 33 34 33 35 34 36 36 37 37 38 38 39 38 39 40 42 46 46 40 41 38 35 36 36 36 34 33 34 33 32 37 35 36 36 38 39 42 43 44 44 43 44 42 43 39 41 39 38 38 41 39 41 38 39 44 43 43 45 44 44 44 46 49 45 56 58 59 64 66 66 65 65 65 63 65 66 62 64 64 68 70 68 67 -209 28 -209 -209 -209 -193 -193 -193 -209 -209 -193 -193 -193 -209 -209 -209 -209 -209 -209 -193 -193 -193 -193 -193 -193 53 54 54 52 51 51 50 51 50 51 49 49 52 52 51 52 52 54 54 56 57 56 58 60 66 67 69 70 70 69 70 70 70 68 69 62 61 61 69 68 67 68 67 67 68 68 67 65 65 66 0 0 0 0 0
    0 0 0 0 0 0 0 0 0 0 0 0 0 0 0 0 0 0 0 0 0 0 0 0 0 0 0 0 0 0 0 0 0 0 0 0 0 0 0 0 0 0 0 0 0 0 0 0 0 0 0 0 0 0 0 0 0 0 0 0 0 0 0 0 0 0 0 0 0 -209 -209 -209 -209 -209 -209 -193 -209 -193 -193 -209 -209 -209 -209 -209 -209 -209 -209 -209 -209 -209 -193 -193 -193 33 33 34 33 31 29 33 33 28 34 34 -209 -209 -209 -209 -209 -209 -209 -193 -209 -209 -209 -209 -209 38 37 36 38 37 37 38 39 39 39 40 41 38 38 38 37 37 37 37 -193 34 37 35 38 41 40 39 39 39 38 39 38 38 37 36 36 35 33 34 33 33 34 33 35 34 36 36 37 37 38 38 40 39 41 42 43 48 49 41 42 38 36 37 36 36 34 34 34 33 33 36 34 36 35 38 37 42 42 44 44 44 44 42 42 38 37 35 36 35 37 37 40 38 39 45 43 43 45 44 45 45 47 51 48 58 60 60 65 66 66 65 65 65 63 64 65 61 64 62 68 71 69 69 -193 28 -209 -209 -209 -193 -193 130 -209 -209 -193 -193 -193 -209 -209 -209 -209 -193 -193 80 -209 -193 -209 -209 -193 58 57 57 56 55 55 54 55 52 52 50 50 52 53 53 53 53 55 55 59 61 60 61 63 67 67 69 70 70 69 70 70 70 68 69 61 60 59 68 68 67 68 67 67 68 68 67 66 66 66 0 0 0 0 0
    0 0 0 0 0 0 0 0 0 0 0 0 0 0 0 0 0 0 0 0 0 0 0 0 0 0 0 0 0 0 0 0 0 0 0 0 0 0 0 0 0 0 0 0 0 0 0 0 0 0 0 0 0 0 0 0 0 0 0 0 0 0 0 0 0 0 0 0 0 -209 -209 -209 -209 -209 -209 -193 -209 -193 -209 -209 -209 -209 -209 -209 -209 -209 -193 -193 -193 -209 -193 -193 -193 33 33 34 33 31 29 33 33 28 34 34 -193 -209 -209 -209 -209 -193 -193 -193 -193 -193 -193 -209 -209 37 37 36 37 38 37 38 38 38 38 39 40 37 38 38 37 37 37 -193 -193 -193 -193 35 38 41 41 40 39 39 38 39 38 38 37 36 37 35 33 35 32 34 34 33 35 34 36 37 38 38 39 40 41 40 42 44 43 49 51 42 42 37 36 38 37 37 35 35 35 34 35 37 35 36 35 38 38 41 41 43 43 43 44 43 43 39 38 35 36 36 38 38 40 37 39 45 43 44 46 45 46 46 49 52 51 58 61 60 66 66 66 65 65 65 63 64 65 61 64 62 67 70 69 70 -209 -209 -209 -209 -209 -193 -193 -193 -209 -209 -193 -209 -209 -209 -209 -209 -209 -209 -209 -193 -209 -193 -209 -209 62 64 64 64 64 63 63 -193 -209 -209 -209 43 45 52 54 54 54 55 58 60 67 65 64 64 65 67 67 68 69 68 69 70 69 69 68 69 61 60 58 67 68 67 68 67 67 68 68 68 66 66 67 0 0 0 0 0
    0 0 0 0 0 0 0 0 0 0 0 0 0 0 0 0 0 0 0 0 0 0 0 0 0 0 0 0 0 0 0 0 0 0 0 0 0 0 0 0 0 0 0 0 0 0 0 0 0 0 0 0 0 0 0 0 0 0 0 0 0 0 0 0 0 0 0 0 0 -209 -209 -209 -193 -209 -209 32 32 36 -209 -209 -209 -209 -209 -209 -209 -209 -177 -193 -193 -209 -193 -193 37 33 34 35 33 31 29 34 33 28 34 34 -209 -209 -209 -209 -193 -209 -193 -193 -193 -193 -209 -193 39 38 37 36 37 37 37 38 38 37 38 38 39 37 38 37 37 37 37 37 -193 35 38 34 36 40 40 -209 39 -209 39 40 39 38 37 37 37 35 34 35 32 34 34 34 36 35 37 38 39 39 40 41 42 41 42 44 43 47 51 42 42 37 36 38 37 38 36 36 36 35 37 38 36 38 36 39 39 41 41 43 43 43 43 44 44 40 41 37 39 39 41 39 40 38 40 45 44 45 47 46 47 47 50 53 53 59 61 60 66 65 66 65 65 65 63 64 65 61 64 63 66 70 69 70 69 -193 -193 -193 71 69 66 67 -193 -193 -193 -209 -209 -209 -209 -209 -209 -209 -193 -209 -209 -209 -209 -193 63 65 64 65 64 64 63 -193 -209 -209 -209 -209 -209 -209 -209 62 66 61 70 68 71 68 67 67 67 67 67 68 68 67 69 69 68 69 68 69 61 60 57 67 68 67 69 67 68 68 69 68 67 66 67 0 0 0 0 0
    0 0 0 0 0 0 0 0 0 0 0 0 0 0 0 0 0 0 0 0 0 0 0 0 0 0 0 0 0 0 0 0 0 0 0 0 0 0 0 0 0 0 0 0 0 0 0 0 0 0 0 0 0 0 0 0 0 0 0 0 0 0 0 0 0 0 0 0 0 -209 -209 -209 -193 -209 27 34 35 37 -209 -209 -209 -209 -209 -209 -209 -209 -193 -193 196 -209 34 36 36 34 34 35 33 32 30 34 33 29 34 35 -209 -209 47 48 50 53 -209 -193 -193 49 46 41 40 38 38 36 37 37 37 38 38 38 37 38 39 37 38 37 36 37 37 37 36 34 37 32 36 39 39 -209 -209 -193 40 41 39 39 38 37 38 36 34 35 32 35 34 35 37 36 37 -193 -193 -193 41 41 42 -193 42 44 -193 45 52 -193 43 36 37 39 38 -193 36 36 36 36 38 38 37 38 36 39 38 41 41 42 42 43 42 44 44 41 42 38 41 41 42 40 40 38 40 46 45 46 48 47 48 49 52 54 55 60 61 61 66 65 65 65 65 65 63 65 65 61 65 64 67 71 70 71 70 -193 -193 -193 70 69 -193 -193 -193 -193 -193 -193 -193 -193 -209 -209 -193 -193 -193 -193 -193 -193 -193 66 65 65 64 66 66 67 65 66 -193 68 63 65 61 61 64 65 -193 66 -193 -209 72 69 68 68 68 68 67 67 68 66 69 70 69 69 69 71 64 60 58 67 68 67 69 67 68 68 69 68 67 67 68 0 0 0 0 0
    0 0 0 0 0 0 0 0 0 0 0 0 0 0 0 0 0 0 0 0 0 0 0 0 0 0 0 0 0 0 0 0 0 0 0 0 0 0 0 0 0 0 0 0 0 0 0 0 0 0 0 0 0 0 0 0 0 0 0 0 0 0 0 0 0 0 0 0 0 -209 36 -209 -193 -209 34 37 38 39 -209 -209 -209 -209 -209 -209 -209 -209 -193 -193 -193 -209 34 36 37 34 34 35 34 32 30 34 32 29 34 34 29 39 46 45 48 52 50 54 47 46 44 40 40 38 38 36 38 37 38 38 37 38 37 38 39 36 38 36 35 36 36 36 35 33 36 30 36 38 39 39 40 42 40 41 39 38 38 37 38 37 33 35 32 36 34 35 37 36 37 -193 -193 -209 -209 -193 42 -209 42 43 -193 -193 -193 -193 43 37 37 39 38 -193 37 37 37 36 39 39 38 39 38 39 39 41 41 42 42 43 42 44 44 41 41 37 39 37 40 39 40 40 42 48 46 48 50 49 50 51 53 55 56 61 61 62 67 65 65 65 64 64 63 65 65 61 65 64 66 70 68 70 70 70 71 71 -193 -193 -193 -193 -193 -193 -193 -193 -193 -193 -193 66 68 68 68 67 67 67 65 66 67 66 65 66 67 69 67 -193 -193 -193 66 67 -193 63 64 66 68 67 -193 -193 72 69 69 69 69 68 67 67 68 65 68 69 68 68 68 72 64 61 59 66 68 67 69 67 67 68 69 68 67 67 69 0 0 0 0 0
    0 0 0 0 0 0 0 0 0 0 0 0 0 0 0 0 0 0 0 0 0 0 0 0 0 0 0 0 0 0 0 0 0 0 0 0 0 0 0 0 0 0 0 0 0 0 0 0 0 0 0 0 0 0 0 0 0 0 0 0 0 0 0 0 0 0 0 0 0 32 34 34 32 32 28 32 33 34 -209 -209 -209 -209 -209 -209 -209 -209 -193 -209 -209 40 34 37 36 34 34 35 34 32 31 35 32 30 35 35 30 38 44 44 50 55 51 -193 43 -209 -209 38 38 37 37 37 39 39 39 39 38 38 37 38 39 37 38 36 36 37 36 36 35 33 35 30 36 38 38 39 39 41 40 41 39 39 38 37 38 37 34 35 32 36 35 35 37 35 37 -193 -193 -209 -209 -193 -193 -209 42 42 -193 -193 -193 -193 44 37 38 -193 38 -193 37 37 36 36 38 38 37 39 37 39 38 41 40 41 42 43 42 43 44 41 40 38 38 37 37 40 43 42 44 50 49 51 51 51 52 53 54 56 58 62 62 63 68 65 65 65 64 64 64 65 65 61 65 63 66 70 67 69 70 -193 -193 70 69 68 67 67 67 65 66 -193 64 67 66 66 67 67 67 67 66 66 65 66 66 67 65 66 -193 -193 -193 -193 -193 -193 67 68 -193 66 66 67 69 68 72 -193 72 70 69 70 69 69 68 67 68 64 68 69 67 67 68 72 66 62 61 67 69 68 69 67 67 68 69 68 67 67 69 0 0 0 0 0
    0 0 0 0 0 0 0 0 0 0 0 0 0 0 0 0 0 0 0 0 0 0 0 0 0 0 0 0 0 0 0 0 0 0 0 0 0 0 0 0 0 0 0 0 0 0 0 0 0 0 0 0 0 0 0 0 0 0 0 0 0 0 0 0 0 0 0 0 0 30 32 31 31 30 27 28 28 28 -193 -193 -209 -209 -209 -209 -209 -209 -193 36 -193 38 33 36 35 33 33 35 34 32 31 35 31 32 36 36 30 39 48 -193 -209 -209 -209 -209 -209 -209 -209 -193 36 37 37 38 -209 40 40 40 38 39 37 38 39 37 38 36 35 36 35 36 35 33 35 30 37 38 37 38 39 40 40 40 38 38 37 37 38 38 34 35 33 36 35 35 37 36 36 -193 -193 -193 -193 41 42 39 42 42 38 39 -193 43 45 38 39 40 38 -193 37 37 36 36 38 38 37 39 37 39 38 41 39 41 42 43 42 43 43 42 41 41 41 42 42 43 45 46 47 52 51 52 53 53 53 55 56 58 60 63 63 63 68 65 65 65 64 64 64 65 65 61 65 64 66 69 67 68 70 70 70 69 68 68 67 67 67 65 67 64 66 68 67 67 67 67 67 67 66 67 65 66 67 68 66 66 -193 -193 -193 -193 -193 -193 67 69 -193 67 67 69 69 69 72 71 72 71 70 71 70 69 69 67 69 63 68 68 64 65 69 73 68 65 65 68 69 68 69 67 67 68 68 68 66 66 68 0 0 0 0 0
    0 0 0 0 0 0 0 0 0 0 0 0 0 0 0 0 0 0 0 0 0 0 0 0 0 0 0 0 0 0 0 0 0 0 0 0 0 0 0 0 0 0 0 0 0 0 0 0 0 0 0 0 0 0 0 0 0 0 0 0 0 0 0 0 0 0 0 0 0 30 32 30 31 31 27 -193 -193 28 -193 27 -209 -193 -193 -193 -209 -193 34 31 -193 36 31 35 34 32 32 34 33 32 31 34 30 33 37 37 31 41 50 55 -209 -209 -209 -209 36 -193 -193 -193 36 37 37 38 -193 40 40 40 38 38 37 37 38 36 38 35 35 36 36 36 35 34 35 30 36 37 36 38 38 40 39 40 38 38 37 37 38 38 34 35 32 36 35 36 38 36 37 40 -193 -193 -193 41 42 39 42 42 38 39 -193 43 45 38 39 40 38 39 38 37 37 36 38 38 37 39 37 39 38 40 37 41 41 42 41 43 43 42 41 42 43 44 44 45 45 47 50 53 52 53 54 55 55 56 57 59 61 63 63 63 68 65 65 65 64 64 64 65 65 61 65 64 66 68 67 68 70 69 69 69 68 68 68 67 68 66 67 66 67 69 67 67 67 67 68 68 67 67 66 67 67 68 67 66 66 68 68 68 -193 68 67 69 68 68 68 69 69 70 73 71 72 71 71 71 70 70 69 66 68 59 62 60 58 58 65 71 64 64 67 69 68 68 69 67 66 67 68 67 66 66 68 0 0 0 0 0
    0 0 0 0 0 0 0 0 0 0 0 0 0 0 0 0 0 0 0 0 0 0 0 0 0 0 0 0 0 0 0 0 0 0 0 0 0 0 0 0 0 0 0 0 0 0 0 0 0 0 0 0 0 0 0 0 0 0 0 0 0 0 0 0 0 0 0 0 0 29 30 29 30 29 26 -193 27 27 -193 -193 -209 -193 32 -193 -193 -193 31 28 -193 31 28 34 32 31 31 34 32 31 31 33 29 33 37 37 32 41 47 51 -209 -209 -209 -209 35 35 36 -193 35 36 36 38 40 40 40 41 38 38 38 37 38 36 38 35 35 36 36 36 35 34 35 30 37 37 36 36 38 40 38 39 37 37 36 36 37 37 33 35 32 36 34 36 38 36 37 41 41 41 41 42 42 39 42 42 37 39 48 44 45 38 39 40 39 -193 38 37 37 36 39 39 38 39 38 39 38 39 34 34 36 38 38 40 42 42 41 42 45 44 44 45 45 48 51 53 53 54 55 57 56 58 58 59 61 62 62 62 68 65 65 65 65 64 65 65 65 62 66 64 66 68 67 68 69 68 69 69 68 68 68 67 68 65 68 67 67 69 68 68 68 68 69 68 67 68 67 68 69 69 69 67 67 69 68 68 -193 68 68 69 68 68 69 70 70 70 74 71 72 71 71 71 70 69 68 62 65 55 57 56 56 55 59 65 64 63 67 68 68 67 68 66 66 67 68 67 66 67 69 0 0 0 0 0
    0 0 0 0 0 0 0 0 0 0 0 0 0 0 0 0 0 0 0 0 0 0 0 0 0 0 0 0 0 0 0 0 0 0 0 0 0 0 0 0 0 0 0 0 0 0 0 0 0 0 0 0 0 0 0 0 0 0 0 0 0 0 0 0 0 0 0 0 0 28 29 28 29 27 25 25 -193 25 -193 -193 -193 -193 31 -193 -209 -193 30 27 -193 27 26 31 30 29 30 33 32 31 30 32 28 32 37 36 32 40 43 -209 -209 -209 28 33 34 34 36 -193 -193 37 38 39 40 40 40 40 37 38 37 36 36 35 37 35 34 36 35 35 36 34 35 31 37 38 36 36 38 40 39 39 37 37 37 37 38 38 33 35 31 36 35 36 38 36 36 41 41 41 40 41 41 38 41 40 35 38 49 44 46 39 40 41 39 -193 39 37 37 37 40 40 38 41 39 39 -193 38 32 31 34 36 38 39 41 42 42 43 47 44 44 45 45 48 51 52 53 53 54 57 56 58 58 58 60 60 60 61 67 64 65 65 65 65 66 66 66 62 66 65 66 67 67 67 69 68 68 68 67 68 68 67 67 65 68 67 67 69 68 68 68 68 69 69 68 69 68 69 70 70 70 69 68 70 -193 -193 -193 69 69 70 69 69 69 70 70 71 74 71 72 71 71 70 69 68 66 60 63 55 55 55 56 55 59 66 67 65 68 69 68 67 68 67 66 67 68 67 66 67 69 0 0 0 0 0
    0 0 0 0 0 0 0 0 0 0 0 0 0 0 0 0 0 0 0 0 0 0 0 0 0 0 0 0 0 0 0 0 0 0 0 0 0 0 0 0 0 0 0 0 0 0 0 0 0 0 0 0 0 0 0 0 0 0 0 0 0 0 0 0 0 0 0 0 0 26 27 27 28 26 25 25 24 25 27 26 28 -193 31 -193 -193 29 30 26 -193 -193 25 29 29 28 29 32 31 30 30 31 27 32 36 36 31 38 40 35 -209 13 27 31 34 34 35 -193 -193 37 38 39 40 40 40 40 38 38 37 36 36 35 37 34 34 35 34 35 35 34 34 30 37 38 35 35 37 40 39 40 37 38 38 38 39 39 34 36 34 37 36 37 37 36 36 40 40 40 39 39 40 37 39 39 35 39 50 45 46 40 40 41 39 39 39 37 37 36 39 39 38 41 40 38 38 38 32 32 34 37 38 39 42 43 43 44 48 44 44 44 46 48 51 52 52 53 54 57 56 57 57 57 59 59 59 60 66 64 64 65 65 65 66 66 66 62 65 65 65 67 66 66 68 67 67 68 67 67 67 66 67 65 68 67 67 69 68 68 68 68 69 69 68 69 69 70 70 71 70 69 69 -193 -193 -193 -193 69 68 70 69 69 69 70 70 71 75 70 72 72 71 70 69 68 66 60 62 56 55 54 56 57 59 66 68 66 69 69 68 67 68 66 66 67 67 67 65 67 69 0 0 0 0 0
    0 0 0 0 0 0 0 0 0 0 0 0 0 0 0 0 0 0 0 0 0 0 0 0 0 0 0 0 0 0 0 0 0 0 0 0 0 0 0 0 0 0 0 0 0 0 0 0 0 0 0 0 0 0 0 0 0 0 0 0 0 0 0 0 0 0 0 0 0 25 -193 26 27 26 25 25 24 25 27 26 28 -193 30 30 29 29 30 25 -193 21 23 28 27 27 28 -193 30 29 29 30 26 31 36 35 31 38 40 37 34 -209 30 35 35 -193 -193 37 37 37 39 39 40 40 39 40 38 39 37 36 36 34 37 34 34 35 34 34 35 33 34 30 37 37 35 34 37 39 38 39 37 37 38 38 39 39 35 36 35 37 37 37 38 36 36 40 40 40 39 39 39 37 40 39 36 39 51 45 47 40 41 41 39 39 38 36 36 35 39 39 37 -193 -193 37 37 -193 29 30 32 36 38 38 41 42 42 43 46 42 42 43 44 47 49 50 51 51 53 56 55 56 57 57 58 58 58 59 65 63 64 64 65 65 66 66 66 62 65 64 65 66 66 65 67 65 67 67 67 67 67 66 67 65 68 67 67 69 68 68 68 68 69 69 68 70 69 70 71 71 70 69 68 -193 -193 -193 -193 69 69 71 69 69 69 71 71 71 75 70 71 72 71 70 69 67 65 59 61 56 56 53 56 57 59 65 68 66 68 69 67 66 67 64 65 66 67 66 65 67 69 0 0 0 0 0
    0 0 0 0 0 0 0 0 0 0 0 0 0 0 0 0 0 0 0 0 0 0 0 0 0 0 0 0 0 0 0 0 0 0 0 0 0 0 0 0 0 0 0 0 0 0 0 0 0 0 0 0 0 0 0 0 0 0 0 0 0 0 0 0 0 0 0 0 0 24 -209 -193 27 25 25 25 24 25 28 27 29 -193 31 31 29 29 31 -209 -193 19 23 27 27 27 27 -193 29 28 29 30 26 31 35 34 30 36 37 35 31 27 31 36 36 -193 -193 37 38 38 39 39 39 40 39 40 38 39 37 36 36 35 37 34 34 35 34 34 35 34 34 30 36 37 35 33 36 38 36 37 36 37 37 38 38 38 35 37 36 37 37 37 37 35 36 -193 39 39 39 38 38 38 40 40 37 40 51 46 48 41 41 42 40 40 39 36 37 36 39 39 37 -193 -193 -209 -193 -193 27 29 31 36 38 38 41 41 41 42 43 41 41 42 43 45 47 48 49 51 53 56 55 56 56 56 57 57 57 59 63 63 64 64 65 65 66 66 66 63 65 64 64 66 65 64 66 64 66 66 66 67 67 66 68 65 68 68 67 69 68 68 68 68 69 70 68 70 70 71 71 71 70 69 69 -193 -193 -193 -193 69 70 71 70 69 70 71 71 72 75 70 71 72 71 69 68 66 64 59 60 57 56 52 55 56 59 62 66 64 67 69 67 65 66 63 64 65 66 65 64 66 68 0 0 0 0 0
    0 0 0 0 0 0 0 0 0 0 0 0 0 0 0 0 0 0 0 0 0 0 0 0 0 0 0 0 0 0 0 0 0 0 0 0 0 0 0 0 0 0 0 0 0 0 0 0 0 0 0 0 0 0 0 0 0 0 0 0 0 0 0 0 0 0 0 0 0 24 -209 25 27 25 25 25 24 25 28 27 30 -193 32 -193 29 29 -193 -209 -193 17 22 27 27 27 27 -193 29 28 29 29 26 31 35 34 29 37 38 36 31 28 32 37 36 -193 37 37 38 38 39 39 39 40 40 41 40 40 38 36 36 36 38 35 35 35 35 35 36 35 34 30 37 37 35 33 37 38 37 37 36 37 38 38 39 38 37 38 37 37 38 38 37 35 36 -193 38 -193 39 38 38 39 41 40 39 42 52 46 48 42 42 42 40 40 39 36 36 35 38 38 35 39 -193 38 -193 -193 26 28 32 37 39 38 41 41 41 43 43 41 41 42 43 44 45 47 47 50 52 55 55 56 56 56 57 57 57 59 62 63 64 64 65 65 67 67 67 63 66 65 64 65 65 64 66 64 65 66 65 67 67 66 68 65 68 68 67 69 68 68 68 68 69 70 69 70 69 70 70 71 70 69 68 69 68 69 69 69 70 72 70 69 70 72 71 -193 76 70 71 72 71 68 67 65 63 59 60 57 57 52 55 56 59 60 63 61 63 68 65 64 65 62 63 64 65 65 63 65 67 0 0 0 0 0
    0 0 0 0 0 0 0 0 0 0 0 0 0 0 0 0 0 0 0 0 0 0 0 0 0 0 0 0 0 0 0 0 0 0 0 0 0 0 0 0 0 0 0 0 0 0 0 0 0 0 0 0 0 0 0 0 0 0 0 0 0 0 0 0 0 0 0 0 0 24 -209 -193 26 25 25 26 25 25 29 28 31 -193 33 -193 29 29 31 -209 -209 17 22 27 27 27 27 29 29 28 29 29 26 31 35 34 30 39 40 38 35 30 33 38 37 -193 37 37 39 38 40 39 38 39 39 39 39 39 37 34 34 34 37 34 34 33 34 34 35 35 35 31 38 38 36 35 39 39 37 37 37 37 38 38 39 37 37 38 38 38 38 38 37 36 36 -177 -193 -193 39 38 40 41 42 41 40 42 52 47 49 43 42 42 41 41 40 37 37 35 39 38 36 40 -209 39 -193 -209 28 33 36 39 40 40 41 41 42 44 43 42 42 42 42 44 45 46 45 49 51 54 54 56 55 56 56 57 57 59 61 62 63 64 66 66 67 67 67 63 66 65 64 65 65 64 65 63 64 65 65 67 68 66 68 65 68 68 67 70 69 69 69 69 70 70 69 71 69 71 70 71 70 69 68 69 68 68 68 69 70 72 71 70 71 -193 -193 -209 76 70 70 71 70 67 66 64 63 58 59 58 57 52 55 55 58 -225 -225 60 61 66 64 64 64 62 63 65 65 65 63 65 67 0 0 0 0 0
    0 0 0 0 0 0 0 0 0 0 0 0 0 0 0 0 0 0 0 0 0 0 0 0 0 0 0 0 0 0 0 0 0 0 0 0 0 0 0 0 0 0 0 0 0 0 0 0 0 0 0 0 0 0 0 0 0 0 0 0 0 0 0 0 0 0 0 0 0 24 -193 -193 26 26 26 27 26 26 30 29 32 33 33 -193 29 29 -193 -209 -209 19 23 28 27 27 28 29 29 28 29 30 26 30 34 33 30 38 39 36 36 33 35 38 37 39 37 38 40 38 39 38 36 37 36 37 38 37 36 33 34 34 37 34 34 33 34 34 35 35 35 31 38 38 37 37 39 39 37 38 37 37 38 39 38 37 38 38 38 38 39 38 37 37 37 -177 -177 -193 39 38 40 41 41 42 40 42 52 46 49 44 43 43 41 41 41 38 38 36 38 38 37 40 -193 39 39 36 31 36 37 40 41 40 41 41 42 43 42 41 -193 41 42 43 44 45 44 48 51 54 54 55 55 55 56 56 56 58 60 61 63 64 66 66 68 68 68 64 67 65 64 64 64 64 65 62 64 65 66 67 68 66 67 66 68 69 67 70 69 70 70 70 71 71 70 71 70 71 71 72 72 71 70 71 70 69 70 70 72 73 72 71 -193 -209 -209 -209 77 70 70 71 69 67 66 63 62 58 59 58 57 52 54 54 58 -225 -225 -225 -225 -225 63 63 64 63 64 66 66 66 64 67 68 0 0 0 0 0
    0 0 0 0 0 0 0 0 0 0 0 0 0 0 0 0 0 0 0 0 0 0 0 0 0 0 0 0 0 0 0 0 0 0 0 0 0 0 0 0 0 0 0 0 0 0 0 0 0 0 0 0 0 0 0 0 0 0 0 0 0 0 0 0 0 0 0 0 0 -193 -193 -193 26 25 26 28 26 26 30 30 32 34 33 -193 29 29 -193 -209 26 21 24 29 28 28 28 30 30 29 30 30 26 30 33 32 29 37 39 36 36 35 35 38 36 38 37 38 40 38 38 37 35 35 35 36 38 37 35 34 35 35 38 34 34 32 33 35 35 35 35 31 38 38 38 38 39 38 38 38 37 38 38 39 38 37 38 38 38 38 39 38 36 37 37 -177 -193 39 39 37 39 41 41 41 39 40 52 46 49 44 43 43 41 41 41 38 38 35 38 36 36 40 -193 39 39 37 35 37 38 40 41 39 40 40 41 41 40 40 -193 -209 -193 43 43 44 44 49 51 54 54 55 55 55 56 56 56 58 59 61 62 64 66 66 68 68 68 64 67 65 64 65 64 63 64 62 63 64 65 67 67 66 67 65 68 69 67 70 69 70 70 70 71 71 70 71 70 72 71 72 72 72 72 73 -193 -193 -193 71 -193 73 71 70 70 -209 -209 -209 76 69 69 70 69 66 65 63 62 59 60 59 57 53 55 55 -225 -225 -225 -225 -225 -225 62 63 65 64 65 67 67 67 66 69 71 0 0 0 0 0
    0 0 0 0 0 0 0 0 0 0 0 0 0 0 0 0 0 0 0 0 0 0 0 0 0 0 0 0 0 0 0 0 0 0 0 0 0 0 0 0 0 0 0 0 0 0 0 0 0 0 0 0 0 0 0 0 0 0 0 0 0 0 0 0 0 0 0 0 0 -193 -193 -193 26 26 28 30 27 28 32 31 33 35 34 31 30 30 33 -209 27 23 25 30 29 28 29 30 30 30 31 31 26 31 32 30 28 37 39 35 37 34 36 37 36 38 37 39 40 39 38 37 36 36 36 37 38 37 34 34 35 35 38 34 33 32 33 35 35 35 35 31 38 38 37 39 39 38 39 39 38 38 39 39 38 38 39 38 38 38 38 38 36 37 37 -193 -193 39 39 38 40 42 41 42 40 40 52 46 49 45 44 43 42 42 42 39 38 35 37 35 36 40 -193 -193 38 38 37 38 39 41 41 39 40 39 41 40 39 39 39 -193 -193 42 43 43 44 49 50 53 53 55 54 55 55 55 55 58 59 61 62 64 65 66 68 68 68 64 67 65 64 64 64 63 63 61 63 63 64 66 66 65 67 65 68 69 67 70 69 70 71 71 71 71 69 71 69 71 70 71 70 72 70 -193 -193 -193 -193 70 70 71 69 69 69 71 -209 -209 76 69 69 70 68 66 66 63 63 59 60 60 58 54 55 57 -225 -225 -225 -225 -225 -225 61 63 65 64 66 67 68 67 66 70 72 0 0 0 0 0
    0 0 0 0 0 0 0 0 0 0 0 0 0 0 0 0 0 0 0 0 0 0 0 0 0 0 0 0 0 0 0 0 0 0 0 0 0 0 0 0 0 0 0 0 0 0 0 0 0 0 0 0 0 0 0 0 0 0 0 0 0 0 0 0 0 0 0 0 0 -193 -193 -193 27 28 30 32 31 30 34 34 35 36 34 32 33 31 35 -193 28 25 26 32 30 29 30 30 31 31 32 33 27 34 34 30 28 -193 -193 36 37 35 38 39 38 40 38 41 41 40 38 37 37 37 37 38 38 36 34 34 35 35 38 34 33 32 33 34 34 34 34 30 37 36 36 39 39 38 38 38 38 38 38 39 37 37 38 38 37 38 38 37 36 37 37 -193 -193 39 39 40 41 43 42 42 41 40 51 45 49 45 44 43 42 42 42 39 38 35 37 35 38 40 -193 -193 38 39 38 39 40 41 41 39 39 39 41 39 38 39 -193 -209 -193 43 43 43 44 49 50 52 53 54 54 55 55 55 55 58 59 61 62 64 66 67 68 68 68 64 68 66 64 65 64 63 63 61 63 62 64 65 66 66 67 66 68 70 69 71 71 71 72 71 71 71 70 71 68 71 69 70 70 71 70 -193 -193 -193 -193 -193 -193 70 69 69 -193 -193 -209 -193 -193 69 69 70 68 67 66 64 63 60 61 61 58 54 55 56 -225 -225 -225 -225 -225 -225 60 62 65 64 67 68 69 68 67 71 73 0 0 0 0 0
    0 0 0 0 0 0 0 0 0 0 0 0 0 0 0 0 0 0 0 0 0 0 0 0 0 0 0 0 0 0 0 0 0 0 0 0 0 0 0 0 0 0 0 0 0 0 0 0 0 0 0 0 0 0 0 0 0 0 0 0 0 0 0 0 0 0 0 0 0 26 -193 26 29 31 32 35 34 33 35 35 36 36 35 32 34 32 35 -193 28 26 27 32 30 29 30 30 31 32 33 34 27 36 36 32 30 43 -209 -193 -209 39 43 44 41 43 41 45 44 42 38 37 37 37 37 38 37 36 33 34 35 35 38 34 32 32 33 34 34 34 34 30 36 36 36 38 39 37 38 38 37 37 37 38 36 37 38 37 37 38 38 37 37 38 -193 -177 -193 40 40 41 42 44 42 43 41 40 50 44 48 45 45 43 42 42 42 40 39 35 36 33 38 -193 -193 -193 36 40 39 39 41 40 40 38 38 38 42 40 38 -193 -193 746 -193 43 43 43 44 49 49 51 52 54 53 55 55 55 55 57 59 61 62 65 66 67 68 68 68 65 68 66 65 66 64 64 64 62 63 62 65 66 66 67 67 67 69 70 69 72 71 72 72 72 71 72 70 71 67 71 68 69 69 71 69 -193 -193 -193 -193 -193 -193 71 -193 -193 -193 -193 -193 70 -209 69 69 69 68 67 66 64 63 60 61 61 58 53 54 55 -225 -225 -225 -225 -225 -225 59 63 68 -193 -193 71 70 69 68 72 73 0 0 0 0 0
    0 0 0 0 0 0 0 0 0 0 0 0 0 0 0 0 0 0 0 0 0 0 0 0 0 0 0 0 0 0 0 0 0 0 0 0 0 0 0 0 0 0 0 0 0 0 0 0 0 0 0 0 0 0 0 0 0 0 0 0 0 0 0 0 0 0 0 0 0 28 28 27 30 33 33 35 35 34 35 35 36 36 34 33 35 32 35 29 28 27 27 33 30 29 30 30 31 33 34 34 28 36 37 33 -209 -209 -209 -193 -209 -209 47 51 47 48 45 51 48 43 39 38 37 37 38 39 38 36 35 36 36 36 38 34 32 32 34 34 34 34 35 30 37 37 37 38 38 37 38 38 37 36 37 37 36 37 37 37 37 38 38 37 36 37 -193 -193 39 39 39 40 43 43 42 43 41 40 49 44 48 45 45 43 42 42 43 40 39 35 36 31 39 38 38 38 35 41 42 41 43 41 41 40 40 39 44 41 40 -209 -209 747 41 44 43 43 44 49 49 51 51 53 52 54 55 55 55 58 60 62 63 66 67 68 69 69 69 66 69 67 66 66 65 65 65 63 64 63 66 66 67 67 68 66 69 70 70 72 71 72 72 72 71 71 70 71 66 70 67 68 68 70 69 -193 -193 -193 -193 -193 -193 70 -193 70 69 -193 71 70 -193 69 69 69 68 67 66 64 63 60 61 61 58 52 53 54 57 -225 -225 -225 -225 62 60 65 70 -209 -209 -193 71 69 68 72 73 0 0 0 0 0
    0 0 0 0 0 0 0 0 0 0 0 0 0 0 0 0 0 0 0 0 0 0 0 0 0 0 0 0 0 0 0 0 0 0 0 0 0 0 0 0 0 0 0 0 0 0 0 0 0 0 0 0 0 0 0 0 0 0 0 0 0 0 0 0 0 0 0 0 0 29 29 28 29 33 32 33 34 33 34 34 34 35 32 31 35 31 34 30 29 28 28 33 30 29 30 -193 31 33 34 34 28 36 37 32 -209 -209 60 -193 -209 59 57 59 -193 55 49 54 -209 43 39 39 39 38 39 39 38 37 36 36 36 36 38 34 32 33 35 35 35 35 35 30 37 38 38 39 39 38 39 38 37 37 37 37 36 37 37 36 37 38 38 36 36 38 -193 -193 38 38 38 40 42 43 42 43 41 40 47 43 47 45 44 42 41 42 42 40 38 34 34 29 38 37 38 37 35 41 42 42 44 41 42 41 40 40 44 41 40 -193 -193 749 42 44 43 43 44 49 48 50 51 53 52 54 55 55 55 58 61 63 63 66 67 68 69 69 69 66 69 68 66 66 66 64 66 -193 -193 -193 -193 -193 -193 -193 -193 -193 -193 -193 -193 73 -193 72 72 72 71 71 70 71 67 71 68 68 68 71 69 -193 -193 -193 -193 -193 -193 -193 -193 -193 69 -193 71 70 -209 69 69 69 68 67 66 65 63 60 62 61 58 51 52 53 53 49 -225 -225 46 -209 60 67 72 74 -193 73 73 71 70 73 73 0 0 0 0 0
    0 0 0 0 0 0 0 0 0 0 0 0 0 0 0 0 0 0 0 0 0 0 0 0 0 0 0 0 0 0 0 0 0 0 0 0 0 0 0 0 0 0 0 0 0 0 0 0 0 0 0 0 0 0 0 0 0 0 0 0 0 0 0 0 0 0 0 0 0 30 28 27 27 32 30 31 31 31 33 32 33 34 30 30 34 31 33 30 29 29 29 33 30 28 30 -177 30 33 34 34 28 35 -193 -193 -209 -209 61 64 -209 61 59 62 -193 54 49 53 49 43 40 39 40 39 39 39 38 37 36 36 36 36 38 34 32 34 35 35 35 35 35 29 37 37 39 40 39 39 39 39 38 38 38 37 36 37 36 36 37 37 37 36 36 38 -177 -193 38 38 38 40 42 42 42 43 41 40 47 42 46 44 44 41 41 41 41 39 38 33 34 29 37 37 37 37 35 42 43 43 44 42 42 41 40 40 43 40 40 -193 -193 750 41 43 43 43 45 49 48 50 51 53 52 54 54 55 55 58 62 63 63 66 66 68 69 69 68 65 68 67 66 66 65 65 67 -193 -193 -193 -193 161 -193 162 161 -193 -193 -193 -193 -193 -193 -193 -193 -193 71 71 70 70 67 72 68 69 68 71 -193 -193 -193 -193 -193 -193 -193 -193 -193 -193 -193 -193 71 70 -193 69 69 69 68 67 67 65 63 60 62 61 58 51 52 53 53 48 47 -193 40 -209 59 67 73 75 -193 74 75 72 73 74 74 0 0 0 0 0
    0 0 0 0 0 0 0 0 0 0 0 0 0 0 0 0 0 0 0 0 0 0 0 0 0 0 0 0 0 0 0 0 0 0 0 0 0 0 0 0 0 0 0 0 0 0 0 0 0 0 0 0 0 0 0 0 0 0 0 0 0 0 0 0 0 0 0 0 0 29 27 26 26 31 29 29 30 30 32 32 32 33 30 29 -193 31 33 31 30 30 29 33 30 28 30 -193 30 33 33 33 27 34 -193 -193 18 -209 -193 -193 -209 -193 -209 -209 -193 50 49 52 46 43 40 39 39 39 39 38 37 37 36 35 36 36 39 34 33 35 35 36 36 36 34 28 33 35 39 40 38 38 38 38 38 38 38 36 35 37 36 36 37 37 37 36 36 38 270 -193 38 37 39 41 41 42 41 43 40 40 45 41 45 43 43 40 40 40 40 39 38 33 34 29 38 37 37 37 33 42 46 45 47 42 42 41 39 40 42 39 39 -193 -193 753 -193 42 42 43 45 49 48 50 51 52 52 54 55 55 55 59 63 64 64 66 66 68 68 68 68 65 68 66 65 66 66 65 67 -193 -193 -193 -193 -193 -193 162 161 160 164 -193 -193 -193 -193 -193 -193 71 70 70 67 69 65 72 67 67 66 69 -193 -193 -193 160 -193 -193 -193 -193 -193 -193 -193 -193 -193 70 71 69 69 69 68 67 67 65 63 60 62 61 58 50 52 51 -225 -225 46 -209 -193 -209 59 66 71 74 -209 73 74 72 72 74 75 0 0 0 0 0
    0 0 0 0 0 0 0 0 0 0 0 0 0 0 0 0 0 0 0 0 0 0 0 0 0 0 0 0 0 0 0 0 0 0 0 0 0 0 0 0 0 0 0 0 0 0 0 0 0 0 0 0 0 0 0 0 0 0 0 0 0 0 0 0 0 0 0 0 0 27 25 24 25 29 27 28 -193 29 31 31 31 33 30 29 -193 31 33 31 30 30 30 33 30 28 31 30 30 33 33 33 27 35 -193 -193 -209 -209 -193 -193 -209 -193 -209 -193 53 51 50 52 46 43 41 40 39 39 39 38 36 37 36 36 36 36 38 34 34 36 35 35 35 35 33 28 31 33 38 39 38 38 38 38 38 38 38 36 36 36 36 36 37 37 36 35 36 37 270 -193 38 36 38 41 42 42 42 43 40 40 45 40 44 42 42 39 39 39 39 37 37 33 34 28 38 37 36 37 -209 44 52 49 54 42 42 41 39 40 40 38 39 39 39 40 40 42 41 42 45 49 47 49 50 52 52 55 55 56 56 60 64 65 65 67 66 68 68 68 67 65 67 66 65 66 66 65 -177 -193 -193 -193 -193 160 162 162 161 160 163 -193 -193 -193 -193 -193 70 69 68 68 65 68 63 70 65 65 65 68 -193 -193 -193 -193 -193 -193 -193 -193 -193 -193 -193 -193 70 70 71 69 69 68 67 67 67 65 63 60 62 60 58 49 51 50 -225 -193 -209 -209 -193 -209 -209 68 72 74 74 -193 74 72 71 73 -193 0 0 0 0 0
    0 0 0 0 0 0 0 0 0 0 0 0 0 0 0 0 0 0 0 0 0 0 0 0 0 0 0 0 0 0 0 0 0 0 0 0 0 0 0 0 0 0 0 0 0 0 0 0 0 0 0 0 0 0 0 0 0 0 0 0 0 0 0 0 0 0 0 0 0 25 24 23 24 -193 26 27 -193 -193 30 -193 31 33 30 29 35 32 33 32 30 31 30 33 31 28 31 30 30 33 33 34 27 36 -193 -193 -209 -209 60 -193 -209 64 -209 -193 53 52 52 53 47 43 42 41 40 39 40 38 36 37 37 36 36 37 38 33 35 36 35 35 35 35 32 28 31 31 39 39 39 39 39 39 39 39 39 35 36 36 36 35 37 37 36 34 36 -193 271 -193 -193 35 37 42 42 43 42 43 41 41 46 41 44 42 42 39 39 39 39 37 36 33 33 28 37 37 35 37 -209 44 51 50 54 42 41 -193 38 40 40 39 39 40 39 40 40 42 41 43 45 49 47 49 50 51 51 55 55 56 56 60 66 66 66 67 66 68 68 68 67 65 67 66 66 66 66 65 -177 -193 -193 -193 -193 160 162 162 162 160 164 -193 -193 -193 -193 70 69 69 68 68 64 67 63 70 65 66 65 69 67 -193 -193 -193 -193 -193 -193 -193 -193 -193 -193 -193 70 70 71 69 69 68 67 67 67 66 63 61 62 60 58 46 48 -193 -225 -225 -209 -209 -193 -209 -209 70 72 -209 72 -193 71 69 65 65 62 0 0 0 0 0
    0 0 0 0 0 0 0 0 0 0 0 0 0 0 0 0 0 0 0 0 0 0 0 0 0 0 0 0 0 0 0 0 0 0 0 0 0 0 0 0 0 0 0 0 0 0 0 0 0 0 0 0 0 0 0 0 0 0 0 0 0 0 0 0 0 0 0 0 0 24 24 22 23 -193 25 26 -209 -209 29 -193 31 33 30 30 35 32 33 32 31 31 30 33 31 28 31 30 30 33 33 34 27 36 35 30 27 -209 -209 -193 -209 -209 -209 -193 -193 52 52 53 45 42 42 40 40 39 39 38 36 37 37 36 35 37 37 33 35 35 34 34 34 34 31 28 30 30 39 39 38 38 39 39 39 39 38 34 36 36 35 35 37 36 35 34 36 -193 270 -193 -193 33 37 41 41 43 42 42 41 41 45 41 43 42 41 38 38 39 38 36 35 32 33 28 36 36 34 37 -193 44 50 50 52 42 41 -193 39 41 40 39 40 40 40 40 40 42 41 43 46 48 46 49 50 51 51 55 55 56 57 62 67 66 66 67 66 68 68 68 66 65 67 66 66 66 66 65 -193 -193 160 -193 -193 160 162 163 162 161 164 -193 -193 -193 -193 69 68 68 67 68 65 67 64 69 66 67 66 69 68 70 -193 -193 -193 -193 -193 -193 -193 -193 -193 -193 70 70 70 68 69 68 68 67 67 66 64 61 63 60 58 46 48 44 -225 -225 -209 -209 -209 -209 -209 -193 -225 -225 71 -225 -225 -225 -225 60 60 0 0 0 0 0
    0 0 0 0 0 0 0 0 0 0 0 0 0 0 0 0 0 0 0 0 0 0 0 0 0 0 0 0 0 0 0 0 0 0 0 0 0 0 0 0 0 0 0 0 0 0 0 0 0 0 0 0 0 0 0 0 0 0 0 0 0 0 0 0 0 0 0 0 0 24 24 22 23 -209 24 25 -209 -209 29 -193 31 32 31 30 35 33 33 33 31 31 30 34 31 28 30 30 29 33 33 33 27 33 32 29 27 34 31 -193 -209 -209 -209 -209 -193 50 51 53 43 40 41 40 40 39 38 37 36 37 37 36 35 37 36 33 36 35 34 34 33 34 30 29 30 29 39 38 37 38 38 39 39 39 39 34 37 36 35 35 36 35 35 33 35 -193 -193 -193 36 29 35 39 40 42 42 42 40 41 45 41 43 41 40 38 38 38 38 35 35 31 33 27 36 35 35 38 -193 45 49 50 50 43 42 -193 40 43 40 40 40 41 40 40 40 42 41 43 46 48 47 50 50 51 52 55 55 57 58 64 67 67 66 67 66 68 68 68 66 65 66 66 66 -177 -177 -177 -193 -193 160 159 162 160 162 162 162 161 163 -193 -193 -193 68 67 67 67 67 67 65 67 64 69 66 66 65 68 67 69 68 68 67 -193 -193 -193 -193 -193 -193 69 70 70 70 69 69 68 68 67 67 66 64 62 64 60 58 51 53 52 -225 -225 -209 -209 -209 -209 70 -225 -225 -225 -225 -225 -225 -225 -225 -225 60 0 0 0 0 0
    0 0 0 0 0 0 0 0 0 0 0 0 0 0 0 0 0 0 0 0 0 0 0 0 0 0 0 0 0 0 0 0 0 0 0 0 0 0 0 0 0 0 0 0 0 0 0 0 0 0 0 0 0 0 0 0 0 0 0 0 0 0 0 0 0 0 0 0 0 24 24 22 24 25 25 25 -193 -193 29 -193 31 32 31 31 34 33 33 34 31 31 30 34 31 29 31 30 29 32 32 32 26 30 30 28 26 30 30 33 34 34 36 40 44 46 47 50 41 40 41 40 40 39 38 37 36 38 37 36 35 36 35 33 36 34 33 34 33 34 29 29 30 28 40 39 39 39 40 41 40 41 40 36 37 36 36 35 37 34 34 33 34 -193 -193 -193 35 27 34 39 39 42 43 41 40 40 46 41 42 40 40 37 37 38 37 35 35 31 33 28 38 36 39 41 43 46 50 50 51 43 42 -193 40 46 40 39 40 41 40 40 40 41 39 43 46 48 47 50 51 51 53 55 55 57 58 64 66 66 65 66 66 67 68 68 65 64 65 66 65 65 66 65 -193 -193 160 -193 -193 160 161 162 162 160 163 -193 -193 70 67 67 67 67 66 67 65 66 64 68 66 66 64 68 66 69 68 68 67 -193 -193 -193 -193 -193 -193 69 70 70 70 69 69 68 68 68 67 66 64 62 65 61 60 58 60 62 61 64 59 63 65 66 66 -225 -225 -225 -225 -225 -225 -225 -225 -225 -225 0 0 0 0 0
    0 0 0 0 0 0 0 0 0 0 0 0 0 0 0 0 0 0 0 0 0 0 0 0 0 0 0 0 0 0 0 0 0 0 0 0 0 0 0 0 0 0 0 0 0 0 0 0 0 0 0 0 0 0 0 0 0 0 0 0 0 0 0 0 0 0 0 0 0 25 25 23 25 25 25 26 26 27 29 29 31 32 31 31 34 33 32 34 31 32 31 34 31 29 31 30 29 32 31 32 26 30 29 27 26 29 30 33 33 32 35 37 42 43 44 45 40 39 41 39 39 39 38 36 36 37 37 36 34 36 34 33 36 34 33 33 32 34 29 30 31 28 41 41 42 42 43 44 44 45 44 39 39 38 38 36 37 34 33 33 33 34 -193 33 33 27 35 40 41 43 43 41 41 40 46 41 42 39 39 37 37 37 37 34 34 31 34 28 38 36 -193 42 44 47 51 51 51 44 43 -193 40 50 39 39 40 40 40 40 40 41 38 43 46 47 47 51 51 51 53 55 55 57 57 64 65 66 64 65 65 67 67 67 63 64 64 65 65 63 66 -177 -193 -193 160 -193 -193 159 161 162 162 161 163 -193 -193 70 67 67 67 67 66 67 65 66 64 68 66 66 65 69 66 69 67 68 67 -193 -193 -193 -193 -193 -193 -193 70 70 70 69 69 69 68 68 68 67 65 63 66 62 61 59 60 63 61 63 59 61 61 61 63 62 -225 -225 -225 -225 -225 -225 -225 -225 -225 0 0 0 0 0
    0 0 0 0 0 0 0 0 0 0 0 0 0 0 0 0 0 0 0 0 0 0 0 0 0 0 0 0 0 0 0 0 0 0 0 0 0 0 0 0 0 0 0 0 0 0 0 0 0 0 0 0 0 0 0 0 0 0 0 0 0 0 0 0 0 0 0 0 0 26 26 -193 26 26 26 27 27 28 29 30 31 31 32 32 34 34 32 35 32 32 31 35 31 29 31 30 29 32 31 31 26 29 29 28 27 30 31 34 34 32 34 36 40 41 42 43 39 38 40 39 39 39 38 36 35 37 36 36 34 36 33 33 36 33 33 33 32 33 29 31 32 28 41 42 43 43 43 45 47 47 47 42 41 40 40 39 38 33 32 33 33 34 34 33 33 27 35 -193 42 44 45 41 40 40 47 42 42 39 39 37 37 37 36 34 34 31 34 28 38 36 41 43 46 49 53 53 52 46 45 -193 40 53 40 40 41 41 40 40 40 41 37 43 45 47 47 51 51 51 53 55 55 57 58 65 64 65 64 65 65 66 67 66 63 64 64 64 -177 63 66 64 -193 -193 160 -193 -193 -193 160 162 161 161 163 -193 -193 70 67 67 67 67 66 67 65 66 63 67 66 66 66 68 67 70 68 69 69 -193 -193 -193 -193 -193 -193 -193 -193 70 70 69 69 69 69 69 68 67 66 64 67 62 60 58 60 61 60 61 58 60 60 59 60 59 -225 -225 -225 -225 -225 -225 -225 -225 -225 0 0 0 0 0
    0 0 0 0 0 0 0 0 0 0 0 0 0 0 0 0 0 0 0 0 0 0 0 0 0 0 0 0 0 0 0 0 0 0 0 0 0 0 0 0 0 0 0 0 0 0 0 0 0 0 0 0 0 0 0 0 0 0 0 0 0 0 0 0 0 0 0 0 0 27 27 25 27 27 27 27 27 29 30 30 32 31 32 33 34 34 32 35 31 32 31 35 30 29 31 30 29 31 31 31 26 29 29 29 28 32 33 35 35 34 36 37 40 41 43 42 39 38 39 38 39 38 36 34 34 36 36 37 34 36 33 33 36 33 33 33 31 34 29 33 33 28 41 41 42 43 44 46 48 49 -193 46 46 43 46 -209 -209 27 29 31 31 35 33 32 32 28 32 -193 -193 45 43 40 39 39 47 42 42 38 39 36 37 37 36 34 33 30 33 28 38 37 41 43 47 49 52 53 52 47 47 44 42 53 42 41 41 42 41 41 41 42 38 43 46 47 48 51 51 51 53 -193 56 57 58 66 64 65 64 64 65 66 66 66 62 64 64 65 65 63 66 65 -193 -193 160 -193 -193 -193 159 161 161 -193 162 -193 -193 70 67 68 67 67 67 67 65 66 64 67 66 66 66 69 67 70 68 69 69 -193 -193 -193 -193 -193 -193 -193 -209 70 70 69 69 69 69 69 69 68 66 65 67 62 60 58 59 60 59 60 58 59 60 59 60 -193 58 -225 -225 -225 -225 -225 -225 -225 -225 0 0 0 0 0
    0 0 0 0 0 0 0 0 0 0 0 0 0 0 0 0 0 0 0 0 0 0 0 0 0 0 0 0 0 0 0 0 0 0 0 0 0 0 0 0 0 0 0 0 0 0 0 0 0 0 0 0 0 0 0 0 0 0 0 0 0 0 0 0 0 0 0 0 0 27 28 25 27 27 27 28 27 29 30 30 32 31 33 34 34 34 32 35 31 31 31 35 30 29 31 30 29 31 31 31 25 28 29 28 29 32 34 35 36 35 37 38 41 42 42 42 39 38 39 38 39 38 36 35 35 37 37 37 35 36 32 33 36 33 33 32 31 33 30 34 34 28 41 41 43 44 46 49 53 52 54 53 -209 -209 -209 14 -209 -193 21 22 -193 -209 -209 -209 -209 -209 -209 -193 -193 43 39 37 37 39 46 43 43 38 39 36 37 37 36 34 34 30 34 29 38 38 41 43 47 49 52 52 51 48 47 44 44 53 43 42 42 43 42 42 42 43 40 44 46 47 -193 51 51 51 53 -193 56 57 58 66 63 65 64 64 65 66 66 66 62 64 64 65 65 63 66 64 -193 -193 -193 -193 -193 -193 159 160 160 160 162 -193 -193 70 67 68 68 68 67 68 66 67 64 68 67 66 68 69 67 70 68 69 69 71 -193 -193 -193 -193 -193 -193 -193 71 70 69 70 69 69 69 69 68 67 66 67 62 60 58 60 60 59 59 58 59 59 59 -193 -193 57 -225 -225 -225 -225 -225 -225 -225 -225 0 0 0 0 0
    0 0 0 0 0 0 0 0 0 0 0 0 0 0 0 0 0 0 0 0 0 0 0 0 0 0 0 0 0 0 0 0 0 0 0 0 0 0 0 0 0 0 0 0 0 0 0 0 0 0 0 0 0 0 0 0 0 0 0 0 0 0 0 0 0 0 0 0 0 28 28 26 28 27 27 28 28 30 31 31 33 32 34 35 35 35 32 36 31 31 31 35 30 29 31 30 28 31 30 30 25 27 28 28 29 31 34 36 37 37 38 38 41 42 41 40 38 37 38 37 39 38 35 36 36 38 37 38 35 36 32 34 35 33 33 33 31 34 30 35 34 28 40 40 42 43 45 48 52 51 53 53 -209 -209 -209 -193 -193 -193 22 21 -209 -209 -209 -209 -209 -209 -209 -209 -209 -193 35 35 34 39 45 43 44 38 39 36 37 37 36 35 34 30 35 30 39 39 42 44 45 47 49 49 48 46 46 43 43 53 44 43 44 45 44 44 44 44 41 45 46 47 47 52 51 52 54 56 57 58 58 66 64 65 64 64 65 66 66 66 62 64 63 65 65 63 66 -177 -193 -193 -193 -193 160 158 158 159 160 -193 163 -193 -193 70 68 69 68 68 68 68 67 68 65 68 68 67 69 70 67 69 67 68 69 70 69 69 68 -193 67 69 -193 71 70 69 70 69 69 69 69 68 67 66 67 62 60 58 59 60 59 59 58 59 59 59 59 58 58 59 -225 -225 -225 -225 -225 -225 -225 0 0 0 0 0
    0 0 0 0 0 0 0 0 0 0 0 0 0 0 0 0 0 0 0 0 0 0 0 0 0 0 0 0 0 0 0 0 0 0 0 0 0 0 0 0 0 0 0 0 0 0 0 0 0 0 0 0 0 0 0 0 0 0 0 0 0 0 0 0 0 0 0 0 0 29 29 27 29 28 28 29 29 32 32 33 34 33 35 36 36 36 33 36 31 32 32 35 30 29 31 30 28 30 29 29 24 26 27 26 28 29 32 35 37 37 39 38 40 41 40 39 38 38 38 38 39 38 35 36 36 38 37 37 34 35 32 34 35 33 33 33 31 34 30 34 33 28 38 38 42 43 44 48 50 50 52 52 -209 -209 -209 -209 -209 -209 27 -209 -209 -209 -209 -209 -209 -209 -209 -209 -209 -209 30 31 29 37 42 41 42 36 37 35 36 36 36 35 35 30 35 32 39 39 42 44 44 46 46 46 46 45 44 42 42 52 44 44 44 45 44 44 44 45 42 45 46 47 47 52 52 53 54 -193 58 59 60 67 64 65 64 64 65 65 66 66 62 64 63 65 65 63 66 65 66 67 69 69 72 70 70 -193 -193 -193 162 -193 -193 70 68 69 68 68 68 68 67 68 65 68 68 68 70 70 67 69 68 68 69 70 68 68 68 -193 66 68 -193 70 70 69 70 69 69 70 69 68 67 66 67 62 59 58 58 59 59 59 58 59 58 58 59 58 58 58 -225 -225 -225 -209 -225 -225 -225 0 0 0 0 0
    0 0 0 0 0 0 0 0 0 0 0 0 0 0 0 0 0 0 0 0 0 0 0 0 0 0 0 0 0 0 0 0 0 0 0 0 0 0 0 0 0 0 0 0 0 0 0 0 0 0 0 0 0 0 0 0 0 0 0 0 0 0 0 0 0 0 0 0 0 30 31 29 31 30 31 31 30 34 34 34 35 34 36 36 37 36 33 36 31 32 32 34 30 30 31 30 28 29 29 29 24 25 25 25 26 26 29 34 34 36 38 37 39 39 39 38 38 38 37 38 39 37 36 36 37 37 37 38 34 35 33 34 35 33 33 32 31 33 29 34 32 28 37 36 42 43 44 48 50 49 50 50 -209 -209 -209 -209 -209 31 32 30 -209 -209 -209 -209 -209 -209 -209 -209 -209 -209 -209 -209 -193 -193 -193 39 40 35 36 35 36 36 36 35 35 30 36 34 39 39 42 44 43 45 44 45 45 44 43 41 41 51 44 45 45 46 45 45 45 46 42 46 47 47 47 52 52 54 -193 -193 58 59 60 68 64 65 64 64 65 65 66 66 62 64 64 65 65 63 66 65 66 67 69 69 73 71 70 70 70 69 -193 70 69 70 68 69 69 68 68 69 68 68 66 68 68 68 71 70 -193 -193 68 69 -193 -209 -193 66 69 69 66 68 71 70 70 69 70 69 69 69 69 68 67 66 66 61 59 58 58 59 59 59 58 59 59 59 59 58 57 57 -225 -225 -225 54 -193 57 -225 0 0 0 0 0
    0 0 0 0 0 0 0 0 0 0 0 0 0 0 0 0 0 0 0 0 0 0 0 0 0 0 0 0 0 0 0 0 0 0 0 0 0 0 0 0 0 0 0 0 0 0 0 0 0 0 0 0 0 0 0 0 0 0 0 0 0 0 0 0 0 0 0 0 0 32 33 31 34 32 33 33 32 35 36 35 36 34 36 36 37 36 33 35 31 31 32 34 30 30 31 30 28 29 29 28 24 25 25 23 -193 23 27 33 32 36 38 34 38 38 38 37 36 36 36 37 38 37 36 36 37 37 37 38 34 36 33 34 35 33 33 32 30 33 29 33 31 28 36 34 42 42 42 46 49 47 47 48 -209 -209 -193 -209 36 36 37 -193 -209 -209 -209 -209 -209 -209 -209 -209 258 -193 -209 -209 -193 -193 -193 38 40 35 36 36 36 37 36 36 35 30 36 35 39 39 41 43 42 44 43 44 44 44 43 41 40 51 44 45 45 47 45 45 45 46 43 47 47 47 46 52 53 55 -193 58 59 59 60 68 64 65 64 64 65 65 65 65 62 63 64 65 65 64 66 66 67 68 70 69 73 71 70 71 72 71 -193 72 72 72 70 71 70 68 69 69 68 68 66 69 68 70 73 72 71 71 69 70 -193 -209 -209 62 -193 -193 61 64 68 69 69 68 70 69 69 70 69 68 67 66 65 60 58 57 57 59 58 58 58 59 59 59 59 59 58 58 -225 -225 57 57 58 56 -225 0 0 0 0 0
    0 0 0 0 0 0 0 0 0 0 0 0 0 0 0 0 0 0 0 0 0 0 0 0 0 0 0 0 0 0 0 0 0 0 0 0 0 0 0 0 0 0 0 0 0 0 0 0 0 0 0 0 0 0 0 0 0 0 0 0 0 0 0 0 0 0 0 0 0 33 34 32 35 34 35 35 34 37 37 36 37 36 37 37 37 36 33 35 31 31 32 34 30 30 31 30 28 29 29 28 22 23 21 17 21 17 22 -209 -193 35 -209 29 37 36 37 35 34 35 34 37 38 36 36 36 37 37 37 38 34 36 34 35 35 33 33 32 30 33 29 33 30 28 36 31 41 -193 38 43 -209 -209 -193 -209 -209 -193 -193 -209 37 37 -209 -209 -209 -209 -209 -209 -209 -209 -209 -209 260 -209 -209 -209 -193 -193 37 37 41 36 37 36 36 37 36 36 35 29 36 34 37 39 40 42 42 44 43 44 44 44 43 41 40 50 44 45 45 47 45 45 45 46 43 48 47 47 46 54 55 58 -193 60 60 60 61 68 64 65 64 64 65 65 66 65 62 64 65 66 67 65 67 67 68 70 71 70 73 71 71 75 78 77 82 81 77 76 72 73 70 69 69 69 69 70 68 70 70 72 78 83 -193 74 70 70 73 -193 -209 64 -209 -209 -209 -209 69 69 68 67 69 68 68 69 68 67 65 64 63 59 57 57 57 58 58 58 58 58 59 59 59 59 59 59 58 59 60 58 59 57 -225 0 0 0 0 0
    0 0 0 0 0 0 0 0 0 0 0 0 0 0 0 0 0 0 0 0 0 0 0 0 0 0 0 0 0 0 0 0 0 0 0 0 0 0 0 0 0 0 0 0 0 0 0 0 0 0 0 0 0 0 0 0 0 0 0 0 0 0 0 0 0 0 0 0 0 34 35 34 36 36 38 38 38 39 40 38 39 38 39 38 38 36 33 34 31 30 32 34 30 29 31 30 27 29 28 27 21 21 17 17 21 17 21 -209 -193 36 -209 -209 38 36 37 36 36 36 36 38 38 36 37 36 37 37 37 38 34 36 34 35 35 34 33 33 31 34 29 33 29 28 34 27 27 -209 27 35 -209 -209 -209 -209 -209 -193 -193 -209 -209 -209 -193 -209 -209 175 -209 -209 -209 -209 301 -193 -209 -209 -209 -209 -193 481 36 37 41 36 37 37 37 37 36 37 36 29 35 35 37 39 40 41 40 42 42 43 44 43 42 40 40 49 44 45 45 47 45 45 45 46 43 48 48 48 46 57 57 60 62 62 61 61 62 68 64 65 64 64 66 66 66 66 62 65 66 67 68 68 70 69 70 71 72 71 74 76 87 85 86 86 88 88 86 86 76 74 71 70 70 71 70 72 72 74 72 81 87 92 -193 81 74 71 74 -193 -209 63 69 66 -209 65 70 69 68 67 68 67 67 67 66 64 61 60 59 57 56 56 56 58 58 59 59 59 59 60 60 60 60 60 59 59 61 59 59 57 -225 0 0 0 0 0
    0 0 0 0 0 0 0 0 0 0 0 0 0 0 0 0 0 0 0 0 0 0 0 0 0 0 0 0 0 0 0 0 0 0 0 0 0 0 0 0 0 0 0 0 0 0 0 0 0 0 0 0 0 0 0 0 0 0 0 0 0 0 0 0 0 0 0 0 0 36 36 37 38 39 42 41 41 42 43 40 40 39 40 39 39 37 34 34 31 31 32 34 31 30 31 30 27 28 27 26 20 20 16 17 21 16 21 -193 24 36 -209 -193 -193 38 38 38 38 38 38 38 38 35 36 36 36 37 37 38 33 36 34 35 35 34 33 33 30 34 29 32 28 28 30 25 22 25 26 30 -209 -209 -209 -209 -209 -193 -193 -193 -209 -209 155 165 167 172 -209 154 -209 -209 300 -193 -209 -209 -193 -209 477 483 36 38 41 37 38 38 38 38 37 38 37 30 36 35 37 38 39 40 39 40 39 41 42 41 39 38 40 47 43 44 45 47 45 45 45 45 43 46 47 47 -193 57 58 61 63 62 62 62 62 69 65 66 65 65 66 67 67 67 63 67 68 69 70 69 71 71 72 74 74 76 83 90 92 90 90 90 91 91 90 87 81 77 72 72 72 73 72 75 76 85 -193 87 89 93 87 86 80 72 73 -193 -209 61 67 63 62 63 -209 67 66 65 67 65 66 65 64 62 60 60 59 57 56 57 56 58 59 59 59 59 60 60 61 61 62 61 61 60 62 60 59 58 60 0 0 0 0 0
    0 0 0 0 0 0 0 0 0 0 0 0 0 0 0 0 0 0 0 0 0 0 0 0 0 0 0 0 0 0 0 0 0 0 0 0 0 0 0 0 0 0 0 0 0 0 0 0 0 0 0 0 0 0 0 0 0 0 0 0 0 0 0 0 0 0 0 0 0 39 40 41 41 41 45 44 43 43 44 41 41 40 41 39 40 38 36 34 32 32 33 34 32 30 31 30 27 28 28 27 22 20 16 16 21 15 19 22 23 34 -209 37 40 38 38 38 -193 38 39 38 37 35 36 35 35 36 37 37 32 36 34 35 34 34 33 33 30 33 29 30 27 27 28 24 21 -193 26 31 -209 -209 -209 -209 -209 -193 -193 -209 -209 -209 -209 -193 168 -193 151 -193 -209 -209 -193 -193 -209 -209 -193 -209 478 484 38 39 42 39 39 40 39 39 38 39 37 31 35 35 36 38 38 39 38 39 38 40 41 40 38 37 40 46 43 44 44 47 45 45 45 45 42 46 47 47 -193 -209 -193 61 63 62 61 61 61 68 64 66 65 65 66 67 67 67 64 68 70 70 71 71 74 74 81 84 82 84 88 92 95 94 94 93 92 93 92 90 88 84 84 76 76 77 76 81 -209 88 -209 90 91 91 88 88 86 77 75 77 53 60 64 60 59 -193 -209 63 63 63 65 63 63 63 61 61 58 59 58 57 56 58 58 59 60 60 60 61 61 62 62 63 64 62 63 63 64 63 61 59 61 0 0 0 0 0
    0 0 0 0 0 0 0 0 0 0 0 0 0 0 0 0 0 0 0 0 0 0 0 0 0 0 0 0 0 0 0 0 0 0 0 0 0 0 0 0 0 0 0 0 0 0 0 0 0 0 0 0 0 0 0 0 0 0 0 0 0 0 0 0 0 0 0 0 0 42 42 43 42 43 47 45 44 44 44 41 41 41 41 39 40 39 37 34 34 34 34 35 33 31 32 30 27 28 28 27 25 24 21 18 20 15 17 20 23 29 32 36 38 37 37 -193 -193 38 39 38 36 36 36 36 35 36 36 37 32 36 34 35 34 33 33 32 30 33 28 29 26 27 28 24 -209 -193 26 33 -193 -209 -209 -193 -193 28 -193 -193 -177 -193 -209 166 166 166 151 151 -193 -209 -193 -193 -209 -209 289 -209 478 485 41 40 45 40 40 41 40 40 39 39 38 31 34 35 35 37 38 38 37 38 37 39 39 38 36 37 39 46 43 44 44 47 44 45 45 45 42 45 47 47 -193 -193 -193 62 63 62 62 61 61 67 64 65 65 65 66 67 68 68 65 70 72 72 74 77 83 86 88 88 87 88 90 92 95 94 93 94 93 93 93 91 90 88 90 87 -209 -209 -209 -209 -209 94 -193 92 92 91 89 89 89 85 79 80 50 60 63 -209 -209 -209 38 -193 -193 59 60 59 60 60 58 58 57 58 58 56 57 58 58 60 62 61 61 62 63 64 64 65 66 64 65 65 66 66 63 61 62 0 0 0 0 0
    0 0 0 0 0 0 0 0 0 0 0 0 0 0 0 0 0 0 0 0 0 0 0 0 0 0 0 0 0 0 0 0 0 0 0 0 0 0 0 0 0 0 0 0 0 0 0 0 0 0 0 0 0 0 0 0 0 0 0 0 0 0 0 0 0 0 0 0 0 43 42 43 43 43 48 46 45 45 44 41 41 41 41 38 39 39 37 34 36 34 35 35 34 32 31 30 27 27 27 26 25 22 21 19 19 15 18 20 22 26 27 35 37 35 36 -193 -193 38 39 38 36 37 37 36 36 36 36 36 31 35 34 35 34 33 33 32 30 34 28 29 26 28 29 25 -209 -209 30 37 38 38 36 33 27 29 35 37 37 39 -209 -209 -177 -177 -177 150 -209 -209 300 -209 -209 -209 286 -209 477 484 43 42 47 41 41 42 41 41 39 40 37 31 33 34 34 36 37 37 36 37 36 38 38 36 34 36 40 47 43 44 44 47 44 44 44 44 42 45 47 48 -209 -193 -193 63 64 64 63 62 62 68 64 65 65 66 67 68 69 69 67 72 74 81 83 86 87 89 89 89 89 89 91 92 95 95 94 94 93 93 93 91 91 87 -193 85 -209 -209 -209 -209 -209 94 -193 92 91 91 90 90 89 87 83 82 -209 63 66 61 -209 -209 34 38 -193 41 44 53 55 56 55 56 55 57 58 57 57 59 59 61 63 63 63 65 66 67 67 68 69 68 69 70 69 68 66 64 66 0 0 0 0 0
    0 0 0 0 0 0 0 0 0 0 0 0 0 0 0 0 0 0 0 0 0 0 0 0 0 0 0 0 0 0 0 0 0 0 0 0 0 0 0 0 0 0 0 0 0 0 0 0 0 0 0 0 0 0 0 0 0 0 0 0 0 0 0 0 0 0 0 0 0 43 42 44 43 44 48 46 45 45 42 40 40 40 40 37 39 38 36 33 36 34 35 35 35 32 31 30 28 27 28 26 25 23 22 21 20 19 20 22 24 27 28 35 36 34 35 -193 36 38 39 38 35 36 37 35 35 36 36 35 30 35 34 35 34 33 34 32 30 35 28 28 25 28 30 -209 -209 -209 35 39 38 38 35 32 28 30 35 37 -193 -209 -209 -209 -209 -193 -177 -193 -209 -193 300 -209 -177 -193 -209 -209 -209 -209 47 44 50 42 42 43 41 41 39 40 37 31 32 32 32 35 35 36 35 36 35 37 38 35 34 37 40 49 44 45 45 47 44 44 44 44 42 45 46 48 -209 59 61 66 66 66 64 63 63 68 65 67 67 67 69 69 70 70 70 77 84 87 87 90 89 91 91 91 90 90 92 93 96 95 94 94 92 92 92 90 91 87 -193 86 -209 -209 -209 123 122 96 -193 93 92 91 90 90 90 88 83 81 58 64 68 62 64 -209 33 38 40 39 40 45 49 51 51 53 54 56 57 57 58 61 61 64 66 66 66 68 69 70 70 69 70 69 70 71 71 70 69 67 69 0 0 0 0 0
    0 0 0 0 0 0 0 0 0 0 0 0 0 0 0 0 0 0 0 0 0 0 0 0 0 0 0 0 0 0 0 0 0 0 0 0 0 0 0 0 0 0 0 0 0 0 0 0 0 0 0 0 0 0 0 0 0 0 0 0 0 0 0 0 0 0 0 0 0 42 42 44 43 44 49 46 45 45 42 40 40 40 40 37 38 38 35 32 38 36 36 37 37 34 32 31 29 27 27 27 25 25 25 24 23 22 23 24 26 30 32 36 37 35 36 -193 37 38 39 37 35 36 37 36 36 35 35 -193 30 34 34 35 34 34 34 32 31 36 30 29 26 30 -209 -209 -209 -209 -209 -193 36 -193 34 -177 29 31 35 -177 -193 -193 -209 -193 -193 150 144 -193 -193 -193 -193 295 -193 -193 -193 -209 -209 69 52 48 52 43 43 43 42 42 40 40 37 31 32 31 31 34 35 35 35 36 35 38 40 38 37 39 43 51 45 46 46 48 45 44 44 44 42 44 46 47 -193 60 67 69 69 69 68 67 68 70 68 69 69 70 70 71 72 73 74 84 88 89 90 92 91 94 93 93 92 92 94 94 98 97 97 96 94 94 94 92 94 90 -193 84 -209 -209 -209 123 124 96 100 93 92 91 90 91 90 87 83 79 69 68 69 64 66 -209 34 39 41 40 41 45 48 51 51 53 54 56 57 58 60 64 65 68 70 70 70 72 72 72 72 72 73 72 72 73 72 72 72 71 72 0 0 0 0 0
    0 0 0 0 0 0 0 0 0 0 0 0 0 0 0 0 0 0 0 0 0 0 0 0 0 0 0 0 0 0 0 0 0 0 0 0 0 0 0 0 0 0 0 0 0 0 0 0 0 0 0 0 0 0 0 0 0 0 0 0 0 0 0 0 0 0 0 0 0 40 41 43 43 43 48 45 44 44 41 39 40 39 39 36 38 38 34 35 39 36 36 37 37 34 32 31 29 27 27 27 26 25 25 24 24 23 24 25 27 30 35 38 37 37 37 38 38 40 39 37 36 37 37 36 36 36 35 -193 29 34 34 35 34 34 34 33 32 38 34 30 28 35 -193 34 -193 -209 -209 -209 -209 -209 35 34 31 33 -193 -193 -193 203 203 203 209 -209 -209 -209 -209 -193 -209 -209 -209 -193 -193 -209 -209 -209 52 48 51 43 43 43 42 42 40 40 37 31 31 31 29 32 33 33 33 35 34 38 40 39 37 38 41 49 44 45 45 48 45 44 45 45 44 51 52 54 55 64 71 71 71 70 71 70 72 72 70 70 72 72 72 75 78 79 85 88 90 91 92 94 93 94 94 94 94 93 95 94 96 96 97 97 95 95 95 93 96 91 -193 75 -209 -209 -209 123 126 96 100 94 92 91 91 91 90 87 84 78 71 70 71 67 70 69 -209 50 49 45 44 48 49 52 52 54 55 57 59 59 64 69 70 71 74 75 74 76 78 77 75 75 76 74 74 75 74 73 73 73 73 0 0 0 0 0
    0 0 0 0 0 0 0 0 0 0 0 0 0 0 0 0 0 0 0 0 0 0 0 0 0 0 0 0 0 0 0 0 0 0 0 0 0 0 0 0 0 0 0 0 0 0 0 0 0 0 0 0 0 0 0 0 0 0 0 0 0 0 0 0 0 0 0 0 0 40 40 42 42 42 46 43 43 43 39 38 38 38 38 35 37 38 32 35 38 36 36 36 37 34 32 31 29 28 27 27 27 25 26 25 25 25 25 26 28 31 35 37 37 37 37 38 38 40 39 37 37 38 38 37 37 36 34 -193 29 32 34 35 33 33 34 32 33 39 37 30 29 36 -193 39 43 -193 -209 -209 -209 -209 -209 35 31 31 -193 -193 -193 -193 -193 203 209 -209 -209 -209 -209 -209 -209 -209 -209 -209 -209 -209 -193 -209 50 46 -193 43 43 43 42 42 40 40 37 32 32 31 28 30 32 32 31 33 34 38 40 41 40 39 42 50 45 46 47 50 46 45 46 47 48 55 56 56 55 62 69 69 69 68 69 71 73 73 72 72 73 75 78 82 84 87 90 91 92 93 94 94 95 96 97 94 94 94 96 95 97 96 94 96 95 96 96 92 100 -209 -209 -209 -209 -209 -209 -209 -209 93 99 93 92 91 91 91 90 88 -209 77 61 64 65 60 61 62 58 60 59 -209 -209 57 56 57 55 57 57 58 59 60 66 71 72 72 77 83 79 80 81 81 79 77 78 76 75 76 75 75 74 73 74 0 0 0 0 0
    0 0 0 0 0 0 0 0 0 0 0 0 0 0 0 0 0 0 0 0 0 0 0 0 0 0 0 0 0 0 0 0 0 0 0 0 0 0 0 0 0 0 0 0 0 0 0 0 0 0 0 0 0 0 0 0 0 0 0 0 0 0 0 0 0 0 0 0 0 39 39 41 41 41 44 42 41 42 38 37 37 37 37 34 36 37 30 37 39 37 37 36 37 34 32 30 30 28 28 28 27 26 26 25 25 25 25 26 28 29 33 35 34 35 36 36 37 38 38 36 36 37 36 36 36 34 33 30 28 32 35 35 34 34 34 -193 33 41 -193 27 28 35 -209 39 43 -209 -209 -209 34 -209 33 35 31 31 -193 -193 -209 -193 -209 -209 -193 -209 -209 -209 -209 -209 -209 -209 -209 -209 -209 -209 -209 -209 -193 43 -193 42 42 42 41 41 39 40 38 35 35 33 28 30 31 32 31 34 35 38 40 42 45 42 49 53 49 49 50 53 48 47 49 49 51 57 58 58 57 63 69 70 71 70 72 74 74 75 75 76 79 81 86 87 88 89 92 92 93 92 93 92 93 94 95 94 93 93 95 94 96 97 95 97 96 100 101 96 109 123 -209 -209 -209 66 69 -209 -209 89 95 91 91 91 91 91 90 89 -209 81 59 62 65 57 57 54 50 -209 54 -209 -209 -209 -209 60 58 62 66 67 65 65 70 74 75 74 78 84 83 83 83 83 82 80 81 78 76 76 76 76 75 75 75 0 0 0 0 0
    0 0 0 0 0 0 0 0 0 0 0 0 0 0 0 0 0 0 0 0 0 0 0 0 0 0 0 0 0 0 0 0 0 0 0 0 0 0 0 0 0 0 0 0 0 0 0 0 0 0 0 0 0 0 0 0 0 0 0 0 0 0 0 0 0 0 0 0 0 39 39 40 41 40 43 41 41 41 37 36 36 36 35 33 36 36 28 36 39 37 37 36 37 33 32 30 30 28 28 28 27 26 26 26 25 26 26 26 28 30 32 33 33 33 33 35 37 37 37 35 36 37 36 36 36 34 34 32 29 33 36 36 35 35 -193 -193 35 41 42 27 30 37 -209 41 44 -193 -209 -209 -193 -209 -193 33 29 30 -193 36 -209 37 -193 -209 -209 -209 -209 -209 -209 -209 -209 -209 -209 522 -209 -209 -209 -209 -209 42 770 41 41 42 41 41 39 40 38 36 35 34 29 30 31 32 32 34 36 39 41 44 51 51 54 55 52 52 52 54 51 49 51 52 54 58 59 60 59 65 70 71 72 72 74 76 77 78 78 81 84 85 88 89 91 91 94 94 94 92 92 91 92 92 94 92 91 90 92 92 94 94 92 93 -193 98 -193 -209 -209 -209 -209 -209 55 56 62 -209 -209 88 94 91 90 90 90 90 89 89 -209 84 -209 -209 -209 -225 -225 -225 -225 -225 -225 -209 -193 71 -193 67 62 64 66 65 66 68 72 81 82 80 83 87 86 85 85 84 83 82 83 81 78 78 77 77 77 76 77 0 0 0 0 0
    0 0 0 0 0 0 0 0 0 0 0 0 0 0 0 0 0 0 0 0 0 0 0 0 0 0 0 0 0 0 0 0 0 0 0 0 0 0 0 0 0 0 0 0 0 0 0 0 0 0 0 0 0 0 0 0 0 0 0 0 0 0 0 0 0 0 0 0 0 39 39 39 40 39 41 40 39 39 35 35 34 34 33 31 34 36 27 31 38 36 36 35 36 30 29 29 29 27 27 27 26 25 26 25 25 26 27 27 28 31 32 32 32 32 32 33 37 37 36 36 37 38 37 38 38 36 35 34 31 34 37 37 36 36 -193 -209 -193 42 43 27 32 37 -209 -193 44 -209 -209 -209 -193 -209 -193 -193 29 30 -193 35 -193 36 35 -209 -209 -209 -209 -209 -209 -193 -209 -209 -209 -209 -209 -209 -209 -209 -209 42 -193 41 41 41 41 41 40 41 41 38 38 38 32 32 32 33 33 35 37 40 41 45 53 52 54 55 54 54 53 55 53 51 53 54 56 60 61 63 62 69 72 72 74 74 76 78 79 80 80 83 85 86 88 89 92 91 94 94 94 93 93 92 93 91 94 91 90 90 90 91 91 91 89 88 -209 -209 -193 -209 -209 42 47 50 50 55 60 -209 -193 -209 -209 90 90 90 90 -193 -193 88 -209 84 -209 -209 75 -225 -225 -225 -225 -225 -225 -225 -225 -225 -225 -225 -225 -225 -225 69 68 71 74 83 85 85 86 89 87 87 86 86 86 84 85 83 81 80 79 79 79 78 78 0 0 0 0 0
    0 0 0 0 0 0 0 0 0 0 0 0 0 0 0 0 0 0 0 0 0 0 0 0 0 0 0 0 0 0 0 0 0 0 0 0 0 0 0 0 0 0 0 0 0 0 0 0 0 0 0 0 0 0 0 0 0 0 0 0 0 0 0 0 0 0 0 0 0 38 37 38 38 37 40 38 37 38 34 34 33 34 33 31 34 35 27 30 35 34 32 32 31 29 28 28 29 27 27 28 26 27 27 28 27 27 29 29 29 32 32 31 31 32 32 34 36 37 35 37 38 38 38 38 38 36 36 35 32 35 38 38 37 36 37 -193 39 43 44 28 34 36 -209 37 -177 -209 -209 -209 -193 -209 30 32 30 32 33 35 36 36 35 38 -209 -209 -209 355 357 -209 -209 -209 -209 -209 -209 -209 -209 -209 -193 41 -193 41 41 42 42 42 40 41 42 41 42 41 36 34 34 -209 -209 -193 37 40 41 46 54 52 55 56 55 56 55 57 56 53 55 56 58 61 62 64 63 69 72 73 74 74 77 80 81 82 82 84 86 87 89 90 92 91 93 93 93 92 92 91 91 90 92 91 90 89 89 89 89 90 89 -193 44 39 -177 40 40 40 43 42 44 52 -193 188 187 -177 -209 -209 -209 90 -209 -209 -209 87 -209 83 -209 -209 76 -225 -209 -225 -225 -225 -225 -225 -225 -225 -225 -225 -225 -225 -225 -225 -225 -225 81 86 87 87 87 90 89 89 87 87 87 86 86 85 83 82 80 81 81 80 80 0 0 0 0 0
    0 0 0 0 0 0 0 0 0 0 0 0 0 0 0 0 0 0 0 0 0 0 0 0 0 0 0 0 0 0 0 0 0 0 0 0 0 0 0 0 0 0 0 0 0 0 0 0 0 0 0 0 0 0 0 0 0 0 0 0 0 0 0 0 0 0 0 0 0 36 37 38 36 35 38 36 36 38 35 34 34 35 35 33 35 36 29 31 35 33 30 30 27 29 28 28 30 28 28 30 29 30 29 30 29 29 30 30 29 31 31 30 30 31 31 33 35 36 35 35 37 37 37 37 37 36 36 36 34 36 39 39 38 38 38 36 40 43 43 28 33 33 -209 32 -209 -209 -209 -209 28 37 31 32 32 34 34 36 37 37 35 39 -193 -209 -209 -193 357 -209 -209 -209 -209 -209 -209 -209 -209 -209 41 41 -193 41 41 42 42 42 40 42 42 41 45 45 -177 37 -193 91 95 -193 -193 -193 -209 49 55 53 55 57 57 58 56 61 60 56 57 59 60 63 63 65 63 70 73 73 74 75 78 81 82 83 83 85 87 87 89 90 93 91 94 93 92 92 90 89 89 87 89 87 87 86 83 87 88 88 87 -209 42 39 41 40 40 40 42 41 41 48 -193 -193 -177 -177 -209 -209 -209 -209 -209 -209 -209 -209 -209 -209 -209 -209 -209 -209 -193 -225 -225 -225 -225 -225 -225 -225 -225 -225 -225 -225 -225 -225 -225 -225 -209 -209 -209 88 88 91 90 90 88 88 88 87 87 86 84 83 81 82 82 81 81 0 0 0 0 0
    0 0 0 0 0 0 0 0 0 0 0 0 0 0 0 0 0 0 0 0 0 0 0 0 0 0 0 0 0 0 0 0 0 0 0 0 0 0 0 0 0 0 0 0 0 0 0 0 0 0 0 0 0 0 0 0 0 0 0 0 0 0 0 0 0 0 0 0 0 36 36 37 35 34 37 36 35 37 36 34 34 35 35 33 35 36 31 32 36 34 30 30 27 32 29 29 31 30 29 32 31 31 30 30 30 29 30 30 29 31 30 30 29 30 31 32 34 35 35 36 37 37 37 38 38 37 37 36 35 36 40 39 38 38 38 36 41 43 43 26 32 30 -209 28 -209 -209 -209 -209 28 37 31 33 34 35 34 36 37 37 35 40 -193 -209 -209 -193 356 -209 -209 -209 -209 50 -209 40 40 49 41 41 42 41 41 42 42 42 40 42 42 42 48 49 -177 -177 -209 90 94 97 -193 -209 -209 52 56 -209 56 58 60 62 60 68 67 62 62 65 65 65 65 67 65 71 73 73 75 76 80 82 83 83 84 86 87 87 89 90 93 91 94 92 90 90 89 88 87 83 85 83 82 78 75 78 82 85 82 40 42 40 42 42 42 41 42 42 42 46 47 -193 -177 -177 -209 -209 -209 -209 -193 -209 -209 -209 -209 -209 -209 -209 -209 -209 -193 101 -225 -225 -225 -225 -225 -225 -225 -225 -225 -225 -225 -225 -225 -225 -209 -209 -209 89 90 93 92 91 89 88 88 88 88 87 85 84 83 84 84 83 82 0 0 0 0 0
    0 0 0 0 0 0 0 0 0 0 0 0 0 0 0 0 0 0 0 0 0 0 0 0 0 0 0 0 0 0 0 0 0 0 0 0 0 0 0 0 0 0 0 0 0 0 0 0 0 0 0 0 0 0 0 0 0 0 0 0 0 0 0 0 0 0 0 0 0 36 36 36 34 34 36 35 35 37 36 35 34 36 35 34 35 36 33 33 36 34 30 28 26 30 28 28 30 29 29 32 32 31 30 30 30 30 29 30 29 31 30 30 30 31 31 32 35 36 35 37 38 38 38 38 38 38 38 36 35 36 40 40 39 38 38 35 41 43 43 25 31 27 -209 30 37 -209 -209 27 29 37 31 33 33 35 34 35 37 37 35 41 40 -209 -193 -193 -193 -209 -209 -209 -209 43 -193 38 40 45 40 41 42 41 41 42 42 42 41 42 43 43 50 51 52 -193 -209 90 93 96 99 -193 -193 52 57 -209 58 58 61 65 64 71 70 68 67 69 69 68 67 68 67 72 73 73 75 76 80 82 83 84 84 86 87 87 88 89 92 91 92 90 88 89 88 87 84 79 82 80 77 74 72 72 77 83 -193 -193 41 -193 42 41 42 41 42 41 42 44 -193 -193 -177 -177 -209 -209 -209 -209 -209 -209 -209 -209 -209 -209 -209 -193 -193 -209 98 102 -209 -209 -209 -209 -209 -209 -209 77 75 73 72 -209 -209 -209 -209 -209 -209 90 90 92 90 90 89 88 88 88 88 87 87 86 85 85 85 84 83 0 0 0 0 0
    0 0 0 0 0 0 0 0 0 0 0 0 0 0 0 0 0 0 0 0 0 0 0 0 0 0 0 0 0 0 0 0 0 0 0 0 0 0 0 0 0 0 0 0 0 0 0 0 0 0 0 0 0 0 0 0 0 0 0 0 0 0 0 0 0 0 0 0 0 36 36 36 35 34 36 35 35 37 36 35 34 36 36 34 35 36 34 33 36 33 30 28 25 28 26 27 28 29 29 32 32 33 32 32 32 31 31 30 30 32 31 31 30 31 31 33 35 35 35 36 37 37 37 37 38 37 38 35 35 36 40 39 38 38 37 35 42 43 43 23 -209 -209 -209 -209 35 30 -209 28 30 37 32 33 34 35 34 35 37 37 34 41 40 40 43 45 -193 -209 -209 -209 -209 39 33 37 39 43 40 40 42 41 42 42 43 42 41 43 44 44 53 54 55 -193 -209 90 94 98 100 99 99 -209 62 72 63 62 64 68 68 71 74 73 70 71 70 70 69 70 68 72 73 73 75 77 81 82 83 84 86 87 87 87 89 90 92 91 91 88 88 87 86 85 82 79 82 81 78 74 73 -193 80 89 85 -209 -193 -193 -193 -193 -209 -209 -209 -209 -209 -209 -209 188 190 196 -209 -193 -209 -209 -209 -209 -209 -209 -209 -193 -209 97 -193 97 98 102 -209 -209 -209 -209 -209 -209 -209 78 79 78 -193 -209 -209 109 -209 -209 -209 -193 92 91 90 90 89 88 88 88 88 87 87 87 87 87 87 86 85 0 0 0 0 0
    0 0 0 0 0 0 0 0 0 0 0 0 0 0 0 0 0 0 0 0 0 0 0 0 0 0 0 0 0 0 0 0 0 0 0 0 0 0 0 0 0 0 0 0 0 0 0 0 0 0 0 0 0 0 0 0 0 0 0 0 0 0 0 0 0 0 0 0 0 36 36 37 35 35 36 35 35 37 37 35 35 36 36 34 35 37 35 33 36 34 30 29 26 29 26 27 29 29 30 34 34 34 32 34 33 32 31 30 30 33 31 31 31 32 32 33 35 35 34 35 36 36 36 36 37 37 38 36 36 37 40 40 39 38 37 35 42 43 42 22 -209 -209 -209 -209 29 -209 -209 30 31 38 33 34 34 36 35 35 37 37 33 41 40 40 42 45 50 -209 -209 -209 -209 37 31 37 39 44 40 41 42 41 42 43 43 43 41 44 -209 45 56 59 58 65 76 89 94 99 99 95 94 -209 82 84 83 76 75 71 72 73 85 82 74 73 73 72 74 75 73 75 77 77 83 84 85 84 84 85 87 88 88 88 89 90 93 89 89 87 86 87 86 85 83 81 84 84 82 76 74 -209 86 91 89 -193 -209 93 -193 -193 98 -209 -209 103 -209 -193 -209 188 -209 -209 -209 85 86 -209 87 -209 -193 -193 -193 -193 -193 94 93 95 96 102 -209 -209 -209 -209 -209 -209 -209 -209 -209 87 -209 -209 102 106 -209 97 -193 -193 93 92 92 92 90 89 90 90 89 89 89 88 88 89 90 88 86 0 0 0 0 0
    0 0 0 0 0 0 0 0 0 0 0 0 0 0 0 0 0 0 0 0 0 0 0 0 0 0 0 0 0 0 0 0 0 0 0 0 0 0 0 0 0 0 0 0 0 0 0 0 0 0 0 0 0 0 0 0 0 0 0 0 0 0 0 0 0 0 0 0 0 36 36 37 34 34 36 35 35 37 37 35 35 37 36 35 36 37 36 32 36 33 30 29 26 30 26 27 29 29 30 35 35 35 33 34 34 34 33 31 30 34 31 32 31 32 32 33 35 35 34 36 36 36 36 37 38 37 39 36 36 37 41 40 39 38 38 35 42 43 42 23 -209 -209 -209 -209 -209 -209 -209 31 32 38 32 34 35 36 35 35 37 37 33 41 41 41 41 45 48 -193 -209 -193 -193 36 33 37 40 46 41 41 43 42 43 44 44 -193 -209 -193 -209 -209 59 73 -193 72 77 83 91 94 92 87 87 84 82 83 82 78 79 73 -225 -225 -225 -225 -225 -225 -225 -225 74 76 78 79 79 80 83 86 87 84 85 86 87 88 88 87 86 88 93 89 88 85 86 87 87 86 84 83 86 86 85 85 76 -209 89 93 91 90 -193 93 97 99 97 98 98 102 -209 -209 -209 -209 91 90 90 89 -209 90 89 90 90 -193 -193 -193 -209 92 92 93 95 101 -193 -193 -209 -209 -209 -209 -209 -209 -209 -193 -209 -209 102 106 -209 97 -193 -193 -193 94 94 94 91 90 91 91 90 90 90 90 89 91 93 92 88 0 0 0 0 0
    0 0 0 0 0 0 0 0 0 0 0 0 0 0 0 0 0 0 0 0 0 0 0 0 0 0 0 0 0 0 0 0 0 0 0 0 0 0 0 0 0 0 0 0 0 0 0 0 0 0 0 0 0 0 0 0 0 0 0 0 0 0 0 0 0 0 0 0 0 35 35 36 33 34 36 35 35 36 38 36 36 38 37 35 36 38 37 33 35 32 29 27 25 30 27 27 28 29 29 34 34 36 34 34 34 33 34 32 31 34 31 32 31 32 33 33 35 35 35 36 36 37 36 37 38 38 39 36 36 37 41 40 39 38 38 35 42 43 43 22 -209 -209 -209 -209 -209 -209 -209 35 34 39 33 34 35 36 36 35 37 37 33 41 41 40 41 45 46 -193 -209 -193 -193 35 32 37 40 46 41 42 44 43 44 45 -209 -209 -209 -209 -193 -209 -209 75 74 73 77 78 90 89 88 84 84 81 80 80 80 78 79 -225 -225 -225 -225 -225 -225 -225 -225 -225 -225 -225 -225 -225 -225 -225 -225 88 88 85 86 86 87 88 87 86 85 86 89 83 84 83 85 87 86 85 84 84 87 87 87 89 79 -193 91 95 93 92 92 94 98 100 98 97 96 101 103 102 98 -193 95 93 93 93 90 91 90 91 91 90 90 90 -209 91 90 -193 -209 98 -209 -209 -209 -209 -209 -209 -209 -209 -209 -193 -209 96 101 103 102 97 -193 -193 -193 94 94 94 92 91 91 92 91 90 91 91 90 94 99 97 92 0 0 0 0 0
    0 0 0 0 0 0 0 0 0 0 0 0 0 0 0 0 0 0 0 0 0 0 0 0 0 0 0 0 0 0 0 0 0 0 0 0 0 0 0 0 0 0 0 0 0 0 0 0 0 0 0 0 0 0 0 0 0 0 0 0 0 0 0 0 0 0 0 0 0 34 35 36 32 34 36 35 35 37 38 37 37 39 38 37 38 39 38 35 36 33 29 27 25 34 30 29 31 31 32 36 36 37 34 34 34 34 32 32 30 33 31 32 30 32 33 33 34 35 34 35 36 36 36 36 37 38 39 35 36 36 40 40 39 38 37 34 42 44 43 -193 -209 -209 -209 -225 -225 -225 -225 34 33 39 34 35 36 36 36 36 37 38 34 41 42 41 41 45 46 36 -193 -193 -193 33 30 35 38 45 41 42 44 43 -193 -209 -209 -209 -209 -209 -209 -209 -209 76 -193 74 80 77 90 86 87 82 84 81 80 80 80 79 80 74 -225 -225 -225 -225 -225 -225 -225 -225 -225 -225 -225 -225 -225 -225 -225 -225 -225 -225 84 86 87 88 86 86 86 86 86 80 80 81 83 86 85 84 83 85 87 87 87 89 79 90 92 95 93 92 92 95 98 100 99 97 95 100 100 101 95 94 96 94 93 94 92 92 91 92 92 91 92 92 -193 92 91 91 -209 -209 -209 -209 -209 -209 -209 -209 -209 -209 -209 -209 -209 94 100 101 100 96 -193 -193 -193 94 94 93 92 91 92 92 91 90 90 90 90 93 100 98 91 0 0 0 0 0
    0 0 0 0 0 0 0 0 0 0 0 0 0 0 0 0 0 0 0 0 0 0 0 0 0 0 0 0 0 0 0 0 0 0 0 0 0 0 0 0 0 0 0 0 0 0 0 0 0 0 0 0 0 0 0 0 0 0 0 0 0 0 0 0 0 0 0 0 0 35 36 36 33 35 36 35 36 37 39 37 37 39 39 37 38 39 38 35 37 35 30 28 25 35 29 29 31 31 33 37 36 37 35 33 33 33 30 28 29 32 30 32 30 32 33 32 34 35 34 35 35 35 35 36 37 38 39 34 36 36 40 39 38 38 37 32 42 44 43 -225 -225 -225 -225 -225 -225 -225 -225 -225 33 39 34 35 36 37 36 36 38 38 -193 42 43 42 41 -225 -225 -225 -193 -193 -193 30 29 33 36 43 40 42 44 -193 -193 -209 -209 -209 -209 -209 -209 -209 -209 -193 -193 74 80 -225 -225 -225 87 82 83 81 80 80 80 79 80 75 -225 -225 -225 -225 -225 -225 -225 -225 -225 -225 -225 -225 -225 -225 -225 -225 -225 -225 78 82 84 85 84 85 84 86 83 79 80 81 83 86 85 84 82 86 87 87 86 89 75 -193 92 95 93 92 92 95 97 99 97 94 92 97 95 97 93 92 95 93 94 95 93 94 93 94 94 93 93 93 -193 92 92 -193 -209 -209 -209 -209 -209 -209 -209 -209 -209 -209 -209 -209 -209 95 100 101 100 95 -193 -193 -193 94 94 93 93 92 93 92 91 91 91 90 93 97 99 95 89 0 0 0 0 0
    0 0 0 0 0 0 0 0 0 0 0 0 0 0 0 0 0 0 0 0 0 0 0 0 0 0 0 0 0 0 0 0 0 0 0 0 0 0 0 0 0 0 0 0 0 0 0 0 0 0 0 0 0 0 0 0 0 0 0 0 0 0 0 0 0 0 0 0 0 35 36 36 34 35 37 36 36 37 39 37 37 39 38 37 36 39 38 -225 -225 -225 -225 -225 -225 -225 -225 -225 -225 -225 -225 -225 -225 -225 -225 -225 -225 30 21 23 28 -193 31 36 33 35 35 33 35 35 33 35 34 35 34 35 38 38 39 34 35 34 39 38 37 37 36 31 42 44 -225 -225 -225 -225 -225 -225 -225 -225 -225 -225 33 38 33 35 36 36 36 36 37 -193 -193 42 -225 -225 -225 -225 -225 -225 -225 339 -193 29 29 33 36 44 40 42 45 -193 -177 -193 -209 -209 -209 -209 -209 -209 -209 77 77 75 -225 -225 -225 -225 87 82 83 81 80 80 81 80 82 76 -225 -225 -225 -225 -225 124 137 141 92 90 89 89 89 87 85 68 73 73 74 77 80 79 78 80 83 87 83 80 78 81 84 86 85 86 85 88 89 89 89 90 -193 93 93 96 94 -193 93 95 96 98 97 95 92 95 93 96 92 92 94 93 93 95 94 94 93 94 94 93 94 93 92 92 92 91 -209 -209 -209 -209 -209 -209 -209 -209 -209 -193 -209 -193 101 99 101 101 100 95 96 96 95 94 94 92 92 92 93 92 91 91 91 90 94 97 97 92 88 0 0 0 0 0
    0 0 0 0 0 0 0 0 0 0 0 0 0 0 0 0 0 0 0 0 0 0 0 0 0 0 0 0 0 0 0 0 0 0 0 0 0 0 0 0 0 0 0 0 0 0 0 0 0 0 0 0 0 0 0 0 0 0 0 0 0 0 0 0 0 0 0 0 0 36 35 35 34 36 37 36 37 36 39 40 39 42 -225 -225 -225 -225 -225 -225 -225 0 -256 -1 27943 -225 -225 -225 -225 -225 -225 -225 -225 -225 -225 -225 -225 -225 -225 20 -193 -209 35 38 35 37 35 34 37 36 32 34 33 33 31 34 37 36 39 34 35 35 39 38 37 36 36 30 42 -225 -225 -225 -225 -225 -225 -225 -225 -225 -225 -225 -225 38 34 36 36 36 36 -193 -193 -193 -193 -225 -225 -225 -225 -225 -225 -225 -225 -225 -193 29 29 34 36 44 40 43 -193 -193 -177 -209 -209 -209 -209 -209 -209 -209 75 76 77 77 -225 -225 -225 -225 87 82 83 81 80 81 82 81 83 78 -193 -225 96 105 113 118 119 -209 91 89 88 88 88 87 86 68 73 73 74 75 75 76 77 -225 -225 -225 82 80 79 80 84 87 86 87 87 90 92 92 92 93 91 98 101 100 97 94 94 95 95 98 97 95 93 96 93 97 92 92 94 93 93 95 94 93 93 94 94 93 93 93 91 92 91 90 -209 -209 -209 -209 -209 -209 -209 -209 -209 -209 -209 -193 99 98 100 100 99 95 96 96 95 94 94 93 93 92 93 92 91 91 89 89 90 93 92 90 88 0 0 0 0 0
    0 0 0 0 0 0 0 0 0 0 0 0 0 0 0 0 0 0 0 0 0 0 0 0 0 0 0 0 0 0 0 0 0 0 0 0 0 0 0 0 0 0 0 0 0 0 0 0 0 0 0 0 0 0 0 0 0 0 0 0 0 0 0 0 0 0 0 0 0 -225 -225 -225 -225 -225 -225 -225 -225 -225 -225 -225 -225 -225 -225 -225 -225 -225 -225 -225 -225 -225 -225 -225 -225 -225 -225 -225 -225 -225 -225 -225 -225 -225 -225 -225 -225 -225 -225 -225 -225 -225 40 41 39 39 38 35 38 -193 -193 -193 28 28 27 30 33 30 38 34 35 35 39 38 37 36 36 31 -225 -225 -225 -225 -225 -225 -225 -225 -225 -225 -225 -225 -225 -225 -225 37 -193 37 37 -193 -193 -225 -225 -225 -225 -225 -225 -225 -225 -225 -225 -225 -225 27 29 35 36 45 -193 -193 -177 -193 -193 -209 -209 -209 -193 76 76 76 77 78 78 78 -225 -225 -225 -225 87 82 83 81 81 82 83 82 84 80 89 90 97 104 107 111 112 104 92 90 88 89 88 86 84 67 69 73 73 73 73 74 75 -225 -225 -225 80 79 79 79 84 87 86 87 87 90 92 92 92 94 91 99 103 101 101 100 99 99 96 99 98 96 94 96 93 98 93 93 94 93 94 95 94 94 93 94 94 93 93 93 91 92 92 90 -209 -209 -209 -209 -209 -209 -209 -209 -209 -209 -209 -193 -193 95 97 96 97 94 95 95 95 94 95 94 93 93 93 92 91 90 87 86 88 90 90 89 88 0 0 0 0 0
    0 0 0 0 0 0 0 0 0 0 0 0 0 0 0 0 0 0 0 0 0 0 0 0 0 0 0 0 0 0 0 0 0 0 0 0 0 0 0 0 0 0 0 0 0 0 0 0 0 0 0 0 0 0 0 0 0 0 0 0 0 0 0 0 0 0 0 0 0 -225 -225 -225 -225 -225 -225 -225 -225 -225 -225 -225 -225 -225 -225 -225 -225 -225 -225 -225 -225 -225 -225 -225 -225 -225 -225 -225 -225 -225 -225 -225 -225 -225 -225 -225 -225 -225 -225 -225 -225 -225 -225 -225 -225 -225 -225 -225 -225 -225 -225 -225 -225 -225 -225 -225 -225 -225 -225 -225 -225 -225 -225 -225 -225 -225 -225 -225 -225 -225 -225 -225 -225 -225 -225 -225 -225 -225 -225 -225 -225 -225 -225 -225 -225 -225 -225 -225 -225 -225 -225 -225 -225 -225 -225 -225 -225 -225 -225 -225 -225 -225 -225 -225 -225 -193 -193 788 784 -193 -193 -209 -193 75 77 77 77 76 78 78 78 80 87 -225 -225 -225 86 81 83 81 81 82 83 83 85 82 90 92 98 102 104 106 108 103 94 92 90 89 87 85 83 71 71 73 74 75 74 75 76 77 -225 -225 80 78 78 79 84 87 86 87 88 90 92 93 93 94 90 98 102 101 102 102 -193 -193 -193 102 102 98 97 100 95 99 92 93 95 93 94 95 94 94 93 95 94 94 94 93 -193 92 -193 90 -209 -209 -209 -209 -209 -209 -209 -209 -209 -209 -209 -193 -193 93 94 94 94 94 94 95 95 95 96 95 94 94 94 94 92 91 88 88 88 91 90 88 88 0 0 0 0 0
    0 0 0 0 0 0 0 0 0 0 0 0 0 0 0 0 0 0 0 0 0 0 0 0 0 0 0 0 0 0 0 0 0 0 0 0 0 0 0 0 0 0 0 0 0 0 0 0 0 0 0 0 0 0 0 0 0 0 0 0 0 0 0 0 0 0 0 0 0 -225 -225 -225 -225 -225 -225 -225 -225 -225 -225 -225 -225 -225 -225 -225 -225 -225 -225 -225 -225 -225 -225 -225 -225 -225 -225 -225 -225 -225 -225 -225 -225 -225 -225 -225 -225 -225 -225 -225 -225 -225 -225 -225 -225 -225 -225 -225 -225 -225 -225 -225 -225 -225 -225 -225 -225 -225 -225 -225 -225 -225 -225 -225 -225 -225 -225 -225 -225 -225 -225 -225 -225 -225 -225 -225 -225 -225 -225 -225 -225 -225 -225 -225 -225 -225 -225 -225 -225 -225 -225 -225 -225 -225 -225 -225 -225 -225 -225 -225 -225 -225 -225 -225 -225 -225 -225 -225 -225 -209 74 76 76 76 77 78 78 76 78 78 78 80 87 -225 -225 -225 85 80 82 81 82 83 84 84 87 86 92 96 99 101 104 106 106 102 94 92 89 88 87 84 81 73 72 73 74 76 75 76 76 78 81 85 80 79 79 80 84 87 85 86 87 90 92 92 92 93 90 98 103 101 -209 -209 16 -193 -209 102 104 99 99 101 96 99 92 93 95 93 94 96 94 94 94 96 95 94 94 94 -193 93 92 90 -209 -193 -193 -209 -209 -209 -209 -209 -209 -209 -209 -209 -209 91 93 93 93 93 94 96 96 96 97 96 96 97 97 96 93 92 90 90 91 93 91 90 88 0 0 0 0 0
    0 0 0 0 0 0 0 0 0 0 0 0 0 0 0 0 0 0 0 0 0 0 0 0 0 0 0 0 0 0 0 0 0 0 0 0 0 0 0 0 0 0 0 0 0 0 0 0 0 0 0 0 0 0 0 0 0 0 0 0 0 0 0 0 0 0 0 0 0 -225 -225 -225 -225 -225 -225 -225 -225 -225 -225 -225 -225 -225 -225 -225 -225 -225 -225 -225 -225 -225 -225 -225 -225 -225 -225 -225 -225 -225 -225 -225 -225 -225 -225 -225 -225 -225 -225 -225 -225 -225 -225 -225 -225 -225 -225 -225 -225 -225 -225 -225 -225 -225 -225 -225 -225 -225 -225 -225 -225 -225 -225 -225 -225 -225 -225 -225 -225 -225 -225 -225 -225 -225 -225 -225 -225 -225 -225 -225 -225 -225 -225 -225 -225 -225 -225 -225 -225 -225 -225 -225 -225 -225 -225 -225 -225 -225 -225 -225 -225 -225 -225 -225 -225 -225 -225 -225 -225 75 75 76 76 76 77 78 78 76 79 80 80 82 88 -225 -225 -225 -225 79 82 83 84 85 87 87 90 90 94 98 99 101 102 104 103 96 92 90 88 87 85 83 82 75 75 75 76 77 77 78 78 78 83 85 81 81 80 80 83 86 85 86 87 90 91 91 91 91 89 97 104 -209 -193 0 13 18 -193 -193 -193 99 -177 100 95 98 91 92 95 93 94 96 95 95 96 97 98 96 97 96 94 94 -193 90 -209 82 84 -209 -209 -209 86 -209 -209 -193 -209 -209 -209 90 93 92 93 94 95 97 96 97 98 97 98 99 98 98 95 96 93 92 94 94 92 92 90 0 0 0 0 0
    0 0 0 0 0 0 0 0 0 0 0 0 0 0 0 0 0 0 0 0 0 0 0 0 0 0 0 0 0 0 0 0 0 0 0 0 0 0 0 0 0 0 0 0 0 0 0 0 0 0 0 0 0 0 0 0 0 0 0 0 0 0 0 0 0 0 0 0 0 -225 -225 -225 -225 -225 -225 -225 -225 -225 -225 -225 -225 -225 -225 -225 -225 -225 -225 -225 -225 -225 -225 -225 -225 -225 -225 -225 -225 -225 -225 -225 -225 -225 -225 -225 -225 -225 -225 -225 -225 -225 -225 -225 -225 -225 -225 -225 -225 -225 -225 -225 -225 -225 -225 -225 -225 -225 -225 -225 -225 -225 -225 -225 -225 -225 -225 -225 -225 -225 -225 -225 -225 -225 -225 -225 -225 -225 -225 -225 -225 -225 -225 -225 -225 -225 -225 -225 -225 -225 -225 -225 -225 -225 -225 -225 -225 -225 -225 -225 -225 -225 -225 -225 -225 -225 -225 -225 -225 76 74 74 75 75 76 77 77 76 78 79 80 80 85 84 81 80 82 81 84 82 86 87 89 90 91 92 94 95 97 99 101 101 100 93 90 88 87 86 85 83 81 77 76 76 77 78 78 79 79 80 81 85 81 81 80 79 83 85 84 86 87 90 91 91 90 90 88 95 -209 -193 0 0 12 17 -193 -193 -193 -177 -177 -193 91 95 89 91 93 92 93 95 95 97 97 99 99 99 100 98 96 96 -193 91 -209 -209 -209 -209 -209 -209 87 -193 -193 87 -209 -209 -209 91 93 91 93 94 96 98 98 99 100 100 101 102 101 101 101 101 98 96 97 96 93 92 91 0 0 0 0 0
    0 0 0 0 0 0 0 0 0 0 0 0 0 0 0 0 0 0 0 0 0 0 0 0 0 0 0 0 0 0 0 0 0 0 0 0 0 0 0 0 0 0 0 0 0 0 0 0 0 0 0 0 0 0 0 0 0 0 0 0 0 0 0 0 0 0 0 0 0 -225 -225 -225 -225 -225 -225 -225 -225 -225 -225 -225 -225 -225 -225 -225 -225 -225 -225 -225 -225 -225 -225 -225 -225 -225 -225 -225 -225 -225 -225 -225 -225 -225 -225 -225 -225 -225 -225 -225 -225 -225 -225 -225 -225 -225 -225 -225 -225 -225 -225 -225 -225 -225 -225 -225 -225 -225 -225 -225 -225 -225 -225 -225 -225 -225 -225 -225 -225 -225 -225 -225 -225 -225 -225 -225 -225 -225 -225 -225 -225 -225 -225 -225 -225 -225 -225 -225 -225 -225 -225 -225 -225 -225 -225 -225 -225 -225 -225 -225 -225 -225 -225 -225 -225 -225 -225 -225 -225 77 75 75 77 76 76 77 78 76 78 79 81 79 83 83 81 79 79 81 83 80 86 87 89 91 92 92 93 94 96 96 98 96 96 92 90 88 88 87 85 83 82 77 78 77 78 78 79 80 80 80 82 83 81 81 81 79 82 84 83 85 86 90 90 90 88 89 87 -193 -193 -193 10 0 13 19 -209 -209 -209 -193 -177 -193 91 92 87 90 90 91 92 95 97 98 99 100 100 100 100 98 97 96 -193 90 -209 -209 -209 -209 -209 -209 88 -193 88 87 -193 -209 -193 89 90 89 92 94 98 99 100 101 102 103 103 104 104 104 105 104 102 100 101 100 94 91 89 0 0 0 0 0
    0 0 0 0 0 0 0 0 0 0 0 0 0 0 0 0 0 0 0 0 0 0 0 0 0 0 0 0 0 0 0 0 0 0 0 0 0 0 0 0 0 0 0 0 0 0 0 0 0 0 0 0 0 0 0 0 0 0 0 0 0 0 0 0 0 0 0 0 0 -225 -225 -225 -225 -225 -225 -225 -225 -225 -225 -225 -225 -225 -225 -225 -225 -225 -225 -225 -225 -225 -225 -225 -225 -225 -225 -225 -225 -225 -225 -225 -225 -225 -225 -225 -225 -225 -225 -225 -225 -225 -225 -225 -225 -225 -225 -225 -225 -225 -225 -225 -225 -225 -225 -225 -225 -225 -225 -225 -225 -225 -225 -225 -225 -225 -225 -225 -225 -225 -225 -225 -225 -225 -225 -225 -225 -225 -225 -225 -225 -225 -225 -225 -225 -225 -225 -225 -225 -225 -225 -225 -225 -225 -225 -225 -225 -225 -225 -225 -225 -225 -225 -225 -225 -225 -225 -225 -225 78 76 76 78 77 77 78 79 77 79 80 82 80 82 83 82 80 79 82 83 79 85 86 88 88 89 90 91 91 92 91 94 92 92 89 88 87 87 86 85 83 83 78 81 80 80 81 82 83 82 82 83 83 82 83 82 81 82 83 83 84 85 89 89 89 87 88 87 -209 11 -193 11 9 14 -193 -209 -209 -209 -177 105 -193 98 102 90 92 90 91 91 93 96 97 98 99 99 99 98 96 96 95 93 90 -193 -209 -209 -209 90 89 90 90 88 87 -193 89 88 89 90 89 92 95 97 98 100 101 103 103 104 105 105 105 106 105 104 102 102 100 93 90 88 0 0 0 0 0
    0 0 0 0 0 0 0 0 0 0 0 0 0 0 0 0 0 0 0 0 0 0 0 0 0 0 0 0 0 0 0 0 0 0 0 0 0 0 0 0 0 0 0 0 0 0 0 0 0 0 0 0 0 0 0 0 0 0 0 0 0 0 0 0 0 0 0 0 0 -225 -225 -225 -225 -225 -225 -225 -225 -225 -225 -225 -225 -225 -225 -225 -225 -225 -225 -225 -225 -225 -225 -225 -225 -225 -225 -225 -225 -225 -225 -225 -225 -225 -225 -225 -225 -225 -225 -225 -225 -225 -225 -225 -225 -225 -225 -225 -225 -225 -225 -225 -225 -225 -225 -225 -225 -225 -225 -225 -225 -225 -225 -225 -225 -225 -225 -225 -225 -225 -225 -225 -225 -225 -225 -225 -225 -225 -225 -225 -225 -225 -225 -225 -225 -225 -225 -225 -225 -225 -225 -225 -225 -225 -225 -225 -225 -225 -225 -225 -225 -225 -225 -225 -225 -225 -225 -225 -225 81 78 79 81 79 79 80 80 79 80 81 83 80 82 83 82 80 79 83 82 78 85 86 87 87 88 88 89 90 90 90 91 90 90 87 87 86 85 85 84 82 83 80 83 82 82 82 82 84 84 84 84 84 83 85 85 84 83 82 81 83 84 87 87 87 86 86 86 -209 -193 -209 10 0 13 -209 -209 -209 -209 102 -193 103 98 101 -193 93 91 92 91 93 96 98 98 98 98 97 96 95 95 94 92 90 -193 -209 -209 -193 91 91 91 90 88 87 85 88 87 88 89 88 92 95 97 98 100 101 103 103 104 105 105 106 107 106 105 103 103 100 94 92 90 0 0 0 0 0
    0 0 0 0 0 0 0 0 0 0 0 0 0 0 0 0 0 0 0 0 0 0 0 0 0 0 0 0 0 0 0 0 0 0 0 0 0 0 0 0 0 0 0 0 0 0 0 0 0 0 0 0 0 0 0 0 0 0 0 0 0 0 0 0 0 0 0 0 0 -225 -225 -225 -225 -225 -225 -225 -225 -225 -225 -225 -225 -225 -225 -225 -225 -225 -225 -225 -225 -225 -225 -225 -225 -225 -225 -225 -225 -225 -225 -225 -225 -225 -225 -225 -225 -225 -225 -225 -225 -225 -225 -225 -225 -225 -225 -225 -225 -225 -225 -225 -225 -225 -225 -225 -225 -225 -225 -225 -225 -225 -225 -225 -225 -225 -225 -225 -225 -225 -225 -225 -225 -225 -225 -225 -225 -225 -225 -225 -225 -225 -225 -225 -225 -225 -225 -225 -225 -225 -225 -225 -225 -225 -225 -225 -225 -225 -225 -225 -225 -225 -225 -225 -225 -225 -225 -225 -225 -225 80 81 83 80 79 80 81 80 80 80 82 79 80 82 82 80 79 83 82 78 85 86 86 86 87 87 88 90 89 89 90 89 89 87 86 85 84 83 83 80 83 81 84 83 82 82 83 84 85 85 85 85 84 87 87 87 86 81 80 81 83 86 86 86 85 84 -193 -209 -209 -209 11 -193 15 -209 -209 101 -193 101 -193 97 95 -193 -193 93 91 91 90 -193 -193 99 98 98 98 97 95 95 94 94 -193 90 -193 -209 -209 -193 93 94 93 91 87 86 84 87 86 87 88 88 92 94 97 98 99 101 102 102 103 105 105 106 106 106 104 103 103 102 97 93 90 0 0 0 0 0
    0 0 0 0 0 0 0 0 0 0 0 0 0 0 0 0 0 0 0 0 0 0 0 0 0 0 0 0 0 0 0 0 0 0 0 0 0 0 0 0 0 0 0 0 0 0 0 0 0 0 0 0 0 0 0 0 0 0 0 0 0 0 0 0 0 0 0 0 0 -225 -225 -225 -225 -225 -225 -225 -225 -225 -225 -225 -225 -225 -225 -225 -225 -225 -225 -225 -225 -225 -225 -225 -225 -225 -225 -225 -225 -225 -225 -225 -225 -225 -225 -225 -225 -225 -225 -225 -225 -225 -225 -225 -225 -225 -225 -225 -225 -225 -225 -225 -225 -225 -225 -225 -225 -225 -225 -225 -225 -225 -225 -225 -225 -225 -225 -225 -225 -225 -225 -225 -225 -225 -225 -225 -225 -225 -225 -225 -225 -225 -225 -225 -225 -225 -225 -225 -225 -225 -225 -225 -225 -225 -225 -225 -225 -225 -225 -225 -225 -225 -225 -225 -225 -225 -225 -225 -225 -225 81 80 84 80 78 79 80 79 79 79 82 78 80 83 82 80 79 83 82 79 85 86 85 85 86 86 87 89 89 89 90 88 88 87 86 86 85 83 83 81 83 82 84 83 83 82 83 84 86 86 85 86 87 88 89 89 89 79 79 80 84 86 86 87 85 -193 -209 -209 -209 -209 -177 -209 -193 -209 101 102 100 101 100 96 94 -193 -193 93 92 -193 -193 -193 -193 99 98 97 97 95 94 94 94 94 91 90 -209 -209 -209 92 95 96 93 91 88 86 84 87 86 87 88 89 94 95 97 98 100 101 102 101 102 103 104 105 105 105 103 103 103 101 98 93 89 0 0 0 0 0
    0 0 0 0 0 0 0 0 0 0 0 0 0 0 0 0 0 0 0 0 0 0 0 0 0 0 0 0 0 0 0 0 0 0 0 0 0 0 0 0 0 0 0 0 0 0 0 0 0 0 0 0 0 0 0 0 0 0 0 0 0 0 0 0 0 0 0 0 0 -225 -225 -225 -225 -225 -225 -225 -225 -225 -225 -225 -225 -225 -225 -225 -225 -225 -225 -225 -225 -225 -225 -225 -225 -225 -225 -225 -225 -225 -225 -225 -225 -225 -225 -225 -225 -225 -225 -225 -225 -225 -225 -225 -225 -225 -225 -225 -225 -225 -225 -225 -225 -225 -225 -225 -225 -225 -225 -225 -225 -225 -225 -225 -225 -225 -225 -225 -225 -225 -225 -225 -225 -225 -225 -225 -225 -225 -225 -225 -225 -225 -225 -225 -225 -225 -225 -225 -225 -225 -225 -225 -225 -225 -225 -225 -225 -225 -225 -225 -225 -225 -225 -225 -225 -225 -225 -225 -225 84 82 82 85 83 79 80 81 80 79 80 82 78 79 83 82 80 80 83 83 79 84 85 84 84 86 86 87 89 89 89 89 89 88 86 86 85 84 83 83 81 82 82 83 83 83 82 83 84 86 86 86 86 87 89 89 90 90 77 78 79 85 86 87 88 84 83 -209 -209 -209 -209 -193 -193 -193 -209 98 -209 99 101 100 96 95 97 -193 96 97 97 93 -193 -193 100 98 96 96 93 93 93 93 93 91 89 -193 -209 -209 92 93 94 92 90 -193 85 84 88 87 -193 92 93 96 96 98 99 100 100 101 101 102 103 104 105 105 103 103 102 102 99 95 92 89 0 0 0 0 0
    0 0 0 0 0 0 0 0 0 0 0 0 0 0 0 0 0 0 0 0 0 0 0 0 0 0 0 0 0 0 0 0 0 0 0 0 0 0 0 0 0 0 0 0 0 0 0 0 0 0 0 0 0 0 0 0 0 0 0 0 0 0 0 0 0 0 0 0 0 -225 -225 -225 -225 -225 -225 -225 -225 -225 -225 -225 -225 -225 -225 -225 -225 -225 -225 -225 -225 -225 -225 -225 -225 -225 -225 -225 -225 -225 -225 -225 -225 -225 -225 -225 -225 -225 -225 -225 -225 -225 -225 -225 -225 -225 -225 -225 -225 -225 -225 -225 -225 -225 -225 -225 -225 -225 -225 -225 -225 -225 -225 -225 -225 -225 -225 -225 -225 -225 -225 -225 -225 -225 -225 -225 -225 -225 -225 -225 -225 -225 -225 -225 -225 -225 -225 -225 -225 -225 -225 -225 -225 -225 -225 -225 -225 -225 -225 -225 -225 -225 -225 -225 -225 -225 -225 -225 -225 84 81 81 84 83 79 79 80 79 78 79 82 78 78 82 82 80 80 83 82 78 83 85 83 83 85 85 86 87 87 87 87 87 87 85 85 85 84 83 83 81 82 82 84 84 84 83 84 85 87 86 86 86 86 87 89 89 89 75 77 80 84 85 85 -193 80 79 -209 -209 -209 -209 -193 -177 -193 -209 101 -209 99 100 100 96 95 97 97 97 98 99 97 -193 -193 101 99 96 96 94 94 94 93 93 91 90 -209 -193 -209 -193 -193 95 92 91 -193 86 87 -209 -209 -209 101 101 99 98 99 100 100 100 100 100 101 102 104 104 103 103 102 101 100 97 94 92 90 0 0 0 0 0
    0 0 0 0 0 0 0 0 0 0 0 0 0 0 0 0 0 0 0 0 0 0 0 0 0 0 0 0 0 0 0 0 0 0 0 0 0 0 0 0 0 0 0 0 0 0 0 0 0 0 0 0 0 0 0 0 0 0 0 0 0 0 0 0 0 0 0 0 0 -225 -225 -225 -225 -225 -225 -225 -225 -225 -225 -225 -225 -225 -225 -225 -225 -225 -225 -225 -225 -225 -225 -225 -225 -225 -225 -225 -225 -225 -225 -225 -225 -225 -225 -225 -225 -225 -225 -225 -225 -225 -225 -225 -225 -225 -225 -225 -225 -225 -225 -225 -225 -225 -225 -225 -225 -225 -225 -225 -225 -225 -225 -225 -225 -225 -225 -225 -225 -225 -225 -225 -225 -225 -225 -225 -225 -225 -225 -225 -225 -225 -225 -225 -225 -225 -225 -225 -225 -225 -225 -225 -225 -225 -225 -225 -225 -225 -225 -225 -225 -225 -225 -225 -225 -225 -225 77 84 83 81 80 83 83 79 78 79 78 77 77 80 77 76 80 81 79 80 83 82 79 83 84 83 83 84 84 85 86 86 86 87 86 86 85 84 84 84 83 83 81 82 83 84 85 84 83 84 85 88 87 86 86 85 86 89 89 89 74 77 86 84 -193 84 -209 -209 -209 -209 -209 -209 -209 -193 -209 -209 -209 -193 -209 100 101 100 98 95 97 98 98 99 101 100 -193 -193 102 99 97 97 94 94 94 93 94 92 91 -209 -193 -209 -193 -209 95 92 90 89 87 -209 -209 96 97 101 100 97 96 98 99 98 98 99 99 100 101 102 102 100 99 99 97 96 95 94 92 91 0 0 0 0 0</data></disparity>
</opencv_storage>
