<?xml version="1.0"?>
<opencv_storage>
<gps_time_stamp>296022</gps_time_stamp>
<gps_x>-1.2407039642333984e+001</gps_x>
<gps_y>1.1002529144287109e+001</gps_y>
<gps_z>-2.0689132213592529e+000</gps_z>
<image_time_stamp>286861</image_time_stamp>
<disparity type_id="opencv-matrix">
  <rows>90</rows>
  <cols>320</cols>
  <dt>s</dt>
  <data>
    0 0 0 0 0 0 0 0 0 0 0 0 0 0 0 0 0 0 0 0 0 0 0 0 0 0 0 0 0 0 0 0 0 0 0 0 0 0 0 0 0 0 0 0 0 0 0 0 0 0 0 0 0 0 0 0 0 0 0 0 0 0 0 0 0 0 0 0 0 69 68 68 67 68 66 67 69 68 66 -193 -193 -177 57 58 58 57 57 56 57 54 53 49 51 48 47 48 47 44 44 44 44 42 41 41 40 36 38 35 35 35 33 33 34 31 32 30 30 29 26 25 25 21 21 20 20 20 19 18 19 19 18 18 18 17 15 14 14 14 11 11 11 10 10 9 9 0 0 0 0 0 0 0 0 0 0 0 0 0 0 0 0 0 0 9 0 0 9 13 13 15 18 16 18 17 19 17 18 17 17 18 19 19 22 21 24 25 27 27 28 30 31 27 30 32 29 32 32 31 31 32 35 33 34 40 39 38 39 44 41 42 42 42 42 43 47 46 43 48 49 51 52 52 51 50 52 49 50 51 53 50 52 -177 56 57 57 57 -193 59 62 62 60 62 61 63 64 63 65 62 66 65 62 63 67 68 -193 -193 -177 -177 74 77 -193 -209 75 -209 -209 -209 -209 86 87 86 85 86 84 83 84 85 87 87 88 91 93 85 85 84 84 83 85 -193 85 78 90 100 100 101 103 100 101 103 113 108 108 111 108 109 111 111 113 109 111 112 110 113 111 112 113 0 0 0 0 0
    0 0 0 0 0 0 0 0 0 0 0 0 0 0 0 0 0 0 0 0 0 0 0 0 0 0 0 0 0 0 0 0 0 0 0 0 0 0 0 0 0 0 0 0 0 0 0 0 0 0 0 0 0 0 0 0 0 0 0 0 0 0 0 0 0 0 0 0 0 69 68 68 67 68 66 67 68 68 65 -193 -193 -177 57 57 58 57 57 56 56 54 53 49 51 48 48 48 47 45 45 45 44 42 41 41 40 36 38 35 35 35 33 33 34 32 32 30 30 29 26 25 25 22 22 21 21 21 20 19 20 20 19 17 18 16 14 14 14 14 12 11 12 11 10 10 9 0 0 0 0 0 0 0 0 0 0 0 0 0 0 0 0 0 0 0 0 0 10 14 14 16 18 16 18 17 19 17 18 17 18 18 19 19 23 21 24 25 27 27 28 30 31 27 30 32 29 31 31 30 31 31 34 33 31 39 37 37 38 42 39 40 40 40 40 -177 45 46 43 47 49 51 51 51 51 50 51 49 50 51 54 52 54 380 57 58 58 58 61 60 62 62 60 62 62 62 65 63 65 62 66 65 62 63 67 -193 -193 -193 444 -177 -193 77 78 -209 75 76 -209 -209 -193 84 85 85 84 85 84 83 83 85 87 87 89 91 93 86 86 85 85 84 85 -193 86 80 91 101 100 100 103 100 100 103 113 108 108 110 108 109 110 110 113 108 111 111 109 113 111 113 113 0 0 0 0 0
    0 0 0 0 0 0 0 0 0 0 0 0 0 0 0 0 0 0 0 0 0 0 0 0 0 0 0 0 0 0 0 0 0 0 0 0 0 0 0 0 0 0 0 0 0 0 0 0 0 0 0 0 0 0 0 0 0 0 0 0 0 0 0 0 0 0 0 0 0 68 67 68 67 67 65 67 68 68 65 -193 -193 -177 57 57 58 57 57 56 56 54 52 49 51 49 48 48 47 45 45 45 45 43 41 41 40 37 39 35 35 35 32 33 34 32 32 29 30 29 26 25 25 23 23 22 22 22 21 20 21 21 19 17 18 16 14 14 14 14 12 12 12 11 10 10 10 9 0 0 0 0 0 0 0 0 0 0 0 0 0 0 0 0 0 0 0 0 0 12 12 15 18 16 18 17 18 17 18 17 18 18 19 19 23 22 24 25 27 27 28 30 31 27 29 32 29 31 31 30 30 31 34 33 30 38 37 37 38 40 38 39 39 39 39 -177 -193 -193 43 46 49 50 50 51 50 50 51 50 51 51 54 54 -193 381 58 58 59 59 61 60 62 62 60 62 62 63 65 63 66 63 66 65 62 63 67 -193 -193 -193 444 -177 -193 77 78 77 75 77 -193 -193 75 82 84 84 84 85 84 83 82 85 86 87 89 91 93 87 87 86 86 85 86 -193 87 84 91 101 100 100 102 100 101 103 113 108 108 110 108 109 110 110 112 108 111 111 109 113 111 113 113 0 0 0 0 0
    0 0 0 0 0 0 0 0 0 0 0 0 0 0 0 0 0 0 0 0 0 0 0 0 0 0 0 0 0 0 0 0 0 0 0 0 0 0 0 0 0 0 0 0 0 0 0 0 0 0 0 0 0 0 0 0 0 0 0 0 0 0 0 0 0 0 0 0 0 68 67 68 67 67 64 67 68 68 64 -193 -193 -193 57 57 57 57 57 56 56 53 51 49 51 48 48 48 47 45 45 45 45 43 41 41 40 37 39 34 35 35 32 33 34 32 31 29 30 28 26 25 25 24 24 23 23 22 22 21 22 21 20 17 18 15 14 13 14 14 12 12 13 13 11 11 12 10 0 0 0 0 0 0 0 0 0 0 0 0 0 0 0 0 0 0 0 0 0 12 12 15 17 15 18 17 18 17 18 17 18 18 19 19 23 22 24 25 27 27 28 29 30 27 28 32 28 30 30 30 30 31 33 33 30 38 36 36 37 40 37 38 38 38 38 -177 -177 -177 -193 46 49 49 49 50 50 49 50 50 51 51 54 56 -193 -177 58 59 60 59 62 61 62 63 61 63 63 63 65 64 66 63 66 65 61 62 66 -193 -193 -193 -177 -177 -193 76 77 77 75 77 73 81 76 82 84 84 83 84 84 83 82 85 86 87 89 91 93 88 87 87 87 86 87 -193 88 86 91 100 100 100 102 101 101 104 114 108 108 110 108 109 109 110 112 108 111 111 109 112 111 113 113 0 0 0 0 0
    0 0 0 0 0 0 0 0 0 0 0 0 0 0 0 0 0 0 0 0 0 0 0 0 0 0 0 0 0 0 0 0 0 0 0 0 0 0 0 0 0 0 0 0 0 0 0 0 0 0 0 0 0 0 0 0 0 0 0 0 0 0 0 0 0 0 0 0 0 67 67 67 67 66 63 67 68 68 64 -193 -193 -193 57 57 57 57 56 56 56 53 51 48 51 48 48 48 46 44 44 45 44 42 40 40 39 37 39 34 35 35 32 33 34 32 31 28 30 28 26 25 25 25 25 24 24 23 22 22 22 22 20 16 17 14 13 13 14 14 13 12 13 13 12 12 12 10 9 0 0 0 0 0 0 0 0 0 0 0 0 0 0 0 0 0 0 0 0 12 12 14 16 15 18 17 18 17 18 18 19 18 20 20 23 22 24 25 26 26 28 29 30 27 28 32 28 30 30 30 30 31 33 33 30 37 36 36 37 39 36 37 38 37 36 -177 -177 -177 -193 46 49 49 49 49 49 49 49 49 51 51 55 57 -193 -177 59 59 60 60 63 61 62 63 61 64 64 63 66 64 67 64 66 65 61 62 65 66 67 -193 -177 -177 73 76 76 76 76 77 74 82 76 82 84 83 83 84 84 84 82 85 86 88 90 91 93 89 88 88 88 87 88 -193 88 88 90 99 100 100 102 101 102 104 114 108 108 109 108 108 109 -193 -193 107 110 111 110 112 112 113 113 0 0 0 0 0
    0 0 0 0 0 0 0 0 0 0 0 0 0 0 0 0 0 0 0 0 0 0 0 0 0 0 0 0 0 0 0 0 0 0 0 0 0 0 0 0 0 0 0 0 0 0 0 0 0 0 0 0 0 0 0 0 0 0 0 0 0 0 0 0 0 0 0 0 0 67 67 67 67 66 63 66 68 67 63 -193 -193 -193 57 57 57 57 56 55 55 53 50 48 50 48 48 48 46 44 44 44 44 42 40 40 39 37 39 34 35 34 33 33 34 32 31 28 30 28 27 26 25 26 26 24 24 23 23 22 22 22 19 16 16 14 13 12 13 13 13 12 12 13 11 12 12 10 0 0 0 0 0 0 0 0 0 0 0 0 0 0 0 0 0 0 0 0 0 12 12 14 16 15 18 17 18 18 19 19 20 19 20 20 23 23 24 24 26 26 28 29 29 27 28 32 28 30 30 29 29 32 33 33 30 37 36 36 37 39 36 37 37 36 35 -177 -193 -177 -193 45 49 48 48 48 49 49 49 49 51 51 55 59 -193 -193 59 59 61 61 64 62 62 64 62 65 65 63 66 64 68 65 66 66 61 63 65 66 68 -209 -193 -209 73 76 76 77 76 78 76 83 78 83 84 83 83 84 84 84 82 85 86 88 91 92 93 91 89 89 89 89 89 89 89 89 90 99 100 100 102 102 103 105 115 108 108 108 108 108 108 -193 -193 107 110 111 110 112 112 113 112 0 0 0 0 0
    0 0 0 0 0 0 0 0 0 0 0 0 0 0 0 0 0 0 0 0 0 0 0 0 0 0 0 0 0 0 0 0 0 0 0 0 0 0 0 0 0 0 0 0 0 0 0 0 0 0 0 0 0 0 0 0 0 0 0 0 0 0 0 0 0 0 0 0 0 67 67 67 67 66 62 67 68 67 62 -193 -193 59 57 56 56 56 55 55 55 53 50 49 50 48 48 48 45 43 43 44 43 42 40 39 -193 37 39 34 34 34 33 33 34 32 31 28 30 29 27 26 25 26 26 24 25 24 23 22 22 21 20 16 17 14 13 12 13 13 12 11 12 12 11 11 11 10 0 0 0 0 0 0 0 0 0 0 0 0 0 0 0 0 0 0 0 0 0 13 12 14 16 15 19 18 19 19 20 20 21 20 21 21 24 23 24 25 26 26 28 30 29 27 29 33 28 30 30 29 29 32 33 33 30 37 37 37 37 39 35 36 37 35 35 -177 38 -177 -193 45 49 49 48 49 49 49 48 49 52 51 55 61 59 -193 60 60 62 61 64 62 62 64 62 65 66 64 66 64 68 66 66 67 62 63 66 67 68 -209 71 -193 73 75 76 77 77 78 76 83 78 83 84 83 83 84 84 83 81 85 85 88 91 92 93 94 90 90 90 90 90 90 90 90 90 99 100 100 103 103 104 106 115 108 107 107 -193 107 107 -193 -193 107 109 110 110 111 111 112 112 0 0 0 0 0
    0 0 0 0 0 0 0 0 0 0 0 0 0 0 0 0 0 0 0 0 0 0 0 0 0 0 0 0 0 0 0 0 0 0 0 0 0 0 0 0 0 0 0 0 0 0 0 0 0 0 0 0 0 0 0 0 0 0 0 0 0 0 0 0 0 0 0 0 0 67 67 67 67 65 61 68 68 67 60 -193 56 58 57 56 56 56 55 55 55 53 50 50 50 48 48 48 45 43 43 43 43 42 40 -193 -193 37 39 34 34 34 33 32 33 32 31 28 30 29 28 26 26 28 27 26 25 24 23 23 22 22 20 16 17 13 13 12 12 12 12 11 11 12 10 11 10 9 0 0 0 0 0 0 0 0 0 0 0 0 0 0 0 0 0 0 0 0 0 13 12 -193 17 16 20 19 20 20 21 22 -193 21 22 22 25 24 25 26 27 26 29 31 30 28 30 34 28 30 30 29 29 32 33 33 29 37 37 37 37 39 35 36 36 35 34 -177 38 -177 -193 46 50 49 49 49 49 49 48 49 51 51 55 61 59 -193 60 59 62 62 64 63 62 64 -193 66 66 64 66 64 68 66 66 68 62 -193 66 67 68 70 71 -193 72 74 75 76 76 77 76 83 78 83 84 83 83 84 83 83 81 84 85 89 91 92 93 96 92 92 92 92 91 92 91 92 90 98 99 100 103 104 105 107 114 107 107 107 -193 107 -193 -193 -193 107 109 110 109 110 111 112 111 0 0 0 0 0
    0 0 0 0 0 0 0 0 0 0 0 0 0 0 0 0 0 0 0 0 0 0 0 0 0 0 0 0 0 0 0 0 0 0 0 0 0 0 0 0 0 0 0 0 0 0 0 0 0 0 0 0 0 0 0 0 0 0 0 0 0 0 0 0 0 0 0 0 0 67 67 67 67 65 61 68 68 67 59 -193 55 58 56 56 56 56 55 55 55 53 50 50 50 48 48 48 45 43 43 43 42 41 39 38 37 37 38 34 34 34 33 32 33 32 31 28 30 30 29 27 27 29 28 26 26 24 24 23 22 22 20 16 16 13 13 12 12 12 11 10 10 11 9 10 10 9 0 0 0 0 0 0 0 0 0 0 0 0 0 0 0 0 0 0 0 0 0 13 13 -193 18 17 20 20 21 21 22 23 -193 22 23 23 26 25 25 26 27 26 30 32 30 28 30 34 28 30 30 29 29 33 33 33 29 37 37 37 37 39 34 35 35 34 33 -177 37 -177 -193 46 50 49 49 49 49 49 48 49 51 50 54 61 -193 -177 59 59 62 62 64 63 62 65 -193 66 67 64 66 63 69 67 65 -193 -193 -193 65 66 68 -193 70 -193 71 73 73 75 75 77 76 82 78 83 83 83 83 84 83 83 81 84 85 89 92 93 94 98 93 93 93 93 92 93 93 93 90 97 98 99 102 104 105 106 114 106 106 -193 -193 107 -193 -193 -193 107 109 110 110 110 110 112 111 0 0 0 0 0
    0 0 0 0 0 0 0 0 0 0 0 0 0 0 0 0 0 0 0 0 0 0 0 0 0 0 0 0 0 0 0 0 0 0 0 0 0 0 0 0 0 0 0 0 0 0 0 0 0 0 0 0 0 0 0 0 0 0 0 0 0 0 0 0 0 0 0 0 0 67 67 68 68 66 61 68 68 67 58 -193 55 58 56 56 56 56 55 56 55 54 50 51 50 48 48 48 44 43 42 42 41 40 39 37 36 37 38 34 34 34 33 32 33 33 31 28 31 31 30 28 28 30 28 27 26 25 24 23 22 21 19 15 15 13 12 11 11 11 11 10 10 11 9 10 10 9 0 0 0 0 0 0 0 0 0 0 0 0 0 0 0 0 0 0 0 0 0 13 13 -193 18 17 21 21 22 22 23 25 -193 23 24 23 26 25 25 25 26 26 29 32 30 28 30 34 28 30 30 29 29 33 33 33 29 37 37 37 37 39 34 35 35 34 33 -177 37 -177 -193 46 50 49 49 49 50 49 48 49 51 50 54 61 -193 387 59 59 62 62 65 63 62 65 -193 66 67 64 66 63 69 67 64 -193 -193 -193 64 64 67 66 69 -193 70 72 73 75 75 76 76 82 78 84 83 83 83 84 84 84 82 85 85 90 92 93 94 99 94 94 94 94 93 95 94 94 90 96 98 99 102 104 105 106 113 -193 -193 -177 -177 107 -193 -193 109 107 109 110 110 110 110 111 111 0 0 0 0 0
    0 0 0 0 0 0 0 0 0 0 0 0 0 0 0 0 0 0 0 0 0 0 0 0 0 0 0 0 0 0 0 0 0 0 0 0 0 0 0 0 0 0 0 0 0 0 0 0 0 0 0 0 0 0 0 0 0 0 0 0 0 0 0 0 0 0 0 0 0 67 67 68 68 66 61 68 69 67 57 -193 55 58 56 56 56 56 55 56 56 55 50 52 50 48 48 48 43 42 41 42 40 40 38 36 35 37 38 34 34 34 33 32 33 33 31 28 32 32 32 28 29 30 28 26 26 24 24 23 22 21 19 15 14 12 12 11 11 11 11 10 10 11 9 10 9 9 0 0 0 0 0 0 0 0 0 0 0 0 0 0 0 0 0 0 0 0 0 13 13 16 18 18 21 21 22 23 -209 26 25 23 25 24 26 25 25 25 25 26 29 31 30 28 30 34 28 30 30 30 29 33 33 33 29 37 38 38 38 39 34 35 35 34 33 -193 37 -177 -193 46 50 50 50 49 50 49 48 49 51 50 54 60 -177 386 -193 59 62 62 65 63 61 65 63 65 67 64 66 63 68 67 64 67 -193 62 63 64 66 64 67 69 69 71 72 75 75 76 76 82 79 84 84 83 83 84 84 84 83 85 85 90 92 93 94 99 95 95 95 95 93 95 94 94 90 95 97 98 102 104 105 106 111 103 -193 -193 -177 107 -193 -193 109 107 109 110 110 110 110 111 110 0 0 0 0 0
    0 0 0 0 0 0 0 0 0 0 0 0 0 0 0 0 0 0 0 0 0 0 0 0 0 0 0 0 0 0 0 0 0 0 0 0 0 0 0 0 0 0 0 0 0 0 0 0 0 0 0 0 0 0 0 0 0 0 0 0 0 0 0 0 0 0 0 0 0 67 67 67 68 66 62 68 69 67 56 -193 54 57 56 56 56 56 55 57 57 56 52 53 50 49 49 48 42 42 41 41 39 39 38 36 35 37 38 34 34 34 34 32 34 33 31 29 33 33 33 29 30 30 28 26 25 24 23 22 21 20 18 15 14 12 12 11 10 10 10 10 10 11 9 9 9 9 0 0 0 0 0 0 0 0 0 0 0 0 0 0 0 0 0 0 0 0 0 14 14 18 20 19 21 22 23 23 -209 26 26 24 26 25 27 25 25 25 25 25 29 31 30 28 30 34 28 30 30 30 29 33 33 33 29 37 38 38 38 39 34 -177 36 34 -193 -193 37 -177 -193 46 51 50 50 50 50 49 48 48 50 49 53 59 384 386 -193 58 62 61 64 62 61 65 63 65 67 63 66 63 68 67 64 67 -193 62 63 64 66 63 67 68 68 71 72 74 75 76 76 82 79 84 84 83 83 84 85 85 83 85 85 91 92 93 94 100 95 96 95 95 93 95 95 95 90 95 97 98 102 104 105 106 109 102 102 -193 -177 106 -193 -193 109 -193 109 110 110 109 110 111 110 0 0 0 0 0
    0 0 0 0 0 0 0 0 0 0 0 0 0 0 0 0 0 0 0 0 0 0 0 0 0 0 0 0 0 0 0 0 0 0 0 0 0 0 0 0 0 0 0 0 0 0 0 0 0 0 0 0 0 0 0 0 0 0 0 0 0 0 0 0 0 0 0 0 0 67 67 67 68 66 62 68 69 67 55 54 54 56 56 56 56 56 56 58 57 57 53 54 50 49 49 48 42 42 41 41 39 39 38 36 34 37 37 35 34 34 34 32 34 34 31 30 34 33 33 29 30 29 27 25 24 23 22 21 20 19 17 15 14 12 13 12 10 10 10 10 9 10 0 9 0 9 0 0 0 0 0 0 0 0 0 0 0 0 0 0 0 0 0 0 0 0 0 15 15 19 20 19 22 22 24 24 25 27 26 25 26 25 27 25 25 25 25 25 28 31 29 28 30 34 28 30 30 29 29 33 33 32 29 37 39 39 39 40 35 -177 -193 35 -177 -193 37 -177 -193 47 51 50 50 50 50 49 48 48 49 48 53 -193 384 386 386 58 61 61 64 62 60 64 62 64 66 63 65 62 67 66 63 66 -193 61 63 64 66 62 66 67 68 70 72 74 74 76 76 82 79 84 84 83 83 84 85 84 83 85 85 90 92 93 94 100 95 96 96 96 94 96 95 96 90 97 99 99 102 105 105 106 107 101 102 103 -177 105 -193 -193 108 -193 109 110 110 109 110 110 110 0 0 0 0 0
    0 0 0 0 0 0 0 0 0 0 0 0 0 0 0 0 0 0 0 0 0 0 0 0 0 0 0 0 0 0 0 0 0 0 0 0 0 0 0 0 0 0 0 0 0 0 0 0 0 0 0 0 0 0 0 0 0 0 0 0 0 0 0 0 0 0 0 0 0 67 67 67 68 66 62 69 69 67 54 53 53 56 56 56 56 56 57 59 58 58 53 54 50 49 49 48 42 42 41 41 39 39 38 35 34 37 37 35 34 34 34 32 34 34 31 30 34 33 33 29 29 28 26 24 23 22 21 20 19 18 17 15 15 13 14 12 10 10 10 10 9 9 0 9 0 9 0 0 0 0 0 0 0 0 0 0 0 0 0 0 0 0 0 0 0 0 0 15 16 20 21 20 22 22 24 24 26 27 26 25 26 25 27 25 25 25 25 25 28 30 29 28 30 34 28 30 30 29 29 33 33 32 28 37 39 39 39 40 35 -177 -177 35 -177 -193 37 -177 -177 47 51 50 50 50 50 49 47 48 48 48 52 -193 384 386 386 58 61 61 -193 62 60 63 61 63 65 62 64 62 66 66 63 66 -193 61 63 64 65 61 65 66 68 69 72 73 73 75 75 80 79 84 84 82 83 83 84 84 83 84 85 90 92 93 94 100 96 96 96 96 94 97 96 97 90 99 100 100 102 105 104 105 106 101 101 103 -177 105 -193 -193 108 107 109 110 110 109 110 110 110 0 0 0 0 0
    0 0 0 0 0 0 0 0 0 0 0 0 0 0 0 0 0 0 0 0 0 0 0 0 0 0 0 0 0 0 0 0 0 0 0 0 0 0 0 0 0 0 0 0 0 0 0 0 0 0 0 0 0 0 0 0 0 0 0 0 0 0 0 0 0 0 0 0 0 66 66 67 68 66 62 69 69 66 54 53 53 56 56 56 56 56 57 59 58 58 54 54 50 49 50 48 42 42 41 41 39 39 38 35 34 38 37 35 35 34 34 33 34 34 30 31 33 33 33 29 28 27 25 24 23 21 21 20 19 18 16 16 15 13 14 13 11 11 11 11 9 9 9 0 0 9 0 0 0 0 0 0 0 0 0 0 0 0 0 0 0 0 0 0 0 0 0 15 16 20 22 20 22 23 24 24 26 27 26 25 26 25 27 25 25 25 25 25 28 30 29 28 30 34 28 30 30 29 29 32 32 31 28 37 39 39 39 40 34 -177 -177 35 -177 -193 37 -177 -177 47 51 50 50 49 50 49 47 48 48 48 52 -193 384 386 386 58 61 61 -193 61 59 63 -193 -193 65 62 63 62 65 66 63 65 -193 60 63 63 64 60 63 64 66 68 70 72 72 73 74 78 78 84 84 82 83 83 84 84 83 84 84 90 92 93 94 100 96 96 96 96 94 97 97 97 90 98 99 99 102 105 104 105 105 102 102 103 -177 106 105 108 108 108 109 110 110 109 110 110 110 0 0 0 0 0
    0 0 0 0 0 0 0 0 0 0 0 0 0 0 0 0 0 0 0 0 0 0 0 0 0 0 0 0 0 0 0 0 0 0 0 0 0 0 0 0 0 0 0 0 0 0 0 0 0 0 0 0 0 0 0 0 0 0 0 0 0 0 0 0 0 0 0 0 0 67 66 67 68 66 63 69 69 67 54 53 53 57 56 57 57 56 57 59 59 58 53 54 50 49 50 48 42 42 41 41 39 39 38 35 34 38 36 35 35 34 34 32 34 34 29 32 33 32 32 30 28 27 25 24 23 21 21 20 19 17 16 16 15 13 15 13 12 11 12 11 9 10 9 0 0 9 0 0 0 0 0 0 0 0 0 0 0 0 0 0 0 0 0 0 0 0 9 16 17 21 22 20 22 23 -209 24 26 27 26 -193 26 25 27 25 25 25 25 25 28 30 29 28 30 34 28 30 30 29 29 32 32 31 27 37 39 39 39 40 34 -177 -193 35 -177 -193 37 -177 -177 46 51 50 50 49 50 49 47 48 49 48 53 -193 385 386 386 58 62 61 63 62 59 63 -193 62 64 61 63 62 65 65 62 64 -193 60 62 62 63 59 62 63 65 66 69 71 70 73 74 77 78 84 84 82 83 83 84 84 84 84 85 90 91 92 93 100 96 96 96 96 94 97 96 96 90 96 97 97 101 104 102 104 104 103 103 104 -193 107 106 109 109 109 109 110 111 109 111 110 110 0 0 0 0 0
    0 0 0 0 0 0 0 0 0 0 0 0 0 0 0 0 0 0 0 0 0 0 0 0 0 0 0 0 0 0 0 0 0 0 0 0 0 0 0 0 0 0 0 0 0 0 0 0 0 0 0 0 0 0 0 0 0 0 0 0 0 0 0 0 0 0 0 0 0 67 66 67 68 66 63 69 70 69 54 54 54 57 57 57 56 56 57 59 58 58 53 54 51 50 50 48 42 42 41 41 39 39 38 35 34 38 36 35 34 34 34 32 34 34 29 32 32 32 32 29 27 27 24 23 22 20 21 19 19 17 16 15 15 13 15 13 12 11 12 11 10 10 9 9 9 9 0 0 0 9 9 9 9 0 0 0 0 0 0 0 0 0 0 0 0 9 9 15 16 20 21 20 22 23 -209 24 -193 27 26 -209 26 25 27 25 25 25 25 25 28 30 29 28 30 34 28 30 30 29 29 32 32 31 28 37 39 39 39 40 34 -177 -193 34 -177 -193 37 -177 -177 46 50 50 50 49 49 49 47 48 49 49 53 -193 385 386 386 59 62 62 63 62 59 63 61 62 64 61 63 62 64 65 62 64 -193 59 61 61 61 58 61 62 64 66 70 72 71 73 75 77 79 83 83 82 82 82 83 84 84 84 85 89 91 92 93 100 95 96 96 96 94 97 97 97 89 94 95 95 101 104 102 103 104 103 104 104 -193 107 108 110 110 110 109 111 111 109 111 110 110 0 0 0 0 0
    0 0 0 0 0 0 0 0 0 0 0 0 0 0 0 0 0 0 0 0 0 0 0 0 0 0 0 0 0 0 0 0 0 0 0 0 0 0 0 0 0 0 0 0 0 0 0 0 0 0 0 0 0 0 0 0 0 0 0 0 0 0 0 0 0 0 0 0 0 67 66 67 68 67 64 70 70 69 54 53 54 57 57 57 56 56 57 59 58 58 53 54 51 50 51 49 43 43 42 42 40 40 38 36 34 38 36 35 34 34 33 32 33 33 28 32 31 31 31 28 26 -193 24 23 22 20 20 19 19 17 15 15 15 13 15 13 12 11 12 12 10 10 10 9 9 9 9 9 0 10 10 10 10 9 9 9 0 0 0 0 0 0 0 0 0 9 9 15 16 -193 21 20 21 22 -193 -193 -177 -193 -193 -209 26 25 27 24 24 25 25 25 28 30 29 28 30 34 28 30 30 30 29 31 32 31 28 37 38 38 38 40 34 -177 -193 34 -177 -193 37 260 -177 46 50 50 49 49 49 49 47 48 49 49 53 -193 385 386 386 59 62 62 63 63 60 63 62 62 64 61 63 62 64 65 61 63 61 60 62 61 62 59 61 63 65 67 71 73 72 75 76 78 80 83 83 81 81 82 82 83 83 84 84 -193 91 92 93 100 95 96 96 96 94 97 96 96 89 93 94 94 101 104 101 102 104 104 104 -193 -193 108 109 111 111 110 110 112 112 109 112 110 111 0 0 0 0 0
    0 0 0 0 0 0 0 0 0 0 0 0 0 0 0 0 0 0 0 0 0 0 0 0 0 0 0 0 0 0 0 0 0 0 0 0 0 0 0 0 0 0 0 0 0 0 0 0 0 0 0 0 0 0 0 0 0 0 0 0 0 0 0 0 0 0 0 0 0 67 66 67 68 67 64 69 70 69 54 53 53 56 56 56 56 55 56 59 58 58 54 54 52 51 52 50 43 43 42 42 40 40 39 36 34 38 35 35 34 34 33 32 33 33 28 33 31 31 31 27 -193 -193 24 22 22 20 20 18 19 17 16 15 15 14 16 13 13 11 13 13 11 11 11 10 10 10 10 9 9 10 11 10 11 10 9 9 0 0 0 0 0 0 0 0 0 9 9 15 16 -193 21 20 21 22 -193 -193 -177 -193 -193 -193 26 -193 27 25 25 25 25 25 28 30 29 28 30 34 28 30 30 30 30 31 32 31 27 37 38 38 38 39 34 -177 -193 34 -193 -193 37 260 -177 46 50 50 49 48 49 48 47 48 49 49 53 -193 385 386 386 59 62 62 63 63 60 63 62 62 64 61 63 62 64 65 61 63 61 60 62 62 62 59 61 63 66 68 72 74 73 76 77 79 81 83 83 81 81 81 81 83 83 83 84 87 90 91 92 100 95 95 95 96 94 96 96 96 89 92 93 93 100 104 100 102 103 106 105 105 -193 108 109 111 111 111 110 112 112 110 113 110 111 0 0 0 0 0
    0 0 0 0 0 0 0 0 0 0 0 0 0 0 0 0 0 0 0 0 0 0 0 0 0 0 0 0 0 0 0 0 0 0 0 0 0 0 0 0 0 0 0 0 0 0 0 0 0 0 0 0 0 0 0 0 0 0 0 0 0 0 0 0 0 0 0 0 0 67 67 67 68 67 65 69 70 69 54 52 53 56 56 56 56 55 56 58 58 58 53 54 52 51 52 50 43 43 43 43 41 40 39 36 34 38 35 35 34 34 33 32 33 34 28 34 31 31 30 26 -193 -193 23 22 21 19 20 18 19 17 15 15 15 13 15 13 13 11 13 13 11 11 12 10 10 10 10 9 9 10 11 10 11 10 9 9 0 0 0 0 0 0 0 9 9 10 10 15 17 20 22 20 22 22 -193 -193 -177 -193 -193 -193 -193 -193 27 25 25 25 25 25 28 30 30 28 30 34 28 30 30 30 30 31 32 -177 27 37 38 38 38 39 34 -177 -193 34 -177 -193 37 260 248 45 49 49 48 48 48 48 46 48 49 50 53 -193 385 386 386 59 62 62 63 63 60 63 62 62 64 61 63 62 64 65 61 63 62 61 62 62 62 59 61 62 65 67 72 74 74 76 78 80 81 82 82 82 81 81 81 83 83 83 84 86 89 90 91 99 94 94 94 95 94 96 95 95 89 91 92 93 100 104 100 101 103 108 106 106 111 109 110 112 112 112 110 113 113 110 114 110 111 0 0 0 0 0
    0 0 0 0 0 0 0 0 0 0 0 0 0 0 0 0 0 0 0 0 0 0 0 0 0 0 0 0 0 0 0 0 0 0 0 0 0 0 0 0 0 0 0 0 0 0 0 0 0 0 0 0 0 0 0 0 0 0 0 0 0 0 0 0 0 0 0 0 0 67 67 67 69 67 65 69 70 69 54 53 53 56 55 56 56 55 56 58 57 57 53 54 52 51 52 50 44 43 43 43 41 40 39 36 34 38 35 35 34 34 33 32 33 33 28 34 31 31 30 -193 -193 -193 23 22 21 20 20 18 19 17 15 15 15 13 15 13 13 11 13 13 11 11 12 11 10 10 10 9 9 10 11 10 11 10 9 9 0 0 0 0 0 0 0 9 9 9 10 14 16 19 22 20 21 22 23 24 -177 -193 -193 -177 25 25 27 25 26 26 26 26 28 31 31 29 31 34 29 31 31 31 30 31 32 -177 27 37 38 38 38 40 34 -177 -193 35 -177 -193 36 260 248 45 48 49 48 48 48 48 46 48 50 50 53 -193 385 386 386 60 62 62 63 64 60 64 62 -193 64 61 63 63 63 65 61 63 62 61 62 62 62 60 61 62 65 67 71 74 73 76 78 79 81 82 82 81 80 81 81 83 83 83 84 86 88 89 90 98 93 93 93 94 93 95 95 95 88 92 93 93 99 103 99 100 103 110 107 107 112 109 111 112 113 113 110 113 113 110 114 111 112 0 0 0 0 0
    0 0 0 0 0 0 0 0 0 0 0 0 0 0 0 0 0 0 0 0 0 0 0 0 0 0 0 0 0 0 0 0 0 0 0 0 0 0 0 0 0 0 0 0 0 0 0 0 0 0 0 0 0 0 0 0 0 0 0 0 0 0 0 0 0 0 0 0 0 68 67 68 68 67 65 69 70 68 54 53 53 57 56 56 56 55 56 58 57 57 53 54 52 51 52 50 44 43 43 43 41 40 39 36 34 38 35 34 34 34 33 32 33 33 28 34 31 31 30 -193 -193 -193 24 22 21 20 20 18 19 17 16 15 15 14 16 13 14 11 14 13 12 12 12 11 11 11 10 9 9 10 10 9 11 10 9 9 0 0 0 0 0 0 0 0 0 9 9 14 15 19 22 20 22 22 23 23 -193 -193 -193 -193 25 -193 27 25 25 26 26 26 28 31 31 29 31 35 29 31 31 31 30 30 32 31 27 36 38 38 38 39 35 -177 -177 35 -177 -193 36 259 247 45 48 49 48 47 48 48 47 49 51 51 53 -193 385 386 386 60 63 63 63 65 61 65 63 -193 64 61 63 63 63 65 61 63 62 61 62 62 62 60 61 63 66 67 71 74 73 75 77 79 81 81 82 81 80 80 80 82 82 83 84 85 87 88 89 98 92 93 92 93 93 94 94 94 87 91 93 93 98 103 99 101 103 111 108 108 112 109 111 112 113 113 110 114 114 111 115 111 113 0 0 0 0 0
    0 0 0 0 0 0 0 0 0 0 0 0 0 0 0 0 0 0 0 0 0 0 0 0 0 0 0 0 0 0 0 0 0 0 0 0 0 0 0 0 0 0 0 0 0 0 0 0 0 0 0 0 0 0 0 0 0 0 0 0 0 0 0 0 0 0 0 0 0 68 67 67 68 67 64 69 69 66 54 53 53 57 56 56 56 55 56 58 57 57 53 54 52 52 52 50 44 44 43 43 41 41 39 36 34 38 35 34 34 34 32 32 33 33 28 33 31 31 30 -193 -193 -193 24 22 22 20 21 18 19 18 16 15 15 14 16 13 14 11 15 14 13 13 13 11 11 11 11 9 9 10 10 9 11 9 9 10 0 0 0 0 0 0 0 0 0 9 9 13 14 18 21 20 22 21 23 23 -193 -193 -193 23 -193 -193 26 25 25 26 26 25 28 30 31 29 31 35 29 32 32 31 31 31 32 -177 27 37 39 39 39 40 35 -177 -177 35 -177 32 36 259 246 45 48 49 48 48 48 48 47 50 51 52 54 -193 385 386 386 61 63 63 64 65 61 65 63 -193 65 62 64 64 63 65 62 63 62 61 63 63 63 61 63 63 67 68 71 74 73 75 77 79 81 81 81 80 79 79 79 81 82 82 84 84 87 88 88 97 92 92 92 92 92 93 93 93 86 91 93 94 99 103 99 101 103 112 108 108 113 110 111 112 113 114 111 114 114 111 115 112 114 0 0 0 0 0
    0 0 0 0 0 0 0 0 0 0 0 0 0 0 0 0 0 0 0 0 0 0 0 0 0 0 0 0 0 0 0 0 0 0 0 0 0 0 0 0 0 0 0 0 0 0 0 0 0 0 0 0 0 0 0 0 0 0 0 0 0 0 0 0 0 0 0 0 0 68 67 67 67 66 65 68 69 66 54 53 53 57 56 56 56 55 56 58 56 56 53 54 52 52 52 50 44 44 43 43 41 40 39 36 34 38 35 34 34 34 32 32 32 33 28 32 31 31 29 25 -193 -193 24 23 22 21 21 19 20 18 16 16 16 14 16 13 14 11 16 15 13 12 13 12 11 11 11 9 9 10 10 9 11 9 9 9 0 0 0 0 0 0 0 0 0 0 9 12 13 18 21 19 21 21 22 22 -193 -193 25 23 24 -193 26 25 25 25 25 25 28 30 30 29 31 35 30 32 33 32 32 32 34 34 29 38 39 39 40 40 36 -177 -177 36 35 32 36 259 -177 45 48 49 48 48 49 48 47 50 52 53 54 -193 385 385 385 61 63 63 64 66 62 66 64 -193 65 62 64 65 63 65 62 63 63 62 63 64 64 62 64 64 68 69 72 74 73 75 77 79 81 81 81 80 79 79 79 80 81 82 84 84 86 87 88 95 91 91 91 91 91 93 92 92 86 92 95 96 99 103 100 102 103 113 108 108 113 110 111 112 113 114 111 115 114 111 115 112 114 0 0 0 0 0
    0 0 0 0 0 0 0 0 0 0 0 0 0 0 0 0 0 0 0 0 0 0 0 0 0 0 0 0 0 0 0 0 0 0 0 0 0 0 0 0 0 0 0 0 0 0 0 0 0 0 0 0 0 0 0 0 0 0 0 0 0 0 0 0 0 0 0 0 0 68 68 68 67 67 65 68 68 66 56 54 53 57 55 55 55 55 56 57 56 56 53 54 52 52 52 50 43 43 43 43 41 40 39 36 34 38 35 33 33 34 32 32 32 33 28 31 31 31 29 25 25 25 24 23 22 21 21 19 20 19 16 17 16 15 16 13 14 12 15 15 13 13 13 13 12 12 11 10 9 10 10 9 11 9 9 9 9 0 0 0 0 0 0 0 0 0 9 11 12 17 20 18 21 20 22 22 24 24 25 23 25 25 26 25 26 25 26 25 28 29 30 29 30 34 30 32 34 33 33 33 35 35 30 38 40 40 41 42 37 -177 -177 37 37 34 37 -193 -193 45 47 49 48 48 49 48 48 51 52 53 54 -193 386 386 386 61 63 63 64 66 62 66 64 -193 65 62 64 65 63 65 62 63 63 63 64 64 64 62 64 65 68 69 71 73 73 74 76 78 81 81 82 81 79 80 79 80 81 82 84 84 85 86 87 94 89 90 90 90 90 92 -193 92 86 92 98 99 101 103 101 102 104 113 109 109 113 110 111 112 113 114 110 114 114 111 115 112 114 0 0 0 0 0
    0 0 0 0 0 0 0 0 0 0 0 0 0 0 0 0 0 0 0 0 0 0 0 0 0 0 0 0 0 0 0 0 0 0 0 0 0 0 0 0 0 0 0 0 0 0 0 0 0 0 0 0 0 0 0 0 0 0 0 0 0 0 0 0 0 0 0 0 0 69 69 69 68 68 66 68 67 66 57 55 54 57 55 55 56 55 56 57 56 56 53 54 53 52 51 50 43 43 43 43 41 40 38 36 33 37 35 33 33 34 32 32 32 33 28 31 31 31 30 26 25 25 23 23 22 21 22 19 20 19 17 18 17 16 16 14 15 13 16 16 14 14 13 13 13 12 12 10 10 10 10 9 10 9 0 9 9 0 0 0 0 0 0 0 0 0 9 12 11 19 20 18 21 20 21 21 23 24 24 23 24 24 26 25 25 25 25 25 27 28 29 28 29 33 29 32 34 33 34 34 36 36 33 39 41 41 41 44 39 39 39 39 39 37 38 41 41 44 46 48 48 48 49 48 48 52 52 53 54 60 59 -193 63 61 63 63 64 66 62 66 64 -193 65 62 64 65 63 65 62 63 63 63 64 64 65 63 65 65 69 69 71 72 72 73 75 77 80 80 82 81 80 80 79 80 80 82 84 83 84 84 87 92 88 89 89 89 89 91 -177 91 86 93 101 102 103 104 102 103 104 115 109 109 113 110 111 111 113 114 110 114 114 110 115 112 114 0 0 0 0 0
    0 0 0 0 0 0 0 0 0 0 0 0 0 0 0 0 0 0 0 0 0 0 0 0 0 0 0 0 0 0 0 0 0 0 0 0 0 0 0 0 0 0 0 0 0 0 0 0 0 0 0 0 0 0 0 0 0 0 0 0 0 0 0 0 0 0 0 0 0 70 70 69 68 68 66 67 67 66 59 56 55 58 55 56 56 56 56 57 56 56 53 54 53 51 51 50 43 43 43 43 41 40 39 36 34 37 35 33 33 34 32 32 32 33 28 30 31 31 30 26 25 26 24 23 22 22 22 20 21 20 18 19 17 17 17 14 14 13 15 16 13 14 13 14 13 13 12 11 10 11 10 10 10 9 0 9 0 0 0 0 0 0 0 0 0 0 9 12 11 19 18 18 20 19 20 21 22 23 23 23 24 24 25 25 25 25 25 25 27 28 28 28 29 32 29 32 34 33 34 34 35 36 34 39 40 40 41 43 39 40 40 40 41 38 39 42 42 44 46 48 47 48 49 49 48 53 52 53 54 60 58 59 63 61 63 63 64 66 62 66 64 -193 65 62 64 65 63 65 62 64 63 63 64 65 65 63 65 66 69 69 71 72 71 71 73 75 78 79 82 81 82 82 81 81 81 83 85 83 85 84 86 91 88 88 87 88 89 90 -177 90 85 93 102 103 104 104 103 104 104 116 110 110 113 109 111 110 112 113 -193 113 -193 110 114 112 113 0 0 0 0 0
    0 0 0 0 0 0 0 0 0 0 0 0 0 0 0 0 0 0 0 0 0 0 0 0 0 0 0 0 0 0 0 0 0 0 0 0 0 0 0 0 0 0 0 0 0 0 0 0 0 0 0 0 0 0 0 0 0 0 0 0 0 0 0 0 0 0 0 0 0 71 70 70 68 68 66 67 67 66 61 57 56 59 56 56 56 56 56 57 56 56 53 54 53 51 50 50 43 43 43 43 41 40 39 37 34 37 35 33 33 34 31 32 32 33 28 30 31 31 29 27 26 25 23 23 22 22 22 21 21 21 19 20 18 18 17 14 14 13 14 15 13 14 12 13 13 13 12 11 10 11 11 10 10 9 9 9 0 0 0 0 0 0 0 0 0 0 9 11 10 18 16 16 18 18 19 20 21 22 22 22 23 23 24 24 24 24 24 24 27 27 27 27 28 31 29 33 35 33 35 34 35 36 35 38 40 39 40 43 39 40 41 41 42 40 40 44 43 46 47 49 48 49 50 50 48 53 52 53 54 60 59 59 63 61 63 63 64 66 62 66 64 -193 65 62 64 65 63 65 62 64 64 63 64 65 65 64 65 67 70 70 71 72 71 71 72 74 76 76 82 77 79 79 79 79 80 -193 -193 -193 85 84 87 92 88 88 86 87 89 90 -177 -193 85 93 102 104 105 105 104 105 105 117 110 110 113 109 110 109 110 112 -193 112 -193 109 114 112 113 0 0 0 0 0
    0 0 0 0 0 0 0 0 0 0 0 0 0 0 0 0 0 0 0 0 0 0 0 0 0 0 0 0 0 0 0 0 0 0 0 0 0 0 0 0 0 0 0 0 0 0 0 0 0 0 0 0 0 0 0 0 0 0 0 0 0 0 0 0 0 0 0 0 0 71 70 70 68 68 66 67 66 66 62 58 -193 60 57 57 57 57 57 58 56 56 54 54 53 52 50 50 43 44 43 43 41 40 39 37 35 37 35 33 33 34 31 32 32 32 29 30 32 32 30 28 26 25 23 23 23 22 22 21 21 22 20 22 19 20 18 14 14 13 14 15 13 14 12 14 14 13 13 13 11 11 11 11 11 11 10 10 9 0 0 0 0 0 0 0 0 0 9 11 10 17 15 16 18 17 19 19 20 22 21 22 22 23 23 23 23 23 23 24 26 26 26 27 28 31 30 32 34 33 35 35 35 36 36 38 39 39 40 42 40 41 41 42 42 41 41 44 43 46 46 48 48 50 50 50 49 54 52 54 54 60 59 59 63 61 64 63 64 66 62 66 64 -193 65 62 65 66 64 66 63 65 65 64 65 66 65 64 66 67 70 70 72 73 71 71 72 74 75 77 88 -209 75 73 -193 -193 -209 -177 -193 -193 -193 -209 -193 -209 87 87 84 86 89 -209 -177 -193 86 95 104 107 111 109 107 107 107 117 111 109 112 108 109 108 109 111 -193 110 -193 -193 113 112 113 0 0 0 0 0
    0 0 0 0 0 0 0 0 0 0 0 0 0 0 0 0 0 0 0 0 0 0 0 0 0 0 0 0 0 0 0 0 0 0 0 0 0 0 0 0 0 0 0 0 0 0 0 0 0 0 0 0 0 0 0 0 0 0 0 0 0 0 0 0 0 0 0 0 0 70 70 70 68 68 66 66 66 66 62 59 58 60 58 58 58 57 57 58 56 55 53 54 53 51 50 50 44 44 43 43 41 40 39 37 35 37 35 33 33 34 31 32 32 32 29 30 32 32 30 29 27 26 23 24 23 23 23 22 22 22 20 22 20 20 18 15 15 14 14 16 13 14 12 14 15 13 13 14 12 12 12 13 12 11 11 11 9 0 0 0 0 0 0 0 0 0 9 11 11 17 14 16 17 16 18 18 19 21 19 21 20 21 21 21 21 22 22 23 25 25 25 26 28 30 30 32 34 33 36 36 35 36 36 38 39 38 40 42 40 42 42 43 43 42 42 44 43 45 45 47 47 49 50 51 50 54 52 54 55 61 59 59 64 61 64 63 64 66 63 66 64 63 65 62 65 66 64 66 63 66 66 66 67 67 66 65 67 69 71 71 72 74 -193 72 72 75 -209 83 98 -209 -209 -209 -209 -209 -193 -193 -193 -193 -193 -193 -193 121 87 87 84 86 89 -193 -177 -193 85 98 108 120 122 122 119 115 116 119 113 110 112 108 108 108 108 110 -193 109 -193 -193 113 112 113 0 0 0 0 0
    0 0 0 0 0 0 0 0 0 0 0 0 0 0 0 0 0 0 0 0 0 0 0 0 0 0 0 0 0 0 0 0 0 0 0 0 0 0 0 0 0 0 0 0 0 0 0 0 0 0 0 0 0 0 0 0 0 0 0 0 0 0 0 0 0 0 0 0 0 70 70 70 68 68 66 66 66 66 63 60 60 61 58 58 58 58 57 57 56 54 53 53 53 51 50 50 44 44 44 43 42 40 39 37 35 37 34 33 32 33 31 32 32 32 29 31 32 32 29 29 27 25 24 24 23 23 22 22 22 22 21 22 20 20 18 16 15 14 14 16 13 14 11 13 14 13 13 14 12 13 12 13 13 12 12 11 9 0 0 0 0 0 0 0 0 0 9 12 11 17 13 15 15 15 16 18 18 21 19 21 20 21 21 21 21 22 21 23 24 25 25 26 27 29 30 32 34 33 36 36 36 36 37 38 38 38 41 43 42 43 43 43 43 43 43 44 43 44 44 46 46 48 48 49 49 54 52 54 55 60 59 59 64 62 64 63 64 66 63 67 65 63 65 62 65 67 65 67 65 68 68 69 69 69 67 67 69 70 72 72 73 76 -209 -193 74 76 -209 84 102 109 110 115 -193 125 127 126 126 126 123 122 123 122 -193 86 83 86 88 -209 -177 -177 -193 -193 117 124 127 129 125 123 122 122 116 112 113 108 108 108 108 110 -193 110 -193 -193 114 113 114 0 0 0 0 0
    0 0 0 0 0 0 0 0 0 0 0 0 0 0 0 0 0 0 0 0 0 0 0 0 0 0 0 0 0 0 0 0 0 0 0 0 0 0 0 0 0 0 0 0 0 0 0 0 0 0 0 0 0 0 0 0 0 0 0 0 0 0 0 0 0 0 0 0 0 70 70 70 68 68 66 66 65 65 63 61 60 60 58 58 58 57 57 57 55 54 52 53 52 51 49 50 44 44 44 43 42 41 39 38 35 36 34 32 32 33 31 31 31 31 29 31 32 32 29 29 27 26 24 23 23 22 22 22 21 22 20 22 20 19 18 16 15 14 14 15 13 14 11 13 13 13 14 15 13 13 13 14 13 13 13 11 9 0 0 0 0 0 0 0 0 0 9 12 11 16 13 15 15 15 16 18 18 21 19 22 20 22 21 22 21 22 22 24 24 25 25 26 27 28 30 32 34 33 36 36 36 37 37 37 37 37 41 43 42 45 44 44 44 44 44 44 43 45 43 45 46 47 46 48 47 54 50 53 55 59 59 59 64 61 65 63 64 66 63 67 65 63 64 62 65 67 65 68 66 69 -177 -193 -209 -209 68 68 70 71 -193 -193 74 78 -209 -209 -209 -209 -209 -209 105 112 116 117 127 125 127 126 126 126 124 123 124 122 -193 84 81 85 87 -193 -193 -177 725 720 -193 126 131 132 129 131 128 129 118 114 114 108 108 108 107 110 107 110 -193 -193 114 -193 115 0 0 0 0 0
    0 0 0 0 0 0 0 0 0 0 0 0 0 0 0 0 0 0 0 0 0 0 0 0 0 0 0 0 0 0 0 0 0 0 0 0 0 0 0 0 0 0 0 0 0 0 0 0 0 0 0 0 0 0 0 0 0 0 0 0 0 0 0 0 0 0 0 0 0 70 70 70 68 68 66 66 65 64 62 61 61 60 58 58 58 58 57 58 56 54 53 53 52 51 48 49 44 43 44 43 42 41 39 38 36 37 34 32 31 32 31 31 31 31 29 31 32 31 30 29 27 25 23 22 23 21 21 21 20 22 19 21 19 17 17 15 14 13 13 14 13 16 12 14 14 13 14 16 14 13 14 15 14 14 14 12 9 0 0 0 0 0 0 0 0 0 9 12 11 16 13 16 15 15 17 18 17 21 18 22 20 22 22 22 22 23 22 24 24 25 24 26 27 28 29 31 33 33 35 35 35 36 37 37 35 36 39 42 42 46 44 45 44 45 45 44 44 45 42 44 44 46 43 44 44 53 48 51 55 58 58 58 63 61 65 63 64 66 63 67 65 63 65 62 66 68 65 69 67 70 -193 96 105 109 -193 70 -209 -209 -209 -209 -209 81 -209 -209 -209 -209 -209 -209 107 117 -209 -209 -193 129 129 128 128 127 125 125 125 123 -193 -209 81 85 -209 -209 -209 -209 -177 -193 -193 131 133 134 132 135 135 136 -193 117 115 107 108 106 -209 -193 -193 -193 -209 -209 -193 -209 116 0 0 0 0 0
    0 0 0 0 0 0 0 0 0 0 0 0 0 0 0 0 0 0 0 0 0 0 0 0 0 0 0 0 0 0 0 0 0 0 0 0 0 0 0 0 0 0 0 0 0 0 0 0 0 0 0 0 0 0 0 0 0 0 0 0 0 0 0 0 0 0 0 0 0 70 69 70 68 68 65 65 64 63 62 61 61 59 59 59 59 59 58 58 56 53 53 53 51 50 48 48 44 43 44 43 42 41 39 39 36 37 34 32 31 32 31 31 31 31 30 31 32 31 30 28 27 25 23 23 23 21 21 21 20 21 20 21 18 17 17 15 14 13 14 15 13 18 13 14 14 14 14 16 14 14 14 16 15 16 16 13 9 0 0 0 0 0 0 0 0 0 9 12 12 15 13 15 15 15 17 18 16 20 18 21 20 21 21 21 21 22 22 24 23 25 23 25 27 28 30 33 33 34 36 36 36 36 37 36 33 35 38 40 41 45 44 44 44 45 45 44 44 45 42 44 43 44 -209 27 41 50 45 48 54 56 57 58 62 60 65 63 64 66 63 67 65 64 65 62 66 68 65 69 67 71 -177 94 104 106 106 -209 107 -209 -209 -209 -209 -193 -209 -193 -209 -209 112 -209 111 -193 -209 -209 -209 132 131 130 129 129 127 126 126 124 125 -193 -193 -193 -209 -209 -209 -193 -209 135 133 133 133 134 133 136 139 139 143 -193 117 107 106 -193 -209 -193 -209 -193 -209 -193 -193 -209 -193 0 0 0 0 0
    0 0 0 0 0 0 0 0 0 0 0 0 0 0 0 0 0 0 0 0 0 0 0 0 0 0 0 0 0 0 0 0 0 0 0 0 0 0 0 0 0 0 0 0 0 0 0 0 0 0 0 0 0 0 0 0 0 0 0 0 0 0 0 0 0 0 0 0 0 69 68 69 67 67 64 63 62 62 61 61 60 59 58 59 59 59 58 57 55 52 52 52 50 50 48 47 44 43 44 43 42 41 40 39 37 37 34 32 31 32 31 31 31 31 30 32 32 31 30 28 28 26 24 23 23 21 21 21 20 21 20 20 18 16 18 16 15 16 18 17 15 19 14 16 14 14 14 18 14 15 16 18 17 18 18 14 9 0 0 0 0 0 0 0 0 0 0 10 11 13 11 14 15 15 17 18 16 20 18 21 20 21 21 21 21 22 22 24 22 25 25 27 30 30 33 35 34 35 36 36 36 36 36 36 34 36 39 39 40 43 43 44 44 45 45 44 45 45 43 45 43 44 -209 -209 38 44 42 45 54 55 56 57 60 60 66 62 63 66 64 67 65 64 65 62 66 67 64 69 66 71 87 93 103 105 106 106 107 116 -193 -193 -209 -209 -209 115 -193 -209 112 112 113 119 123 -209 -209 132 132 131 129 128 126 126 125 122 123 122 132 -193 -209 -193 139 140 139 138 136 134 131 133 133 136 142 141 148 146 -193 -209 -209 -209 -209 -209 -209 -193 -209 -209 -209 -209 -193 0 0 0 0 0
    0 0 0 0 0 0 0 0 0 0 0 0 0 0 0 0 0 0 0 0 0 0 0 0 0 0 0 0 0 0 0 0 0 0 0 0 0 0 0 0 0 0 0 0 0 0 0 0 0 0 0 0 0 0 0 0 0 0 0 0 0 0 0 0 0 0 0 0 0 68 66 68 66 66 63 62 61 61 60 60 60 59 58 59 59 59 58 56 55 52 52 52 49 49 48 46 44 42 44 43 41 41 40 39 37 37 34 32 31 31 31 31 31 31 31 32 33 31 30 29 28 26 25 23 23 21 20 20 19 20 19 19 16 13 15 16 17 19 21 20 19 20 19 18 15 13 13 17 14 16 17 18 18 19 19 15 9 0 0 0 0 0 0 0 0 0 0 0 9 10 10 14 15 15 17 19 18 21 19 22 20 22 21 22 22 22 22 23 23 26 25 28 31 31 34 35 35 36 36 37 37 37 38 38 38 38 41 41 41 43 43 43 44 44 44 43 44 45 42 44 43 43 -209 -209 25 -193 39 42 53 53 55 56 59 59 66 62 62 66 64 67 65 64 65 62 66 67 64 69 67 -177 89 96 104 106 106 106 108 117 118 118 116 -209 108 115 119 -193 112 111 113 -193 -209 -209 -209 -193 132 130 129 128 126 126 125 122 124 122 135 141 142 142 140 142 141 139 137 134 131 132 133 136 141 141 148 147 144 148 154 154 -193 -209 -209 -209 -209 -209 -209 -209 -209 0 0 0 0 0
    0 0 0 0 0 0 0 0 0 0 0 0 0 0 0 0 0 0 0 0 0 0 0 0 0 0 0 0 0 0 0 0 0 0 0 0 0 0 0 0 0 0 0 0 0 0 0 0 0 0 0 0 0 0 0 0 0 0 0 0 0 0 0 0 0 0 0 0 0 67 65 67 65 64 62 60 60 60 60 60 60 59 58 58 59 58 57 55 54 51 51 52 49 48 48 45 44 42 43 42 41 41 40 39 37 37 33 32 31 31 31 31 31 31 32 33 33 32 31 29 29 28 27 25 24 23 21 21 20 20 19 19 16 12 14 18 21 23 24 23 23 24 23 21 18 13 13 16 14 16 17 18 19 20 21 -225 -225 -225 -225 -225 -225 -225 -225 -225 -225 -225 0 0 0 0 0 15 17 15 18 20 19 22 21 22 21 22 22 22 22 23 23 24 23 26 26 29 31 31 33 34 34 36 36 38 38 38 38 39 40 40 43 42 42 44 43 43 43 44 44 42 43 43 41 41 41 40 28 28 24 24 33 40 52 50 52 55 57 57 66 61 62 65 64 67 65 64 65 62 66 68 65 69 68 -177 90 100 105 107 108 108 110 117 118 116 115 110 108 115 117 115 111 109 113 -209 -209 -209 -209 -209 132 131 130 129 128 128 126 122 125 121 134 141 141 141 139 141 140 138 136 135 132 133 134 136 141 142 148 148 148 150 154 154 154 151 152 -209 147 148 146 146 -209 0 0 0 0 0
    0 0 0 0 0 0 0 0 0 0 0 0 0 0 0 0 0 0 0 0 0 0 0 0 0 0 0 0 0 0 0 0 0 0 0 0 0 0 0 0 0 0 0 0 0 0 0 0 0 0 0 0 0 0 0 0 0 0 0 0 0 0 0 0 0 0 0 0 0 67 65 66 64 63 61 59 59 59 60 60 60 59 58 58 59 58 57 55 54 51 51 52 48 48 47 45 44 42 43 42 41 41 39 39 37 37 -193 32 31 31 32 32 31 31 32 33 33 32 31 29 30 29 28 27 27 24 23 22 22 22 20 19 16 11 16 21 23 24 26 25 25 25 25 24 21 15 14 14 14 16 17 18 19 22 21 -225 -225 -225 -225 -225 -225 -225 -225 -225 -225 -225 -225 -225 -225 0 0 11 18 16 18 23 20 23 22 23 22 23 23 23 23 24 23 24 23 27 26 30 31 32 33 35 35 36 36 38 39 39 39 40 40 40 43 42 42 44 43 43 43 43 44 42 43 44 40 41 41 41 36 35 28 27 36 41 51 47 50 53 55 56 65 61 61 65 64 67 65 64 65 63 66 67 64 69 67 73 89 101 107 108 109 109 113 118 118 117 116 110 108 115 118 115 111 111 115 -209 -209 -209 -209 -209 131 131 129 128 128 128 126 121 -193 119 134 141 142 140 138 140 140 138 137 135 131 132 135 136 143 144 149 149 149 150 154 153 153 149 150 150 146 146 145 144 141 0 0 0 0 0
    0 0 0 0 0 0 0 0 0 0 0 0 0 0 0 0 0 0 0 0 0 0 0 0 0 0 0 0 0 0 0 0 0 0 0 0 0 0 0 0 0 0 0 0 0 0 0 0 0 0 0 0 0 0 0 0 0 0 0 0 0 0 0 0 0 0 0 0 0 67 65 66 64 63 62 58 58 59 59 60 60 59 58 58 59 58 57 54 54 0 -256 -1 15691 47 47 44 44 41 43 42 40 40 39 39 37 37 -193 32 31 31 32 31 31 31 32 32 32 31 31 29 30 29 29 27 27 26 25 24 25 23 22 20 16 12 18 22 24 24 26 25 25 26 26 25 21 15 14 12 14 15 17 19 21 24 -225 -225 -225 -225 -225 -225 -225 -225 -225 -225 -225 -225 -225 -225 -225 -225 -225 -225 -225 25 24 25 23 26 26 26 23 24 24 24 25 25 24 24 23 28 27 31 31 33 34 35 35 36 36 38 39 39 39 39 41 40 43 42 42 43 43 43 43 43 43 42 44 45 41 42 43 42 41 42 41 33 37 41 49 47 50 52 53 55 65 60 60 65 63 67 65 65 65 63 66 67 64 69 67 73 -193 -193 108 111 113 113 116 119 119 118 117 110 105 109 114 112 111 -209 -209 -209 -209 -209 -209 -209 -209 -209 -209 -209 130 128 -209 117 -209 117 132 140 140 -193 137 138 139 138 138 136 132 133 137 142 150 150 152 151 151 152 154 153 153 149 149 149 145 144 144 144 142 0 0 0 0 0
    0 0 0 0 0 0 0 0 0 0 0 0 0 0 0 0 0 0 0 0 0 0 0 0 0 0 0 0 0 0 0 0 0 0 0 0 0 0 0 0 0 0 0 0 0 0 0 0 0 0 0 0 0 0 0 0 0 0 0 0 0 0 0 0 0 0 0 0 0 68 66 66 65 65 64 58 57 59 60 60 60 59 57 58 59 58 57 54 54 51 51 52 47 47 47 44 44 41 42 42 40 40 39 38 38 37 34 32 31 31 32 32 31 31 31 32 32 31 31 30 32 31 32 30 31 30 28 27 29 26 24 22 17 13 20 24 26 26 28 27 27 27 27 26 23 18 17 14 18 20 22 22 24 -225 -225 -225 -225 -225 -225 -225 -225 -225 -225 -225 -225 -225 -225 -225 -225 -225 -225 -225 -225 -225 -225 26 25 26 28 28 25 26 26 26 26 26 25 24 23 28 27 31 31 34 35 36 36 37 36 38 39 39 39 39 41 40 42 41 41 42 43 43 43 42 43 42 45 46 43 44 45 45 44 45 43 39 40 42 48 46 46 47 47 54 63 59 60 65 63 66 65 65 65 63 67 67 64 68 67 -209 -209 -193 110 113 114 114 118 119 119 119 116 108 102 106 109 105 108 -209 -209 -209 -209 -209 -209 -209 -209 -209 -209 -209 -209 -209 -209 109 107 116 123 128 124 123 127 134 137 137 139 -209 132 -209 148 154 157 155 155 153 153 153 154 154 153 150 149 148 145 145 146 147 148 0 0 0 0 0
    0 0 0 0 0 0 0 0 0 0 0 0 0 0 0 0 0 0 0 0 0 0 0 0 0 0 0 0 0 0 0 0 0 0 0 0 0 0 0 0 0 0 0 0 0 0 0 0 0 0 0 0 0 0 0 0 0 0 0 0 0 0 0 0 0 0 0 0 0 68 66 66 66 67 67 57 57 60 60 60 60 59 58 58 59 58 57 54 54 51 51 51 47 47 47 44 44 41 42 42 40 40 39 39 38 38 36 34 33 33 33 32 32 31 32 32 32 31 32 31 34 34 36 33 35 36 35 32 34 32 27 24 21 19 24 27 29 28 28 28 28 29 29 28 25 23 -225 -225 -225 -225 -225 -225 -225 -225 -225 -225 -225 -225 -225 -225 -225 -225 -225 -225 -225 -225 -225 -225 -225 -225 -225 -225 -225 -225 -225 -225 -225 29 32 32 28 28 26 27 27 25 25 23 23 28 27 31 31 34 35 36 36 37 36 38 39 39 39 39 40 40 41 41 41 41 42 42 43 42 43 43 46 46 45 45 47 46 46 46 45 43 42 44 50 47 48 49 48 54 61 59 59 64 62 66 64 64 65 64 67 67 64 69 -193 -209 -193 -193 110 112 113 113 118 118 117 117 116 110 97 102 101 101 -193 -209 -209 -209 -209 -209 68 -209 68 72 -193 75 -209 -209 91 106 107 113 120 -193 119 121 123 -209 -193 -209 -209 -209 -209 -209 151 157 160 156 156 155 154 154 154 154 153 150 149 148 147 149 150 151 155 0 0 0 0 0
    0 0 0 0 0 0 0 0 0 0 0 0 0 0 0 0 0 0 0 0 0 0 0 0 0 0 0 0 0 0 0 0 0 0 0 0 0 0 0 0 0 0 0 0 0 0 0 0 0 0 0 0 0 0 0 0 0 0 0 0 0 0 0 0 0 0 0 0 0 66 65 66 67 68 68 57 57 62 61 60 60 60 58 58 59 58 56 53 54 51 50 51 47 46 46 44 44 41 42 42 40 40 39 39 38 38 37 35 34 34 34 33 32 32 33 33 33 33 34 35 38 38 39 37 37 39 37 35 36 33 31 26 25 25 31 33 35 32 31 31 31 32 32 29 27 -225 -225 -225 -225 -225 -225 -225 -225 -225 -225 -225 -225 -225 -225 -225 -225 -225 -225 -225 -225 -225 -225 -225 -225 -225 -225 -225 -225 -225 -225 -225 -225 -225 -225 -225 28 24 24 24 25 24 23 20 22 28 29 32 32 35 36 37 36 37 36 38 39 39 39 39 41 41 42 40 41 41 41 42 42 41 42 43 46 47 46 46 48 48 47 47 46 43 43 45 50 48 49 51 51 54 61 59 59 63 62 65 63 63 64 63 66 67 64 69 -193 -193 -193 105 108 110 112 111 116 116 116 115 114 109 98 95 92 96 94 91 90 89 -209 -209 83 -209 73 77 80 82 89 -209 92 105 107 112 118 119 118 122 125 130 135 -209 145 148 -209 144 152 156 155 154 154 -209 -209 -209 153 153 152 150 151 -209 -209 -209 -209 -209 161 0 0 0 0 0
    0 0 0 0 0 0 0 0 0 0 0 0 0 0 0 0 0 0 0 0 0 0 0 0 0 0 0 0 0 0 0 0 0 0 0 0 0 0 0 0 0 0 0 0 0 0 0 0 0 0 0 0 0 0 0 0 0 0 0 0 0 0 0 0 0 0 0 0 0 66 66 67 68 69 69 58 58 64 62 60 61 60 58 58 59 57 56 53 54 51 50 51 47 46 46 43 44 41 42 42 40 40 39 39 38 38 37 36 35 35 35 34 33 34 35 35 36 37 38 39 41 41 41 39 39 40 39 37 38 35 35 29 29 37 37 36 37 35 32 33 33 34 32 29 -225 -225 -225 -225 -225 -225 -225 -225 -225 -225 -225 -225 -225 -225 -225 -225 -225 -225 -225 -225 -225 -225 -225 -225 -225 -225 -225 -225 -225 -225 -225 -225 -225 -225 -225 -225 -225 -225 -225 -225 26 25 24 22 23 36 31 34 33 35 36 36 35 36 34 37 38 39 39 39 41 41 42 41 41 41 41 42 42 41 42 43 46 47 46 46 48 48 48 49 47 45 44 47 51 49 50 52 52 55 60 59 59 63 61 64 62 63 63 63 66 67 64 69 -209 -177 -193 106 109 111 113 112 116 116 116 114 114 110 -193 91 89 94 90 90 90 91 93 96 94 96 88 88 89 90 93 95 93 101 105 109 116 119 120 124 130 133 136 140 149 152 151 152 154 157 155 155 156 -209 -209 -209 154 152 151 150 152 -209 150 152 -209 -209 159 0 0 0 0 0
    0 0 0 0 0 0 0 0 0 0 0 0 0 0 0 0 0 0 0 0 0 0 0 0 0 0 0 0 0 0 0 0 0 0 0 0 0 0 0 0 0 0 0 0 0 0 0 0 0 0 0 0 0 0 0 0 0 0 0 0 0 0 0 0 0 0 0 0 0 67 67 68 69 70 70 58 58 65 62 60 61 60 58 58 59 57 56 53 54 51 50 51 47 46 46 43 44 41 43 42 40 40 39 39 39 39 38 36 36 36 36 36 36 36 36 37 38 40 40 42 44 42 42 41 40 41 40 38 39 37 37 31 35 42 40 39 39 36 35 35 36 35 32 29 -225 -225 -225 -225 -225 -225 -225 -225 -225 -225 -225 -225 -225 -225 -225 -225 -225 -225 -225 -225 -225 -225 -225 -225 -225 -225 -225 -225 -225 -225 -225 -225 -225 -225 -225 -225 -225 -225 -225 -225 -225 -225 -225 21 23 36 30 33 31 33 35 36 35 35 32 34 36 38 39 39 41 41 42 41 41 41 41 42 42 41 42 43 46 46 45 46 47 49 48 50 48 46 46 48 51 50 51 54 54 55 60 59 59 62 61 63 62 62 63 63 66 68 -209 -209 -193 -177 -209 107 110 113 114 113 115 117 116 115 116 115 -193 -209 -209 -193 -209 -209 -193 90 96 101 100 103 96 92 93 94 97 101 94 101 -209 106 -193 122 124 131 137 139 139 144 150 154 154 155 157 159 155 156 160 -193 -209 -209 154 152 150 152 153 150 152 -209 -209 -209 -209 0 0 0 0 0
    0 0 0 0 0 0 0 0 0 0 0 0 0 0 0 0 0 0 0 0 0 0 0 0 0 0 0 0 0 0 0 0 0 0 0 0 0 0 0 0 0 0 0 0 0 0 0 0 0 0 0 0 0 0 0 0 0 0 0 0 0 0 0 0 0 0 0 0 0 68 69 71 71 72 72 58 58 66 62 60 62 60 58 58 59 57 56 53 54 51 50 51 47 46 46 43 44 41 43 42 40 40 40 40 40 39 40 38 37 39 39 38 39 38 37 39 39 43 42 43 44 42 43 41 39 40 40 38 39 37 37 34 37 42 41 39 39 37 37 37 37 36 33 -225 -225 -225 -225 -225 -225 -225 -225 -225 -225 -225 -225 -225 -225 -225 -225 -225 -225 -225 -225 -225 -225 -225 -225 -225 -225 -225 -225 -225 -225 -225 -225 -225 -225 -225 -225 -225 -225 -225 -225 -225 -225 -225 -225 -225 -225 -225 35 31 32 35 35 35 34 33 30 30 34 35 37 37 42 41 43 42 42 42 42 42 42 42 42 43 46 46 46 47 48 49 48 49 48 47 47 48 51 50 51 55 55 56 59 60 59 62 60 62 61 62 62 62 65 67 -177 -193 -193 -177 -209 107 111 113 115 114 115 117 117 115 118 118 118 -193 121 118 117 120 -209 -209 -193 106 101 103 98 92 94 96 100 -193 101 105 -209 108 120 122 123 130 138 140 142 149 152 155 156 157 158 160 157 159 162 162 159 160 161 163 158 160 158 154 155 -209 -209 -209 -209 0 0 0 0 0
    0 0 0 0 0 0 0 0 0 0 0 0 0 0 0 0 0 0 0 0 0 0 0 0 0 0 0 0 0 0 0 0 0 0 0 0 0 0 0 0 0 0 0 0 0 0 0 0 0 0 0 0 0 0 0 0 0 0 0 0 0 0 0 0 0 0 0 0 0 69 70 72 73 74 74 58 58 66 61 60 61 60 58 58 58 57 56 53 54 51 50 51 47 46 46 43 44 42 43 42 41 41 40 40 41 40 41 40 39 40 40 39 40 38 37 40 39 42 42 42 43 41 42 41 40 41 40 39 39 38 38 36 40 42 41 40 40 39 39 39 39 37 34 -225 -225 -225 -225 -225 -225 -225 -225 -225 -225 -225 -225 -225 -225 -225 -225 -225 -225 -225 -225 -225 -225 -225 -225 -225 -225 -225 -225 -225 -225 -225 -225 -225 -225 -225 -225 -225 -225 -225 -225 -225 -225 -225 -225 -225 -225 -225 -225 -225 33 37 37 36 35 33 30 29 33 32 32 35 42 42 43 42 42 42 42 42 42 41 42 42 45 46 46 47 48 50 48 49 48 47 46 47 49 49 50 54 54 55 59 60 59 62 59 61 61 61 62 62 64 67 -177 -177 -193 -177 -177 108 111 114 116 114 115 117 117 116 120 120 121 119 122 122 122 123 123 122 -193 118 -209 104 104 95 98 98 100 105 103 104 103 102 115 121 122 129 137 138 141 150 152 156 156 157 159 160 158 161 164 163 163 164 164 164 163 163 162 156 159 -209 -209 -209 -209 0 0 0 0 0
    0 0 0 0 0 0 0 0 0 0 0 0 0 0 0 0 0 0 0 0 0 0 0 0 0 0 0 0 0 0 0 0 0 0 0 0 0 0 0 0 0 0 0 0 0 0 0 0 0 0 0 0 0 0 0 0 0 0 0 0 0 0 0 0 0 0 0 0 0 69 71 73 75 74 76 59 58 66 61 60 61 60 58 57 58 57 55 53 54 51 50 51 47 46 46 43 44 42 43 43 42 42 41 42 42 42 42 41 40 41 41 41 42 40 42 43 43 46 45 44 45 43 43 43 41 41 41 40 40 39 39 39 41 43 42 41 41 41 40 41 40 38 -225 -225 -225 -225 -225 -225 -225 -225 -225 -225 -225 -225 -225 -225 -225 -225 -225 -225 -225 -225 -225 -225 -225 -225 -225 -225 -225 -225 -225 -225 -225 -225 -225 -225 -225 -225 -225 -225 -225 -225 -225 -225 -225 -225 -225 -225 -225 -225 -225 -225 -225 37 37 37 36 34 31 30 33 32 32 33 42 42 45 43 44 44 43 44 43 42 43 42 45 45 45 47 47 50 48 48 48 46 46 47 48 48 49 54 53 55 57 60 59 61 59 60 60 61 61 62 63 66 -177 -193 -209 -177 -177 -193 111 114 116 114 115 117 118 116 121 121 121 121 123 123 123 124 125 123 122 122 -209 -209 96 90 95 91 92 95 94 99 99 100 110 -193 121 129 138 140 142 150 153 157 156 157 158 159 158 162 164 163 164 166 166 166 165 165 164 157 162 -209 -209 -209 -193 0 0 0 0 0
    0 0 0 0 0 0 0 0 0 0 0 0 0 0 0 0 0 0 0 0 0 0 0 0 0 0 0 0 0 0 0 0 0 0 0 0 0 0 0 0 0 0 0 0 0 0 0 0 0 0 0 0 0 0 0 0 0 0 0 0 0 0 0 0 0 0 0 0 0 68 71 73 75 72 75 58 58 65 60 59 60 59 58 57 57 56 55 53 53 51 50 50 47 46 46 43 44 42 44 44 43 43 43 43 44 43 43 42 41 42 43 45 47 48 48 48 50 52 49 47 47 44 45 45 43 42 42 41 41 41 40 41 42 44 43 42 42 42 42 43 41 39 -225 -225 -225 -225 -225 -225 -225 -225 -225 -225 -225 -225 -225 -225 -225 -225 -225 -225 -225 -225 -225 -225 -225 -225 -225 -225 -225 -225 -225 -225 -225 -225 -225 -225 -225 -225 -225 -225 -225 -225 -225 -225 -225 -225 -225 -225 -225 -225 -225 -225 -225 -225 -225 -225 36 32 30 28 31 31 33 34 42 43 47 45 47 46 45 45 45 44 44 43 45 45 45 47 47 50 47 47 47 46 45 46 47 48 48 53 53 54 56 59 59 60 58 59 59 60 61 61 62 65 -209 -209 -209 -177 -177 -193 -193 114 115 114 115 117 118 116 121 122 122 122 124 124 124 124 125 123 122 123 123 122 -209 -209 106 -209 -209 -209 -209 -209 -209 -209 -193 122 122 133 141 151 150 152 155 157 157 157 158 159 158 162 165 164 166 168 167 167 167 167 166 159 162 -209 -209 -209 -209 0 0 0 0 0
    0 0 0 0 0 0 0 0 0 0 0 0 0 0 0 0 0 0 0 0 0 0 0 0 0 0 0 0 0 0 0 0 0 0 0 0 0 0 0 0 0 0 0 0 0 0 0 0 0 0 0 0 0 0 0 0 0 0 0 0 0 0 0 0 0 0 0 0 0 67 71 72 -193 68 72 57 57 63 60 59 60 59 58 57 57 56 55 53 53 51 50 50 47 46 46 43 45 43 45 45 45 45 45 45 45 44 44 43 42 43 44 47 50 52 52 51 53 53 52 50 49 46 45 45 44 43 43 42 42 41 41 42 44 45 44 43 43 44 44 44 41 39 -225 -225 -225 -225 -225 -225 -225 -225 -225 -225 -225 -225 -225 -225 -225 -225 -225 -225 -225 -225 -225 -225 -225 -225 -225 -225 -225 -225 -225 -225 -225 -225 -225 -225 -225 -225 -225 -225 -225 -225 -225 -225 -225 -225 -225 -225 -225 -225 -225 -225 -225 -225 -225 -225 -225 29 27 26 29 25 29 37 43 44 49 47 49 47 46 46 46 45 45 43 45 44 45 47 46 50 46 47 46 46 45 46 47 48 49 54 54 55 56 60 59 60 58 58 59 59 60 61 -193 -193 -209 -177 -209 -177 -177 -193 110 112 115 113 113 116 117 115 122 123 123 122 125 125 124 125 126 124 122 124 124 124 124 123 -193 124 -193 127 -209 128 -193 122 122 124 124 134 141 151 149 151 155 157 157 157 158 158 157 162 164 164 166 168 167 167 167 167 165 160 161 -209 -209 -209 -209 0 0 0 0 0
    0 0 0 0 0 0 0 0 0 0 0 0 0 0 0 0 0 0 0 0 0 0 0 0 0 0 0 0 0 0 0 0 0 0 0 0 0 0 0 0 0 0 0 0 0 0 0 0 0 0 0 0 0 0 0 0 0 0 0 0 0 0 0 0 0 0 0 0 0 67 71 71 71 65 -209 58 57 62 60 60 60 60 59 58 57 56 55 53 53 51 50 50 47 47 47 44 45 44 46 46 47 46 47 46 47 45 45 44 43 44 46 51 53 55 54 53 54 53 52 51 50 47 46 46 45 44 44 44 43 42 43 45 46 46 46 44 45 46 47 45 43 -225 -225 -225 -225 -225 -225 -225 -225 -225 -225 -225 -225 -225 -225 -225 -225 -225 -225 -225 -225 -225 -225 -225 -225 -225 -225 -225 -225 -225 -225 -225 -225 -225 -225 -225 -225 -225 -225 -225 -225 -225 -225 -225 -225 -225 -225 -225 -225 -225 -225 -225 -225 -225 -225 -225 -225 -225 -225 23 27 20 -193 38 44 44 49 48 50 48 47 47 47 45 45 43 44 42 44 47 44 48 45 46 45 46 46 45 46 49 50 55 55 55 56 60 59 60 58 58 58 59 60 61 -193 -193 -209 -209 -209 -193 -177 -193 110 112 115 113 113 116 117 115 122 124 123 123 125 125 125 125 127 125 123 125 126 127 131 133 133 134 132 133 136 135 129 125 124 125 125 135 143 152 152 152 156 158 157 157 158 159 158 162 164 163 165 167 167 166 166 166 164 160 160 -193 -193 -209 -209 0 0 0 0 0
    0 0 0 0 0 0 0 0 0 0 0 0 0 0 0 0 0 0 0 0 0 0 0 0 0 0 0 0 0 0 0 0 0 0 0 0 0 0 0 0 0 0 0 0 0 0 0 0 0 0 0 0 0 0 0 0 0 0 0 0 0 0 0 0 0 0 0 0 0 67 69 69 -193 -193 -209 58 57 60 59 59 60 60 58 58 57 56 55 53 53 51 50 50 48 48 48 45 47 45 47 48 49 48 49 48 48 47 47 46 46 48 52 54 55 56 55 53 54 53 51 50 49 47 45 46 46 45 45 45 44 44 45 48 49 48 47 46 47 48 48 45 42 -225 -225 -225 -225 -225 -225 -225 -225 -225 -225 -225 -225 -225 -225 -225 -225 -225 -225 -225 -225 -225 -225 -225 -225 -225 -225 -225 -225 -225 -225 -225 -225 -225 -225 -225 -225 -225 -225 -225 -225 -225 -225 -225 -225 -225 -225 -225 -225 -225 -225 -225 -225 -225 -225 -225 -225 -225 -225 -225 27 12 -193 -193 46 45 50 49 51 49 48 47 47 46 45 42 42 40 43 46 45 48 44 46 46 48 47 46 46 49 50 55 55 55 56 61 60 60 58 57 58 59 60 61 -193 -193 -209 -209 -209 -193 -177 -177 -193 112 115 114 114 117 118 116 122 124 124 123 125 125 125 125 127 125 124 126 126 130 135 137 137 137 135 135 137 137 132 127 127 129 132 137 142 152 152 152 156 158 157 158 159 159 158 161 164 163 165 166 166 166 166 166 164 161 161 -209 -209 -209 -209 0 0 0 0 0
    0 0 0 0 0 0 0 0 0 0 0 0 0 0 0 0 0 0 0 0 0 0 0 0 0 0 0 0 0 0 0 0 0 0 0 0 0 0 0 0 0 0 0 0 0 0 0 0 0 0 0 0 0 0 0 0 0 0 0 0 0 0 0 0 0 0 0 0 0 67 68 68 66 -193 -193 58 57 59 58 59 59 59 58 57 56 56 55 54 53 52 51 51 49 49 50 46 48 47 49 49 50 49 50 49 50 50 50 49 52 52 54 55 56 56 55 53 54 52 50 50 49 47 45 46 47 46 46 47 45 46 49 52 52 50 49 49 50 51 50 47 -225 -225 -225 -225 -225 -225 -225 -225 -225 -225 -225 -225 -225 -225 -225 -225 -225 -225 -225 -225 -225 -225 -225 -225 -225 -225 -225 -225 -225 -225 -225 -225 -225 -225 -225 -225 -225 -225 -225 -225 -225 -225 -225 -225 -225 -225 -225 -225 -225 -225 -225 -225 -225 -225 -225 -225 -225 -225 -225 -225 -225 0 -193 -193 50 47 52 51 52 50 49 48 47 46 47 42 42 39 43 48 46 48 44 45 45 47 47 45 45 48 50 54 54 55 56 61 59 60 57 57 58 59 60 62 -193 -193 -209 -209 -209 -209 -177 -193 111 112 114 114 114 117 118 117 123 125 125 124 125 125 125 125 126 125 124 126 127 131 137 137 137 137 136 135 137 137 132 127 129 134 137 138 142 152 153 153 157 159 158 158 159 159 158 161 163 162 164 165 166 165 166 166 164 163 163 -193 -193 -209 -209 0 0 0 0 0
    0 0 0 0 0 0 0 0 0 0 0 0 0 0 0 0 0 0 0 0 0 0 0 0 0 0 0 0 0 0 0 0 0 0 0 0 0 0 0 0 0 0 0 0 0 0 0 0 0 0 0 0 0 0 0 0 0 0 0 0 0 0 0 0 0 0 0 0 0 67 68 67 66 64 -193 -193 57 58 58 59 58 58 57 57 57 56 55 55 53 53 52 52 50 51 52 50 50 50 52 51 52 51 52 52 53 53 52 52 55 55 55 56 56 56 55 53 54 52 50 50 49 47 45 47 50 49 49 50 49 51 53 55 54 52 52 52 53 53 51 47 -225 -225 -225 -225 -225 -225 -225 -225 -225 -225 -225 -225 -225 -225 -225 -225 -225 -225 -225 -225 -225 -225 -225 -225 -225 -225 -225 -225 -225 -225 -225 -225 -225 -225 -225 -225 -225 -225 -225 -225 -225 -225 -225 -225 -225 -225 -225 -225 -225 -225 -225 -225 -225 -225 -225 -225 -225 -225 -225 -225 -225 -225 -225 42 53 50 53 52 53 50 49 49 48 46 48 43 43 40 48 53 54 51 47 46 47 50 49 45 45 48 49 54 55 55 56 61 59 60 58 57 59 59 60 62 -193 -193 -193 68 -209 -209 -177 -193 110 111 112 113 114 117 118 117 123 125 124 124 125 125 125 125 126 125 125 128 129 131 136 137 137 137 137 136 137 137 135 128 130 136 137 138 142 151 154 154 158 159 158 158 159 159 158 160 163 161 163 165 166 165 165 166 164 164 164 -193 -209 -209 -209 0 0 0 0 0
    0 0 0 0 0 0 0 0 0 0 0 0 0 0 0 0 0 0 0 0 0 0 0 0 0 0 0 0 0 0 0 0 0 0 0 0 0 0 0 0 0 0 0 0 0 0 0 0 0 0 0 0 0 0 0 0 0 0 0 0 0 0 0 0 0 0 0 0 0 66 68 67 65 64 -193 -193 58 58 58 58 58 58 57 57 57 56 56 56 54 54 54 53 52 53 55 54 53 54 54 53 54 54 54 54 55 56 54 54 56 56 56 57 56 56 55 54 54 52 51 50 49 48 46 49 52 51 51 51 52 54 55 56 55 54 54 54 55 55 52 -225 -225 -225 -225 -225 -225 -225 -225 -225 -225 -225 -225 -225 -225 -225 -225 -225 -225 -225 -225 -225 -225 -225 -225 -225 -225 -225 -225 -225 -225 -225 -225 -225 -225 -225 -225 -225 -225 -225 -225 -225 -225 -225 -225 -225 -225 -225 -225 -225 -225 -225 -225 -225 -225 -225 -225 -225 -225 -225 -225 -225 -225 -225 -225 -225 -225 54 55 -209 56 51 50 49 48 47 48 44 43 41 50 53 55 53 52 50 50 53 52 50 50 50 52 55 56 56 56 61 59 60 59 58 59 60 61 62 60 64 -209 68 76 -209 -177 -193 109 110 111 112 114 117 118 116 123 125 124 124 124 125 125 125 126 126 126 129 130 132 135 137 137 137 137 136 137 138 137 133 135 138 140 141 144 152 155 154 158 159 158 158 159 159 159 160 163 161 163 164 165 165 165 165 163 165 -193 103 -193 -209 -209 0 0 0 0 0
    0 0 0 0 0 0 0 0 0 0 0 0 0 0 0 0 0 0 0 0 0 0 0 0 0 0 0 0 0 0 0 0 0 0 0 0 0 0 0 0 0 0 0 0 0 0 0 0 0 0 0 0 0 0 0 0 0 0 0 0 0 0 0 0 0 0 0 0 0 66 67 66 64 64 63 -193 -193 -193 -193 59 58 58 57 57 57 57 57 58 56 56 56 56 54 54 56 55 54 55 55 55 55 55 55 55 56 57 56 56 57 58 58 58 58 57 56 55 55 54 53 52 52 51 49 53 54 53 53 53 54 56 57 57 56 55 56 57 57 57 53 -225 -225 -225 -225 -225 -225 -225 -225 -225 -225 -225 -225 -225 -225 -225 -225 -225 -225 -225 -225 -225 -225 -225 -225 -225 -225 -225 -225 -225 -225 -225 -225 -225 -225 -225 -225 -225 -225 -225 -225 -225 -225 -225 -225 -225 -225 -225 -225 -225 -225 -225 -225 -225 -225 -225 -225 -225 -225 -225 -225 -225 -225 -225 -225 -225 -225 -225 -225 -209 57 52 51 51 49 49 50 45 43 41 52 54 55 54 53 52 52 54 55 54 54 53 55 56 58 57 58 62 60 60 60 59 60 60 61 63 61 65 -193 68 76 -209 -209 -193 108 109 110 112 114 117 117 115 122 124 123 123 123 125 124 124 124 125 126 131 132 133 136 137 137 137 137 137 137 138 138 135 137 140 144 146 149 152 157 155 159 159 158 159 159 159 159 160 163 161 163 164 165 165 165 165 163 166 -209 104 107 -209 -209 0 0 0 0 0
    0 0 0 0 0 0 0 0 0 0 0 0 0 0 0 0 0 0 0 0 0 0 0 0 0 0 0 0 0 0 0 0 0 0 0 0 0 0 0 0 0 0 0 0 0 0 0 0 0 0 0 0 0 0 0 0 0 0 0 0 0 0 0 0 0 0 0 0 0 65 66 64 63 64 63 62 -193 -193 59 59 58 58 57 58 58 58 58 59 57 57 59 58 58 57 58 57 55 56 56 55 56 55 56 55 56 57 57 57 58 59 58 58 58 58 57 56 57 56 54 54 54 54 52 55 56 55 54 55 56 58 58 58 57 57 57 58 58 57 53 -225 -225 -225 -225 -225 -225 -225 -225 -225 -225 -225 -225 -225 -225 -225 -225 -225 -225 -225 -225 -225 -225 -225 -225 -225 -225 -225 -225 -225 -225 -225 -225 -225 -225 -225 -225 -225 -225 -225 -225 -225 -225 -225 -225 -225 -225 -225 -225 -225 -225 -225 -225 -225 -225 -225 -225 -225 -225 -225 -225 -225 -225 -225 -225 -225 -225 -225 -225 -225 -225 49 47 47 45 46 47 45 43 41 53 55 55 54 53 53 53 56 57 57 58 56 58 60 64 60 60 64 61 61 61 60 61 61 62 63 61 -193 -193 -193 76 -209 -209 -193 108 109 110 113 114 117 117 114 122 123 123 123 122 124 123 123 123 125 127 131 132 134 137 138 139 138 138 137 138 139 139 137 139 144 148 150 151 153 158 156 159 159 159 159 160 160 160 160 163 161 163 163 164 164 164 164 160 166 -209 -193 -209 -209 -209 0 0 0 0 0
    0 0 0 0 0 0 0 0 0 0 0 0 0 0 0 0 0 0 0 0 0 0 0 0 0 0 0 0 0 0 0 0 0 0 0 0 0 0 0 0 0 0 0 0 0 0 0 0 0 0 0 0 0 0 0 0 0 0 0 0 0 0 0 0 0 0 0 0 0 65 66 64 63 65 64 64 62 60 60 60 59 58 58 58 58 59 59 60 58 59 61 60 61 59 60 59 57 58 58 57 57 56 57 57 58 59 58 60 61 61 60 60 59 59 58 58 58 57 56 55 56 55 54 56 57 56 56 57 59 60 60 59 59 59 59 60 60 58 -225 -225 -225 -225 -225 -225 -225 -225 -225 -225 -225 -225 -225 -225 -225 -225 -225 -225 -225 -225 -225 -225 -225 -225 -225 -225 -225 -225 -225 -225 -225 -225 -225 -225 -225 -225 -225 -225 -225 -225 -225 -225 -225 -225 -225 -225 -225 -225 -225 -225 -225 -225 -225 -225 -225 -225 -225 -225 -225 -225 -225 -225 -225 -225 -225 -225 -225 -225 -225 -225 -225 -225 42 42 40 44 45 43 42 41 53 54 55 53 53 52 53 55 58 59 59 58 60 63 66 62 62 65 62 62 63 61 61 62 62 63 62 67 66 68 76 -209 -209 -193 107 109 110 113 115 117 118 114 121 122 122 122 121 124 122 122 123 126 129 131 132 133 -193 138 139 139 139 138 139 140 142 141 144 150 152 153 152 153 159 156 159 159 159 159 160 160 160 160 162 161 162 162 163 163 162 162 157 164 -209 -193 -209 -209 -209 0 0 0 0 0
    0 0 0 0 0 0 0 0 0 0 0 0 0 0 0 0 0 0 0 0 0 0 0 0 0 0 0 0 0 0 0 0 0 0 0 0 0 0 0 0 0 0 0 0 0 0 0 0 0 0 0 0 0 0 0 0 0 0 0 0 0 0 0 0 0 0 0 0 0 65 66 64 64 65 65 64 63 62 62 61 60 59 58 58 59 60 59 61 59 60 63 63 65 63 64 62 59 60 60 59 59 57 58 58 59 61 60 61 62 62 61 61 60 60 60 60 59 58 58 56 57 56 55 58 59 57 57 59 62 63 62 60 60 60 61 62 60 58 -225 -225 -225 -225 -225 -225 -225 -225 -225 -225 -225 -225 -225 -225 -225 -225 -225 -225 -225 -225 -225 -225 -225 -225 -225 -225 -225 -225 -225 -225 -225 -225 -225 -225 -225 -225 -225 -225 -225 -225 -225 -225 -225 -225 -225 -225 -225 -225 -225 -225 -225 -225 -225 -225 -225 -225 -225 -225 -225 -225 -225 -225 -225 -225 -225 -225 -225 -225 -225 -225 -225 -225 -225 36 37 42 42 39 39 41 52 54 55 53 52 51 52 55 58 59 59 58 61 65 67 63 63 65 62 63 63 61 61 62 62 64 63 67 67 68 76 -209 -209 -209 107 109 110 114 115 118 118 115 121 121 122 122 121 123 122 122 123 127 130 131 131 -193 -193 138 138 138 139 138 139 140 145 145 149 153 154 154 154 154 161 157 160 159 159 159 161 161 161 159 162 161 161 161 162 162 162 161 156 161 -209 105 -193 -209 -209 0 0 0 0 0
    0 0 0 0 0 0 0 0 0 0 0 0 0 0 0 0 0 0 0 0 0 0 0 0 0 0 0 0 0 0 0 0 0 0 0 0 0 0 0 0 0 0 0 0 0 0 0 0 0 0 0 0 0 0 0 0 0 0 0 0 0 0 0 0 0 0 0 0 0 66 66 65 64 65 65 64 62 61 61 61 60 58 57 58 59 60 59 62 60 62 66 67 68 66 67 65 62 62 61 61 60 58 59 59 60 61 60 61 62 62 62 61 61 61 61 61 61 60 61 61 59 65 64 61 61 58 59 63 66 66 64 62 62 63 65 64 61 -225 -225 -225 -225 -225 -225 -225 -225 -225 -225 -225 -225 -225 -225 -225 -225 -225 -225 -225 -225 -225 -225 -225 -225 -225 -225 -225 -225 -225 -225 -225 -225 -225 -225 -225 -225 -225 -225 -225 -225 -225 -225 -225 -225 -225 -225 -225 -225 -225 -225 -225 -225 -225 -225 -225 -225 -225 -225 -225 -225 -225 -225 -225 -225 -225 -225 -225 -225 -225 -225 -225 -225 -225 -225 -225 -225 43 44 39 39 42 52 53 54 53 52 51 51 55 57 59 60 58 61 67 67 64 63 65 62 63 64 62 62 63 63 64 63 68 67 68 76 -209 -209 -209 107 109 111 115 116 119 119 117 120 121 122 121 120 123 122 122 123 128 131 131 131 -193 -193 137 137 137 138 137 139 140 145 146 150 154 155 155 154 155 162 158 160 159 159 159 161 161 161 160 163 161 162 161 163 162 162 161 156 -193 -209 106 107 -193 -209 0 0 0 0 0
    0 0 0 0 0 0 0 0 0 0 0 0 0 0 0 0 0 0 0 0 0 0 0 0 0 0 0 0 0 0 0 0 0 0 0 0 0 0 0 0 0 0 0 0 0 0 0 0 0 0 0 0 0 0 0 0 0 0 0 0 0 0 0 0 0 0 0 0 0 68 68 65 65 67 65 65 63 62 62 61 60 58 57 59 59 60 60 62 60 63 68 68 69 67 68 66 63 63 62 61 61 59 60 60 60 61 61 61 62 62 62 62 62 63 63 65 65 67 69 71 70 74 75 70 66 60 62 68 69 68 65 63 64 65 67 66 61 -225 -225 -225 -225 -225 -225 -225 -225 -225 -225 -225 -225 -225 -225 -225 -225 -225 -225 -225 -225 -225 -225 -225 -225 -225 -225 -225 -225 -225 -225 -225 -225 -225 -225 -225 -225 -225 -225 -225 -225 -225 -225 -225 -225 -225 -225 -225 -225 -225 -225 -225 -225 -225 -225 -225 -225 -225 -225 -225 -225 -225 -225 -225 -225 -225 -225 -225 -225 -225 -225 -225 -225 -225 -225 -225 -225 -225 52 54 42 44 53 53 53 53 52 51 51 54 57 59 61 59 61 67 66 65 64 65 63 63 65 63 62 64 63 64 64 68 68 69 76 -209 -209 -209 -193 109 112 116 116 119 120 118 120 121 122 121 120 123 122 123 124 130 132 132 132 133 136 137 136 136 137 137 138 138 143 145 149 153 154 154 154 154 162 158 160 159 159 160 162 162 162 160 163 161 162 161 163 162 161 161 155 -209 -209 -193 105 -209 -209 0 0 0 0 0
    0 0 0 0 0 0 0 0 0 0 0 0 0 0 0 0 0 0 0 0 0 0 0 0 0 0 0 0 0 0 0 0 0 0 0 0 0 0 0 0 0 0 0 0 0 0 0 0 0 0 0 0 0 0 0 0 0 0 0 0 0 0 0 0 0 0 0 0 0 68 68 66 66 67 66 66 64 63 65 63 64 59 58 60 61 63 62 64 63 65 69 69 70 67 68 66 64 63 62 62 61 60 61 60 61 62 61 62 63 63 63 64 63 66 66 68 68 70 71 72 72 76 77 73 70 67 69 73 72 70 67 66 66 68 69 67 62 -225 -225 -225 -225 -225 -225 -225 -225 -225 -225 -225 -225 -225 -225 -225 -225 -225 -225 -225 -225 -225 -225 -225 -225 -225 -225 -225 -225 -225 -225 -225 -225 -225 -225 -225 -225 -225 -225 -225 -225 -225 -225 -225 -225 -225 -225 -225 -225 -225 -225 -225 -225 -225 -225 -225 -225 -225 -225 -225 -225 -225 -225 -225 -225 -225 -225 -225 -225 -225 -225 -225 -225 -225 -225 -225 -225 -225 -225 -225 41 44 54 53 53 52 52 52 51 54 57 59 60 59 60 66 67 65 65 65 63 64 65 64 62 64 64 64 65 69 69 69 -193 -177 -209 -193 -193 110 114 117 116 120 120 120 120 120 121 121 120 124 123 124 125 130 131 132 133 134 135 136 136 136 138 137 138 138 142 145 149 -193 154 154 154 154 161 158 159 159 159 159 162 162 162 160 163 162 163 162 163 162 161 161 155 -193 -209 -209 -209 -209 -209 0 0 0 0 0
    0 0 0 0 0 0 0 0 0 0 0 0 0 0 0 0 0 0 0 0 0 0 0 0 0 0 0 0 0 0 0 0 0 0 0 0 0 0 0 0 0 0 0 0 0 0 0 0 0 0 0 0 0 0 0 0 0 0 0 0 0 0 0 0 0 0 0 0 0 69 68 66 66 68 67 67 66 64 66 65 69 63 59 61 63 67 66 66 67 66 69 70 70 65 67 65 64 63 63 62 62 61 63 62 62 63 62 63 64 64 65 65 65 68 69 70 70 72 72 72 72 76 76 72 70 69 72 74 73 72 69 69 69 71 71 68 -225 -225 -225 -225 -225 -225 -225 -225 -225 -225 -225 -225 -225 -225 -225 -225 -225 -225 -225 -225 -225 -225 -225 -225 -225 -225 -225 -225 -225 -225 -225 -225 -225 -225 -225 -225 -225 -225 -225 -225 -225 -225 -225 -225 -225 -225 -225 -225 -225 -225 -225 -225 -225 -225 -225 -225 -225 -225 -225 -225 -225 -225 -225 -225 -225 -225 -225 -225 -225 -225 -225 -225 -225 -225 -225 -225 -225 -225 -225 -225 -225 -225 54 52 52 51 50 49 48 53 56 59 60 59 59 65 66 66 65 65 63 64 66 65 64 65 65 65 66 70 70 -193 -193 -177 -209 -177 -193 113 116 118 117 121 121 121 119 120 120 120 119 124 124 125 126 130 131 132 133 134 136 137 137 137 138 138 139 139 141 145 149 -193 154 154 154 154 161 158 159 159 159 159 162 162 162 160 164 163 164 163 163 162 161 161 154 148 144 -209 -209 -209 -209 0 0 0 0 0
    0 0 0 0 0 0 0 0 0 0 0 0 0 0 0 0 0 0 0 0 0 0 0 0 0 0 0 0 0 0 0 0 0 0 0 0 0 0 0 0 0 0 0 0 0 0 0 0 0 0 0 0 0 0 0 0 0 0 0 0 0 0 0 0 0 0 0 0 0 69 69 66 66 68 67 67 66 64 66 66 70 66 59 63 66 71 70 68 -193 68 68 70 68 63 64 63 65 64 65 64 66 66 67 66 65 65 65 66 66 65 66 66 66 68 69 70 69 71 71 72 72 77 77 74 72 74 76 77 76 73 72 71 72 73 72 69 -225 -225 -225 -225 -225 -225 -225 -225 -225 -225 -225 -225 -225 -225 -225 -225 -225 -225 -225 -225 -225 -225 -225 -225 -225 -225 -225 -225 -225 -225 -225 -225 -225 -225 -225 -225 -225 -225 -225 -225 -225 -225 -225 -225 -225 -225 -225 -225 -225 -225 -225 -225 -225 -225 -225 -225 -225 -225 -225 -225 -225 -225 -225 -225 -225 -225 -225 -225 -225 -225 -225 -225 -225 -225 -225 -225 -225 -225 -225 -225 -225 -225 -225 -225 48 45 45 43 44 51 56 59 59 59 60 66 65 66 65 65 64 64 65 65 64 66 65 66 67 70 -193 -193 -177 -177 -177 -177 -193 117 119 119 119 121 122 122 119 120 120 120 119 123 124 125 126 129 130 132 133 135 136 137 137 138 138 139 139 139 141 143 148 151 153 154 154 155 162 158 159 159 159 159 162 162 162 160 164 163 164 163 164 163 162 162 154 150 147 -209 -209 -209 -209 0 0 0 0 0
    0 0 0 0 0 0 0 0 0 0 0 0 0 0 0 0 0 0 0 0 0 0 0 0 0 0 0 0 0 0 0 0 0 0 0 0 0 0 0 0 0 0 0 0 0 0 0 0 0 0 0 0 0 0 0 0 0 0 0 0 0 0 0 0 0 0 0 0 0 71 70 67 67 67 66 66 66 65 66 67 69 66 62 66 70 73 71 70 73 73 70 71 69 65 65 65 68 66 67 67 68 69 69 69 68 67 67 68 67 66 65 66 65 68 68 70 68 71 71 72 72 77 78 75 74 78 79 79 77 75 74 74 74 75 73 70 -225 -225 -225 -225 -225 -225 -225 -225 -225 -225 -225 -225 -225 -225 -225 -225 -225 -225 -225 -225 -225 -225 -225 -225 -225 -225 -225 -225 -225 -225 -225 -225 -225 -225 -225 -225 -225 -225 -225 -225 -225 -225 -225 -225 -225 -225 -225 -225 -225 -225 -225 -225 -225 -225 -225 -225 -225 -225 -225 -225 -225 -225 -225 -225 -225 -225 -225 -225 -225 -225 -225 -225 -225 -225 -225 -225 -225 -225 -225 -225 -225 -225 -225 -225 -225 -225 40 38 41 45 37 -193 -193 -193 58 67 64 66 64 64 64 64 65 66 63 66 66 67 68 71 -193 -193 -177 -177 -177 -177 -177 118 119 120 119 121 122 122 119 119 120 120 119 123 123 125 126 129 129 132 133 135 136 137 137 138 139 139 139 139 140 142 147 151 152 154 154 155 162 158 158 159 159 159 161 161 162 160 164 163 164 163 165 163 163 163 155 152 149 -209 -209 -209 -209 0 0 0 0 0
    0 0 0 0 0 0 0 0 0 0 0 0 0 0 0 0 0 0 0 0 0 0 0 0 0 0 0 0 0 0 0 0 0 0 0 0 0 0 0 0 0 0 0 0 0 0 0 0 0 0 0 0 0 0 0 0 0 0 0 0 0 0 0 0 0 0 0 0 0 72 72 69 68 67 66 66 66 66 67 67 70 68 66 70 73 74 74 73 75 76 73 74 73 70 69 69 72 69 70 71 71 72 71 70 69 68 69 69 68 67 66 68 67 69 69 69 67 70 70 71 71 76 76 74 77 83 83 82 80 77 76 77 77 77 75 -225 -225 -225 -225 -225 -225 -225 -225 -225 -225 -225 -225 -225 -225 -225 -225 -225 -225 -225 -225 -225 -225 -225 -225 -225 -225 -225 -225 -225 -225 -225 -225 -225 -225 -225 -225 -225 -225 -225 -225 -225 -225 -225 -225 -225 -225 -225 -225 -225 -225 -225 -225 -225 -225 -225 -225 -225 -225 -225 -225 -225 -225 -225 -225 -225 -225 -225 -225 -225 -225 -225 -225 -225 -225 -225 -225 -225 -225 -225 -225 -225 -225 -225 -225 -225 -225 -225 -225 37 38 38 36 36 36 39 53 61 60 63 62 62 62 63 64 65 63 67 67 69 69 71 -193 -209 -193 -177 -177 -177 -177 -193 119 120 119 121 122 122 118 119 120 120 -193 122 123 125 126 129 129 131 133 135 136 137 137 138 139 140 140 139 140 141 145 149 151 153 153 154 162 157 158 158 158 158 161 161 161 159 163 163 164 164 165 164 164 164 157 154 150 -193 -193 -209 -193 0 0 0 0 0
    0 0 0 0 0 0 0 0 0 0 0 0 0 0 0 0 0 0 0 0 0 0 0 0 0 0 0 0 0 0 0 0 0 0 0 0 0 0 0 0 0 0 0 0 0 0 0 0 0 0 0 0 0 0 0 0 0 0 0 0 0 0 0 0 0 0 0 0 0 76 76 72 71 69 67 67 68 67 68 68 70 -193 66 69 73 73 73 73 75 76 74 75 74 72 73 73 74 71 71 72 72 73 72 70 70 69 70 70 70 69 68 69 69 72 71 70 67 69 69 71 70 75 74 74 79 84 84 82 80 79 78 79 79 77 74 -225 -225 -225 -225 -225 -225 -225 -225 -225 -225 -225 -225 -225 -225 -225 -225 -225 -225 -225 -225 -225 -225 -225 -225 -225 -225 -225 -225 -225 -225 -225 -225 -225 -225 -225 -225 -225 -225 -225 -225 -225 -225 -225 -225 -225 -225 -225 -225 -225 -225 -225 -225 -225 -225 -225 -225 -225 -225 -225 -225 -225 -225 -225 -225 -225 -225 -225 -225 -225 -225 -225 -225 -225 -225 -225 -225 -225 -225 -225 -225 -225 -225 -225 -225 -225 -225 -225 -225 -225 -225 32 35 35 36 39 48 55 57 62 61 61 61 61 62 64 63 66 66 69 69 72 -209 -209 -209 -193 -193 -177 -193 117 119 121 119 121 123 123 119 119 120 120 -193 122 123 125 126 129 129 131 133 135 136 136 137 139 139 140 140 140 140 141 144 148 149 152 152 154 162 157 158 158 158 158 160 160 161 159 163 163 164 164 166 165 166 165 161 161 -209 -209 0 -193 -209 0 0 0 0 0
    0 0 0 0 0 0 0 0 0 0 0 0 0 0 0 0 0 0 0 0 0 0 0 0 0 0 0 0 0 0 0 0 0 0 0 0 0 0 0 0 0 0 0 0 0 0 0 0 0 0 0 0 0 0 0 0 0 0 0 0 0 0 0 0 0 0 0 0 0 77 77 73 72 70 68 67 69 68 68 69 70 71 68 71 73 74 74 75 75 76 74 76 74 74 74 74 75 74 73 75 74 76 73 71 71 70 71 71 71 70 68 70 70 73 73 72 69 70 71 72 73 76 76 75 81 83 83 82 80 81 80 81 82 78 -225 -225 -225 -225 -225 -225 -225 -225 -225 -225 -225 -225 -225 -225 -225 -225 -225 -225 -225 -225 -225 -225 -225 -225 -225 -225 -225 -225 -225 -225 -225 -225 -225 -225 -225 -225 -225 -225 -225 -225 -225 -225 -225 -225 -225 -225 -225 -225 -225 -225 -225 -225 -225 -225 -225 -225 -225 -225 -225 -225 -225 -225 -225 -225 -225 -225 -225 -225 -225 -225 -225 -225 -225 -225 -225 -225 -225 -225 -225 -225 -225 -225 -225 -225 -225 -225 -225 -225 -225 -225 -225 -225 32 34 36 38 46 53 57 61 61 61 60 61 61 64 63 66 67 69 70 73 74 74 76 -209 -209 -209 -209 120 121 122 120 121 123 123 119 119 120 120 119 123 123 126 126 130 129 131 133 135 136 136 137 139 140 141 141 141 141 141 144 147 147 151 151 153 162 157 157 158 158 158 160 160 160 159 163 163 164 164 166 166 166 166 163 166 -209 -209 -193 -193 -209 0 0 0 0 0
    0 0 0 0 0 0 0 0 0 0 0 0 0 0 0 0 0 0 0 0 0 0 0 0 0 0 0 0 0 0 0 0 0 0 0 0 0 0 0 0 0 0 0 0 0 0 0 0 0 0 0 0 0 0 0 0 0 0 0 0 0 0 0 0 0 0 0 0 0 79 77 75 73 71 69 69 71 71 70 71 72 73 71 72 74 75 75 77 75 76 74 75 74 75 75 75 76 77 76 79 80 80 77 75 74 73 73 74 74 73 71 75 74 75 77 75 74 73 75 76 76 78 78 78 84 85 85 83 82 82 82 83 83 78 -225 -225 -225 -225 -225 -225 -225 -225 -225 -225 -225 -225 -225 -225 -225 -225 -225 -225 -225 -225 -225 -225 -225 -225 -225 -225 -225 -225 -225 -225 -225 -225 -225 -225 -225 -225 -225 -225 -225 -225 -225 -225 -225 -225 -225 -225 -225 -225 -225 -225 -225 -225 -225 -225 -225 -225 -225 -225 -225 -225 -225 -225 -225 -225 -225 -225 -225 -225 -225 -225 -225 -225 -225 -225 -225 -225 -225 -225 -225 -225 -225 -225 -225 -225 -225 -225 -225 -225 -225 -225 -225 -225 -225 -225 -225 39 45 52 57 59 60 60 60 60 60 64 63 66 67 70 70 74 75 75 76 -193 -209 -209 -193 121 122 123 120 121 122 123 119 119 120 120 119 123 123 127 127 130 130 132 134 135 136 137 138 140 140 142 141 141 141 141 144 146 146 150 150 152 161 157 157 158 159 158 160 160 160 159 162 163 163 164 166 166 166 166 163 167 -209 -209 -209 -193 -209 0 0 0 0 0
    0 0 0 0 0 0 0 0 0 0 0 0 0 0 0 0 0 0 0 0 0 0 0 0 0 0 0 0 0 0 0 0 0 0 0 0 0 0 0 0 0 0 0 0 0 0 0 0 0 0 0 0 0 0 0 0 0 0 0 0 0 0 0 0 0 0 0 0 0 79 77 76 74 71 70 70 72 72 72 73 74 74 72 73 74 75 74 77 74 74 73 74 73 73 74 75 75 77 77 80 82 82 79 78 78 76 76 77 77 77 75 80 81 78 79 76 76 75 78 78 78 79 79 81 86 85 85 83 83 84 84 85 84 79 -225 -225 -225 -225 -225 -225 -225 -225 -225 -225 -225 -225 -225 -225 -225 -225 -225 -225 -225 -225 -225 -225 -225 -225 -225 -225 -225 -225 -225 -225 -225 -225 -225 -225 -225 -225 -225 -225 -225 -225 -225 -225 -225 -225 -225 -225 -225 -225 -225 -225 -225 -225 -225 -225 -225 -225 -225 -225 -225 -225 -225 -225 -225 -225 -225 -225 -225 -225 -225 -225 -225 -225 -225 -225 -225 -225 -225 -225 -225 -225 -225 -225 -225 -225 -225 -225 -225 -225 -225 -225 -225 -225 -225 -225 -225 -225 -225 47 55 57 60 59 58 59 59 63 64 65 67 70 70 74 75 75 75 85 -209 -209 121 121 121 122 120 121 122 122 119 119 120 120 119 123 123 127 127 130 130 132 134 135 136 137 138 140 141 142 142 142 142 141 144 146 146 149 149 152 161 157 157 158 159 158 160 160 160 159 162 163 163 164 165 166 166 166 163 165 -209 -193 -209 -193 -209 0 0 0 0 0
    0 0 0 0 0 0 0 0 0 0 0 0 0 0 0 0 0 0 0 0 0 0 0 0 0 0 0 0 0 0 0 0 0 0 0 0 0 0 0 0 0 0 0 0 0 0 0 0 0 0 0 0 0 0 0 0 0 0 0 0 0 0 0 0 0 0 0 0 0 80 78 77 74 72 70 71 74 74 75 76 77 76 74 73 74 75 74 76 75 75 74 75 75 75 76 76 76 78 78 81 83 83 81 79 80 80 80 80 81 81 80 82 83 82 80 78 79 78 81 80 79 79 80 83 86 86 85 84 85 85 86 86 84 -225 -225 -225 -225 -225 -225 -225 -225 -225 -225 -225 -225 -225 -225 -225 -225 -225 -225 -225 -225 -225 -225 -225 -225 -225 -225 -225 -225 -225 -225 -225 -225 -225 -225 -225 -225 -225 -225 -225 -225 -225 -225 -225 -225 -225 -225 -225 -225 -225 -225 -225 -225 -225 -225 -225 -225 -225 -225 -225 -225 -225 -225 -225 -225 -225 -225 -225 -225 -225 -225 -225 -225 -225 -225 -225 -225 -225 -225 -225 -225 -225 -225 -225 -225 -225 -225 -225 -225 -225 -225 -225 -225 -225 -225 -225 -225 -225 -225 -225 51 53 57 57 56 55 55 61 63 66 67 71 69 73 74 75 74 83 -209 -209 -193 121 121 122 120 120 122 122 119 119 120 120 119 123 123 127 127 130 131 131 134 135 137 137 138 141 141 143 143 143 142 141 144 146 146 149 149 152 161 157 157 158 159 159 160 160 160 159 161 163 162 163 165 165 166 165 162 163 -209 -193 -209 -193 -193 0 0 0 0 0
    0 0 0 0 0 0 0 0 0 0 0 0 0 0 0 0 0 0 0 0 0 0 0 0 0 0 0 0 0 0 0 0 0 0 0 0 0 0 0 0 0 0 0 0 0 0 0 0 0 0 0 0 0 0 0 0 0 0 0 0 0 0 0 0 0 0 0 0 0 80 77 77 75 73 -193 73 79 79 77 79 80 80 77 76 76 76 76 78 76 76 76 76 76 77 77 78 78 79 80 82 83 83 82 81 82 82 82 82 83 83 82 83 83 83 81 79 81 80 82 80 79 79 80 83 86 86 85 84 85 86 87 86 85 -225 -225 -225 -225 -225 -225 -225 -225 -225 -225 -225 -225 -225 -225 -225 -225 -225 -225 -225 -225 -225 -225 -225 -225 -225 -225 -225 -225 -225 -225 -225 -225 -225 -225 -225 -225 -225 -225 -225 -225 -225 -225 -225 -225 -225 -225 -225 -225 -225 -225 -225 -225 -225 -225 -225 -225 -225 -225 -225 -225 -225 -225 -225 -225 -225 -225 -225 -225 -225 -225 -225 -225 -225 -225 -225 -225 -225 -225 -225 -225 -225 -225 -225 -225 -225 -225 -225 -225 -225 -225 -225 -225 -225 -225 -225 -225 -225 -225 -225 -225 -225 48 48 46 47 49 53 57 59 64 70 70 74 74 75 74 80 -209 -209 -209 -209 120 122 119 120 121 122 119 120 120 120 120 123 123 127 127 130 131 131 134 136 137 138 139 141 141 143 143 143 143 142 144 146 146 149 149 152 161 158 157 159 159 159 160 160 160 159 161 163 162 163 164 164 165 165 -193 -193 -209 -209 -209 -209 -193 0 0 0 0 0
    0 0 0 0 0 0 0 0 0 0 0 0 0 0 0 0 0 0 0 0 0 0 0 0 0 0 0 0 0 0 0 0 0 0 0 0 0 0 0 0 0 0 0 0 0 0 0 0 0 0 0 0 0 0 0 0 0 0 0 0 0 0 0 0 0 0 0 0 0 80 78 78 78 77 83 80 83 83 80 80 81 80 80 77 76 77 76 80 78 77 76 77 77 78 79 80 79 81 81 82 83 83 83 83 83 84 83 83 84 84 84 83 83 83 82 80 82 81 82 80 78 79 80 82 86 85 84 84 86 87 87 87 85 -225 -225 -225 -225 -225 -225 -225 -225 -225 -225 -225 -225 -225 -225 -225 -225 -225 -225 -225 -225 -225 -225 -225 -225 -225 -225 -225 -225 -225 -225 -225 -225 -225 -225 -225 -225 -225 -225 -225 -225 -225 -225 -225 -225 -225 -225 -225 -225 -225 -225 -225 -225 -225 -225 -225 -225 -225 -225 -225 -225 -225 -225 -225 -225 -225 -225 -225 -225 -225 -225 -225 -225 -225 -225 -225 -225 -225 -225 -225 -225 -225 -225 -225 -225 -225 -225 -225 -225 -225 -225 -225 -225 -225 -225 -225 -225 -225 -225 -225 -225 -225 -225 -225 47 48 47 52 54 53 59 68 70 75 75 75 75 82 -209 -209 -209 -209 112 121 118 119 121 122 119 120 120 120 120 123 122 127 127 131 132 132 134 136 138 138 139 141 142 143 144 143 143 142 144 146 146 149 148 152 160 158 157 159 159 160 160 160 160 160 161 163 162 162 163 163 164 164 -193 -193 -209 -209 -209 -193 -193 0 0 0 0 0
    0 0 0 0 0 0 0 0 0 0 0 0 0 0 0 0 0 0 0 0 0 0 0 0 0 0 0 0 0 0 0 0 0 0 0 0 0 0 0 0 0 0 0 0 0 0 0 0 0 0 0 0 0 0 0 0 0 0 0 0 0 0 0 0 0 0 0 0 0 82 80 82 85 83 87 88 86 86 84 86 86 84 84 81 79 79 78 82 79 78 77 77 78 79 80 81 80 83 85 85 85 85 86 85 86 86 85 84 84 85 85 83 83 83 82 80 82 81 82 79 78 79 80 82 86 85 85 84 86 88 88 88 -225 -225 -225 -225 -225 -225 -225 -225 -225 -225 -225 -225 -225 -225 -225 -225 -225 -225 -225 -225 -225 -225 -225 -225 -225 -225 -225 -225 -225 -225 -225 -225 -225 -225 -225 -225 -225 -225 -225 -225 -225 -225 -225 -225 -225 -225 -225 -225 -225 -225 -225 -225 -225 -225 -225 -225 -225 -225 -225 -225 -225 -225 -225 -225 -225 -225 -225 -225 -225 -225 -225 -225 -225 -225 -225 -225 -225 -225 -225 -225 -225 -225 -225 -225 -225 -225 -225 -225 -225 -225 -225 -225 -225 -225 -225 -225 -225 -225 -225 -225 -225 -225 -225 -225 -225 -225 46 49 53 51 55 55 68 75 76 77 76 87 -209 -209 -209 -193 107 120 118 119 121 122 120 120 120 120 120 123 122 127 128 131 132 132 134 136 138 138 139 141 141 143 144 143 143 142 144 145 146 149 148 152 159 159 157 160 160 160 161 160 161 160 161 163 161 161 162 163 164 163 -193 -209 -209 -209 -209 -209 -209 0 0 0 0 0
    0 0 0 0 0 0 0 0 0 0 0 0 0 0 0 0 0 0 0 0 0 0 0 0 0 0 0 0 0 0 0 0 0 0 0 0 0 0 0 0 0 0 0 0 0 0 0 0 0 0 0 0 0 0 0 0 0 0 0 0 0 0 0 0 0 0 0 0 0 83 81 85 87 87 89 -193 88 88 87 89 91 -193 87 84 83 83 80 83 79 78 77 77 79 81 81 83 82 84 87 87 87 87 87 86 86 87 86 84 85 86 85 83 83 83 82 81 83 82 82 80 78 79 81 83 86 84 84 83 86 88 88 87 -225 -225 -225 -225 -225 -225 -225 -225 -225 -225 -225 -225 -225 -225 -225 -225 -225 -225 -225 -225 -225 -225 -225 -225 -225 -225 -225 -225 -225 -225 -225 -225 -225 -225 -225 -225 -225 -225 -225 -225 -225 -225 -225 -225 -225 -225 -225 -225 -225 -225 -225 -225 -225 -225 -225 -225 -225 -225 -225 -225 -225 -225 -225 -225 -225 -225 -225 -225 -225 -225 -225 -225 -225 -225 -225 -225 -225 -225 -225 -225 -225 -225 -225 -225 -225 -225 -225 -225 -225 -225 -225 -225 -225 -225 -225 -225 -225 -225 -225 -225 -225 -225 -225 -225 -225 -225 -225 43 42 43 44 48 58 -209 74 77 73 -193 -209 -209 -193 -209 -209 119 118 119 121 122 120 120 119 119 120 123 122 126 127 131 132 132 134 135 137 138 138 140 140 143 143 143 143 142 144 145 146 149 148 151 158 159 157 160 160 160 161 160 161 160 161 163 161 161 161 162 163 163 -193 -209 17 -209 -209 -209 -209 0 0 0 0 0
    0 0 0 0 0 0 0 0 0 0 0 0 0 0 0 0 0 0 0 0 0 0 0 0 0 0 0 0 0 0 0 0 0 0 0 0 0 0 0 0 0 0 0 0 0 0 0 0 0 0 0 0 0 0 0 0 0 0 0 0 0 0 0 0 0 0 0 0 0 87 -193 89 -209 -209 -209 -193 -209 -209 87 89 90 87 87 85 86 87 86 85 81 79 80 80 82 83 82 83 83 86 90 89 90 90 91 88 88 89 87 85 85 85 85 83 83 83 82 81 83 82 83 80 79 81 82 84 86 84 84 83 87 89 88 87 -225 -225 -225 -225 -225 -225 -225 -225 -225 -225 -225 -225 -225 -225 -225 -225 -225 -225 -225 -225 -225 -225 -225 -225 -225 -225 -225 -225 -225 -225 -225 -225 -225 -225 -225 -225 -225 -225 -225 -225 -225 -225 -225 -225 -225 -225 -225 -225 -225 -225 -225 -225 -225 -225 -225 -225 -225 -225 -225 -225 -225 -225 -225 -225 -225 -225 -225 -225 -225 -225 -225 -225 -225 -225 -225 -225 -225 -225 -225 -225 -225 -225 -225 -225 -225 -225 -225 -225 -225 -225 -225 -225 -225 -225 -225 -225 -225 -225 -225 -225 -225 -225 -225 -225 -225 -225 -225 -225 41 43 44 51 56 -209 71 75 66 -193 -209 -193 0 -209 106 114 115 115 118 120 118 116 117 117 117 122 121 124 126 130 132 132 133 135 137 138 138 139 140 141 143 143 143 141 143 145 147 149 148 151 156 159 157 160 160 160 161 160 161 160 161 163 161 160 161 160 162 162 -193 -209 21 -209 -209 -209 -209 0 0 0 0 0
    0 0 0 0 0 0 0 0 0 0 0 0 0 0 0 0 0 0 0 0 0 0 0 0 0 0 0 0 0 0 0 0 0 0 0 0 0 0 0 0 0 0 0 0 0 0 0 0 0 0 0 0 0 0 0 0 0 0 0 0 0 0 0 0 0 0 0 0 0 -209 -209 94 96 98 93 95 89 88 87 89 89 86 86 85 87 90 91 89 85 83 85 85 86 86 84 84 84 88 97 99 93 -193 -209 -193 88 90 88 85 86 85 85 84 83 84 83 82 84 83 84 81 80 81 82 85 87 85 85 84 89 90 90 -225 -225 -225 -225 -225 -225 -225 -225 -225 -225 -225 -225 -225 -225 -225 -225 -225 -225 -225 -225 -225 -225 -225 -225 -225 -225 -225 -225 -225 -225 -225 -225 -225 -225 -225 -225 -225 -225 -225 -225 -225 -225 -225 -225 -225 -225 -225 -225 -225 -225 -225 -225 -225 -225 -225 -225 -225 -225 -225 -225 -225 -225 -225 -225 -225 -225 -225 -225 -225 -225 -225 -225 -225 -225 -225 -225 -225 -225 -225 -225 -225 -225 -225 -225 -225 -225 -225 -225 -225 -225 -225 -225 -225 -225 -225 -225 -225 -225 -225 -225 -225 -225 -225 -225 -225 -225 -225 -225 -209 -209 -209 44 47 -209 -209 -209 -209 -193 -209 -209 -193 -193 107 106 108 111 111 115 116 114 109 111 113 114 116 117 121 125 129 132 132 134 135 138 138 138 139 139 140 142 142 142 141 142 144 147 149 149 150 155 159 156 159 160 159 161 160 161 160 161 163 161 161 160 160 162 161 -193 -193 24 -209 -209 -209 54 0 0 0 0 0
    0 0 0 0 0 0 0 0 0 0 0 0 0 0 0 0 0 0 0 0 0 0 0 0 0 0 0 0 0 0 0 0 0 0 0 0 0 0 0 0 0 0 0 0 0 0 0 0 0 0 0 0 0 0 0 0 0 0 0 0 0 0 0 0 0 0 0 0 0 102 -193 101 100 -193 95 100 98 89 87 89 89 87 88 87 88 94 94 93 88 87 88 88 89 89 87 88 88 91 104 107 105 108 115 -209 87 89 88 85 86 85 85 84 83 84 83 82 84 84 84 80 78 80 81 84 84 83 82 81 88 89 -225 -225 -225 -225 -225 -225 -225 -225 -225 -225 -225 -225 -225 -225 -225 -225 -225 -225 -225 -225 -225 -225 -225 -225 -225 -225 -225 -225 -225 -225 -225 -225 -225 -225 -225 -225 -225 -225 -225 -225 -225 -225 -225 -225 -225 -225 -225 -225 -225 -225 -225 -225 -225 -225 -225 -225 -225 -225 -225 -225 -225 -225 -225 -225 -225 -225 -225 -225 -225 -225 -225 -225 -225 -225 -225 -225 -225 -225 -225 -225 -225 -225 -225 -225 -225 -225 -225 -225 -225 -225 -225 -225 -225 -225 -225 -225 -225 -225 -225 -225 -225 -225 -225 -225 -225 -225 -225 -225 -225 -209 -209 -209 -209 -209 -209 -209 -193 34 44 -209 -209 -209 -193 107 106 107 108 108 111 111 110 106 107 109 109 109 112 118 122 127 132 132 134 135 138 138 138 139 139 140 141 141 141 140 142 144 147 150 149 151 155 160 157 159 159 159 161 160 161 160 161 163 162 161 160 160 162 161 160 -193 -193 -209 -209 -209 -209 0 0 0 0 0
    0 0 0 0 0 0 0 0 0 0 0 0 0 0 0 0 0 0 0 0 0 0 0 0 0 0 0 0 0 0 0 0 0 0 0 0 0 0 0 0 0 0 0 0 0 0 0 0 0 0 0 0 0 0 0 0 0 0 0 0 0 0 0 0 0 0 0 0 0 89 -193 96 96 100 91 90 94 96 92 93 -209 -209 -209 -209 94 102 99 100 95 89 91 92 92 92 91 92 93 97 103 104 102 103 105 100 89 90 88 86 86 86 86 85 83 85 84 84 85 85 85 80 78 80 80 82 83 80 -193 80 88 90 -225 -225 -225 -225 -225 -225 -225 -225 -225 -225 -225 -225 -225 -225 -225 -225 -225 -225 -225 -225 -225 -225 -225 -225 -225 -225 -225 -225 -225 -225 -225 -225 -225 -225 -225 -225 -225 -225 -225 -225 -225 -225 -225 -225 -225 -225 -225 -225 -225 -225 -225 -225 -225 -225 -225 -225 -225 -225 -225 -225 -225 -225 -225 -225 -225 -225 -225 -225 -225 -225 -225 -225 -225 -225 -225 -225 -225 -225 -225 -225 -225 -225 -225 -225 -225 -225 -225 -225 -225 -225 -225 -225 -225 -225 -225 -225 -225 -225 -225 -225 -225 -225 -225 -225 -225 -225 -225 -209 -209 -209 -209 -209 -209 -209 -209 -209 -193 31 43 65 79 90 104 -193 105 105 106 107 109 111 109 106 106 108 109 109 111 116 120 125 131 132 133 135 138 138 138 138 139 140 141 141 142 140 142 144 148 150 150 151 155 161 157 160 159 159 161 160 161 161 161 163 162 161 160 160 162 161 161 -193 -193 -209 83 -209 -209 0 0 0 0 0
    0 0 0 0 0 0 0 0 0 0 0 0 0 0 0 0 0 0 0 0 0 0 0 0 0 0 0 0 0 0 0 0 0 0 0 0 0 0 0 0 0 0 0 0 0 0 0 0 0 0 0 0 0 0 0 0 0 0 0 0 0 0 0 0 0 0 0 0 0 90 92 95 96 99 94 97 97 105 105 103 -193 -193 -193 101 101 103 101 102 99 93 93 97 99 99 97 101 101 102 104 105 104 103 103 99 92 92 89 -177 86 86 87 85 84 86 85 85 86 86 86 80 77 81 81 78 76 74 401 406 -225 -225 -225 -225 -225 -225 -225 -225 -225 -225 -225 -225 -225 -225 -225 -225 -225 -225 -225 -225 -225 -225 -225 -225 -225 -225 -225 -225 -225 -225 -225 -225 -225 -225 -225 -225 -225 -225 -225 -225 -225 -225 -225 -225 -225 -225 -225 -225 -225 -225 -225 -225 -225 -225 -225 -225 -225 -225 -225 -225 -225 -225 -225 -225 -225 -225 -225 -225 -225 -225 -225 -225 -225 -225 -225 -225 -225 -225 -225 -225 -225 -225 -225 -225 -225 -225 -225 -225 -225 -225 -225 -225 -225 -225 -225 -225 -225 -225 -225 -225 -225 -225 -225 -225 -225 -225 -225 -225 -225 -209 -209 -209 -209 -209 -209 -209 -209 -209 -193 33 -209 71 80 -177 104 106 105 105 105 107 108 110 109 106 105 106 107 107 108 112 117 122 128 130 132 134 138 137 138 139 139 140 141 141 142 140 142 144 148 151 151 152 155 162 158 160 160 159 161 161 161 161 161 163 162 161 160 159 161 161 160 155 -193 -209 -193 -209 -209 0 0 0 0 0
    0 0 0 0 0 0 0 0 0 0 0 0 0 0 0 0 0 0 0 0 0 0 0 0 0 0 0 0 0 0 0 0 0 0 0 0 0 0 0 0 0 0 0 0 0 0 0 0 0 0 0 0 0 0 0 0 0 0 0 0 0 0 0 0 0 0 0 0 0 88 90 92 96 100 98 102 102 106 106 105 -193 -193 -193 102 102 103 102 103 102 96 97 100 102 102 101 105 104 105 106 105 104 102 102 99 96 96 92 89 -225 -225 -225 -225 -225 -225 -225 -225 -225 -225 -225 -225 -225 -225 -225 -225 -225 -225 -225 -225 -225 -225 -225 -225 -225 -225 -225 -225 -225 -225 -225 -225 -225 -225 -225 -225 -225 -225 -225 -225 -225 -225 -225 -225 -225 -225 -225 -225 -225 -225 -225 -225 -225 -225 -225 -225 -225 -225 -225 -225 -225 -225 -225 -225 -225 -225 -225 -225 -225 -225 -225 -225 -225 -225 -225 -225 -225 -225 -225 -225 -225 -225 -225 -225 -225 -225 -225 -225 -225 -225 -225 -225 -225 -225 -225 -225 -225 -225 -225 -225 -225 -225 -225 -225 -225 -225 -225 -225 -225 -225 -225 -225 -225 -225 -225 -225 -225 -225 -225 -225 -225 -225 -225 -225 -225 -225 -225 -225 -225 -209 -209 -209 -209 -209 -209 -209 -209 -209 -209 -209 -209 74 83 91 105 106 106 105 105 106 108 109 108 105 104 105 105 106 107 109 113 117 123 126 128 133 138 137 138 139 139 140 141 142 142 140 142 144 149 152 152 152 155 164 158 161 160 159 161 160 161 161 160 163 162 161 160 160 161 160 160 155 159 -209 85 -209 -209 0 0 0 0 0
    0 0 0 0 0 0 0 0 0 0 0 0 0 0 0 0 0 0 0 0 0 0 0 0 0 0 0 0 0 0 0 0 0 0 0 0 0 0 0 0 0 0 0 0 0 0 0 0 0 0 0 0 0 0 0 0 0 0 0 0 0 0 0 0 0 0 0 0 0 89 91 92 96 100 101 104 104 108 108 105 -193 -193 -193 103 103 104 102 104 103 98 98 100 102 102 101 105 104 105 106 106 105 103 104 101 98 98 -225 -225 -225 -225 -225 -225 -225 -225 -225 -225 -225 -225 -225 -225 -225 -225 -225 -225 -225 -225 -225 -225 -225 -225 -225 -225 -225 -225 -225 -225 -225 -225 -225 -225 -225 -225 -225 -225 -225 -225 -225 -225 -225 -225 -225 -225 -225 -225 -225 -225 -225 -225 -225 -225 -225 -225 -225 -225 -225 -225 -225 -225 -225 -225 -225 -225 -225 -225 -225 -225 -225 -225 -225 -225 -225 -225 -225 -225 -225 -225 -225 -225 -225 -225 -225 -225 -225 -225 -225 -225 -225 -225 -225 -225 -225 -225 -225 -225 -225 -225 -225 -225 -225 -225 -225 -225 -225 -225 -225 -225 -225 -225 -225 -225 -225 -225 -225 -225 -225 -225 -225 -225 -225 -225 -225 -225 -225 -225 -225 -225 -209 -209 -209 -209 -209 -209 -209 -209 -209 -209 -209 -209 -209 83 -193 102 109 110 108 108 107 108 109 109 108 106 104 105 106 106 107 110 112 114 120 123 124 130 136 137 139 139 139 140 141 142 142 141 142 144 149 152 152 152 155 164 158 161 160 159 161 160 161 161 160 163 162 162 161 160 162 161 161 155 160 -209 87 -209 -209 0 0 0 0 0
    0 0 0 0 0 0 0 0 0 0 0 0 0 0 0 0 0 0 0 0 0 0 0 0 0 0 0 0 0 0 0 0 0 0 0 0 0 0 0 0 0 0 0 0 0 0 0 0 0 0 0 0 0 0 0 0 0 0 0 0 0 0 0 0 0 0 0 0 0 90 92 94 96 100 -193 -209 106 111 111 -209 -193 -193 -209 103 103 104 102 104 103 98 98 100 102 102 101 105 104 105 106 105 104 102 102 97 93 -225 -225 -225 -225 -225 -225 -225 -225 -225 -225 -225 -225 -225 -225 -225 -225 -225 -225 -225 -225 -225 -225 -225 -225 -225 -225 -225 -225 -225 -225 -225 -225 -225 -225 -225 -225 -225 -225 -225 -225 -225 -225 -225 -225 -225 -225 -225 -225 -225 -225 -225 -225 -225 -225 -225 -225 -225 -225 -225 -225 -225 -225 -225 -225 -225 -225 -225 -225 -225 -225 -225 -225 -225 -225 -225 -225 -225 -225 -225 -225 -225 -225 -225 -225 -225 -225 -225 -225 -225 -225 -225 -225 -225 -225 -225 -225 -225 -225 -225 -225 -225 -225 -225 -225 -225 -225 -225 -225 -225 -225 -225 -225 -225 -225 -225 -225 -225 -225 -225 -225 -225 -225 -225 -225 -225 -225 -225 -225 -225 -225 -225 0 10 -209 -209 -209 -209 -209 -209 -209 -209 -209 -209 -209 95 101 105 111 112 111 109 108 108 110 110 109 107 105 106 107 108 108 110 112 113 118 120 121 126 134 136 138 138 139 139 141 141 142 140 142 143 149 152 153 153 155 165 159 161 160 160 161 161 161 161 160 163 162 163 161 161 162 161 162 156 161 -209 -209 -209 -209 0 0 0 0 0
    0 0 0 0 0 0 0 0 0 0 0 0 0 0 0 0 0 0 0 0 0 0 0 0 0 0 0 0 0 0 0 0 0 0 0 0 0 0 0 0 0 0 0 0 0 0 0 0 0 0 0 0 0 0 0 0 0 0 0 0 0 0 0 0 0 0 0 0 0 90 93 94 97 -209 -209 -209 106 112 -209 -209 -209 -209 -209 -193 103 104 102 104 103 98 98 100 102 101 100 104 103 104 105 104 103 100 100 96 93 -225 -225 -225 -225 -225 -225 -225 -225 -225 -225 -225 -225 -225 -225 -225 -225 -225 -225 -225 -225 -225 -225 -225 -225 -225 -225 -225 -225 -225 -225 -225 -225 -225 -225 -225 -225 -225 -225 -225 -225 -225 -225 -225 -225 -225 -225 -225 -225 -225 -225 -225 -225 -225 -225 -225 -225 -225 -225 -225 -225 -225 -225 -225 -225 -225 -225 -225 -225 -225 -225 -225 -225 -225 -225 -225 -225 -225 -225 -225 -225 -225 -225 -225 -225 -225 -225 -225 -225 -225 -225 -225 -225 -225 -225 -225 -225 -225 -225 -225 -225 -225 -225 -225 -225 -225 -225 -225 -225 -225 -225 -225 -225 -225 -225 -225 -225 -225 -225 -225 -225 -225 -225 -225 -225 -225 -225 -225 -225 -225 -225 0 0 0 -209 -209 -209 -209 -209 -209 -209 101 103 105 106 104 104 106 111 111 110 109 109 108 109 109 108 107 106 106 107 107 109 111 113 114 117 119 120 124 131 134 137 138 138 138 140 141 141 139 140 142 -209 152 153 153 155 165 160 162 161 161 161 161 162 161 160 163 163 163 161 161 162 161 162 156 161 -193 -209 -209 -209 0 0 0 0 0
    0 0 0 0 0 0 0 0 0 0 0 0 0 0 0 0 0 0 0 0 0 0 0 0 0 0 0 0 0 0 0 0 0 0 0 0 0 0 0 0 0 0 0 0 0 0 0 0 0 0 0 0 0 0 0 0 0 0 0 0 0 0 0 0 0 0 0 0 0 90 92 93 96 -209 -209 -209 106 111 114 106 107 -193 -193 -193 104 104 102 103 103 99 99 100 102 101 100 103 104 104 104 103 101 99 100 96 93 -225 -225 -225 -225 -225 -225 -225 -225 -225 -225 -225 -225 -225 -225 -225 -225 -225 -225 -225 -225 -225 -225 -225 -225 -225 -225 -225 -225 -225 -225 -225 -225 -225 -225 -225 -225 -225 -225 -225 -225 -225 -225 -225 -225 -225 -225 -225 -225 -225 -225 -225 -225 -225 -225 -225 -225 -225 -225 -225 -225 -225 -225 -225 -225 -225 -225 -225 -225 -225 -225 -225 -225 -225 -225 -225 -225 -225 -225 -225 -225 -225 -225 -225 -225 -225 -225 -225 -225 -225 -225 -225 -225 -225 -225 -225 -225 -225 -225 -225 -225 -225 -225 -225 -225 -225 -225 -225 -225 -225 -225 -225 -225 -225 -225 -225 -225 -225 -225 -225 -225 -225 -225 -225 -225 -225 -225 -225 -225 -225 97 0 0 0 -193 -209 -209 -209 -209 -209 99 99 101 102 104 102 103 105 107 109 110 109 109 108 109 109 108 107 106 106 106 107 109 110 111 112 117 119 120 123 126 131 136 137 137 137 138 139 140 138 140 141 -209 -209 153 154 156 166 160 162 161 161 161 161 162 162 160 163 163 163 161 161 162 162 162 155 159 -193 -193 -209 -209 0 0 0 0 0
    0 0 0 0 0 0 0 0 0 0 0 0 0 0 0 0 0 0 0 0 0 0 0 0 0 0 0 0 0 0 0 0 0 0 0 0 0 0 0 0 0 0 0 0 0 0 0 0 0 0 0 0 0 0 0 0 0 0 0 0 0 0 0 0 0 0 0 0 0 90 91 93 95 -209 -209 -209 -209 111 114 107 108 -193 106 105 104 104 102 104 104 102 102 103 104 104 104 106 106 106 104 103 101 99 100 96 93 -225 -225 -225 -225 -225 -225 -225 -225 -225 -225 -225 -225 -225 -225 -225 -225 -225 -225 -225 -225 -225 -225 -225 -225 -225 -225 -225 -225 -225 -225 -225 -225 -225 -225 -225 -225 -225 -225 -225 -225 -225 -225 -225 -225 -225 -225 -225 -225 -225 -225 -225 -225 -225 -225 -225 -225 -225 -225 -225 -225 -225 -225 -225 -225 -225 -225 -225 -225 -225 -225 -225 -225 -225 -225 -225 -225 -225 -225 -225 -225 -225 -225 -225 -225 -225 -225 -225 -225 -225 -225 -225 -225 -225 -225 -225 -225 -225 -225 -225 -225 -225 -225 -225 -225 -225 -225 -225 -225 -225 -225 -225 -225 -225 -225 -225 -225 -225 -225 -225 -225 -225 -225 -225 -225 -225 -225 -225 -225 86 97 -209 0 0 -209 -209 -209 -209 103 -177 100 101 102 104 105 105 105 106 108 110 109 110 108 108 108 109 108 107 106 106 106 107 109 109 110 111 116 118 119 122 123 127 134 135 135 135 137 138 138 138 139 140 -209 -209 153 154 156 165 160 162 161 161 161 161 161 161 160 163 163 163 161 161 162 162 162 155 159 -209 142 -209 -209 0 0 0 0 0
    0 0 0 0 0 0 0 0 0 0 0 0 0 0 0 0 0 0 0 0 0 0 0 0 0 0 0 0 0 0 0 0 0 0 0 0 0 0 0 0 0 0 0 0 0 0 0 0 0 0 0 0 0 0 0 0 0 0 0 0 0 0 0 0 0 0 0 0 0 89 91 93 -209 -209 -177 -177 -209 111 -209 -209 -209 108 106 105 104 -193 103 104 105 104 104 104 106 106 106 107 107 107 -193 103 101 100 100 97 97 -225 -225 -225 -225 -225 -225 -225 -225 -225 -225 -225 -225 -225 -225 -225 -225 -225 -225 -225 -225 -225 -225 -225 -225 -225 -225 -225 -225 -225 -225 -225 -225 -225 -225 -225 -225 -225 -225 -225 -225 -225 -225 -225 -225 -225 -225 -225 -225 -225 -225 -225 -225 -225 -225 -225 -225 -225 -225 -225 -225 -225 -225 -225 -225 -225 -225 -225 -225 -225 -225 -225 -225 -225 -225 -225 -225 -225 -225 -225 -225 -225 -225 -225 -225 -225 -225 -225 -225 -225 -225 -225 -225 -225 -225 -225 -225 -225 -225 -225 -225 -225 -225 -225 -225 -225 -225 -225 -225 -225 -225 -225 -225 -225 -225 -225 -225 -225 -225 -225 -225 -225 -225 -225 -225 -225 -225 -225 -225 86 98 -209 -193 -209 -209 -209 -209 -209 105 102 101 101 101 103 104 104 105 106 106 108 108 109 108 107 108 108 108 107 107 107 107 109 110 112 113 114 117 118 119 121 121 123 129 132 131 132 134 136 137 137 137 139 147 -209 153 154 155 165 160 162 161 161 161 161 161 161 160 163 163 163 161 161 162 161 161 155 159 -209 132 -209 128 0 0 0 0 0
    0 0 0 0 0 0 0 0 0 0 0 0 0 0 0 0 0 0 0 0 0 0 0 0 0 0 0 0 0 0 0 0 0 0 0 0 0 0 0 0 0 0 0 0 0 0 0 0 0 0 0 0 0 0 0 0 0 0 0 0 0 0 0 0 0 0 0 0 0 90 92 93 -209 -209 -177 -177 -209 -209 -209 -209 -209 107 106 105 103 103 102 104 104 103 103 103 106 107 107 109 110 110 107 -193 -209 102 102 99 98 -225 -225 -225 -225 -225 -225 -225 -225 -225 -225 -225 -225 -225 -225 -225 -225 -225 -225 -225 -225 -225 -225 -225 -225 -225 -225 -225 -225 -225 -225 -225 -225 -225 -225 -225 -225 -225 -225 -225 -225 -225 -225 -225 -225 -225 -225 -225 -225 -225 -225 -225 -225 -225 -225 -225 -225 -225 -225 -225 -225 -225 -225 -225 -225 -225 -225 -225 -225 -225 -225 -225 -225 -225 -225 -225 -225 -225 -225 -225 -225 -225 -225 -225 -225 -225 -225 -225 -225 -225 -225 -225 -225 -225 -225 -225 -225 -225 -225 -225 -225 -225 -225 -225 -225 -225 -225 -225 -225 -225 -225 -225 -225 -225 -225 -225 -225 -225 -225 -225 -225 -225 -225 -225 -225 -225 -225 -225 77 86 -209 -193 0 -209 -209 -209 -209 -209 105 103 101 101 102 103 104 104 105 106 106 107 107 107 107 106 107 107 107 107 107 107 107 109 111 112 115 116 117 117 118 119 119 121 125 125 125 125 128 131 132 133 134 137 142 149 151 153 154 165 160 161 160 161 161 161 161 161 160 162 163 163 161 161 162 161 162 155 158 -209 132 -209 -209 0 0 0 0 0
    0 0 0 0 0 0 0 0 0 0 0 0 0 0 0 0 0 0 0 0 0 0 0 0 0 0 0 0 0 0 0 0 0 0 0 0 0 0 0 0 0 0 0 0 0 0 0 0 0 0 0 0 0 0 0 0 0 0 0 0 0 0 0 0 0 0 0 0 0 90 91 -209 -209 -209 -209 -209 -209 -209 -209 -209 -209 -209 -209 104 103 -193 -193 105 106 104 103 103 106 107 108 113 115 114 789 785 788 -193 521 -209 -225 -225 -225 -225 -225 -225 -225 -225 -225 -225 -225 -225 -225 -225 -225 -225 -225 -225 -225 -225 -225 -225 -225 -225 -225 -225 -225 -225 -225 -225 -225 -225 -225 -225 -225 -225 -225 -225 -225 -225 -225 -225 -225 -225 -225 -225 -225 -225 -225 -225 -225 -225 -225 -225 -225 -225 -225 -225 -225 -225 -225 -225 -225 -225 -225 -225 -225 -225 -225 -225 -225 -225 -225 -225 -225 -225 -225 -225 -225 -225 -225 -225 -225 -225 -225 -225 -225 -225 -225 -225 -225 -225 -225 -225 -225 -225 -225 -225 -225 -225 -225 -225 -225 -225 -225 -225 -225 -225 -225 -225 -225 -225 -225 -225 -225 -225 -225 -225 -225 -225 -225 -225 -225 -225 -225 -225 -225 -225 76 85 -209 0 0 0 -177 -209 -209 -209 -193 -177 101 101 102 103 105 105 106 106 106 107 107 107 107 106 107 107 106 106 106 107 108 110 112 113 115 116 117 118 118 119 118 121 122 122 123 123 124 125 127 129 130 135 140 145 149 151 153 164 159 160 160 160 160 161 161 161 161 163 164 164 162 163 163 163 163 156 160 -209 -209 -209 -209 0 0 0 0 0
    0 0 0 0 0 0 0 0 0 0 0 0 0 0 0 0 0 0 0 0 0 0 0 0 0 0 0 0 0 0 0 0 0 0 0 0 0 0 0 0 0 0 0 0 0 0 0 0 0 0 0 0 0 0 0 0 0 0 0 0 0 0 0 0 0 0 0 0 0 94 98 -193 -209 -193 -209 -209 -209 452 -209 -209 -209 -209 535 -209 104 -209 -209 -209 -209 -209 -209 -193 -193 100 -209 -209 502 -193 790 790 792 794 -225 -225 -225 -225 -225 -225 -225 -225 -225 -225 -225 -225 -225 -225 -225 -225 -225 -225 -225 -225 -225 -225 -225 -225 -225 -225 -225 -225 -225 -225 -225 -225 -225 -225 -225 -225 -225 -225 -225 -225 -225 -225 -225 -225 -225 -225 -225 -225 -225 -225 -225 -225 -225 -225 -225 -225 -225 -225 -225 -225 -225 -225 -225 -225 -225 -225 -225 -225 -225 -225 -225 -225 -225 -225 -225 -225 -225 -225 -225 -225 -225 -225 -225 -225 -225 -225 -225 -225 -225 -225 -225 -225 -225 -225 -225 -225 -225 -225 -225 -225 -225 -225 -225 -225 -225 -225 -225 -225 -225 -225 -225 -225 -225 -225 -225 -225 -225 -225 -225 -225 -225 -225 -225 -225 -225 -225 -225 -225 -209 -209 76 -193 0 0 0 0 -177 -209 -209 -209 -209 -177 100 101 102 103 105 105 106 106 106 107 107 107 107 106 106 106 106 106 106 108 109 111 113 114 116 117 117 118 118 119 119 120 121 121 122 123 124 124 125 126 128 133 138 142 144 149 152 161 158 159 158 159 159 160 161 161 161 163 164 164 163 164 164 164 164 156 161 -209 -209 -209 -209 0 0 0 0 0
    0 0 0 0 0 0 0 0 0 0 0 0 0 0 0 0 0 0 0 0 0 0 0 0 0 0 0 0 0 0 0 0 0 0 0 0 0 0 0 0 0 0 0 0 0 0 0 0 0 0 0 0 0 0 0 0 0 0 0 0 0 0 0 0 0 0 0 0 0 97 101 -193 -209 -177 -177 -209 -209 -209 -209 -209 -209 -209 -225 -225 -225 -225 -209 -209 -225 -225 -225 -209 -225 -225 -225 -225 -225 -225 -225 -225 -225 -225 -225 -225 -225 -225 -225 -225 -225 -225 -225 -225 -225 -225 -225 -225 -225 -225 -225 -225 -225 -225 -225 -225 -225 -225 -225 -225 -225 -225 -225 -225 -225 -225 -225 -225 -225 -225 -225 -225 -225 -225 -225 -225 -225 -225 -225 -225 -225 -225 -225 -225 -225 -225 -225 -225 -225 -225 -225 -225 -225 -225 -225 -225 -225 -225 -225 -225 -225 -225 -225 -225 -225 -225 -225 -225 -225 -225 -225 -225 -225 -225 -225 -225 -225 -225 -225 -225 -225 -225 -225 -225 -225 -225 -225 -225 -225 -225 -225 -225 -225 -225 -225 -225 -225 -225 -225 -225 -225 -225 -225 -225 -225 -225 -225 -225 -225 -225 -225 -225 -225 -225 -225 -225 -225 -209 -209 -209 -209 -209 -209 -209 76 -193 0 0 0 -177 -177 -193 -209 -209 -209 91 98 100 101 103 104 105 106 105 105 106 105 105 105 105 105 105 105 106 107 108 108 110 113 114 117 117 118 119 119 121 120 121 122 121 122 123 123 123 124 125 127 132 136 141 145 149 152 159 157 158 158 158 158 159 161 161 161 163 164 164 163 164 164 164 164 -193 158 -209 -209 -209 -209 0 0 0 0 0</data></disparity>
</opencv_storage>
