<?xml version="1.0"?>
<opencv_storage>
<gps_time_stamp>288410</gps_time_stamp>
<gps_x>-1.2398752212524414e+001</gps_x>
<gps_y>1.1131366729736328e+001</gps_y>
<gps_z>-2.2217600345611572e+000</gps_z>
<image_time_stamp>279257</image_time_stamp>
<disparity type_id="opencv-matrix">
  <rows>86</rows>
  <cols>320</cols>
  <dt>s</dt>
  <data>
    0 0 0 0 0 0 0 0 0 0 0 0 0 0 0 0 0 0 0 0 0 0 0 0 0 0 0 0 0 0 0 0 0 0 0 0 0 0 0 0 0 0 0 0 0 0 0 0 0 0 0 0 0 0 0 0 0 0 0 0 0 0 0 0 0 0 0 0 0 53 51 51 52 51 51 46 49 52 56 56 -209 -209 -209 -209 -193 56 54 51 54 55 53 52 54 -209 57 57 57 54 54 55 54 54 53 54 54 53 54 54 53 -177 56 56 50 49 53 50 50 49 49 46 46 50 51 44 51 50 52 50 50 49 48 48 54 55 55 53 54 -193 -193 -209 55 54 54 54 55 57 56 56 56 56 56 55 56 56 55 55 55 55 56 866 868 -193 -193 -193 -193 58 59 58 59 59 60 59 59 56 58 58 58 57 58 55 54 55 56 52 54 50 52 54 54 54 54 54 57 572 59 61 55 56 57 57 57 54 54 56 57 58 59 59 59 59 63 65 70 66 59 54 54 55 54 53 54 52 54 56 57 58 57 59 64 60 60 64 62 62 63 64 67 -193 75 75 75 77 78 78 77 77 76 76 79 83 86 86 88 88 91 91 93 94 94 96 97 97 98 99 101 103 104 107 106 107 108 109 109 108 108 110 110 113 114 116 119 121 122 124 123 124 124 124 124 124 125 125 125 126 126 129 132 134 -193 140 141 142 144 145 145 146 146 147 148 -193 153 153 155 154 156 0 0 0 0 0
    0 0 0 0 0 0 0 0 0 0 0 0 0 0 0 0 0 0 0 0 0 0 0 0 0 0 0 0 0 0 0 0 0 0 0 0 0 0 0 0 0 0 0 0 0 0 0 0 0 0 0 0 0 0 0 0 0 0 0 0 0 0 0 0 0 0 0 0 0 52 51 53 55 55 55 51 52 54 57 57 59 -193 59 -193 58 57 55 52 55 54 51 50 52 -209 56 57 56 53 54 55 54 54 53 54 54 53 54 54 54 55 56 56 50 49 53 50 50 49 49 47 46 50 51 44 51 51 52 51 50 49 49 49 54 56 55 54 55 -193 -193 -193 56 54 54 54 55 57 56 56 56 56 56 55 56 56 56 56 55 55 56 -193 -193 -209 -193 -193 -193 58 58 58 58 58 59 58 57 56 57 57 57 56 57 55 54 55 56 52 54 51 52 54 54 54 54 54 56 -193 59 60 55 57 58 58 57 53 53 55 55 56 58 56 57 57 61 63 70 63 58 53 54 55 55 54 54 53 55 57 58 58 57 59 63 60 60 64 62 62 63 64 67 -193 75 75 75 77 77 77 77 77 76 75 79 82 86 86 88 88 91 91 93 95 94 96 97 97 98 98 100 103 103 107 106 108 109 109 109 109 108 110 110 113 114 115 118 121 122 124 123 124 124 124 124 124 125 125 125 126 126 128 132 -193 -209 -193 142 142 145 145 146 146 146 147 148 -193 153 153 155 155 156 0 0 0 0 0
    0 0 0 0 0 0 0 0 0 0 0 0 0 0 0 0 0 0 0 0 0 0 0 0 0 0 0 0 0 0 0 0 0 0 0 0 0 0 0 0 0 0 0 0 0 0 0 0 0 0 0 0 0 0 0 0 0 0 0 0 0 0 0 0 0 0 0 0 0 53 52 54 56 56 56 53 53 54 56 58 58 60 59 58 59 57 56 54 55 54 51 50 51 -209 57 57 57 53 54 54 54 54 53 54 54 52 54 54 54 55 56 56 50 49 53 50 50 50 49 47 46 50 50 44 51 51 51 51 51 49 47 49 55 56 56 55 55 -193 57 -193 56 54 54 53 54 56 55 55 55 55 55 54 56 56 55 56 55 55 56 57 57 56 -193 -193 57 58 58 58 58 59 59 57 56 56 57 57 57 56 57 55 55 55 56 53 54 51 52 54 54 54 54 54 56 -193 59 60 56 58 59 58 57 52 52 53 54 53 56 53 54 55 -193 58 69 -193 56 52 -209 54 54 54 54 51 54 56 58 57 57 59 63 60 60 64 61 61 63 64 67 -193 75 75 74 76 77 77 77 76 77 75 82 83 87 87 89 89 92 92 94 96 95 97 97 97 98 98 100 103 102 107 106 108 109 109 109 109 108 110 110 112 113 114 117 120 121 123 123 124 124 124 124 124 125 125 126 127 127 129 133 -193 -193 -193 142 143 145 145 146 146 146 146 147 -193 152 152 155 155 157 0 0 0 0 0
    0 0 0 0 0 0 0 0 0 0 0 0 0 0 0 0 0 0 0 0 0 0 0 0 0 0 0 0 0 0 0 0 0 0 0 0 0 0 0 0 0 0 0 0 0 0 0 0 0 0 0 0 0 0 0 0 0 0 0 0 0 0 0 0 0 0 0 0 0 53 53 55 57 57 56 54 53 54 55 56 57 58 58 58 58 57 57 55 55 54 51 50 51 -209 57 57 57 53 54 54 54 54 53 54 53 52 54 54 54 55 56 56 49 50 53 50 50 50 49 47 46 50 50 44 51 51 49 51 51 48 46 50 56 56 56 54 55 56 57 56 56 54 53 52 54 56 54 54 54 54 54 54 55 56 55 56 55 56 57 57 57 57 -193 -193 56 57 58 57 58 58 58 57 56 57 57 57 57 56 57 55 55 55 56 53 55 52 53 55 55 55 55 54 57 57 59 60 57 59 60 60 57 53 52 53 54 52 54 52 52 54 -209 -193 -209 -209 -209 52 -209 54 54 54 54 51 54 57 58 57 57 60 63 60 60 63 61 61 63 64 67 -193 75 75 74 76 77 77 77 76 77 75 81 83 87 88 90 89 93 92 94 97 96 97 97 97 98 98 101 103 102 107 107 109 109 110 110 109 109 110 109 112 112 114 117 120 121 123 123 124 124 124 124 124 125 126 126 127 128 129 133 -193 -193 -193 142 143 145 146 146 146 146 146 147 -193 151 152 155 154 157 0 0 0 0 0
    0 0 0 0 0 0 0 0 0 0 0 0 0 0 0 0 0 0 0 0 0 0 0 0 0 0 0 0 0 0 0 0 0 0 0 0 0 0 0 0 0 0 0 0 0 0 0 0 0 0 0 0 0 0 0 0 0 0 0 0 0 0 0 0 0 0 0 0 0 50 52 55 58 57 56 55 54 54 56 57 58 59 59 60 58 58 57 56 56 55 51 50 50 -209 56 56 57 53 54 54 54 54 53 54 53 52 55 55 54 55 55 55 49 50 53 50 50 50 49 47 46 50 50 44 50 50 46 51 52 47 45 50 56 56 55 53 54 55 56 56 56 53 53 51 53 57 55 55 54 54 54 54 55 56 55 56 56 56 57 58 58 57 -193 50 54 55 55 54 54 55 56 55 55 55 56 57 57 56 57 55 55 55 57 54 55 53 54 55 56 56 56 55 57 57 59 61 58 59 60 60 57 54 53 54 55 54 55 53 55 56 57 58 66 57 -193 -193 -209 55 54 54 55 52 55 57 58 57 58 61 63 60 60 63 61 61 63 64 67 -193 75 75 75 76 77 77 77 76 78 75 81 82 87 88 90 89 94 93 95 98 96 98 97 98 98 98 101 103 -193 108 107 110 110 110 110 109 109 110 110 112 112 114 117 120 121 123 -193 124 124 124 124 124 125 125 126 127 128 129 133 -193 -193 -193 142 144 145 146 146 146 146 146 147 -193 151 152 155 155 157 0 0 0 0 0
    0 0 0 0 0 0 0 0 0 0 0 0 0 0 0 0 0 0 0 0 0 0 0 0 0 0 0 0 0 0 0 0 0 0 0 0 0 0 0 0 0 0 0 0 0 0 0 0 0 0 0 0 0 0 0 0 0 0 0 0 0 0 0 0 0 0 0 0 0 50 52 55 58 57 56 56 56 55 56 58 59 59 59 60 59 58 58 57 57 54 51 51 51 -209 56 56 56 53 53 54 53 54 53 54 53 51 54 55 54 55 55 55 49 50 53 50 49 50 49 47 46 50 49 44 49 50 44 50 53 49 45 51 56 55 54 53 54 55 57 56 56 53 55 51 54 58 55 55 55 54 55 54 56 57 56 57 57 57 58 59 59 58 56 45 49 51 51 50 50 52 55 54 53 53 54 55 55 55 56 54 54 55 58 55 56 55 55 56 57 57 57 57 58 58 59 60 59 58 60 59 56 53 52 54 55 55 56 55 58 58 59 60 63 60 -193 -193 -209 54 54 54 55 52 55 57 58 57 58 62 63 60 60 63 61 61 62 64 67 69 75 75 75 77 78 78 77 76 78 76 80 81 86 87 89 88 94 92 95 99 97 98 97 98 98 98 101 103 -193 -193 -193 110 110 110 110 109 109 110 110 112 111 114 117 120 121 123 -193 -193 -193 124 -193 124 125 125 125 126 128 129 133 -193 -193 -193 142 143 145 145 146 146 145 146 147 -193 151 152 155 155 157 0 0 0 0 0
    0 0 0 0 0 0 0 0 0 0 0 0 0 0 0 0 0 0 0 0 0 0 0 0 0 0 0 0 0 0 0 0 0 0 0 0 0 0 0 0 0 0 0 0 0 0 0 0 0 0 0 0 0 0 0 0 0 0 0 0 0 0 0 0 0 0 0 0 0 50 54 56 60 58 58 59 58 56 57 58 59 59 59 59 58 57 58 58 57 55 53 54 52 -193 56 55 56 53 53 54 53 54 53 54 53 51 54 55 54 55 55 55 49 50 53 49 49 50 49 47 46 49 49 44 49 50 43 50 54 50 46 52 57 54 54 54 54 56 57 56 57 52 56 51 54 62 56 56 56 56 56 55 57 59 58 58 58 58 59 60 59 58 54 43 46 49 50 47 48 51 55 52 52 52 51 53 55 54 55 53 55 56 61 57 57 56 56 57 58 58 58 57 58 58 59 60 59 58 59 58 55 53 52 53 54 53 55 54 57 57 57 56 60 58 -193 -193 -209 54 54 54 55 52 55 57 58 58 58 61 63 60 60 63 61 61 62 64 67 70 75 75 75 76 77 78 77 76 79 76 81 81 85 87 87 88 93 92 95 99 97 98 97 98 98 98 101 102 -193 -193 -193 110 110 110 110 109 109 110 109 111 110 113 117 121 121 123 -193 -193 -193 -193 -193 -193 124 125 125 126 128 128 -193 -193 -193 -193 -193 143 144 145 145 145 144 145 146 -193 151 152 154 155 157 0 0 0 0 0
    0 0 0 0 0 0 0 0 0 0 0 0 0 0 0 0 0 0 0 0 0 0 0 0 0 0 0 0 0 0 0 0 0 0 0 0 0 0 0 0 0 0 0 0 0 0 0 0 0 0 0 0 0 0 0 0 0 0 0 0 0 0 0 0 0 0 0 0 0 51 55 58 62 60 59 60 59 57 57 58 59 58 59 59 58 58 58 59 57 55 55 55 53 56 56 56 56 54 54 54 53 54 53 53 53 51 54 55 55 55 55 55 49 51 53 49 48 50 48 47 46 49 49 44 49 49 43 49 53 50 50 53 58 55 55 55 55 56 58 57 57 53 55 -193 -193 -209 -209 -209 57 57 56 56 57 60 61 60 59 58 59 60 60 60 56 46 51 52 55 50 52 54 55 54 53 54 51 54 55 55 56 55 57 58 65 60 59 59 58 58 60 59 59 58 59 59 59 60 59 58 59 57 55 54 53 53 53 52 53 52 56 56 55 54 58 57 -193 -193 -209 54 55 55 56 54 55 57 58 58 59 62 63 60 60 63 61 61 62 63 67 69 75 75 75 76 77 77 77 76 79 76 81 81 86 86 87 87 92 91 95 99 97 98 98 98 98 98 101 102 -193 -193 -193 110 109 110 109 109 109 109 109 111 109 112 116 121 121 122 -193 -193 -193 -193 -193 -193 124 125 125 126 128 128 -193 -193 -193 -193 -193 143 144 145 145 145 144 144 146 -193 151 152 154 155 157 0 0 0 0 0
    0 0 0 0 0 0 0 0 0 0 0 0 0 0 0 0 0 0 0 0 0 0 0 0 0 0 0 0 0 0 0 0 0 0 0 0 0 0 0 0 0 0 0 0 0 0 0 0 0 0 0 0 0 0 0 0 0 0 0 0 0 0 0 0 0 0 0 0 0 52 57 60 65 64 63 62 62 58 56 57 58 58 59 60 59 58 59 60 57 56 57 55 54 -193 56 56 56 54 54 54 54 54 53 53 52 52 54 55 55 55 54 55 50 51 53 49 49 51 49 47 46 49 49 45 49 49 43 47 51 49 51 53 56 54 55 55 55 57 59 -193 -209 -193 -209 -193 -193 0 -193 -209 -209 -209 -209 -209 -193 61 65 62 61 58 58 59 59 -193 -209 -193 43 47 52 50 -209 53 55 55 53 55 52 -209 55 56 56 55 57 57 66 60 59 61 59 59 61 60 60 59 60 60 59 60 60 58 59 57 57 55 54 54 55 53 53 53 57 57 55 54 56 56 -193 -193 55 53 53 54 56 54 55 57 58 58 60 62 63 60 60 63 61 60 61 63 67 69 75 74 75 76 77 77 77 76 79 76 82 82 87 87 88 88 94 92 96 99 97 99 98 98 99 98 101 102 -193 107 -193 110 109 109 109 108 108 109 109 111 109 112 116 121 121 122 -193 -193 -193 -193 -193 -193 124 125 126 126 128 128 133 -193 -193 -193 142 143 143 144 144 144 144 144 146 -193 151 -193 155 155 157 0 0 0 0 0
    0 0 0 0 0 0 0 0 0 0 0 0 0 0 0 0 0 0 0 0 0 0 0 0 0 0 0 0 0 0 0 0 0 0 0 0 0 0 0 0 0 0 0 0 0 0 0 0 0 0 0 0 0 0 0 0 0 0 0 0 0 0 0 0 0 0 0 0 0 53 58 62 67 67 68 65 63 60 57 58 57 58 59 60 59 58 58 59 57 56 57 54 54 56 56 56 56 55 54 54 54 54 53 53 52 52 53 55 55 55 54 55 51 51 53 49 49 51 48 47 46 49 48 45 49 49 42 47 50 48 51 52 -193 53 55 54 54 56 58 -193 54 50 51 -209 -209 12 14 -209 -209 -209 -209 -209 -209 72 76 74 70 -209 -209 -209 -209 -209 -209 -209 -209 -209 47 48 -193 52 54 54 53 54 50 -209 54 54 54 54 56 56 66 59 58 61 59 59 62 60 61 59 60 61 59 61 61 58 59 58 57 57 55 55 -193 -209 -209 55 59 59 -193 54 55 55 -193 -193 54 53 52 53 55 54 55 57 58 59 60 64 64 60 60 63 61 61 61 63 67 69 74 74 74 75 76 77 77 76 79 77 84 84 88 89 89 89 95 92 97 99 97 98 98 98 99 98 101 102 102 107 -193 110 109 109 109 108 108 109 109 110 109 112 116 121 121 122 -193 -193 -193 -193 -193 124 124 125 125 126 128 128 133 -193 139 141 142 143 143 144 144 144 144 144 146 -193 151 -193 155 155 157 0 0 0 0 0
    0 0 0 0 0 0 0 0 0 0 0 0 0 0 0 0 0 0 0 0 0 0 0 0 0 0 0 0 0 0 0 0 0 0 0 0 0 0 0 0 0 0 0 0 0 0 0 0 0 0 0 0 0 0 0 0 0 0 0 0 0 0 0 0 0 0 0 0 0 51 58 63 67 68 69 65 63 60 57 56 56 57 58 59 58 58 58 58 57 57 58 55 55 56 56 57 56 55 55 54 54 55 53 53 52 53 53 55 55 55 54 55 51 51 53 49 49 51 48 48 46 48 48 45 49 49 42 49 50 49 52 51 -193 53 54 53 54 56 -193 51 51 48 49 -209 -209 16 -209 -209 -209 -209 -209 -209 -209 71 75 74 -209 -209 -209 -209 -209 -209 -209 -209 -209 -209 -209 46 -209 51 53 53 53 53 49 -209 53 51 52 53 55 56 66 59 59 64 60 60 63 61 62 60 61 62 60 62 61 58 59 57 57 56 55 54 -209 -209 -209 58 61 62 58 -193 56 55 55 55 54 53 51 52 54 54 55 57 58 59 60 64 64 61 60 64 61 61 62 63 67 68 74 73 74 75 76 77 77 76 80 79 85 86 89 90 90 90 94 92 96 99 96 98 97 98 98 98 100 103 102 108 -193 110 109 109 109 108 108 109 108 110 108 113 117 121 121 122 -193 -193 124 124 124 124 124 125 125 126 128 129 134 -193 139 141 142 143 143 144 144 144 144 145 146 -193 152 -193 155 155 157 0 0 0 0 0
    0 0 0 0 0 0 0 0 0 0 0 0 0 0 0 0 0 0 0 0 0 0 0 0 0 0 0 0 0 0 0 0 0 0 0 0 0 0 0 0 0 0 0 0 0 0 0 0 0 0 0 0 0 0 0 0 0 0 0 0 0 0 0 0 0 0 0 0 0 49 57 61 67 69 71 67 66 -209 -193 56 56 57 59 59 58 58 58 58 57 57 57 54 55 57 56 56 56 56 55 54 55 55 54 53 53 54 54 55 55 55 54 56 52 52 53 49 49 51 48 48 46 48 48 45 49 49 42 49 50 49 -193 -193 -209 51 52 49 50 50 47 45 48 46 48 -209 -209 -209 -193 -209 -209 -209 -209 -209 -209 -209 -209 -193 -209 -209 -209 -209 -209 -209 -193 -209 -209 -209 -209 -209 -209 -193 48 51 51 52 47 -209 50 51 51 53 55 56 -193 60 60 65 61 61 64 62 63 61 62 62 60 62 62 58 58 56 56 53 54 54 56 -209 -209 57 59 61 59 -193 56 55 55 54 53 52 50 51 53 53 55 56 58 59 59 64 64 61 61 64 62 61 62 63 67 68 74 73 74 75 76 77 77 77 81 80 85 86 89 89 90 89 93 91 95 97 96 97 96 97 97 97 100 102 102 107 -193 110 108 109 108 108 108 109 108 111 109 114 118 122 122 122 -193 123 124 124 124 124 124 125 126 126 128 128 133 -193 138 140 141 142 143 143 144 145 144 145 147 -209 153 -193 156 156 158 0 0 0 0 0
    0 0 0 0 0 0 0 0 0 0 0 0 0 0 0 0 0 0 0 0 0 0 0 0 0 0 0 0 0 0 0 0 0 0 0 0 0 0 0 0 0 0 0 0 0 0 0 0 0 0 0 0 0 0 0 0 0 0 0 0 0 0 0 0 0 0 0 0 0 47 -193 -193 66 -209 71 64 -209 -209 -209 -209 57 -193 59 59 59 59 58 58 58 57 -193 54 -209 58 56 56 56 55 55 54 55 55 54 53 53 54 54 55 55 55 54 56 52 51 53 49 49 51 48 48 46 48 48 45 48 49 42 50 51 51 54 52 -209 -193 -209 50 50 48 46 44 44 44 47 44 -209 -209 -209 -209 -209 -209 -209 -209 -209 -209 -209 -209 -209 -209 -209 -209 -209 -209 -209 -209 -209 -209 -209 -209 -209 -209 -193 -193 -193 52 -193 -209 -209 -209 -209 -209 -209 -209 -209 61 60 66 62 62 65 63 63 61 63 63 60 62 62 58 57 51 53 51 52 53 55 -193 55 58 60 61 59 57 56 55 55 55 53 53 51 51 54 54 55 55 57 59 59 65 64 61 61 65 62 61 62 63 67 68 74 74 74 76 77 78 77 78 81 81 85 86 88 88 89 88 92 91 95 96 95 96 96 96 97 96 99 102 101 106 -193 108 108 108 108 108 108 109 109 111 110 115 119 121 122 122 -193 124 124 124 125 124 125 125 126 126 128 129 133 -193 138 140 141 141 142 143 144 145 145 146 148 -209 154 -193 157 156 158 0 0 0 0 0
    0 0 0 0 0 0 0 0 0 0 0 0 0 0 0 0 0 0 0 0 0 0 0 0 0 0 0 0 0 0 0 0 0 0 0 0 0 0 0 0 0 0 0 0 0 0 0 0 0 0 0 0 0 0 0 0 0 0 0 0 0 0 0 0 0 0 0 0 0 43 -209 -209 -209 -209 69 62 -209 -209 -209 -209 -209 -193 60 59 -193 -209 58 58 58 57 -209 -209 -209 58 56 56 55 55 54 54 55 54 53 53 53 54 54 55 55 54 54 57 52 52 53 49 49 51 48 48 46 48 49 45 49 49 42 51 52 52 54 52 -209 -209 -209 -209 -209 -209 -209 -209 -193 -193 44 45 -209 -209 -209 -209 -209 -209 -209 -209 -209 -209 -209 -209 -209 -209 -209 -209 -209 -209 -209 -209 -209 -209 -209 -209 -209 -209 -209 -209 -209 -209 -209 -209 -209 -193 -209 -209 -209 -209 -193 61 61 66 62 61 64 63 63 61 62 63 60 62 62 58 55 48 51 50 50 52 54 55 54 58 59 61 59 57 56 56 55 55 53 53 51 52 54 54 54 55 56 58 57 65 63 61 61 65 62 61 62 63 67 69 74 73 74 76 77 78 77 78 81 81 86 86 88 88 89 88 92 91 95 96 95 96 96 96 96 96 99 102 102 106 -193 108 107 107 107 107 107 109 108 111 111 116 120 122 -193 123 -193 124 125 125 125 125 125 125 126 127 129 129 134 -193 138 140 140 141 142 143 144 145 144 146 148 -209 154 -193 157 156 158 0 0 0 0 0
    0 0 0 0 0 0 0 0 0 0 0 0 0 0 0 0 0 0 0 0 0 0 0 0 0 0 0 0 0 0 0 0 0 0 0 0 0 0 0 0 0 0 0 0 0 0 0 0 0 0 0 0 0 0 0 0 0 0 0 0 0 0 0 0 0 0 0 0 0 -193 -209 -209 -209 -209 67 -209 -209 -209 -209 -209 -209 -193 60 60 60 60 59 58 59 59 -193 -209 59 60 58 56 56 55 55 55 55 54 53 52 53 54 54 55 55 54 55 57 52 52 53 49 49 51 48 48 46 48 49 45 49 49 43 52 52 53 55 53 -209 -209 -193 -209 -209 -209 -209 -209 -209 -193 42 45 44 -193 -209 -209 -209 -209 -209 -209 -209 -209 -209 -209 -209 -209 -209 -209 -209 -209 -209 -209 -209 -209 -209 -209 -209 -209 -209 -209 -209 -209 -209 -209 -209 -209 -209 -209 -193 -209 -209 61 61 65 61 61 63 62 62 61 62 62 60 62 62 58 53 49 51 50 51 52 54 55 53 57 58 60 59 57 55 55 55 56 53 54 52 53 55 56 56 57 58 59 59 65 63 61 61 65 62 61 62 63 66 69 74 73 74 75 76 77 77 78 80 82 87 88 89 89 90 89 93 92 96 96 96 96 96 96 96 96 97 102 102 106 -193 106 106 107 107 106 -193 108 108 113 112 117 121 123 -193 123 -193 124 125 125 125 125 125 125 127 127 130 130 134 -193 138 140 140 141 142 142 144 145 145 147 149 -209 155 155 157 156 158 0 0 0 0 0
    0 0 0 0 0 0 0 0 0 0 0 0 0 0 0 0 0 0 0 0 0 0 0 0 0 0 0 0 0 0 0 0 0 0 0 0 0 0 0 0 0 0 0 0 0 0 0 0 0 0 0 0 0 0 0 0 0 0 0 0 0 0 0 0 0 0 0 0 0 36 34 -193 -209 -209 -209 -209 -209 -209 -209 -209 -209 61 61 61 -193 62 60 59 60 61 60 -209 62 60 59 56 56 56 55 55 55 54 53 53 53 54 54 55 55 54 55 57 52 52 53 50 49 51 48 48 46 49 49 46 50 49 43 53 53 53 54 53 -209 62 -193 -209 -209 -209 -209 -209 -193 -193 41 45 44 -193 -209 -209 -209 -209 -209 -209 -209 -209 -209 -209 -209 -209 -209 -209 -209 253 257 -209 -209 -209 -209 -193 -193 -209 -209 -209 -209 -209 -209 -209 -209 -209 -209 -209 -193 -209 -193 61 60 65 61 61 63 62 62 60 62 62 60 63 62 58 51 50 50 49 51 53 55 -193 55 58 58 60 60 58 56 55 56 57 54 55 54 55 58 58 58 59 60 61 61 66 64 62 62 66 62 62 63 63 66 68 74 73 73 75 76 77 76 77 79 83 88 89 90 90 92 91 95 94 97 97 96 96 96 96 96 95 95 -193 101 -193 105 106 106 106 107 106 -193 108 107 113 113 117 121 122 -193 123 -193 124 125 125 125 125 125 126 127 127 130 129 134 -193 138 140 140 141 142 143 145 146 145 148 149 -193 156 156 158 157 158 0 0 0 0 0
    0 0 0 0 0 0 0 0 0 0 0 0 0 0 0 0 0 0 0 0 0 0 0 0 0 0 0 0 0 0 0 0 0 0 0 0 0 0 0 0 0 0 0 0 0 0 0 0 0 0 0 0 0 0 0 0 0 0 0 0 0 0 0 0 0 0 0 0 0 37 37 -209 -209 -193 -209 -193 -209 -209 -209 -209 -209 -193 -193 -193 -193 -193 60 58 60 60 -193 -209 60 58 58 56 56 55 55 55 55 54 53 53 54 55 55 55 55 54 55 56 52 51 53 49 49 51 48 48 46 49 49 46 50 49 43 52 52 52 52 48 -209 -209 -209 -209 -209 -209 -209 -209 -209 -193 40 44 44 -193 47 -209 -209 -209 -209 -209 -209 -209 -209 -209 -209 -209 -209 -193 252 254 257 -209 -193 -177 319 -193 320 -209 -209 -209 -209 -209 -209 -209 -209 -209 -209 -209 -193 -209 -193 61 61 65 61 61 63 62 62 60 62 62 60 63 62 58 49 50 49 48 51 53 55 -193 57 59 59 60 60 59 57 56 56 56 54 55 54 55 58 58 58 59 60 61 62 67 65 62 63 67 63 63 64 64 67 69 73 73 73 75 76 77 76 78 80 84 88 89 89 90 92 91 95 94 96 96 96 95 95 95 95 94 94 -193 101 -193 -193 -193 -193 107 107 107 107 108 108 114 114 118 120 122 -193 123 -193 124 125 125 126 125 126 126 127 127 130 128 134 -193 138 140 140 141 142 143 146 146 146 148 150 -193 157 156 158 157 159 0 0 0 0 0
    0 0 0 0 0 0 0 0 0 0 0 0 0 0 0 0 0 0 0 0 0 0 0 0 0 0 0 0 0 0 0 0 0 0 0 0 0 0 0 0 0 0 0 0 0 0 0 0 0 0 0 0 0 0 0 0 0 0 0 0 0 0 0 0 0 0 0 0 0 38 40 36 -209 -193 54 -209 -209 -209 -209 -209 -209 -209 -193 -193 -193 -193 61 59 61 61 -193 60 59 57 56 55 55 55 55 55 54 54 53 53 54 55 54 55 54 54 56 56 52 51 53 49 49 51 48 48 46 49 49 46 50 50 43 52 52 52 49 -209 -209 -209 -209 114 -209 -209 -209 -209 -209 -193 -209 46 -209 -193 -209 -209 -209 -209 -209 -209 -209 -209 -209 -209 70 -193 -209 -209 -209 -209 -193 -193 321 319 322 -193 -193 -193 -193 -209 -209 -209 -209 -209 -209 -209 -209 -209 -209 -209 -209 63 62 66 62 61 63 62 62 60 62 62 59 62 61 57 49 51 49 49 52 54 56 58 59 60 60 61 61 60 58 57 56 57 56 56 56 56 60 58 59 59 60 61 62 67 65 62 64 67 64 64 65 65 67 69 74 73 73 75 77 77 77 78 80 84 -193 -193 89 89 91 91 94 93 94 95 95 95 94 94 94 94 94 -193 101 -193 -193 -193 -193 107 -193 107 -193 108 -193 -193 115 118 -193 122 123 123 -193 124 126 125 126 125 126 126 127 127 130 128 133 -193 -193 -193 -193 141 142 144 146 146 146 149 150 -193 157 156 158 157 159 0 0 0 0 0
    0 0 0 0 0 0 0 0 0 0 0 0 0 0 0 0 0 0 0 0 0 0 0 0 0 0 0 0 0 0 0 0 0 0 0 0 0 0 0 0 0 0 0 0 0 0 0 0 0 0 0 0 0 0 0 0 0 0 0 0 0 0 0 0 0 0 0 0 0 37 38 35 -209 -193 -209 -209 -209 -209 -209 -209 -177 -209 -193 -193 -193 -193 63 61 63 62 60 61 60 59 57 56 56 55 55 55 54 54 53 53 53 54 54 55 53 54 56 56 52 50 52 49 49 51 48 48 46 49 49 46 49 49 43 51 51 51 47 -209 -209 -209 -193 -193 -209 -209 -193 -209 -209 -193 -209 -193 -193 -193 -209 -209 -209 -209 -209 -193 -209 67 68 70 69 71 71 -209 -209 -209 -193 -193 324 -193 -193 -193 -193 -209 -193 -209 -209 -209 -209 -209 -209 -193 -209 -209 -209 -209 -209 64 64 67 62 62 63 62 62 60 62 62 58 61 60 56 50 51 51 51 53 55 57 57 59 59 59 60 61 60 59 58 58 58 57 58 58 59 62 59 59 59 60 60 61 67 65 62 64 67 64 65 66 66 68 71 74 74 74 76 77 78 77 78 80 84 -193 -209 89 89 91 90 93 93 94 95 95 95 94 94 94 94 94 101 100 -209 -193 -193 -193 -193 -193 -193 -193 108 -193 -193 115 118 121 122 124 123 -193 124 126 126 126 125 126 126 127 127 130 128 133 -193 -193 -193 -193 141 142 144 147 147 147 150 -193 -193 157 157 158 157 159 0 0 0 0 0
    0 0 0 0 0 0 0 0 0 0 0 0 0 0 0 0 0 0 0 0 0 0 0 0 0 0 0 0 0 0 0 0 0 0 0 0 0 0 0 0 0 0 0 0 0 0 0 0 0 0 0 0 0 0 0 0 0 0 0 0 0 0 0 0 0 0 0 0 0 37 37 -209 -209 -193 -209 -209 -209 -209 -209 173 179 181 178 -193 -193 -193 -193 63 65 66 64 63 60 59 57 56 56 55 55 55 54 53 52 52 53 54 54 54 53 54 56 56 51 50 52 49 49 51 48 48 46 49 49 45 49 49 42 50 50 50 -209 -209 -209 -209 -193 117 -193 -209 -193 -193 -209 -193 -209 -193 -209 -193 -209 -193 -193 -193 -193 61 65 67 68 -193 68 -193 -193 -209 -209 -209 -193 -193 -209 -209 -209 -193 -193 -209 -209 -209 -209 -209 -209 -209 -209 84 -209 -193 -193 -209 -209 65 64 68 62 62 63 62 62 60 62 62 58 60 59 55 51 53 52 52 54 56 57 57 58 58 58 59 60 59 58 57 58 58 58 59 60 61 63 59 59 60 60 60 61 67 65 62 65 68 65 65 66 66 68 71 74 74 74 76 77 78 77 -193 -193 -193 -209 -193 -193 88 90 89 93 94 94 96 96 96 95 95 96 95 95 101 100 -209 -193 -193 -193 -193 -193 -193 -193 109 -193 -193 116 118 121 122 -193 124 -193 124 126 126 126 126 126 126 127 127 130 127 133 -193 -193 -193 -193 142 143 145 146 147 148 150 -193 -193 157 157 159 157 159 0 0 0 0 0
    0 0 0 0 0 0 0 0 0 0 0 0 0 0 0 0 0 0 0 0 0 0 0 0 0 0 0 0 0 0 0 0 0 0 0 0 0 0 0 0 0 0 0 0 0 0 0 0 0 0 0 0 0 0 0 0 0 0 0 0 0 0 0 0 0 0 0 0 0 37 -193 -209 -209 -193 -209 -209 -209 -209 -209 171 176 179 178 -193 -193 -209 -193 -193 66 67 66 63 59 58 56 55 55 55 55 54 54 53 52 52 53 53 54 54 53 54 56 56 51 50 52 49 48 51 48 48 46 49 49 45 49 49 42 49 50 49 -209 -209 -209 -209 -209 -193 -209 -209 -209 -209 -209 -209 -193 52 -209 52 -209 -193 -209 -209 -193 60 -193 -209 -209 -209 -193 -209 -209 -209 -209 -209 -209 -209 -209 -209 -209 -193 -193 -209 -193 -209 -209 -209 486 -209 -209 -209 -209 -193 -193 -193 -193 64 63 68 62 62 63 62 62 60 62 62 57 59 59 55 53 55 54 54 55 58 59 58 58 58 58 58 59 59 58 57 57 57 58 59 60 63 63 60 60 60 61 61 61 67 65 63 65 68 65 65 66 66 69 72 74 74 74 76 77 78 77 -193 -193 -193 -209 -193 -193 88 90 89 93 95 95 97 97 96 96 96 96 95 95 101 101 -193 -193 -193 -193 -193 -193 -193 -193 109 -193 -193 116 119 121 122 124 124 -193 125 126 126 126 126 126 126 128 127 130 127 133 -193 -193 -193 -193 -193 142 144 146 147 148 150 150 155 158 157 159 157 159 0 0 0 0 0
    0 0 0 0 0 0 0 0 0 0 0 0 0 0 0 0 0 0 0 0 0 0 0 0 0 0 0 0 0 0 0 0 0 0 0 0 0 0 0 0 0 0 0 0 0 0 0 0 0 0 0 0 0 0 0 0 0 0 0 0 0 0 0 0 0 0 0 0 0 39 47 -209 -209 -177 -209 -209 -209 -209 -209 169 175 179 179 -193 -193 -193 -193 64 65 66 63 61 58 56 55 54 55 54 54 54 53 52 52 52 53 53 54 54 53 55 56 56 51 50 53 49 48 51 48 48 46 49 49 45 49 49 42 47 48 45 -209 -209 -209 -209 -209 -209 -209 -209 -209 -193 -193 -209 -209 52 52 49 44 48 -209 -193 53 -193 -209 -209 -209 -209 -193 -209 -193 -209 -209 -209 -209 -209 -209 -209 -209 -193 -193 -193 -193 -209 -209 -209 -209 -209 -209 -209 -193 -193 -209 -193 -209 64 63 68 62 62 62 62 62 60 61 61 56 58 58 55 54 56 55 56 56 58 59 58 58 57 57 57 58 58 57 57 58 57 58 59 61 63 63 60 60 61 61 61 61 67 64 63 65 68 65 65 66 66 68 72 74 74 74 76 77 78 77 78 -193 -193 -209 -193 -209 88 90 89 93 95 95 97 97 96 96 96 96 94 94 101 100 -193 -193 -193 -193 -193 -193 -193 -209 108 -209 114 115 119 122 122 125 124 -193 125 127 126 126 126 127 126 128 127 130 127 -193 -177 -193 -193 -193 -193 142 144 146 146 147 149 150 155 158 157 159 157 159 0 0 0 0 0
    0 0 0 0 0 0 0 0 0 0 0 0 0 0 0 0 0 0 0 0 0 0 0 0 0 0 0 0 0 0 0 0 0 0 0 0 0 0 0 0 0 0 0 0 0 0 0 0 0 0 0 0 0 0 0 0 0 0 0 0 0 0 0 0 0 0 0 0 0 42 54 -209 59 65 -209 -177 -209 -209 -209 -177 174 179 179 -209 -209 -193 -193 64 65 66 63 60 59 55 55 54 54 54 54 54 53 52 52 52 53 54 54 53 52 55 56 56 50 49 53 49 48 51 48 48 46 49 48 45 49 49 42 46 46 -193 -209 -209 -209 -209 -209 -209 -193 53 -193 54 -193 -209 -193 52 51 47 42 47 -209 49 51 54 -209 -209 -209 -209 -177 203 203 -209 -209 -209 -209 -209 -209 -209 -209 -193 -193 -193 -193 -209 -209 -209 -193 -209 -209 -209 -209 -209 -209 -209 -209 63 63 68 62 62 62 62 62 59 61 61 54 57 56 55 55 56 56 57 57 59 59 58 58 57 56 57 57 57 57 57 58 58 59 60 61 64 63 59 61 61 61 61 61 67 64 63 65 67 64 64 66 66 68 71 74 74 74 76 77 78 78 78 79 -193 -193 -193 -193 87 90 89 93 95 95 97 97 96 95 95 96 94 94 100 100 -209 -193 -193 -193 -193 -193 -193 -209 108 -209 112 113 118 121 122 -193 124 -193 125 127 126 126 126 126 126 128 127 130 127 -193 -177 -177 -193 -193 -193 142 144 145 146 147 149 149 154 157 157 158 157 159 0 0 0 0 0
    0 0 0 0 0 0 0 0 0 0 0 0 0 0 0 0 0 0 0 0 0 0 0 0 0 0 0 0 0 0 0 0 0 0 0 0 0 0 0 0 0 0 0 0 0 0 0 0 0 0 0 0 0 0 0 0 0 0 0 0 0 0 0 0 0 0 0 0 0 43 52 55 57 64 -209 -209 -193 -177 -177 -177 174 -209 -193 -209 -209 -209 -193 62 65 66 63 60 58 55 54 54 54 53 54 53 52 52 52 53 53 54 54 53 52 56 56 55 50 49 53 49 48 51 48 48 47 49 48 45 49 49 42 46 45 41 31 -209 -209 -209 -193 -193 -193 -193 -193 -193 -193 -193 -193 50 50 46 -177 -177 42 46 48 51 -209 -209 -209 -193 204 205 204 -209 -209 -209 -209 -209 -209 -209 -209 -209 -209 -209 -209 -209 -209 -193 -209 -209 -209 -193 -209 -209 -193 -209 -209 62 62 68 63 62 62 62 62 59 61 61 54 57 56 56 57 57 58 58 58 60 59 59 59 57 56 57 57 -193 58 57 58 59 60 60 62 65 63 60 61 61 61 61 61 67 64 63 65 68 64 65 66 66 69 72 74 74 74 76 77 78 78 79 80 83 85 86 87 87 89 88 92 94 94 97 96 95 95 95 96 94 94 100 100 -193 -193 -193 -193 -193 -193 -193 -193 108 106 110 111 117 120 121 -193 124 -193 125 127 126 126 126 126 126 127 126 129 126 -193 -177 -177 -177 -193 -193 142 143 145 146 147 149 149 153 156 156 158 156 158 0 0 0 0 0
    0 0 0 0 0 0 0 0 0 0 0 0 0 0 0 0 0 0 0 0 0 0 0 0 0 0 0 0 0 0 0 0 0 0 0 0 0 0 0 0 0 0 0 0 0 0 0 0 0 0 0 0 0 0 0 0 0 0 0 0 0 0 0 0 0 0 0 0 0 50 54 55 57 64 -209 -209 -177 -177 -177 -209 -193 -209 -177 -177 -177 -177 -193 -209 64 64 61 58 57 54 53 53 53 53 53 53 52 51 52 53 54 54 54 52 53 57 57 55 50 49 53 49 49 51 48 48 47 49 48 45 49 49 42 46 44 40 34 31 -193 -209 -209 -209 -193 -193 -193 -193 -193 -193 -193 -193 53 51 46 47 46 49 51 53 -209 -209 -193 203 204 -177 -193 -209 -209 -209 -209 -209 -209 -209 -209 -209 -209 -209 -209 -209 -193 -209 -209 -209 -209 -193 -209 -209 -193 -209 -209 61 61 67 62 62 62 61 61 59 60 61 54 57 56 56 58 58 59 59 59 61 61 60 60 57 57 56 56 -193 58 57 58 58 59 59 62 65 62 59 60 60 60 60 60 67 64 64 65 68 65 65 66 67 70 73 75 75 75 76 78 79 79 80 81 85 86 87 87 87 88 88 91 93 93 96 95 95 95 95 96 95 95 101 100 -193 -193 -193 -193 -193 -193 -193 -193 108 107 112 112 117 -193 121 -193 124 -193 125 126 126 126 126 127 126 127 126 129 126 -193 -177 -177 -177 -193 -193 141 143 144 145 147 148 148 152 156 155 157 156 158 0 0 0 0 0
    0 0 0 0 0 0 0 0 0 0 0 0 0 0 0 0 0 0 0 0 0 0 0 0 0 0 0 0 0 0 0 0 0 0 0 0 0 0 0 0 0 0 0 0 0 0 0 0 0 0 0 0 0 0 0 0 0 0 0 0 0 0 0 0 0 0 0 0 0 53 -177 -177 58 62 -209 -209 -177 150 153 154 -193 -209 254 258 261 -177 -193 -209 -193 63 60 58 56 54 53 53 52 52 53 53 51 51 52 54 54 54 54 52 54 57 57 55 50 50 53 49 49 51 48 48 47 49 49 45 49 49 42 48 45 40 38 37 36 -209 -209 43 -193 49 -193 -193 -193 -193 54 53 -193 -177 -177 52 52 54 54 55 -193 -209 200 203 204 -177 -209 -209 -209 -209 -209 -209 -209 -209 -209 -209 -209 -209 -209 -209 -209 -209 -209 -209 -209 -193 -209 -209 100 -209 -209 61 61 67 62 61 61 60 61 58 59 60 53 56 56 56 58 59 59 60 59 61 60 59 59 55 54 54 54 55 56 56 58 58 59 59 62 64 62 59 60 60 60 59 60 67 64 65 66 69 65 65 67 67 70 74 75 75 75 77 79 80 79 80 82 85 86 87 87 86 88 87 91 93 93 96 95 95 95 95 96 95 95 101 99 -193 -193 -193 -193 -193 -193 -193 -193 108 107 112 113 117 121 -193 -193 124 -193 125 127 126 126 126 127 126 127 126 129 126 -193 -177 -177 -193 -193 -193 142 144 145 146 147 148 148 152 155 155 157 156 157 0 0 0 0 0
    0 0 0 0 0 0 0 0 0 0 0 0 0 0 0 0 0 0 0 0 0 0 0 0 0 0 0 0 0 0 0 0 0 0 0 0 0 0 0 0 0 0 0 0 0 0 0 0 0 0 0 0 0 0 0 0 0 0 0 0 0 0 0 0 0 0 0 0 0 54 -177 -177 58 60 -209 -209 -193 -177 -177 155 -209 -193 252 255 259 260 -209 -209 -209 63 60 59 56 54 53 52 52 52 53 52 51 51 53 54 54 55 54 53 55 57 57 55 51 51 54 50 49 52 48 48 47 50 49 45 50 49 42 52 49 42 41 42 39 -209 -193 44 -193 48 -193 -193 -193 54 53 53 55 55 -177 53 53 55 56 -193 -193 -177 200 203 204 -177 -209 -209 -209 -209 -209 -209 -209 -209 -209 -209 -209 -193 -193 -193 141 -193 -209 -209 -209 -209 -209 -209 -209 -209 -193 60 60 67 61 61 61 60 60 58 59 59 52 56 56 57 59 59 60 61 60 61 60 59 58 53 52 52 53 54 55 55 57 57 59 59 62 63 61 59 60 60 60 59 60 67 64 65 65 68 65 65 67 67 70 74 76 76 75 77 79 80 79 80 82 85 86 87 87 86 87 87 91 94 93 96 95 95 95 95 96 95 95 100 99 -193 -193 -193 -193 -193 -193 -193 -193 108 -193 -193 112 117 121 -193 -193 125 127 125 127 126 127 126 127 126 127 126 129 126 132 -177 -193 -177 -193 -193 141 143 145 146 146 148 148 152 156 155 157 156 158 0 0 0 0 0
    0 0 0 0 0 0 0 0 0 0 0 0 0 0 0 0 0 0 0 0 0 0 0 0 0 0 0 0 0 0 0 0 0 0 0 0 0 0 0 0 0 0 0 0 0 0 0 0 0 0 0 0 0 0 0 0 0 0 0 0 0 0 0 0 0 0 0 0 0 57 59 -177 59 59 -209 -209 -209 -209 -177 157 -209 -209 249 250 253 253 -209 -209 -209 62 60 59 56 54 53 52 52 52 52 52 51 51 53 55 55 55 54 54 57 58 58 55 52 52 54 50 50 52 48 48 48 50 49 46 50 50 43 55 54 43 42 -209 -209 -209 -209 -209 -209 -193 -193 -209 -193 -193 52 53 54 54 53 53 53 56 56 55 -193 -209 -177 -177 -177 -209 -209 -209 -209 -209 -209 -209 -209 -209 -209 -209 -209 -193 146 147 144 -193 -209 -209 -209 -209 -209 -209 -209 -209 -193 60 60 66 61 60 60 60 60 57 58 58 52 57 57 57 59 60 61 62 61 62 60 58 57 53 52 53 53 54 55 55 57 58 59 60 62 63 61 60 61 60 60 60 60 67 64 64 65 68 64 65 67 67 70 74 75 75 75 77 79 80 79 80 82 85 86 87 86 86 87 87 91 94 93 96 95 95 95 95 96 95 95 100 99 106 -193 -193 -193 -193 -193 -193 -193 108 -193 -193 113 117 120 -193 -193 124 126 125 127 126 127 126 127 126 127 126 129 126 -193 -177 -177 -177 -177 -193 141 143 144 145 146 148 147 151 156 155 156 156 158 0 0 0 0 0
    0 0 0 0 0 0 0 0 0 0 0 0 0 0 0 0 0 0 0 0 0 0 0 0 0 0 0 0 0 0 0 0 0 0 0 0 0 0 0 0 0 0 0 0 0 0 0 0 0 0 0 0 0 0 0 0 0 0 0 0 0 0 0 0 0 0 0 0 0 56 57 55 57 57 -209 -209 -209 -209 -209 -209 -209 -209 -209 -193 -193 -193 -209 -209 -209 60 58 59 56 54 53 52 52 52 52 52 51 52 53 55 56 55 54 55 58 59 59 -209 53 53 55 51 51 52 49 49 48 50 50 46 51 51 44 56 56 44 38 -209 -193 -209 -193 -209 -209 -209 -209 -209 -193 -193 -193 -193 53 -193 53 -193 52 56 -193 55 -209 -209 -209 205 -193 -209 -209 -209 -209 -209 -209 -209 -209 -209 -209 -209 -209 -209 -209 -193 147 -193 -209 -209 -209 -209 -209 -209 -209 -193 -209 59 59 65 60 60 60 59 59 57 58 58 51 57 57 57 59 60 61 62 61 63 60 58 58 54 53 53 54 55 55 55 57 58 58 60 62 63 62 61 62 61 61 60 60 68 64 65 65 68 64 65 67 67 70 74 76 76 76 78 79 80 79 80 82 85 86 87 86 86 -193 87 91 94 93 96 95 95 95 95 96 95 95 100 100 106 -193 -193 -193 -193 -193 -193 -193 109 -209 -193 114 117 120 -193 125 124 126 125 127 126 127 126 127 126 127 126 129 126 132 -177 -193 -177 -177 -193 140 142 143 144 145 148 146 150 155 155 156 155 157 0 0 0 0 0
    0 0 0 0 0 0 0 0 0 0 0 0 0 0 0 0 0 0 0 0 0 0 0 0 0 0 0 0 0 0 0 0 0 0 0 0 0 0 0 0 0 0 0 0 0 0 0 0 0 0 0 0 0 0 0 0 0 0 0 0 0 0 0 0 0 0 0 0 0 53 53 52 54 51 45 -209 38 -209 -209 -209 -209 -209 -193 -193 -193 50 52 56 62 59 58 59 56 55 53 53 53 52 53 52 51 52 53 55 55 54 54 55 59 60 -193 -193 54 54 56 51 51 53 49 49 48 50 50 46 51 51 44 56 57 47 32 -193 -193 -193 26 -193 25 -209 -209 -209 -209 -193 -193 -193 53 -193 53 -209 53 56 57 56 57 -193 -209 -209 -209 -209 -209 -209 -209 -209 -209 -209 -209 -209 -209 -209 -209 -209 -209 -193 -209 -209 -209 38 39 -193 -193 -209 -209 54 -193 58 58 64 59 59 59 58 59 57 57 57 50 57 56 55 58 58 60 61 60 62 59 59 59 56 54 55 55 56 55 56 57 58 58 59 61 61 61 61 62 61 60 60 59 68 64 65 65 68 64 65 67 68 70 75 76 76 76 78 79 80 79 80 82 86 86 87 86 86 -193 88 91 94 93 96 95 96 96 96 96 95 95 100 100 108 -193 -193 -193 -193 -193 -193 -193 109 107 -193 114 118 121 -193 126 125 127 125 127 126 127 126 127 126 127 126 129 126 132 -193 -193 -177 -177 -193 140 142 143 144 145 148 146 150 155 155 156 155 157 0 0 0 0 0
    0 0 0 0 0 0 0 0 0 0 0 0 0 0 0 0 0 0 0 0 0 0 0 0 0 0 0 0 0 0 0 0 0 0 0 0 0 0 0 0 0 0 0 0 0 0 0 0 0 0 0 0 0 0 0 0 0 0 0 0 0 0 0 0 0 0 0 0 0 50 51 50 52 51 49 -193 -209 -193 -209 -209 -209 -209 46 46 48 50 52 55 60 59 58 59 56 55 54 54 54 53 53 52 52 53 54 55 56 54 54 56 59 60 -193 -209 55 55 56 52 52 53 50 49 49 50 50 46 51 51 44 56 56 51 35 -193 -193 -193 26 -193 24 -209 -209 -209 -209 -193 50 51 52 54 53 -193 53 56 58 57 59 58 59 -193 60 -209 -209 -209 -209 -209 -209 -193 -193 150 -209 -209 -209 -209 -209 372 -209 -209 -209 -193 40 -193 -193 -193 -209 54 415 58 58 63 59 59 59 58 59 57 57 57 50 55 55 52 56 56 58 58 58 59 57 58 -193 -193 55 58 57 58 57 57 58 59 58 59 60 59 60 60 61 60 59 59 58 68 66 65 65 68 65 66 67 68 71 75 76 76 76 78 80 80 79 80 82 86 87 87 86 86 -193 88 91 94 93 96 95 96 96 96 97 95 95 100 101 110 -193 -193 -193 -193 -193 -193 -193 110 108 114 114 118 122 -193 127 125 127 126 127 126 127 126 127 126 127 126 128 126 131 -193 -193 -177 -177 -177 -193 141 143 144 145 148 146 150 156 155 156 155 157 0 0 0 0 0
    0 0 0 0 0 0 0 0 0 0 0 0 0 0 0 0 0 0 0 0 0 0 0 0 0 0 0 0 0 0 0 0 0 0 0 0 0 0 0 0 0 0 0 0 0 0 0 0 0 0 0 0 0 0 0 0 0 0 0 0 0 0 0 0 0 0 0 0 0 48 49 47 50 48 47 49 -209 -193 -209 -209 44 45 47 47 50 51 52 55 58 58 58 57 55 55 54 54 54 53 53 52 52 54 54 56 56 54 56 57 61 62 -193 -209 -193 56 57 52 52 53 50 49 49 50 50 46 51 51 44 55 55 54 -209 -193 -209 -209 -193 -209 24 -209 -209 -209 -209 49 50 51 52 53 53 -193 53 55 59 58 61 60 61 -193 60 -193 -209 -209 -209 291 -209 -209 -209 -193 -209 -209 -209 -209 -209 372 -209 -209 -209 -209 -209 -209 -193 -193 -193 54 -209 57 57 62 58 58 58 58 58 56 57 56 49 54 54 52 54 55 57 56 57 58 57 58 59 60 57 60 59 58 58 58 58 59 58 59 59 59 60 60 61 59 59 59 58 69 67 65 65 68 65 66 67 68 70 75 76 76 76 78 80 80 79 80 82 86 86 86 86 86 -193 88 91 93 93 96 95 96 96 95 96 95 95 100 101 110 108 109 -193 109 -193 109 110 111 109 114 115 118 122 -193 127 125 127 126 127 126 127 126 127 125 127 126 128 126 131 -193 -193 -177 -177 -177 -193 141 142 144 146 148 147 151 157 156 156 156 157 0 0 0 0 0
    0 0 0 0 0 0 0 0 0 0 0 0 0 0 0 0 0 0 0 0 0 0 0 0 0 0 0 0 0 0 0 0 0 0 0 0 0 0 0 0 0 0 0 0 0 0 0 0 0 0 0 0 0 0 0 0 0 0 0 0 0 0 0 0 0 0 0 0 0 46 47 45 47 46 45 47 45 45 -209 -193 46 48 50 -193 -193 53 53 55 58 57 57 56 55 55 54 54 54 53 53 52 53 54 54 56 56 54 57 58 62 62 -193 -193 -193 56 57 52 52 53 50 50 49 50 50 46 51 50 44 55 54 54 -209 -193 -193 -193 -209 -209 24 -209 28 -209 -209 50 51 52 52 54 -193 -193 -193 55 59 59 61 61 62 61 61 -193 -193 -209 -209 289 -209 -209 -209 -209 -209 -209 -209 -193 -209 -209 -209 -209 -193 -209 -209 -209 -193 -193 -193 55 -209 57 56 61 57 57 58 57 57 56 56 56 49 54 54 52 54 55 56 55 55 57 56 57 58 60 58 60 59 59 59 59 58 59 58 59 58 58 59 60 60 59 59 59 59 69 67 65 65 68 65 65 67 68 70 74 76 76 76 78 80 80 80 80 82 86 86 86 86 86 87 87 91 93 92 96 95 96 96 96 96 95 95 100 101 111 108 109 109 109 110 110 111 111 109 114 115 118 122 -193 127 125 127 126 127 126 127 126 127 125 127 126 128 126 132 -193 -193 -177 -177 -177 -193 141 143 144 145 148 147 151 157 156 156 155 157 0 0 0 0 0
    0 0 0 0 0 0 0 0 0 0 0 0 0 0 0 0 0 0 0 0 0 0 0 0 0 0 0 0 0 0 0 0 0 0 0 0 0 0 0 0 0 0 0 0 0 0 0 0 0 0 0 0 0 0 0 0 0 0 0 0 0 0 0 0 0 0 0 0 0 44 45 44 45 45 44 46 45 46 -193 -193 48 50 52 -193 -193 -193 54 55 57 57 57 55 55 55 54 54 55 54 53 53 54 54 55 56 56 54 56 59 62 -193 -193 -193 -193 57 58 52 52 53 50 50 49 50 50 47 51 50 44 54 53 53 -209 -193 -193 -193 -209 -209 24 26 30 35 -209 -209 -193 -193 -193 54 -193 -209 -193 55 59 60 62 61 62 62 62 62 -193 -209 -209 -209 -209 -209 -193 -209 -209 -209 -193 59 -209 -209 -209 -209 -193 -209 -209 -209 -209 -209 -209 55 -193 57 57 61 57 57 57 57 57 56 56 56 49 55 55 53 54 54 56 55 54 56 55 56 57 58 57 60 59 59 60 59 59 60 59 60 58 58 60 60 60 60 61 60 60 70 68 66 65 68 65 65 67 67 69 73 75 75 75 78 79 79 79 80 82 86 86 86 85 86 87 87 91 93 93 96 95 96 96 96 96 95 95 99 101 114 110 111 110 110 111 111 111 111 108 112 113 118 121 120 127 125 127 126 127 126 127 126 127 126 127 126 128 126 132 -193 -193 -177 -177 -193 -193 140 142 143 144 147 146 150 156 155 156 155 157 0 0 0 0 0
    0 0 0 0 0 0 0 0 0 0 0 0 0 0 0 0 0 0 0 0 0 0 0 0 0 0 0 0 0 0 0 0 0 0 0 0 0 0 0 0 0 0 0 0 0 0 0 0 0 0 0 0 0 0 0 0 0 0 0 0 0 0 0 0 0 0 0 0 0 43 43 42 43 43 43 44 44 44 45 44 48 49 51 54 52 52 53 54 56 56 56 55 55 55 54 55 55 54 54 54 55 55 55 56 56 53 56 59 62 -193 -193 -209 -193 57 58 52 52 53 50 50 50 50 50 46 50 50 44 54 52 53 -209 -193 -193 -209 -209 -209 22 -209 -209 -209 -209 -209 -209 -209 -209 -193 -209 -209 -193 -193 59 61 62 61 62 62 62 61 -209 -209 -209 -209 -209 -193 -193 -193 -209 -209 -193 -209 -209 -209 -209 -209 -209 -209 -193 -209 -209 -209 -209 56 -193 57 57 61 57 57 57 57 57 56 56 56 50 55 55 54 54 53 54 53 52 55 54 56 55 57 56 60 59 60 59 59 59 60 59 60 57 57 59 59 60 62 63 61 61 70 69 66 66 67 64 64 66 66 69 72 74 74 74 76 78 78 78 79 82 85 86 86 85 86 87 87 91 93 93 96 95 96 96 96 96 94 94 97 102 115 111 112 110 111 112 112 112 111 108 111 113 118 122 121 128 125 128 126 128 126 127 126 127 126 127 126 128 126 132 -193 -193 -209 -177 -193 -193 140 142 143 144 147 147 150 156 155 155 155 156 0 0 0 0 0
    0 0 0 0 0 0 0 0 0 0 0 0 0 0 0 0 0 0 0 0 0 0 0 0 0 0 0 0 0 0 0 0 0 0 0 0 0 0 0 0 0 0 0 0 0 0 0 0 0 0 0 0 0 0 0 0 0 0 0 0 0 0 0 0 0 0 0 0 0 43 43 42 43 43 43 44 43 44 44 43 46 48 49 53 51 52 53 53 55 55 55 54 54 55 54 55 55 55 54 54 55 55 55 56 56 54 57 60 62 -193 -193 -193 56 56 57 52 51 53 50 49 49 50 50 46 50 50 44 52 49 -209 -209 -193 -209 69 70 -209 -209 -209 -193 -209 -209 -209 -209 -209 -209 -193 -193 -193 -193 -193 56 59 60 59 61 61 60 -209 -209 -209 -209 -209 -209 -193 -193 -193 -209 -193 55 -209 -209 -193 -209 -209 -209 -209 -193 -209 -209 -209 -209 56 -193 57 56 60 57 57 57 56 57 57 56 56 50 56 55 54 53 52 52 52 49 52 52 54 54 56 57 60 60 61 61 60 60 61 60 61 57 57 59 59 60 63 64 63 63 69 69 67 67 67 64 63 64 65 68 71 73 73 73 75 76 77 78 78 82 85 85 85 85 86 87 87 91 92 93 96 95 96 96 95 96 94 93 95 102 116 111 112 111 111 112 112 112 111 108 112 113 118 122 121 128 125 128 126 127 126 127 126 127 125 127 125 127 126 132 -193 -193 -209 -177 -193 140 141 143 144 145 148 147 150 156 155 155 154 156 0 0 0 0 0
    0 0 0 0 0 0 0 0 0 0 0 0 0 0 0 0 0 0 0 0 0 0 0 0 0 0 0 0 0 0 0 0 0 0 0 0 0 0 0 0 0 0 0 0 0 0 0 0 0 0 0 0 0 0 0 0 0 0 0 0 0 0 0 0 0 0 0 0 0 43 43 43 43 43 43 44 44 44 44 43 45 47 49 53 51 53 53 53 54 55 54 54 54 54 54 55 56 55 55 55 56 56 56 56 56 55 58 61 62 63 63 -177 55 55 56 51 51 53 50 49 49 49 49 45 49 48 43 48 44 -209 -209 -209 72 71 71 -193 -193 63 61 62 -193 -193 -209 -209 -209 68 -193 -193 54 54 56 58 59 59 -193 -193 -209 -209 -209 -209 -209 -209 -209 -209 -209 -209 -209 -209 -193 -193 -209 -209 -209 -209 -209 -193 80 -193 -209 -209 -209 57 -209 56 56 59 56 56 56 56 57 57 56 56 51 56 55 55 54 53 52 53 50 52 53 55 54 57 58 62 61 62 61 60 59 60 60 60 57 57 59 60 61 65 64 63 65 69 68 67 66 67 64 63 64 64 66 69 71 71 72 74 75 75 77 78 82 85 85 85 85 86 87 88 90 92 92 96 95 96 96 95 96 94 94 97 102 116 111 112 111 111 112 112 112 111 108 113 114 118 122 121 128 125 127 126 127 126 127 126 127 125 126 125 127 126 132 131 -193 -209 -193 -193 141 141 144 145 146 148 148 151 156 155 155 155 156 0 0 0 0 0
    0 0 0 0 0 0 0 0 0 0 0 0 0 0 0 0 0 0 0 0 0 0 0 0 0 0 0 0 0 0 0 0 0 0 0 0 0 0 0 0 0 0 0 0 0 0 0 0 0 0 0 0 0 0 0 0 0 0 0 0 0 0 0 0 0 0 0 0 0 43 42 42 42 43 43 43 43 43 43 42 43 44 45 52 51 53 54 53 54 0 -256 -1 1533 54 54 55 55 55 55 56 56 56 56 56 56 55 58 60 60 59 62 -209 55 54 56 51 50 52 49 48 49 49 48 45 47 47 42 44 42 -209 -209 -209 71 69 -193 -193 -193 62 61 61 59 59 58 -209 58 58 -193 -209 -193 -193 57 -193 58 -193 -193 -209 212 -209 -209 -209 -209 -209 -209 -209 -209 -209 -209 -209 -193 -209 -209 -209 -209 -209 -193 77 82 -193 -209 -193 -209 56 -209 56 56 59 56 56 56 56 56 56 56 56 51 56 55 55 54 54 53 53 49 51 53 55 54 56 58 61 61 62 61 60 59 60 61 60 57 57 59 60 61 65 64 62 65 68 68 67 66 66 63 63 64 63 65 67 70 70 70 73 73 73 75 76 82 84 85 84 84 85 87 87 90 92 92 95 95 96 96 95 96 95 94 98 102 115 110 112 111 111 111 112 111 111 108 111 112 117 122 121 127 125 127 126 127 126 127 126 127 125 126 125 127 125 131 130 -193 -209 -193 -193 141 141 144 145 146 148 148 151 157 155 156 155 156 0 0 0 0 0
    0 0 0 0 0 0 0 0 0 0 0 0 0 0 0 0 0 0 0 0 0 0 0 0 0 0 0 0 0 0 0 0 0 0 0 0 0 0 0 0 0 0 0 0 0 0 0 0 0 0 0 0 0 0 0 0 0 0 0 0 0 0 0 0 0 0 0 0 0 43 42 42 42 43 43 43 43 43 43 42 43 43 43 48 46 53 54 53 53 54 53 53 54 53 54 54 55 54 54 55 56 55 56 55 55 55 58 60 59 58 62 -209 54 54 55 50 50 52 49 48 49 49 48 44 47 47 42 43 42 43 -209 -209 68 -193 -209 67 67 65 63 -193 59 59 59 58 58 -193 -209 -209 -193 -209 -193 -193 -193 -193 -193 -209 211 -209 -209 -209 -209 -209 -209 -209 -209 -209 -209 -209 -209 -209 -209 -209 -209 -209 -193 79 83 -193 -209 -209 -209 64 -209 56 56 60 56 56 56 56 56 56 56 56 51 56 55 55 55 54 53 52 49 49 52 55 54 55 59 62 62 62 60 59 59 60 61 60 57 58 58 59 61 64 63 62 65 68 68 66 66 65 63 63 63 62 63 64 66 67 66 69 70 71 73 74 79 81 83 83 83 85 86 87 89 91 91 94 94 95 95 94 95 94 93 98 102 113 110 111 110 110 111 -193 -193 110 107 110 110 116 121 120 127 125 127 126 127 126 126 126 127 125 126 125 127 125 131 130 -193 -209 -193 -193 140 141 143 144 146 148 148 151 156 155 155 155 156 0 0 0 0 0
    0 0 0 0 0 0 0 0 0 0 0 0 0 0 0 0 0 0 0 0 0 0 0 0 0 0 0 0 0 0 0 0 0 0 0 0 0 0 0 0 0 0 0 0 0 0 0 0 0 0 0 0 0 0 0 0 0 0 0 0 0 0 0 0 0 0 0 0 0 43 42 43 43 43 43 44 44 44 43 43 43 44 44 47 44 51 53 52 53 53 53 53 53 53 54 54 54 54 54 55 56 55 55 55 55 55 58 60 59 58 62 -209 54 54 55 50 50 51 48 47 49 49 48 44 46 47 42 43 42 43 -193 -209 -209 -209 -209 -193 -193 64 61 -193 57 57 58 58 59 59 60 -193 -193 -193 -193 -193 -209 -193 -177 -193 207 -209 -209 -209 -209 -209 -209 -209 -193 57 59 59 -209 -193 -193 -209 -209 -209 -193 -193 -193 -193 -209 -209 -209 -193 -209 57 56 60 56 57 56 56 57 57 56 57 51 56 56 56 56 55 55 54 54 56 -193 68 -193 62 62 62 62 61 59 58 58 60 61 59 57 58 59 59 61 63 62 61 65 67 67 67 66 65 63 64 63 62 61 61 62 64 64 65 66 68 71 72 77 79 81 81 82 84 86 86 89 91 91 94 94 95 95 94 95 94 93 97 101 112 109 111 109 109 110 -193 -193 110 107 110 111 116 121 120 127 125 127 126 127 126 127 126 127 125 126 125 127 125 132 131 135 -209 -209 -193 141 141 143 144 145 147 147 150 155 155 155 154 156 0 0 0 0 0
    0 0 0 0 0 0 0 0 0 0 0 0 0 0 0 0 0 0 0 0 0 0 0 0 0 0 0 0 0 0 0 0 0 0 0 0 0 0 0 0 0 0 0 0 0 0 0 0 0 0 0 0 0 0 0 0 0 0 0 0 0 0 0 0 0 0 0 0 0 44 43 44 44 44 43 44 45 45 44 44 44 45 46 48 46 50 52 51 53 53 53 53 53 54 54 54 55 54 55 56 56 56 55 55 55 56 59 59 59 58 61 -193 53 53 55 50 49 51 48 47 49 49 48 44 46 47 42 43 43 43 43 46 53 -209 -209 -209 -209 62 58 -193 55 57 58 58 59 60 60 59 59 59 58 -193 -209 -209 -209 -209 -193 -209 -209 -209 -209 -209 -209 -193 52 57 60 59 59 60 62 62 -209 -209 -193 -193 -193 -209 -209 -209 -193 -209 -209 57 56 60 56 57 56 56 57 57 56 56 51 56 56 56 55 55 55 55 56 62 74 -193 -193 -193 67 62 62 60 58 57 58 59 62 60 58 59 59 59 61 63 62 61 65 67 67 67 66 65 63 64 63 61 60 59 59 60 61 62 62 66 69 70 75 77 79 80 81 83 86 86 89 91 91 94 94 94 95 94 95 94 93 97 102 113 109 111 109 109 110 -193 -193 110 108 111 112 117 121 120 127 125 127 126 127 126 127 126 127 125 127 125 127 126 132 131 135 -209 -209 -193 141 141 143 144 145 147 146 150 155 154 155 154 155 0 0 0 0 0
    0 0 0 0 0 0 0 0 0 0 0 0 0 0 0 0 0 0 0 0 0 0 0 0 0 0 0 0 0 0 0 0 0 0 0 0 0 0 0 0 0 0 0 0 0 0 0 0 0 0 0 0 0 0 0 0 0 0 0 0 0 0 0 0 0 0 0 0 0 46 44 44 45 45 43 45 45 45 44 45 45 45 47 50 49 51 53 52 53 54 53 53 53 54 54 54 54 54 55 56 56 56 55 55 55 56 58 59 57 57 60 53 52 52 54 50 49 50 48 47 49 49 48 44 47 48 43 44 44 45 46 49 54 -193 -209 -209 -209 -209 54 54 53 55 57 56 57 58 57 57 58 58 57 55 54 54 52 53 -193 -209 -209 -209 -193 52 52 56 52 57 59 59 60 61 62 61 -193 -193 -193 37 -193 -193 35 -209 189 -209 -209 57 56 61 56 57 56 57 57 57 57 56 52 56 56 56 55 55 55 55 57 62 -193 -193 74 -193 -193 59 60 -193 52 49 57 59 62 60 59 59 59 59 61 64 62 61 65 67 67 67 66 64 63 65 64 61 59 58 58 59 60 61 61 64 67 69 73 74 76 77 78 81 85 85 89 91 91 93 93 94 94 93 94 94 93 97 102 113 109 111 109 109 110 -193 -193 109 107 111 112 117 121 120 127 125 127 126 127 126 126 126 127 125 127 125 127 126 132 131 135 -209 -193 -193 140 141 143 143 144 147 146 150 156 155 155 155 156 0 0 0 0 0
    0 0 0 0 0 0 0 0 0 0 0 0 0 0 0 0 0 0 0 0 0 0 0 0 0 0 0 0 0 0 0 0 0 0 0 0 0 0 0 0 0 0 0 0 0 0 0 0 0 0 0 0 0 0 0 0 0 0 0 0 0 0 0 0 0 0 0 0 0 50 48 48 47 47 45 46 46 46 45 47 46 47 49 53 51 53 53 53 54 53 53 53 52 54 54 54 54 54 55 56 56 56 55 55 56 56 58 58 56 57 59 53 52 52 54 50 49 50 47 46 49 49 48 44 47 48 44 45 45 50 49 52 54 52 51 -209 -209 -209 51 52 52 53 55 55 55 56 55 56 57 57 55 53 52 52 51 53 50 50 -193 -193 52 53 54 57 53 58 61 59 60 60 60 60 -193 56 -193 -193 -193 -193 37 -193 -209 56 -209 56 56 60 56 56 56 56 57 57 57 56 52 56 56 56 55 55 55 56 57 62 72 -193 74 -193 -193 -193 55 -209 41 41 50 57 60 59 58 59 58 59 61 63 61 61 64 66 66 66 66 64 63 66 65 62 59 59 59 60 60 61 61 63 65 67 72 72 74 75 76 78 83 83 88 90 90 92 92 93 93 93 93 93 92 94 101 110 108 109 109 109 109 109 109 109 107 111 111 117 122 120 127 125 127 126 127 126 126 126 126 125 126 125 127 126 131 130 135 -193 -193 -193 140 141 143 143 145 147 147 151 157 155 156 155 156 0 0 0 0 0
    0 0 0 0 0 0 0 0 0 0 0 0 0 0 0 0 0 0 0 0 0 0 0 0 0 0 0 0 0 0 0 0 0 0 0 0 0 0 0 0 0 0 0 0 0 0 0 0 0 0 0 0 0 0 0 0 0 0 0 0 0 0 0 0 0 0 0 0 0 49 49 51 48 49 46 47 47 48 47 48 48 48 49 53 50 52 53 53 54 53 53 53 52 54 54 54 54 54 55 56 56 55 55 55 56 57 57 58 56 57 60 53 53 53 54 50 49 50 47 46 49 49 48 44 47 48 45 46 47 52 51 52 54 51 51 -209 -209 49 45 47 47 48 51 52 53 54 54 55 56 57 55 53 52 52 50 53 50 50 -193 -193 54 54 55 57 55 60 65 62 62 61 61 59 56 54 54 48 42 -193 -193 -193 46 55 -209 56 56 60 56 56 56 56 57 56 56 56 51 56 56 55 56 56 57 57 60 65 67 67 71 63 58 58 57 -209 37 39 51 58 59 58 58 59 58 59 62 63 61 61 64 66 65 66 65 64 64 68 67 64 61 62 63 64 63 64 63 65 66 67 71 71 72 73 73 76 80 80 86 89 89 91 91 92 92 92 93 93 92 94 101 108 107 109 109 108 109 109 109 109 107 112 111 117 121 120 127 125 127 126 126 126 126 126 126 125 126 125 127 125 131 130 134 136 -193 139 140 140 142 142 144 146 146 151 157 156 156 156 157 0 0 0 0 0
    0 0 0 0 0 0 0 0 0 0 0 0 0 0 0 0 0 0 0 0 0 0 0 0 0 0 0 0 0 0 0 0 0 0 0 0 0 0 0 0 0 0 0 0 0 0 0 0 0 0 0 0 0 0 0 0 0 0 0 0 0 0 0 0 0 0 0 0 0 47 47 50 49 49 47 48 48 49 48 49 48 50 49 52 50 52 53 53 53 53 53 53 53 54 54 53 54 54 54 55 56 55 54 55 56 56 57 58 57 57 60 53 53 53 54 51 50 50 47 46 49 49 48 44 48 49 46 48 49 53 52 53 52 51 51 -209 -209 40 42 45 45 45 48 48 52 54 54 55 56 57 55 53 53 52 51 53 51 51 -193 -193 55 55 56 58 57 60 67 64 62 59 59 57 54 53 55 53 53 47 45 -193 48 55 -209 55 56 59 56 56 56 56 57 56 56 56 50 56 56 55 56 57 57 58 61 65 61 61 65 58 57 57 56 45 36 40 55 58 59 58 58 59 58 58 62 62 60 61 64 66 65 65 65 64 66 70 70 68 67 69 69 69 69 69 66 66 67 67 70 69 70 71 71 74 77 77 84 87 88 90 90 91 91 91 92 92 91 93 101 -193 107 109 109 109 109 109 109 109 107 112 111 116 121 120 127 125 127 126 127 126 126 126 126 125 126 125 127 125 131 130 134 136 137 138 139 139 141 142 143 146 147 151 157 155 155 156 156 0 0 0 0 0
    0 0 0 0 0 0 0 0 0 0 0 0 0 0 0 0 0 0 0 0 0 0 0 0 0 0 0 0 0 0 0 0 0 0 0 0 0 0 0 0 0 0 0 0 0 0 0 0 0 0 0 0 0 0 0 0 0 0 0 0 0 0 0 0 0 0 0 0 0 48 47 50 49 49 47 49 49 49 50 51 50 51 50 53 50 52 53 52 53 52 53 52 52 54 53 53 54 54 55 55 56 55 55 56 57 56 57 57 56 56 59 53 53 53 54 51 50 50 48 46 50 50 49 46 49 50 48 50 51 53 53 53 51 52 53 55 38 39 41 44 45 44 46 46 51 53 53 54 55 56 55 53 53 52 51 53 51 51 51 -193 55 56 56 57 57 60 65 62 60 56 56 55 52 52 54 53 53 48 48 47 48 55 -209 55 56 59 56 56 56 56 57 56 56 56 49 56 55 54 56 56 57 57 60 60 57 58 59 56 55 55 54 44 36 42 57 59 59 58 59 60 59 58 62 62 60 60 64 66 65 65 65 65 67 72 72 72 73 73 73 73 72 72 70 69 68 67 69 68 68 69 70 72 74 74 81 83 86 89 89 90 90 89 90 91 91 92 100 107 107 108 108 108 108 109 109 108 107 110 109 115 121 120 127 125 127 126 127 126 127 126 127 125 126 125 127 125 132 131 134 136 136 138 139 139 141 141 142 145 147 151 156 155 155 156 156 0 0 0 0 0
    0 0 0 0 0 0 0 0 0 0 0 0 0 0 0 0 0 0 0 0 0 0 0 0 0 0 0 0 0 0 0 0 0 0 0 0 0 0 0 0 0 0 0 0 0 0 0 0 0 0 0 0 0 0 0 0 0 0 0 0 0 0 0 0 0 0 0 0 0 48 46 49 48 49 48 50 50 51 51 52 52 52 52 54 51 52 53 52 52 52 53 51 51 54 53 53 54 54 55 56 57 56 56 56 57 57 58 57 57 56 57 53 52 52 54 51 50 50 48 46 51 50 50 48 51 51 50 52 52 54 53 53 51 53 54 54 39 39 41 46 45 45 46 46 52 53 53 53 54 55 54 53 52 51 51 53 52 51 51 54 56 56 56 57 56 59 61 60 58 55 54 53 51 52 54 54 53 51 51 52 50 55 -209 55 56 59 56 56 56 57 57 56 56 55 48 56 55 54 55 56 56 56 59 59 56 56 56 54 53 54 53 46 37 42 57 59 59 57 58 59 58 57 61 61 59 60 64 65 65 65 66 66 68 73 74 73 74 74 75 74 74 74 72 70 70 69 69 68 68 68 69 71 73 73 78 80 83 86 86 87 87 88 89 90 89 89 99 106 105 107 107 107 108 108 108 108 107 110 110 115 121 121 128 125 128 126 127 126 127 126 127 125 126 125 127 125 132 131 135 136 137 138 139 139 140 140 141 144 146 150 156 154 154 155 156 0 0 0 0 0
    0 0 0 0 0 0 0 0 0 0 0 0 0 0 0 0 0 0 0 0 0 0 0 0 0 0 0 0 0 0 0 0 0 0 0 0 0 0 0 0 0 0 0 0 0 0 0 0 0 0 0 0 0 0 0 0 0 0 0 0 0 0 0 0 0 0 0 0 0 48 46 50 48 49 47 50 51 51 52 53 52 53 53 54 52 52 53 52 52 53 53 52 52 54 54 53 55 55 55 56 58 57 57 57 58 57 58 58 57 56 56 52 52 52 53 51 50 50 49 47 52 52 52 50 52 52 52 53 53 55 54 54 52 54 55 55 40 40 42 49 46 45 47 47 53 53 53 53 54 55 54 53 52 51 51 53 52 51 51 54 56 57 57 57 56 59 61 60 59 55 53 52 51 52 54 54 53 52 53 54 52 55 -209 55 56 59 56 56 56 56 57 56 56 55 47 56 56 55 56 57 58 58 60 60 57 57 57 56 55 54 53 47 36 40 52 56 57 57 58 58 58 57 61 61 59 60 64 65 65 66 67 67 69 73 74 74 74 75 76 75 75 75 73 72 72 72 71 68 68 68 69 71 72 73 77 78 82 83 84 85 85 86 87 88 88 88 96 105 105 106 107 107 107 108 108 108 107 110 110 115 120 120 128 125 128 127 127 126 127 126 127 125 126 125 126 125 132 131 135 137 137 139 139 139 140 140 141 145 147 150 156 154 154 155 156 0 0 0 0 0
    0 0 0 0 0 0 0 0 0 0 0 0 0 0 0 0 0 0 0 0 0 0 0 0 0 0 0 0 0 0 0 0 0 0 0 0 0 0 0 0 0 0 0 0 0 0 0 0 0 0 0 0 0 0 0 0 0 0 0 0 0 0 0 0 0 0 0 0 0 48 46 50 48 50 48 50 51 52 53 54 53 54 54 55 54 54 54 53 53 54 54 53 53 54 54 53 55 54 54 55 57 56 56 57 57 56 57 57 56 55 56 51 51 51 53 51 51 50 50 47 53 53 53 52 53 53 54 54 55 56 55 55 53 56 57 57 40 40 41 50 45 45 46 48 53 53 53 53 54 55 54 53 53 51 52 54 52 51 51 55 57 57 57 58 57 60 62 61 60 55 51 51 50 52 53 53 52 51 51 53 52 55 -209 55 56 59 56 56 56 56 57 56 56 55 47 56 56 55 56 57 58 58 59 58 57 57 58 57 56 55 55 54 48 56 57 58 57 57 58 58 58 58 61 61 60 61 65 65 65 67 68 68 70 73 73 73 74 74 75 74 75 75 74 74 74 73 73 70 70 70 70 71 72 73 76 76 78 79 80 81 81 82 84 85 86 87 93 103 103 105 106 107 106 106 107 107 106 108 108 112 118 119 127 125 128 127 127 126 127 126 127 125 126 125 126 125 132 131 136 138 138 140 139 139 140 140 141 145 147 150 156 154 154 156 156 0 0 0 0 0
    0 0 0 0 0 0 0 0 0 0 0 0 0 0 0 0 0 0 0 0 0 0 0 0 0 0 0 0 0 0 0 0 0 0 0 0 0 0 0 0 0 0 0 0 0 0 0 0 0 0 0 0 0 0 0 0 0 0 0 0 0 0 0 0 0 0 0 0 0 47 46 50 48 49 48 50 50 51 53 54 54 54 54 56 54 55 55 54 54 54 54 53 53 54 53 53 55 53 53 55 56 55 54 56 55 55 57 57 56 55 56 52 51 52 53 51 51 51 51 47 54 54 54 52 53 53 54 54 55 55 55 55 55 57 59 58 39 -225 40 48 44 44 44 49 53 53 53 53 54 55 54 53 53 52 53 54 52 51 52 54 57 57 57 57 56 59 61 61 59 54 50 51 51 54 54 53 52 51 52 53 52 55 -209 -193 -193 -193 56 56 56 56 57 57 57 56 47 57 57 56 57 58 59 56 57 56 55 56 56 56 56 54 56 56 57 58 59 59 56 57 57 57 57 58 60 61 60 61 65 65 65 67 69 68 70 73 73 73 73 74 74 74 74 75 74 73 74 74 74 72 71 73 72 74 75 76 77 77 77 77 78 79 79 80 82 83 84 86 91 98 101 103 105 105 105 105 105 105 105 106 106 109 116 118 125 124 127 126 127 126 127 126 127 125 127 125 127 125 132 131 136 138 138 140 140 140 141 141 142 146 148 151 156 154 154 156 156 0 0 0 0 0
    0 0 0 0 0 0 0 0 0 0 0 0 0 0 0 0 0 0 0 0 0 0 0 0 0 0 0 0 0 0 0 0 0 0 0 0 0 0 0 0 0 0 0 0 0 0 0 0 0 0 0 0 0 0 0 0 0 0 0 0 0 0 0 0 0 0 0 0 0 48 47 51 51 51 49 51 51 52 53 54 54 54 54 56 54 55 55 54 54 53 53 53 53 54 54 53 55 53 53 54 56 55 54 55 54 54 57 57 57 55 56 53 53 53 54 53 53 52 52 48 53 53 54 52 52 52 53 54 55 55 55 54 55 58 60 59 -225 -225 40 47 43 43 43 50 52 52 52 53 54 55 54 53 53 52 53 53 52 51 51 54 56 56 56 57 57 60 61 61 58 53 50 50 51 54 -193 54 52 52 53 54 53 54 53 -193 -193 -193 55 55 56 56 56 56 56 56 46 57 57 56 57 58 60 55 56 55 55 55 55 56 56 54 57 57 57 59 60 60 56 57 57 56 56 57 59 60 59 62 65 65 65 67 69 68 70 72 72 73 73 74 74 74 74 75 74 73 74 74 75 74 74 81 82 84 82 82 81 78 78 77 78 78 78 79 81 83 84 86 89 93 97 100 102 102 102 103 104 104 104 105 105 107 114 118 125 124 127 126 127 126 127 126 127 125 127 125 127 125 131 130 135 137 138 139 139 139 140 140 142 147 149 151 156 154 155 156 157 0 0 0 0 0
    0 0 0 0 0 0 0 0 0 0 0 0 0 0 0 0 0 0 0 0 0 0 0 0 0 0 0 0 0 0 0 0 0 0 0 0 0 0 0 0 0 0 0 0 0 0 0 0 0 0 0 0 0 0 0 0 0 0 0 0 0 0 0 0 0 0 0 0 0 48 47 52 53 53 52 53 53 54 56 56 56 54 54 56 55 54 55 54 54 54 54 53 54 54 54 54 55 53 53 54 55 54 54 55 54 54 57 57 58 55 56 54 54 54 55 54 54 53 53 50 54 54 55 52 52 52 53 54 55 55 55 54 57 59 61 59 -225 -225 41 49 44 44 44 51 52 52 52 53 53 54 53 53 52 52 52 53 50 50 51 53 55 56 56 56 57 61 63 63 59 54 49 49 51 54 -193 54 52 53 53 54 53 55 53 -193 -193 -193 55 55 55 55 55 56 56 56 45 57 56 54 55 56 58 54 55 54 54 54 55 56 55 54 57 57 57 59 60 60 56 58 60 58 58 58 60 61 60 63 66 66 66 68 70 69 70 72 73 73 73 74 74 74 75 75 74 74 74 75 76 76 76 87 89 89 88 87 85 84 85 84 84 82 81 80 83 85 85 87 89 92 95 99 99 100 101 101 102 102 103 105 105 107 113 118 124 124 127 126 127 126 127 126 127 126 127 125 126 125 132 131 135 137 138 141 141 141 141 141 142 147 -193 151 156 154 155 157 158 0 0 0 0 0
    0 0 0 0 0 0 0 0 0 0 0 0 0 0 0 0 0 0 0 0 0 0 0 0 0 0 0 0 0 0 0 0 0 0 0 0 0 0 0 0 0 0 0 0 0 0 0 0 0 0 0 0 0 0 0 0 0 0 0 0 0 0 0 0 0 0 0 0 0 51 51 54 57 56 56 57 58 58 59 59 58 57 56 57 56 55 55 54 54 54 54 54 54 54 55 55 56 53 52 54 55 55 55 55 54 54 58 58 58 55 56 55 54 55 56 55 55 54 54 52 54 54 55 52 52 52 54 54 55 56 55 54 57 60 62 -225 -225 -225 43 48 44 44 44 52 52 51 52 54 53 54 53 53 52 51 53 52 49 48 49 53 54 55 56 56 57 62 66 66 61 54 47 47 51 -193 -193 54 53 53 54 55 54 55 53 53 -193 -177 55 55 55 55 54 56 56 56 45 57 56 55 55 56 58 52 53 53 53 53 54 55 55 53 57 57 58 59 60 60 57 57 60 59 60 60 61 61 60 64 66 66 66 68 70 70 70 72 73 73 73 74 74 74 75 75 74 74 74 76 77 76 77 87 90 92 91 90 89 88 89 88 88 85 83 81 82 84 85 86 88 90 92 95 95 96 98 99 100 100 100 101 103 106 109 117 123 123 127 126 127 126 127 126 127 126 127 125 126 124 132 130 135 138 139 142 142 143 145 145 -193 -209 -209 -209 -209 -209 -193 158 159 0 0 0 0 0
    0 0 0 0 0 0 0 0 0 0 0 0 0 0 0 0 0 0 0 0 0 0 0 0 0 0 0 0 0 0 0 0 0 0 0 0 0 0 0 0 0 0 0 0 0 0 0 0 0 0 0 0 0 0 0 0 0 0 0 0 0 0 0 0 0 0 0 0 0 55 55 57 64 63 59 59 60 59 61 60 59 57 57 58 57 56 56 55 55 55 54 54 54 55 55 55 56 53 53 54 56 55 55 54 54 53 58 58 58 55 56 55 54 55 56 55 55 54 55 53 54 54 55 52 52 53 54 54 55 56 56 54 57 61 62 -225 -225 -225 43 47 44 43 44 52 52 51 51 53 53 53 52 52 51 51 52 51 47 46 48 52 54 55 55 55 58 62 66 67 63 54 47 47 51 55 53 55 53 53 54 55 55 55 52 53 53 -193 55 54 55 55 54 56 56 56 45 56 57 56 54 55 58 52 53 54 53 54 54 56 56 55 58 59 58 59 60 60 58 57 58 59 62 62 61 62 61 66 67 67 67 68 71 70 71 72 73 73 73 74 74 74 74 75 74 74 74 76 77 77 79 88 91 93 93 93 91 90 90 90 90 88 85 83 84 85 86 87 88 89 91 92 92 93 94 95 97 97 97 98 101 104 106 116 123 123 126 126 128 126 127 126 127 126 127 125 127 124 132 131 137 140 140 142 143 145 -193 -193 -209 -209 -209 -209 -209 -209 -209 160 161 0 0 0 0 0
    0 0 0 0 0 0 0 0 0 0 0 0 0 0 0 0 0 0 0 0 0 0 0 0 0 0 0 0 0 0 0 0 0 0 0 0 0 0 0 0 0 0 0 0 0 0 0 0 0 0 0 0 0 0 0 0 0 0 0 0 0 0 0 0 0 0 0 0 0 61 63 65 69 68 61 60 61 60 60 60 59 57 57 58 58 57 57 56 56 56 55 55 55 55 56 56 55 52 52 54 55 54 54 54 52 53 58 58 58 55 56 55 55 55 56 55 56 55 55 54 54 55 56 52 52 53 54 55 55 56 56 54 58 61 62 -225 -225 -225 43 45 43 43 44 53 52 50 51 54 53 53 52 52 50 51 52 50 46 45 46 51 53 53 54 55 58 62 67 67 64 54 46 46 51 55 53 54 53 54 54 55 55 55 52 -193 -193 -193 55 54 54 55 54 56 56 56 45 56 56 56 54 55 58 52 53 54 54 55 55 57 57 57 59 61 60 60 60 61 59 57 57 53 59 61 58 62 62 68 68 68 68 70 71 70 71 72 72 73 73 73 74 73 74 74 74 73 74 76 77 77 79 88 90 93 94 93 92 92 92 92 92 90 89 86 86 87 87 87 86 87 88 89 89 90 91 92 94 94 95 96 100 103 105 114 121 122 126 126 127 126 127 126 127 126 127 125 127 124 131 132 138 143 144 -193 -193 -193 -177 213 212 211 210 212 213 211 -193 -209 -193 0 0 0 0 0
    0 0 0 0 0 0 0 0 0 0 0 0 0 0 0 0 0 0 0 0 0 0 0 0 0 0 0 0 0 0 0 0 0 0 0 0 0 0 0 0 0 0 0 0 0 0 0 0 0 0 0 0 0 0 0 0 0 0 0 0 0 0 0 0 0 0 0 0 0 -225 67 68 71 70 64 61 61 61 60 59 60 57 57 58 58 57 57 57 56 56 56 55 56 56 56 55 55 51 51 53 54 53 53 53 52 52 58 58 58 55 56 56 56 56 58 56 57 56 56 55 55 55 56 52 52 53 54 55 -193 -193 56 54 59 63 63 -225 -225 -225 42 44 42 42 43 53 51 50 51 54 53 53 52 52 50 51 52 49 45 44 45 48 50 51 53 54 58 63 67 68 66 54 46 46 52 56 53 54 53 53 54 55 54 55 51 -193 -193 -193 -193 54 54 55 53 56 56 56 45 55 55 55 53 54 58 52 53 53 54 56 56 58 59 58 61 63 62 61 61 61 59 58 58 55 58 63 61 62 67 72 70 70 69 71 72 71 71 72 72 73 73 74 74 74 74 75 74 74 74 76 78 78 80 88 90 93 94 94 93 93 93 94 94 92 90 89 87 88 88 88 87 86 87 88 88 88 90 91 93 94 95 95 100 103 104 112 119 122 125 126 127 126 127 126 127 126 127 125 127 125 132 134 140 150 -209 -209 -177 214 213 212 213 212 213 214 215 214 215 217 215 0 0 0 0 0
    0 0 0 0 0 0 0 0 0 0 0 0 0 0 0 0 0 0 0 0 0 0 0 0 0 0 0 0 0 0 0 0 0 0 0 0 0 0 0 0 0 0 0 0 0 0 0 0 0 0 0 0 0 0 0 0 0 0 0 0 0 0 0 0 0 0 0 0 0 -225 67 68 71 70 64 61 62 61 61 60 60 56 57 58 58 57 57 57 57 56 56 56 56 55 55 55 54 50 51 53 53 53 53 53 51 52 57 58 58 55 57 58 57 57 59 58 58 57 57 57 55 55 56 51 52 53 54 54 -193 -193 -193 53 59 63 -225 -225 -225 -225 41 41 41 40 42 53 50 49 51 54 53 53 52 52 49 51 51 48 43 43 44 45 47 48 51 53 57 63 68 70 67 53 46 46 52 -193 53 55 53 54 54 55 54 55 50 52 51 -209 -193 54 54 54 53 56 56 56 46 55 54 54 52 52 56 50 52 52 53 54 55 57 58 58 61 64 63 62 62 62 60 58 59 57 58 62 -193 63 68 -193 71 70 70 71 71 70 71 71 72 72 73 73 74 74 74 74 74 74 75 76 78 78 80 88 90 92 95 95 93 94 95 95 95 93 91 89 88 89 89 89 88 87 88 89 89 89 91 92 93 95 97 97 100 103 104 114 121 122 126 126 127 126 127 126 127 126 128 126 127 125 133 136 -177 -209 -209 -209 215 215 214 213 212 211 213 214 215 214 215 217 215 0 0 0 0 0
    0 0 0 0 0 0 0 0 0 0 0 0 0 0 0 0 0 0 0 0 0 0 0 0 0 0 0 0 0 0 0 0 0 0 0 0 0 0 0 0 0 0 0 0 0 0 0 0 0 0 0 0 0 0 0 0 0 0 0 0 0 0 0 0 0 0 0 0 0 -225 67 68 71 70 65 61 62 61 61 60 60 55 56 57 57 56 55 56 56 54 56 55 56 56 57 56 55 51 52 53 54 54 53 53 52 53 58 59 59 57 58 62 59 59 61 59 59 58 59 58 54 55 55 50 51 52 53 53 55 -193 -193 51 59 64 -225 -225 -225 -225 41 40 39 39 41 53 47 48 49 54 52 51 51 51 47 50 49 46 41 42 43 44 45 47 48 51 57 66 72 73 -209 -193 45 45 53 -193 54 56 54 54 55 56 55 55 50 51 50 -209 -193 53 53 54 52 56 56 56 46 55 55 54 51 49 56 49 51 50 51 53 54 56 58 58 61 64 63 63 62 62 60 59 60 59 60 64 70 64 -193 72 71 70 69 70 71 70 70 70 72 72 73 73 73 74 74 75 75 74 75 76 78 79 80 87 88 92 94 95 94 95 96 97 96 94 92 90 89 90 90 91 89 89 89 90 90 90 91 92 95 97 98 99 101 103 104 113 119 122 125 125 127 126 127 126 127 127 129 126 128 126 134 138 147 -209 -209 -209 -209 215 214 210 209 210 212 214 215 213 215 217 216 0 0 0 0 0
    0 0 0 0 0 0 0 0 0 0 0 0 0 0 0 0 0 0 0 0 0 0 0 0 0 0 0 0 0 0 0 0 0 0 0 0 0 0 0 0 0 0 0 0 0 0 0 0 0 0 0 0 0 0 0 0 0 0 0 0 0 0 0 0 0 0 0 0 0 -225 65 67 70 68 64 61 62 61 61 60 60 57 -193 -193 -193 55 55 55 55 54 56 55 57 58 64 59 56 52 53 54 55 55 55 -193 -193 -193 59 60 60 58 58 65 60 61 62 61 60 59 60 59 54 55 56 -193 -193 53 54 54 -209 -193 -193 54 60 66 -225 -225 -225 -225 -225 40 40 40 42 54 47 47 48 -193 50 50 49 50 45 49 48 44 40 41 42 43 44 48 51 53 60 71 75 78 -193 835 -193 43 51 -209 54 -193 54 55 56 57 56 56 51 52 50 -209 53 52 52 53 51 56 56 56 47 54 54 53 50 50 55 49 51 51 52 54 54 56 58 58 61 65 63 63 62 63 61 60 61 61 62 66 69 65 69 76 72 71 69 70 71 70 71 71 72 72 73 73 73 74 74 75 75 75 75 77 79 79 80 86 88 91 94 95 95 96 98 98 97 96 93 91 90 92 93 95 93 93 96 98 96 94 94 94 96 98 99 99 100 102 103 112 119 122 126 126 129 127 127 127 127 127 129 128 129 125 -193 -209 -209 -209 -209 -209 -209 215 213 208 207 208 211 214 215 212 215 216 216 0 0 0 0 0
    0 0 0 0 0 0 0 0 0 0 0 0 0 0 0 0 0 0 0 0 0 0 0 0 0 0 0 0 0 0 0 0 0 0 0 0 0 0 0 0 0 0 0 0 0 0 0 0 0 0 0 0 0 0 0 0 0 0 0 0 0 0 0 0 0 0 0 0 0 -225 -225 68 69 66 63 61 62 62 61 61 61 59 -193 -193 -209 56 55 56 57 55 56 55 59 60 65 59 56 52 53 55 56 56 -209 -193 -193 -209 59 61 60 58 58 66 60 61 63 61 61 60 61 60 55 -177 -193 -193 -193 53 -193 54 -209 -193 -193 56 61 -225 -225 -225 -225 -225 -225 -225 42 41 45 54 48 47 48 -193 50 50 49 49 44 47 45 42 38 40 41 43 44 49 53 53 60 72 77 85 -193 835 839 41 51 56 54 -209 55 55 57 58 57 -193 52 53 -193 -193 53 53 52 53 51 55 56 55 45 52 51 51 47 45 55 49 52 52 53 55 55 57 60 59 62 65 63 63 62 63 63 60 62 63 64 68 71 69 71 72 74 76 72 73 73 72 73 72 73 74 74 74 74 75 75 75 76 75 76 77 79 79 80 85 87 90 94 95 95 97 99 99 98 97 95 93 91 93 95 97 95 96 101 103 100 98 96 96 98 98 99 100 102 103 -193 116 -209 125 129 129 131 129 128 127 -177 -177 -177 129 -193 -209 -209 -209 251 253 254 -209 -209 214 211 206 205 206 209 212 213 209 213 216 215 0 0 0 0 0
    0 0 0 0 0 0 0 0 0 0 0 0 0 0 0 0 0 0 0 0 0 0 0 0 0 0 0 0 0 0 0 0 0 0 0 0 0 0 0 0 0 0 0 0 0 0 0 0 0 0 0 0 0 0 0 0 0 0 0 0 0 0 0 0 0 0 0 0 0 -225 -225 -225 -225 -225 -225 65 64 63 64 62 61 61 -193 -193 -209 -193 -193 58 61 -193 -177 57 59 63 67 60 58 52 54 58 59 59 -193 268 269 -193 -225 -225 -225 -225 -225 -225 -225 59 62 60 60 59 60 59 -209 -209 -209 -193 51 -193 -193 53 55 -193 -225 -225 -225 -225 -225 -225 -225 -225 -225 -225 -225 -225 -193 -209 -193 -209 -193 -177 -209 -193 48 47 41 44 -209 35 32 38 41 44 46 53 54 54 57 66 73 81 -193 -225 -193 43 52 57 55 57 55 56 58 59 59 -193 -193 -209 -193 -209 54 54 54 54 51 55 56 54 -193 -193 45 46 40 41 55 49 53 56 55 58 58 58 64 63 64 67 64 64 63 65 66 62 62 63 64 67 70 70 71 72 74 81 77 78 77 76 76 75 75 76 75 75 74 75 75 75 76 76 76 77 79 78 79 84 85 88 94 95 95 98 99 100 99 98 96 93 92 93 95 98 96 96 103 -209 -209 100 99 100 102 102 102 -193 -193 -209 -209 -209 -209 127 129 130 133 131 130 -193 -193 -193 -209 -209 -209 -177 -209 247 246 248 247 246 246 -209 214 204 205 205 207 209 208 204 209 213 214 0 0 0 0 0
    0 0 0 0 0 0 0 0 0 0 0 0 0 0 0 0 0 0 0 0 0 0 0 0 0 0 0 0 0 0 0 0 0 0 0 0 0 0 0 0 0 0 0 0 0 0 0 0 0 0 0 0 0 0 0 0 0 0 0 0 0 0 0 0 0 0 0 0 0 -225 -225 -225 -225 -225 -225 -225 -225 -225 -225 -225 -225 -225 -225 -225 -225 -225 -225 -225 -225 -225 -225 -225 -225 -225 -225 -225 -225 -225 -225 -225 -225 -225 -225 -225 -225 -225 -225 -225 -225 -225 -225 -225 -225 -225 -225 -225 -225 -225 -225 -225 -225 -225 -225 -225 -225 -225 -225 -225 -225 -225 -225 -225 -225 -225 -225 -225 -225 -225 -225 -225 -225 -225 -225 -225 -225 -225 -225 -225 -209 -209 -209 -225 -225 -225 -225 -225 -225 -225 -225 -225 -225 -225 -225 -225 -225 -225 -225 -225 -225 -225 -225 -225 -225 -225 56 58 56 57 -193 -209 -209 -209 -209 -209 -209 -209 55 55 55 54 51 55 56 -193 -193 -193 45 46 40 41 53 49 57 63 64 65 62 62 67 68 68 69 66 65 64 66 67 66 65 65 66 68 71 70 72 72 73 79 79 83 82 80 78 76 75 78 76 75 74 75 75 75 76 76 76 77 78 78 79 83 84 87 94 96 96 98 100 101 100 99 98 94 91 93 -193 97 96 97 103 108 -209 -209 -209 -209 -209 -209 -209 -209 -209 -209 -209 -209 -209 -209 -209 -209 -209 -209 -209 -209 196 -209 -209 243 250 251 248 247 244 245 243 243 242 237 229 204 207 205 206 208 207 203 207 209 211 0 0 0 0 0
    0 0 0 0 0 0 0 0 0 0 0 0 0 0 0 0 0 0 0 0 0 0 0 0 0 0 0 0 0 0 0 0 0 0 0 0 0 0 0 0 0 0 0 0 0 0 0 0 0 0 0 0 0 0 0 0 0 0 0 0 0 0 0 0 0 0 0 0 0 -225 -225 -225 -225 -225 -225 -225 -225 -225 -225 -225 -225 -225 -225 -225 -225 -225 -225 -225 -225 -225 -225 -225 -225 -225 -225 -225 -225 -225 -225 -225 -225 -225 -225 -225 -225 -225 -225 -225 -225 -225 -225 -225 -225 -225 -225 -225 -225 -225 -225 -225 -225 -225 -225 -225 -225 -225 -225 -225 -225 -225 -225 -225 -225 -225 -225 -225 -225 -225 -225 -225 -225 -225 -225 -225 -225 -225 -225 -225 -225 -225 -225 -225 -225 -225 -225 -225 -225 -225 -225 -225 -225 -225 -225 -225 -225 -225 -225 -225 -225 -225 -225 -225 -225 -225 -225 -225 -225 -225 -225 -225 -225 -225 -225 -225 -225 -225 -225 -225 -225 -225 -225 -225 -225 -225 -225 -225 -225 -225 -225 -225 -225 -209 0 0 -209 70 66 -177 69 70 70 70 68 67 64 66 67 67 67 67 67 69 71 71 72 73 73 79 77 83 82 79 78 76 76 78 76 75 74 75 75 75 76 76 76 77 79 79 80 83 84 87 -193 -209 96 98 100 101 101 100 99 94 91 93 97 102 -209 101 105 -209 -209 -209 -209 -209 -209 -209 -209 245 -209 254 -209 -209 -209 -209 -209 -209 -209 -209 175 185 193 -177 -193 243 249 246 243 246 241 243 243 243 242 240 236 -209 208 204 206 209 208 204 209 211 209 0 0 0 0 0
    0 0 0 0 0 0 0 0 0 0 0 0 0 0 0 0 0 0 0 0 0 0 0 0 0 0 0 0 0 0 0 0 0 0 0 0 0 0 0 0 0 0 0 0 0 0 0 0 0 0 0 0 0 0 0 0 0 0 0 0 0 0 0 0 0 0 0 0 0 -225 -225 -225 -225 -225 -225 -225 -225 -225 -225 -225 -225 -225 -225 -225 -225 -225 -225 -225 -225 -225 -225 -225 -225 -225 -225 -225 -225 -225 -225 -225 -225 -225 -225 -225 -225 -225 -225 -225 -225 -225 -225 -225 -225 -225 -225 -225 -225 -225 -225 -225 -225 -225 -225 -225 -225 -225 -225 -225 -225 -225 -225 -225 -225 -225 -225 -225 -225 -225 -225 -225 -225 -225 -225 -225 -225 -225 -225 -225 -225 -225 -225 -225 -225 -225 -225 -225 -225 -225 -225 -225 -225 -225 -225 -225 -225 -225 -225 -225 -225 -225 -225 -225 -225 -225 -225 -225 -225 -225 -225 -225 -225 -225 -225 -225 -225 -225 -225 -225 -225 -225 -225 -225 -225 -225 -225 -225 -225 -225 -225 -225 -225 -225 -225 -225 -225 -225 -225 -225 -225 -225 -225 -225 -225 -225 67 65 67 67 68 69 69 70 72 72 73 73 73 78 76 80 82 80 80 78 78 79 78 77 76 77 76 77 78 78 78 78 81 81 -209 -209 -209 -209 -209 -209 96 98 101 102 101 100 100 100 97 99 -209 -209 -193 -209 -209 -209 -209 -209 -209 -209 -209 -193 237 244 247 251 252 252 252 -209 -209 -209 -209 176 178 186 198 -177 230 238 247 242 240 245 241 243 243 243 242 240 239 237 -209 202 204 205 202 202 205 207 206 0 0 0 0 0
    0 0 0 0 0 0 0 0 0 0 0 0 0 0 0 0 0 0 0 0 0 0 0 0 0 0 0 0 0 0 0 0 0 0 0 0 0 0 0 0 0 0 0 0 0 0 0 0 0 0 0 0 0 0 0 0 0 0 0 0 0 0 0 0 0 0 0 0 0 -225 -225 -225 -225 -225 -225 -225 -225 -225 -225 -225 -225 -225 -225 -225 -225 -225 -225 -225 -225 -225 -225 -225 -225 -225 -225 -225 -225 -225 -225 -225 -225 -225 -225 -225 -225 -225 -225 -225 -225 -225 -225 -225 -225 -225 -225 -225 -225 -225 -225 -225 -225 -225 -225 -225 -225 -225 -225 -225 -225 -225 -225 -225 -225 -225 -225 -225 -225 -225 -225 -225 -225 -225 -225 -225 -225 -225 -225 -225 -225 -225 -225 -225 -225 -225 -225 -225 -225 -225 -225 -225 -225 -225 -225 -225 -225 -225 -225 -225 -225 -225 -225 -225 -225 -225 -225 -225 -225 -225 -225 -225 -225 -225 -225 -225 -225 -225 -225 -225 -225 -225 -225 -225 -225 -225 -225 -225 -225 -225 -225 -225 -225 -225 -225 -225 -225 -225 -225 -225 -225 -225 -225 -225 -225 -225 -225 -225 67 68 69 70 70 71 72 72 73 73 73 76 75 78 79 80 79 78 79 81 79 78 77 78 78 78 79 79 79 80 -209 -209 -209 -209 -209 -209 -209 -177 96 99 101 103 102 102 102 -209 -209 -193 300 298 -209 313 -209 -209 -209 -209 -209 239 -209 235 239 245 247 250 251 251 251 251 -193 -209 -209 -209 -209 -209 -209 230 240 247 250 245 241 245 241 243 243 243 242 241 242 241 -209 195 197 197 197 197 199 200 201 0 0 0 0 0
    0 0 0 0 0 0 0 0 0 0 0 0 0 0 0 0 0 0 0 0 0 0 0 0 0 0 0 0 0 0 0 0 0 0 0 0 0 0 0 0 0 0 0 0 0 0 0 0 0 0 0 0 0 0 0 0 0 0 0 0 0 0 0 0 0 0 0 0 0 -225 -225 -225 -225 -225 -225 -225 -225 -225 -225 -225 -225 -225 -225 -225 -225 -225 -225 -225 -225 -225 -225 -225 -225 -225 -225 -225 -225 -225 -225 -225 -225 -225 -225 -225 -225 -225 -225 -225 -225 -225 -225 -225 -225 -225 -225 -225 -225 -225 -225 -225 -225 -225 -225 -225 -225 -225 -225 -225 -225 -225 -225 -225 -225 -225 -225 -225 -225 -225 -225 -225 -225 -225 -225 -225 -225 -225 -225 -225 -225 -225 -225 -225 -225 -225 -225 -225 -225 -225 -225 -225 -225 -225 -225 -225 -225 -225 -225 -225 -225 -225 -225 -225 -225 -225 -225 -225 -225 -225 -225 -225 -225 -225 -225 -225 -225 -225 -225 -225 -225 -225 -225 -225 -225 -225 -225 -225 -225 -225 -225 -225 -225 -225 -225 -225 -225 -225 -225 -225 -225 -225 -225 -225 -225 -225 -225 -225 -225 70 70 71 72 72 73 73 74 74 74 77 75 78 79 79 80 81 83 84 83 82 80 81 80 80 81 -209 -209 -209 -209 -209 -209 -209 -209 -209 -209 -209 100 100 103 -209 -209 -209 264 277 285 294 -193 294 300 -209 -209 -209 -209 -209 237 243 242 239 243 246 247 250 250 250 250 251 252 252 251 251 253 255 256 254 252 250 251 245 241 245 240 242 242 242 241 240 242 242 -193 190 192 190 193 194 197 198 199 0 0 0 0 0
    0 0 0 0 0 0 0 0 0 0 0 0 0 0 0 0 0 0 0 0 0 0 0 0 0 0 0 0 0 0 0 0 0 0 0 0 0 0 0 0 0 0 0 0 0 0 0 0 0 0 0 0 0 0 0 0 0 0 0 0 0 0 0 0 0 0 0 0 0 -225 -225 -225 -225 -225 -225 -225 -225 -225 -225 -225 -225 -225 -225 -225 -225 -225 -225 -225 -225 -225 -225 -225 -225 -225 -225 -225 -225 -225 -225 -225 -225 -225 -225 -225 -225 -225 -225 -225 -225 -225 -225 -225 -225 -225 -225 -225 -225 -225 -225 -225 -225 -225 -225 -225 -225 -225 -225 -225 -225 -225 -225 -225 -225 -225 -225 -225 -225 -225 -225 -225 -225 -225 -225 -225 -225 -225 -225 -225 -225 -225 -225 -225 -225 -225 -225 -225 -225 -225 -225 -225 -225 -225 -225 -225 -225 -225 -225 -225 -225 -225 -225 -225 -225 -225 -225 -225 -225 -225 -225 -225 -225 -225 -225 -225 -225 -225 -225 -225 -225 -225 -225 -225 -225 -225 -225 -225 -225 -225 -225 -225 -225 -225 -225 -225 -225 -225 -225 -225 -225 -225 -225 -225 -225 -225 -225 -225 -225 -225 71 73 74 74 75 75 76 76 76 79 77 79 80 81 81 84 85 86 86 86 -193 -193 -209 -209 -209 -209 -209 -209 -209 -209 -209 -209 -209 -209 -209 -209 -209 -209 -209 245 249 253 261 266 277 -209 -193 283 294 -209 -209 -209 247 248 244 246 245 243 244 246 245 248 248 248 248 250 251 251 251 252 256 256 256 254 252 250 250 244 239 244 239 241 241 240 240 239 241 242 236 189 192 190 193 193 194 195 197 0 0 0 0 0
    0 0 0 0 0 0 0 0 0 0 0 0 0 0 0 0 0 0 0 0 0 0 0 0 0 0 0 0 0 0 0 0 0 0 0 0 0 0 0 0 0 0 0 0 0 0 0 0 0 0 0 0 0 0 0 0 0 0 0 0 0 0 0 0 0 0 0 0 0 -225 -225 -225 -225 -225 -225 -225 -225 -225 -225 -225 -225 -225 -225 -225 -225 -225 -225 -225 -225 -225 -225 -225 -225 -225 -225 -225 -225 -225 -225 -225 -225 -225 -225 -225 -225 -225 -225 -225 -225 -225 -225 -225 -225 -225 -225 -225 -225 -225 -225 -225 -225 -225 -225 -225 -225 -225 -225 -225 -225 -225 -225 -225 -225 -225 -225 -225 -225 -225 -225 -225 -225 -225 -225 -225 -225 -225 -225 -225 -225 -225 -225 -225 -225 -225 -225 -225 -225 -225 -225 -225 -225 -225 -225 -225 -225 -225 -225 -225 -225 -225 -225 -225 -225 -225 -225 -225 -225 -225 -225 -225 -225 -225 -225 -225 -225 -225 -225 -225 -225 -225 -225 -225 -225 -225 -225 -225 -225 -225 -225 -225 -225 -225 -225 -225 -225 -225 -225 -225 -225 -225 -225 -225 -225 -225 -225 -225 -225 -225 72 76 76 77 79 79 79 79 79 83 80 82 83 85 85 87 87 -209 -209 -209 -209 -209 -209 -209 -209 -209 -209 -209 -209 -209 -209 -209 -209 -209 -209 -209 -209 -209 228 233 240 247 252 259 -209 267 272 278 282 -209 269 257 248 250 247 248 245 241 242 244 242 245 246 246 247 250 251 251 251 252 256 255 254 -225 -225 -225 -225 -225 237 244 238 241 240 240 240 239 241 242 236 -225 -225 -225 194 195 195 196 194 0 0 0 0 0
    0 0 0 0 0 0 0 0 0 0 0 0 0 0 0 0 0 0 0 0 0 0 0 0 0 0 0 0 0 0 0 0 0 0 0 0 0 0 0 0 0 0 0 0 0 0 0 0 0 0 0 0 0 0 0 0 0 0 0 0 0 0 0 0 0 0 0 0 0 -225 -225 -225 -225 -225 -225 -225 -225 -225 -225 -225 -225 -225 -225 -225 -225 -225 -225 -225 -225 -225 -225 -225 -225 -225 -225 -225 -225 -225 -225 -225 -225 -225 -225 -225 -225 -225 -225 -225 -225 -225 -225 -225 -225 -225 -225 -225 -225 -225 -225 -225 -225 -225 -225 -225 -225 -225 -225 -225 -225 -225 -225 -225 -225 -225 -225 -225 -225 -225 -225 -225 -225 -225 -225 -225 -225 -225 -225 -225 -225 -225 -225 -225 -225 -225 -225 -225 -225 -225 -225 -225 -225 -225 -225 -225 -225 -225 -225 -225 -225 -225 -225 -225 -225 -225 -225 -225 -225 -225 -225 -225 -225 -225 -225 -225 -225 -225 -225 -225 -225 -225 -225 -225 -225 -225 -225 -225 -225 -225 -225 -225 -225 -225 -225 -225 -225 -225 -225 -225 -225 -225 -225 -225 -225 -225 -225 -225 -225 -225 73 77 78 78 80 80 81 82 80 83 81 81 84 86 88 94 -209 -209 -209 -209 -209 -209 -209 -209 -209 -209 194 198 200 201 202 216 231 -209 -209 233 230 224 226 230 233 242 248 252 262 260 265 271 274 265 263 253 249 250 249 250 246 244 244 245 244 245 246 246 247 250 251 251 -225 -225 -225 -225 -225 -225 -225 -225 -225 -225 236 244 238 241 240 240 240 239 241 242 236 -225 -225 -225 -225 -225 -225 198 196 0 0 0 0 0
    0 0 0 0 0 0 0 0 0 0 0 0 0 0 0 0 0 0 0 0 0 0 0 0 0 0 0 0 0 0 0 0 0 0 0 0 0 0 0 0 0 0 0 0 0 0 0 0 0 0 0 0 0 0 0 0 0 0 0 0 0 0 0 0 0 0 0 0 0 -225 -225 -225 -225 -225 -225 -225 -225 -225 -225 -225 -225 -225 -225 -225 -225 -225 -225 -225 -225 -225 -225 -225 -225 -225 -225 -225 -225 -225 -225 -225 -225 -225 -225 -225 -225 -225 -225 -225 -225 -225 -225 -225 -225 -225 -225 -225 -225 -225 -225 -225 -225 -225 -225 -225 -225 -225 -225 -225 -225 -225 -225 -225 -225 -225 -225 -225 -225 -225 -225 -225 -225 -225 -225 -225 -225 -225 -225 -225 -225 -225 -225 -225 -225 -225 -225 -225 -225 -225 -225 -225 -225 -225 -225 -225 -225 -225 -225 -225 -225 -225 -225 -225 -225 -225 -225 -225 -225 -225 -225 -225 -225 -225 -225 -225 -225 -225 -225 -225 -225 -225 -225 -225 -225 -225 -225 -225 -225 -225 -225 -225 -225 -225 -225 -225 -225 -225 -225 -225 -225 -225 -225 -225 -225 -225 -225 -225 -225 -209 74 80 80 80 81 82 83 83 83 84 81 81 85 88 93 106 121 134 -209 -209 -209 -209 -209 174 -209 184 186 192 198 201 205 217 224 229 228 231 228 223 223 228 232 237 242 249 254 251 255 265 263 259 251 250 247 249 249 250 246 244 244 245 244 245 246 245 -225 -225 -225 -225 -225 -225 -225 -225 -225 -225 -225 -225 -225 -225 -225 245 238 241 241 241 241 239 242 243 236 -225 -225 -225 -225 -225 -225 -225 -225 0 0 0 0 0
    0 0 0 0 0 0 0 0 0 0 0 0 0 0 0 0 0 0 0 0 0 0 0 0 0 0 0 0 0 0 0 0 0 0 0 0 0 0 0 0 0 0 0 0 0 0 0 0 0 0 0 0 0 0 0 0 0 0 0 0 0 0 0 0 0 0 0 0 0 -225 -225 -225 -225 -225 -225 -225 -225 -225 -225 -225 -225 -225 -225 -225 -225 -225 -225 -225 -225 -225 -225 -225 -225 -225 -225 -225 -225 -225 -225 -225 -225 -225 -225 -225 -225 -225 -225 -225 -225 -225 -225 -225 -225 -225 -225 -225 -225 -225 -225 -225 -225 -225 -225 -225 -225 -225 -225 -225 -225 -225 -225 -225 -225 -225 -225 -225 -225 -225 -225 -225 -225 -225 -225 -225 -225 -225 -225 -225 -225 -225 -225 -225 -225 -225 -225 -225 -225 -225 -225 -225 -225 -225 -225 -225 -225 -225 -225 -225 -225 -225 -225 -225 -225 -225 -225 -225 -225 -225 -225 -225 -225 -225 -225 -225 -225 -225 -225 -225 -225 -225 -225 -225 -225 -225 -225 -225 -225 -225 -225 -225 -225 -225 -225 -225 -225 -225 -225 -225 -225 -225 -225 -225 -225 -225 -225 -225 -209 -209 72 81 84 82 83 83 84 84 84 86 82 81 85 88 96 109 122 135 -193 -209 142 152 -209 165 -209 173 182 186 194 199 205 217 220 223 224 227 225 222 225 229 232 235 238 248 253 257 263 274 281 -193 259 254 250 249 249 250 246 244 244 -225 -225 -225 -225 -225 -225 -225 -225 -225 -225 -225 -225 -225 -225 -225 -225 -225 -225 -225 -225 -225 238 241 241 241 241 240 243 -225 -225 -225 -225 -225 -225 -225 -225 -225 -225 0 0 0 0 0
    0 0 0 0 0 0 0 0 0 0 0 0 0 0 0 0 0 0 0 0 0 0 0 0 0 0 0 0 0 0 0 0 0 0 0 0 0 0 0 0 0 0 0 0 0 0 0 0 0 0 0 0 0 0 0 0 0 0 0 0 0 0 0 0 0 0 0 0 0 -225 -225 -225 -225 -225 -225 -225 -225 -225 -225 -225 -225 -225 -225 -225 -225 -225 -225 -225 -225 -225 -225 -225 -225 -225 -225 -225 -225 -225 -225 -225 -225 -225 -225 -225 -225 -225 -225 -225 -225 -225 -225 -225 -225 -225 -225 -225 -225 -225 -225 -225 -225 -225 -225 -225 -225 -225 -225 -225 -225 -225 -225 -225 -225 -225 -225 -225 -225 -225 -225 -225 -225 -225 -225 -225 -225 -225 -225 -225 -225 -225 -225 -225 -225 -225 -225 -225 -225 -225 -225 -225 -225 -225 -225 -225 -225 -225 -225 -225 -225 -225 -225 -225 -225 -225 -225 -225 -225 -225 -225 -225 -225 -225 -225 -225 -225 -225 -225 -225 -225 -225 -225 -225 -225 -225 -225 -225 -225 -225 -225 -225 -225 -225 -225 -225 -225 -225 -225 -225 -225 -225 -225 -225 -225 -225 -225 -225 -209 -209 71 78 -209 83 84 84 84 85 85 87 85 83 86 90 100 112 125 138 141 140 146 152 156 162 166 -193 174 184 192 201 208 217 220 222 221 221 220 221 224 230 233 237 244 251 260 264 269 278 282 264 259 254 250 249 249 249 -225 -225 -225 -225 -225 -225 -225 -225 -225 -225 -225 -225 -225 -225 -225 -225 -225 -225 -225 -225 -225 -225 -225 -225 -225 -225 -225 -225 -225 -225 -225 -225 -225 -225 -225 -225 -225 -225 -225 -225 -225 0 0 0 0 0
    0 0 0 0 0 0 0 0 0 0 0 0 0 0 0 0 0 0 0 0 0 0 0 0 0 0 0 0 0 0 0 0 0 0 0 0 0 0 0 0 0 0 0 0 0 0 0 0 0 0 0 0 0 0 0 0 0 0 0 0 0 0 0 0 0 0 0 0 0 -225 -225 -225 -225 -225 -225 -225 -225 -225 -225 -225 -225 -225 -225 -225 -225 -225 -225 -225 -225 -225 -225 -225 -225 -225 -225 -225 -225 -225 -225 -225 -225 -225 -225 -225 -225 -225 -225 -225 -225 -225 -225 -225 -225 -225 -225 -225 -225 -225 -225 -225 -225 -225 -225 -225 -225 -225 -225 -225 -225 -225 -225 -225 -225 -225 -225 -225 -225 -225 -225 -225 -225 -225 -225 -225 -225 -225 -225 -225 -225 -225 -225 -225 -225 -225 -225 -225 -225 -225 -225 -225 -225 -225 -225 -225 -225 -225 -225 -225 -225 -225 -225 -225 -225 -225 -225 -225 -225 -225 -225 -225 -225 -225 -225 -225 -225 -225 -225 -225 -225 -225 -225 -225 -225 -225 -225 -225 -225 -225 -225 -225 -225 -225 -225 -225 -225 -225 -225 -225 -225 -225 -225 -225 -225 -225 -225 -225 -209 -209 71 77 -209 86 85 85 85 87 86 87 85 85 87 92 102 116 -177 139 148 151 150 154 161 167 169 172 172 184 194 201 210 218 222 223 222 221 220 222 228 233 241 249 252 256 262 264 269 278 282 264 259 -225 -225 -225 -225 -225 -225 -225 -225 -225 -225 -225 -225 -225 -225 -225 -225 -225 -225 -225 -225 -225 -225 -225 -225 -225 -225 -225 -225 -225 -225 -225 -225 -225 -225 -225 -225 -225 -225 -225 -225 -225 -225 -225 -225 -225 -225 0 0 0 0 0
    0 0 0 0 0 0 0 0 0 0 0 0 0 0 0 0 0 0 0 0 0 0 0 0 0 0 0 0 0 0 0 0 0 0 0 0 0 0 0 0 0 0 0 0 0 0 0 0 0 0 0 0 0 0 0 0 0 0 0 0 0 0 0 0 0 0 0 0 0 -225 -225 -225 -225 -225 -225 -225 -225 -225 -225 -225 -225 -225 -225 -225 -225 -225 -225 -225 -225 -225 -225 -225 -225 -225 -225 -225 -225 -225 -225 -225 -225 -225 -225 -225 -225 -225 -225 -225 -225 -225 -225 -225 -225 -225 -225 -225 -225 -225 -225 -225 -225 -225 -225 -225 -225 -225 -225 -225 -225 -225 -225 -225 -225 -225 -225 -225 -225 -225 -225 -225 -225 -225 -225 -225 -225 -225 -225 -225 -225 -225 -225 -225 -225 -225 -225 -225 -225 -225 -225 -225 -225 -225 -225 -225 -225 -225 -225 -225 -225 -225 -225 -225 -225 -225 -225 -225 -225 -225 -225 -225 -225 -225 -225 -225 -225 -225 -225 -225 -225 -225 -225 -225 -225 -225 -225 -225 -225 -225 -225 -225 -225 -225 -225 -225 -225 -225 -225 -225 -225 -225 -225 -225 -225 -225 -225 -225 -209 -209 71 -209 -209 -209 87 87 87 88 87 88 87 88 90 96 103 116 -177 141 -193 -209 155 160 167 171 177 179 174 184 195 202 211 218 223 225 225 224 223 226 230 233 240 249 251 256 262 264 -225 -225 -225 -225 -225 -225 -225 -225 -225 -225 -225 -225 -225 -225 -225 -225 -225 -225 -225 -225 -225 -225 -225 -225 -225 -225 -225 -225 -225 -225 -225 -225 -225 -225 -225 -225 -225 -225 -225 -225 -225 -225 -225 -225 -225 -225 -225 -225 -225 -225 -225 0 0 0 0 0
    0 0 0 0 0 0 0 0 0 0 0 0 0 0 0 0 0 0 0 0 0 0 0 0 0 0 0 0 0 0 0 0 0 0 0 0 0 0 0 0 0 0 0 0 0 0 0 0 0 0 0 0 0 0 0 0 0 0 0 0 0 0 0 0 0 0 0 0 0 -225 -225 -225 -225 -225 -225 -225 -225 -225 -225 -225 -225 -225 -225 -225 -225 -225 -225 -225 -225 -225 -225 -225 -225 -225 -225 -225 -225 -225 -225 -225 -225 -225 -225 -225 -225 -225 -225 -225 -225 -225 -225 -225 -225 -225 -225 -225 -225 -225 -225 -225 -225 -225 -225 -225 -225 -225 -225 -225 -225 -225 -225 -225 -225 -225 -225 -225 -225 -225 -225 -225 -225 -225 -225 -225 -225 -225 -225 -225 -225 -225 -225 -225 -225 -225 -225 -225 -225 -225 -225 -225 -225 -225 -225 -225 -225 -225 -225 -225 -225 -225 -225 -225 -225 -225 -225 -225 -225 -225 -225 -225 -225 -225 -225 -225 -225 -225 -225 -225 -225 -225 -225 -225 -225 -225 -225 -225 -225 -225 -225 -225 -225 -225 -225 -225 -225 -225 -225 -225 -225 -225 -225 -225 -225 -225 -225 -225 -209 -209 -209 -209 0 -209 86 89 89 90 88 88 88 90 94 101 104 -193 -209 -209 -209 -209 160 164 169 175 183 183 175 185 195 201 210 218 220 221 223 223 223 226 229 232 233 -225 -225 -225 -225 -225 -225 -225 -225 -225 -225 -225 -225 -225 -225 -225 -225 -225 -225 -225 -225 -225 -225 -225 -225 -225 -225 -225 -225 -225 -225 -225 -225 -225 -225 -225 -225 -225 -225 -225 -225 -225 -225 -225 -225 -225 -225 -225 -225 -225 -225 -225 -225 -225 -225 -225 -225 0 0 0 0 0
    0 0 0 0 0 0 0 0 0 0 0 0 0 0 0 0 0 0 0 0 0 0 0 0 0 0 0 0 0 0 0 0 0 0 0 0 0 0 0 0 0 0 0 0 0 0 0 0 0 0 0 0 0 0 0 0 0 0 0 0 0 0 0 0 0 0 0 0 0 -225 -225 -225 -225 -225 -225 -225 -225 -225 -225 -225 -225 -225 -225 -225 -225 -225 -225 -225 -225 -225 -225 -225 -225 -225 -225 -225 -225 -225 -225 -225 -225 -225 -225 -225 -225 -225 -225 -225 -225 -225 -225 -225 -225 -225 -225 -225 -225 -225 -225 -225 -225 -225 -225 -225 -225 -225 -225 -225 -225 -225 -225 -225 -225 -225 -225 -225 -225 -225 -225 -225 -225 -225 -225 -225 -225 -225 -225 -225 -225 -225 -225 -225 -225 -225 -225 -225 -225 -225 -225 -225 -225 -225 -225 -225 -225 -225 -225 -225 -225 -225 -225 -225 -225 -225 -225 -225 -225 -225 -225 -225 -225 -225 -225 -225 -225 -225 -225 -225 -225 -225 -225 -225 -225 -225 -225 -225 -225 -225 -225 -225 -225 -225 -225 -225 -225 -225 -225 -225 -225 -225 -225 -225 -225 -225 -225 -225 -209 -209 -209 0 11 20 -209 -209 89 -177 -193 87 88 91 98 103 106 -209 -209 -209 -209 -209 -209 165 169 177 183 182 172 184 194 202 211 219 222 222 222 221 220 221 -225 -225 -225 -225 -225 -225 -225 -225 -225 -225 -225 -225 -225 -225 -225 -225 -225 -225 -225 -225 -225 -225 -225 -225 -225 -225 -225 -225 -225 -225 -225 -225 -225 -225 -225 -225 -225 -225 -225 -225 -225 -225 -225 -225 -225 -225 -225 -225 -225 -225 -225 -225 -225 -225 -225 -225 -225 -225 -225 0 0 0 0 0
    0 0 0 0 0 0 0 0 0 0 0 0 0 0 0 0 0 0 0 0 0 0 0 0 0 0 0 0 0 0 0 0 0 0 0 0 0 0 0 0 0 0 0 0 0 0 0 0 0 0 0 0 0 0 0 0 0 0 0 0 0 0 0 0 0 0 0 0 0 -225 -225 -225 -225 -225 -225 -225 -225 -225 -225 -225 -225 -225 -225 -225 -225 -225 -225 -225 -225 -225 -225 -225 -225 -225 -225 -225 -225 -225 -225 -225 -225 -225 -225 -225 -225 -225 -225 -225 -225 -225 -225 -225 -225 -225 -225 -225 -225 -225 -225 -225 -225 -225 -225 -225 -225 -225 -225 -225 -225 -225 -225 -225 -225 -225 -225 -225 -225 -225 -225 -225 -225 -225 -225 -225 -225 -225 -225 -225 -225 -225 -225 -225 -225 -225 -225 -225 -225 -225 -225 -225 -225 -225 -225 -225 -225 -225 -225 -225 -225 -225 -225 -225 -225 -225 -225 -225 -225 -225 -225 -225 -225 -225 -225 -225 -225 -225 -225 -225 -225 -225 -225 -225 -225 -225 -225 -225 -225 -225 -225 -225 -225 -225 -225 -225 -225 -225 -225 -225 -225 -225 -225 -225 -225 -225 -225 -225 -225 -209 -193 -193 11 -209 -209 -209 -209 90 -193 86 87 90 97 103 -209 -209 -209 -209 -209 -209 -209 163 169 175 182 179 170 183 191 201 213 219 220 220 220 219 -225 -225 -225 -225 -225 -225 -225 -225 -225 -225 -225 -225 -225 -225 -225 -225 -225 -225 -225 -225 -225 -225 -225 -225 -225 -225 -225 -225 -225 -225 -225 -225 -225 -225 -225 -225 -225 -225 -225 -225 -225 -225 -225 -225 -225 -225 -225 -225 -225 -225 -225 -225 -225 -225 -225 -225 -225 -225 -225 -225 -225 0 0 0 0 0
    0 0 0 0 0 0 0 0 0 0 0 0 0 0 0 0 0 0 0 0 0 0 0 0 0 0 0 0 0 0 0 0 0 0 0 0 0 0 0 0 0 0 0 0 0 0 0 0 0 0 0 0 0 0 0 0 0 0 0 0 0 0 0 0 0 0 0 0 0 -225 -225 -225 -225 -225 -225 -225 -225 -225 -225 -225 -225 -225 -225 -225 -225 -225 -225 -225 -225 -225 -225 -225 -225 -225 -225 -225 -225 -225 -225 -225 -225 -225 -225 -225 -225 -225 -225 -225 -225 -225 -225 -225 -225 -225 -225 -225 -225 -225 -225 -225 -225 -225 -225 -225 -225 -225 -225 -225 -225 -225 -225 -225 -225 -225 -225 -225 -225 -225 -225 -225 -225 -225 -225 -225 -225 -225 -225 -225 -225 -225 -225 -225 -225 -225 -225 -225 -225 -225 -225 -225 -225 -225 -225 -225 -225 -225 -225 -225 -225 -225 -225 -225 -225 -225 -225 -225 -225 -225 -225 -225 -225 -225 -225 -225 -225 -225 -225 -225 -225 -225 -225 -225 -225 -225 -225 -225 -225 -225 -225 -225 -225 -225 -225 -225 -225 -225 -225 -225 -225 -225 -225 -225 -225 -225 -225 -225 -225 -225 -225 -225 -209 -209 -209 -209 -209 -209 87 86 87 92 100 -193 -209 -209 -209 -209 -209 -209 -209 165 -209 175 182 -209 -209 -209 196 204 214 219 219 219 219 -225 -225 -225 -225 -225 -225 -225 -225 -225 -225 -225 -225 -225 -225 -225 -225 -225 -225 -225 -225 -225 -225 -225 -225 -225 -225 -225 -225 -225 -225 -225 -225 -225 -225 -225 -225 -225 -225 -225 -225 -225 -225 -225 -225 -225 -225 -225 -225 -225 -225 -225 -225 -225 -225 -225 -225 -225 -225 -225 -225 -225 -225 0 0 0 0 0
    0 0 0 0 0 0 0 0 0 0 0 0 0 0 0 0 0 0 0 0 0 0 0 0 0 0 0 0 0 0 0 0 0 0 0 0 0 0 0 0 0 0 0 0 0 0 0 0 0 0 0 0 0 0 0 0 0 0 0 0 0 0 0 0 0 0 0 0 0 -225 -225 -225 -225 -225 -225 -225 -225 -225 -225 -225 -225 -225 -225 -225 -225 -225 -225 -225 -225 -225 -225 -225 -225 -225 -225 -225 -225 -225 -225 -225 -225 -225 -225 -225 -225 -225 -225 -225 -225 -225 -225 -225 -225 -225 -225 -225 -225 -225 -225 -225 -225 -225 -225 -225 -225 -225 -225 -225 -225 -225 -225 -225 -225 -225 -225 -225 -225 -225 -225 -225 -225 -225 -225 -225 -225 -225 -225 -225 -225 -225 -225 -225 -225 -225 -225 -225 -225 -225 -225 -225 -225 -225 -225 -225 -225 -225 -225 -225 -225 -225 -225 -225 -225 -225 -225 -225 -225 -225 -225 -225 -225 -225 -225 -225 -225 -225 -225 -225 -225 -225 -225 -225 -225 -225 -225 -225 -225 -225 -225 -225 -225 -225 -225 -225 -225 -225 -225 -225 -225 -225 -225 -225 -225 -225 -225 -225 -225 -225 -225 -225 -225 -225 -225 -209 -225 -209 86 86 87 93 102 107 -209 -209 -209 -209 -209 -209 -209 -209 174 183 186 -209 -209 -209 -209 213 217 221 220 220 -225 -225 -225 -225 -225 -225 -225 -225 -225 -225 -225 -225 -225 -225 -225 -225 -225 -225 -225 -225 -225 -225 -225 -225 -225 -225 -225 -225 -225 -225 -225 -225 -225 -225 -225 -225 -225 -225 -225 -225 -225 -225 -225 -225 -225 -225 -225 -225 -225 -225 -225 -225 -225 -225 -225 -225 -225 -225 -225 -225 -225 -225 -225 0 0 0 0 0
    0 0 0 0 0 0 0 0 0 0 0 0 0 0 0 0 0 0 0 0 0 0 0 0 0 0 0 0 0 0 0 0 0 0 0 0 0 0 0 0 0 0 0 0 0 0 0 0 0 0 0 0 0 0 0 0 0 0 0 0 0 0 0 0 0 0 0 0 0 -225 -225 -225 -225 -225 -225 -225 -225 -225 -225 -225 -225 -225 -225 -225 -225 -225 -225 -225 -225 -225 -225 -225 -225 -225 -225 -225 -225 -225 -225 -225 -225 -225 -225 -225 -225 -225 -225 -225 -225 -225 -225 -225 -225 -225 -225 -225 -225 -225 -225 -225 -225 -225 -225 -225 -225 -225 -225 -225 -225 -225 -225 -225 -225 -225 -225 -225 -225 -225 -225 -225 -225 -225 -225 -225 -225 -225 -225 -225 -225 -225 -225 -225 -225 -225 -225 -225 -225 -225 -225 -225 -225 -225 -225 -225 -225 -225 -225 -225 -225 -225 -225 -225 -225 -225 -225 -225 -225 -225 -225 -225 -225 -225 -225 -225 -225 -225 -225 -225 -225 -225 -225 -225 -225 -225 -225 -225 -225 -225 -225 -225 -225 -225 -225 -225 -225 -225 -225 -225 -225 -225 -225 -225 -225 -225 -225 -225 -225 -225 -225 -225 -225 -225 -225 -225 -225 -225 -225 86 88 97 105 -209 -209 -209 -209 -209 -209 178 181 183 184 187 191 194 -209 -193 -193 220 228 232 226 -225 -225 -225 -225 -225 -225 -225 -225 -225 -225 -225 -225 -225 -225 -225 -225 -225 -225 -225 -225 -225 -225 -225 -225 -225 -225 -225 -225 -225 -225 -225 -225 -225 -225 -225 -225 -225 -225 -225 -225 -225 -225 -225 -225 -225 -225 -225 -225 -225 -225 -225 -225 -225 -225 -225 -225 -225 -225 -225 -225 -225 -225 -225 -225 0 0 0 0 0
    0 0 0 0 0 0 0 0 0 0 0 0 0 0 0 0 0 0 0 0 0 0 0 0 0 0 0 0 0 0 0 0 0 0 0 0 0 0 0 0 0 0 0 0 0 0 0 0 0 0 0 0 0 0 0 0 0 0 0 0 0 0 0 0 0 0 0 0 0 -225 -225 -225 -225 -225 -225 -225 -225 -225 -225 -225 -225 -225 -225 -225 -225 -225 -225 -225 -225 -225 -225 -225 -225 -225 -225 -225 -225 -225 -225 -225 -225 -225 -225 -225 -225 -225 -225 -225 -225 -225 -225 -225 -225 -225 -225 -225 -225 -225 -225 -225 -225 -225 -225 -225 -225 -225 -225 -225 -225 -225 -225 -225 -225 -225 -225 -225 -225 -225 -225 -225 -225 -225 -225 -225 -225 -225 -225 -225 -225 -225 -225 -225 -225 -225 -225 -225 -225 -225 -225 -225 -225 -225 -225 -225 -225 -225 -225 -225 -225 -225 -225 -225 -225 -225 -225 -225 -225 -225 -225 -225 -225 -225 -225 -225 -225 -225 -225 -225 -225 -225 -225 -225 -225 -225 -225 -225 -225 -225 -225 -225 -225 -225 -225 -225 -225 -225 -225 -225 -225 -225 -225 -225 -225 -225 -225 -225 -225 -225 -225 -225 -225 -225 -225 -225 -225 -225 -225 86 89 101 112 126 -177 -209 -209 -209 -209 186 187 189 190 195 199 199 193 209 222 233 239 -225 -225 -225 -225 -225 -225 -225 -225 -225 -225 -225 -225 -225 -225 -225 -225 -225 -225 -225 -225 -225 -225 -225 -225 -225 -225 -225 -225 -225 -225 -225 -225 -225 -225 -225 -225 -225 -225 -225 -225 -225 -225 -225 -225 -225 -225 -225 -225 -225 -225 -225 -225 -225 -225 -225 -225 -225 -225 -225 -225 -225 -225 -225 -225 -225 -225 0 0 0 0 0
    0 0 0 0 0 0 0 0 0 0 0 0 0 0 0 0 0 0 0 0 0 0 0 0 0 0 0 0 0 0 0 0 0 0 0 0 0 0 0 0 0 0 0 0 0 0 0 0 0 0 0 0 0 0 0 0 0 0 0 0 0 0 0 0 0 0 0 0 0 -225 -225 -225 -225 -225 -225 -225 -225 -225 -225 -225 -225 -225 -225 -225 -225 -225 -225 -225 -225 -225 -225 -225 -225 -225 -225 -225 -225 -225 -225 -225 -225 -225 -225 -225 -225 -225 -225 -225 -225 -225 -225 -225 -225 -225 -225 -225 -225 -225 -225 -225 -225 -225 -225 -225 -225 -225 -225 -225 -225 -225 -225 -225 -225 -225 -225 -225 -225 -225 -225 -225 -225 -225 -225 -225 -225 -225 -225 -225 -225 -225 -225 -225 -225 -225 -225 -225 -225 -225 -225 -225 -225 -225 -225 -225 -225 -225 -225 -225 -225 -225 -225 -225 -225 -225 -225 -225 -225 -225 -225 -225 -225 -225 -225 -225 -225 -225 -225 -225 -225 -225 -225 -225 -225 -225 -225 -225 -225 -225 -225 -225 -225 -225 -225 -225 -225 -225 -225 -225 -225 -225 -225 -225 -225 -225 -225 -225 -225 -225 -225 -225 -225 -225 -225 -225 -225 -225 -225 -225 92 104 119 135 -209 -209 -209 -209 191 194 196 197 198 199 202 202 199 215 230 -225 -225 -225 -225 -225 -225 -225 -225 -225 -225 -225 -225 -225 -225 -225 -225 -225 -225 -225 -225 -225 -225 -225 -225 -225 -225 -225 -225 -225 -225 -225 -225 -225 -225 -225 -225 -225 -225 -225 -225 -225 -225 -225 -225 -225 -225 -225 -225 -225 -225 -225 -225 -225 -225 -225 -225 -225 -225 -225 -225 -225 -225 -225 -225 -225 -225 -225 -225 0 0 0 0 0
    0 0 0 0 0 0 0 0 0 0 0 0 0 0 0 0 0 0 0 0 0 0 0 0 0 0 0 0 0 0 0 0 0 0 0 0 0 0 0 0 0 0 0 0 0 0 0 0 0 0 0 0 0 0 0 0 0 0 0 0 0 0 0 0 0 0 0 0 0 -225 -225 -225 -225 -225 -225 -225 -225 -225 -225 -225 -225 -225 -225 -225 -225 -225 -225 -225 -225 -225 -225 -225 -225 -225 -225 -225 -225 -225 -225 -225 -225 -225 -225 -225 -225 -225 -225 -225 -225 -225 -225 -225 -225 -225 -225 -225 -225 -225 -225 -225 -225 -225 -225 -225 -225 -225 -225 -225 -225 -225 -225 -225 -225 -225 -225 -225 -225 -225 -225 -225 -225 -225 -225 -225 -225 -225 -225 -225 -225 -225 -225 -225 -225 -225 -225 -225 -225 -225 -225 -225 -225 -225 -225 -225 -225 -225 -225 -225 -225 -225 -225 -225 -225 -225 -225 -225 -225 -225 -225 -225 -225 -225 -225 -225 -225 -225 -225 -225 -225 -225 -225 -225 -225 -225 -225 -225 -225 -225 -225 -225 -225 -225 -225 -225 -225 -225 -225 -225 -225 -225 -225 -225 -225 -225 -225 -225 -225 -225 -225 -225 -225 -225 -225 -225 -225 -225 -225 -225 -225 -209 -209 -209 -209 -209 -209 -209 -209 -209 -209 -209 203 203 207 209 205 220 -225 -225 -225 -225 -225 -225 -225 -225 -225 -225 -225 -225 -225 -225 -225 -225 -225 -225 -225 -225 -225 -225 -225 -225 -225 -225 -225 -225 -225 -225 -225 -225 -225 -225 -225 -225 -225 -225 -225 -225 -225 -225 -225 -225 -225 -225 -225 -225 -225 -225 -225 -225 -225 -225 -225 -225 -225 -225 -225 -225 -225 -225 -225 -225 -225 -225 -225 -225 -225 0 0 0 0 0
    0 0 0 0 0 0 0 0 0 0 0 0 0 0 0 0 0 0 0 0 0 0 0 0 0 0 0 0 0 0 0 0 0 0 0 0 0 0 0 0 0 0 0 0 0 0 0 0 0 0 0 0 0 0 0 0 0 0 0 0 0 0 0 0 0 0 0 0 0 -225 -225 -225 -225 -225 -225 -225 -225 -225 -225 -225 -225 -225 -225 -225 -225 -225 -225 -225 -225 -225 -225 -225 -225 -225 -225 -225 -225 -225 -225 -225 -225 -225 -225 -225 -225 -225 -225 -225 -225 -225 -225 -225 -225 -225 -225 -225 -225 -225 -225 -225 -225 -225 -225 -225 -225 -225 -225 -225 -225 -225 -225 -225 -225 -225 -225 -225 -225 -225 -225 -225 -225 -225 -225 -225 -225 -225 -225 -225 -225 -225 -225 -225 -225 -225 -225 -225 -225 -225 -225 -225 -225 -225 -225 -225 -225 -225 -225 -225 -225 -225 -225 -225 -225 -225 -225 -225 -225 -225 -225 -225 -225 -225 -225 -225 -225 -225 -225 -225 -225 -225 -225 -225 -225 -225 -225 -225 -225 -225 -225 -225 -225 -225 -225 -225 -225 -225 -225 -225 -225 -225 -225 -225 -225 -225 -225 -225 -225 -225 -225 -225 -225 -225 -225 -225 -225 -225 -225 -225 -225 -225 227 232 230 231 231 231 231 230 231 -193 -209 -209 -209 -209 -225 -225 -225 -225 -225 -225 -225 -225 -225 -225 -225 -225 -225 -225 -225 -225 -225 -225 -225 -225 -225 -225 -225 -225 -225 -225 -225 -225 -225 -225 -225 -225 -225 -225 -225 -225 -225 -225 -225 -225 -225 -225 -225 -225 -225 -225 -225 -225 -225 -225 -225 -225 -225 -225 -225 -225 -225 -225 -225 -225 -225 -225 -225 -225 -225 -225 -225 -225 -225 -225 -225 0 0 0 0 0
    0 0 0 0 0 0 0 0 0 0 0 0 0 0 0 0 0 0 0 0 0 0 0 0 0 0 0 0 0 0 0 0 0 0 0 0 0 0 0 0 0 0 0 0 0 0 0 0 0 0 0 0 0 0 0 0 0 0 0 0 0 0 0 0 0 0 0 0 0 -225 -225 -225 -225 -225 -225 -225 -225 -225 -225 -225 -225 -225 -225 -225 -225 -225 -225 -225 -225 -225 -225 -225 -225 -225 -225 -225 -225 -225 -225 -225 -225 -225 -225 -225 -225 -225 -225 -225 -225 -225 -225 -225 -225 -225 -225 -225 -225 -225 -225 -225 -225 -225 -225 -225 -225 -225 -225 -225 -225 -225 -225 -225 -225 -225 -225 -225 -225 -225 -225 -225 -225 -225 -225 -225 -225 -225 -225 -225 -225 -225 -225 -225 -225 -225 -225 -225 -225 -225 -225 -225 -225 -225 -225 -225 -225 -225 -225 -225 -225 -225 -225 -225 -225 -225 -225 -225 -225 -225 -225 -225 -225 -225 -225 -225 -225 -225 -225 -225 -225 -225 -225 -225 -225 -225 -225 -225 -225 -225 -225 -225 -225 -225 -225 -225 -225 -225 -225 -225 -225 -225 -225 -225 -225 -225 -225 -225 -225 -225 -225 -225 -225 -225 -225 -225 -225 -225 -225 -225 -225 -225 -225 232 228 230 231 230 230 230 231 233 227 235 235 -225 -225 -225 -225 -225 -225 -225 -225 -225 -225 -225 -225 -225 -225 -225 -225 -225 -225 -225 -225 -225 -225 -225 -225 -225 -225 -225 -225 -225 -225 -225 -225 -225 -225 -225 -225 -225 -225 -225 -225 -225 -225 -225 -225 -225 -225 -225 -225 -225 -225 -225 -225 -225 -225 -225 -225 -225 -225 -225 -225 -225 -225 -225 -225 -225 -225 -225 -225 -225 -225 -225 -225 0 0 0 0 0
    0 0 0 0 0 0 0 0 0 0 0 0 0 0 0 0 0 0 0 0 0 0 0 0 0 0 0 0 0 0 0 0 0 0 0 0 0 0 0 0 0 0 0 0 0 0 0 0 0 0 0 0 0 0 0 0 0 0 0 0 0 0 0 0 0 0 0 0 0 -225 -225 -225 -225 -225 -225 -225 -225 -225 -225 -225 -225 -225 -225 -225 -225 -225 -225 -225 -225 -225 -225 -225 -225 -225 -225 -225 -225 -225 -225 -225 -225 -225 -225 -225 -225 -225 -225 -225 -225 -225 -225 -225 -225 -225 -225 -225 -225 -225 -225 -225 -225 -225 -225 -225 -225 -225 -225 -225 -225 -225 -225 -225 -225 -225 -225 -225 -225 -225 -225 -225 -225 -225 -225 -225 -225 -225 -225 -225 -225 -225 -225 -225 -225 -225 -225 -225 -225 -225 -225 -225 -225 -225 -225 -225 -225 -225 -225 -225 -225 -225 -225 -225 -225 -225 -225 -225 -225 -225 -225 -225 -225 -225 -225 -225 -225 -225 -225 -225 -225 -225 -225 -225 -225 -225 -225 -225 -225 -225 -225 -225 -225 -225 -225 -225 -225 -225 -225 -225 -225 -225 -225 -225 -225 -225 -225 -225 -225 -225 -225 -225 -225 -225 -225 -225 -225 -225 -225 -225 -225 -225 226 231 227 229 230 230 230 230 231 232 227 235 -225 -225 -225 -225 -225 -225 -225 -225 -225 -225 -225 -225 -225 -225 -225 -225 -225 -225 -225 -225 -225 -225 -225 -225 -225 -225 -225 -225 -225 -225 -225 -225 -225 -225 -225 -225 -225 -225 -225 -225 -225 -225 -225 -225 -225 -225 -225 -225 -225 -225 -225 -225 -225 -225 -225 -225 -225 -225 -225 -225 -225 -225 -225 -225 -225 -225 -225 -225 -225 -225 -225 -225 -225 0 0 0 0 0</data></disparity>
</opencv_storage>
