<?xml version="1.0"?>
<opencv_storage>
<gps_time_stamp>304888</gps_time_stamp>
<gps_x>-1.2408473014831543e+001</gps_x>
<gps_y>1.0962717056274414e+001</gps_y>
<gps_z>-2.0330376625061035e+000</gps_z>
<image_time_stamp>295759</image_time_stamp>
<disparity type_id="opencv-matrix">
  <rows>89</rows>
  <cols>320</cols>
  <dt>s</dt>
  <data>
    0 0 0 0 0 0 0 0 0 0 0 0 0 0 0 0 0 0 0 0 0 0 0 0 0 0 0 0 0 0 0 0 0 0 0 0 0 0 0 0 0 0 0 0 0 0 0 0 0 0 0 0 0 0 0 0 0 0 0 0 0 0 0 0 0 0 0 0 0 -225 -225 -225 -225 -225 -225 47 42 41 38 40 44 42 43 41 41 40 41 40 40 40 40 40 39 39 39 38 38 37 37 36 35 36 35 35 35 34 33 32 32 34 33 35 33 30 29 30 28 27 26 25 24 24 24 23 22 19 17 16 19 17 -193 -193 -209 -209 -209 -209 64 -193 -209 -209 -209 -209 -209 -209 -209 -193 -209 -209 -209 -209 -209 -209 -209 -209 -209 -209 -209 -209 -193 -209 -193 -209 -209 -193 -193 31 31 31 30 -209 -209 31 34 29 29 31 -193 -193 -209 -209 -209 -209 -209 -209 -209 -209 -209 -209 -209 -193 -193 -209 -177 -177 333 55 53 50 52 51 49 48 48 49 50 52 53 55 58 60 64 64 65 67 68 67 69 66 67 67 68 69 70 70 70 70 77 81 79 80 81 81 84 85 86 86 90 92 93 93 93 93 95 94 95 96 97 98 99 100 101 102 104 106 106 108 108 109 110 109 109 111 116 123 123 124 127 129 129 132 129 129 127 130 131 130 129 129 124 131 132 132 130 136 147 148 149 150 152 -209 153 153 154 154 155 156 158 158 158 163 163 163 165 166 166 167 168 170 172 173 173 174 173 174 175 0 0 0 0 0
    0 0 0 0 0 0 0 0 0 0 0 0 0 0 0 0 0 0 0 0 0 0 0 0 0 0 0 0 0 0 0 0 0 0 0 0 0 0 0 0 0 0 0 0 0 0 0 0 0 0 0 0 0 0 0 0 0 0 0 0 0 0 0 0 0 0 0 0 0 -225 -225 -225 -225 -225 45 43 40 38 34 39 41 41 42 42 41 40 40 40 40 40 40 40 39 39 38 38 38 37 36 36 34 35 34 33 33 32 31 31 30 33 34 36 35 32 30 32 28 28 27 26 25 25 25 24 22 20 16 14 17 16 12 -209 -209 -209 -209 -209 -193 71 -209 -209 -209 -209 -209 -209 -209 -209 -209 -209 -209 -209 -209 -209 -209 -209 0 -209 -209 -209 -193 -209 -209 -209 -209 -193 -193 28 29 28 26 28 26 29 31 29 29 32 -193 -193 -177 -177 -193 -209 -209 -209 -209 -209 -193 -209 -209 -209 -193 -209 -177 -177 -209 51 46 47 50 49 47 47 47 49 50 52 53 55 58 62 64 63 65 66 68 67 69 66 67 67 68 69 70 70 70 70 77 80 79 79 80 80 83 85 86 85 90 92 93 93 93 93 94 94 95 96 97 97 100 100 101 102 104 106 106 107 108 109 109 109 109 110 116 123 123 124 126 130 129 132 129 129 127 130 131 130 128 129 124 132 132 133 131 136 147 150 150 151 152 -193 153 154 155 155 155 157 159 159 158 162 163 163 165 166 166 167 168 170 172 173 173 173 173 174 174 0 0 0 0 0
    0 0 0 0 0 0 0 0 0 0 0 0 0 0 0 0 0 0 0 0 0 0 0 0 0 0 0 0 0 0 0 0 0 0 0 0 0 0 0 0 0 0 0 0 0 0 0 0 0 0 0 0 0 0 0 0 0 0 0 0 0 0 0 0 0 0 0 0 0 49 -225 -225 -225 -225 42 41 37 36 31 36 38 41 42 42 41 41 41 40 40 40 40 40 39 39 38 38 37 37 36 35 34 34 32 32 32 31 31 30 29 30 32 35 36 33 30 33 29 29 28 27 26 25 25 25 23 21 15 13 15 15 13 12 -193 -209 -209 -209 -209 -209 -209 -193 -193 -209 -209 -209 -209 -209 -209 -209 -209 -209 -209 -209 -193 -209 0 -193 -209 -209 -209 -209 -209 -209 -209 -193 -193 26 27 26 23 24 22 27 29 28 -193 -193 -209 174 -193 179 -177 -209 -209 -209 -209 -209 -209 -209 -209 -209 -193 -193 326 329 -209 -209 -193 45 46 47 46 46 46 48 50 51 53 55 58 62 63 63 64 66 67 66 68 66 66 67 69 69 70 70 71 70 77 80 79 79 80 79 83 85 85 84 90 92 94 93 94 94 93 94 94 96 97 98 100 100 101 103 104 106 106 107 108 108 109 109 109 110 115 124 123 124 125 130 129 132 129 129 127 130 131 130 128 129 124 132 132 133 132 136 147 150 151 151 152 -193 154 154 155 155 155 157 159 159 158 162 163 164 165 166 166 167 168 169 171 172 172 172 172 173 173 0 0 0 0 0
    0 0 0 0 0 0 0 0 0 0 0 0 0 0 0 0 0 0 0 0 0 0 0 0 0 0 0 0 0 0 0 0 0 0 0 0 0 0 0 0 0 0 0 0 0 0 0 0 0 0 0 0 0 0 0 0 0 0 0 0 0 0 0 0 0 0 0 0 0 50 51 45 -225 -225 43 42 37 -225 -225 -225 -225 40 42 42 42 42 41 41 41 40 40 40 39 39 38 37 37 36 36 35 34 34 32 31 32 31 30 30 29 28 29 32 35 34 30 35 29 30 28 27 26 26 26 26 23 21 15 13 13 15 15 13 12 -209 -209 -209 -209 -209 -209 1008 1008 -209 147 152 -209 -209 -209 -209 -209 -209 -209 -209 -193 10 10 11 -209 -209 -209 -209 -209 -209 -209 -209 -209 -193 27 26 20 17 10 -209 -209 -209 -209 -209 -209 -193 -193 -177 -209 -209 -209 -209 -209 -209 -209 -209 -209 -209 325 325 325 -193 -209 45 42 46 46 46 46 46 46 48 49 51 53 56 60 63 63 63 63 66 67 65 68 66 66 68 69 70 71 70 71 71 77 79 79 78 79 78 82 83 84 82 89 91 92 92 92 93 93 94 94 95 97 99 100 100 102 103 104 106 106 107 108 108 109 109 109 110 115 123 123 124 125 130 129 132 129 129 126 130 131 130 128 129 124 132 133 133 133 136 146 151 151 152 152 157 155 155 156 156 155 158 159 159 157 162 163 164 166 166 166 167 168 169 170 171 172 172 172 173 173 0 0 0 0 0
    0 0 0 0 0 0 0 0 0 0 0 0 0 0 0 0 0 0 0 0 0 0 0 0 0 0 0 0 0 0 0 0 0 0 0 0 0 0 0 0 0 0 0 0 0 0 0 0 0 0 0 0 0 0 0 0 0 0 0 0 0 0 0 0 0 0 0 0 0 51 51 46 45 44 43 43 38 -225 -225 -225 -225 -225 39 40 40 41 41 40 40 40 40 40 39 39 38 37 37 36 35 35 34 34 32 31 31 31 30 29 29 28 28 30 34 35 30 36 30 31 29 28 27 26 26 26 24 22 15 13 13 14 16 13 12 10 -193 -209 -209 -209 -209 999 1008 -209 147 153 161 -209 -209 -209 -209 -209 -193 -209 -193 -193 11 12 -209 -209 -209 -209 -209 -209 -209 -209 -193 -209 26 26 -209 -209 -209 -209 -209 -209 -209 -209 -193 -193 -193 -193 -209 -209 -209 -209 -209 -209 -209 -209 -209 -209 321 -193 323 -209 -209 44 44 46 46 46 45 45 46 47 48 50 53 56 62 63 63 63 62 65 66 65 67 66 67 68 69 70 71 71 72 73 77 79 79 78 79 79 83 84 85 83 89 91 91 91 92 92 93 94 94 95 98 99 101 101 103 104 103 105 106 107 107 107 108 109 109 111 116 122 122 124 125 130 130 132 130 130 127 131 131 131 129 130 125 132 133 134 134 136 147 152 152 153 153 159 155 156 156 156 156 158 158 159 157 162 163 164 166 166 167 167 168 168 170 171 171 171 171 172 172 0 0 0 0 0
    0 0 0 0 0 0 0 0 0 0 0 0 0 0 0 0 0 0 0 0 0 0 0 0 0 0 0 0 0 0 0 0 0 0 0 0 0 0 0 0 0 0 0 0 0 0 0 0 0 0 0 0 0 0 0 0 0 0 0 0 0 0 0 0 0 0 0 0 0 51 50 46 45 45 44 44 39 -225 -225 -225 -225 -225 37 40 40 40 40 40 40 40 40 39 39 39 38 37 37 36 35 35 33 34 32 31 31 31 30 30 29 29 28 30 33 34 30 36 30 32 30 29 28 27 27 27 24 22 16 13 14 14 17 14 14 11 10 -209 -209 -209 -209 997 1000 1008 -193 -193 165 -209 -209 -209 -209 -209 -193 -193 -193 10 12 13 -193 -209 -209 -209 -193 -209 -209 -209 -193 -193 26 27 -209 -209 -209 -209 -209 -193 -209 -209 -193 -193 -193 -209 -209 -209 -209 -209 -209 -209 -209 -209 -209 -209 -193 -209 -193 -209 36 39 41 44 44 45 45 45 47 48 49 50 53 56 61 61 62 61 61 64 66 64 67 67 68 69 71 71 72 71 73 74 77 79 79 78 79 79 83 84 85 84 89 90 91 91 91 92 93 94 94 97 99 99 101 101 103 104 103 105 105 106 107 107 108 109 109 111 116 124 123 124 125 130 130 132 130 130 127 131 132 131 129 131 125 131 133 134 134 136 147 153 153 154 154 161 156 156 156 156 155 158 158 159 157 161 163 164 166 166 167 167 167 168 169 170 171 171 171 171 171 0 0 0 0 0
    0 0 0 0 0 0 0 0 0 0 0 0 0 0 0 0 0 0 0 0 0 0 0 0 0 0 0 0 0 0 0 0 0 0 0 0 0 0 0 0 0 0 0 0 0 0 0 0 0 0 0 0 0 0 0 0 0 0 0 0 0 0 0 0 0 0 0 0 0 51 50 46 46 45 45 45 42 41 -225 -225 -225 -225 38 39 40 40 40 40 40 40 40 40 39 39 38 37 37 37 36 35 33 33 32 30 31 30 30 30 29 29 28 29 32 31 29 36 30 33 31 29 28 27 27 27 24 23 16 14 14 13 16 15 14 11 10 -209 -209 -209 -209 -209 1000 1008 -209 -209 -193 -209 -209 -209 -193 -193 -193 -193 -193 -193 14 -193 -209 -209 -209 -193 -193 -193 -193 -209 -193 -193 27 27 -209 -209 0 -209 -209 -209 -209 -209 -193 -193 -193 -209 -209 -209 -209 -209 -209 -209 -209 -209 -209 -209 -193 -209 -193 -209 35 39 41 43 44 44 45 45 47 48 49 51 54 58 60 61 61 61 61 64 67 65 68 68 69 70 72 72 73 72 73 75 77 78 78 78 79 79 83 84 84 84 89 90 90 90 91 92 93 94 94 97 99 99 101 101 103 103 103 105 105 106 107 108 109 109 110 113 117 125 123 124 125 130 129 132 131 130 127 132 132 132 129 132 126 131 134 135 135 136 146 153 153 154 155 162 157 156 157 157 155 157 158 159 156 161 164 163 165 166 166 167 167 167 169 169 171 170 170 170 170 0 0 0 0 0
    0 0 0 0 0 0 0 0 0 0 0 0 0 0 0 0 0 0 0 0 0 0 0 0 0 0 0 0 0 0 0 0 0 0 0 0 0 0 0 0 0 0 0 0 0 0 0 0 0 0 0 0 0 0 0 0 0 0 0 0 0 0 0 0 0 0 0 0 0 51 50 47 46 46 46 47 43 42 40 39 40 39 39 39 40 40 40 40 40 40 40 40 39 39 39 38 38 37 36 36 34 33 32 30 31 30 29 30 29 29 28 29 31 29 28 35 30 33 31 30 29 27 27 27 25 24 17 14 13 12 14 14 14 10 -209 -209 -209 65 -193 -209 -209 1008 -209 -209 -209 -209 -193 0 -209 0 0 0 -193 -193 -193 -209 -209 -209 -193 -193 -193 -209 -193 -193 -193 -193 -193 27 -209 -209 -193 -209 -209 -209 -209 -209 -209 -209 -209 -209 -209 -209 -209 -209 -209 -209 -209 -209 -209 -209 -193 -209 -209 37 39 41 41 43 43 43 44 45 47 48 48 50 54 58 59 60 60 60 61 63 67 64 68 70 71 72 73 73 74 72 74 76 77 78 78 77 79 80 83 84 84 84 89 89 90 90 90 91 93 93 94 97 98 99 101 101 103 103 103 105 105 106 107 108 109 110 112 114 117 125 123 124 125 129 129 131 131 131 127 132 133 132 130 133 128 130 135 136 136 136 146 -193 152 153 154 162 157 157 157 157 156 158 158 159 156 160 164 163 165 165 166 166 166 166 168 168 170 170 169 170 170 0 0 0 0 0
    0 0 0 0 0 0 0 0 0 0 0 0 0 0 0 0 0 0 0 0 0 0 0 0 0 0 0 0 0 0 0 0 0 0 0 0 0 0 0 0 0 0 0 0 0 0 0 0 0 0 0 0 0 0 0 0 0 0 0 0 0 0 0 0 0 0 0 0 0 51 49 47 47 46 46 47 43 43 41 40 41 41 41 41 40 40 40 40 40 40 39 39 39 38 38 38 37 37 36 36 34 33 32 30 30 29 29 29 28 28 28 29 30 28 28 35 30 33 31 30 29 28 28 28 25 24 18 15 13 12 12 13 13 10 9 -209 -209 -209 75 -209 -209 -209 -209 -209 -209 -209 -193 0 -193 0 0 0 -193 -193 -209 -209 -209 -209 -193 -193 -193 -193 -193 -193 -209 -209 25 27 -209 -209 -209 -209 -209 -209 -209 -209 -209 -209 -209 -209 -209 -209 -209 -209 -209 -209 -209 -209 -193 -209 -209 -209 35 38 39 41 41 43 42 43 44 45 46 48 47 50 54 57 58 59 59 59 60 62 66 63 67 71 72 73 74 73 74 73 74 77 76 77 77 77 79 80 83 84 83 84 88 88 89 89 90 91 93 93 94 96 98 99 101 101 102 103 103 104 105 106 107 107 108 110 112 115 118 126 124 125 125 130 129 131 132 131 128 133 133 133 130 134 130 127 135 136 137 136 145 -193 151 153 154 162 157 157 157 157 156 158 158 159 156 160 164 163 164 165 166 166 166 166 167 168 169 169 169 169 170 0 0 0 0 0
    0 0 0 0 0 0 0 0 0 0 0 0 0 0 0 0 0 0 0 0 0 0 0 0 0 0 0 0 0 0 0 0 0 0 0 0 0 0 0 0 0 0 0 0 0 0 0 0 0 0 0 0 0 0 0 0 0 0 0 0 0 0 0 0 0 0 0 0 0 50 49 48 47 47 46 48 44 43 42 41 42 42 42 42 41 41 41 40 40 40 39 39 39 38 38 37 37 37 36 35 34 33 31 29 30 28 28 29 28 29 28 29 30 28 28 33 30 33 31 31 30 28 28 27 26 25 20 16 14 13 13 14 14 11 11 -209 -209 -209 -193 -209 -209 -209 -209 -209 -209 -209 -193 -193 -193 0 0 -209 130 134 -209 -193 -193 -209 -193 -209 -193 -209 -209 -209 -209 -209 26 28 28 -209 -209 -209 -193 -193 -193 -209 -209 -209 -209 -209 -209 -209 -209 -209 -209 -209 -209 -209 -193 -193 -193 -209 38 39 40 43 43 44 43 43 44 45 48 48 47 51 55 57 58 59 59 59 61 62 65 62 67 71 71 72 73 72 74 73 75 78 76 77 77 78 79 81 83 84 83 85 88 88 88 89 90 92 93 94 94 96 97 98 100 101 102 103 102 103 104 106 107 108 109 110 113 116 119 126 124 125 125 130 129 131 132 131 128 133 133 133 130 134 131 125 134 135 136 136 145 151 151 153 153 162 157 157 157 157 156 158 158 159 155 159 164 163 164 164 165 166 166 166 166 166 168 168 168 168 169 0 0 0 0 0
    0 0 0 0 0 0 0 0 0 0 0 0 0 0 0 0 0 0 0 0 0 0 0 0 0 0 0 0 0 0 0 0 0 0 0 0 0 0 0 0 0 0 0 0 0 0 0 0 0 0 0 0 0 0 0 0 0 0 0 0 0 0 0 0 0 0 0 0 0 50 49 48 48 47 46 49 45 44 43 42 43 43 43 42 41 41 42 40 41 40 39 39 38 38 38 37 37 37 36 36 34 34 32 31 30 28 28 29 28 28 28 28 29 28 28 31 29 31 30 30 29 28 27 27 26 24 21 18 15 13 13 14 15 13 12 -193 19 -209 -193 79 -209 -209 -209 -209 -209 -209 -209 -193 -209 0 0 -209 132 -193 -209 -193 -193 -193 -209 -209 236 237 -209 -209 -209 -209 -209 29 29 -209 -209 -193 0 -193 -193 -209 -193 -209 -209 -209 -209 -209 -209 -209 -209 -209 -209 -209 -209 -193 -193 -209 42 41 42 45 43 44 43 43 44 46 48 48 47 52 54 56 57 57 57 58 59 61 63 61 66 70 71 71 72 72 73 73 74 78 75 77 77 78 79 81 82 84 82 85 87 87 88 89 90 92 93 94 94 96 97 98 100 101 102 103 103 104 105 108 109 109 110 112 115 117 118 125 123 125 125 129 128 131 133 131 128 132 133 132 129 133 131 124 133 134 135 136 144 150 151 152 153 162 157 156 156 156 156 157 158 158 155 158 163 162 163 163 165 166 165 166 166 165 167 167 167 167 168 0 0 0 0 0
    0 0 0 0 0 0 0 0 0 0 0 0 0 0 0 0 0 0 0 0 0 0 0 0 0 0 0 0 0 0 0 0 0 0 0 0 0 0 0 0 0 0 0 0 0 0 0 0 0 0 0 0 0 0 0 0 0 0 0 0 0 0 0 0 0 0 0 0 0 50 49 48 48 48 48 50 47 47 45 44 44 43 43 43 41 41 42 38 39 39 39 39 38 38 38 37 37 37 36 36 35 35 34 34 31 28 28 28 28 28 28 28 28 28 28 30 29 30 29 29 29 27 27 26 25 24 22 20 16 14 13 13 14 13 12 11 9 -209 -193 81 -209 -193 -193 -209 -209 -209 -209 -209 -193 0 0 -209 133 138 141 143 -209 -209 -209 -193 -193 -193 -209 -209 -209 -209 -209 31 32 -209 -209 -209 -193 -193 -209 -193 -193 -193 -209 -209 -209 -209 -209 -209 -209 -209 -209 -209 -209 -209 -209 -209 -193 40 42 44 43 43 43 43 45 48 49 48 48 53 55 56 57 57 57 58 59 61 62 61 65 70 70 70 71 71 72 72 74 77 75 76 77 78 80 81 82 84 82 86 87 87 88 89 91 92 94 95 96 97 98 99 100 102 103 104 103 104 105 108 109 110 111 111 114 116 118 124 123 125 125 129 128 130 133 131 128 132 133 132 129 132 131 124 133 133 134 135 142 150 151 153 154 162 157 156 156 156 156 156 157 157 154 158 163 162 163 163 166 166 165 165 166 165 167 167 167 166 168 0 0 0 0 0
    0 0 0 0 0 0 0 0 0 0 0 0 0 0 0 0 0 0 0 0 0 0 0 0 0 0 0 0 0 0 0 0 0 0 0 0 0 0 0 0 0 0 0 0 0 0 0 0 0 0 0 0 0 0 0 0 0 0 0 0 0 0 0 0 0 0 0 0 0 50 48 48 49 48 48 51 48 48 46 44 44 44 44 43 42 41 41 37 38 39 38 39 38 38 38 38 38 37 37 37 36 36 34 34 32 28 28 29 28 28 28 29 28 27 28 28 28 28 27 28 28 27 26 25 25 24 22 21 17 14 13 13 13 13 12 11 -177 -193 -209 -193 -193 91 93 -209 -209 -209 -209 -209 -209 -209 -209 -209 131 -193 -209 -193 -209 -193 -209 -209 -209 -209 -209 -209 -209 -209 -209 32 34 -193 -193 -209 -209 -193 -209 -209 0 -193 -209 -209 -209 -209 -209 -209 -209 -209 -209 -193 -209 -209 -209 -209 36 37 41 43 42 42 43 43 46 50 50 50 50 53 55 56 56 57 56 58 58 60 61 61 64 70 69 69 69 70 71 71 73 76 74 76 77 79 80 81 82 84 82 85 87 87 88 89 92 93 95 96 97 98 98 99 100 101 102 104 103 104 106 108 109 110 111 112 114 116 118 124 124 125 125 129 128 130 133 131 128 131 132 132 129 131 131 124 132 132 133 134 141 149 151 153 154 162 156 156 156 156 156 156 157 157 154 158 163 162 163 163 165 166 165 165 166 164 166 166 166 165 167 0 0 0 0 0
    0 0 0 0 0 0 0 0 0 0 0 0 0 0 0 0 0 0 0 0 0 0 0 0 0 0 0 0 0 0 0 0 0 0 0 0 0 0 0 0 0 0 0 0 0 0 0 0 0 0 0 0 0 0 0 0 0 0 0 0 0 0 0 0 0 0 0 0 0 49 48 48 48 47 48 50 48 48 46 45 45 45 44 44 42 41 42 33 37 38 38 39 38 39 38 38 38 37 37 37 36 36 33 34 32 29 28 29 28 28 28 29 27 27 27 27 26 27 27 27 27 26 26 25 25 25 23 21 18 15 13 13 13 15 14 12 10 13 21 -193 -209 -193 -193 -209 -209 -209 -209 -209 -209 -209 -209 -209 -193 -209 -209 -209 -209 -209 -209 -209 -209 -209 -193 -209 -209 -209 -209 32 34 37 37 -209 -209 -193 -209 -209 -209 -193 -209 -209 -209 -209 -209 -209 -209 -209 -209 -209 -209 -209 -209 33 37 39 42 43 42 42 43 43 47 52 51 51 52 54 55 56 56 56 56 57 58 59 61 61 63 69 67 67 68 70 70 71 72 75 74 76 77 79 79 81 81 83 81 85 86 87 87 90 92 94 94 95 96 97 97 98 99 100 101 104 104 105 106 108 110 111 111 113 114 116 119 125 124 125 126 129 129 130 133 130 128 131 132 132 129 130 130 123 131 132 133 134 140 149 151 153 154 162 156 155 155 156 156 156 156 157 154 158 163 162 162 162 165 166 165 165 166 164 165 165 165 165 166 0 0 0 0 0
    0 0 0 0 0 0 0 0 0 0 0 0 0 0 0 0 0 0 0 0 0 0 0 0 0 0 0 0 0 0 0 0 0 0 0 0 0 0 0 0 0 0 0 0 0 0 0 0 0 0 0 0 0 0 0 0 0 0 0 0 0 0 0 0 0 0 0 0 0 48 47 48 48 47 47 50 49 49 46 46 45 45 45 45 43 42 42 34 36 38 38 39 38 39 38 38 38 37 37 36 36 35 33 33 31 28 28 28 28 28 28 30 28 27 28 28 27 28 27 27 27 27 26 26 25 25 23 21 18 15 13 13 13 16 15 13 12 17 24 22 -193 -209 -209 -209 -209 -209 -209 -209 -209 -209 -209 -209 -209 -209 -209 -209 -209 -209 -209 -193 -209 -193 -209 -193 -209 -209 -209 29 32 -209 -209 -209 -209 -193 -209 -193 -209 -193 -209 -193 -209 -193 -209 -209 -209 -209 -209 -209 -209 -209 -209 32 38 40 41 42 41 41 43 43 48 52 51 52 53 55 55 56 56 57 57 58 59 60 61 61 63 68 66 65 67 68 69 70 72 74 74 76 77 80 79 80 81 83 82 84 86 87 87 90 92 94 94 95 96 96 96 97 98 99 101 103 104 105 107 109 110 112 111 113 114 115 118 123 123 124 125 128 128 129 133 130 128 130 131 131 128 129 129 123 130 131 132 134 139 148 151 153 154 162 156 155 155 156 156 156 156 156 154 157 163 162 162 161 165 166 166 166 165 164 164 164 164 164 163 0 0 0 0 0
    0 0 0 0 0 0 0 0 0 0 0 0 0 0 0 0 0 0 0 0 0 0 0 0 0 0 0 0 0 0 0 0 0 0 0 0 0 0 0 0 0 0 0 0 0 0 0 0 0 0 0 0 0 0 0 0 0 0 0 0 0 0 0 0 0 0 0 0 0 46 46 48 48 47 47 50 49 49 47 46 45 45 45 45 44 43 43 -193 33 -193 38 38 38 38 38 38 38 37 37 36 35 35 33 33 31 27 27 28 29 28 28 32 29 29 29 30 28 28 28 28 27 27 27 26 25 25 23 21 19 15 13 13 13 17 17 14 14 16 23 22 22 -209 -209 -209 -209 -209 48 -209 -209 -209 -209 -209 -209 -209 -209 -209 -209 -209 -209 -193 -193 -193 0 0 0 -209 -209 -209 -193 -209 -209 -209 -209 -193 -209 -193 -193 -209 -209 -209 -209 -193 -209 -209 -209 -209 -209 -209 -209 -209 -209 30 35 39 40 42 40 41 43 43 50 52 51 52 53 55 55 55 55 55 56 57 58 59 61 61 63 67 64 64 66 67 68 69 71 73 74 76 77 80 79 81 81 83 82 84 87 87 87 90 93 94 94 95 96 97 97 98 99 100 101 104 104 105 107 108 110 111 111 113 113 115 118 123 124 125 125 128 128 129 133 129 128 129 130 131 129 128 129 123 130 131 131 133 138 148 152 154 154 161 157 156 156 156 156 155 156 156 154 157 162 162 162 161 165 167 166 166 165 164 164 164 164 162 161 0 0 0 0 0
    0 0 0 0 0 0 0 0 0 0 0 0 0 0 0 0 0 0 0 0 0 0 0 0 0 0 0 0 0 0 0 0 0 0 0 0 0 0 0 0 0 0 0 0 0 0 0 0 0 0 0 0 0 0 0 0 0 0 0 0 0 0 0 0 0 0 0 0 0 46 46 48 48 47 46 49 49 49 47 46 45 46 46 46 45 43 44 43 -193 -193 39 38 38 37 37 37 37 36 36 36 35 35 33 33 30 28 28 28 30 29 29 33 29 29 30 30 28 29 28 28 27 28 27 26 26 26 23 22 19 16 14 14 14 19 19 17 17 17 24 24 23 26 -209 -209 -209 -209 50 -209 -209 -209 -209 -209 -209 -209 -209 -209 -209 -193 -193 -193 0 -225 0 0 0 -225 -209 -209 -193 -209 -209 -209 -209 -193 -193 -193 -193 -193 -209 -193 -209 -193 218 -209 -209 -209 -209 -209 -209 -209 27 30 36 39 40 41 41 41 43 44 51 52 51 53 53 54 54 54 55 55 56 57 57 60 62 61 63 66 64 63 65 66 66 67 70 72 73 76 77 80 79 80 81 83 82 83 86 87 87 90 93 94 94 95 96 97 97 98 99 100 101 104 104 105 106 108 110 111 112 114 114 115 118 122 124 125 125 128 129 130 133 129 128 128 130 130 129 128 129 123 130 131 132 133 137 147 153 154 155 161 157 156 156 156 157 155 156 156 155 156 161 162 162 161 166 167 166 167 166 164 164 163 163 162 160 0 0 0 0 0
    0 0 0 0 0 0 0 0 0 0 0 0 0 0 0 0 0 0 0 0 0 0 0 0 0 0 0 0 0 0 0 0 0 0 0 0 0 0 0 0 0 0 0 0 0 0 0 0 0 0 0 0 0 0 0 0 0 0 0 0 0 0 0 0 0 0 0 0 0 47 47 49 49 47 47 49 49 50 47 47 46 46 46 47 46 44 45 46 -193 -193 39 38 37 37 37 37 37 36 36 36 35 35 33 32 31 29 28 29 30 29 29 33 29 29 29 30 28 29 28 28 27 28 27 27 26 26 22 22 20 18 15 15 15 20 20 19 19 18 25 25 24 26 -193 -193 34 -209 46 -209 -209 -209 -209 -209 -209 -209 -209 -193 -193 0 -225 -225 -225 -225 -225 -225 -225 -225 -225 -225 -225 -225 -225 -209 -209 -193 -193 -193 -193 -209 -209 -193 -193 -209 -209 -209 -209 -209 -209 -209 -209 -209 28 31 38 39 40 41 40 41 43 43 51 52 51 53 53 54 54 54 55 54 56 57 57 61 63 62 63 66 63 62 64 66 66 67 70 71 73 76 77 80 79 80 81 83 83 83 86 87 87 91 93 95 95 96 97 98 98 99 100 101 102 104 105 105 107 108 110 111 113 114 114 113 116 120 124 124 125 127 129 130 133 129 128 128 129 130 129 128 129 123 131 132 132 133 136 146 154 155 155 160 158 156 156 156 157 156 157 156 156 156 162 162 163 161 166 167 167 167 166 164 163 163 163 161 159 0 0 0 0 0
    0 0 0 0 0 0 0 0 0 0 0 0 0 0 0 0 0 0 0 0 0 0 0 0 0 0 0 0 0 0 0 0 0 0 0 0 0 0 0 0 0 0 0 0 0 0 0 0 0 0 0 0 0 0 0 0 0 0 0 0 0 0 0 0 0 0 0 0 0 48 47 49 49 48 47 49 50 50 47 48 47 47 47 47 47 45 45 47 46 -209 40 38 37 38 38 37 37 37 36 35 35 35 34 33 32 31 29 29 31 29 29 33 29 29 29 31 28 29 28 28 27 27 27 27 25 26 21 21 20 18 16 15 16 21 21 20 20 17 25 25 24 26 24 -225 32 -209 52 -193 -209 -209 -193 -209 -209 -209 -193 0 -225 -225 -225 -225 -225 -225 -225 -225 -225 -225 -225 -225 -225 -225 -225 -225 -225 -225 -225 -193 -193 -193 -193 -193 -193 -209 -209 -209 -209 -193 -209 -209 -209 -209 29 31 37 38 39 39 39 41 42 43 51 51 51 53 54 54 54 54 55 54 57 58 57 61 63 62 63 66 63 62 64 66 66 67 70 71 73 76 78 80 79 80 80 83 83 82 86 88 88 91 93 94 95 96 98 98 98 99 101 102 103 105 106 106 108 108 111 111 113 114 113 113 116 119 124 124 124 127 129 130 133 129 128 128 129 130 130 128 129 123 131 132 132 133 135 146 154 155 156 159 159 156 156 156 158 156 157 157 157 156 162 163 163 162 166 167 167 167 166 164 163 163 163 161 160 0 0 0 0 0
    0 0 0 0 0 0 0 0 0 0 0 0 0 0 0 0 0 0 0 0 0 0 0 0 0 0 0 0 0 0 0 0 0 0 0 0 0 0 0 0 0 0 0 0 0 0 0 0 0 0 0 0 0 0 0 0 0 0 0 0 0 0 0 0 0 0 0 0 0 50 48 50 50 49 48 50 50 51 47 48 47 47 47 47 47 45 45 47 46 -209 40 38 38 38 38 37 37 37 37 35 35 35 34 33 33 32 30 30 33 30 30 33 30 29 29 31 28 29 29 29 27 28 28 27 25 26 20 19 19 19 17 15 15 21 21 20 20 15 25 24 23 25 -225 -225 -225 -209 45 -209 -209 -193 -209 -209 -209 -193 -225 -225 -225 -225 -225 -225 -225 -225 -225 -225 -225 -225 -225 -225 -225 -225 -225 -225 -225 -225 -225 -225 -225 -225 -225 -193 0 -209 -209 -209 -209 373 -209 -209 -209 29 30 32 36 38 39 39 39 41 43 43 51 51 52 54 54 55 54 55 55 55 58 58 57 61 63 63 63 66 64 63 65 67 66 67 70 71 72 76 78 80 78 80 80 83 83 82 85 88 89 91 94 94 95 96 98 98 98 99 101 102 104 105 105 107 108 108 110 111 112 112 112 112 115 119 125 124 125 126 130 130 133 129 129 128 130 130 130 128 129 123 131 131 132 133 135 145 -209 155 156 158 161 156 157 157 158 156 157 157 158 156 162 163 163 162 166 167 167 167 166 165 164 163 164 163 161 0 0 0 0 0
    0 0 0 0 0 0 0 0 0 0 0 0 0 0 0 0 0 0 0 0 0 0 0 0 0 0 0 0 0 0 0 0 0 0 0 0 0 0 0 0 0 0 0 0 0 0 0 0 0 0 0 0 0 0 0 0 0 0 0 0 0 0 0 0 0 0 0 0 0 50 49 50 49 49 48 49 50 50 47 48 46 47 47 47 47 45 46 48 47 -209 40 38 38 38 38 38 37 37 37 35 35 35 35 34 33 33 31 30 34 31 30 33 30 29 28 31 28 30 29 29 27 28 28 28 25 26 20 19 20 19 17 15 15 21 21 21 20 14 25 25 24 -225 -225 -225 -225 -225 -225 -225 -225 -193 -193 -225 -225 -225 -225 -225 -225 -225 -225 -225 -225 -225 -225 -225 -225 -225 -225 -225 -225 -225 -225 -225 -225 -225 -225 -225 -225 -225 -225 -225 -225 -225 -225 -225 -225 -209 -209 -209 -209 31 32 35 36 37 38 39 39 41 43 43 51 51 53 54 54 54 54 55 55 55 58 57 57 61 63 62 62 66 63 62 65 67 66 67 70 70 -193 77 78 80 78 79 80 83 83 82 84 88 89 91 93 93 94 95 96 96 97 97 100 102 103 105 105 107 108 109 111 112 113 114 113 112 115 119 126 124 125 126 130 130 132 129 129 128 130 131 130 128 129 123 131 132 132 134 135 144 -209 155 155 157 162 157 157 157 159 157 158 158 158 156 162 163 164 162 165 167 167 167 166 165 164 164 164 164 163 0 0 0 0 0
    0 0 0 0 0 0 0 0 0 0 0 0 0 0 0 0 0 0 0 0 0 0 0 0 0 0 0 0 0 0 0 0 0 0 0 0 0 0 0 0 0 0 0 0 0 0 0 0 0 0 0 0 0 0 0 0 0 0 0 0 0 0 0 0 0 0 0 0 0 50 49 50 50 49 48 49 50 50 47 48 46 47 47 47 47 46 46 48 47 -209 40 38 38 38 38 38 37 37 37 35 35 35 35 34 34 33 31 30 34 30 30 32 29 28 28 31 28 30 30 29 28 28 28 28 26 26 20 18 20 18 17 16 16 21 21 21 21 13 -225 -225 -225 -225 -225 -225 -225 -225 -225 -225 -225 -225 -225 -225 -225 -225 -225 -225 -225 -225 -225 -225 -225 -225 -225 -225 -225 -225 -225 -225 -225 -225 -225 -225 -225 -225 -225 -225 -225 -225 -225 -225 -225 -225 -225 -225 -225 -225 -225 -225 37 35 35 37 37 38 38 39 39 41 43 43 50 50 53 54 54 54 54 55 55 55 58 58 58 62 64 63 62 66 64 63 66 67 66 67 70 70 -193 77 78 80 78 80 80 83 83 82 84 89 90 91 92 93 93 94 95 95 96 96 101 102 103 104 105 107 108 109 112 112 114 114 114 114 115 119 126 124 125 126 130 130 132 129 129 128 130 131 130 128 130 123 131 132 133 133 135 144 -209 -193 -193 -193 -193 157 158 158 160 157 158 158 159 156 162 163 163 162 165 167 167 167 167 165 165 165 165 165 164 0 0 0 0 0
    0 0 0 0 0 0 0 0 0 0 0 0 0 0 0 0 0 0 0 0 0 0 0 0 0 0 0 0 0 0 0 0 0 0 0 0 0 0 0 0 0 0 0 0 0 0 0 0 0 0 0 0 0 0 0 0 0 0 0 0 0 0 0 0 0 0 0 0 0 51 50 50 50 50 49 50 51 51 47 48 46 47 47 47 47 46 46 49 47 -193 40 38 38 38 38 38 37 37 37 35 35 35 35 35 34 33 32 31 33 30 29 31 29 28 27 30 29 30 30 30 28 28 28 28 25 26 20 17 20 17 18 17 16 21 21 21 20 -225 -225 -225 -225 -225 -225 -225 -225 -225 -225 -225 -225 -225 -225 -225 -225 -225 -225 -225 -225 -225 -225 -225 -225 -225 -225 -225 -225 -225 -225 -225 -225 -225 -225 -225 -225 -225 -225 -225 -225 -225 -225 -225 -225 -225 -225 -225 -225 -225 -225 -225 37 35 35 38 37 38 39 39 39 41 43 44 49 50 53 53 53 53 54 55 55 56 58 58 58 62 64 62 62 66 63 63 66 67 66 68 70 70 -177 78 79 79 78 80 79 83 83 83 83 89 91 91 92 93 93 94 96 96 96 98 102 102 102 103 104 106 107 108 111 112 114 114 114 114 114 118 127 124 125 126 131 129 132 130 129 128 130 131 131 128 130 124 131 132 133 133 135 143 -209 -193 -193 -193 -193 158 158 159 160 158 159 159 160 157 163 163 163 162 165 167 167 167 167 166 165 165 166 166 165 0 0 0 0 0
    0 0 0 0 0 0 0 0 0 0 0 0 0 0 0 0 0 0 0 0 0 0 0 0 0 0 0 0 0 0 0 0 0 0 0 0 0 0 0 0 0 0 0 0 0 0 0 0 0 0 0 0 0 0 0 0 0 0 0 0 0 0 0 0 0 0 0 0 0 50 50 51 51 50 49 50 51 50 47 47 46 47 47 47 47 46 46 49 47 39 40 38 38 38 38 38 37 37 37 36 35 35 35 35 34 33 32 31 32 30 29 30 28 27 27 30 28 30 30 30 28 27 28 28 25 25 20 17 21 17 18 17 16 20 20 20 20 -225 -225 -225 -225 -225 -225 -225 -225 -225 -225 -225 -225 -225 -225 -225 -225 -225 -225 -225 -225 -225 -225 -225 -225 -225 -225 -225 -225 -225 -225 -225 -225 -225 -225 -225 -225 -225 -225 -225 -225 -225 -225 -225 -225 -225 -225 -225 -225 -225 -225 -225 36 36 37 38 38 38 39 39 40 42 44 44 48 50 52 53 52 52 53 54 54 55 57 57 58 62 63 62 62 66 63 63 66 67 66 68 70 70 -193 78 78 79 78 79 79 83 83 83 82 90 92 91 92 93 94 94 96 96 97 99 103 103 103 104 105 107 108 108 111 111 113 113 114 114 115 119 128 125 125 126 131 130 131 130 129 128 130 131 131 129 131 126 131 133 134 134 135 142 -209 154 155 156 164 159 159 159 161 159 159 160 161 157 163 164 164 163 165 167 167 167 167 166 166 166 166 167 166 0 0 0 0 0
    0 0 0 0 0 0 0 0 0 0 0 0 0 0 0 0 0 0 0 0 0 0 0 0 0 0 0 0 0 0 0 0 0 0 0 0 0 0 0 0 0 0 0 0 0 0 0 0 0 0 0 0 0 0 0 0 0 0 0 0 0 0 0 0 0 0 0 0 0 51 50 51 51 50 50 51 51 50 46 47 46 47 47 47 47 45 45 47 45 39 40 38 39 38 38 38 38 37 37 36 36 35 35 35 34 33 32 31 31 29 29 29 28 27 26 29 28 30 30 29 28 27 28 27 25 25 20 18 21 19 19 19 18 21 21 21 20 -225 -225 -225 -225 -225 -225 -225 -225 -225 -225 -225 -225 -225 -225 -225 -225 -225 -225 -225 -225 -225 -225 -225 -225 -225 -225 -225 -225 -225 -225 -225 -225 -225 -225 -225 -225 -225 -225 -225 -225 -225 -225 -225 -225 -225 -225 -225 -225 -225 -225 -225 37 36 37 38 38 38 39 38 40 42 43 45 48 50 52 53 52 52 53 55 54 55 57 58 58 61 62 62 61 66 63 63 66 67 66 68 70 70 -193 78 78 78 77 79 79 83 83 83 82 90 92 91 92 92 93 94 95 95 95 98 101 102 102 103 105 107 108 109 111 111 113 113 114 115 117 120 127 125 125 126 131 129 131 130 130 128 131 131 131 129 131 129 132 134 135 135 136 141 -209 154 154 155 164 159 159 159 161 159 160 161 161 158 164 164 164 163 165 167 167 167 167 166 166 166 166 166 166 0 0 0 0 0
    0 0 0 0 0 0 0 0 0 0 0 0 0 0 0 0 0 0 0 0 0 0 0 0 0 0 0 0 0 0 0 0 0 0 0 0 0 0 0 0 0 0 0 0 0 0 0 0 0 0 0 0 0 0 0 0 0 0 0 0 0 0 0 0 0 0 0 0 0 51 50 50 51 50 50 51 51 49 46 47 46 46 46 46 46 44 44 45 44 39 40 38 39 39 39 38 38 37 37 36 36 35 35 35 34 33 32 31 31 29 29 29 28 26 26 29 28 30 30 29 28 27 27 27 25 25 20 18 21 19 19 21 20 22 22 22 21 -225 -225 -225 -225 -225 -225 -225 -225 -225 -225 -225 -225 -225 -225 -225 -225 -225 -225 -225 -225 -225 -225 -225 -225 -225 -225 -225 -225 -225 -225 -225 -225 -225 -225 -225 -225 -225 -225 -225 -225 -225 -225 -225 -225 -225 -225 -225 -225 -225 -225 -225 37 37 39 38 38 39 39 38 41 43 44 46 48 51 52 53 53 53 54 55 54 56 57 58 58 60 62 61 61 65 63 63 66 67 67 68 69 70 70 78 78 78 77 79 79 83 84 84 82 90 92 91 91 92 93 93 95 94 94 95 100 100 101 102 105 107 108 109 110 111 112 112 113 116 118 120 126 124 125 126 130 129 130 130 130 129 131 131 131 129 132 131 131 135 135 135 136 140 149 154 154 155 164 158 158 159 160 159 159 161 162 159 164 164 164 164 165 167 167 167 167 166 166 166 166 167 166 0 0 0 0 0
    0 0 0 0 0 0 0 0 0 0 0 0 0 0 0 0 0 0 0 0 0 0 0 0 0 0 0 0 0 0 0 0 0 0 0 0 0 0 0 0 0 0 0 0 0 0 0 0 0 0 0 0 0 0 0 0 0 0 0 0 0 0 0 0 0 0 0 0 0 51 50 50 50 50 49 50 51 48 46 46 45 45 45 45 45 43 43 44 42 39 40 39 39 39 39 39 38 37 37 36 36 35 35 35 34 33 33 31 31 29 28 28 27 26 26 29 28 30 30 29 28 27 27 27 24 24 20 18 21 19 18 23 22 24 24 24 23 -225 -225 -225 -225 -225 -225 -225 -225 -225 -225 -225 -225 -225 -225 -225 -225 -225 -225 -225 -225 -225 -225 -225 -225 -225 -225 -225 -225 -225 -225 -225 -225 -225 -225 -225 -225 -225 -225 -225 -225 -225 -225 -225 -225 -225 -225 -225 -225 -225 -225 -225 37 37 38 38 38 39 39 39 41 43 44 46 48 51 52 53 53 53 54 55 54 56 57 58 58 60 61 61 60 65 63 62 65 67 66 68 68 69 69 78 78 78 77 78 79 83 84 85 83 90 92 91 91 92 92 93 94 93 94 93 98 99 99 101 104 107 107 108 109 110 109 111 -193 -193 118 121 126 124 125 126 130 129 130 131 130 129 131 131 131 130 132 131 129 134 135 135 136 139 149 153 154 155 163 158 158 158 159 159 158 161 161 159 164 165 165 164 165 167 167 168 167 166 166 166 167 167 166 0 0 0 0 0
    0 0 0 0 0 0 0 0 0 0 0 0 0 0 0 0 0 0 0 0 0 0 0 0 0 0 0 0 0 0 0 0 0 0 0 0 0 0 0 0 0 0 0 0 0 0 0 0 0 0 0 0 0 0 0 0 0 0 0 0 0 0 0 0 0 0 0 0 0 51 51 51 51 50 49 50 50 47 45 45 44 45 45 45 44 43 43 43 41 39 40 39 39 39 39 39 38 37 37 36 36 35 35 35 34 32 33 31 30 28 28 28 27 26 26 29 27 29 29 28 27 26 26 26 23 23 19 19 21 20 19 24 24 25 25 25 25 -225 -225 -225 -225 -225 -225 -225 -225 -225 -225 -225 -225 -225 -225 -225 -225 -225 -225 -225 -225 -225 -225 -225 -225 -225 -225 -225 -225 -225 -225 -225 -225 -225 -225 -225 -225 -225 -225 -225 -225 -225 -225 -225 -225 -225 -225 -225 -225 -225 -225 38 37 37 38 38 38 38 39 39 42 43 44 46 48 52 52 53 53 53 53 55 54 55 56 58 57 59 60 61 60 65 63 63 65 67 66 68 68 70 70 77 77 77 77 78 79 83 84 85 83 90 92 91 91 91 92 93 93 92 92 93 96 98 98 99 103 106 105 107 107 108 109 111 -193 -193 119 121 126 125 126 126 129 128 129 131 129 129 130 130 131 129 132 131 128 134 135 135 136 138 148 153 154 154 163 157 157 157 158 159 158 160 161 159 163 165 165 165 164 167 167 168 167 167 167 167 167 167 166 0 0 0 0 0
    0 0 0 0 0 0 0 0 0 0 0 0 0 0 0 0 0 0 0 0 0 0 0 0 0 0 0 0 0 0 0 0 0 0 0 0 0 0 0 0 0 0 0 0 0 0 0 0 0 0 0 0 0 0 0 0 0 0 0 0 0 0 0 0 0 0 0 0 0 51 51 51 51 50 49 49 49 46 45 45 44 45 45 45 44 43 43 43 41 39 40 39 39 39 39 39 38 37 37 36 35 35 35 34 33 31 33 32 29 28 27 28 27 27 26 29 27 29 28 28 26 26 25 25 22 22 19 19 22 21 20 25 26 26 26 26 26 -225 -225 -225 -225 -225 -225 -225 -225 -225 -225 -225 -225 -225 -225 -225 -225 -225 -225 -225 -225 -225 -225 -225 -225 -225 -225 -225 -225 -225 -225 -225 -225 -225 -225 -225 -225 -225 -225 -225 -225 -225 -225 -225 -225 -225 -225 -225 -225 -225 -225 37 37 38 38 38 37 38 38 39 41 43 43 46 48 51 52 52 52 52 53 54 53 54 55 57 57 59 60 61 60 64 63 63 66 67 66 69 69 71 71 77 77 77 77 78 80 83 84 85 83 90 91 91 91 91 92 93 93 92 92 93 95 97 98 100 102 105 105 106 107 108 109 111 115 117 120 123 126 125 127 127 129 128 129 131 129 129 130 129 131 129 131 131 127 135 135 135 136 138 147 -193 154 154 162 157 156 156 157 159 157 160 160 159 163 165 165 165 164 167 167 168 167 167 167 166 167 167 166 0 0 0 0 0
    0 0 0 0 0 0 0 0 0 0 0 0 0 0 0 0 0 0 0 0 0 0 0 0 0 0 0 0 0 0 0 0 0 0 0 0 0 0 0 0 0 0 0 0 0 0 0 0 0 0 0 0 0 0 0 0 0 0 0 0 0 0 0 0 0 0 0 0 0 51 52 51 51 50 49 49 49 46 45 45 44 45 44 44 44 43 42 42 40 39 40 39 39 39 39 39 39 37 37 36 35 35 35 34 33 30 33 32 28 27 27 28 27 26 26 28 26 28 28 27 25 25 24 24 22 22 19 19 21 21 20 25 27 27 28 28 28 -225 -225 -225 -225 -225 -225 -225 -225 -225 -225 -225 -225 -225 -225 -225 -225 -225 -225 -225 -225 -225 -225 -225 -225 -225 -225 -225 -225 -225 -225 -225 -225 -225 -225 -225 -225 -225 -225 -225 -225 -225 -225 -225 -225 -225 -225 -225 -225 -225 -225 37 37 38 38 38 38 38 38 39 42 42 43 46 48 51 51 52 52 52 52 54 52 53 54 57 57 59 59 61 59 64 64 64 66 68 68 70 69 71 71 77 77 77 77 78 79 83 84 85 83 90 91 91 91 91 92 93 93 92 93 95 96 97 99 100 102 104 104 105 106 108 109 111 114 118 120 123 125 124 128 127 129 128 129 130 128 129 129 128 130 129 130 131 126 135 135 136 136 137 147 152 154 154 161 156 155 155 156 159 157 160 160 159 162 164 165 164 164 167 167 168 167 167 166 166 166 166 165 0 0 0 0 0
    0 0 0 0 0 0 0 0 0 0 0 0 0 0 0 0 0 0 0 0 0 0 0 0 0 0 0 0 0 0 0 0 0 0 0 0 0 0 0 0 0 0 0 0 0 0 0 0 0 0 0 0 0 0 0 0 0 0 0 0 0 0 0 0 0 0 0 0 0 52 52 51 51 50 49 49 48 46 45 45 44 45 44 44 44 42 42 41 40 39 40 39 39 39 39 39 39 37 37 36 35 35 34 33 32 29 32 33 28 27 27 29 27 27 26 28 26 27 27 27 25 25 23 23 21 22 19 20 22 22 20 26 28 29 29 29 29 -225 -225 -225 -225 -225 -225 -225 -225 -225 -225 -225 -225 -225 -225 -225 -225 -225 -225 -225 -225 -225 -225 -225 -225 -225 -225 -225 -225 -225 -225 -225 -225 -225 -225 -225 -225 -225 -225 -225 -225 -225 -225 -225 -225 -225 -225 -225 -225 -225 38 36 36 37 37 37 37 38 38 39 42 43 43 46 49 51 50 52 51 51 52 53 51 52 53 57 56 58 59 60 60 65 66 66 68 69 69 71 70 72 72 77 77 77 77 78 79 83 84 85 83 90 91 91 91 91 92 93 93 92 93 95 96 98 100 101 103 104 105 107 107 108 110 111 115 119 121 123 124 124 127 126 127 128 127 130 128 128 128 128 130 129 130 130 125 135 136 136 136 137 146 152 154 155 160 156 155 155 156 159 157 160 160 160 162 164 165 164 163 167 166 168 167 167 166 166 166 166 165 0 0 0 0 0
    0 0 0 0 0 0 0 0 0 0 0 0 0 0 0 0 0 0 0 0 0 0 0 0 0 0 0 0 0 0 0 0 0 0 0 0 0 0 0 0 0 0 0 0 0 0 0 0 0 0 0 0 0 0 0 0 0 0 0 0 0 0 0 0 0 0 0 0 0 52 52 51 51 50 49 48 48 46 45 45 44 44 44 44 43 42 42 42 41 40 41 40 39 40 39 39 39 37 36 36 35 35 34 33 32 29 32 33 28 28 27 29 28 27 27 29 26 27 27 26 25 24 23 23 21 21 19 20 22 23 21 26 28 30 31 31 31 -225 -225 -225 -225 -225 -225 -225 -225 -225 -225 -225 -225 -225 -225 -225 -225 -225 -225 -225 -225 -225 -225 -225 -225 -225 -225 -225 -225 -225 -225 -225 -225 -225 -225 -225 -225 -225 -225 -225 -225 -225 -225 -225 -225 -225 -225 -225 -225 -225 37 36 36 37 37 36 37 38 38 40 42 43 43 46 49 51 50 52 51 51 51 53 51 51 53 56 54 57 59 60 59 65 67 67 68 70 70 71 70 72 72 76 76 76 76 77 79 82 84 85 83 90 91 91 91 91 92 93 93 92 93 95 96 97 99 99 101 104 105 106 107 109 110 113 117 120 121 123 123 125 126 125 126 127 127 130 127 128 128 127 130 130 129 130 125 135 135 136 136 136 144 -193 153 154 159 156 155 155 155 159 157 160 159 160 161 164 164 164 163 166 166 168 167 167 166 165 166 165 164 0 0 0 0 0
    0 0 0 0 0 0 0 0 0 0 0 0 0 0 0 0 0 0 0 0 0 0 0 0 0 0 0 0 0 0 0 0 0 0 0 0 0 0 0 0 0 0 0 0 0 0 0 0 0 0 0 0 0 0 0 0 0 0 0 0 0 0 0 0 0 0 0 0 0 53 52 51 51 50 49 48 48 46 45 45 45 45 45 44 44 43 43 42 41 40 42 40 39 40 40 39 39 36 36 36 35 35 34 33 32 28 31 33 28 28 28 29 28 28 27 29 26 27 26 26 24 24 23 22 20 21 19 20 21 23 21 26 29 30 32 32 32 -225 -225 -225 -225 -225 -225 -225 -225 -225 -225 -225 -225 -225 -225 -225 -225 -225 -225 -225 -225 -225 -225 -225 -225 -225 -225 -225 -225 -225 -225 -225 -225 -225 -225 -225 -225 -225 -225 -225 -225 -225 -225 -225 -225 -225 -225 -225 -225 -225 37 37 37 38 37 37 37 38 39 40 43 43 43 45 49 50 50 52 51 50 51 53 51 51 52 55 54 57 59 60 59 65 68 68 69 70 70 71 71 73 73 76 76 76 76 77 79 82 84 84 82 90 91 91 91 91 92 93 93 92 93 95 95 96 96 97 98 103 104 106 107 109 113 114 117 119 120 121 122 123 125 124 125 127 127 129 127 127 127 127 130 130 128 129 125 134 135 135 136 136 143 -209 153 153 156 156 154 155 155 159 156 160 159 160 161 164 164 164 163 166 166 167 167 167 166 165 165 165 164 0 0 0 0 0
    0 0 0 0 0 0 0 0 0 0 0 0 0 0 0 0 0 0 0 0 0 0 0 0 0 0 0 0 0 0 0 0 0 0 0 0 0 0 0 0 0 0 0 0 0 0 0 0 0 0 0 0 0 0 0 0 0 0 0 0 0 0 0 0 0 0 0 0 0 53 53 51 51 50 49 48 48 46 46 46 45 45 45 44 44 43 44 43 41 41 42 40 39 39 39 39 39 36 36 35 35 35 35 33 31 28 31 33 28 28 28 29 28 28 28 29 27 27 26 26 24 24 22 22 20 20 19 20 21 23 21 26 28 30 32 32 32 -225 -225 -225 -225 -225 -225 -225 -225 -225 -225 -225 -225 -225 -225 -225 -225 -225 -225 -225 -225 -225 -225 -225 -225 -225 -225 -225 -225 -225 -225 -225 -225 -225 -225 -225 -225 -225 -225 -225 -225 -225 -225 -225 -225 -225 -225 -225 -225 -225 36 36 37 38 37 37 37 38 39 41 43 44 43 45 49 50 49 52 51 51 51 53 51 51 52 54 53 56 58 59 59 64 68 68 69 70 70 71 71 73 74 76 76 76 76 77 80 82 83 84 82 89 90 90 90 91 92 93 93 92 94 95 95 95 96 97 99 104 104 106 109 112 114 115 117 118 119 121 122 123 124 124 125 127 127 129 127 127 127 127 129 130 128 129 124 135 135 135 136 136 143 -209 151 152 155 156 154 155 155 159 156 160 159 161 160 164 164 164 162 166 166 167 167 167 165 165 165 165 163 0 0 0 0 0
    0 0 0 0 0 0 0 0 0 0 0 0 0 0 0 0 0 0 0 0 0 0 0 0 0 0 0 0 0 0 0 0 0 0 0 0 0 0 0 0 0 0 0 0 0 0 0 0 0 0 0 0 0 0 0 0 0 0 0 0 0 0 0 0 0 0 0 0 0 54 54 52 52 50 50 48 48 46 46 46 45 45 45 44 45 43 44 43 41 40 41 40 39 39 39 39 39 36 36 35 34 35 35 32 31 28 31 32 27 28 28 29 28 28 27 28 27 26 26 26 24 24 22 22 20 20 19 20 22 23 22 26 28 30 32 32 32 -225 -225 -225 -225 -225 -225 -225 -225 -225 -225 -225 -225 -225 -225 -225 -225 -225 -225 -225 -225 -225 -225 -225 -225 -225 -225 -225 -225 -225 -225 -225 -225 -225 -225 -225 -225 -225 -225 -225 -225 -225 -225 -225 -225 -225 -225 -225 -225 37 34 35 36 37 36 37 37 38 39 42 43 44 44 45 49 49 49 51 51 51 51 53 52 51 53 54 53 56 58 59 59 64 68 68 69 70 70 72 72 74 74 75 76 76 76 77 80 81 83 84 81 88 89 89 89 90 91 93 92 92 93 95 94 96 97 99 101 105 105 109 112 114 115 115 117 118 120 121 122 123 124 124 125 127 127 129 127 127 127 127 129 129 127 128 124 135 135 135 136 136 143 -193 150 151 153 157 154 155 155 160 156 161 159 161 160 164 164 164 162 166 166 167 167 167 165 165 165 165 163 0 0 0 0 0
    0 0 0 0 0 0 0 0 0 0 0 0 0 0 0 0 0 0 0 0 0 0 0 0 0 0 0 0 0 0 0 0 0 0 0 0 0 0 0 0 0 0 0 0 0 0 0 0 0 0 0 0 0 0 0 0 0 0 0 0 0 0 0 0 0 0 0 0 0 56 54 52 52 51 51 48 49 47 46 47 46 45 45 45 45 43 44 43 41 41 42 40 39 39 39 39 39 36 35 35 34 35 35 32 31 28 31 31 27 28 27 29 28 28 27 27 27 27 26 26 24 24 22 22 20 20 19 20 22 23 22 26 28 29 32 32 32 -225 -225 -225 -225 -225 -225 -225 -225 -225 -225 -225 -225 -225 -225 -225 -225 -225 -225 -225 -225 -225 -225 -225 -225 -225 -225 -225 -225 -225 -225 -225 -225 -225 -225 -225 -225 -225 -225 -225 -225 -225 -225 -225 -225 -225 -225 -225 -225 36 35 36 36 37 36 37 37 38 40 41 42 43 44 44 49 49 49 51 50 51 51 53 52 51 52 53 53 56 57 58 58 63 69 69 70 71 71 72 73 74 74 75 76 77 77 77 80 81 83 84 81 86 88 88 88 89 91 92 92 92 93 96 96 98 100 101 102 106 108 113 114 114 115 115 117 119 120 121 121 123 124 124 124 127 126 128 126 126 126 126 129 129 127 128 125 135 135 136 137 136 143 -193 149 150 152 158 155 155 155 160 157 161 160 161 160 164 164 164 162 166 166 167 167 166 165 165 166 165 164 0 0 0 0 0
    0 0 0 0 0 0 0 0 0 0 0 0 0 0 0 0 0 0 0 0 0 0 0 0 0 0 0 0 0 0 0 0 0 0 0 0 0 0 0 0 0 0 0 0 0 0 0 0 0 0 0 0 0 0 0 0 0 0 0 0 0 0 0 0 0 0 0 0 0 54 54 52 52 51 52 49 50 47 47 47 46 46 46 45 45 43 44 43 41 41 42 40 38 38 39 39 39 36 35 36 34 35 35 33 32 28 31 31 27 28 27 29 28 28 27 27 27 27 26 26 25 25 23 23 21 21 20 21 23 23 22 26 28 29 32 32 32 -225 -225 -225 -225 -225 -225 -225 -225 -225 -225 -225 -225 -225 -225 -225 -225 -225 -225 -225 -225 -225 -225 -225 -225 -225 -225 -225 -225 -225 -225 -225 -225 -225 -225 -225 -225 -225 -225 -225 -225 -225 -225 -225 -225 -225 -225 -225 -225 36 35 36 37 37 37 37 37 39 40 42 42 44 45 45 48 49 49 51 51 51 51 53 52 51 53 53 54 55 57 58 58 63 69 69 70 71 72 72 73 74 74 74 77 77 77 77 80 80 83 84 81 84 87 87 88 88 91 92 92 93 95 98 98 99 101 101 103 106 109 111 113 113 114 115 116 118 119 120 121 123 123 123 124 126 126 127 126 126 126 127 129 129 126 128 125 135 136 136 137 137 142 149 148 149 152 158 155 156 156 161 157 161 161 162 161 164 165 164 163 166 166 167 167 166 165 165 166 165 164 0 0 0 0 0
    0 0 0 0 0 0 0 0 0 0 0 0 0 0 0 0 0 0 0 0 0 0 0 0 0 0 0 0 0 0 0 0 0 0 0 0 0 0 0 0 0 0 0 0 0 0 0 0 0 0 0 0 0 0 0 0 0 0 0 0 0 0 0 0 0 0 0 0 0 53 53 52 52 51 52 50 51 48 47 48 47 46 46 45 45 44 44 43 41 41 42 40 39 38 39 39 39 36 35 36 34 35 35 33 32 28 31 31 26 27 27 28 28 27 27 27 28 27 27 27 27 27 25 25 23 21 21 21 24 23 23 26 27 29 32 32 32 -225 -225 -225 -225 -225 -225 -225 -225 -225 -225 -225 -225 -225 -225 -225 -225 -225 -225 -225 -225 -225 -225 -225 -225 -225 -225 -225 -225 -225 -225 -225 -225 -225 -225 -225 -225 -225 -225 -225 -225 -225 -225 -225 -225 -225 -225 -225 37 35 35 36 36 37 37 37 38 39 41 42 42 44 45 45 48 48 49 51 51 51 51 52 52 51 53 53 54 55 58 58 58 63 69 69 69 71 72 72 73 74 74 74 77 77 77 77 80 80 83 84 82 83 87 87 88 88 91 91 91 92 95 98 99 99 100 101 104 106 108 110 111 113 115 115 116 118 119 120 120 123 122 123 123 125 125 127 126 126 125 127 129 129 126 128 125 135 136 136 138 138 142 149 147 148 151 159 156 156 156 161 157 161 161 162 161 165 165 164 163 166 166 167 167 166 166 166 166 166 165 0 0 0 0 0
    0 0 0 0 0 0 0 0 0 0 0 0 0 0 0 0 0 0 0 0 0 0 0 0 0 0 0 0 0 0 0 0 0 0 0 0 0 0 0 0 0 0 0 0 0 0 0 0 0 0 0 0 0 0 0 0 0 0 0 0 0 0 0 0 0 0 0 0 0 52 52 52 51 51 52 50 51 49 48 48 47 47 46 45 45 44 44 43 41 41 41 40 39 38 39 39 39 36 35 36 34 35 35 33 32 28 32 31 26 27 27 27 28 28 28 27 30 28 28 28 28 27 26 25 25 21 21 22 24 23 23 26 26 28 32 32 32 -225 -225 -225 -225 -225 -225 -225 -225 -225 -225 -225 -225 -225 -225 -225 -225 -225 -225 -225 -225 -225 -225 -225 -225 -225 -225 -225 -225 -225 -225 -225 -225 -225 -225 -225 -225 -225 -225 -225 -225 -225 -225 -225 -225 -225 -225 -225 36 34 35 36 36 36 37 37 38 40 42 42 43 45 46 45 48 48 49 50 51 51 51 52 52 51 54 54 54 55 57 58 57 63 69 68 68 70 71 71 73 73 73 73 77 77 77 77 80 80 83 84 83 82 87 87 88 87 90 91 91 92 94 98 99 100 102 103 105 107 108 110 111 113 114 114 116 117 118 119 119 121 121 121 122 124 124 126 125 125 124 127 129 129 126 129 126 136 136 137 138 138 142 148 147 147 151 159 156 156 156 161 158 161 162 163 162 165 165 164 163 166 166 167 167 166 166 166 167 166 166 0 0 0 0 0
    0 0 0 0 0 0 0 0 0 0 0 0 0 0 0 0 0 0 0 0 0 0 0 0 0 0 0 0 0 0 0 0 0 0 0 0 0 0 0 0 0 0 0 0 0 0 0 0 0 0 0 0 0 0 0 0 0 0 0 0 0 0 0 0 0 0 0 0 0 51 51 51 51 51 52 50 52 49 48 49 48 47 47 45 45 44 44 43 41 41 41 40 39 38 39 39 39 36 35 36 35 35 35 33 32 28 32 31 25 27 26 27 28 27 28 27 30 28 28 28 28 27 27 26 25 22 21 22 24 23 23 25 25 27 30 30 30 -225 -225 -225 -225 -225 -225 -225 -225 -225 -225 -225 -225 -225 -225 -225 -225 -225 -225 -225 -225 -225 -225 -225 -225 -225 -225 -225 -225 -225 -225 -225 -225 -225 -225 -225 -225 -225 -225 -225 -225 -225 -225 -225 -225 -225 -225 -225 36 34 36 36 36 36 37 37 38 40 41 42 42 45 46 45 48 47 49 50 51 51 51 52 53 52 55 54 55 55 58 58 57 62 67 65 67 68 70 70 72 72 72 72 77 77 77 77 80 80 83 84 83 81 87 88 88 88 90 91 92 93 96 100 100 103 103 104 105 107 108 109 111 112 114 114 115 116 117 118 119 120 120 121 122 124 124 126 125 125 125 127 129 128 126 129 127 135 137 138 138 138 142 147 146 146 150 158 155 156 156 161 158 161 162 162 162 165 165 165 163 166 167 167 167 166 166 166 167 166 166 0 0 0 0 0
    0 0 0 0 0 0 0 0 0 0 0 0 0 0 0 0 0 0 0 0 0 0 0 0 0 0 0 0 0 0 0 0 0 0 0 0 0 0 0 0 0 0 0 0 0 0 0 0 0 0 0 0 0 0 0 0 0 0 0 0 0 0 0 0 0 0 0 0 0 50 49 49 50 50 52 51 53 50 49 50 48 47 47 46 45 44 44 44 42 41 41 40 39 38 38 38 39 35 35 36 35 35 35 33 32 28 32 31 25 25 25 26 27 27 27 26 29 28 28 28 28 28 27 26 26 22 21 22 24 23 22 24 25 26 29 29 29 -225 -225 -225 -225 -225 -225 -225 -225 -225 -225 -225 -225 -225 -225 -225 -225 -225 -225 -225 -225 -225 -225 -225 -225 -225 -225 -225 -225 -225 -225 -225 -225 -225 -225 -225 -225 -225 -225 -225 -225 -225 -225 -225 -225 -225 -225 -225 35 35 36 36 36 36 37 37 38 40 40 41 41 45 45 44 48 47 50 50 52 52 51 53 53 53 55 54 56 55 57 57 57 61 67 64 66 67 69 69 71 71 71 71 77 77 77 77 80 80 83 84 84 80 88 88 89 88 91 92 93 94 98 101 102 105 105 106 106 107 108 109 111 112 113 113 114 116 116 117 118 119 120 121 121 124 124 125 125 125 125 127 128 128 126 129 127 135 138 139 139 139 143 147 147 147 150 157 155 155 156 160 158 160 162 162 162 165 165 165 163 166 167 166 168 165 166 166 167 166 166 0 0 0 0 0
    0 0 0 0 0 0 0 0 0 0 0 0 0 0 0 0 0 0 0 0 0 0 0 0 0 0 0 0 0 0 0 0 0 0 0 0 0 0 0 0 0 0 0 0 0 0 0 0 0 0 0 0 0 0 0 0 0 0 0 0 0 0 0 0 0 0 0 0 0 50 50 50 51 51 52 52 54 51 49 50 48 47 46 45 45 44 43 43 41 41 41 40 39 38 38 39 39 35 35 36 35 35 35 33 32 28 32 31 25 24 24 25 26 27 28 27 30 29 28 28 28 28 27 26 26 22 21 22 24 23 22 24 23 25 27 27 27 -225 -225 -225 -225 -225 -225 -225 -225 -225 -225 -225 -225 -225 -225 -225 -225 -225 -225 -225 -225 -225 -225 -225 -225 -225 -225 -225 -225 -225 -225 -225 -225 -225 -225 -225 -225 -225 -225 -225 -225 -225 -225 -225 -225 -225 -225 36 33 34 36 36 35 36 36 36 37 39 40 40 41 43 44 44 48 47 50 50 52 52 52 53 54 53 56 55 57 55 57 57 57 60 66 63 65 66 68 69 70 70 70 70 77 77 77 77 80 80 82 83 84 79 88 88 89 88 91 92 92 94 97 101 102 104 104 105 106 106 108 109 111 111 113 113 115 116 116 117 118 119 120 121 121 124 124 125 125 125 124 127 129 129 126 130 128 134 138 140 140 140 143 147 147 147 150 156 154 155 155 159 157 159 162 162 162 164 165 165 164 166 167 166 168 165 166 166 167 167 167 0 0 0 0 0
    0 0 0 0 0 0 0 0 0 0 0 0 0 0 0 0 0 0 0 0 0 0 0 0 0 0 0 0 0 0 0 0 0 0 0 0 0 0 0 0 0 0 0 0 0 0 0 0 0 0 0 0 0 0 0 0 0 0 0 0 0 0 0 0 0 0 0 0 0 50 51 52 52 52 53 53 54 51 48 49 48 47 46 45 44 44 43 43 41 41 40 40 39 38 38 39 39 35 35 36 35 35 35 33 31 27 32 30 24 23 23 24 26 26 27 26 30 29 28 28 28 28 27 27 27 23 22 23 24 23 22 23 22 25 26 26 26 -225 -225 -225 -225 -225 -225 -225 -225 -225 -225 -225 -225 -225 -225 -225 -225 -225 -225 -225 -225 -225 -225 -225 -225 -225 -225 -225 -225 -225 -225 -225 -225 -225 -225 -225 -225 -225 -225 -225 -225 -225 -225 -225 -225 -225 -225 35 33 34 36 36 35 36 35 36 37 38 39 39 40 42 43 43 48 47 50 49 51 51 51 52 53 53 56 55 58 57 58 59 59 61 67 64 64 65 68 69 70 70 70 69 77 77 77 77 79 79 82 83 84 78 88 88 89 88 91 92 93 94 98 101 102 103 104 105 106 106 108 109 110 110 112 112 114 114 115 116 117 119 120 120 121 123 123 125 125 125 124 127 129 129 126 130 127 132 138 140 141 141 144 148 148 148 150 155 154 154 154 158 157 158 162 161 162 164 165 164 164 165 167 166 168 165 167 166 168 167 168 0 0 0 0 0
    0 0 0 0 0 0 0 0 0 0 0 0 0 0 0 0 0 0 0 0 0 0 0 0 0 0 0 0 0 0 0 0 0 0 0 0 0 0 0 0 0 0 0 0 0 0 0 0 0 0 0 0 0 0 0 0 0 0 0 0 0 0 0 0 0 0 0 0 0 51 52 52 52 51 52 53 54 52 48 49 48 47 46 45 45 44 43 43 42 42 40 40 39 38 39 39 39 35 35 36 35 35 35 33 31 27 32 30 24 22 23 24 26 26 28 27 30 29 28 28 28 28 28 27 27 23 22 23 24 22 22 23 21 23 25 25 25 -225 -225 -225 -225 -225 -225 -225 -225 -225 -225 -225 -225 -225 -225 -225 -225 -225 -225 -225 -225 -225 -225 -225 -225 -225 -225 -225 -225 -225 -225 -225 -225 -225 -225 -225 -225 -225 -225 -225 -225 -225 -225 -225 -225 -225 -225 34 33 34 36 36 35 36 35 35 36 37 38 37 40 41 42 43 48 46 49 49 51 50 50 52 53 51 55 54 57 56 58 59 59 60 67 64 64 65 68 69 69 70 69 69 77 77 77 76 78 79 82 82 83 78 88 88 89 89 91 92 93 96 100 102 102 103 104 105 106 107 108 108 110 110 112 112 113 113 114 115 117 119 119 119 120 123 122 125 125 125 124 127 129 129 125 130 128 131 138 141 141 141 144 148 148 148 150 155 153 153 154 157 157 157 162 160 161 163 165 164 164 165 167 166 168 166 168 166 168 168 168 0 0 0 0 0
    0 0 0 0 0 0 0 0 0 0 0 0 0 0 0 0 0 0 0 0 0 0 0 0 0 0 0 0 0 0 0 0 0 0 0 0 0 0 0 0 0 0 0 0 0 0 0 0 0 0 0 0 0 0 0 0 0 0 0 0 0 0 0 0 0 0 0 0 0 52 53 53 53 52 51 52 54 52 48 48 48 48 46 45 45 44 43 43 42 42 40 40 40 38 39 39 39 36 35 36 35 35 35 33 31 27 32 31 25 23 23 23 24 25 27 27 30 28 28 28 28 28 28 27 27 23 22 23 24 22 22 22 20 20 23 23 22 -225 -225 -225 -225 -225 -225 -225 -225 -225 -225 -225 -225 -225 -225 -225 -225 -225 -225 -225 -225 -225 -225 -225 -225 -225 -225 -225 -225 -225 -225 -225 -225 -225 -225 -225 -225 -225 -225 -225 -225 -225 -225 -225 -225 -225 36 33 33 34 36 35 35 36 35 35 36 37 37 37 40 41 41 43 49 47 49 49 51 49 50 52 53 52 55 55 58 58 60 62 61 61 68 64 64 65 68 68 69 69 69 69 77 77 77 76 78 79 81 82 83 78 88 89 89 89 90 93 94 97 100 101 102 103 104 105 106 107 107 107 109 109 111 111 112 112 113 114 116 118 118 118 119 122 122 124 125 124 123 126 128 128 125 129 128 130 138 142 141 142 144 148 148 148 150 154 153 153 153 156 157 157 161 160 161 163 165 165 164 165 167 166 169 167 169 166 168 168 168 0 0 0 0 0
    0 0 0 0 0 0 0 0 0 0 0 0 0 0 0 0 0 0 0 0 0 0 0 0 0 0 0 0 0 0 0 0 0 0 0 0 0 0 0 0 0 0 0 0 0 0 0 0 0 0 0 0 0 0 0 0 0 0 0 0 0 0 0 0 0 0 0 0 0 52 53 53 53 52 49 52 54 52 48 48 47 47 46 45 44 44 43 43 42 42 41 40 40 39 39 40 39 36 35 36 35 35 35 34 31 28 33 32 25 23 23 23 26 26 27 27 30 28 28 28 28 27 27 27 27 22 22 23 24 21 21 21 19 17 21 21 20 -225 -225 -225 -225 -225 -225 -225 -225 -225 -225 -225 -225 -225 -225 -225 -225 -225 -225 -225 -225 -225 -225 -225 -225 -225 -225 -225 -225 -225 -225 -225 -225 -225 -225 -225 -225 -225 -225 -225 -225 -225 -225 -225 -225 -225 35 32 32 33 36 35 35 36 36 36 37 37 37 37 40 41 41 42 49 46 49 48 50 48 50 51 52 51 55 55 58 58 59 61 61 62 68 64 64 65 68 68 68 69 69 69 77 77 77 76 78 79 81 81 82 77 88 89 89 89 91 93 95 97 100 100 101 103 103 104 106 106 107 107 108 109 111 111 112 112 114 114 116 117 117 116 119 121 121 123 125 123 123 126 127 128 125 128 128 128 138 142 141 142 143 148 148 149 150 154 152 153 153 155 157 156 161 159 161 162 165 165 164 164 167 166 169 168 169 166 168 168 169 0 0 0 0 0
    0 0 0 0 0 0 0 0 0 0 0 0 0 0 0 0 0 0 0 0 0 0 0 0 0 0 0 0 0 0 0 0 0 0 0 0 0 0 0 0 0 0 0 0 0 0 0 0 0 0 0 0 0 0 0 0 0 0 0 0 0 0 0 0 0 0 0 0 0 52 52 52 53 52 49 54 54 52 48 48 47 47 46 45 44 44 43 43 42 43 41 41 41 40 39 40 39 36 36 37 36 35 36 34 32 28 33 33 26 24 23 23 25 26 26 25 28 27 27 27 27 27 27 26 26 22 21 22 23 20 20 20 18 15 19 19 18 -225 -225 -225 -225 -225 -225 -225 -225 -225 -225 -225 -225 -225 -225 -225 -225 -225 -225 -225 -225 -225 -225 -225 -225 -225 -225 -225 -225 -225 -225 -225 -225 -225 -225 -225 -225 -225 -225 -225 -225 -225 -225 -225 -225 -225 34 32 32 33 36 35 35 37 36 37 37 37 37 37 40 41 40 41 49 46 48 49 50 48 50 52 53 52 56 55 58 58 60 61 61 62 68 64 65 65 67 67 68 68 68 68 76 76 76 76 78 79 81 81 82 77 88 89 89 90 92 94 96 99 100 101 101 103 103 104 105 106 106 107 108 109 111 110 111 111 113 113 115 115 115 114 118 120 121 122 124 123 124 126 127 128 126 128 128 127 138 141 141 142 142 147 149 149 150 153 152 153 153 154 157 156 160 159 161 162 165 165 165 164 167 167 170 168 169 166 168 168 169 0 0 0 0 0
    0 0 0 0 0 0 0 0 0 0 0 0 0 0 0 0 0 0 0 0 0 0 0 0 0 0 0 0 0 0 0 0 0 0 0 0 0 0 0 0 0 0 0 0 0 0 0 0 0 0 0 0 0 0 0 0 0 0 0 0 0 0 0 0 0 0 0 0 0 51 53 53 55 55 54 58 59 55 49 48 46 46 46 45 44 45 43 44 43 43 41 41 41 40 39 41 39 37 36 37 36 36 36 35 32 28 33 33 26 25 24 24 25 25 25 24 27 27 26 26 26 26 26 26 26 21 21 21 22 20 20 19 17 14 18 18 17 -225 -225 -225 -225 -225 -225 -225 -225 -225 -225 -225 -225 -225 -225 -225 -225 -225 -225 -225 -225 -225 -225 -225 -225 -225 -225 -225 -225 -225 -225 -225 -225 -225 -225 -225 -225 -225 -225 -225 -225 -225 -225 -225 -225 -225 32 31 31 32 36 35 34 37 36 37 37 36 36 36 39 40 -193 -193 48 47 49 49 50 49 51 53 53 53 56 56 58 58 60 60 61 61 68 64 65 65 67 67 67 68 68 68 76 76 76 76 78 79 81 82 82 78 89 89 91 91 92 94 97 99 101 101 101 102 102 104 105 105 106 106 107 108 110 110 111 111 114 114 116 116 116 115 118 120 121 122 125 123 124 126 128 128 126 128 128 126 138 141 140 141 142 147 149 149 150 153 153 153 153 154 158 156 160 159 161 162 166 165 165 165 168 167 170 169 169 167 168 168 169 0 0 0 0 0
    0 0 0 0 0 0 0 0 0 0 0 0 0 0 0 0 0 0 0 0 0 0 0 0 0 0 0 0 0 0 0 0 0 0 0 0 0 0 0 0 0 0 0 0 0 0 0 0 0 0 0 0 0 0 0 0 0 0 0 0 0 0 0 0 0 0 0 0 0 52 54 55 56 57 57 59 60 56 50 48 46 46 46 45 45 45 44 45 43 43 41 41 41 40 39 41 39 37 37 38 37 36 36 35 33 29 33 34 26 28 26 27 26 28 27 26 28 28 27 27 27 27 26 26 26 21 21 21 22 20 19 19 17 14 18 18 17 -225 -225 -225 -225 -225 -225 -225 -225 -225 -225 -225 -225 -225 -225 -225 -225 -225 -225 -225 -225 -225 -225 -225 -225 -225 -225 -225 -225 -225 -225 -225 -225 -225 -225 -225 -225 -225 -225 -225 -225 -225 -225 -225 -225 35 31 31 31 33 36 35 34 37 36 37 37 37 37 37 40 40 40 41 47 47 48 50 50 49 52 54 54 53 56 55 58 58 59 60 60 61 68 64 65 65 66 67 67 68 68 68 76 76 76 76 78 79 82 82 83 78 89 89 91 91 92 94 96 99 100 100 100 101 102 103 104 105 105 106 107 108 110 111 111 111 114 113 116 117 116 115 118 120 121 123 126 124 124 127 128 129 127 128 128 125 137 141 140 141 141 147 149 149 151 152 153 153 154 154 158 156 160 159 162 162 166 166 166 165 168 168 171 170 170 168 169 169 171 0 0 0 0 0
    0 0 0 0 0 0 0 0 0 0 0 0 0 0 0 0 0 0 0 0 0 0 0 0 0 0 0 0 0 0 0 0 0 0 0 0 0 0 0 0 0 0 0 0 0 0 0 0 0 0 0 0 0 0 0 0 0 0 0 0 0 0 0 0 0 0 0 0 0 52 54 55 56 57 57 59 59 56 50 47 47 46 46 45 44 44 43 45 42 43 40 40 40 39 39 40 39 37 37 38 37 37 37 36 33 29 34 34 26 32 29 29 27 28 28 27 28 28 27 27 26 27 26 26 25 21 21 21 22 19 19 18 17 13 18 18 17 -225 -225 -225 -225 -225 -225 -225 -225 -225 -225 -225 -225 -225 -225 -225 -225 -225 -225 -225 -225 -225 -225 -225 -225 -225 -225 -225 -225 -225 -225 -225 -225 -225 -225 -225 -225 -225 -225 -225 -225 -225 -225 -225 -225 34 31 32 32 34 36 35 34 37 36 38 38 38 38 38 41 41 -193 42 48 48 48 50 50 49 53 54 54 53 55 55 57 58 58 60 61 61 68 64 65 65 66 67 67 68 68 68 76 76 76 76 78 79 82 82 83 79 89 90 91 91 92 94 96 99 99 99 99 100 101 102 103 104 104 105 106 108 110 111 111 111 115 114 117 117 116 115 117 119 121 123 126 124 125 127 128 129 128 128 128 125 137 139 138 140 140 146 149 149 150 152 154 154 154 154 159 156 161 160 162 163 167 167 167 166 169 169 171 170 171 -193 169 170 172 0 0 0 0 0
    0 0 0 0 0 0 0 0 0 0 0 0 0 0 0 0 0 0 0 0 0 0 0 0 0 0 0 0 0 0 0 0 0 0 0 0 0 0 0 0 0 0 0 0 0 0 0 0 0 0 0 0 0 0 0 0 0 0 0 0 0 0 0 0 0 0 0 0 0 52 54 55 56 56 56 58 59 55 50 47 47 46 47 46 45 45 43 46 43 43 41 40 40 39 39 40 39 38 37 38 37 37 37 36 34 31 34 35 27 35 29 31 27 28 28 26 27 27 26 26 26 26 26 25 25 20 21 21 22 19 19 18 17 13 18 18 17 -225 -225 -225 -225 -225 -225 -225 -225 -225 -225 -225 -225 -225 -225 -225 -225 -225 -225 -225 -225 -225 -225 -225 -225 -225 -225 -225 -225 16 14 14 14 14 13 -225 -225 -225 -225 -225 -225 -225 -225 -225 -225 32 30 31 32 34 35 34 33 37 36 38 37 38 38 38 42 41 41 43 47 49 49 51 50 49 53 54 54 53 54 54 55 57 58 60 61 61 68 65 65 65 66 67 67 69 69 69 77 77 77 77 78 79 82 83 83 80 89 90 91 91 93 94 97 98 99 99 100 100 101 102 103 103 104 105 106 107 110 111 111 111 115 115 117 117 116 114 117 119 121 122 126 124 125 127 128 129 128 127 128 124 137 139 138 139 139 146 149 149 150 152 155 154 154 154 159 156 161 160 163 163 167 167 167 167 170 170 172 171 172 -193 170 171 173 0 0 0 0 0
    0 0 0 0 0 0 0 0 0 0 0 0 0 0 0 0 0 0 0 0 0 0 0 0 0 0 0 0 0 0 0 0 0 0 0 0 0 0 0 0 0 0 0 0 0 0 0 0 0 0 0 0 0 0 0 0 0 0 0 0 0 0 0 0 0 0 0 0 0 51 52 53 54 54 55 57 58 55 49 46 47 46 46 45 44 44 43 46 43 43 41 40 39 39 39 40 39 38 38 38 38 38 38 37 35 32 34 36 26 38 29 32 27 28 28 26 27 27 26 26 26 26 25 24 24 20 20 20 22 19 18 17 16 13 17 17 17 -225 -225 -225 -225 -225 -225 -225 -225 -225 -225 -225 -225 -225 -225 -225 -225 -225 -225 -225 -225 -225 -225 -225 -225 -225 -225 -225 15 17 15 15 15 15 13 15 -225 -225 -225 -225 -225 -225 -225 -225 35 31 30 31 32 34 35 34 33 37 37 39 38 38 38 39 42 41 41 42 46 48 49 51 51 50 54 55 55 54 54 55 57 57 58 60 61 62 68 65 66 65 67 68 68 70 70 -193 77 77 77 77 79 79 82 83 83 81 89 89 90 91 93 95 97 98 99 99 100 100 101 102 102 103 103 104 105 107 111 112 111 113 116 116 117 117 116 114 116 118 120 122 125 124 125 127 129 129 129 127 128 124 136 137 137 138 138 144 148 147 149 151 156 154 155 154 159 157 161 161 164 163 168 167 167 167 170 170 172 170 171 565 -193 -193 174 0 0 0 0 0
    0 0 0 0 0 0 0 0 0 0 0 0 0 0 0 0 0 0 0 0 0 0 0 0 0 0 0 0 0 0 0 0 0 0 0 0 0 0 0 0 0 0 0 0 0 0 0 0 0 0 0 0 0 0 0 0 0 0 0 0 0 0 0 0 0 0 0 0 0 49 51 51 53 54 57 58 58 56 50 46 47 46 46 45 45 44 43 46 44 44 41 40 39 39 39 41 39 39 38 39 38 38 38 38 36 34 34 36 26 38 29 32 27 29 28 26 26 26 26 26 25 26 25 23 23 19 20 20 21 18 18 17 16 13 17 17 16 -225 -225 -225 -225 -225 -225 -225 -225 -225 -225 -225 -225 -225 -225 -225 -225 -225 -225 -225 -225 -225 -225 -225 -225 -225 -225 21 15 17 15 15 15 15 13 15 11 -225 -225 -225 -225 -225 -225 -225 34 31 31 31 33 35 35 33 33 37 38 39 38 38 37 38 41 41 41 41 44 48 48 51 52 51 55 55 55 55 54 55 58 57 58 60 61 61 67 65 66 66 67 68 68 70 70 -193 77 77 77 77 79 79 83 83 83 81 88 88 89 90 92 94 96 98 98 98 99 99 100 100 101 101 102 102 103 106 110 112 113 115 117 117 118 117 116 115 116 118 120 121 125 124 125 127 129 129 129 128 128 123 135 136 136 137 137 143 148 146 148 151 157 155 155 155 159 157 161 162 164 163 168 167 167 166 170 170 171 170 171 566 -193 -193 175 0 0 0 0 0
    0 0 0 0 0 0 0 0 0 0 0 0 0 0 0 0 0 0 0 0 0 0 0 0 0 0 0 0 0 0 0 0 0 0 0 0 0 0 0 0 0 0 0 0 0 0 0 0 0 0 0 0 0 0 0 0 0 0 0 0 0 0 0 0 0 0 0 0 0 48 49 49 51 53 57 58 59 57 52 48 50 47 47 46 46 45 44 47 44 44 42 41 39 39 39 41 39 40 39 39 38 39 39 38 36 35 34 36 26 39 30 -193 27 29 28 27 26 27 26 26 26 26 25 24 24 20 20 19 21 18 17 16 15 13 16 16 16 -225 -225 -225 -225 -225 -225 -225 -225 -225 -225 -225 -225 -225 -225 -225 -225 -225 -225 -225 -225 -225 -225 -225 -225 -225 -225 21 15 17 15 15 14 14 13 14 10 12 -225 -225 -225 -225 -225 -225 32 30 30 31 34 34 34 33 33 37 38 39 37 38 37 38 40 40 40 41 43 46 47 50 52 51 54 54 54 55 54 55 57 56 57 60 61 61 67 66 67 67 68 69 69 71 71 71 77 77 77 77 79 79 83 83 84 81 88 89 90 91 93 94 96 98 98 98 99 99 99 100 101 100 101 101 102 106 111 114 115 117 118 118 119 118 117 117 117 119 120 122 125 124 125 128 129 130 130 128 128 123 133 136 136 137 137 142 149 146 147 151 157 155 155 155 160 157 161 162 164 163 167 166 166 165 169 169 170 169 170 -177 -193 175 175 0 0 0 0 0
    0 0 0 0 0 0 0 0 0 0 0 0 0 0 0 0 0 0 0 0 0 0 0 0 0 0 0 0 0 0 0 0 0 0 0 0 0 0 0 0 0 0 0 0 0 0 0 0 0 0 0 0 0 0 0 0 0 0 0 0 0 0 0 0 0 0 0 0 0 48 49 48 49 51 54 57 57 56 51 50 51 48 49 48 48 46 46 48 45 46 43 42 40 39 40 -193 39 40 39 39 38 39 39 38 36 36 33 35 26 37 29 32 27 29 28 27 27 27 26 26 26 26 25 24 24 21 20 20 21 18 17 17 15 13 16 16 16 -225 -225 -225 -225 -225 -225 -225 -225 -225 -225 -225 -225 -225 -225 -225 -225 -225 -225 -225 -225 -225 -225 -225 -225 -225 13 21 15 18 15 15 14 13 12 13 10 11 0 -225 -225 -225 -225 -225 29 29 29 30 34 34 34 32 33 37 37 38 37 37 36 37 39 39 39 40 42 46 47 50 52 52 54 54 54 55 54 55 58 56 57 60 60 60 67 67 68 68 69 70 70 73 73 73 77 77 77 77 79 79 83 83 84 82 88 89 90 91 93 94 95 97 98 98 98 99 99 100 100 100 100 100 102 106 113 115 116 118 119 119 119 119 118 119 119 120 121 123 126 124 126 128 129 130 130 128 128 123 133 137 137 139 139 143 150 146 147 150 158 155 155 155 159 157 160 162 164 162 166 165 165 164 168 168 168 167 169 -177 -193 -193 175 0 0 0 0 0
    0 0 0 0 0 0 0 0 0 0 0 0 0 0 0 0 0 0 0 0 0 0 0 0 0 0 0 0 0 0 0 0 0 0 0 0 0 0 0 0 0 0 0 0 0 0 0 0 0 0 0 0 0 0 0 0 0 0 0 0 0 0 0 0 0 0 0 0 0 48 49 48 47 50 52 55 55 54 49 49 51 48 48 48 48 47 46 49 46 45 43 42 40 39 40 -193 39 40 39 39 38 39 39 38 36 36 32 34 25 35 29 32 27 30 28 27 27 28 26 26 26 26 25 24 24 21 20 20 22 18 18 17 16 13 16 16 16 -225 -225 -225 -225 -225 -225 -225 -225 -225 -225 -225 -225 -225 -225 -225 -225 -225 -225 -225 -225 -225 -225 -225 -225 -225 14 21 15 18 16 15 14 14 13 13 10 11 0 0 -225 -225 -225 292 29 29 29 30 35 34 34 32 34 36 36 37 36 37 36 37 39 39 39 40 41 46 47 50 52 52 53 54 54 54 53 54 58 55 56 60 60 60 67 68 69 69 70 71 71 73 74 74 77 77 77 77 79 79 82 84 84 82 89 90 91 91 93 94 96 97 98 98 98 98 99 99 100 100 99 99 103 106 114 116 116 118 119 120 120 119 119 121 120 121 122 123 126 125 126 128 129 129 130 128 128 123 133 138 138 140 140 143 149 145 146 150 157 155 155 155 159 156 159 162 163 160 165 164 164 163 166 167 166 166 168 -177 -193 -193 175 0 0 0 0 0
    0 0 0 0 0 0 0 0 0 0 0 0 0 0 0 0 0 0 0 0 0 0 0 0 0 0 0 0 0 0 0 0 0 0 0 0 0 0 0 0 0 0 0 0 0 0 0 0 0 0 0 0 0 0 0 0 0 0 0 0 0 0 0 0 0 0 0 0 0 49 49 48 46 48 50 53 53 52 48 48 51 48 48 48 48 47 47 48 45 45 -193 41 39 38 39 -193 39 39 38 39 38 38 38 38 36 36 32 34 25 32 28 31 27 30 28 27 27 28 26 26 25 26 25 23 24 21 19 21 22 19 18 17 16 13 16 16 16 -225 -225 -225 -225 -225 -225 -225 -225 -225 -225 -225 -225 -225 -225 -225 -225 -225 -225 -225 -225 -225 -225 -225 -225 -225 14 21 15 17 15 15 14 13 12 13 9 11 0 0 9 -225 -225 292 29 30 30 31 36 34 34 33 35 36 36 37 36 37 36 37 39 39 40 41 42 46 48 49 52 51 53 53 53 54 52 54 57 55 56 61 60 61 68 70 70 70 71 71 72 74 74 74 77 77 77 77 79 78 82 84 84 82 88 89 90 90 92 93 95 97 97 97 97 98 98 99 99 99 99 101 106 109 115 117 117 118 119 119 120 120 120 121 120 122 123 124 126 125 125 127 129 129 130 128 128 124 127 137 138 139 140 141 148 145 146 150 158 154 154 154 158 156 158 161 163 159 165 163 163 162 165 166 165 164 167 -177 -209 -193 174 0 0 0 0 0
    0 0 0 0 0 0 0 0 0 0 0 0 0 0 0 0 0 0 0 0 0 0 0 0 0 0 0 0 0 0 0 0 0 0 0 0 0 0 0 0 0 0 0 0 0 0 0 0 0 0 0 0 0 0 0 0 0 0 0 0 0 0 0 0 0 0 0 0 0 49 49 47 46 47 49 52 52 51 47 48 50 48 48 47 48 46 46 47 45 44 42 41 39 37 39 40 39 39 38 39 38 38 38 38 36 35 31 33 25 29 27 31 27 29 28 27 27 27 26 25 25 25 24 23 24 21 18 20 22 19 18 17 16 13 16 17 17 -225 -225 -225 -225 -225 -225 -225 -225 -225 -225 -225 -225 -225 -225 -225 -225 -225 -225 -225 -225 -225 -225 -225 -225 -225 14 21 14 16 14 14 13 13 12 12 9 11 0 0 11 -225 -225 290 -193 29 29 30 36 34 33 32 35 35 36 37 35 36 36 37 38 38 40 41 41 46 48 49 52 51 52 52 52 53 51 53 57 54 57 62 61 61 68 71 71 71 71 72 73 75 75 75 77 77 78 78 79 78 82 83 84 81 88 89 89 90 92 93 94 96 97 97 97 98 98 98 99 100 100 103 109 111 116 118 117 119 119 120 120 120 120 121 120 122 122 123 124 125 125 127 129 129 130 127 128 125 124 137 138 140 140 141 148 145 146 150 157 154 154 154 156 156 157 161 162 158 164 162 162 161 164 165 163 163 166 -177 -209 -209 173 0 0 0 0 0
    0 0 0 0 0 0 0 0 0 0 0 0 0 0 0 0 0 0 0 0 0 0 0 0 0 0 0 0 0 0 0 0 0 0 0 0 0 0 0 0 0 0 0 0 0 0 0 0 0 0 0 0 0 0 0 0 0 0 0 0 0 0 0 0 0 0 0 0 0 49 48 47 46 47 48 51 51 51 46 48 50 47 46 46 47 45 45 46 44 43 41 41 39 38 39 -193 39 40 38 39 38 38 38 38 35 35 30 33 25 27 27 31 27 29 27 26 26 27 25 25 24 25 23 22 24 21 18 21 22 19 18 16 16 13 16 17 17 -225 -225 -225 -225 -225 -225 -225 -225 -225 -225 -225 -225 -225 -225 -225 -225 -225 -225 -225 -225 -225 -225 -225 -225 -225 15 21 15 16 15 14 14 13 12 12 9 11 0 0 11 -225 290 -177 -193 29 29 30 36 33 33 32 36 35 36 37 34 35 35 36 37 37 39 40 40 45 47 48 51 -193 -193 51 51 52 50 52 56 52 57 63 60 61 67 71 71 71 72 72 73 75 75 75 77 77 78 78 79 78 82 83 84 81 87 88 89 89 92 92 93 95 96 97 97 97 98 98 100 101 101 104 110 111 116 118 117 118 119 119 120 120 120 121 120 121 122 122 123 125 124 126 128 129 129 127 128 126 124 137 139 140 140 141 147 145 146 149 156 153 153 153 155 155 156 160 161 157 163 161 161 160 162 164 162 161 165 -193 -209 -209 -193 0 0 0 0 0
    0 0 0 0 0 0 0 0 0 0 0 0 0 0 0 0 0 0 0 0 0 0 0 0 0 0 0 0 0 0 0 0 0 0 0 0 0 0 0 0 0 0 0 0 0 0 0 0 0 0 0 0 0 0 0 0 0 0 0 0 0 0 0 0 0 0 0 0 0 49 48 47 45 47 47 50 50 50 46 48 50 48 46 46 47 46 45 46 43 43 -193 -209 39 38 39 -193 39 40 38 39 38 38 38 38 35 35 30 32 25 28 27 32 27 29 27 26 26 27 25 24 24 23 23 22 23 21 17 21 22 18 18 16 17 13 16 17 17 -225 -225 -225 -225 -225 -225 -225 -225 -225 -225 -225 -225 -225 -225 -225 -225 -225 -225 -225 -225 -225 -225 -225 -225 17 15 21 15 16 15 14 14 12 12 12 9 10 0 0 12 -225 -177 -177 28 29 31 30 36 32 32 31 36 33 36 37 34 35 34 35 37 37 39 39 39 44 46 47 51 -193 -193 50 51 52 50 52 56 51 57 65 60 61 67 72 71 71 71 72 73 75 75 75 77 77 78 78 79 78 82 83 83 79 86 87 88 89 91 91 92 93 95 96 96 97 97 99 101 102 103 105 110 110 115 117 116 117 119 119 120 120 120 121 120 121 121 122 122 125 124 125 127 128 129 128 129 127 125 137 138 140 140 140 146 145 146 149 154 152 152 152 154 155 156 160 160 157 162 161 161 161 162 164 161 162 165 -193 -209 -209 -209 0 0 0 0 0
    0 0 0 0 0 0 0 0 0 0 0 0 0 0 0 0 0 0 0 0 0 0 0 0 0 0 0 0 0 0 0 0 0 0 0 0 0 0 0 0 0 0 0 0 0 0 0 0 0 0 0 0 0 0 0 0 0 0 0 0 0 0 0 0 0 0 0 0 0 50 48 48 46 47 47 50 50 51 47 48 50 49 47 48 48 47 46 47 44 -193 -193 -209 -209 38 39 -193 38 39 38 39 38 38 38 37 35 34 30 32 26 30 28 34 28 29 27 26 26 27 24 24 24 22 22 22 23 21 16 20 21 17 18 16 17 13 16 17 17 -225 -225 -225 -225 -225 -225 -225 -225 -225 -225 -225 -225 -225 -225 -225 -225 -225 -225 -225 -225 -225 -225 -225 -225 16 15 21 15 16 15 14 14 12 12 12 -193 10 0 -209 -209 -209 -177 -177 -193 28 30 30 35 31 31 31 35 32 35 36 33 34 34 35 37 37 40 41 40 44 46 47 50 48 48 49 49 51 48 49 53 48 56 64 60 61 67 72 70 70 71 72 72 74 74 75 76 77 78 78 79 79 82 83 84 80 86 87 88 88 90 89 90 92 94 95 95 96 97 99 101 102 103 104 109 109 113 116 115 116 118 119 120 120 120 121 120 121 122 122 122 125 123 125 127 127 128 128 129 129 126 137 138 140 140 140 145 146 147 150 154 152 152 152 153 155 155 159 160 158 162 162 162 161 162 164 162 163 165 -209 -209 -209 -209 0 0 0 0 0
    0 0 0 0 0 0 0 0 0 0 0 0 0 0 0 0 0 0 0 0 0 0 0 0 0 0 0 0 0 0 0 0 0 0 0 0 0 0 0 0 0 0 0 0 0 0 0 0 0 0 0 0 0 0 0 0 0 0 0 0 0 0 0 0 0 0 0 0 0 50 49 49 46 47 46 49 50 50 46 48 50 49 48 48 49 47 47 47 44 -193 -193 -209 -209 38 39 40 38 39 38 39 38 38 38 37 34 34 30 32 26 32 28 35 28 29 27 27 -193 -193 24 24 24 22 22 21 22 21 16 20 21 17 17 16 17 13 16 17 17 -225 -225 -225 -225 -225 -225 -225 -225 -225 -225 -225 -225 -225 -225 -225 -225 -225 -225 -225 -225 -225 -225 -225 -225 16 15 21 15 16 15 15 14 12 12 12 -193 -209 0 -177 -209 -209 -177 -177 -193 27 29 29 34 31 31 31 35 32 35 36 34 35 35 36 38 37 41 43 40 45 46 46 50 48 48 48 48 49 46 47 50 45 56 65 59 61 67 72 70 70 70 71 71 73 73 74 76 77 78 78 78 79 81 84 85 81 87 88 88 88 89 89 89 91 93 95 96 98 99 101 102 103 104 105 109 109 112 115 114 115 117 119 119 120 121 121 120 122 122 123 122 126 123 125 126 127 128 127 128 128 126 137 138 140 140 140 145 147 148 150 154 153 153 153 154 156 155 160 160 158 162 162 162 162 163 165 163 164 166 -209 -209 -209 -193 0 0 0 0 0
    0 0 0 0 0 0 0 0 0 0 0 0 0 0 0 0 0 0 0 0 0 0 0 0 0 0 0 0 0 0 0 0 0 0 0 0 0 0 0 0 0 0 0 0 0 0 0 0 0 0 0 0 0 0 0 0 0 0 0 0 0 0 0 0 0 0 0 0 0 50 48 49 46 46 45 48 48 49 44 46 48 47 46 46 47 46 46 46 43 42 -209 -193 -209 38 38 40 38 39 38 39 38 38 38 37 34 34 30 32 26 31 27 35 28 30 27 27 -193 -193 24 24 23 22 21 20 21 20 15 20 21 17 17 16 16 14 16 17 17 -225 -225 -225 -225 -225 -225 -225 -225 -225 -225 -225 -225 -225 -225 -225 -225 -225 -225 -225 -225 -225 -225 -225 -225 15 15 21 15 15 14 14 13 12 12 12 -193 -209 -209 -193 -209 -193 -177 -177 -193 26 28 29 33 31 31 31 35 32 34 36 34 -193 35 37 38 38 42 44 40 45 46 46 49 47 47 47 47 48 45 46 48 44 56 68 60 61 67 72 69 69 69 70 70 72 72 73 75 77 78 78 78 78 80 84 85 81 87 87 88 87 87 88 88 89 92 94 96 98 100 101 103 104 105 106 109 108 111 113 113 113 116 118 119 120 121 121 121 122 122 123 122 126 123 124 126 127 127 127 127 128 125 137 138 139 139 139 145 147 148 150 153 153 153 153 154 157 155 160 160 159 162 163 163 163 163 166 164 -193 167 -209 -209 -209 -209 0 0 0 0 0
    0 0 0 0 0 0 0 0 0 0 0 0 0 0 0 0 0 0 0 0 0 0 0 0 0 0 0 0 0 0 0 0 0 0 0 0 0 0 0 0 0 0 0 0 0 0 0 0 0 0 0 0 0 0 0 0 0 0 0 0 0 0 0 0 0 0 0 0 0 50 49 49 47 47 45 47 47 48 43 44 45 45 45 44 46 46 45 46 43 -209 -193 39 39 38 38 40 38 39 38 39 38 37 37 37 34 34 30 32 26 30 27 35 28 30 27 27 -193 -193 24 24 23 22 21 20 21 20 16 20 21 17 17 16 16 14 16 17 17 -225 -225 -225 -225 -225 -225 -225 -225 -225 -225 -225 -225 -225 -225 -225 -225 -225 -225 -225 -225 -225 -225 -225 -225 15 16 20 14 14 14 14 13 12 12 12 -193 -193 -193 -209 -209 274 -177 -177 -193 27 28 29 31 31 30 31 35 32 34 36 35 36 36 38 39 39 43 44 41 46 46 46 48 47 47 47 47 47 45 46 47 44 56 69 61 62 66 71 67 67 68 69 69 72 72 72 75 76 78 78 78 79 80 84 85 81 87 87 87 87 87 88 88 89 92 93 96 98 99 101 103 103 105 106 109 108 110 112 112 110 114 118 119 121 121 121 120 122 122 123 122 127 123 124 126 127 127 128 127 129 125 137 137 138 138 139 144 148 149 151 153 154 154 154 154 158 156 160 161 161 163 165 164 164 164 167 166 -209 168 -209 -209 -209 -209 0 0 0 0 0
    0 0 0 0 0 0 0 0 0 0 0 0 0 0 0 0 0 0 0 0 0 0 0 0 0 0 0 0 0 0 0 0 0 0 0 0 0 0 0 0 0 0 0 0 0 0 0 0 0 0 0 0 0 0 0 0 0 0 0 0 0 0 0 0 0 0 0 0 0 50 49 49 48 47 45 47 47 48 43 43 45 45 45 44 47 46 46 46 43 -209 39 39 39 38 38 40 38 39 38 39 38 37 37 37 33 33 30 32 26 29 26 33 27 31 27 27 -193 -193 24 25 23 22 21 20 21 21 17 20 21 17 17 16 16 15 16 17 17 -225 -225 -225 -225 -225 -225 -225 -225 -225 -225 -225 -225 -225 -225 -225 -225 -225 -225 -225 -225 -225 -225 -225 -225 15 18 20 15 14 14 14 13 12 12 11 9 9 10 -209 -209 -177 -177 -177 25 28 28 30 30 31 30 30 34 32 34 36 35 36 36 40 40 40 44 45 41 47 46 46 48 46 46 46 47 47 45 46 47 44 57 68 62 62 64 71 66 66 67 69 68 71 71 72 74 76 78 79 78 79 80 84 85 81 86 86 86 87 86 87 88 88 91 -193 94 96 98 100 102 103 104 105 108 107 109 111 111 109 112 117 119 121 121 120 120 121 122 123 122 127 123 124 126 127 128 128 128 129 124 137 137 138 138 139 144 148 150 152 153 156 154 155 155 160 156 161 161 162 163 166 165 165 165 168 167 -193 -193 -193 -209 -209 -193 0 0 0 0 0
    0 0 0 0 0 0 0 0 0 0 0 0 0 0 0 0 0 0 0 0 0 0 0 0 0 0 0 0 0 0 0 0 0 0 0 0 0 0 0 0 0 0 0 0 0 0 0 0 0 0 0 0 0 0 0 0 0 0 0 0 0 0 0 0 0 0 0 0 0 50 49 49 48 47 45 46 47 47 43 43 45 45 45 45 47 47 46 47 44 -193 -209 39 -193 38 38 40 38 39 38 39 37 37 37 37 33 33 30 32 26 32 27 31 27 30 27 27 -193 -193 -193 25 24 23 21 21 21 21 18 20 20 17 16 16 16 15 16 17 17 -225 -225 -225 -225 -225 -225 -225 -225 -225 -225 -225 -225 -225 -225 -225 -225 -225 -225 -225 -225 -225 -225 -225 -225 15 19 19 16 15 14 14 13 13 13 12 10 9 -193 -177 -193 -177 -177 -177 -193 27 28 30 29 30 30 29 33 31 33 36 35 36 36 40 40 41 44 45 42 47 46 46 47 46 46 46 47 47 44 46 47 44 57 67 61 61 63 70 65 65 66 68 67 70 70 71 74 76 78 79 78 79 79 83 85 81 86 86 86 87 87 87 88 88 91 93 94 96 98 100 102 103 104 104 106 106 107 109 109 107 110 117 120 122 122 120 121 121 122 123 122 127 123 124 126 128 128 129 128 130 125 137 138 139 139 140 144 148 150 151 152 156 154 155 155 160 157 162 162 163 164 166 166 166 166 169 169 170 168 -193 -209 -193 -193 0 0 0 0 0
    0 0 0 0 0 0 0 0 0 0 0 0 0 0 0 0 0 0 0 0 0 0 0 0 0 0 0 0 0 0 0 0 0 0 0 0 0 0 0 0 0 0 0 0 0 0 0 0 0 0 0 0 0 0 0 0 0 0 0 0 0 0 0 0 0 0 0 0 0 50 49 49 48 48 45 45 46 47 43 43 45 45 46 46 49 48 47 49 45 -193 -209 40 -209 39 39 40 38 39 38 39 37 37 37 36 33 32 30 32 26 30 26 28 26 29 27 27 26 26 24 25 24 23 22 21 21 21 19 21 20 17 16 15 16 16 16 16 16 -225 -225 -225 -225 -225 -225 -225 -225 -225 -225 -225 -225 -225 -225 -225 -225 -225 -225 -225 -225 -225 -225 -225 -225 15 19 18 15 15 14 14 13 13 13 12 10 9 -193 -177 274 -177 -177 -177 27 29 29 31 29 31 30 29 33 31 33 35 34 36 36 39 40 40 43 44 42 47 45 46 47 46 46 46 47 47 44 47 47 45 57 64 61 61 62 70 65 65 65 67 67 69 69 71 73 76 78 78 78 78 78 83 85 81 86 85 86 87 87 88 89 88 91 92 94 95 97 99 102 102 104 103 105 105 105 107 108 105 108 117 120 124 122 121 121 122 122 124 123 127 123 125 126 128 129 130 128 131 127 138 139 140 140 140 145 148 149 150 152 157 155 155 156 161 157 162 162 164 164 167 166 166 166 170 170 170 168 -193 -193 -193 -193 0 0 0 0 0
    0 0 0 0 0 0 0 0 0 0 0 0 0 0 0 0 0 0 0 0 0 0 0 0 0 0 0 0 0 0 0 0 0 0 0 0 0 0 0 0 0 0 0 0 0 0 0 0 0 0 0 0 0 0 0 0 0 0 0 0 0 0 0 0 0 0 0 0 0 50 49 49 49 48 46 45 46 47 44 43 45 45 47 47 50 49 48 50 46 45 -193 -209 -193 39 39 41 38 38 37 38 37 36 36 36 32 31 30 31 26 28 26 26 26 29 27 27 26 26 25 25 24 23 22 21 21 22 19 20 20 17 16 15 16 16 16 16 16 -225 -225 -225 -225 -225 -225 -225 -225 -225 -225 -225 -225 -225 -225 -225 -225 -225 -225 -225 -225 -225 -225 -225 -225 14 18 18 15 15 14 14 13 13 13 11 10 9 -209 -177 272 -177 -177 -177 29 29 29 31 29 31 31 29 33 30 33 35 34 37 36 39 40 41 43 44 42 47 45 46 47 46 46 46 47 47 45 47 47 46 57 63 61 61 63 70 65 65 65 67 67 69 69 70 -193 76 77 78 78 78 78 83 85 81 86 85 85 87 87 88 89 88 91 92 94 94 96 98 101 101 103 102 104 104 105 107 108 104 107 118 121 125 123 121 122 122 122 124 123 127 123 125 127 129 130 131 129 131 127 137 140 141 140 140 145 148 149 149 151 158 155 156 157 161 158 162 162 165 164 168 167 167 167 170 171 170 168 -193 -193 -193 -193 0 0 0 0 0
    0 0 0 0 0 0 0 0 0 0 0 0 0 0 0 0 0 0 0 0 0 0 0 0 0 0 0 0 0 0 0 0 0 0 0 0 0 0 0 0 0 0 0 0 0 0 0 0 0 0 0 0 0 0 0 0 0 0 0 0 0 0 0 0 0 0 0 0 0 50 50 50 49 49 46 44 47 48 44 43 46 46 47 47 50 49 49 50 47 46 43 42 43 40 40 41 38 38 37 38 37 36 36 36 32 30 29 30 26 26 26 25 26 29 27 28 26 26 25 26 25 24 22 21 21 22 20 20 20 18 16 15 16 16 16 16 16 -225 -225 -225 -225 -225 -225 -225 -225 -225 -225 -225 -225 -225 -225 -225 -225 -225 -225 -225 -225 -225 -225 -225 18 15 19 19 15 15 14 14 13 13 13 11 10 9 -193 -177 -209 -177 -177 -177 29 30 29 32 29 32 32 29 33 31 33 35 35 37 37 39 41 41 43 44 43 47 45 47 47 46 46 47 48 47 45 48 47 46 57 62 61 61 63 70 65 65 65 67 67 69 69 70 -209 76 77 79 78 78 78 83 85 82 86 86 86 87 88 88 89 88 90 92 93 93 95 97 99 100 101 101 102 102 105 108 108 104 107 119 123 126 124 122 122 122 122 124 123 126 123 125 127 130 131 131 129 131 126 138 140 142 141 141 146 149 149 149 151 159 156 156 157 162 158 162 162 165 164 168 167 167 -193 171 171 170 -193 -193 -193 165 -193 0 0 0 0 0
    0 0 0 0 0 0 0 0 0 0 0 0 0 0 0 0 0 0 0 0 0 0 0 0 0 0 0 0 0 0 0 0 0 0 0 0 0 0 0 0 0 0 0 0 0 0 0 0 0 0 0 0 0 0 0 0 0 0 0 0 0 0 0 0 0 0 0 0 0 50 50 49 49 49 47 44 47 48 45 44 46 46 48 47 51 49 50 50 48 46 44 43 44 42 41 42 39 38 37 38 37 36 36 35 31 29 29 29 26 26 26 25 25 29 27 28 26 25 25 26 25 24 23 22 21 22 21 20 20 18 15 14 16 16 16 16 16 -225 -225 -225 -225 -225 -225 -225 -225 -225 -225 -225 -225 -225 -225 -225 -225 -225 -225 -225 -225 -225 -225 -225 17 15 19 19 15 15 14 14 13 13 12 11 10 0 -193 -177 -193 -193 -177 28 30 30 29 32 29 31 32 29 33 31 33 35 35 37 37 39 40 40 43 43 42 46 45 47 48 46 47 47 49 48 46 49 47 46 57 63 61 62 64 70 65 65 65 67 67 69 69 71 -193 76 77 79 78 78 78 83 85 82 86 86 86 88 88 88 89 88 90 91 93 93 94 96 99 99 -193 -193 102 103 105 109 110 104 109 119 123 126 124 122 122 122 122 124 123 126 124 125 127 130 131 131 129 131 125 137 141 142 142 142 146 149 149 148 151 159 156 156 157 161 158 162 162 165 163 168 166 166 -193 170 171 169 -193 -193 -209 165 -193 0 0 0 0 0
    0 0 0 0 0 0 0 0 0 0 0 0 0 0 0 0 0 0 0 0 0 0 0 0 0 0 0 0 0 0 0 0 0 0 0 0 0 0 0 0 0 0 0 0 0 0 0 0 0 0 0 0 0 0 0 0 0 0 0 0 0 0 0 0 0 0 0 0 0 50 50 49 49 49 47 44 48 48 45 44 47 47 48 48 51 50 50 50 48 46 44 43 45 42 42 42 38 38 37 38 37 36 36 35 31 29 29 29 26 26 26 25 25 29 27 28 26 25 26 26 25 25 23 23 22 22 21 21 21 19 15 14 15 16 16 16 16 -225 -225 -225 -225 -225 -225 -225 -225 -225 -225 -225 -225 -225 -225 -225 -225 -225 -225 -225 -225 -225 19 21 15 14 17 16 14 14 13 13 12 12 12 10 10 9 -193 -177 -193 24 31 29 32 30 29 32 29 30 31 28 32 30 33 34 33 37 37 38 40 40 42 43 42 46 45 48 48 47 48 48 50 50 47 50 47 48 58 63 61 63 63 69 66 66 66 67 68 70 70 71 75 76 77 79 78 78 78 82 85 82 86 85 85 87 88 88 89 87 90 91 92 92 92 94 96 96 -193 -193 101 104 106 110 112 104 111 119 123 125 124 122 122 122 122 123 123 126 124 125 127 131 131 131 130 132 127 137 142 143 142 142 146 149 148 147 150 158 155 156 156 160 157 161 162 164 162 168 165 165 -193 -193 -193 -209 167 -193 -209 165 -193 0 0 0 0 0
    0 0 0 0 0 0 0 0 0 0 0 0 0 0 0 0 0 0 0 0 0 0 0 0 0 0 0 0 0 0 0 0 0 0 0 0 0 0 0 0 0 0 0 0 0 0 0 0 0 0 0 0 0 0 0 0 0 0 0 0 0 0 0 0 0 0 0 0 0 50 50 50 49 50 48 44 48 49 46 44 47 48 48 49 51 50 50 50 48 46 44 43 44 42 41 42 38 37 37 38 37 35 36 35 31 28 29 29 26 26 26 24 25 28 27 28 26 25 26 26 25 25 24 23 22 23 22 20 21 19 15 13 15 16 16 16 16 -225 -225 -225 -225 -225 -225 -225 -225 -225 -225 -225 -225 -225 -225 -225 -225 -225 -225 -225 12 21 13 17 13 12 14 12 13 13 12 12 12 11 11 11 10 10 13 -177 -193 23 30 29 31 30 29 32 29 30 31 28 31 30 32 34 -193 37 38 39 41 41 42 43 43 46 46 49 50 48 48 49 51 51 49 50 48 51 58 62 62 64 64 69 68 68 68 69 70 71 70 72 75 76 77 79 78 78 78 82 85 82 -193 85 84 87 87 88 89 86 90 90 91 91 91 92 93 92 -193 -193 98 102 106 112 115 -209 114 118 122 124 123 122 122 122 121 123 123 125 124 124 126 130 131 131 130 132 128 137 142 144 143 144 147 149 148 147 150 157 155 155 155 159 157 160 161 163 159 167 164 164 -193 -177 -193 -193 166 166 -193 166 165 0 0 0 0 0
    0 0 0 0 0 0 0 0 0 0 0 0 0 0 0 0 0 0 0 0 0 0 0 0 0 0 0 0 0 0 0 0 0 0 0 0 0 0 0 0 0 0 0 0 0 0 0 0 0 0 0 0 0 0 0 0 0 0 0 0 0 0 0 0 0 0 0 0 0 50 50 50 49 49 48 44 48 49 46 45 47 49 49 49 51 49 48 49 47 45 44 43 44 42 41 42 38 37 36 37 36 35 36 35 31 28 30 29 26 26 26 24 25 27 26 28 26 25 26 26 25 25 24 23 22 22 21 20 21 18 15 13 15 15 16 16 16 -225 -225 -225 -225 -225 -225 -225 -225 -225 -225 -225 -225 -225 -225 -225 -225 -225 -225 22 14 19 13 14 12 11 11 11 12 12 11 12 11 11 10 11 11 10 15 -193 21 23 -193 28 31 30 29 32 29 30 31 28 31 30 31 33 -193 36 38 38 41 41 42 43 43 46 46 49 50 48 49 50 52 52 50 51 50 53 58 61 62 63 64 69 68 68 68 69 70 71 71 72 76 75 77 79 78 78 78 82 85 81 -193 85 84 86 87 87 88 85 89 89 90 91 91 92 93 92 94 91 97 102 105 111 115 -209 117 118 121 123 123 122 122 121 121 122 123 124 123 123 124 128 129 130 128 131 130 137 141 143 143 144 146 149 147 146 149 155 153 154 154 157 156 159 160 162 157 166 163 163 -193 -177 -193 -193 166 166 163 166 -193 0 0 0 0 0
    0 0 0 0 0 0 0 0 0 0 0 0 0 0 0 0 0 0 0 0 0 0 0 0 0 0 0 0 0 0 0 0 0 0 0 0 0 0 0 0 0 0 0 0 0 0 0 0 0 0 0 0 0 0 0 0 0 0 0 0 0 0 0 0 0 0 0 0 0 50 50 50 49 49 49 44 48 49 47 45 47 48 48 48 49 47 46 46 45 44 44 43 44 42 41 42 38 37 36 37 36 35 36 35 31 29 30 30 27 26 26 25 25 27 26 27 26 25 26 26 25 25 24 23 22 21 20 19 20 17 14 12 14 15 16 16 16 -225 -225 -225 -225 -225 -225 -225 -225 -225 -225 -225 -225 -225 -225 -225 -225 -225 22 21 12 15 10 11 10 9 0 0 9 10 0 9 9 9 9 11 10 10 15 21 21 23 28 28 30 30 29 31 28 29 31 28 30 30 31 32 -193 36 38 38 41 41 42 43 43 45 46 48 50 49 49 50 52 52 52 52 51 54 58 60 61 62 64 68 68 67 68 68 70 70 71 72 76 75 77 79 78 78 78 82 85 81 85 85 84 86 87 86 86 83 88 88 89 90 91 92 93 94 95 94 99 -193 105 111 114 -209 -193 117 120 121 122 121 121 121 120 121 122 123 123 123 124 127 128 129 127 130 131 136 140 144 143 144 146 149 146 145 149 153 152 153 153 155 155 157 159 160 156 165 163 163 164 -177 -209 -193 166 166 164 166 -193 0 0 0 0 0
    0 0 0 0 0 0 0 0 0 0 0 0 0 0 0 0 0 0 0 0 0 0 0 0 0 0 0 0 0 0 0 0 0 0 0 0 0 0 0 0 0 0 0 0 0 0 0 0 0 0 0 0 0 0 0 0 0 0 0 0 0 0 0 0 0 0 0 0 0 50 50 50 49 49 50 45 49 50 48 46 47 48 47 46 47 45 44 44 44 44 43 43 44 42 41 42 38 37 36 37 37 35 36 36 32 30 31 31 27 26 26 25 26 27 26 27 27 25 26 26 25 25 24 23 22 20 19 18 19 17 14 12 14 14 16 16 16 -225 -225 -225 -225 -225 -225 -225 -225 -225 -225 -225 -225 -225 -225 -225 -225 -225 21 20 12 14 9 9 0 0 0 0 0 0 0 0 0 0 0 11 10 10 17 22 22 23 27 28 30 30 29 31 28 30 31 28 30 30 31 32 32 36 38 39 41 41 43 43 43 44 46 47 51 49 50 51 53 54 54 54 54 56 58 60 61 62 63 68 68 67 67 68 70 70 71 72 76 75 77 79 78 78 78 82 85 81 85 85 84 86 86 86 86 82 87 86 88 90 90 91 93 94 97 96 101 -193 107 112 114 -193 -193 116 119 120 121 121 121 121 120 121 122 122 123 122 123 125 126 126 126 129 131 131 139 143 143 144 146 149 145 144 148 152 151 151 151 -193 -193 156 157 158 155 164 163 163 164 -177 -209 -193 166 166 165 166 165 0 0 0 0 0
    0 0 0 0 0 0 0 0 0 0 0 0 0 0 0 0 0 0 0 0 0 0 0 0 0 0 0 0 0 0 0 0 0 0 0 0 0 0 0 0 0 0 0 0 0 0 0 0 0 0 0 0 0 0 0 0 0 0 0 0 0 0 0 0 0 0 0 0 0 50 51 50 49 49 50 45 50 51 48 46 47 47 46 45 45 44 43 44 44 43 43 43 44 42 41 41 38 37 36 37 36 35 36 36 32 31 31 32 28 26 26 25 26 28 26 27 28 26 26 26 26 25 24 24 23 20 20 18 19 17 14 13 14 13 17 17 17 -225 -225 -225 -225 -225 -225 -225 -225 -225 -225 -225 -225 -225 -225 -225 -225 -225 23 21 13 14 9 0 0 0 0 0 0 0 0 0 0 0 0 10 9 9 15 21 21 23 27 28 29 29 29 30 28 29 30 28 30 30 31 32 33 36 39 40 42 42 43 44 43 44 47 47 51 50 51 52 54 55 55 54 55 57 58 60 62 63 64 67 69 67 67 68 69 70 71 -193 76 75 77 79 79 78 78 82 85 80 85 85 83 85 86 85 85 81 86 85 87 89 90 92 94 95 99 100 103 108 108 112 113 113 -193 116 119 119 121 120 121 121 120 121 121 121 123 122 122 124 124 125 125 128 130 128 138 142 142 143 145 149 145 144 148 152 150 150 150 152 -193 156 156 157 154 163 163 163 164 -177 -209 79 166 167 165 165 164 0 0 0 0 0
    0 0 0 0 0 0 0 0 0 0 0 0 0 0 0 0 0 0 0 0 0 0 0 0 0 0 0 0 0 0 0 0 0 0 0 0 0 0 0 0 0 0 0 0 0 0 0 0 0 0 0 0 0 0 0 0 0 0 0 0 0 0 0 0 0 0 0 0 0 50 51 50 50 49 50 45 49 51 48 46 47 47 46 45 45 44 42 43 43 43 43 43 44 41 41 41 38 37 36 37 36 35 36 36 32 32 31 33 29 26 27 26 27 28 27 27 29 26 27 27 26 26 25 24 24 21 21 19 20 18 15 13 15 13 17 17 17 -225 -225 -225 -225 -225 -225 -225 -225 -225 -225 -225 -225 -225 -225 -225 -225 -225 21 20 12 13 9 0 0 0 0 0 0 0 0 0 0 0 9 10 10 10 15 20 20 22 25 27 27 27 27 28 27 29 29 27 29 30 31 32 34 36 -193 41 42 43 44 45 44 45 48 47 52 52 52 53 55 56 56 55 57 58 58 60 63 63 64 67 69 67 67 68 69 70 72 -193 77 75 77 80 79 78 78 81 84 80 85 85 83 84 85 85 84 81 86 85 86 90 91 93 96 98 102 103 105 110 110 112 113 113 118 115 118 119 120 120 121 121 120 120 120 120 123 122 122 123 123 124 124 128 130 125 137 140 141 141 144 149 145 145 148 152 149 149 150 151 -193 155 156 156 154 162 164 164 165 -177 -193 77 167 167 166 165 164 0 0 0 0 0
    0 0 0 0 0 0 0 0 0 0 0 0 0 0 0 0 0 0 0 0 0 0 0 0 0 0 0 0 0 0 0 0 0 0 0 0 0 0 0 0 0 0 0 0 0 0 0 0 0 0 0 0 0 0 0 0 0 0 0 0 0 0 0 0 0 0 0 0 0 50 51 50 50 50 50 46 49 51 48 47 48 47 46 45 46 45 42 43 43 42 42 42 43 40 40 40 38 37 36 37 36 35 36 36 33 33 33 35 30 27 28 28 28 29 28 27 30 27 27 27 27 26 26 25 25 22 22 20 21 19 17 15 17 14 17 17 17 -225 -225 -225 -225 -225 -225 -225 -225 -225 -225 -225 -225 -225 -225 -225 -225 22 21 20 12 13 9 0 0 0 0 0 0 0 0 0 0 0 0 10 10 10 14 19 20 22 24 26 26 26 27 27 27 28 29 27 30 30 31 31 34 36 -193 41 43 43 44 46 44 45 49 47 52 53 53 54 56 57 58 57 58 58 58 60 63 63 64 66 69 67 67 67 69 70 72 -177 -193 75 77 80 80 79 78 81 84 79 84 84 82 84 85 85 84 81 87 85 86 90 92 95 99 101 104 105 106 110 110 112 112 113 117 114 118 118 119 119 120 121 119 120 120 119 123 122 122 122 122 123 124 127 130 125 135 136 136 137 139 147 144 144 147 151 149 149 150 151 -193 155 156 156 155 161 164 164 165 -177 -193 76 166 167 166 164 163 0 0 0 0 0
    0 0 0 0 0 0 0 0 0 0 0 0 0 0 0 0 0 0 0 0 0 0 0 0 0 0 0 0 0 0 0 0 0 0 0 0 0 0 0 0 0 0 0 0 0 0 0 0 0 0 0 0 0 0 0 0 0 0 0 0 0 0 0 0 0 0 0 0 0 50 51 51 51 51 50 46 48 51 48 47 48 47 46 45 46 45 43 43 42 42 42 41 42 39 39 39 37 37 36 37 36 35 36 36 33 33 33 36 31 28 28 29 29 29 29 27 31 27 28 28 27 27 27 25 25 23 23 22 22 20 19 17 19 15 17 17 17 -225 -225 -225 -225 -225 -225 -225 -225 -225 -225 -225 -225 -225 -225 -225 -225 21 20 19 12 12 9 0 0 0 0 0 0 0 0 0 0 0 0 10 10 10 14 19 19 21 24 24 25 26 27 27 27 28 29 28 30 30 31 31 34 35 -193 41 43 43 45 46 45 45 49 46 51 -193 53 54 55 57 58 57 59 59 58 60 64 63 64 66 69 67 67 68 70 70 -193 -177 -177 -193 77 80 80 79 79 80 84 79 84 84 82 83 85 84 85 81 87 86 87 92 95 97 100 102 105 106 107 110 110 111 112 112 117 113 118 117 119 -193 120 120 119 119 119 118 123 122 122 123 123 123 124 126 129 124 135 135 135 136 138 147 145 145 147 151 150 150 150 151 -193 155 156 156 155 161 165 165 165 -177 -193 -193 166 166 166 163 162 0 0 0 0 0
    0 0 0 0 0 0 0 0 0 0 0 0 0 0 0 0 0 0 0 0 0 0 0 0 0 0 0 0 0 0 0 0 0 0 0 0 0 0 0 0 0 0 0 0 0 0 0 0 0 0 0 0 0 0 0 0 0 0 0 0 0 0 0 0 0 0 0 0 0 49 50 50 51 51 51 46 48 50 47 47 48 46 45 44 46 45 43 43 42 41 41 41 42 38 38 39 37 37 36 37 36 35 35 36 33 32 32 35 29 28 28 29 29 29 29 27 31 27 28 28 27 27 27 26 25 23 23 22 23 21 20 19 20 17 17 17 17 -225 -225 -225 -225 -225 -225 -225 -225 -225 -225 -225 -225 -225 -225 11 14 15 14 11 10 9 0 0 0 0 0 0 0 0 0 0 0 0 0 10 10 10 13 18 19 21 23 23 23 25 26 26 27 28 29 27 30 30 31 31 34 35 -209 42 43 43 45 47 45 45 49 46 50 52 52 53 55 57 58 57 60 60 58 59 64 63 64 65 69 66 66 67 69 69 72 -177 -177 -177 77 81 80 79 79 80 83 78 83 84 82 82 85 85 85 82 88 87 89 92 96 97 100 102 104 105 106 109 110 111 112 113 117 113 117 117 119 119 119 120 118 119 119 119 123 122 122 123 123 124 124 126 128 124 134 135 135 136 137 146 145 146 147 150 150 150 150 151 -193 155 156 157 156 160 165 165 165 -177 -193 -193 166 166 166 163 162 0 0 0 0 0
    0 0 0 0 0 0 0 0 0 0 0 0 0 0 0 0 0 0 0 0 0 0 0 0 0 0 0 0 0 0 0 0 0 0 0 0 0 0 0 0 0 0 0 0 0 0 0 0 0 0 0 0 0 0 0 0 0 0 0 0 0 0 0 0 0 0 0 0 0 47 49 49 50 51 51 48 49 51 48 48 48 47 46 45 46 45 43 43 43 41 41 41 41 39 38 39 38 37 36 37 36 35 35 36 34 32 31 35 29 28 28 30 29 29 29 27 31 27 28 28 27 27 27 26 25 24 24 23 23 22 22 20 21 21 18 18 18 -225 -225 -225 -225 -225 -225 -225 -225 -225 -225 11 12 0 10 10 11 12 12 0 9 0 0 0 0 0 0 0 0 0 0 0 0 0 0 9 10 10 13 18 19 21 22 22 22 24 25 25 -193 -193 28 28 30 31 31 31 34 35 40 41 42 43 44 46 45 45 49 45 49 52 52 53 54 57 57 57 60 60 58 59 63 62 62 63 68 64 64 65 68 68 71 -177 -177 -177 77 81 81 79 79 80 83 78 83 83 81 82 85 85 85 83 89 89 89 93 96 97 100 101 104 106 107 109 110 111 112 113 117 113 117 117 119 118 119 119 118 118 119 119 124 123 123 124 124 125 125 126 128 124 135 135 135 136 137 145 145 146 146 150 150 151 151 152 156 155 157 157 157 160 166 165 165 -193 -193 -193 166 166 166 162 162 0 0 0 0 0
    0 0 0 0 0 0 0 0 0 0 0 0 0 0 0 0 0 0 0 0 0 0 0 0 0 0 0 0 0 0 0 0 0 0 0 0 0 0 0 0 0 0 0 0 0 0 0 0 0 0 0 0 0 0 0 0 0 0 0 0 0 0 0 0 0 0 0 0 0 46 51 50 51 53 52 49 50 51 49 48 49 47 46 45 46 45 43 44 43 41 41 41 41 39 37 38 38 38 36 37 36 35 35 35 34 32 30 35 29 28 28 31 30 29 30 27 30 27 28 28 26 26 27 26 25 24 24 23 24 23 23 22 22 23 19 20 20 -225 -225 -225 -225 -225 -225 -225 -225 0 12 0 0 0 0 0 0 0 0 0 0 0 0 0 0 0 0 0 0 0 0 0 0 0 0 9 10 10 12 17 18 20 21 21 21 22 23 -193 -193 -193 28 28 29 31 32 32 34 35 39 40 42 42 44 46 44 44 49 45 48 51 51 52 52 56 57 57 60 61 58 60 64 62 62 62 68 64 63 65 68 67 70 -193 -177 -177 77 81 81 79 79 80 83 79 83 84 82 83 86 86 86 84 89 89 90 93 95 97 100 101 105 106 107 110 111 111 112 114 117 112 117 117 119 118 118 119 118 118 120 120 124 123 124 125 125 125 126 127 129 124 135 135 135 136 137 144 144 146 146 150 151 152 153 153 157 156 157 158 158 159 166 165 165 -193 166 167 166 166 166 162 162 0 0 0 0 0
    0 0 0 0 0 0 0 0 0 0 0 0 0 0 0 0 0 0 0 0 0 0 0 0 0 0 0 0 0 0 0 0 0 0 0 0 0 0 0 0 0 0 0 0 0 0 0 0 0 0 0 0 0 0 0 0 0 0 0 0 0 0 0 0 0 0 0 0 0 46 50 50 52 54 53 50 50 51 49 48 49 47 46 45 45 45 43 44 44 41 41 41 41 39 37 38 38 38 36 36 36 35 34 35 33 32 30 35 30 28 28 31 31 29 30 27 30 27 28 27 26 26 26 26 25 24 24 23 24 24 24 23 23 25 21 22 22 -225 -225 -225 -225 -225 -225 -225 0 0 10 0 0 0 0 0 0 0 0 0 0 0 0 0 0 0 0 0 0 0 0 0 0 0 0 0 9 9 11 15 16 19 19 21 20 21 23 24 -193 26 28 28 29 31 32 33 34 35 39 39 41 41 43 45 44 44 49 45 48 50 50 51 52 56 56 55 60 63 60 63 66 64 63 64 69 64 63 65 68 68 70 71 -177 -177 77 82 82 80 80 81 83 80 84 84 83 84 87 87 87 85 89 90 90 92 94 96 99 102 106 108 108 110 112 112 112 114 117 111 116 116 -209 -193 -193 119 117 118 120 121 124 123 124 125 125 126 126 127 129 125 136 135 135 136 136 143 144 147 147 151 154 154 154 154 159 156 158 159 158 159 166 164 164 165 166 166 165 165 165 161 162 0 0 0 0 0
    0 0 0 0 0 0 0 0 0 0 0 0 0 0 0 0 0 0 0 0 0 0 0 0 0 0 0 0 0 0 0 0 0 0 0 0 0 0 0 0 0 0 0 0 0 0 0 0 0 0 0 0 0 0 0 0 0 0 0 0 0 0 0 0 0 0 0 0 0 46 48 50 50 52 52 51 50 51 49 48 50 48 46 45 45 45 44 44 44 41 41 41 41 39 38 38 37 37 35 36 36 35 34 35 33 32 29 36 30 28 28 30 30 28 30 27 30 28 28 27 26 26 26 26 25 25 24 23 25 -193 25 24 24 26 22 23 23 -225 -225 -225 -225 -225 -225 0 0 0 0 0 0 0 0 0 0 0 0 0 0 0 0 0 0 0 9 0 10 10 0 0 0 9 10 9 11 10 11 15 15 18 18 19 18 19 22 23 24 25 27 27 29 31 32 32 33 35 38 38 40 40 42 44 44 45 48 45 47 48 48 49 49 52 53 45 59 63 60 63 66 64 64 64 69 64 63 65 68 68 70 71 -177 -177 77 83 82 81 81 82 84 81 84 85 83 86 88 88 88 87 90 91 91 92 92 94 97 100 106 107 108 110 112 111 112 115 117 -193 114 115 -209 -193 -209 118 117 118 120 121 124 123 124 126 126 126 127 127 130 125 136 135 135 135 136 143 146 148 148 151 157 155 155 155 160 157 159 160 159 159 165 163 163 164 165 165 165 165 165 161 161 0 0 0 0 0
    0 0 0 0 0 0 0 0 0 0 0 0 0 0 0 0 0 0 0 0 0 0 0 0 0 0 0 0 0 0 0 0 0 0 0 0 0 0 0 0 0 0 0 0 0 0 0 0 0 0 0 0 0 0 0 0 0 0 0 0 0 0 0 0 0 0 0 0 0 46 48 49 50 52 52 51 50 51 50 49 50 48 46 45 45 44 44 44 44 41 41 41 40 39 38 38 37 37 35 36 36 35 34 34 33 33 29 37 33 28 28 30 30 28 30 27 30 28 29 27 26 26 26 25 24 25 25 24 25 26 26 25 25 27 24 25 25 -225 -225 -225 -225 -225 0 0 0 0 0 0 0 0 0 0 0 0 0 0 0 0 0 9 9 0 9 9 10 11 9 9 9 10 11 11 13 13 12 15 16 18 18 19 18 20 21 22 23 24 27 27 28 30 31 32 33 34 37 37 39 40 40 44 44 45 48 45 47 47 47 47 47 47 49 43 58 61 60 61 64 63 63 63 69 64 63 65 68 68 69 70 -177 -177 76 83 82 81 82 82 84 82 85 85 84 87 88 88 88 88 90 91 91 92 91 92 94 97 -193 -209 -209 109 110 109 110 115 -193 -209 112 -193 -209 -193 -193 118 116 118 120 121 124 124 124 127 127 128 128 128 131 125 135 134 135 135 136 143 149 149 149 151 158 156 156 156 161 157 159 160 160 158 164 162 162 162 164 165 164 164 165 161 161 0 0 0 0 0
    0 0 0 0 0 0 0 0 0 0 0 0 0 0 0 0 0 0 0 0 0 0 0 0 0 0 0 0 0 0 0 0 0 0 0 0 0 0 0 0 0 0 0 0 0 0 0 0 0 0 0 0 0 0 0 0 0 0 0 0 0 0 0 0 0 0 0 0 0 47 48 50 50 51 52 51 51 51 50 49 50 48 46 45 45 44 44 44 44 41 41 41 40 39 38 38 37 37 35 35 35 35 34 34 33 34 29 38 36 28 27 29 29 28 29 27 31 28 29 27 26 26 26 25 24 25 25 24 26 27 26 26 26 28 24 26 26 -225 -225 -225 -225 -225 0 0 0 0 0 0 0 0 0 0 0 0 0 0 0 0 0 0 0 0 0 0 9 10 0 9 9 10 11 11 13 13 12 15 16 19 18 19 19 20 22 23 24 24 27 27 28 31 31 32 32 34 37 36 39 39 39 42 -193 45 48 44 45 46 46 46 45 45 46 42 56 62 61 61 63 63 63 63 69 64 63 65 68 68 70 70 -177 -177 76 83 82 82 82 83 84 83 85 86 85 89 89 89 89 89 91 91 91 92 90 91 92 94 -193 -193 -193 -193 -193 107 108 114 172 -177 -193 -193 -193 -193 -193 117 116 117 121 121 124 124 125 128 129 130 130 129 132 126 135 134 135 135 136 143 148 148 148 151 159 156 157 157 161 157 159 160 160 158 164 161 161 161 164 164 164 163 164 160 161 0 0 0 0 0
    0 0 0 0 0 0 0 0 0 0 0 0 0 0 0 0 0 0 0 0 0 0 0 0 0 0 0 0 0 0 0 0 0 0 0 0 0 0 0 0 0 0 0 0 0 0 0 0 0 0 0 0 0 0 0 0 0 0 0 0 0 0 0 0 0 0 0 0 0 48 49 50 50 51 52 51 50 51 50 48 50 47 46 45 44 43 43 43 43 41 41 41 40 40 39 38 37 37 35 35 36 35 34 34 33 34 29 39 37 27 26 28 29 27 29 27 30 28 29 26 26 25 25 25 24 25 24 24 26 27 26 26 26 28 25 27 27 27 -225 -225 -225 -193 0 0 0 0 0 0 0 0 0 0 0 0 0 0 0 0 0 0 0 0 0 0 9 10 0 0 9 10 11 11 13 13 12 15 15 18 16 18 18 19 21 23 23 24 27 27 28 31 30 32 32 33 36 35 38 38 38 42 -193 45 48 44 45 45 45 45 45 43 45 42 53 60 61 60 62 62 62 62 68 64 64 66 69 69 70 71 -193 -193 76 83 82 82 82 83 85 84 86 86 -193 90 89 90 90 90 91 90 91 92 89 90 91 92 -193 -193 -193 -209 -209 106 107 -193 173 177 -193 -193 -193 -193 -193 117 115 117 121 122 124 125 125 129 130 131 131 130 134 131 136 135 136 136 137 143 148 148 148 151 159 156 156 157 160 157 159 160 160 157 163 160 160 160 163 163 164 163 164 160 161 0 0 0 0 0
    0 0 0 0 0 0 0 0 0 0 0 0 0 0 0 0 0 0 0 0 0 0 0 0 0 0 0 0 0 0 0 0 0 0 0 0 0 0 0 0 0 0 0 0 0 0 0 0 0 0 0 0 0 0 0 0 0 0 0 0 0 0 0 0 0 0 0 0 0 49 50 51 50 51 52 51 50 50 49 47 49 47 46 45 44 43 44 44 44 42 42 42 41 40 39 38 37 37 35 35 36 35 34 34 33 35 29 38 37 27 26 27 27 26 27 27 30 28 28 26 25 25 25 25 23 24 24 23 26 27 27 27 26 28 26 28 29 27 25 26 25 24 10 0 0 0 0 0 0 0 0 0 0 0 0 0 0 0 0 0 0 0 0 0 0 9 0 0 9 10 11 11 13 13 12 14 15 18 15 19 18 20 22 23 24 24 27 27 28 31 30 32 32 33 36 35 38 38 38 42 43 45 47 45 45 45 45 46 45 44 45 43 51 58 59 59 60 61 61 62 68 65 66 68 70 70 71 71 73 -193 76 82 81 82 82 83 85 85 86 87 -177 91 89 91 91 90 91 90 91 91 88 89 90 91 -193 -193 -193 -193 -209 107 108 -193 176 179 -193 -193 -193 -209 -193 117 115 117 121 122 124 125 125 129 131 132 132 131 136 137 137 137 138 138 138 143 148 147 147 150 158 155 156 156 159 156 158 160 160 157 162 160 160 160 163 163 164 162 164 160 162 0 0 0 0 0
    0 0 0 0 0 0 0 0 0 0 0 0 0 0 0 0 0 0 0 0 0 0 0 0 0 0 0 0 0 0 0 0 0 0 0 0 0 0 0 0 0 0 0 0 0 0 0 0 0 0 0 0 0 0 0 0 0 0 0 0 0 0 0 0 0 0 0 0 0 50 50 51 51 51 52 51 50 50 49 47 49 47 46 45 44 43 44 44 44 42 42 42 41 40 39 38 37 37 35 35 36 35 35 35 33 35 30 38 36 26 27 27 27 26 27 27 30 28 28 25 25 25 24 24 23 24 23 22 25 27 27 27 26 28 26 29 29 27 24 25 23 22 13 9 9 0 0 0 0 0 0 0 0 0 0 0 0 0 0 0 0 0 0 0 0 0 0 0 9 10 11 11 13 13 12 14 15 17 15 18 18 20 22 23 25 25 28 28 29 31 31 32 33 33 36 34 37 37 37 41 43 44 47 45 45 45 45 46 45 44 45 44 50 58 58 58 60 60 60 61 68 67 67 69 71 71 72 72 74 76 76 82 81 83 82 83 84 85 -193 87 274 -193 -177 -193 91 90 90 89 90 90 87 89 90 91 -193 -193 -193 -193 -209 108 109 114 176 180 -193 -193 -193 -209 -193 117 115 117 121 122 123 125 124 128 131 131 132 131 137 138 137 138 139 138 139 142 147 146 146 150 157 154 154 155 157 155 157 159 160 157 162 160 160 160 163 163 164 162 164 161 162 0 0 0 0 0</data></disparity>
</opencv_storage>
