<?xml version="1.0"?>
<opencv_storage>
<gps_time_stamp>310616</gps_time_stamp>
<gps_x>-1.2409363746643066e+001</gps_x>
<gps_y>1.0956912994384766e+001</gps_y>
<gps_z>-2.0192310810089111e+000</gps_z>
<image_time_stamp>301459</image_time_stamp>
<disparity type_id="opencv-matrix">
  <rows>87</rows>
  <cols>320</cols>
  <dt>s</dt>
  <data>
    0 0 0 0 0 0 0 0 0 0 0 0 0 0 0 0 0 0 0 0 0 0 0 0 0 0 0 0 0 0 0 0 0 0 0 0 0 0 0 0 0 0 0 0 0 0 0 0 0 0 0 0 0 0 0 0 0 0 0 0 0 0 0 0 0 0 0 0 0 47 37 37 34 37 36 37 36 36 35 35 36 35 35 36 36 35 34 35 35 35 34 34 31 30 30 29 28 28 27 28 26 26 25 23 23 23 23 26 25 24 25 24 27 29 29 29 -225 -225 -225 -225 -225 -225 -225 -225 -225 -225 -225 -225 -225 -225 -225 -225 -225 -225 -225 -225 -225 -225 -225 -225 -225 -225 -225 -225 -225 -225 -225 -225 -225 -225 -225 -225 -225 -225 16 17 15 15 15 15 13 14 -225 -225 -225 -225 -225 -225 -225 -225 23 23 23 24 26 28 28 35 38 40 43 43 43 44 47 46 46 49 48 48 49 51 48 48 53 53 53 -177 58 59 63 64 65 64 67 68 66 71 71 70 73 74 75 76 79 81 83 84 85 86 87 91 91 92 92 100 95 95 95 96 97 99 100 100 100 109 109 109 109 110 111 112 114 -193 112 120 121 120 121 123 123 123 122 124 128 125 134 134 135 -193 139 141 140 142 141 145 144 146 148 -193 30 -193 -193 158 -193 161 -193 96 96 96 96 20 -193 -193 -193 -193 -193 -193 174 176 -193 179 179 181 182 182 -193 -193 188 188 189 189 192 192 195 195 196 196 198 200 201 203 203 203 203 0 0 0 0 0
    0 0 0 0 0 0 0 0 0 0 0 0 0 0 0 0 0 0 0 0 0 0 0 0 0 0 0 0 0 0 0 0 0 0 0 0 0 0 0 0 0 0 0 0 0 0 0 0 0 0 0 0 0 0 0 0 0 0 0 0 0 0 0 0 0 0 0 0 0 39 37 37 35 36 36 37 36 36 36 35 36 35 35 36 36 35 34 35 35 35 34 35 31 30 30 29 28 28 27 28 26 26 25 23 24 23 23 26 25 25 25 25 27 30 30 30 -225 -225 -225 -225 -225 -225 -225 -225 -225 -225 -225 -225 -225 -225 -225 -225 -225 -225 -225 -225 -225 -225 -225 -225 -225 -225 -225 -225 -225 -225 -225 -225 -225 -225 -225 -225 -225 21 15 17 15 15 15 14 13 14 10 -225 -225 -225 -225 -225 -225 286 23 23 24 24 27 28 30 36 39 40 44 43 43 44 47 46 46 48 48 47 50 51 49 48 53 54 54 -177 59 59 62 64 66 64 67 68 66 71 72 71 73 74 75 75 78 80 82 83 84 85 87 90 90 91 91 100 95 95 95 96 98 99 100 100 100 108 108 108 109 110 111 112 114 -193 111 119 121 120 -193 123 123 123 123 124 128 125 134 134 135 -193 139 140 139 142 141 145 145 147 148 30 31 29 -193 158 -193 160 -193 96 97 96 96 -193 97 -193 -193 -193 -193 174 174 176 -193 179 179 181 182 182 184 184 188 187 189 188 192 192 195 196 196 197 198 200 201 203 204 204 203 0 0 0 0 0
    0 0 0 0 0 0 0 0 0 0 0 0 0 0 0 0 0 0 0 0 0 0 0 0 0 0 0 0 0 0 0 0 0 0 0 0 0 0 0 0 0 0 0 0 0 0 0 0 0 0 0 0 0 0 0 0 0 0 0 0 0 0 0 0 0 0 0 0 0 38 38 36 36 37 36 37 36 37 36 35 36 36 35 36 36 35 35 35 35 35 34 35 31 30 29 29 28 28 27 28 26 26 25 24 24 24 24 27 26 26 26 26 28 30 30 30 -225 -225 -225 -225 -225 -225 -225 -225 -225 -225 -225 -225 -225 -225 -225 -225 -225 -225 -225 -225 -225 -225 -225 -225 -225 -225 -225 -225 -225 -225 -225 -225 -225 -225 -225 -225 17 20 13 15 13 13 13 12 11 12 10 -225 -225 -225 -225 -225 -225 -177 23 24 25 26 28 30 31 36 38 40 43 43 43 44 46 46 46 48 48 47 50 52 50 49 53 54 55 -177 59 59 61 64 65 65 67 68 66 71 72 71 71 73 74 -193 77 79 81 81 83 85 86 89 90 91 91 101 96 96 96 96 99 99 100 100 101 108 109 109 109 111 112 -193 -193 -193 112 119 121 120 -193 123 123 123 123 124 127 124 133 133 134 136 138 140 139 142 141 145 145 147 -193 29 31 29 -193 158 -193 160 163 96 97 97 97 -193 97 -193 -193 -193 -193 174 174 176 175 179 180 181 182 182 184 184 188 187 188 188 191 190 194 195 196 196 198 200 201 203 204 204 204 0 0 0 0 0
    0 0 0 0 0 0 0 0 0 0 0 0 0 0 0 0 0 0 0 0 0 0 0 0 0 0 0 0 0 0 0 0 0 0 0 0 0 0 0 0 0 0 0 0 0 0 0 0 0 0 0 0 0 0 0 0 0 0 0 0 0 0 0 0 0 0 0 0 0 38 38 36 36 37 36 37 36 37 36 35 37 36 35 37 36 35 35 36 35 35 34 35 31 30 29 29 28 29 27 28 26 26 25 24 24 24 24 28 27 27 27 26 28 31 31 31 -225 -225 -225 -225 -225 -225 -225 -225 -225 -225 -225 -225 -225 -225 -225 -225 -225 -225 -225 -225 -225 -225 -225 -225 -225 -225 -225 -225 -225 -225 -225 -225 -225 -225 -225 -225 19 19 13 16 14 14 14 13 12 12 11 -225 -225 -225 -225 -225 -225 290 23 25 26 26 29 30 31 35 38 39 43 43 43 43 46 47 46 48 48 47 50 52 50 48 53 54 55 -177 58 59 61 64 65 65 66 68 66 71 72 71 71 73 74 74 77 78 81 82 84 86 87 89 90 91 91 101 97 96 96 97 99 99 100 101 101 108 109 109 109 -193 113 -193 -193 -193 113 118 121 120 -209 122 122 123 122 124 127 124 132 133 134 136 138 139 139 142 141 145 146 147 149 -193 31 29 -193 158 -193 159 163 96 97 97 97 -193 -177 -193 -193 -193 173 173 174 176 175 179 180 181 182 182 183 184 187 186 186 186 189 188 193 194 196 196 198 200 201 203 205 205 204 0 0 0 0 0
    0 0 0 0 0 0 0 0 0 0 0 0 0 0 0 0 0 0 0 0 0 0 0 0 0 0 0 0 0 0 0 0 0 0 0 0 0 0 0 0 0 0 0 0 0 0 0 0 0 0 0 0 0 0 0 0 0 0 0 0 0 0 0 0 0 0 0 0 0 37 37 35 36 36 36 37 37 37 37 36 37 36 35 37 36 36 35 36 35 35 33 35 32 30 29 29 28 29 28 28 27 26 25 24 24 24 24 28 27 28 28 27 28 32 32 32 -225 -225 -225 -225 -225 -225 -225 -225 -225 -225 -225 -225 -225 -225 -225 -225 -225 -225 -225 -225 -225 -225 -225 -225 -225 -225 -225 -225 -225 -225 -225 -225 -225 -225 -225 -225 20 18 14 17 15 15 15 13 13 12 11 14 -225 -225 -225 -225 -225 -193 23 26 26 26 29 30 30 34 37 38 42 42 43 43 46 46 46 47 48 46 51 52 51 49 53 55 -193 -177 58 58 60 64 65 65 65 68 66 71 72 72 69 73 74 74 77 79 81 82 84 85 87 89 90 90 91 100 98 97 97 98 100 99 100 101 101 107 109 110 110 -193 113 115 -193 -193 114 118 120 119 -209 122 122 123 122 124 127 124 131 132 134 136 138 139 140 142 142 145 146 147 149 -193 31 29 29 157 -193 159 163 96 97 96 96 -193 -177 -177 -193 -193 173 173 174 176 175 179 180 181 182 182 183 183 186 185 185 185 187 187 191 194 195 -193 -193 -209 -209 -193 206 206 206 0 0 0 0 0
    0 0 0 0 0 0 0 0 0 0 0 0 0 0 0 0 0 0 0 0 0 0 0 0 0 0 0 0 0 0 0 0 0 0 0 0 0 0 0 0 0 0 0 0 0 0 0 0 0 0 0 0 0 0 0 0 0 0 0 0 0 0 0 0 0 0 0 0 0 36 37 35 36 36 36 37 37 37 37 36 37 37 35 37 36 36 35 36 35 34 33 34 32 30 29 29 28 29 28 28 27 26 25 24 24 24 24 29 28 29 29 28 29 32 32 32 -225 -225 -225 -225 -225 -225 -225 -225 -225 -225 -225 -225 -225 -225 -225 -225 -225 -225 -225 -225 -225 -225 -225 -225 -225 -225 -225 -225 -225 -225 -225 -225 -225 -225 -225 -225 20 18 14 16 14 14 13 12 12 10 10 11 0 0 -225 -225 287 -193 23 27 27 26 30 30 30 33 36 38 39 41 41 41 45 45 45 46 47 47 51 52 51 48 53 -193 -193 -193 59 59 61 66 65 65 -193 -193 66 70 73 72 67 73 74 74 77 79 81 83 85 86 88 89 91 91 92 99 98 97 97 97 99 98 100 101 101 106 110 110 110 114 113 115 115 117 115 117 120 119 -193 122 122 122 122 124 127 123 131 132 135 136 139 139 141 142 142 146 147 147 -193 29 31 29 29 -193 -193 159 162 -193 -193 96 96 97 -177 -193 -193 -193 173 173 173 175 175 179 180 181 183 182 183 183 185 184 184 184 185 185 189 193 -193 100 103 -193 103 -193 206 207 -177 0 0 0 0 0
    0 0 0 0 0 0 0 0 0 0 0 0 0 0 0 0 0 0 0 0 0 0 0 0 0 0 0 0 0 0 0 0 0 0 0 0 0 0 0 0 0 0 0 0 0 0 0 0 0 0 0 0 0 0 0 0 0 0 0 0 0 0 0 0 0 0 0 0 0 36 36 35 36 36 36 37 37 37 37 37 37 37 35 37 36 36 35 36 35 34 33 34 32 30 29 29 28 29 28 28 27 25 26 24 24 24 24 29 28 29 29 29 29 32 32 32 -225 -225 -225 -225 -225 -225 -225 -225 -225 -225 -225 -225 -225 -225 -225 -225 -225 -225 -225 -225 -225 -225 -225 -225 -225 -225 -225 -225 -225 -225 -225 -225 -225 -225 -225 17 20 16 13 15 14 13 13 12 12 10 10 11 0 0 12 -225 -177 -193 23 28 27 27 30 30 30 33 35 37 38 40 41 41 44 45 45 46 47 46 51 52 51 49 54 58 58 60 60 60 61 66 65 65 64 67 66 69 72 71 64 73 74 74 78 80 82 84 85 87 88 89 92 92 92 98 99 96 97 97 99 97 100 101 101 106 110 110 110 114 114 115 115 117 115 116 119 119 -193 122 122 123 123 124 126 123 130 132 134 135 139 140 142 143 143 146 147 147 -193 29 31 29 30 -193 159 158 162 -193 -193 96 96 96 -177 -193 -193 -193 172 173 173 175 175 178 180 180 183 182 182 183 184 183 182 182 184 184 188 192 -177 99 102 103 102 102 206 207 -177 0 0 0 0 0
    0 0 0 0 0 0 0 0 0 0 0 0 0 0 0 0 0 0 0 0 0 0 0 0 0 0 0 0 0 0 0 0 0 0 0 0 0 0 0 0 0 0 0 0 0 0 0 0 0 0 0 0 0 0 0 0 0 0 0 0 0 0 0 0 0 0 0 0 0 36 36 34 37 36 36 37 37 37 37 37 37 37 35 37 36 36 35 36 35 34 33 34 33 30 29 30 29 30 29 28 27 25 25 24 24 24 24 30 29 30 30 29 29 32 32 32 -225 -225 -225 -225 -225 -225 -225 -225 -225 -225 -225 -225 -225 -225 -225 -225 -225 -225 -225 -225 -225 -225 -225 -225 -225 -225 -225 -225 -225 -225 -225 -225 -225 -225 -225 14 19 14 12 14 13 12 12 12 12 10 10 11 0 0 13 19 -193 19 23 28 27 27 31 29 30 33 34 36 36 38 39 40 43 45 44 45 46 46 51 52 51 50 54 61 59 61 61 61 62 67 65 65 63 66 65 67 70 70 62 72 72 73 76 78 79 82 84 87 88 89 92 92 93 97 99 96 96 96 99 97 100 101 101 105 110 111 111 115 113 115 115 117 116 116 119 119 -193 122 122 123 123 123 125 122 127 131 134 135 140 140 143 143 144 146 148 147 -193 -177 31 29 30 -193 159 158 161 161 163 -193 -193 96 96 -177 -193 -193 -177 173 173 175 175 178 180 180 182 181 181 182 183 181 180 181 182 182 -193 -193 95 98 101 102 101 101 -193 207 -177 0 0 0 0 0
    0 0 0 0 0 0 0 0 0 0 0 0 0 0 0 0 0 0 0 0 0 0 0 0 0 0 0 0 0 0 0 0 0 0 0 0 0 0 0 0 0 0 0 0 0 0 0 0 0 0 0 0 0 0 0 0 0 0 0 0 0 0 0 0 0 0 0 0 0 36 36 34 36 36 36 37 37 37 37 37 37 37 36 37 36 37 35 36 35 35 34 34 33 31 30 30 29 30 29 28 28 25 25 24 24 24 24 30 29 30 30 30 30 32 32 32 -225 -225 -225 -225 -225 -225 -225 -225 -225 -225 -225 -225 -225 -225 -225 -225 -225 -225 -225 -225 -225 -225 -225 -225 -225 -225 -225 -225 -225 -225 -225 -225 -225 -225 -225 12 18 13 11 13 12 12 11 11 11 9 10 11 0 9 14 18 -193 18 23 28 27 27 31 29 30 32 33 35 35 36 38 38 42 43 43 43 44 45 50 51 50 51 54 61 59 61 63 62 62 67 65 65 62 65 65 64 69 68 60 71 71 72 76 77 78 83 84 87 88 88 92 92 93 96 99 96 96 96 99 96 100 101 102 104 110 111 111 -193 113 115 114 117 116 116 119 119 -193 122 121 122 122 122 124 122 125 130 133 135 140 140 144 143 144 146 -193 147 -193 -177 31 29 30 -193 158 158 161 161 163 -193 -193 95 96 -177 -193 -193 -177 173 173 175 175 178 180 180 182 181 181 182 182 180 178 179 181 181 102 102 95 97 101 101 100 100 -193 -193 -177 0 0 0 0 0
    0 0 0 0 0 0 0 0 0 0 0 0 0 0 0 0 0 0 0 0 0 0 0 0 0 0 0 0 0 0 0 0 0 0 0 0 0 0 0 0 0 0 0 0 0 0 0 0 0 0 0 0 0 0 0 0 0 0 0 0 0 0 0 0 0 0 0 0 0 36 35 33 36 35 36 37 37 37 37 37 37 37 36 37 36 37 35 36 35 35 34 34 34 31 30 31 30 31 30 28 28 25 25 24 24 24 24 29 28 30 29 29 30 32 32 32 -225 -225 -225 -225 -225 -225 -225 -225 -225 -225 -225 -225 -225 -225 -225 -225 -225 -225 -225 -225 -225 -225 -225 -225 -225 -225 -225 -225 -225 -225 -225 -225 -225 -225 -225 11 18 11 10 11 11 11 10 10 10 0 10 11 9 9 13 15 -193 17 23 28 27 27 31 29 30 32 32 35 34 35 37 36 41 42 42 43 43 45 50 50 50 51 54 61 59 61 64 62 63 67 64 64 62 64 64 63 67 67 60 72 72 73 76 78 80 83 84 86 87 88 92 91 92 94 98 96 96 96 98 95 100 102 102 104 111 112 112 -193 113 -193 -193 117 117 115 119 118 -193 122 121 122 122 122 123 121 124 129 132 135 139 140 144 143 144 146 -193 -193 -193 -177 -177 -177 30 -193 158 158 160 161 163 163 164 -193 -193 -177 -177 -193 171 173 173 174 175 177 180 179 182 181 180 181 181 179 176 178 179 180 102 101 95 96 100 100 99 99 102 -193 -193 0 0 0 0 0
    0 0 0 0 0 0 0 0 0 0 0 0 0 0 0 0 0 0 0 0 0 0 0 0 0 0 0 0 0 0 0 0 0 0 0 0 0 0 0 0 0 0 0 0 0 0 0 0 0 0 0 0 0 0 0 0 0 0 0 0 0 0 0 0 0 0 0 0 0 35 35 32 35 35 36 36 37 37 37 38 38 37 37 37 36 37 35 36 35 35 35 34 35 32 31 32 31 32 31 28 -193 25 25 23 23 24 24 27 27 28 28 28 29 31 31 31 -225 -225 -225 -225 -225 -225 -225 -225 -225 -225 -225 -225 -225 -225 -225 -225 -225 -225 -225 -225 -225 -225 -225 -225 -225 -225 -225 -225 -225 -225 -225 -225 -225 -225 -225 11 18 10 9 10 10 10 10 10 10 0 10 11 9 9 12 13 -177 15 22 28 27 27 32 29 30 31 32 34 32 33 36 34 39 40 41 42 42 45 49 49 49 50 54 60 59 60 64 62 63 67 64 64 62 64 64 62 66 67 61 72 73 74 77 81 82 84 84 86 88 89 92 91 92 93 98 95 96 96 97 95 100 102 102 103 111 111 111 -193 113 -193 -193 116 116 115 119 118 -193 121 121 122 122 121 121 121 123 128 -193 135 140 140 144 143 144 145 -193 -193 -177 -177 -177 -177 -177 -193 158 158 160 160 162 163 164 164 165 166 -193 -193 171 173 173 174 175 177 180 179 182 181 180 181 180 178 176 177 179 179 101 101 95 95 100 99 98 97 101 99 96 0 0 0 0 0
    0 0 0 0 0 0 0 0 0 0 0 0 0 0 0 0 0 0 0 0 0 0 0 0 0 0 0 0 0 0 0 0 0 0 0 0 0 0 0 0 0 0 0 0 0 0 0 0 0 0 0 0 0 0 0 0 0 0 0 0 0 0 0 0 0 0 0 0 0 34 34 32 35 34 36 36 37 37 37 38 37 37 37 37 36 37 35 36 35 35 35 33 35 33 31 33 31 33 -193 -193 -177 25 26 23 23 23 23 26 27 27 26 27 29 31 31 31 -225 -225 -225 -225 -225 -225 -225 -225 -225 -225 -225 -225 -225 -225 -225 -225 -225 -225 -225 -225 -225 -225 -225 -225 -225 -225 -225 -225 -225 -225 -225 -225 -225 -225 -225 11 18 10 9 10 10 10 10 10 10 0 10 11 10 10 11 -193 -177 12 21 27 27 26 32 29 31 32 32 35 32 33 36 35 39 40 41 41 42 45 49 48 48 50 53 58 58 60 64 62 63 66 64 64 62 64 64 61 66 67 61 73 74 75 79 82 82 83 83 86 87 88 92 91 92 93 99 95 96 95 96 94 100 -193 102 102 110 110 110 114 112 -193 112 115 116 114 118 118 -193 -193 120 122 121 121 120 -193 123 -193 -193 -193 140 140 144 143 144 145 -193 -193 -177 -177 -177 -177 -177 -193 158 158 160 160 162 162 163 164 165 165 167 169 171 173 173 175 176 177 180 179 181 181 179 180 179 177 175 176 178 179 101 101 95 95 99 98 97 95 100 98 94 0 0 0 0 0
    0 0 0 0 0 0 0 0 0 0 0 0 0 0 0 0 0 0 0 0 0 0 0 0 0 0 0 0 0 0 0 0 0 0 0 0 0 0 0 0 0 0 0 0 0 0 0 0 0 0 0 0 0 0 0 0 0 0 0 0 0 0 0 0 0 0 0 0 0 34 33 31 35 34 36 36 37 37 36 38 37 37 37 36 36 37 35 36 34 35 35 33 35 33 31 34 -193 -193 -193 -193 -177 -193 26 23 23 23 24 26 26 26 26 26 28 30 30 30 -225 -225 -225 -225 -225 -225 -225 -225 -225 -225 -225 -225 -225 -225 -225 -225 -225 -225 -225 -225 -225 -225 -225 -225 -225 -225 -225 -225 -225 -225 -225 -225 -225 -225 15 11 16 0 0 9 9 9 0 9 9 0 10 11 10 10 11 10 -177 10 20 26 26 26 31 29 31 33 33 35 32 34 36 36 39 40 40 41 42 45 48 49 47 50 54 58 58 60 65 62 63 66 64 64 62 64 64 61 67 68 63 73 75 77 79 82 82 82 82 85 87 88 91 91 92 93 98 95 95 95 96 94 100 -193 102 102 110 110 110 114 111 -193 112 115 115 113 118 117 -193 -193 120 122 121 120 120 -193 122 -193 -193 -209 -193 140 144 142 145 145 -193 -193 -177 -177 -177 -177 -193 -193 157 158 159 160 161 162 163 163 165 165 167 169 171 173 173 175 176 177 180 179 181 181 179 180 179 177 175 175 177 178 100 101 95 94 98 97 95 94 99 97 93 0 0 0 0 0
    0 0 0 0 0 0 0 0 0 0 0 0 0 0 0 0 0 0 0 0 0 0 0 0 0 0 0 0 0 0 0 0 0 0 0 0 0 0 0 0 0 0 0 0 0 0 0 0 0 0 0 0 0 0 0 0 0 0 0 0 0 0 0 0 0 0 0 0 0 34 32 31 34 32 36 35 36 37 36 37 37 36 37 35 35 37 34 35 34 34 35 33 35 34 31 34 -193 -193 -193 -193 -177 -209 25 23 23 23 24 25 25 26 24 25 27 29 29 29 -225 -225 -225 -225 -225 -225 -225 -225 -225 -225 -225 -225 -225 -225 -225 -225 -225 -225 -225 -225 -225 -225 -225 -225 -225 -225 -225 -225 -225 -225 -225 -225 -225 -225 14 11 15 0 0 0 0 0 0 0 0 0 9 10 10 10 11 10 -193 10 18 24 25 26 30 29 31 34 34 36 32 34 37 37 39 40 40 41 41 45 47 48 46 50 53 57 58 59 64 62 63 66 64 64 62 65 65 62 67 69 64 74 77 78 80 81 82 81 82 84 86 87 92 91 92 93 98 95 95 95 96 94 100 -193 102 102 110 110 110 113 111 113 111 114 115 113 117 117 -193 -193 120 122 121 120 119 -209 -193 -193 -177 -209 -209 140 144 142 145 144 -193 -193 -177 -177 -177 -177 -193 -193 157 158 159 160 161 161 163 163 165 165 167 169 171 173 173 175 177 176 180 178 180 180 178 180 179 176 175 175 176 177 99 100 94 93 96 95 94 92 97 96 92 0 0 0 0 0
    0 0 0 0 0 0 0 0 0 0 0 0 0 0 0 0 0 0 0 0 0 0 0 0 0 0 0 0 0 0 0 0 0 0 0 0 0 0 0 0 0 0 0 0 0 0 0 0 0 0 0 0 0 0 0 0 0 0 0 0 0 0 0 0 0 0 0 0 0 34 31 31 34 32 36 35 36 37 36 37 37 36 37 36 35 37 34 35 34 34 35 33 34 34 31 34 -193 -193 -193 -193 -177 -193 25 23 23 23 24 25 25 25 23 23 26 28 28 28 -225 -225 -225 -225 -225 -225 -225 -225 -225 -225 -225 -225 -225 -225 -225 -225 -225 -225 -225 -225 -225 -225 -225 -225 -225 -225 -225 -225 -225 -225 -225 -225 -225 -225 12 11 15 0 0 0 0 0 0 9 9 0 11 12 10 10 11 10 9 10 18 -193 25 26 29 28 31 34 34 36 33 35 37 38 39 40 40 41 42 44 47 48 46 51 53 57 58 59 64 62 63 66 64 64 62 65 65 62 68 69 66 75 78 79 80 81 81 82 82 84 85 87 91 91 91 92 98 95 95 95 95 94 100 -193 102 102 110 110 110 113 111 113 111 114 114 112 117 117 -193 -177 -193 122 -209 -209 -209 -209 -209 100 -193 -209 -209 139 143 142 144 144 -193 -193 -177 -177 -177 -177 -193 155 157 158 159 160 161 161 162 163 164 165 166 -193 170 173 173 175 177 176 180 178 180 180 178 179 178 176 175 174 176 176 98 99 93 92 94 93 92 92 95 95 91 0 0 0 0 0
    0 0 0 0 0 0 0 0 0 0 0 0 0 0 0 0 0 0 0 0 0 0 0 0 0 0 0 0 0 0 0 0 0 0 0 0 0 0 0 0 0 0 0 0 0 0 0 0 0 0 0 0 0 0 0 0 0 0 0 0 0 0 0 0 0 0 0 0 0 34 31 31 33 32 36 35 36 37 36 38 37 36 37 36 35 37 34 35 34 34 34 33 34 34 30 33 -193 -193 -193 -193 -177 -193 -193 23 24 24 24 25 24 24 22 21 25 26 26 26 -225 -225 -225 -225 -225 -225 -225 -225 -225 -225 -225 -225 -225 -225 -225 -225 -225 -225 -225 -225 -225 -225 -225 -225 -225 -225 -225 -225 -225 -225 -225 -225 -225 -225 14 13 13 0 0 0 9 9 0 9 9 9 12 12 11 10 11 10 9 11 18 -193 -193 25 28 28 31 35 34 36 33 35 37 37 39 39 39 40 41 44 46 48 46 50 53 56 57 59 64 62 62 66 64 64 62 65 65 62 68 69 68 75 78 79 80 81 82 82 83 84 85 87 91 91 91 91 97 94 95 95 95 94 100 102 102 102 110 110 110 113 111 113 111 113 114 112 117 117 -177 -177 -193 122 -209 -193 -209 -209 -209 99 -193 -193 -209 139 142 142 144 144 147 -193 -193 -193 -177 -177 155 155 157 158 159 160 160 161 162 163 164 164 166 -193 170 173 174 175 177 176 179 178 179 180 178 179 178 177 176 175 175 176 96 97 92 91 93 92 91 91 93 94 91 0 0 0 0 0
    0 0 0 0 0 0 0 0 0 0 0 0 0 0 0 0 0 0 0 0 0 0 0 0 0 0 0 0 0 0 0 0 0 0 0 0 0 0 0 0 0 0 0 0 0 0 0 0 0 0 0 0 0 0 0 0 0 0 0 0 0 0 0 0 0 0 0 0 0 35 32 32 33 32 36 35 36 37 37 38 37 36 37 36 35 37 34 35 34 34 34 33 33 34 30 33 30 30 -193 -193 -193 -193 -193 24 24 24 24 25 24 24 21 18 24 24 24 24 -225 -225 -225 -225 -225 -225 -225 -225 -225 -225 -225 -225 -225 -225 -225 -225 -225 -225 -225 -225 -225 -225 -225 -225 -225 -225 -225 -225 -225 -225 -225 -225 -225 -225 15 16 15 0 0 9 10 10 9 9 9 9 11 12 11 10 10 9 9 11 19 -193 -193 -193 27 27 31 35 34 36 34 35 37 37 39 39 39 40 -193 43 46 48 46 49 53 56 57 59 63 61 62 66 64 64 62 65 66 63 68 70 69 75 79 79 79 81 82 83 82 83 85 87 91 91 91 91 98 95 95 95 95 94 101 102 102 102 110 110 110 113 111 113 111 113 114 111 116 117 -177 -177 -177 -193 -193 -193 -177 -193 -177 -193 -193 -193 -193 139 142 142 144 144 147 147 -193 -193 -177 -193 155 156 157 158 159 161 160 162 163 163 164 164 166 168 -193 173 174 174 177 176 179 178 179 180 178 178 178 177 177 175 175 176 95 95 91 91 92 91 91 90 92 94 90 0 0 0 0 0
    0 0 0 0 0 0 0 0 0 0 0 0 0 0 0 0 0 0 0 0 0 0 0 0 0 0 0 0 0 0 0 0 0 0 0 0 0 0 0 0 0 0 0 0 0 0 0 0 0 0 0 0 0 0 0 0 0 0 0 0 0 0 0 0 0 0 0 0 0 36 34 35 35 33 37 36 37 37 37 38 38 37 38 36 35 37 34 34 34 34 34 32 33 34 30 32 30 29 28 -193 -193 -193 26 24 24 24 25 25 23 23 21 16 22 22 22 21 -225 -225 -225 -225 -225 -225 -225 -225 -225 -225 -225 -225 -225 -225 -225 -225 -225 -225 -225 -225 -225 -225 -225 -225 -225 -225 -225 -225 -225 -225 -225 -225 -225 -225 15 17 14 0 0 9 10 9 9 9 9 9 11 12 11 10 11 9 9 11 18 306 -193 -193 -193 27 31 36 35 36 35 36 37 38 39 39 39 41 -193 44 46 49 47 49 53 56 57 58 62 60 61 65 64 64 62 65 66 63 69 71 71 76 78 78 79 81 82 81 81 83 84 87 90 90 91 91 98 95 95 95 95 94 101 102 102 102 110 110 110 114 111 113 112 113 114 111 116 117 -177 -177 -177 -193 -177 -177 -177 -193 -177 -193 -177 -193 -193 139 142 142 144 144 147 147 -193 -193 -177 -209 155 156 157 159 159 161 161 162 163 163 164 164 166 168 -193 172 174 174 177 175 179 178 178 180 177 178 178 177 177 176 175 176 93 93 91 91 91 90 90 90 91 93 90 0 0 0 0 0
    0 0 0 0 0 0 0 0 0 0 0 0 0 0 0 0 0 0 0 0 0 0 0 0 0 0 0 0 0 0 0 0 0 0 0 0 0 0 0 0 0 0 0 0 0 0 0 0 0 0 0 0 0 0 0 0 0 0 0 0 0 0 0 0 0 0 0 0 0 37 35 36 37 35 38 37 37 38 38 39 38 37 38 37 35 37 33 34 33 33 34 32 33 34 30 33 30 29 28 28 26 27 26 25 25 25 25 25 23 23 21 16 21 21 21 20 -225 -225 -225 -225 -225 -225 -225 -225 -225 -225 -225 -225 -225 -225 -225 -225 -225 -225 -225 -225 -225 -225 -225 -225 -225 -225 -225 -225 -225 -225 -225 -225 -225 -225 16 17 13 0 0 9 10 9 9 9 9 9 11 12 11 10 12 10 10 11 18 -193 -193 -193 27 27 32 37 35 36 35 37 37 39 40 40 40 42 42 45 47 50 47 48 53 55 56 56 60 59 60 64 63 63 62 65 66 64 70 71 71 75 77 77 78 80 81 81 81 82 83 86 89 90 90 90 97 95 95 95 95 94 101 103 103 103 110 110 110 114 111 114 112 114 114 111 116 118 -177 -177 -177 -177 -177 -177 -177 -177 -177 -193 -193 -193 -209 139 142 142 144 144 147 148 148 -193 -193 -193 155 156 157 159 159 162 161 162 163 163 164 164 166 168 -193 172 175 174 177 175 178 178 178 179 177 177 178 177 177 176 -193 -193 91 91 90 90 90 89 89 90 91 93 91 0 0 0 0 0
    0 0 0 0 0 0 0 0 0 0 0 0 0 0 0 0 0 0 0 0 0 0 0 0 0 0 0 0 0 0 0 0 0 0 0 0 0 0 0 0 0 0 0 0 0 0 0 0 0 0 0 0 0 0 0 0 0 0 0 0 0 0 0 0 0 0 0 0 0 36 36 36 37 35 39 37 38 38 38 39 38 38 38 37 35 37 33 34 33 33 33 32 32 34 29 33 30 29 28 29 26 28 26 26 25 25 25 26 23 23 21 16 20 20 20 19 -225 -225 -225 -225 -225 -225 -225 -225 -225 -225 -225 -225 -225 -225 -225 -225 -225 -225 -225 -225 -225 -225 -225 -225 -225 -225 -225 -225 -225 -225 -225 -225 -225 19 15 17 13 9 9 10 10 9 9 9 9 10 11 12 11 10 13 11 12 13 -193 -193 24 27 27 27 31 37 35 36 36 37 37 40 41 41 -193 42 43 45 47 50 48 48 53 55 55 56 59 59 60 64 63 63 62 66 67 66 71 72 72 75 77 77 78 79 81 81 81 81 82 85 88 89 90 90 96 94 95 95 95 94 101 103 -177 103 110 111 111 115 112 114 113 115 115 112 117 118 339 339 338 -177 -177 -177 -177 -193 -177 -193 -209 -193 -209 139 142 142 144 144 147 148 148 151 -193 154 155 157 157 160 160 163 162 163 163 163 164 165 166 -193 -193 -193 174 174 176 175 177 177 177 179 177 176 177 177 177 177 -193 -193 90 90 90 90 89 89 88 89 90 92 91 0 0 0 0 0
    0 0 0 0 0 0 0 0 0 0 0 0 0 0 0 0 0 0 0 0 0 0 0 0 0 0 0 0 0 0 0 0 0 0 0 0 0 0 0 0 0 0 0 0 0 0 0 0 0 0 0 0 0 0 0 0 0 0 0 0 0 0 0 0 0 0 0 0 0 36 36 36 37 36 39 38 38 39 39 40 39 38 38 38 35 37 33 34 33 33 33 32 32 33 29 34 30 29 29 29 27 28 27 26 25 25 26 26 23 23 21 16 19 19 19 18 -225 -225 -225 -225 -225 -225 -225 -225 -225 -225 -225 -225 -225 -225 -225 -225 -225 -225 -225 -225 -225 -225 -225 -225 -225 -225 -225 -225 -225 -225 -225 -225 -225 18 15 16 14 11 10 11 11 10 10 10 9 10 11 12 11 10 14 12 14 16 24 24 24 27 27 27 31 37 34 35 36 37 37 39 41 41 40 42 42 45 46 50 48 47 53 55 54 55 58 59 59 63 63 63 63 66 68 67 71 72 73 75 77 77 77 79 81 81 82 82 83 86 88 89 89 89 95 94 94 94 94 94 101 103 103 103 109 111 112 115 112 115 114 116 116 114 117 -193 -177 -177 -193 -193 -177 -177 -193 -193 -177 -193 -193 -193 -209 140 142 142 145 144 147 148 148 151 -193 153 155 157 157 161 160 164 163 164 164 164 165 165 -193 -193 -177 -193 -193 174 176 174 176 177 176 178 176 176 177 177 177 178 -193 -193 -209 88 89 89 89 88 87 88 89 91 91 0 0 0 0 0
    0 0 0 0 0 0 0 0 0 0 0 0 0 0 0 0 0 0 0 0 0 0 0 0 0 0 0 0 0 0 0 0 0 0 0 0 0 0 0 0 0 0 0 0 0 0 0 0 0 0 0 0 0 0 0 0 0 0 0 0 0 0 0 0 0 0 0 0 0 37 37 36 36 36 38 38 39 40 40 41 40 39 39 38 35 37 32 34 32 33 33 32 32 33 30 34 31 30 29 29 28 29 28 27 26 25 26 26 23 23 20 15 17 17 17 17 -225 -225 -225 -225 -225 -225 -225 -225 -225 -225 -225 -225 -225 -225 -225 -225 -225 -225 -225 -225 -225 -225 -225 -225 -225 -225 -225 -225 -225 -225 -225 -225 -225 18 15 16 15 12 11 12 12 10 10 11 10 10 12 12 11 10 16 13 16 21 25 25 25 28 28 28 31 36 33 35 36 37 36 39 41 41 40 42 43 44 46 50 48 46 52 55 53 54 58 58 58 62 63 63 -193 66 68 68 72 73 73 74 76 76 77 79 81 81 82 83 84 86 88 88 88 88 93 93 93 94 94 94 101 102 103 103 108 111 111 115 113 115 -193 -193 -193 -193 118 -193 -177 -193 123 -193 -193 -193 123 125 -193 -193 131 -209 -209 140 142 143 145 144 147 148 148 151 -193 153 155 157 157 161 161 165 164 165 165 165 -193 -193 -193 -193 90 -193 -193 -193 175 174 -193 176 175 177 176 175 176 177 177 -193 899 -193 -209 -193 89 90 89 87 86 87 89 90 91 0 0 0 0 0
    0 0 0 0 0 0 0 0 0 0 0 0 0 0 0 0 0 0 0 0 0 0 0 0 0 0 0 0 0 0 0 0 0 0 0 0 0 0 0 0 0 0 0 0 0 0 0 0 0 0 0 0 0 0 0 0 0 0 0 0 0 0 0 0 0 0 0 0 0 38 37 37 37 36 38 38 39 41 40 41 40 39 39 39 35 37 32 34 32 33 33 32 32 33 30 34 31 30 30 30 29 30 28 28 26 26 26 26 23 23 20 15 16 17 17 17 -225 -225 -225 -225 -225 -225 -225 -225 -225 -225 -225 -225 -225 -225 -225 -225 -225 -225 -225 -225 -225 -225 -225 -225 -225 -225 -225 -225 -225 -225 -225 20 22 18 16 16 14 11 10 11 11 10 10 11 10 11 12 13 12 12 18 14 18 23 26 26 26 29 28 29 31 35 32 34 36 37 35 39 -193 41 41 43 44 44 46 50 49 45 52 55 52 54 -193 57 58 62 -177 -177 -177 66 69 68 72 73 73 74 75 75 76 79 82 82 83 84 86 88 88 88 88 88 92 93 93 93 93 94 101 102 103 103 -193 111 111 115 113 115 -177 718 718 719 118 -177 -177 -193 124 123 -193 124 125 127 124 131 133 -209 -193 140 141 142 144 144 147 148 148 151 152 154 155 157 157 162 161 165 164 165 165 165 -193 -193 90 89 90 92 -193 -193 -193 -193 -193 -193 175 176 176 174 176 177 177 -193 898 -193 -193 -209 -193 90 89 88 88 88 89 91 92 0 0 0 0 0
    0 0 0 0 0 0 0 0 0 0 0 0 0 0 0 0 0 0 0 0 0 0 0 0 0 0 0 0 0 0 0 0 0 0 0 0 0 0 0 0 0 0 0 0 0 0 0 0 0 0 0 0 0 0 0 0 0 0 0 0 0 0 0 0 0 0 0 0 0 36 36 35 36 35 37 37 38 39 39 40 39 39 38 39 34 37 32 33 32 33 32 32 32 33 30 34 32 31 31 30 30 30 29 29 27 26 26 26 23 22 20 16 16 17 17 17 -225 -225 -225 -225 -225 -225 -225 -225 -225 -225 -225 -225 -225 -225 -225 -225 -225 -225 -225 -225 -225 -225 -225 -225 -225 -225 -225 -225 -225 25 21 20 21 18 16 17 13 11 10 11 11 9 10 10 9 11 12 13 12 12 18 14 18 24 27 27 27 30 29 30 31 35 31 34 35 36 34 38 -193 41 41 43 44 44 47 50 50 45 52 55 52 53 56 57 57 61 -177 -193 -177 66 69 67 72 73 73 73 74 74 75 79 83 83 85 87 88 88 90 89 89 88 92 94 92 93 94 94 101 -193 103 103 -177 111 112 115 114 115 -177 719 719 720 -193 -209 -193 -193 124 123 125 126 126 128 125 132 133 -193 -193 139 141 142 144 144 147 148 148 151 152 154 156 158 157 162 161 165 165 165 166 166 -193 93 91 90 92 92 94 -193 -193 -193 -193 -193 174 175 175 174 175 177 177 178 -177 -209 87 -193 91 91 90 90 89 89 90 92 93 0 0 0 0 0
    0 0 0 0 0 0 0 0 0 0 0 0 0 0 0 0 0 0 0 0 0 0 0 0 0 0 0 0 0 0 0 0 0 0 0 0 0 0 0 0 0 0 0 0 0 0 0 0 0 0 0 0 0 0 0 0 0 0 0 0 0 0 0 0 0 0 0 0 0 35 35 34 36 35 36 37 38 38 38 39 39 38 38 39 34 37 32 33 32 33 32 32 32 33 30 35 33 31 32 31 31 31 30 30 27 26 27 26 23 22 21 17 16 17 17 17 -225 -225 -225 -225 -225 -225 -225 -225 -225 -225 -225 -225 -225 -225 -225 -225 -225 -225 -225 -225 -225 -225 -225 -225 -225 -225 -225 33 24 23 21 19 19 17 16 17 12 11 10 11 10 9 9 10 9 10 12 12 11 13 17 14 18 24 26 27 27 30 29 30 31 34 31 34 35 36 34 38 -193 43 42 44 45 46 48 52 51 46 52 55 52 53 56 57 57 -177 -177 -177 -193 65 68 67 71 73 73 73 74 74 76 81 84 83 85 88 88 89 91 90 89 89 92 95 93 94 94 94 101 -193 -193 -193 731 111 112 114 114 115 723 720 720 721 -193 -193 -177 -177 124 122 126 128 128 129 126 132 133 135 136 139 140 142 144 144 147 148 149 152 153 155 157 159 158 161 161 165 165 166 -193 -193 91 95 -193 -193 94 93 96 96 97 98 -177 -193 -177 175 175 174 175 176 176 -193 -209 91 89 89 93 93 92 91 90 90 90 93 94 0 0 0 0 0
    0 0 0 0 0 0 0 0 0 0 0 0 0 0 0 0 0 0 0 0 0 0 0 0 0 0 0 0 0 0 0 0 0 0 0 0 0 0 0 0 0 0 0 0 0 0 0 0 0 0 0 0 0 0 0 0 0 0 0 0 0 0 0 0 0 0 0 0 0 33 33 32 35 35 36 36 37 38 38 39 38 38 37 38 34 37 32 33 32 33 32 32 32 33 30 35 34 32 33 32 32 32 31 30 28 26 27 25 23 23 21 18 17 19 19 19 -225 -225 -225 -225 -225 -225 -225 -225 -225 -225 -225 -225 -225 -225 -225 -225 -225 -225 -225 -225 -225 -225 -225 -225 -225 -225 24 28 22 21 19 17 17 15 15 16 12 11 11 11 11 10 10 11 9 10 12 11 10 12 15 13 17 24 25 27 27 30 29 30 31 34 32 35 35 37 35 39 -193 44 44 46 46 48 49 52 53 47 52 55 53 54 56 58 58 -177 -177 -177 -177 -177 68 67 71 73 73 73 74 74 77 82 84 83 86 88 89 89 -193 90 90 90 92 95 92 94 94 93 100 -193 -193 -193 732 111 112 114 115 115 724 721 721 721 720 723 -177 979 -193 122 127 131 130 131 128 133 133 135 136 138 140 141 144 144 146 149 149 153 154 156 157 159 157 160 160 164 -193 -193 -193 -177 -193 -193 -193 -209 98 93 96 96 96 98 96 -177 -193 -177 -177 173 174 176 175 -193 90 92 89 90 94 93 92 92 91 91 90 94 94 0 0 0 0 0
    0 0 0 0 0 0 0 0 0 0 0 0 0 0 0 0 0 0 0 0 0 0 0 0 0 0 0 0 0 0 0 0 0 0 0 0 0 0 0 0 0 0 0 0 0 0 0 0 0 0 0 0 0 0 0 0 0 0 0 0 0 0 0 0 0 0 0 0 0 31 31 30 34 35 35 35 36 37 37 37 37 36 35 37 33 37 32 33 32 33 32 32 32 33 30 36 34 33 33 32 32 32 32 31 28 26 27 25 24 23 21 20 18 21 21 21 -225 -225 -225 -225 -225 -225 -225 -225 -225 -225 -225 -225 -225 -225 -225 -225 -225 -225 -225 -225 -225 -225 -225 -225 -225 -225 23 25 21 19 16 16 15 14 14 16 13 12 12 12 12 11 11 12 10 11 13 11 10 12 15 13 17 23 24 26 27 29 29 30 31 33 31 34 35 36 35 38 -193 44 45 47 47 48 51 53 -177 -177 53 55 54 55 57 59 59 -177 -177 -177 -177 -177 -177 68 70 73 73 73 73 74 77 83 85 86 87 -193 90 90 -193 91 -193 90 92 95 92 93 94 93 100 -193 -193 -193 732 -193 111 113 115 114 724 722 722 722 720 723 -177 980 981 -193 127 132 131 131 130 133 133 135 136 138 139 141 144 144 146 148 149 152 154 155 157 158 156 158 158 162 -193 -193 -193 17 -177 -193 -193 -209 99 93 96 96 96 98 95 95 -193 -177 -177 -177 173 175 174 -193 90 93 89 90 95 93 92 93 92 91 90 94 95 0 0 0 0 0
    0 0 0 0 0 0 0 0 0 0 0 0 0 0 0 0 0 0 0 0 0 0 0 0 0 0 0 0 0 0 0 0 0 0 0 0 0 0 0 0 0 0 0 0 0 0 0 0 0 0 0 0 0 0 0 0 0 0 0 0 0 0 0 0 0 0 0 0 0 30 30 29 33 34 35 34 36 36 37 37 36 36 35 36 33 36 32 32 32 33 33 32 32 33 30 36 35 33 33 32 32 33 32 31 28 26 27 25 24 23 21 20 19 23 23 23 -225 -225 -225 -225 -225 -225 -225 -225 -225 -225 -225 -225 -225 -225 -225 -225 -225 -225 -225 -225 -225 -225 -225 -225 -225 -225 23 24 20 19 16 17 15 14 14 16 14 13 13 14 12 13 12 14 11 12 13 11 11 12 14 13 16 22 23 25 26 28 28 30 31 32 31 34 34 35 35 37 -177 44 45 46 46 48 52 54 -177 -177 -177 55 56 56 58 60 60 -177 -177 -177 -177 65 69 69 70 73 73 73 73 74 78 83 86 86 88 91 91 92 93 91 91 91 92 96 92 93 93 93 99 -193 -193 -193 731 736 110 112 114 -193 725 723 723 723 -193 724 722 980 982 979 126 133 131 132 131 133 133 135 136 138 139 141 143 144 145 148 148 151 152 154 156 156 154 156 155 -193 0 10 12 19 18 -193 -193 -209 -193 93 96 96 95 97 95 94 -193 -177 -177 -177 173 174 172 -193 -193 95 90 90 95 93 92 94 93 92 91 94 95 0 0 0 0 0
    0 0 0 0 0 0 0 0 0 0 0 0 0 0 0 0 0 0 0 0 0 0 0 0 0 0 0 0 0 0 0 0 0 0 0 0 0 0 0 0 0 0 0 0 0 0 0 0 0 0 0 0 0 0 0 0 0 0 0 0 0 0 0 0 0 0 0 0 0 31 31 30 33 34 34 34 35 36 36 36 36 35 34 36 32 36 32 33 32 33 33 33 32 33 30 36 35 33 34 32 33 33 32 31 28 26 27 24 -193 23 22 21 19 25 25 25 -225 -225 -225 -225 -225 -225 -225 -225 -225 -225 -225 -225 -225 -225 -225 -225 -225 -225 -225 -225 -225 -225 -225 -225 -225 -225 23 23 19 18 14 15 14 13 13 15 13 13 13 14 13 13 13 14 11 12 13 10 10 12 14 13 15 22 22 24 26 27 28 29 30 31 30 34 34 35 35 37 -193 44 46 47 45 47 52 54 -177 -177 53 56 57 57 58 61 61 64 65 -177 -177 64 68 68 69 73 71 73 74 75 80 85 87 87 89 93 92 93 94 92 91 91 92 96 92 93 93 92 99 -193 -193 -193 730 -193 109 110 114 112 -193 723 723 723 -193 724 723 980 982 979 125 133 131 132 131 132 133 134 135 137 138 141 143 143 144 147 147 150 151 153 155 154 152 154 153 -193 0 11 14 20 20 -193 -209 -209 -193 94 96 96 94 96 94 94 -193 -177 -177 -177 172 173 171 -193 -193 98 91 90 96 93 92 94 93 92 91 95 95 0 0 0 0 0
    0 0 0 0 0 0 0 0 0 0 0 0 0 0 0 0 0 0 0 0 0 0 0 0 0 0 0 0 0 0 0 0 0 0 0 0 0 0 0 0 0 0 0 0 0 0 0 0 0 0 0 0 0 0 0 0 0 0 0 0 0 0 0 0 0 0 0 0 0 30 31 30 34 34 34 34 34 34 36 35 35 34 33 35 32 36 33 33 32 34 34 33 32 33 30 36 35 33 34 32 33 33 32 32 29 -193 -193 24 -193 24 22 22 21 26 26 26 -225 -225 -225 -225 -225 -225 -225 -225 -225 -225 -225 -225 -225 -225 -225 -225 -225 -225 -225 -225 -225 -225 -225 -225 -225 -225 31 24 19 18 15 15 14 13 13 15 13 13 14 13 13 13 13 14 11 12 13 10 11 12 13 13 14 21 22 24 26 27 28 30 30 31 30 33 34 33 34 36 -193 44 45 46 45 47 52 54 -177 52 53 56 59 58 59 61 61 65 65 65 65 63 67 -177 67 72 68 73 75 77 80 85 87 88 90 94 93 93 95 93 92 91 92 97 92 93 93 92 98 100 -193 -193 -193 -193 109 109 113 111 114 113 114 114 113 723 723 980 982 979 -193 -193 130 132 130 131 132 133 135 136 137 140 142 142 141 -193 144 148 149 152 153 153 151 153 152 151 -193 -193 -193 21 21 -193 -209 -209 -193 94 96 96 94 95 94 -193 -193 -177 -177 172 171 173 171 -193 -193 101 92 91 98 93 92 96 95 93 92 96 97 0 0 0 0 0
    0 0 0 0 0 0 0 0 0 0 0 0 0 0 0 0 0 0 0 0 0 0 0 0 0 0 0 0 0 0 0 0 0 0 0 0 0 0 0 0 0 0 0 0 0 0 0 0 0 0 0 0 0 0 0 0 0 0 0 0 0 0 0 0 0 0 0 0 0 30 32 31 35 35 35 35 34 34 36 35 35 34 34 36 33 37 34 34 33 35 34 33 32 34 30 36 35 33 34 32 33 33 33 32 29 27 28 24 -193 25 23 23 23 26 28 28 28 -225 -225 -225 -225 -225 -225 -225 -225 -225 -225 -225 -225 -225 -225 -225 -225 -225 -225 -225 -225 -225 -225 -225 -225 28 23 22 18 15 14 13 13 12 12 14 12 12 13 13 12 13 13 14 11 13 13 11 10 12 13 12 15 21 22 24 26 27 29 30 30 30 30 32 33 32 33 34 -193 42 43 44 44 46 52 54 54 52 52 56 60 58 59 62 61 65 64 64 64 62 66 -177 66 70 67 73 76 77 81 85 87 88 90 95 94 94 96 94 92 92 92 97 92 92 93 92 97 100 -193 -193 -193 -193 109 109 113 111 113 112 113 113 112 723 723 980 982 -193 -193 -193 129 -193 -193 129 131 132 135 136 137 140 141 140 139 -193 -209 139 141 150 153 152 150 152 152 152 -193 -193 -193 -193 22 -209 -193 -209 -193 95 96 96 94 -177 -177 -193 -193 173 173 172 171 172 170 170 -193 102 92 90 97 93 93 97 96 95 93 98 99 0 0 0 0 0
    0 0 0 0 0 0 0 0 0 0 0 0 0 0 0 0 0 0 0 0 0 0 0 0 0 0 0 0 0 0 0 0 0 0 0 0 0 0 0 0 0 0 0 0 0 0 0 0 0 0 0 0 0 0 0 0 0 0 0 0 0 0 0 0 0 0 0 0 0 32 35 36 37 38 38 37 36 35 36 36 35 35 34 36 34 37 34 34 34 35 35 34 32 34 30 36 35 33 34 31 33 33 33 32 29 27 29 25 27 26 24 24 23 27 29 29 29 -225 -225 -225 -225 -225 -225 -225 -225 -225 -225 -225 -225 -225 -225 -225 -225 -225 -225 -225 -225 -225 -225 -225 -225 21 16 20 15 13 13 12 12 10 10 13 11 11 13 13 12 13 14 14 11 13 13 11 10 12 13 12 15 20 21 23 26 26 28 29 30 30 30 31 33 31 32 32 38 41 41 43 42 46 51 53 54 52 52 55 61 59 59 63 62 66 64 64 65 62 66 67 65 70 67 74 76 76 81 84 86 87 90 95 95 95 97 94 93 92 93 98 92 -193 -193 92 97 100 101 101 101 109 109 109 113 110 113 111 112 112 111 722 723 -193 -193 -193 -193 -193 -193 -177 -177 -193 -193 -193 135 137 -209 140 142 140 138 211 -209 -209 135 -193 -209 151 150 152 153 152 153 -193 147 142 -193 -193 135 -193 -193 96 96 96 94 -177 -193 -193 -177 173 173 172 171 172 -193 170 172 -193 93 90 96 93 93 98 98 97 95 99 101 0 0 0 0 0
    0 0 0 0 0 0 0 0 0 0 0 0 0 0 0 0 0 0 0 0 0 0 0 0 0 0 0 0 0 0 0 0 0 0 0 0 0 0 0 0 0 0 0 0 0 0 0 0 0 0 0 0 0 0 0 0 0 0 0 0 0 0 0 0 0 0 0 0 0 38 40 41 41 42 41 40 39 38 38 37 36 36 35 36 34 37 35 35 35 36 36 34 33 34 30 36 35 32 34 31 32 33 32 32 29 27 29 25 28 27 25 25 25 28 31 31 31 -225 -225 -225 -225 -225 -225 -225 -225 -225 -225 -225 -225 -225 -225 -225 -225 -225 -225 -225 -225 -225 -225 -225 11 10 0 14 11 10 10 11 11 10 10 13 11 11 13 13 12 13 14 14 12 13 13 11 11 13 13 13 15 19 21 23 25 26 28 29 30 30 30 31 33 31 32 32 37 41 41 43 42 46 50 53 53 52 51 55 61 59 59 64 63 66 65 65 65 63 66 67 65 69 66 73 75 75 81 84 87 87 90 96 96 96 98 95 93 92 93 98 92 92 92 92 96 100 101 101 101 109 109 109 113 110 113 111 112 112 111 -177 -193 112 118 113 -193 -177 -177 -177 -177 -209 -193 -177 -209 -193 -209 141 142 140 138 -193 -193 123 132 -209 -209 -193 150 152 153 153 153 151 148 144 -193 -193 137 -193 -193 -193 97 97 -177 -177 -193 -177 172 173 173 172 171 172 -193 170 173 -193 -209 91 96 93 93 98 99 98 96 99 101 0 0 0 0 0
    0 0 0 0 0 0 0 0 0 0 0 0 0 0 0 0 0 0 0 0 0 0 0 0 0 0 0 0 0 0 0 0 0 0 0 0 0 0 0 0 0 0 0 0 0 0 0 0 0 0 0 0 0 0 0 0 0 0 0 0 0 0 0 0 0 0 0 0 0 44 44 44 44 45 45 43 42 41 40 38 36 36 36 36 35 37 36 35 35 36 36 34 33 34 30 36 35 32 34 31 32 33 32 32 29 27 29 25 28 27 25 26 27 29 35 33 33 27 29 30 29 -225 -225 -225 -225 -225 -225 -225 -225 -225 -225 -225 -225 -225 -225 -225 -225 -225 0 0 0 0 0 11 9 10 10 11 11 10 10 13 11 11 13 13 12 13 14 14 12 14 13 11 11 12 13 12 15 18 19 22 24 25 28 29 29 29 29 30 33 30 31 31 37 40 40 42 42 45 49 52 53 52 53 56 61 59 59 64 63 66 65 64 66 63 66 67 65 69 66 72 72 73 80 84 87 88 91 96 98 97 98 96 93 92 92 98 92 92 92 92 95 100 101 101 101 110 110 110 113 111 113 111 112 112 111 -193 -193 112 117 113 -193 -177 -177 -177 -177 -193 -193 -177 -193 -193 -193 140 142 140 137 -193 -193 123 131 -209 -193 -193 149 152 153 153 153 151 148 147 144 -193 142 -193 -209 -209 98 97 -193 -209 -193 -177 172 173 173 173 171 173 -193 170 174 -193 -193 90 95 93 93 98 99 98 96 99 101 0 0 0 0 0
    0 0 0 0 0 0 0 0 0 0 0 0 0 0 0 0 0 0 0 0 0 0 0 0 0 0 0 0 0 0 0 0 0 0 0 0 0 0 0 0 0 0 0 0 0 0 0 0 0 0 0 0 0 0 0 0 0 0 0 0 0 0 0 0 0 0 0 0 0 46 45 45 44 45 45 44 44 43 41 39 36 37 36 37 35 37 37 36 36 37 37 35 34 34 31 36 35 33 34 31 32 33 32 32 29 28 29 26 28 28 25 26 28 29 35 33 33 29 31 31 30 27 27 19 -225 -225 -225 -225 -225 -225 -225 -225 -225 -225 0 0 0 0 0 0 0 0 0 11 10 11 11 12 12 11 10 12 10 11 12 12 12 13 14 14 12 14 14 12 11 12 13 13 16 18 19 21 24 25 27 28 29 28 29 30 33 30 31 31 37 40 40 42 43 44 48 51 52 51 52 55 59 58 58 63 62 66 64 64 66 63 66 67 65 69 65 71 72 72 79 84 88 89 92 97 98 98 99 97 94 92 92 98 93 92 92 92 95 100 102 102 102 110 110 110 113 111 113 111 113 113 111 -193 -193 112 117 113 -193 367 370 -177 -177 642 -177 -177 -193 -193 -193 140 142 139 137 -209 -193 122 130 -209 -193 -193 149 151 153 153 153 152 150 150 151 -193 150 -193 154 156 160 -209 165 -193 169 170 172 173 173 173 172 173 171 171 176 181 185 -193 94 93 93 97 99 98 96 99 102 0 0 0 0 0
    0 0 0 0 0 0 0 0 0 0 0 0 0 0 0 0 0 0 0 0 0 0 0 0 0 0 0 0 0 0 0 0 0 0 0 0 0 0 0 0 0 0 0 0 0 0 0 0 0 0 0 0 0 0 0 0 0 0 0 0 0 0 0 0 0 0 0 0 0 48 45 45 44 44 44 44 44 43 43 41 38 38 38 38 36 37 38 36 36 37 37 35 34 35 32 35 35 33 34 31 32 33 32 32 30 28 29 26 28 28 26 26 29 29 35 33 33 30 31 31 30 28 28 23 21 -225 -225 -225 -225 -225 -225 -225 -225 21 15 10 11 10 10 9 10 10 10 13 12 13 12 12 13 10 10 12 10 11 11 12 12 13 14 14 12 14 13 12 10 11 11 12 15 17 18 21 24 26 27 28 29 28 29 30 34 31 30 31 38 -193 41 42 43 45 48 51 52 51 51 54 58 57 58 62 62 65 63 64 65 63 65 67 64 68 65 71 72 72 78 83 88 89 92 96 98 98 -193 99 95 93 93 99 93 92 93 93 94 100 102 102 102 110 110 110 114 111 114 112 113 113 112 -177 -193 113 118 114 -193 368 371 -177 -177 641 -177 -177 -193 -193 -209 139 141 138 134 -209 124 121 129 -209 -193 147 149 151 153 153 153 152 151 153 156 -209 155 -193 158 161 162 -193 165 168 169 170 172 173 173 173 172 174 172 172 178 183 186 -193 94 94 94 97 100 98 97 98 102 0 0 0 0 0
    0 0 0 0 0 0 0 0 0 0 0 0 0 0 0 0 0 0 0 0 0 0 0 0 0 0 0 0 0 0 0 0 0 0 0 0 0 0 0 0 0 0 0 0 0 0 0 0 0 0 0 0 0 0 0 0 0 0 0 0 0 0 0 0 0 0 0 0 0 51 47 47 45 44 43 43 43 42 42 42 39 40 39 39 38 38 38 37 37 37 37 35 34 34 33 35 35 33 34 31 32 33 32 32 30 28 30 27 28 29 26 27 31 29 35 33 33 31 31 31 31 28 29 25 23 24 -225 -225 -225 -225 -225 -225 19 20 16 10 10 9 9 0 10 10 10 13 12 13 13 11 13 10 10 12 9 10 10 11 12 12 13 13 11 12 12 12 10 11 11 12 17 18 20 23 25 27 29 29 29 29 30 30 35 32 32 33 40 -193 42 42 44 45 47 51 51 51 51 55 57 57 58 62 61 64 62 63 65 63 65 66 64 68 65 71 72 72 77 83 88 89 91 96 98 98 99 100 95 93 94 99 94 93 93 93 94 101 -193 103 103 111 111 111 114 111 114 112 -193 -193 113 -177 -177 -193 119 116 -193 368 372 -177 -193 641 -177 -177 -193 -193 -209 139 140 137 132 123 124 121 129 -209 143 146 149 150 152 153 152 151 151 154 160 156 162 167 164 165 164 166 165 168 169 170 171 173 173 173 172 175 172 173 179 183 187 -193 95 95 94 97 100 99 97 98 102 0 0 0 0 0
    0 0 0 0 0 0 0 0 0 0 0 0 0 0 0 0 0 0 0 0 0 0 0 0 0 0 0 0 0 0 0 0 0 0 0 0 0 0 0 0 0 0 0 0 0 0 0 0 0 0 0 0 0 0 0 0 0 0 0 0 0 0 0 0 0 0 0 0 0 51 48 47 46 45 43 43 42 41 41 40 38 39 39 39 38 38 38 37 37 37 37 35 34 34 34 34 35 33 34 31 32 33 32 32 30 29 30 27 28 29 26 27 32 29 35 33 32 31 31 31 31 28 29 25 23 24 26 -225 -225 -225 -225 20 18 19 16 11 11 9 9 9 10 11 10 13 13 13 13 13 12 10 10 11 0 9 9 10 10 11 12 12 10 12 13 13 10 11 12 13 17 18 21 24 26 28 29 29 30 30 30 30 36 34 34 35 41 -193 42 43 45 46 47 51 51 52 51 55 58 57 58 62 61 64 62 63 64 62 64 66 64 68 66 71 71 72 75 81 86 -193 90 95 98 99 100 101 96 94 94 99 95 94 94 94 94 101 -193 -193 104 111 111 111 115 112 114 113 114 114 114 -177 -177 350 -209 -193 -193 368 373 -177 -193 642 -177 -177 -193 -193 -209 138 140 136 128 123 125 121 129 139 141 144 148 149 -193 152 151 150 151 154 160 158 164 168 166 167 165 166 165 168 169 170 171 173 173 174 173 175 173 173 180 -193 187 -193 94 -193 94 96 100 99 97 97 101 0 0 0 0 0
    0 0 0 0 0 0 0 0 0 0 0 0 0 0 0 0 0 0 0 0 0 0 0 0 0 0 0 0 0 0 0 0 0 0 0 0 0 0 0 0 0 0 0 0 0 0 0 0 0 0 0 0 0 0 0 0 0 0 0 0 0 0 0 0 0 0 0 0 0 51 49 47 46 45 42 42 41 40 39 39 37 39 39 39 38 37 38 37 37 37 37 35 35 34 34 34 35 33 35 32 32 34 33 32 31 29 30 27 28 30 26 27 34 30 35 33 33 32 31 31 32 29 29 26 26 25 27 27 -225 -225 -225 20 18 19 16 11 11 9 9 9 10 10 10 13 13 13 13 13 11 9 9 10 0 0 0 9 9 10 11 11 10 11 12 12 10 11 13 12 17 17 20 23 25 27 29 29 29 29 31 31 37 36 37 38 43 44 44 43 46 47 47 51 51 52 51 55 57 56 57 61 60 63 61 62 64 62 64 66 64 68 66 71 71 71 74 78 -193 -193 -193 94 96 99 100 101 96 94 95 99 96 95 95 95 94 101 -193 -193 104 -177 112 112 115 112 115 114 115 115 115 -177 -177 -177 -193 -193 -193 369 374 -193 -193 -193 -177 -177 -193 136 136 -193 139 134 126 124 126 123 128 137 139 141 145 148 -193 -193 150 149 151 -193 162 161 166 168 166 167 166 167 165 168 169 170 171 173 173 174 173 175 174 173 180 -193 187 -193 93 -193 93 95 99 97 95 95 101 0 0 0 0 0
    0 0 0 0 0 0 0 0 0 0 0 0 0 0 0 0 0 0 0 0 0 0 0 0 0 0 0 0 0 0 0 0 0 0 0 0 0 0 0 0 0 0 0 0 0 0 0 0 0 0 0 0 0 0 0 0 0 0 0 0 0 0 0 0 0 0 0 0 0 52 49 48 46 45 42 42 41 39 38 37 37 38 38 38 38 37 38 36 36 37 37 35 35 34 35 34 35 34 35 32 32 34 33 32 31 30 30 28 28 31 27 27 35 32 35 33 34 32 31 31 32 30 29 27 27 25 27 28 -225 -225 19 18 16 17 14 11 11 8 9 9 10 10 10 14 13 14 13 14 12 10 10 11 0 0 0 0 0 0 9 10 0 10 10 11 9 10 12 12 16 17 20 23 25 27 29 29 30 30 32 33 38 38 -193 -193 44 46 45 44 47 47 47 50 51 52 51 54 56 55 56 60 60 -193 61 62 63 62 64 66 64 67 66 71 71 71 73 77 -193 -193 -193 91 94 98 99 101 96 95 95 100 97 96 96 96 94 101 -177 -193 104 111 112 112 115 113 115 -193 116 117 -193 -193 -177 -177 -177 -177 -193 369 374 -177 -193 -193 -177 -177 130 135 134 133 138 131 125 124 127 125 128 135 138 139 142 145 -193 -193 149 148 -193 -193 164 164 166 168 167 167 166 167 165 168 169 170 171 173 173 174 174 175 174 173 180 -193 187 -193 93 94 93 94 98 95 93 93 99 0 0 0 0 0
    0 0 0 0 0 0 0 0 0 0 0 0 0 0 0 0 0 0 0 0 0 0 0 0 0 0 0 0 0 0 0 0 0 0 0 0 0 0 0 0 0 0 0 0 0 0 0 0 0 0 0 0 0 0 0 0 0 0 0 0 0 0 0 0 0 0 0 0 0 52 50 48 46 46 42 42 41 38 37 36 36 37 38 37 38 36 38 36 36 36 37 35 35 34 36 34 35 34 35 32 32 33 32 32 31 30 31 28 28 33 29 29 36 33 35 34 34 32 32 32 32 30 29 27 27 25 26 26 26 20 17 16 14 14 11 9 10 0 0 0 10 10 10 13 13 13 13 14 12 11 11 11 0 0 0 0 0 0 0 9 0 10 10 11 10 11 12 13 15 17 21 23 25 27 29 29 30 30 34 35 39 -209 41 42 46 47 46 44 48 48 46 51 52 52 51 54 56 55 56 60 -193 337 61 62 63 62 63 65 -177 67 66 70 70 70 72 76 -193 -193 86 90 92 96 97 100 96 94 95 99 97 97 96 96 94 101 480 -193 104 111 113 112 115 114 116 -193 117 118 -193 -177 -193 -177 -177 -177 -193 369 374 -177 -177 -193 -177 -193 128 133 132 127 -193 128 124 124 126 126 127 133 -193 137 139 143 -193 -193 148 147 -209 -193 -193 -193 167 169 167 168 167 167 165 168 169 169 172 173 174 175 174 175 175 173 180 -193 -193 -193 93 93 92 93 97 94 92 92 97 0 0 0 0 0
    0 0 0 0 0 0 0 0 0 0 0 0 0 0 0 0 0 0 0 0 0 0 0 0 0 0 0 0 0 0 0 0 0 0 0 0 0 0 0 0 0 0 0 0 0 0 0 0 0 0 0 0 0 0 0 0 0 0 0 0 0 0 0 0 0 0 0 0 0 52 51 49 47 46 41 41 40 37 36 35 34 35 37 35 38 36 38 36 36 36 37 35 35 35 37 34 35 34 35 33 32 33 33 32 31 32 32 30 30 36 34 31 37 34 35 33 35 32 32 32 33 31 30 28 28 25 26 26 26 21 18 15 14 14 10 9 9 0 0 0 10 10 10 13 13 14 13 14 13 11 11 11 0 0 0 0 0 0 0 9 0 10 11 11 10 10 12 13 14 16 21 22 26 28 29 29 29 30 34 35 39 41 42 43 47 48 47 45 48 48 46 51 52 52 52 54 56 55 56 -193 59 -193 61 62 63 62 63 65 -177 -177 66 70 70 70 72 74 78 -193 85 89 91 95 95 100 95 94 94 99 97 97 96 97 94 101 -177 -177 104 110 113 112 115 114 116 -193 118 118 118 -177 -177 -193 734 738 -193 368 374 -177 -177 -177 -177 -193 127 132 130 124 127 126 123 124 126 125 127 131 -209 137 139 142 -193 -193 147 146 -209 -193 -193 -193 167 169 168 169 167 168 166 168 170 170 172 173 174 174 174 175 175 173 179 -193 -193 -193 93 93 92 92 95 93 91 -193 -193 0 0 0 0 0
    0 0 0 0 0 0 0 0 0 0 0 0 0 0 0 0 0 0 0 0 0 0 0 0 0 0 0 0 0 0 0 0 0 0 0 0 0 0 0 0 0 0 0 0 0 0 0 0 0 0 0 0 0 0 0 0 0 0 0 0 0 0 0 0 0 0 0 0 0 52 51 49 47 47 41 41 39 36 36 34 33 34 36 34 38 36 38 36 36 36 37 36 36 35 37 35 36 35 35 34 33 34 33 31 32 34 33 32 34 38 38 32 37 34 35 34 35 33 33 32 34 32 31 29 29 26 27 27 26 22 20 15 12 11 9 0 9 0 0 0 10 10 10 13 13 13 13 14 12 11 11 11 0 0 0 0 0 0 0 9 0 9 10 10 9 9 11 12 13 15 21 23 26 27 30 29 30 31 35 35 39 41 42 43 47 48 48 45 48 48 46 51 51 51 50 53 55 55 56 -193 59 -193 61 62 63 62 63 65 -177 -177 66 70 71 70 71 74 77 75 83 88 90 94 94 99 95 93 93 98 97 96 96 96 94 101 -177 -177 -193 109 113 112 115 115 116 -193 118 118 118 -177 -177 733 736 739 -193 367 374 -177 -177 -177 -177 -193 126 131 129 123 124 125 122 124 126 124 -193 128 -209 -193 138 141 -177 -193 147 145 -193 -193 -193 -193 -193 170 168 170 168 169 167 168 170 170 172 173 174 174 174 174 175 173 179 -193 -209 -193 93 93 91 91 95 92 91 -193 -177 0 0 0 0 0
    0 0 0 0 0 0 0 0 0 0 0 0 0 0 0 0 0 0 0 0 0 0 0 0 0 0 0 0 0 0 0 0 0 0 0 0 0 0 0 0 0 0 0 0 0 0 0 0 0 0 0 0 0 0 0 0 0 0 0 0 0 0 0 0 0 0 0 0 0 52 51 49 47 47 41 41 40 36 35 34 32 34 36 33 37 36 37 35 36 36 37 36 35 36 38 36 37 37 36 35 34 34 33 31 33 37 35 36 38 40 40 34 37 35 35 34 35 33 33 32 34 32 32 30 30 26 26 26 25 21 18 14 11 0 9 0 9 0 0 9 12 12 11 12 12 11 12 13 12 10 11 11 0 0 9 9 0 0 0 0 0 0 9 10 9 9 11 12 12 15 20 23 26 27 30 29 30 32 35 35 39 41 42 43 47 48 48 45 48 48 46 51 52 51 51 53 55 56 56 60 59 62 61 62 63 62 63 65 -177 -177 66 71 71 71 71 73 75 74 81 86 88 93 93 98 94 93 93 97 96 96 95 96 94 101 -193 -177 -193 108 114 112 115 115 116 117 117 118 118 -177 -177 734 736 739 -193 366 373 -177 -177 -177 -193 123 126 130 129 122 124 125 122 124 127 125 -193 -209 -209 -209 -209 140 -177 -177 146 145 -193 -193 -209 -193 167 170 169 171 169 170 168 168 171 170 172 173 173 174 173 173 175 172 178 182 -193 -209 93 92 91 91 94 91 90 -193 -177 0 0 0 0 0
    0 0 0 0 0 0 0 0 0 0 0 0 0 0 0 0 0 0 0 0 0 0 0 0 0 0 0 0 0 0 0 0 0 0 0 0 0 0 0 0 0 0 0 0 0 0 0 0 0 0 0 0 0 0 0 0 0 0 0 0 0 0 0 0 0 0 0 0 0 52 51 49 47 48 41 41 40 36 35 34 33 34 35 33 36 36 36 34 35 36 37 36 36 36 39 38 38 38 36 36 36 36 34 32 35 40 39 41 41 41 41 36 37 36 35 35 35 33 33 32 35 33 32 31 30 24 24 25 24 20 16 13 11 0 0 0 0 0 0 0 0 0 0 9 9 0 11 13 11 10 11 10 0 0 9 0 0 0 0 0 0 0 9 10 10 10 12 13 13 15 21 22 26 27 30 29 30 32 35 35 39 40 42 42 47 48 47 45 47 47 45 49 51 49 51 54 55 56 56 60 60 62 61 62 63 63 62 65 -177 -177 66 70 70 70 71 72 74 74 78 82 86 90 91 95 93 92 92 95 95 95 95 96 93 101 102 -177 103 108 114 112 115 116 115 117 117 117 117 -177 -177 734 736 739 -193 -177 -177 -177 -177 -177 -193 123 126 129 129 122 125 126 123 125 -193 -193 -177 -193 -209 -209 -209 -193 269 273 -193 145 149 -209 -209 -193 166 169 169 171 170 170 169 168 171 170 172 173 173 174 173 173 175 172 176 181 -193 -209 92 -193 90 91 93 -193 -193 -193 212 0 0 0 0 0
    0 0 0 0 0 0 0 0 0 0 0 0 0 0 0 0 0 0 0 0 0 0 0 0 0 0 0 0 0 0 0 0 0 0 0 0 0 0 0 0 0 0 0 0 0 0 0 0 0 0 0 0 0 0 0 0 0 0 0 0 0 0 0 0 0 0 0 0 0 52 51 49 47 48 42 41 41 37 35 33 33 34 34 33 35 36 35 35 36 38 38 38 37 38 40 40 39 38 37 37 37 39 37 34 38 43 42 44 43 42 42 37 38 36 35 35 36 34 34 32 35 33 32 32 30 23 23 23 22 20 16 13 10 0 0 0 0 0 0 0 0 0 0 0 0 0 9 12 10 9 10 10 9 0 9 0 0 0 0 0 0 0 9 9 9 10 11 13 12 14 19 21 26 26 30 29 29 31 35 34 37 38 42 42 47 47 46 44 46 46 45 47 50 46 49 52 55 56 56 60 60 63 61 62 63 63 62 65 65 -177 65 70 70 70 70 72 73 73 76 79 85 88 89 93 92 92 92 94 95 94 94 95 93 100 102 -193 103 106 113 112 114 116 115 117 116 117 117 -177 -177 734 735 738 -193 -177 -177 -177 -177 -193 -193 123 126 130 131 124 131 129 126 -177 -193 -193 -193 -209 -209 -209 -209 -209 269 272 -193 145 149 -209 -209 -193 164 168 168 170 169 -193 169 168 171 170 172 173 173 174 174 173 175 172 175 180 177 -209 92 90 90 -193 92 -209 -193 -193 -177 0 0 0 0 0
    0 0 0 0 0 0 0 0 0 0 0 0 0 0 0 0 0 0 0 0 0 0 0 0 0 0 0 0 0 0 0 0 0 0 0 0 0 0 0 0 0 0 0 0 0 0 0 0 0 0 0 0 0 0 0 0 0 0 0 0 0 0 0 0 0 0 0 0 0 52 51 50 48 49 42 42 41 37 35 34 33 34 35 33 35 37 35 36 37 38 38 39 38 39 40 40 38 39 37 37 37 39 37 35 38 43 41 43 42 41 40 37 38 36 35 35 36 34 34 33 35 33 33 32 31 22 22 22 21 20 16 14 11 0 0 0 0 0 0 0 0 0 0 0 0 0 0 10 10 9 11 11 9 9 10 9 0 0 0 0 0 0 0 0 9 9 11 13 12 14 18 21 25 26 30 29 29 31 35 34 37 37 41 41 46 46 46 44 45 46 45 46 48 45 47 51 54 56 56 59 60 63 62 63 64 64 -177 -177 -177 -177 66 70 70 70 70 71 72 73 75 77 83 86 88 92 91 91 92 94 94 94 94 95 93 100 102 103 102 105 113 111 113 116 115 116 115 116 116 -177 732 734 735 737 -193 -193 -177 -177 -177 -193 -193 124 127 131 132 126 134 133 129 -177 -193 -193 -193 -209 -209 -209 -209 -209 269 272 -193 146 149 -193 -193 -193 162 167 167 170 -193 -193 169 168 171 170 171 174 173 174 174 173 175 173 175 179 175 -209 93 91 90 -193 93 -209 -193 -209 -177 0 0 0 0 0
    0 0 0 0 0 0 0 0 0 0 0 0 0 0 0 0 0 0 0 0 0 0 0 0 0 0 0 0 0 0 0 0 0 0 0 0 0 0 0 0 0 0 0 0 0 0 0 0 0 0 0 0 0 0 0 0 0 0 0 0 0 0 0 0 0 0 0 0 0 53 52 50 48 49 41 41 41 38 35 34 33 34 35 35 35 37 35 36 37 38 39 39 38 39 40 40 38 39 37 37 36 38 38 35 37 40 38 40 39 38 39 35 37 35 34 35 36 34 34 32 34 32 32 31 30 22 21 22 19 19 16 13 11 0 0 0 0 0 0 0 0 0 0 0 0 0 0 9 10 9 10 10 10 9 10 9 9 0 0 0 0 0 0 0 9 9 11 14 12 14 18 21 25 26 30 29 30 32 35 34 36 36 40 40 44 45 45 43 45 45 44 45 48 45 46 50 54 58 57 60 61 64 63 64 65 65 -177 -177 -177 -193 -177 70 69 69 69 70 71 72 74 76 -193 -193 88 91 91 91 92 93 94 94 94 95 93 100 101 103 103 105 113 111 113 116 114 115 114 115 115 -177 731 733 733 736 732 -193 -177 -177 -177 -177 -193 124 127 132 133 127 -193 135 -193 -193 -193 -209 -193 -209 -209 -209 -209 -209 269 272 -193 147 149 148 153 -209 -193 166 167 170 -209 -209 -209 167 171 170 171 174 173 174 174 173 175 173 174 178 173 -193 95 94 91 91 94 -193 90 -209 -177 0 0 0 0 0
    0 0 0 0 0 0 0 0 0 0 0 0 0 0 0 0 0 0 0 0 0 0 0 0 0 0 0 0 0 0 0 0 0 0 0 0 0 0 0 0 0 0 0 0 0 0 0 0 0 0 0 0 0 0 0 0 0 0 0 0 0 0 0 0 0 0 0 0 0 53 52 50 48 49 41 41 40 38 35 34 34 34 35 36 36 38 36 37 38 39 39 40 39 39 41 41 40 40 38 38 37 40 39 35 36 39 36 37 37 36 37 34 36 35 34 34 35 34 34 32 34 31 32 30 30 23 22 22 17 17 15 13 11 0 0 0 0 0 0 0 0 0 0 0 0 0 0 0 9 0 10 10 10 9 10 10 10 9 9 9 10 0 10 9 10 10 11 14 12 13 16 20 25 26 30 29 30 32 34 33 36 35 39 39 43 44 44 43 44 45 44 45 48 46 46 51 54 60 58 61 63 65 64 65 67 66 64 67 67 -177 -177 70 69 69 68 69 70 -193 -209 -209 -193 -193 88 91 91 91 91 92 94 93 94 95 93 100 102 103 103 104 113 111 112 115 113 114 113 114 114 -193 -193 -193 -193 735 731 -193 -177 -177 -177 -177 123 -193 128 132 133 -193 -193 137 -193 -193 -209 -209 -193 -209 -209 -209 -209 -193 270 272 273 146 147 142 -193 -209 -193 166 167 -209 -209 -209 -209 167 -193 170 171 173 173 174 174 173 175 173 174 -193 -193 -193 99 99 93 93 96 -193 91 -193 -177 0 0 0 0 0
    0 0 0 0 0 0 0 0 0 0 0 0 0 0 0 0 0 0 0 0 0 0 0 0 0 0 0 0 0 0 0 0 0 0 0 0 0 0 0 0 0 0 0 0 0 0 0 0 0 0 0 0 0 0 0 0 0 0 0 0 0 0 0 0 0 0 0 0 0 53 52 50 48 49 41 41 40 38 35 34 34 34 34 36 36 38 37 38 39 39 40 41 40 41 42 41 40 40 39 38 38 39 39 35 34 38 34 34 35 35 36 33 35 34 34 34 35 34 34 32 34 30 32 30 30 24 23 23 17 16 15 13 12 0 0 0 0 0 0 0 0 0 0 0 0 0 9 0 10 9 11 10 11 10 11 10 10 10 10 9 10 0 9 0 9 10 11 13 12 12 15 20 24 26 31 29 31 31 34 33 35 35 38 37 42 43 44 43 44 44 44 45 48 46 45 51 54 60 59 60 63 65 65 66 67 67 64 67 68 -177 -193 69 68 68 67 68 69 -193 -209 -177 -193 139 -209 -209 91 91 91 92 94 93 93 95 93 100 102 103 103 104 112 111 111 115 112 113 112 113 113 111 -193 -193 -193 734 731 -193 -177 -177 -177 -177 -193 -193 128 133 134 -193 138 138 138 -193 -209 -209 -193 -209 -209 -209 268 -193 270 273 274 145 146 139 -209 -193 -193 -193 -193 -209 -209 -209 -209 167 -193 -193 171 173 173 174 174 173 175 174 173 -193 -193 -193 102 102 96 95 99 97 93 93 -209 0 0 0 0 0
    0 0 0 0 0 0 0 0 0 0 0 0 0 0 0 0 0 0 0 0 0 0 0 0 0 0 0 0 0 0 0 0 0 0 0 0 0 0 0 0 0 0 0 0 0 0 0 0 0 0 0 0 0 0 0 0 0 0 0 0 0 0 0 0 0 0 0 0 0 53 52 50 49 49 41 41 40 38 35 34 34 34 33 36 35 37 36 37 38 38 39 40 40 40 41 40 39 39 39 38 38 38 39 35 34 37 33 33 33 34 35 32 34 33 32 34 34 34 33 31 33 30 31 30 29 24 22 22 18 16 14 13 12 0 0 0 0 0 0 0 0 0 0 0 0 0 10 9 10 9 10 10 11 10 10 10 10 10 11 10 11 0 0 0 0 9 11 13 12 12 14 19 24 26 30 29 31 31 33 32 34 34 37 36 41 42 43 43 43 44 44 45 47 47 45 50 54 60 58 60 64 65 66 66 68 67 65 68 -193 -177 -193 69 68 68 67 67 68 -193 -193 -177 -177 -193 -209 -209 90 91 91 91 94 93 93 95 93 99 101 103 103 -193 112 111 111 114 111 113 112 113 113 111 -193 -193 -193 734 730 -209 -177 -177 -177 -177 -193 -193 128 134 135 -193 139 139 138 -209 -209 -209 -209 -209 -209 -209 269 -193 270 273 -193 146 146 138 -209 -209 -193 -209 -209 -209 -209 -209 -209 166 -193 -193 170 -193 173 174 173 173 175 174 173 -193 108 107 105 104 99 98 100 100 96 95 -209 0 0 0 0 0
    0 0 0 0 0 0 0 0 0 0 0 0 0 0 0 0 0 0 0 0 0 0 0 0 0 0 0 0 0 0 0 0 0 0 0 0 0 0 0 0 0 0 0 0 0 0 0 0 0 0 0 0 0 0 0 0 0 0 0 0 0 0 0 0 0 0 0 0 0 54 53 50 49 50 41 41 40 39 35 33 34 34 32 35 34 37 35 35 36 37 37 39 39 39 39 38 37 38 37 37 37 37 37 34 34 37 33 32 32 32 33 31 34 32 31 33 32 32 32 31 31 29 30 28 27 23 22 21 18 15 14 14 13 0 0 0 0 0 0 0 0 0 0 0 9 9 11 9 9 0 9 9 10 9 9 9 9 9 10 10 10 9 9 0 10 11 13 14 13 12 14 19 24 26 31 30 32 32 33 33 34 34 38 37 40 43 43 43 44 44 44 45 47 47 44 50 54 60 58 59 64 65 66 67 68 68 65 68 -193 -193 -209 69 68 -193 67 67 68 -193 -193 -193 -177 -193 -209 -193 90 91 91 91 94 93 93 95 93 99 101 103 103 104 111 110 110 114 111 113 111 113 113 111 115 114 -193 733 729 -209 -177 -177 -177 -177 -193 -193 129 -193 136 -193 139 140 139 -209 135 -209 -209 -209 -209 -193 269 -193 -193 273 -193 146 145 138 -209 -209 -193 -193 -193 -209 -209 -193 -209 166 -193 -209 170 -193 173 173 173 173 175 174 173 -193 109 108 106 105 -193 101 101 101 99 97 -209 0 0 0 0 0
    0 0 0 0 0 0 0 0 0 0 0 0 0 0 0 0 0 0 0 0 0 0 0 0 0 0 0 0 0 0 0 0 0 0 0 0 0 0 0 0 0 0 0 0 0 0 0 0 0 0 0 0 0 0 0 0 0 0 0 0 0 0 0 0 0 0 0 0 0 55 53 51 50 51 41 41 40 38 35 33 34 33 32 35 33 36 35 35 36 36 36 39 38 39 38 36 35 35 35 36 35 35 36 32 33 37 32 31 31 31 31 29 32 30 30 31 31 31 31 30 30 28 29 28 26 24 22 21 19 16 15 15 14 0 0 0 0 0 0 0 0 0 9 9 10 10 11 9 9 0 9 9 9 9 9 9 9 9 11 10 10 10 10 9 10 11 13 15 14 13 13 20 26 27 31 31 32 32 33 33 34 34 37 37 40 42 43 43 44 44 43 45 47 48 44 50 54 60 59 59 64 65 67 67 68 68 65 68 -193 -177 -209 69 68 -177 67 67 67 -193 -193 -193 -177 -193 -209 -193 -193 91 91 91 93 93 93 95 92 99 101 103 103 103 110 110 110 114 111 112 111 113 113 111 -193 -193 -209 731 727 -209 -177 -177 -177 -177 -193 -177 -193 -209 136 -193 140 140 139 -209 135 -209 -209 -209 -209 -193 269 -193 -193 273 -193 146 145 137 -209 -209 -193 -193 -193 -209 -193 -193 -193 165 168 -209 -193 -193 172 173 173 172 174 174 172 109 109 110 107 107 -193 104 103 -193 -193 -193 -209 0 0 0 0 0
    0 0 0 0 0 0 0 0 0 0 0 0 0 0 0 0 0 0 0 0 0 0 0 0 0 0 0 0 0 0 0 0 0 0 0 0 0 0 0 0 0 0 0 0 0 0 0 0 0 0 0 0 0 0 0 0 0 0 0 0 0 0 0 0 0 0 0 0 0 55 53 51 51 51 41 40 39 38 34 33 34 33 31 34 32 36 35 35 35 34 35 38 38 38 37 34 32 33 33 33 31 32 34 30 30 34 30 29 29 30 29 28 30 29 29 31 30 31 30 30 30 28 29 28 27 25 22 22 20 16 15 15 15 9 0 0 0 0 0 0 0 0 9 9 10 10 10 9 9 9 9 9 9 0 9 9 9 9 10 10 11 11 11 10 10 11 13 14 14 13 14 21 28 27 33 32 33 33 33 33 34 34 37 36 39 42 43 44 44 45 44 46 49 49 44 50 54 61 59 59 65 64 67 67 68 68 65 68 -193 -177 -177 -193 68 -177 67 66 67 69 -193 -193 -177 -209 -193 -177 -193 91 91 90 93 93 93 95 92 98 101 103 102 103 110 109 109 113 110 112 111 -193 -193 111 -193 -193 -209 -193 726 -209 -177 -177 -177 -177 -193 -177 -177 -209 137 -193 140 140 140 -193 135 -209 -209 -209 -193 -193 269 -193 -193 272 -193 147 145 137 -193 -209 -193 -193 -193 -193 -193 165 168 165 168 -209 -193 -193 172 172 172 172 174 174 172 109 110 111 109 108 106 -193 104 -209 -209 -209 -209 0 0 0 0 0
    0 0 0 0 0 0 0 0 0 0 0 0 0 0 0 0 0 0 0 0 0 0 0 0 0 0 0 0 0 0 0 0 0 0 0 0 0 0 0 0 0 0 0 0 0 0 0 0 0 0 0 0 0 0 0 0 0 0 0 0 0 0 0 0 0 0 0 0 0 55 54 51 51 51 42 40 39 38 34 33 34 33 31 32 30 35 34 33 34 33 34 37 36 36 36 32 31 31 31 31 29 30 31 29 28 31 28 28 28 28 28 28 28 29 29 30 30 31 30 30 29 28 29 27 26 26 23 23 21 18 17 16 17 12 9 9 9 0 0 0 0 0 9 9 10 10 11 9 10 9 9 9 9 0 9 9 9 9 10 10 11 11 11 11 11 11 13 13 14 13 15 21 30 28 33 33 34 34 33 33 34 34 36 35 38 42 43 44 45 45 44 48 50 51 44 51 54 61 59 60 65 64 67 67 68 67 -193 -193 -177 -177 -177 -177 -209 -177 -193 66 67 68 -193 -209 -177 -209 -209 -177 -193 91 91 90 93 93 92 94 92 98 102 103 102 102 109 109 -193 -193 110 112 111 -193 -193 -193 725 -193 -209 729 726 -193 -177 367 368 -193 -177 -177 -177 -193 138 -193 140 141 140 -193 -193 -209 -209 -209 -193 -209 -209 -193 269 272 -193 147 145 137 -193 -209 -193 -193 169 166 166 164 167 165 168 -209 -193 -193 172 172 172 172 173 174 172 -193 111 113 110 109 108 -193 -209 667 -177 -193 -209 0 0 0 0 0
    0 0 0 0 0 0 0 0 0 0 0 0 0 0 0 0 0 0 0 0 0 0 0 0 0 0 0 0 0 0 0 0 0 0 0 0 0 0 0 0 0 0 0 0 0 0 0 0 0 0 0 0 0 0 0 0 0 0 0 0 0 0 0 0 0 0 0 0 0 56 54 52 51 50 43 40 39 38 34 33 34 33 31 31 28 35 34 33 33 32 33 37 36 36 35 32 30 30 31 30 29 29 30 28 26 28 27 27 27 28 28 27 28 29 29 30 30 31 30 30 29 29 29 27 26 26 23 23 21 17 16 15 16 13 9 10 10 0 9 0 0 0 9 10 11 10 11 9 10 9 9 9 9 0 9 9 9 9 10 10 11 11 11 11 11 11 12 12 13 12 13 20 31 27 33 33 34 34 33 33 34 34 36 35 38 42 42 -177 45 45 44 49 51 51 44 52 55 61 59 59 64 63 67 66 67 67 64 67 -177 -177 -177 -177 -193 -177 -193 67 67 69 -177 -193 -177 -209 -193 -193 -193 91 91 90 92 92 92 94 92 97 102 102 102 102 108 109 895 897 110 112 111 113 -193 113 725 -193 -209 -193 726 -193 -177 367 368 -193 -177 -177 -177 -193 139 -193 141 141 139 -193 -193 121 -193 -193 369 -209 -209 -209 -193 272 -193 -177 145 136 134 -209 -193 -193 171 166 167 165 167 165 167 -209 -193 -193 172 172 172 172 173 174 172 -193 112 114 112 109 109 -193 -193 668 669 -193 -209 0 0 0 0 0
    0 0 0 0 0 0 0 0 0 0 0 0 0 0 0 0 0 0 0 0 0 0 0 0 0 0 0 0 0 0 0 0 0 0 0 0 0 0 0 0 0 0 0 0 0 0 0 0 0 0 0 0 0 0 0 0 0 0 0 0 0 0 0 0 0 0 0 0 0 56 54 52 52 50 44 40 39 38 35 33 34 33 31 31 27 35 34 33 34 32 34 36 36 36 35 32 30 30 31 30 29 29 29 27 25 26 26 25 26 27 27 27 27 28 28 29 29 29 29 29 29 28 28 27 25 24 23 22 20 17 16 15 15 14 10 11 10 9 10 0 9 0 10 11 10 10 11 9 10 9 9 9 9 9 9 9 9 10 10 10 11 10 11 11 11 11 12 11 12 11 12 21 34 28 33 32 33 34 33 33 34 34 36 35 38 42 42 -177 45 46 44 49 51 51 44 52 55 61 58 59 63 63 66 65 66 66 -193 66 -193 -177 -193 -177 -177 -193 -193 67 68 -193 -177 -193 -193 -193 212 -193 211 -193 90 89 91 91 91 93 91 96 101 102 101 102 108 108 895 897 110 112 112 114 115 114 -193 -193 -209 -193 727 -177 -193 -193 -193 -177 -177 -177 -177 -193 139 -193 141 141 139 -193 -193 123 -193 -193 369 -193 -193 -209 -193 272 -193 -177 144 137 134 -209 16 -209 174 -193 168 166 167 166 167 -193 -193 -193 172 171 172 172 173 174 172 175 112 115 113 110 110 -193 668 669 671 -177 667 0 0 0 0 0
    0 0 0 0 0 0 0 0 0 0 0 0 0 0 0 0 0 0 0 0 0 0 0 0 0 0 0 0 0 0 0 0 0 0 0 0 0 0 0 0 0 0 0 0 0 0 0 0 0 0 0 0 0 0 0 0 0 0 0 0 0 0 0 0 0 0 0 0 0 56 54 53 52 50 45 40 39 38 34 33 33 32 31 30 27 35 34 33 34 32 34 36 35 35 34 31 30 30 31 30 29 29 28 27 25 25 25 24 25 25 25 24 24 26 25 26 27 27 27 27 28 27 27 25 23 22 20 19 19 16 15 14 14 14 10 11 11 9 10 9 9 9 10 11 10 10 11 9 10 9 9 9 9 9 9 9 9 9 10 10 10 9 10 10 9 10 11 11 12 11 12 21 31 27 30 31 31 34 32 32 33 34 35 35 38 42 42 -177 45 46 44 49 51 51 44 52 54 60 57 58 62 61 65 64 65 65 -193 65 66 -193 -193 -177 -177 -193 -193 69 69 -193 -177 -193 -209 214 213 -193 212 -193 89 88 90 91 90 92 91 95 101 102 101 101 107 108 895 898 110 112 113 115 116 115 -193 -193 -209 -193 -209 -177 -193 -193 -193 -177 -177 -177 -177 -177 140 -193 141 142 139 -193 -193 125 -209 -209 369 -193 373 -209 -193 272 -193 -177 145 137 135 -209 -193 -209 176 171 170 167 168 166 167 -193 -193 171 172 172 172 172 173 174 172 176 -193 114 113 110 111 -193 668 669 672 674 669 0 0 0 0 0
    0 0 0 0 0 0 0 0 0 0 0 0 0 0 0 0 0 0 0 0 0 0 0 0 0 0 0 0 0 0 0 0 0 0 0 0 0 0 0 0 0 0 0 0 0 0 0 0 0 0 0 0 0 0 0 0 0 0 0 0 0 0 0 0 0 0 0 0 0 55 53 53 51 50 46 41 39 38 35 34 34 33 31 31 27 35 34 33 33 32 34 36 34 35 33 31 29 30 30 30 29 29 28 27 25 25 24 23 24 23 23 22 21 23 22 -193 -193 25 26 26 27 25 24 23 18 16 13 13 15 14 14 14 14 14 10 12 11 10 11 10 10 10 11 12 11 11 10 10 9 9 9 9 9 9 9 9 9 10 10 9 10 9 10 10 9 10 11 12 13 12 14 20 29 25 28 29 29 33 31 31 32 33 35 35 37 42 41 -177 45 46 44 49 51 52 44 52 54 59 56 -193 61 -193 -193 63 63 63 -193 64 65 -177 134 -177 -177 -209 -209 70 71 -177 -193 -193 218 215 214 -193 -193 -209 89 88 90 90 90 91 91 95 101 101 101 101 -193 108 895 898 110 113 114 115 116 -193 -209 -193 -193 -193 -209 -177 -193 -177 -193 522 -177 -177 -177 -177 140 -193 141 142 139 137 -193 126 -209 -209 369 -193 -193 -209 -193 272 -193 -193 145 138 135 -209 -193 -209 177 173 171 -193 168 167 167 169 169 171 172 172 172 172 173 175 173 177 -193 114 113 110 112 -193 669 670 673 675 671 0 0 0 0 0
    0 0 0 0 0 0 0 0 0 0 0 0 0 0 0 0 0 0 0 0 0 0 0 0 0 0 0 0 0 0 0 0 0 0 0 0 0 0 0 0 0 0 0 0 0 0 0 0 0 0 0 0 0 0 0 0 0 0 0 0 0 0 0 0 0 0 0 0 0 55 53 53 51 50 46 41 39 38 35 34 34 33 32 31 27 35 34 33 33 32 34 36 34 35 33 30 29 30 30 29 30 29 28 27 25 25 24 24 24 23 23 22 21 23 21 -193 23 -193 24 22 -193 15 17 17 12 11 11 11 13 13 13 12 13 13 10 12 12 11 11 10 10 10 10 12 10 10 10 10 9 9 10 9 10 9 9 9 9 10 10 9 10 9 10 10 10 10 11 11 13 12 14 20 27 24 27 29 29 33 31 31 32 33 34 34 37 41 40 -177 44 45 44 49 51 51 44 52 54 59 -193 -193 -193 -193 -193 62 62 63 -193 63 65 -177 134 -177 -177 -209 -209 71 -193 -177 -193 -193 218 216 215 215 -193 -209 88 88 89 90 90 91 91 94 101 101 101 101 107 108 895 898 111 114 115 117 118 -193 -193 -193 -177 -193 -193 -193 -193 -177 -193 522 -177 -177 -177 -177 140 -193 141 142 139 137 -193 127 -209 -209 369 -193 373 -209 -193 272 -193 -193 146 138 135 -209 19 -209 176 174 173 169 -209 168 168 -177 170 171 172 172 172 173 173 175 173 177 181 -193 -193 109 111 -193 669 671 674 675 -177 0 0 0 0 0
    0 0 0 0 0 0 0 0 0 0 0 0 0 0 0 0 0 0 0 0 0 0 0 0 0 0 0 0 0 0 0 0 0 0 0 0 0 0 0 0 0 0 0 0 0 0 0 0 0 0 0 0 0 0 0 0 0 0 0 0 0 0 0 0 0 0 0 0 0 55 53 53 51 49 46 41 39 38 35 34 34 33 32 31 28 35 35 33 34 33 34 36 35 34 33 30 30 31 30 29 30 29 28 28 26 25 24 24 25 23 23 22 19 21 19 19 20 -193 19 13 9 10 12 12 10 9 10 10 12 12 12 12 13 14 11 13 12 11 11 10 10 10 10 11 9 10 9 10 10 10 10 9 10 9 10 10 9 10 10 9 10 9 10 10 9 10 11 11 12 11 13 18 24 22 25 27 27 32 29 29 31 32 33 33 36 40 39 -177 43 44 43 47 50 50 43 50 54 58 55 -193 -193 -193 -193 61 62 62 -193 63 65 -193 134 -177 -177 -177 -193 72 -193 -177 220 219 219 217 216 216 -209 -209 88 88 89 90 90 91 91 94 101 101 101 101 107 108 895 899 -193 115 -193 117 118 -193 121 -209 -177 -193 -193 -193 -209 -177 -193 522 -177 -177 -177 -177 140 -193 140 141 139 138 -193 127 -193 -209 369 -193 373 -209 -193 272 275 -193 147 140 137 -209 20 -193 173 172 173 170 -193 170 168 171 170 171 173 172 173 173 173 176 174 177 182 -193 -209 -193 110 -193 669 672 676 676 -177 0 0 0 0 0
    0 0 0 0 0 0 0 0 0 0 0 0 0 0 0 0 0 0 0 0 0 0 0 0 0 0 0 0 0 0 0 0 0 0 0 0 0 0 0 0 0 0 0 0 0 0 0 0 0 0 0 0 0 0 0 0 0 0 0 0 0 0 0 0 0 0 0 0 0 55 53 53 51 49 46 41 40 38 35 34 34 33 32 31 28 35 35 32 34 33 34 36 35 34 33 30 30 31 30 29 30 29 28 28 26 25 24 24 25 23 22 21 17 18 15 12 14 9 11 0 0 0 9 9 0 0 9 9 10 11 11 11 11 13 11 12 12 11 11 11 11 10 10 11 9 9 9 10 10 10 10 9 10 10 10 10 9 10 10 9 10 9 10 10 9 10 11 11 11 11 12 15 22 21 24 26 26 31 29 29 30 31 32 32 35 39 37 -177 41 42 41 46 49 49 42 49 54 57 55 -193 60 -193 -193 61 62 63 62 63 65 -193 -177 -177 -177 -193 -193 73 -193 -177 220 219 220 217 217 217 -209 -209 88 88 89 90 90 91 91 93 100 101 101 101 106 108 896 900 -193 115 -193 117 118 -193 -193 -177 -193 -193 -193 113 -193 -177 -193 522 -177 -177 -177 -193 139 -193 -193 141 139 138 -193 -177 -193 -209 -193 -193 373 -209 -193 272 276 -193 148 145 141 -193 21 -193 170 170 172 171 170 171 168 172 171 172 173 172 173 173 173 176 175 178 183 183 184 -209 -193 -193 -209 -193 -209 -209 -209 0 0 0 0 0
    0 0 0 0 0 0 0 0 0 0 0 0 0 0 0 0 0 0 0 0 0 0 0 0 0 0 0 0 0 0 0 0 0 0 0 0 0 0 0 0 0 0 0 0 0 0 0 0 0 0 0 0 0 0 0 0 0 0 0 0 0 0 0 0 0 0 0 0 0 55 53 53 51 49 46 41 40 38 35 34 33 33 32 31 28 34 35 32 34 33 34 35 35 34 33 29 30 32 30 29 31 29 28 28 26 25 24 24 25 22 22 20 14 13 11 9 9 0 0 0 0 0 0 0 0 0 9 0 9 9 9 10 9 11 10 12 11 11 11 11 11 11 10 11 9 10 10 10 10 10 10 9 11 10 10 10 10 10 10 10 11 9 10 10 9 9 10 11 11 11 11 13 20 20 23 26 26 30 29 29 30 31 31 32 34 38 36 40 40 41 40 45 47 47 41 48 54 56 55 -193 -193 -193 435 61 62 63 63 63 65 65 -193 -177 -177 -209 -193 74 74 -177 -177 220 220 218 217 217 -209 -209 88 88 89 -193 -193 90 91 93 99 101 101 101 106 109 -193 -193 -193 115 -177 117 118 -193 588 -177 -177 -193 -193 112 117 -177 -193 522 -177 -177 -177 -193 139 -193 -193 141 139 138 -193 -177 -193 -209 -193 -193 -193 -209 -193 272 276 -193 149 -193 146 -193 21 -209 168 169 172 171 170 173 169 173 172 172 173 173 173 174 173 177 176 179 183 184 184 -209 -209 -193 -193 -193 -209 -209 -209 0 0 0 0 0
    0 0 0 0 0 0 0 0 0 0 0 0 0 0 0 0 0 0 0 0 0 0 0 0 0 0 0 0 0 0 0 0 0 0 0 0 0 0 0 0 0 0 0 0 0 0 0 0 0 0 0 0 0 0 0 0 0 0 0 0 0 0 0 0 0 0 0 0 0 54 53 53 50 49 46 41 40 38 35 34 33 33 32 31 29 34 36 32 33 34 34 35 35 34 33 29 30 32 30 29 31 29 28 28 27 26 24 24 25 23 22 21 16 13 11 9 0 0 0 0 0 0 0 0 0 0 0 0 0 0 0 9 0 9 9 11 11 11 11 11 11 11 10 11 9 10 10 10 10 9 11 10 11 10 10 11 10 11 11 10 11 9 10 10 0 9 10 10 10 10 11 13 20 20 23 -193 -177 30 29 29 30 31 31 32 33 38 35 39 39 40 39 44 46 45 41 47 54 56 55 -193 -193 429 434 -193 -193 -193 63 63 66 66 -193 -177 -193 -193 -209 74 74 -177 -177 220 221 218 217 217 -209 -209 87 87 -193 -193 -193 90 90 93 99 101 102 102 106 110 110 113 -193 115 -193 116 118 -193 588 -177 735 736 -193 111 117 -177 -177 522 -177 -177 -177 -209 138 -193 -193 140 139 139 -193 -193 -209 -193 -209 0 -209 -209 -193 -193 276 -209 150 -193 -193 -193 22 -193 166 168 171 171 171 174 170 174 172 172 174 173 174 174 174 178 178 180 185 185 185 188 -209 -209 -193 -193 -209 -209 -209 0 0 0 0 0
    0 0 0 0 0 0 0 0 0 0 0 0 0 0 0 0 0 0 0 0 0 0 0 0 0 0 0 0 0 0 0 0 0 0 0 0 0 0 0 0 0 0 0 0 0 0 0 0 0 0 0 0 0 0 0 0 0 0 0 0 0 0 0 0 0 0 0 0 0 54 53 52 50 50 46 42 41 38 36 35 34 32 32 32 29 33 36 32 33 34 34 35 35 34 34 29 30 32 30 29 31 29 28 28 27 26 25 25 25 23 22 21 17 13 12 9 9 0 9 0 0 0 0 0 0 0 0 0 0 0 0 9 0 9 9 11 10 11 11 10 10 10 10 11 9 10 10 10 10 10 11 10 12 11 10 10 10 10 10 10 10 0 9 10 0 0 10 10 10 10 11 12 19 20 22 -193 -177 -177 29 29 30 32 31 33 32 37 34 38 39 39 39 44 45 45 42 46 54 55 56 -193 -193 429 433 431 -193 -193 64 64 66 66 -193 -177 -193 -177 -209 74 74 -177 -177 220 221 218 217 217 -209 -209 87 87 -193 -193 -193 90 90 93 99 101 102 102 106 110 110 113 -193 115 117 116 117 -193 588 -177 -177 736 -193 110 117 -193 -177 -193 -177 -177 -177 -193 137 -193 -193 140 139 139 -193 -209 -209 -177 -193 -177 -193 -209 -193 -193 -209 -209 152 -193 -193 156 -193 -193 165 167 171 171 171 175 172 174 173 173 174 173 174 174 174 178 179 182 186 185 186 187 199 -209 -209 -209 -209 -209 -209 0 0 0 0 0
    0 0 0 0 0 0 0 0 0 0 0 0 0 0 0 0 0 0 0 0 0 0 0 0 0 0 0 0 0 0 0 0 0 0 0 0 0 0 0 0 0 0 0 0 0 0 0 0 0 0 0 0 0 0 0 0 0 0 0 0 0 0 0 0 0 0 0 0 0 54 53 52 50 50 46 41 40 38 36 35 34 33 31 31 30 33 37 32 33 34 35 35 35 34 34 29 30 32 30 29 31 29 28 28 28 26 25 25 25 23 22 21 18 16 14 11 11 9 10 9 9 0 9 0 9 0 9 0 0 0 0 0 0 0 9 10 10 10 10 10 9 9 10 10 9 10 10 10 10 10 11 10 11 10 10 10 10 10 10 9 10 0 9 10 0 0 10 10 10 10 10 11 18 19 22 -193 -177 -177 29 29 30 32 31 33 32 37 34 38 38 39 39 43 45 45 43 45 53 55 57 -193 -193 429 433 431 -193 -193 65 -177 -177 -177 -193 -177 -193 -177 -193 75 74 -177 222 220 221 218 218 217 -209 -193 87 87 -193 -193 90 90 91 92 98 101 102 102 105 110 110 112 -193 114 117 115 117 117 -193 734 736 -193 -193 110 117 -209 -177 367 -177 -177 -177 131 136 -193 -193 140 139 139 -193 -209 -193 -177 -193 -193 -193 -209 -193 -193 -209 -193 -193 -193 -193 157 -193 163 163 165 170 170 171 175 173 175 174 173 174 173 174 174 174 179 180 182 186 185 186 186 197 -209 -209 -193 188 -209 -209 0 0 0 0 0
    0 0 0 0 0 0 0 0 0 0 0 0 0 0 0 0 0 0 0 0 0 0 0 0 0 0 0 0 0 0 0 0 0 0 0 0 0 0 0 0 0 0 0 0 0 0 0 0 0 0 0 0 0 0 0 0 0 0 0 0 0 0 0 0 0 0 0 0 0 54 53 52 50 51 46 42 41 38 36 35 35 34 32 32 31 34 37 33 33 34 35 35 35 34 34 29 31 32 30 29 31 29 28 28 28 27 25 25 26 24 23 22 20 18 16 13 13 11 11 10 10 9 10 9 10 9 10 9 9 9 9 9 9 9 9 9 9 10 10 9 9 9 9 10 9 10 10 10 11 11 11 11 12 11 10 10 10 10 10 9 10 9 9 10 0 0 9 10 10 10 10 10 18 20 22 -193 -177 -177 -177 30 31 33 31 33 31 37 34 38 38 39 39 43 45 45 44 45 53 55 59 -193 -193 429 434 432 432 433 65 65 -177 -193 -193 -193 -193 -193 -193 75 74 -177 222 220 221 218 218 218 -209 -193 88 87 -193 -193 90 90 90 92 98 100 102 102 105 111 110 112 -193 114 116 114 116 116 115 733 736 116 114 109 117 -193 -177 366 -177 -177 -177 130 135 -193 -193 140 140 140 -193 -193 138 -193 -193 -209 -193 -193 141 148 -209 -193 154 155 -193 158 162 163 163 164 168 169 170 173 173 175 174 174 174 173 175 175 174 179 181 183 187 186 186 185 191 187 -209 184 185 -193 187 0 0 0 0 0
    0 0 0 0 0 0 0 0 0 0 0 0 0 0 0 0 0 0 0 0 0 0 0 0 0 0 0 0 0 0 0 0 0 0 0 0 0 0 0 0 0 0 0 0 0 0 0 0 0 0 0 0 0 0 0 0 0 0 0 0 0 0 0 0 0 0 0 0 0 54 53 53 50 51 45 42 42 39 37 36 35 34 32 32 32 34 37 33 34 34 35 35 35 34 33 29 32 33 31 29 31 29 29 28 28 27 25 26 26 25 24 23 22 20 18 14 14 12 12 11 12 11 12 11 12 11 11 11 11 10 11 10 10 10 9 9 9 10 10 9 9 9 9 9 9 10 10 10 11 11 11 11 11 11 10 10 10 10 9 9 10 9 9 9 0 0 9 10 9 9 10 10 17 21 23 28 -177 -177 31 31 31 34 31 33 31 36 34 38 38 39 39 43 44 44 45 44 53 55 61 -193 62 431 435 434 -193 -193 66 65 -177 -177 -177 -193 -193 -193 -193 75 74 220 222 220 221 218 218 218 -209 -209 88 87 -193 -193 90 90 90 92 97 100 102 102 105 111 110 112 115 113 115 113 115 115 113 117 115 114 114 109 117 -177 -177 -177 -193 -193 -177 129 134 136 -193 140 140 140 138 -193 138 -193 -209 -193 138 140 141 148 -209 -193 154 155 -193 158 162 163 162 163 -193 168 -193 173 173 175 174 174 174 173 175 176 175 180 183 185 188 187 187 187 190 189 188 183 184 184 186 0 0 0 0 0
    0 0 0 0 0 0 0 0 0 0 0 0 0 0 0 0 0 0 0 0 0 0 0 0 0 0 0 0 0 0 0 0 0 0 0 0 0 0 0 0 0 0 0 0 0 0 0 0 0 0 0 0 0 0 0 0 0 0 0 0 0 0 0 0 0 0 0 0 0 54 53 52 50 50 44 41 40 38 37 36 35 34 32 32 32 35 38 33 34 35 35 34 35 34 33 30 32 33 31 30 31 30 29 29 29 27 26 26 26 26 24 24 22 20 19 15 14 13 12 12 13 12 13 12 13 13 13 13 12 11 12 11 11 11 9 10 9 10 10 9 9 9 9 9 9 10 10 10 11 10 11 11 11 11 10 10 10 10 9 9 9 0 9 9 0 0 0 10 9 9 10 10 18 23 24 29 28 33 -177 32 32 34 31 33 31 36 35 39 39 39 40 43 45 46 47 44 53 55 63 -193 63 -193 436 436 -193 -193 67 66 -177 -177 -177 -177 -193 -209 -177 75 74 220 221 -193 221 218 218 -193 -209 -209 87 87 -193 -193 -193 90 90 92 96 100 102 102 105 111 110 111 115 112 114 111 113 113 112 115 113 113 113 109 117 -177 -177 -177 -177 -193 -177 129 133 135 -209 140 140 140 139 139 139 138 -209 -193 139 140 142 148 -209 -193 154 155 -193 157 161 162 161 162 167 168 168 172 172 174 174 173 174 173 175 176 175 180 -193 185 188 188 187 188 190 191 190 184 185 185 186 0 0 0 0 0
    0 0 0 0 0 0 0 0 0 0 0 0 0 0 0 0 0 0 0 0 0 0 0 0 0 0 0 0 0 0 0 0 0 0 0 0 0 0 0 0 0 0 0 0 0 0 0 0 0 0 0 0 0 0 0 0 0 0 0 0 0 0 0 0 0 0 0 0 0 54 52 51 49 48 42 40 39 38 37 36 35 35 33 33 33 35 38 33 33 34 35 34 34 34 33 30 32 34 31 30 31 30 30 30 29 28 27 27 26 26 25 24 23 21 19 16 14 13 12 12 13 12 13 13 14 14 13 13 12 11 12 11 10 10 9 9 9 9 10 9 9 9 9 9 9 10 10 10 11 10 11 11 11 10 9 9 9 9 9 9 9 0 9 9 0 0 0 10 10 10 10 11 19 25 25 31 29 34 33 33 33 35 32 34 31 37 36 40 40 40 41 44 47 48 49 44 53 55 63 -193 -193 62 -177 -177 66 68 67 66 -177 -177 -177 -193 -177 -209 -177 -193 74 220 221 -193 221 218 -193 -209 -193 -209 86 86 -193 -193 -193 -193 89 92 96 100 103 102 105 111 110 111 114 111 114 111 113 113 111 114 113 112 113 109 117 -177 -177 -177 -177 -193 -193 -193 -193 136 -209 140 140 140 139 139 139 139 -193 142 140 141 143 148 -209 -193 154 154 154 157 160 162 160 161 166 167 167 171 172 174 173 173 174 172 175 176 175 179 -193 -209 187 188 187 188 190 191 191 185 185 186 186 0 0 0 0 0
    0 0 0 0 0 0 0 0 0 0 0 0 0 0 0 0 0 0 0 0 0 0 0 0 0 0 0 0 0 0 0 0 0 0 0 0 0 0 0 0 0 0 0 0 0 0 0 0 0 0 0 0 0 0 0 0 0 0 0 0 0 0 0 0 0 0 0 0 0 53 51 50 47 45 41 39 38 38 37 37 36 36 33 34 34 35 38 33 33 34 35 34 34 34 33 31 32 34 31 30 31 31 30 30 29 29 27 27 26 26 25 24 24 22 20 17 15 14 13 13 14 13 14 13 14 14 14 14 13 12 12 11 11 10 9 9 9 9 10 10 9 9 10 10 10 11 11 11 11 11 11 11 11 10 9 9 9 9 9 9 0 0 0 0 0 0 9 11 11 11 11 12 21 29 27 33 30 34 33 33 33 35 32 35 32 38 39 41 41 41 42 45 48 50 51 44 52 55 -193 -193 -193 62 -193 -193 66 68 67 66 -193 -177 -177 -193 -177 -209 -177 -193 73 -193 220 -193 221 218 -193 -209 -193 -193 -193 85 86 -193 -193 -193 89 91 97 100 103 103 105 111 110 111 114 111 114 111 113 113 111 115 113 112 114 109 117 -177 -177 -177 -177 -209 -193 -193 -193 -193 -209 140 140 140 139 -193 140 139 138 142 140 141 143 147 -209 -193 153 153 154 156 160 161 160 160 -193 166 -193 -209 172 173 173 173 174 172 175 176 175 178 -193 -209 186 187 187 188 189 191 190 185 184 185 186 0 0 0 0 0
    0 0 0 0 0 0 0 0 0 0 0 0 0 0 0 0 0 0 0 0 0 0 0 0 0 0 0 0 0 0 0 0 0 0 0 0 0 0 0 0 0 0 0 0 0 0 0 0 0 0 0 0 0 0 0 0 0 0 0 0 0 0 0 0 0 0 0 0 0 52 50 49 46 44 39 38 37 38 38 37 37 37 33 34 34 36 38 33 33 34 36 34 34 34 33 32 33 34 32 31 31 31 31 30 29 29 27 28 26 26 25 25 24 23 21 17 16 15 13 13 14 13 14 14 14 15 14 14 13 12 13 11 12 10 9 9 9 9 10 10 10 9 10 10 11 11 11 11 11 11 11 11 11 10 10 9 9 9 0 0 0 0 0 0 9 0 9 11 11 11 11 12 21 30 -177 -177 30 34 34 34 34 35 33 36 33 38 41 42 43 43 44 45 50 51 52 44 52 55 -193 433 437 62 -193 -193 65 68 67 65 -193 -177 -177 -177 -177 -193 -193 -193 73 -193 -193 -193 221 218 -193 -209 -177 -177 -193 85 85 -193 -193 -177 88 91 96 100 103 103 105 111 110 111 114 112 114 111 113 113 112 116 114 112 115 110 117 -177 -177 -177 -177 -209 -177 -193 -193 135 -209 140 140 140 139 -193 140 139 139 142 140 142 143 147 -193 -193 -193 153 153 156 160 162 160 160 -193 -193 -193 -209 172 173 173 172 174 172 175 176 174 177 -193 -209 185 185 186 187 188 191 -193 -193 184 185 185 0 0 0 0 0
    0 0 0 0 0 0 0 0 0 0 0 0 0 0 0 0 0 0 0 0 0 0 0 0 0 0 0 0 0 0 0 0 0 0 0 0 0 0 0 0 0 0 0 0 0 0 0 0 0 0 0 0 0 0 0 0 0 0 0 0 0 0 0 0 0 0 0 0 0 52 49 48 45 42 38 38 37 37 37 37 37 37 34 34 34 37 38 33 33 34 36 34 34 34 33 32 33 35 32 31 32 31 31 31 30 29 27 28 26 26 26 25 25 23 21 18 16 15 14 14 14 13 15 14 15 15 14 14 14 13 13 11 12 11 10 10 10 10 10 11 10 10 10 10 10 11 11 11 10 11 12 12 11 11 10 9 9 9 0 0 0 0 0 0 9 9 9 11 11 12 12 12 22 31 28 33 30 34 34 34 34 35 33 36 34 39 42 42 44 44 45 46 50 51 52 45 52 55 -177 433 437 62 63 -193 65 67 67 -193 -193 -177 -177 -177 -177 -193 -193 -193 74 74 76 -193 221 219 -193 -209 -177 -177 -177 -193 -193 -193 -177 -177 87 91 95 100 103 102 104 110 109 111 114 111 114 112 114 114 113 117 115 113 -193 -193 117 -177 -177 -177 -177 -209 -193 -193 -193 135 -209 139 140 140 138 139 140 139 139 143 140 142 143 147 -193 -193 152 152 -193 156 160 162 160 159 -193 -193 -193 -209 -193 172 173 172 174 172 174 175 174 175 178 178 182 182 183 184 186 189 -193 -193 -193 -193 -193 0 0 0 0 0
    0 0 0 0 0 0 0 0 0 0 0 0 0 0 0 0 0 0 0 0 0 0 0 0 0 0 0 0 0 0 0 0 0 0 0 0 0 0 0 0 0 0 0 0 0 0 0 0 0 0 0 0 0 0 0 0 0 0 0 0 0 0 0 0 0 0 0 0 0 52 48 46 43 41 38 38 36 37 37 37 37 37 34 34 34 37 38 32 33 34 36 34 34 34 33 33 33 35 32 31 32 32 31 31 30 30 28 29 26 26 26 25 25 24 21 19 17 17 15 14 14 14 15 14 15 15 15 14 13 12 13 11 11 10 9 9 9 10 11 11 10 10 11 10 11 12 12 11 11 12 12 12 11 11 10 10 10 10 9 9 0 9 9 9 9 9 10 12 12 13 13 13 22 30 28 33 31 33 34 34 34 35 34 37 35 39 43 43 44 45 46 46 50 51 53 45 52 54 -193 -177 -177 62 62 -193 65 67 66 -193 -193 -177 -177 -177 -177 -193 -193 -193 74 75 77 -193 -177 220 -193 -209 -177 -177 -177 -193 -193 -177 -177 -177 87 90 95 100 103 102 104 109 109 110 114 111 114 112 114 114 114 -193 -193 -193 736 738 117 -177 -177 -177 -177 -193 -193 -193 -193 135 -193 139 139 139 138 138 139 139 139 143 141 142 143 146 148 150 151 151 150 155 159 161 159 156 162 163 -193 -209 -209 171 173 171 174 173 174 175 174 174 177 177 181 180 182 183 185 188 -193 93 -193 -209 85 0 0 0 0 0
    0 0 0 0 0 0 0 0 0 0 0 0 0 0 0 0 0 0 0 0 0 0 0 0 0 0 0 0 0 0 0 0 0 0 0 0 0 0 0 0 0 0 0 0 0 0 0 0 0 0 0 0 0 0 0 0 0 0 0 0 0 0 0 0 0 0 0 0 0 49 46 44 42 41 38 38 37 37 37 38 38 37 34 34 34 37 38 32 32 33 35 34 34 34 33 33 33 35 32 32 32 32 32 31 30 30 28 29 26 26 26 25 25 24 22 20 18 17 16 13 14 14 14 14 15 15 15 14 13 12 12 11 11 10 9 9 10 10 12 11 10 11 11 11 11 12 12 11 11 12 12 12 11 12 11 10 10 10 9 9 0 0 0 9 9 9 10 12 12 14 14 15 23 31 28 33 31 33 35 34 34 35 34 37 35 40 43 43 44 45 46 46 50 52 53 45 52 54 -193 -177 -177 62 62 -193 64 66 66 -193 -193 -177 -177 -177 -177 -209 -177 -193 75 -177 77 76 -177 221 -193 -209 -177 -177 -177 -209 -193 -177 -177 -177 86 90 94 100 103 103 104 109 109 111 114 111 114 113 115 115 114 588 590 -193 737 739 117 -193 -177 -177 -177 -193 -193 -193 131 135 135 138 139 139 137 -193 139 138 139 142 140 141 142 146 148 150 150 150 147 153 156 157 155 147 151 149 -209 -209 -193 94 -193 -193 -193 172 173 175 174 174 176 176 180 180 181 183 185 188 -193 -193 91 -193 86 0 0 0 0 0
    0 0 0 0 0 0 0 0 0 0 0 0 0 0 0 0 0 0 0 0 0 0 0 0 0 0 0 0 0 0 0 0 0 0 0 0 0 0 0 0 0 0 0 0 0 0 0 0 0 0 0 0 0 0 0 0 0 0 0 0 0 0 0 0 0 0 0 0 0 47 44 43 41 40 37 37 36 37 37 37 37 37 33 34 34 37 38 32 32 33 35 33 33 33 33 33 33 35 32 32 32 32 32 32 31 31 28 30 26 26 26 26 26 -193 22 20 18 18 17 14 14 13 14 14 15 14 14 13 12 11 12 10 10 10 10 9 10 11 12 11 11 11 11 11 11 12 12 12 12 13 12 13 12 13 12 11 10 10 10 9 9 9 9 9 9 10 10 12 12 14 14 15 23 31 28 34 31 33 35 34 34 35 35 37 35 40 43 42 44 45 47 46 51 52 53 46 53 55 -193 -177 -177 63 61 -193 63 65 -177 -193 65 -193 -177 -177 -177 -209 -177 213 74 -177 77 76 -177 -177 -193 -209 -177 -177 -177 -209 -193 -177 -177 -177 87 90 93 100 103 103 103 -193 109 111 114 111 114 113 115 116 -193 589 591 -177 737 741 118 750 -177 -177 -193 -193 -193 -193 131 134 134 137 138 138 -193 -193 138 138 138 142 140 141 142 145 147 149 149 148 144 149 151 150 143 141 144 143 -193 -193 93 94 97 96 -177 -193 -177 -177 173 173 176 176 179 179 180 183 184 187 -193 -193 -193 -193 87 0 0 0 0 0
    0 0 0 0 0 0 0 0 0 0 0 0 0 0 0 0 0 0 0 0 0 0 0 0 0 0 0 0 0 0 0 0 0 0 0 0 0 0 0 0 0 0 0 0 0 0 0 0 0 0 0 0 0 0 0 0 0 0 0 0 0 0 0 0 0 0 0 0 0 46 43 42 40 40 37 37 36 36 37 37 37 37 33 34 34 37 38 32 32 33 36 33 33 33 33 33 33 35 32 32 32 32 32 31 31 31 28 30 26 26 26 26 26 -193 22 21 18 19 18 15 13 13 13 14 14 14 14 13 12 11 11 10 10 9 9 9 9 10 11 11 10 11 11 11 11 12 12 12 13 14 13 14 13 14 13 13 12 11 11 11 9 10 9 9 10 10 10 12 12 14 14 15 22 31 28 34 31 33 35 34 34 35 35 37 35 40 43 42 44 46 47 46 50 52 53 47 54 55 59 -177 -177 62 61 -193 62 64 -177 -193 64 67 -177 -193 -177 -209 -177 212 74 -177 76 75 221 -177 -193 -209 -177 -177 -177 -193 -193 -177 -177 -177 -193 90 93 100 103 103 103 -193 109 111 114 112 114 -193 116 117 -177 589 591 -177 -193 742 118 750 -193 -193 -193 -193 -193 126 130 134 134 -193 138 138 -193 -193 138 137 -209 142 140 141 142 145 148 149 149 148 143 146 149 148 143 143 146 146 -209 -193 93 93 96 95 -177 -193 -177 -177 173 173 175 175 178 178 179 182 183 187 188 -193 -193 -193 -193 0 0 0 0 0
    0 0 0 0 0 0 0 0 0 0 0 0 0 0 0 0 0 0 0 0 0 0 0 0 0 0 0 0 0 0 0 0 0 0 0 0 0 0 0 0 0 0 0 0 0 0 0 0 0 0 0 0 0 0 0 0 0 0 0 0 0 0 0 0 0 0 0 0 0 46 43 42 40 40 37 37 36 37 37 37 37 37 33 34 33 36 38 32 32 33 36 33 33 33 33 33 33 35 32 32 32 32 31 31 30 30 28 30 25 25 25 26 25 -193 22 21 18 20 19 16 14 14 13 14 14 14 14 12 11 11 11 10 10 9 9 9 9 10 11 11 10 10 11 11 11 12 12 12 13 14 13 15 14 14 14 13 13 11 12 11 10 10 10 9 10 11 11 12 12 14 14 15 22 31 28 34 31 32 35 33 33 35 34 37 35 39 43 42 44 45 47 46 50 52 53 47 55 55 59 -177 -177 62 60 63 62 63 63 -193 63 66 -193 -193 -177 -193 -193 -177 73 -177 75 75 221 -177 -193 -193 -177 -177 -177 -193 -193 -177 -177 -177 -193 90 93 101 103 103 103 -193 109 110 114 112 114 1008 117 118 -177 590 591 -193 123 742 117 750 -193 -193 -193 524 -193 125 130 133 133 -193 -193 137 134 -193 -193 -193 -209 -193 -193 142 142 145 148 149 149 148 145 147 149 149 147 148 149 149 -209 93 93 93 96 -177 -177 -193 -177 173 173 173 174 175 177 178 179 182 183 187 189 -193 -193 -193 -193 0 0 0 0 0
    0 0 0 0 0 0 0 0 0 0 0 0 0 0 0 0 0 0 0 0 0 0 0 0 0 0 0 0 0 0 0 0 0 0 0 0 0 0 0 0 0 0 0 0 0 0 0 0 0 0 0 0 0 0 0 0 0 0 0 0 0 0 0 0 0 0 0 0 0 45 43 41 40 39 37 37 36 37 37 37 37 37 33 34 33 36 38 32 32 33 36 33 33 33 33 33 33 35 32 31 32 32 31 31 30 30 28 29 25 -193 25 25 25 24 22 22 18 21 21 17 14 14 13 14 14 14 14 12 11 11 11 10 10 10 10 9 9 10 11 11 10 10 11 11 11 13 12 12 13 14 13 15 14 14 14 13 13 12 12 12 10 11 10 10 11 10 11 12 12 13 14 15 21 29 28 33 30 30 34 32 32 33 33 36 34 39 43 42 44 45 47 46 49 52 53 47 54 55 58 -177 -177 61 60 62 61 62 62 61 63 66 -177 133 -193 -193 -193 -177 73 -177 75 -193 221 224 -193 -193 -193 -193 -193 -193 83 -193 -193 -193 -193 90 93 100 102 102 103 108 109 110 114 113 -193 1008 117 118 -177 591 592 -209 122 -193 116 749 -193 -193 524 524 -193 124 129 132 132 131 136 136 134 131 -193 132 -209 -193 142 142 143 145 148 149 149 148 146 147 150 -193 -193 151 -193 -209 -209 -193 -193 93 95 -177 -177 -193 -177 173 173 173 174 175 177 178 179 182 183 187 190 190 189 190 190 0 0 0 0 0
    0 0 0 0 0 0 0 0 0 0 0 0 0 0 0 0 0 0 0 0 0 0 0 0 0 0 0 0 0 0 0 0 0 0 0 0 0 0 0 0 0 0 0 0 0 0 0 0 0 0 0 0 0 0 0 0 0 0 0 0 0 0 0 0 0 0 0 0 0 45 43 42 40 40 37 38 36 37 37 37 37 37 33 34 33 35 38 33 32 33 36 33 33 33 33 33 33 34 32 31 32 32 31 31 30 30 28 29 25 -193 25 25 25 23 22 22 18 21 21 17 14 15 14 15 15 15 16 13 13 13 12 11 11 11 10 10 10 10 11 11 10 11 11 11 11 13 12 13 14 14 13 14 14 14 14 13 13 12 12 12 11 11 10 10 11 10 11 11 11 14 14 15 21 24 26 30 29 29 33 30 30 32 32 35 33 38 42 41 44 45 47 46 48 51 52 47 54 54 57 54 56 60 59 62 61 62 62 61 63 66 -177 133 -193 -193 -209 -193 -193 -177 75 -193 221 225 -193 -193 -209 -209 -193 84 83 86 87 -177 89 89 93 100 102 102 102 108 109 110 114 113 -193 1008 117 119 -177 591 593 -209 122 -193 115 -193 -193 122 524 524 -193 124 128 132 132 130 135 136 134 131 -209 130 -209 -193 143 142 143 146 148 149 149 148 147 147 150 -193 -209 -193 155 155 -193 -193 -193 -193 95 -177 -177 -193 171 172 173 173 174 175 178 179 180 183 -193 187 190 191 190 191 192 0 0 0 0 0
    0 0 0 0 0 0 0 0 0 0 0 0 0 0 0 0 0 0 0 0 0 0 0 0 0 0 0 0 0 0 0 0 0 0 0 0 0 0 0 0 0 0 0 0 0 0 0 0 0 0 0 0 0 0 0 0 0 0 0 0 0 0 0 0 0 0 0 0 0 44 43 42 -193 -193 38 38 37 37 37 37 37 37 34 34 33 35 38 33 33 33 36 33 33 33 33 33 32 34 32 31 31 32 31 31 30 30 28 29 25 -193 25 25 25 23 23 22 18 22 22 17 14 14 15 16 16 18 19 16 15 16 13 12 11 11 10 9 9 10 10 10 10 10 11 11 11 13 12 12 14 13 13 15 14 15 14 13 13 12 12 12 11 11 10 10 10 10 11 11 11 13 14 15 20 23 25 29 28 27 31 29 29 31 32 34 -177 37 40 40 43 44 46 45 47 50 51 46 53 55 56 53 55 59 59 61 60 61 62 61 63 65 -177 -193 68 -193 -209 -193 73 74 75 -193 221 225 -193 -193 -193 -193 -209 84 83 86 87 -177 89 89 93 100 101 102 102 107 109 110 113 113 -193 1008 117 118 -177 -193 -193 -177 -193 118 114 118 123 122 525 525 -193 124 128 132 132 129 135 136 134 130 -209 125 -209 -193 -193 142 144 146 148 149 149 149 147 148 151 -193 -209 -193 156 156 156 -193 -193 -193 95 -177 -177 -193 170 172 173 173 174 176 178 180 180 183 -193 187 191 192 191 192 194 0 0 0 0 0
    0 0 0 0 0 0 0 0 0 0 0 0 0 0 0 0 0 0 0 0 0 0 0 0 0 0 0 0 0 0 0 0 0 0 0 0 0 0 0 0 0 0 0 0 0 0 0 0 0 0 0 0 0 0 0 0 0 0 0 0 0 0 0 0 0 0 0 0 0 44 43 42 -193 -193 38 38 38 37 37 37 38 37 34 35 34 36 38 34 33 33 36 33 33 33 33 33 32 34 32 31 31 32 31 31 30 30 29 29 25 25 25 25 25 23 23 22 19 22 22 18 15 15 16 18 18 19 21 19 16 18 14 13 11 11 9 0 9 9 10 10 10 10 11 11 11 13 12 12 14 13 14 15 14 15 14 14 13 12 12 12 11 11 10 10 11 10 11 11 11 13 13 13 19 20 24 27 27 26 30 28 29 30 32 34 32 37 40 39 42 43 45 44 46 50 51 46 52 54 56 52 55 59 58 61 60 61 61 61 62 65 65 68 68 72 72 -193 73 74 75 -193 -177 -177 -193 -193 -193 84 85 84 84 87 88 -177 89 89 93 101 102 102 102 107 109 110 113 114 114 -177 116 117 117 118 -193 -193 119 117 114 118 123 122 526 525 -193 124 129 132 132 129 135 135 134 130 -209 122 -209 -209 -193 142 -193 146 148 149 149 149 148 148 -193 -193 -193 -193 157 157 157 -193 -193 -193 -193 -177 -177 -177 170 172 173 173 174 176 178 180 181 184 -193 188 191 193 192 193 194 0 0 0 0 0
    0 0 0 0 0 0 0 0 0 0 0 0 0 0 0 0 0 0 0 0 0 0 0 0 0 0 0 0 0 0 0 0 0 0 0 0 0 0 0 0 0 0 0 0 0 0 0 0 0 0 0 0 0 0 0 0 0 0 0 0 0 0 0 0 0 0 0 0 0 45 44 42 42 -193 39 39 38 38 38 37 37 37 35 35 34 36 38 34 34 33 36 33 33 33 33 33 32 34 32 31 31 32 31 30 30 29 28 28 25 25 25 25 25 24 24 23 19 22 22 19 15 16 17 19 20 21 23 21 19 20 17 15 12 12 9 9 9 10 10 10 10 10 11 11 11 13 11 12 14 13 14 15 14 15 14 14 14 12 12 12 11 10 11 10 12 11 11 12 11 13 13 12 18 18 22 26 26 26 29 28 28 29 32 34 32 36 39 38 42 42 44 44 46 50 50 46 52 52 55 52 55 59 58 60 60 60 61 61 62 65 64 68 67 71 71 71 72 74 75 75 -193 -193 -193 86 -193 85 86 86 86 88 89 -177 90 90 94 101 102 102 102 106 109 109 112 114 113 -177 115 117 116 117 -193 -193 118 117 113 118 -193 -193 526 526 125 125 130 132 133 -193 135 135 134 131 -193 -209 -193 -209 -209 -209 -209 146 148 149 -193 149 149 149 -209 -193 -193 -193 157 158 157 159 160 161 164 -193 -193 -193 -193 171 173 173 174 176 178 181 181 184 186 188 192 193 192 192 194 0 0 0 0 0
    0 0 0 0 0 0 0 0 0 0 0 0 0 0 0 0 0 0 0 0 0 0 0 0 0 0 0 0 0 0 0 0 0 0 0 0 0 0 0 0 0 0 0 0 0 0 0 0 0 0 0 0 0 0 0 0 0 0 0 0 0 0 0 0 0 0 0 0 0 46 45 43 42 41 39 39 38 38 37 37 37 36 35 35 34 35 38 34 34 34 36 33 33 33 33 32 32 33 32 30 31 32 31 30 29 29 28 28 25 25 25 25 25 24 25 24 20 23 23 21 18 19 20 21 23 23 26 23 21 23 20 19 14 13 9 9 9 10 10 10 9 9 10 10 10 12 11 12 13 13 14 15 14 15 15 14 14 13 12 12 11 11 11 10 12 11 11 12 12 14 14 13 19 17 21 25 25 25 28 28 28 29 32 34 33 35 38 37 42 42 44 44 45 48 49 46 50 50 55 51 55 59 58 60 60 61 61 61 62 65 64 68 67 70 70 71 72 73 74 74 75 80 79 86 89 86 87 87 87 89 90 91 91 91 94 101 101 101 101 106 108 109 111 114 112 116 115 116 116 116 118 116 116 116 112 118 -193 -193 -177 -177 126 126 131 133 133 -193 136 136 -193 -193 -177 -193 -177 -177 -177 -193 -209 -209 -193 150 -193 -193 150 149 -209 -193 -193 -193 158 158 158 160 161 162 164 -209 -193 -193 -193 171 173 173 174 176 178 181 181 185 186 188 192 193 191 191 192 0 0 0 0 0
    0 0 0 0 0 0 0 0 0 0 0 0 0 0 0 0 0 0 0 0 0 0 0 0 0 0 0 0 0 0 0 0 0 0 0 0 0 0 0 0 0 0 0 0 0 0 0 0 0 0 0 0 0 0 0 0 0 0 0 0 0 0 0 0 0 0 0 0 0 48 47 44 44 42 39 39 38 38 37 36 36 36 35 35 34 35 38 35 34 34 36 33 33 33 32 32 31 33 32 30 31 32 31 30 29 28 28 28 25 25 25 25 25 25 26 25 22 23 24 23 20 21 22 23 25 25 29 27 25 26 24 23 17 14 9 10 10 10 10 10 9 9 9 10 10 12 12 12 13 13 14 14 14 14 14 14 14 13 12 12 11 11 11 10 12 11 11 13 13 16 15 15 20 18 22 25 24 25 28 27 28 28 32 34 33 35 37 36 41 41 43 43 44 46 47 45 48 47 54 52 55 59 58 60 60 61 61 61 62 65 64 68 68 70 70 71 72 73 73 73 74 78 79 87 90 87 88 88 87 90 90 91 92 91 94 100 101 101 101 105 108 109 110 115 112 115 114 116 115 115 117 116 115 116 112 119 -209 -193 -177 -193 127 127 132 134 134 -193 136 136 -193 132 -177 -177 -177 -177 -177 -209 -209 -193 -193 -193 -177 -177 -193 -193 -193 -193 -193 158 159 159 159 160 161 162 164 -193 -193 -177 -193 -193 173 172 174 176 177 181 181 184 186 187 190 191 190 190 190 0 0 0 0 0
    0 0 0 0 0 0 0 0 0 0 0 0 0 0 0 0 0 0 0 0 0 0 0 0 0 0 0 0 0 0 0 0 0 0 0 0 0 0 0 0 0 0 0 0 0 0 0 0 0 0 0 0 0 0 0 0 0 0 0 0 0 0 0 0 0 0 0 0 0 48 47 45 45 43 40 39 38 38 37 36 37 37 35 35 35 35 38 35 34 34 36 33 33 33 32 31 31 33 32 30 31 31 31 30 29 28 28 28 26 26 25 25 26 25 26 25 23 24 26 25 23 24 24 24 29 27 32 30 27 27 26 25 22 17 10 10 10 10 10 10 9 9 9 10 10 12 11 11 13 13 14 14 14 14 14 14 14 13 12 11 11 11 11 10 12 11 12 13 14 16 16 15 20 18 21 23 23 25 27 27 27 28 31 33 34 35 36 37 41 41 43 43 44 45 45 44 46 45 53 52 55 59 58 59 60 61 61 61 61 64 63 67 67 69 70 70 72 73 73 73 74 77 78 87 90 87 89 89 88 91 91 92 92 92 94 98 101 101 101 105 109 109 110 114 111 115 113 115 114 114 116 116 115 -193 114 120 126 124 -193 126 126 127 131 133 134 -193 136 135 -193 133 -177 -177 -177 -177 -177 -209 -193 -193 -193 -193 -177 -177 -177 -177 -193 -193 158 159 159 160 160 161 162 162 164 -193 -193 -177 -193 171 173 172 174 176 176 181 181 184 185 185 187 188 188 -193 -193 0 0 0 0 0
    0 0 0 0 0 0 0 0 0 0 0 0 0 0 0 0 0 0 0 0 0 0 0 0 0 0 0 0 0 0 0 0 0 0 0 0 0 0 0 0 0 0 0 0 0 0 0 0 0 0 0 0 0 0 0 0 0 0 0 0 0 0 0 0 0 0 0 0 0 49 48 46 45 44 40 40 39 39 38 37 37 37 35 35 35 35 38 35 34 34 36 33 33 33 32 31 31 32 32 30 31 31 31 30 29 28 28 28 27 26 26 26 27 26 27 26 25 25 28 28 27 27 29 28 33 29 33 32 29 28 28 27 25 19 10 11 11 11 10 10 9 9 9 10 10 12 11 11 13 13 14 14 14 15 14 14 13 13 12 11 11 10 11 10 12 11 12 14 15 17 17 16 20 17 21 23 23 25 26 26 27 27 32 34 34 35 35 36 41 41 42 42 43 43 44 44 45 44 53 53 55 59 58 59 60 61 61 62 61 64 62 66 67 68 69 70 71 73 73 73 74 77 78 87 89 87 89 89 89 91 91 92 92 92 95 98 101 101 100 104 109 108 109 113 110 114 112 114 114 112 116 116 116 -193 116 121 126 125 126 126 126 127 130 -193 -193 -193 134 135 -193 132 -177 -177 -177 -177 -177 -193 -209 -193 -193 -177 -177 -177 -177 -177 -193 -193 158 160 160 161 160 161 163 163 164 -193 -193 -177 -193 171 173 172 174 175 176 181 181 183 -193 184 -193 -209 -193 -193 -193 0 0 0 0 0</data></disparity>
</opencv_storage>
