<?xml version="1.0"?>
<opencv_storage>
<gps_time_stamp>306723</gps_time_stamp>
<gps_x>-1.2406516075134277e+001</gps_x>
<gps_y>1.0947075843811035e+001</gps_y>
<gps_z>-1.9913554191589355e+000</gps_z>
<image_time_stamp>297561</image_time_stamp>
<disparity type_id="opencv-matrix">
  <rows>89</rows>
  <cols>320</cols>
  <dt>s</dt>
  <data>
    0 0 0 0 0 0 0 0 0 0 0 0 0 0 0 0 0 0 0 0 0 0 0 0 0 0 0 0 0 0 0 0 0 0 0 0 0 0 0 0 0 0 0 0 0 0 0 0 0 0 0 0 0 0 0 0 0 0 0 0 0 0 0 0 0 0 0 0 0 47 48 46 46 45 44 45 43 43 44 43 44 44 42 41 40 46 45 45 44 47 45 46 47 47 44 43 42 44 38 38 37 37 36 36 36 35 32 33 31 35 34 29 28 30 31 30 31 31 30 31 31 32 29 28 26 25 25 25 25 25 25 25 25 26 26 25 26 25 24 23 22 19 12 10 0 0 0 0 0 0 0 0 0 0 0 0 0 0 0 0 0 0 9 10 10 11 11 10 11 11 11 9 9 9 10 9 14 22 22 26 26 29 28 29 29 28 29 29 28 30 30 31 32 36 37 37 40 40 40 41 43 45 43 50 52 52 52 55 57 57 58 58 58 63 65 63 63 65 67 68 69 68 68 67 70 70 -193 69 68 68 70 68 70 71 -193 -193 77 -193 -193 81 87 -193 -193 86 87 91 97 97 97 102 105 -177 -177 -193 108 111 110 111 111 110 113 113 -177 -177 -193 -193 -193 -193 -193 -193 123 124 -177 -193 -193 -209 128 129 -193 132 -193 142 144 146 149 144 144 -193 -193 13 14 18 -193 -193 20 -193 -193 444 444 -177 166 -193 446 -177 965 965 966 165 165 -193 721 724 -193 879 -193 0 0 0 0 0
    0 0 0 0 0 0 0 0 0 0 0 0 0 0 0 0 0 0 0 0 0 0 0 0 0 0 0 0 0 0 0 0 0 0 0 0 0 0 0 0 0 0 0 0 0 0 0 0 0 0 0 0 0 0 0 0 0 0 0 0 0 0 0 0 0 0 0 0 0 47 47 46 45 45 44 45 43 43 44 43 43 44 42 41 40 45 45 45 44 48 45 46 47 47 45 43 42 44 38 37 36 36 36 35 36 35 33 33 32 36 35 30 28 29 31 30 30 30 29 30 30 31 28 27 25 25 25 25 25 25 25 25 25 26 25 25 25 24 23 21 19 18 12 10 9 0 0 0 0 0 0 0 0 0 0 0 0 0 0 0 0 0 9 9 9 10 10 10 11 11 11 10 10 10 10 10 16 23 23 27 27 30 29 30 30 29 29 29 28 30 30 31 32 35 37 36 40 40 40 41 43 45 43 48 53 53 53 55 59 58 59 59 59 65 66 63 64 65 67 67 68 67 67 67 69 69 67 68 67 67 68 66 69 70 -193 75 76 -193 -193 80 87 -193 86 84 86 89 97 98 98 102 107 106 107 111 109 112 111 112 112 110 113 113 -177 -177 -193 -193 -193 -193 -193 -193 123 123 -193 -193 -193 -209 -193 -209 -193 134 -193 142 144 145 149 144 145 -193 14 13 13 17 19 -209 20 -209 -177 442 -193 -177 166 -193 446 -177 -193 -177 -193 163 163 -193 720 723 720 878 -193 0 0 0 0 0
    0 0 0 0 0 0 0 0 0 0 0 0 0 0 0 0 0 0 0 0 0 0 0 0 0 0 0 0 0 0 0 0 0 0 0 0 0 0 0 0 0 0 0 0 0 0 0 0 0 0 0 0 0 0 0 0 0 0 0 0 0 0 0 0 0 0 0 0 0 46 47 46 45 45 44 45 44 43 44 43 43 44 42 41 40 45 45 45 45 48 46 46 47 47 45 43 42 43 38 37 36 36 36 35 36 36 33 34 33 37 35 30 28 29 32 29 29 30 28 29 28 29 28 27 25 25 25 25 24 24 24 24 24 25 25 24 23 23 21 19 15 15 11 10 9 9 9 0 0 0 0 0 0 0 0 0 0 0 0 0 0 0 0 9 9 10 10 10 11 10 11 11 11 11 11 11 17 24 24 29 28 31 30 31 30 29 29 29 28 30 30 31 31 34 36 36 39 39 39 40 44 46 45 48 54 54 54 55 62 59 60 60 60 66 66 64 64 65 67 67 68 67 67 66 69 69 66 67 66 66 68 65 68 70 -209 75 75 76 -193 79 86 -193 86 84 85 89 98 99 99 103 109 108 108 112 110 112 111 112 112 110 113 113 -177 -177 -193 -193 -193 -193 -193 -193 123 123 -193 -193 -177 -193 -193 -209 -193 -209 -193 142 144 -177 149 145 145 -193 14 13 13 16 18 -209 -193 -193 -193 440 -193 433 -209 -193 447 -177 -193 -193 -193 161 162 -193 719 723 720 877 -193 0 0 0 0 0
    0 0 0 0 0 0 0 0 0 0 0 0 0 0 0 0 0 0 0 0 0 0 0 0 0 0 0 0 0 0 0 0 0 0 0 0 0 0 0 0 0 0 0 0 0 0 0 0 0 0 0 0 0 0 0 0 0 0 0 0 0 0 0 0 0 0 0 0 0 46 47 46 45 45 43 45 44 43 45 43 44 44 42 42 41 45 45 44 44 49 46 46 47 47 45 43 42 43 37 37 36 36 36 35 36 36 33 34 33 37 35 30 28 28 31 29 28 29 27 27 27 28 27 26 25 25 24 25 24 24 24 24 23 24 23 23 22 22 20 17 14 14 10 9 9 9 9 0 0 0 0 0 0 0 0 0 0 0 0 0 0 0 0 9 9 10 10 10 11 10 11 11 11 11 11 11 17 24 24 29 28 30 30 31 30 29 29 30 28 30 30 31 31 34 37 36 39 39 39 40 44 47 46 47 54 54 54 55 63 59 60 60 61 66 67 65 65 65 67 68 69 67 67 67 68 69 66 67 67 66 68 65 68 70 73 74 74 -193 -193 79 86 -193 85 83 84 89 98 100 100 103 111 109 109 114 111 113 111 113 113 110 113 114 -177 -177 -193 -193 -193 -193 -193 -193 123 123 -193 588 -177 -209 -193 -209 -193 -209 -193 142 144 144 150 145 146 -193 14 13 13 -193 17 -193 -193 -193 -193 -193 -209 -177 -209 -193 -193 -177 -193 -193 -193 161 161 163 718 -193 -193 -193 -193 0 0 0 0 0
    0 0 0 0 0 0 0 0 0 0 0 0 0 0 0 0 0 0 0 0 0 0 0 0 0 0 0 0 0 0 0 0 0 0 0 0 0 0 0 0 0 0 0 0 0 0 0 0 0 0 0 0 0 0 0 0 0 0 0 0 0 0 0 0 0 0 0 0 0 46 47 46 45 45 43 44 44 43 45 44 44 44 43 42 41 45 45 44 44 49 46 46 47 47 45 42 42 43 37 37 36 36 36 35 36 36 33 34 34 37 35 30 28 28 31 28 27 28 26 26 26 27 26 26 25 25 24 25 24 23 22 22 21 21 21 19 18 19 17 15 13 13 10 9 9 9 10 0 0 0 0 0 0 0 0 0 0 0 0 0 0 0 9 10 9 10 10 10 11 11 11 11 12 11 11 12 17 23 24 28 28 30 29 30 30 29 29 30 28 31 30 31 31 34 37 36 39 39 39 41 44 48 47 47 55 55 55 56 64 59 59 59 60 66 66 64 64 64 67 68 69 67 67 67 68 69 67 -193 67 67 68 65 69 70 72 75 74 -193 -193 79 85 84 85 82 84 89 98 101 101 103 112 109 110 114 111 114 112 113 113 111 114 114 -193 -177 114 119 -193 123 -193 -193 122 122 -193 -177 -177 -209 -193 -209 -209 -209 -193 142 143 144 150 145 146 -193 -193 14 -193 -193 16 -193 -193 -193 -193 -209 -209 -193 -209 -209 -209 -177 -193 -193 -193 160 159 162 -193 -193 -193 -193 -193 0 0 0 0 0
    0 0 0 0 0 0 0 0 0 0 0 0 0 0 0 0 0 0 0 0 0 0 0 0 0 0 0 0 0 0 0 0 0 0 0 0 0 0 0 0 0 0 0 0 0 0 0 0 0 0 0 0 0 0 0 0 0 0 0 0 0 0 0 0 0 0 0 0 0 47 48 47 45 45 44 45 45 43 45 44 44 44 43 43 42 44 46 44 45 49 46 46 47 46 44 42 41 42 37 36 36 36 36 35 36 36 34 34 34 37 35 29 27 27 31 27 27 28 26 25 26 26 26 25 25 25 24 25 24 22 20 19 17 18 16 14 13 14 13 13 12 11 9 9 10 9 10 9 0 0 0 0 0 0 0 0 0 0 0 0 0 9 9 10 10 11 10 10 11 10 11 11 12 12 12 12 17 23 23 27 27 29 29 30 30 28 29 30 28 31 30 31 31 34 37 35 39 39 39 41 45 49 49 47 57 57 57 57 64 58 58 58 59 65 65 64 63 64 67 68 68 67 67 66 68 69 67 -193 67 67 68 66 69 71 72 75 74 -193 -177 79 85 84 84 82 82 89 98 102 101 103 112 109 110 114 111 114 112 113 113 111 114 115 -177 -177 113 119 -193 123 123 -193 122 122 -193 -177 -177 -209 -177 -209 -209 -209 140 142 143 143 150 -193 146 -193 -193 -193 -193 -177 -193 -193 -193 -193 -193 -209 -209 -193 -209 -209 -209 -177 -193 -193 157 159 158 161 167 172 173 -193 184 0 0 0 0 0
    0 0 0 0 0 0 0 0 0 0 0 0 0 0 0 0 0 0 0 0 0 0 0 0 0 0 0 0 0 0 0 0 0 0 0 0 0 0 0 0 0 0 0 0 0 0 0 0 0 0 0 0 0 0 0 0 0 0 0 0 0 0 0 0 0 0 0 0 0 47 49 48 45 46 44 45 45 44 45 44 44 45 43 43 43 44 46 44 44 47 45 45 46 45 44 41 40 41 37 37 36 35 36 35 36 36 34 34 34 36 34 29 27 27 31 27 27 27 25 25 26 26 25 25 25 25 24 25 24 18 17 14 13 13 12 11 10 11 11 11 11 10 9 9 10 10 10 9 9 9 9 9 0 0 0 0 0 0 0 0 9 9 10 10 10 11 10 10 11 10 11 11 12 12 12 13 16 22 22 26 26 28 28 29 29 28 29 29 28 31 30 31 30 34 37 36 40 40 40 41 45 50 51 46 57 57 57 57 64 57 57 57 57 63 -193 -193 62 63 67 68 69 67 -193 66 68 69 67 -193 67 68 69 67 70 71 72 75 74 -193 -177 79 85 85 85 83 82 89 99 103 102 104 112 109 110 114 111 114 112 114 114 111 115 115 815 815 113 118 120 122 122 -193 121 -193 -193 -177 -177 -209 -177 -209 -209 -209 140 142 142 143 149 -193 146 -193 -193 -193 -193 -177 -193 101 -193 -193 -209 -209 -209 -209 -209 -209 -209 -177 -193 -209 -193 -193 155 159 167 172 175 180 185 0 0 0 0 0
    0 0 0 0 0 0 0 0 0 0 0 0 0 0 0 0 0 0 0 0 0 0 0 0 0 0 0 0 0 0 0 0 0 0 0 0 0 0 0 0 0 0 0 0 0 0 0 0 0 0 0 0 0 0 0 0 0 0 0 0 0 0 0 0 0 0 0 0 0 48 50 50 46 46 45 46 46 44 45 44 44 44 43 43 43 44 45 44 44 47 45 45 45 44 43 40 40 40 37 37 36 35 36 35 36 35 33 34 33 35 33 29 27 27 30 27 27 27 25 24 26 25 25 25 25 25 24 24 23 14 12 11 12 11 10 9 9 10 10 10 10 0 9 9 10 11 11 10 10 10 10 9 9 0 0 0 0 0 0 0 9 9 9 10 10 10 10 11 11 10 11 11 13 13 13 14 16 22 21 24 25 27 27 29 28 27 29 29 28 31 30 31 30 34 38 37 41 41 41 41 46 51 52 46 57 57 57 57 64 56 55 55 56 -193 269 -177 61 62 66 68 69 -193 -193 67 68 69 67 -193 68 68 69 68 71 -193 72 76 74 -193 -177 79 86 -193 86 85 84 89 100 104 103 104 113 109 110 114 111 114 112 114 114 112 116 116 815 814 114 117 119 122 122 -209 121 -193 -193 -193 -177 -209 568 -209 -209 -209 139 141 142 142 149 -193 146 145 141 -193 -193 -177 -193 100 -193 -193 -209 -209 -209 -209 -209 -209 -209 -177 -209 -209 -193 -193 153 156 166 172 176 180 185 0 0 0 0 0
    0 0 0 0 0 0 0 0 0 0 0 0 0 0 0 0 0 0 0 0 0 0 0 0 0 0 0 0 0 0 0 0 0 0 0 0 0 0 0 0 0 0 0 0 0 0 0 0 0 0 0 0 0 0 0 0 0 0 0 0 0 0 0 0 0 0 0 0 0 50 51 51 47 47 46 47 47 44 45 44 44 44 43 43 43 43 45 44 44 46 45 44 44 43 43 40 40 40 37 37 36 35 36 35 36 35 33 33 33 34 32 28 27 27 30 27 27 27 26 24 26 25 25 24 24 24 24 22 18 10 0 0 10 9 0 0 0 9 0 10 10 0 0 9 11 10 11 11 11 11 11 10 10 9 0 0 0 0 0 0 9 9 10 10 10 10 10 11 12 10 12 11 13 13 14 15 16 21 21 23 23 26 27 28 28 27 29 29 28 31 30 31 30 34 39 38 41 42 42 41 -177 -177 52 45 57 58 58 58 64 55 54 54 54 -193 269 271 60 61 66 69 70 -177 -177 -193 68 69 68 -193 69 69 70 69 72 -209 72 76 75 -193 -177 -193 87 -193 -193 86 86 90 101 106 104 104 113 110 110 114 111 114 113 114 115 112 116 116 815 814 114 116 118 121 122 -209 121 -209 -193 -193 589 -193 -177 -209 -209 -193 139 141 142 142 148 144 145 145 141 141 141 -193 -193 98 -177 -209 -193 -193 -209 -209 -209 -209 -209 -209 -209 -193 -193 320 150 154 164 172 176 180 -209 0 0 0 0 0
    0 0 0 0 0 0 0 0 0 0 0 0 0 0 0 0 0 0 0 0 0 0 0 0 0 0 0 0 0 0 0 0 0 0 0 0 0 0 0 0 0 0 0 0 0 0 0 0 0 0 0 0 0 0 0 0 0 0 0 0 0 0 0 0 0 0 0 0 0 51 51 52 48 48 46 47 47 44 44 45 44 44 44 44 43 43 45 44 44 46 45 44 44 42 43 40 40 40 37 37 37 35 36 35 35 34 32 33 32 33 31 29 27 27 30 28 28 27 26 25 26 25 25 24 24 24 23 -193 -193 9 0 0 -193 0 0 0 0 0 0 10 10 0 0 0 11 10 10 11 11 11 10 10 10 9 0 0 0 0 0 0 9 9 10 10 10 10 10 11 12 10 12 11 14 14 14 15 16 21 21 24 23 26 27 28 28 28 29 29 28 31 31 31 31 34 39 38 41 42 42 41 -177 -177 52 45 58 59 58 58 64 54 52 52 53 -193 269 270 -193 -193 66 70 -193 -177 -177 -193 69 70 68 -193 69 69 71 70 73 -209 73 77 75 -193 -177 -193 87 -193 -193 87 87 90 101 107 104 104 113 110 110 114 111 114 113 115 115 113 117 117 814 814 115 115 118 121 121 -209 -209 -209 -193 -193 -193 -193 -177 -209 136 -193 138 141 141 141 147 144 145 145 142 142 142 -193 145 -193 -193 -209 0 0 -209 -209 -193 -209 -209 -209 -209 309 -209 319 147 -193 -193 -193 -193 181 -209 0 0 0 0 0
    0 0 0 0 0 0 0 0 0 0 0 0 0 0 0 0 0 0 0 0 0 0 0 0 0 0 0 0 0 0 0 0 0 0 0 0 0 0 0 0 0 0 0 0 0 0 0 0 0 0 0 0 0 0 0 0 0 0 0 0 0 0 0 0 0 0 0 0 0 52 52 52 49 46 46 47 47 44 44 45 44 44 44 44 44 43 45 44 44 45 44 43 43 42 43 40 40 40 37 37 37 35 36 35 35 34 32 32 32 32 30 29 27 27 30 28 28 27 26 25 26 25 25 24 24 24 -193 -177 -193 0 0 0 0 0 0 0 0 0 0 10 10 0 0 9 10 10 10 10 10 11 10 10 10 9 0 0 0 9 0 0 9 9 10 10 10 10 10 11 11 10 11 10 13 14 14 15 16 21 22 24 23 27 27 28 29 28 29 29 28 31 31 32 32 34 39 38 42 42 42 41 -177 -177 52 45 58 61 60 60 66 53 51 50 51 53 269 270 -193 -193 66 -193 -193 -177 -177 -193 69 70 -193 -177 69 69 -193 -193 -193 -193 74 78 76 -193 -177 -177 88 -193 -193 89 89 90 101 108 104 104 113 110 110 114 111 113 114 115 115 113 117 117 -193 -193 115 114 117 120 121 -193 -209 -209 -193 -193 -193 -193 -177 -209 134 -193 137 140 141 141 146 144 145 146 143 143 143 147 146 143 -193 -177 -193 -193 -209 -209 -193 -209 -209 -209 297 305 -209 317 -193 -193 219 -193 -193 182 -209 0 0 0 0 0
    0 0 0 0 0 0 0 0 0 0 0 0 0 0 0 0 0 0 0 0 0 0 0 0 0 0 0 0 0 0 0 0 0 0 0 0 0 0 0 0 0 0 0 0 0 0 0 0 0 0 0 0 0 0 0 0 0 0 0 0 0 0 0 0 0 0 0 0 0 52 52 53 49 45 47 47 47 44 43 45 44 43 43 43 44 43 44 43 43 44 44 43 43 41 42 40 40 39 38 37 37 35 36 35 35 34 32 32 31 31 30 29 27 27 30 28 28 27 26 25 26 25 24 24 24 24 23 -193 -209 0 0 0 0 0 0 0 0 0 0 10 10 0 0 9 10 10 10 10 10 10 10 10 9 0 0 0 0 9 0 0 10 10 11 11 11 10 10 11 11 10 11 10 13 14 14 15 15 21 22 24 23 26 26 27 28 27 29 29 29 31 32 33 32 34 39 38 42 42 42 41 -177 -177 52 44 58 69 62 62 67 52 49 48 48 51 270 271 -193 -193 66 -193 -193 -177 -177 -177 69 70 -193 -177 -193 70 -193 -209 -193 75 74 78 77 -193 -177 -177 -193 -193 89 90 90 90 101 107 103 104 112 109 110 114 111 113 114 115 115 113 117 117 -193 -193 116 -193 117 120 120 -209 -209 -193 -193 124 -193 -193 556 130 133 -193 136 140 140 140 145 144 145 146 143 144 143 148 147 145 -177 -177 -209 -193 -209 -209 -177 -209 -177 -209 296 302 311 315 -193 -209 -209 180 181 182 184 0 0 0 0 0
    0 0 0 0 0 0 0 0 0 0 0 0 0 0 0 0 0 0 0 0 0 0 0 0 0 0 0 0 0 0 0 0 0 0 0 0 0 0 0 0 0 0 0 0 0 0 0 0 0 0 0 0 0 0 0 0 0 0 0 0 0 0 0 0 0 0 0 0 0 52 52 53 49 45 48 48 46 45 43 45 43 43 43 43 44 43 44 44 43 44 44 42 42 40 41 39 39 38 38 37 38 36 37 36 35 34 32 32 31 30 29 28 27 27 29 28 28 27 26 25 26 24 24 23 24 23 22 19 -209 0 0 0 0 0 0 0 0 0 0 10 10 0 9 10 10 10 10 11 10 11 10 10 9 9 0 9 0 9 0 0 10 10 11 11 11 10 10 11 11 10 11 10 13 14 14 15 15 20 22 24 23 26 26 26 28 27 29 -177 29 31 32 33 33 34 39 39 42 42 42 41 -177 -177 52 -193 59 -193 70 -209 71 51 48 47 47 50 270 271 -193 -193 66 -193 -209 573 574 -177 -193 71 -193 -177 -193 70 -193 -193 -193 74 74 78 -193 -193 -177 -177 89 90 90 91 91 90 101 106 102 104 112 109 109 114 111 113 114 114 115 113 117 117 -193 -193 116 -193 117 120 -193 -193 -209 122 -193 124 127 128 -193 129 131 132 135 140 140 140 144 144 145 146 144 144 143 148 148 147 145 -193 -193 -209 -193 -193 -177 -177 973 -193 298 302 310 314 -209 -209 -209 180 181 182 184 0 0 0 0 0
    0 0 0 0 0 0 0 0 0 0 0 0 0 0 0 0 0 0 0 0 0 0 0 0 0 0 0 0 0 0 0 0 0 0 0 0 0 0 0 0 0 0 0 0 0 0 0 0 0 0 0 0 0 0 0 0 0 0 0 0 0 0 0 0 0 0 0 0 0 52 52 53 49 44 48 49 46 45 43 45 43 43 44 43 44 43 44 44 43 43 43 42 42 40 42 39 39 38 38 38 38 36 37 36 35 34 31 31 31 29 28 28 27 27 28 28 28 27 26 25 26 24 24 23 23 22 21 18 12 0 0 0 0 0 0 0 0 0 0 10 10 9 9 10 10 10 11 11 11 11 10 10 9 9 0 9 0 9 0 0 9 9 10 10 11 10 10 11 11 10 11 10 12 13 14 14 14 20 22 24 23 26 26 26 29 28 30 -177 29 32 33 34 34 34 40 39 41 42 42 41 -177 -177 52 -177 -193 74 -209 -209 -193 51 47 46 46 49 270 271 -193 -209 66 71 -193 574 574 -177 -193 -193 -193 -177 -193 70 -193 -193 -193 74 74 79 -193 -193 488 -193 89 91 91 91 91 90 101 106 102 103 111 108 109 113 110 112 114 114 115 112 117 116 -193 118 116 -193 117 -193 -193 -193 -209 122 -193 124 127 128 -193 129 131 132 135 141 140 140 143 145 144 146 144 144 143 148 148 147 146 -193 -177 -209 -193 -193 -177 -177 973 -193 300 303 310 313 -209 171 180 180 181 182 184 0 0 0 0 0
    0 0 0 0 0 0 0 0 0 0 0 0 0 0 0 0 0 0 0 0 0 0 0 0 0 0 0 0 0 0 0 0 0 0 0 0 0 0 0 0 0 0 0 0 0 0 0 0 0 0 0 0 0 0 0 0 0 0 0 0 0 0 0 0 0 0 0 0 0 53 52 53 50 -193 47 -193 45 45 43 45 43 43 43 43 44 43 44 44 43 43 44 -193 43 41 42 40 40 39 39 38 39 36 36 36 34 33 31 30 30 28 27 28 26 26 27 27 28 27 26 26 26 24 24 23 23 22 20 17 13 0 0 0 0 0 0 0 0 0 9 10 11 9 10 10 10 10 11 11 11 11 10 10 10 9 9 9 0 9 0 0 9 9 10 10 10 10 10 11 11 10 11 10 12 13 13 14 13 19 23 24 23 25 25 26 29 28 30 -177 29 32 34 34 34 35 40 40 41 42 42 41 -177 -177 -193 -177 -193 74 -209 -209 74 50 47 46 45 49 270 271 -193 -193 66 71 -193 574 575 -177 -177 -193 -209 461 -193 71 -193 -193 -193 75 74 79 -193 -193 489 -193 90 91 92 92 91 90 101 105 102 103 111 108 108 112 110 111 113 113 114 111 116 115 112 117 116 -193 117 -193 -193 -177 -193 123 -193 124 126 128 -193 129 130 131 134 141 140 140 143 145 144 146 144 145 143 147 148 147 -193 -177 -177 -177 -193 -193 -193 -193 971 -193 300 303 309 311 -209 171 179 180 180 182 183 0 0 0 0 0
    0 0 0 0 0 0 0 0 0 0 0 0 0 0 0 0 0 0 0 0 0 0 0 0 0 0 0 0 0 0 0 0 0 0 0 0 0 0 0 0 0 0 0 0 0 0 0 0 0 0 0 0 0 0 0 0 0 0 0 0 0 0 0 0 0 0 0 0 0 53 52 53 50 -193 47 -193 44 46 43 45 43 43 44 43 44 43 44 44 44 44 44 -193 43 41 42 40 40 38 39 37 39 36 36 35 34 32 30 29 30 28 27 28 26 26 27 27 28 27 26 26 26 24 24 23 22 21 19 17 14 9 0 0 0 0 0 0 9 9 10 11 11 10 10 10 10 10 10 11 10 11 10 10 10 9 9 9 9 9 0 0 8 9 10 10 10 10 10 10 11 10 10 10 11 13 13 14 14 19 24 25 23 26 25 26 29 28 30 -177 29 32 35 35 35 35 40 40 41 42 42 -193 -177 -177 -193 -177 -193 75 -193 -209 75 -193 46 46 45 49 270 272 -193 59 67 71 -193 574 576 -177 -177 -193 -209 461 -209 72 -193 -193 -193 76 75 79 -193 -193 489 -193 89 -193 91 91 91 90 100 104 101 103 110 107 107 111 109 109 112 111 112 110 115 115 111 116 116 -193 117 -209 -209 -177 -193 123 -193 124 126 128 123 128 129 131 134 140 140 140 142 145 144 146 145 145 143 147 148 148 -193 -193 -177 -193 -193 -193 -193 -193 970 -209 300 303 308 310 -193 171 179 180 180 181 183 0 0 0 0 0
    0 0 0 0 0 0 0 0 0 0 0 0 0 0 0 0 0 0 0 0 0 0 0 0 0 0 0 0 0 0 0 0 0 0 0 0 0 0 0 0 0 0 0 0 0 0 0 0 0 0 0 0 0 0 0 0 0 0 0 0 0 0 0 0 0 0 0 0 0 53 52 53 50 44 47 -193 44 46 43 45 44 43 44 43 44 43 44 44 44 44 45 43 43 41 43 40 40 38 38 37 38 35 35 35 32 31 29 29 29 27 26 28 26 26 27 27 27 27 26 26 25 24 24 22 22 20 18 18 15 10 9 0 0 0 0 9 9 10 11 11 11 10 10 11 10 10 11 11 10 10 10 9 9 0 0 0 9 9 9 9 9 9 10 10 10 10 10 10 11 10 10 10 11 13 13 14 14 20 25 26 23 27 26 27 30 28 30 -177 -177 -177 35 35 35 35 41 41 41 42 42 -193 -177 -177 -193 -177 -193 75 -209 -209 75 -193 -193 45 45 50 271 272 273 59 67 70 -193 574 576 574 -177 -193 -209 -177 -209 -193 76 -193 -193 76 75 79 -193 84 489 -193 89 -193 -193 91 91 90 99 103 100 102 108 106 106 109 108 108 111 110 111 109 114 114 111 115 116 -193 118 -209 -209 -177 -193 123 123 -193 -193 -193 -193 -193 129 130 133 -193 141 140 142 146 145 147 146 146 144 148 149 149 145 -193 -193 -193 -209 -193 -193 -193 -193 -209 -193 -193 -193 -193 -193 172 179 181 180 182 183 0 0 0 0 0
    0 0 0 0 0 0 0 0 0 0 0 0 0 0 0 0 0 0 0 0 0 0 0 0 0 0 0 0 0 0 0 0 0 0 0 0 0 0 0 0 0 0 0 0 0 0 0 0 0 0 0 0 0 0 0 0 0 0 0 0 0 0 0 0 0 0 0 0 0 53 53 53 51 45 48 -193 44 46 43 45 44 43 44 43 44 43 44 44 44 44 45 43 43 42 43 40 40 37 38 36 37 34 35 34 31 30 29 28 29 26 26 27 26 26 26 26 27 26 26 26 25 24 23 22 21 20 18 18 15 11 11 9 9 9 9 10 10 11 12 11 11 11 11 12 10 10 11 12 11 10 9 9 0 0 0 0 0 9 9 9 9 9 10 10 10 10 10 10 10 10 10 10 11 13 12 13 14 19 25 27 24 27 26 27 30 28 30 -177 -177 -177 35 36 36 36 41 41 41 41 41 -193 -177 -177 51 -177 -193 76 -209 -209 -193 509 514 46 46 51 272 274 -193 60 67 70 -193 575 576 574 -177 -193 -209 -177 -209 -209 76 76 -193 76 75 79 79 83 -193 -193 89 -193 -193 91 91 90 99 103 100 102 107 105 105 108 108 107 110 109 110 108 113 114 112 115 116 -193 -193 -209 -209 -177 -193 124 124 -193 -193 -193 -193 -193 128 130 133 -193 141 141 142 147 146 147 146 146 144 148 149 149 145 147 -193 149 -193 -209 -209 -193 -193 -193 -193 -193 -193 -193 -193 172 179 181 181 182 183 0 0 0 0 0
    0 0 0 0 0 0 0 0 0 0 0 0 0 0 0 0 0 0 0 0 0 0 0 0 0 0 0 0 0 0 0 0 0 0 0 0 0 0 0 0 0 0 0 0 0 0 0 0 0 0 0 0 0 0 0 0 0 0 0 0 0 0 0 0 0 0 0 0 0 53 53 54 52 45 49 49 44 46 44 45 44 43 44 43 44 43 44 44 44 44 45 43 44 42 43 40 40 36 38 36 37 33 34 33 31 30 29 28 28 25 25 27 25 25 25 26 26 26 26 26 25 23 23 21 20 19 18 18 16 13 13 11 11 11 10 12 11 12 12 12 12 12 11 12 10 11 12 13 11 11 10 9 0 0 0 0 0 9 9 9 9 10 10 10 10 10 10 9 10 10 9 9 10 12 12 13 13 19 26 27 24 27 26 27 30 28 30 -177 -177 -177 35 35 35 35 41 41 40 41 41 -193 -177 -177 51 -193 -193 76 -193 -209 -177 510 515 47 47 52 273 275 59 61 67 69 70 575 576 574 -177 -193 -209 -177 -209 -209 76 77 -193 76 75 79 79 83 -193 -193 89 -193 -193 91 92 90 99 102 100 102 106 104 105 107 108 107 110 109 110 108 112 113 112 114 117 -193 -193 -193 -193 -177 124 124 124 -193 -193 -193 -193 128 128 130 133 -193 142 141 142 147 145 147 146 146 144 147 149 149 144 146 145 148 -209 -209 -193 -177 -177 0 164 166 -193 -193 -193 171 178 181 181 182 183 0 0 0 0 0
    0 0 0 0 0 0 0 0 0 0 0 0 0 0 0 0 0 0 0 0 0 0 0 0 0 0 0 0 0 0 0 0 0 0 0 0 0 0 0 0 0 0 0 0 0 0 0 0 0 0 0 0 0 0 0 0 0 0 0 0 0 0 0 0 0 0 0 0 0 53 53 54 52 46 50 50 45 46 44 45 44 43 44 43 44 44 45 44 44 44 44 43 43 41 42 39 39 36 37 36 36 32 34 33 31 29 28 28 28 24 25 26 25 25 25 25 26 25 26 26 25 23 23 21 19 19 18 18 16 14 14 12 13 13 12 12 12 12 11 11 11 11 10 10 9 10 12 13 11 11 10 10 0 9 9 0 0 9 10 10 10 11 11 11 11 11 10 10 10 10 9 10 10 12 11 13 13 20 26 27 24 27 26 27 30 28 30 -177 -177 -177 35 35 35 35 41 41 40 41 41 -193 44 50 51 40 -193 -193 -193 -209 -177 -177 -193 48 49 53 274 -193 60 62 67 69 70 574 575 573 -177 -209 -209 -177 -193 -209 76 77 -193 76 75 79 79 82 84 -193 -193 -193 -193 91 91 90 98 102 100 102 105 105 105 107 108 107 110 109 110 108 111 113 112 114 117 -193 119 -193 -193 -177 124 124 124 992 -193 -193 -193 128 128 130 133 -193 142 141 142 147 145 146 146 145 143 145 148 148 142 145 144 147 -209 -193 -193 -177 -177 0 164 166 167 168 -193 171 177 181 181 182 -193 0 0 0 0 0
    0 0 0 0 0 0 0 0 0 0 0 0 0 0 0 0 0 0 0 0 0 0 0 0 0 0 0 0 0 0 0 0 0 0 0 0 0 0 0 0 0 0 0 0 0 0 0 0 0 0 0 0 0 0 0 0 0 0 0 0 0 0 0 0 0 0 0 0 0 53 53 54 52 46 51 50 45 47 44 45 44 43 44 43 44 44 45 44 44 44 44 43 44 42 42 39 39 35 37 35 35 31 32 31 30 28 28 27 28 24 24 26 24 25 24 25 25 -193 -193 26 24 22 23 20 18 19 18 18 17 15 15 13 15 15 13 13 12 12 11 10 10 10 9 9 0 9 11 12 11 10 10 10 9 9 10 9 9 10 11 11 11 12 11 12 11 11 10 10 10 10 9 10 10 12 11 12 14 20 26 27 23 26 26 26 29 28 29 -177 -177 31 35 35 35 35 40 40 39 41 41 41 44 50 50 40 -193 -193 -193 40 -177 -193 -193 51 51 54 -177 63 61 63 66 68 69 574 575 573 -193 -209 -209 -177 -193 -209 77 77 -193 76 75 79 79 81 83 -193 -209 495 -193 91 91 89 97 102 101 102 104 105 105 106 108 107 110 109 110 109 111 113 113 114 -193 115 120 -193 -193 -193 124 124 124 -177 -193 -193 -177 128 129 131 133 -193 143 141 142 146 144 145 145 144 143 144 147 146 141 144 144 146 -193 -193 -177 -177 0 0 163 166 167 168 170 171 177 181 181 182 -193 0 0 0 0 0
    0 0 0 0 0 0 0 0 0 0 0 0 0 0 0 0 0 0 0 0 0 0 0 0 0 0 0 0 0 0 0 0 0 0 0 0 0 0 0 0 0 0 0 0 0 0 0 0 0 0 0 0 0 0 0 0 0 0 0 0 0 0 0 0 0 0 0 0 0 53 53 54 52 46 50 50 45 46 44 45 44 43 44 43 45 44 45 44 44 44 44 43 44 42 42 39 39 35 36 35 34 30 31 30 29 28 27 27 28 24 24 26 24 24 24 24 25 -193 -193 26 23 22 22 20 17 19 18 18 17 16 16 14 16 15 13 13 13 13 11 11 11 11 9 9 0 9 10 11 10 10 9 9 9 10 10 10 10 12 12 12 12 12 12 12 12 11 11 10 10 10 9 10 10 12 11 12 13 19 25 26 23 26 25 25 28 27 28 28 -177 31 34 34 35 35 40 40 38 41 41 41 44 49 50 39 -193 -193 -193 40 -193 -209 -193 53 53 55 62 64 62 63 66 68 69 -193 574 572 -193 -193 -193 -177 -193 -209 77 77 -193 77 76 79 80 81 83 -193 -193 495 -193 90 90 89 97 103 101 102 104 105 105 106 109 107 110 109 110 109 111 113 113 113 -193 116 120 -193 -193 -193 124 124 124 -177 -177 -177 -177 128 130 132 133 -193 143 141 142 146 143 144 144 143 142 142 146 144 140 144 143 146 -193 -193 -177 -177 0 0 163 -193 -193 168 171 172 177 181 181 -193 -193 0 0 0 0 0
    0 0 0 0 0 0 0 0 0 0 0 0 0 0 0 0 0 0 0 0 0 0 0 0 0 0 0 0 0 0 0 0 0 0 0 0 0 0 0 0 0 0 0 0 0 0 0 0 0 0 0 0 0 0 0 0 0 0 0 0 0 0 0 0 0 0 0 0 0 53 53 53 52 46 50 50 45 46 44 44 44 43 44 43 45 44 45 44 44 44 44 43 44 41 42 38 39 35 36 35 34 29 30 29 29 27 27 27 27 24 24 26 24 23 23 24 24 -193 -193 25 22 21 21 20 17 19 18 19 18 17 17 15 17 17 14 14 14 13 11 10 11 10 0 0 0 0 9 10 9 9 9 9 9 10 11 11 12 13 13 14 13 13 13 13 12 11 11 10 10 10 10 9 10 11 11 12 13 19 24 25 22 25 24 25 28 27 27 27 28 30 33 33 34 34 40 39 38 41 41 41 43 49 49 38 -193 -193 -209 -193 -209 -209 -193 55 56 56 63 65 62 64 66 67 69 67 -193 -177 68 -193 -193 -177 -193 -209 77 77 -193 77 76 79 80 80 82 80 87 495 -177 89 89 88 95 102 101 101 103 105 105 105 -193 107 110 109 110 110 111 113 114 113 -177 -193 -193 -193 -193 -193 -193 123 123 -177 -177 -177 -193 128 130 132 133 -193 -193 141 141 145 143 144 143 142 141 141 145 143 139 144 -193 -193 -193 -177 -177 0 0 0 163 -193 -193 169 172 173 177 182 181 -193 -193 0 0 0 0 0
    0 0 0 0 0 0 0 0 0 0 0 0 0 0 0 0 0 0 0 0 0 0 0 0 0 0 0 0 0 0 0 0 0 0 0 0 0 0 0 0 0 0 0 0 0 0 0 0 0 0 0 0 0 0 0 0 0 0 0 0 0 0 0 0 0 0 0 0 0 52 53 53 52 46 51 50 45 46 45 45 44 43 44 43 45 44 46 44 44 44 44 43 43 41 42 38 38 34 36 35 34 30 31 30 29 28 28 27 28 24 24 26 23 23 23 24 24 -193 25 25 21 21 21 19 16 19 18 19 18 17 18 16 18 18 15 15 15 14 12 11 12 11 9 9 0 0 9 9 9 9 9 9 9 10 11 11 12 13 13 13 13 14 13 13 12 11 11 10 10 10 9 9 10 11 11 11 12 18 24 24 22 24 24 24 27 26 27 27 28 30 33 33 34 34 39 39 38 41 41 41 43 48 48 38 -193 -193 -193 -193 -209 70 -193 57 58 58 64 66 63 64 66 67 68 67 68 -193 67 70 -193 -177 -193 -209 76 76 -193 76 76 78 80 79 82 79 85 -177 -177 88 88 86 93 102 101 101 103 106 106 106 -193 108 111 110 110 110 111 113 114 -193 -177 -193 -193 -193 -193 -193 -193 123 122 -177 -177 -177 -193 127 131 132 133 -193 -193 140 141 144 142 143 143 142 141 141 145 142 -193 147 -193 -193 -193 0 0 0 0 0 -193 -193 -193 -193 -193 173 -177 -177 -177 -177 -193 0 0 0 0 0
    0 0 0 0 0 0 0 0 0 0 0 0 0 0 0 0 0 0 0 0 0 0 0 0 0 0 0 0 0 0 0 0 0 0 0 0 0 0 0 0 0 0 0 0 0 0 0 0 0 0 0 0 0 0 0 0 0 0 0 0 0 0 0 0 0 0 0 0 0 52 52 53 52 46 52 50 45 46 45 45 44 43 44 43 45 44 46 44 44 44 44 43 43 41 42 38 39 34 36 35 33 30 32 31 30 28 28 27 28 24 24 26 23 23 23 24 23 23 24 24 21 22 21 20 16 19 19 19 18 17 18 16 18 19 16 15 14 14 12 11 12 11 9 9 0 0 9 9 9 9 9 9 9 10 11 11 12 13 13 13 13 14 14 14 13 12 12 11 10 10 10 9 9 10 10 10 11 17 23 23 21 24 23 23 26 26 26 27 27 29 32 32 33 33 39 38 37 41 41 41 43 47 47 38 -193 -193 -193 -193 -193 69 59 58 59 59 65 66 63 65 66 67 68 67 68 -193 68 70 -193 -177 -193 -193 75 75 -209 -193 75 78 80 78 81 78 84 -177 715 -193 87 86 93 103 102 102 103 109 107 107 112 109 112 110 111 111 110 113 114 -177 -177 -193 -193 -193 -177 814 -193 122 122 -177 -193 -193 -193 127 131 -193 -193 -193 -193 140 141 144 142 142 142 141 140 140 143 140 -209 -209 -193 -209 -193 -193 -177 0 0 0 -193 -193 -193 170 172 173 176 180 181 -177 -193 0 0 0 0 0
    0 0 0 0 0 0 0 0 0 0 0 0 0 0 0 0 0 0 0 0 0 0 0 0 0 0 0 0 0 0 0 0 0 0 0 0 0 0 0 0 0 0 0 0 0 0 0 0 0 0 0 0 0 0 0 0 0 0 0 0 0 0 0 0 0 0 0 0 0 51 52 53 52 46 52 51 46 46 46 45 44 44 44 43 46 44 47 44 44 44 44 43 43 41 42 38 39 35 36 35 33 30 32 31 30 28 28 28 28 24 24 25 23 22 22 24 23 23 24 24 22 22 22 20 18 20 19 20 19 18 19 16 19 19 16 15 14 14 13 12 12 12 10 10 9 9 10 9 9 9 9 10 9 11 11 11 13 13 13 14 13 14 14 14 13 12 12 11 10 10 10 9 9 9 9 9 10 14 21 22 20 23 22 23 26 25 26 27 27 29 31 32 33 33 38 38 38 42 42 42 44 47 47 40 48 -193 42 44 55 68 60 59 60 60 65 66 64 65 66 67 68 67 68 -193 68 70 -193 -193 -193 -193 -193 -209 -209 -193 -193 77 79 78 79 77 83 -193 -193 87 86 84 93 103 104 104 104 111 108 109 113 110 113 111 112 112 110 113 114 -177 -177 -193 -193 -177 -177 814 -209 122 122 -177 -193 -193 -193 127 131 -193 131 -193 -193 140 141 143 141 141 141 140 140 139 141 139 -193 -209 -193 -209 -209 -193 -177 0 0 0 -193 -193 -209 170 172 173 175 180 181 -177 -177 0 0 0 0 0
    0 0 0 0 0 0 0 0 0 0 0 0 0 0 0 0 0 0 0 0 0 0 0 0 0 0 0 0 0 0 0 0 0 0 0 0 0 0 0 0 0 0 0 0 0 0 0 0 0 0 0 0 0 0 0 0 0 0 0 0 0 0 0 0 0 0 0 0 0 51 52 53 52 46 53 52 46 46 46 46 44 44 44 43 47 44 47 44 44 44 43 43 43 41 42 38 40 37 36 36 34 31 33 33 31 29 29 28 28 24 24 25 22 22 22 23 23 22 24 23 22 22 22 21 19 20 20 20 20 19 19 17 19 19 17 16 15 14 14 12 12 11 10 10 9 9 10 0 0 0 0 10 9 11 11 11 13 13 13 14 13 14 14 14 13 12 12 11 10 10 9 0 0 9 9 0 0 12 20 21 20 23 21 22 25 25 25 26 27 28 31 32 33 34 38 39 39 42 43 43 44 47 47 41 47 46 44 47 55 67 60 60 60 60 64 66 64 65 65 67 68 67 68 67 68 70 -193 -177 -193 -193 -193 -209 -209 -193 -193 76 79 77 78 77 81 85 85 86 85 81 92 103 104 104 104 112 109 110 114 111 113 111 112 112 110 113 114 -177 -177 -193 -193 -177 -177 -177 -209 -193 121 -177 124 126 125 127 131 132 131 136 -193 139 140 143 141 141 140 140 140 139 141 139 137 -209 -193 -209 -193 -193 -193 0 0 0 -193 168 169 170 172 173 175 180 180 -177 -177 0 0 0 0 0
    0 0 0 0 0 0 0 0 0 0 0 0 0 0 0 0 0 0 0 0 0 0 0 0 0 0 0 0 0 0 0 0 0 0 0 0 0 0 0 0 0 0 0 0 0 0 0 0 0 0 0 0 0 0 0 0 0 0 0 0 0 0 0 0 0 0 0 0 0 51 52 52 52 46 52 52 46 46 46 46 45 44 44 43 47 45 47 44 44 44 43 43 43 41 42 38 40 37 37 37 35 34 35 35 33 30 30 28 28 24 24 25 23 22 22 23 23 22 24 23 22 22 22 21 20 21 21 21 20 19 19 17 19 19 17 16 15 15 17 13 14 13 11 11 10 10 10 0 0 0 0 9 9 10 11 11 13 13 13 14 13 14 14 14 13 12 12 11 10 9 9 0 0 0 0 0 0 11 17 20 19 23 21 22 24 25 25 26 27 28 31 32 33 34 38 39 39 42 43 43 45 48 48 43 49 47 47 48 55 66 61 60 61 61 64 66 64 65 65 67 68 67 68 68 68 70 -193 -193 -193 -209 -209 -209 -209 -193 -193 75 78 76 77 76 80 84 84 85 84 79 91 103 104 104 104 113 110 110 114 111 114 111 112 112 110 113 114 -177 -177 -193 118 -193 -193 -193 -193 -193 121 -177 125 127 126 127 132 132 131 135 138 138 140 142 140 140 140 140 140 139 141 140 138 146 -193 -193 154 155 -193 -193 -193 0 -193 168 169 170 172 173 174 179 180 180 181 0 0 0 0 0
    0 0 0 0 0 0 0 0 0 0 0 0 0 0 0 0 0 0 0 0 0 0 0 0 0 0 0 0 0 0 0 0 0 0 0 0 0 0 0 0 0 0 0 0 0 0 0 0 0 0 0 0 0 0 0 0 0 0 0 0 0 0 0 0 0 0 0 0 0 50 51 52 51 45 52 51 45 46 46 46 45 44 44 43 48 45 48 44 44 44 44 44 43 42 42 39 41 39 39 38 37 36 37 36 34 31 30 28 28 24 24 25 23 22 22 23 23 22 23 23 23 23 23 22 21 21 21 21 21 20 20 18 20 20 18 17 17 19 20 16 18 17 15 15 13 10 9 0 0 0 0 0 0 9 10 11 13 13 13 14 13 14 14 14 13 12 12 12 10 9 9 0 0 0 9 0 0 10 14 18 18 23 21 22 -193 25 25 26 28 28 31 31 33 34 38 39 40 42 43 44 45 48 48 43 48 47 46 48 54 64 60 61 61 61 63 65 64 65 64 66 68 67 68 68 68 70 70 -193 -177 -209 -209 -209 72 -193 75 75 78 76 77 76 80 83 84 84 83 78 91 102 104 104 104 113 110 110 114 111 114 111 113 113 110 113 114 -177 -177 111 117 119 119 119 -193 -193 121 -193 125 127 127 128 132 132 132 135 -193 -193 139 142 140 140 140 140 140 140 142 141 139 149 -209 -209 154 155 157 -193 -193 0 166 168 168 169 171 172 173 178 179 180 179 0 0 0 0 0
    0 0 0 0 0 0 0 0 0 0 0 0 0 0 0 0 0 0 0 0 0 0 0 0 0 0 0 0 0 0 0 0 0 0 0 0 0 0 0 0 0 0 0 0 0 0 0 0 0 0 0 0 0 0 0 0 0 0 0 0 0 0 0 0 0 0 0 0 0 50 51 52 52 46 53 52 46 47 46 46 46 44 44 44 48 45 48 45 44 45 44 44 44 42 43 40 42 41 41 40 39 38 37 36 34 32 30 27 27 24 24 25 23 22 22 23 23 22 23 23 23 23 23 22 21 22 22 22 22 20 21 19 21 21 20 19 20 22 23 19 21 20 20 20 17 12 10 0 0 0 0 0 0 0 9 10 12 12 12 13 12 13 13 13 13 11 11 11 10 9 0 0 0 0 9 0 0 9 12 16 18 23 22 23 25 26 26 27 29 29 31 32 34 35 38 39 40 42 43 44 45 47 47 43 47 46 45 46 54 61 60 61 61 60 62 64 63 64 63 66 67 66 67 68 68 70 70 69 -177 -209 -193 -209 -193 74 75 75 79 76 77 77 80 82 84 84 83 78 90 102 105 105 105 113 110 110 114 111 114 111 113 113 110 114 114 -193 -193 110 116 118 119 119 -193 121 122 -193 126 128 128 128 132 132 132 134 -193 -193 139 142 140 140 141 140 141 140 144 144 141 150 -209 -209 154 155 157 -193 160 -193 165 166 167 168 170 171 172 175 178 178 178 0 0 0 0 0
    0 0 0 0 0 0 0 0 0 0 0 0 0 0 0 0 0 0 0 0 0 0 0 0 0 0 0 0 0 0 0 0 0 0 0 0 0 0 0 0 0 0 0 0 0 0 0 0 0 0 0 0 0 0 0 0 0 0 0 0 0 0 0 0 0 0 0 0 0 50 52 52 52 46 54 53 47 48 48 47 47 45 44 44 49 46 49 45 45 45 45 45 44 43 44 41 42 42 41 41 40 40 39 37 36 33 30 27 27 25 24 24 23 22 22 23 23 22 23 23 23 23 23 23 22 23 22 23 22 21 22 21 22 22 22 21 23 25 24 21 22 21 22 21 20 14 11 0 0 0 0 0 0 0 0 9 10 11 11 12 12 13 13 13 13 11 11 11 10 0 0 0 0 0 0 0 0 9 11 14 19 25 23 24 27 27 28 29 30 30 31 33 34 35 38 39 41 42 43 44 45 47 47 43 47 46 45 46 52 58 59 60 60 60 62 64 64 64 64 66 68 67 67 68 69 70 70 69 -193 70 73 -193 -193 74 75 76 80 77 78 78 81 82 84 85 84 79 90 102 105 104 104 113 110 110 114 111 113 111 113 113 110 114 114 110 117 112 117 119 120 -193 -209 122 123 124 126 128 128 129 132 132 132 134 136 -193 139 142 141 140 142 141 142 141 145 145 143 149 -193 -209 154 155 156 157 159 163 163 165 165 166 167 -193 169 172 175 176 176 0 0 0 0 0
    0 0 0 0 0 0 0 0 0 0 0 0 0 0 0 0 0 0 0 0 0 0 0 0 0 0 0 0 0 0 0 0 0 0 0 0 0 0 0 0 0 0 0 0 0 0 0 0 0 0 0 0 0 0 0 0 0 0 0 0 0 0 0 0 0 0 0 0 0 50 52 52 52 47 54 54 47 49 48 48 47 45 45 44 49 46 48 45 44 45 45 45 44 43 44 41 43 43 42 41 41 41 40 39 38 36 32 28 28 26 24 24 23 23 22 23 23 22 23 24 24 23 24 24 23 23 23 23 22 21 22 21 22 22 23 23 26 28 28 24 24 23 24 23 22 18 13 0 0 0 0 0 0 0 0 0 9 10 11 11 11 13 12 13 13 12 11 11 10 0 0 0 0 0 0 0 0 0 12 14 20 30 25 26 28 28 28 29 30 31 31 34 34 35 38 39 41 42 43 44 45 47 48 43 47 46 45 45 51 56 58 58 59 59 60 63 63 64 63 66 67 66 68 68 68 70 70 69 71 70 73 72 74 75 76 77 81 78 79 79 82 83 85 86 85 81 90 102 105 104 104 113 109 110 113 111 113 112 113 113 110 115 115 111 117 113 117 119 120 -193 -177 122 124 124 127 128 129 129 132 132 133 134 137 -209 139 142 142 140 143 141 143 142 145 146 144 149 150 -193 153 154 156 157 158 161 160 163 162 164 164 166 167 169 173 174 174 0 0 0 0 0
    0 0 0 0 0 0 0 0 0 0 0 0 0 0 0 0 0 0 0 0 0 0 0 0 0 0 0 0 0 0 0 0 0 0 0 0 0 0 0 0 0 0 0 0 0 0 0 0 0 0 0 0 0 0 0 0 0 0 0 0 0 0 0 0 0 0 0 0 0 50 51 52 52 47 55 54 47 49 48 48 47 45 45 45 49 46 48 45 44 45 44 44 44 43 43 41 43 43 42 41 41 41 41 40 40 38 34 29 30 28 24 24 23 23 23 23 23 23 23 24 24 23 24 25 24 24 24 24 23 22 23 22 22 22 24 24 27 28 29 26 25 25 26 25 25 22 15 9 0 0 0 0 0 0 0 0 0 10 11 12 12 13 13 13 14 12 11 11 10 0 0 0 0 0 0 0 0 0 12 15 22 31 26 27 28 29 29 29 31 31 30 34 34 35 39 39 41 42 43 44 45 47 48 44 47 46 45 46 50 54 56 57 58 58 59 62 62 63 63 65 66 65 67 68 68 70 70 69 72 71 74 72 76 77 77 78 82 80 81 81 83 85 86 87 86 85 90 102 105 103 104 112 109 109 113 111 113 111 113 113 110 115 115 112 117 114 117 119 120 121 -193 122 124 124 127 129 129 129 132 132 133 134 137 -209 139 141 142 141 143 141 144 143 146 147 146 149 150 -193 153 154 156 157 157 159 159 162 160 162 162 164 165 167 -193 172 172 0 0 0 0 0
    0 0 0 0 0 0 0 0 0 0 0 0 0 0 0 0 0 0 0 0 0 0 0 0 0 0 0 0 0 0 0 0 0 0 0 0 0 0 0 0 0 0 0 0 0 0 0 0 0 0 0 0 0 0 0 0 0 0 0 0 0 0 0 0 0 0 0 0 0 50 51 52 52 47 55 54 47 50 49 48 48 45 45 45 48 46 48 44 44 44 44 44 44 43 43 41 43 43 42 41 41 41 41 41 41 40 36 31 32 31 24 24 23 23 23 23 23 23 23 24 24 24 24 25 24 25 24 24 24 23 23 23 22 23 25 25 27 28 30 27 26 26 27 26 26 25 19 10 10 0 0 0 0 0 0 0 0 11 11 13 12 14 14 14 14 13 11 11 9 0 0 0 0 0 0 9 9 9 15 18 22 30 27 28 28 29 29 30 31 32 31 35 34 36 39 40 42 43 44 44 45 47 48 44 48 46 45 47 50 53 55 57 58 58 58 61 61 62 61 62 62 62 65 67 64 68 69 70 73 72 75 73 78 78 80 81 84 82 83 83 85 86 88 88 87 86 89 101 104 102 103 111 108 108 111 110 111 110 112 112 109 115 115 112 118 115 117 119 120 121 -193 122 124 124 127 128 129 129 131 131 133 133 136 135 138 140 141 141 143 142 145 143 146 148 147 149 150 -193 -193 -193 155 156 -193 159 159 162 160 162 162 163 165 166 -177 171 171 0 0 0 0 0
    0 0 0 0 0 0 0 0 0 0 0 0 0 0 0 0 0 0 0 0 0 0 0 0 0 0 0 0 0 0 0 0 0 0 0 0 0 0 0 0 0 0 0 0 0 0 0 0 0 0 0 0 0 0 0 0 0 0 0 0 0 0 0 0 0 0 0 0 0 50 51 52 52 46 55 54 47 50 49 48 47 45 45 45 48 46 47 44 44 44 45 44 44 43 43 41 43 43 43 42 42 42 42 41 42 41 38 34 33 34 24 24 23 23 23 23 23 23 22 23 24 24 24 25 24 24 24 24 23 23 23 23 22 23 25 25 27 29 31 28 27 28 28 28 28 27 25 14 17 0 0 0 0 0 0 0 0 11 12 13 13 14 15 14 14 13 11 10 9 0 0 0 0 0 0 10 10 11 18 21 23 30 27 28 29 30 30 30 32 32 30 35 33 36 39 40 42 42 44 44 45 47 48 44 47 45 45 47 50 52 55 58 58 58 58 60 60 60 60 60 59 60 62 63 59 61 63 68 74 73 75 72 81 80 82 83 85 84 85 85 86 87 88 88 87 87 89 98 102 100 102 109 107 107 110 109 111 110 111 112 109 114 115 113 118 116 117 119 120 121 -193 121 124 124 126 128 129 128 131 131 133 133 136 135 137 139 141 141 143 142 145 144 147 148 148 149 150 -193 153 153 155 156 157 159 159 161 159 161 161 162 164 165 -177 -193 170 0 0 0 0 0
    0 0 0 0 0 0 0 0 0 0 0 0 0 0 0 0 0 0 0 0 0 0 0 0 0 0 0 0 0 0 0 0 0 0 0 0 0 0 0 0 0 0 0 0 0 0 0 0 0 0 0 0 0 0 0 0 0 0 0 0 0 0 0 0 0 0 0 0 0 49 50 51 51 45 54 54 46 49 49 48 47 45 45 45 48 46 47 44 44 44 45 44 44 43 44 42 43 44 44 42 43 42 43 42 43 42 39 37 36 36 25 24 23 24 23 23 23 24 22 24 25 24 24 25 25 25 24 24 24 23 23 23 22 23 25 25 27 29 32 29 29 29 29 29 29 28 27 22 22 11 0 0 0 0 0 0 9 12 12 14 13 15 14 14 14 13 11 10 0 0 0 0 0 0 9 13 12 12 18 20 22 28 27 28 29 30 30 30 32 33 30 35 33 36 39 40 41 42 44 44 45 46 47 43 46 44 43 45 49 52 55 59 58 58 59 60 60 60 60 60 58 59 59 61 56 57 60 69 74 73 73 72 82 82 84 85 86 85 86 86 86 86 88 88 87 87 88 92 100 98 101 107 107 107 109 109 110 110 111 112 109 114 116 114 118 117 118 119 120 121 -193 122 124 124 126 128 129 128 131 131 133 132 135 135 137 138 141 141 143 142 146 145 147 148 148 149 151 -193 -193 154 156 157 157 159 159 161 159 162 161 162 165 165 -193 170 170 0 0 0 0 0
    0 0 0 0 0 0 0 0 0 0 0 0 0 0 0 0 0 0 0 0 0 0 0 0 0 0 0 0 0 0 0 0 0 0 0 0 0 0 0 0 0 0 0 0 0 0 0 0 0 0 0 0 0 0 0 0 0 0 0 0 0 0 0 0 0 0 0 0 0 49 50 51 51 45 54 54 46 49 49 48 47 45 45 45 48 46 47 44 44 44 46 45 44 43 45 42 44 44 44 42 43 42 42 42 43 42 39 37 37 37 25 25 24 24 23 23 23 24 22 24 25 24 23 25 24 25 24 24 24 23 23 24 21 23 25 25 27 29 32 29 30 30 30 29 29 28 28 25 25 14 0 0 0 0 0 9 10 13 13 14 14 15 15 14 14 14 11 10 0 9 0 0 0 0 9 14 14 14 18 20 21 27 26 27 28 29 30 30 32 33 30 36 33 36 40 41 42 43 44 44 44 45 46 42 44 44 42 44 48 49 54 58 57 57 58 59 59 59 60 60 58 59 59 61 56 57 59 67 71 71 73 72 82 82 84 85 86 86 86 87 86 86 88 88 87 87 87 89 97 97 101 105 106 106 107 108 108 109 110 111 109 113 115 115 118 117 118 119 120 122 -193 122 124 124 126 127 129 128 130 131 132 132 -193 135 137 137 141 141 143 142 147 145 147 149 149 150 151 -177 -193 -193 156 157 157 159 159 161 160 162 161 163 166 166 168 170 170 0 0 0 0 0
    0 0 0 0 0 0 0 0 0 0 0 0 0 0 0 0 0 0 0 0 0 0 0 0 0 0 0 0 0 0 0 0 0 0 0 0 0 0 0 0 0 0 0 0 0 0 0 0 0 0 0 0 0 0 0 0 0 0 0 0 0 0 0 0 0 0 0 0 0 49 49 50 50 44 53 54 46 49 48 48 47 46 45 46 48 46 46 45 45 45 46 45 45 43 45 43 44 44 44 42 43 43 43 42 43 42 40 39 38 38 27 25 24 24 24 24 24 24 22 24 25 24 23 25 24 25 24 24 23 23 23 23 20 23 24 24 27 28 32 29 29 29 30 29 29 28 29 26 26 23 11 0 9 0 9 10 10 14 14 15 15 17 16 15 15 15 12 10 9 10 9 0 0 0 9 17 15 15 20 20 21 26 25 27 28 29 30 31 32 34 31 37 33 37 40 42 43 44 45 45 44 46 47 43 45 45 42 45 49 48 53 58 57 57 58 59 59 59 60 60 58 59 60 61 57 55 58 64 68 70 71 71 80 81 84 86 86 87 87 87 86 87 88 88 87 88 87 89 95 96 101 104 105 105 107 108 108 109 110 111 108 112 115 115 117 117 117 119 -193 122 -193 122 124 124 125 127 128 128 129 130 132 132 -193 135 137 137 141 141 143 142 147 145 147 149 149 -193 -193 -177 -193 -193 156 157 158 159 159 161 161 163 162 164 167 167 169 171 170 0 0 0 0 0
    0 0 0 0 0 0 0 0 0 0 0 0 0 0 0 0 0 0 0 0 0 0 0 0 0 0 0 0 0 0 0 0 0 0 0 0 0 0 0 0 0 0 0 0 0 0 0 0 0 0 0 0 0 0 0 0 0 0 0 0 0 0 0 0 0 0 0 0 0 48 48 49 49 43 51 54 46 49 48 48 47 46 46 46 48 46 46 45 44 44 45 45 44 43 45 43 43 43 43 42 42 42 43 42 43 42 40 39 38 39 28 26 25 25 24 24 24 24 22 24 25 24 23 25 24 24 24 23 23 23 23 23 20 22 24 23 26 27 32 29 29 30 30 29 29 28 29 26 27 25 18 10 11 11 12 12 12 15 14 16 16 18 17 16 16 17 13 11 10 11 10 9 9 0 9 17 16 15 20 20 21 25 25 27 28 29 30 31 32 33 31 36 32 36 40 42 43 45 45 45 45 46 47 44 47 46 43 47 51 50 53 58 57 58 58 60 60 60 61 61 59 61 61 62 57 56 58 65 70 71 72 72 77 82 85 88 86 88 89 88 87 88 88 88 87 88 87 88 95 97 101 104 105 106 107 108 108 109 109 110 108 110 112 113 115 116 116 119 -193 -193 121 121 123 124 125 126 127 127 128 129 131 131 -193 134 -209 137 141 142 143 142 147 145 147 149 149 -193 -193 -177 -193 154 157 157 158 159 159 161 161 163 163 165 168 168 169 171 171 0 0 0 0 0
    0 0 0 0 0 0 0 0 0 0 0 0 0 0 0 0 0 0 0 0 0 0 0 0 0 0 0 0 0 0 0 0 0 0 0 0 0 0 0 0 0 0 0 0 0 0 0 0 0 0 0 0 0 0 0 0 0 0 0 0 0 0 0 0 0 0 0 0 0 48 47 49 49 43 49 54 46 49 48 48 47 46 47 46 48 46 45 44 44 44 45 44 44 42 44 42 42 42 43 42 42 42 43 42 43 43 41 39 39 39 29 26 25 25 25 24 24 25 22 24 25 24 23 25 24 24 24 23 24 23 23 23 20 23 23 22 25 25 32 29 30 30 31 29 30 29 30 26 28 26 23 16 16 16 18 18 14 17 15 17 18 20 18 17 16 18 14 13 10 12 11 0 0 0 9 17 16 15 20 20 21 24 25 27 28 29 29 30 31 32 31 35 31 36 41 42 43 45 46 46 46 47 47 44 47 47 43 48 52 51 54 58 57 58 58 59 59 59 60 60 57 59 59 59 52 53 57 67 71 70 71 71 75 82 86 89 87 89 89 89 88 88 88 88 87 88 88 89 96 98 102 104 106 106 107 108 108 109 109 110 108 109 111 111 113 115 114 117 118 119 119 119 121 122 123 125 125 125 126 127 130 129 -193 -193 -177 -193 141 142 143 142 148 145 147 149 149 -193 -193 -193 154 155 157 158 158 159 159 161 161 163 163 165 168 168 169 171 171 0 0 0 0 0
    0 0 0 0 0 0 0 0 0 0 0 0 0 0 0 0 0 0 0 0 0 0 0 0 0 0 0 0 0 0 0 0 0 0 0 0 0 0 0 0 0 0 0 0 0 0 0 0 0 0 0 0 0 0 0 0 0 0 0 0 0 0 0 0 0 0 0 0 0 48 47 49 49 43 49 54 46 49 48 48 47 47 47 47 48 46 45 45 45 44 45 44 44 42 44 43 43 43 43 42 43 43 43 42 43 43 41 39 39 39 30 27 26 25 25 25 25 25 22 25 25 25 23 25 24 24 24 24 24 23 23 24 21 23 23 21 23 24 31 29 31 31 31 30 30 30 31 27 29 26 24 20 19 20 21 20 15 17 16 18 18 20 19 17 17 18 14 13 10 12 12 0 0 0 11 15 13 12 17 20 20 24 24 27 27 29 29 30 31 32 31 34 31 36 41 42 43 46 46 46 46 47 47 44 47 47 44 49 52 52 54 58 57 58 58 58 59 58 59 59 53 58 55 56 45 48 56 69 -193 -193 73 73 74 80 84 88 86 88 88 88 88 88 88 88 87 89 89 89 96 99 103 104 106 106 107 108 108 109 108 109 108 107 109 109 110 113 111 116 117 118 116 116 119 120 121 121 122 122 122 124 -193 -193 -193 132 -193 -193 139 141 141 142 148 145 147 149 150 151 -209 -193 154 155 158 158 158 160 160 162 162 164 164 165 168 169 170 171 171 0 0 0 0 0
    0 0 0 0 0 0 0 0 0 0 0 0 0 0 0 0 0 0 0 0 0 0 0 0 0 0 0 0 0 0 0 0 0 0 0 0 0 0 0 0 0 0 0 0 0 0 0 0 0 0 0 0 0 0 0 0 0 0 0 0 0 0 0 0 0 0 0 0 0 49 47 49 49 42 50 55 46 49 48 48 47 47 48 47 49 47 45 45 45 44 46 44 44 43 44 43 43 43 44 43 44 43 43 42 44 43 41 40 39 39 31 28 26 26 25 25 25 26 23 25 26 25 24 25 24 25 25 25 25 24 24 24 23 24 23 20 19 23 30 29 31 31 31 30 30 30 31 28 30 27 25 23 22 23 23 22 18 18 17 19 21 22 19 18 17 18 15 13 10 13 13 -193 0 0 12 -193 12 12 15 20 20 23 24 26 27 29 29 30 31 32 31 34 31 37 42 43 44 47 47 47 47 47 47 45 47 47 44 49 52 52 55 58 57 58 58 58 59 58 59 59 54 57 50 53 45 48 56 69 -193 -193 73 73 74 79 83 87 86 87 87 87 87 87 88 88 87 89 89 90 96 99 103 105 106 106 107 108 108 109 108 109 108 107 108 107 106 109 107 112 115 117 115 115 118 119 119 118 121 121 121 124 125 126 129 131 134 135 139 141 141 142 148 146 147 149 149 150 -209 -193 154 155 158 159 159 161 161 162 163 165 165 166 170 169 170 171 171 0 0 0 0 0
    0 0 0 0 0 0 0 0 0 0 0 0 0 0 0 0 0 0 0 0 0 0 0 0 0 0 0 0 0 0 0 0 0 0 0 0 0 0 0 0 0 0 0 0 0 0 0 0 0 0 0 0 0 0 0 0 0 0 0 0 0 0 0 0 0 0 0 0 0 49 47 49 49 41 46 55 45 48 47 47 47 47 48 47 48 47 45 46 45 44 46 44 43 43 44 44 43 43 44 43 44 44 43 43 44 43 42 40 39 39 32 29 27 26 25 25 25 26 24 26 27 26 25 26 26 27 26 26 26 25 24 25 23 23 21 20 19 23 28 29 31 31 31 31 31 31 32 28 30 27 26 24 24 24 24 22 20 18 19 22 25 25 17 14 14 15 13 10 9 13 15 -193 -193 0 0 94 -193 11 12 19 19 23 24 27 27 29 29 30 30 31 31 34 32 37 42 43 43 48 47 47 47 47 47 45 47 47 44 49 52 52 54 57 57 58 59 59 60 59 60 61 58 61 58 58 52 53 59 70 -193 -193 73 73 74 79 82 87 85 86 86 87 86 87 87 88 87 89 90 91 96 100 104 105 108 107 108 109 109 109 108 109 108 107 107 105 101 -193 86 -193 -193 -209 107 110 117 121 121 119 122 122 123 126 129 131 132 134 137 138 142 144 143 144 148 147 148 149 150 150 153 154 155 156 158 159 161 162 162 162 165 166 167 168 172 170 171 172 172 0 0 0 0 0
    0 0 0 0 0 0 0 0 0 0 0 0 0 0 0 0 0 0 0 0 0 0 0 0 0 0 0 0 0 0 0 0 0 0 0 0 0 0 0 0 0 0 0 0 0 0 0 0 0 0 0 0 0 0 0 0 0 0 0 0 0 0 0 0 0 0 0 0 0 50 47 49 48 -193 43 -193 44 47 46 46 47 47 48 47 48 48 45 46 45 45 45 44 43 43 44 44 43 44 44 43 44 45 43 43 44 43 42 40 40 39 34 30 28 27 26 26 25 26 25 27 28 27 26 27 26 28 27 26 26 26 24 25 23 24 22 21 21 23 27 29 31 30 31 31 31 31 31 29 30 27 28 26 25 24 24 22 20 17 -225 -225 -225 -225 -225 -225 12 12 12 0 0 14 20 30 -193 0 0 -177 103 10 10 17 17 21 23 26 27 29 29 30 30 31 31 33 33 37 42 43 43 48 46 47 47 47 48 46 48 48 45 50 52 52 54 56 56 58 58 59 60 59 60 61 60 62 60 63 59 59 67 73 75 74 74 75 74 78 81 87 85 86 87 88 87 87 87 88 88 89 90 91 94 99 104 105 107 107 108 110 109 109 108 109 108 107 107 105 98 -193 83 83 86 86 88 -193 -209 120 -193 114 118 119 122 125 131 135 135 137 140 142 146 147 146 147 148 149 150 151 151 152 155 156 156 157 158 160 161 163 164 163 167 169 169 170 173 171 172 172 172 0 0 0 0 0
    0 0 0 0 0 0 0 0 0 0 0 0 0 0 0 0 0 0 0 0 0 0 0 0 0 0 0 0 0 0 0 0 0 0 0 0 0 0 0 0 0 0 0 0 0 0 0 0 0 0 0 0 0 0 0 0 0 0 0 0 0 0 0 0 0 0 0 0 0 50 47 49 48 -209 -209 -209 44 47 45 46 47 47 49 47 48 48 45 46 45 44 45 43 43 43 44 44 43 43 44 43 44 44 43 42 43 43 42 40 40 40 35 33 30 28 27 27 26 27 25 27 29 28 27 28 27 29 27 26 27 26 24 25 23 24 22 21 22 23 26 29 30 30 32 33 33 34 34 33 35 33 32 28 26 25 25 23 20 -225 -225 -225 -225 -225 -225 -225 -225 -225 -225 -225 -225 -225 -225 -225 -225 -225 -225 -225 -225 -225 11 20 18 21 23 28 28 30 29 30 31 31 32 33 32 37 41 42 42 47 46 47 47 47 49 47 49 49 46 50 52 51 53 54 55 57 57 58 59 58 60 61 60 61 60 62 60 63 68 74 74 74 75 76 75 78 79 87 87 88 88 89 87 88 88 89 89 89 90 91 94 98 103 105 106 106 108 110 109 109 108 108 107 107 107 105 102 -193 83 81 -193 85 -193 -209 -193 -209 101 105 105 104 106 100 131 139 137 138 142 145 147 148 147 147 148 149 151 152 152 153 156 156 156 156 158 161 161 164 166 165 168 169 169 171 173 171 172 172 173 0 0 0 0 0
    0 0 0 0 0 0 0 0 0 0 0 0 0 0 0 0 0 0 0 0 0 0 0 0 0 0 0 0 0 0 0 0 0 0 0 0 0 0 0 0 0 0 0 0 0 0 0 0 0 0 0 0 0 0 0 0 0 0 0 0 0 0 0 0 0 0 0 0 0 50 47 49 47 -209 -193 -209 45 47 46 46 47 47 49 47 48 48 45 46 45 44 45 43 43 43 43 43 43 43 43 43 43 44 43 43 44 43 43 41 41 41 37 35 33 30 28 28 29 29 27 30 32 30 29 30 28 30 28 27 27 26 25 25 24 24 23 23 24 24 25 28 28 31 34 36 36 37 38 37 38 38 32 29 28 27 26 25 -225 -225 -225 -225 -225 -225 -225 -225 -225 -225 -225 -225 -225 -225 -225 -225 -225 -225 -225 -225 -225 -225 -225 -225 20 21 24 33 29 32 30 30 32 31 32 33 33 36 40 41 42 45 45 46 46 47 49 47 48 49 47 51 52 52 54 54 55 58 58 59 60 59 60 60 61 62 60 62 60 64 67 72 73 72 73 74 74 78 79 87 87 88 88 89 88 89 89 89 89 89 91 92 94 99 104 106 107 107 109 111 110 110 108 109 108 108 107 105 104 106 107 -193 111 -209 -209 116 -209 -209 -193 111 110 107 -209 99 129 -193 137 138 142 145 147 148 147 147 148 149 151 152 153 153 156 156 156 156 158 162 162 166 168 166 169 170 170 172 173 172 173 172 174 0 0 0 0 0
    0 0 0 0 0 0 0 0 0 0 0 0 0 0 0 0 0 0 0 0 0 0 0 0 0 0 0 0 0 0 0 0 0 0 0 0 0 0 0 0 0 0 0 0 0 0 0 0 0 0 0 0 0 0 0 0 0 0 0 0 0 0 0 0 0 0 0 0 0 50 47 50 48 -209 -193 -193 46 48 46 46 47 47 49 47 47 48 45 45 44 44 44 43 43 43 43 43 43 43 43 43 43 43 42 42 43 43 43 41 41 41 39 37 36 33 31 31 33 34 31 34 36 33 31 32 29 31 29 28 28 27 26 27 28 27 25 25 26 26 26 29 33 34 39 41 42 43 43 42 42 38 33 31 30 29 28 -225 -225 -225 -225 -225 -225 -225 -225 -225 -225 -225 -225 -225 -225 -225 -225 -225 -225 -225 -225 -225 -225 -225 -225 -225 -225 23 25 31 30 32 29 30 32 31 32 33 35 36 39 41 41 45 44 46 46 46 49 48 49 50 48 52 52 53 54 54 56 59 59 60 60 60 60 61 62 62 60 61 60 66 68 71 73 72 74 76 75 80 79 86 87 87 88 89 88 89 89 90 90 90 92 93 94 99 103 106 107 107 109 110 110 109 108 109 107 108 107 105 105 108 109 112 112 116 116 117 121 121 121 118 118 114 -209 -193 130 -193 137 138 141 144 146 147 147 147 148 148 150 152 152 152 155 156 156 156 158 162 162 -193 -193 -193 -193 170 170 172 172 172 173 172 174 0 0 0 0 0
    0 0 0 0 0 0 0 0 0 0 0 0 0 0 0 0 0 0 0 0 0 0 0 0 0 0 0 0 0 0 0 0 0 0 0 0 0 0 0 0 0 0 0 0 0 0 0 0 0 0 0 0 0 0 0 0 0 0 0 0 0 0 0 0 0 0 0 0 0 50 48 50 48 -209 -193 -193 44 46 45 45 46 46 49 46 46 49 45 45 45 44 44 43 43 43 43 43 43 43 43 43 43 44 42 43 43 44 43 42 42 42 41 40 39 37 35 36 37 38 36 37 38 35 33 34 29 31 29 29 28 28 27 28 29 30 28 28 29 30 31 36 40 38 41 42 43 44 44 42 42 38 36 34 33 33 -225 -225 -225 -225 -225 -225 -225 -225 -225 -225 -225 -225 -225 -225 -225 -225 -225 -225 -225 -225 -225 -225 -225 -225 -225 -225 -225 -225 -225 25 29 31 29 28 33 32 32 34 36 37 39 41 41 44 44 46 47 47 51 50 51 52 51 54 54 55 56 54 57 60 60 60 61 60 60 61 62 62 60 60 60 66 69 71 73 72 75 77 77 80 80 86 87 87 87 88 88 89 89 90 90 90 92 93 94 98 102 105 106 106 108 110 109 108 108 108 107 108 109 107 108 110 113 114 115 117 116 115 118 119 120 118 119 115 -193 -193 130 -193 137 138 141 143 145 146 146 146 147 148 150 151 152 152 155 156 155 155 158 162 163 166 168 167 169 170 171 173 173 172 173 173 174 0 0 0 0 0
    0 0 0 0 0 0 0 0 0 0 0 0 0 0 0 0 0 0 0 0 0 0 0 0 0 0 0 0 0 0 0 0 0 0 0 0 0 0 0 0 0 0 0 0 0 0 0 0 0 0 0 0 0 0 0 0 0 0 0 0 0 0 0 0 0 0 0 0 0 51 49 50 49 -209 -193 -193 -193 44 43 43 45 45 47 46 46 48 45 45 45 45 45 44 43 44 43 44 43 43 44 43 43 44 42 43 43 43 43 42 43 43 42 42 42 41 37 39 39 40 37 37 38 36 34 36 31 33 30 30 30 29 28 29 30 31 29 29 31 33 34 38 40 39 41 42 43 45 44 42 42 39 37 34 33 -225 -225 -225 -225 -225 -225 -225 -225 -225 -225 -225 -225 -225 -225 -225 -225 -225 -225 -225 -225 -225 -225 -225 -225 -225 -225 -225 -225 -225 -225 -225 -225 -225 30 29 35 33 33 35 38 38 40 41 42 45 45 47 47 48 52 52 52 53 52 54 55 56 56 55 57 60 60 61 61 61 61 61 62 62 61 61 61 68 70 72 74 73 76 78 78 79 79 84 86 85 86 88 87 88 89 90 90 90 91 92 93 96 101 105 105 106 107 109 109 107 108 108 106 108 109 109 108 111 113 114 114 116 115 115 117 118 118 117 118 115 119 -193 128 -193 136 137 140 142 144 146 145 146 147 147 150 151 152 152 154 155 155 155 158 162 162 166 168 167 169 170 171 174 173 172 174 173 174 0 0 0 0 0
    0 0 0 0 0 0 0 0 0 0 0 0 0 0 0 0 0 0 0 0 0 0 0 0 0 0 0 0 0 0 0 0 0 0 0 0 0 0 0 0 0 0 0 0 0 0 0 0 0 0 0 0 0 0 0 0 0 0 0 0 0 0 0 0 0 0 0 0 0 51 49 50 49 -209 -193 -209 -193 43 -193 43 44 44 46 45 46 48 45 45 45 45 44 43 43 43 43 43 43 43 43 42 43 43 42 42 42 43 43 42 44 44 44 43 43 42 39 40 39 40 38 38 40 38 36 37 32 35 32 32 31 29 28 29 31 33 30 30 33 35 37 38 41 40 42 43 43 45 44 42 42 41 39 37 -225 -225 -225 -225 -225 -225 -225 -225 -225 -225 -225 -225 -225 -225 -225 -225 -225 -225 -225 -225 -225 -225 -225 -225 -225 -225 -225 -225 -225 -225 -225 -225 -225 -225 -225 31 36 34 35 36 39 39 40 41 43 45 45 48 47 48 53 53 53 54 53 55 55 56 57 55 57 60 60 61 61 61 61 61 61 62 61 61 61 68 70 72 73 73 75 77 78 79 79 84 86 86 87 88 87 88 89 90 90 90 91 93 93 95 99 103 104 104 106 107 107 106 107 107 105 108 109 109 109 111 113 114 114 117 117 117 120 121 121 120 122 121 124 -193 132 137 137 137 140 142 144 145 145 145 147 147 150 151 151 151 154 155 155 155 157 161 162 165 168 167 169 170 171 174 173 173 174 173 174 0 0 0 0 0
    0 0 0 0 0 0 0 0 0 0 0 0 0 0 0 0 0 0 0 0 0 0 0 0 0 0 0 0 0 0 0 0 0 0 0 0 0 0 0 0 0 0 0 0 0 0 0 0 0 0 0 0 0 0 0 0 0 0 0 0 0 0 0 0 0 0 0 0 0 52 50 51 50 42 46 44 42 43 42 42 43 43 44 43 44 46 44 44 45 45 44 44 43 44 43 44 43 42 42 42 42 42 42 42 41 42 43 42 43 44 45 42 43 43 40 40 40 40 39 40 41 39 38 40 35 37 37 34 31 29 29 29 33 36 32 32 35 36 38 38 41 41 42 43 43 46 44 44 44 43 41 -225 -225 -225 -225 -225 -225 -225 -225 -225 -225 -225 -225 -225 -225 -225 -225 -225 -225 -225 -225 -225 -225 -225 -225 -225 -225 -225 -225 -225 -225 -225 -225 -225 -225 -225 -225 33 37 35 36 37 39 39 40 41 43 45 45 49 48 50 54 54 54 54 54 56 56 57 57 55 57 60 60 61 60 60 60 61 61 62 61 62 62 68 70 71 73 72 75 76 78 78 79 84 87 87 88 89 88 89 90 90 90 90 91 93 92 95 97 101 102 103 105 107 106 106 108 109 107 111 111 111 112 113 114 115 115 117 118 118 120 122 122 123 123 123 125 -193 133 -193 137 138 140 142 143 144 144 143 146 146 149 151 151 151 154 155 155 155 158 162 162 165 168 167 169 170 171 174 173 173 174 174 174 0 0 0 0 0
    0 0 0 0 0 0 0 0 0 0 0 0 0 0 0 0 0 0 0 0 0 0 0 0 0 0 0 0 0 0 0 0 0 0 0 0 0 0 0 0 0 0 0 0 0 0 0 0 0 0 0 0 0 0 0 0 0 0 0 0 0 0 0 0 0 0 0 0 0 52 51 52 51 45 49 46 44 44 43 42 44 42 43 42 43 44 44 43 44 45 44 44 44 44 44 45 43 43 43 43 42 42 42 42 41 43 43 42 45 49 50 43 44 45 42 40 40 41 41 42 43 41 40 41 38 39 39 35 31 30 31 31 36 -193 35 34 36 37 40 40 42 42 43 43 44 45 44 43 44 -225 -225 -225 -225 -225 -225 -225 -225 -225 -225 -225 -225 -225 -225 -225 -225 -225 -225 -225 -225 -225 -225 -225 -225 -225 -225 -225 -225 -225 -225 -225 -225 -225 -225 -225 -225 -225 -225 34 38 36 36 38 39 40 41 42 44 46 46 50 49 51 55 54 55 55 54 56 57 57 57 55 57 59 59 60 60 59 60 61 61 63 62 62 64 68 71 72 72 72 75 77 78 80 80 84 87 87 88 89 88 89 90 91 91 91 92 94 93 95 97 100 101 102 104 106 105 106 108 109 108 111 112 112 114 115 116 116 116 118 119 119 121 122 122 124 124 123 124 124 129 134 134 135 137 137 137 140 141 140 144 143 147 150 151 152 154 156 155 155 158 163 162 165 168 168 169 170 171 174 173 173 174 174 174 0 0 0 0 0
    0 0 0 0 0 0 0 0 0 0 0 0 0 0 0 0 0 0 0 0 0 0 0 0 0 0 0 0 0 0 0 0 0 0 0 0 0 0 0 0 0 0 0 0 0 0 0 0 0 0 0 0 0 0 0 0 0 0 0 0 0 0 0 0 0 0 0 0 0 53 51 52 52 49 52 49 46 47 45 43 44 42 42 42 42 42 42 42 43 44 43 44 44 44 45 45 44 43 43 43 42 42 42 42 41 43 43 43 50 55 56 48 47 49 55 43 44 43 42 43 44 42 42 42 39 39 40 36 31 29 31 31 36 40 35 32 35 36 39 39 42 42 43 43 45 48 47 46 -225 -225 -225 -225 -225 -225 -225 -225 -225 -225 -225 -225 -225 -225 -225 -225 -225 -225 -225 -225 -225 -225 -225 -225 -225 -225 -225 -225 -225 -225 -225 -225 -225 -225 -225 -225 -225 -225 -225 33 38 36 36 38 39 40 41 42 45 46 47 52 51 53 56 55 56 55 55 56 57 58 57 56 58 59 60 60 60 59 59 61 61 62 61 61 64 68 71 72 73 73 75 77 79 80 81 83 86 87 88 89 89 90 91 91 92 92 93 95 95 97 99 101 102 103 104 106 105 106 108 110 108 111 112 112 114 115 116 115 116 118 119 119 121 122 123 125 126 124 125 123 -193 -193 -193 131 131 131 133 134 135 135 139 138 142 146 147 149 151 154 154 154 158 162 161 165 168 168 168 169 171 174 173 173 174 174 173 0 0 0 0 0
    0 0 0 0 0 0 0 0 0 0 0 0 0 0 0 0 0 0 0 0 0 0 0 0 0 0 0 0 0 0 0 0 0 0 0 0 0 0 0 0 0 0 0 0 0 0 0 0 0 0 0 0 0 0 0 0 0 0 0 0 0 0 0 0 0 0 0 0 0 53 52 53 53 52 54 51 47 48 45 42 43 41 41 42 41 -193 41 41 43 0 -256 -1 31707 45 45 45 43 43 43 43 42 42 42 42 41 43 44 44 56 57 58 55 53 53 58 53 53 47 45 46 47 45 44 43 40 40 40 37 32 31 32 31 -225 40 34 32 35 36 39 39 43 42 42 43 45 49 48 -225 -225 -225 -225 -225 -225 -225 -225 -225 -225 -225 -225 -225 -225 -225 -225 -225 -225 -225 -225 -225 -225 -225 -225 -225 -225 -225 -225 -225 -225 -225 -225 -225 -225 -225 -225 -225 -225 -225 -225 -225 38 35 36 39 40 42 43 44 47 47 48 53 52 53 57 57 58 57 57 58 58 59 58 58 58 60 60 61 60 60 60 62 61 62 62 61 64 68 71 72 74 74 76 78 79 80 81 83 86 86 88 89 89 90 91 91 92 92 94 95 96 98 99 101 102 102 103 105 105 106 108 109 107 110 111 111 112 114 115 114 115 117 118 119 120 122 123 126 128 127 127 126 129 132 132 133 131 130 132 134 135 135 137 137 138 140 142 144 148 152 152 153 157 162 163 165 168 168 168 169 171 174 173 173 174 174 173 0 0 0 0 0
    0 0 0 0 0 0 0 0 0 0 0 0 0 0 0 0 0 0 0 0 0 0 0 0 0 0 0 0 0 0 0 0 0 0 0 0 0 0 0 0 0 0 0 0 0 0 0 0 0 0 0 0 0 0 0 0 0 0 0 0 0 0 0 0 0 0 0 0 0 53 53 53 53 53 53 49 46 47 44 41 43 41 41 42 41 -209 41 41 43 42 42 43 44 45 45 45 43 43 44 43 42 43 43 43 42 45 47 46 58 59 60 57 57 57 59 57 56 53 51 50 50 47 44 42 41 40 39 36 33 32 -225 -225 -225 -225 -225 -225 38 39 42 41 46 42 41 43 45 -225 -225 -225 -225 -225 -225 -225 -225 -225 -225 -225 -225 -225 -225 -225 -225 -225 -225 -225 -225 -225 -225 -225 -225 -225 -225 -225 -225 -225 -225 -225 -225 -225 -225 -225 -225 -225 -225 -225 -225 -225 -225 -225 -225 -225 37 40 43 45 46 47 51 52 52 55 55 55 59 58 59 58 58 59 59 59 58 57 58 59 60 60 60 59 60 62 62 62 62 62 64 68 71 72 74 75 77 79 80 80 81 83 86 86 89 89 90 91 91 92 93 93 95 95 97 98 99 100 102 102 102 104 103 105 107 108 107 108 109 109 110 113 113 113 114 117 118 119 120 123 123 126 128 128 128 130 133 134 135 135 -193 133 135 136 137 136 137 137 138 139 140 141 145 149 149 151 155 156 156 159 165 167 166 167 170 173 172 172 173 173 172 0 0 0 0 0
    0 0 0 0 0 0 0 0 0 0 0 0 0 0 0 0 0 0 0 0 0 0 0 0 0 0 0 0 0 0 0 0 0 0 0 0 0 0 0 0 0 0 0 0 0 0 0 0 0 0 0 0 0 0 0 0 0 0 0 0 0 0 0 0 0 0 0 0 0 54 53 53 53 52 50 45 46 46 46 42 45 44 43 45 -193 -209 -209 42 44 42 42 42 43 43 45 45 43 43 45 45 43 45 46 46 47 51 55 56 60 61 62 59 59 58 60 58 57 54 53 53 51 47 45 42 41 40 40 37 33 -225 -225 -225 -225 -225 -225 -225 -225 -225 -225 -225 -225 -225 -225 -225 -225 -225 -225 -225 -225 -225 -225 -225 -225 -225 -225 -225 -225 -225 -225 -225 -225 -225 -225 -225 -225 -225 -225 -225 -225 -225 -225 -225 -225 -225 -225 -225 -225 -225 -225 -225 -225 -225 -225 -225 -225 -225 -225 -225 -225 -225 -225 -225 47 50 52 51 54 54 54 55 56 56 60 59 60 58 58 59 60 59 58 57 58 58 59 60 59 58 59 61 61 61 61 61 64 67 70 72 74 76 77 79 80 80 82 83 86 86 89 89 90 91 91 92 93 93 94 95 96 98 99 100 102 101 102 103 103 104 106 107 106 107 108 109 108 111 113 114 114 116 117 118 119 122 122 124 126 127 127 129 132 -193 -193 -193 -193 -193 -193 -193 138 137 138 138 139 140 141 142 145 147 148 150 154 155 156 158 162 165 165 166 169 171 171 172 172 173 171 0 0 0 0 0
    0 0 0 0 0 0 0 0 0 0 0 0 0 0 0 0 0 0 0 0 0 0 0 0 0 0 0 0 0 0 0 0 0 0 0 0 0 0 0 0 0 0 0 0 0 0 0 0 0 0 0 0 0 0 0 0 0 0 0 0 0 0 0 0 0 0 0 0 0 54 53 53 53 53 50 46 48 48 49 46 49 49 -193 -209 -209 -209 -209 -209 -193 42 42 43 44 43 46 45 45 44 47 48 46 50 53 55 59 58 59 59 61 62 63 59 59 58 59 57 57 55 54 53 51 47 45 43 42 41 41 40 -225 -225 -225 -225 -225 -225 -225 -225 -225 -225 -225 -225 -225 -225 -225 -225 -225 -225 -225 -225 -225 -225 -225 -225 -225 -225 -225 -225 -225 -225 -225 -225 -225 -225 -225 -225 -225 -225 -225 -225 -225 -225 -225 -225 -225 -225 -225 -225 -225 -225 -225 -225 -225 -225 -225 -225 -225 -225 -225 -225 -225 -225 -225 -225 -225 -225 57 55 57 56 55 56 55 56 59 57 58 57 57 58 59 58 58 57 58 58 58 59 58 57 58 60 59 60 60 61 62 65 70 71 73 76 77 78 79 80 81 82 85 86 88 90 90 92 92 92 93 93 94 95 96 97 98 99 101 99 101 103 102 103 104 105 105 106 106 106 105 108 113 114 114 116 117 119 119 122 122 124 124 126 127 129 130 133 -193 -193 -193 -209 -193 -193 139 139 140 139 140 141 141 142 145 148 149 150 153 155 156 158 160 162 162 164 168 169 169 170 170 171 171 0 0 0 0 0
    0 0 0 0 0 0 0 0 0 0 0 0 0 0 0 0 0 0 0 0 0 0 0 0 0 0 0 0 0 0 0 0 0 0 0 0 0 0 0 0 0 0 0 0 0 0 0 0 0 0 0 0 0 0 0 0 0 0 0 0 0 0 0 0 0 0 0 0 0 55 54 54 54 54 52 49 50 51 52 51 52 -209 -209 -209 -209 -209 -209 -209 -209 -193 44 49 49 47 48 46 47 47 49 51 49 52 55 57 60 60 60 61 62 62 63 60 60 59 59 58 58 55 53 52 50 46 44 42 42 41 -225 -225 -225 -225 -225 -225 -225 -225 -225 -225 -225 -225 -225 -225 -225 -225 -225 -225 -225 -225 -225 -225 -225 -225 -225 -225 -225 -225 -225 -225 -225 -225 -225 -225 -225 -225 -225 -225 -225 -225 -225 -225 -225 -225 -225 -225 -225 -225 -225 -225 -225 -225 -225 -225 -225 -225 -225 -225 -225 -225 -225 -225 -225 -225 -225 -225 -225 -225 57 55 57 56 56 56 55 56 58 56 58 56 57 58 59 58 57 57 58 57 58 58 57 56 58 60 58 58 60 61 62 64 69 71 73 75 76 78 79 79 80 82 85 87 -193 90 91 93 93 93 94 94 95 96 96 98 98 99 100 99 101 102 102 103 104 105 105 106 106 106 105 107 111 113 113 115 117 119 120 122 123 124 124 126 127 129 130 133 134 135 -193 -193 138 140 141 140 141 140 140 141 142 143 146 149 150 152 155 157 158 159 161 161 158 161 165 166 167 169 168 169 169 0 0 0 0 0
    0 0 0 0 0 0 0 0 0 0 0 0 0 0 0 0 0 0 0 0 0 0 0 0 0 0 0 0 0 0 0 0 0 0 0 0 0 0 0 0 0 0 0 0 0 0 0 0 0 0 0 0 0 0 0 0 0 0 0 0 0 0 0 0 0 0 0 0 0 56 54 55 54 54 53 52 52 52 53 54 55 -209 -209 -209 -209 67 66 65 62 55 51 54 54 53 52 49 50 49 52 53 53 55 57 58 61 61 61 63 63 63 65 62 61 61 61 59 58 55 54 52 49 47 45 44 44 -225 -225 -225 -225 -225 -225 -225 -225 -225 -225 -225 -225 -225 -225 -225 -225 -225 -225 -225 -225 -225 -225 -225 -225 -225 -225 -225 -225 -225 -225 -225 -225 -225 -225 -225 -225 -225 -225 -225 -225 -225 -225 -225 -225 -225 -225 -225 -225 -225 -225 -225 -225 -225 -225 -225 -225 -225 -225 -225 -225 -225 -225 -225 -225 -225 -225 -225 -225 -225 -225 55 57 56 56 57 56 57 58 56 58 56 57 58 59 58 58 58 59 59 60 60 59 57 59 61 59 59 60 61 64 66 70 71 73 75 76 78 78 79 80 81 85 86 -209 90 91 92 94 93 94 94 96 96 97 99 100 99 100 100 101 103 103 105 105 105 105 106 106 106 105 106 109 111 112 114 115 118 119 122 122 123 123 124 125 126 127 131 131 133 -209 -209 -193 -193 140 140 141 141 141 142 142 144 146 149 150 153 155 157 158 161 163 162 159 161 161 162 163 -193 163 164 -193 0 0 0 0 0
    0 0 0 0 0 0 0 0 0 0 0 0 0 0 0 0 0 0 0 0 0 0 0 0 0 0 0 0 0 0 0 0 0 0 0 0 0 0 0 0 0 0 0 0 0 0 0 0 0 0 0 0 0 0 0 0 0 0 0 0 0 0 0 0 0 0 0 0 0 56 54 54 54 54 52 52 52 53 54 56 57 -209 -209 -209 -209 65 64 65 63 58 55 56 56 57 55 53 53 53 55 56 56 56 59 59 64 66 63 64 64 65 66 63 64 62 61 60 58 56 54 52 50 48 46 -225 -225 -225 -225 -225 -225 -225 -225 -225 -225 -225 -225 -225 -225 -225 -225 -225 -225 -225 -225 -225 -225 -225 -225 -225 -225 -225 -225 -225 -225 -225 -225 -225 -225 -225 -225 -225 -225 -225 -225 -225 -225 -225 -225 -225 -225 -225 -225 -225 -225 -225 -225 -225 -225 -225 -225 -225 -225 -225 -225 -225 -225 -225 -225 -225 -225 -225 -225 -225 -225 -225 -225 -225 -225 56 56 56 56 56 57 55 57 55 56 58 59 59 59 60 61 62 63 62 62 60 60 62 60 60 60 60 63 65 70 71 74 76 77 78 78 79 80 81 84 84 -193 89 90 92 93 93 94 93 96 96 98 99 100 100 100 100 101 102 104 105 105 106 106 107 107 107 -209 -193 109 112 112 113 114 117 118 121 122 123 123 123 124 125 124 128 126 131 -193 -209 -209 140 141 141 142 142 142 142 143 144 146 149 150 152 154 156 156 159 161 161 160 162 163 164 166 168 166 166 -193 0 0 0 0 0
    0 0 0 0 0 0 0 0 0 0 0 0 0 0 0 0 0 0 0 0 0 0 0 0 0 0 0 0 0 0 0 0 0 0 0 0 0 0 0 0 0 0 0 0 0 0 0 0 0 0 0 0 0 0 0 0 0 0 0 0 0 0 0 0 0 0 0 0 0 57 54 54 53 54 52 53 53 54 55 56 57 -193 -209 61 -193 63 63 64 62 58 56 57 57 58 56 55 55 55 57 57 56 57 60 61 67 69 66 68 67 67 68 67 66 63 61 60 58 56 55 54 51 50 -225 -225 -225 -225 -225 -225 -225 -225 -225 -225 -225 -225 -225 -225 -225 -225 -225 -225 -225 -225 -225 -225 -225 -225 -225 -225 -225 -225 -225 -225 -225 -225 -225 -225 -225 -225 -225 -225 -225 -225 -225 -225 -225 -225 -225 -225 -225 -225 -225 -225 -225 -225 -225 -225 -225 -225 -225 -225 -225 -225 -225 -225 -225 -225 -225 -225 -225 -225 -225 -225 -225 -225 -225 -225 -225 -225 -225 -225 -225 55 58 55 57 56 56 59 59 60 60 61 62 63 65 64 64 63 62 64 61 61 60 61 63 65 70 72 75 77 78 79 78 79 80 80 83 83 -209 89 90 92 92 92 93 93 95 94 96 99 99 100 100 100 101 102 104 105 105 106 106 107 107 108 108 107 110 112 111 113 114 116 117 120 121 122 122 123 123 124 124 126 123 129 -193 -209 -209 140 141 141 142 143 143 143 144 144 146 149 150 152 154 155 156 157 158 158 158 160 161 164 165 167 167 168 170 0 0 0 0 0
    0 0 0 0 0 0 0 0 0 0 0 0 0 0 0 0 0 0 0 0 0 0 0 0 0 0 0 0 0 0 0 0 0 0 0 0 0 0 0 0 0 0 0 0 0 0 0 0 0 0 0 0 0 0 0 0 0 0 0 0 0 0 0 0 0 0 0 0 0 56 53 53 52 54 53 53 54 54 55 56 -193 58 59 60 61 61 62 63 62 59 57 58 57 58 58 57 56 57 58 59 58 59 65 65 69 70 68 70 69 70 70 68 67 64 62 60 58 57 57 56 -225 -225 -225 -225 -225 -225 -225 -225 -225 -225 -225 -225 -225 -225 -225 -225 -225 -225 -225 -225 -225 -225 -225 -225 -225 -225 -225 -225 -225 -225 -225 -225 -225 -225 -225 -225 -225 -225 -225 -225 -225 -225 -225 -225 -225 -225 -225 -225 -225 -225 -225 -225 -225 -225 -225 -225 -225 -225 -225 -225 -225 -225 -225 -225 -225 -225 -225 -225 -225 -225 -225 -225 -225 -225 -225 -225 -225 -225 -225 -225 -225 55 58 54 56 55 56 59 60 60 60 62 63 64 65 65 66 67 65 66 64 64 62 63 66 66 71 73 76 77 78 79 79 79 80 79 83 82 86 -193 90 91 92 92 92 92 94 93 95 97 97 98 99 98 100 101 104 105 105 106 105 107 107 108 108 106 108 108 109 112 113 116 118 121 122 123 123 124 124 125 124 125 123 128 -193 -209 -209 -193 -193 141 142 143 144 144 145 144 146 149 150 153 154 156 156 157 158 158 158 160 160 163 163 166 166 168 170 0 0 0 0 0
    0 0 0 0 0 0 0 0 0 0 0 0 0 0 0 0 0 0 0 0 0 0 0 0 0 0 0 0 0 0 0 0 0 0 0 0 0 0 0 0 0 0 0 0 0 0 0 0 0 0 0 0 0 0 0 0 0 0 0 0 0 0 0 0 0 0 0 0 0 58 55 53 52 53 53 53 54 54 55 57 -193 59 60 61 61 61 62 63 62 60 57 58 57 58 58 57 57 57 58 59 60 63 69 69 71 72 71 72 72 72 71 69 68 65 62 61 60 59 58 -225 -225 -225 -225 -225 -225 -225 -225 -225 -225 -225 -225 -225 -225 -225 -225 -225 -225 -225 -225 -225 -225 -225 -225 -225 -225 -225 -225 -225 -225 -225 -225 -225 -225 -225 -225 -225 -225 -225 -225 -225 -225 -225 -225 -225 -225 -225 -225 -225 -225 -225 -225 -225 -225 -225 -225 -225 -225 -225 -225 -225 -225 -225 -225 -225 -225 -225 -225 -225 -225 -225 -225 -225 -225 -225 -225 -225 -225 -225 -225 -225 -225 -225 56 53 54 54 56 58 60 60 61 63 64 66 67 67 68 68 67 68 66 66 63 65 66 66 70 73 75 77 78 78 79 79 79 79 82 82 85 87 89 91 92 92 93 93 94 94 94 97 97 99 99 99 101 102 104 105 106 106 106 108 108 108 109 106 107 107 110 114 115 118 120 122 123 124 124 125 124 125 124 124 123 125 -193 -193 -209 140 141 141 142 143 145 145 146 146 147 150 151 153 153 154 154 156 156 156 157 159 158 162 162 164 165 167 170 0 0 0 0 0
    0 0 0 0 0 0 0 0 0 0 0 0 0 0 0 0 0 0 0 0 0 0 0 0 0 0 0 0 0 0 0 0 0 0 0 0 0 0 0 0 0 0 0 0 0 0 0 0 0 0 0 0 0 0 0 0 0 0 0 0 0 0 0 0 0 0 0 0 0 61 59 55 54 54 55 55 55 55 55 57 58 60 61 63 61 62 63 64 62 61 59 59 59 59 60 59 59 60 61 65 67 71 72 72 73 74 74 74 73 73 71 70 69 66 64 63 61 -225 -225 -225 -225 -225 -225 -225 -225 -225 -225 -225 -225 -225 -225 -225 -225 -225 -225 -225 -225 -225 -225 -225 -225 -225 -225 -225 -225 -225 -225 -225 -225 -225 -225 -225 -225 -225 -225 -225 -225 -225 -225 -225 -225 -225 -225 -225 -225 -225 -225 -225 -225 -225 -225 -225 -225 -225 -225 -225 -225 -225 -225 -225 -225 -225 -225 -225 -225 -225 -225 -225 -225 -225 -225 -225 -225 -225 -225 -225 -225 -225 -225 -225 -225 -225 -225 50 53 54 56 59 61 63 64 67 67 69 69 69 70 70 69 69 68 67 64 66 66 65 70 73 76 77 78 79 79 79 79 80 82 81 84 86 89 91 92 92 93 93 93 94 94 97 97 99 99 100 101 103 105 106 107 107 107 108 108 108 109 107 108 108 113 116 117 120 121 122 123 125 125 125 124 125 123 123 122 124 124 126 -193 136 138 140 141 142 144 144 146 146 146 150 151 153 152 152 153 154 154 155 156 158 157 161 162 164 165 167 169 0 0 0 0 0
    0 0 0 0 0 0 0 0 0 0 0 0 0 0 0 0 0 0 0 0 0 0 0 0 0 0 0 0 0 0 0 0 0 0 0 0 0 0 0 0 0 0 0 0 0 0 0 0 0 0 0 0 0 0 0 0 0 0 0 0 0 0 0 0 0 0 0 0 0 62 63 58 -193 -193 58 58 57 56 56 57 60 61 63 66 63 64 65 65 64 62 61 61 60 60 61 61 62 65 71 71 72 74 75 75 76 76 76 75 74 73 71 70 70 67 65 64 -225 -225 -225 -225 -225 -225 -225 -225 -225 -225 -225 -225 -225 -225 -225 -225 -225 -225 -225 -225 -225 -225 -225 -225 -225 -225 -225 -225 -225 -225 -225 -225 -225 -225 -225 -225 -225 -225 -225 -225 -225 -225 -225 -225 -225 -225 -225 -225 -225 -225 -225 -225 -225 -225 -225 -225 -225 -225 -225 -225 -225 -225 -225 -225 -225 -225 -225 -225 -225 -225 -225 -225 -225 -225 -225 -225 -225 -225 -225 -225 -225 -225 -225 -225 -225 -225 -225 -225 -225 -225 57 62 63 65 66 69 69 70 70 70 71 71 70 70 69 69 66 68 68 67 70 74 77 78 79 80 79 79 81 81 82 81 83 85 89 91 91 91 93 92 92 93 94 96 97 100 99 100 101 103 106 107 107 107 107 108 108 108 110 107 109 108 114 116 117 120 122 122 123 125 126 126 124 125 123 123 122 124 123 124 129 134 137 139 140 142 144 144 146 147 146 151 152 154 153 154 154 155 154 156 157 158 158 161 162 164 166 167 169 0 0 0 0 0
    0 0 0 0 0 0 0 0 0 0 0 0 0 0 0 0 0 0 0 0 0 0 0 0 0 0 0 0 0 0 0 0 0 0 0 0 0 0 0 0 0 0 0 0 0 0 0 0 0 0 0 0 0 0 0 0 0 0 0 0 0 0 0 0 0 0 0 0 0 64 66 60 60 58 59 60 59 57 57 58 61 61 65 68 65 65 66 65 65 64 64 63 61 62 64 67 70 71 75 75 78 80 80 81 81 80 78 76 76 74 72 72 72 69 -225 -225 -225 -225 -225 -225 -225 -225 -225 -225 -225 -225 -225 -225 -225 -225 -225 -225 -225 -225 -225 -225 -225 -225 -225 -225 -225 -225 -225 -225 -225 -225 -225 -225 -225 -225 -225 -225 -225 -225 -225 -225 -225 -225 -225 -225 -225 -225 -225 -225 -225 -225 -225 -225 -225 -225 -225 -225 -225 -225 -225 -225 -225 -225 -225 -225 -225 -225 -225 -225 -225 -225 -225 -225 -225 -225 -225 -225 -225 -225 -225 -225 -225 -225 -225 -225 -225 -225 -225 -225 -225 -225 -225 -225 67 69 68 70 70 72 71 71 72 72 71 72 71 71 69 72 72 71 74 77 79 80 80 80 80 79 81 81 82 80 83 85 88 89 90 90 92 91 92 93 94 97 97 100 101 101 102 103 106 107 108 108 108 108 109 109 111 108 110 110 115 118 118 120 122 123 123 126 127 126 124 125 124 123 123 124 124 124 127 132 136 138 139 141 143 143 146 146 146 150 151 153 153 154 154 155 155 156 157 158 -193 161 162 163 165 166 -193 0 0 0 0 0
    0 0 0 0 0 0 0 0 0 0 0 0 0 0 0 0 0 0 0 0 0 0 0 0 0 0 0 0 0 0 0 0 0 0 0 0 0 0 0 0 0 0 0 0 0 0 0 0 0 0 0 0 0 0 0 0 0 0 0 0 0 0 0 0 0 0 0 0 0 67 69 65 66 62 61 61 60 59 58 59 61 62 65 68 65 63 65 65 65 66 66 64 62 64 68 71 73 75 78 78 82 83 83 84 82 82 80 77 76 75 74 74 74 -225 -225 -225 -225 -225 -225 -225 -225 -225 -225 -225 -225 -225 -225 -225 -225 -225 -225 -225 -225 -225 -225 -225 -225 -225 -225 -225 -225 -225 -225 -225 -225 -225 -225 -225 -225 -225 -225 -225 -225 -225 -225 -225 -225 -225 -225 -225 -225 -225 -225 -225 -225 -225 -225 -225 -225 -225 -225 -225 -225 -225 -225 -225 -225 -225 -225 -225 -225 -225 -225 -225 -225 -225 -225 -225 -225 -225 -225 -225 -225 -225 -225 -225 -225 -225 -225 -225 -225 -225 -225 -225 -225 -225 -225 -225 69 70 69 71 71 72 71 72 72 72 71 72 72 73 72 73 74 74 76 78 80 82 80 80 81 79 82 82 83 82 83 85 88 89 90 90 91 91 91 93 94 97 98 100 101 102 102 103 106 107 108 108 108 109 109 110 112 109 111 111 116 119 119 121 122 122 123 126 128 127 125 125 125 124 125 126 126 125 128 133 136 137 139 141 142 142 144 143 144 149 150 151 152 -193 -193 -193 -193 156 157 158 -193 160 162 163 164 165 -193 0 0 0 0 0
    0 0 0 0 0 0 0 0 0 0 0 0 0 0 0 0 0 0 0 0 0 0 0 0 0 0 0 0 0 0 0 0 0 0 0 0 0 0 0 0 0 0 0 0 0 0 0 0 0 0 0 0 0 0 0 0 0 0 0 0 0 0 0 0 0 0 0 0 0 68 69 -193 70 -193 66 64 62 61 59 60 -193 63 66 68 65 65 67 67 66 68 69 67 65 68 70 73 77 79 81 81 84 85 85 85 84 83 81 77 78 76 75 75 -225 -225 -225 -225 -225 -225 -225 -225 -225 -225 -225 -225 -225 -225 -225 -225 -225 -225 -225 -225 -225 -225 -225 -225 -225 -225 -225 -225 -225 -225 -225 -225 -225 -225 -225 -225 -225 -225 -225 -225 -225 -225 -225 -225 -225 -225 -225 -225 -225 -225 -225 -225 -225 -225 -225 -225 -225 -225 -225 -225 -225 -225 -225 -225 -225 -225 -225 -225 -225 -225 -225 -225 -225 -225 -225 -225 -225 -225 -225 -225 -225 -225 -225 -225 -225 -225 -225 -225 -225 -225 -225 -225 -225 -225 -225 -225 -225 69 68 71 71 72 71 72 72 72 72 73 73 74 73 75 76 75 77 79 80 82 80 81 81 79 82 82 83 83 85 86 89 89 90 91 92 91 91 92 94 98 98 100 101 102 102 103 105 107 107 107 108 109 109 110 111 110 112 112 116 119 120 121 122 123 123 126 128 128 127 126 126 126 127 129 129 127 131 134 137 138 140 141 142 141 143 143 143 149 149 151 150 -209 -193 -209 -209 155 -193 -193 -193 158 160 162 163 163 165 0 0 0 0 0
    0 0 0 0 0 0 0 0 0 0 0 0 0 0 0 0 0 0 0 0 0 0 0 0 0 0 0 0 0 0 0 0 0 0 0 0 0 0 0 0 0 0 0 0 0 0 0 0 0 0 0 0 0 0 0 0 0 0 0 0 0 0 0 0 0 0 0 0 0 70 70 -193 -193 -193 -193 70 68 67 65 -193 -193 68 69 71 70 70 71 70 69 71 72 71 70 71 72 80 84 85 85 85 87 87 86 85 84 83 82 80 80 79 -225 -225 -225 -225 -225 -225 -225 -225 -225 -225 -225 -225 -225 -225 -225 -225 -225 -225 -225 -225 -225 -225 -225 -225 -225 -225 -225 -225 -225 -225 -225 -225 -225 -225 -225 -225 -225 -225 -225 -225 -225 -225 -225 -225 -225 -225 -225 -225 -225 -225 -225 -225 -225 -225 -225 -225 -225 -225 -225 -225 -225 -225 -225 -225 -225 -225 -225 -225 -225 -225 -225 -225 -225 -225 -225 -225 -225 -225 -225 -225 -225 -225 -225 -225 -225 -225 -225 -225 -225 -225 -225 -225 -225 -225 -225 -225 -225 -225 -225 68 68 70 -209 74 71 72 73 73 73 74 74 75 75 76 78 77 78 81 81 83 81 81 81 78 81 82 83 85 86 86 88 89 90 91 92 91 90 92 94 98 98 100 100 101 102 103 105 106 106 107 107 108 109 109 111 110 112 112 116 119 120 121 122 123 123 126 128 128 127 127 127 126 128 129 129 126 128 132 136 138 139 140 140 139 140 139 139 144 145 147 146 -209 149 153 -193 154 154 -193 -193 157 158 159 160 161 164 0 0 0 0 0
    0 0 0 0 0 0 0 0 0 0 0 0 0 0 0 0 0 0 0 0 0 0 0 0 0 0 0 0 0 0 0 0 0 0 0 0 0 0 0 0 0 0 0 0 0 0 0 0 0 0 0 0 0 0 0 0 0 0 0 0 0 0 0 0 0 0 0 0 0 70 70 -193 -193 -193 -209 -209 -193 -193 -209 74 71 72 74 74 74 74 73 72 72 73 76 75 75 83 87 87 87 88 88 88 88 88 87 86 84 84 82 79 80 -225 -225 -225 -225 -225 -225 -225 -225 -225 -225 -225 -225 -225 -225 -225 -225 -225 -225 -225 -225 -225 -225 -225 -225 -225 -225 -225 -225 -225 -225 -225 -225 -225 -225 -225 -225 -225 -225 -225 -225 -225 -225 -225 -225 -225 -225 -225 -225 -225 -225 -225 -225 -225 -225 -225 -225 -225 -225 -225 -225 -225 -225 -225 -225 -225 -225 -225 -225 -225 -225 -225 -225 -225 -225 -225 -225 -225 -225 -225 -225 -225 -225 -225 -225 -225 -225 -225 -225 -225 -225 -225 -225 -225 -225 -225 -225 -225 -225 -225 -225 -225 68 70 -209 76 72 73 73 75 74 77 76 76 77 78 80 79 79 82 80 82 81 81 82 79 82 83 86 87 88 89 90 89 90 91 92 90 89 91 93 98 97 99 99 100 101 103 105 106 106 107 108 109 110 110 111 111 112 113 117 120 121 122 123 123 123 126 129 129 128 127 127 127 129 130 130 126 127 132 136 138 139 140 140 138 139 139 138 140 138 138 -193 -209 -209 149 151 153 153 154 154 156 157 -193 -209 -209 -209 0 0 0 0 0
    0 0 0 0 0 0 0 0 0 0 0 0 0 0 0 0 0 0 0 0 0 0 0 0 0 0 0 0 0 0 0 0 0 0 0 0 0 0 0 0 0 0 0 0 0 0 0 0 0 0 0 0 0 0 0 0 0 0 0 0 0 0 0 0 0 0 0 0 0 70 70 -193 -193 72 75 75 72 78 81 82 77 79 81 78 77 79 76 74 75 79 83 81 85 88 89 88 89 89 88 89 88 88 87 86 87 86 85 -225 -225 -225 -225 -225 -225 -225 -225 -225 -225 -225 -225 -225 -225 -225 -225 -225 -225 -225 -225 -225 -225 -225 -225 -225 -225 -225 -225 -225 -225 -225 -225 -225 -225 -225 -225 -225 -225 -225 -225 -225 -225 -225 -225 -225 -225 -225 -225 -225 -225 -225 -225 -225 -225 -225 -225 -225 -225 -225 -225 -225 -225 -225 -225 -225 -225 -225 -225 -225 -225 -225 -225 -225 -225 -225 -225 -225 -225 -225 -225 -225 -225 -225 -225 -225 -225 -225 -225 -225 -225 -225 -225 -225 -225 -225 -225 -225 -225 -225 -225 -225 -225 -225 -225 71 -209 78 73 74 73 75 75 77 76 76 77 78 81 80 80 82 79 81 81 81 83 81 84 84 87 89 90 90 91 90 90 92 92 90 90 91 93 97 96 98 99 100 101 103 105 107 107 108 108 109 110 111 112 112 114 115 119 121 122 123 123 123 123 126 129 129 128 127 128 128 130 130 130 127 129 133 137 139 141 141 141 140 140 141 141 144 142 141 139 139 -193 141 147 -209 148 -209 153 154 156 157 -209 -209 -209 0 0 0 0 0
    0 0 0 0 0 0 0 0 0 0 0 0 0 0 0 0 0 0 0 0 0 0 0 0 0 0 0 0 0 0 0 0 0 0 0 0 0 0 0 0 0 0 0 0 0 0 0 0 0 0 0 0 0 0 0 0 0 0 0 0 0 0 0 0 0 0 0 0 0 71 71 71 73 72 75 74 73 74 76 77 76 78 80 78 77 79 77 77 80 84 85 84 88 89 90 89 89 89 89 89 89 89 87 86 87 87 -225 -225 -225 -225 -225 -225 -225 -225 -225 -225 -225 -225 -225 -225 -225 -225 -225 -225 -225 -225 -225 -225 -225 -225 -225 -225 -225 -225 -225 -225 -225 -225 -225 -225 -225 -225 -225 -225 -225 -225 -225 -225 -225 -225 -225 -225 -225 -225 -225 -225 -225 -225 -225 -225 -225 -225 -225 -225 -225 -225 -225 -225 -225 -225 -225 -225 -225 -225 -225 -225 -225 -225 -225 -225 -225 -225 -225 -225 -225 -225 -225 -225 -225 -225 -225 -225 -225 -225 -225 -225 -225 -225 -225 -225 -225 -225 -225 -225 -225 -225 -225 -225 -225 -225 -225 -225 -225 82 75 76 74 76 75 78 76 77 78 79 82 81 82 83 82 83 82 82 85 84 87 86 90 91 92 91 92 90 91 91 92 89 89 90 93 96 95 96 96 98 100 102 104 106 106 108 108 109 110 111 111 113 114 116 118 121 121 122 122 122 122 124 127 127 127 126 128 129 131 132 132 130 132 134 138 138 140 141 141 140 141 141 142 142 142 142 141 140 139 140 144 142 143 148 152 151 154 156 -193 -209 -209 0 0 0 0 0
    0 0 0 0 0 0 0 0 0 0 0 0 0 0 0 0 0 0 0 0 0 0 0 0 0 0 0 0 0 0 0 0 0 0 0 0 0 0 0 0 0 0 0 0 0 0 0 0 0 0 0 0 0 0 0 0 0 0 0 0 0 0 0 0 0 0 0 0 0 73 72 73 76 76 78 76 75 75 77 77 77 78 79 78 77 81 79 84 86 88 87 87 89 90 91 90 90 90 89 90 89 90 88 87 -225 -225 -225 -225 -225 -225 -225 -225 -225 -225 -225 -225 -225 -225 -225 -225 -225 -225 -225 -225 -225 -225 -225 -225 -225 -225 -225 -225 -225 -225 -225 -225 -225 -225 -225 -225 -225 -225 -225 -225 -225 -225 -225 -225 -225 -225 -225 -225 -225 -225 -225 -225 -225 -225 -225 -225 -225 -225 -225 -225 -225 -225 -225 -225 -225 -225 -225 -225 -225 -225 -225 -225 -225 -225 -225 -225 -225 -225 -225 -225 -225 -225 -225 -225 -225 -225 -225 -225 -225 -225 -225 -225 -225 -225 -225 -225 -225 -225 -225 -225 -225 -225 -225 -225 -225 -225 -225 -225 -225 -225 75 76 73 77 75 78 77 78 81 80 83 82 83 84 83 84 82 82 86 84 87 87 90 91 91 91 91 90 90 91 92 89 89 90 93 95 94 95 95 96 99 101 103 106 105 107 108 109 110 111 111 114 114 116 119 121 121 122 121 121 121 123 126 126 127 126 129 130 132 133 134 133 133 135 139 139 141 141 140 141 142 142 142 142 142 142 141 141 138 140 144 140 141 146 -209 146 154 155 -209 -209 -209 0 0 0 0 0
    0 0 0 0 0 0 0 0 0 0 0 0 0 0 0 0 0 0 0 0 0 0 0 0 0 0 0 0 0 0 0 0 0 0 0 0 0 0 0 0 0 0 0 0 0 0 0 0 0 0 0 0 0 0 0 0 0 0 0 0 0 0 0 0 0 0 0 0 0 76 75 77 80 80 81 79 78 77 79 79 78 78 79 78 80 85 84 87 88 89 89 89 91 92 92 91 91 90 90 91 90 91 89 -225 -225 -225 -225 -225 -225 -225 -225 -225 -225 -225 -225 -225 -225 -225 -225 -225 -225 -225 -225 -225 -225 -225 -225 -225 -225 -225 -225 -225 -225 -225 -225 -225 -225 -225 -225 -225 -225 -225 -225 -225 -225 -225 -225 -225 -225 -225 -225 -225 -225 -225 -225 -225 -225 -225 -225 -225 -225 -225 -225 -225 -225 -225 -225 -225 -225 -225 -225 -225 -225 -225 -225 -225 -225 -225 -225 -225 -225 -225 -225 -225 -225 -225 -225 -225 -225 -225 -225 -225 -225 -225 -225 -225 -225 -225 -225 -225 -225 -225 -225 -225 -225 -225 -225 -225 -225 -225 -225 -225 -225 -225 74 75 72 77 75 79 77 79 81 80 83 82 83 85 83 84 83 83 87 86 88 87 90 91 92 91 91 90 90 91 92 89 90 91 93 95 94 94 95 95 98 100 102 104 104 106 107 108 109 111 110 114 113 116 119 120 121 121 120 120 121 123 125 125 127 127 130 131 -193 135 135 136 136 137 139 139 140 140 140 140 141 141 143 143 142 142 142 143 140 141 143 139 139 144 147 143 -193 -209 -209 -209 -209 0 0 0 0 0
    0 0 0 0 0 0 0 0 0 0 0 0 0 0 0 0 0 0 0 0 0 0 0 0 0 0 0 0 0 0 0 0 0 0 0 0 0 0 0 0 0 0 0 0 0 0 0 0 0 0 0 0 0 0 0 0 0 0 0 0 0 0 0 0 0 0 0 0 0 78 77 79 82 82 83 81 80 80 81 82 80 81 82 82 85 87 87 89 91 91 91 92 92 93 93 92 91 90 90 91 89 90 -225 -225 -225 -225 -225 -225 -225 -225 -225 -225 -225 -225 -225 -225 -225 -225 -225 -225 -225 -225 -225 -225 -225 -225 -225 -225 -225 -225 -225 -225 -225 -225 -225 -225 -225 -225 -225 -225 -225 -225 -225 -225 -225 -225 -225 -225 -225 -225 -225 -225 -225 -225 -225 -225 -225 -225 -225 -225 -225 -225 -225 -225 -225 -225 -225 -225 -225 -225 -225 -225 -225 -225 -225 -225 -225 -225 -225 -225 -225 -225 -225 -225 -225 -225 -225 -225 -225 -225 -225 -225 -225 -225 -225 -225 -225 -225 -225 -225 -225 -225 -225 -225 -225 -225 -225 -225 -225 -225 -225 -225 -225 -225 -225 72 72 77 75 79 77 79 81 79 83 82 83 84 83 83 83 83 88 87 89 89 92 93 93 93 92 91 91 92 92 90 90 90 92 94 94 94 94 94 97 99 101 103 103 105 106 108 109 110 109 113 112 114 117 119 119 120 119 120 120 122 124 124 127 127 130 132 135 136 137 137 137 138 140 141 141 140 140 140 141 142 143 144 143 143 141 142 139 139 140 -193 135 -209 -209 -209 -209 -209 -193 -193 82 0 0 0 0 0
    0 0 0 0 0 0 0 0 0 0 0 0 0 0 0 0 0 0 0 0 0 0 0 0 0 0 0 0 0 0 0 0 0 0 0 0 0 0 0 0 0 0 0 0 0 0 0 0 0 0 0 0 0 0 0 0 0 0 0 0 0 0 0 0 0 0 0 0 0 79 79 81 83 84 84 83 83 83 84 84 83 85 85 85 87 89 89 90 91 92 92 91 92 93 93 92 91 91 91 91 -225 -225 -225 -225 -225 -225 -225 -225 -225 -225 -225 -225 -225 -225 -225 -225 -225 -225 -225 -225 -225 -225 -225 -225 -225 -225 -225 -225 -225 -225 -225 -225 -225 -225 -225 -225 -225 -225 -225 -225 -225 -225 -225 -225 -225 -225 -225 -225 -225 -225 -225 -225 -225 -225 -225 -225 -225 -225 -225 -225 -225 -225 -225 -225 -225 -225 -225 -225 -225 -225 -225 -225 -225 -225 -225 -225 -225 -225 -225 -225 -225 -225 -225 -225 -225 -225 -225 -225 -225 -225 -225 -225 -225 -225 -225 -225 -225 -225 -225 -225 -225 -225 -225 -225 -225 -225 -225 -225 -225 -225 -225 -225 -225 -225 -225 71 72 80 75 79 78 80 82 79 83 82 84 85 84 85 85 85 89 89 90 90 93 94 95 94 93 92 93 94 95 91 93 91 93 95 95 94 95 94 97 99 102 103 104 106 106 108 109 110 110 113 111 113 115 117 117 118 119 120 121 121 124 125 128 128 130 131 135 135 136 136 135 136 139 139 140 140 141 141 142 143 144 146 145 145 145 145 143 142 142 -209 132 -209 -209 -209 -209 -209 -209 -209 -209 0 0 0 0 0
    0 0 0 0 0 0 0 0 0 0 0 0 0 0 0 0 0 0 0 0 0 0 0 0 0 0 0 0 0 0 0 0 0 0 0 0 0 0 0 0 0 0 0 0 0 0 0 0 0 0 0 0 0 0 0 0 0 0 0 0 0 0 0 0 0 0 0 0 0 80 80 82 84 85 85 84 83 84 84 85 84 86 86 86 88 90 90 91 92 92 91 91 92 93 92 92 92 91 92 -225 -225 -225 -225 -225 -225 -225 -225 -225 -225 -225 -225 -225 -225 -225 -225 -225 -225 -225 -225 -225 -225 -225 -225 -225 -225 -225 -225 -225 -225 -225 -225 -225 -225 -225 -225 -225 -225 -225 -225 -225 -225 -225 -225 -225 -225 -225 -225 -225 -225 -225 -225 -225 -225 -225 -225 -225 -225 -225 -225 -225 -225 -225 -225 -225 -225 -225 -225 -225 -225 -225 -225 -225 -225 -225 -225 -225 -225 -225 -225 -225 -225 -225 -225 -225 -225 -225 -225 -225 -225 -225 -225 -225 -225 -225 -225 -225 -225 -225 -225 -225 -225 -225 -225 -225 -225 -225 -225 -225 -225 -225 -225 -225 -225 -225 -225 -225 71 80 76 78 79 80 85 79 84 82 84 86 85 86 86 86 90 90 91 91 94 94 95 94 93 92 94 95 96 93 97 93 94 97 97 95 95 94 96 97 101 103 104 106 107 108 110 111 110 112 111 113 114 116 116 117 118 120 121 122 124 125 128 128 130 131 135 135 136 135 133 134 138 137 138 138 139 140 142 142 144 146 146 147 149 149 149 150 147 140 135 -209 -209 -209 -209 -209 -209 -209 -209 0 0 0 0 0
    0 0 0 0 0 0 0 0 0 0 0 0 0 0 0 0 0 0 0 0 0 0 0 0 0 0 0 0 0 0 0 0 0 0 0 0 0 0 0 0 0 0 0 0 0 0 0 0 0 0 0 0 0 0 0 0 0 0 0 0 0 0 0 0 0 0 0 0 0 83 84 84 85 86 86 84 84 85 85 85 85 87 87 88 90 91 91 92 92 93 92 92 92 92 91 92 91 -225 -225 -225 -225 -225 -225 -225 -225 -225 -225 -225 -225 -225 -225 -225 -225 -225 -225 -225 -225 -225 -225 -225 -225 -225 -225 -225 -225 -225 -225 -225 -225 -225 -225 -225 -225 -225 -225 -225 -225 -225 -225 -225 -225 -225 -225 -225 -225 -225 -225 -225 -225 -225 -225 -225 -225 -225 -225 -225 -225 -225 -225 -225 -225 -225 -225 -225 -225 -225 -225 -225 -225 -225 -225 -225 -225 -225 -225 -225 -225 -225 -225 -225 -225 -225 -225 -225 -225 -225 -225 -225 -225 -225 -225 -225 -225 -225 -225 -225 -225 -225 -225 -225 -225 -225 -225 -225 -225 -225 -225 -225 -225 -225 -225 -225 -225 -225 -225 -225 -225 79 76 79 81 80 84 77 82 80 84 85 85 86 86 86 91 91 92 93 95 95 96 95 94 93 95 96 98 97 100 97 99 100 100 99 98 96 97 96 100 103 104 107 107 108 109 110 110 112 110 112 113 115 115 117 119 120 121 121 124 125 128 128 129 130 134 133 135 135 133 134 137 136 138 139 140 142 144 145 147 148 148 148 150 151 151 151 150 148 141 150 -209 -209 -209 -209 -209 -209 -209 0 0 0 0 0
    0 0 0 0 0 0 0 0 0 0 0 0 0 0 0 0 0 0 0 0 0 0 0 0 0 0 0 0 0 0 0 0 0 0 0 0 0 0 0 0 0 0 0 0 0 0 0 0 0 0 0 0 0 0 0 0 0 0 0 0 0 0 0 0 0 0 0 0 0 85 86 86 86 87 87 85 85 87 87 87 87 89 89 90 92 95 94 94 94 94 93 92 92 92 91 -225 -225 -225 -225 -225 -225 -225 -225 -225 -225 -225 -225 -225 -225 -225 -225 -225 -225 -225 -225 -225 -225 -225 -225 -225 -225 -225 -225 -225 -225 -225 -225 -225 -225 -225 -225 -225 -225 -225 -225 -225 -225 -225 -225 -225 -225 -225 -225 -225 -225 -225 -225 -225 -225 -225 -225 -225 -225 -225 -225 -225 -225 -225 -225 -225 -225 -225 -225 -225 -225 -225 -225 -225 -225 -225 -225 -225 -225 -225 -225 -225 -225 -225 -225 -225 -225 -225 -225 -225 -225 -225 -225 -225 -225 -225 -225 -225 -225 -225 -225 -225 -225 -225 -225 -225 -225 -225 -225 -225 -225 -225 -225 -225 -225 -225 -225 -225 -225 -225 -225 -225 -225 -225 -225 72 76 80 85 74 79 79 85 85 86 87 88 88 92 91 93 94 95 96 97 96 95 94 96 97 98 99 100 98 100 99 99 99 98 96 97 96 100 102 104 106 107 107 108 109 109 111 109 111 112 114 115 117 118 120 120 121 123 124 126 127 129 130 133 132 134 134 133 133 135 135 136 138 139 142 144 144 147 149 150 150 152 152 152 152 151 152 149 152 -193 -209 -209 -193 -209 -209 -209 0 0 0 0 0
    0 0 0 0 0 0 0 0 0 0 0 0 0 0 0 0 0 0 0 0 0 0 0 0 0 0 0 0 0 0 0 0 0 0 0 0 0 0 0 0 0 0 0 0 0 0 0 0 0 0 0 0 0 0 0 0 0 0 0 0 0 0 0 0 0 0 0 0 0 87 88 87 88 89 88 87 88 89 89 89 90 91 91 92 94 96 95 95 95 94 93 92 92 92 -225 -225 -225 -225 -225 -225 -225 -225 -225 -225 -225 -225 -225 -225 -225 -225 -225 -225 -225 -225 -225 -225 -225 -225 -225 -225 -225 -225 -225 -225 -225 -225 -225 -225 -225 -225 -225 -225 -225 -225 -225 -225 -225 -225 -225 -225 -225 -225 -225 -225 -225 -225 -225 -225 -225 -225 -225 -225 -225 -225 -225 -225 -225 -225 -225 -225 -225 -225 -225 -225 -225 -225 -225 -225 -225 -225 -225 -225 -225 -225 -225 -225 -225 -225 -225 -225 -225 -225 -225 -225 -225 -225 -225 -225 -225 -225 -225 -225 -225 -225 -225 -225 -225 -225 -225 -225 -225 -225 -225 -225 -225 -225 -225 -225 -225 -225 -225 -225 -225 -225 -225 -225 -225 -225 -225 -225 75 85 95 -193 80 81 87 88 89 91 91 91 94 92 94 96 96 97 98 97 96 96 98 99 99 100 101 99 101 101 101 101 100 97 98 98 100 101 104 106 106 106 108 108 108 110 109 111 112 114 115 116 118 120 121 122 123 124 126 127 127 129 131 132 133 133 132 132 134 134 136 137 138 140 142 143 147 148 150 150 153 154 154 153 152 153 153 153 154 154 -193 -193 158 165 167 0 0 0 0 0
    0 0 0 0 0 0 0 0 0 0 0 0 0 0 0 0 0 0 0 0 0 0 0 0 0 0 0 0 0 0 0 0 0 0 0 0 0 0 0 0 0 0 0 0 0 0 0 0 0 0 0 0 0 0 0 0 0 0 0 0 0 0 0 0 0 0 0 0 0 88 89 89 89 90 91 90 90 91 92 93 93 93 96 94 96 97 96 95 94 94 93 92 -225 -225 -225 -225 -225 -225 -225 -225 -225 -225 -225 -225 -225 -225 -225 -225 -225 -225 -225 -225 -225 -225 -225 -225 -225 -225 -225 -225 -225 -225 -225 -225 -225 -225 -225 -225 -225 -225 -225 -225 -225 -225 -225 -225 -225 -225 -225 -225 -225 -225 -225 -225 -225 -225 -225 -225 -225 -225 -225 -225 -225 -225 -225 -225 -225 -225 -225 -225 -225 -225 -225 -225 -225 -225 -225 -225 -225 -225 -225 -225 -225 -225 -225 -225 -225 -225 -225 -225 -225 -225 -225 -225 -225 -225 -225 -225 -225 -225 -225 -225 -225 -225 -225 -225 -225 -225 -225 -225 -225 -225 -225 -225 -225 -225 -225 -225 -225 -225 -225 -225 -225 -225 -225 -225 -225 -225 -225 -225 -225 88 102 -209 82 80 86 87 87 89 90 90 94 93 93 96 95 97 99 98 97 97 98 100 100 101 102 100 102 102 102 103 103 101 102 102 103 103 105 107 106 107 108 108 108 110 109 110 111 113 114 116 118 121 121 122 124 125 127 128 127 128 129 129 132 132 129 129 131 133 135 136 137 -193 -193 144 147 149 150 151 153 154 155 154 153 -193 -209 -193 156 156 158 160 162 166 167 0 0 0 0 0
    0 0 0 0 0 0 0 0 0 0 0 0 0 0 0 0 0 0 0 0 0 0 0 0 0 0 0 0 0 0 0 0 0 0 0 0 0 0 0 0 0 0 0 0 0 0 0 0 0 0 0 0 0 0 0 0 0 0 0 0 0 0 0 0 0 0 0 0 0 89 90 90 92 93 95 94 94 95 97 99 98 97 98 96 97 98 96 94 93 93 93 -225 -225 -225 -225 -225 -225 -225 -225 -225 -225 -225 -225 -225 -225 -225 -225 -225 -225 -225 -225 -225 -225 -225 -225 -225 -225 -225 -225 -225 -225 -225 -225 -225 -225 -225 -225 -225 -225 -225 -225 -225 -225 -225 -225 -225 -225 -225 -225 -225 -225 -225 -225 -225 -225 -225 -225 -225 -225 -225 -225 -225 -225 -225 -225 -225 -225 -225 -225 -225 -225 -225 -225 -225 -225 -225 -225 -225 -225 -225 -225 -225 -225 -225 -225 -225 -225 -225 -225 -225 -225 -225 -225 -225 -225 -225 -225 -225 -225 -225 -225 -225 -225 -225 -225 -225 -225 -225 -225 -225 -225 -225 -225 -225 -225 -225 -225 -225 -225 -225 -225 -225 -225 -225 -225 -225 -225 -225 -225 -225 -225 -225 -225 70 70 71 83 84 86 89 90 92 96 95 95 99 97 99 100 100 98 99 98 100 100 102 102 101 103 103 104 105 106 104 104 105 105 104 106 107 107 107 107 109 109 110 109 110 110 112 113 115 118 121 122 123 124 126 127 128 128 128 129 129 131 131 129 129 129 132 132 135 137 -193 -193 -193 147 149 151 151 152 153 153 154 153 -209 -209 -209 -193 157 158 160 160 164 166 0 0 0 0 0
    0 0 0 0 0 0 0 0 0 0 0 0 0 0 0 0 0 0 0 0 0 0 0 0 0 0 0 0 0 0 0 0 0 0 0 0 0 0 0 0 0 0 0 0 0 0 0 0 0 0 0 0 0 0 0 0 0 0 0 0 0 0 0 0 0 0 0 0 0 90 91 92 95 96 99 100 99 100 102 102 101 100 100 98 98 97 96 95 94 -225 -225 -225 -225 -225 -225 -225 -225 -225 -225 -225 -225 -225 -225 -225 -225 -225 -225 -225 -225 -225 -225 -225 -225 -225 -225 -225 -225 -225 -225 -225 -225 -225 -225 -225 -225 -225 -225 -225 -225 -225 -225 -225 -225 -225 -225 -225 -225 -225 -225 -225 -225 -225 -225 -225 -225 -225 -225 -225 -225 -225 -225 -225 -225 -225 -225 -225 -225 -225 -225 -225 -225 -225 -225 -225 -225 -225 -225 -225 -225 -225 -225 -225 -225 -225 -225 -225 -225 -225 -225 -225 -225 -225 -225 -225 -225 -225 -225 -225 -225 -225 -225 -225 -225 -225 -225 -225 -225 -225 -225 -225 -225 -225 -225 -225 -225 -225 -225 -225 -225 -225 -225 -225 -225 -225 -225 -225 -225 -225 -225 -225 -225 -225 -225 -225 74 74 82 82 84 87 87 91 95 96 96 100 98 99 101 100 99 99 99 101 101 103 103 102 105 104 105 106 107 105 105 106 106 105 107 108 107 107 108 109 108 109 109 110 110 111 112 114 118 121 122 123 125 126 128 129 129 129 128 128 130 130 128 128 130 132 133 136 138 140 145 146 147 148 150 150 151 152 -193 -193 -193 -193 -209 -193 -193 158 159 160 161 164 166 0 0 0 0 0
    0 0 0 0 0 0 0 0 0 0 0 0 0 0 0 0 0 0 0 0 0 0 0 0 0 0 0 0 0 0 0 0 0 0 0 0 0 0 0 0 0 0 0 0 0 0 0 0 0 0 0 0 0 0 0 0 0 0 0 0 0 0 0 0 0 0 0 0 0 95 96 98 100 101 102 104 104 104 105 105 104 103 102 99 98 97 96 95 -225 -225 -225 -225 -225 -225 -225 -225 -225 -225 -225 -225 -225 -225 -225 -225 -225 -225 -225 -225 -225 -225 -225 -225 -225 -225 -225 -225 -225 -225 -225 -225 -225 -225 -225 -225 -225 -225 -225 -225 -225 -225 -225 -225 -225 -225 -225 -225 -225 -225 -225 -225 -225 -225 -225 -225 -225 -225 -225 -225 -225 -225 -225 -225 -225 -225 -225 -225 -225 -225 -225 -225 -225 -225 -225 -225 -225 -225 -225 -225 -225 -225 -225 -225 -225 -225 -225 -225 -225 -225 -225 -225 -225 -225 -225 -225 -225 -225 -225 -225 -225 -225 -225 -225 -225 -225 -225 -225 -225 -225 -225 -225 -225 -225 -225 -225 -225 -225 -225 -225 -225 -225 -225 -225 -225 -225 -225 -225 -225 -225 -225 -225 -225 -225 -225 -225 -225 77 82 85 86 88 89 93 97 96 96 100 98 99 101 99 98 99 99 101 101 104 104 103 106 105 106 107 108 106 106 107 107 106 108 109 108 107 108 110 108 109 109 110 110 112 113 113 117 121 122 123 124 126 127 128 129 130 128 128 129 130 129 128 130 132 133 136 139 141 146 147 147 148 149 -193 -193 150 -193 -209 -193 -193 -193 -193 157 159 161 162 162 164 166 0 0 0 0 0
    0 0 0 0 0 0 0 0 0 0 0 0 0 0 0 0 0 0 0 0 0 0 0 0 0 0 0 0 0 0 0 0 0 0 0 0 0 0 0 0 0 0 0 0 0 0 0 0 0 0 0 0 0 0 0 0 0 0 0 0 0 0 0 0 0 0 0 0 0 100 100 101 102 102 103 105 105 105 105 105 104 103 102 101 100 98 98 -225 -225 -225 -225 -225 -225 -225 -225 -225 -225 -225 -225 -225 -225 -225 -225 -225 -225 -225 -225 -225 -225 -225 -225 -225 -225 -225 -225 -225 -225 -225 -225 -225 -225 -225 -225 -225 -225 -225 -225 -225 -225 -225 -225 -225 -225 -225 -225 -225 -225 -225 -225 -225 -225 -225 -225 -225 -225 -225 -225 -225 -225 -225 -225 -225 -225 -225 -225 -225 -225 -225 -225 -225 -225 -225 -225 -225 -225 -225 -225 -225 -225 -225 -225 -225 -225 -225 -225 -225 -225 -225 -225 -225 -225 -225 -225 -225 -225 -225 -225 -225 -225 -225 -225 -225 -225 -225 -225 -225 -225 -225 -225 -225 -225 -225 -225 -225 -225 -225 -225 -225 -225 -225 -225 -225 -225 -225 -225 -225 -225 -225 -225 -225 -225 -225 -225 -225 -225 -225 76 79 82 84 83 89 96 95 94 99 97 98 100 99 98 99 99 101 101 -193 104 104 106 105 105 106 107 106 105 107 107 106 108 109 108 107 108 109 107 109 107 109 110 111 114 113 118 120 121 122 123 125 126 127 128 130 128 128 130 131 132 130 130 132 132 136 139 141 145 145 145 147 148 148 149 149 -193 -193 -193 -193 154 157 158 161 162 163 163 165 166 0 0 0 0 0
    0 0 0 0 0 0 0 0 0 0 0 0 0 0 0 0 0 0 0 0 0 0 0 0 0 0 0 0 0 0 0 0 0 0 0 0 0 0 0 0 0 0 0 0 0 0 0 0 0 0 0 0 0 0 0 0 0 0 0 0 0 0 0 0 0 0 0 0 0 103 103 103 104 104 105 107 106 106 106 106 105 104 102 102 100 -225 -225 -225 -225 -225 -225 -225 -225 -225 -225 -225 -225 -225 -225 -225 -225 -225 -225 -225 -225 -225 -225 -225 -225 -225 -225 -225 -225 -225 -225 -225 -225 -225 -225 -225 -225 -225 -225 -225 -225 -225 -225 -225 -225 -225 -225 -225 -225 -225 -225 -225 -225 -225 -225 -225 -225 -225 -225 -225 -225 -225 -225 -225 -225 -225 -225 -225 -225 -225 -225 -225 -225 -225 -225 -225 -225 -225 -225 -225 -225 -225 -225 -225 -225 -225 -225 -225 -225 -225 -225 -225 -225 -225 -225 -225 -225 -225 -225 -225 -225 -225 -225 -225 -225 -225 -225 -225 -225 -225 -225 -225 -225 -225 -225 -225 -225 -225 -225 -225 -225 -225 -225 -225 -225 -225 -225 -225 -225 -225 -225 -225 -225 -225 -225 -225 -225 -225 -225 -225 -225 -225 -225 -225 77 76 78 87 96 95 94 98 96 97 100 100 100 100 100 101 102 105 105 104 107 105 105 107 108 107 106 108 108 107 109 109 109 108 109 110 107 109 107 109 111 112 113 113 117 119 119 121 122 123 125 126 126 128 128 128 130 133 133 131 131 133 134 138 140 142 144 143 145 145 147 147 147 148 148 -193 -193 -193 154 157 158 162 163 163 163 165 166 0 0 0 0 0
    0 0 0 0 0 0 0 0 0 0 0 0 0 0 0 0 0 0 0 0 0 0 0 0 0 0 0 0 0 0 0 0 0 0 0 0 0 0 0 0 0 0 0 0 0 0 0 0 0 0 0 0 0 0 0 0 0 0 0 0 0 0 0 0 0 0 0 0 0 108 107 106 107 107 107 108 107 107 107 106 106 105 104 104 -225 -225 -225 -225 -225 -225 -225 -225 -225 -225 -225 -225 -225 -225 -225 -225 -225 -225 -225 -225 -225 -225 -225 -225 -225 -225 -225 -225 -225 -225 -225 -225 -225 -225 -225 -225 -225 -225 -225 -225 -225 -225 -225 -225 -225 -225 -225 -225 -225 -225 -225 -225 -225 -225 -225 -225 -225 -225 -225 -225 -225 -225 -225 -225 -225 -225 -225 -225 -225 -225 -225 -225 -225 -225 -225 -225 -225 -225 -225 -225 -225 -225 -225 -225 -225 -225 -225 -225 -225 -225 -225 -225 -225 -225 -225 -225 -225 -225 -225 -225 -225 -225 -225 -225 -225 -225 -225 -225 -225 -225 -225 -225 -225 -225 -225 -225 -225 -225 -225 -225 -225 -225 -225 -225 -225 -225 -225 -225 -225 -225 -225 -225 -225 -225 -225 -225 -225 -225 -225 -225 -225 -225 -225 -225 -225 77 81 86 94 93 92 95 96 95 99 99 100 101 101 102 103 106 105 105 107 105 105 107 108 107 106 109 109 108 109 110 110 110 111 114 109 112 109 113 114 113 112 112 115 117 119 121 122 123 125 126 127 130 130 131 132 134 134 133 132 134 134 137 139 140 141 140 142 144 144 145 144 145 147 -193 -193 -193 153 156 158 162 164 163 163 164 166 0 0 0 0 0
    0 0 0 0 0 0 0 0 0 0 0 0 0 0 0 0 0 0 0 0 0 0 0 0 0 0 0 0 0 0 0 0 0 0 0 0 0 0 0 0 0 0 0 0 0 0 0 0 0 0 0 0 0 0 0 0 0 0 0 0 0 0 0 0 0 0 0 0 0 118 115 114 115 111 110 111 109 109 108 107 107 106 -225 -225 -225 -225 -225 -225 -225 -225 -225 -225 -225 -225 -225 -225 -225 -225 -225 -225 -225 -225 -225 -225 -225 -225 -225 -225 -225 -225 -225 -225 -225 -225 -225 -225 -225 -225 -225 -225 -225 -225 -225 -225 -225 -225 -225 -225 -225 -225 -225 -225 -225 -225 -225 -225 -225 -225 -225 -225 -225 -225 -225 -225 -225 -225 -225 -225 -225 -225 -225 -225 -225 -225 -225 -225 -225 -225 -225 -225 -225 -225 -225 -225 -225 -225 -225 -225 -225 -225 -225 -225 -225 -225 -225 -225 -225 -225 -225 -225 -225 -225 -225 -225 -225 -225 -225 -225 -225 -225 -225 -225 -225 -225 -225 -225 -225 -225 -225 -225 -225 -225 -225 -225 -225 -225 -225 -225 -225 -225 -225 -225 -225 -225 -225 -225 -225 -225 -225 -225 -225 -225 -225 -225 -225 -225 -225 -225 -225 -225 85 86 93 94 92 95 96 95 99 99 102 103 102 104 105 107 107 106 109 108 107 109 110 108 107 110 109 109 109 110 110 112 114 116 113 117 115 119 119 118 115 113 116 117 120 121 122 123 124 126 127 131 132 132 134 135 136 135 134 136 135 138 141 141 142 141 142 143 142 143 143 144 147 -193 -193 -193 153 157 159 162 164 162 163 164 166 0 0 0 0 0
    0 0 0 0 0 0 0 0 0 0 0 0 0 0 0 0 0 0 0 0 0 0 0 0 0 0 0 0 0 0 0 0 0 0 0 0 0 0 0 0 0 0 0 0 0 0 0 0 0 0 0 0 0 0 0 0 0 0 0 0 0 0 0 0 0 0 0 0 0 122 120 119 119 117 114 114 110 111 109 108 108 -225 -225 -225 -225 -225 -225 -225 -225 -225 -225 -225 -225 -225 -225 -225 -225 -225 -225 -225 -225 -225 -225 -225 -225 -225 -225 -225 -225 -225 -225 -225 -225 -225 -225 -225 -225 -225 -225 -225 -225 -225 -225 -225 -225 -225 -225 -225 -225 -225 -225 -225 -225 -225 -225 -225 -225 -225 -225 -225 -225 -225 -225 -225 -225 -225 -225 -225 -225 -225 -225 -225 -225 -225 -225 -225 -225 -225 -225 -225 -225 -225 -225 -225 -225 -225 -225 -225 -225 -225 -225 -225 -225 -225 -225 -225 -225 -225 -225 -225 -225 -225 -225 -225 -225 -225 -225 -225 -225 -225 -225 -225 -225 -225 -225 -225 -225 -225 -225 -225 -225 -225 -225 -225 -225 -225 -225 -225 -225 -225 -225 -225 -225 -225 -225 -225 -225 -225 -225 -225 -225 -225 -225 -225 -225 -225 -225 -225 -225 -225 -225 87 91 96 93 94 96 94 98 99 102 104 104 105 106 108 108 107 109 108 108 109 110 108 107 110 110 110 110 111 111 112 116 116 113 117 115 118 118 118 116 113 117 118 119 121 121 123 124 126 127 131 132 132 134 136 137 136 135 136 136 140 144 145 145 142 143 141 141 141 141 142 146 147 -193 -193 153 157 159 162 163 161 162 163 165 0 0 0 0 0</data></disparity>
</opencv_storage>
