<?xml version="1.0"?>
<opencv_storage>
<gps_time_stamp>303010</gps_time_stamp>
<gps_x>-1.2417544364929199e+001</gps_x>
<gps_y>1.0979839324951172e+001</gps_y>
<gps_z>-2.0245602130889893e+000</gps_z>
<image_time_stamp>293861</image_time_stamp>
<disparity type_id="opencv-matrix">
  <rows>90</rows>
  <cols>320</cols>
  <dt>s</dt>
  <data>
    0 0 0 0 0 0 0 0 0 0 0 0 0 0 0 0 0 0 0 0 0 0 0 0 0 0 0 0 0 0 0 0 0 0 0 0 0 0 0 0 0 0 0 0 0 0 0 0 0 0 0 0 0 0 0 0 0 0 0 0 0 0 0 0 0 0 0 0 0 59 59 59 58 57 57 56 55 56 57 57 54 54 53 54 54 55 52 52 49 49 51 50 49 48 48 47 46 47 47 46 46 45 43 42 41 41 40 40 38 37 36 37 36 35 33 33 31 32 32 35 32 32 37 33 34 34 32 32 30 29 29 26 26 25 24 23 22 23 23 23 24 24 23 23 25 24 25 24 25 24 25 24 23 22 21 20 17 16 9 0 0 0 0 0 0 0 0 9 9 9 9 9 9 9 10 10 10 10 10 10 10 9 10 9 10 12 12 18 18 21 21 21 23 23 25 27 26 29 28 32 31 33 32 34 34 36 35 37 35 39 37 36 36 37 38 39 39 40 42 47 51 51 50 53 49 49 52 51 54 -177 -193 -177 -209 61 -193 -193 66 65 64 64 61 62 64 67 67 65 68 -193 -193 -193 74 78 -193 -193 -193 -193 -177 -177 -177 -177 -177 90 94 98 100 97 93 101 98 98 100 99 100 102 103 -193 -177 106 107 -177 -177 -177 -193 -177 -209 522 524 -209 -209 -193 26 -209 -193 339 -177 -193 -193 -209 66 -209 -193 19 20 18 19 17 18 -209 -209 -193 -193 79 -193 -193 79 0 0 0 0 0
    0 0 0 0 0 0 0 0 0 0 0 0 0 0 0 0 0 0 0 0 0 0 0 0 0 0 0 0 0 0 0 0 0 0 0 0 0 0 0 0 0 0 0 0 0 0 0 0 0 0 0 0 0 0 0 0 0 0 0 0 0 0 0 0 0 0 0 0 0 59 60 59 58 57 57 56 55 57 57 58 55 55 54 55 54 55 53 52 48 49 50 50 50 48 49 48 47 49 47 46 47 46 44 42 42 41 40 40 39 38 36 37 37 35 33 32 31 32 32 36 32 32 37 33 35 35 33 32 30 29 29 26 27 25 24 23 22 23 24 24 24 23 22 24 24 24 24 24 24 24 24 24 23 22 21 21 18 16 11 9 0 0 0 0 0 0 0 9 9 10 9 10 10 10 10 10 10 10 9 10 10 9 10 9 10 11 12 18 18 22 21 22 23 24 26 27 27 29 29 32 32 33 32 33 34 36 34 37 35 39 36 36 36 37 38 39 39 39 41 47 51 51 51 53 49 49 52 50 54 -193 -193 -177 -209 61 62 -193 65 65 65 64 62 63 64 67 67 64 68 -193 -193 0 73 78 -193 -193 -193 -193 -193 -177 -177 -177 -177 90 94 98 99 97 93 101 99 99 101 100 101 103 105 -177 -193 106 108 -177 -177 -177 -209 -177 -209 523 524 -209 -209 -193 26 -209 -209 340 -193 -193 -193 -209 -193 -209 -193 -193 21 19 20 18 18 -193 -193 80 -193 79 80 -193 80 0 0 0 0 0
    0 0 0 0 0 0 0 0 0 0 0 0 0 0 0 0 0 0 0 0 0 0 0 0 0 0 0 0 0 0 0 0 0 0 0 0 0 0 0 0 0 0 0 0 0 0 0 0 0 0 0 0 0 0 0 0 0 0 0 0 0 0 0 0 0 0 0 0 0 60 60 59 58 57 57 56 56 57 57 58 55 56 54 54 54 55 53 52 48 49 50 50 50 49 49 49 48 51 48 47 48 48 44 43 42 42 40 40 39 38 35 37 37 35 33 32 32 33 33 37 33 32 38 34 36 35 33 33 30 29 29 26 27 26 23 23 22 24 24 23 23 23 22 24 24 23 23 24 24 23 24 23 22 22 21 21 18 15 10 0 0 0 0 0 0 0 0 10 10 11 10 10 10 10 10 10 10 10 9 10 9 9 9 9 9 10 11 19 19 23 22 22 24 25 26 27 27 29 29 32 32 32 32 33 35 36 34 36 34 37 35 35 35 35 37 38 38 39 40 46 51 51 51 53 48 49 52 50 53 -209 -193 -177 -193 61 62 -193 65 66 65 65 -177 -177 64 68 67 65 68 -193 -193 -177 -209 78 -193 -193 79 77 -193 -177 -177 -177 -177 -193 94 98 99 97 92 101 100 100 101 101 102 -209 106 619 620 107 109 -193 -177 -177 -209 -177 -209 523 525 -193 -193 -193 26 -209 -209 -193 -193 177 -193 -209 -209 -209 -209 -209 -193 19 20 -193 -193 82 -177 80 81 79 81 -193 81 0 0 0 0 0
    0 0 0 0 0 0 0 0 0 0 0 0 0 0 0 0 0 0 0 0 0 0 0 0 0 0 0 0 0 0 0 0 0 0 0 0 0 0 0 0 0 0 0 0 0 0 0 0 0 0 0 0 0 0 0 0 0 0 0 0 0 0 0 0 0 0 0 0 0 59 59 58 58 57 57 56 55 57 57 57 55 55 54 54 53 54 53 52 47 49 50 49 50 49 50 49 49 52 49 48 48 49 45 44 43 42 40 41 40 39 35 37 37 36 34 33 32 33 34 37 34 33 38 33 36 35 33 33 29 29 29 26 27 26 23 23 22 24 23 22 22 22 21 23 23 22 22 23 23 23 22 22 21 21 20 20 18 14 10 9 0 0 0 0 0 0 9 10 10 11 10 11 11 11 11 11 11 10 10 10 9 9 9 9 9 9 10 19 19 24 22 23 24 25 27 27 27 29 29 32 32 32 32 32 35 36 33 35 34 36 34 34 34 34 36 38 38 39 40 47 52 52 52 54 48 49 52 50 53 -193 -193 -177 -193 61 62 -193 65 66 65 65 -177 -177 65 68 68 65 68 -193 -193 -193 -209 78 -193 -193 79 77 82 -177 -177 -177 -177 -177 93 97 99 96 92 101 100 100 102 102 103 -193 107 619 621 108 110 109 -177 -177 -193 -177 -209 523 524 -193 -193 -193 27 -193 -193 -209 -193 177 -193 -209 794 -209 -209 -209 -193 19 -193 -193 -193 82 83 80 80 79 81 -193 81 0 0 0 0 0
    0 0 0 0 0 0 0 0 0 0 0 0 0 0 0 0 0 0 0 0 0 0 0 0 0 0 0 0 0 0 0 0 0 0 0 0 0 0 0 0 0 0 0 0 0 0 0 0 0 0 0 0 0 0 0 0 0 0 0 0 0 0 0 0 0 0 0 0 0 59 59 58 58 57 57 56 55 56 56 57 54 54 53 53 53 53 54 52 47 48 49 49 50 49 50 48 50 53 49 48 48 51 45 44 43 43 41 41 40 40 36 37 37 36 35 34 33 34 34 38 35 34 38 34 36 36 33 33 29 29 30 26 27 26 24 24 22 24 22 20 21 21 20 22 22 21 22 23 22 22 21 21 21 20 20 20 19 15 11 9 9 0 0 0 0 9 9 10 10 11 10 12 11 11 11 11 11 11 10 10 9 9 9 9 9 9 11 19 18 23 23 24 25 26 28 28 27 30 29 31 33 32 32 32 36 36 32 35 34 35 34 34 34 33 36 38 39 39 40 47 53 53 53 54 48 49 52 50 53 -177 -193 -177 -193 61 62 62 65 66 66 66 -177 -177 65 69 68 66 68 -193 -193 -209 -209 77 77 76 78 77 82 -193 -193 -177 -177 -177 93 95 98 95 92 100 101 101 102 -193 -193 -193 108 620 622 108 110 110 -193 -177 -193 -177 -209 522 524 -193 -209 -193 28 -193 -193 -193 -193 177 -193 -209 -177 -209 -209 -209 -209 -193 -193 84 86 82 83 80 80 79 81 -193 -193 0 0 0 0 0
    0 0 0 0 0 0 0 0 0 0 0 0 0 0 0 0 0 0 0 0 0 0 0 0 0 0 0 0 0 0 0 0 0 0 0 0 0 0 0 0 0 0 0 0 0 0 0 0 0 0 0 0 0 0 0 0 0 0 0 0 0 0 0 0 0 0 0 0 0 60 60 59 59 58 58 57 56 57 57 58 55 55 53 54 53 53 55 53 47 48 50 50 50 50 51 48 50 53 49 48 48 51 45 44 44 44 42 42 41 41 36 37 37 36 34 34 33 33 34 37 35 33 38 34 35 36 33 33 29 29 30 26 27 27 24 24 22 24 22 20 21 21 19 21 20 20 20 22 21 20 19 19 19 19 19 19 18 14 12 10 10 9 0 0 0 9 9 10 11 11 11 13 12 12 12 11 11 11 10 10 0 9 9 10 10 10 13 20 20 24 24 25 27 27 29 28 28 30 30 31 33 32 32 32 36 36 32 35 34 35 34 34 34 32 36 38 39 39 40 47 54 54 54 55 48 49 52 50 53 -177 -177 -177 -193 62 62 62 65 66 66 66 -177 -177 65 69 69 67 69 -193 -193 -209 -193 78 77 76 79 77 82 -193 -193 -177 -177 -177 -193 93 97 94 91 100 -193 -193 -193 -177 -177 -193 108 620 623 109 111 111 -193 -193 -193 349 -209 -209 -193 -193 -193 -209 -193 -209 -209 -193 -209 176 -193 -193 -177 -193 -193 -193 -209 -193 -193 84 86 82 83 80 80 79 80 79 -193 0 0 0 0 0
    0 0 0 0 0 0 0 0 0 0 0 0 0 0 0 0 0 0 0 0 0 0 0 0 0 0 0 0 0 0 0 0 0 0 0 0 0 0 0 0 0 0 0 0 0 0 0 0 0 0 0 0 0 0 0 0 0 0 0 0 0 0 0 0 0 0 0 0 0 60 60 60 60 58 58 58 57 58 58 59 57 57 56 55 55 55 56 53 48 49 51 50 51 51 51 48 49 53 48 47 47 51 45 44 44 44 42 42 41 41 36 36 37 36 34 34 33 33 34 37 35 32 38 34 35 36 33 33 29 29 30 26 27 27 24 24 21 23 21 19 20 20 19 20 18 18 18 20 19 18 17 16 18 17 18 18 16 13 12 11 10 9 9 9 0 9 10 10 10 12 11 13 11 12 12 11 11 11 10 10 0 9 9 10 10 10 12 19 19 24 25 25 27 28 30 28 28 31 29 30 33 31 32 30 35 35 31 35 34 34 34 34 34 32 36 38 39 39 39 47 55 55 55 55 48 49 52 51 54 -177 -177 -177 -177 61 61 61 64 66 66 66 -177 -177 65 69 69 68 -193 -193 -193 -209 -193 78 77 77 79 77 82 -193 -193 -177 -177 796 803 92 96 94 91 100 -177 -177 -177 -177 -177 -193 109 621 624 109 112 112 107 -193 -177 348 -193 -193 -193 -193 -193 -209 -193 -209 -209 -193 -209 176 178 -193 -177 -209 -193 352 -193 -193 87 85 86 82 82 80 80 79 80 79 80 0 0 0 0 0
    0 0 0 0 0 0 0 0 0 0 0 0 0 0 0 0 0 0 0 0 0 0 0 0 0 0 0 0 0 0 0 0 0 0 0 0 0 0 0 0 0 0 0 0 0 0 0 0 0 0 0 0 0 0 0 0 0 0 0 0 0 0 0 0 0 0 0 0 0 60 60 60 60 59 59 59 57 59 59 60 58 57 57 57 57 56 57 53 49 49 51 51 51 51 52 48 49 53 48 46 47 51 45 44 44 44 42 43 42 42 35 36 37 36 34 33 33 33 34 36 35 32 37 33 34 36 33 33 29 29 30 26 27 27 -193 23 21 23 21 19 20 20 19 19 18 17 16 19 17 16 15 14 16 14 15 16 14 12 12 11 10 10 10 10 0 10 10 11 11 12 11 13 12 12 12 12 11 11 10 11 0 9 9 10 10 10 12 18 19 22 24 25 27 28 30 28 28 31 29 29 32 30 31 29 34 34 30 34 34 34 34 34 34 32 36 38 39 39 39 47 55 55 55 56 48 49 52 51 54 -177 -177 -177 -177 62 62 62 64 66 66 66 -177 -177 66 69 69 68 -193 -193 -193 -209 -193 78 77 76 79 77 81 -193 -193 -177 -177 796 803 90 94 93 90 99 -177 -177 -177 -177 -177 -193 110 622 625 109 112 112 -193 -193 -177 -193 111 110 -193 -193 517 -193 -209 -209 -193 -209 127 -209 -209 -193 -177 -193 -193 353 -193 -193 -193 85 86 82 82 79 79 78 79 78 79 0 0 0 0 0
    0 0 0 0 0 0 0 0 0 0 0 0 0 0 0 0 0 0 0 0 0 0 0 0 0 0 0 0 0 0 0 0 0 0 0 0 0 0 0 0 0 0 0 0 0 0 0 0 0 0 0 0 0 0 0 0 0 0 0 0 0 0 0 0 0 0 0 0 0 60 59 60 61 59 60 59 58 60 60 61 59 58 58 57 57 57 58 54 50 50 52 51 51 51 52 48 49 53 48 46 47 51 45 44 44 44 42 43 42 42 36 36 38 35 34 33 34 33 34 35 35 31 37 33 33 35 32 33 29 29 30 27 27 27 -193 -193 21 23 21 18 19 20 18 18 16 16 14 17 16 14 13 12 14 12 12 13 11 10 10 9 9 9 9 10 0 10 10 10 11 12 11 14 12 13 11 12 11 11 10 11 0 9 9 10 10 11 12 18 18 21 24 24 27 28 30 28 28 31 29 29 32 30 30 29 34 34 30 34 34 34 34 34 34 32 36 38 39 39 39 47 54 54 54 55 48 48 52 -193 -177 -177 -177 -177 -193 62 62 62 64 66 66 66 -177 -177 66 69 69 68 69 -193 -193 -209 -193 78 77 76 79 77 81 86 82 -193 -177 797 804 89 93 92 89 99 -177 -177 -177 -177 770 772 111 622 625 110 112 113 -193 341 337 -193 110 109 110 108 514 -193 -193 -193 -193 -209 126 -193 -193 -193 -177 -193 -209 -193 -193 352 -209 -193 -193 82 82 79 79 78 79 78 79 0 0 0 0 0
    0 0 0 0 0 0 0 0 0 0 0 0 0 0 0 0 0 0 0 0 0 0 0 0 0 0 0 0 0 0 0 0 0 0 0 0 0 0 0 0 0 0 0 0 0 0 0 0 0 0 0 0 0 0 0 0 0 0 0 0 0 0 0 0 0 0 0 0 0 60 59 61 62 60 60 60 58 60 60 61 59 58 58 58 57 58 58 54 50 50 52 51 52 51 52 48 48 53 48 46 46 51 45 44 44 44 42 43 42 42 36 36 38 36 34 34 34 34 33 35 34 31 36 32 33 35 32 33 29 29 30 27 27 27 -193 -193 22 23 21 18 19 19 17 17 15 14 13 14 14 12 12 11 12 10 11 11 9 0 0 0 0 0 9 9 0 10 10 10 11 13 11 14 12 13 11 12 11 11 10 11 0 9 0 11 10 11 12 17 18 20 24 24 27 28 29 28 27 30 29 28 32 29 30 29 34 34 30 34 34 34 34 34 34 32 36 38 39 39 39 47 54 54 54 55 48 49 52 -193 -177 -177 -177 -177 -193 62 62 62 64 66 66 66 63 68 66 69 69 68 -193 -193 -209 -209 -193 78 77 77 79 77 81 86 81 81 -193 797 804 88 91 90 89 98 -177 -177 -177 -177 771 772 111 112 112 110 113 113 -193 340 -177 -193 109 108 109 -177 510 -193 117 -193 -193 -193 125 127 125 -193 -177 -193 -209 -193 351 352 -193 -209 -193 -193 82 79 79 78 79 78 78 0 0 0 0 0
    0 0 0 0 0 0 0 0 0 0 0 0 0 0 0 0 0 0 0 0 0 0 0 0 0 0 0 0 0 0 0 0 0 0 0 0 0 0 0 0 0 0 0 0 0 0 0 0 0 0 0 0 0 0 0 0 0 0 0 0 0 0 0 0 0 0 0 0 0 59 59 61 62 60 60 60 58 60 60 60 58 57 57 57 57 57 58 54 51 51 52 52 52 51 52 48 48 53 47 46 46 51 45 44 44 44 42 43 43 42 36 37 38 35 34 34 34 34 33 35 34 31 35 32 32 34 31 33 29 29 30 27 27 27 -193 -193 22 23 20 18 19 19 18 17 14 14 12 13 13 12 11 10 10 9 9 9 0 0 0 0 0 0 9 9 0 10 10 10 11 12 11 14 12 13 11 12 11 11 10 11 0 9 0 11 10 11 12 17 18 21 24 24 27 27 29 27 26 30 28 28 31 28 30 29 33 34 30 34 34 34 34 34 34 32 36 38 39 39 39 47 54 54 54 55 48 49 52 -177 -177 -177 -177 -177 59 61 62 62 64 66 65 66 62 67 66 69 69 67 -193 -193 -209 -209 -193 79 78 77 80 77 81 86 80 80 78 -177 86 87 -193 -193 88 98 -177 -177 -177 -177 771 772 111 112 112 110 113 113 340 340 -177 -193 108 107 108 -177 508 112 117 118 -193 -193 125 126 124 123 -193 -193 -209 -209 351 352 -193 -209 -209 -193 81 79 -193 78 -193 78 -193 0 0 0 0 0
    0 0 0 0 0 0 0 0 0 0 0 0 0 0 0 0 0 0 0 0 0 0 0 0 0 0 0 0 0 0 0 0 0 0 0 0 0 0 0 0 0 0 0 0 0 0 0 0 0 0 0 0 0 0 0 0 0 0 0 0 0 0 0 0 0 0 0 0 0 59 59 62 63 60 60 60 58 60 60 60 58 56 58 57 57 57 58 54 51 51 52 52 52 51 52 47 48 52 47 46 46 51 45 43 43 44 42 43 43 42 37 37 39 35 34 33 34 33 32 34 33 31 34 32 32 34 31 33 29 29 30 27 27 27 24 24 22 23 20 18 19 19 18 17 14 14 12 13 12 11 11 9 10 9 9 0 0 0 0 0 0 0 0 9 0 9 10 9 10 12 11 14 12 13 11 12 11 11 10 10 0 9 0 11 10 11 12 18 18 21 24 24 27 27 29 27 26 30 28 27 31 28 29 28 33 34 30 34 34 34 34 34 34 32 36 38 39 39 39 47 54 54 54 55 49 49 52 -177 -177 -177 -177 -177 59 61 61 61 63 65 64 65 61 66 65 68 68 67 -193 -193 -177 -209 -193 80 -193 77 80 77 81 86 80 80 78 -193 85 86 -193 -193 88 98 -193 -193 -193 -193 771 772 111 112 112 110 113 113 340 339 -177 -193 107 106 108 -177 507 112 117 118 119 -193 124 125 124 123 -193 -193 -193 -209 352 353 -193 -209 -193 -193 -193 -193 147 -193 -193 -193 -193 0 0 0 0 0
    0 0 0 0 0 0 0 0 0 0 0 0 0 0 0 0 0 0 0 0 0 0 0 0 0 0 0 0 0 0 0 0 0 0 0 0 0 0 0 0 0 0 0 0 0 0 0 0 0 0 0 0 0 0 0 0 0 0 0 0 0 0 0 0 0 0 0 0 0 60 59 62 63 61 60 61 58 61 61 61 58 57 58 58 57 57 57 53 51 51 52 51 51 51 51 47 48 52 47 46 46 51 44 43 43 44 42 43 43 42 -193 38 39 34 33 32 33 32 32 33 33 31 34 31 32 33 31 32 29 29 29 26 26 26 24 24 21 22 20 19 19 20 18 17 14 15 12 13 12 11 10 9 9 0 0 0 0 0 0 0 0 0 0 9 9 9 10 10 10 12 11 13 12 12 11 11 11 10 10 10 0 9 0 10 10 10 12 17 18 21 25 24 27 27 28 27 26 29 28 27 31 28 29 28 33 34 31 34 34 34 34 34 35 33 37 38 39 39 40 48 55 55 55 55 49 49 52 -177 54 -177 -193 -193 59 61 61 61 62 64 63 64 61 64 65 68 68 67 -193 -193 -177 -193 -193 -193 -193 77 80 78 81 86 79 79 77 81 84 86 -193 806 87 98 -193 -193 -193 -193 -193 772 111 112 112 110 113 113 340 340 -193 -193 106 106 107 108 -193 111 117 118 118 121 124 125 124 123 124 123 121 -209 -193 354 -193 -209 -209 -193 -193 145 146 146 146 -193 147 0 0 0 0 0
    0 0 0 0 0 0 0 0 0 0 0 0 0 0 0 0 0 0 0 0 0 0 0 0 0 0 0 0 0 0 0 0 0 0 0 0 0 0 0 0 0 0 0 0 0 0 0 0 0 0 0 0 0 0 0 0 0 0 0 0 0 0 0 0 0 0 0 0 0 60 60 63 64 61 61 61 59 61 61 61 58 57 59 59 57 57 57 53 51 51 52 51 51 51 51 47 48 52 47 46 46 51 44 43 43 44 42 43 42 42 -193 38 39 33 33 32 33 32 32 33 32 31 33 31 31 32 31 31 28 29 28 25 25 25 23 24 22 22 20 20 20 21 20 17 15 15 13 13 12 11 10 9 9 0 0 0 0 0 0 0 0 0 0 9 9 10 10 10 11 11 11 13 11 12 11 11 10 10 9 10 0 9 0 10 9 10 11 16 17 19 23 23 26 27 27 26 25 29 27 26 30 27 28 28 33 34 31 34 34 34 35 35 35 33 37 38 39 40 40 47 55 55 55 55 50 50 52 -177 54 -177 -193 -193 59 60 60 60 62 63 62 63 60 63 64 67 67 66 -193 -177 -177 -193 -193 -193 -193 -193 81 79 82 86 79 80 77 81 84 86 -193 805 -193 98 -193 -193 -193 -193 -193 772 111 112 112 110 113 113 -193 340 -193 -193 105 105 106 107 -209 111 117 117 118 121 123 124 124 123 123 123 121 117 -193 -209 -193 -193 -209 141 -209 144 146 145 146 146 146 0 0 0 0 0
    0 0 0 0 0 0 0 0 0 0 0 0 0 0 0 0 0 0 0 0 0 0 0 0 0 0 0 0 0 0 0 0 0 0 0 0 0 0 0 0 0 0 0 0 0 0 0 0 0 0 0 0 0 0 0 0 0 0 0 0 0 0 0 0 0 0 0 0 0 60 60 63 64 61 61 61 59 61 61 60 58 57 58 58 56 55 56 53 51 51 51 51 51 51 51 47 49 52 47 46 46 51 44 43 42 44 42 42 42 42 -193 39 40 34 33 32 34 32 33 33 33 31 33 31 31 32 31 30 28 28 27 25 24 24 23 23 22 23 21 21 20 21 21 18 16 16 13 13 12 12 10 9 10 0 0 0 0 0 0 0 0 0 0 9 9 9 10 10 10 11 10 12 11 12 11 11 10 10 9 9 0 0 0 10 9 10 10 15 16 18 22 22 25 26 26 24 24 28 27 26 30 27 28 28 32 34 31 34 34 34 35 35 35 34 37 39 39 -177 41 47 55 55 55 55 50 50 53 253 54 -177 -193 -193 59 60 60 60 61 63 62 63 60 62 64 67 67 66 -193 -177 -177 -193 -177 -193 -193 -193 81 79 82 85 79 79 77 80 84 86 805 805 -193 98 -193 -193 -193 -193 -193 772 111 112 112 110 113 113 -193 340 -193 102 104 104 -193 106 -209 110 116 116 117 121 123 124 123 123 123 122 119 116 -193 -209 -177 750 -209 140 -209 143 145 145 146 146 146 0 0 0 0 0
    0 0 0 0 0 0 0 0 0 0 0 0 0 0 0 0 0 0 0 0 0 0 0 0 0 0 0 0 0 0 0 0 0 0 0 0 0 0 0 0 0 0 0 0 0 0 0 0 0 0 0 0 0 0 0 0 0 0 0 0 0 0 0 0 0 0 0 0 0 59 59 63 64 61 61 61 59 61 61 60 57 56 57 57 55 53 55 52 51 50 51 50 51 51 51 47 49 53 47 46 46 51 44 42 42 43 42 42 42 42 -193 40 40 34 34 33 35 32 33 33 33 32 33 31 32 32 31 29 28 28 26 24 24 23 22 23 22 23 21 22 21 22 21 19 16 16 13 13 12 12 10 10 10 0 9 0 0 0 0 0 0 9 9 9 9 9 10 10 10 11 11 12 11 12 11 11 10 10 9 9 0 0 0 10 10 10 10 15 16 18 -193 22 25 26 26 24 24 28 26 26 29 27 27 27 32 34 31 34 34 34 36 36 36 35 38 39 39 -177 41 47 56 56 56 56 51 51 53 253 -177 -177 58 61 60 60 61 61 61 63 62 63 60 62 64 66 67 65 149 146 -177 -193 -177 -193 -193 -193 -193 79 81 85 79 79 77 80 84 86 805 804 -193 98 -193 -193 -193 -193 770 772 111 112 112 110 113 113 -193 340 -193 101 103 103 -193 -193 -209 109 114 115 116 -193 123 123 123 123 122 122 119 117 114 121 -193 -193 -193 139 -209 142 145 145 146 146 146 0 0 0 0 0
    0 0 0 0 0 0 0 0 0 0 0 0 0 0 0 0 0 0 0 0 0 0 0 0 0 0 0 0 0 0 0 0 0 0 0 0 0 0 0 0 0 0 0 0 0 0 0 0 0 0 0 0 0 0 0 0 0 0 0 0 0 0 0 0 0 0 0 0 0 59 59 64 64 62 61 61 59 61 60 59 57 54 56 55 53 51 55 51 50 50 50 50 51 51 51 46 49 54 46 46 46 51 43 42 42 43 42 42 42 42 -177 41 41 35 35 33 35 32 33 33 33 32 33 31 31 31 30 28 27 27 24 24 23 23 22 23 22 22 21 22 21 22 22 19 16 16 13 13 12 12 10 10 10 9 10 9 0 0 0 0 0 0 9 0 0 9 10 10 10 11 11 12 11 11 10 10 9 9 9 9 0 0 0 10 10 10 10 15 16 19 -193 22 25 26 26 24 24 27 26 25 29 26 27 27 32 34 31 34 34 34 36 36 37 35 39 40 39 -177 42 47 56 56 56 56 52 53 54 254 56 -177 -177 61 60 61 61 61 62 63 62 63 60 62 64 66 67 65 -193 -177 -177 -193 -177 -193 -193 -193 -193 79 81 85 79 79 77 80 84 86 805 804 -177 98 -193 -193 -193 -193 -193 772 768 770 112 110 113 113 -193 340 -193 99 101 102 103 -209 -209 -193 112 113 116 119 122 123 123 123 123 122 120 120 119 123 -193 -193 -209 138 -209 142 144 145 146 146 146 0 0 0 0 0
    0 0 0 0 0 0 0 0 0 0 0 0 0 0 0 0 0 0 0 0 0 0 0 0 0 0 0 0 0 0 0 0 0 0 0 0 0 0 0 0 0 0 0 0 0 0 0 0 0 0 0 0 0 0 0 0 0 0 0 0 0 0 0 0 0 0 0 0 0 59 60 64 64 62 61 62 59 60 60 59 56 53 54 53 51 48 54 51 50 50 50 50 51 52 52 46 49 54 46 46 45 51 43 42 42 43 42 42 42 42 -177 41 41 36 35 33 35 32 33 33 33 32 32 31 31 30 29 27 25 26 23 23 22 22 21 23 22 22 21 22 20 22 22 20 16 16 14 13 11 12 10 10 10 10 10 10 0 0 0 9 9 10 10 9 9 9 10 10 11 12 11 11 12 11 11 10 9 9 0 9 0 0 0 9 9 10 10 16 16 20 -193 23 25 26 26 23 23 27 26 25 28 26 27 27 32 34 31 34 34 34 37 37 37 36 39 40 40 -177 44 47 56 56 56 56 54 54 55 255 -193 -177 -177 62 61 61 61 61 61 63 62 62 59 62 63 66 66 65 -193 -193 -177 -193 -193 -193 -193 -193 -193 80 81 85 79 80 77 80 84 86 805 804 -177 98 -193 -193 -193 -193 -193 772 768 770 112 110 113 112 -193 340 -193 98 100 101 102 -209 -193 -193 110 111 114 118 122 123 123 124 123 123 121 122 122 125 129 130 -193 -193 -193 -193 144 144 146 146 146 0 0 0 0 0
    0 0 0 0 0 0 0 0 0 0 0 0 0 0 0 0 0 0 0 0 0 0 0 0 0 0 0 0 0 0 0 0 0 0 0 0 0 0 0 0 0 0 0 0 0 0 0 0 0 0 0 0 0 0 0 0 0 0 0 0 0 0 0 0 0 0 0 0 0 60 61 65 65 63 62 62 59 61 60 59 56 53 53 51 48 46 54 51 49 50 50 50 51 52 52 47 49 55 46 46 45 51 43 42 42 43 42 42 42 42 -193 41 41 36 35 34 35 32 33 33 33 32 32 31 31 29 29 25 24 25 22 23 21 21 21 22 22 22 21 22 20 22 22 21 16 17 14 12 11 12 10 9 9 9 10 10 9 9 10 10 10 11 11 10 10 10 11 10 12 13 12 12 12 12 11 11 9 9 0 0 0 0 0 9 9 10 10 16 17 19 -177 23 25 25 25 23 23 27 26 25 28 26 27 27 32 34 31 34 34 34 38 38 38 37 40 41 40 -177 45 46 57 57 57 56 55 55 56 256 58 -177 -177 63 61 61 61 61 61 62 61 62 59 61 63 66 66 64 -193 -193 -177 -193 -193 -193 -193 -193 -193 80 81 85 80 80 77 81 84 86 805 805 -177 98 -193 -193 -193 -193 -193 772 768 770 112 110 113 112 -193 -193 101 98 100 -193 102 -193 -193 -193 109 109 113 117 121 122 122 124 123 123 121 122 123 125 128 129 131 -193 -193 -193 143 144 145 146 146 0 0 0 0 0
    0 0 0 0 0 0 0 0 0 0 0 0 0 0 0 0 0 0 0 0 0 0 0 0 0 0 0 0 0 0 0 0 0 0 0 0 0 0 0 0 0 0 0 0 0 0 0 0 0 0 0 0 0 0 0 0 0 0 0 0 0 0 0 0 0 0 0 0 0 62 62 66 65 64 62 62 59 60 60 59 56 53 52 50 47 45 54 50 49 50 50 50 51 52 52 47 50 55 46 46 45 51 43 42 42 44 42 42 42 43 -193 41 41 37 36 35 35 33 34 34 33 32 32 30 31 28 28 24 23 24 21 23 21 20 21 22 22 22 21 22 20 23 23 21 16 17 14 12 11 11 10 9 9 10 9 10 9 9 10 10 10 11 10 10 10 10 11 11 13 14 12 13 13 12 12 11 10 9 0 0 0 0 0 10 9 10 10 17 17 19 -177 23 25 25 25 22 22 26 26 24 27 26 27 27 32 34 31 34 34 34 38 38 38 37 41 42 41 -177 46 46 57 57 57 56 56 57 -193 258 59 -193 -177 63 62 61 61 61 61 62 61 62 59 61 63 66 66 64 67 66 -193 -193 76 -193 80 -193 -193 80 81 85 80 81 77 81 84 86 805 804 -177 99 -193 -193 -193 -193 109 772 768 770 112 110 113 112 107 -193 101 98 100 -193 101 -193 -193 -193 108 109 112 115 121 121 122 124 123 123 122 123 124 126 128 128 130 -193 -193 -193 143 144 145 146 146 0 0 0 0 0
    0 0 0 0 0 0 0 0 0 0 0 0 0 0 0 0 0 0 0 0 0 0 0 0 0 0 0 0 0 0 0 0 0 0 0 0 0 0 0 0 0 0 0 0 0 0 0 0 0 0 0 0 0 0 0 0 0 0 0 0 0 0 0 0 0 0 0 0 0 63 63 66 65 64 62 62 59 60 60 59 56 53 51 50 46 45 54 50 49 50 50 51 51 52 52 47 51 56 46 46 46 52 43 42 42 44 42 42 42 43 -193 40 41 37 36 35 36 33 34 34 34 32 32 30 30 27 27 23 22 24 22 23 21 20 21 22 23 23 21 22 20 23 23 21 16 16 14 12 10 11 10 9 9 10 9 10 9 9 10 10 10 11 11 11 10 11 12 12 13 14 13 13 13 12 12 11 10 0 0 0 0 0 0 9 9 9 10 18 17 19 -193 22 24 24 24 22 22 -193 26 24 27 26 27 27 32 34 31 34 34 34 39 39 39 38 41 42 42 -177 -177 46 57 57 57 56 58 57 57 -193 59 63 -177 -177 62 61 61 61 62 63 61 62 59 61 63 66 66 64 67 66 -193 74 75 -193 79 -193 -193 80 81 85 80 81 77 82 84 86 805 804 796 99 -193 108 108 112 109 -193 768 770 112 110 113 112 107 -193 101 97 99 -193 -193 -193 -193 -193 108 108 111 115 120 121 122 124 123 123 122 123 124 125 128 128 128 135 -193 -193 142 144 145 146 146 0 0 0 0 0
    0 0 0 0 0 0 0 0 0 0 0 0 0 0 0 0 0 0 0 0 0 0 0 0 0 0 0 0 0 0 0 0 0 0 0 0 0 0 0 0 0 0 0 0 0 0 0 0 0 0 0 0 0 0 0 0 0 0 0 0 0 0 0 0 0 0 0 0 0 63 64 66 65 64 62 62 59 60 59 59 56 53 51 50 46 46 53 50 49 50 51 51 52 52 52 48 53 57 46 46 46 52 43 42 42 44 42 43 43 43 -193 40 40 38 37 35 36 33 34 34 34 32 32 30 31 27 27 23 23 24 22 23 21 20 21 22 23 23 21 22 19 23 23 21 17 16 14 12 10 11 10 10 10 10 10 11 10 10 11 10 10 11 11 11 11 12 12 13 14 14 14 13 13 13 12 11 10 9 0 0 0 0 0 10 9 9 10 17 17 19 22 22 24 23 23 22 22 -193 25 24 27 25 27 27 32 34 31 34 34 34 39 39 39 39 42 43 42 -177 -177 46 56 56 56 56 59 58 58 61 60 64 -177 -177 63 62 62 62 62 63 62 62 -193 61 63 66 66 64 67 65 70 74 75 -193 78 -193 80 80 80 85 80 81 77 82 84 86 805 804 796 99 -193 108 108 112 109 -193 768 770 112 110 112 112 107 -193 100 95 -193 -209 -209 -193 -193 -193 107 108 111 114 120 120 122 124 123 123 121 122 124 125 128 127 128 -193 0 -193 142 144 145 146 146 0 0 0 0 0
    0 0 0 0 0 0 0 0 0 0 0 0 0 0 0 0 0 0 0 0 0 0 0 0 0 0 0 0 0 0 0 0 0 0 0 0 0 0 0 0 0 0 0 0 0 0 0 0 0 0 0 0 0 0 0 0 0 0 0 0 0 0 0 0 0 0 0 0 0 64 64 66 64 63 62 62 59 59 59 59 56 53 51 50 47 46 53 50 49 50 51 51 51 52 52 47 52 57 46 46 46 52 44 42 42 44 42 43 43 43 -193 40 40 38 37 35 36 34 34 34 34 33 32 30 31 27 27 24 23 25 22 23 21 20 21 22 23 22 21 21 19 23 23 21 17 16 14 12 10 10 10 10 10 10 10 11 10 11 12 10 10 11 11 11 10 12 12 12 14 14 14 13 13 13 12 11 10 9 9 9 0 0 0 9 9 9 10 17 17 19 22 22 24 23 24 22 22 -193 26 24 27 26 27 27 32 34 31 35 35 35 40 40 40 40 42 43 43 -177 -177 46 56 56 56 56 61 59 59 61 61 65 -177 -177 63 62 62 62 62 63 62 62 -193 62 63 66 66 63 66 64 70 74 75 -193 78 -193 80 80 80 84 80 81 78 82 84 86 805 804 796 -193 -193 108 108 112 110 -193 768 770 112 109 112 112 -193 -193 99 -193 -193 -209 -209 -193 -193 -193 -193 -193 111 113 120 121 122 124 123 123 122 122 124 125 128 128 128 -193 0 -193 142 144 145 146 146 0 0 0 0 0
    0 0 0 0 0 0 0 0 0 0 0 0 0 0 0 0 0 0 0 0 0 0 0 0 0 0 0 0 0 0 0 0 0 0 0 0 0 0 0 0 0 0 0 0 0 0 0 0 0 0 0 0 0 0 0 0 0 0 0 0 0 0 0 0 0 0 0 0 0 63 63 65 63 62 61 61 58 59 59 58 56 54 51 50 47 46 53 50 48 50 50 50 51 51 52 47 52 57 47 47 46 53 44 43 42 44 43 43 43 43 -193 40 40 38 37 34 36 33 34 34 34 32 32 29 30 27 27 24 23 25 22 24 21 21 21 22 22 22 20 21 18 22 22 20 17 16 14 12 10 10 10 10 9 10 10 11 10 12 12 11 10 11 12 12 11 12 12 13 14 14 14 13 13 13 12 11 11 9 9 9 0 0 0 9 9 9 10 16 17 18 22 23 25 23 24 22 23 -193 26 25 28 26 28 28 32 34 32 36 36 35 41 41 41 41 43 43 44 -177 -177 47 55 55 55 56 62 59 59 62 61 65 -177 -177 63 62 62 62 62 63 62 62 -193 62 63 65 66 62 65 63 69 73 74 -193 77 77 79 80 80 84 80 81 78 82 84 86 805 804 -177 -193 -193 108 108 112 110 112 768 770 111 109 111 111 -193 341 98 -193 -193 -209 -209 -193 -193 -193 -193 -209 111 114 121 121 123 124 124 124 122 123 124 125 128 128 130 -193 -193 140 142 144 145 146 146 0 0 0 0 0
    0 0 0 0 0 0 0 0 0 0 0 0 0 0 0 0 0 0 0 0 0 0 0 0 0 0 0 0 0 0 0 0 0 0 0 0 0 0 0 0 0 0 0 0 0 0 0 0 0 0 0 0 0 0 0 0 0 0 0 0 0 0 0 0 0 0 0 0 0 63 64 64 62 62 60 60 58 58 58 58 56 53 50 51 46 46 53 50 48 50 50 50 50 51 51 47 51 56 46 47 47 53 44 43 42 44 43 43 42 43 -193 40 40 37 37 34 36 33 33 34 34 32 33 29 31 27 27 25 24 26 23 24 22 21 21 22 22 22 20 21 18 21 21 20 17 17 14 13 10 11 10 11 11 11 10 11 11 12 12 11 11 11 12 12 12 13 13 13 15 14 14 13 13 13 12 11 10 9 9 0 0 0 0 0 0 0 9 14 16 18 22 22 24 23 24 22 23 -193 26 25 28 26 28 28 32 34 32 36 36 36 41 41 41 41 43 43 44 -177 -177 46 54 54 54 55 62 59 59 62 62 66 -177 -177 64 62 62 62 63 63 62 62 -193 61 63 65 65 62 65 63 68 72 73 -193 77 77 79 80 79 84 80 81 77 82 84 -193 805 804 -177 -193 109 109 109 113 110 112 768 770 111 109 111 110 -193 342 97 -193 -193 -209 -209 -177 -193 -193 -193 -193 111 114 121 122 123 124 124 124 123 123 124 125 128 129 131 137 -193 140 142 144 144 146 146 0 0 0 0 0
    0 0 0 0 0 0 0 0 0 0 0 0 0 0 0 0 0 0 0 0 0 0 0 0 0 0 0 0 0 0 0 0 0 0 0 0 0 0 0 0 0 0 0 0 0 0 0 0 0 0 0 0 0 0 0 0 0 0 0 0 0 0 0 0 0 0 0 0 0 63 63 63 61 61 60 60 58 58 58 58 56 53 51 51 46 46 53 50 48 50 50 50 49 50 51 47 51 56 47 47 47 53 44 43 42 43 43 43 42 43 -193 40 40 37 37 34 36 33 33 34 34 32 33 30 31 28 28 26 24 26 23 23 22 21 21 22 22 22 20 21 18 21 21 19 16 17 14 13 10 10 10 11 12 12 11 12 12 13 13 12 12 12 13 13 13 14 13 14 15 14 14 14 14 13 12 12 11 9 9 0 0 0 0 0 0 0 0 12 15 17 22 22 24 23 24 23 23 -193 26 25 28 27 28 28 32 34 32 36 36 37 41 41 41 41 43 42 43 -177 -177 46 53 53 53 54 61 59 59 62 62 66 -177 -177 64 62 62 62 63 63 62 63 -193 61 63 65 65 62 65 63 68 72 72 -193 76 77 79 79 79 84 80 81 77 82 83 -193 804 803 -177 -193 109 109 109 113 110 112 768 770 111 108 110 110 -193 -193 97 -193 -193 -193 -193 -177 -193 483 -209 -209 111 115 121 122 123 124 123 124 122 123 123 124 127 127 131 137 -193 140 142 144 144 145 145 0 0 0 0 0
    0 0 0 0 0 0 0 0 0 0 0 0 0 0 0 0 0 0 0 0 0 0 0 0 0 0 0 0 0 0 0 0 0 0 0 0 0 0 0 0 0 0 0 0 0 0 0 0 0 0 0 0 0 0 0 0 0 0 0 0 0 0 0 0 0 0 0 0 0 61 62 61 60 60 59 59 57 58 58 58 56 54 51 52 46 47 53 50 48 49 50 49 49 50 50 46 51 56 46 47 47 53 44 43 42 43 43 43 42 42 -193 39 40 37 37 34 36 33 34 35 34 32 33 30 31 28 29 27 25 26 23 23 22 21 21 22 21 22 19 21 18 21 21 19 17 18 14 13 11 12 11 13 15 13 13 13 13 15 14 13 13 12 14 13 13 15 12 14 16 14 14 14 14 13 12 11 10 0 0 0 0 0 0 0 0 0 0 11 14 17 22 22 24 24 24 24 24 -193 27 26 28 27 28 29 31 34 32 36 36 37 41 41 41 41 43 42 -177 -177 -177 45 53 52 52 54 60 58 59 62 62 65 -177 -177 64 62 63 63 63 64 62 63 -193 62 63 65 65 62 64 63 68 71 72 -193 76 76 79 79 79 84 80 80 77 81 83 802 803 803 -177 101 109 109 109 113 110 112 768 770 110 107 109 109 -193 -193 96 -193 -193 -193 -193 -177 -193 483 -193 -209 112 115 121 123 123 123 123 123 122 122 122 123 126 125 132 137 -193 140 142 144 143 145 144 0 0 0 0 0
    0 0 0 0 0 0 0 0 0 0 0 0 0 0 0 0 0 0 0 0 0 0 0 0 0 0 0 0 0 0 0 0 0 0 0 0 0 0 0 0 0 0 0 0 0 0 0 0 0 0 0 0 0 0 0 0 0 0 0 0 0 0 0 0 0 0 0 0 0 60 61 60 59 60 59 59 57 58 58 57 56 55 52 53 47 48 54 50 48 49 49 49 48 49 50 46 51 57 46 46 47 53 44 43 42 43 42 42 42 42 -193 39 40 37 37 34 36 33 34 35 34 32 34 30 32 28 30 28 26 27 24 24 22 22 22 22 21 22 19 21 19 20 20 19 17 18 14 15 13 15 16 17 18 15 15 15 15 17 15 14 13 12 14 13 13 15 12 13 15 13 14 13 13 13 12 11 10 0 0 0 0 0 0 0 0 0 0 10 13 18 22 22 24 24 24 -193 -193 -193 27 26 29 28 29 30 32 34 32 36 35 36 41 41 41 41 44 43 44 -177 -177 45 52 51 51 53 57 57 57 61 61 64 -177 -177 64 62 63 63 63 64 62 63 60 62 63 64 64 61 63 62 68 71 71 -177 75 76 78 79 79 84 79 80 77 81 83 86 802 802 -177 101 110 109 109 113 110 112 768 770 109 107 108 108 -193 -193 96 -193 -193 -193 -193 -177 -193 484 484 -209 112 116 122 123 124 123 123 123 122 122 122 122 126 125 -193 138 -193 141 142 144 143 145 144 0 0 0 0 0
    0 0 0 0 0 0 0 0 0 0 0 0 0 0 0 0 0 0 0 0 0 0 0 0 0 0 0 0 0 0 0 0 0 0 0 0 0 0 0 0 0 0 0 0 0 0 0 0 0 0 0 0 0 0 0 0 0 0 0 0 0 0 0 0 0 0 0 0 0 60 61 60 59 59 59 58 57 58 58 57 56 56 53 54 49 50 54 50 48 49 49 49 48 49 49 45 51 57 -193 46 46 53 45 43 42 42 42 42 42 42 -193 39 39 37 37 34 36 33 33 34 34 32 34 30 32 29 31 29 27 27 25 24 23 23 22 22 22 22 19 21 19 21 21 20 18 19 16 18 16 18 19 19 19 18 17 17 17 18 17 15 14 13 14 13 13 15 11 12 15 13 14 13 13 13 12 11 10 0 0 0 0 0 0 0 0 0 0 9 12 18 22 23 25 25 25 25 25 29 28 27 30 28 29 30 32 34 32 36 35 35 40 41 41 42 44 43 45 47 48 46 50 50 49 53 56 56 56 -193 60 64 -177 -177 64 62 63 63 63 64 62 63 60 61 62 64 63 61 63 62 67 -193 -193 -177 75 76 79 80 80 85 80 80 77 82 84 86 -193 -177 -193 101 109 109 109 113 111 112 768 770 -193 106 107 107 102 100 96 -193 -193 -193 -193 -177 -193 484 484 -177 111 115 122 123 124 123 123 123 122 122 121 122 125 126 -193 138 -193 141 142 144 143 145 144 0 0 0 0 0
    0 0 0 0 0 0 0 0 0 0 0 0 0 0 0 0 0 0 0 0 0 0 0 0 0 0 0 0 0 0 0 0 0 0 0 0 0 0 0 0 0 0 0 0 0 0 0 0 0 0 0 0 0 0 0 0 0 0 0 0 0 0 0 0 0 0 0 0 0 59 60 59 58 58 58 58 56 58 58 57 56 57 55 54 51 51 54 50 48 49 49 49 47 48 49 45 51 58 -193 -193 45 53 45 43 42 42 42 42 42 42 -193 39 39 37 37 34 35 33 33 34 34 33 34 31 33 30 34 31 28 28 26 25 24 23 23 22 22 22 20 21 20 21 21 21 19 20 18 20 20 21 20 21 20 19 18 18 18 19 18 16 14 14 14 14 13 16 11 12 15 13 13 13 13 13 12 12 11 0 0 0 0 0 0 0 0 0 9 8 11 18 23 24 26 26 27 27 26 30 29 28 31 29 30 31 32 34 31 36 35 36 40 42 41 42 44 43 44 45 47 45 48 48 47 52 55 55 56 -193 59 63 -177 -177 63 62 63 63 63 64 62 62 60 61 62 63 63 61 62 62 66 69 -193 -177 75 76 79 80 81 85 80 81 77 82 84 86 88 -209 88 101 109 109 109 113 110 111 768 770 -193 106 106 106 102 100 95 -193 -193 -209 -209 -177 -193 484 -193 -177 110 114 121 123 123 122 123 123 122 122 121 122 126 -209 -209 139 140 141 142 144 144 145 144 0 0 0 0 0
    0 0 0 0 0 0 0 0 0 0 0 0 0 0 0 0 0 0 0 0 0 0 0 0 0 0 0 0 0 0 0 0 0 0 0 0 0 0 0 0 0 0 0 0 0 0 0 0 0 0 0 0 0 0 0 0 0 0 0 0 0 0 0 0 0 0 0 0 0 58 59 58 57 57 57 57 55 57 57 56 55 56 55 54 52 52 54 50 49 50 49 49 48 48 48 44 51 57 45 45 45 52 45 43 42 42 42 42 42 42 -193 39 39 36 37 33 35 33 33 34 34 32 34 31 34 32 35 32 29 29 27 25 25 24 23 23 22 22 20 21 20 22 21 21 20 21 19 21 21 21 20 21 20 20 18 18 19 20 18 17 16 15 14 15 15 15 11 12 16 13 14 14 14 13 13 13 11 9 9 0 0 0 0 0 0 9 9 9 11 19 24 25 26 27 27 28 28 31 30 29 32 30 31 32 33 34 31 36 35 37 40 42 42 43 44 43 44 44 46 45 46 47 45 51 54 54 55 58 59 62 -177 63 62 62 63 63 62 64 62 62 60 61 62 63 62 60 62 61 66 -193 -193 -177 76 77 79 81 82 86 80 81 77 82 83 85 88 -193 88 101 109 109 109 113 110 111 767 768 -193 105 -193 -193 101 100 96 -193 -193 -209 -209 248 -193 484 -193 -193 110 113 121 122 122 122 122 123 122 122 121 122 127 -209 -193 139 140 142 143 144 144 145 144 0 0 0 0 0
    0 0 0 0 0 0 0 0 0 0 0 0 0 0 0 0 0 0 0 0 0 0 0 0 0 0 0 0 0 0 0 0 0 0 0 0 0 0 0 0 0 0 0 0 0 0 0 0 0 0 0 0 0 0 0 0 0 0 0 0 0 0 0 0 0 0 0 0 0 58 58 57 57 57 57 57 55 56 56 55 54 55 55 54 52 52 54 51 50 50 49 49 48 49 49 45 52 57 45 45 46 52 45 43 42 42 42 42 41 41 -177 38 38 35 36 33 34 32 33 34 33 32 35 31 33 32 35 33 30 30 28 26 26 25 24 23 22 22 20 21 21 22 21 22 21 22 20 21 21 22 20 21 20 20 17 18 19 20 19 18 17 16 15 18 17 16 12 13 18 15 15 15 14 14 13 13 12 9 0 0 0 0 0 0 9 9 9 10 12 19 23 24 25 26 26 28 27 31 30 29 32 31 31 33 32 34 31 36 35 37 40 41 41 42 43 42 43 43 44 44 44 45 44 49 52 53 54 58 58 61 61 63 62 62 63 63 62 63 61 61 59 60 61 62 62 60 62 61 66 -193 -193 -177 77 77 80 82 83 86 81 81 78 81 83 85 88 88 -193 101 109 109 109 112 110 110 -177 -177 107 105 104 -193 101 101 97 -209 -193 -209 -209 247 -193 -193 -209 -209 110 112 121 122 122 121 121 122 121 121 121 122 127 -193 -193 140 141 142 143 144 144 145 144 0 0 0 0 0
    0 0 0 0 0 0 0 0 0 0 0 0 0 0 0 0 0 0 0 0 0 0 0 0 0 0 0 0 0 0 0 0 0 0 0 0 0 0 0 0 0 0 0 0 0 0 0 0 0 0 0 0 0 0 0 0 0 0 0 0 0 0 0 0 0 0 0 0 0 58 59 58 58 58 58 57 56 57 56 55 54 55 55 54 52 52 54 51 50 51 50 50 49 49 49 45 52 57 45 45 46 51 45 43 42 42 42 42 42 41 -193 38 38 35 36 33 34 32 33 33 33 31 35 31 33 32 35 33 31 31 29 26 26 25 24 23 22 22 20 21 21 22 22 23 21 22 22 22 22 22 20 21 21 21 19 20 21 21 20 20 19 18 17 21 18 18 13 14 19 16 16 16 15 15 14 13 12 9 0 0 0 0 0 0 0 0 9 11 12 20 24 24 25 26 26 28 27 30 30 29 31 30 31 32 31 32 30 33 32 35 39 40 40 41 43 42 42 42 43 43 44 45 44 48 51 52 54 58 58 60 61 63 63 62 63 63 62 64 61 60 59 59 61 62 62 60 62 62 67 69 70 -193 77 78 81 83 84 87 82 82 79 82 83 85 87 88 88 101 109 109 109 112 109 109 -193 -193 107 104 104 104 101 -193 -193 -209 -209 -209 -209 -177 -209 -193 -193 -193 110 111 119 120 121 118 120 122 121 122 122 123 131 -177 -193 140 141 143 143 144 143 145 144 0 0 0 0 0
    0 0 0 0 0 0 0 0 0 0 0 0 0 0 0 0 0 0 0 0 0 0 0 0 0 0 0 0 0 0 0 0 0 0 0 0 0 0 0 0 0 0 0 0 0 0 0 0 0 0 0 0 0 0 0 0 0 0 0 0 0 0 0 0 0 0 0 0 0 58 58 58 58 58 58 58 57 57 57 56 55 55 55 54 52 53 54 51 51 51 50 50 49 49 49 45 52 57 45 45 46 51 46 43 42 42 42 42 42 41 -193 38 38 35 36 34 34 32 33 33 33 31 35 32 33 33 35 33 32 31 30 26 27 26 25 23 22 22 20 22 22 23 22 23 22 23 23 22 22 22 20 20 19 21 19 20 21 21 21 20 20 19 17 22 19 19 13 14 19 17 16 17 15 15 14 14 13 10 0 0 0 0 0 0 9 9 9 13 15 21 25 25 26 27 26 29 28 31 31 30 33 31 31 32 31 31 29 32 30 32 37 38 39 41 43 42 43 42 43 43 44 45 44 47 50 52 54 57 58 59 61 62 63 62 64 63 62 64 61 60 59 59 60 61 61 61 63 64 69 70 71 84 80 81 83 85 86 88 83 83 80 83 84 85 87 88 87 100 109 109 109 111 109 109 107 107 107 105 104 -193 102 -193 100 104 103 -193 103 -193 -193 -193 -193 109 110 111 117 119 120 118 121 123 123 -193 -193 127 -193 -177 -193 141 141 143 143 145 144 145 144 0 0 0 0 0
    0 0 0 0 0 0 0 0 0 0 0 0 0 0 0 0 0 0 0 0 0 0 0 0 0 0 0 0 0 0 0 0 0 0 0 0 0 0 0 0 0 0 0 0 0 0 0 0 0 0 0 0 0 0 0 0 0 0 0 0 0 0 0 0 0 0 0 0 0 58 58 58 58 58 58 57 57 57 56 56 55 55 55 54 53 53 54 52 51 52 51 50 50 50 50 45 52 59 45 45 46 50 46 43 43 42 41 42 42 41 -193 38 38 35 36 34 34 32 34 33 33 31 34 31 32 32 35 33 32 31 31 27 28 27 25 24 23 23 21 22 22 24 23 24 23 23 23 22 22 21 20 20 18 21 19 19 21 21 21 20 20 20 18 23 20 20 14 16 20 18 17 17 15 15 14 14 13 10 0 0 0 0 0 0 9 9 10 15 16 21 24 25 26 26 26 28 28 30 30 31 33 31 32 32 31 31 29 31 29 30 36 38 39 41 43 43 43 43 44 44 44 46 45 47 48 51 54 57 57 58 60 61 62 62 63 62 61 63 60 59 58 57 58 60 59 60 62 64 70 72 74 86 83 83 84 85 86 88 84 84 82 84 85 86 88 88 88 100 108 108 108 110 108 108 107 107 107 104 104 -193 102 103 102 105 104 104 104 107 107 107 -193 -193 112 113 117 119 120 119 122 124 125 -193 -193 130 -209 -177 -193 141 141 144 143 145 144 145 144 0 0 0 0 0
    0 0 0 0 0 0 0 0 0 0 0 0 0 0 0 0 0 0 0 0 0 0 0 0 0 0 0 0 0 0 0 0 0 0 0 0 0 0 0 0 0 0 0 0 0 0 0 0 0 0 0 0 0 0 0 0 0 0 0 0 0 0 0 0 0 0 0 0 0 58 58 57 58 58 58 58 57 57 56 56 56 55 55 54 53 53 53 52 51 52 51 50 50 50 50 45 53 60 45 45 47 49 46 43 43 42 41 42 42 41 37 37 37 34 35 34 34 32 34 33 33 32 34 32 33 33 35 33 33 32 32 28 29 28 27 25 24 24 23 23 23 24 24 24 23 23 23 22 22 21 20 20 18 21 19 20 21 21 21 19 20 20 18 24 21 21 17 18 21 19 18 17 16 16 14 15 14 10 0 0 0 0 0 0 9 9 10 18 17 21 24 24 25 26 26 28 27 29 30 31 32 31 32 31 30 30 29 31 29 30 35 37 39 41 43 43 43 43 43 44 43 45 45 47 47 50 54 56 56 57 59 60 61 62 63 61 60 62 59 57 56 55 56 57 56 59 60 65 72 75 78 87 84 84 84 86 88 89 85 85 84 85 86 87 89 89 88 99 108 107 107 108 107 108 106 106 106 104 104 104 102 104 103 105 105 105 105 108 109 108 -193 -193 114 114 118 120 120 119 124 126 126 -193 129 131 -209 -193 -193 141 141 144 143 145 144 145 145 0 0 0 0 0
    0 0 0 0 0 0 0 0 0 0 0 0 0 0 0 0 0 0 0 0 0 0 0 0 0 0 0 0 0 0 0 0 0 0 0 0 0 0 0 0 0 0 0 0 0 0 0 0 0 0 0 0 0 0 0 0 0 0 0 0 0 0 0 0 0 0 0 0 0 58 57 57 58 58 58 57 57 56 56 56 55 54 54 53 52 53 53 52 51 52 51 50 50 50 50 45 52 60 45 45 47 49 46 43 43 42 41 42 41 41 36 36 37 33 35 33 34 32 33 33 33 32 34 32 33 33 34 33 33 33 33 29 29 29 27 25 25 25 23 24 24 25 24 25 24 23 23 22 22 22 20 21 18 22 19 20 21 21 21 20 21 22 20 26 24 23 21 21 23 21 19 18 16 17 15 16 14 11 9 9 0 0 0 9 10 9 10 19 19 21 24 24 25 26 26 28 27 28 29 32 31 31 31 31 30 30 30 32 29 31 35 37 40 41 42 42 43 42 43 44 42 44 46 47 49 51 54 56 56 57 58 59 60 62 62 61 60 61 60 58 56 55 57 58 56 61 64 67 73 76 80 87 85 85 85 87 89 90 86 86 85 86 87 87 89 89 88 99 107 106 106 107 106 107 106 106 106 104 104 104 103 104 104 105 106 106 -193 110 111 109 -193 -193 115 115 118 120 121 120 125 127 127 -193 131 132 -209 -193 -193 141 141 144 143 145 144 145 145 0 0 0 0 0
    0 0 0 0 0 0 0 0 0 0 0 0 0 0 0 0 0 0 0 0 0 0 0 0 0 0 0 0 0 0 0 0 0 0 0 0 0 0 0 0 0 0 0 0 0 0 0 0 0 0 0 0 0 0 0 0 0 0 0 0 0 0 0 0 0 0 0 0 0 57 57 57 58 57 57 57 57 55 56 56 55 54 54 53 52 52 53 52 51 51 50 49 49 50 50 45 52 58 45 45 48 49 46 43 43 42 41 41 41 40 35 36 36 32 34 34 33 32 33 33 33 32 34 32 33 34 35 34 33 34 33 29 30 29 27 25 25 25 23 25 25 26 24 25 24 24 24 22 22 22 20 21 20 22 19 20 22 23 23 23 23 24 24 28 26 26 25 25 24 23 20 19 16 17 16 16 15 12 10 9 0 0 0 10 10 9 10 19 19 21 23 24 25 25 25 27 27 28 29 33 31 30 32 31 30 31 30 32 29 33 36 37 40 41 42 42 42 42 43 43 41 42 46 46 49 51 54 56 57 57 58 59 60 62 62 61 61 62 62 59 58 57 59 62 60 68 -193 -193 75 80 83 86 86 85 86 87 89 90 87 87 87 86 87 87 89 89 88 98 106 105 105 106 105 106 105 105 105 103 103 104 103 106 106 106 108 108 -193 112 113 111 113 -193 116 116 118 121 122 120 126 129 128 -193 -193 -193 -193 -193 139 142 142 144 143 145 144 146 146 0 0 0 0 0
    0 0 0 0 0 0 0 0 0 0 0 0 0 0 0 0 0 0 0 0 0 0 0 0 0 0 0 0 0 0 0 0 0 0 0 0 0 0 0 0 0 0 0 0 0 0 0 0 0 0 0 0 0 0 0 0 0 0 0 0 0 0 0 0 0 0 0 0 0 58 57 58 59 58 58 57 57 56 56 56 55 54 53 53 52 52 52 52 50 51 50 48 48 49 50 45 51 57 46 45 49 49 46 43 43 41 41 41 41 39 34 35 36 31 34 34 34 32 34 33 32 32 34 32 32 33 34 33 33 34 33 29 30 29 27 26 26 26 23 26 26 26 25 26 25 24 24 22 22 22 20 21 20 22 20 21 24 24 24 25 25 26 26 29 27 26 27 26 25 24 21 20 17 18 17 16 15 14 9 9 0 0 0 11 12 9 9 18 19 20 23 23 24 25 25 27 27 28 30 34 31 31 32 31 31 31 31 32 29 33 35 36 39 39 42 41 42 42 42 43 41 42 46 45 48 51 54 56 57 57 59 60 61 62 62 61 61 62 63 59 58 58 59 63 60 70 74 75 77 80 82 84 84 84 85 86 89 89 87 87 87 87 88 88 90 90 89 97 105 104 103 105 104 105 103 104 104 102 102 103 103 106 107 106 108 109 -193 114 115 113 115 -193 -193 117 119 122 123 122 127 131 130 -193 -193 -193 -177 -193 139 142 142 144 143 145 145 146 147 0 0 0 0 0
    0 0 0 0 0 0 0 0 0 0 0 0 0 0 0 0 0 0 0 0 0 0 0 0 0 0 0 0 0 0 0 0 0 0 0 0 0 0 0 0 0 0 0 0 0 0 0 0 0 0 0 0 0 0 0 0 0 0 0 0 0 0 0 0 0 0 0 0 0 60 58 59 60 59 59 58 57 56 57 57 56 54 53 53 52 52 53 52 50 50 50 48 48 49 50 45 51 57 47 45 49 49 46 43 43 41 40 41 41 38 34 34 35 31 34 35 34 32 34 33 33 32 34 32 32 32 33 33 32 34 33 29 31 29 27 27 27 27 24 27 27 27 27 28 26 25 24 22 22 22 21 21 19 20 19 21 24 25 26 26 27 27 28 31 28 27 27 26 25 24 22 20 15 16 15 14 14 12 0 -193 0 0 0 10 10 0 0 15 19 20 22 23 25 26 26 28 28 28 29 33 31 31 32 31 31 31 31 32 30 32 33 34 37 37 41 40 41 41 42 43 41 43 47 46 48 52 55 56 57 58 59 60 62 63 62 60 62 62 63 60 59 58 60 65 64 72 74 75 76 78 81 82 83 84 85 86 89 90 88 89 89 89 89 88 90 91 90 96 104 103 102 104 103 104 103 104 103 100 100 102 101 -193 -193 103 -193 -209 -209 -193 -193 115 -193 -193 -193 -193 120 124 125 124 129 131 130 -193 -193 -193 -177 -193 -193 142 142 145 144 146 145 147 147 0 0 0 0 0
    0 0 0 0 0 0 0 0 0 0 0 0 0 0 0 0 0 0 0 0 0 0 0 0 0 0 0 0 0 0 0 0 0 0 0 0 0 0 0 0 0 0 0 0 0 0 0 0 0 0 0 0 0 0 0 0 0 0 0 0 0 0 0 0 0 0 0 0 0 60 59 59 60 59 59 58 57 57 57 57 56 55 54 54 53 53 53 52 51 51 50 49 49 50 50 45 51 57 48 45 49 48 46 43 43 41 41 41 41 38 35 34 36 32 35 35 35 33 33 34 33 33 34 32 33 33 33 33 32 34 34 30 31 29 28 28 28 29 25 28 29 28 29 30 27 26 25 23 23 22 22 21 20 21 21 24 26 27 28 29 30 30 32 34 29 29 28 27 26 25 22 18 13 14 13 12 -193 -209 -193 -193 0 0 0 9 9 0 0 15 22 21 23 24 27 27 27 30 29 29 30 33 31 32 32 31 32 32 32 32 30 33 33 35 38 37 41 41 42 43 44 45 43 44 50 50 51 53 56 56 57 57 58 60 61 63 62 60 63 62 65 61 60 60 63 68 65 72 74 74 75 78 81 82 82 83 84 86 90 91 89 90 90 91 90 89 91 91 91 96 103 102 101 102 102 103 102 103 102 97 98 100 100 105 105 102 103 106 106 111 115 116 117 -193 -193 -193 -193 125 125 125 129 131 131 -193 -193 -193 -193 -193 140 141 141 144 144 146 146 147 148 0 0 0 0 0
    0 0 0 0 0 0 0 0 0 0 0 0 0 0 0 0 0 0 0 0 0 0 0 0 0 0 0 0 0 0 0 0 0 0 0 0 0 0 0 0 0 0 0 0 0 0 0 0 0 0 0 0 0 0 0 0 0 0 0 0 0 0 0 0 0 0 0 0 0 61 60 60 60 60 59 58 57 57 57 57 56 54 53 54 53 54 54 53 51 51 51 50 49 50 51 46 52 56 49 46 49 48 46 43 43 40 40 41 41 37 35 34 36 32 36 35 35 33 33 34 34 34 34 33 34 33 34 33 33 34 34 31 32 30 29 31 31 32 27 29 31 29 33 33 30 27 26 24 24 24 23 22 21 17 20 22 25 26 28 30 32 32 36 36 31 30 29 28 27 27 25 -225 -225 -225 -225 -225 -225 -225 -225 -225 -225 -225 -225 -225 -225 -193 0 15 23 20 20 23 27 28 27 31 29 30 31 34 32 33 33 32 33 33 33 34 32 35 34 37 39 37 41 41 41 43 44 47 44 45 51 51 52 54 56 56 57 57 57 57 60 61 60 59 61 61 65 65 64 62 64 69 67 73 75 75 74 76 79 80 82 83 84 85 89 92 90 91 91 92 91 91 92 92 91 95 101 100 99 102 102 102 101 102 101 94 95 95 95 103 104 101 103 106 106 110 117 -193 -193 -193 -193 123 123 126 126 126 129 131 130 133 134 135 -193 138 140 141 141 145 144 146 146 148 149 0 0 0 0 0
    0 0 0 0 0 0 0 0 0 0 0 0 0 0 0 0 0 0 0 0 0 0 0 0 0 0 0 0 0 0 0 0 0 0 0 0 0 0 0 0 0 0 0 0 0 0 0 0 0 0 0 0 0 0 0 0 0 0 0 0 0 0 0 0 0 0 0 0 0 62 61 60 60 60 60 58 58 57 57 56 56 54 53 54 54 54 54 53 52 51 51 50 50 50 51 46 52 56 50 46 49 48 46 43 43 40 40 40 40 37 35 34 35 32 36 34 35 32 32 34 33 34 34 33 34 33 34 34 33 35 34 33 34 32 32 36 37 37 32 33 34 33 35 35 32 29 27 25 26 25 24 22 21 16 21 24 26 27 28 30 32 32 36 35 32 30 29 28 27 -225 -225 -225 -225 -225 -225 -225 -225 -225 -225 -225 -225 -225 -225 -225 -225 -225 -225 -225 -225 12 16 23 28 30 28 32 30 32 32 35 33 34 34 34 35 35 35 36 35 37 36 38 40 38 41 41 41 42 44 47 46 46 52 53 54 55 58 57 57 57 57 57 58 59 58 58 59 60 66 63 63 63 63 68 65 71 73 70 71 74 76 77 78 79 80 82 87 90 90 90 91 93 91 91 92 92 91 94 98 98 97 100 100 100 96 97 95 91 90 88 89 93 99 98 102 106 108 112 118 119 120 122 124 124 125 127 126 126 128 130 129 131 133 134 136 137 141 142 142 145 145 146 147 148 150 0 0 0 0 0
    0 0 0 0 0 0 0 0 0 0 0 0 0 0 0 0 0 0 0 0 0 0 0 0 0 0 0 0 0 0 0 0 0 0 0 0 0 0 0 0 0 0 0 0 0 0 0 0 0 0 0 0 0 0 0 0 0 0 0 0 0 0 0 0 0 0 0 0 0 63 62 61 61 61 60 59 58 58 57 57 56 54 53 54 53 53 53 53 52 51 51 50 50 50 51 46 52 54 50 46 50 48 47 44 44 40 41 40 40 38 36 35 35 32 34 34 34 31 31 33 32 34 34 34 35 34 34 34 34 36 35 35 35 33 35 39 40 39 36 36 37 36 38 38 35 32 30 28 27 27 25 22 22 15 21 25 27 28 28 30 32 32 36 36 34 33 31 30 -225 -225 -225 -225 -225 -225 -225 -225 -225 -225 -225 -225 -225 -225 -225 -225 -225 -225 -225 -225 -225 -225 -225 23 27 30 28 33 30 33 34 36 33 36 35 35 37 36 36 37 36 37 37 39 41 38 41 41 41 42 44 47 46 46 53 54 56 57 58 58 58 57 58 57 58 59 59 60 61 62 68 65 66 66 66 69 69 72 73 71 71 73 74 75 77 77 78 81 87 91 90 90 91 94 91 91 91 92 91 92 95 95 94 98 99 98 95 95 94 90 90 83 82 86 91 93 101 106 108 111 118 120 120 123 124 124 125 127 125 126 126 128 128 130 132 133 135 138 142 143 144 145 146 146 147 149 150 0 0 0 0 0
    0 0 0 0 0 0 0 0 0 0 0 0 0 0 0 0 0 0 0 0 0 0 0 0 0 0 0 0 0 0 0 0 0 0 0 0 0 0 0 0 0 0 0 0 0 0 0 0 0 0 0 0 0 0 0 0 0 0 0 0 0 0 0 0 0 0 0 0 0 64 62 61 61 61 61 59 59 59 57 57 56 55 54 54 54 54 53 53 52 51 51 50 50 50 50 47 51 52 51 47 50 49 47 45 45 41 41 41 41 38 37 36 35 33 33 34 33 31 30 32 31 34 34 36 36 36 35 36 36 37 36 35 35 34 35 40 40 39 39 39 40 40 41 41 40 38 38 35 31 30 26 22 19 10 19 25 27 28 29 30 33 33 35 37 36 34 32 -225 -225 -225 -225 -225 -225 -225 -225 -225 -225 -225 -225 -225 -225 -225 -225 -225 -225 -225 -225 -225 -225 -225 -225 -225 -225 33 31 36 33 36 36 37 35 37 36 36 38 37 37 37 37 38 37 39 40 38 40 40 41 42 43 46 -193 46 52 54 56 57 58 58 58 57 59 59 59 59 60 61 62 63 67 65 67 67 69 71 72 72 73 72 71 73 74 74 76 77 78 80 86 90 89 90 91 93 91 90 91 91 90 91 93 94 93 98 99 98 95 95 93 91 90 84 80 85 88 91 100 107 110 111 118 119 120 123 124 124 125 126 124 125 124 127 128 132 133 134 136 140 143 145 145 146 147 147 147 149 150 0 0 0 0 0
    0 0 0 0 0 0 0 0 0 0 0 0 0 0 0 0 0 0 0 0 0 0 0 0 0 0 0 0 0 0 0 0 0 0 0 0 0 0 0 0 0 0 0 0 0 0 0 0 0 0 0 0 0 0 0 0 0 0 0 0 0 0 0 0 0 0 0 0 0 64 63 61 61 61 61 60 60 60 57 57 56 56 55 54 55 54 53 53 53 52 52 50 50 50 50 48 51 50 51 47 50 50 48 45 45 41 42 41 41 39 37 36 36 34 34 34 34 31 30 32 31 35 36 37 38 37 37 37 37 38 37 36 36 34 36 40 41 41 41 41 42 42 43 44 43 41 41 39 36 35 28 22 21 -193 20 26 27 28 29 31 34 33 36 38 37 35 -225 -225 -225 -225 -225 -225 -225 -225 -225 -225 -225 -225 -225 -225 -225 -225 -225 -225 -225 -225 -225 -225 -225 -225 -225 -225 -225 -225 34 38 35 38 38 38 37 38 37 37 39 38 37 37 37 38 36 39 39 36 39 39 39 41 42 45 46 46 51 54 55 57 58 58 58 57 60 59 60 60 61 63 63 64 66 66 67 66 68 71 73 73 73 73 72 74 75 75 77 77 78 78 86 90 89 90 91 93 91 91 91 91 90 91 92 93 92 97 98 97 95 94 93 92 91 88 82 86 -209 92 103 107 112 112 117 120 120 123 123 123 124 124 123 124 122 126 128 133 133 134 136 140 143 146 146 146 148 148 149 150 150 0 0 0 0 0
    0 0 0 0 0 0 0 0 0 0 0 0 0 0 0 0 0 0 0 0 0 0 0 0 0 0 0 0 0 0 0 0 0 0 0 0 0 0 0 0 0 0 0 0 0 0 0 0 0 0 0 0 0 0 0 0 0 0 0 0 0 0 0 0 0 0 0 0 0 65 63 62 62 62 62 60 60 61 58 57 57 56 55 54 54 54 52 53 53 52 52 51 50 50 50 50 50 49 51 47 51 50 49 46 46 42 42 41 42 40 38 38 37 36 35 35 35 31 30 32 33 36 37 38 39 38 38 38 38 39 38 37 37 36 39 43 46 45 45 45 45 45 45 45 43 41 41 39 37 36 29 23 -225 -193 20 26 27 29 30 31 34 34 37 40 40 -225 -225 -225 -225 -225 -225 -225 -225 -225 -225 -225 -225 -225 -225 -225 -225 -225 -225 -225 -225 -225 -225 -225 -225 -225 -225 -225 -225 -225 -225 39 37 38 38 37 37 38 37 38 39 38 38 38 38 38 36 39 39 35 38 38 39 40 42 45 48 47 52 54 56 57 58 58 57 57 60 60 61 60 61 63 62 64 65 66 67 64 66 69 70 71 73 71 71 73 74 75 76 77 77 76 86 91 90 90 91 94 92 91 91 92 91 93 93 93 91 98 98 98 96 94 92 91 92 89 82 88 -209 94 105 108 112 113 117 120 120 123 123 123 124 124 123 123 121 124 125 129 129 129 134 138 143 146 146 147 148 149 149 150 150 0 0 0 0 0
    0 0 0 0 0 0 0 0 0 0 0 0 0 0 0 0 0 0 0 0 0 0 0 0 0 0 0 0 0 0 0 0 0 0 0 0 0 0 0 0 0 0 0 0 0 0 0 0 0 0 0 0 0 0 0 0 0 0 0 0 0 0 0 0 0 0 0 0 0 64 63 61 61 61 61 60 60 61 58 57 57 57 55 54 55 54 52 52 53 52 52 51 51 50 50 51 51 49 51 47 51 51 50 48 47 44 44 43 43 42 41 39 39 38 37 37 36 32 30 33 35 38 39 40 41 40 40 41 41 41 40 39 39 39 42 45 50 48 49 49 49 49 48 47 44 42 42 41 39 38 31 -225 -225 -225 -225 27 29 32 31 33 35 35 38 -225 -225 -225 -225 -225 -225 -225 -225 -225 -225 -225 -225 -225 -225 -225 -225 -225 -225 -225 -225 -225 -225 -225 -225 -225 -225 -225 -225 -225 -225 -225 -225 40 36 38 38 37 37 38 37 37 39 39 38 39 39 38 37 39 39 36 38 38 39 40 42 45 49 49 52 54 55 56 57 57 56 57 59 59 61 61 62 64 63 65 66 67 67 65 65 69 69 71 72 71 71 72 73 75 76 77 76 77 86 93 90 90 91 94 92 92 92 92 91 93 94 93 92 99 100 100 99 96 96 94 94 91 85 -193 -209 97 105 109 113 113 117 119 120 122 123 123 124 124 123 123 121 123 125 126 127 126 133 138 142 146 146 146 148 148 148 149 149 0 0 0 0 0
    0 0 0 0 0 0 0 0 0 0 0 0 0 0 0 0 0 0 0 0 0 0 0 0 0 0 0 0 0 0 0 0 0 0 0 0 0 0 0 0 0 0 0 0 0 0 0 0 0 0 0 0 0 0 0 0 0 0 0 0 0 0 0 0 0 0 0 0 0 64 62 61 60 61 61 60 60 61 58 58 57 57 55 54 55 54 51 52 52 51 52 51 51 50 50 52 51 49 51 48 52 52 51 49 48 46 46 44 45 44 43 42 41 41 41 41 40 37 32 36 38 41 41 42 44 43 42 42 42 42 41 41 42 43 45 47 52 50 52 52 52 51 50 48 45 44 43 42 41 39 -225 -225 -225 -225 -225 -225 -225 -225 -225 -225 -225 -225 -225 -225 -225 -225 -225 -225 -225 -225 -225 -225 -225 -225 -225 -225 -225 -225 -225 -225 -225 -225 -225 -225 -225 -225 -225 -225 -225 -225 -225 -225 -225 -225 -225 -225 37 39 39 38 38 39 38 38 40 41 40 40 41 40 39 40 41 37 38 38 39 40 42 45 50 49 52 54 55 56 56 56 55 56 59 59 61 63 64 65 66 67 67 68 67 65 64 68 69 70 71 70 70 73 74 75 76 76 76 76 86 92 90 90 90 93 92 91 92 91 90 93 93 93 92 99 99 98 98 97 98 96 96 93 89 102 106 106 107 111 114 113 116 119 120 122 122 122 123 123 122 122 121 124 125 127 128 126 133 138 142 145 144 144 146 148 147 148 148 0 0 0 0 0
    0 0 0 0 0 0 0 0 0 0 0 0 0 0 0 0 0 0 0 0 0 0 0 0 0 0 0 0 0 0 0 0 0 0 0 0 0 0 0 0 0 0 0 0 0 0 0 0 0 0 0 0 0 0 0 0 0 0 0 0 0 0 0 0 0 0 0 0 0 63 62 60 60 60 60 59 60 61 58 58 58 57 55 53 54 53 51 52 52 51 52 51 51 50 50 52 51 50 52 50 53 53 53 50 50 49 48 46 46 46 43 43 42 41 42 42 42 41 37 39 40 43 43 43 44 44 44 43 42 42 41 44 44 45 46 48 52 51 53 52 52 52 50 49 46 46 45 44 -225 -225 -225 -225 -225 -225 -225 -225 -225 -225 -225 -225 -225 -225 -225 -225 -225 -225 -225 -225 -225 -225 -225 -225 -225 -225 -225 -225 -225 -225 -225 -225 -225 -225 -225 -225 -225 -225 -225 -225 -225 -225 -225 -225 -225 -225 -225 -225 -225 -225 40 40 40 42 40 40 43 42 41 41 41 40 39 40 40 37 38 38 39 39 41 44 48 48 51 53 55 55 56 55 55 56 59 59 62 64 66 66 67 69 69 70 69 68 65 69 70 71 73 73 72 74 76 76 77 78 77 77 85 91 89 89 90 92 92 92 92 92 91 92 92 92 91 97 97 96 96 95 96 96 96 95 89 100 106 106 107 112 115 115 117 119 120 121 121 122 123 123 122 122 121 124 126 128 129 128 133 138 142 146 145 144 146 148 147 148 148 0 0 0 0 0
    0 0 0 0 0 0 0 0 0 0 0 0 0 0 0 0 0 0 0 0 0 0 0 0 0 0 0 0 0 0 0 0 0 0 0 0 0 0 0 0 0 0 0 0 0 0 0 0 0 0 0 0 0 0 0 0 0 0 0 0 0 0 0 0 0 0 0 0 0 63 61 59 59 59 59 59 59 60 57 58 58 57 55 53 54 53 50 51 52 51 51 51 51 51 51 52 51 51 53 50 54 54 53 51 50 51 50 49 48 47 44 44 44 43 43 44 44 43 39 -193 43 44 44 43 44 44 44 44 43 43 45 47 47 47 49 50 53 52 53 52 52 52 51 49 48 47 47 -225 -225 -225 -225 -225 -225 -225 -225 -225 -225 -225 -225 -225 -225 -225 -225 -225 -225 -225 -225 -225 -225 -225 -225 -225 -225 -225 -225 -225 -225 -225 -225 -225 -225 -225 -225 -225 -225 -225 -225 -225 -225 -225 -225 -225 -225 -225 -225 -225 -225 -225 -225 -225 44 46 43 42 45 43 41 41 41 40 39 40 40 38 39 39 40 40 42 45 48 47 51 52 54 55 56 55 55 56 59 60 63 65 67 67 68 69 69 70 69 68 66 69 70 71 73 73 73 75 78 78 80 80 80 80 86 91 89 90 91 92 92 92 93 92 91 93 93 92 91 96 95 95 95 93 93 94 94 94 -209 -193 -193 -209 -209 -193 114 114 114 115 116 113 110 114 118 120 119 119 121 124 128 129 129 129 133 138 141 146 144 144 146 147 146 147 148 0 0 0 0 0
    0 0 0 0 0 0 0 0 0 0 0 0 0 0 0 0 0 0 0 0 0 0 0 0 0 0 0 0 0 0 0 0 0 0 0 0 0 0 0 0 0 0 0 0 0 0 0 0 0 0 0 0 0 0 0 0 0 0 0 0 0 0 0 0 0 0 0 0 0 -193 61 59 58 58 58 58 59 60 57 58 57 57 55 53 53 53 50 51 52 51 52 51 51 51 51 53 52 51 53 51 55 55 54 52 51 52 52 52 50 48 46 47 47 45 45 46 46 46 40 50 51 46 45 45 46 44 45 45 44 43 46 48 47 47 50 51 53 52 53 53 52 52 52 51 49 -225 -225 -225 -225 -225 -225 -225 -225 -225 -225 -225 -225 -225 -225 -225 -225 -225 -225 -225 -225 -225 -225 -225 -225 -225 -225 -225 -225 -225 -225 -225 -225 -225 -225 -225 -225 -225 -225 -225 -225 -225 -225 -225 -225 -225 -225 -225 -225 -225 -225 -225 -225 -225 -225 -225 -225 -225 -225 40 40 39 38 37 38 38 39 40 41 40 40 40 41 42 43 45 47 47 50 52 54 54 56 55 55 57 60 61 64 66 66 66 67 69 68 69 69 67 65 69 70 71 73 74 75 76 80 81 82 83 83 83 87 92 90 91 91 93 92 93 93 93 92 94 93 93 91 96 95 95 95 94 93 94 94 95 -209 -193 -193 -209 -209 -193 111 111 111 114 115 111 109 111 113 117 117 118 120 125 131 132 132 133 133 138 139 144 142 142 145 147 146 147 148 0 0 0 0 0
    0 0 0 0 0 0 0 0 0 0 0 0 0 0 0 0 0 0 0 0 0 0 0 0 0 0 0 0 0 0 0 0 0 0 0 0 0 0 0 0 0 0 0 0 0 0 0 0 0 0 0 0 0 0 0 0 0 0 0 0 0 0 0 0 0 0 0 0 0 62 61 58 58 58 57 57 58 59 58 58 58 57 56 55 54 54 50 51 52 51 52 51 52 51 52 54 53 52 54 53 56 55 55 53 52 54 55 54 51 49 48 50 50 49 49 50 51 53 47 56 55 47 46 46 47 45 47 46 45 44 49 51 49 50 52 51 53 52 53 52 53 53 53 51 -225 -225 -225 -225 -225 -225 -225 -225 -225 -225 -225 -225 -225 -225 -225 -225 -225 -225 -225 -225 -225 -225 -225 -225 -225 -225 -225 -225 -225 -225 -225 -225 -225 -225 -225 -225 -225 -225 -225 -225 -225 -225 -225 -225 -225 -225 -225 -225 -225 -225 -225 -225 -225 -225 -225 -225 -225 -225 -225 -225 -225 -225 -225 35 37 38 39 41 43 42 41 41 43 44 45 46 48 47 50 53 54 54 55 55 56 57 60 61 63 65 65 66 67 68 68 69 69 67 64 69 70 71 73 74 75 77 80 82 83 84 84 84 87 91 90 91 91 93 93 94 94 94 92 95 94 93 92 96 94 94 95 93 92 94 94 95 -209 -193 116 -193 -209 114 115 114 113 116 117 113 112 112 110 116 117 118 122 129 133 134 133 135 133 135 137 141 -193 -193 144 148 146 147 148 0 0 0 0 0
    0 0 0 0 0 0 0 0 0 0 0 0 0 0 0 0 0 0 0 0 0 0 0 0 0 0 0 0 0 0 0 0 0 0 0 0 0 0 0 0 0 0 0 0 0 0 0 0 0 0 0 0 0 0 0 0 0 0 0 0 0 0 0 0 0 0 0 0 0 62 61 58 58 58 57 57 58 59 58 59 59 59 58 57 55 54 51 52 52 51 52 52 52 52 53 54 54 53 55 54 56 55 55 54 52 54 56 54 51 49 49 50 51 52 52 53 54 57 55 57 56 51 49 49 48 49 51 50 48 48 53 55 54 54 54 53 54 54 54 54 53 53 -225 -225 -225 -225 -225 -225 -225 -225 -225 -225 -225 -225 -225 -225 -225 -225 -225 -225 -225 -225 -225 -225 -225 -225 -225 -225 -225 -225 -225 -225 -225 -225 -225 -225 -225 -225 -225 -225 -225 -225 -225 -225 -225 -225 -225 -225 -225 -225 -225 -225 -225 -225 -225 -225 -225 -225 -225 -225 -225 -225 -225 -225 -225 -225 -225 -225 -225 -225 40 45 45 47 46 45 48 48 48 50 51 50 51 53 54 54 55 55 56 57 59 60 62 65 64 65 66 68 67 69 69 68 65 69 70 72 73 74 75 77 80 82 83 84 84 84 86 91 90 91 91 93 93 94 94 94 93 95 94 94 92 97 94 94 94 93 92 93 93 94 -209 -193 110 -193 -193 -193 115 115 115 117 119 117 118 118 116 -209 -209 -209 -209 -209 -209 -209 -193 -209 -209 -193 -193 -193 102 116 140 150 147 147 149 0 0 0 0 0
    0 0 0 0 0 0 0 0 0 0 0 0 0 0 0 0 0 0 0 0 0 0 0 0 0 0 0 0 0 0 0 0 0 0 0 0 0 0 0 0 0 0 0 0 0 0 0 0 0 0 0 0 0 0 0 0 0 0 0 0 0 0 0 0 0 0 0 0 0 62 60 58 58 58 57 57 58 59 58 59 60 60 59 59 57 55 51 51 52 51 52 52 53 53 53 55 54 54 56 56 57 56 56 55 55 57 58 57 54 53 53 53 54 54 55 56 57 60 60 60 58 54 52 52 50 51 52 53 52 52 55 56 56 56 55 55 55 55 55 54 54 -225 -225 -225 -225 -225 -225 -225 -225 -225 -225 -225 -225 -225 -225 -225 -225 -225 -225 -225 -225 -225 -225 -225 -225 -225 -225 -225 -225 -225 -225 -225 -225 -225 -225 -225 -225 -225 -225 -225 -225 -225 -225 -225 -225 -225 -225 -225 -225 -225 -225 -225 -225 -225 -225 -225 -225 -225 -225 -225 -225 -225 -225 -225 -225 -225 -225 -225 -225 -225 -225 52 50 51 51 50 52 51 50 52 51 51 53 55 55 54 55 56 56 57 59 59 61 63 63 64 66 67 66 68 68 68 65 69 70 72 73 74 76 76 79 82 83 84 84 84 86 90 90 91 91 93 92 94 94 94 93 95 94 93 92 96 93 94 93 93 91 92 92 92 85 94 103 -209 -193 -193 -193 116 116 118 121 120 -209 -209 -209 -209 -209 -209 82 -193 -193 93 -209 -209 -193 122 121 119 121 120 131 144 141 143 147 0 0 0 0 0
    0 0 0 0 0 0 0 0 0 0 0 0 0 0 0 0 0 0 0 0 0 0 0 0 0 0 0 0 0 0 0 0 0 0 0 0 0 0 0 0 0 0 0 0 0 0 0 0 0 0 0 0 0 0 0 0 0 0 0 0 0 0 0 0 0 0 0 0 0 61 60 58 58 58 57 58 58 59 59 60 62 63 62 62 60 58 52 52 52 0 -256 -1 6528 54 54 56 56 55 57 57 57 57 57 56 55 56 58 57 55 54 55 56 56 57 58 59 60 64 65 62 60 56 56 55 53 54 54 55 54 55 57 56 56 56 55 55 55 55 55 54 -225 -225 -225 -225 -225 -225 -225 -225 -225 -225 -225 -225 -225 -225 -225 -225 -225 -225 -225 -225 -225 -225 -225 -225 -225 -225 -225 -225 -225 -225 -225 -225 -225 -225 -225 -225 -225 -225 -225 -225 -225 -225 -225 -225 -225 -225 -225 -225 -225 -225 -225 -225 -225 -225 -225 -225 -225 -225 -225 -225 -225 -225 -225 -225 -225 -225 -225 -225 -225 -225 -225 55 53 53 54 52 53 53 53 54 54 55 55 57 58 57 57 57 57 57 59 59 60 62 62 63 65 66 66 66 67 67 65 68 71 72 73 75 77 78 81 83 84 84 84 84 86 89 89 90 90 92 92 93 94 94 93 95 94 93 92 96 93 93 93 92 91 91 91 90 84 90 -209 -209 -209 -209 -209 -209 -193 -193 -209 -209 -209 -209 32 -209 -209 -209 -193 84 -193 -193 -209 -209 -209 125 125 121 122 121 125 134 135 140 146 0 0 0 0 0
    0 0 0 0 0 0 0 0 0 0 0 0 0 0 0 0 0 0 0 0 0 0 0 0 0 0 0 0 0 0 0 0 0 0 0 0 0 0 0 0 0 0 0 0 0 0 0 0 0 0 0 0 0 0 0 0 0 0 0 0 0 0 0 0 0 0 0 0 0 62 60 58 58 58 57 58 58 59 60 62 64 65 65 66 64 62 56 54 52 52 53 54 55 55 55 57 57 57 58 57 57 56 57 55 53 54 55 55 54 53 55 56 58 59 60 61 62 65 66 62 60 57 57 57 55 55 55 56 55 56 57 56 56 56 55 54 54 55 -225 -225 -225 -225 -225 -225 -225 -225 -225 -225 -225 -225 -225 -225 -225 -225 -225 -225 -225 -225 -225 -225 -225 -225 -225 -225 -225 -225 -225 -225 -225 -225 -225 -225 -225 -225 -225 -225 -225 -225 -225 -225 -225 -225 -225 -225 -225 -225 -225 -225 -225 -225 -225 -225 -225 -225 -225 -225 -225 -225 -225 -225 -225 -225 -225 -225 -225 -225 -225 -225 -225 -225 -225 -225 -225 55 56 54 54 54 55 55 56 57 57 58 60 59 59 59 59 59 60 60 60 61 62 63 64 66 65 66 67 67 66 68 71 73 74 76 79 81 83 84 85 85 85 85 85 87 88 89 90 91 91 93 93 94 92 94 93 93 92 95 93 93 93 93 90 90 90 90 85 89 90 92 -209 -209 95 102 -193 -193 -193 21 -193 -209 32 -209 38 -209 -209 -193 -193 -193 -193 138 136 133 133 131 125 125 123 122 120 132 -209 0 0 0 0 0
    0 0 0 0 0 0 0 0 0 0 0 0 0 0 0 0 0 0 0 0 0 0 0 0 0 0 0 0 0 0 0 0 0 0 0 0 0 0 0 0 0 0 0 0 0 0 0 0 0 0 0 0 0 0 0 0 0 0 0 0 0 0 0 0 0 0 0 0 0 62 60 59 59 58 58 58 59 60 61 63 66 67 67 68 69 67 65 60 -193 55 56 56 56 56 57 57 58 57 58 58 58 57 58 56 55 55 56 55 55 55 58 59 60 61 62 64 64 67 67 65 62 59 59 59 57 58 57 58 57 56 57 56 55 56 54 54 53 -225 -225 -225 -225 -225 -225 -225 -225 -225 -225 -225 -225 -225 -225 -225 -225 -225 -225 -225 -225 -225 -225 -225 -225 -225 -225 -225 -225 -225 -225 -225 -225 -225 -225 -225 -225 -225 -225 -225 -225 -225 -225 -225 -225 -225 -225 -225 -225 -225 -225 -225 -225 -225 -225 -225 -225 -225 -225 -225 -225 -225 -225 -225 -225 -225 -225 -225 -225 -225 -225 -225 -225 -225 -225 -225 -225 55 57 55 55 54 55 56 57 58 58 59 61 60 61 61 61 60 61 60 60 60 61 62 62 65 64 65 67 67 67 68 71 73 74 76 80 82 83 85 86 85 86 86 86 87 88 90 90 91 91 93 93 93 92 94 93 93 92 95 93 94 94 94 91 92 92 91 87 90 90 93 -193 -209 92 99 104 -193 -209 -193 24 22 27 28 33 -209 -209 -193 -193 -193 -193 -209 134 133 134 135 130 133 -209 -209 -209 -209 137 0 0 0 0 0
    0 0 0 0 0 0 0 0 0 0 0 0 0 0 0 0 0 0 0 0 0 0 0 0 0 0 0 0 0 0 0 0 0 0 0 0 0 0 0 0 0 0 0 0 0 0 0 0 0 0 0 0 0 0 0 0 0 0 0 0 0 0 0 0 0 0 0 0 0 62 61 59 59 59 58 59 59 60 62 64 67 68 68 69 70 69 68 67 67 59 59 59 59 58 59 58 58 58 59 59 58 57 58 56 56 57 57 56 56 57 59 61 62 62 64 66 65 68 69 67 67 64 63 62 60 60 60 58 57 57 57 56 56 56 55 -225 -225 -225 -225 -225 -225 -225 -225 -225 -225 -225 -225 -225 -225 -225 -225 -225 -225 -225 -225 -225 -225 -225 -225 -225 -225 -225 -225 -225 -225 -225 -225 -225 -225 -225 -225 -225 -225 -225 -225 -225 -225 -225 -225 -225 -225 -225 -225 -225 -225 -225 -225 -225 -225 -225 -225 -225 -225 -225 -225 -225 -225 -225 -225 -225 -225 -225 -225 -225 -225 -225 -225 -225 -225 -225 -225 -225 -225 55 57 56 56 55 56 56 58 58 58 60 62 60 60 61 61 60 60 60 60 58 60 61 60 62 62 64 66 66 66 67 70 72 73 75 78 81 83 84 86 86 86 86 86 88 88 90 90 91 91 92 92 92 92 94 93 93 92 95 94 96 96 97 94 98 99 97 90 93 -193 94 -193 87 88 94 101 104 106 -209 -209 -209 -209 -209 -209 -209 -209 -209 -193 -209 -193 -193 134 133 133 133 130 -193 -209 -209 -209 -209 142 0 0 0 0 0
    0 0 0 0 0 0 0 0 0 0 0 0 0 0 0 0 0 0 0 0 0 0 0 0 0 0 0 0 0 0 0 0 0 0 0 0 0 0 0 0 0 0 0 0 0 0 0 0 0 0 0 0 0 0 0 0 0 0 0 0 0 0 0 0 0 0 0 0 0 63 61 60 61 60 59 59 60 62 64 67 69 70 70 70 71 70 69 68 68 60 59 60 60 59 60 59 59 59 60 -193 59 57 58 57 -209 -209 57 56 57 58 59 62 62 62 65 67 67 68 69 68 68 66 65 64 63 62 62 59 58 56 56 55 54 55 -225 -225 -225 -225 -225 -225 -225 -225 -225 -225 -225 -225 -225 -225 -225 -225 -225 -225 -225 -225 -225 -225 -225 -225 -225 -225 -225 -225 -225 -225 -225 -225 -225 -225 -225 -225 -225 -225 -225 -225 -225 -225 -225 -225 -225 -225 -225 -225 -225 -225 -225 -225 -225 -225 -225 -225 -225 -225 -225 -225 -225 -225 -225 -225 -225 -225 -225 -225 -225 -225 -225 -225 -225 -225 -225 -225 -225 -225 -225 54 56 56 56 55 56 56 58 59 59 60 63 61 61 62 62 61 61 61 60 58 60 61 59 61 61 63 66 65 66 68 70 71 72 73 75 79 81 83 85 85 86 86 86 87 87 89 89 90 90 91 91 92 92 93 93 93 92 95 94 98 98 99 99 104 105 105 -209 103 94 100 -209 -209 88 93 99 103 -193 -209 -209 98 102 -209 -209 -209 -209 -209 -209 -193 131 132 132 132 131 129 126 -209 -209 -209 -209 -209 -209 0 0 0 0 0
    0 0 0 0 0 0 0 0 0 0 0 0 0 0 0 0 0 0 0 0 0 0 0 0 0 0 0 0 0 0 0 0 0 0 0 0 0 0 0 0 0 0 0 0 0 0 0 0 0 0 0 0 0 0 0 0 0 0 0 0 0 0 0 0 0 0 0 0 0 63 62 61 62 61 60 61 61 63 66 68 70 70 70 70 71 70 70 70 70 62 60 60 61 60 61 60 59 59 60 61 59 58 59 57 -209 -209 -193 56 57 60 62 65 66 65 67 69 68 69 69 69 68 67 66 66 63 63 62 60 58 58 58 57 -225 -225 -225 -225 -225 -225 -225 -225 -225 -225 -225 -225 -225 -225 -225 -225 -225 -225 -225 -225 -225 -225 -225 -225 -225 -225 -225 -225 -225 -225 -225 -225 -225 -225 -225 -225 -225 -225 -225 -225 -225 -225 -225 -225 -225 -225 -225 -225 -225 -225 -225 -225 -225 -225 -225 -225 -225 -225 -225 -225 -225 -225 -225 -225 -225 -225 -225 -225 -225 -225 -225 -225 -225 -225 -225 -225 -225 -225 -225 -225 -225 -225 -225 56 56 56 58 57 59 59 59 61 63 61 61 62 62 62 61 61 59 58 59 61 58 60 60 63 66 66 66 68 70 71 71 72 74 77 79 81 84 83 84 84 84 85 85 87 88 88 89 90 91 92 92 94 93 93 92 96 96 100 99 101 102 105 106 106 106 106 106 106 -193 105 95 99 104 103 105 104 105 102 104 102 101 -209 -209 -209 -209 -209 -193 -209 -193 131 131 132 131 -193 -209 -209 -209 -209 -209 0 0 0 0 0
    0 0 0 0 0 0 0 0 0 0 0 0 0 0 0 0 0 0 0 0 0 0 0 0 0 0 0 0 0 0 0 0 0 0 0 0 0 0 0 0 0 0 0 0 0 0 0 0 0 0 0 0 0 0 0 0 0 0 0 0 0 0 0 0 0 0 0 0 0 64 62 63 64 63 62 64 63 65 67 68 70 70 70 69 70 69 69 69 70 62 59 60 61 59 60 59 58 59 60 60 59 57 -193 -193 -209 -209 -193 57 59 66 66 68 67 66 68 71 69 70 70 70 70 69 68 67 64 63 61 59 59 58 58 -225 -225 -225 -225 -225 -225 -225 -225 -225 -225 -225 -225 -225 -225 -225 -225 -225 -225 -225 -225 -225 -225 -225 -225 -225 -225 -225 -225 -225 -225 -225 -225 -225 -225 -225 -225 -225 -225 -225 -225 -225 -225 -225 -225 -225 -225 -225 -225 -225 -225 -225 -225 -225 -225 -225 -225 -225 -225 -225 -225 -225 -225 -225 -225 -225 -225 -225 -225 -225 -225 -225 -225 -225 -225 -225 -225 -225 -225 -225 -225 -225 -225 -225 -225 -225 -225 55 61 58 60 60 59 61 63 61 61 62 62 62 62 63 61 59 61 63 60 63 61 64 66 67 67 67 69 70 71 71 73 76 78 80 83 82 83 83 83 84 84 87 87 88 89 90 90 92 92 94 93 94 93 99 99 101 101 102 104 105 107 107 106 107 107 107 107 106 107 104 106 104 105 103 104 103 103 101 102 99 -193 -209 112 -209 -209 -209 127 130 130 132 129 -193 -209 -209 -209 -209 -209 0 0 0 0 0
    0 0 0 0 0 0 0 0 0 0 0 0 0 0 0 0 0 0 0 0 0 0 0 0 0 0 0 0 0 0 0 0 0 0 0 0 0 0 0 0 0 0 0 0 0 0 0 0 0 0 0 0 0 0 0 0 0 0 0 0 0 0 0 0 0 0 0 0 0 66 64 64 65 65 65 66 66 67 67 69 70 70 69 69 68 67 66 67 68 64 61 65 65 66 67 63 62 61 63 64 60 59 -193 -193 -193 -193 61 60 61 69 68 69 69 70 71 72 72 72 72 72 72 71 69 67 64 62 61 60 59 58 -225 -225 -225 -225 -225 -225 -225 -225 -225 -225 -225 -225 -225 -225 -225 -225 -225 -225 -225 -225 -225 -225 -225 -225 -225 -225 -225 -225 -225 -225 -225 -225 -225 -225 -225 -225 -225 -225 -225 -225 -225 -225 -225 -225 -225 -225 -225 -225 -225 -225 -225 -225 -225 -225 -225 -225 -225 -225 -225 -225 -225 -225 -225 -225 -225 -225 -225 -225 -225 -225 -225 -225 -225 -225 -225 -225 -225 -225 -225 -225 -225 -225 -225 -225 -225 -225 -225 -225 62 58 60 61 60 61 64 62 62 62 62 63 62 64 64 61 64 66 64 67 65 68 67 67 67 67 69 69 70 71 72 76 77 79 83 82 83 83 83 84 84 86 87 88 89 90 90 92 92 94 93 95 95 101 101 103 103 104 105 106 107 107 107 107 107 108 107 107 107 105 106 105 105 104 105 105 105 104 105 103 107 110 114 118 -193 122 124 129 130 133 -209 -209 -209 -209 -209 -209 -209 0 0 0 0 0
    0 0 0 0 0 0 0 0 0 0 0 0 0 0 0 0 0 0 0 0 0 0 0 0 0 0 0 0 0 0 0 0 0 0 0 0 0 0 0 0 0 0 0 0 0 0 0 0 0 0 0 0 0 0 0 0 0 0 0 0 0 0 0 0 0 0 0 0 0 71 67 63 65 66 66 66 66 66 67 68 70 69 68 68 66 66 65 66 67 66 65 69 69 74 -193 -193 69 66 66 -193 61 60 62 -193 -193 66 63 63 64 71 71 72 72 72 74 75 73 73 73 73 72 71 69 67 65 64 63 61 -225 -225 -225 -225 -225 -225 -225 -225 -225 -225 -225 -225 -225 -225 -225 -225 -225 -225 -225 -225 -225 -225 -225 -225 -225 -225 -225 -225 -225 -225 -225 -225 -225 -225 -225 -225 -225 -225 -225 -225 -225 -225 -225 -225 -225 -225 -225 -225 -225 -225 -225 -225 -225 -225 -225 -225 -225 -225 -225 -225 -225 -225 -225 -225 -225 -225 -225 -225 -225 -225 -225 -225 -225 -225 -225 -225 -225 -225 -225 -225 -225 -225 -225 -225 -225 -225 -225 -225 -225 -225 61 57 60 60 59 60 63 62 62 62 62 63 62 65 65 63 66 66 66 68 67 69 69 67 67 68 69 69 70 70 72 76 77 79 83 82 83 83 83 83 84 87 87 88 89 90 91 92 92 94 93 96 97 102 102 104 104 105 106 107 108 108 107 108 108 109 108 109 109 107 108 107 107 106 107 106 106 106 106 105 108 112 115 117 120 121 122 125 126 130 125 -209 -209 -209 -209 -209 -209 0 0 0 0 0
    0 0 0 0 0 0 0 0 0 0 0 0 0 0 0 0 0 0 0 0 0 0 0 0 0 0 0 0 0 0 0 0 0 0 0 0 0 0 0 0 0 0 0 0 0 0 0 0 0 0 0 0 0 0 0 0 0 0 0 0 0 0 0 0 0 0 0 0 0 65 59 59 63 65 64 65 66 67 68 69 70 69 69 68 66 65 64 65 66 67 68 70 71 76 -193 -193 72 70 -193 -193 64 63 66 66 71 72 71 73 71 74 77 77 77 77 78 79 76 76 75 74 72 71 69 68 66 65 65 -225 -225 -225 -225 -225 -225 -225 -225 -225 -225 -225 -225 -225 -225 -225 -225 -225 -225 -225 -225 -225 -225 -225 -225 -225 -225 -225 -225 -225 -225 -225 -225 -225 -225 -225 -225 -225 -225 -225 -225 -225 -225 -225 -225 -225 -225 -225 -225 -225 -225 -225 -225 -225 -225 -225 -225 -225 -225 -225 -225 -225 -225 -225 -225 -225 -225 -225 -225 -225 -225 -225 -225 -225 -225 -225 -225 -225 -225 -225 -225 -225 -225 -225 -225 -225 -225 -225 -225 -225 -225 -225 -225 -225 60 60 59 59 63 61 62 63 63 64 64 66 67 65 67 68 67 69 68 70 70 68 68 68 70 70 70 70 72 76 76 78 81 80 81 82 83 83 83 86 88 88 89 90 91 92 92 93 93 95 97 101 102 104 104 106 106 107 108 108 107 108 108 109 109 110 111 109 110 110 110 109 109 108 107 106 107 107 109 110 113 114 115 117 118 120 121 -193 119 -209 -209 -209 -209 -209 -209 0 0 0 0 0
    0 0 0 0 0 0 0 0 0 0 0 0 0 0 0 0 0 0 0 0 0 0 0 0 0 0 0 0 0 0 0 0 0 0 0 0 0 0 0 0 0 0 0 0 0 0 0 0 0 0 0 0 0 0 0 0 0 0 0 0 0 0 0 0 0 0 0 0 0 58 57 59 64 67 66 68 70 70 70 71 -209 71 71 71 69 69 68 69 70 69 71 73 73 78 77 -193 74 73 73 -193 70 71 70 71 73 74 74 74 75 78 82 81 81 81 82 83 81 78 76 74 73 71 70 69 67 66 -225 -225 -225 -225 -225 -225 -225 -225 -225 -225 -225 -225 -225 -225 -225 -225 -225 -225 -225 -225 -225 -225 -225 -225 -225 -225 -225 -225 -225 -225 -225 -225 -225 -225 -225 -225 -225 -225 -225 -225 -225 -225 -225 -225 -225 -225 -225 -225 -225 -225 -225 -225 -225 -225 -225 -225 -225 -225 -225 -225 -225 -225 -225 -225 -225 -225 -225 -225 -225 -225 -225 -225 -225 -225 -225 -225 -225 -225 -225 -225 -225 -225 -225 -225 -225 -225 -225 -225 -225 -225 -225 -225 -225 -225 -225 60 58 59 64 62 61 64 63 65 65 66 68 67 68 69 68 69 70 72 72 69 69 70 70 70 70 70 71 74 75 77 79 79 80 81 82 82 82 86 87 89 89 90 91 92 92 93 93 95 96 101 102 104 104 105 106 106 107 107 107 108 107 108 109 110 112 110 112 113 114 113 114 111 109 109 108 109 108 109 111 110 110 112 113 114 117 112 115 115 109 112 -209 -209 108 0 0 0 0 0
    0 0 0 0 0 0 0 0 0 0 0 0 0 0 0 0 0 0 0 0 0 0 0 0 0 0 0 0 0 0 0 0 0 0 0 0 0 0 0 0 0 0 0 0 0 0 0 0 0 0 0 0 0 0 0 0 0 0 0 0 0 0 0 0 0 0 0 0 0 -193 -193 57 65 68 68 70 -209 -193 -209 -209 -209 73 73 73 72 70 70 73 73 73 76 77 76 80 78 -193 75 74 74 73 72 72 73 73 73 74 75 76 81 84 85 85 84 84 84 85 82 78 76 74 73 73 72 70 -225 -225 -225 -225 -225 -225 -225 -225 -225 -225 -225 -225 -225 -225 -225 -225 -225 -225 -225 -225 -225 -225 -225 -225 -225 -225 -225 -225 -225 -225 -225 -225 -225 -225 -225 -225 -225 -225 -225 -225 -225 -225 -225 -225 -225 -225 -225 -225 -225 -225 -225 -225 -225 -225 -225 -225 -225 -225 -225 -225 -225 -225 -225 -225 -225 -225 -225 -225 -225 -225 -225 -225 -225 -225 -225 -225 -225 -225 -225 -225 -225 -225 -225 -225 -225 -225 -225 -225 -225 -225 -225 -225 -225 -225 -225 -225 -225 -225 -225 -225 64 63 60 63 63 67 65 67 69 69 70 71 71 71 72 74 74 71 72 72 73 73 73 73 73 75 76 76 78 78 80 80 82 82 83 85 86 89 89 91 92 93 93 94 93 96 97 102 102 104 104 105 106 106 106 106 106 107 107 108 108 109 110 110 112 115 115 115 116 115 112 111 110 110 109 109 110 110 111 111 114 116 120 115 119 119 113 112 116 -209 111 0 0 0 0 0
    0 0 0 0 0 0 0 0 0 0 0 0 0 0 0 0 0 0 0 0 0 0 0 0 0 0 0 0 0 0 0 0 0 0 0 0 0 0 0 0 0 0 0 0 0 0 0 0 0 0 0 0 0 0 0 0 0 0 0 0 0 0 0 0 0 0 0 0 0 -193 -193 56 65 68 68 71 -209 -209 -193 -209 -193 75 75 76 75 -193 73 77 82 81 84 85 83 85 81 -193 80 -193 75 73 72 73 74 75 74 77 81 82 86 88 88 88 88 87 87 86 83 79 76 75 74 73 71 -225 -225 -225 -225 -225 -225 -225 -225 -225 -225 -225 -225 -225 -225 -225 -225 -225 -225 -225 -225 -225 -225 -225 -225 -225 -225 -225 -225 -225 -225 -225 -225 -225 -225 -225 -225 -225 -225 -225 -225 -225 -225 -225 -225 -225 -225 -225 -225 -225 -225 -225 -225 -225 -225 -225 -225 -225 -225 -225 -225 -225 -225 -225 -225 -225 -225 -225 -225 -225 -225 -225 -225 -225 -225 -225 -225 -225 -225 -225 -225 -225 -225 -225 -225 -225 -225 -225 -225 -225 -225 -225 -225 -225 -225 -225 -225 -225 -225 -225 -225 -225 -225 -225 -225 65 68 70 68 69 72 72 72 73 73 74 75 77 78 76 81 78 78 77 76 75 75 76 76 76 78 77 78 79 80 80 82 85 86 -209 90 91 93 94 95 95 94 98 99 103 103 105 104 105 106 106 107 107 106 107 107 108 108 109 110 111 114 115 116 116 117 116 114 114 114 113 112 110 112 113 114 114 116 117 121 119 121 122 116 112 115 113 115 0 0 0 0 0
    0 0 0 0 0 0 0 0 0 0 0 0 0 0 0 0 0 0 0 0 0 0 0 0 0 0 0 0 0 0 0 0 0 0 0 0 0 0 0 0 0 0 0 0 0 0 0 0 0 0 0 0 0 0 0 0 0 0 0 0 0 0 0 0 0 0 0 0 0 -209 -209 -193 65 -193 69 -209 -209 -193 75 75 77 77 77 79 77 79 77 79 84 82 85 86 85 85 83 -209 84 -193 76 73 72 73 74 76 77 80 85 86 88 89 89 89 89 89 87 85 82 79 78 76 75 74 -225 -225 -225 -225 -225 -225 -225 -225 -225 -225 -225 -225 -225 -225 -225 -225 -225 -225 -225 -225 -225 -225 -225 -225 -225 -225 -225 -225 -225 -225 -225 -225 -225 -225 -225 -225 -225 -225 -225 -225 -225 -225 -225 -225 -225 -225 -225 -225 -225 -225 -225 -225 -225 -225 -225 -225 -225 -225 -225 -225 -225 -225 -225 -225 -225 -225 -225 -225 -225 -225 -225 -225 -225 -225 -225 -225 -225 -225 -225 -225 -225 -225 -225 -225 -225 -225 -225 -225 -225 -225 -225 -225 -225 -225 -225 -225 -225 -225 -225 -225 -225 -225 -225 -225 -225 -225 61 68 66 69 72 72 73 74 75 75 78 79 79 80 84 82 80 81 79 77 77 78 76 76 77 77 76 78 79 79 81 84 86 -209 -209 91 93 94 95 96 96 98 99 104 104 106 105 106 106 106 107 107 106 108 108 109 109 110 111 112 115 116 117 117 118 118 117 117 117 116 116 112 114 115 116 114 116 117 -193 118 122 123 118 111 115 113 117 0 0 0 0 0
    0 0 0 0 0 0 0 0 0 0 0 0 0 0 0 0 0 0 0 0 0 0 0 0 0 0 0 0 0 0 0 0 0 0 0 0 0 0 0 0 0 0 0 0 0 0 0 0 0 0 0 0 0 0 0 0 0 0 0 0 0 0 0 0 0 0 0 0 0 -209 -209 -209 -209 -209 -209 -193 79 78 80 79 81 80 80 82 82 86 85 85 88 87 87 88 88 87 85 -193 85 78 77 73 72 74 76 80 80 83 87 87 90 91 91 92 90 89 87 85 83 82 80 78 -225 -225 -225 -225 -225 -225 -225 -225 -225 -225 -225 -225 -225 -225 -225 -225 -225 -225 -225 -225 -225 -225 -225 -225 -225 -225 -225 -225 -225 -225 -225 -225 -225 -225 -225 -225 -225 -225 -225 -225 -225 -225 -225 -225 -225 -225 -225 -225 -225 -225 -225 -225 -225 -225 -225 -225 -225 -225 -225 -225 -225 -225 -225 -225 -225 -225 -225 -225 -225 -225 -225 -225 -225 -225 -225 -225 -225 -225 -225 -225 -225 -225 -225 -225 -225 -225 -225 -225 -225 -225 -225 -225 -225 -225 -225 -225 -225 -225 -225 -225 -225 -225 -225 -225 -225 -225 -225 -225 58 66 62 69 72 72 72 75 75 76 79 80 81 82 85 85 84 84 83 79 78 79 76 75 76 75 75 76 78 78 81 84 85 -193 -193 91 93 94 95 96 95 98 99 104 105 106 105 106 106 106 106 107 106 107 107 108 109 111 112 114 116 117 118 118 118 118 118 118 118 118 118 116 117 117 118 118 118 120 121 119 122 123 120 120 122 -209 119 0 0 0 0 0
    0 0 0 0 0 0 0 0 0 0 0 0 0 0 0 0 0 0 0 0 0 0 0 0 0 0 0 0 0 0 0 0 0 0 0 0 0 0 0 0 0 0 0 0 0 0 0 0 0 0 0 0 0 0 0 0 0 0 0 0 0 0 0 0 0 0 0 0 0 -209 -209 97 97 -209 -209 -193 85 84 84 83 84 84 83 84 84 86 85 85 87 86 86 88 87 87 85 85 86 80 79 74 72 76 81 84 85 86 88 90 92 94 94 93 91 90 87 86 85 83 82 -225 -225 -225 -225 -225 -225 -225 -225 -225 -225 -225 -225 -225 -225 -225 -225 -225 -225 -225 -225 -225 -225 -225 -225 -225 -225 -225 -225 -225 -225 -225 -225 -225 -225 -225 -225 -225 -225 -225 -225 -225 -225 -225 -225 -225 -225 -225 -225 -225 -225 -225 -225 -225 -225 -225 -225 -225 -225 -225 -225 -225 -225 -225 -225 -225 -225 -225 -225 -225 -225 -225 -225 -225 -225 -225 -225 -225 -225 -225 -225 -225 -225 -225 -225 -225 -225 -225 -225 -225 -225 -225 -225 -225 -225 -225 -225 -225 -225 -225 -225 -225 -225 -225 -225 -225 -225 -225 -225 -225 60 65 60 69 74 73 74 77 78 79 82 83 82 83 85 85 85 85 83 81 79 80 77 76 76 75 75 77 77 79 82 83 84 86 -209 -193 91 92 93 93 93 97 100 103 105 106 105 106 105 106 106 106 105 106 106 108 108 111 112 114 116 117 118 119 119 119 118 118 119 119 119 117 119 119 121 122 121 123 124 123 124 125 122 122 124 125 121 0 0 0 0 0
    0 0 0 0 0 0 0 0 0 0 0 0 0 0 0 0 0 0 0 0 0 0 0 0 0 0 0 0 0 0 0 0 0 0 0 0 0 0 0 0 0 0 0 0 0 0 0 0 0 0 0 0 0 0 0 0 0 0 0 0 0 0 0 0 0 0 0 0 0 -209 93 94 95 96 -193 -209 -209 86 85 84 85 83 83 84 83 85 85 85 86 85 86 87 88 89 86 87 88 84 85 80 78 83 86 88 88 90 93 95 96 97 95 93 91 90 89 88 86 84 -225 -225 -225 -225 -225 -225 -225 -225 -225 -225 -225 -225 -225 -225 -225 -225 -225 -225 -225 -225 -225 -225 -225 -225 -225 -225 -225 -225 -225 -225 -225 -225 -225 -225 -225 -225 -225 -225 -225 -225 -225 -225 -225 -225 -225 -225 -225 -225 -225 -225 -225 -225 -225 -225 -225 -225 -225 -225 -225 -225 -225 -225 -225 -225 -225 -225 -225 -225 -225 -225 -225 -225 -225 -225 -225 -225 -225 -225 -225 -225 -225 -225 -225 -225 -225 -225 -225 -225 -225 -225 -225 -225 -225 -225 -225 -225 -225 -225 -225 -225 -225 -225 -225 -225 -225 -225 -225 -225 -225 -225 -225 62 57 71 -209 75 76 81 80 82 84 85 85 86 86 87 87 87 85 83 81 81 78 78 78 77 76 77 77 80 83 84 82 84 87 -209 90 90 91 92 91 95 99 102 104 104 103 104 104 105 105 105 105 106 106 107 108 110 111 114 116 117 118 119 119 119 118 119 119 119 120 118 119 120 122 123 123 125 126 123 125 126 125 125 124 126 124 0 0 0 0 0
    0 0 0 0 0 0 0 0 0 0 0 0 0 0 0 0 0 0 0 0 0 0 0 0 0 0 0 0 0 0 0 0 0 0 0 0 0 0 0 0 0 0 0 0 0 0 0 0 0 0 0 0 0 0 0 0 0 0 0 0 0 0 0 0 0 0 0 0 0 93 92 94 96 97 92 -209 -209 87 86 86 86 84 84 85 83 86 86 86 87 85 86 88 89 90 88 88 89 87 88 89 89 88 90 95 95 96 98 99 98 98 96 94 92 92 91 90 -225 -225 -225 -225 -225 -225 -225 -225 -225 -225 -225 -225 -225 -225 -225 -225 -225 -225 -225 -225 -225 -225 -225 -225 -225 -225 -225 -225 -225 -225 -225 -225 -225 -225 -225 -225 -225 -225 -225 -225 -225 -225 -225 -225 -225 -225 -225 -225 -225 -225 -225 -225 -225 -225 -225 -225 -225 -225 -225 -225 -225 -225 -225 -225 -225 -225 -225 -225 -225 -225 -225 -225 -225 -225 -225 -225 -225 -225 -225 -225 -225 -225 -225 -225 -225 -225 -225 -225 -225 -225 -225 -225 -225 -225 -225 -225 -225 -225 -225 -225 -225 -225 -225 -225 -225 -225 -225 -225 -225 -225 -225 -225 -225 -225 -209 -209 -209 79 79 84 83 83 85 86 86 87 87 88 88 88 86 85 82 82 80 80 80 79 77 81 80 86 87 86 84 86 87 89 90 90 92 91 91 94 98 101 102 103 102 103 103 104 104 104 104 105 105 106 107 110 110 112 115 117 117 119 119 119 118 119 120 120 120 119 120 121 123 124 124 127 127 123 125 128 126 129 131 131 124 0 0 0 0 0
    0 0 0 0 0 0 0 0 0 0 0 0 0 0 0 0 0 0 0 0 0 0 0 0 0 0 0 0 0 0 0 0 0 0 0 0 0 0 0 0 0 0 0 0 0 0 0 0 0 0 0 0 0 0 0 0 0 0 0 0 0 0 0 0 0 0 0 0 0 94 92 93 94 96 92 -193 -193 88 87 87 87 85 85 86 85 87 88 87 88 87 88 89 90 91 89 89 89 89 91 92 92 92 96 98 100 100 101 100 99 99 97 95 94 94 92 -225 -225 -225 -225 -225 -225 -225 -225 -225 -225 -225 -225 -225 -225 -225 -225 -225 -225 -225 -225 -225 -225 -225 -225 -225 -225 -225 -225 -225 -225 -225 -225 -225 -225 -225 -225 -225 -225 -225 -225 -225 -225 -225 -225 -225 -225 -225 -225 -225 -225 -225 -225 -225 -225 -225 -225 -225 -225 -225 -225 -225 -225 -225 -225 -225 -225 -225 -225 -225 -225 -225 -225 -225 -225 -225 -225 -225 -225 -225 -225 -225 -225 -225 -225 -225 -225 -225 -225 -225 -225 -225 -225 -225 -225 -225 -225 -225 -225 -225 -225 -225 -225 -225 -225 -225 -225 -225 -225 -225 -225 -225 -225 -225 -225 -225 -225 -225 -225 80 80 85 84 84 85 86 86 87 87 87 87 87 86 86 83 84 83 83 84 83 82 86 86 89 89 86 84 86 86 87 88 89 91 92 91 94 98 101 102 103 102 103 103 104 104 105 104 105 105 106 107 109 109 110 112 114 115 117 117 117 117 118 119 119 120 119 120 122 125 126 127 130 130 128 129 132 132 133 135 136 131 0 0 0 0 0
    0 0 0 0 0 0 0 0 0 0 0 0 0 0 0 0 0 0 0 0 0 0 0 0 0 0 0 0 0 0 0 0 0 0 0 0 0 0 0 0 0 0 0 0 0 0 0 0 0 0 0 0 0 0 0 0 0 0 0 0 0 0 0 0 0 0 0 0 0 94 92 93 93 97 95 93 -193 89 89 89 89 87 86 87 87 89 90 89 90 89 89 91 91 92 89 89 91 93 94 97 97 97 101 101 102 102 101 101 100 99 98 97 95 95 -225 -225 -225 -225 -225 -225 -225 -225 -225 -225 -225 -225 -225 -225 -225 -225 -225 -225 -225 -225 -225 -225 -225 -225 -225 -225 -225 -225 -225 -225 -225 -225 -225 -225 -225 -225 -225 -225 -225 -225 -225 -225 -225 -225 -225 -225 -225 -225 -225 -225 -225 -225 -225 -225 -225 -225 -225 -225 -225 -225 -225 -225 -225 -225 -225 -225 -225 -225 -225 -225 -225 -225 -225 -225 -225 -225 -225 -225 -225 -225 -225 -225 -225 -225 -225 -225 -225 -225 -225 -225 -225 -225 -225 -225 -225 -225 -225 -225 -225 -225 -225 -225 -225 -225 -225 -225 -225 -225 -225 -225 -225 -225 -225 -225 -225 -225 -225 -225 -225 77 78 85 84 84 85 86 85 87 87 87 87 88 87 87 85 86 86 86 86 86 86 89 89 91 91 88 87 87 88 88 88 88 90 91 92 96 100 102 103 103 103 104 104 105 105 105 105 106 106 107 108 110 109 110 111 113 112 115 116 116 116 118 118 119 120 119 121 123 125 126 128 131 132 130 131 132 132 134 135 137 133 0 0 0 0 0
    0 0 0 0 0 0 0 0 0 0 0 0 0 0 0 0 0 0 0 0 0 0 0 0 0 0 0 0 0 0 0 0 0 0 0 0 0 0 0 0 0 0 0 0 0 0 0 0 0 0 0 0 0 0 0 0 0 0 0 0 0 0 0 0 0 0 0 0 0 94 91 92 93 97 97 95 92 90 89 90 90 88 85 88 87 89 90 89 89 88 89 91 91 92 90 90 94 97 97 100 99 100 102 102 102 103 102 101 101 101 100 98 -225 -225 -225 -225 -225 -225 -225 -225 -225 -225 -225 -225 -225 -225 -225 -225 -225 -225 -225 -225 -225 -225 -225 -225 -225 -225 -225 -225 -225 -225 -225 -225 -225 -225 -225 -225 -225 -225 -225 -225 -225 -225 -225 -225 -225 -225 -225 -225 -225 -225 -225 -225 -225 -225 -225 -225 -225 -225 -225 -225 -225 -225 -225 -225 -225 -225 -225 -225 -225 -225 -225 -225 -225 -225 -225 -225 -225 -225 -225 -225 -225 -225 -225 -225 -225 -225 -225 -225 -225 -225 -225 -225 -225 -225 -225 -225 -225 -225 -225 -225 -225 -225 -225 -225 -225 -225 -225 -225 -225 -225 -225 -225 -225 -225 -225 -225 -225 -225 -225 -225 -225 -225 77 84 83 84 85 86 86 87 87 88 88 89 87 88 86 87 87 88 88 88 88 91 90 92 92 90 88 89 89 89 88 89 90 90 91 96 100 102 103 103 103 104 104 105 106 106 106 107 107 108 108 110 109 109 109 110 110 112 114 114 115 118 118 120 121 120 123 124 125 125 127 131 133 131 131 132 132 134 135 137 134 0 0 0 0 0
    0 0 0 0 0 0 0 0 0 0 0 0 0 0 0 0 0 0 0 0 0 0 0 0 0 0 0 0 0 0 0 0 0 0 0 0 0 0 0 0 0 0 0 0 0 0 0 0 0 0 0 0 0 0 0 0 0 0 0 0 0 0 0 0 0 0 0 0 0 96 93 94 94 97 99 97 93 92 91 92 91 89 85 88 88 89 90 89 89 88 89 91 91 91 91 92 95 98 98 100 100 102 103 102 102 103 102 102 103 103 101 -225 -225 -225 -225 -225 -225 -225 -225 -225 -225 -225 -225 -225 -225 -225 -225 -225 -225 -225 -225 -225 -225 -225 -225 -225 -225 -225 -225 -225 -225 -225 -225 -225 -225 -225 -225 -225 -225 -225 -225 -225 -225 -225 -225 -225 -225 -225 -225 -225 -225 -225 -225 -225 -225 -225 -225 -225 -225 -225 -225 -225 -225 -225 -225 -225 -225 -225 -225 -225 -225 -225 -225 -225 -225 -225 -225 -225 -225 -225 -225 -225 -225 -225 -225 -225 -225 -225 -225 -225 -225 -225 -225 -225 -225 -225 -225 -225 -225 -225 -225 -225 -225 -225 -225 -225 -225 -225 -225 -225 -225 -225 -225 -225 -225 -225 -225 -225 -225 -225 -225 -225 -225 -225 74 82 82 82 85 86 86 87 87 88 88 89 88 89 87 87 89 90 90 90 90 92 91 93 94 91 90 90 90 90 89 89 90 89 90 94 98 100 102 101 102 103 103 105 105 105 105 106 106 107 107 109 108 108 109 110 110 113 114 115 115 118 119 120 121 121 123 124 124 126 127 131 131 130 130 131 131 133 134 135 133 0 0 0 0 0
    0 0 0 0 0 0 0 0 0 0 0 0 0 0 0 0 0 0 0 0 0 0 0 0 0 0 0 0 0 0 0 0 0 0 0 0 0 0 0 0 0 0 0 0 0 0 0 0 0 0 0 0 0 0 0 0 0 0 0 0 0 0 0 0 0 0 0 0 0 97 94 95 95 97 100 98 96 93 92 93 92 90 87 90 90 91 91 91 90 89 90 92 92 93 93 97 97 100 100 101 101 102 103 103 103 104 104 104 104 105 -225 -225 -225 -225 -225 -225 -225 -225 -225 -225 -225 -225 -225 -225 -225 -225 -225 -225 -225 -225 -225 -225 -225 -225 -225 -225 -225 -225 -225 -225 -225 -225 -225 -225 -225 -225 -225 -225 -225 -225 -225 -225 -225 -225 -225 -225 -225 -225 -225 -225 -225 -225 -225 -225 -225 -225 -225 -225 -225 -225 -225 -225 -225 -225 -225 -225 -225 -225 -225 -225 -225 -225 -225 -225 -225 -225 -225 -225 -225 -225 -225 -225 -225 -225 -225 -225 -225 -225 -225 -225 -225 -225 -225 -225 -225 -225 -225 -225 -225 -225 -225 -225 -225 -225 -225 -225 -225 -225 -225 -225 -225 -225 -225 -225 -225 -225 -225 -225 -225 -225 -225 -225 -225 -225 -225 79 83 83 86 88 87 89 88 88 89 90 89 90 87 88 89 90 90 90 90 92 91 93 94 91 91 91 90 90 89 90 90 88 89 90 95 97 99 99 100 101 101 103 103 104 103 104 104 105 106 107 106 107 108 109 110 113 114 115 115 117 118 119 121 121 123 124 125 126 128 131 131 130 130 131 132 -193 135 136 135 0 0 0 0 0
    0 0 0 0 0 0 0 0 0 0 0 0 0 0 0 0 0 0 0 0 0 0 0 0 0 0 0 0 0 0 0 0 0 0 0 0 0 0 0 0 0 0 0 0 0 0 0 0 0 0 0 0 0 0 0 0 0 0 0 0 0 0 0 0 0 0 0 0 0 97 94 95 93 95 96 95 93 92 90 92 90 90 88 91 90 -193 92 92 90 90 91 93 93 94 94 98 98 101 101 101 101 102 103 103 103 105 104 104 -225 -225 -225 -225 -225 -225 -225 -225 -225 -225 -225 -225 -225 -225 -225 -225 -225 -225 -225 -225 -225 -225 -225 -225 -225 -225 -225 -225 -225 -225 -225 -225 -225 -225 -225 -225 -225 -225 -225 -225 -225 -225 -225 -225 -225 -225 -225 -225 -225 -225 -225 -225 -225 -225 -225 -225 -225 -225 -225 -225 -225 -225 -225 -225 -225 -225 -225 -225 -225 -225 -225 -225 -225 -225 -225 -225 -225 -225 -225 -225 -225 -225 -225 -225 -225 -225 -225 -225 -225 -225 -225 -225 -225 -225 -225 -225 -225 -225 -225 -225 -225 -225 -225 -225 -225 -225 -225 -225 -225 -225 -225 -225 -225 -225 -225 -225 -225 -225 -225 -225 -225 -225 -225 -225 -225 -225 -225 -225 84 82 85 89 87 89 88 88 90 89 89 90 89 89 91 91 91 91 91 93 93 94 95 92 93 93 92 93 91 92 92 90 -193 92 96 96 98 98 98 100 100 102 102 103 103 103 104 104 105 105 104 105 107 107 109 111 113 114 114 116 118 118 120 121 123 123 124 125 128 130 130 128 129 132 -193 -209 -209 137 136 0 0 0 0 0
    0 0 0 0 0 0 0 0 0 0 0 0 0 0 0 0 0 0 0 0 0 0 0 0 0 0 0 0 0 0 0 0 0 0 0 0 0 0 0 0 0 0 0 0 0 0 0 0 0 0 0 0 0 0 0 0 0 0 0 0 0 0 0 0 0 0 0 0 0 97 94 95 93 94 93 93 91 90 89 91 91 92 90 93 94 97 97 98 94 94 95 97 97 98 99 101 101 103 102 102 102 103 104 103 104 105 105 -225 -225 -225 -225 -225 -225 -225 -225 -225 -225 -225 -225 -225 -225 -225 -225 -225 -225 -225 -225 -225 -225 -225 -225 -225 -225 -225 -225 -225 -225 -225 -225 -225 -225 -225 -225 -225 -225 -225 -225 -225 -225 -225 -225 -225 -225 -225 -225 -225 -225 -225 -225 -225 -225 -225 -225 -225 -225 -225 -225 -225 -225 -225 -225 -225 -225 -225 -225 -225 -225 -225 -225 -225 -225 -225 -225 -225 -225 -225 -225 -225 -225 -225 -225 -225 -225 -225 -225 -225 -225 -225 -225 -225 -225 -225 -225 -225 -225 -225 -225 -225 -225 -225 -225 -225 -225 -225 -225 -225 -225 -225 -225 -225 -225 -225 -225 -225 -225 -225 -225 -225 -225 -225 -225 -225 -225 -225 -225 -225 -225 76 85 91 89 91 90 89 90 90 90 91 90 90 92 92 92 93 93 95 94 95 97 93 96 96 95 95 93 95 95 94 98 93 96 94 96 97 97 100 101 102 103 104 104 104 105 105 105 105 104 105 -193 -193 -193 110 112 113 114 116 118 117 120 121 122 122 123 123 126 128 129 -193 128 131 132 -193 -209 -193 136 0 0 0 0 0
    0 0 0 0 0 0 0 0 0 0 0 0 0 0 0 0 0 0 0 0 0 0 0 0 0 0 0 0 0 0 0 0 0 0 0 0 0 0 0 0 0 0 0 0 0 0 0 0 0 0 0 0 0 0 0 0 0 0 0 0 0 0 0 0 0 0 0 0 0 98 95 96 93 93 91 93 91 91 91 94 97 101 103 102 102 102 102 103 101 101 100 101 100 101 102 104 103 104 103 103 102 103 102 102 102 103 -225 -225 -225 -225 -225 -225 -225 -225 -225 -225 -225 -225 -225 -225 -225 -225 -225 -225 -225 -225 -225 -225 -225 -225 -225 -225 -225 -225 -225 -225 -225 -225 -225 -225 -225 -225 -225 -225 -225 -225 -225 -225 -225 -225 -225 -225 -225 -225 -225 -225 -225 -225 -225 -225 -225 -225 -225 -225 -225 -225 -225 -225 -225 -225 -225 -225 -225 -225 -225 -225 -225 -225 -225 -225 -225 -225 -225 -225 -225 -225 -225 -225 -225 -225 -225 -225 -225 -225 -225 -225 -225 -225 -225 -225 -225 -225 -225 -225 -225 -225 -225 -225 -225 -225 -225 -225 -225 -225 -225 -225 -225 -225 -225 -225 -225 -225 -225 -225 -225 -225 -225 -225 -225 -225 -225 -225 -225 -225 -225 -225 -225 -225 82 88 87 90 89 88 89 90 91 92 92 92 95 94 94 95 95 97 96 97 98 94 98 98 98 96 95 96 95 94 96 91 93 90 90 92 94 99 102 103 104 105 105 105 105 105 105 106 104 106 -209 -193 -193 111 -193 115 115 117 119 118 121 121 122 123 124 123 126 127 128 128 128 131 131 132 134 136 134 0 0 0 0 0
    0 0 0 0 0 0 0 0 0 0 0 0 0 0 0 0 0 0 0 0 0 0 0 0 0 0 0 0 0 0 0 0 0 0 0 0 0 0 0 0 0 0 0 0 0 0 0 0 0 0 0 0 0 0 0 0 0 0 0 0 0 0 0 0 0 0 0 0 0 99 96 96 92 92 89 93 91 91 91 97 102 105 107 105 104 104 103 104 102 102 101 101 101 103 103 105 103 104 103 103 103 103 102 102 -225 -225 -225 -225 -225 -225 -225 -225 -225 -225 -225 -225 -225 -225 -225 -225 -225 -225 -225 -225 -225 -225 -225 -225 -225 -225 -225 -225 -225 -225 -225 -225 -225 -225 -225 -225 -225 -225 -225 -225 -225 -225 -225 -225 -225 -225 -225 -225 -225 -225 -225 -225 -225 -225 -225 -225 -225 -225 -225 -225 -225 -225 -225 -225 -225 -225 -225 -225 -225 -225 -225 -225 -225 -225 -225 -225 -225 -225 -225 -225 -225 -225 -225 -225 -225 -225 -225 -225 -225 -225 -225 -225 -225 -225 -225 -225 -225 -225 -225 -225 -225 -225 -225 -225 -225 -225 -225 -225 -225 -225 -225 -225 -225 -225 -225 -225 -225 -225 -225 -225 -225 -225 -225 -225 -225 -225 -225 -225 -225 -225 -225 -225 -225 -225 -225 -225 78 76 78 80 86 86 89 92 93 93 97 96 95 96 97 98 97 97 98 94 98 99 98 97 96 98 96 96 97 93 95 92 93 94 94 99 101 104 104 105 105 105 106 106 105 106 105 106 108 108 109 109 111 112 112 116 118 118 121 121 124 124 125 125 127 129 130 129 129 130 130 132 133 134 133 0 0 0 0 0
    0 0 0 0 0 0 0 0 0 0 0 0 0 0 0 0 0 0 0 0 0 0 0 0 0 0 0 0 0 0 0 0 0 0 0 0 0 0 0 0 0 0 0 0 0 0 0 0 0 0 0 0 0 0 0 0 0 0 0 0 0 0 0 0 0 0 0 0 0 100 98 96 92 92 88 92 92 92 92 99 104 109 112 110 108 105 105 105 104 103 103 103 103 104 105 105 104 105 103 103 103 104 102 -225 -225 -225 -225 -225 -225 -225 -225 -225 -225 -225 -225 -225 -225 -225 -225 -225 -225 -225 -225 -225 -225 -225 -225 -225 -225 -225 -225 -225 -225 -225 -225 -225 -225 -225 -225 -225 -225 -225 -225 -225 -225 -225 -225 -225 -225 -225 -225 -225 -225 -225 -225 -225 -225 -225 -225 -225 -225 -225 -225 -225 -225 -225 -225 -225 -225 -225 -225 -225 -225 -225 -225 -225 -225 -225 -225 -225 -225 -225 -225 -225 -225 -225 -225 -225 -225 -225 -225 -225 -225 -225 -225 -225 -225 -225 -225 -225 -225 -225 -225 -225 -225 -225 -225 -225 -225 -225 -225 -225 -225 -225 -225 -225 -225 -225 -225 -225 -225 -225 -225 -225 -225 -225 -225 -225 -225 -225 -225 -225 -225 -225 -225 -225 -225 -225 -225 -225 -225 71 73 78 87 86 89 91 93 92 95 95 95 96 97 98 97 98 99 97 100 101 101 99 98 100 98 97 99 94 96 94 96 97 97 101 103 103 103 104 103 104 106 106 106 106 105 106 108 108 108 108 110 112 112 117 119 119 122 123 126 126 126 126 128 129 130 128 127 128 129 131 133 133 132 0 0 0 0 0
    0 0 0 0 0 0 0 0 0 0 0 0 0 0 0 0 0 0 0 0 0 0 0 0 0 0 0 0 0 0 0 0 0 0 0 0 0 0 0 0 0 0 0 0 0 0 0 0 0 0 0 0 0 0 0 0 0 0 0 0 0 0 0 0 0 0 0 0 0 101 100 98 93 91 86 90 -193 -209 -209 -193 106 113 115 113 113 108 108 107 107 106 106 106 105 106 106 105 104 104 103 102 101 102 -225 -225 -225 -225 -225 -225 -225 -225 -225 -225 -225 -225 -225 -225 -225 -225 -225 -225 -225 -225 -225 -225 -225 -225 -225 -225 -225 -225 -225 -225 -225 -225 -225 -225 -225 -225 -225 -225 -225 -225 -225 -225 -225 -225 -225 -225 -225 -225 -225 -225 -225 -225 -225 -225 -225 -225 -225 -225 -225 -225 -225 -225 -225 -225 -225 -225 -225 -225 -225 -225 -225 -225 -225 -225 -225 -225 -225 -225 -225 -225 -225 -225 -225 -225 -225 -225 -225 -225 -225 -225 -225 -225 -225 -225 -225 -225 -225 -225 -225 -225 -225 -225 -225 -225 -225 -225 -225 -225 -225 -225 -225 -225 -225 -225 -225 -225 -225 -225 -225 -225 -225 -225 -225 -225 -225 -225 -225 -225 -225 -225 -225 -225 -225 -225 -225 -225 -225 -225 -225 -225 79 77 85 83 88 90 92 91 94 95 95 96 97 98 98 99 101 99 102 102 102 101 100 101 100 99 100 97 99 98 101 102 101 104 105 105 105 106 103 103 105 105 106 106 -193 -209 -209 110 111 111 114 117 115 117 119 120 123 124 126 127 126 126 128 129 129 128 127 128 129 132 133 133 133 0 0 0 0 0
    0 0 0 0 0 0 0 0 0 0 0 0 0 0 0 0 0 0 0 0 0 0 0 0 0 0 0 0 0 0 0 0 0 0 0 0 0 0 0 0 0 0 0 0 0 0 0 0 0 0 0 0 0 0 0 0 0 0 0 0 0 0 0 0 0 0 0 0 0 103 103 102 95 91 87 92 94 -209 -209 -193 110 115 116 116 115 111 111 109 109 108 108 108 106 106 106 105 105 105 104 103 -225 -225 -225 -225 -225 -225 -225 -225 -225 -225 -225 -225 -225 -225 -225 -225 -225 -225 -225 -225 -225 -225 -225 -225 -225 -225 -225 -225 -225 -225 -225 -225 -225 -225 -225 -225 -225 -225 -225 -225 -225 -225 -225 -225 -225 -225 -225 -225 -225 -225 -225 -225 -225 -225 -225 -225 -225 -225 -225 -225 -225 -225 -225 -225 -225 -225 -225 -225 -225 -225 -225 -225 -225 -225 -225 -225 -225 -225 -225 -225 -225 -225 -225 -225 -225 -225 -225 -225 -225 -225 -225 -225 -225 -225 -225 -225 -225 -225 -225 -225 -225 -225 -225 -225 -225 -225 -225 -225 -225 -225 -225 -225 -225 -225 -225 -225 -225 -225 -225 -225 -225 -225 -225 -225 -225 -225 -225 -225 -225 -225 -225 -225 -225 -225 -225 -225 -225 -225 -225 -225 -225 -225 -225 -225 79 84 91 90 94 92 95 96 96 97 97 98 99 99 101 101 102 103 103 102 101 101 101 100 100 99 101 101 104 105 104 105 107 106 107 106 104 102 105 106 107 108 -209 -209 -209 -193 115 115 117 119 117 118 120 120 123 124 126 127 127 127 128 128 128 127 126 126 128 131 131 131 131 0 0 0 0 0
    0 0 0 0 0 0 0 0 0 0 0 0 0 0 0 0 0 0 0 0 0 0 0 0 0 0 0 0 0 0 0 0 0 0 0 0 0 0 0 0 0 0 0 0 0 0 0 0 0 0 0 0 0 0 0 0 0 0 0 0 0 0 0 0 0 0 0 0 0 106 107 107 102 96 88 94 101 -209 -209 -193 116 117 118 117 117 115 115 114 113 111 110 109 107 107 106 105 105 105 105 -225 -225 -225 -225 -225 -225 -225 -225 -225 -225 -225 -225 -225 -225 -225 -225 -225 -225 -225 -225 -225 -225 -225 -225 -225 -225 -225 -225 -225 -225 -225 -225 -225 -225 -225 -225 -225 -225 -225 -225 -225 -225 -225 -225 -225 -225 -225 -225 -225 -225 -225 -225 -225 -225 -225 -225 -225 -225 -225 -225 -225 -225 -225 -225 -225 -225 -225 -225 -225 -225 -225 -225 -225 -225 -225 -225 -225 -225 -225 -225 -225 -225 -225 -225 -225 -225 -225 -225 -225 -225 -225 -225 -225 -225 -225 -225 -225 -225 -225 -225 -225 -225 -225 -225 -225 -225 -225 -225 -225 -225 -225 -225 -225 -225 -225 -225 -225 -225 -225 -225 -225 -225 -225 -225 -225 -225 -225 -225 -225 -225 -225 -225 -225 -225 -225 -225 -225 -225 -225 -225 -225 -225 -225 -225 -225 -225 82 85 87 95 91 94 97 96 97 98 99 101 100 102 103 104 105 105 103 102 102 101 101 101 100 101 102 105 105 105 106 107 107 107 107 105 103 106 107 108 110 108 -209 -209 115 -193 115 117 118 116 117 120 121 123 124 126 127 127 127 128 128 128 127 126 126 127 131 131 133 132 0 0 0 0 0
    0 0 0 0 0 0 0 0 0 0 0 0 0 0 0 0 0 0 0 0 0 0 0 0 0 0 0 0 0 0 0 0 0 0 0 0 0 0 0 0 0 0 0 0 0 0 0 0 0 0 0 0 0 0 0 0 0 0 0 0 0 0 0 0 0 0 0 0 0 108 109 110 108 -193 -209 98 -209 -193 -193 -193 121 119 119 118 118 117 117 116 115 112 110 109 108 107 106 105 105 -225 -225 -225 -225 -225 -225 -225 -225 -225 -225 -225 -225 -225 -225 -225 -225 -225 -225 -225 -225 -225 -225 -225 -225 -225 -225 -225 -225 -225 -225 -225 -225 -225 -225 -225 -225 -225 -225 -225 -225 -225 -225 -225 -225 -225 -225 -225 -225 -225 -225 -225 -225 -225 -225 -225 -225 -225 -225 -225 -225 -225 -225 -225 -225 -225 -225 -225 -225 -225 -225 -225 -225 -225 -225 -225 -225 -225 -225 -225 -225 -225 -225 -225 -225 -225 -225 -225 -225 -225 -225 -225 -225 -225 -225 -225 -225 -225 -225 -225 -225 -225 -225 -225 -225 -225 -225 -225 -225 -225 -225 -225 -225 -225 -225 -225 -225 -225 -225 -225 -225 -225 -225 -225 -225 -225 -225 -225 -225 -225 -225 -225 -225 -225 -225 -225 -225 -225 -225 -225 -225 -225 -225 -225 -225 -225 -225 -225 -225 -225 -225 89 95 91 94 97 96 97 98 99 101 100 102 103 104 105 105 104 103 102 102 102 102 101 103 104 106 106 107 107 109 108 108 108 106 104 107 109 109 111 110 111 114 115 114 -209 -193 115 113 117 120 -193 123 123 125 128 128 127 128 127 128 127 127 127 128 132 132 134 133 0 0 0 0 0
    0 0 0 0 0 0 0 0 0 0 0 0 0 0 0 0 0 0 0 0 0 0 0 0 0 0 0 0 0 0 0 0 0 0 0 0 0 0 0 0 0 0 0 0 0 0 0 0 0 0 0 0 0 0 0 0 0 0 0 0 0 0 0 0 0 0 0 0 0 108 110 113 112 109 -209 103 -193 122 122 123 122 120 120 119 119 118 118 117 116 113 111 109 108 108 107 106 -225 -225 -225 -225 -225 -225 -225 -225 -225 -225 -225 -225 -225 -225 -225 -225 -225 -225 -225 -225 -225 -225 -225 -225 -225 -225 -225 -225 -225 -225 -225 -225 -225 -225 -225 -225 -225 -225 -225 -225 -225 -225 -225 -225 -225 -225 -225 -225 -225 -225 -225 -225 -225 -225 -225 -225 -225 -225 -225 -225 -225 -225 -225 -225 -225 -225 -225 -225 -225 -225 -225 -225 -225 -225 -225 -225 -225 -225 -225 -225 -225 -225 -225 -225 -225 -225 -225 -225 -225 -225 -225 -225 -225 -225 -225 -225 -225 -225 -225 -225 -225 -225 -225 -225 -225 -225 -225 -225 -225 -225 -225 -225 -225 -225 -225 -225 -225 -225 -225 -225 -225 -225 -225 -225 -225 -225 -225 -225 -225 -225 -225 -225 -225 -225 -225 -225 -225 -225 -225 -225 -225 -225 -225 -225 -225 -225 -225 -225 -225 -225 -225 -225 95 91 92 97 97 99 99 99 101 101 102 103 105 104 105 104 103 102 101 101 101 100 103 104 106 106 107 109 110 110 110 110 107 106 108 110 109 114 111 113 115 116 116 116 -209 -209 115 118 121 122 123 122 126 128 128 128 128 127 128 127 127 126 127 130 130 131 131 0 0 0 0 0
    0 0 0 0 0 0 0 0 0 0 0 0 0 0 0 0 0 0 0 0 0 0 0 0 0 0 0 0 0 0 0 0 0 0 0 0 0 0 0 0 0 0 0 0 0 0 0 0 0 0 0 0 0 0 0 0 0 0 0 0 0 0 0 0 0 0 0 0 0 109 113 116 118 120 121 119 123 124 125 124 123 121 122 121 121 120 119 117 116 114 111 109 109 108 107 -225 -225 -225 -225 -225 -225 -225 -225 -225 -225 -225 -225 -225 -225 -225 -225 -225 -225 -225 -225 -225 -225 -225 -225 -225 -225 -225 -225 -225 -225 -225 -225 -225 -225 -225 -225 -225 -225 -225 -225 -225 -225 -225 -225 -225 -225 -225 -225 -225 -225 -225 -225 -225 -225 -225 -225 -225 -225 -225 -225 -225 -225 -225 -225 -225 -225 -225 -225 -225 -225 -225 -225 -225 -225 -225 -225 -225 -225 -225 -225 -225 -225 -225 -225 -225 -225 -225 -225 -225 -225 -225 -225 -225 -225 -225 -225 -225 -225 -225 -225 -225 -225 -225 -225 -225 -225 -225 -225 -225 -225 -225 -225 -225 -225 -225 -225 -225 -225 -225 -225 -225 -225 -225 -225 -225 -225 -225 -225 -225 -225 -225 -225 -225 -225 -225 -225 -225 -225 -225 -225 -225 -225 -225 -225 -225 -225 -225 -225 -225 -225 -225 -225 -225 -225 87 91 97 97 99 100 99 99 100 100 102 104 104 104 104 103 103 102 102 102 101 104 105 107 107 108 110 111 112 113 112 109 107 109 112 109 114 111 111 114 115 115 115 114 115 113 116 119 121 122 122 125 129 129 129 128 128 128 128 127 126 127 130 129 131 131 0 0 0 0 0
    0 0 0 0 0 0 0 0 0 0 0 0 0 0 0 0 0 0 0 0 0 0 0 0 0 0 0 0 0 0 0 0 0 0 0 0 0 0 0 0 0 0 0 0 0 0 0 0 0 0 0 0 0 0 0 0 0 0 0 0 0 0 0 0 0 0 0 0 0 111 115 118 119 121 122 121 125 127 127 126 125 123 123 122 122 121 119 117 115 113 111 110 109 -225 -225 -225 -225 -225 -225 -225 -225 -225 -225 -225 -225 -225 -225 -225 -225 -225 -225 -225 -225 -225 -225 -225 -225 -225 -225 -225 -225 -225 -225 -225 -225 -225 -225 -225 -225 -225 -225 -225 -225 -225 -225 -225 -225 -225 -225 -225 -225 -225 -225 -225 -225 -225 -225 -225 -225 -225 -225 -225 -225 -225 -225 -225 -225 -225 -225 -225 -225 -225 -225 -225 -225 -225 -225 -225 -225 -225 -225 -225 -225 -225 -225 -225 -225 -225 -225 -225 -225 -225 -225 -225 -225 -225 -225 -225 -225 -225 -225 -225 -225 -225 -225 -225 -225 -225 -225 -225 -225 -225 -225 -225 -225 -225 -225 -225 -225 -225 -225 -225 -225 -225 -225 -225 -225 -225 -225 -225 -225 -225 -225 -225 -225 -225 -225 -225 -225 -225 -225 -225 -225 -225 -225 -225 -225 -225 -225 -225 -225 -225 -225 -225 -225 -225 -225 -225 -225 -225 -225 90 95 96 95 96 96 96 97 101 104 104 104 105 104 104 104 103 104 104 106 107 108 108 109 111 112 112 113 112 111 107 110 114 110 115 112 111 112 112 113 113 111 109 111 115 -209 -209 122 -193 124 128 128 129 129 128 129 128 126 126 126 130 128 130 130 0 0 0 0 0</data></disparity>
</opencv_storage>
