<?xml version="1.0"?>
<opencv_storage>
<gps_time_stamp>309202</gps_time_stamp>
<gps_x>-1.2418221473693848e+001</gps_x>
<gps_y>1.0964350700378418e+001</gps_y>
<gps_z>-2.0321297645568848e+000</gps_z>
<image_time_stamp>300057</image_time_stamp>
<disparity type_id="opencv-matrix">
  <rows>87</rows>
  <cols>320</cols>
  <dt>s</dt>
  <data>
    0 0 0 0 0 0 0 0 0 0 0 0 0 0 0 0 0 0 0 0 0 0 0 0 0 0 0 0 0 0 0 0 0 0 0 0 0 0 0 0 0 0 0 0 0 0 0 0 0 0 0 0 0 0 0 0 0 0 0 0 0 0 0 0 0 0 0 0 0 50 50 51 49 49 50 50 50 50 49 49 48 46 47 46 44 43 40 40 38 35 33 32 32 31 33 29 29 29 29 28 28 30 28 26 28 27 27 26 26 27 25 25 26 26 25 24 25 24 22 23 23 22 19 19 18 16 17 18 15 16 16 18 17 19 17 17 10 0 0 9 0 9 10 10 9 10 11 10 10 10 9 10 10 9 9 0 0 9 0 0 9 0 9 9 10 10 9 10 11 11 11 11 16 23 22 26 26 29 29 30 32 35 33 37 38 39 38 41 43 43 40 40 40 43 52 56 -193 -193 61 62 63 64 64 63 65 62 61 69 71 72 72 70 -193 -193 74 74 79 76 76 80 79 82 80 80 82 79 82 81 -177 -177 80 84 84 83 85 82 86 -177 88 90 89 -193 -193 100 222 -193 -193 106 106 109 113 114 115 120 120 121 123 123 124 124 124 127 128 130 132 -209 -193 -177 -193 140 -193 -193 943 -177 146 144 148 148 148 142 153 -193 144 153 154 154 157 158 161 164 167 168 168 169 171 171 173 177 -193 -193 -209 -193 180 182 -209 -193 -193 185 185 186 187 191 -209 199 200 0 0 0 0 0
    0 0 0 0 0 0 0 0 0 0 0 0 0 0 0 0 0 0 0 0 0 0 0 0 0 0 0 0 0 0 0 0 0 0 0 0 0 0 0 0 0 0 0 0 0 0 0 0 0 0 0 0 0 0 0 0 0 0 0 0 0 0 0 0 0 0 0 0 0 49 49 50 49 49 50 51 50 50 49 48 49 46 47 46 44 44 41 41 39 35 33 32 33 31 34 30 29 30 29 29 28 30 28 26 28 28 27 26 26 27 25 25 25 25 25 24 24 22 21 22 -193 -193 17 17 16 15 16 16 14 16 15 17 15 17 14 12 0 0 0 0 0 9 9 10 10 10 11 10 11 10 10 10 10 9 9 0 0 0 9 9 9 0 9 9 10 11 9 10 11 10 11 11 15 22 21 24 24 28 28 28 31 34 31 35 37 37 36 40 42 42 39 39 39 42 51 56 -193 -193 61 62 63 64 64 62 65 63 62 71 73 -193 72 71 -193 -193 74 74 78 75 76 80 79 81 81 81 83 79 83 81 -177 -177 80 84 83 83 85 82 -177 -193 88 90 90 92 97 100 222 226 -193 -193 106 108 112 114 114 120 120 121 123 122 124 123 -193 126 128 129 -193 -193 -193 -193 -193 -193 -193 -193 944 -177 145 143 147 147 147 142 151 147 140 151 152 153 156 158 160 164 168 168 168 168 170 170 171 173 174 174 176 175 177 181 181 182 182 183 184 185 186 189 -209 200 201 0 0 0 0 0
    0 0 0 0 0 0 0 0 0 0 0 0 0 0 0 0 0 0 0 0 0 0 0 0 0 0 0 0 0 0 0 0 0 0 0 0 0 0 0 0 0 0 0 0 0 0 0 0 0 0 0 0 0 0 0 0 0 0 0 0 0 0 0 0 0 0 0 0 0 48 49 49 49 48 49 51 50 50 49 48 49 46 47 47 44 44 41 41 41 35 33 32 33 32 34 30 29 30 29 29 28 30 28 26 28 28 27 26 26 27 25 25 25 25 25 24 24 22 20 21 -193 -193 14 15 14 13 14 15 13 15 13 15 12 13 10 9 0 0 0 0 0 0 9 10 9 10 11 10 11 10 10 10 10 10 9 0 0 9 9 9 9 0 9 9 10 11 9 10 11 11 11 11 14 21 20 23 23 27 27 28 30 32 30 34 36 36 35 39 40 41 37 38 39 41 49 55 -209 -193 60 61 62 63 63 62 65 64 -193 71 74 -209 73 71 -177 -193 73 73 78 75 -177 -193 79 81 81 81 83 79 83 81 -177 -177 81 83 83 82 85 82 -193 87 88 90 90 93 98 -193 223 226 -193 -193 105 108 111 114 112 119 119 121 123 122 123 -193 -193 126 -193 129 -193 -193 -177 -209 -193 -209 -193 -177 944 940 145 142 146 146 146 141 148 145 138 152 153 154 157 159 161 164 167 167 168 167 168 168 170 171 171 171 171 171 175 180 180 181 182 183 183 184 185 188 -209 -209 201 0 0 0 0 0
    0 0 0 0 0 0 0 0 0 0 0 0 0 0 0 0 0 0 0 0 0 0 0 0 0 0 0 0 0 0 0 0 0 0 0 0 0 0 0 0 0 0 0 0 0 0 0 0 0 0 0 0 0 0 0 0 0 0 0 0 0 0 0 0 0 0 0 0 0 48 48 48 48 48 48 50 49 50 49 48 50 46 48 47 45 44 42 42 42 35 33 32 33 32 35 30 29 30 29 28 28 30 29 26 28 28 27 26 25 27 25 24 25 25 25 24 24 21 18 20 -193 -193 12 13 12 11 12 13 12 13 12 12 10 9 0 0 0 0 0 0 0 0 9 10 9 10 11 10 11 10 10 10 10 10 10 0 0 0 9 9 9 0 9 9 10 11 9 10 11 11 11 11 13 20 19 22 22 25 27 27 29 31 29 32 35 35 35 38 40 40 37 38 38 40 48 54 -209 -177 -193 60 61 62 62 61 65 64 -193 71 73 -209 73 71 -177 -193 73 73 78 75 -177 -193 79 81 82 82 83 79 83 82 -193 -193 81 83 83 82 85 83 -193 -193 -193 91 91 93 99 -193 223 226 226 -193 -209 107 110 113 111 119 119 121 123 122 123 -193 -193 126 -193 129 -193 -193 -177 -209 -193 -209 -193 -177 944 940 144 142 145 145 146 141 148 144 138 153 153 154 157 158 160 161 165 166 166 166 166 167 169 169 169 169 170 170 174 180 180 181 182 182 183 183 184 186 -193 -209 201 0 0 0 0 0
    0 0 0 0 0 0 0 0 0 0 0 0 0 0 0 0 0 0 0 0 0 0 0 0 0 0 0 0 0 0 0 0 0 0 0 0 0 0 0 0 0 0 0 0 0 0 0 0 0 0 0 0 0 0 0 0 0 0 0 0 0 0 0 0 0 0 0 0 0 47 47 47 47 47 47 50 49 49 48 47 50 46 48 48 45 45 43 43 42 35 34 32 33 32 35 30 29 30 30 29 28 30 29 26 29 28 28 26 26 27 25 25 25 25 25 24 24 22 18 19 15 -193 11 12 11 10 10 12 11 12 11 12 10 9 9 0 0 0 0 0 0 0 9 10 9 10 11 11 12 11 10 10 10 9 9 0 0 0 0 0 0 0 9 0 10 11 9 9 11 11 11 11 12 19 18 21 21 23 26 26 27 29 28 31 34 34 34 37 39 39 36 38 38 40 48 53 -193 -177 -177 -193 60 -193 60 -193 64 64 -193 71 72 -209 72 71 -177 -193 72 73 77 75 76 80 79 82 82 82 84 80 84 82 -193 -193 82 83 82 81 85 83 -193 -193 -193 91 92 94 99 -193 223 227 226 -193 -209 107 110 113 110 118 119 120 123 122 123 -193 348 -193 -193 -193 -193 -193 -177 -209 -193 -209 -193 -177 945 -177 144 142 145 145 146 142 148 144 138 153 154 155 156 158 159 160 166 166 167 167 167 168 169 170 171 170 170 169 173 179 179 180 181 181 182 183 184 186 -193 -209 201 0 0 0 0 0
    0 0 0 0 0 0 0 0 0 0 0 0 0 0 0 0 0 0 0 0 0 0 0 0 0 0 0 0 0 0 0 0 0 0 0 0 0 0 0 0 0 0 0 0 0 0 0 0 0 0 0 0 0 0 0 0 0 0 0 0 0 0 0 0 0 0 0 0 0 47 47 47 46 47 47 49 48 49 48 47 50 47 48 48 45 45 44 43 42 36 34 32 32 32 35 31 29 31 30 29 29 30 29 26 29 28 28 26 26 27 25 25 25 25 25 24 24 22 18 18 15 -193 10 11 11 10 10 11 11 12 11 11 10 10 10 9 0 0 0 0 0 0 9 9 9 10 11 11 12 11 10 10 9 9 0 0 0 0 0 0 0 0 9 0 10 10 0 9 11 10 10 10 11 18 17 20 20 22 25 -177 -177 28 27 29 33 33 34 35 39 38 36 38 38 39 47 52 -193 -177 -177 353 354 352 -193 -193 62 -209 -193 70 72 -209 72 71 -193 -193 72 73 78 75 76 80 79 82 83 83 84 80 84 82 -193 -193 82 82 82 81 -193 -177 -193 -177 -193 91 92 94 99 222 223 227 227 -193 -193 107 110 113 110 117 118 120 122 122 123 -193 348 -193 -193 -193 -193 -193 -177 -209 -193 -209 -193 -177 945 -177 145 142 145 145 146 142 148 145 140 153 154 154 155 157 158 160 166 167 167 168 168 168 169 169 170 169 168 167 170 174 175 177 181 181 181 182 183 -193 -193 -209 202 0 0 0 0 0
    0 0 0 0 0 0 0 0 0 0 0 0 0 0 0 0 0 0 0 0 0 0 0 0 0 0 0 0 0 0 0 0 0 0 0 0 0 0 0 0 0 0 0 0 0 0 0 0 0 0 0 0 0 0 0 0 0 0 0 0 0 0 0 0 0 0 0 0 0 47 47 47 46 46 46 48 48 49 47 47 49 46 48 48 45 45 44 43 42 35 34 32 31 32 36 31 30 31 31 29 29 30 30 27 29 29 28 26 26 27 25 25 25 25 25 24 24 22 18 18 14 10 10 11 11 10 10 11 11 12 11 11 10 10 10 9 0 0 0 0 0 9 9 10 10 11 11 11 12 11 10 10 9 9 0 0 0 0 0 0 0 0 9 0 9 10 0 9 10 10 10 10 10 17 16 20 19 21 24 -177 -177 27 26 28 32 32 33 34 38 38 36 37 38 39 47 51 -177 -177 -177 351 352 349 -193 -193 -193 -177 -193 69 72 -209 72 71 -209 -209 72 73 78 76 76 81 79 82 84 84 85 81 85 83 -193 -193 83 82 82 80 -193 -177 -193 -177 -193 91 93 94 99 223 223 227 227 -193 -193 107 110 113 109 117 118 119 122 121 122 -193 347 -193 -209 -193 -193 -209 -177 -209 -193 -209 -193 -177 945 -177 144 142 145 145 145 143 148 146 144 153 153 153 154 155 156 157 166 166 167 167 168 168 168 168 168 165 165 163 167 -193 174 176 180 182 182 183 184 184 196 -209 201 0 0 0 0 0
    0 0 0 0 0 0 0 0 0 0 0 0 0 0 0 0 0 0 0 0 0 0 0 0 0 0 0 0 0 0 0 0 0 0 0 0 0 0 0 0 0 0 0 0 0 0 0 0 0 0 0 0 0 0 0 0 0 0 0 0 0 0 0 0 0 0 0 0 0 46 46 46 45 46 46 48 47 49 47 47 49 46 48 47 45 45 43 43 41 35 35 32 31 32 36 32 30 32 31 29 29 30 30 27 30 29 28 27 26 28 25 25 25 25 25 23 24 22 17 18 14 11 10 11 11 11 11 11 12 12 11 11 10 10 9 0 0 0 0 0 9 10 10 10 10 11 11 11 12 12 10 11 10 10 9 0 0 0 0 9 0 0 9 0 9 9 0 0 10 10 9 10 10 17 16 20 19 21 24 -177 -177 -177 26 28 31 32 33 33 37 37 35 37 38 38 46 50 -177 -177 351 349 350 348 -193 -177 -193 406 -193 69 -193 -209 73 71 -209 -209 72 73 79 76 76 81 80 82 84 84 85 82 85 84 -193 -193 83 82 82 80 -193 -177 -193 -177 -193 90 92 93 98 222 223 227 227 -193 -193 107 110 113 110 116 118 119 121 121 122 -193 -193 -193 -209 -193 -209 -209 -177 -209 -193 -193 -193 -177 946 -177 144 142 145 145 145 -193 148 147 148 153 154 154 154 155 156 156 165 166 167 167 168 168 168 168 167 165 166 164 167 171 174 177 180 183 183 184 185 186 196 -209 201 0 0 0 0 0
    0 0 0 0 0 0 0 0 0 0 0 0 0 0 0 0 0 0 0 0 0 0 0 0 0 0 0 0 0 0 0 0 0 0 0 0 0 0 0 0 0 0 0 0 0 0 0 0 0 0 0 0 0 0 0 0 0 0 0 0 0 0 0 0 0 0 0 0 0 46 46 46 45 45 45 46 46 48 47 46 49 46 47 47 44 44 43 43 40 35 35 32 32 33 37 32 30 32 31 29 29 30 30 27 30 29 28 27 27 28 26 25 26 25 25 23 23 23 17 19 15 11 11 12 11 12 11 11 12 12 11 11 10 10 9 0 0 0 0 0 9 10 10 11 10 11 11 12 13 12 11 12 10 10 9 9 0 0 0 9 0 0 9 0 9 8 0 0 9 9 9 9 10 17 17 20 19 20 24 -177 24 27 26 27 31 31 33 32 36 37 34 37 37 38 46 48 -193 354 -193 348 -193 -193 53 -193 -209 405 -209 68 72 -209 -193 -209 -209 -193 73 74 80 77 77 81 80 82 85 -177 -177 83 86 84 801 -193 84 82 82 80 -193 -177 -177 -177 -193 89 92 93 98 222 223 227 227 -193 -193 107 110 113 110 116 118 119 121 121 122 120 -193 -193 -193 -193 -193 -209 -177 -209 -193 -193 -193 -177 946 -177 144 142 144 144 144 -193 148 148 152 153 156 155 155 156 157 157 164 166 168 168 169 170 170 169 168 166 165 164 165 168 171 173 178 181 182 184 186 188 197 -209 202 0 0 0 0 0
    0 0 0 0 0 0 0 0 0 0 0 0 0 0 0 0 0 0 0 0 0 0 0 0 0 0 0 0 0 0 0 0 0 0 0 0 0 0 0 0 0 0 0 0 0 0 0 0 0 0 0 0 0 0 0 0 0 0 0 0 0 0 0 0 0 0 0 0 0 46 46 45 44 45 44 45 45 46 45 45 48 45 47 46 44 43 42 42 38 35 35 32 32 33 37 32 30 33 31 29 29 29 30 26 29 29 28 28 28 29 26 25 26 25 25 23 23 23 18 19 16 12 12 12 12 12 11 12 13 12 12 11 10 10 9 0 0 0 0 0 9 10 10 11 11 11 12 12 13 13 11 12 10 11 10 9 0 0 0 0 0 0 0 0 9 0 0 0 9 10 9 10 10 18 19 21 19 20 24 24 -177 -177 26 26 30 31 32 31 36 36 34 37 37 37 45 47 -193 353 -193 -193 51 -193 52 -193 -209 405 -193 66 71 -209 -193 -193 -193 -177 -193 74 81 77 77 82 80 83 -193 -177 -177 83 87 85 800 803 85 83 82 80 -193 -177 -177 -177 -193 88 92 92 97 222 224 228 227 -193 -193 107 110 113 111 116 118 118 121 121 122 120 -209 -193 -209 -193 -209 -209 -209 -209 -209 140 144 -177 -177 -177 144 141 144 144 144 -193 148 149 153 153 157 156 156 157 158 157 164 166 168 168 170 171 170 170 169 -193 -193 162 161 166 171 170 173 176 179 181 184 -193 -193 -193 202 0 0 0 0 0
    0 0 0 0 0 0 0 0 0 0 0 0 0 0 0 0 0 0 0 0 0 0 0 0 0 0 0 0 0 0 0 0 0 0 0 0 0 0 0 0 0 0 0 0 0 0 0 0 0 0 0 0 0 0 0 0 0 0 0 0 0 0 0 0 0 0 0 0 0 46 46 45 44 45 44 44 44 45 44 44 47 45 46 44 43 42 41 40 37 35 35 33 32 33 37 32 30 33 31 28 28 29 30 26 29 29 28 28 28 29 27 26 26 25 25 23 23 23 18 19 17 13 13 13 12 13 12 12 13 12 12 11 10 10 9 9 9 0 0 9 10 11 11 11 11 12 12 13 13 13 11 12 10 10 10 0 0 0 0 0 0 0 0 0 8 0 0 0 10 10 10 10 11 18 21 22 20 21 25 25 -177 27 27 26 30 31 33 31 36 36 34 37 37 37 45 46 49 353 48 -193 50 51 52 -193 -209 -177 -193 64 69 -193 71 71 -209 -177 -193 74 82 78 77 82 81 83 -193 -177 -177 84 -193 -193 801 803 -193 83 83 80 86 83 -177 -193 -193 88 91 91 -193 222 224 228 228 -193 -193 -193 110 113 111 115 119 119 121 121 122 120 -209 121 -193 -193 -193 -209 -209 -193 -209 140 143 -177 -177 -177 144 142 144 144 145 -193 148 150 154 153 158 157 157 157 158 158 163 165 167 -209 -209 170 170 169 -209 -209 -209 166 164 168 173 171 174 177 179 181 183 -193 -193 -193 202 0 0 0 0 0
    0 0 0 0 0 0 0 0 0 0 0 0 0 0 0 0 0 0 0 0 0 0 0 0 0 0 0 0 0 0 0 0 0 0 0 0 0 0 0 0 0 0 0 0 0 0 0 0 0 0 0 0 0 0 0 0 0 0 0 0 0 0 0 0 0 0 0 0 0 45 46 45 43 44 43 43 43 44 44 43 45 43 43 41 41 41 39 39 35 35 35 33 31 32 37 32 30 33 30 28 28 29 30 27 29 29 28 28 29 30 28 26 27 25 25 23 22 22 18 19 17 13 14 13 13 14 12 13 14 13 13 12 11 11 10 10 10 0 0 9 11 12 11 11 10 11 12 13 13 13 11 12 11 11 10 9 9 9 0 9 0 0 0 0 0 0 0 0 10 10 11 11 11 19 23 24 21 22 26 26 -177 28 27 27 30 31 33 31 35 36 34 37 37 37 45 46 50 354 -193 -193 51 51 52 -193 -209 -177 -209 63 68 -193 70 70 -209 -177 -177 74 82 78 77 82 81 83 -177 -177 -177 84 -193 -193 801 803 -193 84 83 81 86 83 -177 -193 -193 87 90 90 -193 222 225 229 -193 -193 -193 -193 111 114 112 116 120 119 122 122 123 121 -193 -193 -209 -193 -209 117 -209 -193 -209 141 143 -193 -177 -193 145 142 145 145 146 -193 148 152 155 154 158 158 157 157 158 158 162 163 -193 -193 -209 -193 -193 -209 -209 -209 -209 167 167 168 172 170 173 177 179 181 183 -193 -193 -209 201 0 0 0 0 0
    0 0 0 0 0 0 0 0 0 0 0 0 0 0 0 0 0 0 0 0 0 0 0 0 0 0 0 0 0 0 0 0 0 0 0 0 0 0 0 0 0 0 0 0 0 0 0 0 0 0 0 0 0 0 0 0 0 0 0 0 0 0 0 0 0 0 0 0 0 45 46 45 43 44 43 43 43 44 43 43 42 41 40 39 39 39 38 37 35 34 35 33 31 32 37 32 30 33 30 28 28 28 30 26 29 29 28 28 29 30 28 26 27 -193 25 23 22 22 18 19 18 14 15 14 15 16 14 14 15 14 14 12 12 11 11 11 11 10 9 11 12 14 12 11 11 11 11 13 12 12 10 12 11 11 10 10 9 9 9 9 0 0 0 0 0 0 0 9 10 10 11 11 12 19 25 25 23 23 27 -177 -177 29 28 27 31 31 32 31 35 35 33 37 37 37 45 46 50 354 -193 349 -193 -193 52 -193 -193 -177 -209 62 68 -193 70 70 -193 -177 -177 74 82 79 78 82 82 83 -177 -177 -177 84 87 -193 802 803 -193 84 83 81 87 83 -177 -193 86 87 89 89 -193 222 225 229 -193 -193 -177 -193 112 115 114 117 121 121 122 123 123 121 -193 -193 -209 -193 -193 117 -209 -193 -209 141 143 -193 -193 -193 -193 144 146 146 146 -193 148 154 156 154 159 158 157 157 158 158 162 163 -193 -193 -193 -193 -193 -193 171 -193 173 173 172 173 178 175 176 180 181 182 185 187 198 -193 202 0 0 0 0 0
    0 0 0 0 0 0 0 0 0 0 0 0 0 0 0 0 0 0 0 0 0 0 0 0 0 0 0 0 0 0 0 0 0 0 0 0 0 0 0 0 0 0 0 0 0 0 0 0 0 0 0 0 0 0 0 0 0 0 0 0 0 0 0 0 0 0 0 0 0 45 46 44 43 44 43 43 43 43 43 42 -193 40 39 38 37 37 36 36 34 34 35 32 31 32 37 31 30 32 30 27 28 28 29 26 29 28 28 28 29 30 28 26 27 -193 -193 22 22 22 18 19 18 15 16 15 16 17 15 15 16 15 14 13 12 11 10 10 10 10 9 11 12 14 12 11 11 11 11 12 11 11 10 12 11 10 10 10 10 10 9 9 0 0 0 0 0 0 0 9 10 10 11 12 12 20 27 26 24 25 29 -177 -177 30 29 27 31 31 33 31 35 35 33 37 37 37 45 46 50 354 353 350 350 -193 52 -193 112 -193 -193 62 67 -193 70 70 -193 -177 -177 -193 83 79 78 82 82 83 -177 -177 -177 85 88 87 -177 804 -193 85 84 82 87 84 85 -193 85 87 89 -193 -193 222 225 229 -193 -193 -177 -177 112 115 114 117 122 121 122 124 124 123 -193 122 -193 121 -193 119 -209 -209 -209 141 143 -193 -193 -193 -193 145 147 147 147 148 148 155 156 154 159 158 158 157 158 159 162 162 -209 -209 -193 -193 -193 -193 -193 -193 177 179 177 180 183 183 182 183 184 185 187 191 -193 435 203 0 0 0 0 0
    0 0 0 0 0 0 0 0 0 0 0 0 0 0 0 0 0 0 0 0 0 0 0 0 0 0 0 0 0 0 0 0 0 0 0 0 0 0 0 0 0 0 0 0 0 0 0 0 0 0 0 0 0 0 0 0 0 0 0 0 0 0 0 0 0 0 0 0 0 44 46 44 42 43 43 43 43 43 43 41 -193 38 37 36 35 36 35 35 34 33 35 32 31 32 37 31 30 32 29 27 27 27 29 26 28 28 28 28 29 29 28 26 27 -193 24 22 22 22 19 19 18 16 17 16 16 18 15 16 16 16 14 13 12 11 10 10 10 9 9 10 12 13 12 11 11 11 11 12 12 11 10 12 11 11 11 11 10 10 9 9 0 0 0 0 0 0 0 9 10 11 12 13 13 20 28 27 26 26 30 -177 -177 -177 30 28 32 31 33 31 36 36 34 37 37 37 45 46 50 -193 -177 351 351 -177 53 -193 112 -193 -193 62 67 -193 69 69 -193 -177 -177 -193 83 79 78 82 83 83 -177 -177 -177 85 88 -193 -177 804 -209 85 -193 83 88 -177 85 -193 85 86 88 -193 -193 221 225 229 -193 -193 -177 -177 112 116 115 118 122 122 123 125 125 124 123 123 124 122 -193 -193 -209 -209 -209 141 142 146 145 -193 148 146 147 147 148 148 148 155 156 155 159 158 158 157 158 158 160 160 -193 -193 -209 -193 -193 -209 -193 -193 178 179 179 181 184 183 183 184 186 186 188 191 198 -193 202 0 0 0 0 0
    0 0 0 0 0 0 0 0 0 0 0 0 0 0 0 0 0 0 0 0 0 0 0 0 0 0 0 0 0 0 0 0 0 0 0 0 0 0 0 0 0 0 0 0 0 0 0 0 0 0 0 0 0 0 0 0 0 0 0 0 0 0 0 0 0 0 0 0 0 44 46 43 42 43 42 43 42 42 -193 40 -193 37 36 36 35 35 34 35 34 33 35 32 32 33 37 31 30 31 29 27 27 27 29 25 28 28 -193 28 29 29 28 27 27 -209 -193 22 22 22 19 19 18 16 18 16 15 17 14 15 15 16 13 12 11 11 10 10 9 9 0 9 11 12 11 11 10 11 10 11 11 11 11 13 12 12 11 12 11 11 10 10 9 0 0 0 0 0 0 9 11 11 12 13 14 21 29 28 28 27 31 -177 30 32 30 28 32 31 33 31 36 36 34 38 38 38 45 46 50 49 -177 351 351 -177 53 -193 112 111 -193 62 67 -193 69 69 -193 -177 -177 -193 83 79 78 81 83 83 -177 -177 -177 85 88 -177 -177 -177 -193 -177 -177 -193 -193 -177 85 -193 85 86 88 -193 -193 221 224 229 -193 -193 -193 -177 112 116 116 118 123 123 124 126 126 126 124 124 126 124 126 124 -209 -209 -209 141 142 -193 145 -193 149 148 148 148 149 149 148 155 156 154 158 157 157 157 158 158 159 159 160 163 166 169 171 170 171 173 180 180 180 182 185 185 185 186 188 188 190 193 197 -193 201 0 0 0 0 0
    0 0 0 0 0 0 0 0 0 0 0 0 0 0 0 0 0 0 0 0 0 0 0 0 0 0 0 0 0 0 0 0 0 0 0 0 0 0 0 0 0 0 0 0 0 0 0 0 0 0 0 0 0 0 0 0 0 0 0 0 0 0 0 0 0 0 0 0 0 44 46 43 42 43 42 42 42 42 -193 39 39 36 36 36 34 35 34 35 34 33 35 33 32 33 37 31 30 31 28 26 26 26 29 25 28 27 -193 28 29 29 28 -193 27 -209 -193 22 21 22 19 19 18 16 18 16 14 16 14 13 14 15 13 12 11 11 10 9 9 9 0 9 10 11 11 11 10 11 11 11 12 11 12 13 12 13 12 12 12 12 11 10 9 9 9 9 9 0 9 10 11 12 13 14 14 21 30 28 30 28 32 30 30 33 31 29 33 31 34 31 37 36 35 39 39 39 46 46 50 49 -177 -177 352 -177 -193 114 113 111 -193 62 67 -193 69 -193 -193 -177 -177 -193 82 79 78 81 83 83 -177 -177 -177 85 88 -177 -177 -177 90 -177 -177 -193 89 -177 85 -193 86 -193 88 -193 -209 220 223 228 -193 -193 -193 -193 112 116 116 119 124 124 125 128 128 127 126 126 128 125 128 126 -209 -209 -209 141 141 -193 146 -193 -193 -193 148 149 149 150 147 155 156 154 158 156 157 156 157 158 158 158 158 161 -193 169 171 -209 -209 -209 -209 183 182 184 187 186 189 190 193 191 193 194 197 -209 200 0 0 0 0 0
    0 0 0 0 0 0 0 0 0 0 0 0 0 0 0 0 0 0 0 0 0 0 0 0 0 0 0 0 0 0 0 0 0 0 0 0 0 0 0 0 0 0 0 0 0 0 0 0 0 0 0 0 0 0 0 0 0 0 0 0 0 0 0 0 0 0 0 0 0 44 47 43 42 -193 -193 42 41 42 -193 38 38 36 35 35 34 35 34 35 35 33 35 33 32 33 37 31 30 30 28 26 26 26 28 25 28 27 -193 28 29 29 28 -209 27 -193 -193 22 21 22 -193 18 18 16 18 16 14 16 14 14 14 15 13 11 10 10 10 9 9 9 0 9 10 11 11 10 10 10 10 11 12 11 12 13 13 13 13 13 13 13 12 10 10 9 9 9 9 9 9 11 12 12 13 14 15 21 29 27 31 29 33 31 31 33 31 29 33 32 34 32 37 37 36 40 40 40 46 46 50 49 -177 -177 353 -177 -193 114 113 112 -193 61 67 -193 69 -193 -193 -193 -193 -193 82 79 78 80 83 83 542 -177 -177 85 88 -177 -209 -177 90 -177 -177 -193 90 -177 86 -193 86 -193 88 -193 -193 219 223 228 -193 -193 -193 -193 112 117 117 119 125 126 127 130 129 129 128 128 129 127 130 128 130 -209 -209 140 -193 -193 -193 -177 -193 -193 149 150 150 150 -193 155 156 153 155 154 154 155 155 157 157 158 158 161 164 167 169 -209 -209 -193 180 182 181 184 187 187 190 191 195 194 195 196 198 -209 201 0 0 0 0 0
    0 0 0 0 0 0 0 0 0 0 0 0 0 0 0 0 0 0 0 0 0 0 0 0 0 0 0 0 0 0 0 0 0 0 0 0 0 0 0 0 0 0 0 0 0 0 0 0 0 0 0 0 0 0 0 0 0 0 0 0 0 0 0 0 0 0 0 0 0 44 48 -193 -193 -193 -193 -193 41 42 -193 38 38 36 36 35 34 35 34 35 35 33 35 33 32 34 37 31 30 30 28 26 26 26 29 25 28 27 -193 28 29 29 28 -209 27 -193 -193 22 21 22 19 18 18 16 18 15 14 16 15 14 15 16 13 12 11 11 10 9 9 9 0 0 9 10 10 9 9 10 10 11 11 11 12 12 13 13 13 14 14 13 12 11 11 10 10 10 9 9 10 11 12 12 13 14 15 21 29 27 32 30 34 31 31 34 32 30 34 33 35 34 39 38 38 41 41 41 46 46 50 -193 -177 -177 -177 -177 -193 114 113 112 -193 61 66 -193 68 -193 -193 -193 -193 -177 81 79 78 79 83 82 542 -193 -193 85 88 -177 -209 -177 90 -177 -193 90 91 -193 86 -193 -193 209 -193 -193 -193 219 222 227 -193 -193 -193 226 112 117 118 120 126 127 128 131 129 129 128 128 129 127 131 129 130 -193 -193 139 -193 -193 -193 -177 -177 -177 150 150 151 151 -193 155 155 153 154 153 153 154 154 156 157 160 158 163 165 168 -193 -193 -193 -193 178 180 181 183 187 188 189 191 195 195 195 196 198 -209 201 0 0 0 0 0
    0 0 0 0 0 0 0 0 0 0 0 0 0 0 0 0 0 0 0 0 0 0 0 0 0 0 0 0 0 0 0 0 0 0 0 0 0 0 0 0 0 0 0 0 0 0 0 0 0 0 0 0 0 0 0 0 0 0 0 0 0 0 0 0 0 0 0 0 0 44 48 -193 -193 -193 -193 -193 -193 41 -209 38 38 35 36 35 34 35 34 35 35 33 35 33 32 34 37 31 30 30 28 26 26 26 29 25 28 27 -177 28 29 29 28 -209 27 -193 -193 22 21 22 19 18 18 15 18 15 13 15 15 14 15 16 15 14 12 12 11 9 9 9 0 0 0 9 9 9 9 10 9 11 11 11 12 13 13 13 13 14 14 13 13 11 11 11 10 10 10 9 10 11 12 12 12 13 14 20 26 26 32 30 34 32 32 34 33 31 35 33 36 35 39 39 39 41 41 41 45 46 49 49 -177 -177 -177 -177 -209 114 -193 -193 -193 60 66 -193 68 -193 -193 -193 -193 -193 81 79 78 78 83 81 -193 84 85 84 87 -177 -193 -193 91 726 92 91 91 -177 87 -193 -193 209 -193 -193 -193 219 222 227 -193 -193 227 226 112 118 118 121 126 128 129 131 130 129 128 127 129 128 131 129 129 -209 -193 139 -193 -193 -193 -177 -177 -177 150 151 151 151 -193 156 155 153 153 153 153 154 155 157 159 163 160 165 167 169 170 -193 -193 -209 177 180 181 183 187 189 189 191 196 196 196 197 198 -209 201 0 0 0 0 0
    0 0 0 0 0 0 0 0 0 0 0 0 0 0 0 0 0 0 0 0 0 0 0 0 0 0 0 0 0 0 0 0 0 0 0 0 0 0 0 0 0 0 0 0 0 0 0 0 0 0 0 0 0 0 0 0 0 0 0 0 0 0 0 0 0 0 0 0 0 45 49 -193 -193 -193 -193 -193 -209 -193 -209 38 38 35 36 36 34 35 34 35 35 33 35 33 32 34 37 32 30 30 28 26 26 26 28 25 27 27 -177 28 29 29 28 -193 27 22 22 22 21 22 19 19 18 16 18 15 14 15 15 15 15 17 15 14 12 11 11 9 0 0 0 0 0 9 9 9 9 10 10 11 12 11 13 13 13 13 13 14 14 13 13 11 11 11 11 11 10 9 10 12 13 12 12 12 13 19 24 24 32 30 34 32 32 34 33 31 35 34 36 35 39 39 39 41 41 41 46 46 50 49 -177 -177 -177 -177 -209 -209 61 -193 -193 60 65 -193 67 -193 -193 -193 68 -193 80 78 78 78 82 80 84 84 85 -193 87 -177 -193 -177 91 -193 93 92 92 -177 86 -193 -193 208 -193 -193 -193 218 222 226 -193 -193 227 226 111 117 118 121 126 128 129 131 130 129 128 127 129 128 132 130 130 -209 -193 -193 -193 -193 -193 -177 -177 -177 150 151 151 151 -193 156 155 152 152 152 152 153 155 159 163 164 164 166 168 169 -193 -193 -209 -209 -193 179 180 183 186 188 187 189 194 194 195 196 198 -209 203 0 0 0 0 0
    0 0 0 0 0 0 0 0 0 0 0 0 0 0 0 0 0 0 0 0 0 0 0 0 0 0 0 0 0 0 0 0 0 0 0 0 0 0 0 0 0 0 0 0 0 0 0 0 0 0 0 0 0 0 0 0 0 0 0 0 0 0 0 0 0 0 0 0 0 45 50 44 43 -193 -193 -209 -209 -209 -209 38 38 35 36 36 34 35 34 35 35 33 35 32 32 34 37 32 29 30 28 26 26 26 28 25 27 27 -177 28 29 29 28 -193 26 23 22 23 22 22 20 20 18 16 18 15 14 15 16 15 17 19 17 15 14 13 12 9 0 0 0 0 0 0 0 0 9 10 10 11 12 11 14 14 14 14 14 15 14 13 13 11 12 12 12 11 10 10 10 12 13 12 11 11 12 18 23 24 33 31 35 32 32 35 33 32 35 34 36 35 39 40 39 42 42 42 46 46 50 50 -193 -193 -177 -193 -193 -209 61 63 -193 59 65 66 67 -193 -193 66 68 -193 80 78 78 78 82 80 84 83 84 84 87 -177 -193 -177 91 91 94 93 92 90 86 -193 86 208 212 -177 -177 218 222 226 -193 227 227 226 109 116 116 119 125 127 128 131 129 130 128 127 129 129 132 131 130 135 -209 138 138 -193 144 -193 -193 -177 149 151 151 151 -193 156 155 151 151 152 152 154 155 159 161 163 165 166 168 169 -193 -193 -209 -209 174 177 178 181 185 185 185 186 190 191 192 194 198 -209 203 0 0 0 0 0
    0 0 0 0 0 0 0 0 0 0 0 0 0 0 0 0 0 0 0 0 0 0 0 0 0 0 0 0 0 0 0 0 0 0 0 0 0 0 0 0 0 0 0 0 0 0 0 0 0 0 0 0 0 0 0 0 0 0 0 0 0 0 0 0 0 0 0 0 0 46 51 44 44 -193 -193 -193 -209 -209 -193 39 39 36 37 36 35 35 34 35 35 32 36 32 32 34 37 32 29 30 29 26 26 26 29 25 27 27 -177 28 29 29 28 -193 26 23 23 23 22 23 21 20 19 17 19 16 14 16 16 16 18 19 19 16 15 14 14 11 9 0 0 0 0 0 0 0 0 10 10 11 12 11 14 14 14 14 14 16 15 14 14 12 13 13 13 13 10 10 11 12 13 11 11 11 11 17 22 24 33 31 35 32 32 35 34 32 35 35 36 35 40 40 39 41 42 42 45 45 50 50 -193 -193 -193 -193 -193 -193 61 62 -193 58 63 66 66 -193 -193 67 69 72 80 78 77 78 82 79 83 82 84 84 87 -177 -177 -193 91 91 93 93 91 -177 85 85 86 207 -193 -193 216 218 222 226 -177 -177 227 227 109 115 115 119 125 126 128 130 129 129 128 127 129 128 132 131 131 135 -209 137 138 144 143 -193 -193 -177 149 151 151 151 -193 155 155 150 151 152 152 154 155 159 161 164 165 167 168 169 -193 -193 -209 -209 173 175 176 179 182 183 183 184 187 188 189 192 196 -209 202 0 0 0 0 0
    0 0 0 0 0 0 0 0 0 0 0 0 0 0 0 0 0 0 0 0 0 0 0 0 0 0 0 0 0 0 0 0 0 0 0 0 0 0 0 0 0 0 0 0 0 0 0 0 0 0 0 0 0 0 0 0 0 0 0 0 0 0 0 0 0 0 0 0 0 47 52 45 46 43 -193 -193 -209 -193 44 41 40 38 39 37 36 36 35 35 35 33 36 32 32 34 37 32 29 30 29 26 27 27 29 25 27 27 27 27 29 29 28 26 26 24 23 24 22 23 22 21 20 18 20 18 16 18 18 18 21 22 22 20 19 18 18 14 12 9 0 0 0 9 9 0 0 9 10 11 11 11 14 14 14 14 13 16 15 14 14 13 14 14 14 14 11 10 11 12 12 11 11 11 11 17 21 24 31 30 35 32 32 35 34 32 35 35 37 35 40 40 40 41 42 42 45 45 50 51 -193 -193 -193 57 57 57 60 62 59 57 61 65 66 66 69 68 70 72 80 78 78 78 82 79 83 82 83 84 86 -177 -193 -177 91 91 93 93 91 90 85 85 85 -193 -193 -193 -177 219 222 226 -177 -177 228 -193 108 114 114 118 125 125 127 130 129 129 128 127 128 128 132 130 130 134 -193 -193 138 144 143 142 -193 -193 149 150 150 150 -193 155 155 149 150 151 152 152 154 157 161 164 166 167 168 169 -193 -193 -193 169 172 175 176 178 181 182 182 184 188 189 190 193 197 -209 -193 0 0 0 0 0
    0 0 0 0 0 0 0 0 0 0 0 0 0 0 0 0 0 0 0 0 0 0 0 0 0 0 0 0 0 0 0 0 0 0 0 0 0 0 0 0 0 0 0 0 0 0 0 0 0 0 0 0 0 0 0 0 0 0 0 0 0 0 0 0 0 0 0 0 0 48 52 46 47 45 46 47 47 49 48 45 43 41 41 38 37 37 36 36 35 33 36 32 31 33 37 32 29 30 29 27 27 27 29 25 27 27 27 27 28 29 28 26 26 25 24 24 23 23 22 22 21 20 21 19 19 20 20 21 23 24 25 24 23 22 22 20 17 11 0 9 9 10 10 0 0 9 10 10 11 11 13 14 13 13 13 16 15 14 15 13 14 15 15 14 11 10 12 12 12 11 11 11 11 16 20 23 30 30 35 32 32 34 34 33 35 35 37 36 40 40 40 41 42 42 46 45 50 -193 -193 57 57 57 58 58 60 62 58 57 60 62 63 63 68 68 70 72 80 78 78 78 82 79 82 81 83 83 86 -177 -193 -177 90 90 93 93 91 90 85 85 86 -193 -193 -193 -193 -193 -193 -193 -193 -193 -193 106 109 114 114 118 124 123 125 128 127 128 127 126 127 127 131 130 130 133 133 135 137 144 143 142 148 -193 149 150 150 150 144 155 154 149 150 150 151 152 152 154 157 161 164 166 166 168 -193 -193 -193 -193 171 174 175 177 179 179 180 182 184 186 187 192 -193 -209 -193 0 0 0 0 0
    0 0 0 0 0 0 0 0 0 0 0 0 0 0 0 0 0 0 0 0 0 0 0 0 0 0 0 0 0 0 0 0 0 0 0 0 0 0 0 0 0 0 0 0 0 0 0 0 0 0 0 0 0 0 0 0 0 0 0 0 0 0 0 0 0 0 0 0 0 47 52 47 48 48 51 51 51 52 51 48 46 44 43 40 39 39 37 36 35 33 36 32 31 32 37 32 30 30 30 27 28 27 29 26 26 27 27 27 28 28 28 26 26 25 24 24 23 24 23 23 22 21 22 21 21 22 22 23 25 25 26 25 25 25 25 23 21 13 10 10 10 10 9 0 0 9 9 9 10 10 13 13 13 13 14 16 14 14 15 14 14 15 16 14 10 10 11 12 12 11 11 10 10 16 19 23 29 30 34 31 32 34 34 33 35 35 37 36 40 41 40 41 41 42 46 45 51 -193 -193 57 57 58 58 58 59 61 57 56 58 60 59 60 67 68 70 72 80 78 78 78 82 79 82 81 82 83 85 87 87 -177 90 -193 92 93 91 90 84 85 85 -193 -209 -193 -209 -177 -209 106 107 108 108 107 111 114 114 117 122 121 123 125 125 126 126 125 127 127 130 130 130 132 132 133 136 143 142 141 146 -193 148 150 150 150 142 155 154 148 149 150 151 151 152 153 156 160 163 165 165 166 -193 -193 167 167 169 172 173 175 178 177 177 179 181 182 182 187 -193 -209 -193 0 0 0 0 0
    0 0 0 0 0 0 0 0 0 0 0 0 0 0 0 0 0 0 0 0 0 0 0 0 0 0 0 0 0 0 0 0 0 0 0 0 0 0 0 0 0 0 0 0 0 0 0 0 0 0 0 0 0 0 0 0 0 0 0 0 0 0 0 0 0 0 0 0 0 48 53 50 51 52 53 53 53 54 52 50 49 46 44 40 40 39 38 36 36 34 36 32 31 32 36 33 30 30 30 28 28 28 29 26 26 27 27 27 28 28 28 26 26 26 25 24 23 24 24 24 23 22 23 24 25 25 26 24 27 26 27 26 25 25 25 23 23 15 11 11 10 10 9 0 0 0 9 9 0 9 11 13 12 12 13 16 14 14 15 14 14 16 16 15 11 11 12 11 11 10 10 10 11 17 20 24 28 30 32 30 30 32 32 33 34 35 36 36 40 41 40 41 41 42 46 46 52 -193 -193 57 57 58 58 58 58 59 56 54 57 58 57 58 66 69 71 72 80 78 78 78 82 79 82 81 82 82 84 87 87 -177 -193 -193 92 92 90 90 84 85 -193 -209 -209 -193 -209 -193 105 107 109 109 109 108 111 113 113 115 119 119 121 122 123 124 125 125 127 127 130 131 130 132 132 132 136 142 141 141 145 147 148 149 149 149 141 155 154 149 150 151 152 153 153 154 157 159 163 165 164 165 -193 -193 165 164 168 171 172 174 177 176 177 178 180 180 181 185 191 -209 -193 0 0 0 0 0
    0 0 0 0 0 0 0 0 0 0 0 0 0 0 0 0 0 0 0 0 0 0 0 0 0 0 0 0 0 0 0 0 0 0 0 0 0 0 0 0 0 0 0 0 0 0 0 0 0 0 0 0 0 0 0 0 0 0 0 0 0 0 0 0 0 0 0 0 0 50 54 52 53 53 54 54 53 54 53 51 50 47 45 42 40 40 38 37 36 34 36 32 32 32 36 33 30 30 30 28 28 28 29 26 26 27 27 27 27 28 28 27 27 28 26 25 25 25 25 25 25 24 24 26 29 30 31 29 30 29 29 28 27 27 28 26 26 20 13 13 12 12 9 0 0 9 9 9 0 10 12 14 13 12 14 17 15 15 16 16 15 17 17 15 11 11 12 11 11 9 10 10 11 17 -193 -193 26 28 29 28 28 29 30 31 32 33 34 35 39 40 39 40 41 42 47 46 52 55 -193 57 57 58 58 57 57 58 54 52 54 56 54 56 66 70 72 73 80 79 78 78 83 79 82 81 82 83 84 86 86 -193 -193 -193 91 91 89 90 -193 85 -193 -209 -209 99 -209 106 106 107 109 109 110 108 111 113 112 114 118 118 119 121 121 123 125 126 127 128 130 132 132 132 132 132 135 142 141 141 144 146 147 148 148 148 139 154 155 150 151 152 154 154 155 156 158 157 162 164 -193 162 -193 161 162 161 166 -193 170 173 175 175 177 178 180 180 181 185 188 -193 -193 0 0 0 0 0
    0 0 0 0 0 0 0 0 0 0 0 0 0 0 0 0 0 0 0 0 0 0 0 0 0 0 0 0 0 0 0 0 0 0 0 0 0 0 0 0 0 0 0 0 0 0 0 0 0 0 0 0 0 0 0 0 0 0 0 0 0 0 0 0 0 0 0 0 0 50 54 53 53 54 54 54 52 54 53 51 50 48 46 43 41 41 40 38 37 35 36 32 32 32 36 33 30 30 30 29 29 29 29 26 26 27 27 27 27 27 28 28 28 29 27 27 26 26 26 26 25 25 25 26 30 31 33 31 32 31 30 29 29 29 30 27 27 23 17 16 15 13 10 0 9 9 9 0 0 10 13 14 14 13 14 18 15 15 16 16 15 16 17 15 10 11 11 10 10 0 9 10 10 18 20 23 26 28 28 27 27 28 28 29 30 31 32 33 38 39 38 41 41 42 48 48 53 56 56 56 56 57 57 57 56 56 52 51 53 55 53 56 65 71 73 73 80 78 78 78 83 79 81 81 82 82 83 85 86 -193 -193 -193 90 90 89 90 -193 85 -193 -209 -209 102 106 107 107 108 110 110 111 109 112 112 112 114 117 117 119 120 121 123 124 125 126 127 130 132 131 132 132 131 135 142 141 141 143 146 146 147 147 148 139 154 155 151 152 154 155 155 156 157 158 155 160 161 -209 158 -193 157 160 158 165 -193 170 172 174 175 178 179 180 181 182 186 187 -193 -209 0 0 0 0 0
    0 0 0 0 0 0 0 0 0 0 0 0 0 0 0 0 0 0 0 0 0 0 0 0 0 0 0 0 0 0 0 0 0 0 0 0 0 0 0 0 0 0 0 0 0 0 0 0 0 0 0 0 0 0 0 0 0 0 0 0 0 0 0 0 0 0 0 0 0 50 54 53 53 54 54 54 52 53 53 52 51 48 47 45 43 42 42 40 40 36 36 33 32 32 36 33 30 29 30 29 30 29 30 27 26 28 28 27 27 27 28 28 29 29 28 28 27 27 27 27 26 26 26 27 31 31 34 31 33 32 30 30 29 29 30 27 28 23 20 19 18 15 11 9 9 10 9 0 0 10 13 15 15 13 15 18 16 16 16 16 15 15 16 14 9 10 10 9 9 0 9 11 -193 20 22 24 26 27 26 26 26 27 27 28 28 30 31 33 38 38 38 41 42 43 48 49 54 -193 56 56 55 56 57 57 55 55 51 50 54 55 53 56 64 71 71 73 79 78 77 78 83 79 81 81 82 82 83 85 85 84 -193 -193 89 90 88 90 -193 -193 -193 -209 -209 104 107 108 108 109 110 110 112 109 112 112 112 114 117 117 118 119 120 122 124 125 126 126 128 131 131 132 132 131 134 142 140 141 141 145 145 146 146 146 139 153 155 152 153 154 155 156 157 158 158 156 161 162 -193 159 -193 156 158 157 164 168 170 172 174 175 179 180 181 182 184 187 188 196 -209 0 0 0 0 0
    0 0 0 0 0 0 0 0 0 0 0 0 0 0 0 0 0 0 0 0 0 0 0 0 0 0 0 0 0 0 0 0 0 0 0 0 0 0 0 0 0 0 0 0 0 0 0 0 0 0 0 0 0 0 0 0 0 0 0 0 0 0 0 0 0 0 0 0 0 50 54 53 53 54 54 54 53 53 53 53 52 49 48 47 45 44 44 42 41 38 37 34 33 32 35 33 31 29 30 30 30 30 30 27 26 28 28 27 27 27 27 28 30 30 28 28 28 28 28 28 27 26 26 27 31 31 34 31 33 31 29 29 29 29 30 27 27 24 23 21 19 17 12 10 11 11 11 10 11 12 14 15 16 14 15 18 16 16 16 16 15 14 16 13 10 10 10 9 0 0 10 -193 -193 20 21 23 25 26 24 24 25 26 26 28 28 30 31 33 38 38 38 40 42 43 48 50 54 -193 -193 -193 55 56 57 57 54 54 50 49 54 55 52 56 62 69 69 72 76 77 76 77 82 79 80 81 81 82 82 84 84 84 88 89 89 91 89 93 -193 96 606 -209 -193 105 108 108 109 109 111 111 113 110 113 113 112 114 116 116 118 119 119 121 123 124 125 125 127 131 130 132 132 131 134 141 139 140 140 143 144 144 144 145 138 150 153 152 153 154 156 155 156 157 159 158 -193 -193 -193 -193 -193 156 158 156 161 162 -193 170 172 174 178 180 182 183 185 187 189 195 -193 0 0 0 0 0
    0 0 0 0 0 0 0 0 0 0 0 0 0 0 0 0 0 0 0 0 0 0 0 0 0 0 0 0 0 0 0 0 0 0 0 0 0 0 0 0 0 0 0 0 0 0 0 0 0 0 0 0 0 0 0 0 0 0 0 0 0 0 0 0 0 0 0 0 0 50 54 53 53 54 54 54 52 52 52 52 52 49 48 48 47 46 45 43 43 38 37 35 33 32 35 33 31 29 30 30 31 30 30 28 27 29 28 27 28 27 27 29 31 30 28 29 29 27 28 28 27 26 26 27 31 31 34 32 33 31 29 29 29 28 29 27 27 25 25 24 21 19 12 11 12 13 13 13 13 16 17 17 18 15 16 18 16 16 16 16 15 14 15 12 11 10 11 9 0 0 12 14 16 19 20 22 23 24 23 23 25 25 26 27 27 30 31 33 37 37 39 41 42 43 49 51 55 -193 -193 -193 -193 -193 -193 56 53 53 50 49 54 55 53 56 60 66 65 70 74 75 75 76 82 78 80 81 81 82 82 84 84 84 88 89 89 91 90 95 97 104 -193 -193 -193 107 109 109 109 109 111 111 113 111 114 113 113 114 116 116 118 118 118 120 122 124 125 125 127 132 131 132 132 131 134 141 139 140 139 142 143 143 143 143 138 148 151 152 153 154 155 155 156 156 158 158 -193 -193 -193 160 161 158 159 156 159 157 156 164 168 172 177 180 183 183 186 187 190 196 -177 0 0 0 0 0
    0 0 0 0 0 0 0 0 0 0 0 0 0 0 0 0 0 0 0 0 0 0 0 0 0 0 0 0 0 0 0 0 0 0 0 0 0 0 0 0 0 0 0 0 0 0 0 0 0 0 0 0 0 0 0 0 0 0 0 0 0 0 0 0 0 0 0 0 0 51 54 53 52 53 53 53 52 52 52 52 52 49 48 48 48 47 46 44 44 39 37 36 34 32 34 33 31 29 30 30 31 31 30 28 27 29 28 28 28 28 28 30 32 30 29 30 30 28 28 28 27 26 27 27 32 32 33 32 32 30 28 29 29 28 28 27 27 26 27 30 23 22 15 12 13 15 16 16 16 18 19 19 19 16 17 18 17 16 16 16 15 14 16 13 12 11 12 10 9 9 14 16 17 18 19 21 22 24 22 22 24 25 25 27 27 29 30 32 36 36 38 41 43 43 49 51 54 56 -193 -193 -193 -193 -193 56 53 53 50 51 55 55 53 56 59 61 60 67 71 73 73 74 81 77 79 80 81 82 83 84 84 84 89 89 89 92 91 95 102 106 -209 -193 -193 108 110 109 109 109 111 111 113 111 113 112 113 114 115 116 118 117 117 119 -193 124 124 125 127 132 131 133 133 132 134 140 138 139 139 141 142 142 142 142 137 146 151 152 154 156 157 156 157 157 158 158 162 162 160 161 160 158 159 157 159 158 -193 164 -193 173 180 182 184 184 186 188 190 195 -193 0 0 0 0 0
    0 0 0 0 0 0 0 0 0 0 0 0 0 0 0 0 0 0 0 0 0 0 0 0 0 0 0 0 0 0 0 0 0 0 0 0 0 0 0 0 0 0 0 0 0 0 0 0 0 0 0 0 0 0 0 0 0 0 0 0 0 0 0 0 0 0 0 0 0 52 54 54 53 53 53 53 51 51 51 51 52 48 48 49 48 47 46 45 44 39 38 36 34 33 34 33 31 29 29 30 31 31 30 28 27 29 29 28 29 28 28 30 31 30 29 30 30 29 29 29 27 26 27 27 33 32 33 32 32 30 28 30 29 28 28 28 28 27 29 35 27 28 23 15 16 19 19 21 19 20 21 19 20 16 17 18 17 16 16 16 15 13 15 13 12 11 12 10 9 9 14 16 17 18 19 21 22 24 22 22 24 25 26 26 27 28 29 32 36 35 38 40 42 42 48 49 53 55 54 53 53 -193 -193 53 51 50 47 45 51 52 48 55 57 59 60 64 68 70 71 73 79 77 78 80 80 82 83 84 84 83 88 89 88 91 90 92 -193 -209 -193 -193 -193 -193 110 108 109 109 110 110 112 110 112 112 112 113 115 116 118 117 118 120 -209 124 124 125 128 133 132 133 133 132 134 139 137 138 138 139 141 141 141 141 137 146 -193 154 156 160 160 159 161 160 160 160 164 164 162 162 162 158 159 157 159 158 157 164 -193 173 182 184 185 185 187 187 190 195 -209 0 0 0 0 0
    0 0 0 0 0 0 0 0 0 0 0 0 0 0 0 0 0 0 0 0 0 0 0 0 0 0 0 0 0 0 0 0 0 0 0 0 0 0 0 0 0 0 0 0 0 0 0 0 0 0 0 0 0 0 0 0 0 0 0 0 0 0 0 0 0 0 0 0 0 53 55 54 53 53 52 52 51 51 51 51 52 49 49 50 50 49 47 46 45 39 38 36 34 33 33 33 31 29 29 29 31 30 29 28 27 29 28 28 29 28 27 30 31 30 29 30 30 29 29 29 27 27 27 27 34 33 33 32 32 30 28 30 29 28 28 27 28 26 28 32 26 27 23 17 18 21 21 22 21 21 21 19 21 17 17 19 17 16 16 16 16 13 16 14 12 11 12 9 9 8 14 16 17 18 19 21 22 23 22 22 24 25 26 26 27 28 29 31 35 34 37 41 42 42 48 49 52 54 53 52 52 53 -193 51 50 49 45 44 50 52 51 56 57 59 60 65 67 68 70 72 78 76 78 79 80 82 83 84 84 82 87 88 86 89 88 90 98 -193 -193 -193 -193 -193 -193 106 108 107 108 108 110 109 111 111 112 114 115 117 118 118 118 121 -209 124 124 125 128 133 133 134 135 134 135 140 138 139 138 139 140 140 140 140 137 146 -193 157 158 162 163 162 163 163 162 161 165 164 163 162 161 158 158 157 -193 156 155 162 -193 176 185 186 187 186 187 188 190 196 -209 0 0 0 0 0
    0 0 0 0 0 0 0 0 0 0 0 0 0 0 0 0 0 0 0 0 0 0 0 0 0 0 0 0 0 0 0 0 0 0 0 0 0 0 0 0 0 0 0 0 0 0 0 0 0 0 0 0 0 0 0 0 0 0 0 0 0 0 0 0 0 0 0 0 0 53 55 53 52 52 52 52 50 51 50 51 52 50 50 51 51 50 48 47 45 40 38 36 34 33 33 33 31 29 29 29 30 30 29 29 27 29 29 28 29 27 27 30 31 30 29 30 30 29 29 29 27 27 28 27 33 32 33 32 33 31 29 30 30 28 28 28 28 27 28 31 26 28 25 21 21 23 23 24 22 23 22 20 21 18 17 19 18 17 17 16 16 13 16 14 12 10 11 9 0 9 14 15 15 16 18 20 21 23 22 23 25 26 26 27 27 28 29 31 34 33 37 40 43 42 49 48 51 54 52 52 52 52 53 50 50 49 45 44 49 51 51 55 57 58 60 66 67 68 70 72 77 76 77 78 79 81 83 83 83 81 86 87 86 89 88 90 95 100 101 101 102 101 101 103 104 102 104 104 107 107 109 112 113 116 116 118 119 119 119 122 -209 123 123 125 129 133 133 135 136 135 136 141 138 139 139 139 140 139 140 140 137 146 -193 157 158 162 163 162 163 162 162 161 164 164 163 162 161 158 160 159 161 160 -193 -193 172 180 185 186 187 186 187 188 190 196 -193 0 0 0 0 0
    0 0 0 0 0 0 0 0 0 0 0 0 0 0 0 0 0 0 0 0 0 0 0 0 0 0 0 0 0 0 0 0 0 0 0 0 0 0 0 0 0 0 0 0 0 0 0 0 0 0 0 0 0 0 0 0 0 0 0 0 0 0 0 0 0 0 0 0 0 54 54 53 51 52 52 51 51 51 51 52 53 51 52 52 52 51 49 48 46 41 38 37 34 33 33 34 31 29 29 29 30 30 29 29 27 30 29 28 29 28 27 30 30 29 29 30 30 29 29 29 28 27 28 26 32 32 32 32 33 31 29 30 30 28 28 28 28 26 28 31 26 29 26 23 22 24 25 26 24 23 23 21 22 19 17 19 18 16 16 15 16 12 14 13 11 10 11 10 10 10 16 16 16 16 18 20 22 24 23 24 26 28 28 28 28 29 31 32 34 34 38 40 43 42 48 48 51 53 52 52 52 52 52 49 50 50 45 45 52 53 54 57 58 58 60 67 68 68 70 72 77 76 76 78 78 79 83 82 82 80 85 87 87 90 89 90 95 99 99 99 99 97 93 94 93 92 91 91 94 95 105 110 113 119 117 119 121 120 120 122 122 121 122 124 127 131 132 135 136 136 136 140 137 138 138 139 139 139 139 139 136 145 151 154 156 158 159 159 160 160 159 161 164 164 163 163 161 157 160 162 164 166 -193 -193 177 180 182 185 185 185 186 186 188 195 -209 0 0 0 0 0
    0 0 0 0 0 0 0 0 0 0 0 0 0 0 0 0 0 0 0 0 0 0 0 0 0 0 0 0 0 0 0 0 0 0 0 0 0 0 0 0 0 0 0 0 0 0 0 0 0 0 0 0 0 0 0 0 0 0 0 0 0 0 0 0 0 0 0 0 0 54 54 53 51 51 51 51 52 51 51 53 53 52 52 53 52 51 50 50 47 42 39 38 35 34 33 34 31 29 29 29 29 30 29 29 27 30 29 28 30 28 27 29 30 29 29 31 31 29 29 30 28 28 28 27 32 32 31 31 33 30 28 30 29 28 27 27 27 25 29 33 27 33 29 25 24 25 26 27 24 23 24 23 24 20 18 19 19 17 16 16 16 12 14 14 13 11 17 11 11 11 17 18 17 16 19 21 23 24 23 24 27 28 28 28 29 30 32 33 35 35 38 40 42 42 48 47 50 53 52 52 52 52 52 50 51 50 46 50 56 57 57 59 60 59 60 66 68 68 69 72 76 76 76 77 78 79 84 84 83 81 85 88 88 90 89 90 95 99 99 99 98 96 92 93 92 92 91 90 91 90 101 107 107 119 117 120 121 121 121 123 123 121 122 125 128 131 133 135 136 136 136 140 137 138 138 138 139 138 138 138 134 143 150 152 154 155 156 156 157 157 157 159 163 163 163 162 160 157 159 162 163 -209 -193 -209 173 179 181 184 185 184 185 186 188 194 -209 0 0 0 0 0
    0 0 0 0 0 0 0 0 0 0 0 0 0 0 0 0 0 0 0 0 0 0 0 0 0 0 0 0 0 0 0 0 0 0 0 0 0 0 0 0 0 0 0 0 0 0 0 0 0 0 0 0 0 0 0 0 0 0 0 0 0 0 0 0 0 0 0 0 0 55 54 53 51 51 51 51 52 52 51 53 53 53 53 53 53 52 51 51 48 42 39 38 35 34 33 34 31 29 29 29 29 30 29 29 27 31 29 28 30 28 28 30 30 29 29 30 31 29 30 30 29 28 29 27 31 31 31 31 33 30 28 31 29 28 27 28 27 26 30 34 28 35 32 28 26 27 27 26 25 24 24 23 23 20 19 18 19 16 16 16 15 12 14 13 16 12 22 13 12 12 16 17 17 15 18 21 23 24 24 25 27 28 29 29 29 30 33 34 36 36 39 41 42 42 47 47 50 53 51 51 51 52 52 50 51 51 47 54 56 57 57 59 60 58 61 66 69 69 71 73 77 76 77 77 77 78 83 84 83 82 86 87 88 90 89 90 93 98 97 97 97 95 93 93 92 92 91 90 90 90 103 107 106 115 114 117 121 120 120 123 122 121 123 128 131 133 135 136 137 137 137 141 137 138 138 138 139 138 138 138 132 142 150 151 153 154 155 155 156 156 156 157 160 162 162 161 159 157 161 165 165 168 171 -193 170 175 179 181 182 184 184 185 187 195 -209 0 0 0 0 0
    0 0 0 0 0 0 0 0 0 0 0 0 0 0 0 0 0 0 0 0 0 0 0 0 0 0 0 0 0 0 0 0 0 0 0 0 0 0 0 0 0 0 0 0 0 0 0 0 0 0 0 0 0 0 0 0 0 0 0 0 0 0 0 0 0 0 0 0 0 55 54 53 51 51 51 51 52 52 51 53 54 54 54 54 54 53 52 51 49 43 39 38 35 34 33 34 31 29 29 30 29 30 29 29 28 32 30 30 31 29 28 30 30 29 30 30 31 29 30 31 29 30 29 28 32 32 31 31 33 30 29 31 29 27 27 27 27 26 30 33 29 38 36 32 29 29 29 28 25 25 24 23 24 21 19 18 20 18 17 17 16 13 17 16 17 11 20 16 14 14 17 19 18 18 20 22 23 24 24 26 28 29 29 29 29 30 33 34 36 37 39 41 42 42 47 47 50 53 51 51 51 53 52 50 51 51 47 55 56 57 56 58 59 57 61 67 70 70 71 74 78 77 78 77 77 78 83 84 82 80 84 85 87 87 86 83 89 90 92 95 93 93 92 91 93 93 92 90 91 93 105 107 105 112 109 107 118 116 118 123 123 122 123 129 131 133 135 135 137 137 137 141 137 138 138 138 139 138 139 139 133 142 151 151 153 154 155 155 155 155 155 155 158 161 161 159 158 157 161 165 167 168 171 170 172 177 179 181 182 183 183 185 186 195 -209 0 0 0 0 0
    0 0 0 0 0 0 0 0 0 0 0 0 0 0 0 0 0 0 0 0 0 0 0 0 0 0 0 0 0 0 0 0 0 0 0 0 0 0 0 0 0 0 0 0 0 0 0 0 0 0 0 0 0 0 0 0 0 0 0 0 0 0 0 0 0 0 0 0 0 55 54 54 52 52 52 52 53 53 53 54 55 55 55 55 54 54 52 52 50 44 40 39 36 35 34 35 31 29 29 30 30 31 30 30 28 34 33 32 32 29 29 31 29 29 30 30 30 30 31 31 29 30 29 28 32 32 31 30 33 30 29 31 29 28 27 28 29 26 30 34 31 39 37 34 31 30 29 29 27 26 -225 -225 -225 -225 -225 -225 -225 19 18 18 16 15 17 17 -225 -225 -225 -225 -225 -225 -225 -225 -225 22 22 22 25 25 25 27 28 28 29 28 30 30 33 34 36 37 39 41 41 42 47 47 50 53 50 52 51 53 53 51 52 52 47 56 55 56 55 59 60 58 62 68 70 71 72 74 77 77 78 77 77 77 82 83 81 79 83 84 86 86 85 80 86 87 86 90 87 88 90 89 92 92 91 91 93 96 104 106 105 111 109 106 117 115 118 123 122 121 122 126 127 130 134 134 136 136 136 141 138 139 139 139 139 139 139 139 135 141 151 150 151 153 154 154 156 155 154 155 156 158 159 157 156 155 157 159 163 167 171 171 174 180 180 181 182 183 183 185 185 193 -209 0 0 0 0 0
    0 0 0 0 0 0 0 0 0 0 0 0 0 0 0 0 0 0 0 0 0 0 0 0 0 0 0 0 0 0 0 0 0 0 0 0 0 0 0 0 0 0 0 0 0 0 0 0 0 0 0 0 0 0 0 0 0 0 0 0 0 0 0 0 0 0 0 0 0 56 54 53 53 53 53 53 54 54 54 55 55 55 55 55 55 54 53 53 51 46 41 40 36 36 35 36 31 29 30 30 30 31 30 31 29 36 36 36 32 29 29 32 30 30 31 30 30 30 32 31 30 31 29 28 32 31 31 30 33 31 30 31 29 28 28 31 33 29 36 38 37 41 39 36 34 31 30 29 28 -225 -225 -225 -225 -225 -225 -225 -225 -225 -225 -225 -225 -225 -225 -225 -225 -225 -225 -225 -225 -225 -225 -225 -225 -225 -225 24 31 28 26 29 29 29 30 29 31 31 34 35 36 38 40 41 41 42 47 49 51 54 51 52 52 54 54 52 52 52 47 55 55 57 55 59 60 59 64 68 71 71 72 74 76 76 77 77 77 77 81 81 80 79 81 82 84 84 84 80 85 86 85 90 -193 82 80 84 92 89 87 88 89 95 105 107 105 112 109 106 116 114 117 122 122 121 122 127 128 127 133 134 135 135 136 140 138 138 139 139 139 139 140 140 137 141 149 149 149 151 151 153 155 155 155 155 157 158 159 157 157 155 157 158 160 166 171 172 175 179 179 180 181 182 183 185 185 194 -209 0 0 0 0 0
    0 0 0 0 0 0 0 0 0 0 0 0 0 0 0 0 0 0 0 0 0 0 0 0 0 0 0 0 0 0 0 0 0 0 0 0 0 0 0 0 0 0 0 0 0 0 0 0 0 0 0 0 0 0 0 0 0 0 0 0 0 0 0 0 0 0 0 0 0 56 54 54 53 53 54 53 54 54 54 56 55 56 56 56 55 54 54 53 51 49 43 41 37 37 36 37 31 29 29 30 30 32 31 32 31 38 38 39 34 31 30 33 30 30 32 30 30 31 34 32 31 32 30 29 31 30 31 29 33 30 29 28 28 28 30 34 38 38 41 42 42 42 39 36 35 32 31 29 -225 -225 -225 -225 -225 -225 -225 -225 -225 -225 -225 -225 -225 -225 -225 -225 -225 -225 -225 -225 -225 -225 -225 -225 -225 -225 -225 -225 29 26 26 31 28 29 30 29 31 32 35 36 36 39 40 41 42 42 48 51 53 55 53 53 53 55 55 55 53 53 51 57 57 58 56 60 61 60 64 67 69 70 71 73 75 75 77 76 76 76 80 80 80 79 82 83 86 85 85 82 87 89 88 91 75 84 75 -209 -193 83 84 87 89 97 105 104 104 109 110 104 114 110 115 122 122 121 123 127 128 127 132 135 136 137 137 141 139 139 140 140 139 140 140 140 138 141 147 146 145 148 147 151 153 154 154 155 156 158 158 157 156 155 157 158 160 166 171 171 173 179 178 180 181 183 183 186 186 195 -209 0 0 0 0 0
    0 0 0 0 0 0 0 0 0 0 0 0 0 0 0 0 0 0 0 0 0 0 0 0 0 0 0 0 0 0 0 0 0 0 0 0 0 0 0 0 0 0 0 0 0 0 0 0 0 0 0 0 0 0 0 0 0 0 0 0 0 0 0 0 0 0 0 0 0 55 54 54 53 54 54 54 55 54 54 56 55 56 56 55 55 54 53 53 50 51 46 42 40 39 38 39 33 32 32 33 32 35 33 35 36 40 40 42 37 34 34 35 33 31 34 31 31 32 34 33 31 31 30 30 31 29 31 28 30 30 31 35 39 40 43 44 47 49 49 49 46 42 39 38 36 34 33 31 -225 -225 -225 -225 -225 -225 -225 -225 -225 -225 -225 -225 -225 -225 -225 -225 -225 -225 -225 -225 -225 -225 -225 -225 -225 -225 -225 -225 -225 27 26 31 29 30 31 30 32 33 36 36 36 40 39 41 43 42 48 52 53 55 54 54 55 57 57 57 55 55 54 58 60 60 58 61 63 62 65 66 68 69 71 72 74 74 76 76 76 76 79 79 79 79 82 83 87 86 86 85 90 91 90 93 88 87 84 77 -193 77 82 84 86 91 100 90 101 106 108 104 112 110 115 119 117 119 122 125 126 126 130 133 133 135 136 141 139 139 140 140 139 141 142 141 139 142 146 145 144 146 145 148 152 153 153 155 155 158 158 157 157 155 158 162 165 170 172 171 173 177 177 179 180 182 183 186 185 194 -209 0 0 0 0 0
    0 0 0 0 0 0 0 0 0 0 0 0 0 0 0 0 0 0 0 0 0 0 0 0 0 0 0 0 0 0 0 0 0 0 0 0 0 0 0 0 0 0 0 0 0 0 0 0 0 0 0 0 0 0 0 0 0 0 0 0 0 0 0 0 0 0 0 0 0 54 53 54 54 54 55 54 55 55 55 57 55 56 56 55 54 53 53 52 50 52 48 45 43 42 42 41 38 37 36 37 36 38 37 38 40 41 41 42 39 36 36 37 35 32 35 32 31 31 33 31 30 31 30 31 32 29 35 29 31 35 41 41 43 44 45 46 49 50 51 49 46 42 41 39 38 35 34 -225 -225 -225 -225 -225 -225 -225 -225 -225 -225 -225 -225 -225 -225 -225 -225 -225 -225 -225 -225 -225 -225 -225 -225 -225 -225 -225 -225 -225 -225 26 25 29 28 29 31 30 32 34 37 37 38 41 40 41 43 43 48 53 54 56 55 55 56 57 58 58 56 56 57 59 62 62 61 63 65 63 65 66 68 68 70 71 73 74 76 76 77 77 79 79 80 81 84 84 87 86 85 84 90 93 92 98 91 90 -193 86 -193 84 84 84 86 92 -193 89 100 106 109 109 111 110 110 105 108 111 115 118 121 121 122 122 122 125 134 139 139 139 140 140 140 143 143 143 141 142 146 144 144 146 145 147 151 153 154 155 155 158 158 157 157 156 159 163 165 169 170 170 171 173 174 177 178 182 182 186 186 194 200 0 0 0 0 0
    0 0 0 0 0 0 0 0 0 0 0 0 0 0 0 0 0 0 0 0 0 0 0 0 0 0 0 0 0 0 0 0 0 0 0 0 0 0 0 0 0 0 0 0 0 0 0 0 0 0 0 0 0 0 0 0 0 0 0 0 0 0 0 0 0 0 0 0 0 54 53 54 54 55 55 55 56 55 55 57 55 55 55 54 53 52 51 52 50 51 49 45 46 45 45 45 42 42 41 41 42 43 41 41 43 42 42 43 39 36 36 37 37 35 37 34 31 32 34 32 31 32 31 32 34 32 38 33 38 42 48 50 50 50 49 49 50 51 50 49 45 43 42 41 40 38 -225 -225 -225 -225 -225 -225 -225 -225 -225 -225 -225 -225 -225 -225 -225 -225 -225 -225 -225 -225 -225 -225 -225 -225 -225 -225 -225 -225 -225 -225 -225 -225 -225 23 24 24 26 29 29 35 37 38 39 42 41 42 43 43 48 53 54 56 55 55 56 58 58 59 56 56 57 59 64 63 63 65 66 64 65 66 67 67 69 70 72 73 75 75 76 78 81 81 83 85 86 86 88 86 84 82 88 89 88 94 -193 90 94 90 93 89 88 89 90 97 106 96 101 106 111 110 110 108 -193 102 106 109 110 113 119 117 119 118 121 123 132 138 139 139 141 141 140 145 145 144 142 144 147 145 145 147 146 147 152 153 154 154 155 157 156 156 156 157 159 163 165 167 169 168 169 170 172 175 177 183 184 187 188 195 199 0 0 0 0 0
    0 0 0 0 0 0 0 0 0 0 0 0 0 0 0 0 0 0 0 0 0 0 0 0 0 0 0 0 0 0 0 0 0 0 0 0 0 0 0 0 0 0 0 0 0 0 0 0 0 0 0 0 0 0 0 0 0 0 0 0 0 0 0 0 0 0 0 0 0 54 54 54 54 55 56 56 56 56 56 57 55 54 55 53 52 51 49 51 47 49 49 45 48 48 47 47 45 44 43 43 44 44 43 44 45 43 44 45 40 38 38 38 37 35 37 35 30 32 36 33 33 33 33 34 37 36 42 -193 49 50 51 52 52 52 51 50 51 51 50 49 46 45 44 43 43 -225 -225 -225 -225 -225 -225 -225 -225 -225 -225 -225 -225 -225 -225 -225 -225 -225 -225 -225 -225 -225 -225 -225 -225 -225 -225 -225 -225 -225 -225 -225 -225 -225 -225 -225 -225 -225 -225 -225 35 37 38 39 42 43 42 43 44 44 49 53 53 55 55 55 56 57 58 59 56 56 57 60 64 64 64 66 67 66 66 66 66 68 69 69 71 72 75 75 77 80 83 82 86 88 89 89 90 88 85 82 87 87 86 90 86 89 93 93 96 90 91 92 92 99 106 -209 102 106 112 108 110 109 -209 102 107 109 111 114 119 118 120 120 122 124 132 137 139 140 142 142 141 147 146 145 144 145 147 145 145 147 145 147 152 154 155 155 156 158 156 157 159 160 163 167 169 169 170 170 172 174 173 178 179 185 187 189 190 196 199 0 0 0 0 0
    0 0 0 0 0 0 0 0 0 0 0 0 0 0 0 0 0 0 0 0 0 0 0 0 0 0 0 0 0 0 0 0 0 0 0 0 0 0 0 0 0 0 0 0 0 0 0 0 0 0 0 0 0 0 0 0 0 0 0 0 0 0 0 0 0 0 0 0 0 53 53 54 54 55 56 55 56 55 56 56 54 54 54 52 52 50 49 50 46 47 46 44 47 47 47 47 45 44 43 43 44 45 45 46 46 45 46 50 45 40 40 40 40 39 40 39 33 34 37 33 32 33 33 -209 -209 -209 54 -193 59 57 54 54 54 54 53 52 52 51 50 48 47 46 45 -225 -225 -225 -225 -225 -225 -225 -225 -225 -225 -225 -225 -225 -225 -225 -225 -225 -225 -225 -225 -225 -225 -225 -225 -225 -225 -225 -225 -225 -225 -225 -225 -225 -225 -225 -225 -225 -225 -225 -225 -225 -225 38 39 39 44 44 43 44 45 45 49 52 53 54 55 55 56 57 58 59 56 57 58 60 63 64 64 66 67 66 66 66 67 68 69 69 70 72 74 75 77 79 84 83 88 90 90 90 91 90 88 86 89 87 87 92 -209 -209 97 -209 94 89 90 93 91 95 104 96 100 105 118 114 115 114 117 112 111 113 114 117 122 121 122 121 123 124 130 135 138 140 143 143 143 149 148 146 146 146 147 146 146 147 144 146 153 155 157 157 157 -193 -193 158 160 161 165 168 170 169 170 170 174 -193 -193 -177 -209 -209 187 189 191 -193 -209 0 0 0 0 0
    0 0 0 0 0 0 0 0 0 0 0 0 0 0 0 0 0 0 0 0 0 0 0 0 0 0 0 0 0 0 0 0 0 0 0 0 0 0 0 0 0 0 0 0 0 0 0 0 0 0 0 0 0 0 0 0 0 0 0 0 0 0 0 0 0 0 0 0 0 53 53 54 53 54 56 55 55 54 54 54 52 52 52 49 49 47 47 49 46 48 48 44 49 48 49 47 45 44 44 44 46 46 48 47 47 47 49 54 53 45 49 44 45 42 42 42 38 37 38 32 32 34 -209 -193 77 70 59 61 60 58 56 55 54 54 53 52 52 51 50 49 48 47 -225 -225 -225 -225 -225 -225 -225 -225 -225 -225 -225 -225 -225 -225 -225 -225 -225 -225 -225 -225 -225 -225 -225 -225 -225 -225 -225 -225 -225 -225 -225 -225 -225 -225 -225 -225 -225 -225 -225 -225 -225 -225 -225 39 40 40 45 45 44 45 46 46 49 53 53 54 55 55 56 57 58 59 57 58 60 60 64 64 65 66 67 67 67 66 67 68 69 69 70 71 73 74 76 77 83 81 87 90 90 91 91 90 89 -193 90 -209 -209 99 -193 -209 -209 -209 -209 -209 93 96 91 94 -193 92 -209 105 121 119 118 118 120 119 115 116 116 118 124 123 123 122 124 125 128 133 136 139 145 146 145 151 149 147 147 147 147 146 146 147 144 146 153 155 158 158 157 159 -209 158 159 160 -209 -209 169 168 169 170 172 173 172 -193 -209 -209 -209 190 192 195 -193 0 0 0 0 0
    0 0 0 0 0 0 0 0 0 0 0 0 0 0 0 0 0 0 0 0 0 0 0 0 0 0 0 0 0 0 0 0 0 0 0 0 0 0 0 0 0 0 0 0 0 0 0 0 0 0 0 0 0 0 0 0 0 0 0 0 0 0 0 0 0 0 0 0 0 53 53 54 53 54 55 54 54 54 53 53 50 51 51 48 48 46 46 49 46 50 49 44 52 51 50 49 47 45 45 45 47 47 49 48 48 49 53 59 59 57 59 55 55 49 46 43 38 36 37 34 34 36 -209 -177 -193 69 59 61 61 59 56 54 54 54 53 52 52 52 52 51 50 -225 -225 -225 -225 -225 -225 -225 -225 -225 -225 -225 -225 -225 -225 -225 -225 -225 -225 -225 -225 -225 -225 -225 -225 -225 -225 -225 -225 -225 -225 -225 -225 -225 -225 -225 -225 -225 -225 -225 -225 -225 -225 -225 -225 40 41 41 46 45 45 45 47 46 49 53 53 54 55 55 56 57 58 60 58 59 62 62 64 65 66 67 66 67 67 66 68 68 69 69 70 71 73 74 76 76 82 80 86 89 90 91 91 90 90 90 92 102 104 103 106 106 106 -193 -193 -209 102 102 92 92 -193 -193 -209 -193 122 119 119 118 119 119 115 117 118 120 126 127 129 128 128 128 131 133 135 139 143 144 146 151 149 147 147 148 148 147 147 147 145 147 153 154 156 155 155 -209 -209 -209 -209 -209 -209 -209 -209 -209 171 170 172 174 173 179 183 186 189 191 194 -193 -193 0 0 0 0 0
    0 0 0 0 0 0 0 0 0 0 0 0 0 0 0 0 0 0 0 0 0 0 0 0 0 0 0 0 0 0 0 0 0 0 0 0 0 0 0 0 0 0 0 0 0 0 0 0 0 0 0 0 0 0 0 0 0 0 0 0 0 0 0 0 0 0 0 0 0 53 53 54 53 53 54 53 53 53 53 52 49 51 51 46 47 45 45 48 45 49 49 44 53 52 50 49 49 47 46 46 48 47 49 49 48 51 53 59 59 58 59 55 56 52 45 44 39 36 37 33 35 -193 -209 74 -193 65 58 59 60 59 55 54 54 54 53 53 52 52 51 -225 -225 -225 -225 -225 -225 -225 -225 -225 -225 -225 -225 -225 -225 -225 -225 -225 -225 -225 -225 -225 -225 -225 -225 -225 -225 -225 -225 -225 -225 -225 -225 -225 -225 -225 -225 -225 -225 -225 -225 -225 -225 -225 -225 -225 -225 40 42 42 48 46 46 47 48 48 51 53 53 54 55 56 56 58 58 60 59 60 63 62 64 65 66 66 66 66 66 65 67 68 68 68 69 71 73 74 77 77 82 81 85 88 89 90 90 89 90 91 93 102 103 103 105 105 106 107 107 106 106 106 105 101 -193 -209 93 107 119 118 118 118 119 119 115 117 118 119 124 125 127 127 129 130 133 134 136 141 146 147 147 151 149 147 148 148 148 147 148 148 146 148 153 153 155 -193 -193 -209 -177 -177 -177 -177 -209 -209 171 -193 172 -193 173 -193 176 -209 -209 -209 -193 191 -193 -193 -193 0 0 0 0 0
    0 0 0 0 0 0 0 0 0 0 0 0 0 0 0 0 0 0 0 0 0 0 0 0 0 0 0 0 0 0 0 0 0 0 0 0 0 0 0 0 0 0 0 0 0 0 0 0 0 0 0 0 0 0 0 0 0 0 0 0 0 0 0 0 0 0 0 0 0 52 53 54 53 52 54 52 52 52 52 51 48 51 51 46 47 45 45 49 47 50 49 44 55 54 52 51 51 49 48 48 49 48 49 50 49 51 53 57 58 57 57 55 55 54 47 46 39 33 36 30 33 -209 -209 71 68 63 58 59 60 58 55 54 54 54 54 54 53 53 -225 -225 -225 -225 -225 -225 -225 -225 -225 -225 -225 -225 -225 -225 -225 -225 -225 -225 -225 -225 -225 -225 -225 -225 -225 -225 -225 -225 -225 -225 -225 -225 -225 -225 -225 -225 -225 -225 -225 -225 -225 -225 -225 -225 -225 -225 -225 40 42 43 49 47 47 48 49 50 51 53 53 54 55 56 56 58 58 60 60 60 64 63 64 65 66 66 66 66 66 64 68 68 69 68 70 71 73 75 79 78 84 83 85 87 88 89 89 88 89 -193 91 101 102 103 106 106 107 108 108 107 106 106 106 105 107 -209 -209 110 117 118 118 118 119 118 115 116 117 118 122 124 125 125 126 128 132 133 136 143 147 148 148 151 150 148 148 149 147 148 148 148 147 148 153 153 155 155 -193 -209 -193 -177 -177 -177 -209 -193 171 171 172 172 173 -193 -193 -209 -209 -209 -193 190 190 190 195 0 0 0 0 0
    0 0 0 0 0 0 0 0 0 0 0 0 0 0 0 0 0 0 0 0 0 0 0 0 0 0 0 0 0 0 0 0 0 0 0 0 0 0 0 0 0 0 0 0 0 0 0 0 0 0 0 0 0 0 0 0 0 0 0 0 0 0 0 0 0 0 0 0 0 53 53 54 53 52 54 52 52 52 52 51 48 51 51 47 48 47 48 54 52 52 51 49 56 56 53 52 52 52 51 51 52 51 53 54 53 54 55 59 58 57 58 54 54 52 48 46 40 33 37 29 33 -209 -193 71 68 66 59 61 61 60 56 54 53 53 53 53 53 -225 -225 -225 -225 -225 -225 -225 -225 -225 -225 -225 -225 -225 -225 -225 -225 -225 -225 -225 -225 -225 -225 -225 -225 -225 -225 -225 -225 -225 -225 -225 -225 -225 -225 -225 -225 -225 -225 -225 -225 -225 -225 -225 -225 -225 -225 -225 -225 39 41 43 50 47 47 49 48 51 52 53 53 54 55 56 56 58 59 60 62 62 65 63 64 66 66 66 66 66 66 64 68 69 69 69 70 72 74 76 80 79 84 84 85 87 88 88 89 87 89 -193 91 99 101 103 106 106 107 107 108 107 107 106 105 105 106 106 103 105 109 109 112 114 118 117 114 115 116 118 121 123 124 124 126 128 131 133 135 145 147 147 148 151 149 148 148 149 147 148 148 148 146 149 153 153 155 155 154 154 -209 -209 -209 -193 -209 -209 171 171 172 172 175 180 -193 -209 -209 -193 -193 190 191 191 195 0 0 0 0 0
    0 0 0 0 0 0 0 0 0 0 0 0 0 0 0 0 0 0 0 0 0 0 0 0 0 0 0 0 0 0 0 0 0 0 0 0 0 0 0 0 0 0 0 0 0 0 0 0 0 0 0 0 0 0 0 0 0 0 0 0 0 0 0 0 0 0 0 0 0 53 53 53 52 51 53 52 52 52 52 51 49 52 52 48 50 51 54 57 54 0 -256 -1 9514 59 55 54 54 55 54 54 55 55 56 57 57 57 57 60 59 58 57 54 53 50 46 44 40 37 39 32 35 -209 -209 -193 -209 67 60 61 62 60 56 53 53 53 53 53 -225 -225 -225 -225 -225 -225 -225 -225 -225 -225 -225 -225 -225 -225 -225 -225 -225 -225 -225 -225 -225 -225 -225 -225 -225 -225 -225 -225 -225 -225 -225 -225 -225 -225 -225 -225 -225 -225 -225 -225 -225 -225 -225 -225 -225 -225 -225 -225 -225 -225 39 40 51 46 46 50 50 51 52 53 54 54 56 57 57 58 60 61 64 63 67 64 65 67 66 66 66 66 66 64 69 69 69 69 70 72 73 75 78 78 84 83 84 86 87 87 88 86 89 89 91 98 101 101 105 105 105 106 107 106 106 106 105 104 105 105 104 106 108 108 110 114 117 116 115 116 116 118 121 123 124 124 125 126 129 131 135 145 146 146 147 151 149 148 148 149 148 149 149 149 147 150 154 154 156 155 155 155 156 159 -193 -209 167 169 171 171 173 175 178 183 183 184 185 187 188 189 190 190 194 0 0 0 0 0
    0 0 0 0 0 0 0 0 0 0 0 0 0 0 0 0 0 0 0 0 0 0 0 0 0 0 0 0 0 0 0 0 0 0 0 0 0 0 0 0 0 0 0 0 0 0 0 0 0 0 0 0 0 0 0 0 0 0 0 0 0 0 0 0 0 0 0 0 0 53 52 52 51 50 52 51 51 52 51 51 49 52 53 50 53 54 58 59 56 54 55 59 58 63 56 -193 -193 70 64 71 60 60 60 61 60 60 59 61 58 57 57 54 53 49 44 42 39 -225 -225 -225 35 37 -209 -177 65 65 59 60 60 60 56 54 53 54 -225 -225 -225 -225 -225 -225 -225 -225 -225 -225 -225 -225 -225 -225 -225 -225 -225 -225 -225 -225 -225 -225 -225 -225 -225 -225 -225 -225 -225 -225 -225 -225 -225 -225 -225 -225 -225 -225 -225 -225 -225 -225 -225 -225 -225 -225 -225 -225 -225 -225 -225 -225 39 41 53 49 48 52 52 53 54 55 55 56 58 59 59 60 62 63 65 64 68 65 65 66 66 66 66 66 66 64 69 70 70 70 70 72 73 75 77 77 82 82 83 85 85 86 87 -193 89 -209 91 96 100 101 103 103 104 105 106 105 106 105 105 105 106 106 106 108 109 110 113 115 118 116 114 115 114 117 119 120 122 122 123 125 128 130 134 145 144 144 145 150 149 148 148 149 147 149 149 149 147 150 153 154 156 156 157 157 160 164 -209 -193 -193 169 172 173 175 179 180 183 184 184 184 186 186 187 187 188 191 0 0 0 0 0
    0 0 0 0 0 0 0 0 0 0 0 0 0 0 0 0 0 0 0 0 0 0 0 0 0 0 0 0 0 0 0 0 0 0 0 0 0 0 0 0 0 0 0 0 0 0 0 0 0 0 0 0 0 0 0 0 0 0 0 0 0 0 0 0 0 0 0 0 0 53 53 53 51 49 51 51 51 51 51 52 51 54 55 53 -193 58 61 65 62 59 60 66 66 69 65 -193 -193 71 70 71 64 63 63 63 62 61 59 60 58 57 57 55 54 54 50 48 -225 -225 -225 -225 -225 -225 -225 -225 68 68 61 61 60 60 57 54 53 -225 -225 -225 -225 -225 -225 -225 -225 -225 -225 -225 -225 -225 -225 -225 -225 -225 -225 -225 -225 -225 -225 -225 -225 -225 -225 -225 -225 -225 -225 -225 -225 -225 -225 -225 -225 -225 -225 -225 -225 -225 -225 -225 -225 -225 -225 -225 -225 -225 -225 -225 -225 -225 -225 -225 53 51 50 53 54 54 55 57 57 57 60 61 62 62 65 65 66 66 69 65 65 66 66 65 66 66 67 64 71 70 71 71 72 73 74 75 77 78 82 82 83 85 85 86 86 -209 -209 -209 92 100 -193 102 105 104 105 106 106 106 107 106 107 106 108 109 109 111 112 112 114 116 119 117 117 118 118 119 120 122 122 121 122 123 126 129 134 146 143 143 144 149 148 148 148 149 148 149 149 149 148 151 153 153 156 155 156 156 160 165 165 166 166 167 171 172 174 178 180 183 184 184 185 186 185 187 187 187 190 0 0 0 0 0
    0 0 0 0 0 0 0 0 0 0 0 0 0 0 0 0 0 0 0 0 0 0 0 0 0 0 0 0 0 0 0 0 0 0 0 0 0 0 0 0 0 0 0 0 0 0 0 0 0 0 0 0 0 0 0 0 0 0 0 0 0 0 0 0 0 0 0 0 0 55 55 54 53 51 53 52 53 53 54 54 54 56 57 57 59 61 66 69 69 67 67 70 71 71 70 73 72 69 69 70 65 65 64 65 63 62 60 61 58 58 58 56 56 56 -225 -225 -225 -225 -225 -225 -225 -225 -225 -225 -225 -225 -225 -225 -225 -225 -225 -225 -225 -225 -225 -225 -225 -225 -225 -225 -225 -225 -225 -225 -225 -225 -225 -225 -225 -225 -225 -225 -225 -225 -225 -225 -225 -225 -225 -225 -225 -225 -225 -225 -225 -225 -225 -225 -225 -225 -225 -225 -225 -225 -225 -225 -225 -225 -225 -225 -225 -225 -225 -225 -225 -225 -225 -225 -225 -225 53 54 56 56 56 58 59 59 61 62 63 64 67 66 67 67 69 66 67 68 67 66 67 66 68 66 71 71 71 71 73 74 75 75 78 78 82 83 83 85 85 85 -209 -209 -209 -209 92 99 -209 102 104 104 105 106 107 107 107 107 107 107 109 109 110 111 114 113 116 117 119 118 119 120 120 121 121 122 122 121 122 122 123 126 133 146 142 143 144 149 148 147 148 149 147 149 149 149 148 151 153 153 156 155 157 157 160 164 164 166 165 165 169 171 174 179 182 184 185 186 186 187 187 188 188 188 190 0 0 0 0 0
    0 0 0 0 0 0 0 0 0 0 0 0 0 0 0 0 0 0 0 0 0 0 0 0 0 0 0 0 0 0 0 0 0 0 0 0 0 0 0 0 0 0 0 0 0 0 0 0 0 0 0 0 0 0 0 0 0 0 0 0 0 0 0 0 0 0 0 0 0 56 56 55 55 53 54 54 55 55 58 58 59 60 62 63 65 68 68 70 70 70 69 71 72 71 71 72 70 69 69 69 66 66 64 64 63 61 60 60 59 59 58 57 57 -225 -225 -225 -225 -225 -225 -225 -225 -225 -225 -225 -225 -225 -225 -225 -225 -225 -225 -225 -225 -225 -225 -225 -225 -225 -225 -225 -225 -225 -225 -225 -225 -225 -225 -225 -225 -225 -225 -225 -225 -225 -225 -225 -225 -225 -225 -225 -225 -225 -225 -225 -225 -225 -225 -225 -225 -225 -225 -225 -225 -225 -225 -225 -225 -225 -225 -225 -225 -225 -225 -225 -225 -225 -225 -225 -225 -225 -225 -225 -209 56 57 60 61 61 64 65 65 66 69 67 68 68 70 68 68 68 68 67 68 67 68 67 71 71 71 71 73 74 75 76 77 78 81 83 83 86 -209 -209 -209 -209 -209 -209 92 96 98 100 102 102 103 105 106 106 106 106 106 106 108 108 110 111 114 113 117 118 120 119 120 121 121 121 121 121 121 120 121 121 121 125 134 148 143 144 145 149 148 148 148 149 147 149 149 149 148 151 153 153 156 155 159 159 162 164 165 166 165 165 169 172 176 180 183 183 185 186 186 188 188 188 188 188 190 0 0 0 0 0
    0 0 0 0 0 0 0 0 0 0 0 0 0 0 0 0 0 0 0 0 0 0 0 0 0 0 0 0 0 0 0 0 0 0 0 0 0 0 0 0 0 0 0 0 0 0 0 0 0 0 0 0 0 0 0 0 0 0 0 0 0 0 0 0 0 0 0 0 0 66 64 59 57 56 57 58 61 61 63 68 69 70 71 70 71 71 69 71 71 70 70 71 73 73 72 73 72 70 70 71 69 67 65 65 63 62 59 59 58 57 57 -225 -225 -225 -225 -225 -225 -225 -225 -225 -225 -225 -225 -225 -225 -225 -225 -225 -225 -225 -225 -225 -225 -225 -225 -225 -225 -225 -225 -225 -225 -225 -225 -225 -225 -225 -225 -225 -225 -225 -225 -225 -225 -225 -225 -225 -225 -225 -225 -225 -225 -225 -225 -225 -225 -225 -225 -225 -225 -225 -225 -225 -225 -225 -225 -225 -225 -225 -225 -225 -225 -225 -225 -225 -225 -225 -225 -225 -225 -225 -225 -225 -225 56 59 61 62 62 65 67 68 68 70 68 70 69 71 69 69 69 69 68 69 67 69 69 72 72 71 72 74 74 75 76 77 78 82 83 84 -209 -209 -209 -209 -209 -209 -209 91 94 95 97 99 100 101 103 105 105 106 106 106 105 108 109 111 113 116 116 118 119 121 120 121 122 122 122 121 121 121 120 121 121 120 125 135 149 144 145 147 149 148 148 148 149 147 149 149 149 148 151 153 153 157 156 161 161 162 164 164 165 165 164 169 171 175 180 182 183 184 186 186 187 187 188 188 188 189 0 0 0 0 0
    0 0 0 0 0 0 0 0 0 0 0 0 0 0 0 0 0 0 0 0 0 0 0 0 0 0 0 0 0 0 0 0 0 0 0 0 0 0 0 0 0 0 0 0 0 0 0 0 0 0 0 0 0 0 0 0 0 0 0 0 0 0 0 0 0 0 0 0 0 71 70 69 66 66 66 64 69 71 70 73 73 73 74 73 73 72 70 71 71 71 71 73 74 73 73 74 73 72 72 72 70 69 67 66 63 62 60 60 58 -225 -225 -225 -225 -225 -225 -225 -225 -225 -225 -225 -225 -225 -225 -225 -225 -225 -225 -225 -225 -225 -225 -225 -225 -225 -225 -225 -225 -225 -225 -225 -225 -225 -225 -225 -225 -225 -225 -225 -225 -225 -225 -225 -225 -225 -225 -225 -225 -225 -225 -225 -225 -225 -225 -225 -225 -225 -225 -225 -225 -225 -225 -225 -225 -225 -225 -225 -225 -225 -225 -225 -225 -225 -225 -225 -225 -225 -225 -225 -225 -225 -225 -225 -225 59 66 66 66 65 69 69 70 71 72 71 71 71 72 71 72 71 71 69 70 69 71 72 75 74 73 73 75 76 77 76 77 77 82 -209 -209 -209 -209 -209 -209 -209 90 92 93 95 95 96 98 97 98 100 102 103 104 104 105 105 108 109 112 114 116 117 118 120 121 121 122 122 123 123 122 122 122 123 123 123 123 127 134 145 143 144 146 149 148 148 148 149 148 150 150 150 150 153 154 154 159 156 162 161 162 163 164 165 165 164 168 171 174 179 181 183 184 185 186 187 187 188 189 189 189 0 0 0 0 0
    0 0 0 0 0 0 0 0 0 0 0 0 0 0 0 0 0 0 0 0 0 0 0 0 0 0 0 0 0 0 0 0 0 0 0 0 0 0 0 0 0 0 0 0 0 0 0 0 0 0 0 0 0 0 0 0 0 0 0 0 0 0 0 0 0 0 0 0 0 71 69 68 65 66 66 66 70 72 71 74 74 74 74 74 74 72 70 72 71 73 74 75 76 76 75 76 75 74 73 72 70 69 67 65 64 64 62 62 -225 -225 -225 -225 -225 -225 -225 -225 -225 -225 -225 -225 -225 -225 -225 -225 -225 -225 -225 -225 -225 -225 -225 -225 -225 -225 -225 -225 -225 -225 -225 -225 -225 -225 -225 -225 -225 -225 -225 -225 -225 -225 -225 -225 -225 -225 -225 -225 -225 -225 -225 -225 -225 -225 -225 -225 -225 -225 -225 -225 -225 -225 -225 -225 -225 -225 -225 -225 -225 -225 -225 -225 -225 -225 -225 -225 -225 -225 -225 -225 -225 -225 -225 -225 -225 -225 68 69 68 67 70 70 71 72 73 72 72 73 74 73 74 73 73 72 72 73 74 75 77 76 75 75 76 76 77 76 76 76 81 84 85 88 89 90 -209 91 91 93 93 95 96 96 98 97 98 98 100 101 102 102 103 105 107 109 112 113 116 117 118 119 120 121 122 123 124 124 124 123 124 125 125 125 126 128 134 142 141 142 145 148 148 148 148 149 149 151 151 150 150 153 154 154 157 156 161 161 163 164 165 166 166 166 169 173 175 179 181 182 184 184 186 187 187 189 191 191 191 0 0 0 0 0
    0 0 0 0 0 0 0 0 0 0 0 0 0 0 0 0 0 0 0 0 0 0 0 0 0 0 0 0 0 0 0 0 0 0 0 0 0 0 0 0 0 0 0 0 0 0 0 0 0 0 0 0 0 0 0 0 0 0 0 0 0 0 0 0 0 0 0 0 0 -193 69 -193 -209 68 69 68 71 74 72 75 74 75 74 74 73 72 70 72 72 75 76 77 78 78 78 78 77 75 74 73 71 69 67 66 65 64 -225 -225 -225 -225 -225 -225 -225 -225 -225 -225 -225 -225 -225 -225 -225 -225 -225 -225 -225 -225 -225 -225 -225 -225 -225 -225 -225 -225 -225 -225 -225 -225 -225 -225 -225 -225 -225 -225 -225 -225 -225 -225 -225 -225 -225 -225 -225 -225 -225 -225 -225 -225 -225 -225 -225 -225 -225 -225 -225 -225 -225 -225 -225 -225 -225 -225 -225 -225 -225 -225 -225 -225 -225 -225 -225 -225 -225 -225 -225 -225 -225 -225 -225 -225 -225 -225 -225 -225 -225 70 69 68 69 70 72 72 73 73 73 74 75 75 75 75 74 74 73 75 75 76 78 76 75 76 77 77 77 77 76 75 80 84 85 89 89 90 -209 91 92 93 94 95 95 96 98 99 99 100 101 101 102 102 104 105 107 109 112 113 115 117 119 119 120 121 123 123 125 125 125 124 125 126 126 126 126 128 133 139 140 141 144 147 147 148 148 149 149 151 150 150 151 153 153 153 155 156 159 162 163 164 166 167 167 167 170 173 175 178 181 181 182 184 185 186 187 188 190 191 191 0 0 0 0 0
    0 0 0 0 0 0 0 0 0 0 0 0 0 0 0 0 0 0 0 0 0 0 0 0 0 0 0 0 0 0 0 0 0 0 0 0 0 0 0 0 0 0 0 0 0 0 0 0 0 0 0 0 0 0 0 0 0 0 0 0 0 0 0 0 0 0 0 0 0 -209 -209 -209 -209 -209 -209 -193 71 74 72 75 72 73 72 72 73 71 71 74 75 77 78 79 79 80 79 78 77 75 74 73 71 70 69 68 67 -225 -225 -225 -225 -225 -225 -225 -225 -225 -225 -225 -225 -225 -225 -225 -225 -225 -225 -225 -225 -225 -225 -225 -225 -225 -225 -225 -225 -225 -225 -225 -225 -225 -225 -225 -225 -225 -225 -225 -225 -225 -225 -225 -225 -225 -225 -225 -225 -225 -225 -225 -225 -225 -225 -225 -225 -225 -225 -225 -225 -225 -225 -225 -225 -225 -225 -225 -225 -225 -225 -225 -225 -225 -225 -225 -225 -225 -225 -225 -225 -225 -225 -225 -225 -225 -225 -225 -225 -225 -225 71 68 67 69 70 72 72 73 73 73 75 75 75 77 76 75 75 74 76 76 78 79 77 76 77 78 78 77 78 76 75 80 85 86 89 91 91 91 92 92 94 94 95 95 96 99 99 101 101 102 103 103 103 104 105 107 109 111 113 115 117 119 120 121 122 124 125 126 128 129 127 127 129 129 129 130 131 133 137 139 140 143 146 146 147 147 149 149 150 150 150 151 153 153 153 155 156 159 162 162 164 166 167 167 168 169 172 173 176 179 179 181 183 184 185 187 188 190 190 191 0 0 0 0 0
    0 0 0 0 0 0 0 0 0 0 0 0 0 0 0 0 0 0 0 0 0 0 0 0 0 0 0 0 0 0 0 0 0 0 0 0 0 0 0 0 0 0 0 0 0 0 0 0 0 0 0 0 0 0 0 0 0 0 0 0 0 0 0 0 0 0 0 0 0 -209 -209 -209 -209 -209 -209 -193 71 74 72 74 72 72 72 72 76 77 77 82 79 79 81 81 81 81 79 77 76 74 73 72 72 71 70 -225 -225 -225 -225 -225 -225 -225 -225 -225 -225 -225 -225 -225 -225 -225 -225 -225 -225 -225 -225 -225 -225 -225 -225 -225 -225 -225 -225 -225 -225 -225 -225 -225 -225 -225 -225 -225 -225 -225 -225 -225 -225 -225 -225 -225 -225 -225 -225 -225 -225 -225 -225 -225 -225 -225 -225 -225 -225 -225 -225 -225 -225 -225 -225 -225 -225 -225 -225 -225 -225 -225 -225 -225 -225 -225 -225 -225 -225 -225 -225 -225 -225 -225 -225 -225 -225 -225 -225 -225 -225 -225 -225 -225 69 69 71 71 75 74 74 75 75 77 76 76 79 77 77 76 76 77 77 79 79 77 76 77 78 78 78 78 76 75 81 86 86 88 91 91 91 93 93 94 95 95 94 95 98 99 101 102 103 103 104 103 104 105 106 108 110 111 114 117 119 121 122 124 126 126 128 130 131 129 129 130 130 131 131 132 134 137 139 140 143 146 145 147 147 149 149 150 150 150 151 153 154 154 155 155 158 161 162 164 166 167 166 167 169 171 171 173 176 176 178 181 183 184 187 189 191 191 191 0 0 0 0 0
    0 0 0 0 0 0 0 0 0 0 0 0 0 0 0 0 0 0 0 0 0 0 0 0 0 0 0 0 0 0 0 0 0 0 0 0 0 0 0 0 0 0 0 0 0 0 0 0 0 0 0 0 0 0 0 0 0 0 0 0 0 0 0 0 0 0 0 0 0 -209 -209 -209 -209 -209 -209 -193 71 73 73 73 73 73 73 73 81 89 89 89 87 85 86 85 83 83 80 78 76 75 74 73 72 -225 -225 -225 -225 -225 -225 -225 -225 -225 -225 -225 -225 -225 -225 -225 -225 -225 -225 -225 -225 -225 -225 -225 -225 -225 -225 -225 -225 -225 -225 -225 -225 -225 -225 -225 -225 -225 -225 -225 -225 -225 -225 -225 -225 -225 -225 -225 -225 -225 -225 -225 -225 -225 -225 -225 -225 -225 -225 -225 -225 -225 -225 -225 -225 -225 -225 -225 -225 -225 -225 -225 -225 -225 -225 -225 -225 -225 -225 -225 -225 -225 -225 -225 -225 -225 -225 -225 -225 -225 -225 -225 -225 -225 -225 -225 73 72 74 73 81 77 76 77 78 78 77 78 81 78 79 77 77 77 77 79 79 77 77 77 78 78 78 78 75 74 80 84 84 87 90 89 90 92 92 93 93 94 93 93 96 97 100 100 102 103 103 103 104 105 106 108 109 111 114 118 120 121 122 124 126 127 128 130 130 129 129 130 131 131 132 134 135 137 139 140 142 144 144 146 147 149 149 150 150 150 152 153 154 154 155 155 158 161 162 163 165 167 166 167 168 169 170 172 175 174 175 179 182 183 185 187 190 191 190 0 0 0 0 0
    0 0 0 0 0 0 0 0 0 0 0 0 0 0 0 0 0 0 0 0 0 0 0 0 0 0 0 0 0 0 0 0 0 0 0 0 0 0 0 0 0 0 0 0 0 0 0 0 0 0 0 0 0 0 0 0 0 0 0 0 0 0 0 0 0 0 0 0 0 -209 -209 -209 -209 -193 -209 70 71 73 73 74 74 75 79 84 87 90 90 90 90 89 88 86 84 84 81 78 77 76 75 74 -225 -225 -225 -225 -225 -225 -225 -225 -225 -225 -225 -225 -225 -225 -225 -225 -225 -225 -225 -225 -225 -225 -225 -225 -225 -225 -225 -225 -225 -225 -225 -225 -225 -225 -225 -225 -225 -225 -225 -225 -225 -225 -225 -225 -225 -225 -225 -225 -225 -225 -225 -225 -225 -225 -225 -225 -225 -225 -225 -225 -225 -225 -225 -225 -225 -225 -225 -225 -225 -225 -225 -225 -225 -225 -225 -225 -225 -225 -225 -225 -225 -225 -225 -225 -225 -225 -225 -225 -225 -225 -225 -225 -225 -225 -225 -225 -225 75 77 76 84 78 78 79 79 78 78 78 81 78 79 78 78 78 79 81 81 78 78 79 79 80 80 79 76 76 80 80 80 85 88 87 89 91 92 92 93 93 93 93 95 96 98 99 100 102 102 103 104 105 106 108 110 112 115 118 120 121 122 124 125 127 128 129 130 128 129 130 132 134 134 136 137 138 139 140 142 143 143 146 147 149 149 150 150 150 151 153 153 153 154 155 157 159 160 162 165 166 166 167 168 169 171 172 174 174 175 178 180 180 183 184 186 188 188 0 0 0 0 0
    0 0 0 0 0 0 0 0 0 0 0 0 0 0 0 0 0 0 0 0 0 0 0 0 0 0 0 0 0 0 0 0 0 0 0 0 0 0 0 0 0 0 0 0 0 0 0 0 0 0 0 0 0 0 0 0 0 0 0 0 0 0 0 0 0 0 0 0 0 -209 -209 -193 271 273 -209 72 72 75 74 76 78 84 88 89 90 91 92 92 92 90 88 86 84 84 81 79 79 77 -225 -225 -225 -225 -225 -225 -225 -225 -225 -225 -225 -225 -225 -225 -225 -225 -225 -225 -225 -225 -225 -225 -225 -225 -225 -225 -225 -225 -225 -225 -225 -225 -225 -225 -225 -225 -225 -225 -225 -225 -225 -225 -225 -225 -225 -225 -225 -225 -225 -225 -225 -225 -225 -225 -225 -225 -225 -225 -225 -225 -225 -225 -225 -225 -225 -225 -225 -225 -225 -225 -225 -225 -225 -225 -225 -225 -225 -225 -225 -225 -225 -225 -225 -225 -225 -225 -225 -225 -225 -225 -225 -225 -225 -225 -225 -225 -225 -225 -225 -225 -225 77 84 79 78 80 81 80 78 79 82 81 80 80 79 79 80 82 82 79 79 81 82 82 83 83 80 80 85 84 84 85 86 86 88 91 92 91 92 93 92 92 94 94 96 95 98 100 101 102 104 105 106 109 111 113 115 118 120 120 121 123 124 126 127 128 129 127 130 131 132 135 135 137 138 138 139 139 142 142 143 147 148 149 150 150 150 150 151 152 153 153 153 154 155 158 159 162 165 166 165 166 168 169 170 171 173 172 173 176 179 180 182 183 185 186 186 0 0 0 0 0
    0 0 0 0 0 0 0 0 0 0 0 0 0 0 0 0 0 0 0 0 0 0 0 0 0 0 0 0 0 0 0 0 0 0 0 0 0 0 0 0 0 0 0 0 0 0 0 0 0 0 0 0 0 0 0 0 0 0 0 0 0 0 0 0 0 0 0 0 0 -209 -209 -209 -209 -209 79 76 73 76 78 80 84 89 90 91 91 93 94 94 93 91 89 87 85 84 82 80 79 -225 -225 -225 -225 -225 -225 -225 -225 -225 -225 -225 -225 -225 -225 -225 -225 -225 -225 -225 -225 -225 -225 -225 -225 -225 -225 -225 -225 -225 -225 -225 -225 -225 -225 -225 -225 -225 -225 -225 -225 -225 -225 -225 -225 -225 -225 -225 -225 -225 -225 -225 -225 -225 -225 -225 -225 -225 -225 -225 -225 -225 -225 -225 -225 -225 -225 -225 -225 -225 -225 -225 -225 -225 -225 -225 -225 -225 -225 -225 -225 -225 -225 -225 -225 -225 -225 -225 -225 -225 -225 -225 -225 -225 -225 -225 -225 -225 -225 -225 -225 -225 -225 -225 -225 79 78 80 83 81 79 80 83 82 81 81 80 80 80 82 82 80 80 82 83 84 85 85 83 84 86 85 85 85 86 85 87 90 91 91 92 92 92 92 93 94 95 95 97 100 101 102 104 105 106 109 110 113 115 118 119 120 121 124 124 126 127 128 128 127 130 130 132 134 134 136 137 137 138 138 141 141 141 146 147 148 149 149 149 150 151 152 153 153 154 155 156 158 159 162 164 166 165 166 167 169 169 170 171 171 172 174 178 180 182 183 185 185 185 0 0 0 0 0
    0 0 0 0 0 0 0 0 0 0 0 0 0 0 0 0 0 0 0 0 0 0 0 0 0 0 0 0 0 0 0 0 0 0 0 0 0 0 0 0 0 0 0 0 0 0 0 0 0 0 0 0 0 0 0 0 0 0 0 0 0 0 0 0 0 0 0 0 0 -209 -209 -209 -209 -209 80 78 76 80 83 85 88 90 91 92 93 94 94 94 93 91 89 88 87 85 84 -225 -225 -225 -225 -225 -225 -225 -225 -225 -225 -225 -225 -225 -225 -225 -225 -225 -225 -225 -225 -225 -225 -225 -225 -225 -225 -225 -225 -225 -225 -225 -225 -225 -225 -225 -225 -225 -225 -225 -225 -225 -225 -225 -225 -225 -225 -225 -225 -225 -225 -225 -225 -225 -225 -225 -225 -225 -225 -225 -225 -225 -225 -225 -225 -225 -225 -225 -225 -225 -225 -225 -225 -225 -225 -225 -225 -225 -225 -225 -225 -225 -225 -225 -225 -225 -225 -225 -225 -225 -225 -225 -225 -225 -225 -225 -225 -225 -225 -225 -225 -225 -225 -225 -225 -225 -225 -225 -225 -225 -209 81 79 81 84 83 82 81 81 81 80 83 82 80 81 82 83 84 86 87 85 86 87 87 87 87 87 85 86 89 89 90 91 91 91 91 92 93 94 95 98 100 101 102 105 105 107 109 111 114 115 118 120 121 122 125 125 127 127 127 128 127 129 129 131 134 134 137 138 138 -193 -193 141 141 141 144 145 146 147 147 148 149 -193 -193 -193 153 154 156 157 159 159 161 164 166 165 166 167 168 169 170 171 171 172 174 176 179 182 183 184 184 185 0 0 0 0 0
    0 0 0 0 0 0 0 0 0 0 0 0 0 0 0 0 0 0 0 0 0 0 0 0 0 0 0 0 0 0 0 0 0 0 0 0 0 0 0 0 0 0 0 0 0 0 0 0 0 0 0 0 0 0 0 0 0 0 0 0 0 0 0 0 0 0 0 0 0 -209 93 -193 -193 83 82 83 82 85 87 88 89 90 92 93 93 94 94 93 92 91 90 89 88 87 -225 -225 -225 -225 -225 -225 -225 -225 -225 -225 -225 -225 -225 -225 -225 -225 -225 -225 -225 -225 -225 -225 -225 -225 -225 -225 -225 -225 -225 -225 -225 -225 -225 -225 -225 -225 -225 -225 -225 -225 -225 -225 -225 -225 -225 -225 -225 -225 -225 -225 -225 -225 -225 -225 -225 -225 -225 -225 -225 -225 -225 -225 -225 -225 -225 -225 -225 -225 -225 -225 -225 -225 -225 -225 -225 -225 -225 -225 -225 -225 -225 -225 -225 -225 -225 -225 -225 -225 -225 -225 -225 -225 -225 -225 -225 -225 -225 -225 -225 -225 -225 -225 -225 -225 -225 -225 -225 -225 -225 -225 -225 81 80 81 85 84 83 83 82 81 82 84 83 81 82 83 85 86 88 88 87 88 88 88 89 87 88 85 86 87 88 90 90 91 90 90 92 92 94 95 97 101 102 103 106 106 107 109 111 114 116 118 121 121 123 126 126 128 127 128 128 127 130 129 132 135 136 138 139 139 -193 -193 142 142 142 144 146 145 147 147 148 149 150 -193 -193 153 154 155 156 158 158 159 162 165 164 165 165 167 168 169 170 171 171 173 176 178 181 182 183 183 184 0 0 0 0 0
    0 0 0 0 0 0 0 0 0 0 0 0 0 0 0 0 0 0 0 0 0 0 0 0 0 0 0 0 0 0 0 0 0 0 0 0 0 0 0 0 0 0 0 0 0 0 0 0 0 0 0 0 0 0 0 0 0 0 0 0 0 0 0 0 0 0 0 0 0 91 91 91 -193 87 85 87 86 87 89 90 91 92 94 94 93 94 94 94 93 92 92 91 -225 -225 -225 -225 -225 -225 -225 -225 -225 -225 -225 -225 -225 -225 -225 -225 -225 -225 -225 -225 -225 -225 -225 -225 -225 -225 -225 -225 -225 -225 -225 -225 -225 -225 -225 -225 -225 -225 -225 -225 -225 -225 -225 -225 -225 -225 -225 -225 -225 -225 -225 -225 -225 -225 -225 -225 -225 -225 -225 -225 -225 -225 -225 -225 -225 -225 -225 -225 -225 -225 -225 -225 -225 -225 -225 -225 -225 -225 -225 -225 -225 -225 -225 -225 -225 -225 -225 -225 -225 -225 -225 -225 -225 -225 -225 -225 -225 -225 -225 -225 -225 -225 -225 -225 -225 -225 -225 -225 -225 -225 -225 -225 -225 -225 80 82 85 85 84 84 84 82 83 85 84 83 83 84 86 87 89 89 88 88 88 88 89 88 89 86 87 88 90 91 91 91 90 90 91 91 93 94 95 99 101 103 106 105 107 109 110 114 117 119 121 121 123 126 126 128 127 127 128 127 131 130 133 136 137 139 140 140 141 141 142 143 143 145 147 146 147 147 148 150 150 -193 152 153 154 154 155 156 156 158 161 164 163 164 165 166 167 167 169 170 171 173 177 179 181 182 183 183 184 0 0 0 0 0
    0 0 0 0 0 0 0 0 0 0 0 0 0 0 0 0 0 0 0 0 0 0 0 0 0 0 0 0 0 0 0 0 0 0 0 0 0 0 0 0 0 0 0 0 0 0 0 0 0 0 0 0 0 0 0 0 0 0 0 0 0 0 0 0 0 0 0 0 0 92 93 101 94 91 88 90 90 90 91 92 92 93 94 94 94 94 94 94 94 93 93 -225 -225 -225 -225 -225 -225 -225 -225 -225 -225 -225 -225 -225 -225 -225 -225 -225 -225 -225 -225 -225 -225 -225 -225 -225 -225 -225 -225 -225 -225 -225 -225 -225 -225 -225 -225 -225 -225 -225 -225 -225 -225 -225 -225 -225 -225 -225 -225 -225 -225 -225 -225 -225 -225 -225 -225 -225 -225 -225 -225 -225 -225 -225 -225 -225 -225 -225 -225 -225 -225 -225 -225 -225 -225 -225 -225 -225 -225 -225 -225 -225 -225 -225 -225 -225 -225 -225 -225 -225 -225 -225 -225 -225 -225 -225 -225 -225 -225 -225 -225 -225 -225 -225 -225 -225 -225 -225 -225 -225 -225 -225 -225 -225 -225 -225 82 83 85 87 85 85 84 82 84 85 85 83 83 84 86 87 90 90 89 89 89 89 90 89 90 88 88 88 90 91 92 91 90 90 90 92 93 94 95 96 100 103 -209 106 109 111 113 116 118 120 121 121 122 124 125 127 126 126 126 126 130 130 133 137 137 140 141 141 141 141 141 141 142 144 146 144 146 147 148 150 150 150 151 152 153 154 155 156 157 158 161 164 164 164 165 165 167 167 169 170 172 173 178 181 182 183 184 184 185 0 0 0 0 0
    0 0 0 0 0 0 0 0 0 0 0 0 0 0 0 0 0 0 0 0 0 0 0 0 0 0 0 0 0 0 0 0 0 0 0 0 0 0 0 0 0 0 0 0 0 0 0 0 0 0 0 0 0 0 0 0 0 0 0 0 0 0 0 0 0 0 0 0 0 96 97 104 101 97 93 93 94 95 95 95 94 95 96 96 95 95 95 95 94 -225 -225 -225 -225 -225 -225 -225 -225 -225 -225 -225 -225 -225 -225 -225 -225 -225 -225 -225 -225 -225 -225 -225 -225 -225 -225 -225 -225 -225 -225 -225 -225 -225 -225 -225 -225 -225 -225 -225 -225 -225 -225 -225 -225 -225 -225 -225 -225 -225 -225 -225 -225 -225 -225 -225 -225 -225 -225 -225 -225 -225 -225 -225 -225 -225 -225 -225 -225 -225 -225 -225 -225 -225 -225 -225 -225 -225 -225 -225 -225 -225 -225 -225 -225 -225 -225 -225 -225 -225 -225 -225 -225 -225 -225 -225 -225 -225 -225 -225 -225 -225 -225 -225 -225 -225 -225 -225 -225 -225 -225 -225 -225 -225 -225 -225 -225 -225 -225 82 83 87 84 85 85 83 84 85 86 85 85 86 87 88 90 90 90 89 89 90 90 91 91 90 89 91 92 93 93 92 90 90 91 93 93 94 95 96 100 104 -209 -209 109 112 113 117 119 120 121 121 122 124 124 126 125 124 125 124 129 129 134 137 138 139 141 140 140 139 140 139 140 141 144 142 144 146 147 149 150 150 150 150 153 154 155 157 158 159 161 164 164 163 165 166 168 167 169 170 173 174 179 182 183 184 185 185 185 0 0 0 0 0
    0 0 0 0 0 0 0 0 0 0 0 0 0 0 0 0 0 0 0 0 0 0 0 0 0 0 0 0 0 0 0 0 0 0 0 0 0 0 0 0 0 0 0 0 0 0 0 0 0 0 0 0 0 0 0 0 0 0 0 0 0 0 0 0 0 0 0 0 0 100 99 104 102 99 96 97 98 99 98 97 96 97 97 96 96 95 95 94 -225 -225 -225 -225 -225 -225 -225 -225 -225 -225 -225 -225 -225 -225 -225 -225 -225 -225 -225 -225 -225 -225 -225 -225 -225 -225 -225 -225 -225 -225 -225 -225 -225 -225 -225 -225 -225 -225 -225 -225 -225 -225 -225 -225 -225 -225 -225 -225 -225 -225 -225 -225 -225 -225 -225 -225 -225 -225 -225 -225 -225 -225 -225 -225 -225 -225 -225 -225 -225 -225 -225 -225 -225 -225 -225 -225 -225 -225 -225 -225 -225 -225 -225 -225 -225 -225 -225 -225 -225 -225 -225 -225 -225 -225 -225 -225 -225 -225 -225 -225 -225 -225 -225 -225 -225 -225 -225 -225 -225 -225 -225 -225 -225 -225 -225 -225 -225 -225 -225 -225 78 86 83 84 84 84 84 86 87 86 87 88 88 90 92 92 91 90 90 90 91 91 91 90 89 90 92 93 93 92 91 90 92 94 94 95 96 96 100 -209 -209 -209 -193 -193 114 117 118 120 121 121 122 124 123 125 124 124 125 125 130 128 133 137 137 139 140 140 140 139 140 139 140 141 144 143 144 145 146 147 149 148 149 149 152 155 155 157 160 162 163 166 166 165 167 168 170 168 169 171 174 174 180 183 184 185 185 186 186 0 0 0 0 0
    0 0 0 0 0 0 0 0 0 0 0 0 0 0 0 0 0 0 0 0 0 0 0 0 0 0 0 0 0 0 0 0 0 0 0 0 0 0 0 0 0 0 0 0 0 0 0 0 0 0 0 0 0 0 0 0 0 0 0 0 0 0 0 0 0 0 0 0 0 101 100 103 102 99 98 98 99 99 98 98 97 97 97 96 95 95 -225 -225 -225 -225 -225 -225 -225 -225 -225 -225 -225 -225 -225 -225 -225 -225 -225 -225 -225 -225 -225 -225 -225 -225 -225 -225 -225 -225 -225 -225 -225 -225 -225 -225 -225 -225 -225 -225 -225 -225 -225 -225 -225 -225 -225 -225 -225 -225 -225 -225 -225 -225 -225 -225 -225 -225 -225 -225 -225 -225 -225 -225 -225 -225 -225 -225 -225 -225 -225 -225 -225 -225 -225 -225 -225 -225 -225 -225 -225 -225 -225 -225 -225 -225 -225 -225 -225 -225 -225 -225 -225 -225 -225 -225 -225 -225 -225 -225 -225 -225 -225 -225 -225 -225 -225 -225 -225 -225 -225 -225 -225 -225 -225 -225 -225 -225 -225 -225 -225 -225 -225 -225 -225 88 84 86 85 86 85 86 87 87 88 88 90 92 93 93 92 91 91 91 92 92 92 91 90 91 94 94 94 93 92 91 92 94 95 94 97 97 101 104 -209 -209 108 -193 115 117 118 120 120 121 122 123 123 124 124 124 125 125 130 128 132 134 136 137 139 140 139 139 139 139 140 140 143 142 142 143 144 146 148 147 149 151 154 156 156 160 164 165 166 167 167 167 169 169 170 168 169 171 175 176 181 185 185 186 185 186 186 0 0 0 0 0
    0 0 0 0 0 0 0 0 0 0 0 0 0 0 0 0 0 0 0 0 0 0 0 0 0 0 0 0 0 0 0 0 0 0 0 0 0 0 0 0 0 0 0 0 0 0 0 0 0 0 0 0 0 0 0 0 0 0 0 0 0 0 0 0 0 0 0 0 0 103 103 105 104 103 103 102 101 101 100 100 98 98 97 96 95 -225 -225 -225 -225 -225 -225 -225 -225 -225 -225 -225 -225 -225 -225 -225 -225 -225 -225 -225 -225 -225 -225 -225 -225 -225 -225 -225 -225 -225 -225 -225 -225 -225 -225 -225 -225 -225 -225 -225 -225 -225 -225 -225 -225 -225 -225 -225 -225 -225 -225 -225 -225 -225 -225 -225 -225 -225 -225 -225 -225 -225 -225 -225 -225 -225 -225 -225 -225 -225 -225 -225 -225 -225 -225 -225 -225 -225 -225 -225 -225 -225 -225 -225 -225 -225 -225 -225 -225 -225 -225 -225 -225 -225 -225 -225 -225 -225 -225 -225 -225 -225 -225 -225 -225 -225 -225 -225 -225 -225 -225 -225 -225 -225 -225 -225 -225 -225 -225 -225 -225 -225 -225 -225 -225 -225 -225 88 88 88 87 87 88 87 89 89 92 94 94 94 93 91 92 92 93 92 93 93 92 94 98 98 100 96 96 93 95 97 97 97 99 98 102 105 107 107 109 111 114 116 118 119 120 121 122 124 125 126 126 125 126 127 -209 -209 -209 134 -209 137 138 139 138 138 139 138 139 139 141 141 141 142 142 145 148 147 149 151 154 156 157 159 164 165 166 168 169 169 170 170 171 169 170 172 178 178 181 185 186 186 185 187 186 0 0 0 0 0
    0 0 0 0 0 0 0 0 0 0 0 0 0 0 0 0 0 0 0 0 0 0 0 0 0 0 0 0 0 0 0 0 0 0 0 0 0 0 0 0 0 0 0 0 0 0 0 0 0 0 0 0 0 0 0 0 0 0 0 0 0 0 0 0 0 0 0 0 0 105 104 105 105 104 103 103 102 101 101 100 99 99 98 -225 -225 -225 -225 -225 -225 -225 -225 -225 -225 -225 -225 -225 -225 -225 -225 -225 -225 -225 -225 -225 -225 -225 -225 -225 -225 -225 -225 -225 -225 -225 -225 -225 -225 -225 -225 -225 -225 -225 -225 -225 -225 -225 -225 -225 -225 -225 -225 -225 -225 -225 -225 -225 -225 -225 -225 -225 -225 -225 -225 -225 -225 -225 -225 -225 -225 -225 -225 -225 -225 -225 -225 -225 -225 -225 -225 -225 -225 -225 -225 -225 -225 -225 -225 -225 -225 -225 -225 -225 -225 -225 -225 -225 -225 -225 -225 -225 -225 -225 -225 -225 -225 -225 -225 -225 -225 -225 -225 -225 -225 -225 -225 -225 -225 -225 -225 -225 -225 -225 -225 -225 -225 -225 -225 -225 -225 -225 -225 -225 -225 -209 87 87 88 87 91 90 93 98 95 95 94 93 94 94 95 94 95 96 96 98 101 101 103 100 101 97 98 99 99 99 101 100 102 105 107 107 109 109 111 112 115 117 117 120 122 123 124 126 126 126 127 129 -209 -209 -209 -209 -209 -193 138 139 139 139 139 139 140 139 142 141 142 143 143 146 149 148 149 149 152 153 154 158 164 165 166 168 -193 169 170 171 171 169 171 174 179 179 181 185 184 186 185 187 185 0 0 0 0 0
    0 0 0 0 0 0 0 0 0 0 0 0 0 0 0 0 0 0 0 0 0 0 0 0 0 0 0 0 0 0 0 0 0 0 0 0 0 0 0 0 0 0 0 0 0 0 0 0 0 0 0 0 0 0 0 0 0 0 0 0 0 0 0 0 0 0 0 0 0 105 104 105 105 104 103 103 102 102 102 101 100 100 -225 -225 -225 -225 -225 -225 -225 -225 -225 -225 -225 -225 -225 -225 -225 -225 -225 -225 -225 -225 -225 -225 -225 -225 -225 -225 -225 -225 -225 -225 -225 -225 -225 -225 -225 -225 -225 -225 -225 -225 -225 -225 -225 -225 -225 -225 -225 -225 -225 -225 -225 -225 -225 -225 -225 -225 -225 -225 -225 -225 -225 -225 -225 -225 -225 -225 -225 -225 -225 -225 -225 -225 -225 -225 -225 -225 -225 -225 -225 -225 -225 -225 -225 -225 -225 -225 -225 -225 -225 -225 -225 -225 -225 -225 -225 -225 -225 -225 -225 -225 -225 -225 -225 -225 -225 -225 -225 -225 -225 -225 -225 -225 -225 -225 -225 -225 -225 -225 -225 -225 -225 -225 -225 -225 -225 -225 -225 -225 -225 -225 -225 -225 -225 87 87 87 91 91 93 99 95 95 94 93 94 94 96 95 96 99 99 101 103 103 104 103 104 102 102 102 102 101 103 102 104 106 107 108 109 109 109 110 112 114 114 116 119 121 122 124 124 125 127 -193 -209 -209 -209 -209 -209 138 139 139 139 140 140 139 140 140 142 142 143 143 143 146 148 147 148 147 150 151 152 158 -193 -193 167 -193 -193 -209 170 170 171 169 170 173 179 176 180 183 183 183 183 -209 -209 0 0 0 0 0
    0 0 0 0 0 0 0 0 0 0 0 0 0 0 0 0 0 0 0 0 0 0 0 0 0 0 0 0 0 0 0 0 0 0 0 0 0 0 0 0 0 0 0 0 0 0 0 0 0 0 0 0 0 0 0 0 0 0 0 0 0 0 0 0 0 0 0 0 0 106 105 106 105 105 104 104 103 102 102 101 -225 -225 -225 -225 -225 -225 -225 -225 -225 -225 -225 -225 -225 -225 -225 -225 -225 -225 -225 -225 -225 -225 -225 -225 -225 -225 -225 -225 -225 -225 -225 -225 -225 -225 -225 -225 -225 -225 -225 -225 -225 -225 -225 -225 -225 -225 -225 -225 -225 -225 -225 -225 -225 -225 -225 -225 -225 -225 -225 -225 -225 -225 -225 -225 -225 -225 -225 -225 -225 -225 -225 -225 -225 -225 -225 -225 -225 -225 -225 -225 -225 -225 -225 -225 -225 -225 -225 -225 -225 -225 -225 -225 -225 -225 -225 -225 -225 -225 -225 -225 -225 -225 -225 -225 -225 -225 -225 -225 -225 -225 -225 -225 -225 -225 -225 -225 -225 -225 -225 -225 -225 -225 -225 -225 -225 -225 -225 -225 -225 -225 -225 -225 -225 -225 -225 -225 87 86 92 91 93 99 95 97 96 95 97 97 99 99 100 102 102 103 104 104 105 105 106 104 104 104 104 102 104 102 104 106 108 109 110 110 110 111 112 113 113 114 117 118 121 123 124 125 127 129 -209 -209 -209 -209 -209 -209 -209 139 139 140 139 139 140 139 141 141 141 141 140 144 148 147 148 148 152 154 155 161 167 167 167 167 -209 -193 169 169 171 169 170 172 175 174 179 183 182 -193 -209 -209 -209 0 0 0 0 0
    0 0 0 0 0 0 0 0 0 0 0 0 0 0 0 0 0 0 0 0 0 0 0 0 0 0 0 0 0 0 0 0 0 0 0 0 0 0 0 0 0 0 0 0 0 0 0 0 0 0 0 0 0 0 0 0 0 0 0 0 0 0 0 0 0 0 0 0 0 107 106 107 106 106 105 104 103 102 102 -225 -225 -225 -225 -225 -225 -225 -225 -225 -225 -225 -225 -225 -225 -225 -225 -225 -225 -225 -225 -225 -225 -225 -225 -225 -225 -225 -225 -225 -225 -225 -225 -225 -225 -225 -225 -225 -225 -225 -225 -225 -225 -225 -225 -225 -225 -225 -225 -225 -225 -225 -225 -225 -225 -225 -225 -225 -225 -225 -225 -225 -225 -225 -225 -225 -225 -225 -225 -225 -225 -225 -225 -225 -225 -225 -225 -225 -225 -225 -225 -225 -225 -225 -225 -225 -225 -225 -225 -225 -225 -225 -225 -225 -225 -225 -225 -225 -225 -225 -225 -225 -225 -225 -225 -225 -225 -225 -225 -225 -225 -225 -225 -225 -225 -225 -225 -225 -225 -225 -225 -225 -225 -225 -225 -225 -225 -225 -225 -225 -225 -225 -225 -225 -225 -225 -225 -225 86 86 92 92 93 99 95 98 98 99 100 100 101 101 102 104 104 105 105 105 106 106 108 106 106 105 105 105 107 104 106 106 108 110 111 111 110 110 111 113 113 114 116 117 120 122 122 123 125 127 -209 -209 -209 -193 -209 -193 -209 -193 138 139 139 139 140 139 141 141 141 141 -193 143 147 147 149 150 157 157 159 162 167 166 165 165 -193 -193 -193 -193 170 168 169 171 -193 -193 177 181 -193 -209 -209 -209 -209 0 0 0 0 0
    0 0 0 0 0 0 0 0 0 0 0 0 0 0 0 0 0 0 0 0 0 0 0 0 0 0 0 0 0 0 0 0 0 0 0 0 0 0 0 0 0 0 0 0 0 0 0 0 0 0 0 0 0 0 0 0 0 0 0 0 0 0 0 0 0 0 0 0 0 107 106 106 106 106 105 105 104 -225 -225 -225 -225 -225 -225 -225 -225 -225 -225 -225 -225 -225 -225 -225 -225 -225 -225 -225 -225 -225 -225 -225 -225 -225 -225 -225 -225 -225 -225 -225 -225 -225 -225 -225 -225 -225 -225 -225 -225 -225 -225 -225 -225 -225 -225 -225 -225 -225 -225 -225 -225 -225 -225 -225 -225 -225 -225 -225 -225 -225 -225 -225 -225 -225 -225 -225 -225 -225 -225 -225 -225 -225 -225 -225 -225 -225 -225 -225 -225 -225 -225 -225 -225 -225 -225 -225 -225 -225 -225 -225 -225 -225 -225 -225 -225 -225 -225 -225 -225 -225 -225 -225 -225 -225 -225 -225 -225 -225 -225 -225 -225 -225 -225 -225 -225 -225 -225 -225 -225 -225 -225 -225 -225 -225 -225 -225 -225 -225 -225 -225 -225 -225 -225 -225 -225 -225 -225 -225 86 86 95 94 95 100 95 98 100 101 102 102 102 102 104 106 106 106 106 106 107 107 109 108 107 107 107 107 110 108 108 107 109 110 111 110 111 110 111 112 113 114 117 118 121 -209 122 123 124 125 -209 127 130 131 134 134 -209 -193 139 139 141 141 141 141 142 142 142 141 -193 141 144 145 146 149 153 154 156 158 163 162 162 163 164 -193 166 166 169 165 169 -193 -193 172 175 179 180 -193 -193 -209 -193 0 0 0 0 0
    0 0 0 0 0 0 0 0 0 0 0 0 0 0 0 0 0 0 0 0 0 0 0 0 0 0 0 0 0 0 0 0 0 0 0 0 0 0 0 0 0 0 0 0 0 0 0 0 0 0 0 0 0 0 0 0 0 0 0 0 0 0 0 0 0 0 0 0 0 108 107 106 106 106 106 106 -225 -225 -225 -225 -225 -225 -225 -225 -225 -225 -225 -225 -225 -225 -225 -225 -225 -225 -225 -225 -225 -225 -225 -225 -225 -225 -225 -225 -225 -225 -225 -225 -225 -225 -225 -225 -225 -225 -225 -225 -225 -225 -225 -225 -225 -225 -225 -225 -225 -225 -225 -225 -225 -225 -225 -225 -225 -225 -225 -225 -225 -225 -225 -225 -225 -225 -225 -225 -225 -225 -225 -225 -225 -225 -225 -225 -225 -225 -225 -225 -225 -225 -225 -225 -225 -225 -225 -225 -225 -225 -225 -225 -225 -225 -225 -225 -225 -225 -225 -225 -225 -225 -225 -225 -225 -225 -225 -225 -225 -225 -225 -225 -225 -225 -225 -225 -225 -225 -225 -225 -225 -225 -225 -225 -225 -225 -225 -225 -225 -225 -225 -225 -225 -225 -225 -225 -225 -225 -225 -225 -225 86 95 93 95 100 96 98 101 103 103 103 103 104 105 107 107 107 106 106 108 108 110 108 108 108 109 109 111 110 111 109 112 111 112 111 112 111 111 113 114 114 117 118 -209 -209 122 123 124 125 126 126 129 130 134 135 -209 139 142 142 145 145 144 144 144 143 143 140 140 139 142 142 142 148 151 152 155 158 163 161 162 163 164 164 165 165 -193 -193 168 -209 -209 -193 177 180 180 -193 -193 -209 182 0 0 0 0 0
    0 0 0 0 0 0 0 0 0 0 0 0 0 0 0 0 0 0 0 0 0 0 0 0 0 0 0 0 0 0 0 0 0 0 0 0 0 0 0 0 0 0 0 0 0 0 0 0 0 0 0 0 0 0 0 0 0 0 0 0 0 0 0 0 0 0 0 0 0 108 107 106 107 106 -225 -225 -225 -225 -225 -225 -225 -225 -225 -225 -225 -225 -225 -225 -225 -225 -225 -225 -225 -225 -225 -225 -225 -225 -225 -225 -225 -225 -225 -225 -225 -225 -225 -225 -225 -225 -225 -225 -225 -225 -225 -225 -225 -225 -225 -225 -225 -225 -225 -225 -225 -225 -225 -225 -225 -225 -225 -225 -225 -225 -225 -225 -225 -225 -225 -225 -225 -225 -225 -225 -225 -225 -225 -225 -225 -225 -225 -225 -225 -225 -225 -225 -225 -225 -225 -225 -225 -225 -225 -225 -225 -225 -225 -225 -225 -225 -225 -225 -225 -225 -225 -225 -225 -225 -225 -225 -225 -225 -225 -225 -225 -225 -225 -225 -225 -225 -225 -225 -225 -225 -225 -225 -225 -225 -225 -225 -225 -225 -225 -225 -225 -225 -225 -225 -225 -225 -225 -225 -225 -225 -225 -225 -225 -225 93 92 94 100 95 98 100 102 103 103 104 104 105 107 107 108 107 107 109 109 112 109 110 110 111 111 114 112 112 109 112 111 113 113 113 113 112 114 116 116 118 119 -193 121 122 123 123 124 126 127 130 -209 -209 -209 -209 -209 142 143 146 146 145 145 144 143 142 140 140 138 140 140 140 146 151 152 154 156 159 159 160 162 163 162 163 162 -193 -193 -193 -209 -209 -193 178 179 179 -193 -193 -193 181 0 0 0 0 0
    0 0 0 0 0 0 0 0 0 0 0 0 0 0 0 0 0 0 0 0 0 0 0 0 0 0 0 0 0 0 0 0 0 0 0 0 0 0 0 0 0 0 0 0 0 0 0 0 0 0 0 0 0 0 0 0 0 0 0 0 0 0 0 0 0 0 0 0 0 109 108 107 108 -225 -225 -225 -225 -225 -225 -225 -225 -225 -225 -225 -225 -225 -225 -225 -225 -225 -225 -225 -225 -225 -225 -225 -225 -225 -225 -225 -225 -225 -225 -225 -225 -225 -225 -225 -225 -225 -225 -225 -225 -225 -225 -225 -225 -225 -225 -225 -225 -225 -225 -225 -225 -225 -225 -225 -225 -225 -225 -225 -225 -225 -225 -225 -225 -225 -225 -225 -225 -225 -225 -225 -225 -225 -225 -225 -225 -225 -225 -225 -225 -225 -225 -225 -225 -225 -225 -225 -225 -225 -225 -225 -225 -225 -225 -225 -225 -225 -225 -225 -225 -225 -225 -225 -225 -225 -225 -225 -225 -225 -225 -225 -225 -225 -225 -225 -225 -225 -225 -225 -225 -225 -225 -225 -225 -225 -225 -225 -225 -225 -225 -225 -225 -225 -225 -225 -225 -225 -225 -225 -225 -225 -225 -225 -225 -225 -225 92 95 102 95 98 100 102 103 103 104 105 106 107 108 108 107 108 110 110 113 110 111 111 112 113 115 112 112 110 112 111 113 113 113 113 112 115 116 117 118 119 120 121 121 122 123 124 126 128 131 -209 -209 -209 -209 -209 142 143 146 146 145 146 145 144 144 142 141 139 141 140 140 145 148 149 152 154 156 157 158 160 161 160 161 161 -193 -193 -193 -209 -209 170 175 176 176 176 178 180 180 0 0 0 0 0
    0 0 0 0 0 0 0 0 0 0 0 0 0 0 0 0 0 0 0 0 0 0 0 0 0 0 0 0 0 0 0 0 0 0 0 0 0 0 0 0 0 0 0 0 0 0 0 0 0 0 0 0 0 0 0 0 0 0 0 0 0 0 0 0 0 0 0 0 0 108 107 -225 -225 -225 -225 -225 -225 -225 -225 -225 -225 -225 -225 -225 -225 -225 -225 -225 -225 -225 -225 -225 -225 -225 -225 -225 -225 -225 -225 -225 -225 -225 -225 -225 -225 -225 -225 -225 -225 -225 -225 -225 -225 -225 -225 -225 -225 -225 -225 -225 -225 -225 -225 -225 -225 -225 -225 -225 -225 -225 -225 -225 -225 -225 -225 -225 -225 -225 -225 -225 -225 -225 -225 -225 -225 -225 -225 -225 -225 -225 -225 -225 -225 -225 -225 -225 -225 -225 -225 -225 -225 -225 -225 -225 -225 -225 -225 -225 -225 -225 -225 -225 -225 -225 -225 -225 -225 -225 -225 -225 -225 -225 -225 -225 -225 -225 -225 -225 -225 -225 -225 -225 -225 -225 -225 -225 -225 -225 -225 -225 -225 -225 -225 -225 -225 -225 -225 -225 -225 -225 -225 -225 -225 -225 -225 -225 -225 -225 -225 -225 91 101 96 99 102 104 104 104 104 106 108 108 109 109 108 108 111 110 113 111 113 112 113 114 116 115 115 113 113 111 114 115 114 115 113 116 117 118 119 119 120 120 119 121 122 123 125 127 132 133 -193 134 -209 -209 142 143 146 146 146 147 146 145 145 142 142 139 140 139 139 142 146 148 151 153 155 -193 157 159 160 159 160 159 -193 -193 -193 -193 -209 -193 173 174 174 175 177 179 179 0 0 0 0 0
    0 0 0 0 0 0 0 0 0 0 0 0 0 0 0 0 0 0 0 0 0 0 0 0 0 0 0 0 0 0 0 0 0 0 0 0 0 0 0 0 0 0 0 0 0 0 0 0 0 0 0 0 0 0 0 0 0 0 0 0 0 0 0 0 0 0 0 0 0 109 -225 -225 -225 -225 -225 -225 -225 -225 -225 -225 -225 -225 -225 -225 -225 -225 -225 -225 -225 -225 -225 -225 -225 -225 -225 -225 -225 -225 -225 -225 -225 -225 -225 -225 -225 -225 -225 -225 -225 -225 -225 -225 -225 -225 -225 -225 -225 -225 -225 -225 -225 -225 -225 -225 -225 -225 -225 -225 -225 -225 -225 -225 -225 -225 -225 -225 -225 -225 -225 -225 -225 -225 -225 -225 -225 -225 -225 -225 -225 -225 -225 -225 -225 -225 -225 -225 -225 -225 -225 -225 -225 -225 -225 -225 -225 -225 -225 -225 -225 -225 -225 -225 -225 -225 -225 -225 -225 -225 -225 -225 -225 -225 -225 -225 -225 -225 -225 -225 -225 -225 -225 -225 -225 -225 -225 -225 -225 -225 -225 -225 -225 -225 -225 -225 -225 -225 -225 -225 -225 -225 -225 -225 -225 -225 -225 -225 -225 -225 -225 -225 -225 102 97 101 103 107 105 106 105 107 109 109 110 111 109 110 113 111 115 113 115 113 115 115 116 115 115 114 114 112 114 115 115 116 114 117 118 119 120 120 121 120 118 121 121 122 125 126 131 132 133 134 -209 -209 141 142 145 145 144 146 145 144 143 141 141 138 140 139 138 142 145 149 151 152 154 -193 156 158 158 158 159 158 -193 -193 -193 -193 -209 -193 173 -193 171 172 174 175 176 0 0 0 0 0
    0 0 0 0 0 0 0 0 0 0 0 0 0 0 0 0 0 0 0 0 0 0 0 0 0 0 0 0 0 0 0 0 0 0 0 0 0 0 0 0 0 0 0 0 0 0 0 0 0 0 0 0 0 0 0 0 0 0 0 0 0 0 0 0 0 0 0 0 0 -225 -225 -225 -225 -225 -225 -225 -225 -225 -225 -225 -225 -225 -225 -225 -225 -225 -225 -225 -225 -225 -225 -225 -225 -225 -225 -225 -225 -225 -225 -225 -225 -225 -225 -225 -225 -225 -225 -225 -225 -225 -225 -225 -225 -225 -225 -225 -225 -225 -225 -225 -225 -225 -225 -225 -225 -225 -225 -225 -225 -225 -225 -225 -225 -225 -225 -225 -225 -225 -225 -225 -225 -225 -225 -225 -225 -225 -225 -225 -225 -225 -225 -225 -225 -225 -225 -225 -225 -225 -225 -225 -225 -225 -225 -225 -225 -225 -225 -225 -225 -225 -225 -225 -225 -225 -225 -225 -225 -225 -225 -225 -225 -225 -225 -225 -225 -225 -225 -225 -225 -225 -225 -225 -225 -225 -225 -225 -225 -225 -225 -225 -225 -225 -225 -225 -225 -225 -225 -225 -225 -225 -225 -225 -225 -225 -225 -225 -225 -225 -225 -225 -225 -225 100 103 104 109 106 107 107 107 109 109 109 111 110 112 115 113 117 116 116 116 116 116 117 116 116 114 114 112 115 115 115 116 115 117 118 119 121 121 121 120 119 121 121 122 125 127 131 -209 -209 -209 -209 -209 -193 -193 142 141 141 143 143 142 143 141 142 138 141 139 139 143 147 150 151 152 154 156 157 159 159 159 161 161 160 -193 -193 -193 -209 169 174 174 171 172 173 174 174 0 0 0 0 0</data></disparity>
</opencv_storage>
