<?xml version="1.0"?>
<opencv_storage>
<gps_time_stamp>311325</gps_time_stamp>
<gps_x>-1.2427591323852539e+001</gps_x>
<gps_y>1.0956089019775391e+001</gps_y>
<gps_z>-2.0247423648834229e+000</gps_z>
<image_time_stamp>302156</image_time_stamp>
<disparity type_id="opencv-matrix">
  <rows>83</rows>
  <cols>320</cols>
  <dt>s</dt>
  <data>
    0 0 0 0 0 0 0 0 0 0 0 0 0 0 0 0 0 0 0 0 0 0 0 0 0 0 0 0 0 0 0 0 0 0 0 0 0 0 0 0 0 0 0 0 0 0 0 0 0 0 0 0 0 0 0 0 0 0 0 0 0 0 0 0 0 0 0 0 0 47 46 45 45 42 42 41 42 42 41 41 41 40 41 39 38 38 38 39 39 35 35 35 38 35 35 35 33 34 34 35 34 32 32 33 33 32 29 31 29 30 28 28 27 27 28 28 27 29 27 26 25 27 26 23 21 20 22 25 25 27 27 25 25 25 23 21 16 14 12 11 10 10 9 10 9 9 9 10 9 10 12 12 14 14 14 14 15 15 15 15 14 13 12 12 11 10 11 9 9 9 10 10 10 11 11 10 13 13 17 24 26 32 30 34 35 35 36 36 37 39 38 41 42 43 44 43 44 44 46 51 52 53 51 59 60 60 60 66 62 64 67 64 66 70 70 70 -177 75 -193 156 76 78 -193 75 75 73 73 76 78 -193 -193 -193 -193 -193 -193 -193 -177 91 91 178 -193 -193 100 106 106 107 112 111 109 111 112 112 114 114 113 114 119 123 125 128 134 130 130 133 -209 -193 -193 140 139 138 -193 -193 -193 -209 138 -193 130 132 134 -177 -177 -177 -177 432 433 -193 -193 -209 -193 -209 -209 -193 164 163 161 -193 -193 163 166 170 172 173 173 174 179 178 179 179 178 181 184 183 513 515 -193 0 0 0 0 0
    0 0 0 0 0 0 0 0 0 0 0 0 0 0 0 0 0 0 0 0 0 0 0 0 0 0 0 0 0 0 0 0 0 0 0 0 0 0 0 0 0 0 0 0 0 0 0 0 0 0 0 0 0 0 0 0 0 0 0 0 0 0 0 0 0 0 0 0 0 47 47 46 46 42 43 41 42 43 43 43 42 41 41 40 39 39 38 39 38 35 35 35 37 35 35 34 32 33 34 34 34 32 32 33 32 32 29 31 29 30 29 29 27 28 28 29 28 29 27 25 25 27 27 25 24 23 24 28 27 30 29 28 27 27 26 25 19 17 13 11 10 10 10 10 9 10 9 10 10 10 12 12 14 14 14 14 14 14 15 14 14 14 12 12 11 10 11 9 9 9 10 10 10 11 11 10 13 13 16 23 25 32 29 33 34 35 35 36 37 38 37 41 41 43 44 44 44 44 47 51 52 53 52 58 59 60 60 65 62 63 67 64 66 70 70 70 -177 74 -193 -177 75 77 -193 74 75 73 73 75 78 -193 -193 82 -193 -193 -193 -193 254 -193 -193 178 -193 -193 101 105 105 107 111 111 109 111 112 112 113 113 113 114 119 123 125 127 134 129 129 132 -193 -193 136 139 139 138 -193 -193 -193 -209 -193 135 131 132 134 -177 -177 -177 -177 432 433 -193 -193 -209 -209 -209 -209 -209 -193 163 160 -193 -177 165 168 173 174 175 175 175 179 178 179 180 179 182 185 184 513 516 187 0 0 0 0 0
    0 0 0 0 0 0 0 0 0 0 0 0 0 0 0 0 0 0 0 0 0 0 0 0 0 0 0 0 0 0 0 0 0 0 0 0 0 0 0 0 0 0 0 0 0 0 0 0 0 0 0 0 0 0 0 0 0 0 0 0 0 0 0 0 0 0 0 0 0 47 47 46 46 43 44 41 43 43 44 43 42 41 41 40 39 39 38 39 38 35 35 35 37 35 35 34 32 33 34 34 34 32 32 33 32 31 29 31 29 30 29 29 28 28 29 29 28 29 27 25 25 28 28 28 27 26 27 33 29 33 31 29 28 28 27 26 21 20 14 12 11 10 9 10 9 10 9 10 9 9 11 11 13 13 14 13 14 14 15 14 14 14 12 12 11 10 11 9 9 9 10 10 10 11 11 10 13 14 16 21 24 30 28 33 33 33 34 35 36 38 36 40 40 42 43 43 44 45 47 51 52 53 52 58 59 60 60 66 62 64 67 64 66 70 69 70 -193 74 73 -177 75 76 73 74 75 73 73 76 78 -193 -193 -193 -193 -193 -193 -193 -177 -193 -193 177 -193 100 101 105 104 105 110 110 109 111 112 112 113 113 113 114 119 124 126 128 134 129 129 132 135 133 135 139 138 138 931 -193 -193 -193 -193 -193 131 132 134 -177 -177 -177 -177 432 433 333 337 -177 -209 -209 59 -209 -193 162 -193 -193 -177 -193 170 177 177 176 176 177 180 178 179 180 179 182 185 185 514 517 188 0 0 0 0 0
    0 0 0 0 0 0 0 0 0 0 0 0 0 0 0 0 0 0 0 0 0 0 0 0 0 0 0 0 0 0 0 0 0 0 0 0 0 0 0 0 0 0 0 0 0 0 0 0 0 0 0 0 0 0 0 0 0 0 0 0 0 0 0 0 0 0 0 0 0 46 46 45 45 42 43 41 43 43 45 43 42 41 41 40 39 39 39 39 38 35 35 35 37 35 35 34 32 32 33 33 33 31 32 32 31 31 29 30 30 30 29 29 28 29 29 30 29 30 27 27 27 31 31 31 32 31 31 35 31 34 32 30 29 29 28 27 24 23 15 13 12 10 9 9 9 10 10 10 9 9 10 10 13 13 14 13 14 14 15 14 14 14 13 12 11 10 11 10 10 9 9 10 10 11 11 11 13 15 17 21 23 28 27 32 32 33 33 34 36 37 35 39 39 42 44 43 44 45 47 50 52 53 52 57 58 59 60 66 63 64 67 64 66 69 69 70 -193 -177 -177 -193 75 76 73 74 75 73 74 77 -193 -193 -193 165 -193 -193 -177 -209 -193 -193 -193 -193 101 100 100 104 102 105 109 110 109 111 112 112 113 114 114 115 120 124 127 128 134 128 128 131 134 133 135 138 137 137 930 931 929 -193 136 -193 131 132 133 -177 -177 -177 -177 432 433 333 337 -177 -177 -209 56 -177 -177 -193 -193 -193 -177 -193 173 179 179 178 178 177 180 179 179 181 180 183 186 185 514 517 188 0 0 0 0 0
    0 0 0 0 0 0 0 0 0 0 0 0 0 0 0 0 0 0 0 0 0 0 0 0 0 0 0 0 0 0 0 0 0 0 0 0 0 0 0 0 0 0 0 0 0 0 0 0 0 0 0 0 0 0 0 0 0 0 0 0 0 0 0 0 0 0 0 0 0 45 45 44 45 42 43 41 43 43 45 42 41 40 40 40 39 39 38 39 38 36 36 35 37 35 35 34 31 31 33 32 33 30 32 31 31 30 29 30 31 30 30 30 29 29 30 31 30 30 28 28 27 31 33 32 34 32 33 36 32 34 32 30 30 29 29 28 25 25 18 14 13 10 9 9 10 11 10 11 10 10 10 11 13 13 14 14 14 15 15 14 14 14 13 12 11 10 11 10 10 9 9 9 10 12 12 12 14 16 18 21 23 26 26 31 31 32 33 34 35 36 35 38 37 42 44 43 44 45 47 49 50 52 51 55 57 58 58 65 62 64 68 64 66 69 69 69 70 73 72 71 74 75 73 73 74 73 74 77 -193 -193 -193 -177 -193 165 -209 -209 -193 93 -193 -193 100 100 100 103 101 105 109 110 109 111 111 112 113 114 115 115 120 124 127 127 133 128 128 131 134 132 134 -193 137 137 929 -193 -193 -193 136 -193 131 132 133 -177 -177 -177 -177 432 433 333 337 -193 -177 -209 54 -177 -177 -209 -193 247 -177 -193 175 181 180 179 179 178 180 179 179 181 181 183 186 186 515 517 188 0 0 0 0 0
    0 0 0 0 0 0 0 0 0 0 0 0 0 0 0 0 0 0 0 0 0 0 0 0 0 0 0 0 0 0 0 0 0 0 0 0 0 0 0 0 0 0 0 0 0 0 0 0 0 0 0 0 0 0 0 0 0 0 0 0 0 0 0 0 0 0 0 0 0 45 45 44 44 42 42 41 43 43 44 42 40 39 40 40 39 39 38 39 38 36 36 35 36 35 35 34 31 30 32 31 32 30 31 30 30 30 28 31 32 31 31 31 31 31 31 32 30 30 29 28 29 34 36 34 35 34 34 36 33 34 33 31 31 30 30 29 26 26 19 15 15 11 9 9 10 11 11 11 11 10 11 12 13 14 14 14 13 14 14 14 14 14 12 11 10 10 11 10 10 9 9 9 11 12 12 11 13 15 16 20 22 25 25 31 30 32 32 33 35 35 34 38 36 41 45 44 44 46 47 48 48 50 50 51 55 56 56 65 62 63 67 64 66 68 68 69 69 72 71 70 74 75 73 74 75 73 75 78 82 -193 -193 -193 -193 -193 -193 91 -193 94 97 -193 100 101 101 104 102 105 110 110 110 111 111 112 114 114 115 115 119 124 126 126 133 128 128 130 133 131 133 -193 -193 136 927 -193 -193 -193 136 -193 131 131 133 -177 -177 -177 -177 433 434 333 337 -209 -177 -209 53 -177 -177 -193 -209 246 249 -193 176 182 180 179 179 179 181 179 180 181 -193 183 186 187 -193 518 189 0 0 0 0 0
    0 0 0 0 0 0 0 0 0 0 0 0 0 0 0 0 0 0 0 0 0 0 0 0 0 0 0 0 0 0 0 0 0 0 0 0 0 0 0 0 0 0 0 0 0 0 0 0 0 0 0 0 0 0 0 0 0 0 0 0 0 0 0 0 0 0 0 0 0 46 45 43 43 41 40 40 42 43 44 41 39 38 39 39 39 39 38 39 38 36 37 35 36 35 35 34 31 29 31 29 31 30 31 29 30 30 28 32 32 32 32 31 32 32 31 32 30 30 30 29 31 35 37 35 37 35 35 37 35 35 34 32 32 32 31 31 27 27 22 16 17 12 10 10 10 12 11 12 11 11 12 13 13 15 14 14 13 14 14 13 13 13 11 10 10 10 11 10 10 9 9 9 11 12 12 11 13 15 15 19 21 24 25 32 30 32 32 33 35 35 35 38 36 41 46 44 44 46 46 47 47 49 49 48 53 54 56 64 61 62 67 64 65 68 68 69 69 72 71 70 74 76 73 74 75 74 76 80 84 86 84 -193 -193 88 91 93 93 96 99 101 101 103 103 105 104 106 111 111 110 112 110 112 114 115 115 114 118 123 125 125 133 127 127 130 133 131 133 -193 136 136 927 -193 -193 -193 136 -193 130 131 132 -177 -177 -177 -177 432 433 334 -177 -209 -177 -209 -193 -209 -193 -193 -193 245 248 -193 174 182 180 179 179 179 181 179 180 181 -193 183 186 187 -193 -193 188 0 0 0 0 0
    0 0 0 0 0 0 0 0 0 0 0 0 0 0 0 0 0 0 0 0 0 0 0 0 0 0 0 0 0 0 0 0 0 0 0 0 0 0 0 0 0 0 0 0 0 0 0 0 0 0 0 0 0 0 0 0 0 0 0 0 0 0 0 0 0 0 0 0 0 49 46 43 43 39 39 39 40 41 43 40 39 38 38 39 39 39 38 39 38 37 37 36 36 35 35 34 31 29 30 29 31 30 31 29 30 29 29 32 33 32 32 32 33 32 32 32 30 30 30 29 32 34 38 36 37 35 35 36 35 35 34 32 33 33 32 32 28 27 23 20 19 13 11 11 11 13 12 14 13 12 13 14 14 16 14 14 13 14 14 14 13 13 11 11 10 10 10 9 9 9 9 9 11 12 12 11 14 16 15 18 21 23 24 31 30 33 32 34 36 36 36 39 38 42 47 45 45 47 48 48 47 48 50 47 53 54 56 64 61 62 67 64 65 67 68 68 68 71 70 69 74 75 73 73 75 74 76 81 85 86 84 86 86 88 91 93 94 96 100 101 102 104 103 105 104 106 110 111 110 112 110 112 114 115 115 114 118 123 124 124 132 127 127 130 133 130 133 -193 135 135 -193 -193 135 -193 136 -193 130 130 132 -177 -177 -177 -177 -177 -177 334 -177 -177 -177 -209 -209 -193 -193 162 -193 244 247 -193 171 181 179 178 178 179 182 180 180 181 -193 183 186 187 -193 -193 188 0 0 0 0 0
    0 0 0 0 0 0 0 0 0 0 0 0 0 0 0 0 0 0 0 0 0 0 0 0 0 0 0 0 0 0 0 0 0 0 0 0 0 0 0 0 0 0 0 0 0 0 0 0 0 0 0 0 0 0 0 0 0 0 0 0 0 0 0 0 0 0 0 0 0 54 51 43 44 40 39 39 40 41 41 40 39 38 38 39 39 39 38 39 38 37 37 36 36 36 36 35 32 30 31 29 32 32 31 30 30 30 29 33 35 33 32 32 34 32 32 32 30 29 30 30 32 33 38 36 37 36 35 36 35 35 34 33 34 34 33 32 28 28 23 21 20 14 11 11 11 13 13 14 14 13 15 16 15 18 15 15 14 14 14 14 13 14 11 12 11 11 11 10 9 9 9 9 11 13 12 12 13 16 16 18 21 22 23 31 30 33 32 34 36 35 35 38 36 41 46 44 45 47 48 48 47 48 50 47 54 55 56 65 62 62 67 64 65 67 68 68 67 70 70 68 73 74 73 73 75 75 79 84 88 89 86 87 89 91 93 97 97 98 100 101 102 104 104 105 105 107 110 112 111 112 110 112 115 115 115 115 119 123 125 125 132 127 127 129 132 130 132 -193 135 134 -193 135 135 -193 136 135 129 129 131 -177 -177 -177 -177 -177 -177 -177 -193 96 -193 -193 -193 -193 -193 162 -193 -193 -193 -193 169 179 176 177 177 178 182 180 180 181 -193 183 186 187 187 -193 188 0 0 0 0 0
    0 0 0 0 0 0 0 0 0 0 0 0 0 0 0 0 0 0 0 0 0 0 0 0 0 0 0 0 0 0 0 0 0 0 0 0 0 0 0 0 0 0 0 0 0 0 0 0 0 0 0 0 0 0 0 0 0 0 0 0 0 0 0 0 0 0 0 0 0 58 57 44 45 41 39 40 40 41 40 40 39 38 38 38 38 38 38 39 38 38 37 37 36 36 36 35 32 31 31 30 32 32 32 30 31 30 30 34 36 34 33 33 35 33 32 33 30 28 29 30 31 31 39 37 37 36 35 37 34 34 34 32 34 34 33 33 29 29 24 23 23 16 11 12 12 14 16 16 16 16 18 19 17 19 16 15 14 14 14 14 14 14 12 13 13 15 13 13 12 12 11 11 12 15 13 14 13 16 15 17 20 20 22 31 29 33 31 34 35 34 35 37 34 42 46 45 45 48 48 48 47 48 50 47 53 54 55 64 61 62 67 64 65 66 67 67 66 68 68 66 72 71 72 72 74 76 80 87 90 90 89 89 90 93 95 99 99 100 100 100 101 103 103 105 104 106 109 112 112 113 111 112 115 116 115 115 119 124 126 126 133 127 127 129 132 129 132 135 134 134 -193 135 135 -193 137 135 128 130 132 -177 -193 -177 -177 -177 -177 -177 -193 93 91 -193 -193 -193 -193 162 162 162 -193 164 168 175 173 175 175 177 182 180 180 181 -193 183 186 187 186 -193 188 0 0 0 0 0
    0 0 0 0 0 0 0 0 0 0 0 0 0 0 0 0 0 0 0 0 0 0 0 0 0 0 0 0 0 0 0 0 0 0 0 0 0 0 0 0 0 0 0 0 0 0 0 0 0 0 0 0 0 0 0 0 0 0 0 0 0 0 0 0 0 0 0 0 0 59 59 46 46 41 39 39 39 40 39 39 38 38 38 38 38 38 38 39 38 38 37 37 36 36 36 35 33 31 30 30 32 32 31 31 31 32 31 34 36 34 34 35 35 34 33 34 31 29 30 31 32 32 39 37 37 36 36 37 34 34 35 32 33 34 34 33 29 29 25 25 24 18 12 13 14 17 19 19 19 20 20 20 18 20 17 16 14 15 14 14 14 15 12 15 16 19 17 19 15 14 15 13 15 18 14 15 13 15 15 16 19 20 22 32 29 33 31 33 34 33 35 37 32 41 45 44 45 47 48 48 47 48 50 46 54 54 56 66 62 63 68 64 66 65 67 67 65 68 68 65 71 71 73 72 74 79 83 88 90 90 89 89 91 95 96 99 99 99 100 99 101 103 103 105 105 107 109 113 112 112 111 112 115 116 116 115 118 124 125 125 132 127 127 129 132 130 131 134 134 133 -193 135 135 133 136 135 128 130 132 -209 139 -193 -193 -177 -209 -193 -177 -193 -177 160 162 -193 161 162 161 161 164 163 167 172 172 173 173 176 182 180 179 181 181 183 186 186 186 -193 187 0 0 0 0 0
    0 0 0 0 0 0 0 0 0 0 0 0 0 0 0 0 0 0 0 0 0 0 0 0 0 0 0 0 0 0 0 0 0 0 0 0 0 0 0 0 0 0 0 0 0 0 0 0 0 0 0 0 0 0 0 0 0 0 0 0 0 0 0 0 0 0 0 0 0 60 60 51 48 43 39 39 39 40 38 39 38 37 38 38 38 38 37 39 38 38 37 36 36 36 36 35 33 31 29 30 32 32 31 31 31 32 31 35 35 34 34 35 35 34 33 35 30 30 31 31 31 33 39 37 36 35 35 36 34 34 34 32 33 34 33 32 29 30 27 24 24 17 14 16 16 19 21 21 21 21 22 21 19 20 17 16 14 15 14 14 14 15 13 16 18 21 19 20 17 16 16 14 15 18 14 15 13 15 15 16 20 19 22 33 30 34 32 34 34 33 35 37 34 41 45 44 45 48 48 48 46 47 49 47 55 55 56 67 63 64 68 64 66 65 67 67 65 68 68 66 71 71 74 73 75 77 78 85 88 87 85 -193 89 92 -193 95 95 96 97 97 100 103 104 105 105 108 111 114 112 113 111 112 116 116 116 115 117 123 124 124 131 126 126 128 131 130 131 134 134 132 136 135 135 133 136 135 127 130 133 136 139 -193 -209 -193 -177 -177 -177 -193 -193 159 161 162 160 161 161 160 163 162 166 171 170 172 172 175 182 179 179 180 181 183 185 186 185 -193 187 0 0 0 0 0
    0 0 0 0 0 0 0 0 0 0 0 0 0 0 0 0 0 0 0 0 0 0 0 0 0 0 0 0 0 0 0 0 0 0 0 0 0 0 0 0 0 0 0 0 0 0 0 0 0 0 0 0 0 0 0 0 0 0 0 0 0 0 0 0 0 0 0 0 0 61 61 57 50 46 39 40 39 40 38 39 38 37 38 38 38 38 37 39 38 38 37 36 36 35 36 35 33 30 29 30 32 32 30 31 31 32 31 35 35 34 34 35 35 34 33 35 30 30 32 31 32 34 38 37 36 35 35 36 35 34 35 33 33 34 34 33 30 31 28 24 23 18 16 19 19 20 21 22 22 22 22 22 19 20 17 16 14 14 13 14 14 15 12 17 19 22 20 21 18 16 17 14 16 17 14 15 13 14 14 16 20 19 22 34 30 34 32 34 34 32 35 37 33 41 44 44 45 49 49 49 48 49 51 49 57 57 58 68 63 -193 68 65 67 65 66 66 65 68 68 65 71 70 73 74 75 76 75 78 81 77 74 75 76 -209 -209 -193 92 94 95 95 99 103 104 105 106 109 111 114 112 112 111 112 116 116 115 115 115 123 123 123 131 126 126 127 130 129 131 134 133 132 136 135 135 134 136 136 129 132 135 139 140 -193 -193 -177 -177 -177 -177 -193 157 159 161 161 161 162 162 161 163 163 166 170 170 171 171 175 182 180 179 180 181 183 185 186 185 183 186 0 0 0 0 0
    0 0 0 0 0 0 0 0 0 0 0 0 0 0 0 0 0 0 0 0 0 0 0 0 0 0 0 0 0 0 0 0 0 0 0 0 0 0 0 0 0 0 0 0 0 0 0 0 0 0 0 0 0 0 0 0 0 0 0 0 0 0 0 0 0 0 0 0 0 63 63 58 51 45 39 39 39 40 38 39 38 38 38 38 38 38 37 39 38 37 36 36 35 35 35 35 33 30 29 30 32 32 30 31 30 32 31 35 34 33 33 35 34 34 33 34 30 31 33 31 31 34 38 37 35 35 35 36 35 35 35 33 34 35 35 33 31 32 28 24 23 19 20 22 21 21 23 24 24 24 24 22 19 21 17 16 13 14 13 14 14 15 13 18 21 23 20 22 18 16 17 15 15 16 13 13 12 14 13 15 20 20 23 34 30 34 32 35 34 33 34 36 32 41 44 44 46 50 51 52 51 51 53 52 57 57 58 -193 -193 -193 68 65 67 65 66 66 65 68 68 66 71 70 74 76 76 76 75 77 79 76 74 75 74 77 -193 -209 92 93 93 94 99 103 105 105 106 108 110 114 112 112 110 111 115 115 113 113 114 122 123 123 131 126 126 127 130 129 130 134 133 131 136 135 136 134 137 138 133 136 139 142 143 -193 -193 -177 -177 -177 -177 -193 157 158 160 161 160 162 162 161 163 163 166 170 170 171 171 175 182 180 180 180 180 184 185 185 185 182 186 0 0 0 0 0
    0 0 0 0 0 0 0 0 0 0 0 0 0 0 0 0 0 0 0 0 0 0 0 0 0 0 0 0 0 0 0 0 0 0 0 0 0 0 0 0 0 0 0 0 0 0 0 0 0 0 0 0 0 0 0 0 0 0 0 0 0 0 0 0 0 0 0 0 0 65 64 58 49 -193 39 38 38 39 38 40 39 38 38 38 38 39 38 39 39 37 36 35 35 35 35 35 33 29 30 30 32 32 31 32 31 32 31 34 33 32 33 35 34 34 32 34 31 31 33 32 30 31 36 36 34 34 35 36 35 35 35 34 34 35 35 34 31 34 29 25 25 21 23 24 24 23 25 27 27 27 25 24 20 21 18 17 14 15 13 15 15 17 14 20 22 24 22 22 19 17 18 16 15 16 13 14 13 16 15 17 22 24 25 34 31 35 33 35 34 33 34 36 32 40 43 44 46 51 52 52 52 52 53 53 57 57 58 67 63 63 68 65 67 65 66 66 65 68 68 65 71 68 73 74 75 74 72 74 76 74 73 77 80 -193 -193 91 92 94 94 95 98 102 104 104 105 107 108 113 111 111 110 109 113 113 111 112 113 121 122 123 130 127 127 128 130 130 130 134 133 130 136 135 136 134 137 138 134 138 141 144 -193 -177 -177 -177 -177 -177 -177 -193 156 157 158 159 160 162 162 161 163 163 166 170 170 171 171 175 182 180 180 180 180 183 185 185 184 182 186 0 0 0 0 0
    0 0 0 0 0 0 0 0 0 0 0 0 0 0 0 0 0 0 0 0 0 0 0 0 0 0 0 0 0 0 0 0 0 0 0 0 0 0 0 0 0 0 0 0 0 0 0 0 0 0 0 0 0 0 0 0 0 0 0 0 0 0 0 0 0 0 0 0 0 65 63 58 47 -193 39 39 38 39 38 40 40 39 39 39 39 39 39 40 39 37 36 36 35 35 35 35 34 30 30 31 33 33 31 32 31 32 31 34 33 32 33 34 34 34 32 35 31 32 33 31 29 30 33 36 33 33 35 36 34 35 36 34 34 35 35 34 31 36 30 26 33 24 27 26 27 25 27 30 28 28 26 25 21 21 19 17 14 15 14 17 17 18 17 21 24 24 23 23 20 18 18 16 15 17 14 15 14 17 17 19 23 24 25 33 30 34 32 35 34 33 34 36 33 40 -193 44 47 52 52 53 53 52 53 53 56 56 57 66 62 63 67 64 67 65 66 66 64 67 67 64 69 63 72 73 73 71 66 69 63 61 66 -193 74 90 -193 92 93 94 94 95 97 100 102 102 103 105 106 111 110 110 110 108 111 111 110 111 113 121 122 122 129 127 127 128 130 130 130 133 132 130 134 135 135 133 136 139 136 139 142 145 146 -193 -177 -177 -177 -177 -177 -177 -193 156 157 158 159 161 163 161 163 163 166 170 170 171 171 176 181 180 180 181 180 184 185 185 184 182 185 0 0 0 0 0
    0 0 0 0 0 0 0 0 0 0 0 0 0 0 0 0 0 0 0 0 0 0 0 0 0 0 0 0 0 0 0 0 0 0 0 0 0 0 0 0 0 0 0 0 0 0 0 0 0 0 0 0 0 0 0 0 0 0 0 0 0 0 0 0 0 0 0 0 0 65 64 58 42 41 39 39 38 39 38 41 40 40 40 40 39 39 39 40 39 37 36 35 35 35 35 35 33 29 30 31 33 33 31 32 31 32 31 33 33 32 33 35 34 34 33 35 32 33 34 31 29 30 33 35 33 34 35 36 34 36 36 34 34 36 35 34 31 36 31 26 39 33 33 32 31 30 30 33 30 29 27 26 21 21 20 17 14 15 13 18 19 21 21 24 27 27 25 25 22 20 20 17 16 18 15 17 15 19 20 21 25 26 26 33 31 34 33 35 34 34 35 37 34 39 41 43 45 51 51 52 52 52 52 53 56 56 56 65 62 62 67 64 67 65 66 66 63 67 67 63 69 62 73 74 74 73 66 73 -209 -209 67 -209 90 93 92 95 95 94 94 94 95 98 102 102 103 105 106 111 110 110 110 108 110 110 109 110 114 121 122 122 128 127 127 128 130 130 129 133 132 129 133 134 134 132 135 139 137 140 143 145 146 -193 -193 -193 -193 -193 -193 -193 154 155 156 157 159 161 162 161 163 163 166 169 170 171 171 176 181 180 181 181 181 184 186 186 185 183 185 0 0 0 0 0
    0 0 0 0 0 0 0 0 0 0 0 0 0 0 0 0 0 0 0 0 0 0 0 0 0 0 0 0 0 0 0 0 0 0 0 0 0 0 0 0 0 0 0 0 0 0 0 0 0 0 0 0 0 0 0 0 0 0 0 0 0 0 0 0 0 0 0 0 0 65 64 59 45 42 39 40 39 39 39 41 41 41 41 41 40 40 40 40 39 37 36 35 35 35 34 34 33 29 30 31 33 33 31 33 32 33 32 33 32 33 33 35 34 35 34 36 33 36 36 34 30 32 34 36 33 34 35 36 35 35 36 34 33 35 35 33 31 35 32 28 41 38 37 36 34 34 34 35 32 30 28 28 24 -193 -209 -209 14 16 -209 -209 -177 -209 -193 -193 -193 33 34 27 22 21 21 19 17 19 16 19 17 21 22 23 27 29 28 34 32 35 34 35 35 35 36 38 37 40 42 44 46 50 50 51 51 51 52 53 56 56 56 65 62 62 67 64 67 65 66 65 63 67 67 63 69 60 72 73 73 73 67 73 -209 -209 67 -193 -209 -193 -209 -193 90 89 90 91 93 95 99 98 101 103 105 109 109 109 110 108 109 110 109 109 114 120 121 121 127 127 127 128 129 130 129 133 133 130 134 134 135 134 135 139 138 141 143 145 146 -193 146 150 149 151 -193 152 153 154 155 156 157 160 162 161 162 163 165 168 170 171 171 176 181 180 180 181 181 184 186 186 185 184 186 0 0 0 0 0
    0 0 0 0 0 0 0 0 0 0 0 0 0 0 0 0 0 0 0 0 0 0 0 0 0 0 0 0 0 0 0 0 0 0 0 0 0 0 0 0 0 0 0 0 0 0 0 0 0 0 0 0 0 0 0 0 0 0 0 0 0 0 0 0 0 0 0 0 0 65 64 59 47 43 40 41 40 40 40 42 43 42 42 42 40 41 41 40 39 36 36 35 35 35 34 34 33 29 32 33 35 35 33 34 32 34 32 34 32 33 33 35 35 36 34 37 34 39 39 36 32 34 35 36 34 35 36 36 35 35 36 33 32 34 34 32 30 34 33 29 42 40 39 38 35 34 33 32 30 29 27 -225 -225 -225 -225 -225 21 -209 -209 -209 160 173 174 174 175 175 -225 -225 -225 21 22 20 18 19 17 20 20 23 25 25 30 32 30 34 32 35 34 35 35 35 37 39 38 41 43 44 46 50 49 50 50 51 52 52 55 55 56 65 62 63 67 64 67 65 66 66 63 67 66 62 69 62 73 74 74 74 71 75 76 -193 72 -193 -209 -209 82 87 -193 85 88 90 92 92 93 93 95 101 105 108 108 108 110 109 110 110 110 109 114 119 120 121 126 126 126 127 128 130 128 132 132 128 131 133 134 133 134 139 139 142 145 146 147 147 148 151 150 152 153 152 153 153 155 155 157 160 162 161 162 163 165 168 170 171 171 176 180 179 181 181 181 184 186 186 186 184 186 0 0 0 0 0
    0 0 0 0 0 0 0 0 0 0 0 0 0 0 0 0 0 0 0 0 0 0 0 0 0 0 0 0 0 0 0 0 0 0 0 0 0 0 0 0 0 0 0 0 0 0 0 0 0 0 0 0 0 0 0 0 0 0 0 0 0 0 0 0 0 0 0 0 0 65 64 58 46 44 42 42 42 42 42 44 44 43 43 43 41 41 41 41 39 36 36 35 35 35 34 34 33 30 35 35 37 38 36 36 35 35 33 34 32 33 32 35 35 35 35 36 34 39 39 36 34 34 35 36 35 36 36 36 35 36 36 34 34 35 34 32 32 36 35 37 43 42 40 39 36 35 34 32 30 28 -225 -225 -225 -225 -225 -225 -225 -225 -225 -225 -225 -225 -225 -225 -225 -225 -225 -225 -225 -225 -225 -225 -225 -225 -225 -225 -209 27 31 29 32 33 31 34 32 35 34 36 35 36 37 39 38 40 43 44 46 50 49 50 50 51 52 52 55 55 55 64 62 62 67 64 67 66 66 66 63 67 67 62 69 63 71 73 73 73 73 78 83 80 79 81 84 -193 88 89 89 86 88 90 91 91 90 92 93 101 106 108 108 108 111 109 110 110 109 109 113 118 119 120 125 127 127 127 128 129 128 132 131 127 131 131 134 135 137 140 141 145 147 149 149 150 150 152 152 153 153 153 153 154 155 155 157 160 162 162 162 163 166 168 170 171 171 177 180 179 181 181 181 184 186 186 186 185 186 0 0 0 0 0
    0 0 0 0 0 0 0 0 0 0 0 0 0 0 0 0 0 0 0 0 0 0 0 0 0 0 0 0 0 0 0 0 0 0 0 0 0 0 0 0 0 0 0 0 0 0 0 0 0 0 0 0 0 0 0 0 0 0 0 0 0 0 0 0 0 0 0 0 0 65 63 57 46 44 42 43 43 43 42 44 45 44 44 45 42 42 42 41 39 36 36 35 34 34 34 34 33 30 36 36 38 40 38 38 37 37 35 35 33 33 31 35 37 37 37 37 36 38 39 37 34 33 34 34 35 37 38 36 36 37 37 36 36 36 35 34 36 38 38 42 45 43 41 39 37 36 34 32 30 -225 -225 -225 -225 -225 -225 -225 -225 -225 -225 -225 -225 -225 -225 -225 -225 -225 -225 -225 -225 -225 -225 -225 -225 -225 -225 -225 -225 34 35 31 32 33 31 33 33 35 35 36 35 36 37 39 39 40 43 44 46 50 49 50 50 51 52 52 55 55 55 63 61 62 66 64 66 66 66 66 63 67 67 62 69 63 69 70 70 70 70 75 76 76 78 84 90 91 90 90 91 89 88 90 91 90 -193 -193 92 101 106 107 107 107 111 109 109 110 109 109 114 117 118 118 124 126 127 127 127 128 127 130 129 125 128 126 131 135 139 142 144 148 149 150 150 151 151 153 152 153 153 153 153 154 155 155 157 160 162 162 162 163 166 168 170 171 171 177 180 180 181 181 182 184 186 186 186 186 187 0 0 0 0 0
    0 0 0 0 0 0 0 0 0 0 0 0 0 0 0 0 0 0 0 0 0 0 0 0 0 0 0 0 0 0 0 0 0 0 0 0 0 0 0 0 0 0 0 0 0 0 0 0 0 0 0 0 0 0 0 0 0 0 0 0 0 0 0 0 0 0 0 0 0 65 61 55 47 44 43 43 44 44 43 47 49 46 46 47 44 43 43 42 39 36 36 35 34 34 34 34 32 31 37 37 39 42 39 39 38 38 37 37 37 36 31 38 40 41 40 39 38 39 39 38 34 30 33 33 37 40 39 37 37 38 37 37 38 37 37 37 41 42 43 46 47 44 41 39 38 37 36 34 31 -225 -225 -225 -225 -225 -225 -225 -225 -225 -225 -225 -225 -225 -225 -225 -225 -225 -225 -225 -225 -225 -225 -225 -225 -225 -225 -225 -225 -225 37 33 33 34 33 34 34 36 35 36 36 36 37 39 40 40 43 44 45 49 48 49 50 51 52 51 54 54 55 62 61 61 66 63 66 65 66 66 63 67 67 62 69 65 70 69 69 69 69 74 72 74 77 81 90 93 92 92 93 90 89 91 91 -193 88 -193 91 102 107 108 108 108 112 109 110 110 110 109 114 117 118 117 123 127 128 128 128 127 126 128 127 125 126 124 125 125 -209 -209 143 148 150 151 151 152 152 154 153 153 153 153 153 154 155 155 158 160 162 162 163 164 166 168 170 171 171 176 179 179 181 181 182 185 186 186 186 186 187 0 0 0 0 0
    0 0 0 0 0 0 0 0 0 0 0 0 0 0 0 0 0 0 0 0 0 0 0 0 0 0 0 0 0 0 0 0 0 0 0 0 0 0 0 0 0 0 0 0 0 0 0 0 0 0 0 0 0 0 0 0 0 0 0 0 0 0 0 0 0 0 0 0 0 62 57 54 48 46 45 45 45 46 45 50 51 50 48 51 48 44 45 42 39 36 36 35 34 35 35 33 33 35 38 38 41 43 40 40 39 39 38 38 39 38 34 41 42 43 42 41 39 40 40 41 37 30 35 35 39 44 41 40 38 39 41 41 43 43 42 44 46 47 49 49 47 43 41 41 39 38 37 35 -225 -225 -225 -225 -225 -225 -225 -225 -225 -225 -225 -225 -225 -225 -225 -225 -225 -225 -225 -225 -225 -225 -225 -225 -225 -225 -225 -225 -225 -225 38 35 34 34 33 34 35 37 36 37 37 37 39 40 40 40 42 44 44 47 47 48 48 50 51 51 52 53 54 62 61 61 66 63 65 65 66 66 63 67 67 63 69 67 72 71 71 73 73 77 75 77 77 76 89 91 90 90 91 91 90 93 93 92 -193 91 93 103 108 108 108 109 114 111 111 111 111 110 115 117 117 115 123 127 128 128 128 127 126 128 127 125 126 124 124 123 -193 -193 -209 -193 -193 148 150 152 153 154 154 154 154 153 153 154 155 155 159 161 163 163 164 165 167 169 170 170 171 175 176 178 180 181 182 -193 186 186 186 187 187 0 0 0 0 0
    0 0 0 0 0 0 0 0 0 0 0 0 0 0 0 0 0 0 0 0 0 0 0 0 0 0 0 0 0 0 0 0 0 0 0 0 0 0 0 0 0 0 0 0 0 0 0 0 0 0 0 0 0 0 0 0 0 0 0 0 0 0 0 0 0 0 0 0 0 60 57 55 50 49 47 47 49 49 47 52 52 53 49 52 48 43 45 41 39 37 37 36 35 36 36 33 35 39 41 40 42 44 41 41 40 41 39 40 41 40 37 42 44 44 43 42 40 40 40 43 -209 34 -193 -193 44 52 45 42 40 40 42 43 44 44 43 45 47 48 49 48 46 43 42 42 41 40 39 -225 -225 -225 -225 -225 -225 -225 -225 -225 -225 -225 -225 -225 -225 -225 -225 -225 -225 -225 -225 -225 -225 -225 -225 -225 -225 -225 -225 -225 -225 -225 -225 36 35 34 34 33 35 36 36 37 37 38 40 41 41 40 42 44 43 46 46 47 48 49 50 50 52 53 55 63 61 61 66 63 65 65 66 66 64 67 67 64 70 69 73 73 73 75 76 81 80 82 81 81 87 88 88 87 85 86 87 90 90 90 -193 91 95 104 111 108 109 109 115 112 112 112 111 110 115 117 117 112 122 124 127 127 127 126 125 126 125 125 126 125 125 124 -193 123 137 138 139 140 142 148 151 152 153 153 154 154 154 155 156 157 162 163 164 165 166 167 169 170 171 171 172 175 176 178 180 181 183 -193 186 186 187 187 187 0 0 0 0 0
    0 0 0 0 0 0 0 0 0 0 0 0 0 0 0 0 0 0 0 0 0 0 0 0 0 0 0 0 0 0 0 0 0 0 0 0 0 0 0 0 0 0 0 0 0 0 0 0 0 0 0 0 0 0 0 0 0 0 0 0 0 0 0 0 0 0 0 0 0 60 57 55 50 51 48 48 50 51 50 54 53 53 51 52 53 48 47 42 40 37 35 36 33 32 35 31 37 -209 -193 41 43 45 43 42 41 41 40 40 42 41 39 42 46 46 45 45 -209 -209 -193 -209 -209 -209 -193 -209 50 54 49 45 42 42 44 45 46 46 45 48 49 49 48 48 46 44 44 44 43 42 -225 -225 -225 -225 -225 -225 -225 -225 -225 -225 -225 -225 -225 -225 -225 -225 -225 -225 -225 -225 -225 -225 -225 -225 -225 -225 -225 -225 -225 -225 -225 -225 -225 35 36 34 34 34 35 37 38 39 39 40 41 42 42 42 43 44 43 46 45 46 47 49 50 50 51 53 55 64 61 61 66 63 66 65 66 66 64 67 68 65 71 71 73 73 73 76 77 82 81 83 80 80 85 86 81 79 78 77 77 85 86 80 78 89 95 106 112 109 109 110 115 112 113 112 112 110 115 117 117 112 122 123 126 126 126 126 125 126 125 125 127 126 126 125 125 125 137 139 139 140 140 144 149 150 153 153 152 152 153 155 156 157 163 165 166 167 168 169 170 171 171 172 172 174 175 178 180 181 183 -193 186 186 187 188 188 0 0 0 0 0
    0 0 0 0 0 0 0 0 0 0 0 0 0 0 0 0 0 0 0 0 0 0 0 0 0 0 0 0 0 0 0 0 0 0 0 0 0 0 0 0 0 0 0 0 0 0 0 0 0 0 0 0 0 0 0 0 0 0 0 0 0 0 0 0 0 0 0 0 0 60 56 55 51 51 49 49 51 52 51 54 53 53 52 53 54 54 50 47 43 38 35 36 36 32 36 33 37 -209 -209 -193 42 44 43 42 41 42 41 41 43 43 41 42 47 47 46 49 42 -209 -209 -209 -209 -209 -193 64 -209 55 52 49 46 45 47 47 48 47 47 49 50 48 48 48 46 46 46 45 44 -225 -225 -225 -225 -225 -225 -225 -225 -225 -225 -225 -225 -225 -225 -225 -225 -225 -225 -225 -225 -225 -225 -225 -225 -225 -225 -225 -225 -225 -225 -225 -225 -225 -225 -225 36 35 35 35 36 37 38 39 39 39 40 41 41 41 43 44 43 46 45 46 47 50 51 50 51 53 55 63 60 61 66 63 66 65 66 66 64 68 68 66 71 71 73 73 73 76 77 82 81 84 81 81 85 86 83 84 84 84 83 89 89 90 84 89 96 107 113 110 110 110 115 112 113 113 112 111 115 116 116 111 121 121 124 125 125 125 125 125 125 125 127 126 126 127 133 130 137 138 139 139 139 142 147 148 150 150 149 150 152 153 154 155 162 165 167 169 169 171 172 172 172 172 172 174 175 177 180 181 -193 -193 -193 186 187 188 189 0 0 0 0 0
    0 0 0 0 0 0 0 0 0 0 0 0 0 0 0 0 0 0 0 0 0 0 0 0 0 0 0 0 0 0 0 0 0 0 0 0 0 0 0 0 0 0 0 0 0 0 0 0 0 0 0 0 0 0 0 0 0 0 0 0 0 0 0 0 0 0 0 0 0 59 55 54 51 51 49 49 51 52 50 53 51 52 51 51 52 53 51 52 50 50 -193 42 47 -209 42 42 -209 -209 -209 -209 44 46 45 44 42 43 42 42 44 44 41 43 46 49 48 55 -193 59 -193 59 61 60 63 65 59 56 55 53 51 49 50 49 50 49 49 50 50 48 48 47 47 46 46 46 -225 -225 -225 -225 -225 -225 -225 -225 -225 -225 -225 -225 -225 -225 -225 -225 -225 -225 -225 -225 -225 -225 -225 -225 -225 -225 -225 -225 -225 -225 -225 -225 -225 -225 -225 -225 -225 -225 -225 32 31 31 31 35 31 28 29 35 37 38 42 44 43 45 45 46 48 50 51 50 50 53 55 63 60 60 65 63 65 65 67 66 65 68 68 67 72 72 74 74 74 77 78 83 82 85 84 85 87 89 88 87 87 88 86 89 88 89 83 88 96 110 115 110 111 111 115 113 113 113 112 111 115 115 115 110 121 119 123 124 125 123 124 124 123 123 125 124 124 124 131 128 135 137 137 138 137 140 144 146 149 150 149 150 151 152 153 155 161 165 169 170 170 172 174 175 174 174 174 176 177 179 180 -193 183 185 186 187 188 189 189 0 0 0 0 0
    0 0 0 0 0 0 0 0 0 0 0 0 0 0 0 0 0 0 0 0 0 0 0 0 0 0 0 0 0 0 0 0 0 0 0 0 0 0 0 0 0 0 0 0 0 0 0 0 0 0 0 0 0 0 0 0 0 0 0 0 0 0 0 0 0 0 0 0 0 59 56 54 50 50 49 48 50 52 49 52 51 52 52 52 53 54 53 55 54 0 -256 -1 -6185 55 46 47 -209 -209 -209 -209 -209 44 45 45 42 43 42 43 44 44 41 41 41 48 46 -193 -193 62 -193 60 62 60 62 64 57 56 55 55 53 52 52 52 52 51 50 50 50 48 48 47 46 46 -225 -225 -225 -225 -225 -225 -225 -225 -225 -225 -225 -225 -225 -225 -225 -225 -225 -225 -225 -225 -225 -225 -225 -225 -225 -225 -225 -225 -225 -225 -225 -225 -225 -225 -225 -225 -225 -225 -225 -225 -225 -225 -225 -225 -225 -225 29 27 29 33 36 37 41 44 43 46 46 47 49 50 51 51 50 52 54 61 59 60 64 62 65 65 67 67 65 69 69 68 72 73 74 74 75 77 77 83 82 86 84 87 88 90 89 89 88 89 88 90 89 91 83 88 97 110 115 110 111 112 115 112 113 113 112 110 114 115 115 110 120 120 124 125 126 124 125 125 123 124 127 125 124 126 134 133 135 134 135 135 135 137 138 140 144 146 147 149 150 151 152 154 162 166 168 169 170 172 174 175 174 174 173 177 178 180 181 182 183 185 186 187 189 190 190 0 0 0 0 0
    0 0 0 0 0 0 0 0 0 0 0 0 0 0 0 0 0 0 0 0 0 0 0 0 0 0 0 0 0 0 0 0 0 0 0 0 0 0 0 0 0 0 0 0 0 0 0 0 0 0 0 0 0 0 0 0 0 0 0 0 0 0 0 0 0 0 0 0 0 60 57 55 50 49 47 47 49 51 48 52 50 52 52 53 54 55 54 55 54 55 57 55 54 54 47 48 -209 -209 -209 -193 76 -209 -209 49 -193 44 43 44 45 45 42 -193 -193 48 45 -193 59 63 -193 59 60 59 59 62 58 58 57 56 55 55 55 54 54 53 51 51 50 49 48 47 46 -225 -225 -225 -225 -225 -225 -225 -225 -225 -225 -225 -225 -225 -225 -225 -225 -225 -225 -225 -225 -225 -225 -225 -225 -225 -225 -225 -225 -225 -225 -225 -225 -225 -225 -225 -225 -225 -225 -225 -225 -225 -225 -225 -225 -225 -225 -225 -225 -225 33 38 40 40 44 48 45 47 49 50 50 51 51 51 51 53 55 61 59 60 65 62 65 65 67 67 66 69 69 69 73 74 75 75 76 78 78 83 83 86 85 87 88 89 89 89 89 90 89 91 92 94 91 93 97 105 113 109 109 112 114 112 113 113 113 110 115 115 115 113 120 120 121 124 125 124 124 124 123 124 125 125 123 125 133 130 131 127 130 131 130 130 130 131 136 138 141 146 149 149 152 156 164 168 169 169 170 171 173 174 173 173 172 176 176 179 180 182 184 185 187 188 191 191 191 0 0 0 0 0
    0 0 0 0 0 0 0 0 0 0 0 0 0 0 0 0 0 0 0 0 0 0 0 0 0 0 0 0 0 0 0 0 0 0 0 0 0 0 0 0 0 0 0 0 0 0 0 0 0 0 0 0 0 0 0 0 0 0 0 0 0 0 0 0 0 0 0 0 0 60 57 56 50 49 47 47 48 50 47 50 49 51 52 52 53 55 54 55 54 55 56 55 55 55 51 51 -209 -193 74 76 77 79 -209 -209 51 48 45 44 45 44 43 40 -193 43 41 54 59 63 58 59 60 60 60 64 65 61 59 59 58 58 57 57 56 54 52 51 50 48 47 -225 -225 -225 -225 -225 -225 -225 -225 -225 -225 -225 -225 -225 -225 -225 -225 -225 -225 -225 -225 -225 -225 -225 -225 -225 -225 -225 -225 -225 -225 -225 -225 -225 -225 -225 -225 -225 -225 -225 -225 -225 -225 -225 -225 -225 -225 -225 -225 -225 -225 -225 -225 40 45 42 48 53 48 50 51 52 51 52 52 52 52 54 55 62 59 60 65 63 65 65 67 67 66 70 70 69 73 74 75 75 76 79 79 84 84 86 86 87 88 88 88 89 88 90 90 91 94 97 96 97 99 104 111 109 109 112 114 112 113 113 113 111 115 116 115 114 120 120 121 123 126 124 124 125 124 125 126 126 125 125 133 130 132 129 132 134 134 133 134 134 137 140 141 146 149 150 152 157 166 169 169 170 170 171 172 173 172 172 171 174 173 177 179 180 183 185 187 189 192 191 192 0 0 0 0 0
    0 0 0 0 0 0 0 0 0 0 0 0 0 0 0 0 0 0 0 0 0 0 0 0 0 0 0 0 0 0 0 0 0 0 0 0 0 0 0 0 0 0 0 0 0 0 0 0 0 0 0 0 0 0 0 0 0 0 0 0 0 0 0 0 0 0 0 0 0 60 58 58 52 50 49 49 50 50 48 50 49 51 52 52 53 54 54 55 54 56 57 56 56 57 54 -193 -193 76 75 76 76 76 -193 56 55 52 50 46 47 45 46 45 47 44 40 -193 61 64 59 59 59 59 61 64 63 61 60 60 60 59 59 58 57 54 53 52 51 49 -225 -225 -225 -225 -225 -225 -225 -225 -225 -225 -225 -225 -225 -225 -225 -225 -225 -225 -225 -225 -225 -225 -225 -225 -225 -225 -225 -225 -225 -225 -225 -225 -225 -225 -225 -225 -225 -225 -225 -225 -225 -225 -225 -225 -225 -225 -225 -225 -225 -225 -225 -225 -225 -225 53 48 53 55 53 53 53 54 53 53 54 53 53 55 56 62 60 60 65 62 65 65 66 67 66 70 70 69 73 75 75 76 76 79 80 85 85 87 87 88 88 88 88 89 89 90 90 92 95 97 97 98 99 103 110 108 109 112 114 113 113 113 113 111 115 115 115 114 120 120 121 122 127 125 125 126 125 129 130 131 129 129 136 135 135 133 133 135 135 135 136 136 139 143 143 147 150 149 152 156 165 168 169 169 170 171 172 173 171 172 172 174 173 176 178 179 182 185 186 188 190 190 190 0 0 0 0 0
    0 0 0 0 0 0 0 0 0 0 0 0 0 0 0 0 0 0 0 0 0 0 0 0 0 0 0 0 0 0 0 0 0 0 0 0 0 0 0 0 0 0 0 0 0 0 0 0 0 0 0 0 0 0 0 0 0 0 0 0 0 0 0 0 0 0 0 0 0 61 59 59 55 52 52 52 52 51 49 50 49 50 52 51 53 54 54 54 54 56 57 56 56 57 55 -193 -193 76 73 73 74 74 -193 62 58 55 51 50 50 47 52 47 52 -209 40 63 63 62 -193 57 58 58 59 61 60 60 60 60 60 59 59 58 57 55 54 53 52 -225 -225 -225 -225 -225 -225 -225 -225 -225 -225 -225 -225 -225 -225 -225 -225 -225 -225 -225 -225 -225 -225 -225 -225 -225 -225 -225 -225 -225 -225 -225 -225 -225 -225 -225 -225 -225 -225 -225 -225 -225 -225 -225 -225 -225 -225 -225 -225 -225 -225 -225 -225 -225 -225 -225 -225 53 54 56 55 54 56 56 55 55 56 55 55 57 58 62 60 61 65 62 65 65 66 67 66 70 70 69 73 74 75 76 76 79 80 85 85 88 87 89 88 89 89 90 90 91 91 92 96 97 97 98 99 103 109 108 109 112 113 112 113 113 114 111 115 116 115 116 120 120 121 122 126 125 125 126 125 129 130 131 131 131 137 137 137 137 135 137 136 136 136 137 141 143 142 146 149 148 152 154 157 162 162 165 166 169 171 173 170 173 172 175 175 178 179 180 182 184 185 187 189 189 189 0 0 0 0 0
    0 0 0 0 0 0 0 0 0 0 0 0 0 0 0 0 0 0 0 0 0 0 0 0 0 0 0 0 0 0 0 0 0 0 0 0 0 0 0 0 0 0 0 0 0 0 0 0 0 0 0 0 0 0 0 0 0 0 0 0 0 0 0 0 0 0 0 0 0 61 59 59 57 52 52 52 52 51 48 50 49 50 52 52 53 54 55 55 55 56 58 57 56 57 56 -193 75 75 72 73 73 73 73 67 65 -209 51 -209 -209 -209 -209 -209 -209 -209 -193 -209 59 58 54 56 58 58 59 60 59 60 60 60 59 59 59 58 57 57 56 -225 -225 -225 -225 -225 -225 -225 -225 -225 -225 -225 -225 -225 -225 -225 -225 -225 -225 -225 -225 -225 -225 -225 -225 -225 -225 -225 -225 -225 -225 -225 -225 -225 -225 -225 -225 -225 -225 -225 -225 -225 -225 -225 -225 -225 -225 -225 -225 -225 -225 -225 -225 -225 -225 -225 -225 -225 -225 55 55 57 55 55 57 57 56 56 57 57 57 59 59 63 61 62 66 63 65 65 66 67 66 69 70 69 74 75 76 76 77 80 80 86 85 88 88 89 89 90 90 91 91 92 92 93 96 98 98 98 99 103 108 108 109 112 112 112 113 114 115 113 115 116 116 118 120 121 121 122 124 125 125 126 125 128 130 131 131 131 137 139 138 140 138 142 141 143 144 145 147 149 144 144 145 143 147 146 -193 -193 153 156 159 165 167 -193 166 171 170 173 172 176 178 179 181 184 185 187 189 189 189 0 0 0 0 0
    0 0 0 0 0 0 0 0 0 0 0 0 0 0 0 0 0 0 0 0 0 0 0 0 0 0 0 0 0 0 0 0 0 0 0 0 0 0 0 0 0 0 0 0 0 0 0 0 0 0 0 0 0 0 0 0 0 0 0 0 0 0 0 0 0 0 0 0 0 62 61 60 57 54 54 53 53 51 47 49 49 50 52 52 54 55 56 56 56 57 58 58 57 58 59 -193 73 73 71 72 72 72 73 69 68 -209 -209 -209 -209 -209 -209 -209 -209 -193 -193 -209 -209 -193 53 56 57 58 59 60 60 60 60 60 60 59 59 58 58 57 -225 -225 -225 -225 -225 -225 -225 -225 -225 -225 -225 -225 -225 -225 -225 -225 -225 -225 -225 -225 -225 -225 -225 -225 -225 -225 -225 -225 -225 -225 -225 -225 -225 -225 -225 -225 -225 -225 -225 -225 -225 -225 -225 -225 -225 -225 -225 -225 -225 -225 -225 -225 -225 -225 -225 -225 -225 -225 -225 55 55 58 55 56 58 58 57 56 59 59 58 60 60 64 62 63 67 63 66 66 67 67 67 70 70 68 74 75 76 77 78 80 80 87 86 89 89 90 90 91 91 92 91 93 93 94 96 98 98 99 99 103 108 108 109 112 112 113 114 115 116 114 116 116 116 118 120 120 120 121 123 124 124 125 124 126 128 129 128 130 137 139 139 141 141 145 148 151 151 149 149 151 147 147 146 142 144 143 150 -193 149 153 155 160 162 158 163 -193 170 171 171 174 175 177 180 184 185 186 190 190 190 0 0 0 0 0
    0 0 0 0 0 0 0 0 0 0 0 0 0 0 0 0 0 0 0 0 0 0 0 0 0 0 0 0 0 0 0 0 0 0 0 0 0 0 0 0 0 0 0 0 0 0 0 0 0 0 0 0 0 0 0 0 0 0 0 0 0 0 0 0 0 0 0 0 0 61 60 59 55 54 55 54 54 52 48 50 50 52 53 54 56 56 57 57 57 57 58 58 58 60 63 73 74 73 71 71 72 72 72 68 67 -209 -209 -209 -209 -209 -209 -209 -209 -209 41 -209 -209 57 53 56 58 58 59 61 60 60 61 61 60 59 59 59 58 -225 -225 -225 -225 -225 -225 -225 -225 -225 -225 -225 -225 -225 -225 -225 -225 -225 -225 -225 -225 -225 -225 -225 -225 -225 -225 -225 -225 -225 -225 -225 -225 -225 -225 -225 -225 -225 -225 -225 -225 -225 -225 -225 -225 -225 -225 -225 -225 -225 -225 -225 -225 -225 -225 -225 -225 -225 -225 -225 -225 55 55 58 56 57 59 58 57 57 60 60 59 61 61 63 63 65 68 65 67 67 68 68 68 71 70 69 74 75 76 77 79 81 81 88 87 88 89 89 89 89 90 91 90 92 92 93 96 98 99 99 100 103 108 108 110 113 112 113 114 115 116 114 115 116 115 119 119 120 120 121 123 124 124 125 123 124 126 126 126 127 136 139 140 145 145 148 150 151 150 150 150 152 150 150 150 145 149 150 153 154 -193 153 156 161 164 164 167 169 170 170 171 173 173 174 178 183 184 186 190 189 189 0 0 0 0 0
    0 0 0 0 0 0 0 0 0 0 0 0 0 0 0 0 0 0 0 0 0 0 0 0 0 0 0 0 0 0 0 0 0 0 0 0 0 0 0 0 0 0 0 0 0 0 0 0 0 0 0 0 0 0 0 0 0 0 0 0 0 0 0 0 0 0 0 0 0 59 59 56 51 52 53 53 53 51 50 53 55 57 59 60 62 62 61 61 59 57 59 60 63 68 73 79 78 76 73 73 73 72 72 69 68 -193 -209 -209 -209 -209 -209 -209 -209 -209 47 -209 -209 58 55 57 58 59 60 61 60 61 61 61 61 60 60 60 -225 -225 -225 -225 -225 -225 -225 -225 -225 -225 -225 -225 -225 -225 -225 -225 -225 -225 -225 -225 -225 -225 -225 -225 -225 -225 -225 -225 -225 -225 -225 -225 -225 -225 -225 -225 -225 -225 -225 -225 -225 -225 -225 -225 -225 -225 -225 -225 -225 -225 -225 -225 -225 -225 -225 -225 -225 -225 -225 -225 -225 55 55 58 56 58 60 59 59 58 61 61 60 63 62 64 64 66 69 66 68 68 68 69 69 71 71 71 74 75 77 78 79 80 80 85 -193 -193 88 87 87 88 89 90 90 91 92 92 96 98 98 98 99 102 106 107 109 112 111 113 114 115 116 114 116 116 116 119 120 121 121 121 123 124 124 125 123 125 126 127 126 -209 138 142 144 148 147 149 152 151 151 151 150 151 -193 -209 153 149 153 154 156 158 156 155 160 165 166 166 167 167 169 168 169 170 170 171 173 180 181 183 187 187 187 0 0 0 0 0
    0 0 0 0 0 0 0 0 0 0 0 0 0 0 0 0 0 0 0 0 0 0 0 0 0 0 0 0 0 0 0 0 0 0 0 0 0 0 0 0 0 0 0 0 0 0 0 0 0 0 0 0 0 0 0 0 0 0 0 0 0 0 0 0 0 0 0 0 0 59 59 55 53 54 54 53 54 52 53 55 -209 60 63 65 66 66 65 69 63 61 65 70 73 76 79 83 79 78 74 73 72 72 71 69 68 -193 -209 -209 84 -209 -209 -209 -209 -209 53 -209 60 58 56 57 59 59 61 62 61 61 62 62 61 61 61 -225 -225 -225 -225 -225 -225 -225 -225 -225 -225 -225 -225 -225 -225 -225 -225 -225 -225 -225 -225 -225 -225 -225 -225 -225 -225 -225 -225 -225 -225 -225 -225 -225 -225 -225 -225 -225 -225 -225 -225 -225 -225 -225 -225 -225 -225 -225 -225 -225 -225 -225 -225 -225 -225 -225 -225 -225 -225 -225 -225 -225 -225 55 55 58 57 59 61 60 59 59 62 62 62 65 63 65 66 67 69 66 69 68 68 69 69 70 70 70 74 74 77 78 79 81 81 85 85 86 87 87 87 88 89 90 89 91 91 92 94 96 96 96 97 101 103 105 108 110 110 113 115 115 117 116 117 117 117 120 120 120 121 120 123 123 123 124 122 124 125 125 -193 -193 -209 -193 -193 -193 146 148 151 149 150 150 149 151 150 152 153 152 154 156 157 160 159 158 162 167 167 168 169 169 169 169 169 170 169 170 170 174 175 179 183 182 183 0 0 0 0 0
    0 0 0 0 0 0 0 0 0 0 0 0 0 0 0 0 0 0 0 0 0 0 0 0 0 0 0 0 0 0 0 0 0 0 0 0 0 0 0 0 0 0 0 0 0 0 0 0 0 0 0 0 0 0 0 0 0 0 0 0 0 0 0 0 0 0 0 0 0 59 60 56 56 56 57 56 56 54 56 -209 -193 -209 -193 69 69 70 70 74 75 73 74 80 84 82 84 85 82 79 74 73 71 71 70 68 67 63 -209 -193 85 92 -209 -209 -209 -209 -209 -209 -209 58 55 57 59 59 61 62 61 61 63 63 62 61 -225 -225 -225 -225 -225 -225 -225 -225 -225 -225 -225 -225 -225 -225 -225 -225 -225 -225 -225 -225 -225 -225 -225 -225 -225 -225 -225 -225 -225 -225 -225 -225 -225 -225 -225 -225 -225 -225 -225 -225 -225 -225 -225 -225 -225 -225 -225 -225 -225 -225 -225 -225 -225 -225 -225 -225 -225 -225 -225 -225 -225 -225 -225 54 55 56 56 60 61 60 60 59 64 64 63 67 64 66 66 68 70 67 69 69 68 69 69 70 70 70 74 74 76 78 79 80 82 86 86 87 89 88 88 89 90 90 90 91 91 91 93 94 94 94 97 101 104 106 109 111 112 115 116 116 118 117 118 118 118 121 120 120 121 119 122 122 122 123 121 123 123 123 -193 102 -209 -209 -209 -193 142 144 147 145 147 148 147 149 148 -193 153 -193 155 155 157 159 159 160 164 170 170 170 171 171 171 170 171 171 169 170 170 172 174 174 176 175 -209 0 0 0 0 0
    0 0 0 0 0 0 0 0 0 0 0 0 0 0 0 0 0 0 0 0 0 0 0 0 0 0 0 0 0 0 0 0 0 0 0 0 0 0 0 0 0 0 0 0 0 0 0 0 0 0 0 0 0 0 0 0 0 0 0 0 0 0 0 0 0 0 0 0 0 62 61 -193 59 59 65 -209 -209 -193 59 63 -193 -209 71 73 71 72 73 77 80 78 80 84 85 84 85 85 81 78 75 73 72 71 70 69 69 -193 -209 -209 86 -209 -209 -209 -193 -193 -209 91 -209 59 56 58 60 60 61 62 60 61 63 63 -225 -225 -225 -225 -225 -225 -225 -225 -225 -225 -225 -225 -225 -225 -225 -225 -225 -225 -225 -225 -225 -225 -225 -225 -225 -225 -225 -225 -225 -225 -225 -225 -225 -225 -225 -225 -225 -225 -225 -225 -225 -225 -225 -225 -225 -225 -225 -225 -225 -225 -225 -225 -225 -225 -225 -225 -225 -225 -225 -225 -225 -225 -225 -225 -225 -225 55 56 56 60 63 61 61 60 66 66 65 67 66 66 68 69 70 68 70 69 69 70 70 71 70 71 74 74 77 78 78 79 82 86 86 87 89 89 90 91 92 91 90 91 91 92 93 94 93 93 94 99 103 105 109 112 112 115 117 117 119 117 118 118 118 121 120 120 120 119 121 121 122 123 121 123 123 122 -193 -193 -209 -209 -209 -193 -193 -193 -209 142 142 143 141 -193 -193 -209 -209 -209 -193 -209 155 156 156 157 161 -193 170 171 172 173 175 173 173 173 170 172 172 176 176 177 179 179 180 0 0 0 0 0
    0 0 0 0 0 0 0 0 0 0 0 0 0 0 0 0 0 0 0 0 0 0 0 0 0 0 0 0 0 0 0 0 0 0 0 0 0 0 0 0 0 0 0 0 0 0 0 0 0 0 0 0 0 0 0 0 0 0 0 0 0 0 0 0 0 0 0 0 0 72 64 -193 59 71 -209 -209 -209 -209 -209 -193 71 75 74 75 73 74 76 80 83 83 85 86 87 86 86 85 82 78 75 73 72 71 70 70 70 -225 -225 76 87 96 93 -193 -225 -225 -225 -225 -225 59 57 58 60 60 60 60 59 60 62 -225 -225 -225 -225 -225 -225 -225 -225 -225 -225 -225 -225 -225 -225 -225 -225 -225 -225 -225 -225 -225 -225 -225 -225 -225 -225 -225 -225 -225 -225 -225 -225 -225 -225 -225 -225 -225 -225 -225 -225 -225 -225 -225 -225 -225 -225 -225 -225 -225 -225 -225 -225 -225 -225 -225 -225 -225 -225 -225 -225 -225 -225 -225 -225 -225 -225 -225 53 53 55 59 65 61 61 60 65 67 66 67 67 66 68 70 71 69 70 70 70 71 71 71 71 72 74 74 76 77 77 77 82 86 86 88 89 90 91 92 93 92 90 92 92 93 93 94 93 93 95 100 102 105 108 111 111 114 116 116 118 117 118 118 117 120 119 118 119 119 120 122 122 124 122 123 122 119 117 109 -209 -209 -193 -193 -193 -193 -209 -193 139 139 137 -193 -193 -209 -209 -209 -209 -193 155 156 157 156 158 -209 -209 -209 173 175 177 176 176 175 173 175 176 181 181 183 186 186 185 0 0 0 0 0
    0 0 0 0 0 0 0 0 0 0 0 0 0 0 0 0 0 0 0 0 0 0 0 0 0 0 0 0 0 0 0 0 0 0 0 0 0 0 0 0 0 0 0 0 0 0 0 0 0 0 0 0 0 0 0 0 0 0 0 0 0 0 0 0 0 0 0 0 0 75 71 76 68 -193 78 83 -209 80 -209 75 72 76 76 77 76 77 79 82 84 84 86 86 87 86 85 84 80 77 76 74 74 72 71 -225 -225 -225 -225 -225 -225 -225 -225 -225 -225 -225 -225 -225 -225 -225 -225 -225 -225 -225 -225 -225 -225 -225 -225 -225 -225 -225 -225 -225 -225 -225 -225 -225 -225 -225 -225 -225 -225 -225 -225 -225 -225 -225 -225 -225 -225 -225 -225 -225 -225 -225 -225 -225 -225 -225 -225 -225 -225 -225 -225 -225 -225 -225 -225 -225 -225 -225 -225 -225 -225 -225 -225 -225 -225 -225 -225 -225 -225 -225 -225 -225 -225 -225 -225 -225 -225 -225 -225 -225 -225 -225 53 53 55 60 65 62 61 60 64 67 66 68 68 68 69 71 72 71 72 72 72 72 72 72 72 72 74 74 76 77 77 77 82 86 87 88 90 90 91 93 93 93 91 93 93 93 93 94 93 94 95 99 101 103 106 109 110 112 115 116 118 118 119 120 120 121 119 119 121 122 121 123 124 126 125 130 131 128 122 123 -193 -209 -209 -193 100 -193 -209 138 138 137 135 138 137 -193 137 139 -209 -193 155 157 158 156 158 -209 -193 -209 174 177 178 177 178 176 174 177 178 183 183 186 189 195 190 0 0 0 0 0
    0 0 0 0 0 0 0 0 0 0 0 0 0 0 0 0 0 0 0 0 0 0 0 0 0 0 0 0 0 0 0 0 0 0 0 0 0 0 0 0 0 0 0 0 0 0 0 0 0 0 0 0 0 0 0 0 0 0 0 0 0 0 0 0 0 0 0 0 0 79 75 84 86 83 87 -193 88 -193 -209 79 73 77 79 80 79 81 84 85 86 86 88 87 87 86 85 84 81 79 79 77 77 -225 -225 -225 -225 -225 -225 -225 -225 -225 -225 -225 -225 -225 -225 -225 -225 -225 -225 -225 -225 -225 -225 -225 -225 -225 -225 -225 -225 -225 -225 -225 -225 -225 -225 -225 -225 -225 -225 -225 -225 -225 -225 -225 -225 -225 -225 -225 -225 -225 -225 -225 -225 -225 -225 -225 -225 -225 -225 -225 -225 -225 -225 -225 -225 -225 -225 -225 -225 -225 -225 -225 -225 -225 -225 -225 -225 -225 -225 -225 -225 -225 -225 -225 -225 -225 -225 -225 -225 -225 -225 -225 -225 -225 -225 53 55 64 64 63 61 60 65 67 67 69 69 70 70 72 73 73 73 74 73 74 74 74 74 74 75 75 76 77 77 77 82 85 87 88 89 91 91 93 93 93 91 93 93 93 93 94 93 94 95 98 101 103 106 108 109 111 113 114 117 117 119 121 121 121 119 120 121 123 123 126 128 129 129 132 133 132 127 127 126 124 129 -209 -209 -209 -209 138 138 137 135 137 135 133 135 137 -209 -193 153 155 156 155 158 -209 -193 -193 173 176 178 177 178 177 175 179 180 184 -193 188 192 198 195 0 0 0 0 0
    0 0 0 0 0 0 0 0 0 0 0 0 0 0 0 0 0 0 0 0 0 0 0 0 0 0 0 0 0 0 0 0 0 0 0 0 0 0 0 0 0 0 0 0 0 0 0 0 0 0 0 0 0 0 0 0 0 0 0 0 0 0 0 0 0 0 0 0 0 79 78 86 -193 -209 -193 -193 -193 87 -193 81 79 81 82 83 84 85 87 87 88 88 89 88 88 86 85 84 83 82 82 -225 -225 -225 -225 -225 -225 -225 -225 -225 -225 -225 -225 -225 -225 -225 -225 -225 -225 -225 -225 -225 -225 -225 -225 -225 -225 -225 -225 -225 -225 -225 -225 -225 -225 -225 -225 -225 -225 -225 -225 -225 -225 -225 -225 -225 -225 -225 -225 -225 -225 -225 -225 -225 -225 -225 -225 -225 -225 -225 -225 -225 -225 -225 -225 -225 -225 -225 -225 -225 -225 -225 -225 -225 -225 -225 -225 -225 -225 -225 -225 -225 -225 -225 -225 -225 -225 -225 -225 -225 -225 -225 -225 -225 -225 -225 -225 -225 55 66 66 65 62 61 65 68 68 71 70 71 71 73 74 74 74 74 74 75 75 75 76 76 76 77 77 79 78 78 83 86 87 89 90 91 91 93 94 94 91 92 92 93 92 93 93 94 95 99 102 104 106 107 108 109 110 112 115 115 118 120 121 121 119 119 121 123 123 126 130 131 131 133 134 133 130 130 129 125 129 136 -193 -193 136 138 138 137 136 137 135 132 135 -193 -193 139 151 154 154 154 156 159 -193 -193 173 177 178 178 178 178 176 180 180 184 -193 -193 191 197 -193 0 0 0 0 0
    0 0 0 0 0 0 0 0 0 0 0 0 0 0 0 0 0 0 0 0 0 0 0 0 0 0 0 0 0 0 0 0 0 0 0 0 0 0 0 0 0 0 0 0 0 0 0 0 0 0 0 0 0 0 0 0 0 0 0 0 0 0 0 0 0 0 0 0 0 82 83 87 89 87 88 89 88 87 90 86 87 85 86 86 88 89 90 89 89 89 89 89 88 87 86 85 83 83 -225 -225 -225 -225 -225 -225 -225 -225 -225 -225 -225 -225 -225 -225 -225 -225 -225 -225 -225 -225 -225 -225 -225 -225 -225 -225 -225 -225 -225 -225 -225 -225 -225 -225 -225 -225 -225 -225 -225 -225 -225 -225 -225 -225 -225 -225 -225 -225 -225 -225 -225 -225 -225 -225 -225 -225 -225 -225 -225 -225 -225 -225 -225 -225 -225 -225 -225 -225 -225 -225 -225 -225 -225 -225 -225 -225 -225 -225 -225 -225 -225 -225 -225 -225 -225 -225 -225 -225 -225 -225 -225 -225 -225 -225 -225 -225 -225 -225 -225 -225 -225 68 65 62 66 69 69 72 71 72 72 73 74 73 73 74 73 74 74 75 76 75 76 77 77 80 80 80 85 88 89 91 92 92 92 94 95 95 91 93 93 92 92 92 92 93 95 99 102 104 106 107 108 109 110 112 114 114 118 119 120 120 118 118 120 122 122 126 131 133 133 134 135 135 133 132 133 133 134 137 138 137 137 138 138 134 134 134 132 131 134 133 133 135 145 149 139 144 -193 -209 -209 -209 173 178 179 178 178 178 177 180 180 183 -193 -209 -193 -193 -193 0 0 0 0 0
    0 0 0 0 0 0 0 0 0 0 0 0 0 0 0 0 0 0 0 0 0 0 0 0 0 0 0 0 0 0 0 0 0 0 0 0 0 0 0 0 0 0 0 0 0 0 0 0 0 0 0 0 0 0 0 0 0 0 0 0 0 0 0 0 0 0 0 0 0 83 84 87 89 88 88 88 88 88 90 88 89 87 88 89 90 91 91 91 91 90 90 89 89 88 87 86 -225 -225 -225 -225 -225 -225 -225 -225 -225 -225 -225 -225 -225 -225 -225 -225 -225 -225 -225 -225 -225 -225 -225 -225 -225 -225 -225 -225 -225 -225 -225 -225 -225 -225 -225 -225 -225 -225 -225 -225 -225 -225 -225 -225 -225 -225 -225 -225 -225 -225 -225 -225 -225 -225 -225 -225 -225 -225 -225 -225 -225 -225 -225 -225 -225 -225 -225 -225 -225 -225 -225 -225 -225 -225 -225 -225 -225 -225 -225 -225 -225 -225 -225 -225 -225 -225 -225 -225 -225 -225 -225 -225 -225 -225 -225 -225 -225 -225 -225 -225 -225 -225 -225 -225 61 60 66 71 70 74 72 73 73 74 74 75 74 76 75 76 76 78 80 79 77 79 78 80 82 81 85 88 89 90 91 92 92 93 95 95 91 93 93 92 92 92 92 93 95 99 102 104 106 107 108 109 111 113 115 115 118 120 120 119 117 118 119 122 122 126 131 133 134 135 136 136 135 134 136 137 138 138 139 138 138 139 139 137 136 135 134 133 136 135 133 134 141 142 137 -193 138 135 -193 -209 -193 -193 -193 177 178 177 176 179 180 183 181 -193 -193 -193 -209 0 0 0 0 0
    0 0 0 0 0 0 0 0 0 0 0 0 0 0 0 0 0 0 0 0 0 0 0 0 0 0 0 0 0 0 0 0 0 0 0 0 0 0 0 0 0 0 0 0 0 0 0 0 0 0 0 0 0 0 0 0 0 0 0 0 0 0 0 0 0 0 0 0 0 83 85 89 91 90 90 91 90 91 92 90 91 89 90 91 92 92 93 93 92 92 91 90 90 89 -225 -225 -225 -225 -225 -225 -225 -225 -225 -225 -225 -225 -225 -225 -225 -225 -225 -225 -225 -225 -225 -225 -225 -225 -225 -225 -225 -225 -225 -225 -225 -225 -225 -225 -225 -225 -225 -225 -225 -225 -225 -225 -225 -225 -225 -225 -225 -225 -225 -225 -225 -225 -225 -225 -225 -225 -225 -225 -225 -225 -225 -225 -225 -225 -225 -225 -225 -225 -225 -225 -225 -225 -225 -225 -225 -225 -225 -225 -225 -225 -225 -225 -225 -225 -225 -225 -225 -225 -225 -225 -225 -225 -225 -225 -225 -225 -225 -225 -225 -225 -225 -225 -225 -225 -225 -225 -225 60 66 71 71 75 73 74 73 75 76 77 76 81 78 79 80 83 84 83 81 81 79 82 85 83 86 89 89 90 92 92 92 93 95 96 91 93 93 93 93 93 94 95 98 101 -209 105 106 108 109 110 111 112 113 113 117 119 119 119 117 118 120 122 122 126 130 133 135 136 136 136 136 135 137 138 139 139 140 139 139 140 140 137 137 137 137 136 139 138 136 137 141 142 137 137 138 135 137 -209 171 175 176 175 176 176 176 179 180 181 -193 -209 -209 -209 -209 0 0 0 0 0
    0 0 0 0 0 0 0 0 0 0 0 0 0 0 0 0 0 0 0 0 0 0 0 0 0 0 0 0 0 0 0 0 0 0 0 0 0 0 0 0 0 0 0 0 0 0 0 0 0 0 0 0 0 0 0 0 0 0 0 0 0 0 0 0 0 0 0 0 0 85 86 90 92 92 92 93 92 93 94 94 93 91 92 92 93 94 94 94 93 92 92 91 91 -225 -225 -225 -225 -225 -225 -225 -225 -225 -225 -225 -225 -225 -225 -225 -225 -225 -225 -225 -225 -225 -225 -225 -225 -225 -225 -225 -225 -225 -225 -225 -225 -225 -225 -225 -225 -225 -225 -225 -225 -225 -225 -225 -225 -225 -225 -225 -225 -225 -225 -225 -225 -225 -225 -225 -225 -225 -225 -225 -225 -225 -225 -225 -225 -225 -225 -225 -225 -225 -225 -225 -225 -225 -225 -225 -225 -225 -225 -225 -225 -225 -225 -225 -225 -225 -225 -225 -225 -225 -225 -225 -225 -225 -225 -225 -225 -225 -225 -225 -225 -225 -225 -225 -225 -225 -225 -225 -225 -225 67 71 71 77 74 75 75 77 78 79 78 83 81 81 81 84 84 84 83 83 81 83 86 85 87 90 90 91 92 92 93 93 95 96 90 93 93 93 93 93 95 97 100 -193 -209 106 106 107 108 108 109 110 109 110 112 116 117 117 116 118 120 122 122 126 130 133 134 135 137 136 136 136 138 139 140 141 141 140 140 141 140 138 138 138 137 137 139 140 138 139 145 146 138 138 141 136 138 -209 171 174 175 174 175 -193 174 177 179 181 -193 -209 -209 -193 -193 0 0 0 0 0
    0 0 0 0 0 0 0 0 0 0 0 0 0 0 0 0 0 0 0 0 0 0 0 0 0 0 0 0 0 0 0 0 0 0 0 0 0 0 0 0 0 0 0 0 0 0 0 0 0 0 0 0 0 0 0 0 0 0 0 0 0 0 0 0 0 0 0 0 0 86 87 92 96 96 96 97 95 96 96 98 96 94 94 94 94 95 95 95 94 93 93 -225 -225 -225 -225 -225 -225 -225 -225 -225 -225 -225 -225 -225 -225 -225 -225 -225 -225 -225 -225 -225 -225 -225 -225 -225 -225 -225 -225 -225 -225 -225 -225 -225 -225 -225 -225 -225 -225 -225 -225 -225 -225 -225 -225 -225 -225 -225 -225 -225 -225 -225 -225 -225 -225 -225 -225 -225 -225 -225 -225 -225 -225 -225 -225 -225 -225 -225 -225 -225 -225 -225 -225 -225 -225 -225 -225 -225 -225 -225 -225 -225 -225 -225 -225 -225 -225 -225 -225 -225 -225 -225 -225 -225 -225 -225 -225 -225 -225 -225 -225 -225 -225 -225 -225 -225 -225 -225 -225 -225 -225 -225 -225 70 71 79 75 77 75 77 79 79 78 83 80 80 80 84 84 83 84 84 83 85 88 87 87 91 91 91 92 93 93 93 95 95 90 92 93 93 93 94 96 98 100 103 -209 106 106 106 107 107 107 109 108 109 111 115 117 117 117 119 120 123 123 126 130 132 134 135 136 136 136 136 138 139 141 142 142 141 142 142 142 140 140 140 141 141 142 144 142 142 147 145 139 139 141 139 141 -209 -193 172 172 172 173 173 173 176 -193 -193 -193 -209 0 -193 -193 0 0 0 0 0
    0 0 0 0 0 0 0 0 0 0 0 0 0 0 0 0 0 0 0 0 0 0 0 0 0 0 0 0 0 0 0 0 0 0 0 0 0 0 0 0 0 0 0 0 0 0 0 0 0 0 0 0 0 0 0 0 0 0 0 0 0 0 0 0 0 0 0 0 0 90 94 99 100 100 100 100 99 100 100 100 99 98 97 96 97 96 95 95 94 94 -225 -225 -225 -225 -225 -225 -225 -225 -225 -225 -225 -225 -225 -225 -225 -225 -225 -225 -225 -225 -225 -225 -225 -225 -225 -225 -225 -225 -225 -225 -225 -225 -225 -225 -225 -225 -225 -225 -225 -225 -225 -225 -225 -225 -225 -225 -225 -225 -225 -225 -225 -225 -225 -225 -225 -225 -225 -225 -225 -225 -225 -225 -225 -225 -225 -225 -225 -225 -225 -225 -225 -225 -225 -225 -225 -225 -225 -225 -225 -225 -225 -225 -225 -225 -225 -225 -225 -225 -225 -225 -225 -225 -225 -225 -225 -225 -225 -225 -225 -225 -225 -225 -225 -225 -225 -225 -225 -225 -225 -225 -225 -225 -225 -225 72 85 78 81 78 80 81 82 82 85 82 83 83 86 86 85 85 85 85 87 88 88 88 91 91 91 93 93 93 93 95 95 90 91 91 91 92 93 96 97 100 104 105 106 106 106 107 107 108 109 108 109 111 115 118 118 118 119 120 122 122 124 127 130 132 134 135 136 136 136 138 139 141 142 142 141 142 143 143 141 142 142 146 147 149 151 153 153 153 152 144 141 145 141 143 148 153 -209 -193 170 171 171 171 174 -193 -209 -209 -209 0 0 0 0 0 0 0 0
    0 0 0 0 0 0 0 0 0 0 0 0 0 0 0 0 0 0 0 0 0 0 0 0 0 0 0 0 0 0 0 0 0 0 0 0 0 0 0 0 0 0 0 0 0 0 0 0 0 0 0 0 0 0 0 0 0 0 0 0 0 0 0 0 0 0 0 0 0 100 103 102 102 101 102 102 102 101 102 102 101 101 100 99 98 97 96 96 -225 -225 -225 -225 -225 -225 -225 -225 -225 -225 -225 -225 -225 -225 -225 -225 -225 -225 -225 -225 -225 -225 -225 -225 -225 -225 -225 -225 -225 -225 -225 -225 -225 -225 -225 -225 -225 -225 -225 -225 -225 -225 -225 -225 -225 -225 -225 -225 -225 -225 -225 -225 -225 -225 -225 -225 -225 -225 -225 -225 -225 -225 -225 -225 -225 -225 -225 -225 -225 -225 -225 -225 -225 -225 -225 -225 -225 -225 -225 -225 -225 -225 -225 -225 -225 -225 -225 -225 -225 -225 -225 -225 -225 -225 -225 -225 -225 -225 -225 -225 -225 -225 -225 -225 -225 -225 -225 -225 -225 -225 -225 -225 -225 -225 -225 -225 -225 86 79 81 79 82 82 83 84 86 84 84 84 86 86 86 86 85 86 88 89 89 89 92 92 92 94 94 94 94 95 95 90 90 89 90 90 91 94 96 101 -209 -209 107 107 107 107 108 108 109 108 108 110 113 116 116 117 118 119 120 121 123 126 128 130 132 135 136 136 137 140 141 142 143 144 142 143 143 143 141 143 144 147 148 150 152 154 154 154 154 149 146 149 147 148 152 154 -209 -209 167 -193 -193 -193 171 -193 -209 -209 -209 -193 0 0 0 0 0 0 0
    0 0 0 0 0 0 0 0 0 0 0 0 0 0 0 0 0 0 0 0 0 0 0 0 0 0 0 0 0 0 0 0 0 0 0 0 0 0 0 0 0 0 0 0 0 0 0 0 0 0 0 0 0 0 0 0 0 0 0 0 0 0 0 0 0 0 0 0 0 103 104 103 103 102 102 103 102 102 101 102 101 101 100 99 98 97 -225 -225 -225 -225 -225 -225 -225 -225 -225 -225 -225 -225 -225 -225 -225 -225 -225 -225 -225 -225 -225 -225 -225 -225 -225 -225 -225 -225 -225 -225 -225 -225 -225 -225 -225 -225 -225 -225 -225 -225 -225 -225 -225 -225 -225 -225 -225 -225 -225 -225 -225 -225 -225 -225 -225 -225 -225 -225 -225 -225 -225 -225 -225 -225 -225 -225 -225 -225 -225 -225 -225 -225 -225 -225 -225 -225 -225 -225 -225 -225 -225 -225 -225 -225 -225 -225 -225 -225 -225 -225 -225 -225 -225 -225 -225 -225 -225 -225 -225 -225 -225 -225 -225 -225 -225 -225 -225 -225 -225 -225 -225 -225 -225 -225 -225 -225 -225 -225 -225 -225 82 82 81 85 84 85 87 87 85 85 85 86 86 86 87 86 87 89 90 90 90 93 93 93 96 94 95 95 96 95 91 93 91 91 91 92 93 95 100 103 105 106 106 107 107 107 108 109 107 107 108 110 113 112 115 116 117 119 120 122 124 126 129 131 135 136 137 138 143 144 143 144 144 142 143 142 143 141 142 145 147 149 151 153 156 156 155 155 152 152 151 151 151 153 154 154 153 157 -193 153 154 -209 -209 144 -209 -209 -209 -209 -193 0 0 0 0 0
    0 0 0 0 0 0 0 0 0 0 0 0 0 0 0 0 0 0 0 0 0 0 0 0 0 0 0 0 0 0 0 0 0 0 0 0 0 0 0 0 0 0 0 0 0 0 0 0 0 0 0 0 0 0 0 0 0 0 0 0 0 0 0 0 0 0 0 0 0 105 105 105 104 104 103 103 102 103 102 102 101 100 99 98 97 -225 -225 -225 -225 -225 -225 -225 -225 -225 -225 -225 -225 -225 -225 -225 -225 -225 -225 -225 -225 -225 -225 -225 -225 -225 -225 -225 -225 -225 -225 -225 -225 -225 -225 -225 -225 -225 -225 -225 -225 -225 -225 -225 -225 -225 -225 -225 -225 -225 -225 -225 -225 -225 -225 -225 -225 -225 -225 -225 -225 -225 -225 -225 -225 -225 -225 -225 -225 -225 -225 -225 -225 -225 -225 -225 -225 -225 -225 -225 -225 -225 -225 -225 -225 -225 -225 -225 -225 -225 -225 -225 -225 -225 -225 -225 -225 -225 -225 -225 -225 -225 -225 -225 -225 -225 -225 -225 -225 -225 -225 -225 -225 -225 -225 -225 -225 -225 -225 -225 -225 -225 -225 84 85 88 87 87 89 88 87 86 86 87 87 87 88 87 88 89 91 91 91 93 94 94 98 96 97 96 97 96 93 94 92 92 92 94 94 97 101 102 103 105 105 106 106 107 108 108 108 109 110 112 115 115 116 118 119 120 121 122 124 126 128 131 135 138 139 140 145 146 144 144 144 142 143 142 143 141 142 145 147 150 152 154 157 158 157 157 155 155 154 153 153 155 156 155 154 154 152 152 153 -209 142 145 -209 -209 -209 -209 -209 0 0 0 0 0
    0 0 0 0 0 0 0 0 0 0 0 0 0 0 0 0 0 0 0 0 0 0 0 0 0 0 0 0 0 0 0 0 0 0 0 0 0 0 0 0 0 0 0 0 0 0 0 0 0 0 0 0 0 0 0 0 0 0 0 0 0 0 0 0 0 0 0 0 0 107 107 106 106 104 104 104 103 103 103 102 101 101 100 -225 -225 -225 -225 -225 -225 -225 -225 -225 -225 -225 -225 -225 -225 -225 -225 -225 -225 -225 -225 -225 -225 -225 -225 -225 -225 -225 -225 -225 -225 -225 -225 -225 -225 -225 -225 -225 -225 -225 -225 -225 -225 -225 -225 -225 -225 -225 -225 -225 -225 -225 -225 -225 -225 -225 -225 -225 -225 -225 -225 -225 -225 -225 -225 -225 -225 -225 -225 -225 -225 -225 -225 -225 -225 -225 -225 -225 -225 -225 -225 -225 -225 -225 -225 -225 -225 -225 -225 -225 -225 -225 -225 -225 -225 -225 -225 -225 -225 -225 -225 -225 -225 -225 -225 -225 -225 -225 -225 -225 -225 -225 -225 -225 -225 -225 -225 -225 -225 -225 -225 -225 -225 -225 -225 84 84 86 86 87 88 88 86 87 87 88 87 87 89 87 88 89 90 90 90 93 94 94 98 97 97 96 97 96 94 94 93 92 93 95 95 97 101 102 102 104 104 105 106 107 108 109 109 111 113 115 116 117 118 119 121 121 122 123 124 126 127 130 133 136 138 140 145 146 144 144 143 142 142 142 143 142 143 147 148 150 153 155 157 160 159 158 157 157 157 156 155 158 159 157 158 157 154 154 156 161 -209 147 162 -193 167 170 174 0 0 0 0 0
    0 0 0 0 0 0 0 0 0 0 0 0 0 0 0 0 0 0 0 0 0 0 0 0 0 0 0 0 0 0 0 0 0 0 0 0 0 0 0 0 0 0 0 0 0 0 0 0 0 0 0 0 0 0 0 0 0 0 0 0 0 0 0 0 0 0 0 0 0 109 109 107 106 105 104 104 104 103 103 102 102 -225 -225 -225 -225 -225 -225 -225 -225 -225 -225 -225 -225 -225 -225 -225 -225 -225 -225 -225 -225 -225 -225 -225 -225 -225 -225 -225 -225 -225 -225 -225 -225 -225 -225 -225 -225 -225 -225 -225 -225 -225 -225 -225 -225 -225 -225 -225 -225 -225 -225 -225 -225 -225 -225 -225 -225 -225 -225 -225 -225 -225 -225 -225 -225 -225 -225 -225 -225 -225 -225 -225 -225 -225 -225 -225 -225 -225 -225 -225 -225 -225 -225 -225 -225 -225 -225 -225 -225 -225 -225 -225 -225 -225 -225 -225 -225 -225 -225 -225 -225 -225 -225 -225 -225 -225 -225 -225 -225 -225 -225 -225 -225 -225 -225 -225 -225 -225 -225 -225 -225 -225 -225 -225 -225 -225 -225 -225 85 87 87 87 87 87 86 88 88 89 88 88 90 88 90 91 92 92 93 94 96 96 100 99 99 99 98 97 96 96 94 94 94 97 97 99 102 103 103 104 104 105 106 107 108 108 109 111 113 115 116 117 119 120 122 122 123 123 125 126 127 129 129 133 136 138 144 145 144 144 142 142 142 141 143 141 143 148 149 151 153 155 157 159 158 159 159 161 162 160 159 162 164 163 162 162 158 157 162 170 -193 -193 168 170 169 171 173 0 0 0 0 0
    0 0 0 0 0 0 0 0 0 0 0 0 0 0 0 0 0 0 0 0 0 0 0 0 0 0 0 0 0 0 0 0 0 0 0 0 0 0 0 0 0 0 0 0 0 0 0 0 0 0 0 0 0 0 0 0 0 0 0 0 0 0 0 0 0 0 0 0 0 109 109 108 107 106 105 104 104 103 103 -225 -225 -225 -225 -225 -225 -225 -225 -225 -225 -225 -225 -225 -225 -225 -225 -225 -225 -225 -225 -225 -225 -225 -225 -225 -225 -225 -225 -225 -225 -225 -225 -225 -225 -225 -225 -225 -225 -225 -225 -225 -225 -225 -225 -225 -225 -225 -225 -225 -225 -225 -225 -225 -225 -225 -225 -225 -225 -225 -225 -225 -225 -225 -225 -225 -225 -225 -225 -225 -225 -225 -225 -225 -225 -225 -225 -225 -225 -225 -225 -225 -225 -225 -225 -225 -225 -225 -225 -225 -225 -225 -225 -225 -225 -225 -225 -225 -225 -225 -225 -225 -225 -225 -225 -225 -225 -225 -225 -225 -225 -225 -225 -225 -225 -225 -225 -225 -225 -225 -225 -225 -225 -225 -225 -225 -225 -225 -225 -225 -225 88 85 85 85 86 87 89 89 90 88 89 91 90 92 92 94 95 96 98 100 100 102 101 101 101 101 99 99 99 96 97 97 100 98 99 102 102 102 103 103 105 105 106 107 108 109 111 112 114 115 117 119 121 122 123 123 124 126 127 127 128 128 129 132 136 142 144 143 143 142 141 142 141 142 141 142 147 149 151 154 156 157 159 159 160 161 162 163 162 160 163 164 163 163 164 160 159 164 -193 -209 -193 167 170 167 170 171 0 0 0 0 0
    0 0 0 0 0 0 0 0 0 0 0 0 0 0 0 0 0 0 0 0 0 0 0 0 0 0 0 0 0 0 0 0 0 0 0 0 0 0 0 0 0 0 0 0 0 0 0 0 0 0 0 0 0 0 0 0 0 0 0 0 0 0 0 0 0 0 0 0 0 108 109 108 107 106 105 105 104 -225 -225 -225 -225 -225 -225 -225 -225 -225 -225 -225 -225 -225 -225 -225 -225 -225 -225 -225 -225 -225 -225 -225 -225 -225 -225 -225 -225 -225 -225 -225 -225 -225 -225 -225 -225 -225 -225 -225 -225 -225 -225 -225 -225 -225 -225 -225 -225 -225 -225 -225 -225 -225 -225 -225 -225 -225 -225 -225 -225 -225 -225 -225 -225 -225 -225 -225 -225 -225 -225 -225 -225 -225 -225 -225 -225 -225 -225 -225 -225 -225 -225 -225 -225 -225 -225 -225 -225 -225 -225 -225 -225 -225 -225 -225 -225 -225 -225 -225 -225 -225 -225 -225 -225 -225 -225 -225 -225 -225 -225 -225 -225 -225 -225 -225 -225 -225 -225 -225 -225 -225 -225 -225 -225 -225 -225 -225 -225 -225 -225 -225 -225 -225 90 87 88 87 90 91 91 91 91 91 93 91 95 94 96 98 100 100 102 102 103 102 102 103 102 101 101 100 97 98 98 100 98 99 101 101 102 102 102 104 104 106 107 107 110 112 113 115 117 118 119 121 122 123 124 125 126 127 127 129 128 129 131 134 139 141 141 141 141 141 142 141 142 142 143 147 149 151 154 156 156 158 158 160 161 163 163 162 161 164 164 163 163 164 163 164 168 170 -193 -193 169 170 168 170 170 0 0 0 0 0
    0 0 0 0 0 0 0 0 0 0 0 0 0 0 0 0 0 0 0 0 0 0 0 0 0 0 0 0 0 0 0 0 0 0 0 0 0 0 0 0 0 0 0 0 0 0 0 0 0 0 0 0 0 0 0 0 0 0 0 0 0 0 0 0 0 0 0 0 0 108 108 107 107 106 105 105 -225 -225 -225 -225 -225 -225 -225 -225 -225 -225 -225 -225 -225 -225 -225 -225 -225 -225 -225 -225 -225 -225 -225 -225 -225 -225 -225 -225 -225 -225 -225 -225 -225 -225 -225 -225 -225 -225 -225 -225 -225 -225 -225 -225 -225 -225 -225 -225 -225 -225 -225 -225 -225 -225 -225 -225 -225 -225 -225 -225 -225 -225 -225 -225 -225 -225 -225 -225 -225 -225 -225 -225 -225 -225 -225 -225 -225 -225 -225 -225 -225 -225 -225 -225 -225 -225 -225 -225 -225 -225 -225 -225 -225 -225 -225 -225 -225 -225 -225 -225 -225 -225 -225 -225 -225 -225 -225 -225 -225 -225 -225 -225 -225 -225 -225 -225 -225 -225 -225 -225 -225 -225 -225 -225 -225 -225 -225 -225 -225 -225 -225 -225 -225 -225 95 92 96 90 94 94 94 94 94 94 96 94 98 97 99 100 102 101 103 103 104 103 103 103 103 102 102 101 99 100 101 103 101 101 102 102 102 102 102 104 104 105 106 107 109 111 113 115 116 118 119 120 122 123 124 125 127 129 129 131 130 131 132 134 138 139 140 140 140 141 142 142 143 142 143 148 149 151 154 155 155 157 158 160 161 163 163 163 162 163 164 164 163 164 163 164 166 170 172 -193 168 170 167 170 170 0 0 0 0 0
    0 0 0 0 0 0 0 0 0 0 0 0 0 0 0 0 0 0 0 0 0 0 0 0 0 0 0 0 0 0 0 0 0 0 0 0 0 0 0 0 0 0 0 0 0 0 0 0 0 0 0 0 0 0 0 0 0 0 0 0 0 0 0 0 0 0 0 0 0 109 108 107 107 106 -225 -225 -225 -225 -225 -225 -225 -225 -225 -225 -225 -225 -225 -225 -225 -225 -225 -225 -225 -225 -225 -225 -225 -225 -225 -225 -225 -225 -225 -225 -225 -225 -225 -225 -225 -225 -225 -225 -225 -225 -225 -225 -225 -225 -225 -225 -225 -225 -225 -225 -225 -225 -225 -225 -225 -225 -225 -225 -225 -225 -225 -225 -225 -225 -225 -225 -225 -225 -225 -225 -225 -225 -225 -225 -225 -225 -225 -225 -225 -225 -225 -225 -225 -225 -225 -225 -225 -225 -225 -225 -225 -225 -225 -225 -225 -225 -225 -225 -225 -225 -225 -225 -225 -225 -225 -225 -225 -225 -225 -225 -225 -225 -225 -225 -225 -225 -225 -225 -225 -225 -225 -225 -225 -225 -225 -225 -225 -225 -225 -225 -225 -225 -225 -225 -225 -225 -225 100 95 90 96 93 95 94 95 95 97 96 99 99 103 102 104 102 104 104 104 103 104 104 103 102 103 103 102 103 104 105 103 104 104 103 103 103 102 104 103 105 106 107 109 110 112 115 115 117 118 120 122 123 124 125 127 129 130 132 131 132 133 135 138 139 140 140 140 141 142 143 143 143 145 148 150 151 153 154 154 155 156 158 160 162 162 162 162 163 165 165 164 165 166 166 168 170 174 172 169 171 168 169 170 0 0 0 0 0
    0 0 0 0 0 0 0 0 0 0 0 0 0 0 0 0 0 0 0 0 0 0 0 0 0 0 0 0 0 0 0 0 0 0 0 0 0 0 0 0 0 0 0 0 0 0 0 0 0 0 0 0 0 0 0 0 0 0 0 0 0 0 0 0 0 0 0 0 0 109 109 108 108 -225 -225 -225 -225 -225 -225 -225 -225 -225 -225 -225 -225 -225 -225 -225 -225 -225 -225 -225 -225 -225 -225 -225 -225 -225 -225 -225 -225 -225 -225 -225 -225 -225 -225 -225 -225 -225 -225 -225 -225 -225 -225 -225 -225 -225 -225 -225 -225 -225 -225 -225 -225 -225 -225 -225 -225 -225 -225 -225 -225 -225 -225 -225 -225 -225 -225 -225 -225 -225 -225 -225 -225 -225 -225 -225 -225 -225 -225 -225 -225 -225 -225 -225 -225 -225 -225 -225 -225 -225 -225 -225 -225 -225 -225 -225 -225 -225 -225 -225 -225 -225 -225 -225 -225 -225 -225 -225 -225 -225 -225 -225 -225 -225 -225 -225 -225 -225 -225 -225 -225 -225 -225 -225 -225 -225 -225 -225 -225 -225 -225 -225 -225 -225 -225 -225 -225 -225 -225 105 92 90 100 94 97 96 98 98 99 99 101 101 105 104 106 105 106 106 105 105 105 105 105 103 104 104 104 105 106 107 105 105 105 104 103 103 103 104 103 104 105 106 108 109 111 114 115 117 119 -193 122 123 124 126 127 130 131 132 131 132 132 134 137 139 139 139 139 141 142 143 143 144 145 148 150 151 153 153 153 154 154 156 159 161 161 161 162 163 164 164 164 166 167 168 171 172 177 175 173 174 172 173 174 0 0 0 0 0
    0 0 0 0 0 0 0 0 0 0 0 0 0 0 0 0 0 0 0 0 0 0 0 0 0 0 0 0 0 0 0 0 0 0 0 0 0 0 0 0 0 0 0 0 0 0 0 0 0 0 0 0 0 0 0 0 0 0 0 0 0 0 0 0 0 0 0 0 0 110 111 -225 -225 -225 -225 -225 -225 -225 -225 -225 -225 -225 -225 -225 -225 -225 -225 -225 -225 -225 -225 -225 -225 -225 -225 -225 -225 -225 -225 -225 -225 -225 -225 -225 -225 -225 -225 -225 -225 -225 -225 -225 -225 -225 -225 -225 -225 -225 -225 -225 -225 -225 -225 -225 -225 -225 -225 -225 -225 -225 -225 -225 -225 -225 -225 -225 -225 -225 -225 -225 -225 -225 -225 -225 -225 -225 -225 -225 -225 -225 -225 -225 -225 -225 -225 -225 -225 -225 -225 -225 -225 -225 -225 -225 -225 -225 -225 -225 -225 -225 -225 -225 -225 -225 -225 -225 -225 -225 -225 -225 -225 -225 -225 -225 -225 -225 -225 -225 -225 -225 -225 -225 -225 -225 -225 -225 -225 -225 -225 -225 -225 -225 -225 -225 -225 -225 -225 -225 -225 -225 -225 107 101 95 103 98 101 101 101 101 101 101 102 103 107 106 108 107 109 108 107 107 107 106 107 105 106 105 106 108 110 110 108 106 107 105 104 104 103 105 103 104 105 106 107 109 110 114 115 117 119 -193 123 124 125 126 127 130 131 133 132 132 132 133 135 138 139 138 139 141 143 145 145 146 147 149 150 150 151 151 151 153 153 154 157 159 160 159 160 162 164 164 163 -193 -193 167 170 171 176 175 172 175 175 178 178 0 0 0 0 0
    0 0 0 0 0 0 0 0 0 0 0 0 0 0 0 0 0 0 0 0 0 0 0 0 0 0 0 0 0 0 0 0 0 0 0 0 0 0 0 0 0 0 0 0 0 0 0 0 0 0 0 0 0 0 0 0 0 0 0 0 0 0 0 0 0 0 0 0 0 -225 -225 -225 -225 -225 -225 -225 -225 -225 -225 -225 -225 -225 -225 -225 -225 -225 -225 -225 -225 -225 -225 -225 -225 -225 -225 -225 -225 -225 -225 -225 -225 -225 -225 -225 -225 -225 -225 -225 -225 -225 -225 -225 -225 -225 -225 -225 -225 -225 -225 -225 -225 -225 -225 -225 -225 -225 -225 -225 -225 -225 -225 -225 -225 -225 -225 -225 -225 -225 -225 -225 -225 -225 -225 -225 -225 -225 -225 -225 -225 -225 -225 -225 -225 -225 -225 -225 -225 -225 -225 -225 -225 -225 -225 -225 -225 -225 -225 -225 -225 -225 -225 -225 -225 -225 -225 -225 -225 -225 -225 -225 -225 -225 -225 -225 -225 -225 -225 -225 -225 -225 -225 -225 -225 -225 -225 -225 -225 -225 -225 -225 -225 -225 -225 -225 -225 -225 -225 -225 -225 -225 -225 -225 103 102 104 100 102 103 103 103 103 102 103 104 108 107 109 108 110 108 108 108 108 107 109 107 108 107 109 111 112 110 109 107 106 106 105 105 104 105 104 105 105 106 106 107 109 112 112 114 117 -209 -193 125 126 127 127 130 132 133 132 131 131 131 134 137 138 137 138 141 144 148 147 147 149 150 151 150 151 151 150 151 153 153 156 158 159 159 160 -193 -193 -193 163 165 -193 167 170 170 174 174 172 175 176 179 179 0 0 0 0 0
    0 0 0 0 0 0 0 0 0 0 0 0 0 0 0 0 0 0 0 0 0 0 0 0 0 0 0 0 0 0 0 0 0 0 0 0 0 0 0 0 0 0 0 0 0 0 0 0 0 0 0 0 0 0 0 0 0 0 0 0 0 0 0 0 0 0 0 0 0 -225 -225 -225 -225 -225 -225 -225 -225 -225 -225 -225 -225 -225 -225 -225 -225 -225 -225 -225 -225 -225 -225 -225 -225 -225 -225 -225 -225 -225 -225 -225 -225 -225 -225 -225 -225 -225 -225 -225 -225 -225 -225 -225 -225 -225 -225 -225 -225 -225 -225 -225 -225 -225 -225 -225 -225 -225 -225 -225 -225 -225 -225 -225 -225 -225 -225 -225 -225 -225 -225 -225 -225 -225 -225 -225 -225 -225 -225 -225 -225 -225 -225 -225 -225 -225 -225 -225 -225 -225 -225 -225 -225 -225 -225 -225 -225 -225 -225 -225 -225 -225 -225 -225 -225 -225 -225 -225 -225 -225 -225 -225 -225 -225 -225 -225 -225 -225 -225 -225 -225 -225 -225 -225 -225 -225 -225 -225 -225 -225 -225 -225 -225 -225 -225 -225 -225 -225 -225 -225 -225 -225 -225 -225 100 101 104 100 103 103 103 102 103 102 102 104 108 107 108 108 110 110 109 109 110 109 111 110 111 109 110 112 112 110 109 106 106 106 105 105 104 106 105 105 105 106 105 106 107 110 111 111 116 -193 -209 124 126 127 127 129 131 133 132 132 131 131 133 135 137 137 139 141 146 150 149 148 149 150 150 149 149 150 149 150 151 153 155 157 158 158 159 160 162 162 162 164 164 166 169 169 172 173 171 174 175 179 178 0 0 0 0 0
    0 0 0 0 0 0 0 0 0 0 0 0 0 0 0 0 0 0 0 0 0 0 0 0 0 0 0 0 0 0 0 0 0 0 0 0 0 0 0 0 0 0 0 0 0 0 0 0 0 0 0 0 0 0 0 0 0 0 0 0 0 0 0 0 0 0 0 0 0 -225 -225 -225 -225 -225 -225 -225 -225 -225 -225 -225 -225 -225 -225 -225 -225 -225 -225 -225 -225 -225 -225 -225 -225 -225 -225 -225 -225 -225 -225 -225 -225 -225 -225 -225 -225 -225 -225 -225 -225 -225 -225 -225 -225 -225 -225 -225 -225 -225 -225 -225 -225 -225 -225 -225 -225 -225 -225 -225 -225 -225 -225 -225 -225 -225 -225 -225 -225 -225 -225 -225 -225 -225 -225 -225 -225 -225 -225 -225 -225 -225 -225 -225 -225 -225 -225 -225 -225 -225 -225 -225 -225 -225 -225 -225 -225 -225 -225 -225 -225 -225 -225 -225 -225 -225 -225 -225 -225 -225 -225 -225 -225 -225 -225 -225 -225 -225 -225 -225 -225 -225 -225 -225 -225 -225 -225 -225 -225 -225 -225 -225 -225 -225 -225 -225 -225 -225 -225 -225 -225 -225 -225 -225 90 92 102 99 101 100 102 101 102 102 102 104 109 108 110 110 113 112 112 111 112 110 112 111 111 109 109 110 110 109 108 107 107 107 106 107 106 107 105 105 105 106 104 105 105 109 111 112 116 118 120 122 124 125 126 127 130 133 132 132 132 132 133 135 137 138 139 143 146 151 149 148 148 149 148 148 147 147 146 148 149 151 154 156 157 158 158 160 161 161 162 163 163 165 167 168 170 172 171 175 178 181 180 0 0 0 0 0
    0 0 0 0 0 0 0 0 0 0 0 0 0 0 0 0 0 0 0 0 0 0 0 0 0 0 0 0 0 0 0 0 0 0 0 0 0 0 0 0 0 0 0 0 0 0 0 0 0 0 0 0 0 0 0 0 0 0 0 0 0 0 0 0 0 0 0 0 0 -225 -225 -225 -225 -225 -225 -225 -225 -225 -225 -225 -225 -225 -225 -225 -225 -225 -225 -225 -225 -225 -225 -225 -225 -225 -225 -225 -225 -225 -225 -225 -225 -225 -225 -225 -225 -225 -225 -225 -225 -225 -225 -225 -225 -225 -225 -225 -225 -225 -225 -225 -225 -225 -225 -225 -225 -225 -225 -225 -225 -225 -225 -225 -225 -225 -225 -225 -225 -225 -225 -225 -225 -225 -225 -225 -225 -225 -225 -225 -225 -225 -225 -225 -225 -225 -225 -225 -225 -225 -225 -225 -225 -225 -225 -225 -225 -225 -225 -225 -225 -225 -225 -225 -225 -225 -225 -225 -225 -225 -225 -225 -225 -225 -225 -225 -225 -225 -225 -225 -225 -225 -225 -225 -225 -225 -225 -225 -225 -225 -225 -225 -225 -225 -225 -225 -225 -225 -225 -225 -225 -225 -225 -225 -225 -225 101 98 97 97 101 98 98 98 100 102 106 106 108 108 113 113 112 111 114 111 115 114 114 110 110 111 111 110 109 108 108 109 109 110 109 110 107 108 107 107 105 105 106 109 111 113 117 119 120 123 125 125 125 126 129 132 131 132 131 130 131 134 137 137 139 143 148 152 150 149 149 148 147 147 147 146 144 147 147 150 155 157 158 159 159 161 162 162 162 162 163 165 -193 168 171 173 173 176 178 181 181 0 0 0 0 0
    0 0 0 0 0 0 0 0 0 0 0 0 0 0 0 0 0 0 0 0 0 0 0 0 0 0 0 0 0 0 0 0 0 0 0 0 0 0 0 0 0 0 0 0 0 0 0 0 0 0 0 0 0 0 0 0 0 0 0 0 0 0 0 0 0 0 0 0 0 -225 -225 -225 -225 -225 -225 -225 -225 -225 -225 -225 -225 -225 -225 -225 -225 -225 -225 -225 -225 -225 -225 -225 -225 -225 -225 -225 -225 -225 -225 -225 -225 -225 -225 -225 -225 -225 -225 -225 -225 -225 -225 -225 -225 -225 -225 -225 -225 -225 -225 -225 -225 -225 -225 -225 -225 -225 -225 -225 -225 -225 -225 -225 -225 -225 -225 -225 -225 -225 -225 -225 -225 -225 -225 -225 -225 -225 -225 -225 -225 -225 -225 -225 -225 -225 -225 -225 -225 -225 -225 -225 -225 -225 -225 -225 -225 -225 -225 -225 -225 -225 -225 -225 -225 -225 -225 -225 -225 -225 -225 -225 -225 -225 -225 -225 -225 -225 -225 -225 -225 -225 -225 -225 -225 -225 -225 -225 -225 -225 -225 -225 -225 -225 -225 -225 -225 -225 -225 -225 -225 -225 -225 -225 -225 -225 -225 -225 -225 -225 -193 101 100 98 99 102 108 106 109 110 114 114 113 112 116 113 117 116 116 113 111 113 112 110 109 108 108 109 109 111 110 111 107 111 108 108 107 107 108 110 112 113 115 118 120 122 124 124 124 -193 -193 133 133 133 133 133 133 135 137 137 138 -193 148 -193 151 150 150 149 147 147 147 145 144 146 147 149 154 157 158 159 160 161 163 163 163 164 164 166 -193 168 171 172 172 175 177 180 180 0 0 0 0 0
    0 0 0 0 0 0 0 0 0 0 0 0 0 0 0 0 0 0 0 0 0 0 0 0 0 0 0 0 0 0 0 0 0 0 0 0 0 0 0 0 0 0 0 0 0 0 0 0 0 0 0 0 0 0 0 0 0 0 0 0 0 0 0 0 0 0 0 0 0 -225 -225 -225 -225 -225 -225 -225 -225 -225 -225 -225 -225 -225 -225 -225 -225 -225 -225 -225 -225 -225 -225 -225 -225 -225 -225 -225 -225 -225 -225 -225 -225 -225 -225 -225 -225 -225 -225 -225 -225 -225 -225 -225 -225 -225 -225 -225 -225 -225 -225 -225 -225 -225 -225 -225 -225 -225 -225 -225 -225 -225 -225 -225 -225 -225 -225 -225 -225 -225 -225 -225 -225 -225 -225 -225 -225 -225 -225 -225 -225 -225 -225 -225 -225 -225 -225 -225 -225 -225 -225 -225 -225 -225 -225 -225 -225 -225 -225 -225 -225 -225 -225 -225 -225 -225 -225 -225 -225 -225 -225 -225 -225 -225 -225 -225 -225 -225 -225 -225 -225 -225 -225 -225 -225 -225 -225 -225 -225 -225 -225 -225 -225 -225 -225 -225 -225 -225 -225 -225 -225 -225 -225 -225 -225 -225 -225 -225 -225 -225 -225 -225 -225 92 91 102 109 107 110 112 115 116 115 115 118 115 118 117 116 112 111 112 111 108 108 107 106 108 109 110 110 111 108 113 110 109 109 110 109 111 113 112 114 116 120 121 122 -209 -209 -209 -209 -209 133 134 134 135 134 135 137 137 137 140 145 -193 149 148 148 148 146 144 145 143 142 144 144 -193 -193 156 157 159 160 162 163 163 164 164 165 166 -193 -193 172 172 173 177 179 181 181 0 0 0 0 0
    0 0 0 0 0 0 0 0 0 0 0 0 0 0 0 0 0 0 0 0 0 0 0 0 0 0 0 0 0 0 0 0 0 0 0 0 0 0 0 0 0 0 0 0 0 0 0 0 0 0 0 0 0 0 0 0 0 0 0 0 0 0 0 0 0 0 0 0 0 -225 -225 -225 -225 -225 -225 -225 -225 -225 -225 -225 -225 -225 -225 -225 -225 -225 -225 -225 -225 -225 -225 -225 -225 -225 -225 -225 -225 -225 -225 -225 -225 -225 -225 -225 -225 -225 -225 -225 -225 -225 -225 -225 -225 -225 -225 -225 -225 -225 -225 -225 -225 -225 -225 -225 -225 -225 -225 -225 -225 -225 -225 -225 -225 -225 -225 -225 -225 -225 -225 -225 -225 -225 -225 -225 -225 -225 -225 -225 -225 -225 -225 -225 -225 -225 -225 -225 -225 -225 -225 -225 -225 -225 -225 -225 -225 -225 -225 -225 -225 -225 -225 -225 -225 -225 -225 -225 -225 -225 -225 -225 -225 -225 -225 -225 -225 -225 -225 -225 -225 -225 -225 -225 -225 -225 -225 -225 -225 -225 -225 -225 -225 -225 -225 -225 -225 -225 -225 -225 -225 -225 -225 -225 -225 -225 -225 -225 -225 -225 -225 -225 -225 -225 90 101 107 107 111 112 116 116 115 116 119 117 119 118 117 115 114 116 114 110 109 107 107 109 110 111 111 111 110 117 112 111 110 114 111 112 114 113 113 117 119 122 123 -209 -209 -209 -209 -209 -209 -209 -209 -209 132 135 -193 137 138 139 143 149 146 146 146 147 144 -193 143 142 141 143 143 -193 -193 155 156 158 159 161 163 163 163 164 165 166 -193 -193 171 172 173 176 179 181 182 0 0 0 0 0
    0 0 0 0 0 0 0 0 0 0 0 0 0 0 0 0 0 0 0 0 0 0 0 0 0 0 0 0 0 0 0 0 0 0 0 0 0 0 0 0 0 0 0 0 0 0 0 0 0 0 0 0 0 0 0 0 0 0 0 0 0 0 0 0 0 0 0 0 0 -225 -225 -225 -225 -225 -225 -225 -225 -225 -225 -225 -225 -225 -225 -225 -225 -225 -225 -225 -225 -225 -225 -225 -225 -225 -225 -225 -225 -225 -225 -225 -225 -225 -225 -225 -225 -225 -225 -225 -225 -225 -225 -225 -225 -225 -225 -225 -225 -225 -225 -225 -225 -225 -225 -225 -225 -225 -225 -225 -225 -225 -225 -225 -225 -225 -225 -225 -225 -225 -225 -225 -225 -225 -225 -225 -225 -225 -225 -225 -225 -225 -225 -225 -225 -225 -225 -225 -225 -225 -225 -225 -225 -225 -225 -225 -225 -225 -225 -225 -225 -225 -225 -225 -225 -225 -225 -225 -225 -225 -225 -225 -225 -225 -225 -225 -225 -225 -225 -225 -225 -225 -225 -225 -225 -225 -225 -225 -225 -225 -225 -225 -225 -225 -225 -225 -225 -225 -225 -225 -225 -225 -225 -225 -225 -225 -225 -225 -225 -225 -225 -225 -225 -225 -225 102 105 107 110 112 116 116 115 117 119 118 120 119 118 116 116 116 115 110 109 108 108 110 110 111 114 114 113 117 114 111 110 114 114 113 114 113 114 116 120 123 124 122 122 -209 -209 -209 -209 -209 -209 -209 -209 -209 -209 138 139 140 145 149 147 147 148 148 146 144 145 144 143 145 145 146 -193 -193 156 157 158 160 163 164 164 164 165 166 -193 168 171 171 170 173 177 180 180 0 0 0 0 0
    0 0 0 0 0 0 0 0 0 0 0 0 0 0 0 0 0 0 0 0 0 0 0 0 0 0 0 0 0 0 0 0 0 0 0 0 0 0 0 0 0 0 0 0 0 0 0 0 0 0 0 0 0 0 0 0 0 0 0 0 0 0 0 0 0 0 0 0 0 -225 -225 -225 -225 -225 -225 -225 -225 -225 -225 -225 -225 -225 -225 -225 -225 -225 -225 -225 -225 -225 -225 -225 -225 -225 -225 -225 -225 -225 -225 -225 -225 -225 -225 -225 -225 -225 -225 -225 -225 -225 -225 -225 -225 -225 -225 -225 -225 -225 -225 -225 -225 -225 -225 -225 -225 -225 -225 -225 -225 -225 -225 -225 -225 -225 -225 -225 -225 -225 -225 -225 -225 -225 -225 -225 -225 -225 -225 -225 -225 -225 -225 -225 -225 -225 -225 -225 -225 -225 -225 -225 -225 -225 -225 -225 -225 -225 -225 -225 -225 -225 -225 -225 -225 -225 -225 -225 -225 -225 -225 -225 -225 -225 -225 -225 -225 -225 -225 -225 -225 -225 -225 -225 -225 -225 -225 -225 -225 -225 -225 -225 -225 -225 -225 -225 -225 -225 -225 -225 -225 -225 -225 -225 -225 -225 -225 -225 -225 -225 -225 -225 -225 -225 -225 -225 102 105 108 110 116 115 114 116 120 118 120 120 119 117 117 117 116 111 110 110 109 112 113 116 117 117 116 118 116 113 112 115 114 115 115 115 115 117 120 123 123 122 123 124 -209 -209 -209 -209 -209 -209 -209 -209 -209 139 140 140 145 149 147 146 148 148 146 145 146 145 145 147 148 149 152 155 156 158 159 160 164 165 165 166 166 168 -193 170 172 172 171 173 175 178 178 0 0 0 0 0
    0 0 0 0 0 0 0 0 0 0 0 0 0 0 0 0 0 0 0 0 0 0 0 0 0 0 0 0 0 0 0 0 0 0 0 0 0 0 0 0 0 0 0 0 0 0 0 0 0 0 0 0 0 0 0 0 0 0 0 0 0 0 0 0 0 0 0 0 0 -225 -225 -225 -225 -225 -225 -225 -225 -225 -225 -225 -225 -225 -225 -225 -225 -225 -225 -225 -225 -225 -225 -225 -225 -225 -225 -225 -225 -225 -225 -225 -225 -225 -225 -225 -225 -225 -225 -225 -225 -225 -225 -225 -225 -225 -225 -225 -225 -225 -225 -225 -225 -225 -225 -225 -225 -225 -225 -225 -225 -225 -225 -225 -225 -225 -225 -225 -225 -225 -225 -225 -225 -225 -225 -225 -225 -225 -225 -225 -225 -225 -225 -225 -225 -225 -225 -225 -225 -225 -225 -225 -225 -225 -225 -225 -225 -225 -225 -225 -225 -225 -225 -225 -225 -225 -225 -225 -225 -225 -225 -225 -225 -225 -225 -225 -225 -225 -225 -225 -225 -225 -225 -225 -225 -225 -225 -225 -225 -225 -225 -225 -225 -225 -225 -225 -225 -225 -225 -225 -225 -225 -225 -225 -225 -225 -225 -225 -225 -225 -225 -225 -225 -225 -225 -225 -225 102 109 -193 122 119 115 118 121 120 122 122 120 118 119 119 120 119 117 116 118 118 119 121 121 121 118 119 116 113 112 115 115 116 117 117 118 119 121 124 124 123 124 124 128 131 -209 -209 -209 -209 -209 138 137 138 138 139 142 145 143 143 146 147 146 145 145 145 146 148 148 149 152 154 155 157 159 160 163 165 165 166 167 169 -193 172 174 174 172 173 175 177 177 0 0 0 0 0
    0 0 0 0 0 0 0 0 0 0 0 0 0 0 0 0 0 0 0 0 0 0 0 0 0 0 0 0 0 0 0 0 0 0 0 0 0 0 0 0 0 0 0 0 0 0 0 0 0 0 0 0 0 0 0 0 0 0 0 0 0 0 0 0 0 0 0 0 0 -225 -225 -225 -225 -225 -225 -225 -225 -225 -225 -225 -225 -225 -225 -225 -225 -225 -225 -225 -225 -225 -225 -225 -225 -225 -225 -225 -225 -225 -225 -225 -225 -225 -225 -225 -225 -225 -225 -225 -225 -225 -225 -225 -225 -225 -225 -225 -225 -225 -225 -225 -225 -225 -225 -225 -225 -225 -225 -225 -225 -225 -225 -225 -225 -225 -225 -225 -225 -225 -225 -225 -225 -225 -225 -225 -225 -225 -225 -225 -225 -225 -225 -225 -225 -225 -225 -225 -225 -225 -225 -225 -225 -225 -225 -225 -225 -225 -225 -225 -225 -225 -225 -225 -225 -225 -225 -225 -225 -225 -225 -225 -225 -225 -225 -225 -225 -225 -225 -225 -225 -225 -225 -225 -225 -225 -225 -225 -225 -225 -225 -225 -225 -225 -225 -225 -225 -225 -225 -225 -225 -225 -225 -225 -225 -225 -225 -225 -225 -225 -225 -225 -225 -225 -225 -225 -225 -225 111 -193 -193 109 -193 115 121 121 123 122 121 120 121 121 122 122 121 121 122 121 122 123 123 122 121 121 117 111 111 114 114 116 118 118 119 120 122 124 125 123 125 124 128 131 132 132 -209 -209 -209 137 137 136 137 138 141 143 143 142 145 147 147 145 146 146 146 148 149 149 152 154 155 157 158 160 163 165 165 166 168 170 173 174 178 177 175 174 176 177 177 0 0 0 0 0
    0 0 0 0 0 0 0 0 0 0 0 0 0 0 0 0 0 0 0 0 0 0 0 0 0 0 0 0 0 0 0 0 0 0 0 0 0 0 0 0 0 0 0 0 0 0 0 0 0 0 0 0 0 0 0 0 0 0 0 0 0 0 0 0 0 0 0 0 0 -225 -225 -225 -225 -225 -225 -225 -225 -225 -225 -225 -225 -225 -225 -225 -225 -225 -225 -225 -225 -225 -225 -225 -225 -225 -225 -225 -225 -225 -225 -225 -225 -225 -225 -225 -225 -225 -225 -225 -225 -225 -225 -225 -225 -225 -225 -225 -225 -225 -225 -225 -225 -225 -225 -225 -225 -225 -225 -225 -225 -225 -225 -225 -225 -225 -225 -225 -225 -225 -225 -225 -225 -225 -225 -225 -225 -225 -225 -225 -225 -225 -225 -225 -225 -225 -225 -225 -225 -225 -225 -225 -225 -225 -225 -225 -225 -225 -225 -225 -225 -225 -225 -225 -225 -225 -225 -225 -225 -225 -225 -225 -225 -225 -225 -225 -225 -225 -225 -225 -225 -225 -225 -225 -225 -225 -225 -225 -225 -225 -225 -225 -225 -225 -225 -225 -225 -225 -225 -225 -225 -225 -225 -225 -225 -225 -225 -225 -225 -225 -225 -225 -225 -225 -225 -225 -225 -225 107 99 99 99 101 105 118 119 123 122 122 121 122 122 123 124 123 122 124 123 123 123 123 123 121 119 112 110 109 113 113 116 117 117 119 120 122 125 126 124 126 125 129 131 133 132 132 -209 -209 137 137 137 138 139 141 143 143 142 145 147 147 146 146 147 147 148 149 150 152 154 154 156 157 159 162 165 165 166 169 170 173 174 178 178 176 174 176 177 176 0 0 0 0 0
    0 0 0 0 0 0 0 0 0 0 0 0 0 0 0 0 0 0 0 0 0 0 0 0 0 0 0 0 0 0 0 0 0 0 0 0 0 0 0 0 0 0 0 0 0 0 0 0 0 0 0 0 0 0 0 0 0 0 0 0 0 0 0 0 0 0 0 0 0 -225 -225 -225 -225 -225 -225 -225 -225 -225 -225 -225 -225 -225 -225 -225 -225 -225 -225 -225 -225 -225 -225 -225 -225 -225 -225 -225 -225 -225 -225 -225 -225 -225 -225 -225 -225 -225 -225 -225 -225 -225 -225 -225 -225 -225 -225 -225 -225 -225 -225 -225 -225 -225 -225 -225 -225 -225 -225 -225 -225 -225 -225 -225 -225 -225 -225 -225 -225 -225 -225 -225 -225 -225 -225 -225 -225 -225 -225 -225 -225 -225 -225 -225 -225 -225 -225 -225 -225 -225 -225 -225 -225 -225 -225 -225 -225 -225 -225 -225 -225 -225 -225 -225 -225 -225 -225 -225 -225 -225 -225 -225 -225 -225 -225 -225 -225 -225 -225 -225 -225 -225 -225 -225 -225 -225 -225 -225 -225 -225 -225 -225 -225 -225 -225 -225 -225 -225 -225 -225 -225 -225 -225 -225 -225 -225 -225 -225 -225 -225 -225 -225 -225 -225 -225 -225 -225 -225 -225 99 99 99 102 107 114 116 120 120 119 120 122 122 124 124 125 124 125 125 125 124 125 123 -209 114 107 109 110 114 114 116 118 118 118 120 122 125 125 124 126 126 131 132 134 134 134 135 -209 138 138 138 139 139 141 142 142 141 144 146 147 145 144 146 146 148 149 148 151 152 153 155 156 157 160 164 165 166 169 170 172 173 176 176 175 175 178 178 177 0 0 0 0 0
    0 0 0 0 0 0 0 0 0 0 0 0 0 0 0 0 0 0 0 0 0 0 0 0 0 0 0 0 0 0 0 0 0 0 0 0 0 0 0 0 0 0 0 0 0 0 0 0 0 0 0 0 0 0 0 0 0 0 0 0 0 0 0 0 0 0 0 0 0 -225 -225 -225 -225 -225 -225 -225 -225 -225 -225 -225 -225 -225 -225 -225 -225 -225 -225 -225 -225 -225 -225 -225 -225 -225 -225 -225 -225 -225 -225 -225 -225 -225 -225 -225 -225 -225 -225 -225 -225 -225 -225 -225 -225 -225 -225 -225 -225 -225 -225 -225 -225 -225 -225 -225 -225 -225 -225 -225 -225 -225 -225 -225 -225 -225 -225 -225 -225 -225 -225 -225 -225 -225 -225 -225 -225 -225 -225 -225 -225 -225 -225 -225 -225 -225 -225 -225 -225 -225 -225 -225 -225 -225 -225 -225 -225 -225 -225 -225 -225 -225 -225 -225 -225 -225 -225 -225 -225 -225 -225 -225 -225 -225 -225 -225 -225 -225 -225 -225 -225 -225 -225 -225 -225 -225 -225 -225 -225 -225 -225 -225 -225 -225 -225 -225 -225 -225 -225 -225 -225 -225 -225 -225 -225 -225 -225 -225 -225 -225 -225 -225 -225 -225 -225 -225 -225 -225 -225 -225 -225 98 102 108 113 115 119 119 119 120 122 123 125 126 127 126 128 127 127 126 126 124 -193 112 115 111 112 116 116 118 119 119 120 120 122 125 125 124 126 125 130 131 133 133 133 135 -209 138 138 138 140 141 142 144 143 141 143 146 147 143 142 145 146 148 150 148 150 151 152 155 156 156 161 164 165 165 168 169 171 171 172 173 172 173 176 176 176 0 0 0 0 0
    0 0 0 0 0 0 0 0 0 0 0 0 0 0 0 0 0 0 0 0 0 0 0 0 0 0 0 0 0 0 0 0 0 0 0 0 0 0 0 0 0 0 0 0 0 0 0 0 0 0 0 0 0 0 0 0 0 0 0 0 0 0 0 0 0 0 0 0 0 -225 -225 -225 -225 -225 -225 -225 -225 -225 -225 -225 -225 -225 -225 -225 -225 -225 -225 -225 -225 -225 -225 -225 -225 -225 -225 -225 -225 -225 -225 -225 -225 -225 -225 -225 -225 -225 -225 -225 -225 -225 -225 -225 -225 -225 -225 -225 -225 -225 -225 -225 -225 -225 -225 -225 -225 -225 -225 -225 -225 -225 -225 -225 -225 -225 -225 -225 -225 -225 -225 -225 -225 -225 -225 -225 -225 -225 -225 -225 -225 -225 -225 -225 -225 -225 -225 -225 -225 -225 -225 -225 -225 -225 -225 -225 -225 -225 -225 -225 -225 -225 -225 -225 -225 -225 -225 -225 -225 -225 -225 -225 -225 -225 -225 -225 -225 -225 -225 -225 -225 -225 -225 -225 -225 -225 -225 -225 -225 -225 -225 -225 -225 -225 -225 -225 -225 -225 -225 -225 -225 -225 -225 -225 -225 -225 -225 -225 -225 -225 -225 -225 -225 -225 -225 -225 -225 -225 -225 -225 -225 -225 103 108 111 115 120 118 119 120 123 124 127 127 128 128 130 130 129 128 128 126 123 122 122 116 118 119 119 120 120 121 121 121 122 124 124 122 125 124 127 129 132 132 132 134 -209 138 138 138 140 142 142 144 142 141 144 146 147 145 143 147 148 151 152 150 151 152 153 155 157 157 161 165 165 165 167 168 169 169 169 169 167 169 171 172 171 0 0 0 0 0
    0 0 0 0 0 0 0 0 0 0 0 0 0 0 0 0 0 0 0 0 0 0 0 0 0 0 0 0 0 0 0 0 0 0 0 0 0 0 0 0 0 0 0 0 0 0 0 0 0 0 0 0 0 0 0 0 0 0 0 0 0 0 0 0 0 0 0 0 0 -225 -225 -225 -225 -225 -225 -225 -225 -225 -225 -225 -225 -225 -225 -225 -225 -225 -225 -225 -225 -225 -225 -225 -225 -225 -225 -225 -225 -225 -225 -225 -225 -225 -225 -225 -225 -225 -225 -225 -225 -225 -225 -225 -225 -225 -225 -225 -225 -225 -225 -225 -225 -225 -225 -225 -225 -225 -225 -225 -225 -225 -225 -225 -225 -225 -225 -225 -225 -225 -225 -225 -225 -225 -225 -225 -225 -225 -225 -225 -225 -225 -225 -225 -225 -225 -225 -225 -225 -225 -225 -225 -225 -225 -225 -225 -225 -225 -225 -225 -225 -225 -225 -225 -225 -225 -225 -225 -225 -225 -225 -225 -225 -225 -225 -225 -225 -225 -225 -225 -225 -225 -225 -225 -225 -225 -225 -225 -225 -225 -225 -225 -225 -225 -225 -225 -225 -225 -225 -225 -225 -225 -225 -225 -225 -225 -225 -225 -225 -225 -225 -225 -225 -225 -225 -225 -225 -225 -225 -225 -225 -225 -225 107 108 112 118 117 118 119 123 123 127 128 129 128 131 131 131 130 130 128 127 125 125 120 121 122 122 122 122 122 122 121 123 123 123 122 124 124 127 129 131 132 132 134 136 138 138 138 140 142 143 144 143 140 144 146 147 145 144 148 149 151 152 151 153 153 154 156 159 160 163 166 167 167 168 168 169 168 167 168 165 167 169 169 170 0 0 0 0 0
    0 0 0 0 0 0 0 0 0 0 0 0 0 0 0 0 0 0 0 0 0 0 0 0 0 0 0 0 0 0 0 0 0 0 0 0 0 0 0 0 0 0 0 0 0 0 0 0 0 0 0 0 0 0 0 0 0 0 0 0 0 0 0 0 0 0 0 0 0 -225 -225 -225 -225 -225 -225 -225 -225 -225 -225 -225 -225 -225 -225 -225 -225 -225 -225 -225 -225 -225 -225 -225 -225 -225 -225 -225 -225 -225 -225 -225 -225 -225 -225 -225 -225 -225 -225 -225 -225 -225 -225 -225 -225 -225 -225 -225 -225 -225 -225 -225 -225 -225 -225 -225 -225 -225 -225 -225 -225 -225 -225 -225 -225 -225 -225 -225 -225 -225 -225 -225 -225 -225 -225 -225 -225 -225 -225 -225 -225 -225 -225 -225 -225 -225 -225 -225 -225 -225 -225 -225 -225 -225 -225 -225 -225 -225 -225 -225 -225 -225 -225 -225 -225 -225 -225 -225 -225 -225 -225 -225 -225 -225 -225 -225 -225 -225 -225 -225 -225 -225 -225 -225 -225 -225 -225 -225 -225 -225 -225 -225 -225 -225 -225 -225 -225 -225 -225 -225 -225 -225 -225 -225 -225 -225 -225 -225 -225 -225 -225 -225 -225 -225 -225 -225 -225 -225 -225 -225 -225 -225 -225 105 105 108 116 114 116 119 122 123 127 129 129 129 132 131 131 131 131 129 129 129 128 123 124 126 124 124 126 123 123 123 124 123 123 123 124 123 127 128 131 132 133 135 137 138 138 138 139 142 141 144 143 141 144 146 147 145 144 148 148 150 152 151 153 153 155 157 160 163 163 166 167 167 168 168 168 167 167 167 166 167 169 169 170 0 0 0 0 0
    0 0 0 0 0 0 0 0 0 0 0 0 0 0 0 0 0 0 0 0 0 0 0 0 0 0 0 0 0 0 0 0 0 0 0 0 0 0 0 0 0 0 0 0 0 0 0 0 0 0 0 0 0 0 0 0 0 0 0 0 0 0 0 0 0 0 0 0 0 -225 -225 -225 -225 -225 -225 -225 -225 -225 -225 -225 -225 -225 -225 -225 -225 -225 -225 -225 -225 -225 -225 -225 -225 -225 -225 -225 -225 -225 -225 -225 -225 -225 -225 -225 -225 -225 -225 -225 -225 -225 -225 -225 -225 -225 -225 -225 -225 -225 -225 -225 -225 -225 -225 -225 -225 -225 -225 -225 -225 -225 -225 -225 -225 -225 -225 -225 -225 -225 -225 -225 -225 -225 -225 -225 -225 -225 -225 -225 -225 -225 -225 -225 -225 -225 -225 -225 -225 -225 -225 -225 -225 -225 -225 -225 -225 -225 -225 -225 -225 -225 -225 -225 -225 -225 -225 -225 -225 -225 -225 -225 -225 -225 -225 -225 -225 -225 -225 -225 -225 -225 -225 -225 -225 -225 -225 -225 -225 -225 -225 -225 -225 -225 -225 -225 -225 -225 -225 -225 -225 -225 -225 -225 -225 -225 -225 -225 -225 -225 -225 -225 -225 -225 -225 -225 -225 -225 -225 -225 -225 -225 -225 -225 106 110 118 116 117 120 123 124 127 130 129 130 132 132 132 132 132 131 131 133 131 125 127 128 129 127 129 125 124 123 125 123 123 122 123 122 124 126 129 130 131 132 135 137 136 136 138 141 140 143 143 143 146 147 148 146 144 148 148 149 150 149 151 152 154 158 161 164 164 166 167 167 168 168 168 168 167 168 168 168 169 170 171 0 0 0 0 0
    0 0 0 0 0 0 0 0 0 0 0 0 0 0 0 0 0 0 0 0 0 0 0 0 0 0 0 0 0 0 0 0 0 0 0 0 0 0 0 0 0 0 0 0 0 0 0 0 0 0 0 0 0 0 0 0 0 0 0 0 0 0 0 0 0 0 0 0 0 -225 -225 -225 -225 -225 -225 -225 -225 -225 -225 -225 -225 -225 -225 -225 -225 -225 -225 -225 -225 -225 -225 -225 -225 -225 -225 -225 -225 -225 -225 -225 -225 -225 -225 -225 -225 -225 -225 -225 -225 -225 -225 -225 -225 -225 -225 -225 -225 -225 -225 -225 -225 -225 -225 -225 -225 -225 -225 -225 -225 -225 -225 -225 -225 -225 -225 -225 -225 -225 -225 -225 -225 -225 -225 -225 -225 -225 -225 -225 -225 -225 -225 -225 -225 -225 -225 -225 -225 -225 -225 -225 -225 -225 -225 -225 -225 -225 -225 -225 -225 -225 -225 -225 -225 -225 -225 -225 -225 -225 -225 -225 -225 -225 -225 -225 -225 -225 -225 -225 -225 -225 -225 -225 -225 -225 -225 -225 -225 -225 -225 -225 -225 -225 -225 -225 -225 -225 -225 -225 -225 -225 -225 -225 -225 -225 -225 -225 -225 -225 -225 -225 -225 -225 -225 -225 -225 -225 -225 -225 -225 -225 -225 -225 -225 108 115 114 118 120 123 124 128 130 129 130 132 132 132 132 133 132 133 135 134 130 132 133 133 132 132 126 124 123 124 120 121 120 120 119 121 122 123 123 126 128 131 134 137 137 139 142 141 144 145 145 148 148 149 148 146 149 149 149 150 149 150 152 153 157 159 162 164 165 167 168 169 169 168 167 168 168 168 168 169 170 170 0 0 0 0 0
    0 0 0 0 0 0 0 0 0 0 0 0 0 0 0 0 0 0 0 0 0 0 0 0 0 0 0 0 0 0 0 0 0 0 0 0 0 0 0 0 0 0 0 0 0 0 0 0 0 0 0 0 0 0 0 0 0 0 0 0 0 0 0 0 0 0 0 0 0 -225 -225 -225 -225 -225 -225 -225 -225 -225 -225 -225 -225 -225 -225 -225 -225 -225 -225 -225 -225 -225 -225 -225 -225 -225 -225 -225 -225 -225 -225 -225 -225 -225 -225 -225 -225 -225 -225 -225 -225 -225 -225 -225 -225 -225 -225 -225 -225 -225 -225 -225 -225 -225 -225 -225 -225 -225 -225 -225 -225 -225 -225 -225 -225 -225 -225 -225 -225 -225 -225 -225 -225 -225 -225 -225 -225 -225 -225 -225 -225 -225 -225 -225 -225 -225 -225 -225 -225 -225 -225 -225 -225 -225 -225 -225 -225 -225 -225 -225 -225 -225 -225 -225 -225 -225 -225 -225 -225 -225 -225 -225 -225 -225 -225 -225 -225 -225 -225 -225 -225 -225 -225 -225 -225 -225 -225 -225 -225 -225 -225 -225 -225 -225 -225 -225 -225 -225 -225 -225 -225 -225 -225 -225 -225 -225 -225 -225 -225 -225 -225 -225 -225 -225 -225 -225 -225 -225 -225 -225 -225 -225 -225 -225 -225 -225 113 112 115 119 123 124 131 132 130 132 134 134 134 134 134 134 135 137 136 134 135 135 135 135 134 129 126 124 125 121 120 120 120 120 120 122 123 123 125 125 129 132 135 135 138 140 140 142 144 145 148 149 149 149 147 150 149 150 150 148 150 151 153 157 161 163 166 168 168 169 170 169 169 168 168 168 169 169 170 171 171 0 0 0 0 0
    0 0 0 0 0 0 0 0 0 0 0 0 0 0 0 0 0 0 0 0 0 0 0 0 0 0 0 0 0 0 0 0 0 0 0 0 0 0 0 0 0 0 0 0 0 0 0 0 0 0 0 0 0 0 0 0 0 0 0 0 0 0 0 0 0 0 0 0 0 -193 -193 -225 -225 -225 -225 -225 -225 -225 -225 -225 -225 -225 -225 -225 -225 -225 -225 -225 -225 -225 -225 -225 -225 -225 -225 -225 -225 -225 -225 -225 -225 -225 -225 -225 -225 -225 -225 -225 -225 -225 -225 -225 -225 -225 -225 -225 -225 -225 -225 -225 -225 -225 -225 -225 -225 -225 -225 -225 -225 -225 -225 -225 -225 -225 -225 -225 -225 -225 -225 -225 -225 -225 -225 -225 -225 -225 -225 -225 -225 -225 -225 -225 -225 -225 -225 -225 -225 -225 -225 -225 -225 -225 -225 -225 -225 -225 -225 -225 -225 -225 -225 -225 -225 -225 -225 -225 -225 -225 -225 -225 -225 -225 -225 -225 -225 -225 -225 -225 -225 -225 -225 -225 -225 -225 -225 -225 -225 -225 -225 -225 -225 -225 -225 -225 -225 -225 -225 -225 -225 -225 -225 -225 -225 -225 -225 -225 -225 -225 -225 -225 -225 -225 -225 -225 -225 -225 -225 -225 -225 -225 -225 -225 -225 -225 -225 112 116 119 121 124 131 132 130 132 134 135 135 136 135 136 137 139 138 137 136 137 136 137 135 130 127 123 124 120 120 120 120 121 120 122 124 124 125 124 128 130 132 133 134 137 137 140 142 -209 -209 149 150 149 149 150 150 150 151 150 151 153 154 158 167 167 169 169 169 169 170 169 169 166 167 167 168 169 170 170 170 0 0 0 0 0
    0 0 0 0 0 0 0 0 0 0 0 0 0 0 0 0 0 0 0 0 0 0 0 0 0 0 0 0 0 0 0 0 0 0 0 0 0 0 0 0 0 0 0 0 0 0 0 0 0 0 0 0 0 0 0 0 0 0 0 0 0 0 0 0 0 0 0 0 0 -193 154 158 159 163 167 168 -225 -225 -225 -225 -225 -225 -225 -225 -225 -225 -225 -225 -225 -225 -225 -225 -225 -225 -225 -225 -225 -225 -225 -225 -225 -225 -225 -225 -225 -225 -225 -225 -225 -225 -225 -225 -225 -225 -225 -225 -225 -225 -225 -225 -225 -225 -225 -225 -225 -225 -225 -225 -225 -225 -225 -225 -225 -225 -225 -225 -225 -225 -225 -225 -225 -225 -225 -225 -225 -225 -225 -225 -225 -225 -225 -225 -225 -225 -225 -225 -225 -225 -225 -225 -225 -225 -225 -225 -225 -225 -225 -225 -225 -225 -225 -225 -225 -225 -225 -225 -225 -225 -225 -225 -225 -225 -225 -225 -225 -225 -225 -225 -225 -225 -225 -225 -225 -225 -225 -225 -225 -225 -225 -225 -225 -225 -225 -225 -225 -225 -225 -225 -225 -225 -225 -225 -225 -225 -225 -225 -225 -225 -225 -225 -225 -225 -225 -225 -225 -225 -225 -225 -225 -225 -225 -225 -225 -225 -225 -225 115 118 122 126 133 133 131 133 135 136 136 137 136 137 138 139 139 138 138 139 138 139 137 135 134 127 129 124 124 121 123 122 121 123 125 126 125 123 126 127 127 130 132 135 136 139 143 -209 -209 150 150 150 150 151 151 152 152 151 152 153 154 157 165 165 169 169 169 169 170 169 168 166 167 167 167 168 169 170 170 0 0 0 0 0
    0 0 0 0 0 0 0 0 0 0 0 0 0 0 0 0 0 0 0 0 0 0 0 0 0 0 0 0 0 0 0 0 0 0 0 0 0 0 0 0 0 0 0 0 0 0 0 0 0 0 0 0 0 0 0 0 0 0 0 0 0 0 0 0 0 0 0 0 0 150 153 157 157 162 166 169 173 -225 -225 -225 -225 -225 -225 -225 -225 -225 -225 -225 -225 -225 -225 -225 -225 -225 -225 -225 -225 -225 -225 -225 -225 -225 -225 -225 -225 -225 -225 -225 -225 -225 -225 -225 -225 -225 -225 -225 -225 -225 -225 -225 -225 -225 -225 -225 -225 -225 -225 -225 -225 -225 -225 -225 -225 -225 -225 -225 -225 -225 -225 -225 -225 -225 -225 -225 -225 -225 -225 -225 -225 -225 -225 -225 -225 -225 -225 -225 -225 -225 -225 -225 -225 -225 -225 -225 -225 -225 -225 -225 -225 -225 -225 -225 -225 -225 -225 -225 -225 -225 -225 -225 -225 -225 -225 -225 -225 -225 -225 -225 -225 -225 -225 -225 -225 -225 -225 -225 -225 -225 -225 -225 -225 -225 -225 -225 -225 -225 -225 -225 -225 -225 -225 -225 -225 -225 -225 -225 -225 -225 -225 -225 -225 -225 -225 -225 -225 -225 -225 -225 -225 -225 -225 -225 -225 -225 -225 -225 -225 -225 119 123 133 133 131 131 134 136 136 138 138 139 139 141 141 141 140 141 140 140 138 136 136 132 133 130 130 127 129 129 130 130 132 133 132 129 132 130 130 131 131 133 134 137 141 145 148 149 151 151 151 151 152 152 153 152 153 153 154 156 162 160 165 167 168 168 170 168 168 167 167 168 168 168 169 170 170 0 0 0 0 0</data></disparity>
</opencv_storage>
