<?xml version="1.0"?>
<opencv_storage>
<gps_time_stamp>296422</gps_time_stamp>
<gps_x>-1.2387574195861816e+001</gps_x>
<gps_y>1.1009160041809082e+001</gps_y>
<gps_z>-2.0749661922454834e+000</gps_z>
<image_time_stamp>287259</image_time_stamp>
<disparity type_id="opencv-matrix">
  <rows>92</rows>
  <cols>320</cols>
  <dt>s</dt>
  <data>
    0 0 0 0 0 0 0 0 0 0 0 0 0 0 0 0 0 0 0 0 0 0 0 0 0 0 0 0 0 0 0 0 0 0 0 0 0 0 0 0 0 0 0 0 0 0 0 0 0 0 0 0 0 0 0 0 0 0 0 0 0 0 0 0 0 0 0 0 0 68 67 68 67 68 68 70 68 69 67 66 66 66 66 65 64 66 63 -193 58 55 56 53 52 49 48 46 46 45 44 44 43 43 41 40 40 39 38 38 38 37 35 35 35 35 32 31 32 32 31 31 31 30 29 30 29 25 24 19 18 18 18 18 17 17 16 10 14 13 13 13 13 10 0 0 -193 -193 -209 -193 -193 -193 -209 -209 0 0 -193 -193 29 30 12 14 14 17 -193 -193 -209 -225 -225 -225 -225 -225 -225 -225 -225 -225 -225 -225 -225 -225 -225 -225 -225 -225 -209 -193 -225 12 0 -193 0 0 10 0 9 10 -209 -209 30 29 30 32 33 34 35 35 36 37 37 39 40 40 41 42 44 45 43 44 44 45 47 48 48 48 49 53 53 53 53 52 53 55 53 53 53 55 53 55 58 58 59 63 64 67 63 66 68 66 68 66 64 66 63 68 68 67 68 72 73 73 74 75 76 77 78 79 80 80 81 81 83 84 84 83 83 83 82 84 82 82 83 83 84 86 87 89 93 102 97 97 102 98 98 98 98 98 97 99 99 92 104 109 110 110 111 110 111 114 113 113 115 117 117 117 116 116 116 0 0 0 0 0
    0 0 0 0 0 0 0 0 0 0 0 0 0 0 0 0 0 0 0 0 0 0 0 0 0 0 0 0 0 0 0 0 0 0 0 0 0 0 0 0 0 0 0 0 0 0 0 0 0 0 0 0 0 0 0 0 0 0 0 0 0 0 0 0 0 0 0 0 0 69 69 70 68 69 69 71 69 70 67 66 65 65 66 65 64 65 63 -193 -193 54 -193 53 52 48 48 46 46 45 45 44 43 43 41 40 40 38 38 38 38 37 36 35 35 34 32 31 32 31 30 30 30 30 29 29 29 25 24 19 18 17 18 18 17 16 16 10 13 13 13 13 12 11 0 0 0 -193 -193 0 0 0 0 -193 -225 -225 -225 30 34 36 -225 -225 -225 -225 -225 -225 -225 -225 -225 -225 -225 -225 -225 -225 -225 -225 -225 -225 -225 -225 -225 -225 -225 -225 -225 -225 -225 -225 -225 -225 -225 10 11 11 12 -193 -209 -193 32 32 32 35 35 35 36 35 36 36 37 39 38 39 40 41 44 45 43 44 44 46 47 48 48 48 48 52 52 53 52 52 52 55 52 52 53 55 53 54 57 57 58 62 63 66 63 65 68 66 68 67 64 66 63 68 68 67 69 73 75 75 76 76 77 78 79 79 79 80 80 81 83 82 83 83 84 83 -193 -193 84 84 85 87 86 87 88 90 93 102 97 97 102 98 98 98 98 98 97 99 99 92 102 106 108 108 109 108 110 113 114 112 114 117 116 117 115 115 115 0 0 0 0 0
    0 0 0 0 0 0 0 0 0 0 0 0 0 0 0 0 0 0 0 0 0 0 0 0 0 0 0 0 0 0 0 0 0 0 0 0 0 0 0 0 0 0 0 0 0 0 0 0 0 0 0 0 0 0 0 0 0 0 0 0 0 0 0 0 0 0 0 0 0 69 70 71 70 71 69 72 69 70 67 65 65 65 65 66 65 66 64 59 58 55 -193 53 52 49 49 46 47 45 45 44 43 43 42 41 40 39 39 38 38 38 37 36 36 35 33 31 32 31 30 30 30 29 29 28 29 25 24 19 18 18 18 18 17 17 17 11 13 13 13 13 13 11 0 0 0 0 0 0 -225 0 -225 -225 -225 -225 -225 -225 -225 -225 -225 -225 -225 -225 -225 -225 -225 -225 -225 -225 -225 -225 -225 -225 -225 -225 -225 -225 -225 -225 -225 -225 -225 -225 -225 -225 -225 -225 -225 -225 -225 -225 14 14 18 -209 -209 31 33 34 35 36 36 35 36 35 36 36 37 38 38 39 40 40 45 45 44 45 45 46 47 47 48 47 47 52 51 52 51 52 52 54 52 53 53 55 52 54 57 57 58 62 62 66 62 65 68 66 67 67 64 66 63 68 68 67 71 74 75 75 76 76 77 78 78 78 78 78 79 79 82 81 82 83 84 83 -193 -193 85 -209 86 90 87 87 89 91 94 102 96 96 101 98 98 98 99 98 97 100 100 92 102 104 106 106 107 107 109 113 114 112 114 117 116 116 115 115 115 0 0 0 0 0
    0 0 0 0 0 0 0 0 0 0 0 0 0 0 0 0 0 0 0 0 0 0 0 0 0 0 0 0 0 0 0 0 0 0 0 0 0 0 0 0 0 0 0 0 0 0 0 0 0 0 0 0 0 0 0 0 0 0 0 0 0 0 0 0 0 0 0 0 0 70 71 72 71 72 69 73 -193 70 67 66 65 65 65 65 64 65 64 59 58 55 55 53 51 49 49 46 47 45 45 44 43 43 43 -193 41 40 39 38 38 38 37 36 36 34 33 31 32 31 30 30 30 29 28 28 28 25 24 19 19 18 18 18 18 18 17 11 14 14 13 13 13 12 0 -225 -225 -225 -225 -225 -225 -225 -225 -225 -225 -225 -225 -225 -225 -225 -225 -225 -225 -225 -225 -225 -225 -225 -225 -225 -225 -225 -225 -225 -225 -225 -225 -225 -225 -225 -225 -225 -225 -225 -225 -225 -225 -225 -225 -225 -225 -225 -225 -225 -225 -209 35 34 35 36 36 36 36 35 36 35 36 36 37 38 38 39 40 40 45 45 44 45 45 46 46 47 48 46 47 51 50 52 52 52 52 54 53 53 53 55 52 54 57 57 57 61 61 65 62 64 68 65 67 66 64 66 63 68 69 67 72 74 75 75 76 76 77 78 77 77 77 78 77 77 81 80 82 83 85 85 85 87 86 -209 86 -209 86 85 88 90 92 102 96 96 101 98 99 98 99 99 98 100 100 93 102 104 104 104 105 105 108 112 115 112 114 117 116 116 115 114 115 0 0 0 0 0
    0 0 0 0 0 0 0 0 0 0 0 0 0 0 0 0 0 0 0 0 0 0 0 0 0 0 0 0 0 0 0 0 0 0 0 0 0 0 0 0 0 0 0 0 0 0 0 0 0 0 0 0 0 0 0 0 0 0 0 0 0 0 0 0 0 0 0 0 0 70 72 72 72 -193 68 -193 -193 70 67 67 66 66 65 64 64 64 63 58 57 55 54 53 51 49 49 46 47 45 45 44 43 43 43 -193 -193 40 39 38 38 37 36 35 35 34 33 31 32 30 30 30 30 29 28 28 28 25 24 20 19 17 18 18 17 18 18 12 15 14 14 14 14 14 -225 -225 -225 -225 -225 -225 -225 -225 -225 -225 -225 -225 -225 -225 -225 -225 -225 -225 -225 -225 -225 -225 -225 -225 -225 -225 -225 -225 -225 -225 -225 -225 -225 -225 -225 -225 -225 -225 -225 -225 -225 -225 -225 -225 -225 -225 -225 -225 -225 -225 -225 -225 35 34 34 36 35 35 36 35 36 35 36 36 36 38 38 38 38 39 46 44 44 45 44 45 46 47 48 46 47 51 50 52 51 52 51 54 52 53 52 55 51 54 56 56 56 61 61 64 61 64 67 64 66 66 64 67 64 69 69 67 73 74 74 74 75 76 76 77 77 76 76 76 76 77 80 79 82 84 86 86 86 87 87 -209 87 -193 86 86 89 90 93 103 96 96 101 99 99 99 99 99 98 101 101 94 102 103 103 103 104 104 106 112 115 111 113 117 115 115 114 114 114 0 0 0 0 0
    0 0 0 0 0 0 0 0 0 0 0 0 0 0 0 0 0 0 0 0 0 0 0 0 0 0 0 0 0 0 0 0 0 0 0 0 0 0 0 0 0 0 0 0 0 0 0 0 0 0 0 0 0 0 0 0 0 0 0 0 0 0 0 0 0 0 0 0 0 69 70 71 71 68 67 -193 -193 -193 68 68 66 66 65 64 64 64 62 59 57 55 54 53 51 49 48 45 46 44 44 44 42 43 43 -193 -193 39 39 38 37 37 36 35 35 34 33 32 32 31 29 29 30 29 28 28 27 25 23 20 19 17 18 18 17 18 18 12 15 15 15 15 15 15 -225 -225 -225 -225 -225 -225 -225 -225 -225 -225 -225 -225 -225 -225 -225 -225 -225 -225 -225 -225 -225 -225 -225 -225 -225 -225 -225 -225 -225 -225 -225 -225 -225 -225 -225 -225 -225 -225 -225 -225 -225 -225 -225 -225 -225 -225 -225 -225 -225 -225 -225 -225 35 34 34 35 35 35 35 35 36 35 36 36 37 38 38 38 40 40 47 44 44 45 44 45 46 46 47 45 47 50 50 52 51 51 51 54 52 53 52 55 50 53 56 56 56 60 60 63 61 63 67 63 66 66 64 67 65 69 70 68 73 74 74 74 75 76 76 77 76 76 76 76 76 76 79 78 81 85 86 85 85 87 87 88 88 90 87 87 89 91 96 104 96 96 101 100 100 99 100 100 99 102 102 96 101 102 103 103 103 103 105 110 116 111 112 116 114 114 114 113 114 0 0 0 0 0
    0 0 0 0 0 0 0 0 0 0 0 0 0 0 0 0 0 0 0 0 0 0 0 0 0 0 0 0 0 0 0 0 0 0 0 0 0 0 0 0 0 0 0 0 0 0 0 0 0 0 0 0 0 0 0 0 0 0 0 0 0 0 0 0 0 0 0 0 0 69 69 70 71 69 68 71 -193 -193 68 68 66 66 65 63 64 64 62 59 58 56 55 54 51 49 49 45 46 44 44 44 42 42 43 -193 -193 40 39 37 37 36 36 35 35 35 34 33 32 31 29 29 30 29 28 27 27 24 23 20 19 17 18 18 17 18 19 13 16 16 16 16 16 16 -225 -225 -225 -225 -225 -225 -225 -225 -225 -225 -225 -225 -225 -225 -225 -225 -225 -225 -225 -225 -225 -225 -225 -225 -225 -225 -225 -225 -225 -225 -225 -225 -225 -225 -225 -225 -225 -225 -225 -225 -225 -225 -225 -225 -225 -225 -225 -225 -225 -225 -225 36 36 35 35 36 35 35 35 35 36 35 36 36 37 39 39 39 41 41 47 44 44 44 44 45 45 46 46 44 46 49 49 51 49 50 50 53 51 53 51 55 50 54 56 56 56 60 60 62 61 63 67 63 66 66 65 67 66 69 70 68 73 73 74 73 75 75 75 76 75 75 74 75 75 74 76 76 80 84 86 85 85 86 87 88 88 90 89 88 91 92 97 104 96 96 101 101 100 100 100 100 99 103 103 99 100 102 102 102 103 103 105 109 116 111 112 116 113 113 113 112 113 0 0 0 0 0
    0 0 0 0 0 0 0 0 0 0 0 0 0 0 0 0 0 0 0 0 0 0 0 0 0 0 0 0 0 0 0 0 0 0 0 0 0 0 0 0 0 0 0 0 0 0 0 0 0 0 0 0 0 0 0 0 0 0 0 0 0 0 0 0 0 0 0 0 0 69 68 70 70 68 68 70 68 69 68 69 66 65 65 62 63 63 61 59 57 56 55 54 52 49 49 45 47 43 44 44 42 42 43 -193 -193 39 39 38 37 36 36 35 35 35 34 33 32 31 29 29 30 29 28 27 27 25 23 21 20 17 17 17 17 18 19 14 16 16 16 17 17 17 -225 -225 -225 -225 -225 -225 -225 -225 -225 -225 -225 -225 -225 -225 -225 -225 -225 -225 -225 -225 -225 -225 -225 -225 -225 -225 -225 -225 -225 -225 -225 -225 -225 -225 -225 -225 -225 -225 -225 -225 -225 -225 -225 -225 -225 -225 -225 -225 -225 -225 -225 35 36 35 36 36 35 35 35 36 36 36 37 37 38 39 40 40 43 42 47 44 45 44 44 44 44 45 45 44 45 48 48 50 49 50 49 53 51 53 51 55 50 54 56 56 55 60 59 62 61 63 67 63 66 66 65 68 66 69 70 68 72 73 73 73 74 75 75 75 75 75 74 74 74 73 74 75 79 83 85 85 85 87 87 88 89 91 90 88 93 96 -209 -193 97 97 101 102 101 101 101 101 100 103 103 101 99 102 102 102 103 103 105 107 116 111 111 115 113 113 113 112 113 0 0 0 0 0
    0 0 0 0 0 0 0 0 0 0 0 0 0 0 0 0 0 0 0 0 0 0 0 0 0 0 0 0 0 0 0 0 0 0 0 0 0 0 0 0 0 0 0 0 0 0 0 0 0 0 0 0 0 0 0 0 0 0 0 0 0 0 0 0 0 0 0 0 0 68 67 69 70 67 67 69 68 69 68 69 66 65 64 61 62 61 60 58 57 55 54 53 50 47 47 44 46 43 44 44 43 42 43 -193 -193 39 38 37 37 36 36 35 35 35 34 34 32 31 29 29 29 28 27 27 26 25 23 21 20 17 17 17 17 18 19 15 17 16 17 18 18 18 -225 -225 -225 -225 -225 -225 -225 -225 -225 -225 -225 -225 -225 -225 -225 -225 -225 -225 -225 -225 -225 -225 -225 -225 -225 -225 -225 -225 -225 -225 -225 -225 -225 -225 -225 -225 -225 -225 -225 -225 -225 -225 -225 -225 -225 -225 -225 -225 -225 -225 36 35 35 35 36 36 36 35 35 36 37 37 37 37 39 40 41 41 46 44 48 44 45 44 44 44 44 44 45 44 45 47 47 49 48 50 48 53 50 53 51 56 51 54 57 56 55 60 59 62 61 63 66 64 66 66 65 68 66 68 70 68 71 73 73 73 74 75 75 76 75 75 74 74 73 74 73 76 79 84 86 85 86 88 89 90 91 93 92 91 100 101 102 104 98 97 101 102 101 101 101 101 100 104 104 103 99 102 103 103 104 104 106 107 116 111 111 115 112 112 112 112 113 0 0 0 0 0
    0 0 0 0 0 0 0 0 0 0 0 0 0 0 0 0 0 0 0 0 0 0 0 0 0 0 0 0 0 0 0 0 0 0 0 0 0 0 0 0 0 0 0 0 0 0 0 0 0 0 0 0 0 0 0 0 0 0 0 0 0 0 0 0 0 0 0 0 0 68 66 69 -209 66 67 69 68 69 68 69 66 65 64 61 62 61 60 58 56 54 53 51 48 45 45 43 45 43 43 43 43 42 43 -209 40 39 38 37 36 36 36 35 35 35 35 33 31 31 29 28 29 28 27 27 26 25 23 21 21 18 17 17 16 18 19 16 17 16 16 18 18 18 -225 -225 -225 -225 -225 -225 -225 -225 -225 -225 -225 -225 -225 -225 -225 -225 -225 -225 -225 -225 -225 -225 -225 -225 -225 -225 -225 -225 -225 -225 -225 -225 -225 -225 -225 -225 -225 -225 -225 -225 -225 -225 -225 -225 -225 -225 -225 -225 -225 -225 35 35 34 35 36 36 35 35 35 36 36 37 37 38 39 41 41 42 47 44 48 44 45 44 43 43 44 44 44 43 45 46 47 49 48 49 47 52 49 53 50 56 51 54 57 56 56 60 59 61 61 63 66 64 66 66 65 68 67 68 70 69 71 73 74 73 74 75 75 75 75 75 74 74 74 74 72 76 80 86 87 86 87 88 89 91 93 94 94 95 101 101 101 103 98 97 101 102 101 101 101 101 100 104 104 104 98 103 105 104 105 105 106 107 116 110 111 115 112 112 112 112 113 0 0 0 0 0
    0 0 0 0 0 0 0 0 0 0 0 0 0 0 0 0 0 0 0 0 0 0 0 0 0 0 0 0 0 0 0 0 0 0 0 0 0 0 0 0 0 0 0 0 0 0 0 0 0 0 0 0 0 0 0 0 0 0 0 0 0 0 0 0 0 0 0 0 0 67 65 68 -193 66 67 69 68 68 68 69 66 66 64 61 61 61 60 59 56 54 53 50 47 45 45 42 45 43 43 43 43 42 43 -193 41 40 39 38 37 36 35 35 35 35 34 33 31 31 29 28 28 27 27 26 26 25 23 21 21 18 17 16 15 17 19 17 18 17 17 19 20 20 17 -225 -225 -225 -225 -225 -225 -225 -225 -225 -225 -225 -225 -225 -225 -225 -225 -225 -225 -225 -225 -225 -225 -225 -225 -225 -225 -225 -225 -225 -225 -225 -225 -225 -225 -225 -225 -225 -225 -225 -225 -225 -225 -225 -225 -225 -225 -225 -225 36 35 35 34 35 35 35 35 34 34 35 36 37 37 38 39 41 42 43 47 45 47 45 45 44 44 43 43 44 44 44 44 46 46 48 47 48 46 50 47 52 49 56 51 55 57 57 56 61 60 61 62 63 66 64 66 66 64 68 67 68 70 69 70 73 74 73 74 74 75 75 75 75 74 74 74 74 72 76 80 85 87 86 89 89 91 92 94 94 95 97 101 101 101 103 99 98 101 103 101 101 101 101 100 104 105 104 96 104 105 105 106 106 106 107 116 110 110 115 112 112 112 112 113 0 0 0 0 0
    0 0 0 0 0 0 0 0 0 0 0 0 0 0 0 0 0 0 0 0 0 0 0 0 0 0 0 0 0 0 0 0 0 0 0 0 0 0 0 0 0 0 0 0 0 0 0 0 0 0 0 0 0 0 0 0 0 0 0 0 0 0 0 0 0 0 0 0 0 66 64 67 66 66 67 68 68 68 68 69 67 66 64 61 60 60 59 58 56 54 53 49 47 45 45 43 46 44 45 44 44 43 44 42 42 40 39 38 37 36 35 35 35 35 34 34 31 30 29 28 27 27 26 26 25 24 23 20 21 18 17 15 14 15 19 17 19 17 18 20 21 21 20 -225 -225 -225 -225 -225 -225 -225 -225 -225 -225 -225 -225 -225 -225 -225 -225 -225 -225 -225 -225 -225 -225 -225 -225 -225 -225 -225 -225 -225 -225 -225 -225 -225 -225 -225 -225 -225 -225 -225 -225 -225 -225 -225 -225 -225 -225 -225 -225 36 35 34 34 35 35 35 34 34 34 35 36 37 37 38 39 42 42 44 47 46 47 45 46 45 44 44 43 44 44 44 44 46 46 48 47 48 45 49 46 51 48 56 51 55 58 57 57 61 60 61 62 63 66 64 65 66 64 68 67 67 70 69 69 73 74 74 75 75 76 76 77 78 78 78 77 78 76 78 81 85 86 85 88 89 91 93 97 95 96 97 100 100 99 102 99 98 101 103 101 100 100 101 100 104 104 103 93 103 105 105 105 106 106 107 116 110 111 115 113 113 113 113 114 0 0 0 0 0
    0 0 0 0 0 0 0 0 0 0 0 0 0 0 0 0 0 0 0 0 0 0 0 0 0 0 0 0 0 0 0 0 0 0 0 0 0 0 0 0 0 0 0 0 0 0 0 0 0 0 0 0 0 0 0 0 0 0 0 0 0 0 0 0 0 0 0 0 0 66 64 67 66 66 67 68 68 68 68 69 67 65 63 61 61 60 60 59 -193 -193 -193 -193 -193 46 46 43 46 44 46 45 45 44 44 43 42 40 39 38 37 36 35 34 35 34 33 33 31 30 29 27 27 27 26 26 25 24 23 20 21 18 17 15 14 15 18 16 19 17 19 20 23 23 23 -225 -225 -225 -225 -225 -225 -225 -225 -225 -225 -225 -225 -225 -225 -225 -225 -225 -225 -225 -225 -225 -225 -225 -225 -225 -225 -225 -225 -225 -225 -225 -225 -225 -225 -225 -225 -225 -225 -225 -225 -225 -225 -225 -225 -225 -225 -225 36 35 34 34 34 35 35 35 34 35 35 36 37 38 38 39 40 42 42 45 47 47 47 46 46 45 44 44 44 45 44 45 44 46 46 47 47 47 45 48 46 50 46 56 51 55 58 57 57 61 60 61 62 63 66 65 65 66 64 68 67 67 70 69 68 73 75 74 75 75 76 77 79 81 81 81 80 82 79 81 82 85 86 86 88 91 94 97 99 97 98 98 100 100 100 102 99 98 101 103 101 100 100 100 99 103 103 102 92 102 105 105 105 107 106 108 116 111 111 115 113 113 113 113 114 0 0 0 0 0
    0 0 0 0 0 0 0 0 0 0 0 0 0 0 0 0 0 0 0 0 0 0 0 0 0 0 0 0 0 0 0 0 0 0 0 0 0 0 0 0 0 0 0 0 0 0 0 0 0 0 0 0 0 0 0 0 0 0 0 0 0 0 0 0 0 0 0 0 0 67 66 67 67 66 67 67 67 67 67 69 66 65 63 61 61 60 60 60 58 -193 -209 -193 -193 -193 47 43 47 44 46 45 46 44 45 43 43 41 40 39 37 36 35 34 34 34 33 33 30 29 29 27 27 27 26 26 25 25 24 20 21 19 17 16 14 14 17 16 18 15 18 19 23 23 23 -225 -225 -225 -225 -225 -225 -225 -225 -225 -225 -225 -225 -225 -225 -225 -225 -225 -225 -225 -225 -225 -225 -225 -225 -225 -225 -225 -225 -225 -225 -225 -225 -225 -225 -225 -225 -225 -225 -225 -225 -225 -225 -225 -225 -225 -225 -225 35 35 34 34 34 34 34 35 35 35 35 36 36 37 37 38 39 40 41 44 46 46 46 46 45 46 45 45 44 45 44 45 45 47 46 47 47 47 45 48 48 53 50 58 54 56 60 58 58 62 60 61 62 63 65 65 65 66 64 67 67 66 69 69 66 73 75 75 75 75 77 78 81 82 83 84 82 84 83 83 83 85 86 86 88 93 95 99 101 99 100 100 101 101 100 102 99 98 101 104 100 99 100 100 98 102 102 101 91 102 105 105 105 108 107 110 116 112 112 115 114 114 114 114 114 0 0 0 0 0
    0 0 0 0 0 0 0 0 0 0 0 0 0 0 0 0 0 0 0 0 0 0 0 0 0 0 0 0 0 0 0 0 0 0 0 0 0 0 0 0 0 0 0 0 0 0 0 0 0 0 0 0 0 0 0 0 0 0 0 0 0 0 0 0 0 0 0 0 0 68 66 67 66 65 66 66 66 66 66 68 65 64 62 61 61 60 60 60 59 -193 -209 -209 -193 -209 -209 43 46 44 45 44 46 44 45 43 43 42 41 40 38 36 35 34 34 34 33 33 30 28 29 27 26 26 26 26 25 25 24 20 22 20 18 16 15 15 17 15 18 14 18 18 24 24 24 -225 -225 -225 -225 -225 -225 -225 -225 -225 -225 -225 -225 -225 -225 -225 -225 -225 -225 -225 -225 -225 -225 -225 -225 -225 -225 -225 -225 -225 -225 -225 -225 -225 -225 -225 -225 -225 -225 -225 -225 -225 -225 -225 -225 -225 -225 35 35 34 34 34 34 34 34 35 35 35 35 35 35 36 37 39 39 40 40 44 45 47 46 47 45 46 45 45 44 46 45 45 45 47 46 47 47 47 45 48 49 54 53 59 56 57 61 59 58 63 60 61 63 63 65 65 65 66 63 67 67 64 69 68 63 73 74 74 74 74 76 78 82 83 84 84 83 85 84 83 83 84 85 86 88 93 95 101 101 100 100 100 101 101 99 102 99 99 101 104 100 99 99 99 98 101 101 100 91 102 105 105 106 110 108 112 116 112 112 115 115 115 114 115 115 0 0 0 0 0
    0 0 0 0 0 0 0 0 0 0 0 0 0 0 0 0 0 0 0 0 0 0 0 0 0 0 0 0 0 0 0 0 0 0 0 0 0 0 0 0 0 0 0 0 0 0 0 0 0 0 0 0 0 0 0 0 0 0 0 0 0 0 0 0 0 0 0 0 0 70 66 66 64 63 64 65 65 65 65 67 65 64 62 61 60 60 60 59 58 -209 -209 -209 -193 -209 -209 42 45 44 45 44 46 44 44 43 43 41 40 39 38 36 35 34 34 33 32 32 30 27 28 26 26 26 25 25 25 25 25 21 22 20 19 17 15 15 17 15 18 14 18 18 25 26 26 -225 -225 -225 -225 -225 -225 -225 -225 -225 -225 -225 -225 -225 -225 -225 -225 -225 -225 -225 -225 -225 -225 -225 -225 -225 -225 -225 -225 -225 -225 -225 -225 -225 -225 -225 -225 -225 -225 -225 -225 -225 -225 -225 -225 -225 34 34 35 34 34 34 34 34 34 35 35 35 35 36 35 37 38 40 40 41 41 44 45 47 46 47 45 47 46 46 45 47 45 46 45 48 46 47 47 48 46 48 51 54 53 58 58 57 61 59 59 63 61 61 63 63 64 65 65 65 62 66 66 63 67 67 61 73 74 74 74 74 77 81 83 84 85 85 84 85 83 83 83 84 84 84 87 90 93 101 102 101 101 101 102 102 101 103 100 100 101 104 100 99 99 99 97 100 100 99 91 103 106 106 106 111 108 113 116 112 113 116 115 115 115 115 115 0 0 0 0 0
    0 0 0 0 0 0 0 0 0 0 0 0 0 0 0 0 0 0 0 0 0 0 0 0 0 0 0 0 0 0 0 0 0 0 0 0 0 0 0 0 0 0 0 0 0 0 0 0 0 0 0 0 0 0 0 0 0 0 0 0 0 0 0 0 0 0 0 0 0 70 65 65 64 62 63 64 64 65 65 66 66 65 62 62 60 59 59 58 57 55 54 -193 47 -209 -209 -209 -193 44 45 43 46 43 44 43 43 41 40 39 38 36 35 34 34 33 31 32 29 27 28 26 26 26 25 25 26 25 25 21 22 20 19 17 15 15 17 15 19 14 19 18 26 27 27 -225 -225 -225 -225 -225 -225 -225 -225 -225 -225 -225 -225 -225 -225 -225 -225 -225 -225 -225 -225 -225 -225 -225 -225 -225 -225 -225 -225 -225 -225 -225 -225 -225 -225 -225 -225 -225 -225 -225 -225 -225 -225 -225 -225 -225 34 34 35 34 34 34 34 34 34 36 35 36 36 36 36 38 39 40 40 41 41 44 44 47 45 47 46 47 46 46 45 48 46 47 46 48 46 48 48 49 47 49 53 55 55 59 60 58 62 60 59 63 61 61 64 62 64 64 64 65 62 66 66 62 67 67 61 73 74 74 74 75 78 83 84 85 85 85 84 84 83 83 82 83 83 83 86 88 92 101 102 102 102 102 102 102 101 103 101 100 101 104 99 98 98 98 96 99 99 99 91 103 106 107 107 113 109 114 116 113 113 116 116 115 115 116 115 0 0 0 0 0
    0 0 0 0 0 0 0 0 0 0 0 0 0 0 0 0 0 0 0 0 0 0 0 0 0 0 0 0 0 0 0 0 0 0 0 0 0 0 0 0 0 0 0 0 0 0 0 0 0 0 0 0 0 0 0 0 0 0 0 0 0 0 0 0 0 0 0 0 0 70 67 66 65 63 63 64 64 66 65 66 66 66 63 63 60 59 59 58 57 56 54 50 47 49 -209 -209 -209 44 45 44 46 44 44 43 43 41 40 39 38 36 35 34 34 33 31 32 29 27 29 27 26 26 26 26 26 25 25 21 22 20 19 17 15 15 17 15 19 14 20 18 26 29 29 -225 -225 -225 -225 -225 -225 -225 -225 -225 -225 -225 -225 -225 -225 -225 -225 -225 -225 -225 -225 -225 -225 -225 -225 -225 -225 -225 -225 -225 -225 -225 -225 -225 -225 -225 -225 -225 -225 -225 -225 -225 -225 -225 -225 34 34 34 34 34 34 34 34 34 34 35 35 36 34 35 36 37 38 39 39 40 41 44 44 47 45 48 46 48 47 46 46 49 47 47 46 49 46 48 49 49 47 50 54 55 55 59 61 59 62 60 60 63 61 61 64 62 64 64 64 65 62 66 66 62 67 67 61 73 73 73 73 74 76 80 81 83 83 83 83 84 83 83 82 83 82 84 86 89 92 101 101 101 102 101 -193 102 101 103 -193 101 101 103 99 98 98 97 96 98 99 98 91 103 106 107 108 114 109 115 116 113 113 116 116 115 115 116 116 0 0 0 0 0
    0 0 0 0 0 0 0 0 0 0 0 0 0 0 0 0 0 0 0 0 0 0 0 0 0 0 0 0 0 0 0 0 0 0 0 0 0 0 0 0 0 0 0 0 0 0 0 0 0 0 0 0 0 0 0 0 0 0 0 0 0 0 0 0 0 0 0 0 0 70 68 68 67 64 63 63 64 66 65 65 65 66 63 63 60 59 59 58 57 56 55 53 50 52 50 43 47 44 45 44 46 44 44 44 43 41 40 39 38 36 36 34 34 33 31 32 29 27 29 27 26 26 26 26 26 24 24 20 22 19 19 17 15 15 17 15 19 14 20 17 27 30 30 -225 -225 -225 -225 -225 -225 -225 -225 -225 -225 -225 -225 -225 -225 -225 -225 -225 -225 -225 -225 -225 -225 -225 -225 -225 -225 -225 -225 -225 -225 -225 -225 -225 -225 -225 -225 -225 -225 -225 -225 -225 -225 -225 -225 34 33 33 33 33 34 33 33 33 33 35 35 36 34 36 36 37 38 39 39 39 40 43 43 47 45 48 46 49 47 47 46 50 47 48 46 49 46 49 50 50 48 52 55 56 56 59 62 60 63 60 60 63 61 62 64 62 63 64 64 64 62 66 66 62 67 67 61 72 72 72 71 73 74 77 78 80 81 81 81 82 82 83 81 82 82 83 85 88 90 96 96 96 97 99 -193 -193 -193 -209 -193 100 100 103 98 97 97 97 96 98 98 98 91 103 106 107 108 114 109 115 115 113 113 116 116 116 115 117 116 0 0 0 0 0
    0 0 0 0 0 0 0 0 0 0 0 0 0 0 0 0 0 0 0 0 0 0 0 0 0 0 0 0 0 0 0 0 0 0 0 0 0 0 0 0 0 0 0 0 0 0 0 0 0 0 0 0 0 0 0 0 0 0 0 0 0 0 0 0 0 0 0 0 0 70 68 67 67 64 62 62 63 65 64 63 64 65 62 62 60 59 59 58 58 57 56 55 52 53 51 45 48 44 46 44 46 44 44 44 43 41 40 39 38 36 36 34 34 33 30 32 29 28 29 27 27 26 26 26 26 24 24 20 22 19 19 17 16 15 17 15 18 14 20 16 27 30 30 -225 -225 -225 -225 -225 -225 -225 -225 -225 -225 -225 -225 -225 -225 -225 -225 -225 -225 -225 -225 -225 -225 -225 -225 -225 -225 -225 -225 -225 -225 -225 -225 -225 -225 -225 -225 -225 -225 -225 -225 -225 -225 -225 34 33 32 32 32 32 32 31 32 32 32 35 35 35 35 37 37 38 38 39 39 40 40 43 42 46 45 48 46 48 47 47 47 50 47 48 46 49 47 49 50 51 49 53 56 57 57 59 63 60 63 60 60 63 61 62 64 61 63 64 64 64 62 66 65 62 67 67 61 71 72 72 70 74 75 78 79 81 82 82 82 83 82 83 81 82 82 83 84 86 87 91 91 88 91 -209 -209 -209 -209 -209 -193 99 100 103 98 98 98 97 96 98 99 98 92 103 105 106 107 113 109 116 115 114 114 116 117 116 116 117 116 0 0 0 0 0
    0 0 0 0 0 0 0 0 0 0 0 0 0 0 0 0 0 0 0 0 0 0 0 0 0 0 0 0 0 0 0 0 0 0 0 0 0 0 0 0 0 0 0 0 0 0 0 0 0 0 0 0 0 0 0 0 0 0 0 0 0 0 0 0 0 0 0 0 0 69 68 67 66 65 63 63 63 65 64 63 64 65 62 62 61 59 59 58 58 57 56 56 53 52 51 45 49 44 45 44 45 43 43 43 42 40 39 38 37 36 36 34 34 33 30 31 30 28 29 28 28 27 27 26 26 23 24 20 22 19 19 17 16 15 17 15 18 13 19 15 26 29 29 -225 -225 -225 -225 -225 -225 -225 -225 -225 -225 -225 -225 -225 -225 -225 -225 -225 -225 -225 -225 -225 -225 -225 -225 -225 -225 -225 -225 -225 -225 -225 -225 -225 -225 -225 -225 -225 -225 -225 -225 -225 -225 -225 33 33 32 32 32 32 32 31 32 32 34 36 36 35 36 37 37 37 38 39 39 39 40 41 41 46 44 47 45 48 47 47 47 50 47 49 47 50 47 49 51 51 50 54 56 57 58 59 63 60 63 60 60 63 61 62 64 61 63 64 64 64 62 66 65 62 66 67 61 71 71 71 70 74 75 78 78 79 80 81 82 83 83 83 81 82 82 82 85 87 86 88 88 86 -193 -209 -209 -209 -209 -209 -193 100 100 103 99 98 98 98 96 98 99 99 93 103 106 106 107 112 109 116 115 114 113 116 117 116 116 118 117 0 0 0 0 0
    0 0 0 0 0 0 0 0 0 0 0 0 0 0 0 0 0 0 0 0 0 0 0 0 0 0 0 0 0 0 0 0 0 0 0 0 0 0 0 0 0 0 0 0 0 0 0 0 0 0 0 0 0 0 0 0 0 0 0 0 0 0 0 0 0 0 0 0 0 69 68 68 67 66 65 66 66 67 65 63 63 65 61 62 61 59 58 57 57 57 56 56 54 50 50 45 49 44 45 43 44 -193 42 42 41 40 38 38 37 36 36 34 35 33 30 31 30 28 30 28 28 27 26 26 26 23 23 20 21 19 19 17 16 15 17 14 17 13 17 14 25 27 27 -225 -225 -225 -225 -225 -225 -225 -225 -225 -225 -225 -225 -225 -225 -225 -225 -225 -225 -225 -225 -225 -225 -225 -225 -225 -225 -225 -225 -225 -225 -225 -225 -225 -225 -225 -225 -225 -225 -225 -225 -225 -225 33 33 32 32 31 32 31 31 31 32 33 34 37 36 36 37 38 38 38 39 39 39 39 40 41 41 45 44 47 45 47 47 47 47 50 47 49 47 50 48 49 51 52 51 54 57 58 58 59 64 61 63 61 60 63 61 62 64 61 62 64 63 64 62 66 65 62 66 67 61 70 70 71 69 74 75 78 76 77 79 79 81 82 82 82 81 81 81 82 85 85 84 86 86 84 84 -209 -193 -209 -209 -209 -193 101 101 103 100 99 99 99 97 99 100 100 94 104 106 106 107 111 110 115 114 113 113 116 117 117 117 118 -193 0 0 0 0 0
    0 0 0 0 0 0 0 0 0 0 0 0 0 0 0 0 0 0 0 0 0 0 0 0 0 0 0 0 0 0 0 0 0 0 0 0 0 0 0 0 0 0 0 0 0 0 0 0 0 0 0 0 0 0 0 0 0 0 0 0 0 0 0 0 0 0 0 0 0 69 68 68 68 67 67 68 68 68 66 63 64 65 61 61 62 58 58 57 57 56 56 55 53 48 48 45 49 45 45 43 43 -193 41 41 40 39 38 38 37 36 37 35 35 33 30 32 30 29 30 28 29 27 26 25 26 23 23 20 21 19 18 16 16 15 17 14 16 13 16 14 25 26 -225 -225 -225 -225 -225 -225 -225 -225 -225 -225 -225 -225 -225 -225 -225 -225 -225 -225 -225 -225 -225 -225 -225 -225 -225 -225 -225 -225 -225 -225 -225 -225 -225 -225 -225 -225 -225 -225 -225 -225 -225 -225 -225 32 32 31 31 30 31 30 30 30 31 31 34 35 36 36 38 38 38 38 39 40 40 40 40 41 41 45 44 47 45 47 47 46 46 49 47 48 46 49 48 49 52 52 51 55 57 57 57 58 65 61 63 60 60 63 61 -193 -193 60 62 63 63 64 62 66 65 62 66 66 61 70 70 70 68 74 75 78 76 78 79 78 80 81 81 81 80 81 80 81 84 83 83 85 85 83 83 -193 -193 -209 -209 -193 -193 101 101 104 100 99 99 99 98 99 100 100 94 104 107 106 107 110 110 115 113 113 112 116 117 117 117 118 -193 0 0 0 0 0
    0 0 0 0 0 0 0 0 0 0 0 0 0 0 0 0 0 0 0 0 0 0 0 0 0 0 0 0 0 0 0 0 0 0 0 0 0 0 0 0 0 0 0 0 0 0 0 0 0 0 0 0 0 0 0 0 0 0 0 0 0 0 0 0 0 0 0 0 0 68 68 69 69 68 68 69 69 70 68 64 64 65 60 61 62 58 57 56 56 56 55 55 52 48 48 46 49 46 47 43 43 -193 -193 40 39 39 38 37 37 36 37 35 35 34 31 32 30 29 30 29 30 28 26 25 26 22 23 20 21 19 18 16 16 15 16 14 16 12 14 14 25 25 -225 -225 -225 -225 -225 -225 -225 -225 -225 -225 -225 -225 -225 -225 -225 -225 -225 -225 -225 -225 -225 -225 -225 -225 -225 -225 -225 -225 -225 -225 -225 -225 -225 -225 -225 -225 -225 -225 -225 -225 -225 -225 32 32 32 31 31 30 30 29 29 28 30 29 33 35 36 36 38 38 39 39 39 39 39 40 39 40 40 44 43 46 45 46 46 46 46 49 46 48 46 49 48 50 52 53 52 55 57 57 57 58 65 61 63 60 59 62 61 -193 -193 60 61 63 63 64 62 66 65 62 66 66 61 69 70 70 68 74 75 77 76 78 78 78 78 79 79 79 78 80 79 80 83 83 81 83 83 81 82 -193 -193 -209 -209 -193 103 101 101 104 100 100 100 99 98 100 101 100 94 104 106 106 106 108 110 115 112 112 112 116 117 117 117 118 -193 0 0 0 0 0
    0 0 0 0 0 0 0 0 0 0 0 0 0 0 0 0 0 0 0 0 0 0 0 0 0 0 0 0 0 0 0 0 0 0 0 0 0 0 0 0 0 0 0 0 0 0 0 0 0 0 0 0 0 0 0 0 0 0 0 0 0 0 0 0 0 0 0 0 0 68 69 69 69 69 68 69 70 70 68 65 64 65 60 60 62 58 57 57 56 56 56 55 53 48 48 47 49 47 48 44 43 -193 -193 40 39 39 38 38 37 37 38 35 36 35 32 33 31 30 30 29 31 29 27 26 25 22 22 20 21 18 17 15 15 15 15 14 15 12 13 13 23 23 -225 -225 -225 -225 -225 -225 -225 -225 -225 -225 -225 -225 -225 -225 -225 -225 -225 -225 -225 -225 -225 -225 -225 -225 -225 -225 -225 -225 -225 -225 -225 -225 -225 -225 -225 -225 -225 -225 -225 -225 -225 33 32 32 31 31 30 29 28 28 27 27 28 27 32 33 36 36 38 38 38 38 38 38 38 39 39 39 40 43 42 46 45 46 46 46 46 49 46 49 46 49 48 50 53 53 53 56 57 57 58 59 66 62 63 61 59 63 61 61 64 60 61 63 63 64 62 66 65 62 66 66 60 69 70 70 69 75 76 77 77 78 78 77 78 -193 78 78 78 80 83 82 84 84 81 83 83 83 -209 -209 -209 -209 96 101 103 101 101 104 100 100 100 100 99 100 101 100 94 103 105 105 106 107 111 114 112 112 112 116 117 117 117 118 -193 0 0 0 0 0
    0 0 0 0 0 0 0 0 0 0 0 0 0 0 0 0 0 0 0 0 0 0 0 0 0 0 0 0 0 0 0 0 0 0 0 0 0 0 0 0 0 0 0 0 0 0 0 0 0 0 0 0 0 0 0 0 0 0 0 0 0 0 0 0 0 0 0 0 0 69 69 70 69 69 68 69 69 69 66 63 63 62 59 59 62 58 58 57 56 56 56 55 53 48 48 46 47 46 46 43 42 -193 39 40 39 39 38 38 37 37 38 36 36 35 33 34 32 30 30 28 30 29 27 25 25 22 22 20 20 18 17 15 15 15 15 14 14 12 12 13 21 21 -225 -225 -225 -225 -225 -225 -225 -225 -225 -225 -225 -225 -225 -225 -225 -225 -225 -225 -225 -225 -225 -225 -225 -225 -225 -225 -225 -225 -225 -225 -225 -225 -225 -225 -225 -225 -225 -225 -225 24 29 29 30 30 31 31 30 29 28 28 28 28 28 27 32 32 35 35 37 37 37 37 37 37 37 38 38 39 39 42 42 45 44 46 46 46 46 49 46 49 46 50 49 50 53 54 54 57 57 58 58 58 67 62 63 61 59 63 61 61 64 60 61 64 63 64 62 66 65 62 66 66 60 70 70 71 70 75 77 77 78 77 78 77 79 81 83 82 85 84 88 87 89 89 85 86 86 87 88 -193 87 90 94 100 102 101 101 103 100 100 100 100 99 100 100 100 94 102 105 104 105 106 111 114 112 112 112 115 118 117 117 118 -193 0 0 0 0 0
    0 0 0 0 0 0 0 0 0 0 0 0 0 0 0 0 0 0 0 0 0 0 0 0 0 0 0 0 0 0 0 0 0 0 0 0 0 0 0 0 0 0 0 0 0 0 0 0 0 0 0 0 0 0 0 0 0 0 0 0 0 0 0 0 0 0 0 0 0 69 69 69 69 68 67 68 68 68 63 62 61 60 58 57 62 58 58 57 57 56 56 56 54 47 48 47 46 45 45 42 41 40 39 39 39 38 38 38 38 37 38 36 36 35 33 33 32 29 29 28 30 28 27 25 24 22 22 20 20 18 16 15 15 15 15 14 13 11 11 13 20 20 -225 -225 -225 -225 -225 -225 -225 -225 -225 -225 -225 -225 -225 -225 -225 -225 -225 -225 -225 -225 -225 -225 -225 -225 -225 -225 -225 -225 -225 -225 -225 -225 -225 -225 -225 -225 -225 21 22 23 26 27 27 28 30 30 30 29 28 28 28 28 30 28 34 32 36 35 37 36 36 37 36 36 37 37 37 38 39 41 41 44 44 45 45 46 46 48 46 49 47 51 49 51 54 55 55 56 57 58 58 59 67 62 63 61 60 63 61 61 64 60 61 64 63 64 62 66 65 62 66 66 60 71 71 71 71 75 77 77 79 78 79 78 81 84 -193 85 87 86 87 87 89 89 87 87 87 88 90 94 95 98 98 101 103 103 102 103 101 100 100 100 99 100 100 100 95 101 104 104 105 106 112 113 112 112 112 115 118 117 117 117 120 0 0 0 0 0
    0 0 0 0 0 0 0 0 0 0 0 0 0 0 0 0 0 0 0 0 0 0 0 0 0 0 0 0 0 0 0 0 0 0 0 0 0 0 0 0 0 0 0 0 0 0 0 0 0 0 0 0 0 0 0 0 0 0 0 0 0 0 0 0 0 0 0 0 0 70 69 69 68 68 67 67 68 67 62 61 61 58 57 -193 62 58 58 57 57 56 56 56 54 47 47 47 46 45 44 42 41 40 39 38 38 38 38 38 37 37 38 36 36 35 34 33 32 30 29 28 30 28 27 25 24 22 22 20 20 19 16 15 15 16 14 13 13 11 10 13 18 18 -225 -225 -225 -225 -225 -225 -225 -225 -225 -225 -225 -225 -225 -225 -225 -225 -225 -225 -225 -225 -225 -225 -225 -225 -225 -225 -225 -225 -225 -225 -225 -225 -225 -225 -225 -225 20 19 21 22 24 24 24 26 28 29 29 27 27 27 28 29 30 29 35 33 36 34 37 36 36 37 36 35 36 37 37 38 39 41 -193 44 44 45 45 46 46 48 46 49 47 51 50 51 54 55 55 56 57 58 58 59 67 62 63 63 61 64 62 62 64 60 62 64 63 64 62 65 65 62 66 66 60 71 72 72 73 75 77 78 80 79 80 80 83 86 90 88 89 88 89 90 90 90 88 87 88 93 97 97 98 99 100 101 103 104 103 104 102 101 100 101 100 100 99 99 95 99 103 105 105 105 113 113 112 112 112 114 118 116 117 117 120 0 0 0 0 0
    0 0 0 0 0 0 0 0 0 0 0 0 0 0 0 0 0 0 0 0 0 0 0 0 0 0 0 0 0 0 0 0 0 0 0 0 0 0 0 0 0 0 0 0 0 0 0 0 0 0 0 0 0 0 0 0 0 0 0 0 0 0 0 0 0 0 0 0 0 70 69 69 68 69 67 68 68 67 62 62 63 59 58 -193 62 59 58 58 57 56 57 56 54 45 46 45 45 44 43 41 41 40 39 38 38 37 37 38 37 37 38 36 36 35 34 34 33 30 30 29 30 29 27 26 25 23 23 21 21 19 17 16 15 16 15 14 13 11 10 13 17 17 -225 -225 -225 -225 -225 -225 -225 -225 -225 -225 -225 -225 -225 -225 -225 -225 -225 15 13 12 13 12 11 -225 -225 -225 -225 -225 -225 -225 -225 -225 -225 -225 -225 19 19 19 20 21 24 23 23 26 28 28 28 28 27 27 28 29 31 31 35 34 36 35 37 35 35 36 35 35 36 36 36 37 39 41 -193 44 44 45 45 46 46 48 46 49 47 51 50 52 54 55 56 57 58 58 58 59 67 62 63 64 61 64 62 62 65 61 62 65 63 65 62 65 65 62 67 66 60 71 71 72 72 74 76 76 78 79 79 79 83 87 90 90 90 90 90 91 92 91 89 89 93 95 97 98 98 99 99 100 102 102 102 103 102 101 100 100 99 99 98 98 94 97 102 104 105 105 114 112 111 112 112 114 117 116 116 115 120 0 0 0 0 0
    0 0 0 0 0 0 0 0 0 0 0 0 0 0 0 0 0 0 0 0 0 0 0 0 0 0 0 0 0 0 0 0 0 0 0 0 0 0 0 0 0 0 0 0 0 0 0 0 0 0 0 0 0 0 0 0 0 0 0 0 0 0 0 0 0 0 0 0 0 70 69 69 69 69 67 68 67 67 62 62 64 59 58 57 62 59 58 58 57 56 57 56 54 44 44 43 43 42 41 40 40 39 39 38 38 37 37 38 37 37 38 36 36 35 34 33 33 30 29 28 30 28 27 26 25 23 23 21 21 19 17 16 16 16 15 14 13 12 10 13 17 17 -225 -225 -225 -225 -225 -225 -225 -225 -225 -225 -225 -225 -225 -225 -225 -225 14 16 14 14 14 14 12 14 -225 -225 -225 -225 -225 -225 -225 -225 -225 -225 -225 19 19 18 19 21 23 23 23 26 27 28 28 28 27 26 28 30 30 31 34 33 35 34 36 35 35 36 35 34 35 36 36 37 39 41 -177 -193 44 45 45 46 46 48 45 49 46 50 50 53 54 54 56 56 58 58 58 58 67 62 63 64 61 64 62 62 65 61 62 65 63 65 62 65 65 62 66 66 59 70 71 71 71 73 75 76 78 79 80 80 83 87 90 90 89 90 90 91 91 92 92 91 94 95 97 97 98 98 97 100 102 102 102 103 102 100 99 99 98 97 97 97 94 94 100 104 104 105 114 111 111 112 112 113 117 115 115 114 119 0 0 0 0 0
    0 0 0 0 0 0 0 0 0 0 0 0 0 0 0 0 0 0 0 0 0 0 0 0 0 0 0 0 0 0 0 0 0 0 0 0 0 0 0 0 0 0 0 0 0 0 0 0 0 0 0 0 0 0 0 0 0 0 0 0 0 0 0 0 0 0 0 0 0 70 69 69 69 68 66 67 67 67 61 62 64 58 57 57 61 59 58 58 57 55 57 56 54 44 43 42 42 41 41 41 41 40 39 39 39 38 38 38 38 37 38 36 35 35 34 32 33 29 29 28 29 28 27 26 25 23 23 22 21 19 17 16 16 16 15 14 12 12 10 14 16 16 -225 -225 -225 -225 -225 -225 -225 -225 -225 -225 -225 -225 -225 -225 -225 21 15 17 15 15 15 14 13 15 10 -225 -225 -225 -225 -225 -225 -225 -225 -225 -225 18 19 18 19 21 22 22 23 26 27 27 27 28 27 27 29 30 30 32 34 33 35 34 36 34 34 36 34 34 35 35 36 36 39 -193 -177 -193 45 45 45 47 46 48 46 49 47 50 51 53 53 55 56 56 58 58 58 58 67 62 62 65 62 65 63 63 65 61 63 65 63 65 62 65 66 62 67 66 59 70 71 71 71 -193 74 75 78 80 80 83 85 89 91 91 90 91 90 93 92 93 93 93 95 96 97 97 96 99 98 100 102 101 101 102 101 99 98 98 97 96 96 96 94 93 99 104 105 105 114 111 111 112 112 113 117 114 114 112 118 0 0 0 0 0
    0 0 0 0 0 0 0 0 0 0 0 0 0 0 0 0 0 0 0 0 0 0 0 0 0 0 0 0 0 0 0 0 0 0 0 0 0 0 0 0 0 0 0 0 0 0 0 0 0 0 0 0 0 0 0 0 0 0 0 0 0 0 0 0 0 0 0 0 0 70 68 69 68 68 65 66 66 66 61 62 63 57 57 56 60 59 58 58 57 55 57 57 56 45 44 42 42 42 41 41 41 41 39 40 40 38 38 38 37 37 37 36 35 34 34 32 33 29 29 28 29 28 27 26 26 23 22 21 20 19 17 16 15 16 15 14 12 13 10 14 16 16 -225 -225 -225 -225 -225 -225 -225 -225 -225 -225 -225 -225 -225 -225 15 20 13 16 14 14 14 13 13 13 11 14 -225 -225 -225 -225 -225 -225 -225 -225 18 18 18 18 19 20 21 21 22 25 27 27 27 29 28 29 30 31 31 32 34 34 34 33 35 34 34 35 34 34 35 35 36 36 39 -193 -177 -177 45 45 45 47 47 48 46 49 47 50 50 53 53 54 57 57 59 58 58 59 66 62 63 65 62 65 63 63 66 62 63 66 63 65 62 65 66 62 67 66 59 70 71 71 72 73 74 75 78 81 82 84 86 89 90 90 90 91 91 92 92 93 93 93 94 95 96 97 96 99 98 99 102 100 100 101 101 99 97 97 97 95 96 96 94 92 99 104 105 105 114 111 111 112 112 112 116 113 113 111 117 0 0 0 0 0
    0 0 0 0 0 0 0 0 0 0 0 0 0 0 0 0 0 0 0 0 0 0 0 0 0 0 0 0 0 0 0 0 0 0 0 0 0 0 0 0 0 0 0 0 0 0 0 0 0 0 0 0 0 0 0 0 0 0 0 0 0 0 0 0 0 0 0 0 0 70 68 68 68 68 64 67 66 66 60 62 64 57 56 56 60 58 58 58 57 55 58 57 57 45 43 42 42 42 41 42 42 41 40 41 41 39 38 38 37 37 37 36 35 34 34 31 33 29 29 28 29 28 27 26 26 23 23 21 20 19 17 17 16 16 15 14 13 13 11 15 16 16 -225 -225 -225 -225 -225 -225 -225 -225 -225 -225 -225 -225 -225 -225 15 18 12 14 13 13 13 12 11 12 11 14 9 -225 -225 -225 -225 -225 -225 -225 18 18 18 18 19 19 20 21 22 25 26 26 26 29 28 29 30 31 31 32 33 34 34 33 35 34 34 35 34 34 35 35 37 37 39 -193 -177 -177 45 45 45 47 46 47 46 49 47 49 50 53 52 54 57 57 59 59 59 59 66 62 62 66 63 65 64 64 66 62 64 66 63 65 62 65 66 62 66 66 59 69 70 70 70 70 73 75 79 82 82 84 86 88 90 92 90 92 92 93 92 93 93 93 93 95 96 96 97 99 98 100 102 100 100 100 101 98 96 96 96 94 95 95 94 92 98 103 104 106 113 110 111 112 111 112 116 112 113 111 117 0 0 0 0 0
    0 0 0 0 0 0 0 0 0 0 0 0 0 0 0 0 0 0 0 0 0 0 0 0 0 0 0 0 0 0 0 0 0 0 0 0 0 0 0 0 0 0 0 0 0 0 0 0 0 0 0 0 0 0 0 0 0 0 0 0 0 0 0 0 0 0 0 0 0 70 68 68 68 68 64 67 67 66 60 61 63 56 56 56 59 58 58 58 57 56 58 57 57 44 43 43 42 43 42 42 43 42 41 42 42 40 38 38 37 37 37 36 35 33 34 31 32 29 30 28 29 28 28 27 27 22 23 21 20 20 18 17 16 16 16 15 13 14 11 15 16 16 -225 -225 -225 -225 -225 -225 -225 -225 -225 -225 -225 -225 -225 -225 15 19 12 15 14 13 13 12 12 12 11 14 10 10 -225 -225 -225 -225 -225 21 17 17 17 17 18 18 20 21 22 24 25 25 25 29 28 29 30 31 32 32 33 34 34 33 34 34 34 35 34 34 35 35 37 38 39 -193 -177 -177 45 45 45 47 46 47 45 48 47 49 49 52 51 53 56 57 60 59 59 59 67 62 62 66 63 66 64 64 66 62 64 66 63 65 62 65 66 62 66 66 59 68 68 69 68 68 72 75 78 81 81 84 86 87 88 90 90 91 91 92 92 92 93 93 94 95 96 97 97 99 99 99 101 99 99 99 101 98 96 96 96 93 95 96 95 92 -193 103 104 106 113 109 110 111 111 111 116 112 112 110 116 0 0 0 0 0
    0 0 0 0 0 0 0 0 0 0 0 0 0 0 0 0 0 0 0 0 0 0 0 0 0 0 0 0 0 0 0 0 0 0 0 0 0 0 0 0 0 0 0 0 0 0 0 0 0 0 0 0 0 0 0 0 0 0 0 0 0 0 0 0 0 0 0 0 0 69 68 68 68 68 64 68 67 67 60 61 63 56 55 56 59 58 58 58 57 56 58 57 56 46 44 44 43 45 43 43 44 43 42 43 43 41 39 38 37 37 37 35 35 33 34 31 32 29 30 28 29 28 28 27 27 22 23 21 20 20 18 18 17 16 16 15 14 14 12 16 16 16 -225 -225 -225 -225 -225 -225 -225 -225 -225 -225 -225 -225 -225 -225 15 20 13 15 14 14 14 12 12 12 10 13 9 10 -225 -225 -225 -225 16 20 14 14 14 15 16 16 18 19 20 22 24 24 25 28 28 29 29 31 32 32 32 34 34 33 34 34 34 36 34 35 35 36 38 39 39 41 -193 -193 45 45 45 46 46 46 45 47 46 48 47 51 50 51 55 56 59 58 58 58 66 62 62 66 63 66 64 64 66 62 64 66 63 65 62 65 66 62 66 66 59 69 69 70 69 69 73 76 78 82 85 86 88 88 89 90 90 91 91 91 91 92 93 93 94 95 96 98 98 99 99 99 101 99 99 98 101 97 96 95 95 93 95 96 96 92 -193 104 104 107 113 109 110 111 111 111 116 112 112 110 116 0 0 0 0 0
    0 0 0 0 0 0 0 0 0 0 0 0 0 0 0 0 0 0 0 0 0 0 0 0 0 0 0 0 0 0 0 0 0 0 0 0 0 0 0 0 0 0 0 0 0 0 0 0 0 0 0 0 0 0 0 0 0 0 0 0 0 0 0 0 0 0 0 0 0 68 67 67 68 68 64 69 68 67 61 62 64 56 55 56 58 58 57 57 57 55 57 56 55 46 44 44 44 46 44 44 44 43 43 43 43 41 39 38 37 37 37 35 35 33 34 31 32 30 30 28 29 28 27 27 27 23 23 21 20 20 18 18 17 16 16 15 14 15 13 16 16 16 -225 -225 -225 -225 -225 -225 -225 -225 -225 -225 -225 -225 -225 18 15 19 12 14 13 13 13 11 11 11 10 13 9 9 -225 -225 -225 -225 15 20 14 15 14 14 15 15 17 18 19 22 23 24 26 28 28 29 29 31 31 32 32 34 34 33 34 35 34 36 35 35 35 36 39 40 40 42 40 45 45 45 45 46 45 46 45 47 46 47 46 50 48 50 54 55 57 57 57 57 66 61 62 66 63 66 64 64 66 62 64 66 63 65 62 66 66 62 67 67 60 69 70 70 70 70 73 77 81 83 85 87 88 88 89 90 90 90 91 91 91 92 93 93 94 95 96 97 96 98 98 98 101 98 98 98 100 97 96 95 95 92 96 96 96 92 100 104 104 107 112 109 110 111 110 110 116 112 111 110 116 0 0 0 0 0
    0 0 0 0 0 0 0 0 0 0 0 0 0 0 0 0 0 0 0 0 0 0 0 0 0 0 0 0 0 0 0 0 0 0 0 0 0 0 0 0 0 0 0 0 0 0 0 0 0 0 0 0 0 0 0 0 0 0 0 0 0 0 0 0 0 0 0 0 0 68 67 67 68 68 63 69 69 69 62 66 65 -193 -193 56 58 57 57 57 56 55 57 56 55 47 45 44 44 47 44 44 44 44 43 44 43 41 39 38 38 37 37 35 35 33 35 31 32 30 30 28 29 28 27 26 26 22 22 21 19 20 18 18 18 16 16 16 14 15 13 16 16 16 -225 -225 -225 -225 -225 -225 -225 -225 -225 -225 -225 -225 -225 17 15 17 11 13 13 13 12 11 11 11 11 13 10 10 -225 -225 -225 15 14 19 13 14 13 14 14 15 16 18 19 22 23 24 26 28 27 28 28 30 30 31 31 34 34 33 35 35 35 36 36 36 35 37 40 41 40 42 40 45 45 46 45 45 45 46 45 47 45 47 45 49 47 49 53 55 56 56 56 56 66 61 62 66 63 66 64 64 66 62 64 66 63 65 62 66 66 63 67 68 61 70 70 71 71 73 75 79 83 84 85 87 88 87 88 89 90 90 91 91 91 92 94 93 94 94 94 96 96 98 98 98 101 96 97 97 100 96 95 94 94 92 96 96 96 92 100 103 104 107 111 108 109 110 110 110 116 112 111 110 116 0 0 0 0 0
    0 0 0 0 0 0 0 0 0 0 0 0 0 0 0 0 0 0 0 0 0 0 0 0 0 0 0 0 0 0 0 0 0 0 0 0 0 0 0 0 0 0 0 0 0 0 0 0 0 0 0 0 0 0 0 0 0 0 0 0 0 0 0 0 0 0 0 0 0 68 67 67 68 68 63 70 70 70 64 70 67 -193 -193 56 57 57 57 56 55 54 56 56 54 49 46 45 45 48 45 45 44 44 43 43 43 41 40 38 38 37 37 35 36 34 35 32 32 30 31 28 28 28 27 26 26 22 21 20 18 18 16 16 17 15 15 15 14 15 13 16 16 16 -225 -225 -225 -225 -225 -225 -225 -225 -225 -225 -225 -225 -225 16 15 13 10 12 12 12 11 10 10 10 10 13 10 10 9 -225 11 13 16 17 13 15 14 14 15 16 16 17 18 21 22 24 25 28 27 28 29 31 30 31 31 34 34 33 34 36 35 37 36 36 36 37 41 42 40 42 40 45 44 46 45 45 45 45 45 47 45 48 45 49 47 49 52 54 55 54 55 56 66 61 61 66 63 66 64 64 66 62 64 66 63 66 63 66 67 63 68 68 62 70 71 72 72 75 77 81 84 85 86 87 88 87 88 89 90 90 91 92 92 92 95 93 94 94 93 95 95 96 97 97 101 97 97 97 100 96 95 95 94 93 97 96 97 92 100 103 103 107 111 108 109 110 110 110 116 112 111 110 117 0 0 0 0 0
    0 0 0 0 0 0 0 0 0 0 0 0 0 0 0 0 0 0 0 0 0 0 0 0 0 0 0 0 0 0 0 0 0 0 0 0 0 0 0 0 0 0 0 0 0 0 0 0 0 0 0 0 0 0 0 0 0 0 0 0 0 0 0 0 0 0 0 0 0 68 67 67 68 68 63 71 71 71 65 73 67 56 55 55 56 56 56 55 54 52 54 54 53 49 46 46 45 48 45 45 44 44 42 42 42 41 39 38 38 37 37 36 36 35 36 33 33 30 31 29 29 28 27 26 26 22 22 20 17 18 16 16 16 15 15 14 14 15 14 16 16 16 -225 -225 -225 -225 -225 -225 -225 -225 -225 -225 -225 -225 -225 15 15 10 9 10 10 11 10 9 9 9 10 13 10 10 9 10 11 12 13 13 12 14 13 14 15 15 16 17 19 21 21 22 24 26 26 27 28 30 30 30 31 34 34 34 35 36 35 37 37 37 36 38 41 42 41 43 40 45 44 46 45 45 45 45 44 47 45 48 44 48 47 48 52 54 56 54 55 56 67 61 61 66 63 66 64 64 66 62 64 66 63 66 63 67 67 64 69 69 65 72 72 73 73 76 78 81 84 84 85 87 88 87 87 89 90 91 92 93 93 92 96 94 93 94 93 94 94 95 97 96 100 96 97 97 99 97 96 95 95 93 98 97 97 93 99 102 103 107 110 108 109 109 109 110 116 113 112 111 117 0 0 0 0 0
    0 0 0 0 0 0 0 0 0 0 0 0 0 0 0 0 0 0 0 0 0 0 0 0 0 0 0 0 0 0 0 0 0 0 0 0 0 0 0 0 0 0 0 0 0 0 0 0 0 0 0 0 0 0 0 0 0 0 0 0 0 0 0 0 0 0 0 0 0 68 67 67 68 68 63 71 71 71 -193 74 69 55 54 55 55 55 55 55 53 52 52 53 52 48 46 46 45 47 45 45 44 43 42 42 42 41 39 38 38 37 37 37 37 35 37 34 33 31 32 29 29 28 28 26 26 22 22 20 17 18 16 16 17 16 15 14 14 15 15 16 16 16 -225 -225 -225 -225 -225 -225 -225 -225 -225 -225 -225 -225 -225 15 17 9 9 10 10 10 9 9 9 9 11 12 10 11 9 10 11 13 12 12 12 14 13 15 15 16 17 18 19 21 21 22 23 25 25 26 26 29 29 29 30 34 34 34 35 37 36 38 38 38 37 39 42 43 41 43 40 45 44 46 45 45 45 45 44 46 45 48 43 46 46 47 50 54 56 54 55 56 68 61 61 66 63 66 64 64 66 62 64 66 63 66 63 67 67 64 69 70 68 73 74 75 74 76 79 82 83 84 85 87 88 87 87 89 90 91 92 92 93 91 97 93 93 93 93 94 95 94 97 95 99 96 96 96 99 97 96 95 95 94 98 98 98 94 99 101 103 106 109 107 108 109 109 109 116 114 112 112 118 0 0 0 0 0
    0 0 0 0 0 0 0 0 0 0 0 0 0 0 0 0 0 0 0 0 0 0 0 0 0 0 0 0 0 0 0 0 0 0 0 0 0 0 0 0 0 0 0 0 0 0 0 0 0 0 0 0 0 0 0 0 0 0 0 0 0 0 0 0 0 0 0 0 0 68 67 67 68 68 63 71 71 71 -209 74 -209 56 55 55 55 54 54 54 52 51 51 52 51 48 46 46 46 47 45 44 44 43 42 41 41 40 39 38 38 38 37 36 37 36 37 35 33 31 32 30 29 29 28 26 25 22 22 20 17 18 16 16 17 16 15 14 14 15 16 16 16 16 -225 -225 -225 -225 -225 -225 -225 -225 -225 -225 -225 -225 20 15 15 9 9 9 0 0 0 0 0 0 9 9 10 12 0 9 10 13 -193 12 12 13 13 15 15 16 18 19 19 21 22 22 22 24 24 24 25 28 27 27 30 34 34 34 36 37 36 39 38 38 37 39 42 42 41 43 40 44 43 46 45 45 45 45 44 46 45 48 42 45 46 45 47 53 55 54 54 56 67 61 61 66 63 65 64 64 66 62 64 66 63 66 63 67 68 65 70 70 69 73 74 75 74 77 79 82 83 84 84 87 87 87 87 89 90 90 92 91 93 91 97 93 93 93 93 94 94 94 96 94 99 95 96 96 99 97 97 96 96 94 99 99 99 96 99 102 103 106 109 107 108 108 108 109 116 114 113 113 119 0 0 0 0 0
    0 0 0 0 0 0 0 0 0 0 0 0 0 0 0 0 0 0 0 0 0 0 0 0 0 0 0 0 0 0 0 0 0 0 0 0 0 0 0 0 0 0 0 0 0 0 0 0 0 0 0 0 0 0 0 0 0 0 0 0 0 0 0 0 0 0 0 0 0 69 67 67 68 67 63 69 69 70 -193 -193 71 58 56 56 55 55 54 54 52 51 51 51 51 47 46 46 46 47 46 45 44 43 42 41 41 40 39 38 38 38 36 36 37 36 37 36 33 31 32 30 29 29 27 26 25 22 21 20 17 17 15 15 16 16 14 13 13 15 16 16 16 16 -225 -225 -225 -225 -225 -225 -225 -225 -225 -225 -225 -225 19 15 13 9 9 9 0 0 0 0 0 0 9 10 11 12 0 9 9 -177 291 11 11 12 12 14 15 16 18 19 20 22 23 23 23 25 25 24 25 29 27 27 30 34 35 35 37 38 37 40 39 39 38 39 41 41 40 43 40 45 43 47 45 45 45 45 44 46 45 47 42 45 45 46 46 53 55 53 54 56 67 61 61 66 62 65 64 64 66 62 64 66 64 66 64 68 68 65 71 71 71 73 75 76 75 78 79 82 83 84 84 87 88 87 87 88 89 89 91 91 93 90 98 93 93 93 92 93 94 93 95 93 99 95 96 97 99 98 97 96 96 95 100 99 99 98 99 102 103 107 109 107 108 108 108 109 116 115 114 115 120 0 0 0 0 0
    0 0 0 0 0 0 0 0 0 0 0 0 0 0 0 0 0 0 0 0 0 0 0 0 0 0 0 0 0 0 0 0 0 0 0 0 0 0 0 0 0 0 0 0 0 0 0 0 0 0 0 0 0 0 0 0 0 0 0 0 0 0 0 0 0 0 0 0 0 69 67 67 68 67 63 68 68 69 64 72 70 59 56 55 54 54 54 53 51 50 49 51 51 47 46 46 46 46 46 44 43 42 42 41 40 39 39 38 38 37 36 35 36 36 37 36 34 31 32 30 29 29 27 26 25 22 22 20 17 17 15 14 16 16 14 13 13 14 16 16 16 16 -225 -225 -225 -225 -225 -225 -225 -225 -225 -225 -225 -225 18 15 15 9 9 9 0 0 0 0 0 0 10 10 11 13 0 9 0 -177 291 -193 10 12 12 14 15 17 19 20 21 23 24 24 25 26 26 25 25 29 28 27 31 34 35 36 38 38 38 40 40 40 39 41 42 41 40 44 42 46 44 47 45 45 45 46 44 47 45 48 43 46 47 47 46 53 55 53 54 56 67 61 61 66 62 65 64 65 67 63 65 66 64 67 65 69 69 66 72 72 73 74 75 76 76 79 80 83 84 84 85 87 87 87 87 88 89 89 92 92 94 91 98 92 92 92 92 92 92 92 94 92 98 95 96 97 100 99 98 97 97 96 100 99 100 98 98 102 103 107 109 107 108 108 108 109 116 117 116 116 121 0 0 0 0 0
    0 0 0 0 0 0 0 0 0 0 0 0 0 0 0 0 0 0 0 0 0 0 0 0 0 0 0 0 0 0 0 0 0 0 0 0 0 0 0 0 0 0 0 0 0 0 0 0 0 0 0 0 0 0 0 0 0 0 0 0 0 0 0 0 0 0 0 0 0 69 67 67 68 66 62 68 68 68 64 69 70 59 56 55 54 53 53 53 51 49 48 49 50 47 46 46 46 45 46 44 43 42 42 41 40 39 39 37 38 37 35 34 35 36 36 36 34 31 32 30 30 30 28 26 25 22 22 20 18 17 15 14 15 15 14 13 13 13 15 16 16 16 -225 -225 -225 -225 -225 -225 -225 -225 -225 -225 -225 -225 18 16 17 9 9 0 0 0 0 0 0 0 10 11 12 15 0 9 9 -193 -193 11 11 13 13 15 16 19 21 22 23 24 26 25 25 27 27 25 26 30 28 27 31 35 35 36 39 39 38 40 40 40 39 40 41 40 41 45 42 47 45 48 46 45 46 46 45 47 45 48 43 47 48 47 45 53 56 54 54 56 67 61 61 66 63 65 64 65 67 63 65 67 65 67 65 69 69 66 72 72 73 74 75 77 76 79 81 83 84 84 83 85 84 84 84 86 87 84 91 93 94 91 97 91 92 91 91 91 91 91 93 91 98 95 96 97 99 100 98 98 98 96 100 100 100 99 96 102 103 106 109 107 107 108 108 109 116 118 117 118 122 0 0 0 0 0
    0 0 0 0 0 0 0 0 0 0 0 0 0 0 0 0 0 0 0 0 0 0 0 0 0 0 0 0 0 0 0 0 0 0 0 0 0 0 0 0 0 0 0 0 0 0 0 0 0 0 0 0 0 0 0 0 0 0 0 0 0 0 0 0 0 0 0 0 0 70 68 67 68 66 63 67 67 67 63 66 66 58 55 54 54 53 53 53 52 50 48 49 50 48 46 46 46 45 45 44 43 43 42 41 41 40 39 37 38 38 36 34 34 35 36 36 34 31 32 30 30 30 28 26 25 23 22 21 18 17 14 14 15 15 14 12 12 13 14 16 16 16 -225 -225 -225 -225 -225 -225 -225 -225 -225 -225 -225 17 14 14 17 10 10 9 9 9 0 9 9 0 11 12 13 17 9 9 9 11 9 10 11 13 14 17 18 20 23 23 24 25 27 25 25 27 27 25 26 30 28 27 31 35 35 36 39 38 38 40 39 40 39 41 41 39 41 45 43 47 45 48 46 46 46 47 45 47 45 48 43 47 48 47 45 54 57 55 55 56 68 61 61 66 63 65 65 65 67 63 65 67 65 67 65 68 68 66 71 72 71 74 75 77 76 80 81 83 83 84 83 84 83 83 83 84 85 83 91 94 92 89 95 90 91 91 91 91 91 91 92 90 96 95 96 97 99 101 99 98 98 97 100 100 100 100 96 102 103 106 109 107 107 108 108 109 116 118 117 119 122 0 0 0 0 0
    0 0 0 0 0 0 0 0 0 0 0 0 0 0 0 0 0 0 0 0 0 0 0 0 0 0 0 0 0 0 0 0 0 0 0 0 0 0 0 0 0 0 0 0 0 0 0 0 0 0 0 0 0 0 0 0 0 0 0 0 0 0 0 0 0 0 0 0 0 70 68 67 68 66 63 67 67 67 63 63 60 57 55 54 54 53 53 53 52 50 47 48 49 48 46 46 46 45 46 44 44 43 42 42 41 40 40 37 38 38 36 34 34 35 35 35 34 31 31 30 30 31 28 27 26 23 22 21 18 17 14 13 14 15 13 13 12 13 14 17 17 17 -225 -225 -225 -225 -225 -225 -225 -225 -225 0 12 12 11 10 12 9 9 9 9 9 0 9 9 9 12 12 13 18 10 9 10 11 10 10 11 14 15 18 20 21 23 23 24 25 27 25 25 27 28 25 27 30 29 28 32 35 35 36 39 38 37 39 39 39 38 39 39 37 40 45 43 48 45 48 46 46 46 47 45 47 44 48 42 47 47 46 45 55 60 56 56 57 68 62 61 66 63 65 65 66 67 63 66 67 65 68 66 68 68 66 71 71 70 73 74 76 75 77 78 80 82 83 82 83 82 82 83 83 84 83 91 -193 -193 89 94 90 90 90 90 90 90 91 92 90 95 95 96 98 99 102 99 99 99 98 100 100 100 100 95 103 104 107 109 107 107 108 108 109 115 119 117 119 122 0 0 0 0 0
    0 0 0 0 0 0 0 0 0 0 0 0 0 0 0 0 0 0 0 0 0 0 0 0 0 0 0 0 0 0 0 0 0 0 0 0 0 0 0 0 0 0 0 0 0 0 0 0 0 0 0 0 0 0 0 0 0 0 0 0 0 0 0 0 0 0 0 0 0 70 68 67 68 66 63 67 67 66 62 61 58 58 56 55 54 54 53 53 52 51 48 48 48 47 46 46 46 45 46 45 44 44 43 42 42 41 40 37 38 38 36 33 33 33 34 34 33 31 31 31 30 31 29 27 26 23 22 21 19 18 14 14 15 15 14 13 13 13 13 18 18 17 -225 -225 -225 -225 -225 -225 -225 0 9 0 10 10 10 0 9 0 9 0 9 9 9 9 10 10 12 13 14 17 10 9 9 11 9 10 11 14 15 18 20 21 24 24 24 24 27 26 26 27 28 26 27 30 29 28 32 35 35 36 39 38 37 38 38 39 37 39 38 35 40 44 42 47 45 49 46 46 46 47 45 47 44 47 42 46 47 47 44 56 63 57 57 57 68 62 61 66 63 65 66 66 68 64 66 68 66 68 66 68 68 66 71 71 70 73 74 74 74 75 75 78 80 82 81 82 83 83 83 83 84 82 89 -193 -193 86 92 88 90 90 89 89 89 90 91 90 95 95 96 98 99 103 99 99 99 98 100 100 100 101 95 104 104 108 109 107 107 108 108 109 115 119 117 119 122 0 0 0 0 0
    0 0 0 0 0 0 0 0 0 0 0 0 0 0 0 0 0 0 0 0 0 0 0 0 0 0 0 0 0 0 0 0 0 0 0 0 0 0 0 0 0 0 0 0 0 0 0 0 0 0 0 0 0 0 0 0 0 0 0 0 0 0 0 0 0 0 0 0 0 70 68 67 68 66 63 66 66 65 62 60 57 58 56 56 55 55 55 54 53 52 48 49 47 47 46 46 46 45 46 45 44 44 45 43 42 41 40 38 38 39 36 32 32 32 32 33 33 31 30 31 30 31 29 27 26 23 22 20 18 18 14 14 15 15 14 13 14 14 13 19 19 18 -225 -225 -225 -225 -225 -225 16 13 11 11 12 11 10 0 9 9 9 9 8 9 9 10 11 10 12 12 13 15 10 10 10 12 10 11 12 15 17 20 22 23 25 26 25 25 28 26 27 28 29 26 27 30 31 28 32 35 35 36 39 37 37 38 38 38 37 39 38 35 40 43 42 46 45 48 46 45 46 46 44 46 44 48 42 46 47 48 46 57 63 59 58 58 68 62 62 66 63 65 66 66 68 64 67 68 66 68 67 67 68 66 71 71 68 73 73 73 72 73 74 77 80 83 83 83 84 84 84 84 84 82 86 -193 72 83 91 87 88 89 89 89 89 90 91 89 94 96 97 98 98 103 99 99 99 99 99 100 101 101 96 105 105 109 109 108 107 108 107 108 114 118 116 118 121 0 0 0 0 0
    0 0 0 0 0 0 0 0 0 0 0 0 0 0 0 0 0 0 0 0 0 0 0 0 0 0 0 0 0 0 0 0 0 0 0 0 0 0 0 0 0 0 0 0 0 0 0 0 0 0 0 0 0 0 0 0 0 0 0 0 0 0 0 0 0 0 0 0 0 70 69 67 68 66 64 67 67 66 62 60 57 59 56 56 56 56 55 54 54 53 49 50 47 47 46 46 47 46 46 45 44 44 45 43 43 41 40 37 38 39 36 32 33 31 32 33 33 31 30 31 30 31 29 28 26 23 22 20 18 18 14 14 15 15 14 14 14 15 13 21 21 20 -225 -225 -225 -225 -225 -225 15 12 11 10 10 10 9 0 0 0 0 0 0 0 0 9 10 11 12 12 14 14 11 11 10 12 11 12 12 16 17 20 22 23 25 25 24 25 28 27 27 28 29 27 27 31 31 29 32 35 35 36 39 37 37 37 37 38 37 38 38 35 40 43 41 46 44 47 45 45 45 46 44 46 44 48 42 48 49 51 49 58 64 60 59 59 69 62 62 67 63 65 67 66 68 64 67 68 66 68 -193 67 68 66 70 70 65 70 70 70 71 71 72 77 84 86 85 85 86 85 85 85 85 84 86 -193 74 84 90 86 88 88 88 88 88 90 91 89 94 96 97 99 99 103 99 99 99 99 99 100 100 101 95 105 105 110 109 108 107 108 107 109 113 118 114 117 121 0 0 0 0 0
    0 0 0 0 0 0 0 0 0 0 0 0 0 0 0 0 0 0 0 0 0 0 0 0 0 0 0 0 0 0 0 0 0 0 0 0 0 0 0 0 0 0 0 0 0 0 0 0 0 0 0 0 0 0 0 0 0 0 0 0 0 0 0 0 0 0 0 0 0 70 69 68 69 67 66 68 67 66 63 60 58 59 56 56 56 56 55 54 54 54 49 51 48 48 47 46 47 46 46 45 45 44 45 44 43 41 40 37 38 39 36 31 32 31 31 32 32 31 29 31 31 31 30 29 27 23 23 21 19 18 15 15 15 16 15 15 15 16 13 23 23 22 -225 -225 -225 -225 -225 -225 14 11 10 9 9 9 9 0 0 0 0 0 0 9 9 10 11 12 13 12 13 13 11 11 11 11 11 12 11 16 17 19 21 21 24 24 24 25 28 27 27 27 29 27 28 30 31 28 31 35 35 36 39 37 37 37 37 37 37 39 38 34 41 43 40 44 43 46 45 44 44 45 44 46 45 48 42 51 51 53 52 58 63 60 59 59 69 63 62 67 63 65 67 66 68 64 67 68 66 68 -193 66 68 66 70 69 64 70 69 69 69 70 72 76 84 87 86 86 87 86 86 85 85 85 84 -193 75 84 91 86 88 88 87 88 88 90 90 89 93 97 97 99 98 103 99 99 99 98 98 100 100 101 94 104 105 110 109 107 107 108 107 109 113 118 113 115 120 0 0 0 0 0
    0 0 0 0 0 0 0 0 0 0 0 0 0 0 0 0 0 0 0 0 0 0 0 0 0 0 0 0 0 0 0 0 0 0 0 0 0 0 0 0 0 0 0 0 0 0 0 0 0 0 0 0 0 0 0 0 0 0 0 0 0 0 0 0 0 0 0 0 0 70 69 68 69 67 66 68 68 66 64 60 57 59 56 56 56 56 56 55 55 55 50 52 49 49 48 46 47 46 45 44 44 44 44 43 43 40 39 37 37 39 35 31 32 30 30 31 32 30 29 31 31 31 30 29 28 24 23 21 19 19 15 15 15 16 16 16 16 17 13 24 24 24 -225 -225 -225 -225 -225 16 14 12 11 0 9 0 0 0 0 0 0 0 9 10 10 11 12 11 12 13 13 12 11 12 12 12 14 14 13 18 19 20 22 21 24 24 23 24 26 25 26 -193 -193 26 26 28 29 28 30 34 34 36 38 36 36 37 37 37 36 38 37 34 41 43 39 44 43 45 44 43 44 44 43 46 45 48 43 52 53 54 56 59 63 61 60 59 68 63 62 66 63 65 67 66 68 64 67 68 65 68 67 65 67 65 68 68 63 69 68 68 68 70 71 75 83 87 86 86 87 85 85 84 84 83 78 -193 72 82 90 86 87 88 87 88 89 90 90 89 93 96 96 98 97 103 98 98 99 98 97 99 99 100 94 104 105 110 108 107 107 108 108 109 112 117 111 114 119 0 0 0 0 0
    0 0 0 0 0 0 0 0 0 0 0 0 0 0 0 0 0 0 0 0 0 0 0 0 0 0 0 0 0 0 0 0 0 0 0 0 0 0 0 0 0 0 0 0 0 0 0 0 0 0 0 0 0 0 0 0 0 0 0 0 0 0 0 0 0 0 0 0 0 71 69 68 69 67 67 68 68 66 64 60 57 60 56 56 56 56 56 55 56 55 51 53 50 50 49 46 48 46 45 44 44 44 44 43 43 40 38 36 37 38 35 32 32 30 30 31 32 30 29 31 31 30 30 30 28 24 23 22 18 20 16 16 15 16 16 16 16 18 13 24 24 24 -225 -225 -225 -225 17 15 13 12 11 9 9 0 0 0 0 0 0 0 0 0 9 9 10 11 12 12 12 12 11 13 14 14 16 15 15 19 20 20 22 20 22 22 22 22 -193 -193 -193 -193 -193 25 26 28 29 28 30 34 34 37 38 36 36 37 36 37 35 38 36 32 41 42 39 42 42 45 44 43 -193 -193 43 45 45 48 44 54 55 55 57 60 63 63 61 60 67 62 62 66 63 64 66 65 67 64 67 68 65 67 67 64 67 65 67 67 62 69 68 67 67 69 70 74 83 88 87 87 88 86 86 85 84 82 76 70 70 79 90 86 87 88 88 -193 89 90 91 89 92 96 96 97 96 102 97 98 98 98 96 99 99 100 94 105 105 111 108 107 108 108 108 109 111 116 110 112 118 0 0 0 0 0
    0 0 0 0 0 0 0 0 0 0 0 0 0 0 0 0 0 0 0 0 0 0 0 0 0 0 0 0 0 0 0 0 0 0 0 0 0 0 0 0 0 0 0 0 0 0 0 0 0 0 0 0 0 0 0 0 0 0 0 0 0 0 0 0 0 0 0 0 0 71 70 69 70 67 68 69 69 66 64 60 57 61 57 57 57 57 57 56 56 56 52 54 51 51 50 47 49 47 45 45 44 44 44 43 43 40 38 36 37 38 35 32 33 31 29 30 31 30 28 31 30 30 29 30 28 24 23 22 18 20 16 16 15 16 16 16 16 18 12 24 24 24 -225 -225 -225 -225 14 13 12 11 10 0 0 0 0 0 0 0 0 0 0 0 0 9 10 11 12 11 12 12 12 14 15 16 19 17 18 20 21 21 22 20 21 21 21 21 -193 -193 -177 -177 -193 26 27 27 29 28 29 34 33 37 38 36 36 37 37 37 36 38 37 33 41 42 38 42 41 44 43 42 -193 -193 -193 45 45 49 45 55 55 56 58 60 62 64 61 61 67 62 61 65 62 63 66 64 67 64 66 68 65 67 67 64 67 66 67 68 62 69 68 67 67 69 70 74 82 88 87 87 88 87 87 85 84 83 75 71 -193 82 90 86 88 89 89 -193 89 90 91 89 92 96 95 97 95 102 97 97 98 97 96 99 99 100 94 105 105 112 108 107 108 108 108 109 110 116 109 112 117 0 0 0 0 0
    0 0 0 0 0 0 0 0 0 0 0 0 0 0 0 0 0 0 0 0 0 0 0 0 0 0 0 0 0 0 0 0 0 0 0 0 0 0 0 0 0 0 0 0 0 0 0 0 0 0 0 0 0 0 0 0 0 0 0 0 0 0 0 0 0 0 0 0 0 71 70 69 70 68 69 70 69 67 65 61 58 62 58 58 58 58 58 57 57 57 52 54 52 51 51 48 49 48 45 45 44 44 44 42 42 39 37 36 36 38 34 32 33 31 29 30 31 29 28 31 30 30 29 30 28 24 23 22 17 20 16 16 15 17 17 17 16 19 13 24 23 22 -225 -225 11 11 12 11 12 11 9 0 0 0 0 0 0 0 0 0 0 0 0 9 10 11 12 11 11 12 11 14 15 16 19 18 19 20 20 20 21 20 20 20 20 20 22 -193 -193 -193 -193 25 26 27 28 27 28 34 33 37 38 36 36 37 37 37 36 38 37 32 41 41 38 41 40 43 42 -193 -177 -193 -193 45 45 49 46 56 56 57 59 61 62 64 61 61 66 60 60 64 61 62 65 63 66 63 66 68 64 67 67 64 67 66 67 68 63 69 68 67 68 69 69 73 80 88 87 87 88 87 87 85 84 83 75 74 77 86 91 88 89 89 89 90 90 90 91 90 92 96 95 96 95 102 96 96 97 97 95 98 98 99 93 104 105 112 108 107 108 108 108 109 110 115 109 111 116 0 0 0 0 0
    0 0 0 0 0 0 0 0 0 0 0 0 0 0 0 0 0 0 0 0 0 0 0 0 0 0 0 0 0 0 0 0 0 0 0 0 0 0 0 0 0 0 0 0 0 0 0 0 0 0 0 0 0 0 0 0 0 0 0 0 0 0 0 0 0 0 0 0 0 71 70 69 70 67 69 70 69 67 65 61 58 63 58 59 59 58 58 57 57 57 53 54 52 51 52 48 50 48 44 45 43 44 44 41 41 38 36 35 35 38 34 31 33 31 29 29 31 29 28 31 30 29 29 31 28 23 23 22 17 20 17 16 15 17 17 17 16 19 13 24 24 24 9 17 12 11 11 11 11 10 0 9 0 0 0 0 0 0 0 0 0 0 0 9 11 12 12 11 12 12 12 15 15 16 19 18 19 19 20 20 21 19 20 19 20 20 22 -193 -177 -177 25 25 26 27 28 27 28 34 33 37 38 36 36 37 38 37 36 39 36 32 41 41 37 40 39 41 -193 266 268 -177 -193 -193 44 48 46 55 56 57 59 61 62 63 60 60 65 59 58 62 60 61 64 62 65 62 65 68 64 66 66 63 66 65 67 68 63 69 68 68 68 69 70 73 79 88 87 87 88 87 87 85 83 83 74 76 82 89 92 89 89 90 90 91 90 91 91 90 92 96 95 95 94 101 96 95 96 96 95 98 98 99 93 104 104 112 108 107 108 108 109 109 110 115 109 111 116 0 0 0 0 0
    0 0 0 0 0 0 0 0 0 0 0 0 0 0 0 0 0 0 0 0 0 0 0 0 0 0 0 0 0 0 0 0 0 0 0 0 0 0 0 0 0 0 0 0 0 0 0 0 0 0 0 0 0 0 0 0 0 0 0 0 0 0 0 0 0 0 0 0 0 71 70 70 70 67 69 69 69 67 64 61 58 63 59 59 59 58 58 57 57 57 53 54 52 51 52 48 49 48 44 45 43 43 43 40 40 38 37 35 35 38 34 32 33 32 29 30 32 30 28 31 30 29 29 31 28 23 23 22 17 20 17 17 15 17 17 17 15 19 13 22 22 21 0 13 11 10 10 10 10 9 0 9 0 0 0 0 0 0 0 0 0 0 9 10 11 12 13 11 13 12 13 16 16 17 19 18 19 18 20 19 20 19 20 19 21 20 22 -193 -193 -193 25 25 26 26 27 27 28 33 32 38 39 36 36 38 38 37 36 39 36 31 40 40 36 39 38 40 -193 -193 268 -177 -193 -193 44 48 46 55 57 57 59 61 62 63 60 60 63 58 57 61 60 60 63 62 64 62 64 67 63 66 66 63 66 65 66 67 62 69 68 68 68 69 70 73 79 88 87 87 88 87 87 85 83 83 74 77 84 90 93 90 90 91 91 92 91 92 92 91 92 96 95 95 95 100 96 95 96 96 94 98 98 99 93 103 104 113 108 107 108 109 109 110 110 115 109 112 116 0 0 0 0 0
    0 0 0 0 0 0 0 0 0 0 0 0 0 0 0 0 0 0 0 0 0 0 0 0 0 0 0 0 0 0 0 0 0 0 0 0 0 0 0 0 0 0 0 0 0 0 0 0 0 0 0 0 0 0 0 0 0 0 0 0 0 0 0 0 0 0 0 0 0 71 70 69 70 66 69 69 69 66 65 62 59 64 59 59 59 59 59 57 57 57 53 53 52 51 52 48 49 48 44 45 43 43 42 40 40 39 37 36 36 38 34 32 33 33 29 30 32 30 28 31 31 30 29 31 28 23 23 23 17 20 17 17 15 17 17 16 14 17 12 19 19 17 0 11 10 10 10 9 10 0 0 0 0 0 0 0 0 0 0 0 0 0 9 9 11 13 13 11 13 12 13 16 17 18 20 18 20 18 20 19 20 18 19 18 20 19 21 20 22 22 25 24 26 26 27 27 28 33 32 38 39 36 36 38 38 37 36 39 36 31 40 40 36 39 38 40 -193 -193 268 -177 -193 -193 44 47 47 56 57 58 59 61 61 61 59 59 61 56 56 60 59 59 62 61 64 62 64 67 63 65 65 63 66 65 66 67 62 69 68 67 68 69 69 73 77 87 87 87 88 87 86 84 83 82 73 77 -193 -209 94 91 91 92 91 93 92 93 92 92 93 97 95 96 95 100 96 95 96 96 94 98 98 98 93 102 104 112 108 108 108 109 110 110 111 116 110 112 116 0 0 0 0 0
    0 0 0 0 0 0 0 0 0 0 0 0 0 0 0 0 0 0 0 0 0 0 0 0 0 0 0 0 0 0 0 0 0 0 0 0 0 0 0 0 0 0 0 0 0 0 0 0 0 0 0 0 0 0 0 0 0 0 0 0 0 0 0 0 0 0 0 0 0 71 69 69 69 65 69 69 69 65 64 62 59 64 60 60 60 59 59 57 57 56 53 53 52 51 52 49 49 48 45 45 43 43 43 40 40 39 37 36 36 37 35 32 33 33 29 29 32 30 28 31 30 30 28 31 28 24 24 23 17 20 17 17 14 17 16 15 13 15 11 14 14 13 0 11 10 9 9 9 9 0 0 0 0 0 0 0 0 0 0 0 0 0 9 9 11 13 13 11 13 12 12 17 17 18 20 18 20 18 20 19 19 18 19 17 19 19 21 20 22 23 25 25 27 27 27 27 28 33 32 38 39 36 37 38 38 37 36 39 36 30 40 41 36 39 38 40 39 39 -193 -193 -209 43 44 48 48 56 57 58 59 60 60 60 59 59 60 55 56 59 58 58 61 60 63 61 63 67 63 65 65 63 65 64 66 67 62 69 68 67 68 69 68 72 75 85 85 86 86 86 -193 83 -193 -193 72 -209 -177 -193 93 91 91 92 92 93 93 94 93 92 94 98 96 96 95 100 96 95 95 95 94 97 97 98 93 102 104 112 108 108 109 109 111 110 111 116 110 112 115 0 0 0 0 0
    0 0 0 0 0 0 0 0 0 0 0 0 0 0 0 0 0 0 0 0 0 0 0 0 0 0 0 0 0 0 0 0 0 0 0 0 0 0 0 0 0 0 0 0 0 0 0 0 0 0 0 0 0 0 0 0 0 0 0 0 0 0 0 0 0 0 0 0 0 71 69 69 69 64 69 69 69 64 63 62 58 64 60 60 60 59 59 58 57 -193 53 53 52 51 52 49 48 48 45 44 44 43 43 41 40 39 38 37 37 37 35 32 32 34 29 30 32 30 28 31 30 30 28 31 27 24 24 23 18 20 16 16 14 17 15 14 12 13 10 12 12 12 0 10 9 9 9 9 0 0 0 0 0 0 0 0 0 0 0 0 0 0 9 9 11 13 13 11 14 13 14 18 18 19 19 19 20 18 20 18 19 18 18 18 19 18 21 20 22 24 26 26 27 28 28 28 29 34 32 38 39 36 36 37 38 37 36 39 36 30 40 41 37 39 38 40 39 39 39 -193 40 43 44 48 49 56 57 57 59 59 59 60 59 59 59 54 55 58 57 58 60 60 62 61 63 67 63 65 65 63 65 64 66 67 63 69 68 68 69 69 68 72 74 82 84 85 85 -193 -193 83 -193 -193 73 -209 -193 -209 92 90 91 91 91 93 92 94 93 93 95 98 96 96 96 100 96 95 95 95 94 97 97 98 93 101 104 112 108 108 109 109 111 111 111 116 110 113 115 0 0 0 0 0
    0 0 0 0 0 0 0 0 0 0 0 0 0 0 0 0 0 0 0 0 0 0 0 0 0 0 0 0 0 0 0 0 0 0 0 0 0 0 0 0 0 0 0 0 0 0 0 0 0 0 0 0 0 0 0 0 0 0 0 0 0 0 0 0 0 0 0 0 0 71 69 69 69 64 69 69 69 65 62 62 58 64 60 61 60 59 59 58 -193 -193 53 53 52 50 52 49 48 48 45 45 45 44 44 41 41 40 38 38 37 37 35 32 32 34 30 30 32 30 29 31 31 31 28 31 27 24 23 23 18 19 16 16 13 17 14 14 11 12 9 9 9 10 0 0 0 0 0 9 0 0 0 0 0 0 0 0 0 0 0 0 0 0 9 9 11 13 13 11 14 14 15 18 18 19 19 19 20 17 19 18 19 18 18 18 19 19 22 21 23 25 27 27 28 29 30 28 29 34 32 37 38 36 36 37 38 37 36 39 36 31 40 41 37 39 38 39 39 38 39 40 39 42 44 48 50 55 57 57 57 58 57 59 58 58 58 53 54 57 57 57 60 59 62 61 63 67 63 65 65 62 65 65 66 67 63 69 69 69 69 69 68 72 73 80 83 84 85 86 -193 84 -193 -193 75 80 -193 90 91 90 90 92 91 92 92 93 93 94 95 97 95 96 96 100 96 95 95 95 94 97 98 98 93 101 104 111 108 108 109 109 112 111 111 116 111 114 116 0 0 0 0 0
    0 0 0 0 0 0 0 0 0 0 0 0 0 0 0 0 0 0 0 0 0 0 0 0 0 0 0 0 0 0 0 0 0 0 0 0 0 0 0 0 0 0 0 0 0 0 0 0 0 0 0 0 0 0 0 0 0 0 0 0 0 0 0 0 0 0 0 0 0 71 69 69 69 63 69 69 69 66 64 63 58 64 61 61 60 60 59 58 -193 -193 53 53 52 50 52 49 48 48 46 45 45 44 44 41 41 40 39 39 38 37 35 33 32 35 30 31 33 30 29 31 31 31 28 31 27 24 23 23 18 19 16 16 13 17 14 13 11 11 9 9 9 0 0 0 0 0 0 0 0 0 0 0 0 0 0 0 0 0 0 0 0 9 9 10 12 14 14 11 15 14 15 17 17 18 18 19 19 17 19 18 19 18 19 19 19 20 23 22 24 26 -177 27 28 30 30 28 29 34 31 37 38 36 36 37 38 38 37 40 36 33 41 42 38 40 39 40 39 39 39 40 39 42 44 48 51 55 56 56 57 57 57 58 57 57 57 52 54 -193 56 57 60 845 845 61 63 67 63 65 65 62 65 64 66 67 63 69 69 69 69 70 68 72 73 78 81 83 84 85 -193 85 83 85 78 84 84 92 92 90 90 92 91 92 92 93 93 94 95 97 95 96 95 99 96 95 95 95 94 97 98 98 94 101 105 111 108 108 109 109 112 111 111 116 112 114 116 0 0 0 0 0
    0 0 0 0 0 0 0 0 0 0 0 0 0 0 0 0 0 0 0 0 0 0 0 0 0 0 0 0 0 0 0 0 0 0 0 0 0 0 0 0 0 0 0 0 0 0 0 0 0 0 0 0 0 0 0 0 0 0 0 0 0 0 0 0 0 0 0 0 0 70 68 69 68 63 68 69 69 65 65 63 58 64 61 62 60 60 60 58 -193 -193 53 52 51 50 52 49 48 48 46 45 46 44 44 41 41 40 39 39 39 37 35 33 32 35 31 31 33 31 29 32 31 31 28 31 27 24 23 23 19 19 16 16 13 17 14 14 11 10 9 9 0 0 0 0 0 0 0 0 0 0 0 0 0 0 0 0 0 0 0 0 0 9 9 9 11 13 13 11 15 13 14 16 16 17 16 17 18 16 18 17 19 17 19 19 19 20 23 22 24 26 -177 27 27 30 31 28 30 34 32 37 38 37 36 37 38 38 37 41 37 36 41 43 40 41 40 41 41 40 40 41 40 43 44 47 51 55 56 56 57 58 57 57 57 57 56 52 53 56 56 56 60 846 847 -193 63 67 63 65 65 62 65 64 66 67 62 69 69 69 69 69 68 71 72 77 80 81 83 84 84 84 83 85 80 86 84 91 92 91 91 92 91 92 92 93 93 94 95 96 94 95 95 99 96 95 95 95 94 97 98 98 94 100 105 110 108 108 108 109 112 111 111 116 113 115 116 0 0 0 0 0
    0 0 0 0 0 0 0 0 0 0 0 0 0 0 0 0 0 0 0 0 0 0 0 0 0 0 0 0 0 0 0 0 0 0 0 0 0 0 0 0 0 0 0 0 0 0 0 0 0 0 0 0 0 0 0 0 0 0 0 0 0 0 0 0 0 0 0 0 0 70 67 69 67 63 67 68 68 63 64 61 58 64 60 61 60 59 60 58 58 -193 53 52 51 50 51 48 48 47 46 44 45 44 44 41 41 40 39 39 39 37 35 33 32 35 31 31 33 31 29 32 30 30 28 30 26 24 23 23 19 19 16 15 13 17 14 14 11 10 0 0 0 0 0 0 0 0 0 0 0 0 0 0 0 0 0 0 0 0 0 0 0 9 9 9 11 13 13 12 17 14 16 16 17 17 16 17 18 15 18 16 18 17 19 20 20 21 23 23 25 27 -177 29 28 31 32 29 31 34 31 37 38 36 36 37 38 38 37 40 37 37 41 43 42 42 42 42 42 41 40 42 41 42 43 47 51 55 56 56 57 57 57 57 57 57 56 52 53 56 56 56 60 846 847 -193 63 67 63 65 65 62 66 64 65 67 62 69 69 69 69 69 68 71 72 76 79 80 83 84 83 83 82 84 80 85 -193 90 91 90 90 92 91 92 92 93 93 94 95 96 94 96 95 99 97 96 95 96 94 98 99 99 94 100 105 109 108 108 108 108 112 111 111 117 115 116 117 0 0 0 0 0
    0 0 0 0 0 0 0 0 0 0 0 0 0 0 0 0 0 0 0 0 0 0 0 0 0 0 0 0 0 0 0 0 0 0 0 0 0 0 0 0 0 0 0 0 0 0 0 0 0 0 0 0 0 0 0 0 0 0 0 0 0 0 0 0 0 0 0 0 0 70 67 69 67 63 68 68 68 63 65 61 58 64 60 61 60 60 60 58 58 -193 53 52 51 50 51 48 48 47 46 44 45 44 44 41 41 40 39 39 39 37 36 34 32 34 31 32 32 31 29 32 30 30 28 29 26 24 22 22 19 19 16 15 13 17 14 13 10 9 0 0 0 0 0 0 0 0 0 0 0 0 0 0 0 0 0 0 0 0 0 0 0 0 0 0 11 12 12 10 14 12 14 14 16 16 15 16 17 15 18 16 19 17 19 20 19 20 23 22 24 26 -177 28 27 31 31 29 31 35 31 37 38 36 36 37 38 38 37 40 38 38 42 44 44 43 44 44 43 42 42 44 43 44 47 49 53 56 56 56 57 58 57 57 57 57 56 52 53 56 55 56 60 845 846 -193 63 67 63 65 65 62 66 64 65 67 62 69 69 69 69 69 68 71 72 76 79 80 83 84 83 82 80 81 78 -193 -209 -193 89 89 89 91 90 91 91 92 92 94 95 96 94 96 96 99 97 96 95 96 95 98 99 99 94 99 105 108 107 108 108 108 113 111 111 117 116 117 118 0 0 0 0 0
    0 0 0 0 0 0 0 0 0 0 0 0 0 0 0 0 0 0 0 0 0 0 0 0 0 0 0 0 0 0 0 0 0 0 0 0 0 0 0 0 0 0 0 0 0 0 0 0 0 0 0 0 0 0 0 0 0 0 0 0 0 0 0 0 0 0 0 0 0 70 67 69 67 63 68 68 68 64 67 61 -193 -193 60 61 60 60 60 59 58 57 54 52 51 50 51 48 48 47 46 45 46 44 44 42 41 40 39 39 38 37 35 34 32 34 31 31 32 31 29 31 29 29 27 28 25 24 22 22 19 18 16 15 13 17 13 13 11 10 0 0 0 0 0 0 0 0 0 0 0 0 0 0 0 0 0 0 0 0 0 0 0 0 0 0 10 11 10 10 13 11 13 15 15 15 15 16 17 16 18 16 19 17 18 20 19 20 23 22 24 26 -177 28 27 31 31 29 31 35 31 37 38 37 36 37 38 38 37 40 38 40 42 45 46 44 45 45 45 44 43 47 45 45 51 51 54 56 56 56 57 58 57 57 57 57 56 51 53 -193 55 56 60 844 845 -193 63 67 63 65 65 62 66 65 65 67 62 69 69 69 69 70 69 71 72 76 79 81 84 85 83 82 78 80 75 -209 -209 -209 -193 87 87 90 90 90 91 91 92 94 94 96 94 96 95 100 98 96 96 96 95 99 100 99 95 99 105 107 107 107 107 107 114 111 111 117 118 118 119 0 0 0 0 0
    0 0 0 0 0 0 0 0 0 0 0 0 0 0 0 0 0 0 0 0 0 0 0 0 0 0 0 0 0 0 0 0 0 0 0 0 0 0 0 0 0 0 0 0 0 0 0 0 0 0 0 0 0 0 0 0 0 0 0 0 0 0 0 0 0 0 0 0 0 70 67 69 67 63 68 69 69 65 68 -193 -193 -193 60 61 60 60 60 59 59 58 54 53 51 50 51 48 48 48 46 45 46 44 44 42 42 40 39 38 38 37 35 34 32 33 31 31 31 31 29 31 29 28 27 27 25 24 22 22 19 18 15 15 13 17 14 13 11 10 9 9 9 0 0 0 0 0 0 0 0 0 0 0 0 0 0 0 0 0 0 0 0 0 0 0 10 9 9 11 13 11 13 15 15 15 16 16 17 16 18 17 18 17 18 20 19 20 23 22 24 26 -177 29 28 31 31 28 31 35 31 36 37 36 36 37 38 38 37 41 39 41 43 45 48 45 46 46 46 45 44 50 48 46 53 53 54 56 57 56 57 58 57 57 57 57 55 51 53 -193 55 56 60 844 845 -193 63 67 63 65 65 63 66 65 65 67 62 69 69 68 69 69 69 70 72 76 78 79 81 82 80 80 76 77 -209 -209 -209 -209 -193 86 87 90 89 90 90 91 91 93 94 95 93 95 95 100 98 97 96 97 96 99 100 100 95 98 105 106 106 106 106 105 114 111 111 117 119 119 119 0 0 0 0 0
    0 0 0 0 0 0 0 0 0 0 0 0 0 0 0 0 0 0 0 0 0 0 0 0 0 0 0 0 0 0 0 0 0 0 0 0 0 0 0 0 0 0 0 0 0 0 0 0 0 0 0 0 0 0 0 0 0 0 0 0 0 0 0 0 0 0 0 0 0 69 67 69 67 63 69 69 69 65 68 -193 -193 -177 60 61 60 60 60 59 59 58 55 53 51 50 51 48 49 48 46 45 46 45 44 42 42 40 39 38 38 37 35 35 33 34 31 32 32 31 29 30 28 28 26 27 24 23 21 21 19 18 15 15 13 18 14 14 12 11 10 9 10 9 0 0 0 0 0 0 0 0 0 0 0 0 0 0 0 0 0 0 0 0 0 0 9 0 0 10 12 11 13 15 15 15 16 16 17 16 19 17 19 17 18 20 20 20 23 22 24 -193 -177 28 27 30 31 28 31 35 31 36 37 36 36 37 38 38 36 41 40 42 43 45 49 46 47 47 46 45 45 51 49 46 53 53 54 56 56 56 57 58 58 57 57 57 55 51 52 -193 55 56 60 844 845 -177 63 67 63 65 66 63 66 65 64 66 62 68 68 67 68 69 68 68 71 74 76 77 78 78 77 77 75 76 -209 -193 -193 -209 -209 86 87 90 89 90 90 90 90 92 93 94 93 95 95 100 99 98 97 98 97 100 101 101 95 98 105 105 105 104 104 104 114 110 111 117 -193 -193 -193 0 0 0 0 0
    0 0 0 0 0 0 0 0 0 0 0 0 0 0 0 0 0 0 0 0 0 0 0 0 0 0 0 0 0 0 0 0 0 0 0 0 0 0 0 0 0 0 0 0 0 0 0 0 0 0 0 0 0 0 0 0 0 0 0 0 0 0 0 0 0 0 0 0 0 69 67 68 67 63 68 69 68 63 68 -193 -193 -177 60 61 60 60 60 59 59 58 55 53 51 51 51 48 49 48 46 45 46 45 44 42 42 40 39 38 38 37 35 35 33 34 32 33 32 31 29 30 28 28 26 26 23 22 21 20 19 19 15 16 13 18 14 15 12 11 10 10 10 10 0 0 0 0 0 0 0 0 0 0 0 0 0 0 0 0 0 0 0 0 0 0 0 0 0 9 11 10 12 14 15 15 17 16 18 16 19 17 19 17 18 20 20 20 23 22 24 27 -177 29 28 30 32 29 32 36 31 36 37 36 36 37 37 38 36 41 40 44 43 44 50 46 47 47 46 45 45 50 49 45 52 52 54 56 56 56 57 58 58 57 57 57 55 50 52 -177 54 55 59 844 845 -177 63 67 63 65 66 63 66 65 -193 66 62 68 68 66 67 68 68 67 70 73 75 76 77 77 76 76 75 76 -209 -193 54 -209 -209 86 87 90 89 90 90 90 90 92 92 94 93 95 95 101 99 99 98 99 98 101 102 102 96 99 105 105 105 105 104 104 114 110 111 117 -177 -177 -177 0 0 0 0 0
    0 0 0 0 0 0 0 0 0 0 0 0 0 0 0 0 0 0 0 0 0 0 0 0 0 0 0 0 0 0 0 0 0 0 0 0 0 0 0 0 0 0 0 0 0 0 0 0 0 0 0 0 0 0 0 0 0 0 0 0 0 0 0 0 0 0 0 0 0 70 67 68 67 62 68 68 67 61 67 59 -193 -193 60 61 60 60 60 59 60 58 55 53 51 51 51 48 49 47 46 45 46 45 44 42 41 40 39 37 37 37 35 36 34 34 32 33 32 32 29 31 27 27 26 26 23 22 21 20 19 19 16 16 14 18 15 15 13 12 11 11 11 11 0 0 0 0 0 0 0 0 0 0 0 0 0 0 0 0 0 0 0 0 0 0 0 0 0 9 9 9 11 13 15 15 17 16 18 16 19 17 18 16 18 19 19 19 23 21 24 26 -177 29 28 30 32 29 32 36 31 36 36 36 36 36 37 38 34 41 41 44 43 44 51 46 47 47 47 46 47 51 50 45 52 52 54 56 56 56 57 58 58 57 57 57 55 51 52 -177 54 55 59 844 846 -177 62 66 63 65 65 63 65 65 -193 66 62 68 68 65 66 68 67 65 69 72 75 75 76 76 76 76 75 76 -193 -193 54 -209 -209 86 87 90 89 89 89 90 89 91 92 94 92 95 96 101 100 100 99 100 99 101 102 102 98 100 105 105 105 104 104 103 113 109 110 116 -177 431 -177 0 0 0 0 0
    0 0 0 0 0 0 0 0 0 0 0 0 0 0 0 0 0 0 0 0 0 0 0 0 0 0 0 0 0 0 0 0 0 0 0 0 0 0 0 0 0 0 0 0 0 0 0 0 0 0 0 0 0 0 0 0 0 0 0 0 0 0 0 0 0 0 0 0 0 69 67 68 67 62 68 68 67 61 67 59 58 -193 60 61 60 60 60 59 60 58 56 53 51 51 50 48 50 47 46 45 46 45 43 42 41 39 38 37 37 37 35 36 34 34 33 34 32 31 29 31 27 27 26 25 23 22 21 20 19 19 16 16 15 18 14 15 13 12 12 11 12 12 9 10 10 10 0 0 0 0 0 0 0 0 0 0 0 0 0 0 0 0 0 0 0 0 0 9 0 9 10 13 14 14 17 16 18 16 19 17 18 16 17 18 18 18 22 20 23 25 -177 27 27 30 31 29 32 36 31 35 35 35 35 35 36 37 32 40 41 43 42 43 51 46 46 46 46 46 47 51 50 45 52 52 53 56 56 56 57 58 58 57 57 57 55 52 53 -177 55 56 60 845 846 -177 62 66 63 64 65 63 65 65 64 66 63 67 67 65 65 67 66 62 68 71 74 74 75 -193 -193 76 75 76 -193 -193 55 -209 -209 84 86 90 89 89 89 90 89 91 92 94 93 96 97 101 101 101 100 101 100 102 103 103 100 101 105 104 104 104 103 103 114 110 111 116 -193 432 -177 0 0 0 0 0
    0 0 0 0 0 0 0 0 0 0 0 0 0 0 0 0 0 0 0 0 0 0 0 0 0 0 0 0 0 0 0 0 0 0 0 0 0 0 0 0 0 0 0 0 0 0 0 0 0 0 0 0 0 0 0 0 0 0 0 0 0 0 0 0 0 0 0 0 0 69 68 68 67 63 69 69 67 61 67 59 59 -177 60 60 60 60 60 59 59 58 57 54 52 52 50 49 50 48 47 45 46 45 43 43 41 39 38 36 37 37 35 36 34 34 33 34 32 31 30 30 27 26 26 25 22 22 21 21 19 19 17 18 16 18 15 15 13 13 13 12 13 13 11 12 12 12 10 9 0 0 0 0 0 0 0 0 0 0 0 0 0 0 0 0 0 0 0 0 9 9 10 14 14 15 18 16 18 17 19 17 18 17 17 18 18 18 21 19 23 24 26 27 27 29 30 28 31 36 30 34 34 33 33 34 35 35 30 39 40 41 42 42 50 45 46 46 46 45 48 51 50 45 52 52 53 55 55 55 56 57 57 56 56 56 55 53 53 -177 56 56 60 -193 -193 -193 62 66 63 64 65 63 65 65 64 66 63 67 67 64 64 66 65 61 67 -209 -193 74 75 -193 -193 76 76 76 73 59 56 -209 -209 86 86 90 89 89 89 90 89 91 91 94 93 96 97 102 102 101 101 102 101 103 104 104 102 100 105 104 104 104 104 104 115 111 113 116 -193 -193 -193 0 0 0 0 0
    0 0 0 0 0 0 0 0 0 0 0 0 0 0 0 0 0 0 0 0 0 0 0 0 0 0 0 0 0 0 0 0 0 0 0 0 0 0 0 0 0 0 0 0 0 0 0 0 0 0 0 0 0 0 0 0 0 0 0 0 0 0 0 0 0 0 0 0 0 70 69 69 67 64 69 69 68 62 68 -193 -193 -177 59 60 59 59 59 58 59 58 57 54 52 52 51 49 51 48 47 46 46 45 43 43 41 39 37 36 37 36 35 37 34 34 33 34 32 31 30 30 27 26 26 25 23 22 21 21 20 20 18 19 18 19 15 16 14 14 14 13 13 14 12 13 13 13 11 10 9 0 0 0 0 0 0 0 0 0 0 0 0 0 0 0 0 0 0 0 0 0 9 13 13 14 18 16 18 17 19 17 17 17 17 17 19 18 22 19 23 24 26 27 27 28 30 28 31 35 30 34 34 33 33 34 35 36 29 40 42 41 41 41 50 45 46 46 46 46 48 50 51 45 52 51 52 54 54 54 54 55 56 55 55 56 55 54 54 -177 -193 57 61 60 60 63 62 66 63 63 65 63 65 65 64 66 63 67 67 63 64 66 65 61 66 -193 -209 73 75 75 -193 76 76 76 74 63 -193 -209 -209 -193 87 89 89 89 89 89 88 89 90 93 92 95 96 102 102 102 101 102 102 103 104 104 102 100 105 105 105 105 105 104 116 113 114 116 120 117 117 0 0 0 0 0
    0 0 0 0 0 0 0 0 0 0 0 0 0 0 0 0 0 0 0 0 0 0 0 0 0 0 0 0 0 0 0 0 0 0 0 0 0 0 0 0 0 0 0 0 0 0 0 0 0 0 0 0 0 0 0 0 0 0 0 0 0 0 0 0 0 0 0 0 0 70 69 69 68 64 70 70 68 60 67 -193 -193 -177 59 59 59 59 59 58 59 58 57 53 53 53 51 50 51 48 47 46 46 45 43 43 41 39 37 36 38 36 35 37 34 35 34 35 32 30 30 31 27 27 26 25 23 23 22 22 22 21 20 20 20 20 16 16 14 14 14 14 14 14 13 14 14 13 12 11 10 0 0 0 0 0 0 0 0 0 0 0 0 0 0 0 0 0 0 0 9 9 9 14 14 16 18 16 18 17 19 17 18 17 17 17 19 18 22 20 23 25 27 27 27 29 30 28 31 35 30 33 33 32 33 33 35 35 29 39 40 40 40 40 49 45 46 46 46 46 48 50 51 45 52 51 52 53 53 53 52 52 54 54 54 55 55 55 55 -209 58 58 61 61 61 63 62 66 63 63 65 63 65 65 63 65 63 66 66 63 63 65 64 61 66 -177 -209 73 75 75 -193 76 76 77 74 -193 -209 -209 84 90 88 90 89 89 89 89 87 88 88 91 91 94 96 102 103 102 102 102 102 103 104 104 102 98 105 105 105 105 105 104 117 114 115 116 119 116 116 0 0 0 0 0
    0 0 0 0 0 0 0 0 0 0 0 0 0 0 0 0 0 0 0 0 0 0 0 0 0 0 0 0 0 0 0 0 0 0 0 0 0 0 0 0 0 0 0 0 0 0 0 0 0 0 0 0 0 0 0 0 0 0 0 0 0 0 0 0 0 0 0 0 0 71 70 69 68 65 70 70 68 58 66 -193 -193 -177 59 59 59 59 59 58 59 58 57 53 53 53 51 50 51 48 46 45 45 45 43 43 40 38 36 36 38 36 35 37 34 35 34 35 33 30 31 31 28 27 26 25 24 24 23 23 23 22 21 22 21 20 17 17 14 14 14 14 15 15 13 13 14 13 12 11 11 9 0 0 0 0 0 0 0 0 0 0 0 0 0 0 0 0 0 0 0 0 0 13 13 15 18 16 18 17 18 17 17 17 18 17 19 18 22 20 23 25 27 27 28 29 31 28 30 35 29 32 32 32 32 32 33 34 29 39 40 40 40 40 49 45 46 46 46 46 48 50 51 45 51 50 51 51 51 51 51 48 52 53 54 54 55 56 56 -193 59 58 62 61 61 64 62 66 63 63 66 63 65 65 63 65 63 66 66 62 62 65 63 61 65 -193 -193 72 74 75 75 76 77 78 75 76 74 -209 88 90 89 90 89 89 89 89 87 87 87 91 91 93 96 102 104 102 102 103 102 103 104 103 102 96 105 104 105 104 105 104 116 114 115 116 119 115 115 0 0 0 0 0
    0 0 0 0 0 0 0 0 0 0 0 0 0 0 0 0 0 0 0 0 0 0 0 0 0 0 0 0 0 0 0 0 0 0 0 0 0 0 0 0 0 0 0 0 0 0 0 0 0 0 0 0 0 0 0 0 0 0 0 0 0 0 0 0 0 0 0 0 0 71 70 69 69 67 70 70 69 58 -193 -193 -193 -193 59 59 59 59 59 58 59 58 57 53 54 53 51 51 51 48 46 45 45 45 43 43 40 38 35 36 38 35 35 36 34 35 34 35 33 30 31 31 28 27 27 26 25 24 24 24 24 24 23 23 23 21 18 17 13 15 14 15 15 15 13 14 14 14 12 12 11 10 0 0 0 0 0 0 0 0 0 0 0 0 0 0 0 0 0 0 0 0 0 12 12 14 16 15 18 17 18 17 17 17 18 18 19 19 22 21 23 25 27 27 28 30 31 28 31 35 29 32 32 32 32 32 34 34 29 39 40 40 40 40 49 45 46 46 46 46 48 49 51 45 50 49 50 49 49 49 49 46 51 51 53 52 55 58 57 -193 60 59 63 62 62 64 62 66 64 63 66 -193 65 65 63 66 63 66 66 62 62 64 62 60 64 -193 69 70 74 75 75 76 78 79 77 78 78 86 88 90 88 89 90 89 90 89 87 88 87 91 92 93 96 102 104 102 102 102 102 102 103 103 102 94 105 104 105 106 106 105 117 115 115 116 119 115 114 0 0 0 0 0
    0 0 0 0 0 0 0 0 0 0 0 0 0 0 0 0 0 0 0 0 0 0 0 0 0 0 0 0 0 0 0 0 0 0 0 0 0 0 0 0 0 0 0 0 0 0 0 0 0 0 0 0 0 0 0 0 0 0 0 0 0 0 0 0 0 0 0 0 0 71 71 70 69 68 71 70 69 59 -193 -193 -193 -193 59 59 59 59 59 58 59 58 57 53 54 54 52 51 52 48 46 45 45 45 43 42 40 37 34 36 38 34 34 36 34 34 34 35 33 29 31 31 28 27 27 26 26 26 26 26 25 25 24 24 24 22 20 18 13 15 14 14 15 14 13 13 13 13 11 11 11 10 0 0 0 0 0 0 0 0 0 0 0 0 0 0 0 0 0 0 0 0 0 13 12 14 16 15 18 17 18 17 18 18 19 18 20 19 23 22 24 25 27 27 28 30 31 28 31 35 29 32 32 32 32 31 34 34 29 38 40 40 40 40 49 45 46 46 46 46 48 49 52 45 50 49 49 48 48 48 49 45 50 51 52 52 55 60 58 -193 62 60 63 63 63 65 62 66 64 63 66 -177 65 65 64 67 63 65 66 62 61 63 62 60 63 -193 68 70 74 75 76 77 79 80 79 81 82 87 88 89 88 89 90 89 90 90 88 88 87 91 93 93 96 101 104 101 101 102 101 101 103 103 102 93 105 106 107 107 108 106 118 117 117 117 119 114 114 0 0 0 0 0
    0 0 0 0 0 0 0 0 0 0 0 0 0 0 0 0 0 0 0 0 0 0 0 0 0 0 0 0 0 0 0 0 0 0 0 0 0 0 0 0 0 0 0 0 0 0 0 0 0 0 0 0 0 0 0 0 0 0 0 0 0 0 0 0 0 0 0 0 0 72 71 70 70 70 71 71 70 60 -193 -193 -193 61 59 59 59 59 58 59 59 58 56 54 54 54 52 51 52 49 46 45 45 45 43 43 40 37 34 35 38 33 33 35 33 34 33 35 32 29 31 31 29 27 27 27 27 27 27 26 26 26 25 24 25 22 20 18 13 15 14 14 14 14 13 12 12 12 10 11 10 10 0 0 0 0 0 0 0 0 0 0 0 0 0 0 0 0 0 0 0 0 0 13 12 14 15 15 18 17 18 18 18 19 20 19 20 20 23 22 24 25 26 26 28 30 31 28 30 34 29 31 31 31 31 30 34 33 29 38 39 39 39 40 49 45 46 46 46 46 -193 49 52 45 50 49 50 49 48 49 49 46 50 51 52 52 56 62 59 -193 -193 61 64 63 63 66 62 66 65 -193 -193 -177 66 66 64 67 63 65 66 61 61 63 61 60 62 66 68 69 74 75 76 78 80 80 79 82 83 87 88 89 88 89 90 89 90 90 88 88 87 91 94 93 95 100 104 100 100 101 100 100 102 102 101 92 105 106 107 107 108 105 118 118 117 118 119 114 114 0 0 0 0 0
    0 0 0 0 0 0 0 0 0 0 0 0 0 0 0 0 0 0 0 0 0 0 0 0 0 0 0 0 0 0 0 0 0 0 0 0 0 0 0 0 0 0 0 0 0 0 0 0 0 0 0 0 0 0 0 0 0 0 0 0 0 0 0 0 0 0 0 0 0 71 71 71 70 70 72 71 70 60 -209 -193 -193 61 59 58 59 58 58 58 59 58 55 54 54 54 52 52 52 49 46 46 45 45 43 43 40 37 34 35 38 33 33 34 33 33 33 34 32 29 31 31 29 27 27 26 28 27 27 26 26 25 25 24 24 22 20 18 13 14 13 13 13 13 12 12 12 12 10 10 9 9 0 0 0 0 0 0 0 0 0 0 0 0 0 0 8 0 0 0 0 0 0 13 11 14 15 15 19 18 19 19 19 20 -193 20 21 21 24 23 24 25 26 26 29 30 30 28 30 34 28 30 30 30 30 30 34 33 29 38 39 39 39 40 49 -193 46 47 46 46 -193 49 52 46 51 50 50 49 49 49 50 46 51 52 53 53 56 63 60 -193 -193 62 65 64 64 66 62 66 66 -193 -193 -177 67 67 64 68 64 65 66 61 61 63 61 60 62 66 68 70 73 75 76 78 80 80 79 82 83 87 88 90 88 88 89 89 90 89 88 88 87 91 95 93 95 99 103 99 99 100 99 99 101 101 100 92 105 106 107 107 108 104 118 119 118 118 120 114 114 0 0 0 0 0
    0 0 0 0 0 0 0 0 0 0 0 0 0 0 0 0 0 0 0 0 0 0 0 0 0 0 0 0 0 0 0 0 0 0 0 0 0 0 0 0 0 0 0 0 0 0 0 0 0 0 0 0 0 0 0 0 0 0 0 0 0 0 0 0 0 0 0 0 0 72 71 71 71 71 72 71 70 59 -193 -193 56 60 58 58 58 58 57 58 59 58 55 54 54 53 52 52 52 50 46 46 46 45 44 44 -193 37 34 35 38 32 33 34 32 32 32 33 32 28 31 30 29 27 27 27 29 28 28 26 27 26 25 24 24 22 20 19 13 14 13 13 13 13 11 11 11 11 9 10 9 9 0 0 0 0 0 0 0 0 0 0 0 0 0 0 0 0 0 0 0 0 0 13 12 14 16 15 19 18 19 20 20 21 -193 21 22 22 25 24 25 26 27 27 29 31 31 28 30 34 28 30 30 30 30 30 35 33 29 38 39 39 39 40 49 -193 46 47 46 46 -193 49 52 46 51 50 51 50 49 49 50 46 51 52 54 53 56 63 60 -193 -177 62 65 64 64 66 62 66 66 -193 -193 -177 67 67 65 69 65 64 66 61 61 63 62 61 63 67 69 71 74 75 76 78 80 80 79 82 83 88 88 90 88 88 89 89 90 89 -193 88 87 91 96 93 96 97 102 98 98 99 98 98 100 100 100 91 105 106 107 107 108 106 118 119 117 118 119 114 114 0 0 0 0 0
    0 0 0 0 0 0 0 0 0 0 0 0 0 0 0 0 0 0 0 0 0 0 0 0 0 0 0 0 0 0 0 0 0 0 0 0 0 0 0 0 0 0 0 0 0 0 0 0 0 0 0 0 0 0 0 0 0 0 0 0 0 0 0 0 0 0 0 0 0 72 71 71 71 72 72 71 67 57 55 54 55 60 58 58 58 57 57 58 59 58 54 53 54 52 51 51 52 50 46 46 46 45 44 44 -193 -193 34 35 38 32 32 33 32 32 32 33 31 27 30 30 28 27 27 27 29 28 28 26 27 26 25 24 24 22 20 19 13 14 12 12 13 12 11 10 10 11 9 10 9 9 0 0 0 0 0 0 0 0 0 0 0 0 0 0 0 0 0 0 0 0 0 14 12 15 16 15 19 19 20 20 21 22 -193 21 22 22 26 25 25 26 -177 27 29 32 31 28 30 34 28 30 30 30 30 30 35 33 29 38 39 39 39 40 50 -193 46 47 46 46 -193 49 52 46 51 50 51 50 50 50 50 47 52 52 54 53 56 63 60 -193 -177 62 65 64 64 66 62 66 67 942 943 -177 67 68 65 69 66 64 65 61 60 62 61 61 63 68 69 71 74 75 76 78 80 79 79 82 82 88 88 90 88 88 89 89 90 90 -193 89 88 91 97 94 96 97 102 98 98 98 97 96 99 99 99 91 105 105 106 107 107 105 117 119 116 117 119 114 114 0 0 0 0 0
    0 0 0 0 0 0 0 0 0 0 0 0 0 0 0 0 0 0 0 0 0 0 0 0 0 0 0 0 0 0 0 0 0 0 0 0 0 0 0 0 0 0 0 0 0 0 0 0 0 0 0 0 0 0 0 0 0 0 0 0 0 0 0 0 0 0 0 0 0 71 71 71 70 72 72 71 61 57 55 54 55 60 59 58 59 58 57 58 59 58 53 53 53 52 51 51 52 49 46 46 46 45 45 45 -193 -193 34 35 38 32 32 32 32 31 31 32 31 27 30 29 29 27 27 27 30 28 27 26 27 26 25 24 23 22 19 19 13 14 12 12 12 12 10 10 10 11 9 10 0 9 0 0 0 0 0 0 0 0 0 0 0 0 0 0 0 0 0 0 0 0 0 14 13 15 17 16 19 19 20 21 22 23 -193 22 23 23 26 25 25 26 -177 27 29 32 31 28 30 34 28 30 30 30 30 30 35 33 29 38 39 39 39 40 50 -193 46 47 46 46 -193 49 52 46 52 50 51 50 50 50 51 48 52 52 54 53 56 63 60 -193 -193 62 65 64 64 66 62 66 67 943 943 -177 68 68 66 70 -193 64 65 60 59 61 60 61 62 67 69 72 74 75 76 78 80 79 79 82 82 88 88 90 88 88 89 89 90 90 88 89 89 91 98 94 96 96 102 97 97 97 97 95 99 99 99 91 104 104 105 105 106 104 116 119 116 117 119 115 114 0 0 0 0 0
    0 0 0 0 0 0 0 0 0 0 0 0 0 0 0 0 0 0 0 0 0 0 0 0 0 0 0 0 0 0 0 0 0 0 0 0 0 0 0 0 0 0 0 0 0 0 0 0 0 0 0 0 0 0 0 0 0 0 0 0 0 0 0 0 0 0 0 0 0 71 71 71 69 72 73 71 63 59 55 54 55 60 59 59 58 58 57 58 60 58 54 53 53 51 51 51 52 50 47 46 46 45 46 45 42 705 35 -193 38 32 32 32 32 31 31 32 31 26 30 29 29 27 27 28 30 28 27 26 26 25 24 24 23 21 19 18 12 14 12 11 12 11 10 10 10 11 9 9 0 8 0 0 0 0 0 0 0 0 0 0 0 0 0 0 0 0 0 0 0 0 0 14 12 15 17 16 20 20 21 21 22 24 -193 22 24 23 27 25 26 26 -177 26 29 32 31 28 30 34 28 30 30 30 30 30 35 33 29 38 38 39 39 40 50 -193 46 46 46 47 -193 48 52 46 52 50 52 51 51 51 51 48 53 53 55 53 56 63 60 60 -193 62 65 64 64 66 62 66 68 943 944 -177 -193 68 -193 -193 -193 64 64 60 59 60 59 60 61 65 67 71 73 75 76 78 79 79 79 81 81 88 87 89 88 88 89 89 90 90 89 89 89 92 98 94 96 96 101 97 97 97 97 95 99 98 98 90 104 105 106 106 107 105 114 118 114 116 119 115 115 0 0 0 0 0
    0 0 0 0 0 0 0 0 0 0 0 0 0 0 0 0 0 0 0 0 0 0 0 0 0 0 0 0 0 0 0 0 0 0 0 0 0 0 0 0 0 0 0 0 0 0 0 0 0 0 0 0 0 0 0 0 0 0 0 0 0 0 0 0 0 0 0 0 0 71 71 70 69 72 72 71 63 63 55 54 55 59 58 58 58 57 56 58 60 58 54 53 54 52 51 51 52 50 47 46 46 45 46 46 43 705 35 -193 38 33 32 32 32 31 31 32 31 27 31 30 30 27 28 28 30 28 26 25 25 25 24 23 22 20 18 18 13 14 12 11 11 11 10 10 10 11 9 9 0 0 0 0 0 0 0 0 0 0 0 0 0 0 0 0 0 0 0 0 0 0 0 15 13 16 18 17 20 20 21 22 23 25 24 23 25 24 28 26 26 26 -177 26 29 32 31 28 30 34 28 30 30 30 30 30 35 33 29 38 38 39 39 39 50 -193 46 46 46 47 -193 48 52 46 52 50 52 51 51 51 52 49 53 53 55 54 57 63 60 60 -193 62 66 64 64 66 62 66 -193 944 944 -177 -193 69 -193 -193 -193 64 64 61 59 59 59 59 60 63 65 70 72 74 76 77 78 78 78 80 81 88 87 89 88 88 89 89 90 90 88 89 89 92 98 94 96 96 101 97 97 96 96 94 98 98 98 91 105 106 107 108 108 107 115 118 114 116 119 116 115 0 0 0 0 0
    0 0 0 0 0 0 0 0 0 0 0 0 0 0 0 0 0 0 0 0 0 0 0 0 0 0 0 0 0 0 0 0 0 0 0 0 0 0 0 0 0 0 0 0 0 0 0 0 0 0 0 0 0 0 0 0 0 0 0 0 0 0 0 0 0 0 0 0 0 71 70 70 68 71 71 70 60 62 54 53 54 58 58 58 58 58 57 59 61 59 55 54 54 52 51 51 51 50 47 46 46 45 46 45 43 706 35 36 39 33 33 33 33 32 32 32 32 27 32 30 30 28 28 29 29 27 25 24 24 23 23 22 21 19 17 18 13 14 13 11 11 11 10 10 9 10 0 9 0 0 0 0 0 0 0 0 0 0 0 0 0 0 0 0 0 0 0 0 0 0 0 14 14 17 19 17 20 20 22 22 23 25 25 24 25 25 28 26 26 26 -177 26 29 32 31 28 30 34 28 30 30 30 30 30 35 33 28 38 38 39 39 39 51 -193 46 46 46 47 -177 -177 52 46 52 51 52 51 52 52 52 49 54 54 56 54 57 63 60 60 -193 62 66 64 64 66 62 66 -193 944 944 -193 -193 69 -193 -193 -177 65 64 61 59 59 59 59 60 62 65 70 71 74 75 76 77 77 78 79 80 88 87 90 88 87 89 89 89 90 88 89 89 92 98 94 96 95 101 96 96 96 96 94 98 98 99 91 105 107 109 109 110 108 115 119 114 115 119 116 116 0 0 0 0 0
    0 0 0 0 0 0 0 0 0 0 0 0 0 0 0 0 0 0 0 0 0 0 0 0 0 0 0 0 0 0 0 0 0 0 0 0 0 0 0 0 0 0 0 0 0 0 0 0 0 0 0 0 0 0 0 0 0 0 0 0 0 0 0 0 0 0 0 0 0 70 70 70 68 71 71 69 58 61 54 53 54 59 58 58 58 58 57 59 61 58 55 54 54 51 51 51 51 50 47 46 46 45 46 45 43 -193 35 36 39 34 33 33 33 32 32 32 32 27 32 31 31 28 29 29 28 26 24 23 23 22 22 20 19 17 16 16 13 14 13 11 11 11 10 10 9 10 9 9 0 9 0 0 0 0 0 0 0 0 0 0 0 0 0 0 0 0 0 0 0 0 0 14 14 18 19 17 20 20 22 22 23 25 24 23 25 25 28 26 26 26 -177 27 29 32 31 28 30 34 28 30 30 30 30 -177 -177 33 29 38 38 39 39 39 51 -193 46 46 45 46 270 275 52 45 52 50 52 51 52 52 52 49 54 54 57 55 58 63 60 60 -193 62 66 64 64 66 62 66 -193 944 944 -193 -177 69 -193 -193 -177 65 64 61 59 60 60 60 60 62 65 70 70 73 74 75 75 76 77 78 79 -193 88 91 88 88 89 89 89 90 88 89 89 91 99 94 96 95 101 96 96 96 96 94 98 98 98 91 105 107 108 109 108 107 114 -193 113 113 118 117 117 0 0 0 0 0
    0 0 0 0 0 0 0 0 0 0 0 0 0 0 0 0 0 0 0 0 0 0 0 0 0 0 0 0 0 0 0 0 0 0 0 0 0 0 0 0 0 0 0 0 0 0 0 0 0 0 0 0 0 0 0 0 0 0 0 0 0 0 0 0 0 0 0 0 0 70 70 70 67 70 71 69 59 63 54 54 55 59 58 58 58 58 57 60 61 58 55 54 54 51 51 51 51 50 47 46 46 45 46 45 42 -193 35 36 -193 34 34 33 34 32 32 33 32 27 33 31 31 28 29 29 27 24 23 22 21 20 20 18 18 16 16 15 14 14 14 11 12 11 11 11 10 10 9 9 9 9 0 0 0 0 0 0 0 0 0 0 0 0 0 0 0 0 0 0 0 0 0 15 15 19 20 18 20 20 22 22 23 25 24 23 25 25 28 26 26 26 -177 27 29 32 31 28 30 34 28 30 30 30 30 -177 -177 34 29 39 38 39 39 40 51 -193 45 45 45 46 270 275 52 45 52 50 52 51 52 52 52 49 54 54 57 55 58 63 60 60 65 62 65 64 64 66 62 66 -193 944 944 -193 -177 69 -193 -193 -177 65 64 61 59 61 61 61 61 63 64 70 69 73 73 74 74 75 76 77 79 91 88 91 89 88 89 89 89 90 88 89 89 91 99 94 96 95 101 96 96 96 96 94 98 98 98 91 105 106 107 108 108 107 112 117 112 112 118 118 118 0 0 0 0 0
    0 0 0 0 0 0 0 0 0 0 0 0 0 0 0 0 0 0 0 0 0 0 0 0 0 0 0 0 0 0 0 0 0 0 0 0 0 0 0 0 0 0 0 0 0 0 0 0 0 0 0 0 0 0 0 0 0 0 0 0 0 0 0 0 0 0 0 0 0 70 69 69 67 70 70 69 60 66 55 54 55 59 59 59 58 58 57 60 61 58 55 53 54 51 51 50 51 49 46 45 45 44 45 44 42 -193 35 37 -193 35 34 34 35 33 33 34 32 28 33 32 31 29 31 29 27 24 23 22 21 20 20 17 18 15 15 15 14 14 15 12 12 11 11 11 10 10 10 9 10 10 9 9 0 9 9 0 0 0 0 0 0 0 0 0 0 0 0 0 0 9 9 16 16 19 20 18 20 20 22 22 -193 -193 24 -193 25 25 28 26 26 26 -177 27 29 32 31 28 30 34 29 31 31 31 31 -177 -177 35 29 39 38 39 39 39 50 -193 44 45 44 268 270 275 51 44 51 50 52 51 51 51 52 48 53 53 56 54 57 63 60 60 65 62 65 64 64 66 62 66 -193 944 944 -177 -177 69 -177 -177 -177 65 64 61 59 62 61 62 61 63 64 69 68 72 73 73 74 75 77 77 81 91 89 92 90 88 89 89 89 89 88 89 89 91 99 94 96 95 101 96 96 96 96 94 98 98 99 91 105 106 107 108 108 107 112 118 112 113 118 119 119 0 0 0 0 0
    0 0 0 0 0 0 0 0 0 0 0 0 0 0 0 0 0 0 0 0 0 0 0 0 0 0 0 0 0 0 0 0 0 0 0 0 0 0 0 0 0 0 0 0 0 0 0 0 0 0 0 0 0 0 0 0 0 0 0 0 0 0 0 0 0 0 0 0 0 69 69 69 65 70 70 69 59 66 54 54 55 59 59 58 58 58 57 60 61 58 55 53 54 51 50 50 50 48 46 45 45 44 45 44 42 -193 34 37 715 36 35 34 35 34 34 35 32 28 34 32 32 30 32 30 28 24 23 21 21 19 19 17 18 14 15 14 13 14 15 11 12 11 11 11 10 10 10 9 9 10 9 9 0 9 9 9 9 9 0 0 0 0 0 0 0 0 0 0 0 9 9 15 15 18 19 18 19 20 22 22 -193 -209 -209 -193 25 -193 28 26 26 27 -177 27 29 32 32 28 30 34 29 32 32 32 -177 -177 -177 35 30 38 38 38 38 39 47 -209 -193 43 43 268 270 275 51 44 51 50 52 51 51 51 51 48 53 53 56 54 57 63 60 60 65 62 65 64 64 66 62 66 -193 944 944 -177 -177 69 -177 -177 -177 65 64 61 59 62 62 62 61 64 64 68 68 72 73 73 74 75 78 79 83 -193 89 91 90 88 89 88 -193 89 88 89 89 91 98 94 95 94 101 96 96 96 96 94 99 98 98 91 104 104 106 106 107 105 110 118 113 113 118 -193 -193 0 0 0 0 0
    0 0 0 0 0 0 0 0 0 0 0 0 0 0 0 0 0 0 0 0 0 0 0 0 0 0 0 0 0 0 0 0 0 0 0 0 0 0 0 0 0 0 0 0 0 0 0 0 0 0 0 0 0 0 0 0 0 0 0 0 0 0 0 0 0 0 0 0 0 69 69 68 64 69 69 68 59 66 55 54 55 59 58 58 58 58 57 59 60 57 54 53 54 51 51 50 50 48 46 44 44 43 44 43 41 -193 35 38 715 36 35 35 36 34 34 35 32 29 35 33 33 30 33 30 29 24 23 21 20 19 19 16 17 14 15 14 13 14 15 11 12 11 11 11 10 10 10 9 9 9 9 9 0 9 10 10 10 10 9 9 0 0 0 0 0 0 0 0 0 9 9 15 16 17 19 17 19 20 21 22 -177 -193 -177 -177 -193 -193 28 26 26 27 -177 27 29 32 32 28 30 34 29 33 33 33 33 -177 -177 36 31 38 37 38 38 39 44 -209 -193 42 42 268 270 275 50 43 50 49 52 51 51 51 51 47 53 53 56 54 58 63 61 61 65 62 65 64 64 66 62 66 -193 944 944 -177 -177 69 -177 -177 -177 65 64 62 -193 -193 -193 64 62 65 65 69 68 72 73 74 74 -193 79 -193 84 -209 88 90 89 88 89 88 89 89 88 89 88 90 97 93 95 94 101 96 96 96 97 95 99 99 99 91 104 103 105 105 106 103 109 119 113 113 118 -193 -193 0 0 0 0 0
    0 0 0 0 0 0 0 0 0 0 0 0 0 0 0 0 0 0 0 0 0 0 0 0 0 0 0 0 0 0 0 0 0 0 0 0 0 0 0 0 0 0 0 0 0 0 0 0 0 0 0 0 0 0 0 0 0 0 0 0 0 0 0 0 0 0 0 0 0 69 69 68 63 69 68 67 59 66 55 54 55 59 58 58 57 57 57 59 60 57 55 54 54 52 51 50 50 48 46 44 44 43 44 43 41 -193 35 38 715 37 36 35 36 35 35 36 32 30 35 33 33 31 32 29 29 24 23 21 20 18 19 16 17 14 15 14 13 14 15 11 12 10 12 11 10 11 10 9 10 10 9 9 0 10 10 10 11 10 9 10 0 0 0 0 0 0 0 0 0 9 9 15 16 17 19 17 19 20 21 22 -177 -177 -177 -177 -177 -177 28 26 27 27 -177 27 30 32 32 29 31 34 30 34 34 34 34 -177 -177 37 32 38 37 38 38 39 42 -193 -177 -193 41 268 270 275 -193 43 50 49 52 50 51 50 51 47 52 53 56 55 58 63 61 61 65 63 65 64 64 66 62 66 68 944 944 -177 -177 69 -177 -177 -177 65 65 63 -193 -193 -193 -193 64 67 67 70 69 73 74 74 -193 -193 -193 -193 85 87 87 88 89 87 88 87 89 88 88 89 88 90 97 93 94 93 101 97 97 97 97 95 99 99 99 91 103 103 104 104 105 103 111 119 114 114 118 122 -193 0 0 0 0 0
    0 0 0 0 0 0 0 0 0 0 0 0 0 0 0 0 0 0 0 0 0 0 0 0 0 0 0 0 0 0 0 0 0 0 0 0 0 0 0 0 0 0 0 0 0 0 0 0 0 0 0 0 0 0 0 0 0 0 0 0 0 0 0 0 0 0 0 0 0 69 69 68 63 68 68 66 59 64 55 54 55 59 58 57 57 57 57 59 61 58 55 55 55 52 51 51 51 48 45 44 44 43 43 43 41 41 35 38 715 37 37 36 -193 -193 35 36 32 31 35 34 34 32 33 -193 -193 24 22 21 19 18 18 16 17 14 15 14 13 14 15 12 13 11 12 11 10 11 11 10 10 10 9 9 0 10 10 9 11 10 10 10 0 0 0 0 0 0 0 9 9 10 10 15 16 17 20 18 19 20 21 22 -177 -177 -177 -177 -177 -177 28 26 27 27 -177 -193 30 32 33 29 31 34 31 36 36 36 36 -177 -177 -177 34 38 37 38 38 38 41 -193 -177 -193 40 268 270 275 276 42 49 49 52 50 50 50 50 46 52 53 56 55 58 63 61 61 65 63 65 64 64 66 62 66 68 944 944 -177 -177 69 -177 -177 -177 65 65 64 -193 -193 -193 -193 65 68 68 71 70 73 76 -193 -193 -193 -193 -193 85 87 87 88 88 87 88 87 89 89 89 89 88 90 96 93 94 93 101 97 97 97 97 96 100 99 99 92 103 101 103 103 102 100 109 120 115 115 118 122 -193 0 0 0 0 0
    0 0 0 0 0 0 0 0 0 0 0 0 0 0 0 0 0 0 0 0 0 0 0 0 0 0 0 0 0 0 0 0 0 0 0 0 0 0 0 0 0 0 0 0 0 0 0 0 0 0 0 0 0 0 0 0 0 0 0 0 0 0 0 0 0 0 0 0 0 69 69 68 62 67 67 64 -193 61 54 53 54 59 58 57 57 57 57 59 60 58 55 55 54 52 51 51 50 47 45 44 44 43 43 42 41 41 36 39 -193 38 37 36 -193 -193 35 36 31 32 34 34 33 32 -193 -193 -193 23 22 21 19 18 18 16 17 14 15 14 13 14 15 11 12 10 12 11 11 11 11 10 11 10 10 9 0 10 10 9 11 10 10 10 9 9 0 0 0 0 0 9 0 9 10 14 16 17 20 18 19 20 21 22 -177 -177 -177 -177 -177 -193 28 26 27 27 -177 27 30 33 33 29 31 35 32 37 37 37 37 -177 -177 -177 37 37 37 38 38 38 40 38 -193 -193 39 268 269 275 276 -193 48 49 51 49 50 49 50 46 51 53 56 55 58 63 61 61 65 63 65 64 64 66 63 66 68 945 945 -177 -177 -193 -177 -177 -193 -193 -193 -193 -193 -193 -193 -193 65 68 68 71 -193 73 76 -193 -193 -193 -193 -193 86 87 87 88 88 87 88 87 89 -193 89 89 89 90 95 93 93 92 100 97 97 98 98 97 100 100 100 92 102 101 102 102 102 99 107 119 115 115 118 122 -193 0 0 0 0 0</data></disparity>
</opencv_storage>
