<?xml version="1.0"?>
<opencv_storage>
<gps_time_stamp>289708</gps_time_stamp>
<gps_x>-1.2368768692016602e+001</gps_x>
<gps_y>1.1128602027893066e+001</gps_y>
<gps_z>-2.2245802879333496e+000</gps_z>
<image_time_stamp>280557</image_time_stamp>
<disparity type_id="opencv-matrix">
  <rows>92</rows>
  <cols>320</cols>
  <dt>s</dt>
  <data>
    0 0 0 0 0 0 0 0 0 0 0 0 0 0 0 0 0 0 0 0 0 0 0 0 0 0 0 0 0 0 0 0 0 0 0 0 0 0 0 0 0 0 0 0 0 0 0 0 0 0 0 0 0 0 0 0 0 0 0 0 0 0 0 0 0 0 0 0 0 -209 -209 -209 -209 -209 -209 -193 -193 -209 53 53 54 54 52 52 54 54 55 55 55 53 -193 53 52 48 49 -209 -209 -209 -209 56 58 60 62 65 62 65 63 64 64 63 63 61 61 59 -209 -209 -209 -209 -193 61 62 61 60 59 59 57 59 60 57 59 58 60 -209 -193 -209 -193 57 62 61 61 60 61 62 64 64 65 63 63 62 60 -193 59 58 59 58 58 58 59 59 58 58 60 60 58 62 61 63 66 65 66 64 65 65 64 64 63 63 64 63 64 64 64 65 64 66 65 67 69 69 69 69 70 72 71 71 71 70 68 65 69 66 65 66 65 64 64 64 66 63 66 68 67 65 66 68 67 66 66 65 63 63 65 65 60 61 61 62 64 66 64 68 68 70 69 70 71 71 70 70 70 69 65 67 -193 64 57 59 63 67 68 72 73 71 72 71 71 72 74 74 73 73 74 73 74 74 74 66 67 67 62 57 -209 -193 61 63 68 70 70 -209 -209 -209 -193 -209 -193 -209 -209 -209 -209 -193 -193 -209 -209 -225 -193 -193 -193 42 43 -225 -193 -193 -193 -225 -225 -225 -225 -225 -225 -225 -225 -225 -225 -225 -225 -209 0 0 0 0 0
    0 0 0 0 0 0 0 0 0 0 0 0 0 0 0 0 0 0 0 0 0 0 0 0 0 0 0 0 0 0 0 0 0 0 0 0 0 0 0 0 0 0 0 0 0 0 0 0 0 0 0 0 0 0 0 0 0 0 0 0 0 0 0 0 0 0 0 0 0 -209 -209 -209 -209 -209 -209 -209 -209 -209 51 52 53 52 50 51 54 53 55 55 55 53 53 53 52 48 49 48 -209 -209 -209 57 59 61 63 66 63 65 63 63 63 62 62 60 60 60 58 -193 58 58 59 61 62 61 60 58 59 57 59 59 56 58 57 59 -193 -193 -209 -209 58 62 61 61 61 62 63 65 64 65 62 63 62 60 60 59 58 59 58 58 58 59 59 58 60 -193 61 59 61 61 62 64 64 65 64 64 64 63 64 63 63 64 63 63 64 64 65 63 65 64 67 68 69 68 69 69 70 69 70 69 69 67 63 68 66 65 66 65 64 64 64 66 63 66 68 66 65 67 68 67 66 66 65 63 63 65 64 60 62 61 62 64 65 64 68 68 70 70 70 71 70 69 69 65 63 59 61 63 61 57 59 63 67 68 72 72 71 73 71 71 72 75 74 74 74 74 74 74 75 75 67 67 67 61 -209 -209 -209 -193 -193 69 -209 -209 -209 -209 -209 -209 -209 -193 -209 236 -209 -193 71 -193 67 68 -225 -193 -209 -209 42 42 -225 42 -209 -193 -225 -225 -225 -225 -225 -225 -225 -225 -225 -225 -225 -225 -209 0 0 0 0 0
    0 0 0 0 0 0 0 0 0 0 0 0 0 0 0 0 0 0 0 0 0 0 0 0 0 0 0 0 0 0 0 0 0 0 0 0 0 0 0 0 0 0 0 0 0 0 0 0 0 0 0 0 0 0 0 0 0 0 0 0 0 0 0 0 0 0 0 0 0 -209 -209 -209 -209 -209 -209 -209 -209 -193 51 52 53 52 49 51 54 54 55 55 55 53 53 54 52 49 50 49 -209 53 56 57 59 61 62 64 63 64 63 64 63 63 63 61 61 60 59 58 59 60 60 62 62 61 60 59 60 58 59 59 56 57 57 59 -209 -193 -209 -193 58 62 61 61 61 61 62 64 63 65 62 62 62 60 61 59 58 59 59 59 59 59 60 59 61 61 61 60 61 61 61 62 63 63 63 64 63 62 64 63 63 64 63 64 64 64 65 63 65 64 66 67 68 67 68 68 69 69 69 69 69 67 63 68 66 65 66 65 64 64 64 66 64 66 68 67 66 68 69 68 67 67 65 64 65 66 64 61 62 61 62 63 64 62 67 68 70 70 70 71 70 67 68 62 60 58 59 59 59 57 59 61 65 66 71 72 71 73 71 71 72 76 74 74 74 74 74 75 76 76 67 68 68 60 -209 -209 -209 -193 -193 69 74 -209 -209 -209 -209 -209 -209 -209 -209 236 -209 71 70 -193 64 66 -225 -193 -209 38 39 39 39 -209 -209 -193 -225 -225 -225 -225 -225 -225 -225 -225 -225 -225 -225 -225 -209 0 0 0 0 0
    0 0 0 0 0 0 0 0 0 0 0 0 0 0 0 0 0 0 0 0 0 0 0 0 0 0 0 0 0 0 0 0 0 0 0 0 0 0 0 0 0 0 0 0 0 0 0 0 0 0 0 0 0 0 0 0 0 0 0 0 0 0 0 0 0 0 0 0 0 -193 939 -209 -209 -209 -209 -209 55 53 52 52 53 52 49 52 56 55 57 56 56 54 54 54 52 49 50 -193 -209 53 57 58 59 61 61 63 63 63 63 64 63 62 63 62 61 60 59 58 59 60 61 61 62 60 61 60 61 58 58 58 55 57 57 58 58 58 -209 59 58 61 61 61 61 61 62 63 62 64 62 63 63 62 62 61 59 60 60 60 60 60 60 60 61 62 62 61 61 61 61 61 62 62 62 63 63 62 64 63 64 63 63 63 63 63 64 63 64 63 65 66 67 66 67 66 68 68 68 67 68 66 63 66 66 65 65 64 64 64 64 67 64 67 68 66 67 69 69 68 67 67 65 65 66 66 64 61 62 61 62 63 63 62 67 67 70 70 70 72 70 67 68 61 59 58 59 58 59 58 60 61 64 66 70 71 70 72 71 71 72 76 74 74 74 74 74 74 75 75 65 68 69 59 -209 -209 -209 -193 68 69 74 -209 -209 -209 -209 -209 -209 -209 -193 -177 -193 -209 -193 -209 -209 -209 -225 -209 -193 -225 -225 -225 40 -209 -209 -209 -225 -225 -225 -225 -225 -225 -225 -225 -225 -225 -225 -225 -225 0 0 0 0 0
    0 0 0 0 0 0 0 0 0 0 0 0 0 0 0 0 0 0 0 0 0 0 0 0 0 0 0 0 0 0 0 0 0 0 0 0 0 0 0 0 0 0 0 0 0 0 0 0 0 0 0 0 0 0 0 0 0 0 0 0 0 0 0 0 0 0 0 0 0 -193 940 -209 -209 -209 -209 -193 55 54 52 52 52 51 47 53 57 57 58 58 58 -193 -193 -193 55 51 52 -193 -209 54 57 58 59 60 60 61 61 62 62 63 62 61 62 61 61 60 59 57 58 59 61 61 62 -209 60 -193 61 58 57 57 55 56 56 57 57 57 -193 58 58 61 61 61 61 61 62 63 61 63 61 62 63 63 62 61 59 60 60 60 60 60 61 60 61 62 63 62 62 61 62 62 62 62 62 63 63 62 64 63 64 63 63 63 63 63 63 62 62 62 64 63 66 64 66 66 68 67 67 66 67 66 63 65 66 65 65 64 63 64 63 66 64 65 66 65 66 68 68 67 67 67 66 65 66 65 63 61 62 61 62 64 64 64 68 69 71 72 71 73 71 68 69 62 60 58 60 60 61 61 65 65 67 67 71 70 69 72 71 71 72 76 74 73 74 73 73 73 74 74 64 69 70 -193 -209 -193 64 66 68 66 69 66 65 -209 -209 -209 -209 -209 -209 -177 -209 -209 -209 -209 -209 -209 -225 -209 -209 -225 -225 -225 -193 -209 -209 -209 -225 -225 -225 -225 -225 -225 -225 -225 -225 -225 -225 -225 -225 0 0 0 0 0
    0 0 0 0 0 0 0 0 0 0 0 0 0 0 0 0 0 0 0 0 0 0 0 0 0 0 0 0 0 0 0 0 0 0 0 0 0 0 0 0 0 0 0 0 0 0 0 0 0 0 0 0 0 0 0 0 0 0 0 0 0 0 0 0 0 0 0 0 0 943 -193 -209 64 67 -209 -209 -209 53 51 50 50 48 46 53 57 58 59 60 60 58 -209 -209 -209 53 53 -209 -209 53 55 58 58 59 59 60 60 61 61 62 62 61 61 61 60 59 58 56 57 58 60 60 -193 -209 -193 -209 61 59 58 57 55 56 56 57 57 57 -193 58 58 61 61 61 61 61 61 62 61 62 61 61 63 63 62 62 59 60 60 60 60 60 61 60 61 62 62 62 62 62 62 62 62 62 63 64 63 62 64 63 64 63 63 62 63 62 63 62 62 62 63 62 65 63 65 64 67 66 66 66 66 65 62 63 65 65 64 64 63 63 62 65 64 63 64 64 66 68 68 67 67 67 66 66 66 66 64 63 62 62 61 63 63 64 68 69 71 73 72 73 72 69 70 63 61 59 61 62 62 65 69 68 69 69 71 70 69 72 72 72 72 76 73 73 73 73 73 73 73 73 63 70 70 -209 -209 60 59 61 64 62 65 62 60 58 -209 -209 -209 -209 -209 -193 -209 -209 -209 -193 0 -209 -225 -209 -209 -225 -225 -193 -193 -209 -193 137 -225 -225 -225 -225 -225 -225 -225 -225 -225 -225 -225 -225 -225 0 0 0 0 0
    0 0 0 0 0 0 0 0 0 0 0 0 0 0 0 0 0 0 0 0 0 0 0 0 0 0 0 0 0 0 0 0 0 0 0 0 0 0 0 0 0 0 0 0 0 0 0 0 0 0 0 0 0 0 0 0 0 0 0 0 0 0 0 0 0 0 0 0 0 -209 -177 -209 60 64 62 -209 55 53 50 50 50 -193 46 52 -209 57 59 60 60 59 -209 -209 -209 -193 53 -193 52 51 52 56 57 58 58 59 60 61 61 62 61 61 62 61 60 58 58 56 57 58 59 60 -193 -209 -209 -209 -193 58 57 56 54 55 56 57 57 57 -209 58 58 60 60 60 60 60 60 61 59 60 59 60 63 63 63 62 60 61 61 61 61 60 61 60 61 61 61 61 61 61 62 62 62 62 64 64 63 63 64 62 63 62 62 61 62 62 62 61 62 62 63 62 65 63 63 63 65 64 63 64 64 63 62 62 63 63 63 63 61 61 61 63 63 63 63 63 66 69 68 67 68 68 67 67 68 66 64 63 62 61 60 61 61 62 68 70 71 74 72 74 72 69 70 64 63 61 63 66 65 67 71 70 70 70 71 70 69 72 72 72 73 75 73 73 73 73 73 72 72 71 62 70 70 -193 57 59 59 61 63 61 62 59 57 -209 -209 -209 -209 -209 -209 -209 -209 -209 -209 0 0 -177 -225 -225 -209 -225 -225 -225 -193 -209 146 142 -225 -225 -225 -225 -225 -225 -225 -225 -225 -225 -225 -225 -225 0 0 0 0 0
    0 0 0 0 0 0 0 0 0 0 0 0 0 0 0 0 0 0 0 0 0 0 0 0 0 0 0 0 0 0 0 0 0 0 0 0 0 0 0 0 0 0 0 0 0 0 0 0 0 0 0 0 0 0 0 0 0 0 0 0 0 0 0 0 0 0 0 0 0 -209 -193 -209 -193 61 60 -209 54 53 49 50 50 -193 49 53 -209 58 60 61 61 -193 -209 -209 -209 -193 -209 -193 52 50 50 53 55 56 57 59 60 59 60 61 61 61 61 60 59 57 58 56 58 58 60 61 -193 -209 -209 -209 -193 -193 56 53 53 54 55 56 57 56 56 58 58 59 60 59 59 59 59 60 58 59 59 62 64 63 64 63 62 62 63 62 61 61 62 61 61 61 60 61 60 60 61 61 62 62 63 64 62 63 64 62 62 61 61 60 61 62 61 61 62 62 63 62 65 63 63 64 65 64 62 64 64 63 62 62 62 62 62 62 61 60 61 62 62 63 62 64 67 69 69 68 68 68 67 67 67 66 63 63 62 61 59 60 59 61 67 71 72 75 71 74 72 69 71 67 66 65 67 70 68 70 73 72 72 71 73 72 71 72 75 73 73 76 72 72 72 72 72 71 71 70 61 70 70 60 58 59 59 62 65 61 62 57 56 -209 -209 -209 -209 -209 -193 -209 -209 -209 -193 0 0 -193 -193 -209 -209 -225 -225 -193 34 -209 -209 -225 -225 -225 -225 -225 -225 -225 -225 -225 -225 -225 -225 -225 -225 0 0 0 0 0
    0 0 0 0 0 0 0 0 0 0 0 0 0 0 0 0 0 0 0 0 0 0 0 0 0 0 0 0 0 0 0 0 0 0 0 0 0 0 0 0 0 0 0 0 0 0 0 0 0 0 0 0 0 0 0 0 0 0 0 0 0 0 0 0 0 0 0 0 0 -193 -193 -193 -209 -209 -209 54 53 53 50 50 52 -209 51 54 -209 59 61 61 62 61 -209 -209 -209 -209 -209 -193 51 49 47 50 53 55 55 58 59 58 59 60 60 60 59 59 58 56 58 57 60 59 61 63 63 -209 -193 -209 -193 44 54 52 53 54 54 56 57 57 57 58 58 59 59 59 58 58 59 58 57 57 58 62 64 63 63 63 62 62 63 62 61 60 62 61 61 61 60 60 59 60 61 61 62 62 63 63 62 64 64 62 61 61 61 60 61 62 61 61 62 63 64 63 64 63 63 65 64 64 62 63 64 62 62 62 62 63 62 63 62 61 61 63 62 63 61 64 67 69 69 67 67 67 66 67 66 64 61 62 62 61 59 61 60 62 67 70 71 74 70 73 71 69 70 68 68 67 69 72 70 72 74 74 74 74 75 74 73 74 77 74 74 76 72 72 72 72 71 70 70 69 61 70 70 61 58 59 57 60 62 58 -193 50 53 -209 -209 -209 -209 -209 -193 -209 -193 -209 -193 0 0 0 0 -209 -209 -225 -225 -193 34 -209 -209 -225 -225 -225 -225 -225 -225 -225 -225 -225 -225 -225 -225 -225 -225 0 0 0 0 0
    0 0 0 0 0 0 0 0 0 0 0 0 0 0 0 0 0 0 0 0 0 0 0 0 0 0 0 0 0 0 0 0 0 0 0 0 0 0 0 0 0 0 0 0 0 0 0 0 0 0 0 0 0 0 0 0 0 0 0 0 0 0 0 0 0 0 0 0 0 -209 -209 -193 -209 -209 -209 -193 54 54 52 52 -209 -209 53 -209 -209 59 60 60 -193 -209 -209 -209 -209 -209 -193 -193 52 51 49 -193 -209 54 55 57 -193 -193 58 -193 59 59 59 59 58 56 59 59 62 62 64 66 65 -193 -193 -209 -193 -193 55 53 53 53 54 56 57 57 57 58 58 58 59 59 58 57 58 56 56 56 57 63 65 64 64 64 63 63 64 63 61 60 61 60 60 60 60 60 59 60 61 60 61 62 63 63 62 64 64 62 61 61 61 60 61 62 61 61 63 64 64 63 64 63 63 65 63 64 62 63 65 63 62 63 63 63 62 64 62 61 62 64 61 63 61 64 67 70 68 67 66 67 66 67 66 64 61 62 62 61 59 59 58 61 66 68 69 70 69 71 70 69 70 67 68 68 69 72 71 73 75 75 75 74 77 74 74 74 78 74 74 75 71 71 71 71 71 69 69 68 61 71 71 64 58 58 56 58 61 57 56 46 51 -209 -209 -209 -209 -193 114 -209 -209 -209 0 0 0 -193 -193 -209 -209 -225 -225 -193 -209 -209 -209 -225 -225 -225 -225 -225 -225 -225 -225 -225 -225 -225 -225 -225 -225 0 0 0 0 0
    0 0 0 0 0 0 0 0 0 0 0 0 0 0 0 0 0 0 0 0 0 0 0 0 0 0 0 0 0 0 0 0 0 0 0 0 0 0 0 0 0 0 0 0 0 0 0 0 0 0 0 0 0 0 0 0 0 0 0 0 0 0 0 0 0 0 0 0 0 -209 -193 -193 -209 -193 -209 -193 54 55 -209 -209 -209 -209 -209 -209 -193 60 60 60 60 60 -193 -209 -209 -209 -209 -209 54 52 51 53 55 53 54 56 -193 -193 -193 -193 -193 59 59 60 59 57 60 59 62 61 61 62 60 59 59 57 -193 -193 56 54 55 55 55 57 58 57 57 57 58 58 58 58 58 57 58 56 57 56 56 66 65 64 65 65 64 63 64 63 61 60 61 60 60 60 60 61 60 61 62 61 62 62 64 63 62 64 64 62 62 62 61 60 61 62 61 62 63 64 64 63 64 63 63 65 63 65 62 63 66 63 63 64 63 63 62 64 63 60 62 63 61 62 61 64 67 69 68 66 66 66 66 67 64 62 59 61 61 60 58 57 58 62 65 69 69 70 69 71 70 70 70 70 69 69 70 73 72 74 76 75 76 76 79 75 74 74 79 74 74 74 70 70 71 71 70 67 68 68 61 72 71 68 59 59 58 59 63 61 59 51 53 -209 -209 -209 -193 -209 115 -209 -209 -209 -193 0 -193 -209 -209 -209 -209 -209 -209 -193 -209 -209 -209 -209 -209 -225 -225 -225 -225 -225 -225 -225 -225 -225 -225 -225 -225 0 0 0 0 0
    0 0 0 0 0 0 0 0 0 0 0 0 0 0 0 0 0 0 0 0 0 0 0 0 0 0 0 0 0 0 0 0 0 0 0 0 0 0 0 0 0 0 0 0 0 0 0 0 0 0 0 0 0 0 0 0 0 0 0 0 0 0 0 0 0 0 0 0 0 -193 -193 -193 57 59 59 -193 -193 58 -209 -209 -209 -209 -209 -209 -193 60 59 59 59 58 -193 -193 -209 -193 -193 -209 53 52 52 53 55 53 55 56 -193 -193 -193 -193 -193 -193 58 -209 -209 54 59 57 59 58 58 59 57 58 58 55 -193 -193 -193 58 58 59 58 59 60 59 59 59 58 59 59 59 59 58 59 57 57 57 58 61 63 62 64 64 63 63 64 63 61 61 61 60 61 61 62 62 61 62 63 63 63 63 64 63 62 64 63 62 62 62 61 60 61 62 60 62 63 63 64 63 63 63 62 64 63 64 61 62 66 63 63 64 63 63 62 64 63 60 62 63 60 62 61 65 69 70 70 67 66 65 67 66 62 60 58 59 60 59 58 56 59 62 63 68 66 67 67 70 68 69 70 71 70 71 72 73 72 75 76 75 75 75 78 74 74 74 78 73 73 73 69 69 70 70 69 66 68 67 61 72 72 70 58 58 57 58 60 60 59 50 54 -209 -209 -209 -209 -209 -193 -209 -209 -209 -209 0 -209 -209 -209 -209 -209 -209 -209 -209 -209 -209 -209 -209 -209 -209 -209 -193 -225 -225 -225 -225 -225 -225 -225 -225 -225 0 0 0 0 0
    0 0 0 0 0 0 0 0 0 0 0 0 0 0 0 0 0 0 0 0 0 0 0 0 0 0 0 0 0 0 0 0 0 0 0 0 0 0 0 0 0 0 0 0 0 0 0 0 0 0 0 0 0 0 0 0 0 0 0 0 0 0 0 0 0 0 0 0 0 54 -193 55 57 60 60 58 58 59 -209 -193 -193 -209 59 -193 -193 59 58 58 57 -193 56 -193 -209 -209 -193 -193 54 52 52 53 54 52 54 56 55 54 -193 -193 -193 -209 -209 -209 -193 -193 60 -193 -193 -193 57 58 55 57 56 53 46 46 57 57 58 59 58 60 60 59 60 59 59 59 59 60 60 59 60 57 59 58 59 61 62 62 63 63 64 63 64 62 61 61 61 60 61 61 62 63 62 63 63 63 63 63 65 62 62 64 63 61 61 61 60 60 61 62 60 62 63 63 64 63 64 63 63 65 65 65 62 62 66 63 63 64 63 62 62 63 62 59 62 62 59 61 61 65 70 71 72 69 67 64 66 64 -193 59 58 59 59 59 58 55 58 61 60 64 62 63 63 67 66 67 69 71 71 71 73 74 73 76 77 76 76 75 77 73 73 73 77 72 72 72 68 68 69 70 69 66 68 68 61 73 72 72 58 57 57 57 59 58 59 41 -209 -209 -209 -209 -209 -209 -209 -209 -209 -209 -209 -193 -209 -209 -209 -209 -209 -209 -209 -209 -209 -209 -209 -209 -209 -209 -209 -209 -225 -225 -225 -225 -225 -225 -225 -225 -225 0 0 0 0 0
    0 0 0 0 0 0 0 0 0 0 0 0 0 0 0 0 0 0 0 0 0 0 0 0 0 0 0 0 0 0 0 0 0 0 0 0 0 0 0 0 0 0 0 0 0 0 0 0 0 0 0 0 0 0 0 0 0 0 0 0 0 0 0 0 0 0 0 0 0 54 53 54 56 58 58 56 57 58 -193 -193 -193 -193 59 57 57 57 56 56 56 56 56 55 57 57 -193 57 56 55 55 54 55 53 55 57 57 56 58 -209 60 -193 -193 -209 -209 -209 -209 -193 -193 -209 56 60 56 58 57 55 55 56 58 59 58 59 58 60 60 60 60 59 59 60 59 60 60 59 60 58 59 59 60 61 62 62 63 63 64 63 64 62 62 61 60 60 61 60 62 62 61 62 62 63 63 63 64 62 62 64 63 61 61 61 60 60 61 62 61 63 65 65 65 65 64 64 63 65 65 64 62 62 66 62 63 64 63 62 62 63 63 59 62 62 59 60 62 67 72 73 77 -209 -209 66 69 -209 -209 60 59 59 61 60 56 54 56 57 57 56 56 58 58 61 62 62 65 69 70 70 72 72 72 75 77 76 76 74 77 72 71 72 76 71 71 71 68 67 69 69 69 65 68 68 62 73 73 73 59 58 58 57 59 -209 -193 -193 -209 -209 -209 -209 -209 -209 -209 -209 -209 -209 -209 -209 -209 -209 -193 -193 -193 -209 -209 -209 -209 -209 -209 -209 -209 -209 -209 -209 -209 -225 -225 -225 -225 -225 -225 -209 -225 0 0 0 0 0
    0 0 0 0 0 0 0 0 0 0 0 0 0 0 0 0 0 0 0 0 0 0 0 0 0 0 0 0 0 0 0 0 0 0 0 0 0 0 0 0 0 0 0 0 0 0 0 0 0 0 0 0 0 0 0 0 0 0 0 0 0 0 0 0 0 0 0 0 0 54 53 53 56 56 57 56 56 57 -193 59 -193 -193 59 57 56 55 53 53 54 54 54 54 56 57 57 58 58 56 56 55 57 55 57 58 58 -193 -193 -193 62 -193 -193 -209 -209 -209 -209 -193 -209 -209 -193 63 57 58 58 56 56 56 58 60 57 59 58 60 60 60 61 60 59 60 59 61 60 59 60 58 60 59 60 61 61 61 62 62 63 63 63 62 62 61 61 60 61 61 63 63 61 62 62 63 63 62 64 61 61 63 63 61 61 61 60 60 61 62 61 62 64 64 65 64 64 64 63 65 65 64 61 62 67 63 63 64 63 62 62 63 63 59 62 62 59 59 65 68 75 -193 -193 -193 -209 -209 -209 -209 -193 -209 59 59 60 60 55 53 55 56 55 -193 54 55 55 58 60 59 61 65 68 68 71 70 71 74 75 74 73 72 74 70 70 71 74 69 70 71 67 66 68 69 68 65 68 68 63 73 74 74 60 61 61 60 62 -193 61 -193 -193 -193 -209 -209 -193 -209 -209 -209 -209 -209 -209 -193 -209 -209 -209 -193 -193 -209 -209 -209 -209 -209 -209 -209 -209 -209 -209 -209 -209 -209 -209 -225 -225 -225 -193 -193 -225 0 0 0 0 0
    0 0 0 0 0 0 0 0 0 0 0 0 0 0 0 0 0 0 0 0 0 0 0 0 0 0 0 0 0 0 0 0 0 0 0 0 0 0 0 0 0 0 0 0 0 0 0 0 0 0 0 0 0 0 0 0 0 0 0 0 0 0 0 0 0 0 0 0 0 53 53 53 56 56 57 55 56 57 59 59 59 -193 60 58 56 55 52 52 53 53 53 53 56 57 57 59 60 57 57 56 57 56 58 59 58 -193 -193 -193 63 64 65 -209 -209 -193 -209 -193 -209 -209 -209 64 58 59 58 57 57 57 59 60 57 59 58 59 60 60 61 60 59 60 60 61 60 60 60 58 60 60 61 62 61 61 62 62 62 62 62 61 61 61 60 61 62 61 63 63 62 62 63 63 63 62 63 61 61 63 62 61 61 61 61 61 61 62 61 62 64 64 64 63 63 63 63 65 65 64 61 61 67 63 63 64 63 62 62 63 63 59 62 62 58 56 -209 -209 -193 -193 -209 -193 -193 -209 -209 -209 236 -209 -193 58 61 64 59 58 60 63 58 -209 62 -209 -209 61 62 60 60 65 68 67 71 68 70 73 74 72 71 70 72 69 69 70 72 68 69 70 67 66 68 69 68 65 69 69 63 74 74 74 61 62 63 61 63 -193 62 -193 -209 -193 -193 -193 -193 -209 -209 -209 -209 -209 -209 -209 -209 -209 -193 128 127 -209 -209 -209 -209 -193 -193 -193 48 -193 -193 -209 -209 -209 -209 -225 -225 -225 -193 -193 -225 0 0 0 0 0
    0 0 0 0 0 0 0 0 0 0 0 0 0 0 0 0 0 0 0 0 0 0 0 0 0 0 0 0 0 0 0 0 0 0 0 0 0 0 0 0 0 0 0 0 0 0 0 0 0 0 0 0 0 0 0 0 0 0 0 0 0 0 0 0 0 0 0 0 0 52 53 54 56 56 57 56 57 58 59 60 60 -193 60 57 55 54 52 51 52 52 53 53 56 57 58 60 61 59 60 59 59 58 59 60 59 59 60 60 62 62 63 67 67 -209 69 67 69 -209 -193 64 59 60 59 58 59 58 59 61 57 59 58 59 59 59 61 60 59 60 60 62 60 60 60 59 60 60 61 61 60 61 61 61 61 61 61 60 61 60 60 60 61 61 63 63 62 62 62 62 62 61 63 61 61 62 62 61 62 62 61 60 61 62 61 62 63 63 64 63 62 63 62 64 66 64 61 61 68 64 63 64 63 62 62 63 63 60 61 63 58 54 -209 -209 -209 91 -209 -193 -193 -209 -209 -209 -209 -193 59 59 62 65 62 61 63 66 63 69 71 -193 71 68 67 65 60 65 -209 60 65 61 67 68 70 67 68 66 70 67 67 68 71 67 68 70 66 65 67 69 68 65 69 69 64 74 74 74 60 61 62 60 61 60 61 -209 -209 -193 -193 -193 -193 -209 -209 -209 -209 -209 -209 -209 -209 -209 -193 -193 -193 -209 -209 -209 -209 -193 -193 -193 -193 -193 45 -209 -209 -209 -209 -225 -225 -193 -193 -209 -225 0 0 0 0 0
    0 0 0 0 0 0 0 0 0 0 0 0 0 0 0 0 0 0 0 0 0 0 0 0 0 0 0 0 0 0 0 0 0 0 0 0 0 0 0 0 0 0 0 0 0 0 0 0 0 0 0 0 0 0 0 0 0 0 0 0 0 0 0 0 0 0 0 0 0 52 54 55 58 58 59 57 58 58 60 60 60 -209 60 56 53 52 51 50 51 51 53 53 55 57 57 59 61 -193 60 59 59 59 60 61 60 59 60 59 61 60 60 62 60 62 63 -193 -209 -209 57 64 59 60 59 60 60 59 59 61 57 59 58 58 58 58 60 59 59 59 59 61 60 60 60 59 61 61 62 61 60 61 61 61 61 61 61 60 61 60 59 60 62 61 64 64 62 63 63 63 62 61 64 60 60 61 61 61 62 61 61 60 61 62 62 63 63 62 63 62 61 62 61 62 68 64 61 61 67 64 63 64 64 62 62 63 63 60 60 61 58 56 -209 -209 -209 -209 -209 -193 -193 -209 -209 -209 -209 60 59 59 62 65 62 61 62 66 62 68 -193 -209 -209 -209 69 -209 -209 -209 -209 57 59 58 64 61 67 64 65 64 69 66 66 67 70 67 68 70 67 66 68 69 68 66 69 69 64 73 74 73 60 63 64 61 62 61 61 -209 -209 -193 -193 -209 -193 -209 -209 -209 -209 -209 -209 -209 -209 -193 -209 -209 -209 -209 -209 -209 -209 -209 -209 -193 -193 49 45 -193 -209 -209 -209 -225 -225 -193 390 -193 -225 0 0 0 0 0
    0 0 0 0 0 0 0 0 0 0 0 0 0 0 0 0 0 0 0 0 0 0 0 0 0 0 0 0 0 0 0 0 0 0 0 0 0 0 0 0 0 0 0 0 0 0 0 0 0 0 0 0 0 0 0 0 0 0 0 0 0 0 0 0 0 0 0 0 0 51 53 56 59 59 59 58 58 59 61 62 61 -193 60 56 54 52 51 51 52 52 53 53 55 55 56 58 59 -209 58 -193 58 58 60 61 60 59 60 59 60 60 60 61 -193 60 -193 -209 -209 -209 58 65 60 60 60 60 60 60 59 61 57 59 57 58 57 57 59 58 58 59 59 61 60 60 60 59 61 61 62 61 61 61 61 61 61 61 61 59 60 60 59 60 64 62 65 65 64 64 63 64 63 61 63 60 60 61 60 60 61 61 61 60 62 62 62 62 62 58 58 54 55 44 55 58 70 63 61 61 67 65 63 64 63 62 63 63 63 60 60 60 58 55 52 51 -209 -209 -209 -193 -209 -209 -209 -209 180 62 60 60 63 65 64 62 63 67 63 69 73 -209 74 -193 70 -209 -209 -193 -209 58 60 59 64 61 67 64 65 63 68 66 66 66 70 67 68 70 68 67 68 70 69 67 69 70 66 73 73 73 60 64 65 61 62 61 61 -193 -193 -193 -193 -209 -209 -209 -209 -209 -209 -209 245 -209 -193 -193 -209 -209 -209 -209 -209 -209 -209 -209 -193 -193 -193 47 45 46 42 -209 -209 -225 -225 -193 -193 -193 -225 0 0 0 0 0
    0 0 0 0 0 0 0 0 0 0 0 0 0 0 0 0 0 0 0 0 0 0 0 0 0 0 0 0 0 0 0 0 0 0 0 0 0 0 0 0 0 0 0 0 0 0 0 0 0 0 0 0 0 0 0 0 0 0 0 0 0 0 0 0 0 0 0 0 0 52 55 58 66 65 60 60 59 60 61 62 -193 -193 -193 59 55 52 51 51 53 53 53 54 55 55 56 58 59 -209 -193 -209 57 58 59 61 60 59 59 58 59 57 56 55 54 -209 -209 -209 -209 -209 59 66 61 61 61 61 60 60 60 61 57 58 57 57 55 57 59 59 58 59 58 61 60 60 60 59 61 61 63 61 61 61 61 61 61 61 60 59 61 61 60 63 66 64 67 68 66 65 64 65 64 60 63 59 59 59 60 60 61 60 61 59 60 60 59 57 58 53 53 48 45 43 49 58 -193 61 60 60 66 66 63 63 63 61 63 63 63 61 59 60 58 54 48 49 -193 -193 -193 -209 -209 -209 -209 -193 -193 65 62 61 62 64 62 61 61 64 61 68 -193 -209 74 -209 -209 -209 -193 -209 -209 59 61 59 64 61 66 63 64 62 68 66 67 67 70 68 68 70 69 68 69 70 70 68 70 70 67 73 72 72 58 64 64 59 59 59 60 -193 -193 -193 -193 -193 -209 -209 -209 -209 -209 -209 -209 -209 -193 -209 -209 -209 -209 -209 -209 -209 -193 -209 -209 -193 -193 44 44 45 -225 -225 -209 -225 -225 -209 -193 -193 -225 0 0 0 0 0
    0 0 0 0 0 0 0 0 0 0 0 0 0 0 0 0 0 0 0 0 0 0 0 0 0 0 0 0 0 0 0 0 0 0 0 0 0 0 0 0 0 0 0 0 0 0 0 0 0 0 0 0 0 0 0 0 0 0 0 0 0 0 0 0 0 0 0 0 0 52 55 58 64 64 58 58 57 58 59 59 -209 -209 -193 60 55 51 51 51 54 55 55 55 56 56 58 59 60 58 -193 -193 58 59 60 61 60 59 58 57 57 55 51 51 50 -193 -209 -209 -209 -209 60 67 62 62 61 62 61 60 60 61 55 57 54 53 44 51 55 56 55 56 56 61 60 61 60 60 61 62 64 62 61 62 61 61 61 61 61 59 60 60 59 68 68 65 68 69 65 63 61 60 60 58 61 58 58 58 59 58 59 59 59 52 54 52 49 49 53 51 50 44 42 40 -193 57 -193 60 59 59 65 66 62 63 63 61 63 63 63 61 58 59 58 52 46 46 -193 -193 -193 -209 -209 -209 -209 61 -193 67 64 63 63 66 62 62 60 64 62 68 72 -193 75 -193 -209 -209 75 -193 -209 -209 62 59 64 62 66 62 64 63 68 68 68 67 70 69 69 70 70 69 70 71 70 69 70 71 69 72 72 71 58 66 65 60 59 58 61 -193 -209 -193 -193 -193 -209 -209 -209 -209 -209 -209 -209 -209 -193 -193 -209 -209 -209 -209 -209 -209 -193 -193 -209 -209 -209 43 43 46 -225 -225 -225 -225 -225 -209 -209 -225 -225 0 0 0 0 0
    0 0 0 0 0 0 0 0 0 0 0 0 0 0 0 0 0 0 0 0 0 0 0 0 0 0 0 0 0 0 0 0 0 0 0 0 0 0 0 0 0 0 0 0 0 0 0 0 0 0 0 0 0 0 0 0 0 0 0 0 0 0 0 0 0 0 0 0 0 51 57 60 67 67 60 59 58 58 -193 -209 -193 -209 -193 58 54 49 50 52 57 57 56 56 57 56 58 59 60 58 60 -193 59 60 61 62 61 60 59 56 56 54 50 -193 -193 -209 -209 -209 -209 -193 61 67 63 63 63 63 61 61 60 62 56 56 55 54 43 45 51 54 52 53 54 59 58 61 58 61 61 62 64 62 61 61 60 61 61 61 60 58 -193 -209 -209 71 68 65 67 65 60 59 58 56 -193 57 60 58 58 58 58 58 58 58 58 48 48 47 46 48 51 48 47 42 37 32 39 -225 -209 57 57 57 61 66 62 62 63 61 63 63 63 62 58 60 59 -209 -209 -209 -209 -209 -209 -209 -209 -209 -209 -209 64 69 64 63 62 66 63 64 63 64 63 69 72 -193 76 76 75 76 76 75 -209 -209 69 66 68 66 68 63 65 65 69 69 68 68 71 70 70 71 71 70 70 71 71 70 70 71 70 71 71 71 59 69 68 62 60 60 61 -209 -209 -209 -209 -209 -209 -209 -209 -209 -209 -209 -193 -193 -193 -193 93 -209 -209 -209 -193 -209 -209 -209 -209 -209 -209 -209 42 -225 -225 -225 -225 -225 -225 -209 -209 -225 -225 0 0 0 0 0
    0 0 0 0 0 0 0 0 0 0 0 0 0 0 0 0 0 0 0 0 0 0 0 0 0 0 0 0 0 0 0 0 0 0 0 0 0 0 0 0 0 0 0 0 0 0 0 0 0 0 0 0 0 0 0 0 0 0 0 0 0 0 0 0 0 0 0 0 0 51 57 61 70 70 65 65 61 62 59 -209 -209 -177 -177 -209 -209 48 52 54 58 -193 56 56 56 55 57 58 59 57 59 -193 59 61 62 62 62 60 60 57 56 53 48 -193 -193 -209 -209 -209 -209 68 61 67 63 63 63 63 62 62 60 62 56 56 56 55 45 45 49 53 51 51 52 57 56 59 56 61 60 62 64 62 61 61 61 61 60 61 60 58 -193 -209 -209 70 69 67 -193 69 65 63 60 -209 -209 57 61 59 58 58 58 -209 -193 -193 -209 45 45 46 45 48 52 50 50 -193 -193 24 38 -209 -209 55 55 56 58 67 61 61 62 61 63 63 63 62 58 59 58 -209 -209 -209 -209 -209 -209 -209 -209 -209 -209 -209 63 -193 63 61 61 64 62 62 62 62 62 68 70 -193 -193 73 74 74 75 74 -209 -193 70 69 69 67 69 64 67 67 70 70 69 69 71 71 70 71 71 70 70 71 71 70 70 71 70 69 71 70 58 68 67 60 59 -209 -209 -209 -209 -209 -209 -209 -209 -209 -209 -209 -209 -209 -209 -209 -209 -193 90 -209 -209 -209 -209 -209 -209 -209 -209 -209 -209 -209 -193 -225 -225 -225 -225 -225 -225 -209 -193 -225 -225 0 0 0 0 0
    0 0 0 0 0 0 0 0 0 0 0 0 0 0 0 0 0 0 0 0 0 0 0 0 0 0 0 0 0 0 0 0 0 0 0 0 0 0 0 0 0 0 0 0 0 0 0 0 0 0 0 0 0 0 0 0 0 0 0 0 0 0 0 0 0 0 0 0 0 51 57 61 70 72 70 72 68 68 70 -209 -209 -177 -177 -209 -209 -209 -193 62 69 60 58 56 56 54 56 56 56 56 58 -209 -193 61 62 63 63 62 61 57 55 51 -193 -193 -193 -209 -209 -209 58 67 61 66 63 63 63 63 62 62 60 62 56 56 56 55 44 -209 46 -209 -209 44 45 -209 -209 -209 53 -209 60 62 65 62 61 61 61 61 60 61 60 58 -209 -209 -209 -209 -209 -209 -209 -209 -209 -209 -209 -225 -209 57 62 60 -209 -209 -209 -209 -209 -209 -209 -209 -209 45 -209 -209 -209 -209 -209 -209 19 -193 -209 -209 470 53 54 54 56 67 61 61 62 61 62 63 63 63 57 58 57 -209 -209 -209 -209 -209 -209 -209 -209 -209 -209 62 64 68 63 61 61 64 64 63 65 64 63 67 69 -193 70 70 72 72 74 73 72 70 71 71 71 69 70 66 69 69 70 -193 69 69 71 72 70 71 71 70 70 71 71 70 69 71 70 67 70 70 57 62 62 57 55 44 -209 -209 -209 -209 -209 -209 -209 -209 -209 -209 -209 -209 -193 -193 -193 -193 -193 -209 -209 -209 -193 -209 -209 -209 -209 -209 -209 -209 -225 -225 -225 -225 -225 -225 -225 -225 -225 -225 -225 0 0 0 0 0
    0 0 0 0 0 0 0 0 0 0 0 0 0 0 0 0 0 0 0 0 0 0 0 0 0 0 0 0 0 0 0 0 0 0 0 0 0 0 0 0 0 0 0 0 0 0 0 0 0 0 0 0 0 0 0 0 0 0 0 0 0 0 0 0 0 0 0 0 0 51 57 60 67 71 66 70 62 64 58 -209 -209 -177 -177 -209 -209 -209 -209 69 -193 62 59 56 56 54 56 55 55 56 57 -193 58 58 59 60 61 61 61 57 56 53 -209 -193 -193 -209 -209 -209 57 67 62 66 63 63 63 63 62 62 60 62 56 56 56 56 -193 -193 -193 -193 25 31 27 27 -209 -193 -193 -209 59 62 64 61 61 61 61 61 60 60 60 57 -209 -209 -193 -209 -209 -209 -209 -209 -193 79 -209 -225 -209 58 67 -193 -209 -209 -209 -209 -209 -209 -209 -209 -209 -209 -193 -209 -209 -209 -209 17 17 -193 -209 -209 -209 -193 54 55 56 68 61 61 62 61 62 64 63 63 57 59 59 -209 -209 -209 -209 -209 -209 -209 -209 65 63 63 65 68 63 61 62 64 66 65 66 65 64 67 68 68 69 68 70 71 72 72 70 71 71 71 70 69 70 68 70 70 71 -193 69 69 71 72 70 71 72 70 70 71 71 70 69 71 70 66 71 70 57 63 65 57 54 45 -209 -209 -209 -209 -209 -193 -209 -209 -209 -209 -193 -209 -193 -209 -209 -193 -193 -193 -209 -193 -209 -209 -209 -209 -209 -209 -209 -209 -225 -225 -225 -225 -225 -225 -225 -225 -225 -225 -225 0 0 0 0 0
    0 0 0 0 0 0 0 0 0 0 0 0 0 0 0 0 0 0 0 0 0 0 0 0 0 0 0 0 0 0 0 0 0 0 0 0 0 0 0 0 0 0 0 0 0 0 0 0 0 0 0 0 0 0 0 0 0 0 0 0 0 0 0 0 0 0 0 0 0 53 57 59 64 -193 67 -193 60 62 -193 -209 -177 -177 219 -209 -209 -209 -209 68 68 62 60 57 57 54 55 55 54 55 55 57 57 57 57 58 59 61 61 58 57 57 -209 -209 -209 -209 -193 -209 57 67 62 66 63 63 63 63 62 62 60 62 57 56 56 56 29 24 24 24 26 26 26 27 -209 -209 -193 -209 -193 61 63 61 61 60 60 60 60 60 -209 -209 21 17 16 16 -177 -177 -209 -209 82 85 84 -193 -209 61 69 -193 -193 -209 -209 -209 -209 -209 -209 -209 -193 18 16 -193 -209 -193 14 15 15 19 -193 -209 -209 -209 55 55 56 69 61 62 62 62 62 64 63 63 57 60 60 58 -209 -209 451 -209 -209 -209 -209 68 65 65 66 69 65 63 65 67 69 68 69 66 65 67 67 66 67 65 69 69 70 70 69 71 71 70 70 69 -193 -193 71 71 71 -209 70 70 71 73 70 70 72 70 69 71 70 70 68 71 70 65 72 72 62 67 69 60 -209 -209 -209 -209 -209 -209 -209 -209 -209 -209 -193 -209 -193 -193 0 -193 -209 -193 -193 -193 -209 -193 -209 -209 -209 -209 -209 -209 -209 -209 -225 -225 -209 -225 -225 -225 -225 -225 -225 -225 -225 0 0 0 0 0
    0 0 0 0 0 0 0 0 0 0 0 0 0 0 0 0 0 0 0 0 0 0 0 0 0 0 0 0 0 0 0 0 0 0 0 0 0 0 0 0 0 0 0 0 0 0 0 0 0 0 0 0 0 0 0 0 0 0 0 0 0 0 0 0 0 0 0 0 0 52 57 58 -193 64 71 -193 70 67 -209 -209 -177 213 217 -209 -209 -209 -209 69 66 61 59 57 58 53 55 54 54 55 57 57 57 56 57 58 60 62 63 59 59 -193 -209 -209 -209 -193 -193 -209 58 68 62 66 63 63 62 63 62 62 59 61 55 56 56 56 32 25 24 23 24 21 21 -209 -209 -209 -209 -209 -193 62 63 61 62 61 61 60 60 60 -193 16 14 12 12 11 9 -177 0 0 -193 85 83 86 -209 63 70 66 67 67 -193 -193 -193 66 -209 -209 -193 18 17 16 16 17 15 15 15 19 -209 -209 -209 -209 55 55 56 69 62 62 62 62 62 64 63 63 57 60 60 57 -209 -193 -177 -209 -209 -209 -193 68 66 65 67 68 67 67 68 69 71 69 70 68 67 67 65 63 64 62 67 67 69 68 69 70 70 70 70 69 -193 -193 -193 -193 69 -209 69 69 71 73 69 69 71 69 68 70 70 70 68 71 71 65 73 73 -193 65 69 -193 -209 -209 -209 -209 -209 -209 -209 -209 -209 -193 -193 -193 -193 -193 0 -209 -209 -209 -209 -209 -193 85 -209 -209 -209 -209 -209 -209 -209 -193 -209 -209 228 -209 -193 -193 -225 -225 -225 -225 -225 0 0 0 0 0
    0 0 0 0 0 0 0 0 0 0 0 0 0 0 0 0 0 0 0 0 0 0 0 0 0 0 0 0 0 0 0 0 0 0 0 0 0 0 0 0 0 0 0 0 0 0 0 0 0 0 0 0 0 0 0 0 0 0 0 0 0 0 0 0 0 0 0 0 0 52 58 57 54 59 68 70 69 65 -209 -209 204 206 212 -193 -209 -209 -209 -209 -209 -209 56 -193 -209 -209 -209 -209 -193 57 59 59 59 56 57 59 60 62 62 60 -209 -209 -209 -209 -209 -193 -209 71 58 68 62 66 62 62 62 62 61 61 58 60 52 55 56 56 28 23 21 20 -209 -193 -193 -193 -209 -209 -209 -209 -193 64 65 62 63 62 61 61 60 61 -193 15 13 12 11 10 9 -177 0 0 -193 83 80 84 -209 63 71 66 67 66 64 63 64 64 67 -209 -193 20 19 19 17 18 15 16 15 18 -193 -209 -209 -209 52 51 56 69 62 62 63 62 62 64 63 64 57 61 61 59 -209 -209 -177 -209 -209 -209 -193 67 64 65 66 68 67 66 68 68 70 68 70 67 67 67 64 61 61 60 66 65 67 66 68 69 70 69 69 68 -193 -193 -193 -193 67 -209 67 67 69 72 68 68 71 68 67 69 69 69 67 71 70 64 73 74 74 64 70 -209 -209 -209 -209 -209 -209 -209 -209 -209 -209 -193 -193 -209 -193 -193 -177 -209 -209 -193 -193 77 -193 83 -209 -209 -209 -209 -209 -209 -209 -209 -225 -193 -193 -209 -193 -193 -225 -225 -225 -225 -225 0 0 0 0 0
    0 0 0 0 0 0 0 0 0 0 0 0 0 0 0 0 0 0 0 0 0 0 0 0 0 0 0 0 0 0 0 0 0 0 0 0 0 0 0 0 0 0 0 0 0 0 0 0 0 0 0 0 0 0 0 0 0 0 0 0 0 0 0 0 0 0 0 0 0 50 57 53 51 55 -193 -193 -193 57 -209 -209 203 -177 -177 -193 214 -209 -209 -209 -209 -209 55 -209 -209 -209 -209 -209 -193 58 60 60 60 56 58 59 60 63 65 -193 -209 -209 66 -209 -193 -193 -209 72 59 68 62 65 62 61 61 61 60 61 58 59 50 56 56 57 -177 19 17 16 -193 -193 -193 -209 169 168 169 -209 66 65 66 62 63 62 61 61 60 61 -193 17 14 13 11 10 10 9 9 0 -193 -177 -177 -193 -209 60 70 64 65 64 63 62 63 63 66 -209 -209 22 21 19 17 17 14 15 14 16 21 590 -209 -209 -209 46 56 70 62 62 63 63 62 64 64 64 58 62 62 62 63 -209 -193 -209 -209 69 -193 67 64 65 65 68 67 66 69 70 71 69 -193 -193 69 69 66 63 62 61 65 65 66 64 67 68 69 69 69 69 67 67 67 65 67 -193 65 65 67 71 67 67 70 67 66 68 69 68 66 70 70 64 73 75 74 65 71 -193 -209 -209 -209 -209 -209 -209 -209 -209 -193 -193 -193 -193 -209 -209 -177 -209 -209 -209 75 76 -193 80 -209 -209 -209 -209 -209 -209 -209 -209 -225 145 -209 -193 -193 -225 -225 -225 -225 -225 -225 0 0 0 0 0
    0 0 0 0 0 0 0 0 0 0 0 0 0 0 0 0 0 0 0 0 0 0 0 0 0 0 0 0 0 0 0 0 0 0 0 0 0 0 0 0 0 0 0 0 0 0 0 0 0 0 0 0 0 0 0 0 0 0 0 0 0 0 0 0 0 0 0 0 0 46 -193 47 48 53 53 54 54 56 -209 -209 -209 -193 -177 -209 -177 -177 -209 -209 -209 -209 -209 -209 -193 -209 -209 -209 55 58 59 59 59 52 56 -209 60 63 66 65 -193 -193 68 69 68 69 69 71 60 69 63 65 62 61 61 61 60 60 57 58 49 57 57 58 19 17 16 16 15 12 11 -193 -193 167 166 -177 66 65 67 62 63 62 61 61 59 60 -193 20 16 14 12 11 11 10 10 0 -209 -209 -193 -193 -209 58 70 64 65 64 62 62 -193 63 66 -209 -209 21 21 19 -193 -193 14 14 13 14 19 -177 -209 -209 -209 53 57 70 62 63 64 63 63 65 64 64 58 63 64 63 65 -193 -209 -193 69 68 67 67 64 65 64 66 65 64 69 70 -193 -193 -209 -193 -193 71 69 66 64 62 66 65 66 64 66 68 69 69 69 68 67 67 67 66 66 68 64 65 66 71 67 67 69 66 65 67 69 68 65 69 69 64 73 75 75 64 72 -193 -209 -209 -209 -209 -209 -209 -209 -209 -193 -209 -193 -209 -209 -209 -193 -193 -209 -193 75 77 -193 78 -209 -209 -209 -209 -209 -209 -209 -209 -225 145 -209 -193 -193 -225 -225 -225 -209 -209 -209 0 0 0 0 0
    0 0 0 0 0 0 0 0 0 0 0 0 0 0 0 0 0 0 0 0 0 0 0 0 0 0 0 0 0 0 0 0 0 0 0 0 0 0 0 0 0 0 0 0 0 0 0 0 0 0 0 0 0 0 0 0 0 0 0 0 0 0 0 0 0 0 0 0 0 46 -193 48 51 54 55 -193 -193 56 -193 -209 -209 -209 -209 -209 -209 -209 -209 -209 -209 -209 -209 -209 60 -209 -193 -209 56 58 59 58 59 52 56 58 60 64 65 64 -193 -193 68 68 68 68 68 71 61 69 63 65 61 60 60 60 59 60 57 57 48 57 58 60 18 17 16 16 18 15 14 -193 -193 167 165 -193 65 65 67 63 63 62 61 61 59 59 -193 22 17 15 13 11 11 10 10 0 0 -209 -193 -193 -209 57 70 -193 -193 -193 -193 62 -193 63 -193 442 -209 20 20 18 -193 15 13 13 11 13 17 -177 -193 170 171 -209 60 71 63 63 65 64 63 65 64 64 59 64 65 64 65 -209 -209 -193 69 69 67 67 64 64 63 63 63 62 67 70 -193 -193 -193 72 -193 71 -193 65 64 63 66 64 65 63 65 67 68 67 68 66 65 65 66 64 65 68 65 66 67 71 67 67 69 66 66 68 69 68 66 69 69 65 74 75 75 60 71 -193 -209 -209 -209 -209 -209 -209 -209 -209 -193 -209 -209 -209 -209 -209 -177 -193 -209 74 76 77 79 -193 -209 -209 -209 -209 -209 -209 -209 -193 136 -193 -193 -209 -209 -209 -209 -209 -209 -209 -193 0 0 0 0 0
    0 0 0 0 0 0 0 0 0 0 0 0 0 0 0 0 0 0 0 0 0 0 0 0 0 0 0 0 0 0 0 0 0 0 0 0 0 0 0 0 0 0 0 0 0 0 0 0 0 0 0 0 0 0 0 0 0 0 0 0 0 0 0 0 0 0 0 0 0 51 -193 -193 -193 60 62 64 61 61 58 64 -209 -209 -209 -209 -209 -193 -209 -209 -209 -209 -209 -209 58 -209 -209 -209 59 60 62 60 61 57 58 60 62 64 65 63 -193 -193 67 67 67 68 69 71 62 69 63 65 61 60 60 60 59 59 56 57 48 57 58 -193 18 16 17 17 19 16 16 -193 -193 167 165 -177 64 65 67 63 63 62 61 60 58 59 -193 -193 19 17 13 11 10 10 10 0 0 -209 -193 88 -209 -209 70 -193 -193 -193 -193 -193 -193 -193 -193 441 445 20 20 18 15 14 13 12 11 12 16 -193 -177 -177 -177 -209 62 71 64 64 65 64 63 65 65 65 59 64 65 64 65 -193 63 67 68 69 67 65 62 62 61 62 62 63 68 70 73 69 72 73 75 71 69 -193 65 64 66 65 66 64 67 68 69 68 68 67 -193 -193 65 63 65 67 65 66 66 71 68 67 70 67 67 68 70 69 67 70 70 67 74 75 75 61 72 75 -209 -209 -209 -209 80 83 -193 83 -209 -209 -193 -209 -209 -209 -177 -209 -209 -193 76 77 79 -193 -209 -209 -209 -209 -209 -209 -209 -193 134 -193 -193 -193 -209 -193 -193 -193 158 -209 162 0 0 0 0 0
    0 0 0 0 0 0 0 0 0 0 0 0 0 0 0 0 0 0 0 0 0 0 0 0 0 0 0 0 0 0 0 0 0 0 0 0 0 0 0 0 0 0 0 0 0 0 0 0 0 0 0 0 0 0 0 0 0 0 0 0 0 0 0 0 0 0 0 0 0 55 60 61 65 64 66 68 69 64 61 -209 -209 -209 -209 -209 -209 -209 -209 -209 -209 -209 -209 -209 -193 -209 -209 -209 62 64 65 61 62 59 58 59 61 63 62 61 -193 -193 -193 64 66 65 66 70 61 68 63 64 61 60 60 60 59 59 55 56 48 57 57 -193 17 16 16 17 19 16 15 -193 -193 167 -177 -177 64 66 68 63 64 63 61 60 58 59 59 -193 19 17 13 11 10 10 9 0 0 -209 -209 90 -209 -209 -193 -193 -193 -193 -193 -193 -193 -193 -193 441 -209 -193 21 20 15 14 12 10 10 11 15 -209 -177 -177 -177 -193 63 71 64 64 66 65 63 65 65 65 60 65 66 64 67 65 65 67 66 68 67 64 62 61 60 60 60 62 66 70 72 69 -193 -193 77 71 69 -209 63 63 65 64 65 63 67 69 69 68 68 67 -193 -193 65 63 65 67 65 66 66 71 68 68 70 68 68 69 70 70 69 71 71 70 73 75 75 63 73 78 -209 -193 -193 -193 83 85 -193 85 -209 -209 -193 -209 -193 -209 -177 -209 -209 -209 -193 76 79 -193 -209 -209 -209 -209 -209 -209 -209 -209 135 -193 -193 -193 -193 151 153 152 157 156 160 0 0 0 0 0
    0 0 0 0 0 0 0 0 0 0 0 0 0 0 0 0 0 0 0 0 0 0 0 0 0 0 0 0 0 0 0 0 0 0 0 0 0 0 0 0 0 0 0 0 0 0 0 0 0 0 0 0 0 0 0 0 0 0 0 0 0 0 0 0 0 0 0 0 0 55 59 60 62 63 65 68 70 67 64 -209 -209 -209 -209 -209 -209 -209 -209 -209 -209 -209 -209 -209 -209 -209 -209 -209 63 65 65 61 62 58 58 58 61 63 62 -193 -209 -193 -193 -193 65 62 64 70 61 68 63 63 61 59 59 59 58 59 55 55 48 57 57 -193 17 15 15 16 19 15 15 14 -193 168 -177 -177 66 67 69 64 65 63 61 61 59 59 59 -193 19 18 14 11 10 9 10 -193 -193 -209 -209 90 -209 -209 -193 -193 -193 -193 -193 -193 -193 -193 -193 441 -209 -193 22 23 14 14 11 9 9 10 16 -193 -209 -209 -177 -193 64 71 65 65 66 65 63 65 65 65 59 65 65 62 64 64 62 65 62 64 64 62 62 61 60 61 62 64 66 70 -193 69 -209 -193 -193 -193 69 -209 -193 63 64 65 66 63 68 68 69 69 68 68 -193 -193 64 63 66 67 65 67 67 71 69 68 70 69 69 70 71 70 70 71 72 72 73 75 75 -193 74 80 -209 15 -209 -193 81 84 -193 85 -209 -209 -209 -209 -209 -209 -193 -209 -209 -209 -209 77 -193 -209 -209 -209 -209 -209 -209 -193 -209 -209 -193 -193 -193 149 151 152 154 155 157 156 159 0 0 0 0 0
    0 0 0 0 0 0 0 0 0 0 0 0 0 0 0 0 0 0 0 0 0 0 0 0 0 0 0 0 0 0 0 0 0 0 0 0 0 0 0 0 0 0 0 0 0 0 0 0 0 0 0 0 0 0 0 0 0 0 0 0 0 0 0 0 0 0 0 0 0 -193 60 59 62 64 66 69 71 70 -209 885 893 -193 -209 -209 -209 -209 -209 -193 -177 -209 -209 -209 -209 -209 -209 -209 69 71 67 62 63 59 59 59 63 65 -193 -209 -209 -209 -193 -193 64 62 63 69 61 68 63 63 61 59 59 59 58 58 54 55 48 57 57 -193 16 15 14 16 18 15 15 14 20 -193 -177 -209 -193 -193 69 65 -177 -177 61 -177 59 60 -177 -193 20 19 15 12 11 11 -209 -209 -209 -209 -209 -193 -193 -193 -193 447 448 447 -193 445 445 -193 446 441 -209 -193 22 24 15 19 13 11 10 11 18 -193 -209 -209 -209 -193 63 70 64 64 66 65 63 65 65 65 59 64 65 60 -193 61 61 63 61 61 63 62 63 61 61 61 60 61 63 68 -209 66 -209 -209 -209 -209 69 -209 64 64 65 66 68 65 69 68 69 69 69 69 67 -193 65 64 67 67 66 67 67 71 70 69 70 70 70 70 71 71 70 71 73 73 73 74 74 -193 73 78 -209 14 -209 -209 -193 81 -193 84 -209 -209 -209 -209 -209 -209 -209 -209 -209 -209 -209 -193 -193 -209 -209 -209 -193 337 340 -193 -209 -209 -209 -209 -209 -193 156 155 157 158 160 158 159 0 0 0 0 0
    0 0 0 0 0 0 0 0 0 0 0 0 0 0 0 0 0 0 0 0 0 0 0 0 0 0 0 0 0 0 0 0 0 0 0 0 0 0 0 0 0 0 0 0 0 0 0 0 0 0 0 0 0 0 0 0 0 0 0 0 0 0 0 0 0 0 0 0 0 -209 61 62 66 68 68 71 72 72 -209 -209 898 -209 -209 -209 -209 -209 -209 -209 -177 -209 -209 -209 -193 -209 -209 -209 70 70 66 61 61 59 58 57 61 63 62 -209 -209 -209 64 59 65 62 64 69 61 68 63 63 61 59 59 59 58 58 55 55 50 57 58 -193 16 14 13 15 17 15 16 15 20 -209 -209 -209 -193 -193 70 65 -177 -177 62 -177 59 60 60 43 23 22 20 17 14 -193 -209 -209 -209 -209 -209 -209 45 55 -193 446 448 447 -193 445 445 -193 445 439 -209 -193 21 24 15 21 13 12 -193 -193 -193 434 -209 -209 -193 64 63 70 64 64 66 65 63 65 65 65 60 65 66 62 -193 64 -193 66 64 65 65 65 64 61 61 60 59 60 61 -209 -209 -209 -209 -209 -209 -209 70 70 67 67 67 68 69 67 70 69 70 70 70 70 69 -193 67 67 68 68 67 68 67 70 70 69 70 70 70 70 71 71 70 71 72 72 71 73 73 59 73 -209 -209 14 -209 -209 -209 -209 -193 -193 -193 -209 -209 -209 -209 -209 -209 -209 -193 -209 -193 -209 -209 -209 -209 -209 -193 -209 -193 -209 -209 -209 -209 -209 -209 -209 165 158 159 161 161 159 158 0 0 0 0 0
    0 0 0 0 0 0 0 0 0 0 0 0 0 0 0 0 0 0 0 0 0 0 0 0 0 0 0 0 0 0 0 0 0 0 0 0 0 0 0 0 0 0 0 0 0 0 0 0 0 0 0 0 0 0 0 0 0 0 0 0 0 0 0 0 0 0 0 0 0 -209 60 62 67 69 68 71 71 72 -209 -209 -209 -209 -209 -209 -209 -209 -209 -209 -209 -209 -209 -209 -209 -209 -193 -193 69 69 65 61 61 59 57 55 60 62 60 64 68 -193 60 56 62 60 61 69 60 68 62 63 62 60 59 59 58 59 55 56 54 57 59 -193 16 14 13 16 18 16 17 16 20 -209 -209 -209 -193 -193 70 -177 -177 -177 62 61 59 60 60 46 -193 24 23 20 18 -193 -193 -209 -209 -209 -209 -209 45 54 -193 446 447 447 -193 -177 -177 -193 445 437 -209 -193 19 23 13 12 12 13 -209 -209 -209 -209 -209 -209 66 64 63 69 64 64 65 65 62 65 65 65 60 66 66 -193 -193 -193 -209 70 71 74 70 72 68 63 63 61 61 -209 -209 -209 -209 -209 -209 -209 -193 -209 72 -193 70 69 69 69 70 69 70 70 70 71 70 71 70 70 69 69 70 69 68 69 68 71 71 69 70 71 70 70 71 71 70 70 72 72 69 73 73 57 73 -209 -209 -193 -209 -209 -209 -209 -193 -209 -209 -209 -209 -209 -209 -209 -209 -209 -209 -209 -193 -209 -209 -209 -209 -209 -209 -209 -209 -209 -209 -209 -209 173 -193 -193 -193 159 160 162 161 158 156 0 0 0 0 0
    0 0 0 0 0 0 0 0 0 0 0 0 0 0 0 0 0 0 0 0 0 0 0 0 0 0 0 0 0 0 0 0 0 0 0 0 0 0 0 0 0 0 0 0 0 0 0 0 0 0 0 0 0 0 0 0 0 0 0 0 0 0 0 0 0 0 0 0 0 -209 60 65 67 70 69 -209 72 73 -209 -209 -209 -209 -209 -209 -193 -209 -209 -209 -209 -209 -209 -209 -209 -209 -193 -193 68 70 65 61 61 60 59 56 60 63 61 63 64 -193 59 56 64 60 60 70 60 68 63 63 62 60 60 60 59 59 56 57 57 57 59 -209 16 14 13 16 19 18 19 17 21 -209 -209 -209 -177 -177 70 -177 -177 -177 62 61 59 60 60 53 32 25 -193 -193 18 -177 -177 -193 -209 -209 -209 -209 46 55 -193 446 447 447 -193 -177 -177 -193 -193 438 -193 13 16 21 13 12 16 -209 -209 -209 -209 -209 -193 -193 64 63 63 69 64 64 65 65 62 65 65 65 60 66 66 -193 -177 -193 -209 -193 74 78 73 74 71 68 67 65 66 -193 63 -209 -209 -209 74 75 76 -193 72 72 70 69 69 70 70 69 70 70 71 70 70 71 71 70 69 69 70 69 69 69 69 71 71 68 69 71 70 70 71 70 70 70 72 72 67 73 73 -209 -193 -209 -209 15 -209 -209 -209 -209 -193 -209 -209 -209 -209 -209 -209 -209 -209 -209 -209 -209 -193 -209 -209 -209 -209 -209 -209 -209 -209 -209 146 -209 -209 -193 -209 -193 -193 158 160 162 162 156 155 0 0 0 0 0
    0 0 0 0 0 0 0 0 0 0 0 0 0 0 0 0 0 0 0 0 0 0 0 0 0 0 0 0 0 0 0 0 0 0 0 0 0 0 0 0 0 0 0 0 0 0 0 0 0 0 0 0 0 0 0 0 0 0 0 0 0 0 0 0 0 0 0 0 0 -209 60 64 66 68 67 -209 71 73 -209 -209 -209 -209 -209 -209 -193 -193 -193 -209 -209 -193 -209 -209 -209 -209 -193 -193 70 72 66 64 63 63 62 59 62 66 63 67 66 58 59 55 67 -209 57 70 60 68 62 62 62 60 60 60 59 60 57 58 57 57 59 -209 17 14 13 16 -193 17 19 18 21 -209 -209 -209 -177 -177 70 64 64 63 62 61 60 60 60 57 34 -209 -193 -193 -193 -177 -177 -209 -209 47 55 -193 48 55 66 -193 -193 -193 -193 -177 -193 -193 -193 -209 -209 13 16 21 14 21 22 -209 -209 -209 -209 62 68 69 63 62 62 68 65 65 66 65 63 66 66 66 60 65 66 64 -209 -209 -209 -209 -209 80 76 76 73 70 69 67 68 69 64 -209 -209 -209 70 -193 74 72 70 70 69 68 68 69 69 67 68 69 70 69 70 70 70 70 68 69 69 68 68 68 68 70 71 68 69 71 69 69 70 70 70 69 72 72 66 73 74 -209 70 -209 -209 20 -209 -209 -209 -209 -209 -209 -209 -209 -209 -209 -209 -209 -209 -209 -209 -209 -209 -209 -209 -209 -209 -193 136 -193 -193 -209 141 146 -209 -209 -193 -193 -193 153 154 158 156 153 154 0 0 0 0 0
    0 0 0 0 0 0 0 0 0 0 0 0 0 0 0 0 0 0 0 0 0 0 0 0 0 0 0 0 0 0 0 0 0 0 0 0 0 0 0 0 0 0 0 0 0 0 0 0 0 0 0 0 0 0 0 0 0 0 0 0 0 0 0 0 0 0 0 0 0 -193 59 63 64 67 -209 -209 71 73 -209 -209 -209 -209 -193 -209 -209 -209 -209 -209 -209 62 -193 -193 -209 -193 -193 -193 71 71 68 68 67 67 66 62 64 69 66 71 68 61 -209 -193 70 -209 56 70 59 68 62 62 62 60 60 60 59 60 57 58 57 57 58 -193 -193 13 -193 14 18 16 18 16 19 -209 -209 -209 -177 -177 69 63 63 63 62 61 60 61 61 57 26 -209 973 -193 -209 -193 -209 -209 -193 50 54 53 51 55 67 -193 -193 -193 60 -193 -193 -193 -193 -193 -209 14 17 22 20 27 36 41 49 56 59 59 65 68 63 62 62 67 65 65 66 66 63 66 66 66 61 63 64 63 61 68 70 71 -209 75 75 75 73 70 69 68 70 71 62 60 59 67 72 -209 74 73 70 70 70 68 68 68 68 64 66 66 69 67 69 70 71 71 69 70 69 67 68 68 68 70 71 67 67 71 68 68 69 70 69 68 72 71 66 73 75 -209 65 -193 -193 -193 -209 -209 -209 -209 -209 -209 -209 -209 -209 178 -193 -209 -209 -209 -209 -209 -209 -209 -209 -209 133 135 135 135 -193 -193 138 140 140 -209 140 149 150 150 151 154 151 150 153 0 0 0 0 0
    0 0 0 0 0 0 0 0 0 0 0 0 0 0 0 0 0 0 0 0 0 0 0 0 0 0 0 0 0 0 0 0 0 0 0 0 0 0 0 0 0 0 0 0 0 0 0 0 0 0 0 0 0 0 0 0 0 0 0 0 0 0 0 0 0 0 0 0 0 56 59 61 62 63 -209 -209 69 -193 76 -209 -209 -209 -193 -209 -209 -209 -209 -209 -209 61 -193 -193 -193 -193 72 71 70 70 66 67 66 66 64 61 64 69 -193 -193 64 -209 -209 -209 -209 -209 55 69 57 68 62 61 62 59 60 60 60 60 57 58 58 57 59 57 -193 14 12 13 16 14 17 15 18 -209 -209 -209 -193 -177 68 63 63 62 61 61 60 61 61 58 -209 -209 -209 -209 -209 -193 -209 -193 45 51 52 52 53 56 67 60 62 60 61 -193 62 62 -193 58 -209 17 20 25 27 34 40 44 53 56 58 59 64 67 62 62 62 67 65 65 65 66 63 66 66 66 61 61 63 64 60 68 69 70 -193 -193 73 73 71 70 69 70 70 -193 58 -209 -209 -209 -209 -209 73 75 71 72 71 69 68 69 68 64 64 65 68 66 68 69 70 71 69 71 69 67 67 67 67 69 70 66 66 70 67 67 68 69 68 67 71 70 65 73 75 74 59 -193 55 -209 -209 -193 -209 -209 94 -209 97 -209 -193 177 -193 -209 -209 -209 -209 -209 -209 -209 357 -209 133 134 134 134 136 -193 136 -209 -193 -209 144 151 -193 151 152 154 152 151 153 0 0 0 0 0
    0 0 0 0 0 0 0 0 0 0 0 0 0 0 0 0 0 0 0 0 0 0 0 0 0 0 0 0 0 0 0 0 0 0 0 0 0 0 0 0 0 0 0 0 0 0 0 0 0 0 0 0 0 0 0 0 0 0 0 0 0 0 0 0 0 0 0 0 0 56 59 -209 -193 -209 -209 36 -209 -209 -209 -209 -209 -209 -209 -209 -209 -209 50 -209 -209 -209 -209 66 68 67 70 68 64 66 61 62 62 -193 -193 -209 63 69 -209 -209 -209 -209 -209 -209 -209 -209 -209 -193 58 69 62 62 62 60 60 60 60 60 57 58 58 57 60 58 -209 15 12 14 16 14 17 15 18 -209 -209 -209 -209 -177 -193 62 62 61 61 61 60 61 60 59 -209 46 -209 -209 -209 40 48 46 49 51 49 52 54 56 67 60 63 61 61 61 62 62 63 58 -209 23 23 28 33 36 38 42 53 56 58 58 62 67 62 61 61 66 65 64 65 65 63 66 66 66 61 60 62 64 59 65 66 68 -193 -193 -193 73 70 71 71 73 -193 -193 53 47 50 50 -209 -209 -209 75 71 70 71 69 69 69 67 64 62 63 67 66 69 69 70 72 70 71 69 67 67 66 67 69 70 65 65 69 66 66 67 68 68 66 70 69 64 73 75 75 58 54 -193 -209 -209 -209 -209 -209 -209 -209 -193 174 176 178 -209 -209 -209 -209 -209 -193 -209 -209 362 -209 132 131 132 133 133 132 134 134 -209 -209 144 152 -193 152 153 156 153 152 153 0 0 0 0 0
    0 0 0 0 0 0 0 0 0 0 0 0 0 0 0 0 0 0 0 0 0 0 0 0 0 0 0 0 0 0 0 0 0 0 0 0 0 0 0 0 0 0 0 0 0 0 0 0 0 0 0 0 0 0 0 0 0 0 0 0 0 0 0 0 0 0 0 0 0 56 58 -209 -209 -209 -209 36 -209 -209 -209 -209 -209 -209 -209 -209 -209 -209 50 -193 49 -209 -209 -209 65 63 67 63 61 64 62 -193 -193 -193 -193 -209 66 69 -209 -209 -193 -209 -209 -209 -209 -209 -209 70 60 69 62 62 62 60 60 60 60 60 57 58 58 57 60 59 -209 17 13 14 17 15 17 16 18 -209 -209 -177 -209 -193 -193 61 61 61 61 61 60 61 60 59 53 55 53 49 53 50 53 53 53 54 51 53 57 57 68 61 63 61 62 62 62 62 64 58 -193 26 25 28 33 35 35 42 58 59 59 58 61 65 61 60 60 64 65 64 64 65 62 66 66 66 62 59 62 64 59 63 66 68 -193 71 72 73 70 71 72 -193 -193 -193 50 48 51 51 53 -193 -209 -193 68 66 70 68 68 67 66 63 61 62 66 65 69 69 70 71 70 71 69 67 67 65 67 68 70 64 63 69 65 65 66 67 67 65 69 69 63 73 75 74 58 -193 58 -209 -193 -209 -209 -209 -209 -209 -209 175 177 -209 -193 -209 -209 -209 -209 -209 -193 -209 -209 129 132 131 131 132 132 131 132 131 -193 -209 141 150 149 151 152 154 152 149 151 0 0 0 0 0
    0 0 0 0 0 0 0 0 0 0 0 0 0 0 0 0 0 0 0 0 0 0 0 0 0 0 0 0 0 0 0 0 0 0 0 0 0 0 0 0 0 0 0 0 0 0 0 0 0 0 0 0 0 0 0 0 0 0 0 0 0 0 0 0 0 0 0 0 0 53 57 -193 55 56 -209 -193 -209 -209 -209 -209 -193 -193 -209 -209 -193 53 51 53 50 -193 58 60 62 62 64 61 59 61 61 -193 -193 -193 -193 -193 66 69 -193 -209 -193 -209 -209 -209 -209 -209 -209 -193 61 69 63 62 63 60 60 60 60 60 57 58 58 57 60 59 59 -193 -193 -193 19 -193 18 16 19 -209 -209 166 -209 -193 -193 61 60 60 61 60 60 60 59 59 56 58 56 56 59 57 57 56 57 56 54 55 61 58 68 61 64 62 62 62 63 62 64 58 62 31 29 33 38 39 -193 54 61 62 59 58 61 65 60 60 60 63 65 63 64 65 63 66 66 66 63 59 63 65 60 64 67 69 71 72 73 75 71 73 72 73 -193 -193 50 48 51 51 53 52 55 -193 61 61 68 67 67 66 65 62 60 62 65 63 67 67 69 70 70 71 69 67 67 65 68 68 70 64 63 68 65 65 66 67 67 65 69 69 64 73 74 74 59 -193 62 64 60 62 -209 -209 -209 -209 -209 -193 -193 -209 -193 241 -209 -209 -209 -209 -209 132 133 128 131 131 131 131 131 130 131 129 135 133 138 145 144 149 151 153 152 148 150 0 0 0 0 0
    0 0 0 0 0 0 0 0 0 0 0 0 0 0 0 0 0 0 0 0 0 0 0 0 0 0 0 0 0 0 0 0 0 0 0 0 0 0 0 0 0 0 0 0 0 0 0 0 0 0 0 0 0 0 0 0 0 0 0 0 0 0 0 0 0 0 0 0 0 53 54 55 54 54 49 43 49 53 54 55 54 -193 -193 -209 -209 54 52 -193 -193 -193 59 60 62 62 63 61 60 61 -193 -193 -193 -193 -193 -209 65 -193 -209 -209 -209 -209 -209 -209 -209 -209 -209 69 60 69 63 63 63 60 60 60 60 60 57 58 58 57 60 59 58 -209 -209 -209 -209 -193 -193 17 19 -209 -209 -209 -209 -193 61 60 60 60 60 60 60 60 59 59 58 59 60 59 62 62 62 59 59 59 59 56 68 59 68 62 64 62 62 62 63 62 63 58 63 -209 -209 -209 -193 -193 -209 -193 64 66 60 59 61 64 60 60 60 62 65 63 64 65 63 66 66 66 63 59 63 65 60 63 67 69 71 72 73 75 71 73 73 -193 -193 -193 51 49 52 51 52 50 53 -193 -209 58 64 65 66 64 63 61 60 60 64 63 67 65 67 68 69 70 68 66 67 65 68 68 70 64 63 69 66 66 67 68 68 66 70 70 66 73 73 73 59 56 63 65 -177 61 -209 -209 125 124 -209 -193 -193 -209 -209 -193 -209 -209 -209 121 131 131 133 130 132 131 131 131 131 131 131 130 135 133 139 146 146 149 151 152 151 148 150 0 0 0 0 0
    0 0 0 0 0 0 0 0 0 0 0 0 0 0 0 0 0 0 0 0 0 0 0 0 0 0 0 0 0 0 0 0 0 0 0 0 0 0 0 0 0 0 0 0 0 0 0 0 0 0 0 0 0 0 0 0 0 0 0 0 0 0 0 0 0 0 0 0 0 54 53 53 52 52 48 43 48 49 53 -209 55 -209 -177 -209 -209 -193 -209 -193 -193 -193 62 62 63 62 63 61 61 60 61 -193 -193 -193 -193 -193 66 -193 -209 -209 -193 -209 -209 -193 -209 -209 55 67 60 69 63 63 63 60 60 60 60 61 57 58 58 57 60 59 59 -209 -209 -193 22 -193 -193 18 20 -193 -209 -209 -209 64 61 60 60 60 60 60 60 60 58 59 58 60 62 60 65 67 69 65 65 64 70 69 71 61 68 62 64 62 62 62 63 61 63 58 62 -209 55 59 61 60 63 61 63 64 61 60 61 63 60 60 60 62 66 63 65 65 63 65 66 66 64 58 62 64 60 62 64 67 68 69 71 73 66 72 70 -193 -193 -193 52 51 53 52 52 50 52 53 55 56 59 61 62 61 61 60 59 60 63 63 67 65 67 68 69 69 67 66 66 64 68 68 70 64 64 69 67 67 68 69 68 67 70 71 68 72 72 72 60 61 65 67 -177 63 -209 -209 125 123 -209 -193 -193 -209 123 -193 -209 -193 124 125 133 132 133 130 132 131 131 131 131 130 131 130 135 132 138 146 146 149 150 150 149 147 149 0 0 0 0 0
    0 0 0 0 0 0 0 0 0 0 0 0 0 0 0 0 0 0 0 0 0 0 0 0 0 0 0 0 0 0 0 0 0 0 0 0 0 0 0 0 0 0 0 0 0 0 0 0 0 0 0 0 0 0 0 0 0 0 0 0 0 0 0 0 0 0 0 0 0 55 53 53 53 53 54 49 52 51 54 -209 -193 -209 -209 -209 -209 -209 -209 -193 -193 -193 -193 65 66 64 63 61 61 59 60 -193 -193 -193 -193 -209 65 67 -209 -209 -193 -209 -209 -193 -193 56 56 66 60 69 63 63 63 60 60 60 60 60 57 57 58 57 59 58 58 -209 -209 17 22 -193 19 15 -193 169 -193 -209 -209 65 61 61 60 60 60 60 59 59 57 58 56 58 59 59 63 66 68 66 67 66 71 71 71 62 68 63 64 63 63 63 63 61 64 58 62 -193 -193 60 61 60 -193 61 63 63 62 60 61 63 61 60 60 61 66 63 64 64 63 64 65 65 64 58 63 66 61 62 63 65 65 67 68 68 62 71 71 -193 -209 -209 51 52 53 51 52 51 53 55 57 59 60 61 61 60 60 59 58 59 61 62 66 64 67 67 68 69 67 66 65 63 68 68 70 65 64 69 69 69 69 70 69 68 71 71 70 71 71 70 60 62 65 66 -177 60 -209 -209 127 123 -209 -209 -209 -193 123 121 -193 123 123 125 132 130 132 129 131 130 130 131 130 129 130 129 134 132 138 144 143 149 149 148 148 146 149 0 0 0 0 0
    0 0 0 0 0 0 0 0 0 0 0 0 0 0 0 0 0 0 0 0 0 0 0 0 0 0 0 0 0 0 0 0 0 0 0 0 0 0 0 0 0 0 0 0 0 0 0 0 0 0 0 0 0 0 0 0 0 0 0 0 0 0 0 0 0 0 0 0 0 54 52 53 53 53 53 50 53 50 53 55 54 56 -209 -209 -209 -193 -209 -193 -193 -193 -193 64 64 -193 -193 59 59 58 58 -209 -209 -209 52 -209 -193 -209 -209 58 61 -209 58 61 60 57 58 66 60 69 63 63 63 60 60 60 60 60 57 57 57 57 58 57 58 -209 -209 -209 -209 -209 -209 -209 -209 -209 -209 -209 -209 64 61 61 60 60 60 60 59 58 57 57 56 58 58 58 61 63 66 66 67 66 72 71 71 62 68 63 64 63 63 63 63 62 64 59 62 -193 58 60 61 60 -193 61 64 63 63 61 61 63 61 60 60 60 65 62 63 63 63 63 63 64 64 58 64 66 62 61 63 65 64 66 66 64 61 69 70 -193 -209 -209 -193 52 55 52 54 52 55 -209 59 62 62 62 62 60 60 59 58 59 60 62 66 65 68 67 69 69 68 67 66 65 69 68 71 66 65 69 70 70 70 70 70 69 71 72 71 70 70 69 59 63 66 63 -177 59 -209 -209 126 122 111 118 114 117 122 -193 120 122 121 126 133 131 132 128 130 129 130 130 130 129 130 130 135 134 140 147 146 149 149 148 149 146 149 0 0 0 0 0
    0 0 0 0 0 0 0 0 0 0 0 0 0 0 0 0 0 0 0 0 0 0 0 0 0 0 0 0 0 0 0 0 0 0 0 0 0 0 0 0 0 0 0 0 0 0 0 0 0 0 0 0 0 0 0 0 0 0 0 0 0 0 0 0 0 0 0 0 0 56 53 52 54 53 53 51 53 51 53 55 55 57 -193 -209 -193 63 -193 -193 -193 -193 -193 62 62 61 58 58 58 57 57 56 55 54 52 52 57 56 58 57 59 57 58 60 59 56 57 64 59 68 62 63 63 60 60 60 60 60 57 57 57 57 59 59 59 59 58 58 57 60 58 58 -193 -209 58 62 -193 64 61 61 60 60 60 60 59 59 57 58 58 59 60 60 62 64 66 67 66 66 70 69 70 62 68 63 64 63 63 63 64 62 66 59 64 -209 59 62 63 -193 -193 63 65 64 64 61 61 62 61 60 60 60 65 62 63 63 63 63 63 64 64 58 66 67 63 62 64 66 65 66 66 65 63 70 71 74 73 72 -209 59 62 57 59 -193 -193 -193 60 62 63 62 63 60 61 61 59 59 60 61 64 63 66 66 68 68 68 68 67 67 70 69 71 66 66 69 70 70 70 71 70 69 71 72 71 69 69 69 59 61 65 62 -177 58 -209 -209 123 122 114 118 115 117 123 -193 120 121 120 124 130 129 131 127 129 128 129 130 130 129 131 131 136 135 141 146 146 148 148 147 148 146 148 0 0 0 0 0
    0 0 0 0 0 0 0 0 0 0 0 0 0 0 0 0 0 0 0 0 0 0 0 0 0 0 0 0 0 0 0 0 0 0 0 0 0 0 0 0 0 0 0 0 0 0 0 0 0 0 0 0 0 0 0 0 0 0 0 0 0 0 0 0 0 0 0 0 0 57 54 52 55 53 53 51 53 50 52 54 54 56 -209 -209 58 61 -193 -193 -193 63 -193 61 60 59 57 57 57 56 56 55 55 54 53 53 58 58 59 58 60 59 59 60 59 57 58 63 59 68 62 63 63 61 61 61 60 61 57 58 57 58 59 58 59 59 58 58 56 60 59 61 60 62 59 62 64 64 62 62 61 60 60 61 60 59 58 58 59 60 62 62 64 66 66 68 66 66 69 68 69 62 67 63 64 64 64 64 64 63 66 59 64 61 61 63 66 -193 -193 65 66 65 65 62 62 62 62 60 60 60 66 62 63 63 63 63 63 64 64 59 67 68 66 63 68 70 69 70 69 68 67 73 72 73 72 72 69 62 65 61 62 59 -193 -209 60 62 63 62 -193 59 60 61 59 59 59 59 62 61 63 -193 67 67 68 69 68 68 70 69 71 67 66 69 71 70 70 70 70 69 71 72 71 67 69 69 59 60 63 61 -177 57 57 -209 125 124 119 120 118 120 125 123 123 123 122 125 128 127 129 126 128 128 129 130 130 130 132 133 136 137 141 144 144 145 147 145 148 145 148 0 0 0 0 0
    0 0 0 0 0 0 0 0 0 0 0 0 0 0 0 0 0 0 0 0 0 0 0 0 0 0 0 0 0 0 0 0 0 0 0 0 0 0 0 0 0 0 0 0 0 0 0 0 0 0 0 0 0 0 0 0 0 0 0 0 0 0 0 0 0 0 0 0 0 57 55 53 54 53 53 51 52 49 52 54 53 55 56 56 58 62 63 -193 -193 -193 62 61 60 59 -193 57 56 56 57 56 57 56 56 56 60 60 60 60 61 59 59 59 -209 -193 58 61 58 67 62 63 63 61 61 61 60 61 57 59 57 58 59 59 59 60 60 59 57 62 60 62 60 63 60 63 64 65 63 62 61 61 60 61 60 59 58 59 60 61 63 63 65 66 66 68 66 66 68 67 68 62 67 64 64 64 64 64 64 63 66 60 64 63 63 64 67 -193 -193 67 67 66 67 64 64 62 63 61 60 60 66 62 63 63 64 63 64 64 64 59 67 67 65 62 67 -193 69 -193 -209 -209 -193 -209 -193 72 70 71 69 64 67 64 65 61 61 -193 62 63 -193 -193 -193 -193 -193 60 58 59 58 58 60 60 62 -193 -193 67 68 70 69 70 71 70 71 67 66 69 71 70 70 70 70 69 71 72 72 66 69 69 60 61 66 64 -177 -177 -177 -193 126 123 121 122 121 123 125 123 123 122 123 125 126 126 127 125 127 127 129 130 131 131 133 134 136 137 139 141 142 143 145 144 147 144 147 0 0 0 0 0
    0 0 0 0 0 0 0 0 0 0 0 0 0 0 0 0 0 0 0 0 0 0 0 0 0 0 0 0 0 0 0 0 0 0 0 0 0 0 0 0 0 0 0 0 0 0 0 0 0 0 0 0 0 0 0 0 0 0 0 0 0 0 0 0 0 0 0 0 0 57 57 54 56 54 54 52 53 50 53 55 54 -193 -193 -209 59 -209 -209 -193 -193 -193 62 61 61 60 -193 58 56 56 57 57 58 57 57 57 59 59 59 59 58 -209 -193 -193 -209 53 56 60 57 67 62 63 62 61 61 61 61 61 58 59 57 57 59 58 59 60 61 60 58 62 60 61 60 62 60 63 64 65 63 62 62 61 61 62 60 60 59 59 61 61 64 64 65 67 67 67 65 65 67 67 68 63 66 64 64 64 64 64 64 63 65 60 63 64 63 63 65 66 -193 67 67 66 68 65 66 63 65 61 61 61 67 62 63 63 64 62 63 64 64 59 65 66 64 62 63 69 64 -209 -209 -209 -193 -209 69 69 69 70 68 67 68 67 66 64 65 -193 64 64 64 -193 -209 58 57 60 58 60 59 59 59 60 61 -193 -193 65 65 68 68 69 70 70 70 68 65 68 72 70 69 70 70 69 70 72 72 65 69 69 62 61 65 64 66 -177 -209 119 123 122 121 122 122 123 124 124 123 122 124 124 125 124 125 124 125 127 129 130 132 133 134 136 136 137 138 140 141 141 144 143 147 144 147 0 0 0 0 0
    0 0 0 0 0 0 0 0 0 0 0 0 0 0 0 0 0 0 0 0 0 0 0 0 0 0 0 0 0 0 0 0 0 0 0 0 0 0 0 0 0 0 0 0 0 0 0 0 0 0 0 0 0 0 0 0 0 0 0 0 0 0 0 0 0 0 0 0 0 -209 -193 54 57 55 -193 53 54 52 54 -193 55 -209 -209 -209 -209 -209 -209 -193 -209 -193 61 60 60 59 57 57 56 56 57 57 59 57 57 57 59 59 58 59 -193 -193 -193 -193 -193 52 55 59 56 67 61 64 62 61 62 61 61 61 58 59 56 57 57 57 58 60 61 60 58 63 60 61 61 62 59 62 64 64 63 62 62 62 61 62 60 60 59 60 62 62 64 63 64 66 66 67 65 65 67 66 68 64 66 64 64 64 64 64 64 63 65 61 62 63 63 63 64 65 67 66 67 66 68 67 67 65 67 63 61 62 68 62 63 63 64 62 63 64 64 58 65 65 64 63 66 69 62 68 -209 67 67 71 68 68 69 70 69 68 69 68 67 66 67 67 66 65 64 61 60 57 56 59 58 59 59 59 60 60 61 -193 63 63 63 66 66 69 69 69 70 69 65 68 71 69 68 69 70 69 69 71 71 64 70 70 65 61 67 67 71 -177 -209 119 122 122 122 123 123 124 125 124 122 122 123 123 124 123 124 124 124 126 130 132 134 135 136 137 137 139 139 140 141 142 145 144 147 144 147 0 0 0 0 0
    0 0 0 0 0 0 0 0 0 0 0 0 0 0 0 0 0 0 0 0 0 0 0 0 0 0 0 0 0 0 0 0 0 0 0 0 0 0 0 0 0 0 0 0 0 0 0 0 0 0 0 0 0 0 0 0 0 0 0 0 0 0 0 0 0 0 0 0 0 -209 -193 -193 -193 -193 -193 -193 -193 -209 -209 -209 -209 -193 -193 -193 64 -193 -209 -209 -209 -193 60 59 58 -193 56 57 55 55 56 57 59 58 58 58 59 59 58 58 57 56 56 -193 53 51 54 58 56 67 61 64 62 62 62 62 61 61 58 59 55 56 56 56 58 60 60 59 59 62 60 61 61 62 60 62 63 64 63 62 61 61 60 62 60 60 58 59 61 62 64 63 64 65 65 66 64 63 65 63 65 63 64 64 64 64 64 63 64 63 63 60 60 61 62 63 63 64 65 66 66 65 67 66 67 65 67 64 62 61 68 63 63 63 63 62 62 64 64 58 64 63 63 62 62 64 58 64 -209 63 66 71 69 70 70 71 69 68 69 67 66 65 66 66 66 65 64 60 59 57 56 59 57 60 59 59 59 60 61 62 62 62 61 65 65 69 69 68 70 70 65 67 71 68 67 68 69 68 68 71 70 64 71 71 69 60 71 -193 76 -209 107 -193 122 122 122 123 123 123 124 123 122 121 122 122 124 123 124 123 125 127 131 132 134 135 136 137 138 139 139 140 141 142 145 144 147 145 147 0 0 0 0 0
    0 0 0 0 0 0 0 0 0 0 0 0 0 0 0 0 0 0 0 0 0 0 0 0 0 0 0 0 0 0 0 0 0 0 0 0 0 0 0 0 0 0 0 0 0 0 0 0 0 0 0 0 0 0 0 0 0 0 0 0 0 0 0 0 0 0 0 0 0 -209 59 -209 58 -193 -193 -193 -193 -209 -209 -193 -193 -193 -193 -193 64 -193 -193 -193 -209 -193 -209 -209 -209 54 54 54 53 54 54 56 58 56 57 57 58 58 56 57 55 55 56 -193 52 50 54 58 56 67 61 64 62 62 62 62 61 61 58 60 55 55 56 56 58 60 60 59 59 61 60 60 60 61 59 61 62 63 62 62 61 60 59 62 59 60 58 60 61 62 63 63 63 64 64 64 62 62 63 62 63 63 62 63 63 64 64 63 63 63 61 60 60 60 62 62 63 64 66 66 67 66 68 66 66 65 67 63 62 61 68 63 63 63 63 62 62 63 63 58 62 61 61 59 59 58 56 60 -193 59 66 70 70 70 70 70 65 65 66 64 63 63 62 64 65 65 65 60 59 56 55 59 57 61 59 59 59 59 61 61 61 61 60 62 65 69 69 68 70 70 65 67 70 67 66 67 68 68 67 70 69 63 72 72 71 61 73 73 -209 -209 111 121 121 122 122 122 122 122 123 122 121 121 121 121 122 122 123 124 126 128 131 133 134 135 136 137 138 139 140 140 141 142 145 144 147 145 147 0 0 0 0 0
    0 0 0 0 0 0 0 0 0 0 0 0 0 0 0 0 0 0 0 0 0 0 0 0 0 0 0 0 0 0 0 0 0 0 0 0 0 0 0 0 0 0 0 0 0 0 0 0 0 0 0 0 0 0 0 0 0 0 0 0 0 0 0 0 0 0 0 0 0 -209 -209 -209 -209 -209 -193 53 -193 -209 -193 -209 -209 -209 -209 -193 62 -193 -209 -193 -209 -193 -209 55 55 53 53 54 53 54 -193 -193 58 56 58 57 57 57 55 56 54 54 55 -209 51 49 54 58 56 67 61 65 62 62 62 62 61 62 59 61 55 56 56 56 58 61 60 59 58 60 59 60 59 60 59 60 61 61 61 61 61 61 60 64 62 66 61 63 65 64 65 64 64 64 64 65 62 62 63 62 64 64 62 62 63 64 62 61 62 60 58 59 60 60 62 63 63 65 66 67 67 68 69 67 67 67 67 63 63 62 68 63 63 63 63 62 63 63 63 58 61 60 60 58 58 58 57 61 -193 62 67 70 69 68 68 67 64 64 64 63 62 61 60 62 63 63 61 55 -193 52 53 58 58 63 61 60 61 60 62 62 62 62 61 63 66 69 69 68 69 70 64 66 70 65 64 66 68 67 66 69 69 63 72 72 72 64 75 85 95 -193 107 119 119 121 122 122 121 121 122 122 121 121 122 121 123 124 125 126 128 130 131 132 134 135 135 137 137 138 139 140 140 142 145 144 147 145 147 0 0 0 0 0
    0 0 0 0 0 0 0 0 0 0 0 0 0 0 0 0 0 0 0 0 0 0 0 0 0 0 0 0 0 0 0 0 0 0 0 0 0 0 0 0 0 0 0 0 0 0 0 0 0 0 0 0 0 0 0 0 0 0 0 0 0 0 0 0 0 0 0 0 0 -209 -193 -209 -209 -209 -193 -193 -209 -209 -209 -209 -209 -209 -209 -193 -193 -209 -209 -209 -209 -209 -209 -193 -209 -193 52 -193 -193 -193 -193 -193 -193 56 58 57 57 57 55 56 54 54 -209 -209 49 46 53 58 56 67 61 65 62 62 63 62 61 63 59 62 56 57 57 57 58 60 59 58 58 60 59 59 59 60 59 60 61 62 61 61 62 62 61 66 65 69 66 67 68 67 67 66 66 67 66 66 63 63 65 64 66 66 63 63 63 64 63 61 61 59 57 59 61 61 63 64 64 66 66 68 68 67 68 66 64 64 65 62 64 62 67 63 63 63 63 62 63 62 64 58 66 63 63 61 62 65 60 65 61 62 69 71 70 70 70 69 67 67 66 64 61 61 59 60 62 59 56 52 48 50 -193 -193 59 64 62 62 62 61 63 63 63 62 61 63 67 69 69 68 68 70 64 65 69 65 64 66 68 67 66 69 69 64 73 73 73 68 78 90 99 104 104 113 116 119 121 121 121 120 121 121 121 122 123 121 123 125 125 127 128 129 130 132 133 134 134 136 136 137 138 139 139 140 143 143 146 145 147 0 0 0 0 0
    0 0 0 0 0 0 0 0 0 0 0 0 0 0 0 0 0 0 0 0 0 0 0 0 0 0 0 0 0 0 0 0 0 0 0 0 0 0 0 0 0 0 0 0 0 0 0 0 0 0 0 0 0 0 0 0 0 0 0 0 0 0 0 0 0 0 0 0 0 -209 -209 -209 -209 -209 -209 -209 -209 -209 -209 -193 -209 -193 -193 -209 62 -193 -193 60 -193 -209 -209 -209 -193 -193 -193 -209 -209 -209 -193 -209 -193 55 58 -209 57 56 54 55 54 53 -209 -193 48 49 54 58 56 67 61 65 62 62 62 62 61 62 58 60 54 55 55 55 57 59 59 58 57 59 59 59 59 60 59 60 60 61 61 61 62 61 63 66 65 66 64 67 68 67 66 66 66 68 68 69 67 66 68 69 69 69 66 65 65 66 67 64 64 61 59 61 64 63 65 65 65 66 67 68 68 66 67 65 62 64 64 63 64 62 67 63 63 63 63 63 63 62 65 58 69 66 66 64 66 69 67 66 65 61 71 72 71 70 71 70 69 69 69 65 62 62 59 60 63 -193 47 48 -193 -193 -193 -209 -209 -193 64 64 64 61 64 63 63 62 61 62 67 69 68 67 68 71 65 65 69 65 65 66 68 68 66 69 69 66 73 74 74 69 80 92 103 105 106 112 115 118 121 120 120 120 121 121 121 122 124 123 124 125 125 127 128 129 130 131 133 133 134 136 136 137 138 139 139 140 142 142 146 145 147 0 0 0 0 0
    0 0 0 0 0 0 0 0 0 0 0 0 0 0 0 0 0 0 0 0 0 0 0 0 0 0 0 0 0 0 0 0 0 0 0 0 0 0 0 0 0 0 0 0 0 0 0 0 0 0 0 0 0 0 0 0 0 0 0 0 0 0 0 0 0 0 0 0 0 -209 -209 -209 -193 -193 -209 -209 -193 66 -209 63 62 -193 66 -193 66 -193 -193 -193 -193 -209 -209 -209 -193 -209 -193 -209 -209 -193 51 54 56 55 58 56 55 54 53 54 53 52 -193 -193 49 50 54 58 57 67 61 65 62 61 62 61 60 61 58 59 53 55 55 55 57 59 59 58 58 59 59 59 59 60 59 59 60 60 60 60 62 60 63 64 62 63 62 66 66 66 64 64 66 68 69 70 69 69 70 71 71 71 69 68 68 69 71 68 68 63 62 65 67 67 67 66 67 68 69 70 70 69 68 67 64 66 66 64 64 62 67 63 63 63 63 63 62 63 66 59 72 69 69 69 70 71 71 70 67 65 72 73 72 71 72 71 70 70 68 66 62 62 60 60 63 -193 47 48 45 -193 -193 -193 -209 -193 63 64 64 61 65 63 62 61 60 61 66 68 68 65 68 71 66 66 69 67 67 68 70 68 67 70 70 68 73 74 74 70 85 96 104 106 107 111 113 117 119 120 120 120 120 120 121 123 124 123 124 125 125 126 127 127 128 130 131 132 133 136 136 137 138 139 139 140 142 143 145 146 147 0 0 0 0 0
    0 0 0 0 0 0 0 0 0 0 0 0 0 0 0 0 0 0 0 0 0 0 0 0 0 0 0 0 0 0 0 0 0 0 0 0 0 0 0 0 0 0 0 0 0 0 0 0 0 0 0 0 0 0 0 0 0 0 0 0 0 0 0 0 0 0 0 0 0 -209 -209 -209 -193 66 64 71 -193 68 -209 64 63 67 -193 -193 67 -193 -193 -193 -193 -209 -209 -209 55 -209 -193 -209 -209 -209 53 55 56 55 58 55 54 53 53 54 53 53 53 53 53 54 55 63 57 68 62 65 61 61 61 61 60 60 57 58 52 55 56 55 57 60 59 58 59 59 60 59 60 60 60 61 62 62 61 61 62 60 64 62 60 61 61 64 65 65 64 64 66 67 69 70 69 69 71 71 71 72 70 71 70 71 72 70 70 68 66 68 68 68 68 68 69 70 70 71 71 70 68 67 64 66 65 65 64 62 67 64 63 64 64 64 63 65 68 64 73 71 71 71 72 73 72 72 69 69 73 74 73 72 73 72 71 71 69 67 64 63 62 60 63 57 -193 50 -193 -193 -193 -193 62 68 65 66 65 61 66 62 62 61 60 61 65 67 67 64 69 72 67 67 70 68 68 69 71 69 68 70 71 70 73 75 76 -177 89 99 105 106 108 110 111 116 118 118 119 119 119 120 121 123 124 124 124 126 125 126 127 127 128 129 130 132 133 135 136 138 139 139 140 140 142 143 145 146 147 0 0 0 0 0
    0 0 0 0 0 0 0 0 0 0 0 0 0 0 0 0 0 0 0 0 0 0 0 0 0 0 0 0 0 0 0 0 0 0 0 0 0 0 0 0 0 0 0 0 0 0 0 0 0 0 0 0 0 0 0 0 0 0 0 0 0 0 0 0 0 0 0 0 0 -209 -209 -209 -209 -193 -193 -209 -209 -209 -209 -193 61 65 66 -193 67 67 -193 -193 -193 -209 -193 -193 56 -209 54 57 -193 58 56 57 57 57 59 56 54 53 53 55 -193 -193 -193 -193 58 59 58 67 59 68 62 64 61 60 60 60 59 60 57 57 53 57 57 58 58 61 60 59 60 61 61 61 61 62 62 62 65 65 64 65 67 64 67 63 64 61 61 64 64 64 65 64 66 66 67 69 68 68 71 71 72 73 72 73 73 73 73 72 71 70 68 69 68 68 67 69 70 72 71 72 71 70 67 65 62 63 64 65 64 61 67 64 63 64 64 64 64 66 69 67 73 72 72 72 72 73 72 71 70 69 73 73 74 73 74 73 72 72 70 68 64 64 62 60 62 59 53 51 -193 -193 -193 58 63 68 66 68 67 62 67 63 62 62 61 62 67 68 68 65 71 72 68 68 70 70 70 70 71 70 69 71 72 72 73 80 84 -209 92 100 105 106 108 109 110 115 116 117 117 117 118 118 120 121 122 123 123 125 125 126 126 127 128 129 129 130 131 135 136 138 140 139 140 140 141 143 144 146 146 0 0 0 0 0
    0 0 0 0 0 0 0 0 0 0 0 0 0 0 0 0 0 0 0 0 0 0 0 0 0 0 0 0 0 0 0 0 0 0 0 0 0 0 0 0 0 0 0 0 0 0 0 0 0 0 0 0 0 0 0 0 0 0 0 0 0 0 0 0 0 0 0 0 0 -209 -209 -209 -209 -209 -209 -209 -209 -193 -177 -209 -209 -209 68 -209 68 68 -193 -209 -209 -209 -209 -209 57 -209 -193 60 63 63 61 59 60 59 61 -209 -209 -193 -209 56 -193 59 60 60 62 63 62 65 61 67 62 64 60 60 60 60 59 60 57 57 54 58 60 60 60 63 62 61 61 62 64 61 62 63 64 64 67 67 68 68 70 69 70 67 69 65 65 65 65 64 66 64 66 66 66 68 67 67 70 71 73 74 73 74 73 74 73 71 69 68 68 69 67 69 68 71 72 74 72 72 71 69 65 63 60 61 62 64 64 61 66 64 64 64 65 65 65 67 69 68 73 72 72 71 71 73 72 72 70 70 73 74 74 73 74 73 73 72 70 67 63 63 61 59 60 -193 52 50 -193 -193 -193 58 61 67 63 67 66 63 67 63 64 63 62 65 68 69 69 66 72 73 69 69 71 71 71 71 72 71 70 72 73 74 74 -193 90 -209 94 101 105 106 107 108 109 113 115 116 117 116 117 118 119 121 122 122 123 125 125 126 126 126 127 128 128 129 129 133 135 137 139 138 139 139 140 142 143 145 145 0 0 0 0 0
    0 0 0 0 0 0 0 0 0 0 0 0 0 0 0 0 0 0 0 0 0 0 0 0 0 0 0 0 0 0 0 0 0 0 0 0 0 0 0 0 0 0 0 0 0 0 0 0 0 0 0 0 0 0 0 0 0 0 0 0 0 0 0 0 0 0 0 0 0 -209 -209 -209 -193 -209 -209 -209 -209 -177 -177 -177 -209 -209 -209 -193 -209 -209 -209 -209 -209 -209 -209 -209 -209 -209 -209 -209 -193 71 -209 -209 -209 -209 67 -209 -177 -209 -209 60 64 64 64 64 65 66 66 65 62 67 62 64 60 59 59 59 58 59 56 57 54 59 62 63 62 65 64 63 62 63 66 62 63 63 66 66 68 68 70 69 71 70 71 68 70 67 67 65 66 63 66 64 65 65 66 67 66 67 70 72 74 75 75 76 75 75 74 74 72 72 71 71 70 70 69 71 73 74 72 72 70 69 66 64 62 62 62 64 65 61 67 65 64 65 66 66 66 68 70 70 73 71 72 72 72 73 73 73 71 71 74 74 74 73 74 73 73 73 71 69 65 66 62 61 60 -193 -193 50 -193 -193 55 60 61 66 64 66 66 64 67 65 65 65 65 66 69 69 69 67 71 72 69 69 71 72 72 72 73 72 71 73 74 75 74 89 91 -193 96 101 105 106 107 108 109 112 113 115 116 115 116 116 118 120 121 122 123 124 125 125 126 126 126 127 127 128 128 132 134 136 139 138 139 139 139 142 142 145 145 0 0 0 0 0
    0 0 0 0 0 0 0 0 0 0 0 0 0 0 0 0 0 0 0 0 0 0 0 0 0 0 0 0 0 0 0 0 0 0 0 0 0 0 0 0 0 0 0 0 0 0 0 0 0 0 0 0 0 0 0 0 0 0 0 0 0 0 0 0 0 0 0 0 0 -209 -209 -209 -209 -209 -193 -209 -209 -193 -209 -193 -209 -209 -209 -209 -193 -193 -209 -209 -193 -193 -193 -193 -209 -209 -209 -209 74 74 -193 -209 -193 -193 72 -193 -177 -209 69 65 67 68 66 66 66 66 67 64 63 66 62 63 59 58 58 58 57 58 55 56 53 59 64 64 63 66 67 67 65 66 68 65 66 66 68 67 69 69 71 70 71 70 70 68 70 67 68 64 67 63 67 64 66 65 65 66 66 66 69 71 74 76 76 77 77 77 76 75 73 73 72 71 70 70 69 69 71 72 70 70 70 68 67 65 65 65 63 66 66 61 67 66 65 65 66 67 66 68 70 70 72 71 72 72 73 74 73 73 72 73 75 75 74 74 74 73 74 74 72 71 68 69 64 65 65 -193 -209 51 -209 -209 -193 63 61 65 62 65 66 65 68 66 66 67 66 68 70 69 69 67 70 72 70 69 71 73 73 73 74 73 73 74 75 77 -193 90 93 95 98 102 105 106 107 108 109 111 111 113 114 114 114 115 117 119 120 122 122 124 124 125 125 126 126 126 127 127 127 131 133 135 138 137 138 138 139 142 142 145 144 0 0 0 0 0
    0 0 0 0 0 0 0 0 0 0 0 0 0 0 0 0 0 0 0 0 0 0 0 0 0 0 0 0 0 0 0 0 0 0 0 0 0 0 0 0 0 0 0 0 0 0 0 0 0 0 0 0 0 0 0 0 0 0 0 0 0 0 0 0 0 0 0 0 0 -209 -209 -193 -209 -209 58 -193 -209 -209 -209 -209 -209 -209 -209 -209 -209 -193 -177 -177 -177 -177 -177 -177 -209 -209 -209 -193 76 76 74 75 74 73 73 75 -193 71 72 68 68 69 68 67 66 65 66 63 63 65 61 61 57 57 57 56 56 56 54 55 52 59 64 64 64 67 69 70 69 70 71 68 69 69 70 69 70 70 72 70 71 71 70 68 69 68 68 63 67 63 67 64 66 64 64 65 65 65 69 70 73 75 76 77 77 76 75 74 73 73 72 71 69 69 68 68 71 71 70 69 69 68 67 64 65 65 64 68 66 62 67 67 66 66 67 68 66 69 71 72 73 72 73 73 73 74 74 74 73 73 75 75 75 75 75 74 74 74 73 72 69 70 65 67 67 61 -209 -193 -209 -209 -193 -209 -209 -193 -209 63 65 64 67 66 66 66 66 68 70 69 69 68 71 72 70 70 71 75 75 75 76 74 74 75 77 80 77 91 95 98 100 102 105 107 108 109 110 111 111 112 113 114 114 115 116 118 120 122 123 124 124 125 125 126 126 126 126 127 127 131 133 135 138 137 138 138 138 141 141 144 144 0 0 0 0 0
    0 0 0 0 0 0 0 0 0 0 0 0 0 0 0 0 0 0 0 0 0 0 0 0 0 0 0 0 0 0 0 0 0 0 0 0 0 0 0 0 0 0 0 0 0 0 0 0 0 0 0 0 0 0 0 0 0 0 0 0 0 0 0 0 0 0 0 0 0 -209 -209 -209 -209 -209 -209 -209 -193 -193 -193 -193 -209 -209 -209 -209 -209 -209 -209 -209 -193 -193 -193 -193 -209 -209 -209 75 76 76 75 75 75 75 74 74 74 70 72 67 68 68 67 67 66 65 66 62 63 64 61 61 56 56 56 56 55 55 54 54 51 59 64 64 65 67 70 72 71 71 71 70 70 70 71 71 71 71 73 71 72 71 71 69 70 67 68 62 66 63 67 63 65 63 63 64 65 65 68 69 73 74 76 78 77 77 76 74 73 73 72 71 69 69 69 68 71 71 70 70 69 68 68 66 67 67 67 70 67 62 67 68 67 67 68 68 67 70 71 73 72 72 73 73 74 75 74 75 73 74 75 74 75 75 75 74 74 74 72 71 70 69 65 66 66 62 -193 -193 -209 -209 -209 -209 -209 -209 -209 -193 62 63 66 65 63 65 64 68 69 68 68 68 71 72 71 70 71 76 75 76 77 75 75 76 79 83 81 92 98 100 101 103 106 108 109 110 111 112 112 113 114 114 114 115 116 118 119 121 122 123 124 124 124 125 125 125 126 126 127 130 133 134 137 137 138 138 138 141 141 144 144 0 0 0 0 0
    0 0 0 0 0 0 0 0 0 0 0 0 0 0 0 0 0 0 0 0 0 0 0 0 0 0 0 0 0 0 0 0 0 0 0 0 0 0 0 0 0 0 0 0 0 0 0 0 0 0 0 0 0 0 0 0 0 0 0 0 0 0 0 0 0 0 0 0 0 -193 51 -209 -193 -177 -193 -193 -193 -209 -193 -209 -209 -209 -209 -209 -209 -209 -209 -209 -209 -209 -193 -193 -193 -209 -209 74 75 76 75 76 74 74 73 72 71 69 71 67 67 68 67 66 66 64 66 62 64 63 61 61 56 56 56 55 55 54 54 54 52 59 65 65 66 68 70 72 71 71 72 70 70 71 72 71 72 71 73 71 72 71 70 68 69 67 68 62 66 62 67 63 64 62 62 63 63 64 68 68 72 74 76 78 77 77 76 74 73 73 72 71 70 69 69 68 70 70 69 69 69 68 68 66 68 68 68 71 68 63 67 69 67 67 68 69 67 70 71 72 72 72 73 73 74 75 75 76 74 75 76 74 75 75 74 73 74 74 72 71 68 67 64 65 64 59 -193 -193 -193 -209 -209 -209 -209 -209 -209 -193 62 63 65 64 63 64 64 68 69 68 68 69 72 73 72 71 72 76 76 76 77 76 76 78 82 86 87 93 101 102 103 104 106 108 109 110 111 111 111 112 113 113 113 115 115 117 118 120 121 122 123 123 124 125 125 125 126 126 127 129 133 134 136 137 137 137 139 141 141 144 144 0 0 0 0 0
    0 0 0 0 0 0 0 0 0 0 0 0 0 0 0 0 0 0 0 0 0 0 0 0 0 0 0 0 0 0 0 0 0 0 0 0 0 0 0 0 0 0 0 0 0 0 0 0 0 0 0 0 0 0 0 0 0 0 0 0 0 0 0 0 0 0 0 0 0 50 51 -209 -193 -177 -177 -193 -193 -193 -193 -193 -193 -209 -209 -209 -193 -209 -209 -209 -209 -209 -193 -193 -193 -209 -209 74 75 75 75 -193 73 73 73 71 69 68 70 68 67 68 67 66 65 64 65 62 63 62 61 61 56 55 55 55 55 54 54 55 52 60 65 66 66 68 70 71 70 71 71 70 70 71 72 71 72 71 73 71 72 71 70 68 69 67 68 62 67 61 68 62 64 62 62 62 63 63 67 68 72 74 77 78 77 77 76 74 73 73 72 71 69 69 69 68 70 70 69 69 68 67 67 65 67 66 67 70 67 63 67 69 67 67 68 68 66 69 70 71 70 72 73 73 73 75 74 75 74 74 74 73 74 74 74 73 74 74 73 70 66 64 61 62 59 -193 71 -193 -193 -209 -209 -209 -209 -209 -209 60 64 65 65 64 63 64 65 69 69 69 69 71 73 74 73 72 72 76 76 76 78 77 78 81 85 88 90 96 102 103 103 105 106 108 108 110 110 110 111 111 113 113 113 115 115 117 118 120 121 122 124 123 124 125 125 125 127 126 127 129 132 133 135 136 137 137 138 141 141 144 144 0 0 0 0 0
    0 0 0 0 0 0 0 0 0 0 0 0 0 0 0 0 0 0 0 0 0 0 0 0 0 0 0 0 0 0 0 0 0 0 0 0 0 0 0 0 0 0 0 0 0 0 0 0 0 0 0 0 0 0 0 0 0 0 0 0 0 0 0 0 0 0 0 0 0 -193 -193 -209 -209 -193 -193 -193 -193 -209 -193 -209 -209 -209 -209 -209 -193 -209 -209 -209 -209 -209 -209 -209 -209 -209 -209 -193 74 74 74 -209 -193 71 72 71 68 68 70 68 67 67 67 66 64 63 65 62 62 61 60 60 56 55 55 54 54 53 54 54 52 60 65 66 67 69 70 71 71 70 71 70 70 71 72 71 72 71 73 71 71 70 70 68 69 67 67 62 66 60 66 61 63 62 61 61 62 63 67 67 72 74 76 78 77 76 76 74 72 72 72 70 70 69 69 67 70 70 69 69 68 66 67 64 67 64 66 70 67 63 66 69 66 66 67 68 65 68 69 70 68 72 73 73 73 75 74 75 74 74 74 73 73 73 73 72 73 73 73 69 63 62 60 62 -193 -193 -209 49 -193 -209 -209 -209 -209 -209 -209 -209 65 65 63 64 62 63 65 71 70 70 70 73 74 75 74 73 73 77 77 78 80 80 83 85 88 91 94 99 103 103 104 105 106 108 108 109 111 111 111 112 112 113 113 115 115 117 118 119 121 122 123 123 124 125 125 125 127 126 127 128 131 131 134 135 136 137 138 141 141 144 145 0 0 0 0 0
    0 0 0 0 0 0 0 0 0 0 0 0 0 0 0 0 0 0 0 0 0 0 0 0 0 0 0 0 0 0 0 0 0 0 0 0 0 0 0 0 0 0 0 0 0 0 0 0 0 0 0 0 0 0 0 0 0 0 0 0 0 0 0 0 0 0 0 0 0 46 45 -209 -209 -209 -209 -193 -193 -193 -177 -177 -177 -193 -193 -193 -193 -193 -209 -209 -209 -209 -209 -209 -209 -209 -209 -209 -193 -193 -209 -209 -209 69 69 70 69 68 70 69 67 68 67 66 65 63 64 61 61 60 60 60 56 55 55 54 54 53 54 54 51 59 64 65 66 68 70 71 70 70 71 70 70 71 72 71 71 71 72 70 71 70 69 68 68 66 67 61 65 59 65 60 62 61 61 61 62 62 67 65 71 72 75 76 75 75 75 73 72 72 71 70 70 69 68 66 69 70 69 68 67 66 67 65 68 66 67 69 67 63 65 69 66 66 67 67 64 67 68 69 67 71 72 73 73 74 75 75 74 74 74 72 72 72 71 69 73 74 74 70 64 60 60 -209 -193 54 -193 -193 -193 -209 -209 -209 -209 -209 -209 -209 65 65 62 64 61 62 65 71 70 70 71 73 75 76 75 75 75 78 80 83 85 85 87 89 91 94 97 101 103 103 104 105 106 108 108 110 111 111 111 112 112 112 113 115 115 117 118 119 121 121 123 123 123 125 125 125 126 126 127 127 131 130 133 135 136 137 138 141 141 144 146 0 0 0 0 0
    0 0 0 0 0 0 0 0 0 0 0 0 0 0 0 0 0 0 0 0 0 0 0 0 0 0 0 0 0 0 0 0 0 0 0 0 0 0 0 0 0 0 0 0 0 0 0 0 0 0 0 0 0 0 0 0 0 0 0 0 0 0 0 0 0 0 0 0 0 -209 -193 -209 -209 -209 -193 -209 -193 -193 -209 -177 -177 -177 -177 -193 -193 -193 -193 -209 -209 -209 -209 -209 -209 -209 -193 -209 -209 -209 -209 -193 -209 65 67 69 68 67 69 68 67 68 67 67 65 63 65 62 61 61 60 60 56 55 55 54 54 53 54 54 49 58 61 63 64 68 70 71 71 71 72 71 71 71 72 71 71 71 72 70 71 70 69 67 68 66 66 60 65 60 65 60 62 62 61 61 62 63 66 64 69 70 73 74 75 75 75 73 73 72 72 70 70 69 69 65 69 70 69 69 68 66 68 66 69 67 67 69 67 62 64 69 65 65 66 66 64 66 68 69 68 72 73 73 73 74 74 74 73 73 73 70 69 69 69 66 73 -193 -193 71 66 61 62 63 58 -209 -209 -193 -209 -209 -209 -209 -209 -209 -209 -209 68 66 63 64 61 62 65 72 71 71 72 74 77 79 78 79 79 84 87 89 90 91 94 95 97 98 100 102 103 103 103 104 105 108 108 110 111 110 110 111 111 112 112 115 115 117 118 119 121 121 123 122 123 124 124 125 126 126 127 127 131 130 133 135 136 136 138 140 141 144 146 0 0 0 0 0
    0 0 0 0 0 0 0 0 0 0 0 0 0 0 0 0 0 0 0 0 0 0 0 0 0 0 0 0 0 0 0 0 0 0 0 0 0 0 0 0 0 0 0 0 0 0 0 0 0 0 0 0 0 0 0 0 0 0 0 0 0 0 0 0 0 0 0 0 0 -209 -209 -209 -209 -209 -209 -209 -209 -209 -209 -209 -193 -209 -193 -177 -193 -177 -193 -209 -209 -209 -209 -209 -209 -209 -209 -209 -209 -209 -209 -209 -193 62 63 68 67 67 68 68 66 67 67 66 64 62 63 62 61 60 60 60 56 55 55 55 54 53 54 54 49 58 61 62 62 67 71 72 72 72 73 72 72 72 72 71 71 71 71 69 70 69 68 66 66 65 65 61 65 60 66 61 62 63 62 62 63 64 67 63 68 68 71 72 72 73 73 71 71 71 71 69 70 68 69 65 69 70 69 69 68 65 68 66 68 67 67 69 67 62 64 69 64 64 64 65 64 65 68 69 67 72 73 73 73 74 74 74 72 72 72 71 69 69 68 62 72 69 70 65 66 60 62 62 61 58 60 -193 -209 -209 -209 -209 -209 -209 -209 -209 70 67 64 65 62 63 66 72 71 71 73 75 79 81 81 83 83 87 89 90 92 94 95 96 98 98 100 102 102 102 102 103 105 107 107 109 110 110 109 111 111 111 112 115 115 117 118 119 120 121 123 122 123 124 124 124 126 126 127 127 131 129 132 135 135 136 138 140 141 143 147 0 0 0 0 0
    0 0 0 0 0 0 0 0 0 0 0 0 0 0 0 0 0 0 0 0 0 0 0 0 0 0 0 0 0 0 0 0 0 0 0 0 0 0 0 0 0 0 0 0 0 0 0 0 0 0 0 0 0 0 0 0 0 0 0 0 0 0 0 0 0 0 0 0 0 -209 -209 -209 -209 -209 -209 -209 -209 -209 -209 -209 -209 -209 -193 -209 -209 -177 -177 -209 -209 -209 -209 308 -209 -209 -209 -209 -209 -209 -209 -209 -193 60 62 67 66 67 68 68 66 66 66 66 64 62 63 62 60 60 60 60 56 55 55 55 54 53 54 54 49 58 60 62 60 66 70 71 72 72 72 71 71 71 72 71 71 70 71 69 70 68 67 66 66 64 65 61 64 60 67 61 63 64 64 63 64 65 67 64 68 67 70 70 70 71 71 69 70 70 70 68 69 69 69 66 70 70 70 70 69 64 67 65 68 66 68 69 67 63 64 68 64 63 64 65 64 65 68 70 68 72 73 73 73 73 73 73 71 71 71 69 68 67 66 60 66 62 67 61 66 60 63 64 63 63 62 -209 -209 -209 -209 -209 -209 -209 -209 -209 70 66 63 64 62 62 66 73 71 72 74 78 82 84 84 85 85 89 89 91 92 96 95 96 97 98 99 101 102 102 102 104 105 107 108 109 109 109 109 110 110 111 112 115 116 117 119 119 120 121 122 122 123 124 124 124 126 126 127 126 130 129 132 134 135 136 138 139 141 143 147 0 0 0 0 0
    0 0 0 0 0 0 0 0 0 0 0 0 0 0 0 0 0 0 0 0 0 0 0 0 0 0 0 0 0 0 0 0 0 0 0 0 0 0 0 0 0 0 0 0 0 0 0 0 0 0 0 0 0 0 0 0 0 0 0 0 0 0 0 0 0 0 0 0 0 -209 -193 -209 -209 -209 -209 -209 -209 -209 -209 -209 -209 -209 -209 -209 -209 -209 -193 -209 -209 -209 -209 -209 -209 -209 -209 -209 -193 -209 -209 -209 -193 61 61 67 66 66 67 68 66 66 66 66 64 62 63 63 61 60 61 61 57 56 56 56 54 53 54 54 49 58 59 61 59 65 -193 -193 -193 70 71 70 69 69 71 70 70 69 70 68 69 68 67 65 65 63 65 61 64 59 67 61 63 64 65 64 64 65 67 64 68 67 69 69 69 70 70 68 69 69 69 67 69 69 69 65 71 71 71 71 70 63 68 67 69 67 69 69 68 63 64 68 64 63 64 65 64 64 67 69 67 71 72 71 71 72 72 71 70 70 69 67 67 66 64 58 59 61 61 60 65 61 63 64 61 65 66 -209 -209 -209 -193 78 -209 -209 -209 -209 -193 65 62 63 61 60 66 73 72 74 77 81 83 85 85 86 86 89 89 91 93 97 96 97 97 97 98 100 100 101 100 103 105 106 108 109 109 109 108 110 110 110 112 114 115 117 118 119 120 120 122 122 123 123 124 124 126 126 127 126 130 129 132 135 136 136 138 139 141 143 147 0 0 0 0 0
    0 0 0 0 0 0 0 0 0 0 0 0 0 0 0 0 0 0 0 0 0 0 0 0 0 0 0 0 0 0 0 0 0 0 0 0 0 0 0 0 0 0 0 0 0 0 0 0 0 0 0 0 0 0 0 0 0 0 0 0 0 0 0 0 0 0 0 0 0 -209 -193 -209 -209 -209 -209 -209 -209 -209 -209 -209 -193 -209 -209 -209 -209 -209 -209 -209 -209 -209 -209 -209 -209 -209 -209 -209 -193 -193 -193 -209 59 61 61 68 66 67 67 68 66 67 66 66 64 62 63 64 61 61 60 61 57 56 56 56 54 54 54 54 49 58 58 60 -209 62 -209 -209 -209 69 71 70 69 69 70 69 69 68 68 66 68 66 65 64 64 62 64 62 64 59 68 61 63 64 64 64 64 65 67 64 67 67 68 68 68 68 69 66 68 68 68 65 66 68 68 63 70 70 70 70 70 63 67 68 70 67 69 69 69 63 64 68 63 63 63 64 64 63 66 67 65 70 70 70 70 71 71 70 70 69 69 67 66 64 62 57 56 59 58 58 61 59 61 62 60 65 -209 -209 -209 -193 -193 79 -193 -209 -209 -209 -193 64 61 63 62 61 67 74 73 76 81 83 84 85 85 86 86 89 89 91 93 97 96 97 96 96 97 99 99 100 99 103 104 106 107 108 108 108 108 109 109 110 112 114 115 117 118 119 119 120 122 121 123 123 125 124 126 126 127 126 130 129 132 135 136 136 137 139 141 142 147 0 0 0 0 0
    0 0 0 0 0 0 0 0 0 0 0 0 0 0 0 0 0 0 0 0 0 0 0 0 0 0 0 0 0 0 0 0 0 0 0 0 0 0 0 0 0 0 0 0 0 0 0 0 0 0 0 0 0 0 0 0 0 0 0 0 0 0 0 0 0 0 0 0 0 -209 -209 -209 -209 -209 -209 -209 -209 -209 -209 -209 -193 -209 -209 -209 -209 -209 -209 -209 -209 -209 -209 -209 -209 -209 -209 -209 -193 -193 -209 -209 60 63 62 69 68 67 68 68 66 67 66 66 64 62 63 64 61 61 61 61 57 57 57 57 54 54 54 54 50 57 56 57 49 -193 -209 -209 -209 -209 72 71 69 69 69 69 69 68 67 65 68 65 64 64 64 62 62 62 63 59 67 62 63 64 64 64 65 65 67 63 67 66 67 67 66 66 68 64 66 65 66 62 63 66 66 60 69 70 70 70 69 63 66 67 69 67 69 69 69 63 64 68 64 63 63 64 64 62 66 67 64 69 70 70 69 70 70 69 69 68 68 66 65 65 63 58 59 62 60 61 65 61 62 65 62 -193 -193 -209 -209 -209 -193 78 -193 -193 -209 -209 -193 64 62 65 64 65 69 74 74 77 83 84 84 85 85 85 86 88 89 91 92 96 95 96 95 96 96 98 97 99 97 102 104 105 107 108 108 108 107 109 109 109 112 113 115 117 118 119 119 120 122 121 123 123 125 124 126 126 127 126 130 129 132 134 136 136 137 138 141 142 146 0 0 0 0 0
    0 0 0 0 0 0 0 0 0 0 0 0 0 0 0 0 0 0 0 0 0 0 0 0 0 0 0 0 0 0 0 0 0 0 0 0 0 0 0 0 0 0 0 0 0 0 0 0 0 0 0 0 0 0 0 0 0 0 0 0 0 0 0 0 0 0 0 0 0 -193 -193 -193 -193 -193 -209 -209 -209 -209 -209 -209 -209 -209 -209 -209 -193 -209 -209 -209 -209 -209 -193 -193 -209 -209 -209 -209 -209 -209 -209 -209 -193 66 66 70 70 68 68 69 66 67 66 66 64 62 63 64 61 61 60 60 56 57 57 57 54 54 54 54 50 56 55 55 47 53 53 -209 -209 -209 71 70 68 68 68 68 67 68 66 64 66 65 64 63 63 62 61 62 63 59 67 61 62 63 64 63 64 64 67 63 66 66 67 67 66 65 67 63 65 64 65 62 62 64 64 59 66 68 68 69 69 65 67 69 69 68 69 69 69 64 65 68 64 63 63 65 64 63 67 68 64 70 70 70 69 70 70 69 68 68 68 66 65 66 62 59 62 66 64 65 69 66 65 68 -193 -209 -209 -193 -193 -209 -193 80 79 76 -209 -209 67 64 63 67 65 67 70 74 74 79 83 83 84 85 85 85 86 88 88 90 92 95 94 95 94 95 95 96 95 98 95 101 103 105 107 108 107 109 107 109 108 109 111 112 114 115 117 118 118 120 121 121 123 123 125 124 125 126 127 126 130 129 132 135 136 136 137 138 141 141 146 0 0 0 0 0
    0 0 0 0 0 0 0 0 0 0 0 0 0 0 0 0 0 0 0 0 0 0 0 0 0 0 0 0 0 0 0 0 0 0 0 0 0 0 0 0 0 0 0 0 0 0 0 0 0 0 0 0 0 0 0 0 0 0 0 0 0 0 0 0 0 0 0 0 0 -193 -193 -193 -193 53 -209 -209 -209 -209 -209 -209 -209 -209 -209 -209 -209 -209 -209 -209 -209 -209 -193 318 -193 -209 -209 75 -209 -193 -209 -209 -209 68 71 72 71 68 68 69 66 66 66 66 64 62 63 65 62 61 61 61 57 57 57 57 54 54 54 54 50 55 54 54 47 54 54 55 56 58 66 68 64 66 67 67 66 66 63 63 65 63 63 62 62 61 61 62 63 58 67 62 62 63 64 64 64 64 66 62 66 66 66 67 65 65 67 63 64 64 64 62 61 64 64 59 64 67 67 68 69 66 68 69 69 68 69 69 70 64 65 68 64 64 64 65 65 63 68 68 65 70 70 70 69 70 70 68 68 68 68 65 65 67 61 58 60 66 63 65 70 64 62 65 -193 -193 -193 -193 -193 -209 -209 -209 -209 -193 -209 -209 64 63 62 66 65 68 70 74 74 81 82 83 84 84 84 85 86 88 87 90 91 94 93 94 93 94 93 94 93 96 94 100 102 104 106 107 107 108 107 109 108 109 111 112 113 115 117 118 118 119 121 121 123 123 125 125 125 126 127 126 129 129 132 135 136 136 137 138 141 141 145 0 0 0 0 0
    0 0 0 0 0 0 0 0 0 0 0 0 0 0 0 0 0 0 0 0 0 0 0 0 0 0 0 0 0 0 0 0 0 0 0 0 0 0 0 0 0 0 0 0 0 0 0 0 0 0 0 0 0 0 0 0 0 0 0 0 0 0 0 0 0 0 0 0 0 -193 -209 -209 -193 55 -209 -209 -209 74 -209 -209 -209 -209 -209 -209 -209 -209 280 -209 -209 -193 323 323 -193 -193 -209 -209 -209 -209 -193 61 58 68 73 73 69 66 66 67 65 65 65 64 63 62 63 65 62 61 61 61 58 57 57 58 54 53 54 53 50 55 54 54 49 54 54 55 56 57 59 64 61 63 64 66 65 65 63 62 64 63 63 62 62 61 61 63 64 59 68 63 63 64 64 64 64 64 66 62 66 66 66 67 65 64 66 63 64 63 64 62 61 64 64 60 65 67 66 68 68 66 68 69 69 68 69 70 70 65 65 68 65 64 64 66 66 64 68 68 65 70 71 70 69 70 69 68 68 69 69 66 67 69 61 59 60 64 62 64 68 61 59 63 -209 -193 -193 -193 -193 -209 -209 -209 -209 -209 -209 -209 61 61 61 65 65 69 70 73 73 81 82 82 84 83 84 84 86 87 87 89 90 93 93 93 93 93 93 93 93 95 94 99 101 103 105 106 106 107 106 108 107 109 111 111 113 114 116 118 118 119 121 121 123 123 126 125 125 127 127 126 129 130 132 134 136 136 137 138 141 141 145 0 0 0 0 0
    0 0 0 0 0 0 0 0 0 0 0 0 0 0 0 0 0 0 0 0 0 0 0 0 0 0 0 0 0 0 0 0 0 0 0 0 0 0 0 0 0 0 0 0 0 0 0 0 0 0 0 0 0 0 0 0 0 0 0 0 0 0 0 0 0 0 0 0 0 -193 -193 54 54 54 55 -193 -193 70 -209 -209 -209 -209 -209 -209 -209 275 -177 -209 -209 -209 -193 -209 -209 -193 -209 -209 -193 -193 -193 65 64 68 -209 -209 68 66 66 67 65 65 64 63 62 62 62 64 61 61 61 61 58 57 57 57 54 53 53 53 50 55 54 54 49 53 54 54 55 55 56 60 59 61 61 63 63 64 63 62 63 63 62 62 62 62 61 63 64 59 69 63 63 64 64 64 64 64 66 62 66 66 66 67 65 64 66 63 63 63 63 61 60 63 63 60 62 65 64 66 67 65 67 68 67 68 69 70 71 66 66 68 65 65 65 66 66 64 68 68 64 69 70 69 69 70 68 68 68 69 69 66 68 68 60 61 61 64 63 64 69 60 58 62 -209 -193 -193 -177 -177 -177 -209 -209 -209 -209 -193 -209 59 60 60 64 64 68 70 71 72 81 81 82 83 83 83 84 85 86 86 89 90 92 92 93 92 93 93 94 94 95 94 100 101 103 104 106 106 107 106 108 107 109 111 111 113 114 116 118 117 119 121 121 123 123 126 125 125 127 126 127 129 130 132 134 136 136 137 138 141 141 145 0 0 0 0 0
    0 0 0 0 0 0 0 0 0 0 0 0 0 0 0 0 0 0 0 0 0 0 0 0 0 0 0 0 0 0 0 0 0 0 0 0 0 0 0 0 0 0 0 0 0 0 0 0 0 0 0 0 0 0 0 0 0 0 0 0 0 0 0 0 0 0 0 0 0 -209 53 53 54 54 55 58 60 68 64 -209 -209 -209 -209 -209 -209 -177 -209 -209 -209 -209 -193 -209 -209 -193 -209 -193 71 71 71 64 65 67 -209 -209 67 64 65 67 65 64 64 63 62 62 62 63 61 61 61 61 58 57 57 57 54 53 53 53 50 54 54 54 49 53 54 54 55 55 56 58 59 60 61 62 63 64 63 62 63 62 62 62 63 62 61 62 63 58 69 63 63 64 64 63 64 63 65 61 65 65 65 67 65 64 66 63 63 62 62 61 59 63 63 60 62 65 65 66 66 66 67 68 67 68 69 69 71 67 67 69 66 66 66 67 66 65 68 68 63 69 69 68 68 69 67 67 67 67 67 65 67 67 59 63 62 64 63 64 69 58 57 61 -209 -209 -209 -193 -193 -209 -209 -209 -209 -209 51 -209 57 58 59 62 63 67 69 70 71 81 80 81 83 82 83 83 85 85 85 88 90 92 92 93 92 94 93 94 94 95 95 100 101 102 104 105 106 107 106 109 108 109 111 111 114 113 115 118 117 119 120 121 123 123 126 125 125 127 127 127 129 130 132 134 135 137 137 138 140 141 144 0 0 0 0 0
    0 0 0 0 0 0 0 0 0 0 0 0 0 0 0 0 0 0 0 0 0 0 0 0 0 0 0 0 0 0 0 0 0 0 0 0 0 0 0 0 0 0 0 0 0 0 0 0 0 0 0 0 0 0 0 0 0 0 0 0 0 0 0 0 0 0 0 0 0 52 51 52 54 55 56 60 64 69 65 70 -193 69 -193 -209 -209 -177 -209 -209 -209 -209 -209 -209 -209 -193 -209 73 72 70 71 62 63 64 -209 -209 65 62 64 66 65 64 64 63 62 63 63 63 61 61 61 61 59 58 57 57 54 54 54 54 50 54 54 54 50 53 54 54 55 55 55 57 59 60 61 61 62 65 63 63 63 63 63 63 63 62 60 62 63 58 68 62 62 63 63 63 63 63 65 61 65 66 66 67 65 64 66 63 62 62 62 60 59 61 62 60 61 65 64 66 66 66 67 68 66 68 69 69 70 68 68 69 67 67 67 67 67 66 67 67 63 68 68 68 67 69 65 66 67 67 67 65 67 65 57 63 61 63 63 65 68 59 59 61 -209 -209 -209 -209 -209 -209 -209 -209 -209 -209 51 -209 57 57 60 64 63 68 70 70 71 81 79 80 83 81 82 83 84 85 85 88 89 91 92 93 92 94 93 94 94 95 95 99 100 101 103 104 105 107 106 109 108 109 111 111 114 113 114 117 116 119 120 -193 122 123 126 125 125 127 127 127 128 131 131 134 -193 137 137 138 140 141 144 0 0 0 0 0
    0 0 0 0 0 0 0 0 0 0 0 0 0 0 0 0 0 0 0 0 0 0 0 0 0 0 0 0 0 0 0 0 0 0 0 0 0 0 0 0 0 0 0 0 0 0 0 0 0 0 0 0 0 0 0 0 0 0 0 0 0 0 0 0 0 0 0 0 0 54 55 53 56 58 58 62 66 69 67 -209 -209 -209 -209 -209 -209 -177 -209 -209 -209 -209 -209 -193 -193 67 -209 71 70 67 66 60 60 62 -209 -193 63 62 64 66 65 64 64 62 62 63 63 63 61 61 61 61 60 58 57 57 55 54 54 54 51 54 54 54 51 54 54 55 55 55 55 56 58 59 60 60 60 65 63 62 63 63 62 62 63 63 60 62 63 59 68 63 62 63 63 63 63 63 64 61 64 66 67 67 65 64 66 64 63 62 62 60 58 60 61 60 60 63 63 65 65 66 66 67 63 67 68 69 70 68 68 70 67 68 67 67 68 67 67 67 63 68 68 68 68 69 64 66 67 67 66 66 66 64 56 63 62 63 64 65 68 61 60 62 -209 -193 -209 -209 -209 -209 -209 -209 -209 -193 52 -193 58 58 61 66 64 69 70 70 71 81 79 79 83 81 81 82 84 85 84 88 89 90 92 92 92 94 93 94 94 95 95 98 100 101 102 -193 105 106 106 109 108 109 111 111 114 112 114 117 116 118 119 -177 122 123 125 125 125 127 126 127 128 131 131 134 -193 -193 137 139 141 141 144 0 0 0 0 0
    0 0 0 0 0 0 0 0 0 0 0 0 0 0 0 0 0 0 0 0 0 0 0 0 0 0 0 0 0 0 0 0 0 0 0 0 0 0 0 0 0 0 0 0 0 0 0 0 0 0 0 0 0 0 0 0 0 0 0 0 0 0 0 0 0 0 0 0 0 55 -193 55 57 59 59 62 66 68 -193 -209 -209 -209 -209 -209 -209 -177 -209 -209 -209 -193 -193 62 62 64 68 69 68 66 63 59 60 61 -193 65 63 62 64 66 65 64 64 62 62 64 63 62 61 60 61 61 59 58 56 57 55 54 54 54 52 55 54 55 52 54 55 55 55 55 55 56 57 58 59 59 60 65 63 62 63 63 63 63 63 64 61 62 63 61 68 63 62 64 64 63 63 63 64 60 64 66 66 66 65 64 65 64 63 63 62 60 59 61 61 61 60 63 63 65 65 66 66 67 62 66 68 68 70 69 68 69 68 68 68 68 69 68 68 68 64 68 68 68 69 68 63 65 66 65 66 65 65 62 57 64 65 66 67 67 70 67 63 63 -209 -209 -209 -209 -209 -209 -209 -209 -209 -209 -209 61 61 61 63 67 67 69 70 69 71 81 77 78 82 80 80 82 83 84 83 87 88 90 91 92 92 93 93 94 94 95 94 98 99 101 102 -193 105 107 107 109 108 109 111 111 114 112 114 117 116 -193 119 -177 -193 123 125 126 125 127 126 128 128 131 131 134 -193 -193 138 139 141 142 144 0 0 0 0 0
    0 0 0 0 0 0 0 0 0 0 0 0 0 0 0 0 0 0 0 0 0 0 0 0 0 0 0 0 0 0 0 0 0 0 0 0 0 0 0 0 0 0 0 0 0 0 0 0 0 0 0 0 0 0 0 0 0 0 0 0 0 0 0 0 0 0 0 0 0 55 57 56 58 59 60 60 63 64 61 -209 -193 64 -209 -209 -209 -209 61 62 61 65 64 63 63 64 66 68 66 65 62 60 60 61 63 64 62 62 64 67 66 64 63 62 62 64 62 61 60 60 61 61 59 57 56 56 55 54 54 54 52 55 55 55 54 55 56 55 56 55 56 56 56 57 59 59 60 64 63 62 62 64 64 64 64 65 62 64 65 64 69 64 63 65 64 63 63 64 64 60 64 67 66 65 65 65 65 65 64 63 62 60 59 62 61 62 60 62 62 63 63 64 64 67 62 67 69 69 70 70 67 69 68 69 69 69 69 69 68 69 66 68 68 69 69 67 62 65 66 65 65 65 64 61 58 63 64 65 67 66 69 68 64 62 -209 -193 -209 -209 -209 -209 -209 -209 -209 -209 -209 65 62 62 63 67 67 69 69 67 70 81 76 77 81 79 79 81 83 83 82 87 88 89 91 92 92 94 93 94 94 94 94 97 99 100 101 103 105 106 107 109 108 109 110 111 114 112 113 117 115 118 119 -177 -193 123 125 126 125 127 126 128 127 131 130 133 -193 137 138 139 141 142 143 0 0 0 0 0
    0 0 0 0 0 0 0 0 0 0 0 0 0 0 0 0 0 0 0 0 0 0 0 0 0 0 0 0 0 0 0 0 0 0 0 0 0 0 0 0 0 0 0 0 0 0 0 0 0 0 0 0 0 0 0 0 0 0 0 0 0 0 0 0 0 0 0 0 0 55 57 57 59 61 61 61 65 67 65 -209 -209 -193 -209 -209 -209 -209 61 62 62 65 64 63 62 63 64 67 65 64 61 60 60 61 64 64 62 62 65 66 66 64 63 62 62 64 62 60 60 60 61 61 60 58 56 56 56 54 55 55 53 55 55 56 54 55 56 56 57 56 56 56 57 57 58 58 60 64 63 63 62 64 65 65 65 65 63 65 65 66 69 65 64 66 65 64 64 64 64 60 64 66 66 64 64 64 65 65 64 63 62 59 59 62 61 61 60 61 61 61 62 63 63 65 61 66 69 69 70 70 68 70 69 70 69 69 70 70 68 70 67 68 68 68 69 66 63 67 67 66 66 66 65 61 60 63 63 64 65 64 66 64 63 61 61 -193 -209 -209 -209 -209 -209 -209 -209 -209 -209 65 61 64 65 68 68 69 68 67 70 80 76 76 80 78 79 80 82 82 81 86 87 89 92 92 92 94 94 94 95 94 94 96 98 99 101 102 -193 106 107 108 108 109 110 111 114 112 113 117 115 118 119 -177 -193 123 125 125 125 127 126 128 127 131 130 134 -177 138 138 140 141 143 143 0 0 0 0 0
    0 0 0 0 0 0 0 0 0 0 0 0 0 0 0 0 0 0 0 0 0 0 0 0 0 0 0 0 0 0 0 0 0 0 0 0 0 0 0 0 0 0 0 0 0 0 0 0 0 0 0 0 0 0 0 0 0 0 0 0 0 0 0 0 0 0 0 0 0 56 -193 57 59 62 61 61 65 65 -209 -209 -209 -209 -209 -209 -177 -209 -209 63 62 66 64 63 62 62 62 64 62 62 60 59 59 60 63 63 61 62 65 67 66 64 63 61 62 64 61 60 59 59 60 61 59 57 56 56 55 55 55 55 53 56 55 56 54 54 56 55 57 56 57 57 57 58 58 58 61 65 64 63 63 64 65 65 65 65 62 63 65 66 68 64 65 66 65 64 64 64 64 61 65 67 66 64 64 65 65 65 64 63 61 59 59 62 60 61 60 61 61 61 62 62 63 -193 -193 -193 -209 69 70 71 68 70 70 70 70 70 71 70 68 70 68 67 67 68 68 65 63 67 67 67 66 66 64 60 61 62 63 64 65 65 66 66 66 64 64 64 -209 -193 -209 -209 -209 -209 -193 -209 -209 67 63 65 66 68 69 69 67 66 70 79 75 75 79 78 78 80 81 82 80 86 87 89 92 93 93 95 95 95 95 95 95 95 99 100 101 102 -193 106 107 108 108 108 109 111 114 112 113 116 115 118 119 -177 -193 123 124 125 125 127 127 128 127 131 130 134 -193 138 139 140 141 143 143 0 0 0 0 0
    0 0 0 0 0 0 0 0 0 0 0 0 0 0 0 0 0 0 0 0 0 0 0 0 0 0 0 0 0 0 0 0 0 0 0 0 0 0 0 0 0 0 0 0 0 0 0 0 0 0 0 0 0 0 0 0 0 0 0 0 0 0 0 0 0 0 0 0 0 56 -193 57 60 62 61 62 65 65 -209 -209 -209 -209 -209 -209 -177 -209 -209 64 64 66 64 63 63 62 62 63 62 62 60 59 59 61 64 63 62 63 66 66 66 63 63 62 63 64 61 60 59 59 60 60 58 57 55 55 55 55 55 55 53 55 55 55 52 54 54 55 57 56 57 56 58 58 59 59 63 65 63 63 64 65 65 64 65 64 62 63 64 66 67 64 65 66 65 64 64 65 64 61 66 67 66 64 64 65 66 65 64 64 61 59 61 63 61 60 60 61 60 60 61 62 -193 -193 -193 -193 -209 70 69 72 68 70 71 71 71 71 71 71 69 71 70 67 67 68 68 64 63 66 66 66 66 66 64 60 64 64 65 66 66 66 67 67 67 66 65 -193 50 -209 -209 46 48 51 56 62 67 67 65 66 67 68 69 69 67 66 70 79 75 75 79 78 78 80 81 82 80 86 88 89 92 93 94 95 95 95 96 95 95 95 99 100 101 102 105 106 106 -193 -193 108 109 110 113 111 113 116 115 117 118 -177 -193 123 124 125 125 127 127 128 127 131 130 134 137 138 139 140 141 144 143 0 0 0 0 0
    0 0 0 0 0 0 0 0 0 0 0 0 0 0 0 0 0 0 0 0 0 0 0 0 0 0 0 0 0 0 0 0 0 0 0 0 0 0 0 0 0 0 0 0 0 0 0 0 0 0 0 0 0 0 0 0 0 0 0 0 0 0 0 0 0 0 0 0 0 52 -193 58 62 64 64 64 67 68 68 68 -209 -209 -209 -209 -177 -209 -209 65 66 66 64 63 62 62 61 62 61 60 59 59 59 62 64 63 62 64 67 66 65 63 62 62 63 64 61 60 60 60 60 60 58 57 55 56 55 55 55 55 53 56 55 55 53 55 55 56 58 57 57 57 59 59 59 59 64 65 63 63 64 65 65 64 64 64 62 63 63 66 66 63 65 65 64 64 64 65 63 62 66 67 66 64 64 65 66 65 65 64 61 59 62 63 61 60 59 60 59 59 60 -193 -193 -209 -209 -209 -209 -193 69 72 67 70 71 71 71 71 71 71 69 72 -193 68 68 69 67 63 64 66 66 67 67 67 64 -193 68 68 68 68 67 67 67 67 67 67 66 62 54 58 -209 -209 49 -209 55 67 69 68 67 67 69 69 71 70 67 67 71 79 76 75 79 78 78 81 81 82 80 86 88 89 92 93 94 95 95 95 96 95 95 94 99 99 101 102 105 106 106 -193 -193 107 108 111 113 111 114 116 116 117 119 -177 -177 123 124 125 125 127 127 128 127 131 130 134 137 139 140 141 141 144 143 0 0 0 0 0
    0 0 0 0 0 0 0 0 0 0 0 0 0 0 0 0 0 0 0 0 0 0 0 0 0 0 0 0 0 0 0 0 0 0 0 0 0 0 0 0 0 0 0 0 0 0 0 0 0 0 0 0 0 0 0 0 0 0 0 0 0 0 0 0 0 0 0 0 0 54 58 59 63 64 64 64 67 67 -209 -209 -209 -209 -209 -209 -177 -209 -209 -209 -209 -193 61 60 60 60 59 60 59 59 59 59 59 63 65 63 62 66 68 66 65 64 63 63 63 63 60 60 60 60 61 61 58 57 56 56 55 55 55 55 55 57 57 56 56 57 57 59 60 59 58 57 59 59 59 60 65 64 62 63 64 65 65 64 63 63 62 63 63 66 65 63 64 65 64 64 65 65 63 62 67 68 66 64 64 65 65 65 65 63 61 60 63 63 61 60 59 59 59 58 60 58 -193 -209 -193 -209 -209 -209 68 72 66 69 71 71 71 71 71 71 69 73 73 68 68 69 67 63 65 66 66 67 67 67 64 -209 70 69 -193 -209 -193 68 67 67 67 67 67 63 59 60 -193 58 52 -209 59 70 70 68 69 68 69 70 71 70 67 67 71 78 76 75 78 78 78 80 81 82 81 86 88 89 92 93 94 95 95 94 95 94 95 93 98 98 101 102 106 106 106 -193 -193 107 107 111 112 111 113 116 116 117 118 -193 -193 123 124 125 125 126 127 127 127 130 130 134 138 139 140 141 141 144 143 0 0 0 0 0
    0 0 0 0 0 0 0 0 0 0 0 0 0 0 0 0 0 0 0 0 0 0 0 0 0 0 0 0 0 0 0 0 0 0 0 0 0 0 0 0 0 0 0 0 0 0 0 0 0 0 0 0 0 0 0 0 0 0 0 0 0 0 0 0 0 0 0 0 0 56 58 60 63 64 63 64 66 65 -209 -209 -209 -209 -209 -209 -209 -209 -177 -209 -209 -193 59 59 58 58 58 59 59 60 59 60 60 65 66 64 63 67 68 67 65 64 63 63 64 62 60 60 61 61 62 61 58 57 57 57 55 55 55 56 56 57 58 58 57 59 59 62 62 61 60 58 58 59 59 61 65 63 61 62 64 65 65 64 63 63 63 63 63 67 65 63 65 65 64 64 65 65 63 63 67 68 66 64 64 66 65 65 65 63 61 61 63 64 61 61 60 60 60 59 60 58 59 -193 -193 -209 -209 -209 64 71 65 68 -193 71 71 71 71 71 70 73 73 68 68 69 66 63 66 67 67 67 67 67 64 63 71 69 -193 -193 -193 -193 65 65 65 63 63 61 59 59 57 59 54 -193 61 70 71 68 68 68 68 69 71 69 66 67 71 77 76 75 78 79 78 80 80 82 81 86 87 88 91 92 93 93 94 93 94 93 94 91 98 98 102 103 106 106 106 -193 -193 107 107 111 112 112 115 117 117 118 119 -193 -193 123 124 125 125 126 127 127 126 130 131 134 137 139 140 140 141 144 143 0 0 0 0 0
    0 0 0 0 0 0 0 0 0 0 0 0 0 0 0 0 0 0 0 0 0 0 0 0 0 0 0 0 0 0 0 0 0 0 0 0 0 0 0 0 0 0 0 0 0 0 0 0 0 0 0 0 0 0 0 0 0 0 0 0 0 0 0 0 0 0 0 0 0 56 -193 59 63 65 64 65 67 65 71 -209 -209 -209 -209 -209 -209 -209 -193 -209 -209 -193 57 57 57 57 58 59 59 60 60 61 62 67 66 64 64 67 68 67 64 63 63 64 64 61 60 60 61 62 62 61 58 57 58 58 55 55 55 56 -193 57 58 58 57 59 59 62 62 61 60 59 59 60 60 64 66 63 62 63 64 65 65 64 62 63 65 64 64 67 64 63 65 65 64 64 65 65 63 64 68 67 66 65 64 66 65 65 65 63 61 62 64 65 61 61 61 60 60 59 59 58 58 56 -193 -209 -209 -209 61 71 64 68 -177 72 71 71 71 71 70 73 74 67 67 69 65 64 67 67 67 68 68 68 64 64 72 70 -209 -209 -209 -193 65 65 65 62 62 61 59 59 56 58 54 57 64 72 72 69 69 69 69 70 71 70 66 67 71 76 76 75 77 79 78 80 80 81 81 85 87 88 91 92 93 93 94 93 94 93 94 91 98 98 104 104 107 106 106 -193 -193 107 107 111 112 112 115 118 118 118 120 121 121 123 124 125 125 126 127 127 127 130 131 134 137 139 140 140 141 144 143 0 0 0 0 0</data></disparity>
</opencv_storage>
