<?xml version="1.0"?>
<opencv_storage>
<gps_time_stamp>277410</gps_time_stamp>
<gps_x>-1.3963806152343750e+001</gps_x>
<gps_y>1.1264877319335937e+001</gps_y>
<gps_z>-2.2339859008789062e+000</gps_z>
<image_time_stamp>268257</image_time_stamp>
<disparity type_id="opencv-matrix">
  <rows>93</rows>
  <cols>320</cols>
  <dt>s</dt>
  <data>
    0 0 0 0 0 0 0 0 0 0 0 0 0 0 0 0 0 0 0 0 0 0 0 0 0 0 0 0 0 0 0 0 0 0 0 0 0 0 0 0 0 0 0 0 0 0 0 0 0 0 0 0 0 0 0 0 0 0 0 0 0 0 0 0 0 0 0 0 0 0 0 0 0 0 0 10 10 14 19 16 11 10 10 0 0 0 0 9 0 12 12 14 15 15 16 16 14 15 11 13 11 12 12 11 12 13 17 17 19 16 16 19 20 19 17 18 15 16 18 16 16 13 14 13 12 12 11 11 10 11 12 12 14 16 16 18 16 18 18 18 17 18 17 22 19 20 20 19 19 19 20 19 17 18 19 18 19 18 18 17 17 17 17 16 17 15 16 14 15 15 15 15 15 14 16 14 15 16 19 16 20 18 20 19 20 21 21 20 21 19 21 20 20 21 18 18 20 24 28 29 32 31 29 26 25 23 23 23 23 22 22 21 22 22 22 22 21 21 21 22 22 23 22 22 22 21 20 21 21 21 20 22 22 23 21 22 23 22 23 23 24 25 25 28 28 28 29 30 30 31 31 32 32 33 34 33 33 33 33 34 34 35 34 34 38 36 36 37 37 38 37 38 39 38 42 45 44 45 45 45 45 44 44 45 45 45 49 49 50 51 50 51 50 48 50 48 48 48 46 51 48 52 54 56 55 56 55 55 55 55 55 56 58 58 59 0 0 0 0 0
    0 0 0 0 0 0 0 0 0 0 0 0 0 0 0 0 0 0 0 0 0 0 0 0 0 0 0 0 0 0 0 0 0 0 0 0 0 0 0 0 0 0 0 0 0 0 0 0 0 0 0 0 0 0 0 0 0 0 0 0 0 0 0 0 0 0 0 0 0 0 0 0 0 0 0 0 0 13 14 12 10 10 10 0 0 0 0 0 0 13 12 14 14 16 17 16 14 14 12 13 12 13 12 12 13 14 16 16 17 15 16 18 19 17 16 18 16 16 18 17 16 14 15 14 13 13 12 12 11 12 13 14 15 17 17 18 16 18 18 17 16 17 15 22 18 20 20 20 20 20 21 19 19 19 20 18 19 17 18 16 17 16 17 15 17 14 16 14 15 16 14 15 15 14 15 14 15 15 19 16 20 19 20 19 20 20 20 19 21 18 20 18 20 20 20 18 20 21 23 23 24 23 23 22 22 21 21 22 22 21 21 21 21 22 22 22 21 22 22 22 22 23 20 21 20 20 19 21 21 21 20 22 22 23 22 22 23 22 23 23 23 25 25 27 28 28 29 30 31 31 31 32 32 34 34 33 33 34 33 34 34 35 34 34 38 36 36 37 37 38 37 38 39 38 42 45 44 44 45 45 45 44 44 45 45 45 49 50 50 52 51 51 50 49 50 48 48 48 46 51 49 51 53 55 55 56 55 55 55 55 56 56 58 59 59 0 0 0 0 0
    0 0 0 0 0 0 0 0 0 0 0 0 0 0 0 0 0 0 0 0 0 0 0 0 0 0 0 0 0 0 0 0 0 0 0 0 0 0 0 0 0 0 0 0 0 0 0 0 0 0 0 0 0 0 0 0 0 0 0 0 0 0 0 0 0 0 0 0 0 0 0 0 0 0 0 11 11 15 18 15 12 12 13 11 9 9 0 10 11 14 12 13 15 16 16 16 14 14 12 14 12 13 12 12 13 14 16 17 18 16 17 19 19 19 18 20 17 17 18 17 16 14 14 13 12 13 12 14 12 14 14 16 16 18 17 18 16 18 17 18 15 17 14 22 17 21 21 21 20 20 21 20 20 18 20 17 19 17 18 17 17 16 17 15 17 13 16 14 16 15 14 14 15 15 16 14 15 15 19 17 20 19 20 19 20 20 20 19 20 17 19 18 19 20 20 19 20 21 23 22 23 22 22 21 21 21 20 21 21 20 21 20 21 22 22 23 22 23 23 22 23 23 20 21 20 20 19 21 21 21 20 23 22 23 22 22 23 22 22 23 23 25 25 27 28 28 29 30 31 31 31 33 32 34 34 33 34 34 34 34 34 35 34 34 38 36 36 37 37 38 38 39 39 38 42 46 44 44 45 45 45 44 44 45 45 45 50 51 51 52 51 52 51 49 50 49 48 49 47 51 50 51 53 55 55 56 55 55 55 56 56 56 -193 59 59 0 0 0 0 0
    0 0 0 0 0 0 0 0 0 0 0 0 0 0 0 0 0 0 0 0 0 0 0 0 0 0 0 0 0 0 0 0 0 0 0 0 0 0 0 0 0 0 0 0 0 0 0 0 0 0 0 0 0 0 0 0 0 0 0 0 0 0 0 0 0 0 0 0 0 -193 8 10 8 10 11 15 17 19 21 18 14 13 14 12 10 10 9 10 11 14 12 13 13 15 15 15 14 13 12 13 13 13 13 13 13 16 16 17 18 17 17 19 19 19 19 20 18 18 19 18 17 15 15 14 13 13 12 15 12 15 15 17 17 18 17 18 16 18 16 18 15 16 13 20 13 21 22 22 21 21 22 21 21 18 21 18 19 17 18 17 17 16 17 15 17 14 16 15 17 15 16 15 17 16 17 16 17 16 19 18 20 19 20 19 19 20 20 19 20 18 19 19 20 20 21 19 20 20 22 21 23 21 22 20 21 20 20 21 21 19 21 20 21 23 22 23 22 23 23 23 23 23 20 21 20 20 19 21 21 21 20 23 22 23 22 23 23 22 22 23 23 25 25 27 28 27 29 30 30 31 30 33 32 34 34 33 34 34 34 34 33 35 34 34 38 36 36 37 37 38 38 39 40 39 42 46 44 45 45 45 44 44 43 45 45 45 50 51 51 52 51 52 51 50 51 49 49 49 48 51 50 51 53 55 55 56 55 55 55 56 56 57 58 59 59 0 0 0 0 0
    0 0 0 0 0 0 0 0 0 0 0 0 0 0 0 0 0 0 0 0 0 0 0 0 0 0 0 0 0 0 0 0 0 0 0 0 0 0 0 0 0 0 0 0 0 0 0 0 0 0 0 0 0 0 0 0 0 0 0 0 0 0 0 0 0 0 0 0 0 -193 22 16 14 13 14 17 18 19 21 18 14 13 13 13 10 10 10 10 12 14 12 13 12 14 14 15 13 13 12 13 13 14 14 14 15 18 17 19 18 18 18 19 19 19 18 20 18 18 19 19 18 15 16 15 12 12 12 16 12 16 15 18 17 18 17 18 16 18 16 18 14 16 13 19 13 19 20 19 20 19 21 19 20 18 21 18 19 17 18 17 17 16 18 15 17 14 16 17 18 16 17 17 18 18 18 18 18 17 19 18 20 19 19 19 19 19 20 19 21 18 19 19 20 20 21 18 20 20 21 21 22 21 21 19 20 20 19 21 20 19 20 19 21 23 22 23 22 23 23 23 23 23 20 21 20 20 19 20 20 21 19 23 22 23 22 23 23 22 22 22 23 25 24 27 27 27 29 30 30 30 30 33 31 34 34 33 34 34 34 34 33 34 34 34 37 36 36 37 38 38 38 39 40 41 43 46 44 45 45 45 44 43 43 45 45 45 50 51 52 52 52 52 52 50 51 50 49 50 50 52 51 51 53 56 55 56 56 55 56 56 57 57 58 59 59 0 0 0 0 0
    0 0 0 0 0 0 0 0 0 0 0 0 0 0 0 0 0 0 0 0 0 0 0 0 0 0 0 0 0 0 0 0 0 0 0 0 0 0 0 0 0 0 0 0 0 0 0 0 0 0 0 0 0 0 0 0 0 0 0 0 0 0 0 0 0 0 0 0 0 29 26 24 18 14 15 18 20 20 21 19 15 14 13 13 11 11 10 11 12 13 12 12 12 13 13 14 13 13 12 13 13 15 15 16 16 19 18 18 18 18 18 18 18 18 16 19 17 18 19 18 17 15 15 14 11 11 12 16 13 17 15 18 16 18 17 17 16 18 16 18 15 17 15 18 16 18 19 18 19 18 19 18 20 18 20 17 19 17 18 17 18 16 18 15 17 15 16 17 19 17 18 18 18 18 18 19 19 17 19 18 20 20 19 19 19 19 20 19 21 18 19 20 20 20 21 18 19 19 21 20 21 20 21 19 20 20 20 21 21 19 21 19 21 23 22 23 22 23 23 23 22 23 20 22 20 20 19 20 20 21 19 22 21 23 22 23 23 22 22 22 23 25 25 27 27 27 28 30 30 30 30 33 31 34 34 33 34 34 34 34 34 34 34 34 37 36 37 38 38 39 39 40 40 41 43 45 44 44 45 44 44 43 42 45 46 46 50 52 52 53 52 53 52 50 51 50 49 50 51 52 51 51 53 56 56 57 56 56 56 57 58 58 58 59 59 0 0 0 0 0
    0 0 0 0 0 0 0 0 0 0 0 0 0 0 0 0 0 0 0 0 0 0 0 0 0 0 0 0 0 0 0 0 0 0 0 0 0 0 0 0 0 0 0 0 0 0 0 0 0 0 0 0 0 0 0 0 0 0 0 0 0 0 0 0 0 0 0 0 0 34 29 32 24 16 16 20 20 21 22 20 15 15 13 13 11 11 10 11 12 13 12 12 11 13 13 14 13 13 12 14 14 16 17 17 17 19 17 18 17 17 18 18 18 18 16 19 17 18 19 18 17 16 16 17 15 15 15 17 14 18 15 18 16 18 16 17 16 17 16 18 15 16 16 17 16 18 18 17 18 17 19 17 19 18 19 18 19 17 18 17 18 17 19 15 17 16 17 18 19 17 18 18 19 18 19 19 -193 18 20 19 19 20 19 18 19 19 20 19 21 18 19 20 20 20 21 18 19 18 20 20 21 20 21 18 20 20 20 21 20 19 21 20 21 23 22 23 22 23 22 22 22 23 20 22 19 20 19 20 20 21 20 22 21 23 22 23 23 22 22 22 23 25 25 28 27 27 29 30 30 31 29 33 31 34 34 33 34 34 34 34 33 34 34 34 37 36 37 38 38 39 39 40 41 42 43 45 44 44 44 44 44 43 42 45 46 46 50 52 52 53 52 53 52 51 51 50 50 51 51 52 51 50 53 56 56 57 57 56 57 57 58 58 59 60 59 0 0 0 0 0
    0 0 0 0 0 0 0 0 0 0 0 0 0 0 0 0 0 0 0 0 0 0 0 0 0 0 0 0 0 0 0 0 0 0 0 0 0 0 0 0 0 0 0 0 0 0 0 0 0 0 0 0 0 0 0 0 0 0 0 0 0 0 0 0 0 0 0 0 0 35 32 31 28 21 19 20 20 21 22 20 14 15 12 13 11 11 10 11 12 12 11 12 11 12 13 14 13 13 13 15 15 17 18 18 17 19 16 18 17 17 17 18 17 17 16 18 16 17 19 17 16 17 16 18 16 16 17 16 15 18 15 19 16 18 17 17 16 18 16 18 15 17 17 17 16 18 17 17 18 16 19 16 19 17 19 18 19 17 18 17 18 17 19 16 18 17 17 18 19 17 19 18 19 18 19 19 -193 18 20 19 20 21 20 18 19 19 20 19 21 18 19 20 20 20 21 18 19 18 20 19 21 20 20 18 20 19 20 21 20 19 21 21 22 23 22 23 22 23 22 22 22 23 20 22 19 20 19 20 21 21 20 22 21 23 22 23 24 22 22 22 23 25 25 28 27 27 29 30 30 31 29 33 30 34 33 33 34 34 34 34 33 34 34 34 37 36 37 38 38 39 39 40 41 42 43 44 43 43 44 44 43 43 41 45 47 46 50 52 52 52 52 53 52 50 51 50 50 51 51 52 51 51 53 56 56 57 57 57 57 58 59 59 58 60 59 0 0 0 0 0
    0 0 0 0 0 0 0 0 0 0 0 0 0 0 0 0 0 0 0 0 0 0 0 0 0 0 0 0 0 0 0 0 0 0 0 0 0 0 0 0 0 0 0 0 0 0 0 0 0 0 0 0 0 0 0 0 0 0 0 0 0 0 0 0 0 0 0 0 0 35 33 30 29 23 21 21 20 20 21 19 13 15 12 13 11 11 11 11 12 12 11 12 11 12 14 14 14 14 14 16 16 17 18 17 17 18 16 18 16 16 16 17 17 17 15 18 15 17 18 16 16 16 16 18 16 16 18 16 16 18 16 19 16 18 17 17 17 18 16 18 16 17 18 17 16 18 17 17 18 16 18 16 18 17 18 18 19 16 18 17 18 17 19 17 18 17 18 19 19 17 19 18 19 18 19 20 20 18 19 19 19 20 19 18 19 19 20 19 20 18 19 20 20 20 21 18 19 18 20 19 20 19 20 18 20 19 19 20 20 18 21 21 22 23 23 24 22 23 23 22 22 -193 20 22 19 20 20 20 21 21 20 22 21 24 23 23 24 23 23 22 23 25 25 28 27 27 29 30 30 31 29 32 30 33 33 33 34 33 33 34 33 34 34 34 37 36 37 38 38 39 40 40 41 43 43 43 43 43 44 44 43 43 41 45 48 45 49 52 51 52 52 52 51 50 51 50 49 51 52 52 51 51 53 55 56 57 57 -193 57 57 58 58 58 59 59 0 0 0 0 0
    0 0 0 0 0 0 0 0 0 0 0 0 0 0 0 0 0 0 0 0 0 0 0 0 0 0 0 0 0 0 0 0 0 0 0 0 0 0 0 0 0 0 0 0 0 0 0 0 0 0 0 0 0 0 0 0 0 0 0 0 0 0 0 0 0 0 0 0 0 35 33 30 28 25 23 22 20 19 20 18 13 16 13 14 12 11 11 12 12 13 12 13 12 13 15 15 14 15 14 17 16 16 18 16 16 18 15 18 15 16 16 16 17 16 15 18 15 17 18 16 16 17 16 18 16 17 18 16 17 18 16 19 15 17 17 16 17 18 16 18 16 18 19 17 17 19 17 17 18 16 18 16 18 17 17 17 19 16 18 17 19 18 20 17 18 17 18 19 19 17 19 18 19 19 19 19 20 18 19 19 19 20 19 17 18 18 19 19 20 18 19 19 20 19 21 18 20 18 20 19 20 19 20 17 19 19 19 20 20 18 21 22 22 23 23 24 22 23 -193 -193 22 -193 21 22 19 20 20 20 21 20 20 22 20 23 22 23 24 23 23 22 24 26 25 28 27 27 28 30 30 30 28 32 29 32 32 32 33 32 33 34 33 34 34 34 36 36 37 38 38 39 40 40 41 43 43 43 43 43 44 44 43 43 41 44 48 45 48 52 51 52 51 52 51 50 51 50 50 51 52 52 51 51 53 55 55 56 57 56 56 57 57 58 57 59 58 0 0 0 0 0
    0 0 0 0 0 0 0 0 0 0 0 0 0 0 0 0 0 0 0 0 0 0 0 0 0 0 0 0 0 0 0 0 0 0 0 0 0 0 0 0 0 0 0 0 0 0 0 0 0 0 0 0 0 0 0 0 0 0 0 0 0 0 0 0 0 0 0 0 0 35 34 31 29 25 24 22 20 18 18 17 14 15 13 14 12 11 11 12 12 13 12 13 13 13 16 15 14 16 14 17 16 16 18 15 16 17 15 18 15 16 16 16 17 16 15 17 15 16 18 16 16 16 16 18 16 17 18 16 17 18 16 19 15 17 17 16 17 19 17 18 17 18 19 17 17 18 17 16 18 16 18 15 17 17 17 17 19 16 17 17 19 18 20 17 18 17 18 19 19 17 19 18 18 19 19 19 20 18 19 18 18 20 19 17 18 18 19 19 20 18 20 20 20 19 21 19 20 18 20 19 20 19 19 17 19 19 19 20 20 19 22 23 22 23 23 24 22 23 -193 22 22 23 21 22 19 21 20 20 21 20 20 21 20 23 22 22 24 22 23 23 24 26 25 28 27 27 28 29 29 29 27 31 28 31 30 32 32 32 33 34 33 34 34 34 36 36 37 38 38 39 40 40 41 43 43 43 43 43 44 44 43 43 40 44 47 44 47 52 50 51 51 52 51 51 51 51 50 51 52 52 52 52 53 55 55 56 56 56 56 57 57 57 56 58 58 0 0 0 0 0
    0 0 0 0 0 0 0 0 0 0 0 0 0 0 0 0 0 0 0 0 0 0 0 0 0 0 0 0 0 0 0 0 0 0 0 0 0 0 0 0 0 0 0 0 0 0 0 0 0 0 0 0 0 0 0 0 0 0 0 0 0 0 0 0 0 0 0 0 0 36 34 29 23 20 20 17 17 15 15 16 13 14 13 14 13 12 12 13 13 14 13 14 13 14 17 15 14 17 14 17 16 16 18 15 16 17 15 17 15 15 16 16 17 16 15 17 14 16 18 15 16 16 16 18 16 17 18 15 17 17 15 19 15 17 17 16 17 19 17 18 17 18 19 17 18 18 17 16 18 16 18 15 17 17 17 17 19 15 18 17 19 18 20 17 18 17 18 19 19 17 19 18 18 19 20 20 20 19 19 19 19 20 19 17 19 18 19 20 21 19 20 20 20 20 21 19 20 18 19 18 20 18 19 17 19 19 19 20 21 19 22 23 23 23 23 23 22 22 -193 22 21 22 21 22 19 21 21 20 21 20 20 21 20 23 22 22 24 22 23 23 23 26 26 28 27 27 28 29 29 29 27 30 28 30 29 31 31 31 33 34 33 34 34 34 36 36 37 38 38 39 40 41 41 44 42 43 43 43 44 43 43 43 40 43 47 44 46 52 50 51 51 52 51 51 51 51 50 52 52 53 52 52 53 55 55 56 56 57 56 57 57 57 56 58 58 0 0 0 0 0
    0 0 0 0 0 0 0 0 0 0 0 0 0 0 0 0 0 0 0 0 0 0 0 0 0 0 0 0 0 0 0 0 0 0 0 0 0 0 0 0 0 0 0 0 0 0 0 0 0 0 0 0 0 0 0 0 0 0 0 0 0 0 0 0 0 0 0 0 0 34 28 24 18 15 18 15 16 14 13 15 12 14 12 13 13 12 12 14 13 15 13 15 14 14 17 16 14 17 14 17 16 16 17 14 16 16 14 17 14 15 16 15 17 16 15 16 14 16 18 15 15 16 16 18 16 17 18 15 17 18 16 19 15 17 17 16 17 19 17 18 17 19 19 17 18 18 17 17 18 16 18 16 17 16 16 17 19 15 18 17 19 19 20 18 18 17 18 19 19 17 19 18 18 19 20 20 20 20 19 19 19 20 20 18 19 18 19 20 21 19 20 20 21 20 21 19 20 18 20 18 20 18 19 16 19 19 19 20 21 20 22 23 23 23 23 23 22 22 22 22 21 22 21 22 19 21 21 21 21 20 21 21 20 23 22 22 24 22 23 23 23 27 26 28 27 27 28 29 29 29 27 29 27 30 28 30 30 30 32 34 33 34 34 34 36 36 37 38 38 39 40 41 41 43 42 42 43 43 43 43 43 43 40 43 47 43 46 52 49 50 50 51 51 50 51 51 50 52 52 53 52 52 53 55 55 56 56 56 56 57 57 58 57 59 59 0 0 0 0 0
    0 0 0 0 0 0 0 0 0 0 0 0 0 0 0 0 0 0 0 0 0 0 0 0 0 0 0 0 0 0 0 0 0 0 0 0 0 0 0 0 0 0 0 0 0 0 0 0 0 0 0 0 0 0 0 0 0 0 0 0 0 0 0 0 0 0 0 0 0 29 22 21 15 13 16 13 14 14 13 14 11 13 12 13 12 12 12 14 13 15 14 15 14 15 18 16 14 18 14 17 16 15 17 14 16 16 14 17 14 15 16 15 17 16 15 16 15 16 18 15 16 16 16 18 16 17 18 16 17 18 16 19 14 17 17 16 17 19 17 18 17 19 19 16 18 18 17 17 19 16 18 16 17 16 16 16 19 15 18 17 19 19 20 18 18 17 18 19 19 16 19 17 18 19 20 20 21 20 20 19 20 21 20 18 20 18 19 21 21 20 21 20 21 20 22 19 20 19 20 18 21 18 18 16 19 18 19 20 21 20 23 24 23 23 23 23 22 21 21 21 21 21 22 22 20 22 22 21 21 21 21 21 21 23 21 22 23 22 23 23 23 27 26 28 27 28 28 29 29 29 27 29 27 29 28 29 30 30 32 34 32 34 34 34 36 36 37 38 38 39 40 40 41 43 42 42 42 42 43 42 42 42 40 42 46 43 46 51 49 49 50 50 50 50 51 51 50 52 53 53 53 53 53 54 55 55 56 56 55 56 56 57 57 59 59 0 0 0 0 0
    0 0 0 0 0 0 0 0 0 0 0 0 0 0 0 0 0 0 0 0 0 0 0 0 0 0 0 0 0 0 0 0 0 0 0 0 0 0 0 0 0 0 0 0 0 0 0 0 0 0 0 0 0 0 0 0 0 0 0 0 0 0 0 0 0 0 0 0 0 24 17 18 14 12 15 12 13 14 12 14 12 13 13 13 13 12 12 14 13 16 14 15 14 15 18 16 14 18 15 17 16 15 17 14 16 16 14 17 14 15 16 15 17 16 15 16 15 16 18 16 16 16 17 18 16 17 18 16 17 18 16 19 14 17 18 16 17 19 17 18 17 19 19 16 18 18 17 17 19 16 18 16 17 16 17 16 19 15 18 17 19 19 20 18 18 17 18 19 18 16 19 17 18 19 20 20 21 21 20 20 20 20 20 18 20 18 19 21 21 20 21 20 21 20 22 20 21 19 20 19 21 18 18 16 19 18 19 20 20 20 22 23 23 22 23 23 22 22 22 21 21 21 22 21 20 22 22 20 22 21 21 21 21 23 22 22 24 22 22 23 23 27 26 29 27 28 28 29 29 29 27 29 28 29 28 29 30 29 31 33 32 33 34 34 36 36 37 38 38 39 40 40 41 42 42 42 42 42 42 42 42 42 39 42 46 43 45 51 48 49 49 50 49 49 50 50 50 52 52 53 53 53 53 54 54 54 55 55 55 56 56 56 56 59 58 0 0 0 0 0
    0 0 0 0 0 0 0 0 0 0 0 0 0 0 0 0 0 0 0 0 0 0 0 0 0 0 0 0 0 0 0 0 0 0 0 0 0 0 0 0 0 0 0 0 0 0 0 0 0 0 0 0 0 0 0 0 0 0 0 0 0 0 0 0 0 0 0 0 0 20 13 15 13 12 14 12 13 13 12 14 12 13 13 13 13 12 12 14 13 16 14 16 15 15 18 16 15 17 14 17 16 15 17 14 15 16 14 17 14 15 16 15 17 15 16 16 15 16 18 16 16 16 17 18 16 17 18 16 17 18 16 19 14 18 18 17 17 19 17 18 17 19 19 16 19 18 17 17 19 17 18 16 17 16 17 16 19 15 18 16 19 19 20 17 18 16 18 19 18 16 19 17 18 19 20 20 20 21 20 19 20 20 20 19 20 18 19 21 21 20 22 20 21 20 22 20 21 19 20 19 21 18 19 17 19 19 19 21 21 20 22 23 22 22 22 23 22 22 22 21 21 22 22 21 20 22 22 20 22 22 21 22 22 23 22 22 24 22 22 23 23 27 26 28 -193 28 28 29 29 29 27 29 28 30 28 29 29 29 31 32 32 32 33 34 37 36 37 38 37 38 40 40 40 41 41 42 42 42 42 41 42 41 40 41 46 43 45 51 48 48 49 49 49 49 50 50 50 52 52 53 53 53 53 54 54 54 55 55 54 55 55 56 56 58 58 0 0 0 0 0
    0 0 0 0 0 0 0 0 0 0 0 0 0 0 0 0 0 0 0 0 0 0 0 0 0 0 0 0 0 0 0 0 0 0 0 0 0 0 0 0 0 0 0 0 0 0 0 0 0 0 0 0 0 0 0 0 0 0 0 0 0 0 0 0 0 0 0 0 0 17 12 14 13 12 14 12 13 13 13 14 12 13 13 13 13 12 13 15 13 17 14 16 15 15 18 16 15 17 14 17 15 15 16 14 15 16 14 17 13 15 16 14 17 15 15 16 15 16 18 16 16 16 17 18 16 17 18 17 17 19 16 19 15 18 18 17 17 19 16 18 17 19 18 16 19 18 18 18 19 17 18 17 18 16 18 16 19 15 18 16 19 18 20 17 18 16 19 19 17 16 19 17 18 19 20 20 20 21 20 19 20 20 20 19 20 18 19 20 21 20 21 20 21 20 22 20 21 19 20 19 21 19 19 17 20 20 20 21 21 21 22 23 22 22 22 22 21 22 22 21 21 22 22 21 20 22 22 20 23 22 21 21 22 23 21 21 23 22 22 22 23 26 26 28 -193 28 28 29 29 29 28 29 28 30 28 29 29 29 31 31 32 32 33 34 37 36 37 37 37 38 40 39 40 40 41 41 41 41 41 41 41 41 40 42 46 44 46 51 49 49 49 49 49 49 49 50 50 52 52 53 53 53 53 54 54 54 55 55 54 55 55 56 56 59 58 0 0 0 0 0
    0 0 0 0 0 0 0 0 0 0 0 0 0 0 0 0 0 0 0 0 0 0 0 0 0 0 0 0 0 0 0 0 0 0 0 0 0 0 0 0 0 0 0 0 0 0 0 0 0 0 0 0 0 0 0 0 0 0 0 0 0 0 0 0 0 0 0 0 0 15 12 13 13 12 14 12 13 13 13 14 12 13 13 13 13 13 13 15 13 17 14 16 16 15 18 16 15 17 14 16 15 14 16 14 15 16 14 16 14 15 16 14 17 15 16 16 16 16 17 16 17 17 17 18 17 17 18 17 17 19 16 19 15 18 18 17 17 18 16 18 16 19 18 16 19 18 18 18 20 17 17 17 18 16 18 16 19 15 18 17 18 18 20 16 18 16 19 19 17 16 19 17 18 20 20 20 20 21 20 19 20 20 20 19 20 18 19 20 21 19 21 20 21 20 22 20 21 19 21 20 22 20 20 19 21 21 21 22 21 21 22 22 22 21 21 22 21 21 22 21 21 21 21 21 20 21 22 19 23 22 20 21 23 23 21 21 23 21 21 22 23 25 25 27 26 28 27 29 29 29 28 29 29 30 28 30 29 29 31 31 33 31 33 34 37 36 37 37 37 38 40 39 40 40 41 41 41 41 41 41 41 41 41 43 47 46 47 51 49 49 49 49 49 49 49 50 50 52 52 53 53 53 53 54 54 54 55 55 54 55 55 56 56 59 59 0 0 0 0 0
    0 0 0 0 0 0 0 0 0 0 0 0 0 0 0 0 0 0 0 0 0 0 0 0 0 0 0 0 0 0 0 0 0 0 0 0 0 0 0 0 0 0 0 0 0 0 0 0 0 0 0 0 0 0 0 0 0 0 0 0 0 0 0 0 0 0 0 0 0 15 12 13 13 12 14 12 13 13 12 14 12 14 13 13 13 13 13 15 13 18 15 16 16 16 18 16 15 17 14 16 15 14 16 14 15 16 15 17 14 16 17 14 17 16 16 16 16 16 17 16 17 17 18 18 17 17 18 17 17 20 16 19 16 18 18 17 17 18 15 17 16 19 17 16 19 17 17 18 20 17 17 18 18 15 19 16 19 15 18 17 18 18 20 16 18 16 18 19 17 16 19 17 18 19 20 20 20 21 20 19 20 20 20 19 20 18 19 21 21 19 22 20 21 20 22 21 21 20 21 20 22 20 21 20 22 21 21 22 21 21 21 21 21 21 21 21 20 21 21 20 21 21 21 20 20 21 22 19 23 23 20 23 24 23 21 21 23 22 21 22 23 24 25 27 26 28 27 29 29 29 29 29 29 30 29 30 29 30 31 31 33 31 34 34 37 36 37 37 37 38 40 39 39 39 41 41 41 40 40 41 41 41 43 44 48 47 48 51 49 49 50 49 49 49 49 51 50 52 52 53 53 53 53 54 54 54 55 55 55 56 56 56 56 59 59 0 0 0 0 0
    0 0 0 0 0 0 0 0 0 0 0 0 0 0 0 0 0 0 0 0 0 0 0 0 0 0 0 0 0 0 0 0 0 0 0 0 0 0 0 0 0 0 0 0 0 0 0 0 0 0 0 0 0 0 0 0 0 0 0 0 0 0 0 0 0 0 0 0 0 14 12 13 13 12 14 12 13 13 12 14 12 14 13 13 14 13 14 15 13 18 15 16 16 16 17 16 16 16 14 16 15 14 16 14 14 16 15 17 14 16 17 15 17 16 16 16 16 17 17 17 17 17 18 18 17 16 18 17 17 20 16 19 16 18 18 17 17 18 15 18 16 19 16 16 19 17 17 18 20 17 16 18 18 15 19 16 18 15 18 17 18 18 19 16 18 16 18 19 18 17 19 17 18 20 20 20 20 21 20 20 21 20 20 19 20 18 19 20 21 19 22 20 21 20 22 21 21 20 21 21 22 21 21 21 22 22 21 22 21 21 21 21 21 20 20 21 20 21 21 20 21 21 21 20 20 21 22 19 23 23 20 23 24 24 22 21 23 22 22 22 23 24 25 26 26 28 28 30 29 29 29 29 30 30 29 30 29 30 30 31 33 31 34 34 38 36 37 37 37 38 40 39 39 38 40 41 41 39 39 40 41 41 44 45 48 48 49 51 49 49 50 49 50 49 49 51 50 52 52 53 53 53 53 54 54 54 55 55 55 56 56 56 57 59 59 0 0 0 0 0
    0 0 0 0 0 0 0 0 0 0 0 0 0 0 0 0 0 0 0 0 0 0 0 0 0 0 0 0 0 0 0 0 0 0 0 0 0 0 0 0 0 0 0 0 0 0 0 0 0 0 0 0 0 0 0 0 0 0 0 0 0 0 0 0 0 0 0 0 0 15 12 14 14 13 15 12 14 13 12 15 13 14 14 13 14 14 14 15 13 18 14 16 16 16 17 15 16 16 14 16 15 14 16 14 15 16 15 17 14 16 17 15 17 16 16 16 16 17 17 17 17 17 18 18 18 16 19 18 17 20 16 19 16 18 18 17 17 18 15 18 16 18 16 16 18 17 17 18 20 17 16 18 18 15 19 16 18 15 18 17 17 18 19 16 18 16 18 19 18 18 20 18 18 20 21 20 20 22 21 20 21 20 20 19 20 18 19 20 20 18 21 20 20 20 22 21 21 20 21 21 22 21 22 21 22 22 21 22 21 21 21 21 21 20 20 21 20 21 21 20 21 21 21 20 20 21 21 18 23 23 19 22 23 24 22 21 23 22 22 23 23 24 25 26 26 28 28 30 29 30 30 30 30 31 30 30 30 30 30 31 34 31 34 34 38 36 37 37 38 38 39 39 39 38 40 41 40 39 39 40 41 41 45 45 48 48 48 51 49 49 49 49 50 49 50 51 50 52 52 53 52 52 53 53 54 54 55 55 55 56 56 56 57 59 59 0 0 0 0 0
    0 0 0 0 0 0 0 0 0 0 0 0 0 0 0 0 0 0 0 0 0 0 0 0 0 0 0 0 0 0 0 0 0 0 0 0 0 0 0 0 0 0 0 0 0 0 0 0 0 0 0 0 0 0 0 0 0 0 0 0 0 0 0 0 0 0 0 0 0 16 13 14 14 14 15 13 14 13 12 15 13 15 14 13 14 14 15 14 13 18 14 16 17 16 17 15 16 16 14 17 15 14 17 15 15 17 16 17 14 17 17 14 18 16 16 16 16 17 17 17 17 17 18 19 18 17 19 18 17 20 16 18 17 18 18 17 17 18 15 18 16 18 17 16 19 17 16 17 19 17 16 18 18 15 19 16 18 16 18 17 17 17 19 16 18 17 18 20 19 18 20 18 18 20 20 20 20 21 21 20 21 20 19 19 19 18 18 19 20 16 21 19 19 19 22 21 21 20 21 21 22 22 23 22 23 23 22 22 21 22 22 21 21 20 20 21 20 21 22 20 21 21 21 21 20 21 21 18 24 23 20 24 25 25 22 22 23 22 22 23 23 24 24 26 26 28 28 30 29 30 30 30 31 31 30 30 30 30 30 31 33 30 33 34 38 36 36 37 38 38 39 39 39 38 41 41 41 39 39 40 41 42 46 45 48 49 48 50 49 49 49 49 50 49 50 51 50 52 51 53 52 52 53 53 54 54 55 55 54 55 56 56 57 58 59 0 0 0 0 0
    0 0 0 0 0 0 0 0 0 0 0 0 0 0 0 0 0 0 0 0 0 0 0 0 0 0 0 0 0 0 0 0 0 0 0 0 0 0 0 0 0 0 0 0 0 0 0 0 0 0 0 0 0 0 0 0 0 0 0 0 0 0 0 0 0 0 0 0 0 16 13 14 15 14 15 13 14 13 13 15 14 15 14 14 15 14 15 14 13 18 13 16 17 16 16 15 17 16 13 17 15 14 17 15 14 17 16 17 14 17 17 14 18 16 15 16 17 17 17 17 17 17 18 18 18 17 19 18 17 20 16 18 17 18 18 16 17 18 15 19 16 18 17 17 18 18 16 17 19 17 17 18 18 16 19 17 18 16 18 17 16 17 19 16 18 17 18 20 19 19 20 18 19 20 20 19 20 21 21 20 21 19 19 19 19 18 18 18 19 15 20 19 18 19 21 21 21 21 22 22 22 23 23 23 23 23 22 23 22 22 22 21 20 20 20 21 19 21 22 19 21 21 21 21 20 21 21 18 23 23 22 25 25 26 23 23 24 23 23 23 23 23 24 26 26 27 27 30 29 30 31 30 31 31 30 31 30 30 31 31 33 30 33 34 38 36 36 37 38 38 39 39 39 38 41 41 41 39 40 41 43 43 46 45 48 49 48 50 49 49 49 49 50 49 50 51 50 52 51 53 52 52 53 53 54 54 55 55 54 55 56 56 57 58 59 0 0 0 0 0
    0 0 0 0 0 0 0 0 0 0 0 0 0 0 0 0 0 0 0 0 0 0 0 0 0 0 0 0 0 0 0 0 0 0 0 0 0 0 0 0 0 0 0 0 0 0 0 0 0 0 0 0 0 0 0 0 0 0 0 0 0 0 0 0 0 0 0 0 0 16 13 14 15 15 16 14 15 13 13 15 14 16 14 14 15 15 16 14 14 18 13 16 17 16 16 15 17 15 13 17 15 14 17 15 15 17 16 17 14 17 17 14 18 16 15 16 17 17 17 17 17 16 18 18 18 17 20 18 18 20 16 19 17 18 18 16 18 18 15 19 16 17 17 16 18 18 16 17 19 17 17 19 18 16 19 17 18 16 18 17 16 17 19 16 19 18 19 21 19 19 20 19 19 20 20 19 19 21 22 20 22 20 19 20 19 19 18 17 19 14 19 19 16 18 20 21 20 21 22 22 22 23 23 23 23 23 23 23 22 22 22 21 20 20 20 20 19 20 21 18 21 21 21 21 20 21 21 19 23 23 23 25 26 27 24 23 24 23 23 23 23 23 24 25 25 27 27 29 29 30 31 30 32 32 31 31 30 31 31 31 34 30 32 33 37 35 35 36 38 38 39 39 39 39 41 42 42 39 40 42 44 44 46 45 48 49 48 50 49 48 49 49 50 49 50 51 51 53 52 53 53 53 53 53 54 54 55 55 55 55 56 56 57 58 -193 0 0 0 0 0
    0 0 0 0 0 0 0 0 0 0 0 0 0 0 0 0 0 0 0 0 0 0 0 0 0 0 0 0 0 0 0 0 0 0 0 0 0 0 0 0 0 0 0 0 0 0 0 0 0 0 0 0 0 0 0 0 0 0 0 0 0 0 0 0 0 0 0 0 0 16 13 14 15 16 16 14 15 13 13 15 14 16 14 14 15 15 16 14 14 18 13 16 17 16 16 15 17 15 13 18 16 14 17 15 15 17 16 17 14 16 17 14 18 16 15 16 16 17 16 17 17 16 18 18 18 17 20 18 18 20 17 19 18 18 18 16 18 18 15 19 16 17 17 16 17 18 16 17 18 17 17 19 18 17 19 17 18 17 18 17 16 18 19 16 19 19 19 21 20 20 20 19 19 20 20 18 19 21 23 21 22 20 19 21 20 19 18 16 18 13 17 17 13 16 19 20 20 21 22 22 22 22 23 23 23 23 22 22 22 22 22 21 20 20 20 20 19 20 21 18 21 21 21 21 20 21 21 20 22 22 23 25 26 28 24 23 24 23 23 23 23 24 25 26 26 27 27 29 29 30 32 30 32 32 31 31 31 31 31 31 33 30 32 33 37 35 35 36 38 38 39 39 40 39 41 42 42 40 41 43 45 44 46 45 48 49 48 50 49 48 49 49 50 49 51 51 51 53 52 53 53 53 54 53 54 54 55 55 55 55 -193 -193 57 58 -193 0 0 0 0 0
    0 0 0 0 0 0 0 0 0 0 0 0 0 0 0 0 0 0 0 0 0 0 0 0 0 0 0 0 0 0 0 0 0 0 0 0 0 0 0 0 0 0 0 0 0 0 0 0 0 0 0 0 0 0 0 0 0 0 0 0 0 0 0 0 0 0 0 0 0 15 13 13 14 15 16 14 15 13 13 15 14 17 14 14 15 15 16 14 15 18 13 15 16 16 16 15 17 15 14 18 16 14 17 15 15 17 16 17 14 16 16 14 18 16 15 16 16 17 17 17 17 16 18 18 18 18 21 18 18 20 17 19 18 18 18 16 18 18 15 20 16 16 18 15 17 18 16 17 17 18 18 19 18 17 19 17 17 17 18 17 16 18 19 16 19 20 19 21 21 20 20 19 19 20 19 17 19 20 23 21 23 20 20 21 20 19 18 16 18 13 17 17 12 14 19 20 20 21 22 22 22 22 22 23 22 22 21 22 22 22 22 21 20 21 20 20 19 19 20 16 20 20 20 20 20 21 21 21 22 22 24 25 27 27 24 24 24 24 24 24 24 24 25 26 26 27 27 29 29 30 32 30 32 33 32 31 31 32 32 31 33 31 31 33 36 35 35 36 39 39 39 39 40 40 42 42 42 40 41 43 45 43 45 45 48 49 47 49 48 48 48 48 50 49 51 51 51 53 52 53 53 53 54 53 54 54 55 55 55 -193 -193 -193 -193 58 -193 0 0 0 0 0
    0 0 0 0 0 0 0 0 0 0 0 0 0 0 0 0 0 0 0 0 0 0 0 0 0 0 0 0 0 0 0 0 0 0 0 0 0 0 0 0 0 0 0 0 0 0 0 0 0 0 0 0 0 0 0 0 0 0 0 0 0 0 0 0 0 0 0 0 0 14 12 13 13 15 16 14 15 13 13 15 14 17 15 15 16 15 16 14 15 17 13 15 16 16 15 15 17 15 13 18 16 14 17 16 15 17 16 17 14 16 16 14 18 16 15 17 16 17 17 17 17 16 19 18 18 18 21 18 18 20 17 19 18 17 18 16 18 18 15 20 16 16 18 15 16 18 17 16 17 18 18 19 18 17 20 17 17 18 18 17 16 18 19 16 20 20 19 21 21 20 20 19 18 20 18 17 19 21 24 21 23 20 21 21 20 19 19 16 18 13 17 17 13 14 18 19 19 21 22 21 22 21 21 22 21 21 21 21 22 22 23 21 21 21 21 21 19 19 19 14 18 18 19 19 19 21 21 23 23 23 24 24 26 25 25 24 24 25 24 25 25 25 26 26 27 28 27 29 29 31 32 30 32 33 32 31 31 32 32 31 33 31 31 33 36 35 34 36 39 39 39 39 40 40 41 42 42 40 41 43 45 43 45 45 47 48 47 49 48 47 48 48 50 50 51 51 52 53 52 54 53 53 53 53 54 54 54 55 55 -193 -193 -177 -193 57 59 0 0 0 0 0
    0 0 0 0 0 0 0 0 0 0 0 0 0 0 0 0 0 0 0 0 0 0 0 0 0 0 0 0 0 0 0 0 0 0 0 0 0 0 0 0 0 0 0 0 0 0 0 0 0 0 0 0 0 0 0 0 0 0 0 0 0 0 0 0 0 0 0 0 0 13 12 12 12 14 16 14 15 13 14 15 14 18 15 15 16 16 16 14 15 17 13 14 15 15 14 15 16 15 13 19 16 15 17 16 16 18 16 17 14 16 16 14 18 16 15 17 16 17 17 17 17 15 19 18 18 19 22 18 18 21 17 19 18 17 18 16 18 18 15 20 15 15 18 15 16 18 17 16 17 18 19 19 19 18 20 18 18 18 18 17 16 18 19 15 20 21 19 22 21 21 21 20 20 21 19 19 20 21 25 21 23 21 21 21 20 19 19 16 19 14 17 17 14 15 19 18 19 19 20 20 21 20 20 21 20 21 21 21 22 22 23 22 21 22 21 21 20 19 18 15 18 18 19 19 19 21 22 23 24 24 24 23 25 25 25 24 24 25 25 25 25 25 26 26 27 28 27 29 28 30 32 30 32 33 32 32 32 32 32 31 33 32 31 33 36 35 34 35 39 39 39 39 40 40 41 42 42 41 42 43 45 44 45 45 47 48 47 48 48 47 48 48 50 50 51 51 52 54 53 54 53 53 53 52 54 53 54 55 55 -193 -193 658 -193 -193 58 0 0 0 0 0
    0 0 0 0 0 0 0 0 0 0 0 0 0 0 0 0 0 0 0 0 0 0 0 0 0 0 0 0 0 0 0 0 0 0 0 0 0 0 0 0 0 0 0 0 0 0 0 0 0 0 0 0 0 0 0 0 0 0 0 0 0 0 0 0 0 0 0 0 0 13 12 12 12 14 16 14 15 13 15 15 14 18 16 15 17 16 16 14 16 17 13 14 15 14 14 15 16 15 13 19 16 15 17 16 16 18 16 16 14 16 16 14 17 16 14 17 17 17 17 17 18 15 19 18 18 20 22 18 18 21 17 19 18 17 18 16 18 18 15 20 16 16 18 16 16 18 17 17 16 19 20 20 19 19 21 18 18 19 18 18 17 19 19 15 20 21 20 22 21 20 20 20 20 20 19 19 20 20 24 20 22 20 20 21 20 19 19 16 19 15 18 18 15 16 19 18 19 18 20 19 20 19 19 20 20 20 20 21 22 21 23 22 22 22 21 22 20 19 18 15 18 18 19 20 20 21 22 24 24 24 25 23 25 25 26 24 24 25 25 25 25 25 26 26 27 28 27 28 28 30 32 29 31 33 32 32 32 33 33 31 33 32 31 33 36 35 34 35 39 39 39 39 40 41 41 42 43 41 42 43 45 44 45 45 47 48 47 48 48 46 48 49 50 50 51 51 52 54 53 54 54 53 53 53 54 53 54 55 -193 -193 -209 -193 -209 57 58 0 0 0 0 0
    0 0 0 0 0 0 0 0 0 0 0 0 0 0 0 0 0 0 0 0 0 0 0 0 0 0 0 0 0 0 0 0 0 0 0 0 0 0 0 0 0 0 0 0 0 0 0 0 0 0 0 0 0 0 0 0 0 0 0 0 0 0 0 0 0 0 0 0 0 12 11 11 11 13 15 14 14 13 16 14 14 19 16 15 17 16 15 14 16 17 13 13 15 14 14 15 16 15 13 19 16 15 17 16 16 18 15 16 14 16 15 14 17 15 14 17 17 17 17 17 17 16 20 18 19 21 23 19 18 21 17 19 18 17 18 16 18 18 15 20 16 17 18 16 16 18 18 18 17 19 20 20 19 19 21 18 18 19 18 18 17 19 19 15 20 21 19 21 20 19 19 19 20 20 18 19 20 20 23 20 22 20 20 21 20 19 19 17 20 16 19 19 16 17 19 17 18 18 19 18 20 19 19 19 20 20 20 21 22 21 23 22 22 23 21 22 19 19 18 16 18 18 20 21 20 22 22 24 25 24 25 23 25 24 25 24 24 24 25 24 26 25 27 27 27 28 27 28 28 29 31 29 30 33 32 32 31 33 33 31 33 33 31 33 35 35 34 35 40 39 39 39 40 41 41 42 43 41 42 43 45 44 45 45 46 47 47 48 48 46 48 49 50 50 50 51 52 53 53 54 54 53 53 53 54 53 54 55 -193 -193 -209 -193 -193 -193 58 0 0 0 0 0
    0 0 0 0 0 0 0 0 0 0 0 0 0 0 0 0 0 0 0 0 0 0 0 0 0 0 0 0 0 0 0 0 0 0 0 0 0 0 0 0 0 0 0 0 0 0 0 0 0 0 0 0 0 0 0 0 0 0 0 0 0 0 0 0 0 0 0 0 0 12 11 10 10 12 14 14 13 13 17 14 14 19 16 16 17 16 15 14 16 17 13 14 15 14 14 15 16 15 13 19 16 15 17 16 16 18 15 16 14 16 15 14 16 15 14 17 17 16 16 17 17 16 19 17 18 20 22 18 18 21 17 18 18 17 17 16 18 18 15 19 16 17 18 17 17 18 19 19 18 20 20 20 19 20 21 18 18 19 18 18 18 19 19 15 21 21 19 21 20 19 19 19 20 20 19 20 20 21 23 20 21 20 20 21 20 19 20 18 20 16 20 19 16 18 19 17 18 17 19 18 20 18 19 19 20 20 20 21 21 21 23 22 22 23 21 22 20 19 18 17 18 19 20 21 20 22 22 24 25 24 24 22 24 24 25 24 24 24 25 25 26 25 26 26 27 27 26 27 27 28 30 28 29 33 31 31 31 33 33 31 33 33 31 34 35 35 33 35 40 39 39 40 40 41 41 42 43 41 42 43 45 44 44 45 46 47 46 47 47 46 48 48 49 49 50 51 52 53 52 54 54 53 53 52 54 53 54 55 -193 -193 -209 -193 -193 -193 58 0 0 0 0 0
    0 0 0 0 0 0 0 0 0 0 0 0 0 0 0 0 0 0 0 0 0 0 0 0 0 0 0 0 0 0 0 0 0 0 0 0 0 0 0 0 0 0 0 0 0 0 0 0 0 0 0 0 0 0 0 0 0 0 0 0 0 0 0 0 0 0 0 0 0 12 10 9 9 12 14 14 12 13 19 14 14 19 17 16 16 16 16 14 16 17 13 13 15 14 13 15 16 15 13 18 16 15 17 16 17 17 14 16 15 16 15 15 16 15 14 18 16 17 16 17 16 17 18 17 17 19 20 18 17 20 17 18 18 17 17 16 18 17 14 19 16 16 18 16 16 17 18 18 18 19 20 20 19 19 21 18 18 19 18 18 18 19 20 16 20 20 19 21 19 19 19 19 20 20 19 20 21 21 22 21 21 20 20 21 20 19 20 18 20 17 20 19 17 18 19 17 18 17 19 18 20 18 19 19 20 20 20 21 21 21 23 22 22 24 22 23 20 20 18 17 18 19 20 21 20 22 22 24 24 24 24 22 24 24 25 24 24 25 25 25 26 25 26 26 27 27 26 27 26 27 29 28 29 32 31 32 32 34 33 31 33 33 31 34 35 35 33 35 40 40 39 40 41 41 42 42 43 41 42 43 45 43 44 44 45 47 46 47 47 45 47 48 49 49 49 51 52 53 52 53 53 52 53 52 53 53 54 55 55 55 56 55 56 -193 58 0 0 0 0 0
    0 0 0 0 0 0 0 0 0 0 0 0 0 0 0 0 0 0 0 0 0 0 0 0 0 0 0 0 0 0 0 0 0 0 0 0 0 0 0 0 0 0 0 0 0 0 0 0 0 0 0 0 0 0 0 0 0 0 0 0 0 0 0 0 0 0 0 0 0 14 10 9 9 11 14 14 12 14 20 15 14 20 17 16 16 17 15 14 16 17 13 13 15 14 14 15 16 16 14 18 16 15 16 15 17 17 14 16 15 16 15 15 16 14 15 18 16 17 16 16 16 18 17 17 17 18 19 17 17 19 16 18 18 17 17 16 17 17 14 18 16 15 18 16 16 17 18 18 18 18 19 19 19 19 20 18 19 18 18 18 18 19 20 16 20 20 19 21 20 20 20 19 20 20 20 21 21 21 22 21 21 20 20 20 19 19 20 19 20 18 20 19 18 18 19 17 18 17 19 18 20 19 20 19 20 20 20 21 22 21 23 23 23 24 22 22 20 20 19 18 18 19 20 21 20 22 22 23 24 24 24 22 23 23 25 24 24 24 24 25 26 26 26 26 26 27 26 27 26 27 28 28 28 32 31 32 32 34 33 31 33 34 32 34 36 35 33 35 40 40 39 40 41 41 42 42 43 42 43 43 44 44 44 44 45 47 46 46 47 45 47 48 48 49 48 51 52 53 52 53 53 52 53 52 53 52 54 55 55 55 56 55 56 57 58 0 0 0 0 0
    0 0 0 0 0 0 0 0 0 0 0 0 0 0 0 0 0 0 0 0 0 0 0 0 0 0 0 0 0 0 0 0 0 0 0 0 0 0 0 0 0 0 0 0 0 0 0 0 0 0 0 0 0 0 0 0 0 0 0 0 0 0 0 0 0 0 0 0 0 17 12 10 10 11 14 14 12 14 19 16 15 20 17 16 17 17 16 14 16 17 13 14 16 14 14 15 16 16 14 18 16 15 16 15 18 17 14 16 15 16 16 16 16 14 15 18 16 18 17 17 17 18 18 18 16 19 18 17 17 19 16 18 17 17 16 15 17 16 14 17 15 15 17 16 16 16 18 18 18 18 19 18 19 19 20 18 19 18 18 18 18 19 20 17 20 20 19 21 20 20 21 20 20 20 20 22 21 21 22 20 21 20 20 20 19 19 20 19 20 18 20 19 18 18 20 17 18 17 19 18 20 19 20 19 21 20 20 21 22 21 23 23 22 23 22 22 20 20 19 18 18 19 20 21 20 22 22 23 -193 24 24 22 23 23 24 24 24 24 24 24 25 26 26 26 26 27 26 27 26 28 28 28 28 31 31 31 32 34 33 32 34 34 32 34 36 36 34 35 40 39 39 40 41 41 42 42 43 42 43 43 44 44 44 45 45 47 46 46 47 46 47 47 48 50 48 50 52 52 51 53 53 52 52 52 53 52 53 55 55 54 56 56 57 57 58 0 0 0 0 0
    0 0 0 0 0 0 0 0 0 0 0 0 0 0 0 0 0 0 0 0 0 0 0 0 0 0 0 0 0 0 0 0 0 0 0 0 0 0 0 0 0 0 0 0 0 0 0 0 0 0 0 0 0 0 0 0 0 0 0 0 0 0 0 0 0 0 0 0 0 20 15 12 11 12 14 14 14 14 17 15 15 19 16 15 17 16 15 14 16 16 13 15 16 14 15 15 16 16 14 18 15 15 16 15 18 17 14 17 15 16 17 16 17 15 15 18 16 18 17 16 18 18 18 19 16 18 18 17 17 18 16 18 17 17 16 15 17 16 14 16 15 14 17 15 16 16 17 17 18 17 19 18 19 19 20 18 19 18 18 18 17 18 19 17 20 19 19 21 20 20 21 20 20 21 21 22 21 21 22 21 21 21 20 20 19 20 20 19 20 18 20 19 18 19 20 17 18 17 19 18 20 19 20 19 21 20 21 21 22 21 23 22 22 23 21 22 20 19 19 19 18 20 20 21 21 22 23 23 -193 -193 -193 22 23 23 24 23 24 24 24 24 25 26 26 25 26 26 25 26 26 28 27 27 28 30 30 31 32 34 32 32 34 35 32 34 36 36 34 36 39 39 39 40 40 41 42 43 43 42 43 43 44 44 44 45 45 47 46 46 47 46 47 47 48 50 47 50 51 52 51 53 53 52 52 52 53 52 53 55 55 55 57 56 57 57 58 0 0 0 0 0
    0 0 0 0 0 0 0 0 0 0 0 0 0 0 0 0 0 0 0 0 0 0 0 0 0 0 0 0 0 0 0 0 0 0 0 0 0 0 0 0 0 0 0 0 0 0 0 0 0 0 0 0 0 0 0 0 0 0 0 0 0 0 0 0 0 0 0 0 0 20 15 14 13 12 14 13 14 13 16 15 15 18 16 15 17 16 15 15 16 16 14 15 16 14 15 16 16 16 15 18 15 16 17 15 18 17 14 17 15 16 17 16 17 15 16 18 15 18 18 16 18 18 18 19 16 19 17 17 17 18 16 18 16 16 15 14 17 15 13 15 15 14 17 15 16 15 17 17 18 17 19 17 19 19 20 18 19 18 18 18 18 18 19 17 20 19 19 21 19 20 20 20 20 20 21 22 21 21 22 21 21 21 20 20 19 20 20 19 21 18 20 19 18 19 20 17 18 17 19 18 20 19 20 19 21 20 21 21 22 21 22 22 21 22 21 21 20 19 19 19 19 20 21 21 21 22 23 23 -177 -193 -193 22 23 23 24 23 24 23 24 24 25 26 25 25 25 26 25 26 26 27 27 27 28 30 30 31 32 34 32 33 34 35 33 34 36 36 34 36 39 39 39 40 40 40 42 43 43 42 43 43 44 44 44 44 45 47 46 46 47 46 47 47 47 50 47 50 51 52 51 53 53 52 52 52 53 52 53 55 55 55 57 57 57 58 58 0 0 0 0 0
    0 0 0 0 0 0 0 0 0 0 0 0 0 0 0 0 0 0 0 0 0 0 0 0 0 0 0 0 0 0 0 0 0 0 0 0 0 0 0 0 0 0 0 0 0 0 0 0 0 0 0 0 0 0 0 0 0 0 0 0 0 0 0 0 0 0 0 0 0 19 14 15 13 12 14 13 15 13 15 15 14 17 15 15 16 15 15 15 16 15 14 16 15 15 16 16 15 16 15 18 15 16 17 15 18 16 14 18 15 17 17 16 18 15 17 18 15 18 18 16 18 17 18 19 16 19 17 17 17 18 16 18 16 16 15 15 16 15 13 16 15 14 17 15 16 16 17 17 18 17 19 17 19 18 19 18 19 17 18 18 18 18 19 17 20 19 18 20 19 20 20 20 20 20 21 22 21 21 22 21 21 21 20 20 19 20 20 19 21 19 19 19 18 19 20 17 19 17 20 19 20 20 20 19 22 20 21 21 22 -193 23 22 21 22 21 21 20 19 20 20 19 20 21 22 21 22 23 22 -177 -193 -193 22 23 22 24 22 23 23 24 23 24 26 25 25 25 26 25 26 26 27 27 27 28 29 30 31 32 33 32 33 34 34 33 34 36 36 34 36 39 38 38 39 39 40 41 42 44 42 43 43 43 44 43 44 44 47 46 46 47 46 47 47 47 50 47 50 51 52 51 52 52 52 52 51 53 52 53 55 55 55 57 57 58 58 59 0 0 0 0 0
    0 0 0 0 0 0 0 0 0 0 0 0 0 0 0 0 0 0 0 0 0 0 0 0 0 0 0 0 0 0 0 0 0 0 0 0 0 0 0 0 0 0 0 0 0 0 0 0 0 0 0 0 0 0 0 0 0 0 0 0 0 0 0 0 0 0 0 0 0 18 13 15 13 12 14 13 15 13 15 15 14 16 14 15 16 14 15 15 16 15 14 17 15 15 17 16 15 16 16 18 15 16 17 15 18 16 14 18 15 17 17 16 18 15 17 19 15 19 18 17 19 18 18 19 16 19 17 17 17 17 16 18 16 17 15 15 17 15 14 16 15 14 17 15 16 16 17 17 18 16 19 16 18 17 19 17 19 17 18 17 18 18 19 17 20 19 18 20 19 20 21 20 20 20 21 22 21 21 22 21 21 21 21 20 20 20 21 19 21 19 19 19 18 18 20 17 19 17 19 19 20 20 20 19 22 20 21 21 22 -193 -193 22 21 22 21 21 20 19 20 20 19 21 21 22 22 23 23 22 -193 -193 -193 21 -193 21 23 22 23 23 23 23 24 26 25 24 25 26 25 26 27 27 26 27 28 29 30 31 32 33 31 33 33 34 33 34 35 37 34 36 38 38 38 39 39 39 41 42 44 42 42 43 43 43 43 44 44 46 45 46 47 46 46 47 47 50 47 50 51 52 51 52 52 51 52 51 53 52 53 55 55 55 57 57 58 58 59 0 0 0 0 0
    0 0 0 0 0 0 0 0 0 0 0 0 0 0 0 0 0 0 0 0 0 0 0 0 0 0 0 0 0 0 0 0 0 0 0 0 0 0 0 0 0 0 0 0 0 0 0 0 0 0 0 0 0 0 0 0 0 0 0 0 0 0 0 0 0 0 0 0 0 17 13 15 13 12 13 13 15 13 15 15 14 16 14 15 16 14 15 16 17 15 15 18 15 16 17 16 15 16 16 18 15 16 17 15 18 16 15 19 15 17 17 16 18 15 17 18 15 19 18 16 19 17 18 19 16 18 16 16 16 17 15 17 16 17 15 15 17 15 14 16 16 14 17 16 16 17 17 17 18 16 19 16 19 17 19 17 19 16 18 17 18 18 19 16 19 19 18 20 19 20 21 20 20 20 21 22 21 21 22 21 21 22 21 19 20 20 20 19 20 19 18 18 19 18 20 17 19 17 20 19 20 20 20 19 22 20 21 21 22 -193 -193 22 20 21 20 21 20 19 20 20 19 21 21 22 22 22 23 22 -193 -193 23 -193 -193 21 23 22 23 23 23 23 23 25 25 24 25 25 25 26 26 27 26 27 29 29 31 32 32 33 31 34 34 34 34 34 35 37 35 36 37 37 37 38 39 39 41 42 44 42 42 43 43 43 43 44 44 46 45 46 46 46 46 47 46 50 47 51 51 51 51 52 52 51 52 51 53 52 53 55 55 55 57 57 58 58 59 0 0 0 0 0
    0 0 0 0 0 0 0 0 0 0 0 0 0 0 0 0 0 0 0 0 0 0 0 0 0 0 0 0 0 0 0 0 0 0 0 0 0 0 0 0 0 0 0 0 0 0 0 0 0 0 0 0 0 0 0 0 0 0 0 0 0 0 0 0 0 0 0 0 0 16 12 15 13 12 13 12 15 13 14 15 14 15 14 15 16 14 15 16 17 14 15 18 16 16 18 16 16 16 16 18 15 16 17 15 18 16 15 19 15 17 17 16 18 15 17 18 15 19 18 16 19 18 18 19 16 19 17 16 16 17 15 18 15 16 15 15 16 15 14 16 15 15 17 15 16 17 17 17 18 17 19 16 19 17 19 17 19 16 18 17 18 17 19 16 19 18 18 20 19 20 21 20 20 20 21 22 20 21 22 20 20 22 21 19 20 19 20 18 20 19 18 17 18 17 20 16 19 17 19 20 20 20 20 19 22 20 21 21 22 -193 -193 -193 20 21 20 20 20 19 20 20 19 21 21 21 21 22 23 22 -193 22 23 -193 -193 22 24 22 23 23 23 23 23 26 25 24 25 25 25 26 27 28 27 28 29 29 31 32 33 33 31 34 34 34 35 35 35 37 35 36 37 37 37 37 38 39 40 42 43 42 42 42 42 43 43 44 44 46 45 46 46 46 46 47 46 50 47 51 51 51 51 52 52 51 52 51 53 52 53 55 55 56 58 58 58 58 60 0 0 0 0 0
    0 0 0 0 0 0 0 0 0 0 0 0 0 0 0 0 0 0 0 0 0 0 0 0 0 0 0 0 0 0 0 0 0 0 0 0 0 0 0 0 0 0 0 0 0 0 0 0 0 0 0 0 0 0 0 0 0 0 0 0 0 0 0 0 0 0 0 0 0 15 12 15 13 12 13 12 15 13 14 15 14 15 14 15 16 14 15 16 17 14 15 18 15 16 18 16 15 16 16 18 15 17 17 15 17 16 15 18 15 17 17 15 18 15 17 18 15 19 18 17 19 18 18 19 17 19 17 17 16 18 15 18 15 17 15 15 16 15 15 16 16 15 17 16 17 17 17 17 19 17 19 16 18 17 18 17 18 16 18 17 18 18 18 16 19 18 17 19 18 20 21 20 20 20 21 21 20 20 22 19 20 22 21 19 20 20 20 18 20 19 17 17 18 17 20 16 19 17 19 20 20 20 20 19 22 20 21 21 21 -193 -193 -193 20 -193 20 20 20 19 20 20 19 21 21 21 21 23 23 22 23 23 23 -193 -193 22 -193 22 24 -193 -193 23 23 25 25 24 25 26 26 27 28 28 27 28 29 29 31 31 33 32 31 34 34 34 36 35 35 37 36 36 37 37 36 37 38 39 40 41 43 41 42 42 42 43 42 44 43 46 45 46 46 46 46 47 46 50 47 52 52 52 51 52 52 52 52 51 53 52 53 56 57 57 59 59 59 59 63 0 0 0 0 0
    0 0 0 0 0 0 0 0 0 0 0 0 0 0 0 0 0 0 0 0 0 0 0 0 0 0 0 0 0 0 0 0 0 0 0 0 0 0 0 0 0 0 0 0 0 0 0 0 0 0 0 0 0 0 0 0 0 0 0 0 0 0 0 0 0 0 0 0 0 15 12 15 13 13 13 12 15 13 14 14 15 15 14 15 16 14 15 16 17 14 15 18 15 16 18 16 15 16 16 18 14 17 17 15 17 16 15 18 15 17 17 16 18 16 17 19 16 19 19 17 19 18 19 20 17 19 17 17 16 18 15 18 15 17 15 16 16 16 15 16 16 16 17 17 17 18 18 17 19 17 19 17 18 17 19 17 18 16 18 17 17 18 18 15 19 18 17 18 18 19 20 19 20 19 20 21 19 20 22 19 20 22 21 19 21 19 20 18 21 19 17 18 19 17 20 16 19 17 19 20 20 19 20 18 21 19 21 20 21 -193 -193 -193 20 -193 20 20 20 20 20 21 19 21 21 22 22 -193 -193 22 23 23 23 22 24 22 24 22 24 -193 -193 23 24 25 25 24 25 26 26 27 28 28 27 28 29 29 31 31 33 32 32 34 33 34 36 34 35 37 36 36 37 36 36 37 38 39 40 41 43 41 41 42 42 43 42 44 43 46 45 46 46 46 46 47 46 50 47 52 52 51 51 52 52 52 52 51 53 52 53 56 57 58 59 60 60 59 63 0 0 0 0 0
    0 0 0 0 0 0 0 0 0 0 0 0 0 0 0 0 0 0 0 0 0 0 0 0 0 0 0 0 0 0 0 0 0 0 0 0 0 0 0 0 0 0 0 0 0 0 0 0 0 0 0 0 0 0 0 0 0 0 0 0 0 0 0 0 0 0 0 0 0 15 12 15 13 13 13 12 15 13 14 14 15 15 14 15 16 14 15 16 17 13 16 18 15 16 18 16 15 16 16 18 14 17 17 15 17 17 15 18 15 17 17 16 18 16 17 19 16 18 19 18 19 19 19 20 18 19 18 17 16 18 15 18 15 17 15 16 16 16 15 17 16 16 17 17 17 18 18 18 19 17 19 18 18 17 19 18 17 16 18 17 17 17 18 15 18 18 16 18 17 18 18 18 19 19 20 20 19 20 23 19 20 22 21 20 21 20 20 18 21 19 18 18 19 18 21 17 19 17 19 20 19 19 19 18 21 19 21 20 20 -193 -193 -193 19 -193 20 20 20 20 20 21 20 22 22 22 22 -193 -193 22 23 23 24 22 24 22 24 22 24 -193 -193 23 24 25 25 24 25 26 26 26 27 28 27 28 29 29 31 31 32 31 32 34 33 34 36 34 35 37 36 36 37 37 36 37 38 39 40 41 42 41 41 41 41 43 42 44 43 45 45 46 47 46 46 47 46 50 47 52 52 51 51 52 52 51 51 51 53 52 54 57 57 58 60 60 60 60 65 0 0 0 0 0
    0 0 0 0 0 0 0 0 0 0 0 0 0 0 0 0 0 0 0 0 0 0 0 0 0 0 0 0 0 0 0 0 0 0 0 0 0 0 0 0 0 0 0 0 0 0 0 0 0 0 0 0 0 0 0 0 0 0 0 0 0 0 0 0 0 0 0 0 0 14 12 14 13 13 13 12 15 13 15 14 15 15 14 15 16 14 16 16 17 14 16 18 15 16 18 16 15 16 16 18 14 17 17 15 17 17 15 18 16 17 17 16 18 16 16 19 17 18 19 18 19 19 19 20 18 18 18 17 16 19 15 18 15 18 16 17 17 16 15 17 16 17 17 18 18 19 19 19 20 18 19 18 19 17 20 18 17 17 18 18 18 18 18 15 19 19 16 18 17 17 19 16 19 18 20 19 19 21 23 20 21 23 22 20 21 20 20 18 21 19 19 19 20 18 21 18 20 18 19 20 19 19 19 17 20 19 20 20 20 -193 -193 -193 20 -193 20 20 20 20 21 21 20 22 22 23 23 -193 -193 23 23 23 24 23 24 23 25 23 25 -193 25 24 25 25 26 25 26 26 26 26 28 28 27 29 30 29 31 31 32 31 32 34 33 34 36 34 34 37 36 36 37 37 37 37 39 40 40 41 42 41 41 41 41 42 42 44 43 45 45 46 47 46 46 46 46 50 47 52 52 51 51 52 51 51 51 50 52 51 53 56 56 59 58 58 -193 58 -209 0 0 0 0 0
    0 0 0 0 0 0 0 0 0 0 0 0 0 0 0 0 0 0 0 0 0 0 0 0 0 0 0 0 0 0 0 0 0 0 0 0 0 0 0 0 0 0 0 0 0 0 0 0 0 0 0 0 0 0 0 0 0 0 0 0 0 0 0 0 0 0 0 0 0 14 12 14 13 13 14 13 15 14 15 14 15 15 14 15 16 14 16 15 16 13 16 18 15 16 17 16 16 16 16 18 15 17 17 15 17 17 15 17 16 17 17 17 18 17 16 19 18 18 19 19 19 19 19 20 19 18 18 17 17 19 16 18 16 18 16 17 17 17 15 17 17 18 17 19 19 20 20 20 21 19 20 19 19 17 20 18 17 16 19 18 18 18 19 15 19 20 18 19 18 19 21 19 21 20 21 21 21 22 24 20 21 23 22 20 22 20 21 19 21 20 19 19 21 19 22 19 21 19 20 20 19 19 19 17 20 19 20 20 20 -193 -193 -193 20 -193 21 21 21 21 21 22 21 23 23 23 23 24 24 23 23 24 24 23 24 24 25 24 26 25 26 25 25 26 27 25 26 26 26 26 27 27 27 28 30 29 31 31 32 31 32 34 33 34 36 34 35 37 36 37 37 37 37 37 39 40 40 41 42 -193 41 41 41 42 42 44 43 45 45 46 46 46 46 46 46 50 47 52 52 50 51 51 51 51 49 48 51 48 52 55 54 58 50 55 39 43 -193 0 0 0 0 0
    0 0 0 0 0 0 0 0 0 0 0 0 0 0 0 0 0 0 0 0 0 0 0 0 0 0 0 0 0 0 0 0 0 0 0 0 0 0 0 0 0 0 0 0 0 0 0 0 0 0 0 0 0 0 0 0 0 0 0 0 0 0 0 0 0 0 0 0 0 14 13 14 13 14 14 13 15 14 15 14 16 15 14 15 17 14 16 15 16 13 16 18 15 15 17 17 16 17 17 17 15 17 17 15 16 17 15 17 16 17 17 17 18 17 16 19 19 19 20 21 20 21 20 21 20 19 19 17 17 20 16 19 16 18 16 17 17 17 16 18 17 18 17 20 19 20 21 21 22 20 21 20 20 18 20 18 17 17 19 18 18 19 19 15 20 20 18 20 19 21 23 22 23 22 23 22 23 24 24 21 22 24 23 20 22 20 21 19 21 20 19 20 21 20 22 20 21 20 21 21 19 19 19 17 20 19 20 21 20 -193 -193 22 -193 -193 21 22 23 22 22 23 22 23 23 24 23 24 24 24 24 25 26 25 26 26 27 26 28 28 27 26 27 28 28 26 27 26 25 25 26 26 27 27 30 28 33 31 32 31 33 34 34 34 36 34 35 37 37 37 37 37 37 38 39 41 41 41 42 -209 41 41 41 42 42 43 43 45 45 46 46 46 46 46 46 49 46 52 52 50 51 51 51 51 48 47 48 45 50 53 54 -193 46 55 39 42 -209 0 0 0 0 0
    0 0 0 0 0 0 0 0 0 0 0 0 0 0 0 0 0 0 0 0 0 0 0 0 0 0 0 0 0 0 0 0 0 0 0 0 0 0 0 0 0 0 0 0 0 0 0 0 0 0 0 0 0 0 0 0 0 0 0 0 0 0 0 0 0 0 0 0 0 14 13 14 13 14 14 13 15 14 15 14 16 15 15 15 17 15 16 15 16 13 16 18 15 15 17 17 16 17 17 17 15 17 17 15 16 18 16 17 17 17 18 17 19 18 17 19 20 19 21 22 21 22 21 22 20 19 19 18 17 20 16 19 16 19 17 19 18 18 16 18 17 19 18 21 20 21 22 22 23 21 22 22 20 19 21 19 18 18 19 19 18 19 19 16 20 21 19 21 20 22 23 23 24 23 24 23 24 25 26 22 23 25 23 22 23 21 22 20 22 21 21 21 22 22 23 22 23 22 22 22 20 20 20 18 20 19 21 21 19 22 22 22 22 -193 22 23 24 24 24 24 23 24 24 25 24 24 25 25 25 26 28 28 28 30 33 34 35 35 32 29 33 34 32 28 29 25 25 24 23 23 26 27 -209 -209 38 29 32 32 35 35 35 35 37 34 35 37 37 37 38 37 37 38 40 41 41 41 42 -209 41 41 41 42 42 43 43 45 45 46 47 46 47 46 46 49 46 52 52 50 52 51 52 52 49 47 47 44 49 48 48 49 47 52 43 50 -209 0 0 0 0 0
    0 0 0 0 0 0 0 0 0 0 0 0 0 0 0 0 0 0 0 0 0 0 0 0 0 0 0 0 0 0 0 0 0 0 0 0 0 0 0 0 0 0 0 0 0 0 0 0 0 0 0 0 0 0 0 0 0 0 0 0 0 0 0 0 0 0 0 0 0 15 13 14 13 14 14 13 15 14 15 14 16 16 15 15 17 15 16 15 16 13 16 18 15 15 17 17 16 17 17 17 15 17 17 16 16 19 16 17 18 18 18 18 19 19 17 20 21 20 22 23 22 23 22 23 21 19 19 19 18 21 17 20 17 20 18 20 19 19 17 19 18 21 19 22 21 23 23 23 23 22 22 23 21 20 22 20 19 19 20 20 19 20 20 17 21 22 20 22 21 23 23 24 26 25 26 25 26 27 28 25 25 26 25 23 24 22 22 21 23 22 22 23 24 23 25 24 25 23 24 23 22 22 23 21 22 22 23 23 22 23 24 23 23 24 23 24 25 25 26 26 25 26 25 26 25 26 26 26 26 27 29 29 29 31 35 36 37 37 35 33 38 38 36 30 30 19 22 17 16 17 20 -209 -209 -209 -209 28 30 31 36 35 35 35 37 34 35 37 38 37 38 38 38 38 41 42 42 -193 42 -209 41 41 41 42 42 43 43 45 45 46 47 46 47 46 46 49 46 52 52 50 52 50 52 53 49 49 47 46 50 48 49 49 48 51 44 48 -193 0 0 0 0 0
    0 0 0 0 0 0 0 0 0 0 0 0 0 0 0 0 0 0 0 0 0 0 0 0 0 0 0 0 0 0 0 0 0 0 0 0 0 0 0 0 0 0 0 0 0 0 0 0 0 0 0 0 0 0 0 0 0 0 0 0 0 0 0 0 0 0 0 0 0 15 13 14 13 14 14 13 15 14 16 14 17 16 15 16 18 15 17 15 16 13 16 18 15 15 16 17 16 18 17 18 15 18 17 17 17 19 17 18 19 19 19 19 20 20 17 21 23 22 24 24 23 24 23 23 21 19 19 19 19 22 19 21 18 21 20 21 20 20 19 21 20 22 21 24 24 26 25 26 25 25 24 25 22 21 23 21 20 20 21 21 19 21 21 19 22 24 23 25 26 27 29 29 34 29 30 29 29 29 30 28 28 28 28 26 27 24 24 23 25 24 25 26 26 26 27 27 27 27 27 26 26 27 27 26 26 28 27 28 27 26 27 25 26 26 25 27 28 28 29 29 29 29 28 31 30 28 28 27 27 29 30 30 29 30 36 36 36 37 34 33 38 37 34 27 -209 12 14 11 11 14 18 -209 -209 -209 -209 28 29 32 36 35 35 35 37 33 34 37 38 37 39 38 38 39 41 43 42 -193 41 -209 41 41 41 42 42 43 43 46 45 46 47 47 47 47 46 50 46 52 52 50 51 50 52 53 48 48 45 46 48 46 49 50 50 53 46 -209 -193 0 0 0 0 0
    0 0 0 0 0 0 0 0 0 0 0 0 0 0 0 0 0 0 0 0 0 0 0 0 0 0 0 0 0 0 0 0 0 0 0 0 0 0 0 0 0 0 0 0 0 0 0 0 0 0 0 0 0 0 0 0 0 0 0 0 0 0 0 0 0 0 0 0 0 15 13 14 13 14 15 13 15 15 16 14 17 16 16 16 18 15 17 15 17 14 16 19 15 15 17 17 17 18 18 18 16 18 18 17 18 20 19 18 20 20 20 20 20 20 18 21 23 23 25 24 24 25 24 24 22 20 20 20 20 23 20 22 20 22 21 22 22 21 20 22 21 23 23 26 26 28 28 28 28 27 28 27 25 23 24 23 22 22 22 22 20 23 22 21 24 26 25 29 36 35 37 35 37 31 34 32 30 30 30 29 29 30 30 29 30 29 28 28 30 31 32 32 31 31 31 31 31 30 30 29 30 32 31 33 34 36 34 37 36 35 31 28 30 31 27 28 28 28 30 30 31 29 28 31 31 28 28 28 27 29 30 30 28 30 37 36 36 37 34 36 40 39 39 24 -209 -193 -209 0 -193 -209 -193 -209 -209 -209 -209 30 30 32 36 35 35 35 36 33 35 37 39 38 39 39 39 40 42 43 43 -193 41 -209 41 41 41 42 42 44 43 46 45 46 47 47 48 47 46 50 47 51 51 50 51 49 51 52 48 46 45 46 47 46 49 -209 -209 -193 -209 -193 -193 0 0 0 0 0
    0 0 0 0 0 0 0 0 0 0 0 0 0 0 0 0 0 0 0 0 0 0 0 0 0 0 0 0 0 0 0 0 0 0 0 0 0 0 0 0 0 0 0 0 0 0 0 0 0 0 0 0 0 0 0 0 0 0 0 0 0 0 0 0 0 0 0 0 0 15 13 13 13 14 15 14 15 15 16 14 17 16 16 16 18 16 18 16 18 14 17 19 15 16 17 18 17 18 18 18 17 19 19 19 19 21 20 19 20 21 22 21 21 20 19 22 24 24 25 25 25 26 26 26 23 21 20 20 21 23 21 23 21 23 22 23 23 23 21 23 22 25 25 27 28 29 29 29 30 29 31 30 29 27 28 27 26 25 24 24 23 24 23 23 24 25 25 30 34 34 36 35 36 32 34 32 30 30 30 30 30 30 31 30 32 33 32 35 35 37 37 37 37 37 35 35 34 34 33 32 32 33 32 33 34 36 34 37 36 37 34 32 33 33 27 28 27 28 29 29 30 28 27 31 31 29 29 28 28 29 30 31 28 30 38 36 37 37 36 41 42 41 -193 -209 -209 -209 -209 -209 -209 -209 -209 -209 -193 -209 -209 30 29 31 36 35 35 35 36 32 35 38 39 39 40 39 40 40 42 44 43 -193 41 -209 41 41 41 41 42 44 43 46 45 46 47 47 48 47 47 50 47 51 51 50 51 48 51 52 48 46 44 47 -209 -193 -193 -209 -193 -193 50 -193 -209 0 0 0 0 0
    0 0 0 0 0 0 0 0 0 0 0 0 0 0 0 0 0 0 0 0 0 0 0 0 0 0 0 0 0 0 0 0 0 0 0 0 0 0 0 0 0 0 0 0 0 0 0 0 0 0 0 0 0 0 0 0 0 0 0 0 0 0 0 0 0 0 0 0 0 15 13 13 14 14 15 14 16 15 16 14 18 16 16 16 18 16 18 16 18 15 19 20 16 16 17 18 18 19 19 19 18 20 20 20 21 22 21 21 21 22 23 22 22 21 21 23 25 25 26 27 27 27 28 28 25 23 20 20 22 24 23 25 24 25 24 26 25 25 24 25 25 27 28 29 29 29 29 30 -193 -193 -193 33 33 32 35 34 37 36 34 30 29 28 26 25 25 25 25 29 31 32 34 33 34 30 32 30 29 29 28 29 29 30 32 30 33 35 35 38 37 40 39 39 38 38 36 35 35 35 34 32 32 33 32 32 33 35 33 36 37 37 35 36 36 35 29 29 28 28 29 29 29 28 27 30 31 29 29 27 28 29 30 31 29 31 38 36 37 37 37 41 42 41 -193 -209 -209 -209 -209 -209 -193 -209 -209 47 48 -209 -209 31 29 31 36 35 35 35 36 32 35 38 40 39 40 40 40 41 43 44 43 -193 40 -209 40 40 41 41 42 43 43 46 45 46 47 47 48 47 47 50 47 51 51 49 51 48 51 52 48 45 43 -209 -209 -193 48 -193 52 54 -193 -209 -209 0 0 0 0 0
    0 0 0 0 0 0 0 0 0 0 0 0 0 0 0 0 0 0 0 0 0 0 0 0 0 0 0 0 0 0 0 0 0 0 0 0 0 0 0 0 0 0 0 0 0 0 0 0 0 0 0 0 0 0 0 0 0 0 0 0 0 0 0 0 0 0 0 0 0 16 13 13 14 15 16 14 17 16 17 15 18 16 16 16 18 15 18 16 19 15 19 20 16 18 19 20 19 20 20 21 20 22 22 23 23 24 24 24 -193 24 24 24 23 22 23 24 26 27 27 28 29 29 31 30 31 28 26 23 -193 27 25 27 27 27 27 29 29 29 27 29 30 31 32 31 30 29 -193 -193 -193 -193 -193 33 34 32 36 35 36 35 32 30 28 27 25 24 24 24 25 29 31 33 34 33 33 30 31 29 27 27 27 27 28 29 31 30 34 35 36 38 38 40 39 39 38 38 36 36 35 35 34 32 32 34 32 32 33 35 35 38 38 40 38 39 40 38 33 30 28 28 29 28 29 27 27 31 31 29 30 28 29 29 31 32 30 32 37 35 36 36 37 41 43 -193 -209 -209 -209 -193 -209 -193 -209 -209 -209 44 45 -209 40 31 30 31 36 35 34 35 36 32 34 38 40 39 40 40 40 41 43 44 43 -193 40 -209 41 41 41 41 42 43 43 46 45 46 47 47 49 48 47 50 47 51 51 49 50 48 51 52 48 45 -193 -209 -209 -193 -193 52 54 55 -193 55 -209 0 0 0 0 0
    0 0 0 0 0 0 0 0 0 0 0 0 0 0 0 0 0 0 0 0 0 0 0 0 0 0 0 0 0 0 0 0 0 0 0 0 0 0 0 0 0 0 0 0 0 0 0 0 0 0 0 0 0 0 0 0 0 0 0 0 0 0 0 0 0 0 0 0 0 19 13 13 15 15 16 15 18 17 18 15 18 16 17 17 18 15 19 18 21 20 22 23 19 22 23 22 21 22 22 23 23 24 24 25 26 26 26 26 25 26 26 26 25 23 24 24 26 27 28 28 29 30 32 31 34 31 33 28 28 -193 27 29 28 28 28 30 30 30 29 31 31 31 32 31 29 28 -193 -209 -209 -193 -193 35 36 34 37 36 36 36 32 30 28 27 24 22 21 21 23 -193 -193 30 31 31 32 30 31 29 27 27 27 28 28 28 31 29 35 36 36 39 38 40 40 39 38 38 37 37 36 36 35 33 33 34 33 33 35 36 37 39 40 42 41 41 42 40 39 32 25 26 27 27 28 26 26 31 32 30 31 30 31 30 32 32 30 32 36 35 36 36 -193 -193 44 -193 -209 -193 -209 -193 -209 -209 -209 -209 42 41 43 -209 39 30 29 31 36 34 34 35 35 32 34 37 40 39 40 40 41 41 43 44 43 -193 41 -209 41 41 41 41 42 43 43 46 45 47 48 48 49 48 48 50 47 51 51 49 50 48 51 52 48 -193 -209 -209 -209 -193 -193 51 53 53 -193 -193 -193 0 0 0 0 0
    0 0 0 0 0 0 0 0 0 0 0 0 0 0 0 0 0 0 0 0 0 0 0 0 0 0 0 0 0 0 0 0 0 0 0 0 0 0 0 0 0 0 0 0 0 0 0 0 0 0 0 0 0 0 0 0 0 0 0 0 0 0 0 0 0 0 0 0 0 40 -209 11 15 14 17 18 20 20 21 18 19 20 20 21 22 23 26 -193 29 30 27 28 26 27 26 25 23 24 23 25 26 26 26 26 27 27 28 27 26 27 27 27 26 24 -209 -193 26 27 28 28 29 30 33 31 35 32 33 29 32 -209 26 28 28 27 28 29 29 30 29 30 31 31 32 31 30 29 -193 -209 -193 -193 -193 36 38 36 37 36 36 36 33 32 30 29 26 23 22 22 24 27 27 29 30 30 33 31 32 29 28 27 27 28 28 28 31 29 34 35 36 38 38 40 39 39 39 39 37 37 36 36 34 32 32 34 33 32 34 36 37 39 40 42 41 41 42 41 41 35 22 23 24 24 26 25 26 31 33 32 32 32 32 31 32 32 30 31 35 34 34 34 -193 -209 46 -209 -209 -209 -209 -209 -209 -209 -209 34 40 -193 43 -209 -193 31 29 31 36 34 33 34 35 32 33 37 40 39 41 40 41 41 43 45 44 40 41 -209 41 41 42 42 42 44 44 47 45 47 48 48 50 49 48 50 47 51 51 49 50 48 50 51 47 -193 -209 -209 -209 -193 -193 -193 50 50 -193 -193 -193 0 0 0 0 0
    0 0 0 0 0 0 0 0 0 0 0 0 0 0 0 0 0 0 0 0 0 0 0 0 0 0 0 0 0 0 0 0 0 0 0 0 0 0 0 0 0 0 0 0 0 0 0 0 0 0 0 0 0 0 0 0 0 0 0 0 0 0 0 0 0 0 0 0 0 40 -193 9 13 12 17 21 22 25 26 25 24 28 -193 -193 -193 35 -209 -193 35 34 -193 -193 28 29 27 -209 -193 25 25 26 27 27 27 27 28 27 28 27 26 27 26 27 -193 24 -193 -193 26 27 28 29 30 31 34 32 35 32 31 29 30 26 26 28 28 27 28 29 28 29 29 30 -193 30 32 30 30 29 -193 -193 -193 34 -193 -193 -193 37 38 37 36 35 32 32 29 29 26 23 23 23 24 27 27 29 30 31 33 31 32 30 28 28 27 27 27 27 30 28 32 34 35 37 37 39 38 38 38 38 37 37 35 35 33 32 32 33 33 33 34 36 36 38 39 40 40 41 41 40 40 35 23 23 25 25 26 25 27 30 31 31 31 33 32 31 32 31 30 31 33 32 30 30 -193 -209 -193 -209 -209 -193 -209 -209 -209 -209 -193 -209 -209 -193 -193 -209 -209 33 30 31 36 34 33 34 35 31 33 37 40 39 41 41 41 42 43 44 44 41 41 41 42 42 42 42 42 44 44 47 45 47 48 48 50 49 48 50 48 51 50 49 50 47 50 51 47 -193 -193 -209 -209 -193 -193 -193 -193 49 -193 -193 -193 0 0 0 0 0
    0 0 0 0 0 0 0 0 0 0 0 0 0 0 0 0 0 0 0 0 0 0 0 0 0 0 0 0 0 0 0 0 0 0 0 0 0 0 0 0 0 0 0 0 0 0 0 0 0 0 0 0 0 0 0 0 0 0 0 0 0 0 0 0 0 0 0 0 0 38 -193 9 13 13 18 23 24 26 27 26 25 27 25 28 27 31 -193 33 34 32 30 30 28 28 26 26 24 25 25 27 28 28 28 28 29 28 29 28 27 27 27 28 26 25 26 25 27 29 30 31 31 33 34 32 34 31 29 28 27 24 24 26 27 26 27 27 27 28 29 -193 -193 -209 -193 29 29 -209 -209 -209 -209 -209 -209 -209 -209 38 39 38 36 35 31 31 28 27 24 22 22 22 23 26 26 28 30 31 33 31 32 30 29 28 27 27 27 27 29 28 31 33 34 36 36 37 37 37 37 36 36 36 33 34 33 32 32 33 33 32 33 36 36 37 37 38 38 40 40 37 38 34 30 28 29 29 30 28 32 31 31 31 31 33 32 30 32 29 30 32 33 32 29 29 -193 -209 -193 32 35 -209 -209 -209 -209 -209 -193 -209 -209 -193 -209 -209 -209 34 31 32 36 34 34 34 34 31 32 37 40 39 41 40 41 42 43 44 43 40 41 41 42 42 42 42 43 44 44 48 46 48 49 49 50 49 49 50 48 51 50 49 50 47 49 51 47 -193 -193 -209 -209 -193 -193 -193 -193 50 -193 -193 -193 0 0 0 0 0
    0 0 0 0 0 0 0 0 0 0 0 0 0 0 0 0 0 0 0 0 0 0 0 0 0 0 0 0 0 0 0 0 0 0 0 0 0 0 0 0 0 0 0 0 0 0 0 0 0 0 0 0 0 0 0 0 0 0 0 0 0 0 0 0 0 0 0 0 0 41 -193 9 12 14 20 25 25 26 27 26 25 26 25 26 -193 -193 -209 28 29 -193 29 29 27 28 27 28 26 26 26 27 28 28 28 28 29 28 29 28 27 28 27 29 27 26 26 26 27 29 30 31 31 33 34 33 33 30 28 26 25 22 22 23 -193 24 25 -209 -209 -209 -193 -209 -209 -193 -193 -193 -193 -209 -209 -209 -209 -209 -209 -209 -209 37 38 36 34 33 29 29 26 26 24 21 22 22 23 25 25 28 29 31 31 31 31 29 29 28 27 27 27 28 29 29 31 33 34 35 35 36 35 36 35 35 35 35 32 31 32 31 31 31 30 30 32 34 34 35 35 36 36 38 38 36 37 34 32 31 31 31 31 30 34 31 31 32 32 33 32 31 32 28 31 33 34 33 29 31 -193 -209 44 38 38 -209 -209 -209 -209 -209 -193 -209 -209 173 -209 -209 -209 35 31 32 36 34 34 33 34 31 32 37 40 39 40 40 41 41 43 44 43 40 42 41 42 42 43 42 43 44 44 48 46 48 49 49 50 50 49 50 48 50 50 48 49 47 49 51 47 -193 -193 -209 -209 -193 46 48 49 49 -193 -193 -193 0 0 0 0 0
    0 0 0 0 0 0 0 0 0 0 0 0 0 0 0 0 0 0 0 0 0 0 0 0 0 0 0 0 0 0 0 0 0 0 0 0 0 0 0 0 0 0 0 0 0 0 0 0 0 0 0 0 0 0 0 0 0 0 0 0 0 0 0 0 0 0 0 0 0 45 -193 8 9 12 16 23 23 24 25 25 24 25 24 25 -193 26 -209 -193 -193 -193 -193 -193 26 27 26 28 29 28 27 28 28 28 28 28 28 28 29 28 27 29 28 29 27 26 26 25 27 28 28 30 29 32 31 31 31 29 27 26 25 22 22 23 -193 -193 -193 -193 -209 -193 28 -209 -193 -193 -193 -193 -193 -209 -209 -209 -209 -209 -209 -209 -209 33 35 32 31 30 28 28 26 26 25 22 23 23 24 25 25 28 29 31 31 30 30 28 29 28 28 28 28 29 30 30 32 33 34 34 34 35 35 35 34 34 34 33 29 29 30 29 28 28 27 27 29 31 32 31 33 33 34 37 36 35 36 34 34 33 33 33 32 32 36 32 31 31 32 33 31 31 32 28 32 34 34 32 28 30 -193 -209 -193 36 37 -209 -209 -209 -209 -209 -209 -209 -193 174 -193 -209 -209 34 31 31 36 34 34 33 34 31 32 36 40 39 40 40 41 41 43 43 43 40 41 41 42 42 42 42 42 44 44 48 46 48 49 49 50 49 48 49 47 50 50 48 49 48 49 52 47 -193 -177 -209 -193 46 46 47 -193 -193 -193 -193 -209 0 0 0 0 0
    0 0 0 0 0 0 0 0 0 0 0 0 0 0 0 0 0 0 0 0 0 0 0 0 0 0 0 0 0 0 0 0 0 0 0 0 0 0 0 0 0 0 0 0 0 0 0 0 0 0 0 0 0 0 0 0 0 0 0 0 0 0 0 0 0 0 0 0 0 44 -193 9 0 12 15 21 19 22 23 23 22 25 23 25 -209 26 -209 -193 -209 27 -209 -193 26 26 26 28 32 28 28 29 28 28 28 28 29 27 29 27 27 29 28 29 27 26 26 26 27 28 28 29 29 31 31 31 31 29 27 26 26 24 24 25 -193 24 25 -193 26 26 29 28 -193 30 32 30 31 -193 -193 -209 -209 -209 -209 -209 -209 30 31 29 29 29 27 28 26 26 26 24 25 25 26 27 26 28 29 31 31 29 29 27 28 28 28 28 27 28 29 30 33 33 33 33 33 33 33 33 33 33 33 34 29 29 30 29 29 28 27 27 28 30 31 30 32 32 34 36 35 34 35 34 34 34 33 34 33 33 37 32 31 31 32 34 32 32 33 28 32 33 34 31 28 28 -209 -209 -209 -177 -209 -209 -209 -209 -209 -209 -209 -209 173 177 -209 -209 -209 34 31 31 36 34 34 33 34 31 32 36 40 39 40 40 41 41 42 43 42 40 42 41 42 42 43 43 42 44 44 48 46 47 49 49 50 49 48 49 47 50 50 48 49 48 48 52 47 -193 10 -209 -193 47 46 47 47 48 -193 -209 -193 0 0 0 0 0
    0 0 0 0 0 0 0 0 0 0 0 0 0 0 0 0 0 0 0 0 0 0 0 0 0 0 0 0 0 0 0 0 0 0 0 0 0 0 0 0 0 0 0 0 0 0 0 0 0 0 0 0 0 0 0 0 0 0 0 0 0 0 0 0 0 0 0 0 0 44 43 13 14 15 17 20 18 21 21 23 21 24 22 24 24 26 -209 -193 -209 26 26 26 26 26 26 28 32 29 29 29 28 28 28 28 28 26 28 26 26 28 27 29 27 27 -193 -209 27 27 28 29 28 31 30 31 31 29 28 26 26 24 25 25 25 25 26 25 27 27 29 27 -193 -193 30 30 30 29 30 30 31 30 -193 -193 -193 28 28 27 27 27 26 27 25 25 26 24 26 26 27 27 27 30 30 32 32 30 30 28 29 29 29 29 28 29 29 31 32 32 31 30 30 30 29 30 30 32 33 35 30 30 32 31 30 29 28 28 28 31 31 29 30 31 32 35 34 34 35 34 34 34 33 34 34 33 36 32 31 31 32 33 32 31 32 27 32 33 34 30 26 27 -209 -209 -209 -209 -209 -209 -209 -209 -209 -209 -209 -209 -193 -193 -209 -209 -209 34 30 33 37 35 35 34 35 32 32 37 40 38 40 40 41 41 42 43 42 40 42 42 42 42 43 43 43 45 44 50 47 48 50 50 51 50 48 49 48 50 50 48 49 48 48 52 47 -193 11 -209 -209 46 47 48 47 49 -193 51 53 0 0 0 0 0
    0 0 0 0 0 0 0 0 0 0 0 0 0 0 0 0 0 0 0 0 0 0 0 0 0 0 0 0 0 0 0 0 0 0 0 0 0 0 0 0 0 0 0 0 0 0 0 0 0 0 0 0 0 0 0 0 0 0 0 0 0 0 0 0 0 0 0 0 0 45 -209 14 15 16 17 20 17 19 20 22 21 23 22 25 25 26 26 26 27 27 27 27 26 27 27 29 33 29 29 29 28 28 28 27 27 25 26 25 -209 27 27 28 -193 -193 -209 -209 -193 26 -209 27 27 29 28 29 29 28 27 26 26 25 25 26 25 25 27 27 28 28 29 27 -193 -193 30 30 30 29 30 30 32 32 30 31 -193 -193 29 28 28 28 27 27 24 25 25 24 26 25 25 26 26 28 30 33 33 31 30 29 30 31 31 30 30 30 30 31 32 31 30 30 30 29 29 31 31 33 33 34 30 30 33 32 31 30 29 30 30 32 33 30 31 32 33 35 33 33 34 34 34 34 34 34 35 33 36 32 31 32 32 33 31 31 32 27 32 32 32 29 -193 -209 -209 -209 -209 32 -209 -209 -209 -209 -209 -209 -209 -209 -209 -209 -209 -193 -209 34 30 35 36 35 35 34 35 32 33 37 40 39 40 40 41 41 42 42 42 40 41 42 42 42 43 43 43 46 45 52 49 49 51 50 51 50 49 50 48 50 50 48 49 48 48 52 48 -193 12 -209 -193 44 47 49 50 51 53 54 55 0 0 0 0 0
    0 0 0 0 0 0 0 0 0 0 0 0 0 0 0 0 0 0 0 0 0 0 0 0 0 0 0 0 0 0 0 0 0 0 0 0 0 0 0 0 0 0 0 0 0 0 0 0 0 0 0 0 0 0 0 0 0 0 0 0 0 0 0 0 0 0 0 0 0 47 -209 13 13 15 15 18 14 15 17 20 20 22 22 25 25 26 26 26 27 27 28 28 27 27 27 29 34 30 29 30 28 29 28 28 27 26 27 25 -209 27 27 29 28 27 -193 -209 28 27 27 28 27 28 27 28 28 26 25 25 25 25 26 -193 26 26 28 28 29 29 -193 -193 -209 -193 30 30 30 29 30 30 31 31 30 30 30 29 30 28 29 28 28 28 25 26 26 25 27 26 25 26 26 28 31 34 32 31 30 30 31 32 32 31 30 30 30 32 31 31 30 30 30 29 29 31 30 34 31 32 29 29 31 31 30 30 29 30 30 32 32 30 30 31 32 34 32 33 34 33 33 34 34 33 35 32 36 32 31 32 32 32 32 30 32 26 32 31 31 29 24 -209 -209 -209 -209 -209 -209 -209 -209 -209 -209 -209 -209 -209 -209 -209 -209 -193 -193 34 32 35 36 36 36 35 36 34 35 37 40 39 40 40 40 40 41 42 42 39 41 41 41 42 43 43 43 47 46 53 49 49 51 50 51 50 48 50 48 50 50 49 49 48 48 53 50 -193 -193 -209 -209 50 51 53 53 54 56 56 59 0 0 0 0 0
    0 0 0 0 0 0 0 0 0 0 0 0 0 0 0 0 0 0 0 0 0 0 0 0 0 0 0 0 0 0 0 0 0 0 0 0 0 0 0 0 0 0 0 0 0 0 0 0 0 0 0 0 0 0 0 0 0 0 0 0 0 0 0 0 0 0 0 0 0 50 8 14 16 17 18 19 16 15 15 19 18 22 20 23 21 24 25 25 25 26 27 27 27 27 28 30 34 30 30 30 30 29 30 29 28 26 28 27 -193 -193 -193 30 -193 29 29 28 30 30 29 29 27 29 28 29 28 26 25 -193 27 28 28 -193 26 26 28 28 28 28 28 -209 -209 -193 29 30 30 28 29 28 29 29 28 29 28 28 29 28 28 28 29 28 26 26 26 26 28 27 25 25 26 27 29 31 29 28 29 28 30 31 32 31 30 32 31 33 32 32 31 31 31 30 31 33 32 35 31 31 28 29 31 31 30 29 28 29 30 31 31 29 29 29 32 33 32 33 34 33 33 33 34 33 35 32 35 32 32 32 32 32 32 30 33 27 33 32 29 28 20 20 18 -209 -209 -209 -209 -209 -209 -209 -209 -209 -209 -209 -209 -209 -209 -209 -209 33 33 35 36 36 36 35 36 34 36 37 40 39 39 39 40 40 41 41 41 39 41 41 41 41 43 43 43 48 47 53 49 49 51 50 50 50 48 50 48 50 50 49 49 49 48 53 51 50 -209 58 -193 55 55 56 56 57 60 60 62 0 0 0 0 0
    0 0 0 0 0 0 0 0 0 0 0 0 0 0 0 0 0 0 0 0 0 0 0 0 0 0 0 0 0 0 0 0 0 0 0 0 0 0 0 0 0 0 0 0 0 0 0 0 0 0 0 0 0 0 0 0 0 0 0 0 0 0 0 0 0 0 0 0 0 -209 12 20 21 21 21 22 19 16 14 18 16 20 18 22 19 22 23 24 24 26 27 27 27 27 27 29 33 29 29 29 29 29 29 29 28 26 27 -209 -209 -193 -193 30 29 31 32 32 33 32 31 30 27 29 27 28 27 26 24 -193 29 30 30 29 27 27 28 28 28 27 28 26 26 30 28 30 31 28 -193 -193 29 28 27 28 27 26 28 27 28 27 28 28 26 26 27 27 28 27 25 26 26 28 29 30 28 28 28 27 29 30 31 31 31 33 33 34 33 32 31 31 31 31 31 34 34 36 31 31 28 28 31 31 29 28 28 29 29 30 30 28 28 29 32 33 31 33 34 33 33 33 34 33 35 32 35 32 32 32 32 32 32 30 32 27 33 32 28 26 16 19 19 14 -209 -209 -209 -209 -193 -209 -209 -209 -209 -209 -209 -209 -209 -193 -209 -193 33 34 35 36 36 35 36 34 36 36 40 38 39 39 -193 40 41 41 41 39 41 41 41 41 42 42 42 50 49 54 50 49 51 50 50 50 48 50 48 50 51 49 49 49 49 54 53 53 57 59 59 59 59 58 58 58 61 61 63 0 0 0 0 0
    0 0 0 0 0 0 0 0 0 0 0 0 0 0 0 0 0 0 0 0 0 0 0 0 0 0 0 0 0 0 0 0 0 0 0 0 0 0 0 0 0 0 0 0 0 0 0 0 0 0 0 0 0 0 0 0 0 0 0 0 0 0 0 0 0 0 0 0 0 -209 13 21 22 20 20 21 16 11 12 17 16 20 20 23 20 23 24 25 25 27 29 28 27 27 28 29 32 29 29 29 28 28 28 28 27 25 26 25 -209 -209 -193 29 30 32 34 34 35 34 33 30 28 29 27 28 27 28 26 26 34 32 31 30 27 28 27 28 28 27 27 26 27 31 29 32 32 30 29 28 30 28 26 27 26 26 26 26 28 27 28 28 27 27 28 29 30 28 27 27 27 29 30 31 29 27 28 27 30 31 32 32 33 35 36 35 34 33 32 32 31 30 30 31 33 33 28 28 26 28 30 29 28 27 27 29 29 30 30 28 28 29 32 32 30 32 33 33 33 33 34 33 36 33 35 32 32 32 32 31 32 30 32 27 32 31 26 25 17 20 20 15 -193 -209 -193 -193 66 -209 -209 -209 -209 -209 -209 -209 -209 -193 -209 -209 33 33 34 35 35 34 35 34 36 36 40 38 39 -193 -193 40 40 41 41 38 40 40 40 40 42 42 43 50 49 54 50 50 51 51 50 51 48 50 48 51 51 49 50 50 49 54 54 54 57 59 59 60 60 58 58 58 60 59 62 0 0 0 0 0
    0 0 0 0 0 0 0 0 0 0 0 0 0 0 0 0 0 0 0 0 0 0 0 0 0 0 0 0 0 0 0 0 0 0 0 0 0 0 0 0 0 0 0 0 0 0 0 0 0 0 0 0 0 0 0 0 0 0 0 0 0 0 0 0 0 0 0 0 0 13 18 24 24 19 20 21 15 9 11 16 15 20 21 24 21 23 25 26 26 27 29 30 28 27 28 29 31 29 28 29 28 28 28 28 27 25 26 26 -193 25 27 29 30 32 34 33 34 33 33 30 29 28 27 27 27 30 27 28 35 31 30 30 28 27 26 27 26 25 27 26 27 31 30 33 33 32 32 30 32 29 27 28 26 26 26 27 28 27 29 29 29 28 29 30 32 30 30 28 27 29 31 31 29 27 28 27 30 32 34 33 34 36 37 36 34 31 30 32 30 30 30 31 32 31 29 28 27 28 29 29 28 27 28 29 30 30 30 29 29 30 33 32 30 32 33 32 32 32 34 32 36 33 35 32 32 32 32 31 32 30 32 27 31 30 26 24 21 20 21 17 -193 -209 -209 64 68 -209 -209 -209 -209 -209 -209 -209 -209 -193 -209 -209 34 32 33 35 34 34 35 34 36 36 39 38 -193 -193 -177 40 40 40 41 38 40 40 39 39 40 41 41 50 50 54 50 49 51 51 50 51 48 50 48 50 50 49 50 50 49 55 54 55 58 60 60 60 60 59 58 57 58 57 61 0 0 0 0 0
    0 0 0 0 0 0 0 0 0 0 0 0 0 0 0 0 0 0 0 0 0 0 0 0 0 0 0 0 0 0 0 0 0 0 0 0 0 0 0 0 0 0 0 0 0 0 0 0 0 0 0 0 0 0 0 0 0 0 0 0 0 0 0 0 0 0 0 0 0 13 18 23 22 21 21 23 19 -193 10 15 14 20 21 23 20 22 25 26 26 27 28 31 28 28 28 29 29 28 28 29 27 27 27 27 26 25 25 24 22 25 26 28 29 32 34 34 35 34 34 31 29 28 27 26 27 28 26 27 32 29 29 28 27 27 26 27 26 25 27 27 27 31 30 33 33 32 32 32 33 30 28 29 27 27 27 28 28 27 30 29 28 27 28 29 30 29 29 27 27 28 30 29 29 26 27 27 30 33 35 34 35 38 37 37 34 30 29 31 29 29 29 31 30 29 29 29 27 29 29 29 28 28 29 30 30 30 30 29 29 31 33 31 29 31 33 32 32 31 33 31 37 32 35 31 31 32 32 31 32 29 31 27 31 30 26 25 24 22 22 21 -193 -209 60 64 68 -209 -209 -209 -209 -209 -209 -209 -209 -209 -209 -209 36 32 32 35 34 33 34 34 36 35 39 38 -193 -177 -177 -193 40 40 41 38 40 40 40 39 40 41 41 48 49 54 50 49 51 51 50 51 48 50 48 50 50 49 49 49 49 54 54 55 58 60 61 61 61 59 58 57 57 57 61 0 0 0 0 0
    0 0 0 0 0 0 0 0 0 0 0 0 0 0 0 0 0 0 0 0 0 0 0 0 0 0 0 0 0 0 0 0 0 0 0 0 0 0 0 0 0 0 0 0 0 0 0 0 0 0 0 0 0 0 0 0 0 0 0 0 0 0 0 0 0 0 0 0 0 13 19 23 22 23 23 25 23 -193 12 17 14 20 21 24 18 21 25 26 26 26 28 31 28 27 28 28 28 27 28 28 26 26 26 26 25 24 24 23 23 24 26 27 29 31 34 34 35 34 34 -193 29 27 27 25 26 26 25 26 29 26 26 27 27 26 26 26 26 25 27 27 27 30 29 31 31 31 30 29 31 29 27 28 27 27 27 29 28 27 29 27 27 26 27 27 27 27 26 26 26 27 29 29 29 27 28 29 33 35 38 37 37 40 38 38 33 29 29 31 29 30 29 31 30 29 30 29 28 29 30 30 29 29 30 31 32 31 31 30 29 31 33 30 29 31 34 33 33 32 34 32 37 33 35 31 31 32 31 31 31 29 31 27 32 31 26 26 26 24 -209 -209 -209 -209 57 62 65 -193 -209 -209 -209 -209 -209 -209 -193 -209 -193 -209 -193 32 32 35 34 33 34 34 36 35 39 38 -193 -177 -177 -193 40 40 41 38 40 40 40 39 41 41 41 47 48 53 50 49 50 51 50 50 48 50 49 50 50 50 49 50 50 54 54 55 58 60 61 61 61 59 58 57 56 56 60 0 0 0 0 0
    0 0 0 0 0 0 0 0 0 0 0 0 0 0 0 0 0 0 0 0 0 0 0 0 0 0 0 0 0 0 0 0 0 0 0 0 0 0 0 0 0 0 0 0 0 0 0 0 0 0 0 0 0 0 0 0 0 0 0 0 0 0 0 0 0 0 0 0 0 12 19 23 22 24 23 26 25 16 17 19 17 21 22 25 20 22 25 27 26 26 28 31 27 27 27 27 27 27 27 26 25 25 26 25 25 23 24 23 25 25 27 27 28 31 34 34 35 34 34 -193 28 26 26 24 25 24 24 24 27 24 24 25 25 25 25 25 25 23 27 28 27 30 29 30 30 29 29 28 29 27 25 26 26 26 26 29 28 27 28 26 26 26 26 27 27 27 25 26 26 27 29 29 29 27 29 30 34 36 37 35 36 40 38 35 31 27 27 30 29 29 28 30 29 28 30 29 28 30 30 31 30 30 31 31 33 32 31 32 31 33 35 33 31 33 37 35 35 34 35 32 37 33 35 31 31 32 31 31 31 30 31 27 32 30 26 26 25 23 25 26 -209 -209 55 61 -209 -193 -209 -209 -209 -209 -209 -209 -193 150 151 -193 -209 32 31 35 34 33 34 33 36 34 39 38 -177 -177 -177 -177 40 40 41 38 40 40 40 40 42 42 42 47 47 53 50 48 50 50 50 50 48 50 49 50 51 50 50 51 51 55 55 56 59 60 60 61 61 59 58 56 56 56 58 0 0 0 0 0
    0 0 0 0 0 0 0 0 0 0 0 0 0 0 0 0 0 0 0 0 0 0 0 0 0 0 0 0 0 0 0 0 0 0 0 0 0 0 0 0 0 0 0 0 0 0 0 0 0 0 0 0 0 0 0 0 0 0 0 0 0 0 0 0 0 0 0 0 0 13 20 24 22 25 24 26 26 23 19 20 19 21 23 25 22 24 26 27 27 26 27 30 26 26 26 26 26 26 27 25 24 25 25 25 25 23 23 22 25 26 26 26 27 29 31 32 33 32 32 29 28 27 27 24 25 24 24 24 26 23 24 24 25 24 25 25 24 22 27 29 28 32 30 30 30 29 28 26 28 25 23 23 23 24 24 27 26 27 27 26 26 27 27 28 27 27 25 27 28 28 30 29 29 27 29 30 32 33 34 30 32 39 35 31 29 27 26 28 27 27 26 27 27 26 28 28 27 30 30 30 30 30 32 31 31 31 30 31 30 32 35 33 33 35 40 37 37 35 35 32 37 34 35 31 31 32 31 31 31 30 31 27 32 30 26 27 26 24 25 26 -209 -209 57 64 66 -209 -209 -193 -209 -209 -209 -209 -193 -193 151 -209 -209 32 31 36 34 33 34 33 36 33 39 37 -177 -177 -177 -193 39 39 41 38 40 40 39 41 42 43 42 46 46 52 50 48 49 50 49 50 48 50 49 50 51 50 50 51 52 55 55 57 59 60 60 61 61 59 58 56 56 56 58 0 0 0 0 0
    0 0 0 0 0 0 0 0 0 0 0 0 0 0 0 0 0 0 0 0 0 0 0 0 0 0 0 0 0 0 0 0 0 0 0 0 0 0 0 0 0 0 0 0 0 0 0 0 0 0 0 0 0 0 0 0 0 0 0 0 0 0 0 0 0 0 0 0 0 14 21 24 22 26 26 27 27 26 23 23 21 23 23 25 24 25 26 28 27 27 27 29 26 25 25 25 26 26 26 25 23 24 24 24 23 21 22 20 23 24 24 24 25 27 28 29 30 30 30 29 28 28 28 25 26 24 24 24 26 23 24 -193 25 25 25 25 25 22 27 30 28 32 31 30 30 29 28 25 26 20 18 18 19 21 21 25 25 26 26 26 26 26 27 27 27 27 26 27 31 29 31 29 29 28 29 29 30 31 31 27 29 36 31 28 28 26 26 27 25 26 24 26 26 25 27 28 27 30 30 30 29 30 33 31 30 31 29 30 30 34 35 33 33 36 42 39 38 36 35 33 36 35 35 31 31 32 31 31 31 30 30 27 32 30 27 27 26 24 -193 26 -209 -209 -209 -193 -209 -209 -209 0 -193 -193 -193 -209 -193 -193 -193 -209 -209 31 31 36 33 32 33 32 35 32 38 37 -177 -177 -177 -193 39 39 40 38 40 40 39 40 42 43 42 -193 -193 52 50 48 49 50 49 49 48 50 49 50 51 51 50 52 53 55 56 57 59 60 61 61 61 59 58 57 57 56 58 0 0 0 0 0
    0 0 0 0 0 0 0 0 0 0 0 0 0 0 0 0 0 0 0 0 0 0 0 0 0 0 0 0 0 0 0 0 0 0 0 0 0 0 0 0 0 0 0 0 0 0 0 0 0 0 0 0 0 0 0 0 0 0 0 0 0 0 0 0 0 0 0 0 0 15 21 24 21 25 25 26 25 25 23 23 21 22 23 25 25 25 26 28 27 27 27 29 25 24 24 24 25 25 25 23 21 23 23 23 21 20 20 18 21 23 23 23 24 26 27 28 29 29 29 29 29 28 28 26 26 24 24 23 26 23 24 -177 26 25 26 26 26 23 28 31 29 33 33 30 30 29 28 26 26 20 18 19 19 20 21 24 24 26 26 25 25 26 26 27 27 27 25 27 33 30 31 30 30 28 29 30 31 30 31 26 27 30 27 25 26 25 24 26 24 25 24 25 25 24 26 28 27 30 30 31 30 31 34 32 30 32 29 31 32 35 35 34 34 36 42 40 39 36 34 32 36 36 35 31 31 32 31 31 31 30 30 27 31 29 26 26 25 24 23 23 -193 -209 -209 -209 -193 -209 -209 0 -193 0 0 -209 -193 -193 -209 -209 -209 31 31 36 33 32 33 32 35 32 38 36 -177 -177 -177 -193 39 39 40 38 40 40 39 40 42 42 -193 -193 -209 52 50 48 48 50 49 49 48 50 48 49 51 50 50 52 53 55 56 57 59 60 61 61 62 60 59 58 57 58 59 0 0 0 0 0
    0 0 0 0 0 0 0 0 0 0 0 0 0 0 0 0 0 0 0 0 0 0 0 0 0 0 0 0 0 0 0 0 0 0 0 0 0 0 0 0 0 0 0 0 0 0 0 0 0 0 0 0 0 0 0 0 0 0 0 0 0 0 0 0 0 0 0 0 0 16 21 24 20 25 25 25 25 25 24 24 22 23 24 25 25 25 26 28 26 26 25 28 24 24 24 24 25 25 25 23 21 23 23 22 21 19 20 18 21 23 23 23 24 26 27 27 28 29 29 29 29 28 29 26 27 24 24 23 25 23 24 -177 26 25 26 27 27 24 28 32 29 34 34 29 29 28 28 26 26 21 19 19 19 20 21 24 24 26 25 25 25 26 26 26 26 27 25 27 33 29 31 30 30 29 29 30 31 30 30 26 26 28 27 26 26 25 25 26 25 25 24 25 24 24 26 28 27 30 30 31 31 32 35 33 30 33 30 34 36 37 36 35 37 39 42 41 40 36 33 31 35 36 35 31 31 32 31 31 31 31 30 27 31 29 26 25 24 24 -209 -193 -209 -209 -209 -209 -209 -209 -193 -209 -209 -193 -193 -209 -193 -193 -209 -209 -193 31 31 36 34 33 33 33 36 32 38 36 -177 -177 -177 -193 38 38 40 38 40 40 38 39 41 42 -193 -209 -209 51 50 47 48 50 48 48 47 49 48 48 50 50 50 52 53 55 55 57 59 61 62 62 62 60 59 58 58 60 61 0 0 0 0 0
    0 0 0 0 0 0 0 0 0 0 0 0 0 0 0 0 0 0 0 0 0 0 0 0 0 0 0 0 0 0 0 0 0 0 0 0 0 0 0 0 0 0 0 0 0 0 0 0 0 0 0 0 0 0 0 0 0 0 0 0 0 0 0 0 0 0 0 0 0 16 22 23 19 26 27 26 25 26 25 25 22 23 23 24 25 25 25 26 25 25 24 27 23 23 23 23 25 25 25 23 20 22 22 22 21 19 20 17 22 23 23 23 24 25 26 27 28 29 29 29 28 28 29 26 27 24 24 23 25 23 24 -177 26 -193 27 28 27 25 28 32 28 33 32 27 27 26 27 25 24 21 19 19 20 21 22 25 23 26 24 24 24 25 25 26 25 26 25 27 31 29 30 29 30 29 29 29 30 29 29 26 25 26 27 26 26 26 25 26 25 25 24 24 23 23 26 29 28 31 31 32 31 34 36 34 30 34 31 35 38 38 37 38 40 -193 44 43 -193 38 34 32 34 37 35 31 31 32 31 31 31 31 29 27 31 29 27 26 28 32 -209 -209 -193 -193 -209 -209 -209 -209 -193 -209 -193 -209 -209 -209 -193 -193 -209 -193 -193 32 31 36 34 33 33 33 36 33 38 36 -193 -193 -177 -193 38 38 39 37 40 40 38 40 42 43 42 44 46 49 50 47 47 49 48 48 48 49 49 48 51 51 50 52 53 55 56 58 60 63 65 66 64 63 60 61 61 67 70 0 0 0 0 0
    0 0 0 0 0 0 0 0 0 0 0 0 0 0 0 0 0 0 0 0 0 0 0 0 0 0 0 0 0 0 0 0 0 0 0 0 0 0 0 0 0 0 0 0 0 0 0 0 0 0 0 0 0 0 0 0 0 0 0 0 0 0 0 0 0 0 0 0 0 16 21 23 19 26 27 27 26 26 25 25 23 24 24 24 25 25 25 25 24 24 23 25 22 22 22 22 24 25 25 21 19 22 21 22 20 18 19 16 22 23 23 23 24 25 26 26 28 28 29 29 28 28 29 27 27 24 24 23 -193 24 24 -177 26 -193 28 29 29 26 29 32 28 32 30 26 25 24 24 23 23 20 19 19 21 21 22 24 22 25 23 22 23 -193 -193 25 -193 25 23 26 30 28 29 29 29 29 28 29 29 29 29 25 25 26 27 26 26 26 25 26 25 25 24 24 23 22 24 30 28 31 31 32 32 35 36 35 29 35 31 35 38 38 36 36 -193 43 45 45 44 -209 34 31 32 38 35 31 31 32 31 31 31 31 29 27 31 30 27 -193 33 38 47 -209 -209 -209 -209 -209 -209 -209 -193 -209 -209 -209 -209 -209 -193 -193 43 35 39 33 32 36 35 34 34 34 37 33 38 36 35 -193 -177 38 38 38 39 37 40 40 39 41 43 44 42 46 47 48 51 47 47 49 48 48 48 49 49 49 52 52 51 53 54 56 57 59 62 66 68 70 68 67 65 66 68 71 73 0 0 0 0 0
    0 0 0 0 0 0 0 0 0 0 0 0 0 0 0 0 0 0 0 0 0 0 0 0 0 0 0 0 0 0 0 0 0 0 0 0 0 0 0 0 0 0 0 0 0 0 0 0 0 0 0 0 0 0 0 0 0 0 0 0 0 0 0 0 0 0 0 0 0 19 23 24 22 27 28 27 26 26 25 25 23 25 24 24 25 24 25 25 23 24 23 24 21 21 21 21 23 24 24 21 18 22 22 22 21 19 20 18 22 24 23 23 24 25 26 27 28 29 29 29 29 29 29 27 27 -193 24 23 -193 25 -193 -177 27 -193 28 30 29 26 29 32 27 30 28 23 22 22 22 22 21 20 19 19 20 21 21 24 21 25 21 21 22 -193 -193 -193 -193 -193 21 26 30 28 29 29 29 29 29 29 29 29 29 26 25 26 28 27 27 27 26 27 26 26 24 24 22 22 24 30 27 31 31 32 32 35 37 35 28 35 30 34 37 38 37 40 45 45 48 47 46 43 36 31 29 38 35 31 32 32 32 31 32 32 29 27 31 30 27 -193 28 38 -209 -209 -209 -209 -209 -209 -209 -209 -193 -209 -193 -209 -209 -209 -209 -209 41 35 39 33 34 37 36 35 35 36 37 34 39 36 35 38 -193 38 38 37 39 37 40 40 39 41 43 44 43 48 48 48 51 48 48 49 48 48 47 50 50 48 52 53 52 54 55 57 58 61 65 69 70 71 70 70 69 70 71 72 73 0 0 0 0 0
    0 0 0 0 0 0 0 0 0 0 0 0 0 0 0 0 0 0 0 0 0 0 0 0 0 0 0 0 0 0 0 0 0 0 0 0 0 0 0 0 0 0 0 0 0 0 0 0 0 0 0 0 0 0 0 0 0 0 0 0 0 0 0 0 0 0 0 0 0 21 24 25 24 28 29 28 26 26 25 25 24 25 24 24 25 24 24 25 23 23 23 24 21 21 21 21 22 23 24 21 19 22 23 23 22 20 21 19 22 24 23 24 24 26 26 27 28 29 29 29 29 29 29 27 27 25 25 23 -193 25 25 497 27 27 28 30 30 26 30 32 27 30 27 22 21 21 21 21 21 20 20 20 21 21 22 24 21 24 21 21 22 -193 -193 -193 -177 -193 21 26 30 28 28 29 29 29 29 29 29 28 28 25 24 25 27 26 28 27 26 27 26 26 25 24 22 21 23 28 26 29 30 30 30 33 35 34 28 33 28 31 36 39 -193 41 48 46 49 48 47 43 36 32 29 38 35 32 32 33 32 32 32 32 29 27 31 30 27 24 -193 29 -209 -209 -209 -209 -209 -209 -209 -209 -193 -193 174 -209 -209 -209 -209 -209 34 33 39 33 34 37 36 36 36 36 37 35 39 36 35 38 38 37 37 37 38 37 40 40 39 41 43 44 43 49 48 48 51 48 47 49 48 48 47 49 49 47 52 52 51 54 55 57 58 63 66 70 70 71 71 72 71 71 72 73 73 0 0 0 0 0
    0 0 0 0 0 0 0 0 0 0 0 0 0 0 0 0 0 0 0 0 0 0 0 0 0 0 0 0 0 0 0 0 0 0 0 0 0 0 0 0 0 0 0 0 0 0 0 0 0 0 0 0 0 0 0 0 0 0 0 0 0 0 0 0 0 0 0 0 0 23 25 27 25 29 30 29 27 27 26 26 24 25 25 24 25 24 24 25 23 24 23 24 22 21 21 22 23 24 24 22 20 23 24 24 23 21 22 21 23 25 24 25 25 26 27 28 28 29 29 30 29 29 29 28 28 26 26 24 28 27 26 -193 28 28 29 31 31 26 30 32 27 -209 32 -209 21 22 21 21 21 20 21 21 22 23 23 25 21 24 20 20 21 -193 -193 23 -177 -193 20 25 28 27 27 28 28 28 28 28 28 28 28 24 23 24 26 26 27 26 26 27 26 26 25 24 22 20 22 27 26 28 29 29 29 32 34 33 27 32 27 27 29 33 -209 -209 47 46 47 44 42 40 35 32 29 38 35 32 32 33 32 32 32 32 29 27 31 29 26 -193 -193 29 -193 23 -193 -209 -209 -193 28 -209 -193 -193 176 -209 -193 -209 -193 22 28 29 37 32 33 37 36 36 36 37 37 35 39 36 35 38 38 37 37 37 38 37 40 40 39 41 43 44 44 50 49 48 52 48 47 49 48 48 47 49 49 46 51 52 51 54 54 56 58 64 67 70 71 70 70 72 72 71 72 72 73 0 0 0 0 0
    0 0 0 0 0 0 0 0 0 0 0 0 0 0 0 0 0 0 0 0 0 0 0 0 0 0 0 0 0 0 0 0 0 0 0 0 0 0 0 0 0 0 0 0 0 0 0 0 0 0 0 0 0 0 0 0 0 0 0 0 0 0 0 0 0 0 0 0 0 24 26 28 26 30 30 30 27 28 26 26 24 25 25 25 25 25 25 25 24 24 23 25 22 22 22 22 23 24 24 23 21 23 24 24 24 22 23 22 23 -193 25 25 26 27 28 28 29 29 29 30 29 29 29 28 28 26 26 25 29 27 28 -193 29 29 30 32 31 26 30 31 26 -209 -209 -209 -209 25 22 21 21 21 22 22 23 23 24 26 20 23 19 19 20 -193 22 21 -193 -193 19 25 26 26 27 27 28 28 28 28 28 27 28 24 24 24 25 25 27 26 26 26 26 27 26 25 21 20 22 27 26 28 28 28 28 31 34 33 27 31 26 26 26 26 -193 -209 -193 45 44 -193 -209 38 33 31 29 38 35 32 32 33 32 32 32 32 29 27 31 30 26 -209 25 30 -209 -209 -209 -209 -209 26 27 -209 -209 -209 -193 -209 -193 -209 -193 22 28 28 37 32 33 37 36 36 36 37 37 36 39 37 36 38 37 37 37 37 38 36 40 40 39 41 43 44 44 51 49 48 52 48 47 49 48 48 47 49 49 46 51 52 51 54 54 56 58 65 68 71 71 70 70 72 72 72 72 72 73 0 0 0 0 0
    0 0 0 0 0 0 0 0 0 0 0 0 0 0 0 0 0 0 0 0 0 0 0 0 0 0 0 0 0 0 0 0 0 0 0 0 0 0 0 0 0 0 0 0 0 0 0 0 0 0 0 0 0 0 0 0 0 0 0 0 0 0 0 0 0 0 0 0 0 26 28 30 28 30 31 31 28 29 27 26 25 26 26 25 25 25 25 25 23 23 23 25 23 23 23 23 24 25 25 24 21 23 24 24 24 22 23 23 24 27 26 26 27 27 28 29 29 30 29 30 29 29 29 28 28 27 27 25 30 28 28 -193 29 29 29 31 31 26 29 30 -193 -209 -209 -209 31 30 22 23 22 23 24 23 24 25 26 27 21 23 19 19 20 21 21 20 -193 22 18 24 25 25 26 27 28 28 28 28 28 27 28 24 23 23 24 25 26 26 26 26 26 27 27 26 21 19 22 27 26 28 28 28 28 31 33 33 27 31 27 26 -193 -193 26 31 36 38 -209 -193 -193 34 30 30 29 37 35 32 32 33 32 32 32 32 29 27 31 31 26 32 32 30 -209 -209 -209 -209 -209 -209 -209 -209 -209 -209 -209 -209 -209 -193 -209 -209 31 29 37 32 34 37 36 36 36 37 37 36 39 37 36 37 37 37 37 37 38 36 40 40 40 41 44 44 44 51 49 48 52 47 47 48 48 48 47 49 49 46 51 52 52 55 55 58 59 65 68 70 70 69 70 72 71 71 72 72 72 0 0 0 0 0
    0 0 0 0 0 0 0 0 0 0 0 0 0 0 0 0 0 0 0 0 0 0 0 0 0 0 0 0 0 0 0 0 0 0 0 0 0 0 0 0 0 0 0 0 0 0 0 0 0 0 0 0 0 0 0 0 0 0 0 0 0 0 0 0 0 0 0 0 0 27 29 30 29 31 32 32 29 31 29 28 27 27 27 26 26 25 25 25 23 23 23 25 23 23 23 23 24 25 26 25 22 24 25 25 25 24 24 24 25 28 27 27 27 28 29 29 29 30 29 30 29 29 29 28 28 27 27 26 31 28 28 29 29 29 29 31 31 26 29 30 26 -209 41 37 33 35 22 23 22 23 24 23 24 25 26 28 20 23 19 19 19 21 21 20 -193 21 17 24 25 25 26 26 27 28 27 28 28 27 28 23 23 22 24 24 26 25 26 25 26 26 27 26 21 19 22 26 26 27 27 27 27 31 33 33 27 31 27 26 -193 22 25 30 27 34 -193 33 33 34 31 30 32 36 35 32 32 33 32 32 32 32 30 28 32 32 27 34 33 28 -209 -193 -209 -209 -209 -209 -209 -209 -209 -209 -209 -209 -209 -193 21 24 33 29 36 32 34 37 36 36 36 37 37 36 39 36 36 37 37 37 37 37 38 36 40 40 40 41 43 43 43 50 48 47 52 47 47 48 48 48 47 49 49 46 51 53 54 56 57 60 61 66 68 69 69 67 70 71 71 71 71 72 72 0 0 0 0 0
    0 0 0 0 0 0 0 0 0 0 0 0 0 0 0 0 0 0 0 0 0 0 0 0 0 0 0 0 0 0 0 0 0 0 0 0 0 0 0 0 0 0 0 0 0 0 0 0 0 0 0 0 0 0 0 0 0 0 0 0 0 0 0 0 0 0 0 0 0 26 28 30 29 31 31 33 30 32 31 28 28 28 27 26 26 25 26 26 24 23 23 26 25 24 24 24 25 26 27 26 23 25 25 25 26 25 25 25 25 28 27 28 28 28 29 29 29 30 29 29 29 29 29 28 28 28 28 26 32 29 29 30 30 30 29 31 31 26 29 30 -193 -209 40 36 32 35 22 23 22 23 24 22 24 24 26 28 20 22 18 18 19 20 20 19 18 21 17 -193 25 25 26 26 27 28 28 28 28 27 27 23 23 21 23 24 25 25 25 25 26 26 27 26 21 20 22 27 26 27 27 27 28 31 35 33 27 31 27 27 27 23 25 30 28 34 -209 33 34 34 31 31 35 36 35 32 32 33 32 32 33 32 30 28 33 32 27 32 33 27 -209 -193 -209 -209 -209 27 -209 -193 -209 -209 -209 -209 23 24 23 26 35 31 35 32 35 37 36 36 36 37 37 36 39 36 36 37 37 37 37 38 38 36 40 40 40 41 43 42 43 50 47 46 51 47 46 48 47 48 47 49 49 46 51 53 55 57 58 61 62 66 67 69 69 67 69 71 70 71 71 71 72 0 0 0 0 0
    0 0 0 0 0 0 0 0 0 0 0 0 0 0 0 0 0 0 0 0 0 0 0 0 0 0 0 0 0 0 0 0 0 0 0 0 0 0 0 0 0 0 0 0 0 0 0 0 0 0 0 0 0 0 0 0 0 0 0 0 0 0 0 0 0 0 0 0 0 26 28 29 30 31 30 33 31 33 33 30 29 28 28 27 27 26 26 27 25 24 24 28 26 26 25 25 26 26 27 27 24 25 25 25 26 25 25 25 25 29 27 28 28 29 29 29 29 29 28 29 28 29 29 28 29 28 28 27 34 29 30 31 30 30 30 31 31 26 30 30 -193 -209 39 35 31 32 24 25 24 24 25 21 23 23 26 27 19 22 18 18 18 20 20 19 17 21 17 -193 -193 25 26 26 27 28 28 28 28 28 27 22 22 21 -193 24 25 25 25 25 26 25 28 27 22 21 23 28 27 28 28 27 28 31 35 33 27 31 26 29 -193 -209 26 31 29 34 32 33 34 34 31 31 36 35 35 32 32 33 32 32 33 31 31 28 33 32 26 29 -193 -209 -209 -193 -209 -209 -209 -193 -209 -209 -209 -209 -193 21 22 23 23 26 35 31 34 32 35 37 35 36 36 37 36 36 38 36 35 37 37 36 37 38 38 36 39 40 40 41 43 42 43 49 46 46 52 46 46 48 47 48 47 49 49 46 50 53 54 56 57 60 61 65 67 68 68 66 69 71 70 71 71 71 71 0 0 0 0 0
    0 0 0 0 0 0 0 0 0 0 0 0 0 0 0 0 0 0 0 0 0 0 0 0 0 0 0 0 0 0 0 0 0 0 0 0 0 0 0 0 0 0 0 0 0 0 0 0 0 0 0 0 0 0 0 0 0 0 0 0 0 0 0 0 0 0 0 0 0 28 30 31 30 31 30 33 31 31 31 28 28 28 28 28 27 27 27 27 26 25 25 30 27 27 26 26 27 27 28 27 24 25 25 25 26 25 25 25 26 29 28 29 29 29 30 29 29 29 28 28 28 28 28 27 28 29 29 28 34 29 30 31 30 30 29 31 31 26 30 31 22 -209 39 35 32 32 26 25 -193 25 25 22 23 23 26 27 19 22 18 18 18 20 20 19 17 21 16 -193 -193 25 26 27 28 28 28 28 29 28 27 21 22 20 -193 -193 -193 25 24 24 25 25 28 27 22 21 24 28 27 28 28 28 28 31 34 31 26 29 24 26 -193 19 -193 32 29 35 34 35 34 33 31 32 36 35 35 32 32 34 33 33 33 31 31 28 33 32 26 28 -209 23 -209 -193 -209 -209 -209 -209 -209 -209 -209 -209 -209 -193 24 25 27 27 33 31 31 30 35 36 35 35 36 36 35 35 38 36 35 37 36 36 37 38 38 36 39 40 40 41 42 42 42 48 45 45 52 46 46 47 47 48 47 49 48 45 49 52 53 55 56 59 60 63 65 67 68 65 69 71 70 71 71 71 71 0 0 0 0 0
    0 0 0 0 0 0 0 0 0 0 0 0 0 0 0 0 0 0 0 0 0 0 0 0 0 0 0 0 0 0 0 0 0 0 0 0 0 0 0 0 0 0 0 0 0 0 0 0 0 0 0 0 0 0 0 0 0 0 0 0 0 0 0 0 0 0 0 0 0 27 29 31 29 30 29 32 31 31 31 28 28 28 28 28 28 28 28 28 27 25 25 32 28 28 27 26 28 28 29 27 24 24 24 25 26 25 25 25 27 31 29 30 30 30 30 29 28 28 26 27 27 27 27 27 28 30 29 28 34 29 29 31 30 29 29 30 30 26 30 31 17 -209 42 37 35 33 -193 -193 -193 26 26 24 25 24 27 26 19 22 18 18 18 19 19 19 17 21 16 -193 -193 25 26 27 28 28 28 29 29 27 26 20 22 19 -193 22 -209 23 22 22 24 22 27 27 22 22 25 29 28 29 28 28 28 32 35 31 27 29 -193 27 -193 17 23 30 27 34 32 34 34 32 31 32 37 34 35 32 32 34 33 33 33 31 31 28 33 32 26 29 -209 -209 -209 -193 -209 -209 -209 -193 -209 -193 -193 -209 37 35 35 34 33 32 34 34 31 31 35 35 34 35 35 35 33 34 37 35 35 37 36 36 37 38 38 36 39 40 40 41 42 41 42 47 45 45 52 46 46 48 47 48 47 48 48 46 49 51 53 55 56 58 60 62 64 67 67 64 68 71 70 70 71 71 71 0 0 0 0 0
    0 0 0 0 0 0 0 0 0 0 0 0 0 0 0 0 0 0 0 0 0 0 0 0 0 0 0 0 0 0 0 0 0 0 0 0 0 0 0 0 0 0 0 0 0 0 0 0 0 0 0 0 0 0 0 0 0 0 0 0 0 0 0 0 0 0 0 0 0 26 28 30 28 29 28 30 32 31 31 26 27 28 29 29 29 29 29 29 28 26 26 34 29 29 28 27 28 28 29 27 23 24 24 -193 26 24 25 25 27 31 29 30 30 29 30 28 27 27 25 27 27 27 27 27 30 31 30 29 34 29 29 30 -193 -193 28 29 30 26 31 32 21 -209 42 36 35 -209 -193 -193 -193 28 26 25 25 24 27 25 20 22 18 18 18 19 19 18 16 21 15 -193 -193 25 26 26 27 28 28 28 28 27 26 20 22 19 19 21 22 21 20 20 22 18 26 27 21 22 26 29 28 29 29 29 29 33 36 31 26 27 21 24 21 15 21 25 24 28 27 31 31 30 30 31 37 34 35 32 32 34 33 33 33 31 32 28 33 33 26 29 -209 -209 -193 -209 -209 -209 -193 -193 -193 -193 38 38 37 37 37 35 35 34 36 35 32 32 35 35 34 34 33 33 31 33 37 35 35 36 36 36 38 38 38 36 39 41 41 42 43 42 43 47 46 46 52 46 46 48 47 48 48 49 49 46 49 51 53 55 56 58 60 62 64 66 67 63 68 70 69 69 70 70 70 0 0 0 0 0
    0 0 0 0 0 0 0 0 0 0 0 0 0 0 0 0 0 0 0 0 0 0 0 0 0 0 0 0 0 0 0 0 0 0 0 0 0 0 0 0 0 0 0 0 0 0 0 0 0 0 0 0 0 0 0 0 0 0 0 0 0 0 0 0 0 0 0 0 0 25 28 28 27 27 26 29 31 29 29 25 25 27 28 29 29 28 29 29 26 25 25 32 27 27 26 25 27 27 29 26 23 23 23 -193 25 23 23 22 27 29 28 29 28 28 28 26 25 25 25 27 28 29 28 29 32 33 30 29 34 28 28 30 -193 -193 27 29 30 27 33 33 25 38 38 33 30 -193 -193 -193 -193 27 26 24 24 24 27 25 20 22 18 18 19 20 19 18 17 21 17 -193 -193 27 27 27 28 28 -193 27 27 27 26 22 23 20 20 21 21 21 19 20 21 16 25 26 21 22 26 30 29 30 29 30 30 34 37 31 25 26 20 24 21 16 21 23 24 26 26 29 29 29 30 30 37 33 36 32 32 34 33 33 33 30 32 29 34 33 26 29 -209 -193 -193 -209 -209 -209 -193 41 41 36 38 37 37 37 36 35 35 35 36 36 32 33 35 34 34 33 32 33 30 32 36 35 34 36 36 36 38 39 38 37 39 41 41 42 42 41 42 46 45 45 52 46 46 48 47 48 48 48 49 46 49 51 53 55 55 58 60 61 63 66 67 63 68 70 68 69 70 70 71 0 0 0 0 0
    0 0 0 0 0 0 0 0 0 0 0 0 0 0 0 0 0 0 0 0 0 0 0 0 0 0 0 0 0 0 0 0 0 0 0 0 0 0 0 0 0 0 0 0 0 0 0 0 0 0 0 0 0 0 0 0 0 0 0 0 0 0 0 0 0 0 0 0 0 25 27 27 26 26 25 27 31 28 27 26 26 27 28 29 29 28 28 28 21 20 24 29 26 26 25 24 26 27 28 24 22 22 -193 -193 24 22 22 18 26 28 27 27 27 26 23 21 20 19 22 25 28 30 29 31 35 35 30 29 32 27 27 28 -193 -193 27 28 29 27 33 33 26 -209 32 -193 28 26 -193 23 26 26 25 23 23 24 27 26 20 22 18 18 19 20 20 19 17 22 18 26 30 30 27 29 -193 -209 -209 -209 -209 -193 -193 22 23 21 21 21 22 21 19 21 21 18 24 26 21 23 27 31 30 31 30 30 30 34 38 30 24 24 15 24 21 15 21 23 24 27 27 30 30 29 30 31 38 32 36 32 32 34 33 33 33 30 33 29 35 34 27 32 -209 -209 -193 -209 -209 37 41 42 41 37 38 38 37 37 37 35 35 35 36 36 33 33 35 34 33 33 32 32 30 32 36 35 35 36 36 37 38 39 39 37 39 41 41 42 42 40 41 44 44 44 52 46 46 48 48 48 48 48 49 46 48 51 52 54 55 57 60 61 63 66 67 63 67 69 66 68 69 70 70 0 0 0 0 0
    0 0 0 0 0 0 0 0 0 0 0 0 0 0 0 0 0 0 0 0 0 0 0 0 0 0 0 0 0 0 0 0 0 0 0 0 0 0 0 0 0 0 0 0 0 0 0 0 0 0 0 0 0 0 0 0 0 0 0 0 0 0 0 0 0 0 0 0 0 24 26 27 25 25 22 25 27 26 24 25 25 27 28 29 30 30 29 30 -193 15 23 26 25 24 24 23 25 26 27 23 22 22 -193 -193 23 22 22 16 26 27 25 23 20 17 17 17 16 17 21 25 28 32 31 33 36 38 31 28 30 26 26 -193 -193 -193 -193 28 28 27 34 32 -193 -209 -193 -193 27 -193 26 24 26 26 25 24 23 24 27 26 19 21 18 18 19 20 20 19 18 23 20 27 33 32 28 -193 -193 -209 -209 -209 -209 -209 -193 23 23 22 22 22 23 23 21 22 22 -193 25 28 23 23 29 32 32 33 32 32 32 35 39 27 24 24 17 25 23 17 22 23 25 29 29 33 32 30 32 33 38 33 36 32 32 34 33 33 33 30 34 29 35 35 27 33 42 -193 -193 -209 -209 38 42 43 42 38 38 38 37 37 37 35 35 35 35 36 33 33 35 34 33 33 31 33 30 32 36 36 35 37 37 37 38 39 39 37 39 41 40 41 41 40 41 44 45 44 53 46 46 49 48 49 48 48 49 46 48 50 50 52 53 56 58 59 61 64 66 63 66 66 61 63 65 68 68 0 0 0 0 0
    0 0 0 0 0 0 0 0 0 0 0 0 0 0 0 0 0 0 0 0 0 0 0 0 0 0 0 0 0 0 0 0 0 0 0 0 0 0 0 0 0 0 0 0 0 0 0 0 0 0 0 0 0 0 0 0 0 0 0 0 0 0 0 0 0 0 0 0 0 24 26 27 24 24 21 22 24 24 22 24 24 26 27 28 30 30 29 -193 -193 -193 23 24 24 24 23 23 24 25 25 21 20 21 21 22 22 21 21 14 26 26 25 23 -209 -209 20 19 18 19 22 -193 -193 -193 -193 -193 36 38 -193 27 27 -193 -193 -193 -177 -177 -193 26 27 27 33 30 -209 33 28 29 28 -209 26 25 26 26 25 26 24 25 28 26 20 22 19 19 20 21 21 20 19 24 22 27 33 32 -193 -193 -193 -193 -193 -209 -209 -209 -193 24 23 22 23 23 24 26 22 25 -209 -193 -209 -209 -209 -193 32 35 35 35 34 34 35 36 40 24 24 24 22 27 24 21 24 26 28 31 30 33 31 31 32 33 39 33 36 33 33 34 34 33 33 30 34 29 36 35 28 -193 44 50 -193 -209 -193 43 45 45 44 39 39 38 37 37 37 35 35 34 35 36 33 33 34 34 33 32 31 33 30 32 36 36 36 37 37 38 38 39 39 38 39 41 40 41 41 41 42 44 47 46 54 47 47 50 48 49 49 48 49 46 48 49 48 50 50 52 56 55 59 62 66 62 59 -209 45 50 53 -193 -209 0 0 0 0 0
    0 0 0 0 0 0 0 0 0 0 0 0 0 0 0 0 0 0 0 0 0 0 0 0 0 0 0 0 0 0 0 0 0 0 0 0 0 0 0 0 0 0 0 0 0 0 0 0 0 0 0 0 0 0 0 0 0 0 0 0 0 0 0 0 0 0 0 0 0 25 27 28 24 24 22 17 24 23 21 23 23 25 26 26 29 29 28 -193 -209 -193 23 23 23 23 22 22 -193 -193 -193 19 19 20 20 21 21 20 20 14 26 28 26 -193 -209 -209 22 20 19 20 22 -193 -209 -193 -193 -193 36 37 -193 26 -209 -193 -193 -193 -193 -193 -193 25 26 26 31 -193 -193 34 29 30 29 -209 27 25 26 27 25 26 24 24 27 25 19 21 20 20 20 21 21 20 19 25 24 27 33 32 28 31 -193 -193 -193 -193 -209 -193 -193 25 25 25 26 25 26 28 24 -209 -209 -177 -209 -177 -177 25 34 35 35 35 34 34 34 34 38 25 25 26 25 29 27 25 26 30 33 35 34 34 31 31 31 34 39 33 36 34 34 35 34 34 34 31 36 31 37 37 31 42 45 49 -193 -193 -193 44 45 46 45 39 39 38 37 37 37 35 35 34 35 36 33 33 34 34 33 32 30 33 30 32 36 36 36 38 38 38 39 40 40 39 40 41 41 42 42 41 43 44 47 48 54 48 48 51 49 49 49 48 49 47 48 48 47 48 47 48 51 44 -209 -193 60 -209 -209 -209 -193 46 49 -209 -193 0 0 0 0 0
    0 0 0 0 0 0 0 0 0 0 0 0 0 0 0 0 0 0 0 0 0 0 0 0 0 0 0 0 0 0 0 0 0 0 0 0 0 0 0 0 0 0 0 0 0 0 0 0 0 0 0 0 0 0 0 0 0 0 0 0 0 0 0 0 0 0 0 0 0 26 28 29 24 24 22 14 22 23 22 24 25 26 26 25 29 28 -193 -209 -209 13 23 21 21 22 21 21 -193 -193 -193 18 19 20 19 21 21 21 -193 -193 26 29 27 -209 -209 -209 22 20 19 19 23 -209 -209 -193 -193 -193 37 37 -193 25 -193 23 23 -193 -193 22 -193 -193 -193 26 30 -193 -193 35 -193 32 29 -209 27 25 26 26 25 25 24 25 27 25 20 22 20 20 21 22 22 21 20 25 26 27 32 32 28 31 30 30 31 29 28 28 27 28 27 28 28 27 28 30 28 -193 -209 -209 -209 -209 -209 24 35 35 35 35 34 35 34 34 37 27 27 27 27 29 27 27 27 35 37 37 37 35 32 32 31 34 39 33 36 35 35 36 35 35 35 33 37 33 38 38 36 43 46 49 47 -193 -193 44 46 46 45 39 39 38 37 37 37 35 35 34 35 36 33 34 34 33 33 32 30 33 30 32 37 37 36 38 38 39 39 40 40 40 40 42 41 42 42 42 43 43 46 48 53 49 48 51 49 49 49 48 49 47 48 48 46 48 47 47 49 43 -225 -225 -225 -225 50 48 45 48 49 51 -193 0 0 0 0 0</data></disparity>
</opencv_storage>
