<?xml version="1.0"?>
<opencv_storage>
<gps_time_stamp>291308</gps_time_stamp>
<gps_x>-1.2354946136474609e+001</gps_x>
<gps_y>1.1116597175598145e+001</gps_y>
<gps_z>-2.1983885765075684e+000</gps_z>
<image_time_stamp>282157</image_time_stamp>
<disparity type_id="opencv-matrix">
  <rows>92</rows>
  <cols>320</cols>
  <dt>s</dt>
  <data>
    0 0 0 0 0 0 0 0 0 0 0 0 0 0 0 0 0 0 0 0 0 0 0 0 0 0 0 0 0 0 0 0 0 0 0 0 0 0 0 0 0 0 0 0 0 0 0 0 0 0 0 0 0 0 0 0 0 0 0 0 0 0 0 0 0 0 0 0 0 -193 -209 -209 -209 -193 75 77 79 77 77 76 75 75 75 75 75 74 -193 -209 -209 -209 -209 -193 -209 -209 -209 -209 860 -209 -209 -209 -209 -209 -209 -193 -209 76 71 71 71 71 71 71 71 71 70 73 73 73 73 75 77 77 78 78 78 79 79 78 78 78 77 76 75 75 75 75 75 75 76 75 76 77 77 77 77 78 78 77 77 77 77 77 77 77 79 78 79 79 81 78 79 78 77 75 77 76 76 75 76 77 78 78 82 79 81 83 81 80 80 80 82 79 80 81 77 80 78 78 77 76 75 76 77 78 76 77 77 77 79 78 77 78 79 77 77 83 80 78 79 81 79 79 81 81 76 80 83 83 77 85 -193 84 83 -193 -193 -193 82 84 82 84 84 88 87 89 88 89 89 91 91 92 90 88 85 83 83 84 82 81 80 81 83 84 86 85 87 -193 89 -209 -209 -209 -209 -209 -209 -209 -209 -209 -209 -209 84 82 83 82 81 83 85 84 82 85 86 87 85 84 86 85 85 85 86 86 85 87 87 83 87 87 87 -209 85 76 -225 73 82 -209 -209 -209 -193 149 -225 -225 140 139 140 -193 -209 -209 -209 0 0 0 0 0
    0 0 0 0 0 0 0 0 0 0 0 0 0 0 0 0 0 0 0 0 0 0 0 0 0 0 0 0 0 0 0 0 0 0 0 0 0 0 0 0 0 0 0 0 0 0 0 0 0 0 0 0 0 0 0 0 0 0 0 0 0 0 0 0 0 0 0 0 0 -209 -209 -209 -209 73 76 77 80 77 76 76 74 75 -193 73 -209 -209 -209 -193 -209 -209 70 69 69 70 68 -193 -209 -209 -209 -209 -209 -209 -209 -209 -209 75 71 71 71 71 71 71 71 70 70 73 73 73 74 76 78 77 78 78 78 79 79 78 78 77 77 76 75 75 75 75 75 76 76 75 76 77 77 77 77 77 77 77 78 77 77 77 78 77 79 78 79 79 81 79 81 79 79 77 79 77 78 76 78 78 79 79 83 81 82 83 81 80 81 82 82 79 79 79 77 79 77 76 75 74 73 74 76 76 74 76 77 77 79 78 77 80 80 78 77 83 80 79 79 81 79 79 82 81 77 79 83 83 79 86 -193 85 84 85 -193 -193 -193 86 85 86 86 89 88 89 88 89 90 92 92 94 91 89 85 83 83 84 82 82 81 81 84 84 86 86 -193 -209 -193 -209 -209 -209 -209 -209 -209 -209 -209 -209 -209 -209 82 81 81 80 81 83 85 84 83 86 88 88 86 86 87 87 87 87 87 87 86 88 89 88 88 88 88 -209 -209 -193 -225 72 -177 -209 -209 -209 144 148 146 146 144 143 143 143 -193 -209 -193 0 0 0 0 0
    0 0 0 0 0 0 0 0 0 0 0 0 0 0 0 0 0 0 0 0 0 0 0 0 0 0 0 0 0 0 0 0 0 0 0 0 0 0 0 0 0 0 0 0 0 0 0 0 0 0 0 0 0 0 0 0 0 0 0 0 0 0 0 0 0 0 0 0 0 -193 -209 -209 -209 -209 77 78 81 76 76 -193 -193 -209 -209 -209 -209 -209 -209 71 -209 -209 -193 70 70 70 68 68 -209 -193 -193 -209 -209 -193 -193 -193 -209 74 71 71 71 70 70 71 71 70 68 72 72 71 74 77 78 77 78 78 77 79 78 77 77 77 76 76 76 76 76 76 77 77 78 76 76 78 77 77 77 77 77 76 77 77 77 77 78 77 78 79 80 80 82 80 82 80 80 78 78 76 75 75 76 76 77 78 81 81 80 80 80 79 80 81 81 79 80 80 80 79 80 77 76 74 73 74 76 75 74 75 77 77 79 80 78 81 81 77 77 82 80 79 79 80 79 79 82 82 76 78 84 84 82 87 -193 -209 86 88 88 89 88 88 86 88 88 90 88 90 90 92 95 98 98 100 97 91 90 85 86 85 83 83 82 82 84 85 86 86 87 -209 -193 -209 -209 -209 -209 -209 -209 -209 -209 -209 -209 87 83 81 80 80 81 83 84 84 84 87 88 88 86 86 87 88 88 88 88 88 88 89 90 90 89 89 89 -209 78 -193 77 71 -193 -209 -209 -209 143 146 143 144 143 143 143 143 144 146 145 0 0 0 0 0
    0 0 0 0 0 0 0 0 0 0 0 0 0 0 0 0 0 0 0 0 0 0 0 0 0 0 0 0 0 0 0 0 0 0 0 0 0 0 0 0 0 0 0 0 0 0 0 0 0 0 0 0 0 0 0 0 0 0 0 0 0 0 0 0 0 0 0 0 0 -209 -209 -209 -209 -209 -209 -193 -193 -209 -209 -209 -209 -209 -209 -209 -209 -209 -209 -209 -209 -209 -209 -209 -193 -193 -193 -209 -209 -193 -193 -193 -209 -193 -193 -193 -209 74 71 71 71 70 70 70 70 69 67 71 71 68 75 79 80 77 79 78 78 79 78 76 76 75 75 76 76 77 77 78 79 79 80 78 77 78 78 77 78 77 77 77 77 77 78 77 78 77 78 78 79 81 83 82 84 80 82 79 80 77 75 75 76 78 79 80 83 83 84 85 84 83 83 83 83 83 83 83 82 82 84 79 79 79 78 77 79 77 76 75 78 78 79 81 79 81 82 77 77 82 81 79 79 80 79 79 82 82 77 77 84 85 86 90 -209 -193 89 91 91 91 91 90 88 89 89 91 90 92 93 94 98 100 98 100 97 93 92 87 87 85 83 83 82 81 83 83 84 84 83 85 84 -193 -209 -209 -193 -209 -209 -209 -209 -209 -209 88 84 82 81 80 82 84 84 84 84 87 88 88 87 87 87 90 90 90 89 90 89 90 91 91 89 89 89 89 78 77 80 74 -193 -209 -209 -193 143 146 143 144 142 144 143 143 144 145 145 0 0 0 0 0
    0 0 0 0 0 0 0 0 0 0 0 0 0 0 0 0 0 0 0 0 0 0 0 0 0 0 0 0 0 0 0 0 0 0 0 0 0 0 0 0 0 0 0 0 0 0 0 0 0 0 0 0 0 0 0 0 0 0 0 0 0 0 0 0 0 0 0 0 0 -209 -209 -209 -209 -209 -209 -209 -209 -209 -209 -209 -209 -209 -193 -209 -193 -209 -209 69 -209 -209 -209 -209 -209 -209 -209 -209 -209 -209 -209 -209 -209 -209 -193 -193 -209 75 71 71 71 69 69 69 70 69 66 70 70 67 75 79 79 76 78 77 76 77 77 76 76 75 75 77 77 77 79 79 81 82 82 81 80 82 83 81 81 78 77 77 77 77 78 77 79 76 79 79 81 83 84 85 86 81 84 81 81 77 76 78 82 87 87 89 90 90 91 91 90 90 88 87 86 85 84 84 83 84 86 82 83 82 84 83 84 83 80 76 79 79 82 81 78 79 82 77 77 81 81 79 79 80 79 79 82 83 78 77 85 87 90 91 -193 92 92 93 93 93 93 91 91 90 91 93 92 94 95 95 99 99 98 99 96 93 92 89 88 86 84 83 82 81 82 81 83 82 81 82 83 80 78 76 77 -193 -209 -209 -209 -209 92 87 84 84 82 81 83 84 84 84 84 87 87 88 87 87 88 92 91 91 91 92 91 91 92 92 89 90 90 89 79 79 81 -193 -209 -177 -209 136 140 142 141 142 142 143 143 143 143 144 144 0 0 0 0 0
    0 0 0 0 0 0 0 0 0 0 0 0 0 0 0 0 0 0 0 0 0 0 0 0 0 0 0 0 0 0 0 0 0 0 0 0 0 0 0 0 0 0 0 0 0 0 0 0 0 0 0 0 0 0 0 0 0 0 0 0 0 0 0 0 0 0 0 0 0 -209 -209 -209 -209 -209 -209 -209 -209 -193 -209 -209 -209 -209 -209 -209 -193 -193 -209 71 76 -209 -209 -209 -209 -209 -209 -209 -209 -209 -209 -209 -209 -209 -193 -209 77 75 71 71 71 69 69 69 70 69 67 70 70 68 75 80 79 76 77 76 75 75 75 76 76 76 76 78 79 79 82 82 84 85 85 84 83 85 85 83 83 79 78 78 77 78 79 79 82 80 83 82 84 85 85 85 85 80 82 80 82 79 83 83 85 90 90 92 93 92 92 93 92 92 90 90 89 88 87 87 85 86 88 86 87 87 88 89 88 89 86 83 84 85 86 84 80 80 83 77 76 81 82 79 79 80 80 79 82 83 80 77 87 88 93 92 95 94 94 95 94 94 95 92 93 91 93 96 96 96 97 97 99 99 98 99 96 94 93 90 88 86 84 83 82 81 82 82 82 82 81 83 83 80 78 77 78 81 -209 -209 -209 -209 91 88 86 85 84 82 84 85 84 85 85 88 88 88 88 88 88 95 92 92 92 93 91 91 93 93 89 90 90 90 78 82 83 -209 -193 -177 136 137 140 141 140 141 140 142 142 142 142 142 142 0 0 0 0 0
    0 0 0 0 0 0 0 0 0 0 0 0 0 0 0 0 0 0 0 0 0 0 0 0 0 0 0 0 0 0 0 0 0 0 0 0 0 0 0 0 0 0 0 0 0 0 0 0 0 0 0 0 0 0 0 0 0 0 0 0 0 0 0 0 0 0 0 0 0 -209 -209 -209 -209 -209 -193 -209 -209 -209 -177 -193 -209 -209 -209 -209 -177 -193 -209 72 76 -209 -209 -209 -209 -193 -209 -209 -209 -209 -209 -209 -193 -209 -209 -209 -193 76 71 71 72 70 70 70 70 70 69 72 72 73 76 82 81 78 78 77 74 75 75 76 76 77 77 80 81 81 84 85 87 87 87 86 85 87 86 85 84 81 80 80 78 80 80 81 84 83 84 83 85 84 84 83 82 80 80 80 82 79 85 87 87 92 91 93 94 93 93 94 92 93 91 91 90 89 89 89 87 88 91 89 90 90 92 93 91 91 89 86 85 88 89 -193 83 -193 84 78 77 81 82 79 79 80 80 79 82 83 80 78 89 89 95 93 96 95 95 96 95 95 96 93 96 92 95 98 97 97 98 98 99 99 98 99 97 94 94 89 87 86 84 83 82 81 82 82 83 83 82 83 84 81 79 78 80 81 -209 -209 -209 -209 -193 86 85 84 83 80 84 85 84 85 86 88 88 89 91 89 89 97 93 93 93 94 92 92 93 93 89 91 91 91 78 82 83 -193 -177 -177 135 136 139 140 139 140 140 141 142 142 142 142 142 0 0 0 0 0
    0 0 0 0 0 0 0 0 0 0 0 0 0 0 0 0 0 0 0 0 0 0 0 0 0 0 0 0 0 0 0 0 0 0 0 0 0 0 0 0 0 0 0 0 0 0 0 0 0 0 0 0 0 0 0 0 0 0 0 0 0 0 0 0 0 0 0 0 0 -209 -209 -209 -209 -209 -193 -209 -209 -209 -177 -193 -209 -209 -209 -209 -177 -209 -193 76 81 81 -193 -193 -193 77 75 76 -209 74 75 76 73 74 76 79 81 77 73 72 72 71 71 71 71 71 70 73 74 74 76 83 82 79 77 76 73 74 74 75 76 77 80 83 83 83 85 87 89 89 88 87 87 89 88 87 87 84 83 81 79 81 81 82 84 84 84 83 85 83 84 82 82 80 80 80 83 80 86 88 89 92 92 94 95 93 93 95 93 94 92 92 92 90 90 92 88 90 94 93 93 92 94 95 93 91 90 88 85 88 87 -193 84 86 85 79 77 81 83 79 79 80 79 78 82 84 80 79 88 88 94 92 95 94 94 95 95 95 96 93 95 93 95 97 96 97 98 98 99 98 98 98 96 95 93 89 87 86 85 84 83 82 82 83 84 84 82 83 83 78 76 76 77 80 -193 -193 -209 -209 -209 83 83 81 79 78 84 84 83 85 86 89 88 90 94 90 90 98 93 93 93 94 92 92 93 93 89 91 91 91 -177 -177 -177 126 132 132 134 136 138 138 138 138 139 140 141 142 142 142 143 0 0 0 0 0
    0 0 0 0 0 0 0 0 0 0 0 0 0 0 0 0 0 0 0 0 0 0 0 0 0 0 0 0 0 0 0 0 0 0 0 0 0 0 0 0 0 0 0 0 0 0 0 0 0 0 0 0 0 0 0 0 0 0 0 0 0 0 0 0 0 0 0 0 0 -209 -209 -209 -209 -209 -209 -209 -209 -209 -209 -193 -209 -209 -209 -209 -177 -209 82 83 85 85 86 87 85 82 80 81 80 79 78 78 76 76 78 80 81 78 74 73 73 72 72 72 72 72 72 74 75 76 77 83 83 80 78 76 72 73 74 75 76 79 84 84 84 85 87 88 89 89 89 88 89 90 89 89 88 87 86 83 80 81 81 83 84 84 85 84 86 83 83 82 81 81 80 80 83 80 86 90 90 93 93 95 95 94 93 96 93 94 92 92 92 90 91 93 89 91 93 94 93 93 95 96 92 90 89 87 85 87 87 88 86 87 86 79 77 80 83 79 79 79 79 78 82 84 82 81 89 89 94 92 94 94 94 96 95 95 96 93 96 94 95 97 95 97 97 97 98 97 97 96 95 94 91 88 87 87 85 85 84 83 83 84 85 85 82 84 82 78 77 76 78 80 -193 -193 -209 -193 83 81 81 79 77 77 84 84 82 85 86 88 87 89 94 90 90 98 93 92 92 94 92 91 93 93 89 91 92 92 82 -193 -209 126 132 131 134 135 137 137 137 137 138 139 141 142 142 142 144 0 0 0 0 0
    0 0 0 0 0 0 0 0 0 0 0 0 0 0 0 0 0 0 0 0 0 0 0 0 0 0 0 0 0 0 0 0 0 0 0 0 0 0 0 0 0 0 0 0 0 0 0 0 0 0 0 0 0 0 0 0 0 0 0 0 0 0 0 0 0 0 0 0 0 -209 -209 -209 -209 -209 -209 -209 -209 -209 -209 -209 -209 -209 -209 -209 -209 83 84 84 85 85 86 86 85 84 83 83 82 81 81 79 77 77 78 80 81 78 74 73 73 73 73 72 72 73 73 76 77 77 77 84 84 82 81 78 75 75 76 77 79 82 86 87 87 87 89 89 89 89 90 89 89 90 90 89 88 88 87 84 82 81 82 83 84 85 86 84 86 83 84 82 81 81 80 80 82 80 86 90 90 93 93 95 95 94 94 96 93 94 92 93 92 91 91 94 89 92 93 94 93 93 94 94 91 89 87 86 85 85 87 87 86 88 86 80 78 80 83 80 79 79 79 78 82 84 82 82 89 89 93 92 94 94 94 95 95 94 96 94 96 94 95 96 95 96 96 96 97 96 96 96 94 94 91 88 87 86 85 85 84 82 82 83 84 84 81 83 82 79 78 77 79 80 -193 -193 -193 -193 82 81 82 80 79 78 85 84 81 85 86 87 87 89 94 89 90 98 92 91 91 93 91 90 92 92 -193 91 92 92 82 -177 -209 126 132 131 133 135 136 136 136 136 137 138 140 142 141 142 145 0 0 0 0 0
    0 0 0 0 0 0 0 0 0 0 0 0 0 0 0 0 0 0 0 0 0 0 0 0 0 0 0 0 0 0 0 0 0 0 0 0 0 0 0 0 0 0 0 0 0 0 0 0 0 0 0 0 0 0 0 0 0 0 0 0 0 0 0 0 0 0 0 0 0 -209 -209 -209 -193 -209 -209 -209 -209 -209 -209 -209 85 86 85 85 85 84 84 85 86 86 87 86 85 85 83 84 83 82 82 79 78 78 78 80 80 78 75 74 73 75 74 73 73 74 74 77 79 79 78 85 85 84 84 83 85 78 80 81 83 84 87 89 89 89 90 90 90 90 91 90 90 90 89 89 88 88 88 84 82 81 84 84 85 86 87 85 87 83 83 81 81 80 80 79 82 79 86 90 91 94 93 96 95 95 94 96 93 94 93 93 92 92 91 94 90 93 94 94 94 94 93 93 91 89 88 87 86 86 87 88 87 89 86 82 78 80 84 79 79 78 78 78 81 83 82 81 89 88 92 92 93 94 94 96 95 94 96 95 96 95 96 97 95 96 96 96 96 96 95 96 94 95 91 88 86 86 85 84 83 82 82 83 84 84 81 84 83 81 79 78 81 81 -193 -193 -193 -193 82 81 83 80 79 80 85 84 81 85 86 86 86 88 93 89 90 97 92 91 91 93 91 90 91 91 -193 91 92 92 -177 -177 -209 125 133 130 133 134 135 135 135 135 135 137 139 142 141 142 145 0 0 0 0 0
    0 0 0 0 0 0 0 0 0 0 0 0 0 0 0 0 0 0 0 0 0 0 0 0 0 0 0 0 0 0 0 0 0 0 0 0 0 0 0 0 0 0 0 0 0 0 0 0 0 0 0 0 0 0 0 0 0 0 0 0 0 0 0 0 0 0 0 0 0 -209 -209 -193 -193 -209 -193 -209 -209 -209 90 88 87 86 85 85 85 84 84 85 86 86 88 86 86 86 85 85 83 83 83 80 80 78 79 80 79 78 75 74 74 77 75 75 75 76 76 78 80 81 78 86 86 85 85 86 88 83 84 84 85 86 88 90 90 90 91 91 91 90 91 91 90 90 89 89 87 87 87 84 82 80 84 85 86 88 88 85 87 83 83 81 80 80 79 78 81 78 86 91 91 95 94 97 96 96 95 96 93 94 93 93 92 92 91 92 89 92 93 94 94 94 93 93 91 90 89 89 87 87 -193 90 89 90 87 84 78 80 84 80 79 78 79 79 80 83 82 81 88 88 91 91 93 93 94 96 95 95 97 95 97 95 96 97 95 96 96 96 95 95 95 96 93 94 90 87 86 86 85 84 82 81 81 83 84 84 82 85 84 84 83 79 84 82 -193 -193 -193 -209 -193 81 82 79 79 80 85 84 80 85 85 85 86 88 -193 88 89 97 92 91 91 92 91 90 91 92 87 90 91 91 82 -177 -209 125 133 130 133 134 135 135 135 134 135 136 139 141 141 141 143 0 0 0 0 0
    0 0 0 0 0 0 0 0 0 0 0 0 0 0 0 0 0 0 0 0 0 0 0 0 0 0 0 0 0 0 0 0 0 0 0 0 0 0 0 0 0 0 0 0 0 0 0 0 0 0 0 0 0 0 0 0 0 0 0 0 0 0 0 0 0 0 0 0 0 -209 -209 -209 -193 -209 -193 -209 -209 88 91 89 89 87 85 84 84 84 84 85 86 86 88 87 87 87 86 85 85 84 83 80 80 79 79 79 79 78 76 75 74 79 77 76 76 78 77 79 81 82 78 85 86 85 84 85 88 84 84 84 86 87 89 91 91 91 92 93 92 91 92 92 91 90 89 89 87 87 87 83 82 79 84 85 86 89 90 86 88 83 83 81 80 80 79 78 80 77 86 91 92 96 95 97 96 96 95 96 94 94 93 93 92 91 90 91 88 90 92 93 94 93 93 92 91 90 89 89 87 88 89 90 90 91 88 86 79 81 84 80 79 79 79 80 80 83 82 81 87 87 90 90 92 93 94 96 95 95 97 95 97 96 96 97 95 96 96 95 94 94 94 95 92 94 89 87 85 86 86 85 83 82 82 84 85 85 83 85 85 85 84 82 85 83 84 -193 -209 -209 -193 81 82 80 80 82 85 84 80 85 85 85 86 88 92 88 89 97 92 91 91 92 91 90 92 92 -193 91 92 92 86 -177 109 124 132 129 133 133 134 133 133 133 134 135 138 141 141 142 143 0 0 0 0 0
    0 0 0 0 0 0 0 0 0 0 0 0 0 0 0 0 0 0 0 0 0 0 0 0 0 0 0 0 0 0 0 0 0 0 0 0 0 0 0 0 0 0 0 0 0 0 0 0 0 0 0 0 0 0 0 0 0 0 0 0 0 0 0 0 0 0 0 0 0 -209 -209 -209 -209 -209 -193 -193 -209 89 91 89 89 87 85 85 84 85 84 85 86 87 88 87 87 87 86 86 85 84 82 79 79 78 78 79 78 78 76 76 75 82 78 77 77 80 79 81 82 82 78 85 85 85 83 85 88 85 84 84 87 88 91 93 93 93 93 94 93 92 93 92 92 90 90 89 88 87 86 83 82 79 83 85 85 88 89 86 87 82 83 81 80 80 79 78 80 77 86 90 92 96 95 96 96 96 95 96 94 94 93 93 92 91 89 90 88 89 90 91 92 91 91 90 89 88 87 87 86 87 88 89 89 89 87 86 80 80 84 80 79 79 79 80 79 83 82 81 87 87 89 89 91 92 93 95 95 94 97 95 97 96 95 96 94 95 96 95 94 94 94 94 92 94 89 87 86 86 86 85 83 83 82 85 86 86 84 87 85 84 82 80 83 81 83 81 -209 -193 82 81 82 79 80 83 85 84 81 85 85 85 86 88 91 87 89 96 91 91 91 92 91 89 91 92 -193 91 93 94 -193 99 111 123 131 127 133 134 134 134 133 133 134 136 138 140 140 141 142 0 0 0 0 0
    0 0 0 0 0 0 0 0 0 0 0 0 0 0 0 0 0 0 0 0 0 0 0 0 0 0 0 0 0 0 0 0 0 0 0 0 0 0 0 0 0 0 0 0 0 0 0 0 0 0 0 0 0 0 0 0 0 0 0 0 0 0 0 0 0 0 0 0 0 -209 -209 -209 -209 -209 -209 -209 -209 89 91 90 88 87 85 84 85 85 84 85 85 87 88 88 87 87 86 86 85 84 82 78 78 77 77 78 77 77 76 76 76 83 79 78 78 81 79 81 81 82 78 85 86 85 -193 87 90 89 86 85 87 88 90 92 93 93 93 94 93 91 93 92 92 91 90 89 88 87 87 83 82 78 81 84 83 87 88 85 87 82 83 81 80 80 79 78 80 76 86 89 92 96 95 96 96 96 95 96 94 94 92 92 92 90 89 89 87 88 89 89 89 89 89 88 87 86 86 86 86 86 87 89 89 89 87 86 80 81 84 80 79 79 80 80 79 83 83 81 87 87 89 89 90 92 93 94 94 94 96 94 96 96 95 95 94 94 95 95 94 93 93 94 92 94 -193 87 86 87 86 85 84 84 83 85 87 87 87 89 86 85 81 -193 81 80 81 80 83 85 82 81 82 79 80 84 86 84 81 85 85 85 86 88 91 87 88 95 91 90 90 91 90 89 91 92 -193 92 95 95 90 105 116 122 128 127 132 133 133 133 133 133 135 136 138 139 139 140 142 0 0 0 0 0
    0 0 0 0 0 0 0 0 0 0 0 0 0 0 0 0 0 0 0 0 0 0 0 0 0 0 0 0 0 0 0 0 0 0 0 0 0 0 0 0 0 0 0 0 0 0 0 0 0 0 0 0 0 0 0 0 0 0 0 0 0 0 0 0 0 0 0 0 0 -209 -209 -209 -209 -209 -209 -209 -209 -193 91 90 89 87 86 85 85 86 86 86 86 87 89 87 87 87 86 85 84 83 81 77 77 75 76 76 76 77 76 75 75 82 78 78 78 81 79 80 81 81 77 84 85 84 -193 -209 90 89 87 85 87 87 90 92 92 92 93 94 93 91 93 92 92 91 90 90 88 87 87 83 82 78 80 83 82 85 88 85 87 82 83 80 80 79 79 77 79 75 85 -193 92 96 96 96 96 97 95 96 94 94 92 92 91 90 88 89 88 88 89 89 88 88 88 87 86 86 87 87 87 87 88 90 90 89 87 86 80 80 84 80 79 80 80 80 79 83 83 82 87 87 89 89 90 92 93 94 94 94 96 94 95 95 94 94 92 93 94 93 92 92 92 92 92 94 90 -193 87 88 87 86 85 85 84 86 87 87 86 88 84 84 80 -193 80 80 82 82 85 87 83 83 84 82 82 85 86 83 81 85 85 85 86 87 89 85 88 94 90 90 90 91 90 89 91 92 -193 92 96 95 91 107 119 124 130 130 132 133 133 133 133 133 135 136 137 138 138 139 141 0 0 0 0 0
    0 0 0 0 0 0 0 0 0 0 0 0 0 0 0 0 0 0 0 0 0 0 0 0 0 0 0 0 0 0 0 0 0 0 0 0 0 0 0 0 0 0 0 0 0 0 0 0 0 0 0 0 0 0 0 0 0 0 0 0 0 0 0 0 0 0 0 0 0 -209 -209 -209 -209 73 73 76 78 83 87 88 88 85 85 84 85 87 86 86 87 87 89 87 87 87 86 85 84 83 81 77 76 74 74 74 74 75 74 74 74 81 78 78 78 80 78 80 80 81 76 82 84 83 -193 -193 90 89 87 85 86 86 89 91 92 92 93 94 93 92 94 92 92 91 89 89 87 86 86 82 82 78 80 83 82 84 89 85 87 81 82 79 79 79 78 77 78 75 84 87 92 95 95 95 96 96 95 96 94 94 92 92 91 90 88 89 88 88 89 89 88 87 87 87 86 86 87 87 87 87 89 90 90 89 87 86 80 80 84 80 80 80 80 81 80 83 83 82 87 87 89 90 91 92 93 94 94 94 95 94 95 94 93 93 91 92 92 92 91 90 91 91 90 91 89 88 88 88 87 86 85 85 83 85 86 85 84 85 83 82 80 80 81 80 82 83 86 88 85 85 85 85 85 86 86 84 82 85 85 84 85 87 -193 85 88 94 90 90 90 91 90 89 92 93 -193 92 102 98 -177 111 120 125 129 132 132 133 133 133 133 133 134 135 136 137 137 138 139 0 0 0 0 0
    0 0 0 0 0 0 0 0 0 0 0 0 0 0 0 0 0 0 0 0 0 0 0 0 0 0 0 0 0 0 0 0 0 0 0 0 0 0 0 0 0 0 0 0 0 0 0 0 0 0 0 0 0 0 0 0 0 0 0 0 0 0 0 0 0 0 0 0 0 73 -209 -209 74 75 74 76 77 78 83 84 81 80 82 81 83 86 86 86 86 87 88 87 87 87 86 85 84 83 82 76 75 74 73 73 73 75 74 74 74 80 78 78 79 80 77 79 79 80 75 80 82 -209 -193 90 90 90 89 88 87 87 89 91 92 92 93 94 93 92 94 92 91 90 88 88 86 85 85 81 82 80 80 83 80 83 87 84 87 80 82 79 79 79 78 76 78 75 83 85 91 94 95 95 95 96 95 95 94 93 92 92 91 90 88 88 87 88 89 88 88 87 87 87 86 85 86 86 87 87 89 89 90 89 87 86 80 80 84 80 80 80 80 81 79 83 84 82 87 87 89 90 91 92 93 94 94 94 95 94 95 94 93 93 91 91 91 91 90 89 89 90 -193 -193 -193 88 88 87 87 86 84 86 83 85 85 84 84 84 83 -193 79 80 83 -209 -209 84 88 90 87 87 87 87 86 87 86 84 82 84 85 85 86 86 -193 85 88 95 91 91 91 91 90 89 92 95 89 98 106 108 107 116 121 125 130 133 133 133 133 133 133 133 134 135 136 137 137 138 138 0 0 0 0 0
    0 0 0 0 0 0 0 0 0 0 0 0 0 0 0 0 0 0 0 0 0 0 0 0 0 0 0 0 0 0 0 0 0 0 0 0 0 0 0 0 0 0 0 0 0 0 0 0 0 0 0 0 0 0 0 0 0 0 0 0 0 0 0 0 0 0 0 0 0 74 74 75 76 76 76 78 78 76 80 80 77 78 80 79 81 85 86 86 86 86 88 87 87 86 85 84 83 83 81 77 75 74 73 73 73 75 74 74 73 80 77 78 78 79 77 78 79 79 75 78 81 -209 -209 -193 93 92 91 90 88 87 90 91 91 91 92 94 93 92 93 92 91 90 88 88 85 85 84 81 81 80 79 83 79 80 85 83 86 80 82 79 79 78 78 76 77 75 82 84 90 93 95 94 95 96 95 95 94 92 91 90 89 88 86 86 86 87 89 88 87 86 87 86 86 85 87 86 87 87 89 89 90 88 86 86 80 80 84 80 80 80 81 81 79 83 83 81 86 87 89 90 91 92 93 94 94 95 95 93 94 93 92 92 91 90 91 91 90 88 89 -193 -193 -193 88 87 88 87 87 86 85 87 84 85 86 85 87 -209 -209 -209 -209 -209 -209 -209 -209 -193 87 89 86 87 88 87 87 88 86 84 83 84 85 85 86 85 -193 85 88 97 92 92 92 92 91 90 95 99 92 106 112 116 118 120 123 127 130 132 132 132 133 133 133 133 134 135 136 137 137 138 138 0 0 0 0 0
    0 0 0 0 0 0 0 0 0 0 0 0 0 0 0 0 0 0 0 0 0 0 0 0 0 0 0 0 0 0 0 0 0 0 0 0 0 0 0 0 0 0 0 0 0 0 0 0 0 0 0 0 0 0 0 0 0 0 0 0 0 0 0 0 0 0 0 0 0 75 74 75 76 76 75 77 78 77 79 80 77 79 81 81 82 85 86 86 86 86 88 88 87 87 86 85 84 83 82 78 75 74 73 73 73 75 74 73 73 79 77 77 78 78 76 78 78 79 74 77 79 -209 -209 90 92 91 92 90 88 88 90 90 91 90 91 93 93 92 93 91 91 90 88 88 85 85 84 81 81 80 78 83 78 78 81 82 85 80 81 79 79 78 78 77 78 75 82 82 88 91 94 93 94 94 93 94 93 92 90 89 89 87 86 86 86 86 88 88 87 86 86 86 86 84 86 85 86 86 87 88 89 86 84 85 79 80 84 80 80 80 81 81 79 83 84 81 87 87 90 90 91 93 93 95 95 95 95 92 92 92 91 91 90 89 89 90 90 89 89 -193 -193 -193 -193 86 87 87 87 85 86 88 86 86 88 -209 -209 -209 -209 -209 -209 -209 -209 -209 -209 85 87 88 86 87 89 88 88 88 86 84 84 84 86 85 86 83 89 86 88 98 93 94 94 93 92 92 98 103 102 109 117 119 121 122 125 127 128 131 130 131 131 132 132 132 133 135 135 137 137 137 138 0 0 0 0 0
    0 0 0 0 0 0 0 0 0 0 0 0 0 0 0 0 0 0 0 0 0 0 0 0 0 0 0 0 0 0 0 0 0 0 0 0 0 0 0 0 0 0 0 0 0 0 0 0 0 0 0 0 0 0 0 0 0 0 0 0 0 0 0 0 0 0 0 0 0 74 74 75 75 75 74 76 77 76 77 78 76 79 81 81 81 84 85 86 85 86 87 87 87 86 85 84 83 82 81 77 74 74 73 73 74 75 74 73 73 78 76 77 78 77 76 77 78 78 74 76 77 -209 78 90 90 90 92 90 87 87 89 88 89 90 91 93 93 91 92 90 91 90 88 88 86 85 84 82 82 81 79 84 79 78 80 82 84 80 81 79 79 79 79 78 78 76 83 82 87 88 92 91 93 92 92 93 92 91 90 89 89 86 86 86 85 85 88 87 86 85 85 85 85 83 85 84 84 85 86 87 88 85 84 84 79 80 84 80 80 80 81 81 80 83 84 81 87 87 90 90 92 93 93 94 94 94 93 91 90 90 88 88 89 88 88 88 88 87 87 87 86 -193 85 85 86 87 -193 86 86 88 87 88 93 99 -193 -209 -209 -209 -209 -209 -209 -209 76 85 87 87 86 88 88 88 88 87 85 83 84 83 84 83 84 78 85 85 -193 102 95 97 97 98 98 101 103 107 107 114 119 121 123 124 125 128 127 130 129 129 130 131 131 131 132 134 134 136 136 137 137 0 0 0 0 0
    0 0 0 0 0 0 0 0 0 0 0 0 0 0 0 0 0 0 0 0 0 0 0 0 0 0 0 0 0 0 0 0 0 0 0 0 0 0 0 0 0 0 0 0 0 0 0 0 0 0 0 0 0 0 0 0 0 0 0 0 0 0 0 0 0 0 0 0 0 75 75 77 76 76 74 77 77 77 78 78 76 79 80 80 80 82 84 84 84 85 86 86 86 85 84 83 83 82 82 77 75 74 73 74 74 75 74 73 73 78 76 77 77 78 76 77 77 77 74 75 76 -209 76 -193 90 90 92 91 87 86 87 87 87 89 89 92 92 91 92 90 90 90 87 88 86 85 84 82 82 82 78 84 79 77 79 82 84 79 80 78 78 78 79 78 78 77 83 82 85 86 89 90 91 90 91 91 91 90 90 89 88 85 85 85 85 84 87 86 85 85 85 85 84 82 84 82 82 82 84 85 86 84 83 83 79 80 84 80 80 80 81 81 80 83 83 80 87 88 89 90 92 93 93 94 93 93 92 90 90 89 88 86 87 86 86 87 86 85 86 86 85 85 84 84 85 86 -193 85 85 88 87 -193 -209 -209 -209 -209 -209 -209 -209 -193 -209 -209 -209 85 86 86 85 86 87 86 87 86 83 83 83 82 83 82 82 74 -209 -209 -193 -209 103 105 102 106 104 108 110 115 114 117 119 121 122 123 125 128 127 129 128 129 130 130 130 130 131 133 133 135 135 136 137 0 0 0 0 0
    0 0 0 0 0 0 0 0 0 0 0 0 0 0 0 0 0 0 0 0 0 0 0 0 0 0 0 0 0 0 0 0 0 0 0 0 0 0 0 0 0 0 0 0 0 0 0 0 0 0 0 0 0 0 0 0 0 0 0 0 0 0 0 0 0 0 0 0 0 74 75 76 75 75 73 75 75 77 76 76 74 77 78 79 78 80 83 84 84 84 85 86 85 85 84 83 82 82 82 79 76 75 74 74 75 76 74 73 73 78 76 77 78 78 76 77 78 78 74 76 78 -209 -209 90 91 90 91 89 84 82 84 85 84 85 87 90 90 90 90 89 89 89 87 87 85 85 84 81 82 82 78 83 77 76 77 81 83 79 79 78 77 78 78 78 78 76 82 81 82 84 86 88 89 88 89 90 90 89 89 88 87 85 85 85 84 83 87 86 85 84 84 84 84 82 84 83 81 81 84 84 85 83 83 82 79 80 84 80 80 80 81 80 81 83 83 80 87 88 89 90 91 92 93 93 92 92 91 89 89 88 86 86 86 85 85 86 85 84 85 85 84 85 84 84 -193 -193 -193 -193 85 87 87 87 -209 -209 -209 -209 -209 -209 -209 -209 -209 -209 -209 86 85 85 84 85 85 85 86 85 82 82 83 82 83 82 81 -177 -193 106 110 112 108 110 107 109 107 111 116 117 116 118 119 121 121 123 124 128 126 129 128 128 129 129 129 129 129 133 132 135 135 136 137 0 0 0 0 0
    0 0 0 0 0 0 0 0 0 0 0 0 0 0 0 0 0 0 0 0 0 0 0 0 0 0 0 0 0 0 0 0 0 0 0 0 0 0 0 0 0 0 0 0 0 0 0 0 0 0 0 0 0 0 0 0 0 0 0 0 0 0 0 0 0 0 0 0 0 -209 74 75 74 73 72 74 73 76 75 76 74 77 78 79 78 80 83 85 84 84 85 85 85 84 84 83 82 82 83 80 77 76 75 75 75 76 75 73 73 78 76 77 78 78 76 77 78 78 73 76 78 -209 76 -193 88 -193 88 86 78 76 78 81 82 83 86 90 90 89 89 88 88 88 86 87 85 84 83 82 83 83 79 84 78 76 76 80 83 78 78 78 77 77 78 78 78 76 81 80 80 83 85 87 87 87 88 89 89 88 88 87 86 84 84 84 82 81 86 85 83 83 83 84 83 81 83 81 79 78 80 80 80 81 81 82 79 79 83 80 80 80 80 80 81 83 83 79 86 87 88 89 90 91 91 92 91 91 89 89 88 86 85 85 84 82 84 85 84 84 85 85 84 85 84 84 -193 -193 -193 -193 -193 88 87 86 -193 -209 -209 -209 -209 -209 -209 -209 -209 -209 -209 85 84 84 82 83 84 85 86 84 80 81 82 82 84 83 82 -209 -209 106 110 110 109 111 109 110 109 113 117 118 117 119 120 121 121 123 124 128 126 128 128 128 129 129 129 129 128 132 132 135 136 137 138 0 0 0 0 0
    0 0 0 0 0 0 0 0 0 0 0 0 0 0 0 0 0 0 0 0 0 0 0 0 0 0 0 0 0 0 0 0 0 0 0 0 0 0 0 0 0 0 0 0 0 0 0 0 0 0 0 0 0 0 0 0 0 0 0 0 0 0 0 0 0 0 0 0 0 -209 73 74 74 73 73 74 74 77 76 77 74 77 79 80 78 79 83 84 83 84 85 86 85 85 85 84 83 83 83 82 78 78 76 76 76 76 75 74 73 78 76 76 77 77 76 77 77 77 73 75 76 -209 75 84 84 -209 80 85 77 75 76 80 81 83 85 88 88 88 88 86 86 87 85 86 84 84 82 81 82 82 79 83 77 76 76 79 82 78 78 78 77 78 78 78 78 76 80 79 79 80 83 85 85 85 86 88 88 86 86 85 83 82 82 82 78 78 83 81 81 80 81 82 81 79 79 78 78 76 77 77 77 79 80 81 79 79 83 80 80 80 80 80 81 82 82 78 85 86 86 87 89 89 90 90 90 90 89 88 87 86 85 86 85 82 83 85 84 84 84 85 83 83 82 83 -193 -193 -193 -193 -193 -193 87 -193 -209 -209 -209 -209 -209 -209 -209 -209 -209 -209 -209 -193 84 83 81 82 83 85 85 84 79 82 83 84 86 86 85 -209 102 106 110 110 110 111 110 110 110 114 117 117 117 118 119 120 121 123 124 128 126 128 128 128 128 129 128 129 128 132 132 135 136 137 138 0 0 0 0 0
    0 0 0 0 0 0 0 0 0 0 0 0 0 0 0 0 0 0 0 0 0 0 0 0 0 0 0 0 0 0 0 0 0 0 0 0 0 0 0 0 0 0 0 0 0 0 0 0 0 0 0 0 0 0 0 0 0 0 0 0 0 0 0 0 0 0 0 0 0 -209 -209 -209 72 72 69 72 71 76 76 76 74 77 80 80 79 78 79 82 82 83 83 85 84 84 84 84 82 82 83 81 78 78 77 78 76 77 76 74 74 78 76 76 77 77 76 76 77 77 73 74 75 -209 -209 -209 -209 -209 76 86 76 74 75 79 80 81 84 86 86 86 86 85 85 85 84 86 84 83 82 80 81 81 79 82 76 76 76 78 82 78 79 79 77 78 78 78 78 76 79 78 78 78 81 83 84 83 84 86 85 84 84 82 79 78 79 79 76 75 77 78 80 79 79 80 79 78 78 78 77 75 76 77 77 80 80 82 79 79 83 80 80 80 80 80 81 82 82 77 85 85 85 86 87 87 88 88 89 88 87 87 86 86 85 86 85 83 83 85 84 85 84 84 82 82 80 82 -193 -193 -193 -193 -193 -193 85 -209 -209 -209 -209 -209 -209 -209 -209 -209 -209 -209 -209 87 84 84 80 81 82 85 85 83 79 83 84 86 88 87 87 -209 105 106 109 109 110 111 110 110 110 113 116 117 117 118 119 120 121 124 124 128 126 128 127 127 128 128 128 129 127 133 132 136 137 138 140 0 0 0 0 0
    0 0 0 0 0 0 0 0 0 0 0 0 0 0 0 0 0 0 0 0 0 0 0 0 0 0 0 0 0 0 0 0 0 0 0 0 0 0 0 0 0 0 0 0 0 0 0 0 0 0 0 0 0 0 0 0 0 0 0 0 0 0 0 0 0 0 0 0 0 -209 -209 -209 67 67 63 69 70 74 75 75 74 76 79 79 77 77 75 79 81 84 84 85 84 84 83 83 82 81 82 80 78 78 77 78 77 76 76 74 74 78 76 76 76 76 76 76 76 76 73 74 75 -209 -209 -209 -209 -209 72 75 72 72 73 76 78 78 82 83 84 85 85 85 84 84 84 85 83 83 81 80 79 80 79 82 76 76 77 78 82 79 79 79 78 78 78 78 78 76 79 78 77 77 80 83 83 82 82 83 83 82 82 80 77 77 77 77 75 75 77 78 80 79 79 80 79 78 78 77 77 74 76 76 76 79 80 82 79 79 83 80 80 80 80 81 81 81 81 78 84 84 84 85 86 86 87 87 87 87 86 86 85 85 85 85 84 83 83 85 84 84 84 83 82 80 79 79 -193 -193 -193 -193 -193 83 83 -193 -193 -209 -209 -209 -209 -209 -209 -209 -209 -209 -209 87 85 84 81 81 83 86 85 84 80 85 85 87 89 88 89 98 105 106 110 110 111 112 111 111 111 114 117 117 117 118 119 120 120 123 124 128 126 127 127 127 128 128 128 129 126 133 132 137 137 139 140 0 0 0 0 0
    0 0 0 0 0 0 0 0 0 0 0 0 0 0 0 0 0 0 0 0 0 0 0 0 0 0 0 0 0 0 0 0 0 0 0 0 0 0 0 0 0 0 0 0 0 0 0 0 0 0 0 0 0 0 0 0 0 0 0 0 0 0 0 0 0 0 0 0 0 -209 -209 -209 -193 65 62 65 67 72 72 73 72 75 78 78 76 75 73 74 79 83 84 84 83 84 82 82 82 81 81 79 78 78 77 79 77 77 76 75 75 78 76 76 75 75 75 75 75 75 73 74 74 73 74 75 77 74 74 74 73 72 72 75 76 76 79 81 82 83 84 84 83 83 82 84 83 82 80 80 79 80 79 81 77 76 78 77 82 78 79 79 77 77 78 77 78 75 78 77 77 76 78 81 81 80 80 82 82 81 81 79 76 76 77 77 75 76 78 79 82 80 81 81 80 79 79 78 78 75 76 76 76 79 80 82 79 79 83 80 80 80 80 81 80 81 82 78 84 84 84 85 85 85 86 86 86 86 85 85 84 84 84 83 82 81 82 84 83 84 83 83 82 80 79 80 78 -193 -193 -193 -193 -193 84 -209 -209 -209 -209 -209 -209 -209 -209 -209 -209 -209 -209 87 86 85 82 81 84 87 85 84 81 86 85 87 88 87 89 99 105 107 109 110 111 112 112 111 111 114 116 117 117 118 119 119 120 123 124 129 126 128 127 127 128 128 128 129 126 133 132 136 137 139 140 0 0 0 0 0
    0 0 0 0 0 0 0 0 0 0 0 0 0 0 0 0 0 0 0 0 0 0 0 0 0 0 0 0 0 0 0 0 0 0 0 0 0 0 0 0 0 0 0 0 0 0 0 0 0 0 0 0 0 0 0 0 0 0 0 0 0 0 0 0 0 0 0 0 0 -209 -209 -209 -193 63 61 63 64 68 69 70 70 74 76 75 74 73 72 72 73 83 85 83 80 82 80 80 79 79 79 78 78 78 77 79 77 77 76 75 75 78 75 75 74 75 74 74 74 74 73 73 74 72 74 75 76 73 73 72 72 71 72 73 74 75 77 79 80 82 83 83 82 81 81 83 82 80 79 79 78 78 79 80 77 76 79 77 82 78 79 78 78 77 78 77 78 75 78 77 77 76 78 80 80 80 80 81 81 80 80 79 77 77 78 78 75 77 79 80 83 81 81 81 81 79 79 79 79 74 76 76 76 79 79 82 79 79 83 80 80 80 80 81 80 81 82 78 84 84 84 84 84 84 85 85 85 84 84 84 83 83 82 82 81 79 81 81 82 82 82 82 81 81 81 82 -193 -193 -193 -193 -193 -193 85 -209 82 -193 -209 -209 -209 -209 -209 -209 -209 -209 -209 87 86 86 83 82 84 87 84 84 82 86 85 87 87 87 91 102 107 109 109 110 111 111 111 111 111 113 114 116 116 117 118 118 119 122 123 128 125 127 127 127 128 128 128 129 127 133 132 136 137 138 139 0 0 0 0 0
    0 0 0 0 0 0 0 0 0 0 0 0 0 0 0 0 0 0 0 0 0 0 0 0 0 0 0 0 0 0 0 0 0 0 0 0 0 0 0 0 0 0 0 0 0 0 0 0 0 0 0 0 0 0 0 0 0 0 0 0 0 0 0 0 0 0 0 0 0 -209 -209 -209 65 65 63 64 64 67 68 68 68 73 76 -193 -193 -209 -209 -193 72 75 86 79 78 81 78 78 79 79 79 78 78 77 76 80 77 76 76 75 75 77 75 75 74 74 73 73 73 73 71 71 72 68 -209 74 -209 74 73 72 72 71 71 72 72 72 75 77 78 80 81 81 81 80 80 82 81 80 79 79 79 78 79 80 77 75 79 77 83 79 79 79 78 78 78 77 78 75 77 76 77 77 78 80 80 80 80 81 81 80 80 79 77 77 78 79 76 78 80 81 84 82 83 83 83 81 82 83 82 76 77 77 76 79 78 83 79 79 83 80 80 81 80 82 80 82 82 79 84 84 83 84 83 83 84 85 84 83 84 84 83 84 82 83 80 79 80 79 82 82 81 82 81 81 82 -193 -193 -193 -193 77 82 85 86 -193 81 84 -193 -209 -209 -209 -209 -209 -209 -209 -193 88 87 87 84 82 85 87 83 85 83 86 86 88 88 88 95 103 106 109 109 109 110 111 111 111 110 113 113 116 116 117 117 117 118 121 122 127 125 126 126 127 127 127 128 129 126 133 132 136 137 138 140 0 0 0 0 0
    0 0 0 0 0 0 0 0 0 0 0 0 0 0 0 0 0 0 0 0 0 0 0 0 0 0 0 0 0 0 0 0 0 0 0 0 0 0 0 0 0 0 0 0 0 0 0 0 0 0 0 0 0 0 0 0 0 0 0 0 0 0 0 0 0 0 0 0 0 -209 -209 -209 65 65 62 62 62 64 65 64 67 74 77 -209 -193 -209 -209 -209 72 -209 83 75 76 80 77 76 77 77 77 77 77 77 76 79 78 76 76 75 75 76 75 75 74 73 73 73 73 72 71 72 72 -209 -209 76 -193 75 74 72 72 70 69 70 70 71 73 76 76 78 80 79 80 79 79 82 81 80 80 80 79 79 79 80 77 76 80 77 83 79 80 79 79 78 78 77 78 75 77 76 77 77 78 79 80 79 79 81 79 79 79 79 77 77 78 79 76 79 80 82 84 83 83 83 84 82 83 84 83 77 77 77 76 79 78 83 79 79 83 81 81 81 80 83 81 83 84 80 84 83 83 84 83 82 83 84 83 82 83 83 82 83 82 84 80 80 82 80 83 83 82 82 81 81 83 -193 -209 -209 -209 77 83 86 86 84 80 83 80 -193 -193 -209 -209 -209 -209 -193 -193 88 88 88 86 83 86 86 83 85 84 86 86 88 88 88 97 104 107 111 109 110 111 111 111 111 110 112 111 116 115 117 117 117 118 121 121 126 124 126 126 126 127 127 128 129 126 133 132 136 137 138 140 0 0 0 0 0
    0 0 0 0 0 0 0 0 0 0 0 0 0 0 0 0 0 0 0 0 0 0 0 0 0 0 0 0 0 0 0 0 0 0 0 0 0 0 0 0 0 0 0 0 0 0 0 0 0 0 0 0 0 0 0 0 0 0 0 0 0 0 0 0 0 0 0 0 0 -209 -209 -209 66 66 63 63 63 64 64 65 68 72 -209 -193 -209 -209 -209 -209 -209 -209 -209 72 75 79 76 76 76 76 76 76 77 76 74 78 77 76 75 75 75 75 74 75 73 72 73 73 73 71 72 72 72 72 75 76 77 75 75 72 73 71 70 69 70 71 73 75 76 76 78 79 79 79 78 81 80 80 80 80 79 79 79 80 77 77 81 78 83 79 80 80 79 78 78 77 78 75 77 76 77 77 77 79 79 79 79 80 79 79 79 78 77 77 78 79 76 78 79 81 84 82 83 83 83 82 83 84 84 77 78 78 77 81 78 84 79 79 83 81 82 82 81 83 80 84 84 80 83 83 83 83 82 81 83 83 82 82 83 83 82 83 83 83 80 82 82 79 83 83 82 82 81 80 80 -193 -193 -209 -193 76 81 84 85 83 77 82 78 78 82 -209 -209 -209 85 88 87 87 87 87 86 84 86 86 83 85 84 85 85 87 88 88 98 105 107 112 110 110 111 111 111 111 110 112 110 115 114 116 116 116 118 120 121 126 124 126 125 126 127 127 128 130 127 133 133 136 137 138 139 0 0 0 0 0
    0 0 0 0 0 0 0 0 0 0 0 0 0 0 0 0 0 0 0 0 0 0 0 0 0 0 0 0 0 0 0 0 0 0 0 0 0 0 0 0 0 0 0 0 0 0 0 0 0 0 0 0 0 0 0 0 0 0 0 0 0 0 0 0 0 0 0 0 0 -209 -209 -209 -209 69 67 69 68 70 70 -193 72 75 76 -209 -209 -209 -209 -209 -209 -209 -209 71 74 78 75 75 75 75 75 75 76 76 74 77 76 75 75 75 76 75 74 75 73 72 73 73 73 70 72 72 73 73 75 76 77 76 75 73 74 72 70 70 70 71 73 75 75 75 77 77 79 78 78 81 80 79 80 79 79 78 78 80 77 77 80 78 82 79 80 80 79 79 78 78 79 75 77 77 77 76 77 79 79 78 78 80 79 79 79 78 77 77 78 78 76 78 78 80 83 82 83 81 83 82 84 84 85 78 -193 78 78 81 78 84 79 79 83 82 82 82 82 84 81 85 85 81 83 82 83 83 82 81 82 82 82 82 83 83 82 83 84 83 79 84 83 79 83 83 82 81 81 79 79 82 80 76 75 75 79 80 83 79 77 81 78 79 82 84 87 86 87 89 87 87 88 87 87 85 87 87 83 86 85 86 86 87 88 87 98 106 108 112 109 110 110 110 111 111 110 112 110 115 114 115 116 116 117 120 121 126 124 125 126 126 127 127 128 130 127 134 134 136 137 138 139 0 0 0 0 0
    0 0 0 0 0 0 0 0 0 0 0 0 0 0 0 0 0 0 0 0 0 0 0 0 0 0 0 0 0 0 0 0 0 0 0 0 0 0 0 0 0 0 0 0 0 0 0 0 0 0 0 0 0 0 0 0 0 0 0 0 0 0 0 0 0 0 0 0 0 -209 -209 -209 -209 69 69 -193 70 69 70 71 71 73 72 -193 -193 -193 -209 -209 -209 -209 -209 72 74 76 74 74 74 74 74 74 75 74 73 77 76 75 75 74 76 75 74 75 73 72 73 73 73 70 72 72 73 74 76 77 78 77 76 74 74 73 71 70 69 70 72 74 74 74 75 76 78 78 77 79 79 79 79 79 78 77 78 79 77 77 80 78 83 79 80 80 80 79 79 78 79 75 78 77 77 77 78 80 79 79 79 80 79 79 79 79 77 77 79 79 76 77 78 79 82 81 81 79 81 80 84 85 86 78 -209 78 79 81 78 85 79 79 83 83 83 83 83 85 81 86 87 83 82 82 82 83 81 81 82 81 81 81 82 82 81 82 83 82 78 83 82 79 82 82 83 81 82 80 81 82 81 79 77 76 79 79 83 79 78 81 77 79 83 83 87 85 87 87 85 86 86 86 85 85 87 86 83 86 85 86 85 87 87 86 98 107 107 112 109 109 110 110 111 111 109 112 109 115 114 116 116 116 117 120 121 126 124 126 126 126 127 127 128 130 127 134 134 137 138 138 139 0 0 0 0 0
    0 0 0 0 0 0 0 0 0 0 0 0 0 0 0 0 0 0 0 0 0 0 0 0 0 0 0 0 0 0 0 0 0 0 0 0 0 0 0 0 0 0 0 0 0 0 0 0 0 0 0 0 0 0 0 0 0 0 0 0 0 0 0 0 0 0 0 0 0 -209 -209 -209 -209 69 69 -193 70 69 -193 -193 71 72 72 -193 -193 -193 -209 -209 75 -209 -209 73 74 76 73 73 73 73 73 74 74 74 73 75 75 75 74 74 76 75 74 75 74 73 74 74 73 71 73 74 75 76 77 78 79 78 77 75 75 73 71 69 69 70 71 73 74 73 74 75 78 77 76 78 79 78 79 79 78 77 77 79 77 77 80 78 83 80 80 81 80 80 79 78 79 75 78 77 77 76 77 80 79 79 79 80 80 79 79 79 77 78 80 80 78 78 79 79 81 81 80 79 80 80 84 84 87 81 84 78 80 80 77 84 79 79 83 83 84 83 84 85 81 87 87 83 82 82 82 83 81 82 82 81 81 81 82 81 80 82 82 80 77 82 83 79 83 83 84 82 83 -193 -193 83 84 82 80 77 81 80 83 80 -193 79 75 78 83 83 84 84 86 87 85 85 85 85 85 85 87 86 83 86 86 86 86 87 87 87 99 107 107 112 109 109 109 110 110 110 109 112 108 115 114 116 116 116 117 120 121 126 124 126 126 126 127 127 128 130 127 134 134 137 138 138 139 0 0 0 0 0
    0 0 0 0 0 0 0 0 0 0 0 0 0 0 0 0 0 0 0 0 0 0 0 0 0 0 0 0 0 0 0 0 0 0 0 0 0 0 0 0 0 0 0 0 0 0 0 0 0 0 0 0 0 0 0 0 0 0 0 0 0 0 0 0 0 0 0 0 0 -209 -209 -209 -209 -209 -193 -193 -193 -209 -193 -193 -193 74 -193 -193 -209 -209 -209 -209 -209 -209 -209 72 73 74 73 73 72 72 72 73 73 73 72 75 75 75 74 74 76 75 74 75 74 74 75 75 74 72 73 76 77 78 79 79 79 79 78 77 76 74 72 70 69 71 71 73 73 73 74 75 78 77 76 77 78 78 78 78 78 76 76 77 77 76 80 79 83 80 81 82 82 81 80 79 79 75 78 76 76 76 76 79 79 78 78 79 80 79 80 80 78 79 82 81 80 78 80 80 81 81 80 80 81 81 85 84 88 84 86 80 82 80 77 84 79 79 82 83 84 84 84 85 82 89 88 84 81 82 83 83 81 81 81 80 81 81 81 80 80 82 82 78 77 81 82 79 83 82 84 83 -193 -193 -193 84 84 83 82 79 82 82 83 80 -193 79 76 79 84 85 86 86 88 87 85 85 85 85 85 85 87 85 82 85 85 85 85 86 86 87 100 108 107 112 108 108 109 109 110 110 109 111 108 114 114 116 117 116 117 120 121 126 124 126 126 126 127 127 128 130 127 133 134 137 137 138 139 0 0 0 0 0
    0 0 0 0 0 0 0 0 0 0 0 0 0 0 0 0 0 0 0 0 0 0 0 0 0 0 0 0 0 0 0 0 0 0 0 0 0 0 0 0 0 0 0 0 0 0 0 0 0 0 0 0 0 0 0 0 0 0 0 0 0 0 0 0 0 0 0 0 0 -209 -209 -209 -209 -209 -193 -193 70 -209 -193 70 72 74 -193 -193 -209 -209 -209 -209 -209 -209 72 72 73 73 72 73 72 71 72 72 73 73 72 74 74 74 74 74 76 75 74 75 75 74 76 76 75 73 74 77 78 79 80 79 79 80 79 77 76 75 72 70 69 71 71 73 73 73 74 74 78 76 75 77 78 77 77 77 77 75 75 76 77 76 79 79 83 81 82 83 83 82 82 81 80 76 79 77 76 76 77 80 79 79 79 80 81 80 80 80 78 79 82 82 81 78 80 79 80 81 79 79 80 79 84 82 87 81 83 79 80 79 77 83 79 78 82 84 84 84 85 86 83 89 88 85 80 82 83 82 81 81 81 80 80 81 80 80 80 81 81 77 77 81 81 78 82 81 83 82 -193 -193 83 83 84 83 82 80 82 81 83 80 -193 79 76 80 84 85 86 86 88 88 85 85 85 85 85 86 87 84 82 85 85 85 85 86 86 87 101 109 107 112 108 108 108 109 109 109 109 111 107 114 115 116 117 117 118 120 121 125 124 125 126 126 127 128 128 130 127 133 134 136 137 137 139 0 0 0 0 0
    0 0 0 0 0 0 0 0 0 0 0 0 0 0 0 0 0 0 0 0 0 0 0 0 0 0 0 0 0 0 0 0 0 0 0 0 0 0 0 0 0 0 0 0 0 0 0 0 0 0 0 0 0 0 0 0 0 0 0 0 0 0 0 0 0 0 0 0 0 -209 -209 -193 -209 -209 -193 -193 -209 -209 -193 69 71 72 71 71 -209 -209 -209 -209 -209 -209 71 71 72 72 72 72 71 71 71 72 72 73 72 73 73 74 74 74 77 76 75 76 76 76 77 77 77 74 74 78 79 81 80 79 80 80 79 78 77 76 72 70 70 72 72 73 74 73 74 75 78 76 75 76 77 77 77 76 76 74 75 76 76 77 79 79 84 81 82 83 83 82 82 81 81 76 79 78 76 75 76 81 80 79 79 79 81 80 80 80 78 79 82 81 81 77 80 79 80 80 79 79 80 79 83 78 85 80 83 79 81 79 78 83 79 79 82 84 84 84 85 86 83 90 88 85 80 82 83 82 81 81 81 79 81 81 81 79 80 81 80 77 77 82 81 79 82 -193 -193 -193 -193 -193 82 82 83 83 82 80 82 81 83 -193 -193 79 73 77 83 84 85 86 88 87 85 85 85 85 85 86 87 83 83 85 85 85 85 85 85 87 102 110 108 112 108 108 108 109 109 109 108 110 -193 114 115 117 118 118 118 120 120 125 124 125 126 126 127 128 129 130 127 133 134 137 137 138 139 0 0 0 0 0
    0 0 0 0 0 0 0 0 0 0 0 0 0 0 0 0 0 0 0 0 0 0 0 0 0 0 0 0 0 0 0 0 0 0 0 0 0 0 0 0 0 0 0 0 0 0 0 0 0 0 0 0 0 0 0 0 0 0 0 0 0 0 0 0 0 0 0 0 0 -209 -209 -209 -209 -193 -209 -209 -209 -209 -193 69 70 70 70 71 -209 -209 -209 -209 -209 -209 71 72 72 72 72 73 72 71 71 72 72 73 72 73 73 74 74 74 78 77 76 77 77 77 78 78 77 75 74 78 79 81 80 79 79 80 80 79 78 76 73 72 71 74 73 74 73 73 75 75 77 76 75 76 77 76 76 75 75 74 75 76 76 77 79 79 83 81 81 83 83 82 81 80 80 76 79 78 75 73 75 81 80 78 78 79 80 79 79 79 77 79 82 80 80 77 80 79 79 79 77 77 78 77 79 74 78 75 80 78 81 79 78 84 79 79 82 84 84 83 84 85 83 89 88 85 80 83 83 82 81 82 81 79 81 81 80 79 80 81 80 77 79 84 83 81 83 82 -193 -193 -193 -193 81 81 82 82 82 80 82 81 -193 -193 -193 -193 73 76 82 82 83 83 87 86 84 85 84 84 84 86 86 83 84 86 86 86 85 85 84 87 103 -177 108 112 108 108 108 108 108 108 108 110 -193 114 115 117 118 118 118 120 120 125 124 126 127 127 128 129 129 131 128 133 135 137 137 138 139 0 0 0 0 0
    0 0 0 0 0 0 0 0 0 0 0 0 0 0 0 0 0 0 0 0 0 0 0 0 0 0 0 0 0 0 0 0 0 0 0 0 0 0 0 0 0 0 0 0 0 0 0 0 0 0 0 0 0 0 0 0 0 0 0 0 0 0 0 0 0 0 0 0 0 -209 -209 -209 -209 -193 -209 -193 -193 -209 -209 70 71 71 71 71 -209 -209 -209 -209 -209 74 72 72 73 72 72 73 72 71 72 72 72 72 72 73 73 74 74 74 78 78 76 78 78 78 78 78 78 75 74 77 78 81 79 78 78 80 79 79 78 76 73 73 73 75 74 74 73 73 74 75 77 75 74 74 75 75 75 74 74 73 74 75 76 76 77 78 83 80 81 82 82 81 81 80 79 76 78 78 75 72 75 81 79 78 79 79 81 79 80 79 78 80 82 81 80 78 80 79 78 79 76 76 77 75 76 -193 -209 73 79 77 81 79 78 84 79 79 82 84 83 83 84 85 82 88 87 84 80 83 83 82 82 82 80 79 81 81 79 79 80 80 78 75 78 84 -193 82 83 82 84 -193 -193 -193 80 81 81 82 82 80 81 81 -193 -193 -209 -193 73 76 82 83 80 81 87 85 83 84 84 83 84 86 86 83 85 86 86 86 85 85 84 88 104 112 107 111 107 107 107 108 108 108 108 110 -193 113 116 117 118 118 118 120 120 126 124 126 127 127 128 129 129 131 128 133 135 137 138 138 139 0 0 0 0 0
    0 0 0 0 0 0 0 0 0 0 0 0 0 0 0 0 0 0 0 0 0 0 0 0 0 0 0 0 0 0 0 0 0 0 0 0 0 0 0 0 0 0 0 0 0 0 0 0 0 0 0 0 0 0 0 0 0 0 0 0 0 0 0 0 0 0 0 0 0 -209 -209 -209 -209 -209 -209 365 -193 -193 -193 -209 -209 -209 -209 -209 76 -209 -209 76 78 75 73 73 74 72 72 73 72 71 72 72 72 72 72 73 74 76 75 75 78 78 77 78 79 78 78 78 78 75 74 77 78 80 78 77 77 79 78 79 78 76 74 73 74 76 75 74 74 74 75 75 77 75 74 -193 75 75 75 73 73 72 74 75 76 76 76 79 83 80 81 82 82 81 81 81 79 77 79 78 76 74 78 81 79 79 79 80 81 79 80 79 78 81 82 80 80 78 80 79 78 78 76 76 76 75 76 -209 -209 72 77 77 81 79 78 84 79 79 82 84 83 83 84 85 82 88 86 85 80 84 83 82 82 82 80 80 81 80 79 79 80 80 77 74 75 81 80 81 82 81 83 -193 -193 81 80 80 80 82 -193 -193 -193 82 -193 -193 -193 84 76 78 85 85 80 80 87 84 83 84 84 83 84 86 86 83 85 86 86 86 85 85 85 88 104 112 107 111 106 106 106 107 107 107 107 109 -193 113 116 117 118 118 118 120 120 126 125 126 127 127 128 130 129 131 128 133 135 137 138 139 140 0 0 0 0 0
    0 0 0 0 0 0 0 0 0 0 0 0 0 0 0 0 0 0 0 0 0 0 0 0 0 0 0 0 0 0 0 0 0 0 0 0 0 0 0 0 0 0 0 0 0 0 0 0 0 0 0 0 0 0 0 0 0 0 0 0 0 0 0 0 0 0 0 0 0 -209 -209 -209 -193 -209 -209 -209 -209 -177 -193 -209 -209 -209 -209 -193 -193 -209 -209 -209 -193 74 72 73 73 72 72 73 72 71 72 72 72 73 73 73 75 77 76 76 79 78 77 78 78 78 77 78 78 75 74 77 78 80 78 78 77 79 79 80 78 77 74 74 75 77 75 75 74 74 76 76 77 74 73 704 75 74 74 73 73 72 74 75 76 76 77 80 82 80 81 81 82 81 81 81 78 77 79 78 77 75 80 80 78 79 79 80 80 79 80 79 78 81 82 80 80 78 80 79 78 78 76 76 76 75 -193 -193 -209 72 76 76 81 79 78 84 79 79 82 84 83 83 84 85 82 87 86 85 80 84 83 82 81 82 80 81 81 80 79 80 81 80 76 -193 -193 -193 -209 80 81 80 -193 -193 -193 -193 79 80 -193 -193 -193 -193 -193 -193 -193 -193 -193 84 74 78 85 85 76 78 86 83 82 84 83 82 84 85 86 83 85 86 86 86 85 84 84 89 104 111 107 111 106 106 106 106 107 106 106 107 -209 111 116 117 118 118 118 119 120 125 125 126 127 127 128 129 129 130 128 133 135 137 138 139 140 0 0 0 0 0
    0 0 0 0 0 0 0 0 0 0 0 0 0 0 0 0 0 0 0 0 0 0 0 0 0 0 0 0 0 0 0 0 0 0 0 0 0 0 0 0 0 0 0 0 0 0 0 0 0 0 0 0 0 0 0 0 0 0 0 0 0 0 0 0 0 0 0 0 0 74 73 73 76 -193 -193 -209 -193 -177 -193 -193 -209 -209 -209 -209 -193 -209 -209 -193 77 74 73 73 73 71 72 73 72 72 73 72 72 73 73 73 75 77 76 76 79 79 77 78 78 78 77 78 78 75 74 77 78 80 78 77 77 78 79 79 77 77 74 74 75 77 76 75 75 75 76 77 77 -193 -193 705 75 74 74 73 73 72 75 76 77 76 77 80 81 80 81 80 81 80 80 80 78 77 79 77 77 76 80 79 78 78 78 79 79 78 79 79 79 82 82 80 80 79 80 80 78 79 76 76 77 75 -193 -193 -209 72 76 77 81 80 78 84 80 79 82 84 83 83 84 85 83 87 86 84 80 84 83 82 81 82 80 81 81 81 79 81 82 81 76 -193 -209 -209 -209 -209 -193 79 -193 -193 -193 81 79 79 -193 -193 -193 -193 -193 -193 -193 -209 -209 -193 -193 75 83 83 -193 77 85 81 82 84 83 81 84 85 85 82 85 85 85 85 85 81 83 91 105 110 107 110 105 106 106 106 106 105 106 106 -193 109 116 116 118 118 118 119 120 125 125 126 127 127 127 129 129 130 127 132 134 136 138 138 139 0 0 0 0 0
    0 0 0 0 0 0 0 0 0 0 0 0 0 0 0 0 0 0 0 0 0 0 0 0 0 0 0 0 0 0 0 0 0 0 0 0 0 0 0 0 0 0 0 0 0 0 0 0 0 0 0 0 0 0 0 0 0 0 0 0 0 0 0 0 0 0 0 0 0 77 74 74 76 -193 -193 -209 -177 -177 -193 -193 -209 -209 -209 -209 -193 -193 -209 77 76 74 73 73 73 71 72 73 72 72 73 72 72 73 73 73 75 78 76 76 79 79 78 78 78 77 77 78 78 75 74 77 78 79 77 77 77 77 78 78 76 76 74 74 75 76 76 75 75 76 77 77 76 -193 -193 706 75 74 74 73 73 73 76 76 77 77 77 79 79 78 79 78 79 79 79 78 77 77 78 77 78 77 80 78 77 77 -193 78 78 77 78 78 79 81 81 80 79 80 80 79 78 78 75 76 76 -193 -209 -193 -209 -193 -193 77 80 80 78 85 80 80 82 84 83 83 83 84 82 86 85 84 80 83 82 81 81 82 80 81 82 81 80 82 83 81 76 -193 -209 -209 -209 -209 -193 79 80 80 -193 81 79 80 -193 -193 -193 -193 -193 -193 -193 -209 82 -193 -193 76 83 84 -193 78 84 81 81 83 82 80 84 84 84 82 85 85 85 84 83 78 82 91 106 110 107 110 105 105 105 105 106 105 105 106 -209 109 117 117 119 118 119 119 120 125 125 126 127 127 127 129 129 129 127 131 133 135 138 138 139 0 0 0 0 0
    0 0 0 0 0 0 0 0 0 0 0 0 0 0 0 0 0 0 0 0 0 0 0 0 0 0 0 0 0 0 0 0 0 0 0 0 0 0 0 0 0 0 0 0 0 0 0 0 0 0 0 0 0 0 0 0 0 0 0 0 0 0 0 0 0 0 0 0 0 83 76 76 76 -193 -193 -209 -177 -177 -193 -193 -209 -209 -209 -209 -193 74 75 79 76 74 74 75 73 72 73 73 72 72 73 72 72 73 73 73 76 78 76 76 79 78 78 78 78 77 76 78 77 75 75 77 78 79 76 76 76 76 77 76 75 75 74 74 75 76 76 75 75 76 77 77 76 -193 -193 708 75 75 75 74 74 74 78 78 77 77 78 78 78 78 78 77 78 77 77 77 76 77 77 77 78 78 80 78 77 -193 -193 78 78 77 77 77 79 80 80 78 77 78 78 78 77 77 75 76 76 -193 -193 -177 -193 -209 -209 77 79 80 79 85 80 80 83 84 83 83 83 84 81 85 84 82 80 83 82 81 81 82 81 82 82 81 81 83 84 82 75 79 -209 -193 -209 -209 -193 80 -193 -209 -193 -193 80 81 -193 -193 81 80 80 80 84 86 82 84 74 78 83 84 -193 79 83 79 81 82 81 80 84 83 83 82 84 84 84 84 82 76 81 89 106 110 107 109 105 105 105 105 105 105 105 106 -209 109 116 117 119 119 119 120 121 125 125 125 126 126 127 129 128 129 127 131 134 136 138 139 140 0 0 0 0 0
    0 0 0 0 0 0 0 0 0 0 0 0 0 0 0 0 0 0 0 0 0 0 0 0 0 0 0 0 0 0 0 0 0 0 0 0 0 0 0 0 0 0 0 0 0 0 0 0 0 0 0 0 0 0 0 0 0 0 0 0 0 0 0 0 0 0 0 0 0 83 75 76 75 -193 -209 -209 -193 -177 -209 -193 -193 -209 -209 -193 78 75 77 80 77 75 76 76 74 73 73 73 72 73 72 72 72 72 73 72 76 78 76 76 78 78 78 78 78 77 76 78 78 75 75 77 78 78 75 75 75 75 76 75 75 75 74 74 75 76 76 75 75 76 77 76 75 -193 -193 709 75 75 75 74 74 75 79 79 78 78 79 78 78 77 78 77 77 77 77 76 76 77 77 78 79 78 79 77 -193 562 -193 78 77 76 76 76 78 78 77 77 76 77 77 77 77 78 76 77 78 77 -193 -193 -209 -209 -209 77 79 81 79 86 81 81 84 84 83 83 83 84 81 84 84 82 81 83 81 81 80 82 81 82 82 81 81 83 84 82 -209 -209 -209 -209 -209 -209 -193 -193 -193 -209 -209 -209 -193 -193 -193 -193 81 80 81 81 85 87 83 86 -193 77 80 82 -193 77 80 78 79 81 79 80 83 82 82 82 84 84 84 84 82 75 83 91 105 110 107 109 105 105 105 105 105 105 105 106 -209 108 117 117 119 119 119 120 120 124 124 124 126 126 126 128 128 129 127 131 134 136 138 140 141 0 0 0 0 0
    0 0 0 0 0 0 0 0 0 0 0 0 0 0 0 0 0 0 0 0 0 0 0 0 0 0 0 0 0 0 0 0 0 0 0 0 0 0 0 0 0 0 0 0 0 0 0 0 0 0 0 0 0 0 0 0 0 0 0 0 0 0 0 0 0 0 0 0 0 73 71 73 -193 -209 -209 -209 -193 -193 -209 -209 -193 -193 -193 76 78 75 77 78 76 75 76 76 74 73 74 73 73 73 72 71 71 72 72 72 76 78 76 76 78 78 78 78 78 77 76 78 78 76 76 78 79 79 76 76 76 75 76 75 76 77 75 75 76 76 76 75 74 76 77 76 75 -177 -193 -193 75 75 75 74 74 76 79 80 78 78 80 78 77 77 78 77 77 77 77 76 76 77 77 78 79 79 -193 560 561 562 563 78 76 75 76 76 77 77 76 76 75 77 77 77 77 78 77 77 79 77 76 76 74 74 73 76 76 79 77 85 82 82 85 85 84 84 84 85 82 84 83 81 81 82 81 80 80 82 82 82 82 80 80 84 84 81 -209 -209 -209 -209 -209 -193 82 81 81 -209 -209 -193 -193 -193 -193 -209 -193 78 77 78 -193 -193 79 -209 -193 77 77 81 75 78 78 78 79 80 78 81 82 81 81 82 84 84 84 84 83 76 87 95 104 108 106 108 104 105 104 104 105 105 105 106 -193 109 117 117 118 118 119 119 120 123 124 124 125 125 126 127 128 128 127 131 134 136 139 139 141 0 0 0 0 0
    0 0 0 0 0 0 0 0 0 0 0 0 0 0 0 0 0 0 0 0 0 0 0 0 0 0 0 0 0 0 0 0 0 0 0 0 0 0 0 0 0 0 0 0 0 0 0 0 0 0 0 0 0 0 0 0 0 0 0 0 0 0 0 0 0 0 0 0 0 74 70 71 -193 -209 -209 -193 -209 -209 -209 -193 74 75 74 76 78 76 77 78 76 76 76 76 74 73 74 73 73 73 72 71 71 72 71 72 75 78 76 76 78 79 78 78 77 78 76 79 78 76 77 79 80 80 77 77 77 77 77 75 77 77 76 76 76 75 76 75 75 78 77 76 -177 -177 -193 -177 76 76 75 74 75 77 79 81 78 78 81 78 77 78 78 77 77 77 77 76 76 78 76 78 80 78 560 560 561 562 562 77 76 75 75 75 76 76 75 75 75 77 77 77 77 78 78 77 77 76 75 74 73 73 72 76 75 79 77 85 83 83 85 85 84 84 84 85 82 83 83 80 82 82 81 80 80 82 82 82 81 80 80 84 83 78 -209 -193 -193 -193 -209 -193 79 79 -193 -209 -209 -193 -193 -193 -193 -209 78 -193 77 78 -193 -193 80 -193 -193 -193 80 85 81 78 77 77 78 80 78 82 81 80 80 82 83 83 84 84 82 76 89 97 104 107 106 107 104 104 104 104 105 105 105 106 -209 108 118 117 118 118 119 120 120 124 124 124 125 125 125 127 127 127 126 130 133 135 138 139 140 0 0 0 0 0
    0 0 0 0 0 0 0 0 0 0 0 0 0 0 0 0 0 0 0 0 0 0 0 0 0 0 0 0 0 0 0 0 0 0 0 0 0 0 0 0 0 0 0 0 0 0 0 0 0 0 0 0 0 0 0 0 0 0 0 0 0 0 0 0 0 0 0 0 0 -193 69 69 69 70 70 69 -209 -209 -209 -209 72 72 72 74 77 74 76 76 75 76 76 76 74 74 74 73 73 73 72 71 71 72 72 72 76 78 76 76 79 79 78 78 78 78 76 79 79 77 78 79 80 80 77 78 78 78 78 76 77 78 76 76 76 75 76 75 75 79 77 76 -177 -177 -177 76 76 77 76 75 77 80 81 82 79 79 81 77 77 78 77 77 77 77 77 76 76 78 76 79 81 79 560 560 561 562 -193 76 75 74 74 75 75 75 74 75 76 77 78 78 77 78 78 77 77 75 75 75 74 75 74 76 76 79 77 84 83 83 86 84 84 84 84 85 82 82 83 79 82 82 81 79 79 82 82 82 81 80 81 83 82 -193 -193 -193 -209 -193 75 79 79 80 -193 -193 -193 -193 80 79 -193 -193 77 78 78 -193 -193 -193 81 -193 -193 85 84 86 87 82 79 80 81 81 80 83 81 79 80 82 83 83 84 83 80 75 89 97 104 107 106 106 104 104 104 104 105 105 104 105 -193 107 117 116 118 119 119 120 121 124 125 125 126 126 126 127 127 128 127 129 133 135 138 139 140 0 0 0 0 0
    0 0 0 0 0 0 0 0 0 0 0 0 0 0 0 0 0 0 0 0 0 0 0 0 0 0 0 0 0 0 0 0 0 0 0 0 0 0 0 0 0 0 0 0 0 0 0 0 0 0 0 0 0 0 0 0 0 0 0 0 0 0 0 0 0 0 0 0 0 69 66 66 66 68 67 67 70 -209 -193 71 70 70 69 -193 -209 72 77 76 75 77 77 76 75 74 75 74 74 74 72 71 72 72 72 73 75 78 76 77 79 79 78 78 78 78 76 79 79 77 78 79 80 80 77 78 78 78 77 76 77 79 77 76 74 73 75 73 74 79 76 75 -177 -177 -177 76 77 77 76 77 79 82 83 83 80 80 81 77 77 78 77 77 77 77 77 75 77 78 77 80 81 78 560 560 561 562 -193 76 75 74 74 75 75 75 74 76 77 77 79 78 77 79 79 77 77 75 76 76 77 77 76 77 77 79 78 84 84 84 86 84 85 85 85 86 82 82 82 78 82 81 81 79 79 82 82 82 81 81 82 84 83 -193 -209 81 -209 77 78 82 82 -209 -193 -193 -193 -193 82 81 -193 -193 77 78 77 76 -193 -193 79 82 84 87 84 86 86 83 82 83 82 81 81 84 81 79 79 82 83 83 83 83 78 74 88 97 104 106 105 106 105 104 104 104 105 105 105 105 -193 107 116 116 118 119 120 121 121 124 125 125 126 126 126 127 127 128 127 128 132 133 137 138 139 0 0 0 0 0
    0 0 0 0 0 0 0 0 0 0 0 0 0 0 0 0 0 0 0 0 0 0 0 0 0 0 0 0 0 0 0 0 0 0 0 0 0 0 0 0 0 0 0 0 0 0 0 0 0 0 0 0 0 0 0 0 0 0 0 0 0 0 0 0 0 0 0 0 0 69 67 67 66 67 66 65 68 -193 -193 68 67 68 68 -193 -209 74 78 76 75 77 77 76 76 75 75 74 75 75 72 72 72 72 72 73 75 77 76 76 79 79 78 78 77 78 76 79 79 77 78 79 80 80 77 78 78 77 76 75 76 78 77 75 73 73 74 73 74 79 75 75 -177 -177 -177 77 78 77 77 77 81 83 83 83 80 81 81 77 77 78 77 77 77 78 77 75 78 78 77 80 80 -193 560 561 562 562 -193 76 75 73 73 74 74 74 73 75 76 77 79 77 77 78 79 77 76 75 76 75 78 78 78 78 77 79 78 84 85 85 87 84 84 85 85 85 82 81 82 78 82 81 81 79 79 82 82 82 81 81 82 83 81 -193 -209 80 79 79 79 83 83 83 82 85 84 82 82 81 -193 -193 78 79 77 -193 -209 -193 -193 81 85 86 82 85 85 83 82 83 83 82 82 85 82 79 80 82 83 83 83 82 77 75 88 96 103 106 105 105 106 105 105 105 105 106 106 107 107 108 117 117 119 120 120 121 122 124 126 125 126 126 126 127 127 128 127 128 131 132 135 136 138 0 0 0 0 0
    0 0 0 0 0 0 0 0 0 0 0 0 0 0 0 0 0 0 0 0 0 0 0 0 0 0 0 0 0 0 0 0 0 0 0 0 0 0 0 0 0 0 0 0 0 0 0 0 0 0 0 0 0 0 0 0 0 0 0 0 0 0 0 0 0 0 0 0 0 69 67 68 66 67 66 65 67 64 64 68 67 68 68 71 74 73 76 75 75 76 76 75 75 74 74 73 74 74 72 72 72 72 72 73 75 77 76 76 79 79 78 78 77 78 76 79 79 77 78 79 80 79 77 78 77 77 76 75 76 78 77 76 74 73 74 74 75 79 76 -177 -177 -177 -177 77 78 77 76 77 81 82 82 83 80 82 81 77 78 78 78 78 78 79 77 76 78 78 78 80 80 561 560 561 562 562 -193 76 75 73 73 74 74 74 73 75 76 76 79 76 77 78 79 77 76 75 77 75 79 79 79 79 78 79 78 84 87 86 87 84 84 84 85 85 82 80 81 77 82 81 81 79 79 82 82 82 80 81 81 82 79 -193 -193 81 80 81 80 83 84 84 83 85 83 82 82 82 80 78 78 80 78 -193 -209 -193 80 83 86 89 82 85 84 83 83 84 83 82 82 85 82 80 80 82 83 83 83 82 77 77 87 91 103 105 105 105 107 105 105 106 106 106 106 108 109 108 118 118 119 120 120 120 122 124 126 125 126 126 126 127 127 128 127 128 131 131 136 137 139 0 0 0 0 0
    0 0 0 0 0 0 0 0 0 0 0 0 0 0 0 0 0 0 0 0 0 0 0 0 0 0 0 0 0 0 0 0 0 0 0 0 0 0 0 0 0 0 0 0 0 0 0 0 0 0 0 0 0 0 0 0 0 0 0 0 0 0 0 0 0 0 0 0 0 70 68 68 66 67 66 64 65 63 63 68 67 69 68 69 -193 72 75 74 74 75 74 74 74 74 74 73 74 74 73 73 73 73 73 74 76 77 76 76 80 79 78 77 77 78 76 78 78 76 77 79 79 79 76 77 76 76 76 75 76 77 77 76 74 74 74 74 75 79 76 -177 -177 -177 -177 77 78 77 76 77 83 82 83 83 80 83 82 78 79 79 79 79 78 80 77 76 79 78 79 81 80 561 560 562 563 563 -193 76 74 73 74 74 74 74 73 74 76 76 78 76 76 77 78 76 76 74 77 76 79 80 80 79 79 80 79 84 87 86 87 84 84 85 85 85 82 80 81 78 81 81 81 79 79 82 82 81 79 81 81 82 78 79 77 81 81 83 80 84 84 84 83 85 83 81 81 81 -193 78 79 81 79 -193 -209 -193 83 84 87 90 82 85 83 82 83 84 83 82 83 86 81 80 81 82 83 82 83 81 76 77 87 91 103 105 105 105 108 106 106 106 106 107 107 109 109 108 118 118 119 120 120 120 122 124 126 125 126 126 126 127 128 128 128 129 133 132 136 137 138 0 0 0 0 0
    0 0 0 0 0 0 0 0 0 0 0 0 0 0 0 0 0 0 0 0 0 0 0 0 0 0 0 0 0 0 0 0 0 0 0 0 0 0 0 0 0 0 0 0 0 0 0 0 0 0 0 0 0 0 0 0 0 0 0 0 0 0 0 0 0 0 0 0 0 69 67 68 66 67 65 63 64 61 62 66 66 68 68 69 73 72 74 73 74 75 74 74 73 73 74 73 75 74 73 73 73 73 73 74 76 77 76 76 80 80 78 77 77 78 76 78 78 76 76 78 79 78 76 76 76 76 75 75 75 77 77 76 74 74 75 75 76 79 76 -177 -177 -177 -177 77 77 77 76 79 84 83 83 83 81 83 81 78 79 79 79 79 78 79 77 77 79 78 79 81 -193 561 560 562 562 563 -193 76 74 73 74 74 74 74 73 75 76 76 79 76 75 76 77 76 75 73 76 76 79 80 80 79 79 81 79 83 -193 86 87 84 84 85 85 85 83 79 81 78 81 81 81 79 79 81 81 80 79 81 81 82 79 81 80 82 83 85 81 85 85 85 83 85 83 81 80 80 -193 -193 79 82 -193 -209 -209 -209 -193 86 89 90 82 85 82 82 82 83 82 82 83 86 81 80 82 82 83 82 83 81 76 77 86 92 103 105 105 105 108 106 106 107 107 107 107 110 111 108 118 119 119 120 120 120 122 124 126 125 127 127 126 128 128 129 129 129 133 133 137 137 138 0 0 0 0 0
    0 0 0 0 0 0 0 0 0 0 0 0 0 0 0 0 0 0 0 0 0 0 0 0 0 0 0 0 0 0 0 0 0 0 0 0 0 0 0 0 0 0 0 0 0 0 0 0 0 0 0 0 0 0 0 0 0 0 0 0 0 0 0 0 0 0 0 0 0 68 65 68 64 65 64 61 62 60 60 64 66 67 69 72 76 72 74 74 75 76 75 75 74 74 74 74 76 75 74 74 74 74 74 75 76 77 76 77 81 80 78 78 77 78 76 78 78 76 76 78 78 78 76 77 77 76 75 76 75 77 77 75 74 73 73 75 76 78 75 -177 -177 -177 -177 78 78 77 76 81 85 83 83 83 82 83 80 79 79 78 79 78 78 78 76 77 78 77 79 80 -193 561 561 563 563 563 -193 75 74 73 75 75 75 74 73 77 79 79 81 77 76 76 76 75 74 73 76 76 78 80 80 79 79 81 79 83 -193 86 87 84 84 84 85 84 82 79 81 78 80 81 81 78 79 81 82 80 79 81 82 81 79 81 81 81 83 84 82 84 85 84 84 86 84 81 81 81 80 79 79 83 80 -209 -209 -209 -209 -193 90 92 88 87 84 83 83 84 83 83 84 86 81 81 83 82 83 83 83 79 74 75 80 94 104 106 105 105 109 106 107 107 107 107 108 111 112 109 118 119 119 120 121 120 123 124 128 126 127 127 127 128 129 129 129 129 133 133 137 137 137 0 0 0 0 0
    0 0 0 0 0 0 0 0 0 0 0 0 0 0 0 0 0 0 0 0 0 0 0 0 0 0 0 0 0 0 0 0 0 0 0 0 0 0 0 0 0 0 0 0 0 0 0 0 0 0 0 0 0 0 0 0 0 0 0 0 0 0 0 0 0 0 0 0 0 67 64 67 -209 63 65 61 63 62 -193 67 67 69 72 75 79 74 75 74 76 77 75 75 74 74 74 75 76 75 74 75 74 74 75 76 76 78 76 77 82 80 78 78 77 78 76 78 78 75 75 78 78 77 76 76 76 76 75 77 75 77 76 74 73 73 73 75 76 77 75 75 -177 -177 77 77 77 76 76 81 85 83 83 83 83 83 80 79 79 78 79 77 77 77 75 77 77 76 79 79 80 -193 561 563 563 -193 78 76 74 74 75 76 76 75 74 79 81 79 81 78 77 77 76 75 74 73 77 77 79 80 80 79 80 82 80 83 88 85 86 84 83 83 85 84 82 79 81 79 80 81 82 78 80 81 81 80 80 82 82 81 80 83 83 83 84 84 84 85 85 85 85 86 84 82 81 82 80 80 80 83 81 -209 -193 -209 -193 90 91 92 90 88 84 83 83 84 82 82 84 85 81 83 84 84 84 83 83 78 73 73 -193 -193 106 106 105 105 109 106 106 107 107 107 108 110 111 108 118 119 119 120 121 121 124 125 129 126 128 127 127 128 129 129 129 128 133 132 136 136 136 0 0 0 0 0
    0 0 0 0 0 0 0 0 0 0 0 0 0 0 0 0 0 0 0 0 0 0 0 0 0 0 0 0 0 0 0 0 0 0 0 0 0 0 0 0 0 0 0 0 0 0 0 0 0 0 0 0 0 0 0 0 0 0 0 0 0 0 0 0 0 0 0 0 0 71 69 -209 -209 -209 -209 61 61 -193 -193 66 67 69 72 75 78 72 74 74 76 75 74 75 74 74 74 75 76 75 75 75 75 75 76 77 76 78 76 77 82 80 78 78 77 78 76 77 77 74 74 77 77 76 75 75 76 76 75 76 75 76 75 74 73 73 73 75 76 77 74 75 76 77 77 78 77 76 77 82 85 82 83 82 83 83 80 80 79 78 79 78 78 77 75 77 76 76 79 79 79 -193 562 -193 -193 79 78 76 75 75 76 76 76 75 75 81 82 81 81 79 78 77 77 77 75 75 78 78 80 81 80 80 80 82 80 83 88 84 85 84 83 83 84 83 82 79 81 79 79 81 82 78 80 81 81 80 80 82 82 81 80 84 84 84 85 86 86 86 87 87 86 87 85 83 82 82 81 80 80 83 82 -209 -193 -209 -193 91 92 93 90 88 83 83 83 84 82 83 84 86 82 85 86 85 85 85 85 77 70 70 71 -193 -177 106 105 105 109 106 106 107 107 107 108 111 112 108 118 119 119 121 122 121 124 124 129 126 127 127 127 128 129 129 130 128 132 132 135 136 136 0 0 0 0 0
    0 0 0 0 0 0 0 0 0 0 0 0 0 0 0 0 0 0 0 0 0 0 0 0 0 0 0 0 0 0 0 0 0 0 0 0 0 0 0 0 0 0 0 0 0 0 0 0 0 0 0 0 0 0 0 0 0 0 0 0 0 0 0 0 0 0 0 0 0 75 -209 -209 -209 -209 -209 63 60 61 62 67 69 71 74 77 77 72 73 74 75 74 74 74 74 73 74 75 76 75 75 75 75 75 76 77 76 78 76 77 81 78 77 77 76 77 75 76 76 73 73 76 76 75 74 75 75 75 75 76 75 76 76 74 73 73 73 76 76 76 74 75 76 77 77 77 76 75 76 81 84 81 82 80 83 83 80 81 80 79 80 78 79 77 76 78 76 76 79 78 79 -193 563 -193 -193 79 78 76 75 76 77 77 77 76 76 81 80 79 78 77 77 77 76 76 74 75 79 79 81 81 81 80 80 82 80 82 88 84 85 84 82 82 84 82 81 79 81 79 79 81 82 78 81 82 82 81 81 83 83 82 82 85 84 84 85 86 86 87 86 86 87 87 85 83 82 83 82 81 81 84 83 -193 -193 -209 90 90 91 92 90 89 84 84 84 84 83 84 85 86 83 86 86 85 85 85 85 76 67 69 -193 -193 105 105 104 105 109 106 106 107 107 107 108 111 112 -193 119 120 120 122 122 121 125 124 129 126 127 127 127 128 129 129 130 128 132 131 135 135 135 0 0 0 0 0
    0 0 0 0 0 0 0 0 0 0 0 0 0 0 0 0 0 0 0 0 0 0 0 0 0 0 0 0 0 0 0 0 0 0 0 0 0 0 0 0 0 0 0 0 0 0 0 0 0 0 0 0 0 0 0 0 0 0 0 0 0 0 0 0 0 0 0 0 0 76 -209 -209 -209 -209 -209 65 62 62 65 69 72 73 75 76 75 72 72 73 75 74 74 74 73 74 75 76 76 75 75 75 75 76 77 77 76 78 76 76 80 77 76 76 76 77 75 76 76 73 73 75 75 75 74 74 75 75 74 76 75 76 76 74 74 73 74 77 77 76 75 75 76 77 77 77 75 75 75 79 82 79 79 78 83 82 79 80 80 79 79 78 78 77 76 77 76 76 78 78 78 78 -193 79 80 78 77 76 75 77 77 77 77 77 78 82 81 79 77 77 78 76 76 77 74 76 81 82 81 82 82 81 80 82 80 81 87 83 84 84 82 82 84 82 81 78 81 80 78 81 82 77 81 82 82 80 81 83 82 81 82 85 84 85 86 87 87 87 86 86 86 87 84 82 81 82 82 83 81 83 83 -193 92 91 90 91 92 92 92 91 86 86 86 85 85 86 86 86 83 85 85 85 85 85 83 73 67 69 -193 -193 104 105 104 105 109 106 107 107 107 108 108 112 113 -193 119 119 120 122 122 121 124 124 129 126 127 127 127 128 129 129 130 128 132 131 135 135 135 0 0 0 0 0
    0 0 0 0 0 0 0 0 0 0 0 0 0 0 0 0 0 0 0 0 0 0 0 0 0 0 0 0 0 0 0 0 0 0 0 0 0 0 0 0 0 0 0 0 0 0 0 0 0 0 0 0 0 0 0 0 0 0 0 0 0 0 0 0 0 0 0 0 0 77 -209 -209 -209 -209 -209 -209 65 66 69 73 75 76 78 81 76 73 73 74 75 74 74 74 74 74 75 76 76 75 75 75 75 76 77 77 75 78 76 76 79 77 76 76 75 76 75 76 76 73 73 75 75 75 74 74 75 75 74 75 75 76 76 74 74 73 75 77 77 76 75 75 76 77 77 76 75 74 75 79 81 78 78 78 83 81 79 80 79 78 78 77 77 76 76 76 75 75 78 77 77 78 -193 79 79 78 77 76 75 78 78 78 79 78 81 83 83 82 79 80 81 78 78 79 76 78 81 83 81 81 81 80 81 83 79 80 86 82 83 84 81 81 83 81 81 78 81 80 78 81 82 77 81 82 81 80 81 83 81 81 83 85 86 86 87 88 88 88 87 87 86 87 84 81 80 82 82 83 81 84 85 89 91 90 90 91 91 92 92 91 87 87 87 86 86 86 86 85 83 85 85 84 84 84 80 71 66 70 -209 -193 104 105 104 105 109 106 107 107 107 107 108 111 112 -193 118 119 119 122 122 121 124 123 129 126 127 127 127 128 129 129 130 128 133 131 135 135 136 0 0 0 0 0
    0 0 0 0 0 0 0 0 0 0 0 0 0 0 0 0 0 0 0 0 0 0 0 0 0 0 0 0 0 0 0 0 0 0 0 0 0 0 0 0 0 0 0 0 0 0 0 0 0 0 0 0 0 0 0 0 0 0 0 0 0 0 0 0 0 0 0 0 0 77 -209 -209 -209 -209 -209 -209 -209 -193 74 75 77 79 83 86 77 73 73 75 76 75 76 75 75 75 77 77 76 76 76 75 75 76 77 77 75 78 76 76 79 76 75 75 75 76 75 76 76 73 74 75 75 75 75 73 75 74 74 74 74 76 75 74 74 73 75 78 76 76 75 75 76 77 77 76 75 75 76 80 82 80 79 79 83 80 79 79 78 77 77 77 77 75 76 76 75 76 78 77 77 77 78 79 79 77 78 77 76 80 81 80 81 81 85 85 85 84 80 82 83 79 80 79 77 78 80 82 81 79 80 79 80 82 79 79 86 81 82 84 81 81 83 81 81 78 81 80 78 82 82 77 82 81 81 80 81 82 80 80 83 84 86 86 87 88 89 88 87 87 86 -209 83 80 79 81 81 -193 -193 -193 -193 -193 90 91 90 91 91 93 93 91 89 88 88 87 87 87 86 85 83 85 86 85 85 85 81 -193 -193 -193 -209 91 104 106 105 105 109 106 106 107 107 107 107 110 110 -209 116 118 118 121 121 121 123 123 129 125 127 127 127 128 129 129 130 128 133 131 135 135 136 0 0 0 0 0
    0 0 0 0 0 0 0 0 0 0 0 0 0 0 0 0 0 0 0 0 0 0 0 0 0 0 0 0 0 0 0 0 0 0 0 0 0 0 0 0 0 0 0 0 0 0 0 0 0 0 0 0 0 0 0 0 0 0 0 0 0 0 0 0 0 0 0 0 0 79 -209 -209 -209 -209 -209 -209 -209 73 -193 74 76 78 81 84 74 73 73 75 76 76 77 76 75 76 78 78 76 76 76 75 75 76 76 76 74 79 76 76 79 76 75 76 75 76 74 76 76 73 74 75 75 75 74 73 74 74 73 74 74 76 75 74 74 74 75 78 77 76 75 75 76 77 77 76 75 75 77 80 82 80 79 80 83 79 78 79 78 77 77 77 76 75 76 75 75 76 78 77 77 77 78 79 79 77 78 77 78 82 81 80 82 82 85 85 85 84 80 82 84 80 81 80 77 79 80 82 80 78 78 77 78 81 78 78 86 80 80 84 80 80 83 80 81 78 81 81 77 82 82 77 82 81 81 80 82 82 79 79 83 83 85 85 86 86 88 88 -193 -209 86 -193 82 80 80 83 84 85 -193 -193 -193 -193 91 91 91 92 91 92 93 91 90 89 89 88 88 88 86 85 84 86 86 86 86 86 80 -209 -209 -209 -209 93 104 106 105 105 109 106 106 106 107 107 107 109 110 -209 116 117 117 119 119 120 122 121 128 125 127 126 127 128 129 129 130 127 132 131 135 135 135 0 0 0 0 0
    0 0 0 0 0 0 0 0 0 0 0 0 0 0 0 0 0 0 0 0 0 0 0 0 0 0 0 0 0 0 0 0 0 0 0 0 0 0 0 0 0 0 0 0 0 0 0 0 0 0 0 0 0 0 0 0 0 0 0 0 0 0 0 0 0 0 0 0 0 84 -209 -209 -209 -209 -209 -209 -209 -209 -209 74 75 77 79 79 73 72 74 75 76 76 77 76 76 77 78 78 76 76 76 75 76 76 76 76 74 79 76 76 78 76 75 76 75 76 74 75 76 73 74 74 74 74 74 73 74 73 73 74 74 75 75 73 74 74 75 79 77 76 75 76 77 77 76 76 75 75 77 78 81 79 79 81 82 78 79 79 78 77 77 77 76 74 76 75 75 76 77 76 76 77 78 79 79 77 78 78 80 83 83 81 83 83 85 85 84 83 80 81 83 80 81 79 78 79 79 81 79 78 77 77 78 80 77 77 85 79 80 84 80 80 83 80 81 79 81 81 77 82 82 77 82 81 81 81 82 82 78 80 81 80 84 84 85 85 88 87 85 -193 85 85 81 79 80 82 83 86 -193 87 -193 89 90 90 90 91 91 91 92 91 90 90 89 88 88 88 86 85 85 86 87 87 87 87 -209 -209 -193 -193 95 93 103 105 105 105 108 105 106 106 107 107 107 110 110 -209 116 117 117 118 119 119 122 121 128 125 127 126 127 128 129 128 130 127 132 130 134 134 135 0 0 0 0 0
    0 0 0 0 0 0 0 0 0 0 0 0 0 0 0 0 0 0 0 0 0 0 0 0 0 0 0 0 0 0 0 0 0 0 0 0 0 0 0 0 0 0 0 0 0 0 0 0 0 0 0 0 0 0 0 0 0 0 0 0 0 0 0 0 0 0 0 0 0 83 82 -193 -193 -209 -209 -209 -209 -209 -209 -209 76 78 78 77 72 72 73 75 75 75 76 76 76 77 78 77 76 76 76 75 76 76 75 76 74 79 76 76 78 76 75 75 75 76 74 75 75 72 75 75 75 74 74 73 74 73 73 73 73 74 74 73 73 74 76 79 77 76 76 76 77 77 76 75 75 76 77 77 79 78 78 80 81 78 78 79 78 77 77 77 76 75 76 76 76 76 77 76 76 76 78 78 78 77 78 79 83 85 85 83 85 84 86 85 84 83 80 81 83 80 81 79 78 79 79 81 80 78 78 77 79 80 78 78 85 80 80 84 80 80 83 80 81 79 81 81 78 82 82 77 83 81 80 81 83 82 77 81 79 79 84 84 85 86 87 -193 84 -193 84 83 81 78 79 80 83 86 -193 -193 -193 -193 89 89 90 90 90 90 90 89 89 89 89 87 88 88 86 85 85 86 86 87 87 87 -209 -193 -193 95 94 92 103 104 104 105 108 105 106 106 107 107 107 110 111 -209 117 118 117 119 119 120 123 122 130 125 127 126 127 127 128 128 129 126 131 130 134 134 136 0 0 0 0 0
    0 0 0 0 0 0 0 0 0 0 0 0 0 0 0 0 0 0 0 0 0 0 0 0 0 0 0 0 0 0 0 0 0 0 0 0 0 0 0 0 0 0 0 0 0 0 0 0 0 0 0 0 0 0 0 0 0 0 0 0 0 0 0 0 0 0 0 0 0 82 81 82 82 -193 -209 -209 -209 -209 -209 -209 -193 76 74 75 73 73 74 76 75 76 77 76 76 77 78 77 76 76 75 74 76 76 75 75 74 80 76 76 78 75 75 75 75 76 74 75 75 72 75 75 75 74 74 72 73 71 71 71 72 72 72 71 72 74 77 79 77 76 76 76 77 77 76 75 74 76 77 77 78 78 77 78 78 77 77 77 77 76 76 77 75 75 76 76 76 76 77 76 75 76 78 78 78 78 79 81 86 87 86 85 87 86 86 84 83 82 80 80 82 79 81 79 79 79 79 81 80 79 79 78 80 80 78 79 85 80 80 84 80 80 83 80 81 79 81 81 78 82 81 77 82 81 80 81 83 82 76 83 78 79 84 84 86 -193 87 -193 -193 -193 84 83 80 76 78 80 84 87 -193 -193 -193 -193 89 89 89 90 89 90 89 89 89 89 89 88 88 88 85 85 85 85 86 86 86 86 -209 91 95 94 93 91 103 105 104 105 108 105 106 106 107 107 107 110 111 -209 118 119 -193 -193 119 120 -193 122 130 125 126 126 127 127 128 128 129 126 131 129 133 134 136 0 0 0 0 0
    0 0 0 0 0 0 0 0 0 0 0 0 0 0 0 0 0 0 0 0 0 0 0 0 0 0 0 0 0 0 0 0 0 0 0 0 0 0 0 0 0 0 0 0 0 0 0 0 0 0 0 0 0 0 0 0 0 0 0 0 0 0 0 0 0 0 0 0 0 82 81 84 85 82 -209 -209 -209 -209 -209 -193 70 73 71 73 71 72 73 74 74 75 76 76 76 77 78 77 76 76 75 74 75 75 75 74 73 80 76 76 78 75 75 75 75 76 74 75 75 71 75 74 74 74 74 71 73 70 69 69 70 71 71 70 72 74 77 79 77 76 76 76 77 77 76 74 74 76 76 77 78 77 77 77 77 76 77 77 76 75 75 76 74 75 75 75 76 -193 77 76 -193 76 78 78 77 78 80 83 88 88 87 86 88 87 86 84 83 81 79 79 82 79 80 79 79 80 79 81 81 80 80 80 82 82 79 81 85 81 80 84 80 80 83 81 81 79 81 81 78 82 81 77 82 80 79 81 83 82 77 87 -209 83 86 85 87 88 87 -193 -193 -193 -193 -193 81 75 77 81 84 86 -193 -193 86 87 87 87 88 88 87 88 88 87 88 89 89 87 88 88 85 84 85 84 85 85 86 85 -209 90 94 91 91 90 103 106 105 105 109 105 105 106 107 107 107 110 111 -209 117 119 118 119 119 120 -193 121 130 125 126 126 127 127 128 128 128 126 131 130 133 134 136 0 0 0 0 0
    0 0 0 0 0 0 0 0 0 0 0 0 0 0 0 0 0 0 0 0 0 0 0 0 0 0 0 0 0 0 0 0 0 0 0 0 0 0 0 0 0 0 0 0 0 0 0 0 0 0 0 0 0 0 0 0 0 0 0 0 0 0 0 0 0 0 0 0 0 -193 84 87 -193 -209 -209 -209 -209 -209 -209 -209 69 71 70 72 71 71 73 74 73 75 76 75 75 77 78 76 75 76 75 74 75 75 75 74 73 81 76 76 78 75 75 75 75 76 74 75 76 73 75 75 75 74 73 71 72 68 67 66 67 68 68 68 72 74 77 79 77 77 77 77 78 77 76 75 75 77 78 78 78 77 77 77 76 75 76 76 75 75 75 75 -193 74 -193 -193 -193 -193 77 -193 -193 77 78 78 77 78 81 84 -193 88 88 -193 89 89 87 84 84 82 80 81 83 80 82 80 81 80 80 82 81 80 81 82 84 82 80 82 86 81 81 84 80 80 83 81 81 79 81 81 78 82 81 77 81 79 78 80 82 80 76 84 82 82 85 84 86 87 86 -193 -193 -193 84 83 82 76 78 80 82 85 -193 -193 -193 86 85 85 87 86 86 86 86 85 87 87 87 85 87 87 83 84 85 85 85 86 86 85 -209 91 94 90 90 90 103 109 105 106 109 105 105 106 107 107 107 110 111 -209 117 119 118 119 119 120 -193 121 130 125 126 126 127 127 128 127 128 125 130 129 132 134 136 0 0 0 0 0
    0 0 0 0 0 0 0 0 0 0 0 0 0 0 0 0 0 0 0 0 0 0 0 0 0 0 0 0 0 0 0 0 0 0 0 0 0 0 0 0 0 0 0 0 0 0 0 0 0 0 0 0 0 0 0 0 0 0 0 0 0 0 0 0 0 0 0 0 0 -193 83 86 86 -209 -209 -209 -177 -193 -209 -193 67 69 69 72 70 70 72 73 72 74 75 75 74 76 77 76 75 76 75 74 75 75 75 74 73 82 76 76 78 76 75 75 75 76 74 75 76 73 75 75 75 74 73 71 72 68 66 64 66 67 67 68 72 75 77 79 78 78 78 79 79 78 77 76 77 82 80 80 79 78 78 78 76 76 76 76 75 74 74 -193 -193 74 -193 563 -193 -193 -193 -193 -193 77 79 78 78 79 82 -193 89 89 88 -193 90 90 87 84 84 83 82 82 83 80 82 80 81 80 79 80 80 80 81 82 84 83 82 83 86 83 82 84 81 80 83 81 81 80 80 81 78 82 81 77 81 79 79 81 82 81 77 84 83 82 85 83 85 85 84 85 82 83 83 81 82 75 78 81 83 -193 -193 -193 -193 87 86 86 86 85 84 84 84 82 84 84 85 83 86 86 83 84 85 85 86 87 87 86 -193 92 95 91 90 91 103 -209 106 106 109 104 105 106 107 107 106 109 110 -209 116 119 117 118 118 -193 -193 120 128 125 126 126 127 127 128 127 128 125 130 130 132 133 135 0 0 0 0 0
    0 0 0 0 0 0 0 0 0 0 0 0 0 0 0 0 0 0 0 0 0 0 0 0 0 0 0 0 0 0 0 0 0 0 0 0 0 0 0 0 0 0 0 0 0 0 0 0 0 0 0 0 0 0 0 0 0 0 0 0 0 0 0 0 0 0 0 0 0 82 82 84 85 84 -193 -209 -193 -193 -209 -193 67 66 67 70 68 69 71 71 71 73 74 74 74 75 76 75 75 76 75 75 75 75 75 75 74 84 76 76 79 76 75 75 76 76 74 76 76 73 75 75 75 74 73 71 72 68 65 64 66 66 66 68 72 75 77 79 78 78 78 79 80 79 78 78 80 84 81 81 80 78 78 78 76 76 76 76 75 74 74 75 -193 74 -193 -193 -193 -193 -193 -193 -193 77 79 78 78 80 -193 -209 90 90 89 -193 91 90 87 84 83 82 80 80 81 80 82 80 80 79 79 80 79 80 82 83 85 83 83 84 86 83 82 85 81 81 83 81 82 80 80 81 79 82 81 78 81 80 80 83 83 82 78 84 83 82 84 82 84 83 81 83 80 81 83 82 82 -193 79 82 85 -209 -193 -209 -193 87 86 87 87 85 84 84 84 81 83 83 83 83 85 85 83 84 85 86 86 87 87 86 -193 92 94 91 90 91 -193 -209 106 106 109 104 104 105 106 106 106 109 109 -209 116 -193 117 117 117 -193 -193 120 126 124 125 126 127 127 128 128 128 125 130 130 132 132 134 0 0 0 0 0
    0 0 0 0 0 0 0 0 0 0 0 0 0 0 0 0 0 0 0 0 0 0 0 0 0 0 0 0 0 0 0 0 0 0 0 0 0 0 0 0 0 0 0 0 0 0 0 0 0 0 0 0 0 0 0 0 0 0 0 0 0 0 0 0 0 0 0 0 0 81 80 83 84 83 -193 -209 -193 -177 -209 -193 67 65 66 70 68 69 71 71 71 72 73 73 73 75 76 75 75 76 75 75 75 75 75 74 75 85 76 76 80 77 75 75 76 76 75 76 76 73 74 75 75 74 72 69 71 67 64 63 65 64 64 66 72 75 77 79 78 79 79 80 81 80 79 79 81 84 81 80 79 77 78 77 76 76 76 76 75 75 75 75 73 74 -193 -193 -193 -193 -193 -193 -193 -193 -193 -193 79 83 -193 -209 90 90 89 -193 90 90 84 83 84 81 79 79 80 80 82 79 79 78 79 80 80 82 83 84 85 85 85 85 87 84 83 85 81 81 83 81 82 80 80 81 79 82 81 78 80 80 81 84 84 82 80 86 85 84 85 83 84 83 81 84 81 82 83 83 83 -193 -193 -193 86 -209 -209 -209 -193 87 86 85 86 84 83 83 82 80 82 82 83 83 85 84 83 84 85 85 86 86 86 84 -209 91 91 90 90 -193 -209 -209 106 106 108 103 104 105 105 106 105 108 109 -209 116 119 117 117 117 118 119 120 126 124 125 126 127 128 128 128 128 126 130 130 132 132 133 0 0 0 0 0
    0 0 0 0 0 0 0 0 0 0 0 0 0 0 0 0 0 0 0 0 0 0 0 0 0 0 0 0 0 0 0 0 0 0 0 0 0 0 0 0 0 0 0 0 0 0 0 0 0 0 0 0 0 0 0 0 0 0 0 0 0 0 0 0 0 0 0 0 0 78 78 82 -193 -193 -209 -209 -177 -193 -209 -209 67 66 66 70 68 69 71 71 70 72 73 73 72 74 75 74 74 75 75 75 75 75 75 74 75 84 76 76 80 76 75 75 75 76 75 76 76 73 75 76 76 75 72 68 70 64 61 61 62 61 61 64 71 74 77 78 78 79 80 80 81 80 79 79 83 84 80 79 78 76 77 76 75 75 76 76 75 74 75 74 73 73 -193 -193 -193 -193 -193 -193 -177 -193 -193 -193 -193 -193 -209 -209 93 92 90 -193 91 91 84 84 85 81 79 78 79 78 80 79 77 76 77 78 79 82 84 85 85 85 85 85 86 84 83 85 81 81 83 82 82 80 80 81 79 82 81 78 80 80 82 84 83 82 81 86 85 84 85 82 85 84 81 84 81 81 83 82 83 -209 -193 -193 -193 -209 -209 -209 86 85 84 84 85 83 83 82 81 80 81 81 82 82 85 83 82 84 85 85 85 86 86 83 -193 91 -193 89 -209 -209 -209 -209 106 106 108 103 104 104 105 105 104 107 107 -209 115 118 -193 117 117 -193 -193 120 126 125 125 126 128 128 129 129 128 126 130 131 131 132 132 0 0 0 0 0
    0 0 0 0 0 0 0 0 0 0 0 0 0 0 0 0 0 0 0 0 0 0 0 0 0 0 0 0 0 0 0 0 0 0 0 0 0 0 0 0 0 0 0 0 0 0 0 0 0 0 0 0 0 0 0 0 0 0 0 0 0 0 0 0 0 0 0 0 0 77 76 79 -193 -193 -209 -209 -209 -209 -209 70 68 66 66 70 68 69 71 71 70 71 72 72 72 74 74 73 74 75 74 75 74 75 75 74 76 85 75 75 80 76 75 74 75 76 75 76 76 74 76 77 77 76 72 67 68 62 60 60 60 60 60 62 69 73 76 77 77 78 78 80 80 80 79 79 84 85 81 80 77 76 77 76 75 75 75 75 74 74 74 73 73 72 -193 -193 -193 -193 -193 -193 -193 -193 -193 -193 -193 -193 -193 -193 -193 -193 -209 -193 91 91 86 86 86 82 81 79 79 78 79 78 74 73 76 76 78 83 85 86 85 85 85 85 86 84 83 85 81 81 83 82 82 80 80 82 79 82 81 79 80 80 82 84 82 82 82 85 84 83 84 81 84 83 79 82 80 80 82 81 83 -209 -209 -193 -193 -193 -193 -193 83 82 83 83 85 82 82 81 80 79 80 80 79 81 84 83 82 84 84 85 85 85 85 82 -209 -193 -193 85 -209 -193 131 -209 107 107 109 103 103 104 104 105 103 105 106 -209 113 117 -193 116 117 -193 -193 120 126 125 124 126 128 129 129 129 128 127 130 131 131 131 131 0 0 0 0 0
    0 0 0 0 0 0 0 0 0 0 0 0 0 0 0 0 0 0 0 0 0 0 0 0 0 0 0 0 0 0 0 0 0 0 0 0 0 0 0 0 0 0 0 0 0 0 0 0 0 0 0 0 0 0 0 0 0 0 0 0 0 0 0 0 0 0 0 0 0 75 75 77 77 77 76 75 73 71 66 69 68 65 66 70 68 69 71 71 70 71 72 72 -193 -193 74 73 73 75 74 74 74 75 75 74 76 86 74 74 80 76 74 74 74 76 75 76 76 73 76 77 77 76 69 63 64 60 59 59 59 60 59 61 68 72 74 75 76 76 77 79 80 79 81 81 86 -193 -193 80 77 75 77 75 75 75 75 75 74 74 73 72 72 72 71 -193 -193 -193 -193 -193 -193 -193 -193 -193 -193 -193 -193 569 -209 -209 -209 -193 90 89 84 86 87 81 79 78 76 76 75 73 68 71 75 75 75 82 86 86 84 85 85 84 86 84 82 84 81 82 83 82 82 80 81 82 79 82 82 80 79 80 82 84 82 83 83 86 85 85 85 83 84 83 80 82 80 80 82 81 83 -209 -209 -193 -193 -193 -193 81 81 80 83 83 86 83 82 81 80 79 80 79 78 81 83 81 82 83 83 84 84 85 83 81 -193 -193 -193 83 -193 -193 131 -193 108 108 109 103 103 104 104 104 102 104 105 -209 111 116 114 115 116 116 117 119 124 124 124 126 128 129 129 129 128 127 129 131 130 130 131 0 0 0 0 0
    0 0 0 0 0 0 0 0 0 0 0 0 0 0 0 0 0 0 0 0 0 0 0 0 0 0 0 0 0 0 0 0 0 0 0 0 0 0 0 0 0 0 0 0 0 0 0 0 0 0 0 0 0 0 0 0 0 0 0 0 0 0 0 0 0 0 0 0 0 75 75 77 77 78 77 76 74 73 67 70 69 65 66 70 68 69 70 70 70 70 72 72 71 74 74 73 74 75 75 75 74 76 75 74 76 86 73 73 79 75 73 73 73 76 75 77 76 74 76 77 77 77 64 60 60 58 58 59 59 60 59 61 66 69 71 74 75 76 77 80 81 80 85 82 89 -193 -193 80 -193 -193 76 76 75 75 75 75 -193 74 74 72 71 70 70 -193 -193 -193 -193 -193 -193 -193 -193 -193 -193 -193 -209 -209 -209 -209 -209 -209 86 79 81 87 86 79 77 76 72 72 72 68 63 67 71 71 71 79 86 86 84 84 85 83 86 84 82 84 82 82 83 83 82 80 81 82 80 81 82 80 78 80 82 83 81 83 83 86 84 84 84 82 82 81 78 80 79 79 82 80 82 -193 -193 76 -193 -193 -193 79 79 79 82 82 85 83 82 80 79 78 79 78 77 80 81 80 81 82 83 83 83 83 81 80 -193 -193 -193 82 -193 -193 132 129 108 107 109 103 103 103 103 103 102 104 104 -209 110 114 113 114 116 116 117 119 124 125 124 127 128 129 129 129 128 127 129 131 131 131 131 0 0 0 0 0
    0 0 0 0 0 0 0 0 0 0 0 0 0 0 0 0 0 0 0 0 0 0 0 0 0 0 0 0 0 0 0 0 0 0 0 0 0 0 0 0 0 0 0 0 0 0 0 0 0 0 0 0 0 0 0 0 0 0 0 0 0 0 0 0 0 0 0 0 0 74 75 77 76 77 77 76 75 -193 -193 -193 70 66 67 70 69 70 71 71 71 71 73 73 72 74 74 73 74 75 75 75 74 76 75 75 74 -193 72 73 78 74 73 72 73 77 75 77 77 74 77 78 78 78 66 61 62 61 60 61 61 61 60 61 -193 67 70 72 73 75 77 81 80 79 87 -193 84 -209 -193 77 -193 -193 -193 76 76 76 -193 -193 -209 -193 74 73 71 -193 70 -193 -193 -193 -193 -193 -193 -209 -193 -209 -193 82 -209 -209 -209 -209 -193 -193 -193 -193 -209 -209 86 76 76 75 72 71 71 68 63 67 69 -209 -193 75 84 84 82 83 84 82 85 83 82 84 82 81 82 83 82 80 81 82 80 81 82 81 78 80 82 83 81 84 83 85 84 84 85 81 81 80 77 80 79 78 81 79 80 -193 -193 76 77 -193 80 80 80 80 84 85 87 84 82 80 79 78 78 77 76 81 81 80 81 82 82 83 83 83 79 80 -193 85 84 83 80 -193 -193 -193 107 107 107 102 103 103 103 103 101 103 104 -209 109 114 112 114 115 116 117 -209 123 124 124 126 128 129 128 129 128 128 129 131 131 131 132 0 0 0 0 0
    0 0 0 0 0 0 0 0 0 0 0 0 0 0 0 0 0 0 0 0 0 0 0 0 0 0 0 0 0 0 0 0 0 0 0 0 0 0 0 0 0 0 0 0 0 0 0 0 0 0 0 0 0 0 0 0 0 0 0 0 0 0 0 0 0 0 0 0 0 73 73 75 74 75 76 75 75 -193 -209 -209 -209 67 68 71 69 71 72 72 71 71 73 73 72 74 74 73 74 75 75 75 74 76 75 75 74 -193 72 72 77 73 72 72 72 76 75 77 76 74 77 78 78 78 65 61 63 62 62 63 63 64 63 62 -193 -193 -209 -209 63 66 65 -209 -209 64 65 69 70 75 75 75 74 -193 -209 79 -209 -209 -209 -209 -209 -209 -209 -193 -209 -193 -209 -209 -209 -209 -209 -209 -209 112 -209 -209 -209 -193 -209 -209 -209 -209 -209 -209 -209 -209 -209 -209 85 75 74 74 71 70 69 67 62 66 67 -209 -209 -193 81 83 80 82 83 82 85 82 81 83 82 81 81 83 82 79 82 82 81 80 82 82 78 80 83 83 80 85 -209 -209 -193 -209 -209 81 80 79 77 79 78 78 80 78 78 -193 -209 75 -193 -209 78 78 79 81 85 86 89 86 83 82 81 81 80 80 79 82 81 81 82 82 82 82 82 81 77 79 83 83 83 82 80 86 -193 -193 106 106 106 102 102 103 103 103 101 104 104 -209 109 114 112 113 115 115 116 -193 122 124 124 127 128 129 129 129 129 128 129 131 131 132 132 0 0 0 0 0
    0 0 0 0 0 0 0 0 0 0 0 0 0 0 0 0 0 0 0 0 0 0 0 0 0 0 0 0 0 0 0 0 0 0 0 0 0 0 0 0 0 0 0 0 0 0 0 0 0 0 0 0 0 0 0 0 0 0 0 0 0 0 0 0 0 0 0 0 0 72 73 73 72 73 74 73 73 71 -193 -209 -209 68 69 71 71 72 73 73 72 71 73 74 72 74 74 73 74 75 75 75 75 76 76 77 75 72 72 72 77 72 72 72 72 76 75 76 76 74 77 78 78 78 65 61 63 63 63 64 64 65 63 62 65 -193 -209 -209 -209 -209 48 -209 -209 -193 -209 -209 60 71 -193 74 -209 -209 -209 79 -209 -193 -209 -193 -193 78 -193 -193 -209 -209 -209 -209 -209 -209 -209 -193 -193 -209 -209 -193 -209 114 -193 -209 -209 -209 -209 -209 -209 -209 -209 89 85 79 75 75 71 70 68 64 60 63 63 -193 64 71 75 76 75 77 81 80 85 81 81 83 83 81 81 83 82 79 82 82 80 79 82 82 77 80 83 82 79 87 -209 -209 -209 -209 -209 -209 81 80 77 79 78 78 79 79 -193 -193 -209 75 -193 -209 76 76 76 79 83 85 90 -209 83 83 82 83 82 81 81 83 80 81 82 82 82 82 82 79 76 78 82 83 82 82 80 86 -193 -209 105 105 106 102 102 103 103 103 102 104 105 -209 110 114 112 114 114 115 116 -193 -209 124 124 127 128 129 129 130 129 128 129 131 130 132 133 0 0 0 0 0
    0 0 0 0 0 0 0 0 0 0 0 0 0 0 0 0 0 0 0 0 0 0 0 0 0 0 0 0 0 0 0 0 0 0 0 0 0 0 0 0 0 0 0 0 0 0 0 0 0 0 0 0 0 0 0 0 0 0 0 0 0 0 0 0 0 0 0 0 0 74 74 75 73 74 74 73 74 72 72 -209 -209 70 71 72 72 73 73 73 72 72 73 74 72 74 73 73 73 75 75 75 75 77 76 77 75 72 72 72 76 72 71 71 71 76 75 76 76 74 77 79 79 78 64 61 62 62 63 64 65 65 63 62 65 -193 -209 -209 -193 -209 50 -209 -209 -209 -209 -209 -193 -209 -209 -193 -209 -209 -209 77 -209 -193 -209 -209 -209 78 -209 -193 -209 -193 -193 -209 -209 -209 -209 -193 -209 -209 -209 -209 -209 -193 -209 -209 -209 -209 -209 -209 -209 -209 -193 87 85 82 77 76 72 69 67 62 58 60 62 -193 64 70 73 75 74 76 81 80 85 81 81 83 83 81 81 83 81 79 82 82 80 79 81 81 77 80 82 79 77 -193 -209 -209 -209 -209 -209 -209 80 81 78 80 79 79 80 80 -193 -193 -209 -193 77 -193 -193 78 77 81 85 87 93 -209 86 86 85 86 84 84 83 82 79 81 82 82 82 82 82 79 76 80 83 83 83 83 82 86 -193 -209 104 105 105 102 103 103 103 103 102 104 105 -193 110 114 113 114 114 115 116 -193 -209 -193 124 127 128 128 129 129 129 128 128 131 130 131 133 0 0 0 0 0
    0 0 0 0 0 0 0 0 0 0 0 0 0 0 0 0 0 0 0 0 0 0 0 0 0 0 0 0 0 0 0 0 0 0 0 0 0 0 0 0 0 0 0 0 0 0 0 0 0 0 0 0 0 0 0 0 0 0 0 0 0 0 0 0 0 0 0 0 0 75 76 76 76 75 75 74 75 73 -209 -209 -209 71 72 73 73 74 73 73 73 72 74 74 73 74 73 73 74 76 75 75 75 76 76 78 75 72 71 71 74 71 71 71 71 76 75 76 76 74 78 79 79 79 66 64 63 63 65 67 68 67 65 62 64 -209 -209 -209 54 -193 50 -209 -209 -209 -209 -209 -209 -209 -209 -209 -209 -209 -209 -193 -209 -209 -209 -209 -209 -193 -193 -209 -193 -193 -193 -209 -193 -209 -193 -193 -209 -209 -209 -209 -209 -209 -209 -209 -193 -209 -209 -209 -209 95 -193 87 85 82 78 76 72 67 63 60 57 59 62 -209 64 70 75 77 74 77 81 80 85 80 81 82 84 81 81 83 81 79 82 82 81 79 81 82 77 80 81 78 77 -193 -209 -209 -193 -193 -193 -209 -209 80 78 80 79 79 80 80 -193 -193 78 77 76 76 76 76 74 78 -209 -193 96 -209 87 87 86 87 86 85 83 82 78 81 81 81 82 82 81 78 77 82 84 84 84 83 82 86 -193 -193 104 104 104 103 103 104 104 104 102 105 105 -193 109 113 111 112 114 115 116 -193 -209 -193 124 127 128 127 128 129 128 127 127 130 129 131 133 0 0 0 0 0
    0 0 0 0 0 0 0 0 0 0 0 0 0 0 0 0 0 0 0 0 0 0 0 0 0 0 0 0 0 0 0 0 0 0 0 0 0 0 0 0 0 0 0 0 0 0 0 0 0 0 0 0 0 0 0 0 0 0 0 0 0 0 0 0 0 0 0 0 0 76 77 77 76 75 75 74 73 72 -193 -209 -209 71 72 73 73 74 74 73 73 73 74 74 73 74 73 74 74 76 76 75 76 76 76 78 75 72 71 71 73 71 71 70 71 75 75 76 76 74 78 79 79 79 68 68 67 67 68 68 -193 -193 -193 -193 65 62 60 -193 54 -193 52 -193 -193 -193 -209 -209 -209 -209 -209 -209 -209 -209 -209 -209 -209 -209 -209 -209 -209 -193 -193 -209 -193 -193 -209 -209 -193 -209 380 -209 -209 -209 -209 -193 -209 -209 -209 -209 -193 -209 -209 -209 -209 89 87 86 85 83 78 76 69 64 60 60 58 59 63 -209 -209 72 78 78 -193 80 83 83 86 82 82 83 85 82 82 83 81 79 82 82 81 78 82 82 77 81 81 78 77 -209 -209 -209 -209 -209 -209 -209 -209 79 77 79 80 80 80 81 79 79 78 77 77 75 75 75 72 -193 67 -209 93 -209 86 87 87 87 88 86 84 82 78 80 81 81 81 81 80 77 76 80 84 84 84 83 81 86 -193 -193 103 104 104 103 104 104 104 104 103 106 106 107 109 113 112 113 115 116 117 -193 -209 -193 124 127 127 126 127 127 127 127 126 130 127 131 133 0 0 0 0 0
    0 0 0 0 0 0 0 0 0 0 0 0 0 0 0 0 0 0 0 0 0 0 0 0 0 0 0 0 0 0 0 0 0 0 0 0 0 0 0 0 0 0 0 0 0 0 0 0 0 0 0 0 0 0 0 0 0 0 0 0 0 0 0 0 0 0 0 0 0 76 77 78 77 75 74 73 71 70 -193 -209 -209 71 72 74 73 75 74 74 73 74 75 74 73 74 73 74 74 76 75 75 76 76 77 79 75 71 71 71 72 71 70 70 70 75 75 76 76 74 78 79 79 78 70 69 69 69 70 69 -209 -193 -193 -193 68 -193 -209 -209 -209 -209 -193 -209 -193 -193 -209 -193 -209 -209 -209 53 -209 -209 50 -209 -209 -209 -209 -209 -193 208 -193 -193 -193 -193 -209 -209 -209 -209 -209 -209 -209 -209 -209 -209 -209 -209 -209 -209 -209 -209 -209 -209 -209 -209 88 86 86 86 -209 -209 -209 59 57 59 58 -193 -209 -209 -209 -209 -193 -193 -209 -193 -209 84 87 82 83 83 85 82 82 83 81 79 82 82 81 78 82 82 77 82 80 78 -193 -209 -209 -209 -209 -209 -209 -209 -209 81 78 82 82 83 82 82 80 79 79 78 77 74 73 74 71 75 70 -209 -209 -209 86 87 87 87 88 87 85 82 78 80 80 80 80 80 79 75 75 78 84 84 85 84 82 86 -193 -193 103 103 104 103 104 105 105 105 103 106 107 108 109 114 113 114 115 116 117 -193 119 -193 123 126 126 125 126 127 127 127 126 129 126 132 -193 0 0 0 0 0
    0 0 0 0 0 0 0 0 0 0 0 0 0 0 0 0 0 0 0 0 0 0 0 0 0 0 0 0 0 0 0 0 0 0 0 0 0 0 0 0 0 0 0 0 0 0 0 0 0 0 0 0 0 0 0 0 0 0 0 0 0 0 0 0 0 0 0 0 0 77 79 79 78 75 74 74 71 70 71 -209 -209 71 73 75 74 75 74 74 74 74 75 74 73 73 72 73 74 75 74 75 76 76 77 79 75 71 70 70 72 70 70 70 70 74 75 76 76 74 78 79 78 78 69 68 68 68 69 68 -193 -193 -193 -193 69 -209 -209 -209 -209 -193 -209 -209 -209 -209 -209 -209 -209 -193 49 -177 -177 -177 -177 -177 -177 -209 -209 -193 207 208 207 206 207 211 212 214 -193 -209 -209 -209 -209 -209 -193 -193 60 63 -193 -209 -209 -209 -209 -209 -209 -209 -209 85 85 -209 -209 -209 -209 -209 -209 -193 -209 -209 -209 -209 -209 -209 -209 -209 -209 -193 -209 84 87 82 82 82 85 82 81 83 81 79 82 82 81 78 82 82 77 82 79 77 -209 -209 -209 -209 -209 -209 -209 -209 -209 -193 78 81 82 82 -193 81 -193 78 79 78 77 75 74 75 73 76 73 77 -209 -193 85 86 85 86 86 87 84 82 79 81 82 81 81 81 79 76 77 80 85 86 85 86 84 87 -193 -193 103 103 104 104 104 105 105 105 104 107 108 109 109 115 113 114 115 116 116 -193 119 -193 123 126 125 125 126 126 127 127 125 129 -193 -193 33 0 0 0 0 0
    0 0 0 0 0 0 0 0 0 0 0 0 0 0 0 0 0 0 0 0 0 0 0 0 0 0 0 0 0 0 0 0 0 0 0 0 0 0 0 0 0 0 0 0 0 0 0 0 0 0 0 0 0 0 0 0 0 0 0 0 0 0 0 0 0 0 0 0 0 77 79 78 76 74 72 73 66 68 70 -193 72 71 74 75 74 75 74 74 74 74 75 73 73 73 72 73 74 75 74 75 76 76 78 79 75 71 70 70 72 70 70 70 70 74 75 76 76 74 77 79 78 77 67 67 66 67 68 66 -209 -209 -193 -209 -193 -209 -209 -209 -209 -209 -209 -209 -193 -193 -209 -209 -193 -209 -209 -177 -177 -177 -177 -177 -177 -209 -193 209 207 207 207 207 207 211 212 214 -193 -209 -209 -209 -209 -209 -209 62 60 -193 66 -209 -209 -209 -209 -209 -209 -209 -209 86 86 -209 -209 -209 -209 -209 -209 312 311 312 -209 -209 -209 -209 -209 -209 -209 -209 -209 83 86 81 82 82 85 82 81 83 81 80 83 82 82 79 82 82 78 83 80 79 -193 -209 -209 -209 -209 -209 -209 -209 -209 80 81 82 83 82 81 82 80 80 81 80 80 76 75 78 75 79 74 82 -209 -193 84 85 84 84 84 86 84 81 80 82 82 82 82 82 79 76 81 -209 86 87 86 86 85 87 -193 -193 103 103 104 105 105 106 106 107 105 109 110 111 109 116 114 115 115 116 116 116 118 -193 123 126 125 125 126 126 127 127 125 129 -193 33 32 0 0 0 0 0
    0 0 0 0 0 0 0 0 0 0 0 0 0 0 0 0 0 0 0 0 0 0 0 0 0 0 0 0 0 0 0 0 0 0 0 0 0 0 0 0 0 0 0 0 0 0 0 0 0 0 0 0 0 0 0 0 0 0 0 0 0 0 0 0 0 0 0 0 0 77 78 76 74 73 72 72 65 68 70 72 71 72 74 74 74 75 74 74 73 74 75 73 73 73 73 74 75 75 75 75 76 76 78 79 75 71 70 70 72 70 70 70 70 74 74 75 76 74 77 78 77 77 66 67 66 67 69 67 -193 -209 -209 -209 -209 -209 -193 -209 -209 -209 -209 189 196 -193 -209 -209 -209 -209 -209 -193 -209 -193 -177 -177 -177 -209 -209 210 207 208 207 207 207 211 212 214 -193 -193 -209 -209 -209 -209 -193 61 60 -193 64 -209 -193 -193 -209 -209 -209 -209 -209 -193 -193 -209 -209 -209 -193 306 309 311 310 310 -209 -209 -209 -209 -209 -209 -209 -209 -209 82 86 81 81 82 85 82 82 84 82 81 83 83 82 79 83 82 78 83 79 79 -209 -209 -209 -209 -209 -209 -209 -209 -209 81 82 82 82 82 82 82 80 79 81 79 82 -209 75 78 -193 -193 75 74 -209 -193 83 83 82 83 83 86 85 81 81 83 83 83 83 83 79 76 86 87 88 -193 86 -209 85 -193 -209 -193 103 104 104 106 106 106 107 107 106 109 110 111 108 115 113 114 114 115 116 116 118 -193 123 126 125 125 126 126 127 127 125 129 -193 32 32 0 0 0 0 0
    0 0 0 0 0 0 0 0 0 0 0 0 0 0 0 0 0 0 0 0 0 0 0 0 0 0 0 0 0 0 0 0 0 0 0 0 0 0 0 0 0 0 0 0 0 0 0 0 0 0 0 0 0 0 0 0 0 0 0 0 0 0 0 0 0 0 0 0 0 79 78 76 74 73 71 71 65 66 70 72 71 72 74 74 74 75 74 74 74 75 75 73 74 74 73 74 75 75 75 75 76 75 77 79 75 71 71 71 72 70 70 70 70 73 74 75 75 73 77 77 76 76 66 68 66 68 70 -193 80 90 -193 -193 -209 -209 -209 -209 191 -209 -209 193 196 193 -209 32 -209 -209 -193 -193 -193 -193 -193 -209 -177 -209 -209 -209 206 209 208 208 207 211 212 215 -209 -209 -209 -209 -209 -209 -193 62 61 -193 66 70 68 -209 -209 -209 -209 -209 -209 -193 -193 -209 -193 -209 -209 -193 -193 -193 -193 -209 -209 -209 -209 -209 -209 -209 -209 -209 -209 82 87 81 82 83 85 83 82 84 82 81 83 83 83 80 83 83 78 83 78 80 -209 -209 -209 -209 -209 -209 -209 -209 -209 82 84 83 83 83 82 83 82 80 82 79 83 -209 80 82 78 83 78 -209 -193 -193 81 81 80 80 81 86 84 81 82 84 84 84 83 83 78 75 -193 -193 88 -193 -193 -209 -209 -193 -193 -193 103 104 104 107 105 106 106 106 105 108 109 110 107 113 113 114 114 115 116 117 119 125 123 126 125 125 126 126 127 127 125 130 32 32 32 0 0 0 0 0
    0 0 0 0 0 0 0 0 0 0 0 0 0 0 0 0 0 0 0 0 0 0 0 0 0 0 0 0 0 0 0 0 0 0 0 0 0 0 0 0 0 0 0 0 0 0 0 0 0 0 0 0 0 0 0 0 0 0 0 0 0 0 0 0 0 0 0 0 0 81 79 76 75 74 70 70 64 67 71 72 71 72 75 74 74 75 74 74 74 75 75 74 74 74 73 74 75 75 75 75 75 75 76 78 75 71 70 71 72 70 70 70 70 73 74 75 75 -193 76 77 76 76 67 68 68 69 71 -193 77 89 -177 -193 -193 -209 -209 -209 191 198 197 195 195 191 -209 -193 -209 -193 -193 -193 -193 -193 -209 -209 -177 -209 -209 -209 -209 -209 -193 -193 206 210 212 213 -209 -209 -209 -209 -209 -209 59 63 64 68 69 73 71 -209 -209 -209 -209 -209 -193 -193 -193 -193 -193 -209 -209 302 -193 -209 -209 -209 -209 -209 -209 -209 -193 -209 -209 -209 -209 84 87 81 82 83 86 83 83 84 83 82 84 84 83 80 83 83 79 83 78 81 -209 -209 -209 -209 -209 -209 -209 -209 -209 85 86 85 85 84 84 84 83 83 83 80 83 81 82 83 80 -193 -209 -209 85 -193 82 82 81 80 81 85 83 81 82 83 83 82 82 82 75 73 85 85 86 -193 -193 -209 -209 -209 -193 -209 103 103 104 107 105 106 106 106 105 108 109 109 106 112 112 114 115 116 117 118 119 126 123 126 125 125 125 126 126 127 125 130 -193 32 32 0 0 0 0 0
    0 0 0 0 0 0 0 0 0 0 0 0 0 0 0 0 0 0 0 0 0 0 0 0 0 0 0 0 0 0 0 0 0 0 0 0 0 0 0 0 0 0 0 0 0 0 0 0 0 0 0 0 0 0 0 0 0 0 0 0 0 0 0 0 0 0 0 0 0 79 76 -193 -209 64 59 62 60 65 69 71 71 72 75 75 75 75 74 74 75 76 76 74 74 74 74 74 75 74 74 74 74 74 75 77 75 70 70 71 72 71 71 70 70 72 74 75 75 -193 75 76 75 75 67 68 68 69 71 -193 75 83 -177 -177 -177 -193 -209 -209 192 198 199 197 194 -209 -209 -209 -209 -209 -209 -193 -193 -193 -209 -209 -177 43 44 -209 -209 -209 -209 -209 204 207 209 210 -209 -209 -209 -209 63 -209 61 67 68 73 71 76 -209 -209 -209 -209 -209 -209 -193 -209 -209 -209 -193 -193 -193 303 -209 -209 -209 -209 -209 -209 -209 -209 -193 -209 -209 -209 -209 83 86 81 81 83 86 83 83 85 83 82 84 84 83 81 83 83 79 83 79 -193 -209 -209 -209 -209 -209 -209 95 94 90 86 87 86 85 84 84 85 84 83 82 78 79 76 78 80 78 81 78 79 82 78 79 79 77 77 79 84 83 81 82 83 83 82 81 80 74 72 74 -209 -209 -209 -209 -209 -209 -209 -209 -209 103 103 103 107 105 105 106 106 105 108 109 109 -209 111 113 116 116 117 118 -193 -193 128 124 126 124 125 125 125 126 127 125 130 33 32 32 0 0 0 0 0
    0 0 0 0 0 0 0 0 0 0 0 0 0 0 0 0 0 0 0 0 0 0 0 0 0 0 0 0 0 0 0 0 0 0 0 0 0 0 0 0 0 0 0 0 0 0 0 0 0 0 0 0 0 0 0 0 0 0 0 0 0 0 0 0 0 0 0 0 0 79 -193 -209 -209 60 56 57 58 66 69 71 71 73 76 75 75 75 75 75 75 76 76 74 74 74 74 74 74 74 73 74 73 74 74 77 75 70 70 71 72 71 71 71 71 72 74 75 75 -193 75 76 75 75 68 69 69 70 72 -193 75 80 -177 86 83 -193 -193 -209 -193 198 -193 196 -193 -193 -193 -193 -209 -193 -209 -209 -209 -209 -209 -209 -193 -209 -193 -209 -209 -209 -209 -209 -209 -193 209 -193 -209 -209 -209 -209 64 61 62 67 68 72 70 76 -209 -209 -209 -209 -209 187 189 -209 -209 -209 -193 -193 -209 303 -209 -209 -209 -209 -209 -209 -209 -209 -193 -209 -209 -209 -193 79 86 80 80 82 85 83 83 85 83 82 84 84 84 81 83 83 78 82 78 -209 -209 -209 -209 -209 -209 -209 -209 -209 88 86 86 85 84 84 84 85 84 84 83 79 81 83 83 83 81 83 80 83 82 78 78 78 77 76 78 84 83 82 84 84 83 83 82 80 74 71 -193 -209 -209 -209 -209 -209 -209 -209 -209 -209 102 102 103 107 105 105 105 105 105 108 109 110 -209 112 114 117 117 116 118 -209 -193 129 124 126 124 125 125 126 126 128 125 131 34 33 33 0 0 0 0 0
    0 0 0 0 0 0 0 0 0 0 0 0 0 0 0 0 0 0 0 0 0 0 0 0 0 0 0 0 0 0 0 0 0 0 0 0 0 0 0 0 0 0 0 0 0 0 0 0 0 0 0 0 0 0 0 0 0 0 0 0 0 0 0 0 0 0 0 0 0 81 75 71 -209 60 57 58 62 -193 70 71 73 74 76 75 76 75 75 75 76 76 75 74 74 74 74 74 74 74 73 73 72 73 73 77 74 70 70 71 72 71 71 71 71 72 74 75 75 -193 75 75 74 -193 67 68 68 69 72 73 76 79 80 85 -177 85 83 -209 -193 -193 196 195 -193 -193 -193 -209 -209 -193 -193 -193 -209 -209 156 -193 -209 -209 -209 -209 -209 -209 -209 -209 -209 -209 -193 -209 -209 -209 -209 -209 68 -193 66 70 70 71 69 73 -209 -209 -209 -209 -209 -209 -209 -193 -209 -209 -209 -209 -209 -193 -209 -209 -209 -209 -193 -209 -193 -193 911 -209 -209 -193 -193 76 85 79 79 82 85 83 83 85 83 82 85 85 84 81 83 83 78 81 78 -209 -209 -209 -209 -209 -209 -209 -209 -209 87 86 86 85 84 84 85 85 85 84 83 79 83 88 89 86 85 86 84 86 83 79 77 76 76 75 77 83 82 83 85 85 85 84 84 80 73 70 71 72 -209 -209 -209 -209 -209 -209 -209 -209 102 102 103 107 104 105 105 105 105 108 109 109 -209 112 114 117 115 115 117 -209 -193 129 124 127 125 125 126 126 127 128 126 131 35 34 34 0 0 0 0 0
    0 0 0 0 0 0 0 0 0 0 0 0 0 0 0 0 0 0 0 0 0 0 0 0 0 0 0 0 0 0 0 0 0 0 0 0 0 0 0 0 0 0 0 0 0 0 0 0 0 0 0 0 0 0 0 0 0 0 0 0 0 0 0 0 0 0 0 0 0 79 75 70 -193 62 -193 60 -193 -209 -193 72 75 76 77 76 76 75 75 75 76 76 75 74 74 74 74 74 74 74 73 72 71 72 72 76 74 70 70 71 72 72 72 72 71 73 74 75 75 -193 74 -193 74 -193 66 67 66 68 71 73 76 -193 80 86 83 84 81 -209 -193 -209 -209 -193 -193 -193 -209 -209 -209 91 -193 -193 -209 -209 -209 157 -209 -209 -209 -209 -209 -209 -209 -209 -209 -209 -209 -209 -209 -209 -193 -209 -209 -209 69 71 71 70 69 71 -209 -209 -193 -209 -209 -209 -209 -177 203 -193 203 -209 -209 -209 -209 -209 -193 -193 -193 -193 -193 -193 911 -193 910 -193 -193 74 84 78 78 81 85 83 83 85 84 83 85 85 84 81 83 83 78 81 79 -209 809 812 -209 -209 -209 -209 -209 85 85 85 86 85 84 84 84 85 86 85 84 79 84 89 89 87 87 88 87 87 85 81 77 75 76 75 79 84 83 85 87 86 87 86 86 82 70 70 72 75 78 -209 -209 -209 -209 -209 -193 -209 102 102 103 107 104 104 104 105 104 107 109 109 -209 112 115 117 -193 116 118 -209 -193 131 125 127 125 126 126 127 127 129 126 131 35 35 35 0 0 0 0 0
    0 0 0 0 0 0 0 0 0 0 0 0 0 0 0 0 0 0 0 0 0 0 0 0 0 0 0 0 0 0 0 0 0 0 0 0 0 0 0 0 0 0 0 0 0 0 0 0 0 0 0 0 0 0 0 0 0 0 0 0 0 0 0 0 0 0 0 0 0 81 -193 69 61 60 58 59 67 -209 71 72 76 77 77 77 77 76 75 75 76 76 75 75 75 74 75 75 74 73 73 72 71 72 71 75 74 70 70 71 72 72 72 72 71 73 75 76 75 74 74 -193 -193 -193 66 67 67 69 -193 74 76 80 81 87 83 84 80 -193 -209 -209 -209 -209 -193 -209 -193 -209 -209 91 91 90 -209 -209 -209 -193 -209 -209 -209 -209 -209 -209 -209 -209 -209 -209 -209 -209 -209 -209 -209 -209 -209 -209 69 71 71 68 68 68 66 -209 -193 -209 -209 -209 -177 -209 -177 200 -209 -209 -209 -193 -209 -209 660 -209 -193 -209 -209 -209 911 911 909 909 908 74 85 78 78 81 85 83 83 84 84 82 85 85 84 80 82 83 78 79 77 -209 -209 -209 -209 -209 -209 -209 -209 85 86 86 86 86 84 84 85 86 86 86 85 80 84 88 89 87 87 89 88 88 86 83 80 75 77 75 82 85 84 86 88 87 88 87 87 84 62 67 71 -193 73 79 81 82 -209 -209 -209 -209 102 102 103 107 104 104 104 104 104 107 108 108 -209 111 114 -193 -193 115 -193 -209 -193 133 127 129 126 127 127 128 127 129 126 131 36 35 35 0 0 0 0 0
    0 0 0 0 0 0 0 0 0 0 0 0 0 0 0 0 0 0 0 0 0 0 0 0 0 0 0 0 0 0 0 0 0 0 0 0 0 0 0 0 0 0 0 0 0 0 0 0 0 0 0 0 0 0 0 0 0 0 0 0 0 0 0 0 0 0 0 0 0 -193 -209 -193 -209 61 59 61 -193 -209 72 73 77 77 77 77 77 76 75 76 77 76 75 75 74 74 74 74 74 73 71 71 70 71 71 74 73 69 69 70 72 72 72 72 71 72 75 76 75 74 74 74 74 -193 68 -193 69 -193 -209 75 77 80 82 86 80 79 77 74 -209 -209 -209 -209 -209 -209 -193 -209 -209 89 89 88 -177 -193 -209 -193 -209 -209 -209 -209 -209 243 243 245 -209 -209 -209 -209 -209 -193 -209 -193 -209 -209 69 70 71 63 -209 -209 -209 -209 -209 -209 -209 -209 -209 -209 202 -193 -193 -209 -209 -209 -209 -193 662 -209 -209 -209 -209 -193 -193 -209 -209 -193 -209 75 85 79 79 81 85 83 83 84 84 82 85 85 84 79 82 83 77 78 77 -209 -209 -209 -209 -209 942 -209 -209 86 86 86 86 86 85 85 86 86 87 87 85 79 84 88 89 87 87 -193 87 88 86 84 81 74 78 76 83 85 85 87 88 87 88 87 87 83 60 65 70 69 69 -193 77 79 -209 -209 -209 -209 101 102 103 107 104 104 104 104 104 107 107 108 -209 110 -193 -193 -193 117 -209 -209 127 134 128 130 127 127 128 128 127 129 126 131 36 -193 36 0 0 0 0 0</data></disparity>
</opencv_storage>
