<?xml version="1.0"?>
<opencv_storage>
<gps_time_stamp>305303</gps_time_stamp>
<gps_x>-1.2422438621520996e+001</gps_x>
<gps_y>1.0970714569091797e+001</gps_y>
<gps_z>-2.0351314544677734e+000</gps_z>
<image_time_stamp>296158</image_time_stamp>
<disparity type_id="opencv-matrix">
  <rows>89</rows>
  <cols>320</cols>
  <dt>s</dt>
  <data>
    0 0 0 0 0 0 0 0 0 0 0 0 0 0 0 0 0 0 0 0 0 0 0 0 0 0 0 0 0 0 0 0 0 0 0 0 0 0 0 0 0 0 0 0 0 0 0 0 0 0 0 0 0 0 0 0 0 0 0 0 0 0 0 0 0 0 0 0 0 54 54 53 53 52 53 53 52 53 53 50 52 49 47 44 47 48 46 46 46 46 47 46 46 45 44 44 43 42 40 39 39 37 38 35 35 36 35 35 35 33 34 29 38 35 29 28 28 29 29 28 31 29 30 28 29 27 26 26 27 25 -193 23 20 17 20 22 21 21 19 21 17 26 28 27 23 23 23 25 23 20 19 13 14 9 0 10 9 0 9 0 0 10 10 10 9 10 11 11 11 11 9 9 11 9 9 9 9 10 11 12 12 11 14 15 17 18 20 21 22 24 24 25 26 28 28 28 31 31 32 36 37 38 -193 42 42 42 44 45 44 44 47 46 47 47 47 48 49 47 52 48 53 60 65 60 60 58 60 -209 -177 -177 -193 -209 73 74 -193 -193 73 -193 76 76 82 82 85 82 84 82 82 81 82 80 85 83 87 86 89 89 89 89 88 84 86 86 -193 -209 -193 -193 109 108 108 109 110 110 110 114 117 119 121 124 123 123 126 126 132 131 132 132 132 132 133 131 133 136 138 139 142 142 143 145 145 146 143 146 146 143 149 151 152 153 154 154 154 157 163 168 168 0 0 0 0 0
    0 0 0 0 0 0 0 0 0 0 0 0 0 0 0 0 0 0 0 0 0 0 0 0 0 0 0 0 0 0 0 0 0 0 0 0 0 0 0 0 0 0 0 0 0 0 0 0 0 0 0 0 0 0 0 0 0 0 0 0 0 0 0 0 0 0 0 0 0 54 55 53 53 53 53 53 52 52 52 49 52 49 47 44 46 48 46 46 45 45 47 46 46 45 44 44 43 42 40 39 39 37 38 35 35 36 36 35 35 33 35 29 37 36 28 29 28 29 29 28 31 29 30 28 29 27 26 26 26 25 -193 23 20 17 20 22 22 21 20 21 19 26 29 27 24 24 23 24 22 19 17 10 9 0 0 0 0 0 0 0 0 9 10 10 10 10 11 11 11 11 9 9 10 9 9 9 9 10 11 12 12 12 13 15 17 18 21 22 23 25 25 26 27 29 28 29 31 31 32 36 37 38 -193 41 41 41 44 45 43 44 47 47 47 47 47 49 49 48 52 50 53 59 64 60 59 58 60 -193 -193 -177 70 -193 74 75 76 77 74 77 77 77 81 82 84 82 84 82 82 82 82 80 85 84 87 87 88 89 89 89 88 84 86 86 84 94 -193 -193 -193 107 108 108 110 110 110 114 117 118 120 124 123 123 126 126 131 131 132 132 132 132 133 131 133 135 137 139 142 142 143 145 145 145 144 146 147 145 148 151 152 153 154 153 153 156 160 166 167 0 0 0 0 0
    0 0 0 0 0 0 0 0 0 0 0 0 0 0 0 0 0 0 0 0 0 0 0 0 0 0 0 0 0 0 0 0 0 0 0 0 0 0 0 0 0 0 0 0 0 0 0 0 0 0 0 0 0 0 0 0 0 0 0 0 0 0 0 0 0 0 0 0 0 54 55 54 53 53 54 53 52 52 52 49 52 49 47 45 45 47 47 46 45 45 46 46 46 45 44 43 43 42 40 40 39 37 38 35 35 36 36 35 34 33 35 29 37 35 27 28 28 29 29 28 31 29 31 28 28 27 26 25 26 24 24 23 20 17 20 22 22 21 20 21 20 26 28 26 23 23 23 23 21 18 14 10 0 0 0 0 0 0 0 0 0 9 9 9 10 10 11 11 11 11 10 9 11 10 10 10 9 10 11 12 12 11 13 14 17 17 20 21 22 25 25 26 26 29 28 29 31 31 32 36 36 38 39 41 41 41 43 45 43 44 46 47 47 47 47 49 49 48 53 52 53 59 62 59 59 58 -193 -177 -193 -177 70 -193 75 76 77 78 75 78 79 79 81 81 84 82 84 83 82 82 82 81 86 -193 -193 88 88 88 88 88 88 84 86 -193 84 93 105 -193 -193 108 108 108 110 110 110 114 117 118 120 124 123 123 125 126 131 131 133 132 132 132 133 131 132 134 137 138 141 143 143 145 145 145 145 145 147 145 146 151 152 153 153 152 153 156 159 167 168 0 0 0 0 0
    0 0 0 0 0 0 0 0 0 0 0 0 0 0 0 0 0 0 0 0 0 0 0 0 0 0 0 0 0 0 0 0 0 0 0 0 0 0 0 0 0 0 0 0 0 0 0 0 0 0 0 0 0 0 0 0 0 0 0 0 0 0 0 0 0 0 0 0 0 55 56 54 54 54 55 54 53 52 52 49 52 49 46 45 45 46 47 46 45 45 46 46 46 45 44 43 43 42 41 40 39 37 38 36 35 36 35 35 34 33 35 29 35 34 27 28 28 28 28 27 30 28 30 28 28 26 25 25 26 24 24 23 21 18 21 22 22 21 20 21 21 25 27 25 24 24 24 23 22 19 14 9 0 0 0 0 0 0 0 0 0 0 0 0 9 10 11 12 12 12 11 11 12 10 10 11 10 10 11 13 12 11 12 14 17 16 20 22 23 25 25 27 27 29 29 30 31 31 32 36 36 38 38 41 41 41 43 45 43 44 46 48 47 47 47 49 48 48 53 52 52 58 61 59 58 58 59 -193 -193 -193 71 -193 75 77 78 79 77 80 80 80 81 81 84 83 84 83 83 83 83 82 87 -209 89 89 87 87 88 88 87 -193 85 -193 83 91 104 -193 -193 108 108 108 111 110 110 114 118 118 120 124 123 123 124 126 131 131 132 132 132 132 133 132 132 134 137 139 141 143 143 145 145 146 145 145 147 146 145 151 152 153 154 153 154 157 160 167 168 0 0 0 0 0
    0 0 0 0 0 0 0 0 0 0 0 0 0 0 0 0 0 0 0 0 0 0 0 0 0 0 0 0 0 0 0 0 0 0 0 0 0 0 0 0 0 0 0 0 0 0 0 0 0 0 0 0 0 0 0 0 0 0 0 0 0 0 0 0 0 0 0 0 0 57 58 56 56 56 56 55 54 52 52 49 52 49 46 45 46 46 47 46 45 45 46 46 45 45 44 43 42 41 40 40 39 38 38 36 36 36 36 35 35 34 36 30 36 34 29 30 30 30 29 28 29 27 30 28 28 26 25 25 26 24 25 23 21 19 21 23 22 22 21 22 21 25 27 25 25 25 25 24 23 22 18 11 0 0 0 0 0 0 0 0 0 0 0 0 10 11 11 12 12 12 11 11 12 11 11 11 11 10 11 13 12 11 12 14 16 16 20 22 23 26 26 29 28 30 30 30 32 31 32 36 36 38 38 41 41 41 43 46 43 44 46 49 47 47 48 49 48 49 53 53 52 58 60 58 58 57 59 -193 -193 -209 71 -193 76 78 80 80 78 81 81 81 81 81 84 83 85 84 84 84 84 83 88 -209 -193 -193 86 87 87 88 -193 -193 85 -193 83 91 104 -193 -209 109 109 109 112 111 112 115 119 119 120 124 124 124 124 126 130 131 132 132 131 132 133 132 132 135 137 139 141 144 144 145 145 146 145 144 147 147 145 153 154 156 156 155 156 161 162 167 168 0 0 0 0 0
    0 0 0 0 0 0 0 0 0 0 0 0 0 0 0 0 0 0 0 0 0 0 0 0 0 0 0 0 0 0 0 0 0 0 0 0 0 0 0 0 0 0 0 0 0 0 0 0 0 0 0 0 0 0 0 0 0 0 0 0 0 0 0 0 0 0 0 0 0 59 59 57 57 57 57 56 55 53 54 51 53 50 47 46 47 46 47 47 45 45 46 46 45 45 44 43 42 41 39 39 39 38 39 37 37 37 36 36 35 35 36 31 35 34 31 31 32 32 30 29 30 27 30 28 28 27 26 25 25 24 25 23 22 20 22 23 23 22 22 22 22 25 26 25 25 26 25 25 24 24 22 15 0 0 0 0 0 0 0 0 0 0 0 0 11 11 11 12 12 12 11 12 13 11 11 12 11 11 11 13 12 11 12 13 15 16 19 22 22 25 26 29 28 31 30 31 32 32 32 37 36 38 38 41 41 41 43 46 44 45 46 50 48 48 49 49 48 50 53 53 52 57 59 58 58 57 58 57 59 58 70 -193 76 78 80 80 78 81 81 81 81 81 84 84 85 85 85 -193 86 85 89 -193 -193 -193 86 86 87 88 -193 -193 -193 86 83 91 105 -193 107 110 110 110 113 112 113 116 120 120 121 125 124 124 125 126 130 131 132 132 131 131 133 131 132 134 137 139 141 145 144 145 145 145 145 144 146 147 144 153 155 157 157 157 158 163 165 169 169 0 0 0 0 0
    0 0 0 0 0 0 0 0 0 0 0 0 0 0 0 0 0 0 0 0 0 0 0 0 0 0 0 0 0 0 0 0 0 0 0 0 0 0 0 0 0 0 0 0 0 0 0 0 0 0 0 0 0 0 0 0 0 0 0 0 0 0 0 0 0 0 0 0 0 60 61 59 58 58 58 57 56 54 55 54 55 52 48 47 47 46 46 47 45 45 45 45 45 44 44 43 41 40 39 39 39 38 39 37 37 37 37 36 36 35 36 33 35 35 33 32 34 35 32 30 32 28 30 28 28 27 26 26 26 24 25 24 22 21 22 23 23 22 23 23 23 25 26 25 26 26 25 25 25 25 24 21 -193 0 0 0 0 0 0 0 0 0 0 0 11 11 11 12 11 12 11 12 13 11 11 12 11 11 11 11 11 10 11 13 14 15 18 21 22 25 26 29 28 31 30 31 32 33 32 37 36 38 38 40 41 40 43 46 43 45 47 51 49 48 49 50 48 50 53 53 52 57 58 58 58 58 58 58 60 59 70 79 76 78 80 80 78 82 81 81 81 81 84 84 85 86 86 -193 -193 -193 91 92 -193 -193 86 86 87 88 -193 -177 -193 86 83 92 104 -193 107 110 110 111 113 114 113 117 120 121 121 125 125 125 125 127 129 131 131 132 130 130 132 131 131 134 137 139 141 145 144 145 145 145 145 143 146 146 143 153 156 157 157 157 158 163 166 169 170 0 0 0 0 0
    0 0 0 0 0 0 0 0 0 0 0 0 0 0 0 0 0 0 0 0 0 0 0 0 0 0 0 0 0 0 0 0 0 0 0 0 0 0 0 0 0 0 0 0 0 0 0 0 0 0 0 0 0 0 0 0 0 0 0 0 0 0 0 0 0 0 0 0 0 62 62 60 60 59 59 58 57 55 56 56 56 53 49 48 48 47 46 47 45 44 44 45 44 44 43 42 41 40 39 38 39 38 39 38 38 37 38 37 36 36 36 34 35 35 34 33 35 36 32 30 32 28 30 28 28 27 26 26 26 25 25 24 23 22 23 23 23 24 24 24 23 25 26 25 26 26 25 25 25 25 25 22 9 0 0 0 0 0 0 0 0 0 0 9 10 11 10 12 12 12 12 12 12 11 11 12 10 10 11 11 11 10 11 14 15 16 18 21 22 25 26 29 28 30 30 30 32 33 32 36 35 37 37 40 40 39 42 46 43 45 47 52 49 49 49 50 47 51 53 53 52 57 58 58 58 58 59 59 60 60 70 78 76 77 79 79 78 81 81 81 81 81 84 85 86 87 -193 -177 -177 -177 92 94 -193 93 87 86 87 -193 -177 -177 -193 -193 84 92 103 105 106 109 110 110 113 114 113 117 120 121 121 125 125 125 125 127 129 130 131 132 130 130 131 130 131 134 137 139 141 145 144 144 144 144 144 143 145 146 142 153 157 157 157 157 158 162 165 167 168 0 0 0 0 0
    0 0 0 0 0 0 0 0 0 0 0 0 0 0 0 0 0 0 0 0 0 0 0 0 0 0 0 0 0 0 0 0 0 0 0 0 0 0 0 0 0 0 0 0 0 0 0 0 0 0 0 0 0 0 0 0 0 0 0 0 0 0 0 0 0 0 0 0 0 63 63 62 62 61 60 59 58 57 57 57 56 53 49 48 48 47 45 47 44 43 43 44 44 43 43 42 40 40 39 38 39 38 39 39 38 37 39 37 37 37 37 35 35 36 35 32 35 36 32 30 32 28 29 28 28 28 26 26 26 25 25 24 23 23 24 23 24 24 24 25 25 26 27 26 27 26 26 26 25 25 24 -193 0 0 0 0 0 0 0 0 0 0 0 0 9 10 9 12 11 12 12 12 12 11 11 12 10 10 10 10 10 9 11 13 14 17 18 21 22 25 26 29 28 30 30 30 32 33 33 37 35 37 36 39 40 39 41 45 42 45 47 52 49 49 50 50 47 51 53 53 52 56 57 57 57 58 58 59 60 60 70 78 76 77 79 -193 -193 81 80 80 80 80 83 85 86 87 -193 780 781 778 92 96 92 94 87 87 87 -209 -177 -177 -177 -193 84 93 103 105 106 109 110 110 113 114 113 117 120 121 121 124 125 125 125 126 128 130 131 132 129 129 131 130 131 134 137 139 141 145 144 145 145 145 145 143 145 145 141 154 158 158 158 158 159 163 165 166 168 0 0 0 0 0
    0 0 0 0 0 0 0 0 0 0 0 0 0 0 0 0 0 0 0 0 0 0 0 0 0 0 0 0 0 0 0 0 0 0 0 0 0 0 0 0 0 0 0 0 0 0 0 0 0 0 0 0 0 0 0 0 0 0 0 0 0 0 0 0 0 0 0 0 0 64 63 64 63 62 61 60 60 58 58 58 56 53 49 48 48 47 45 46 43 43 43 44 43 43 43 42 41 40 39 39 39 39 39 39 39 37 39 37 37 37 37 35 35 36 35 32 35 36 32 30 32 29 28 28 28 28 26 26 26 25 25 24 24 24 24 23 24 24 25 26 26 27 27 26 27 26 26 26 25 25 23 21 0 0 0 0 0 0 0 0 0 0 0 0 0 10 9 12 11 11 12 12 12 11 11 11 10 10 10 10 10 9 11 13 13 17 17 21 21 24 25 28 27 30 29 30 32 33 32 36 34 -177 -177 38 39 38 40 44 41 44 46 52 49 48 49 49 47 52 54 54 53 56 57 57 57 59 59 59 60 61 69 77 75 77 78 -177 -193 80 80 80 80 80 83 85 85 87 780 780 782 779 -193 -193 92 95 88 87 87 -209 -209 -177 -177 -177 -209 94 103 105 105 108 109 109 112 115 113 117 120 121 121 124 124 124 125 126 127 129 130 131 128 127 130 129 130 134 138 140 141 145 144 145 145 145 145 143 146 145 140 154 158 158 158 159 160 164 166 166 168 0 0 0 0 0
    0 0 0 0 0 0 0 0 0 0 0 0 0 0 0 0 0 0 0 0 0 0 0 0 0 0 0 0 0 0 0 0 0 0 0 0 0 0 0 0 0 0 0 0 0 0 0 0 0 0 0 0 0 0 0 0 0 0 0 0 0 0 0 0 0 0 0 0 0 65 63 64 64 63 62 61 61 59 58 58 56 53 50 49 49 47 44 47 44 44 43 44 43 43 43 42 41 41 39 39 39 39 39 39 39 37 39 37 37 37 37 35 36 36 36 32 35 36 33 30 32 29 28 28 29 29 26 26 26 25 25 25 24 24 24 24 24 24 25 26 25 26 26 26 26 26 26 26 25 25 23 23 11 9 8 0 0 0 0 0 0 0 0 0 0 9 10 11 11 11 12 12 12 11 11 11 10 10 10 10 10 9 11 11 12 17 17 21 21 24 25 28 27 30 29 30 32 33 32 36 34 -177 -177 37 38 36 39 43 40 43 45 52 49 49 49 50 48 53 55 54 53 56 57 58 58 59 59 60 61 62 69 76 75 76 -193 368 -177 79 80 80 80 80 82 85 84 87 780 781 782 780 -193 -193 92 95 89 87 87 -193 -209 -177 -177 -177 -209 95 103 104 105 108 108 109 111 115 113 117 119 121 120 123 124 124 124 125 126 128 129 130 127 126 128 127 129 134 138 140 141 145 145 146 146 146 146 143 146 145 140 153 157 157 159 161 162 166 166 167 169 0 0 0 0 0
    0 0 0 0 0 0 0 0 0 0 0 0 0 0 0 0 0 0 0 0 0 0 0 0 0 0 0 0 0 0 0 0 0 0 0 0 0 0 0 0 0 0 0 0 0 0 0 0 0 0 0 0 0 0 0 0 0 0 0 0 0 0 0 0 0 0 0 0 0 65 64 65 64 62 61 61 61 60 59 58 56 53 51 50 50 48 44 48 44 44 43 43 43 43 43 42 41 41 40 40 40 40 39 40 40 38 39 38 37 37 38 36 36 36 36 32 35 36 33 30 32 29 28 29 30 31 27 27 27 26 25 25 24 23 24 24 25 25 26 26 26 26 26 27 27 26 26 26 25 25 23 22 11 10 9 0 0 0 0 0 0 0 0 0 0 9 9 11 11 11 11 12 12 11 11 11 10 10 10 10 10 9 10 11 12 18 18 22 21 24 25 27 27 29 29 29 31 33 32 36 33 35 33 36 37 35 38 41 39 43 45 51 50 49 50 51 -177 54 55 55 54 57 57 59 58 60 60 61 61 63 68 75 74 76 -193 368 366 79 80 79 79 79 82 85 84 86 781 781 -177 -177 -177 -177 92 95 90 87 -193 211 -209 -193 -177 -177 -193 95 102 104 105 107 108 109 111 116 113 117 119 120 120 122 124 124 124 125 125 127 128 130 127 125 127 126 128 134 138 140 142 145 145 146 146 146 146 144 147 146 141 154 159 160 161 163 163 166 166 167 169 0 0 0 0 0
    0 0 0 0 0 0 0 0 0 0 0 0 0 0 0 0 0 0 0 0 0 0 0 0 0 0 0 0 0 0 0 0 0 0 0 0 0 0 0 0 0 0 0 0 0 0 0 0 0 0 0 0 0 0 0 0 0 0 0 0 0 0 0 0 0 0 0 0 0 66 64 66 64 63 61 61 61 61 59 59 56 54 52 51 51 49 44 48 44 44 42 43 42 43 42 42 41 41 40 40 40 40 39 40 40 38 39 38 37 37 38 36 36 37 37 33 36 37 34 30 33 29 28 29 31 31 27 26 27 26 25 25 24 23 23 24 25 25 26 26 25 26 26 26 26 25 25 25 25 25 23 23 14 11 10 0 0 0 0 0 0 0 0 0 0 9 10 11 11 10 11 11 12 11 11 10 10 10 10 10 10 9 10 11 11 18 17 21 21 23 24 27 27 29 28 30 31 33 32 36 33 35 32 36 37 35 37 40 38 43 44 51 50 50 51 52 -177 55 56 56 56 57 57 59 59 60 60 62 61 63 68 75 74 75 367 369 366 78 81 79 79 79 81 85 83 85 782 781 -177 -177 -177 -177 -193 95 91 88 -193 210 -193 -193 -177 -177 -177 -193 -193 103 104 106 106 108 110 -193 112 117 118 120 120 122 124 124 125 125 125 127 127 129 127 124 126 125 128 134 138 139 142 146 146 147 147 147 147 144 148 146 142 153 158 159 160 161 161 164 165 166 169 0 0 0 0 0
    0 0 0 0 0 0 0 0 0 0 0 0 0 0 0 0 0 0 0 0 0 0 0 0 0 0 0 0 0 0 0 0 0 0 0 0 0 0 0 0 0 0 0 0 0 0 0 0 0 0 0 0 0 0 0 0 0 0 0 0 0 0 0 0 0 0 0 0 0 67 65 67 65 63 62 61 61 62 60 59 57 54 53 52 52 50 44 48 45 44 42 43 42 43 42 42 41 41 40 40 40 40 39 -193 40 37 39 37 37 37 38 36 36 37 38 33 37 38 34 31 34 30 28 29 30 30 27 26 26 26 25 24 23 23 23 23 24 24 25 24 24 25 25 25 25 24 24 24 24 24 22 23 12 10 9 0 0 0 0 0 0 0 0 0 0 10 10 11 10 10 10 11 11 10 11 10 9 9 9 9 10 9 10 10 11 18 17 21 21 23 24 27 27 29 28 30 31 33 32 36 33 -177 -177 -177 37 35 37 40 38 42 44 51 51 51 52 -177 -177 57 57 58 57 57 57 59 -177 60 60 62 61 63 68 -209 -193 75 368 369 366 78 81 79 79 79 81 84 82 85 782 781 783 780 782 -177 -193 95 92 -193 -193 208 -193 -209 -193 -193 672 674 -193 -193 103 106 105 106 108 -193 -193 115 117 119 119 121 124 124 125 125 124 126 127 129 127 124 126 125 127 133 138 139 142 146 146 147 147 147 147 145 149 147 144 153 156 156 158 159 159 163 165 166 169 0 0 0 0 0
    0 0 0 0 0 0 0 0 0 0 0 0 0 0 0 0 0 0 0 0 0 0 0 0 0 0 0 0 0 0 0 0 0 0 0 0 0 0 0 0 0 0 0 0 0 0 0 0 0 0 0 0 0 0 0 0 0 0 0 0 0 0 0 0 0 0 0 0 0 68 66 68 66 63 62 61 61 62 59 58 57 54 53 51 51 50 45 48 44 43 42 42 42 43 42 42 -193 41 -193 -193 -193 -193 39 -193 39 37 39 37 37 37 38 36 36 37 38 33 37 38 34 30 33 30 28 29 29 29 26 25 26 26 25 24 23 23 23 23 23 23 23 23 23 24 24 24 23 23 22 22 22 22 20 21 13 11 10 9 0 0 0 0 0 0 0 0 9 10 10 11 10 10 10 11 11 10 10 10 9 9 9 8 9 9 9 9 10 18 17 21 21 23 24 27 26 28 28 30 31 32 32 35 -177 -177 -177 -177 -177 34 38 40 39 42 43 51 52 52 53 -177 -177 58 59 60 58 57 57 60 -177 -177 60 63 61 63 67 -209 -193 74 369 369 366 77 81 79 79 79 81 84 81 84 783 782 783 781 783 784 -193 95 93 -193 -193 207 211 -193 -193 -193 672 674 673 -193 -193 106 105 106 108 -193 -193 114 116 118 118 121 124 124 125 125 124 126 126 129 127 124 126 125 128 134 138 139 142 146 147 148 148 148 148 -193 149 148 146 152 153 154 155 157 157 162 165 165 168 0 0 0 0 0
    0 0 0 0 0 0 0 0 0 0 0 0 0 0 0 0 0 0 0 0 0 0 0 0 0 0 0 0 0 0 0 0 0 0 0 0 0 0 0 0 0 0 0 0 0 0 0 0 0 0 0 0 0 0 0 0 0 0 0 0 0 0 0 0 0 0 0 0 0 69 67 68 66 63 61 61 61 62 59 58 56 53 54 52 52 50 45 48 44 43 42 42 41 42 42 41 -193 -193 -193 -193 -193 -193 -193 -177 -193 37 39 37 37 37 38 36 36 37 38 33 36 38 33 29 32 29 27 28 29 29 26 25 25 25 25 24 23 22 22 22 23 23 22 22 21 23 22 23 21 21 20 20 20 20 16 19 12 12 11 10 0 0 0 0 0 9 0 0 0 10 10 10 10 10 10 11 11 10 11 10 10 10 9 9 10 10 10 10 12 18 17 21 22 23 24 27 26 29 28 29 31 32 32 35 33 -177 -177 -177 -177 -177 39 40 40 41 42 50 53 53 53 -177 -177 59 60 62 58 58 58 60 -177 -177 -177 63 61 63 67 -193 -193 -193 369 370 367 77 81 79 79 79 80 84 81 84 -177 782 784 781 784 785 780 95 94 89 -193 207 211 -193 -193 -193 672 675 673 676 -193 106 106 106 -193 -193 -193 113 115 116 117 120 124 124 125 124 124 126 127 129 127 124 127 -193 128 134 138 139 142 146 148 148 148 148 148 -193 150 148 147 150 153 153 154 156 156 161 164 165 168 0 0 0 0 0
    0 0 0 0 0 0 0 0 0 0 0 0 0 0 0 0 0 0 0 0 0 0 0 0 0 0 0 0 0 0 0 0 0 0 0 0 0 0 0 0 0 0 0 0 0 0 0 0 0 0 0 0 0 0 0 0 0 0 0 0 0 0 0 0 0 0 0 0 0 69 67 68 66 63 61 61 61 62 59 58 56 52 54 52 52 51 46 48 44 43 43 42 41 43 42 42 -193 42 -193 -193 -193 -193 -193 -177 39 37 38 37 36 37 38 36 35 37 37 32 35 37 33 29 31 28 27 28 28 28 26 24 24 24 24 23 22 21 21 21 22 22 21 21 20 22 21 21 20 19 19 19 19 20 16 18 12 12 11 11 0 0 0 0 0 0 0 0 0 10 11 11 10 11 10 11 12 10 11 10 10 10 9 9 10 10 10 10 12 18 17 21 22 22 24 27 26 29 28 29 31 31 32 35 33 -177 -177 -177 -177 -177 40 41 41 41 42 50 54 54 54 -177 -177 60 61 63 59 58 58 61 -177 -177 -177 63 61 63 66 -193 71 -193 370 370 367 76 80 78 79 80 80 84 81 84 -177 782 784 781 784 785 780 95 94 90 90 207 211 -193 -193 -193 672 675 673 676 -193 106 106 -193 -193 -193 -193 112 114 115 116 119 124 124 125 124 124 126 127 129 128 124 126 -193 128 134 138 139 142 146 148 149 149 149 149 -193 150 149 149 147 151 152 153 155 155 162 165 166 169 0 0 0 0 0
    0 0 0 0 0 0 0 0 0 0 0 0 0 0 0 0 0 0 0 0 0 0 0 0 0 0 0 0 0 0 0 0 0 0 0 0 0 0 0 0 0 0 0 0 0 0 0 0 0 0 0 0 0 0 0 0 0 0 0 0 0 0 0 0 0 0 0 0 0 68 66 68 65 63 61 61 61 62 59 58 56 53 54 53 52 51 47 49 45 43 43 42 42 43 42 42 41 42 -193 -193 -193 -193 39 -193 39 37 38 37 36 37 37 35 35 36 37 32 35 37 32 28 30 28 27 27 28 28 25 24 24 24 23 23 21 21 20 20 21 21 19 20 18 20 20 19 18 17 17 17 17 19 16 19 13 13 12 12 10 9 9 9 0 9 0 0 0 9 10 10 10 11 11 12 12 11 12 10 10 10 9 9 10 10 10 10 11 17 17 21 22 22 23 27 26 29 28 29 31 31 31 35 33 -177 -177 -177 -177 -177 41 42 42 41 42 50 55 55 55 58 59 61 62 64 60 58 58 61 -177 -177 -177 63 61 63 66 71 69 -193 -177 -177 367 -193 80 78 79 80 81 84 82 -193 -177 782 784 781 783 785 779 95 94 90 91 208 -193 94 -193 -193 671 674 673 676 -193 106 106 -193 -193 238 -193 111 113 115 116 119 125 124 125 125 124 126 127 129 128 124 -193 -193 129 134 138 139 142 145 149 149 149 149 149 -193 151 149 152 145 151 151 153 155 156 163 165 167 170 0 0 0 0 0
    0 0 0 0 0 0 0 0 0 0 0 0 0 0 0 0 0 0 0 0 0 0 0 0 0 0 0 0 0 0 0 0 0 0 0 0 0 0 0 0 0 0 0 0 0 0 0 0 0 0 0 0 0 0 0 0 0 0 0 0 0 0 0 0 0 0 0 0 0 68 66 68 65 62 61 61 61 62 59 59 57 54 55 53 53 51 48 48 45 44 44 43 42 44 43 42 41 42 -193 -193 -193 -193 39 -193 38 37 37 36 35 36 37 35 35 36 36 33 34 37 32 28 30 28 27 27 27 27 24 23 23 24 23 23 21 21 20 20 21 20 19 19 16 19 18 18 17 15 15 16 16 18 16 18 13 13 12 11 10 9 9 9 0 9 0 0 9 9 10 10 10 11 10 12 12 11 12 11 10 10 9 9 9 10 10 10 11 17 17 21 22 23 24 27 27 29 28 29 31 31 31 35 34 36 34 38 -177 37 42 43 43 41 42 50 56 56 56 58 60 61 62 64 60 58 58 62 -177 -177 -177 63 61 63 66 70 69 -193 -177 -177 366 -193 79 77 78 81 82 85 83 -193 -177 782 785 781 783 785 -177 95 94 91 91 -193 93 94 -177 -209 671 674 672 675 -193 105 106 -193 -193 238 -193 110 112 114 116 119 126 124 126 125 125 127 128 130 129 125 -193 -193 130 134 138 138 142 145 149 149 149 149 149 -193 151 150 153 146 151 152 154 155 156 161 164 167 169 0 0 0 0 0
    0 0 0 0 0 0 0 0 0 0 0 0 0 0 0 0 0 0 0 0 0 0 0 0 0 0 0 0 0 0 0 0 0 0 0 0 0 0 0 0 0 0 0 0 0 0 0 0 0 0 0 0 0 0 0 0 0 0 0 0 0 0 0 0 0 0 0 0 0 69 66 68 65 62 61 61 61 62 59 59 57 54 56 54 53 51 48 47 45 44 44 43 42 44 43 42 41 42 -193 -193 -193 40 39 -193 37 37 36 36 35 36 37 35 35 36 36 33 34 37 32 28 30 28 27 26 26 26 24 23 23 23 23 23 21 21 20 20 21 20 18 18 15 18 17 17 16 15 15 15 15 18 14 16 11 13 11 11 10 10 10 10 9 10 0 0 9 9 9 9 9 11 10 11 11 11 11 11 11 11 9 9 9 10 9 10 10 16 17 21 22 23 24 28 27 29 28 29 31 31 31 34 34 37 35 39 39 39 43 44 44 42 43 51 56 56 56 58 60 61 62 64 60 58 59 62 -177 -177 -177 -177 61 63 65 70 68 70 -193 -177 366 -193 78 77 78 81 83 85 84 -177 -177 -177 -177 -177 -177 -177 -177 95 94 91 92 -193 93 95 -177 -193 672 675 673 676 -193 105 105 -193 239 239 -193 109 111 112 115 -209 -193 125 127 126 126 128 130 131 130 126 129 -193 130 134 137 138 142 145 149 149 149 149 149 -193 151 150 153 148 153 153 155 155 156 159 161 165 167 0 0 0 0 0
    0 0 0 0 0 0 0 0 0 0 0 0 0 0 0 0 0 0 0 0 0 0 0 0 0 0 0 0 0 0 0 0 0 0 0 0 0 0 0 0 0 0 0 0 0 0 0 0 0 0 0 0 0 0 0 0 0 0 0 0 0 0 0 0 0 0 0 0 0 69 66 68 65 62 61 60 60 62 59 59 57 55 56 54 53 51 49 47 45 44 45 43 43 44 43 42 41 42 -193 -193 -193 39 38 38 37 37 36 36 35 35 36 35 34 36 36 33 34 36 31 28 30 29 27 26 26 26 24 23 23 24 23 23 21 21 21 20 21 19 17 18 14 17 16 17 16 14 14 15 14 17 13 15 10 12 11 10 10 10 10 10 9 10 9 9 10 9 10 9 9 11 10 11 11 11 11 11 10 11 9 9 0 10 9 10 10 16 16 -193 -193 23 25 28 28 30 29 30 32 31 31 35 35 38 36 40 40 40 44 46 45 42 43 51 56 55 55 58 60 60 61 64 60 58 59 63 -177 -177 -177 -177 61 63 65 70 67 69 -193 -177 365 -177 -193 -193 -193 82 84 86 84 -177 -177 -177 -193 -177 782 785 -209 95 94 92 93 -193 94 96 433 -193 673 676 674 676 -193 105 -193 -193 241 240 -193 108 110 111 115 -193 -193 126 128 127 127 129 131 131 131 127 130 130 131 133 137 138 142 145 148 148 149 149 149 148 151 150 153 147 152 153 154 154 155 156 158 162 166 0 0 0 0 0
    0 0 0 0 0 0 0 0 0 0 0 0 0 0 0 0 0 0 0 0 0 0 0 0 0 0 0 0 0 0 0 0 0 0 0 0 0 0 0 0 0 0 0 0 0 0 0 0 0 0 0 0 0 0 0 0 0 0 0 0 0 0 0 0 0 0 0 0 0 69 66 67 65 62 61 60 60 62 59 59 57 55 56 54 53 51 50 47 45 45 45 43 43 44 43 42 41 42 -193 -193 40 39 38 38 37 37 36 36 35 35 36 35 35 36 35 33 33 36 31 28 29 29 27 26 26 26 24 23 24 24 23 23 22 21 21 20 21 19 16 18 14 16 16 17 15 14 14 14 13 15 11 13 9 10 10 9 10 10 10 10 9 10 9 9 9 9 9 9 9 11 10 11 11 11 11 11 11 11 9 9 0 10 9 10 10 15 17 -193 -193 -193 -193 29 28 30 29 30 32 32 31 35 36 39 38 40 40 41 44 47 46 42 44 51 56 55 54 57 59 59 60 63 59 58 60 64 -177 -177 -177 -177 62 64 65 69 66 68 68 -193 364 -177 -193 -193 -193 82 85 87 85 -177 -177 -177 -177 -193 -177 -177 -193 95 94 93 93 96 94 97 -193 97 673 675 674 676 -193 104 -193 -193 242 241 -193 107 110 110 115 -193 -193 126 128 127 127 130 131 131 131 127 131 131 132 134 137 138 142 144 148 148 148 148 149 147 150 149 152 146 152 153 154 155 155 157 159 -193 165 0 0 0 0 0
    0 0 0 0 0 0 0 0 0 0 0 0 0 0 0 0 0 0 0 0 0 0 0 0 0 0 0 0 0 0 0 0 0 0 0 0 0 0 0 0 0 0 0 0 0 0 0 0 0 0 0 0 0 0 0 0 0 0 0 0 0 0 0 0 0 0 0 0 0 68 65 67 64 62 60 60 60 61 59 59 57 55 56 53 52 50 50 46 45 45 45 43 44 45 44 42 41 42 -193 40 40 39 38 38 36 37 35 36 35 35 36 35 35 36 35 33 32 35 31 28 29 29 26 26 26 26 24 23 24 24 23 24 22 22 21 21 22 20 17 19 14 17 16 16 15 14 13 14 12 15 11 12 9 10 9 9 10 9 9 10 9 9 0 9 9 9 9 9 9 11 10 12 11 11 11 11 11 11 9 9 0 10 9 9 10 15 18 -193 -193 -193 -193 29 28 30 30 30 32 32 32 36 37 39 39 40 40 41 45 47 47 42 45 51 56 54 54 57 58 58 -193 61 58 57 60 64 -177 -177 -177 -177 62 64 64 69 65 67 67 69 -193 -177 -177 -177 -177 -193 86 87 85 -177 -193 -177 -177 -209 -177 -177 -177 94 93 93 93 -193 94 97 -193 97 672 675 674 676 -193 104 -209 -193 242 241 -193 108 110 110 115 -193 -193 126 127 127 127 130 131 131 131 127 131 132 132 134 137 137 142 143 148 147 148 148 148 146 149 148 151 145 153 154 154 155 156 157 158 161 164 0 0 0 0 0
    0 0 0 0 0 0 0 0 0 0 0 0 0 0 0 0 0 0 0 0 0 0 0 0 0 0 0 0 0 0 0 0 0 0 0 0 0 0 0 0 0 0 0 0 0 0 0 0 0 0 0 0 0 0 0 0 0 0 0 0 0 0 0 0 0 0 0 0 0 68 65 67 64 61 60 59 60 61 59 59 57 55 57 53 51 49 50 46 45 45 45 44 45 46 45 43 42 42 40 40 40 39 38 37 36 36 35 36 35 35 35 35 35 35 35 33 32 35 30 28 29 29 26 25 25 25 24 23 24 24 22 24 22 22 22 21 22 20 18 19 14 17 16 16 15 14 13 14 12 14 11 11 0 9 0 0 9 0 0 9 0 9 0 0 9 0 9 9 9 11 10 11 11 12 11 11 11 11 9 9 0 10 9 10 10 16 18 24 23 26 26 30 29 31 31 30 33 33 32 36 37 40 40 40 40 42 45 48 48 43 47 51 55 53 53 56 57 57 -193 59 57 -193 59 65 63 -177 -177 -177 62 64 64 69 65 67 66 68 65 -177 -177 -177 -177 -177 87 88 86 -177 -177 -193 -177 -193 -193 -193 -177 94 92 93 92 -193 94 96 92 97 -193 675 674 675 -193 104 -193 -193 243 241 -193 108 111 111 116 -193 -193 126 127 127 128 130 132 131 132 128 132 132 133 134 137 137 142 142 147 146 147 147 147 145 149 148 151 145 154 156 156 157 158 158 159 160 164 0 0 0 0 0
    0 0 0 0 0 0 0 0 0 0 0 0 0 0 0 0 0 0 0 0 0 0 0 0 0 0 0 0 0 0 0 0 0 0 0 0 0 0 0 0 0 0 0 0 0 0 0 0 0 0 0 0 0 0 0 0 0 0 0 0 0 0 0 0 0 0 0 0 0 68 65 66 63 61 60 59 59 61 59 59 57 55 57 53 51 48 50 45 45 45 45 44 46 46 46 43 43 43 -193 40 40 39 38 37 36 36 35 36 35 35 35 34 34 35 34 33 31 34 30 28 29 29 26 25 25 25 23 23 24 24 22 24 22 22 22 21 22 20 17 19 14 16 16 16 15 14 13 14 12 14 11 10 0 0 0 0 0 0 0 0 0 0 0 0 0 9 9 9 9 10 10 11 11 12 11 11 11 11 9 9 0 10 9 9 9 15 18 25 24 27 27 30 30 32 32 31 34 34 32 36 38 41 41 41 41 42 45 48 48 44 48 51 55 53 52 54 56 55 55 57 56 -193 59 65 63 -177 -177 -177 63 65 65 69 65 67 66 68 64 -193 -209 -193 -193 -177 88 89 86 -177 -177 -193 -177 -193 -209 -193 -177 93 91 92 92 -193 94 96 92 97 -193 675 674 676 -193 103 -193 -193 244 241 -193 108 112 111 117 -193 -193 126 127 127 128 130 132 131 132 128 132 133 133 134 137 -193 142 142 147 146 147 147 147 145 149 148 151 145 154 157 157 159 159 159 160 -193 -193 0 0 0 0 0
    0 0 0 0 0 0 0 0 0 0 0 0 0 0 0 0 0 0 0 0 0 0 0 0 0 0 0 0 0 0 0 0 0 0 0 0 0 0 0 0 0 0 0 0 0 0 0 0 0 0 0 0 0 0 0 0 0 0 0 0 0 0 0 0 0 0 0 0 0 68 66 67 64 61 60 59 59 61 59 59 57 56 58 53 52 49 51 46 45 45 46 44 46 46 46 42 43 42 40 40 40 39 38 37 36 36 35 36 35 34 34 34 34 35 34 33 32 34 30 28 28 29 26 25 25 25 23 23 24 24 22 24 23 22 22 22 22 20 17 18 13 16 15 15 14 14 13 13 12 13 11 10 0 0 0 0 0 0 0 0 0 0 0 9 9 9 9 9 9 10 10 11 11 12 11 11 10 10 9 0 0 9 0 9 9 14 18 26 25 28 28 31 30 32 33 32 34 34 33 37 38 41 41 41 41 42 46 48 48 44 48 51 54 51 50 53 54 54 54 56 55 -193 59 -193 62 -193 -177 -177 63 65 64 69 65 67 66 68 64 -193 -209 -193 -193 -177 89 89 86 -177 -177 -193 -177 -193 -193 -193 -193 92 91 91 91 -193 93 96 92 97 -193 675 675 676 -193 104 -193 103 244 242 -209 107 112 111 117 -193 133 126 126 127 127 130 132 131 132 128 132 133 133 134 137 -193 142 142 147 146 147 147 147 145 149 148 150 145 154 157 157 158 158 158 158 160 164 0 0 0 0 0
    0 0 0 0 0 0 0 0 0 0 0 0 0 0 0 0 0 0 0 0 0 0 0 0 0 0 0 0 0 0 0 0 0 0 0 0 0 0 0 0 0 0 0 0 0 0 0 0 0 0 0 0 0 0 0 0 0 0 0 0 0 0 0 0 0 0 0 0 0 69 67 68 65 61 60 59 60 61 59 59 58 57 58 53 52 50 51 46 46 45 46 44 46 45 47 42 42 41 40 39 40 39 37 37 36 36 35 36 35 34 34 34 34 35 34 33 32 33 30 28 28 30 26 25 25 25 24 24 24 24 23 24 23 23 22 22 22 21 19 19 14 16 15 15 14 15 13 13 12 13 11 10 0 0 0 0 0 0 0 0 0 0 0 9 9 9 9 9 9 10 10 11 10 11 10 10 10 10 9 0 0 10 9 9 9 14 17 26 25 29 28 32 31 33 34 32 34 34 33 37 39 41 41 40 41 42 46 48 48 44 48 50 54 50 49 51 53 52 53 55 54 -193 58 -193 -193 -193 -177 -177 63 65 64 69 65 67 66 68 65 -193 -193 -193 -193 -177 89 89 86 -177 -193 -193 -177 -193 87 -177 -193 92 90 91 91 -193 92 95 -193 97 -193 676 676 676 -193 104 -193 104 -193 243 -209 -193 112 112 117 122 134 127 126 127 127 130 132 131 132 128 132 133 133 134 137 -193 141 142 147 145 146 146 146 144 148 148 150 145 153 156 155 156 156 155 156 156 161 0 0 0 0 0
    0 0 0 0 0 0 0 0 0 0 0 0 0 0 0 0 0 0 0 0 0 0 0 0 0 0 0 0 0 0 0 0 0 0 0 0 0 0 0 0 0 0 0 0 0 0 0 0 0 0 0 0 0 0 0 0 0 0 0 0 0 0 0 0 0 0 0 0 0 70 67 68 65 61 60 60 60 61 59 59 58 57 59 54 53 51 51 46 46 46 46 44 46 45 47 42 43 41 40 39 39 39 37 36 36 36 35 36 35 34 34 34 35 35 34 32 32 33 29 28 28 30 26 26 25 25 24 24 24 24 23 24 23 23 22 23 22 21 19 19 15 17 16 16 14 15 13 13 13 13 11 11 9 0 0 0 0 0 0 0 0 0 0 9 9 9 10 10 10 11 11 11 11 11 10 10 10 10 9 0 0 10 9 9 9 14 17 26 26 29 28 32 31 33 34 32 34 35 34 37 39 41 42 40 41 43 46 48 48 44 48 49 53 50 48 49 51 51 52 54 53 0 -193 -193 -193 -193 64 66 63 65 64 69 65 67 67 68 65 -193 -193 -193 -193 -177 89 89 86 -177 -193 -193 -177 -193 86 -177 -193 -193 -209 90 90 -193 -193 94 -193 97 675 677 -193 677 103 105 -193 104 -193 243 -209 -193 112 112 119 125 134 128 126 127 127 130 132 131 132 129 133 134 134 134 137 -193 141 142 147 145 146 146 146 144 148 147 149 143 153 155 154 155 155 154 155 156 163 0 0 0 0 0
    0 0 0 0 0 0 0 0 0 0 0 0 0 0 0 0 0 0 0 0 0 0 0 0 0 0 0 0 0 0 0 0 0 0 0 0 0 0 0 0 0 0 0 0 0 0 0 0 0 0 0 0 0 0 0 0 0 0 0 0 0 0 0 0 0 0 0 0 0 69 67 68 65 61 60 60 60 61 59 59 58 57 59 54 53 51 51 46 46 46 46 44 46 45 48 42 44 42 40 40 40 39 37 36 36 36 35 36 35 34 34 35 35 35 33 32 32 31 29 27 27 30 26 26 25 25 24 24 24 24 22 24 23 23 22 22 22 21 19 20 16 17 16 16 14 15 13 13 13 12 11 10 9 0 0 0 0 0 0 0 0 0 0 9 9 10 10 11 10 11 11 11 11 11 10 10 10 10 0 0 0 10 9 9 10 15 18 26 26 29 28 32 31 32 34 31 34 35 34 37 39 41 42 40 41 43 46 48 48 44 48 49 53 49 47 48 50 50 51 53 52 0 -193 0 -193 -193 63 66 63 65 64 69 66 68 67 68 65 71 -193 -193 -193 -177 89 89 86 -177 -193 -193 -177 -193 86 -177 292 -193 -193 -193 -193 -193 -193 93 -193 96 676 677 -193 -177 104 105 106 105 -193 -193 -193 -193 113 114 121 129 134 129 127 127 126 129 132 130 132 129 133 134 134 135 138 -193 141 142 147 145 146 146 146 144 147 146 148 141 153 155 154 155 155 154 158 160 169 0 0 0 0 0
    0 0 0 0 0 0 0 0 0 0 0 0 0 0 0 0 0 0 0 0 0 0 0 0 0 0 0 0 0 0 0 0 0 0 0 0 0 0 0 0 0 0 0 0 0 0 0 0 0 0 0 0 0 0 0 0 0 0 0 0 0 0 0 0 0 0 0 0 0 69 67 68 66 62 60 60 60 61 59 59 58 57 59 54 53 52 51 46 46 46 46 44 47 46 48 43 45 42 40 40 40 39 37 36 36 36 36 36 36 35 34 35 35 35 32 31 32 30 28 27 27 30 26 26 25 25 24 24 24 24 22 24 23 23 22 22 22 21 20 20 17 17 16 17 13 14 12 12 12 11 11 11 10 9 0 0 0 0 0 0 0 0 0 9 9 10 10 12 11 12 12 12 11 12 11 10 9 10 0 0 0 10 9 9 10 15 19 27 26 29 29 32 31 32 34 31 34 35 34 37 39 41 41 40 41 43 45 48 48 43 47 47 53 48 47 48 50 49 50 52 52 0 -193 0 0 -177 63 66 63 65 65 69 67 68 68 68 -193 71 -193 -177 -177 -177 89 89 86 -177 -193 -193 -177 -209 86 -177 292 293 291 -193 -193 -193 -177 92 -177 -193 676 677 -193 -177 105 106 106 105 106 -193 107 -193 114 114 120 130 135 130 126 126 126 128 131 129 131 128 132 134 134 135 138 137 141 142 147 145 146 146 146 144 147 146 147 141 153 156 155 157 158 157 164 165 170 0 0 0 0 0
    0 0 0 0 0 0 0 0 0 0 0 0 0 0 0 0 0 0 0 0 0 0 0 0 0 0 0 0 0 0 0 0 0 0 0 0 0 0 0 0 0 0 0 0 0 0 0 0 0 0 0 0 0 0 0 0 0 0 0 0 0 0 0 0 0 0 0 0 0 69 67 68 66 62 60 60 60 61 59 59 58 57 60 54 53 52 51 46 46 46 46 44 47 46 48 43 45 43 41 40 40 39 37 36 36 36 36 36 36 35 33 35 34 35 31 30 32 29 28 27 27 31 27 26 25 25 24 25 24 24 22 23 23 23 22 22 22 22 20 20 18 17 15 16 12 14 12 12 11 11 11 10 9 9 0 0 0 0 0 9 9 0 9 10 10 11 12 13 12 13 13 13 12 12 11 10 9 10 0 0 0 10 9 9 10 16 19 27 27 30 29 33 32 32 34 31 34 34 33 37 38 41 41 39 41 42 45 47 47 43 46 46 52 47 46 47 49 49 49 52 51 0 0 0 0 -177 -177 -177 63 65 65 69 67 69 68 69 -193 -193 -193 -177 -177 -177 -177 -177 86 -177 -193 -177 -177 -209 86 -193 292 293 291 295 295 211 -177 -193 -177 -209 676 678 -193 -193 106 107 107 106 106 -193 108 108 114 114 118 125 134 129 126 126 125 127 130 128 131 127 131 133 133 135 138 137 141 142 147 145 146 146 146 144 147 147 147 141 153 156 155 156 157 156 159 159 169 0 0 0 0 0
    0 0 0 0 0 0 0 0 0 0 0 0 0 0 0 0 0 0 0 0 0 0 0 0 0 0 0 0 0 0 0 0 0 0 0 0 0 0 0 0 0 0 0 0 0 0 0 0 0 0 0 0 0 0 0 0 0 0 0 0 0 0 0 0 0 0 0 0 0 69 67 68 66 62 61 60 60 61 60 59 58 57 60 54 54 52 52 47 46 46 46 44 47 46 48 43 45 43 41 40 40 39 37 36 36 36 36 36 35 35 33 35 33 35 31 30 31 28 27 27 26 31 27 26 25 25 25 25 24 24 -193 23 22 23 21 22 21 21 20 20 17 15 14 16 12 13 11 11 10 10 11 10 9 0 0 0 0 0 0 9 9 9 10 11 11 12 13 13 12 13 13 13 12 12 11 10 9 9 0 0 0 10 10 9 10 16 20 28 28 31 30 33 32 33 34 31 33 34 33 36 37 40 40 38 41 42 44 46 46 42 45 45 52 47 46 47 49 49 49 51 51 0 0 0 0 -177 -177 -177 -177 65 66 69 68 70 69 70 -193 -209 76 -177 -177 -177 -177 89 86 -177 -193 -177 -177 -193 85 -193 292 293 291 295 296 211 -193 -193 -177 -193 -193 678 -193 -193 106 107 108 107 107 107 108 108 114 114 117 124 133 129 125 125 124 126 129 128 130 126 130 132 132 134 138 137 141 142 147 145 146 146 146 144 147 147 146 141 153 156 155 156 157 156 159 160 168 0 0 0 0 0
    0 0 0 0 0 0 0 0 0 0 0 0 0 0 0 0 0 0 0 0 0 0 0 0 0 0 0 0 0 0 0 0 0 0 0 0 0 0 0 0 0 0 0 0 0 0 0 0 0 0 0 0 0 0 0 0 0 0 0 0 0 0 0 0 0 0 0 0 0 68 66 67 66 62 61 61 61 61 59 59 57 57 59 54 54 53 52 47 47 47 47 44 46 45 48 43 44 42 41 40 40 39 37 36 36 36 36 36 35 35 33 36 -193 35 31 29 32 28 27 26 26 31 27 26 25 24 25 25 24 24 -193 23 22 23 21 22 20 21 19 19 16 15 13 15 12 12 10 11 10 10 10 10 0 0 0 0 0 0 0 9 9 9 10 11 11 12 14 14 13 14 14 14 12 12 11 10 9 9 0 0 0 10 10 9 10 16 20 28 28 31 30 33 32 32 34 31 33 34 32 36 37 39 39 37 40 41 43 44 45 42 44 45 52 47 46 47 49 49 49 51 51 0 0 0 0 -177 -193 -193 -177 66 66 70 68 70 -193 70 -193 -193 77 -177 -177 -177 89 89 86 -177 -193 -177 -177 -193 85 -193 292 294 292 -193 296 211 -193 -209 -177 -177 -209 679 -209 106 107 108 108 -193 107 107 109 107 114 114 117 123 133 128 124 125 124 125 128 127 130 126 129 131 131 134 137 137 140 142 147 145 146 146 146 144 147 147 146 141 153 156 155 156 157 155 157 159 164 0 0 0 0 0
    0 0 0 0 0 0 0 0 0 0 0 0 0 0 0 0 0 0 0 0 0 0 0 0 0 0 0 0 0 0 0 0 0 0 0 0 0 0 0 0 0 0 0 0 0 0 0 0 0 0 0 0 0 0 0 0 0 0 0 0 0 0 0 0 0 0 0 0 0 68 66 67 66 63 61 61 61 61 59 59 57 56 -193 54 54 53 52 48 47 47 47 44 46 45 47 42 43 42 40 40 39 39 36 37 35 36 36 36 36 35 33 36 -193 36 31 29 31 27 27 26 26 31 27 26 25 24 25 25 24 23 -193 22 21 23 21 22 -193 22 20 20 17 15 13 15 12 12 10 10 9 9 10 10 0 0 0 0 0 0 0 9 9 9 10 12 12 13 14 15 14 14 15 14 13 12 11 10 9 9 0 0 0 10 9 9 10 16 19 28 28 31 30 33 32 32 34 31 33 34 32 35 36 38 38 36 40 40 42 43 44 41 44 45 52 47 46 47 49 49 49 51 50 0 0 0 0 -177 -193 -193 -177 66 66 70 69 70 -193 -193 -193 -193 76 76 80 -177 89 89 86 -177 -193 -193 -177 -193 85 -193 293 -193 -193 -193 296 210 -193 -209 -177 -177 -193 -209 -209 106 107 108 109 108 107 108 109 107 114 114 117 122 132 127 124 124 123 124 128 126 129 126 128 131 130 133 136 137 140 142 146 145 146 146 146 145 146 147 145 141 153 154 154 154 155 153 155 157 158 0 0 0 0 0
    0 0 0 0 0 0 0 0 0 0 0 0 0 0 0 0 0 0 0 0 0 0 0 0 0 0 0 0 0 0 0 0 0 0 0 0 0 0 0 0 0 0 0 0 0 0 0 0 0 0 0 0 0 0 0 0 0 0 0 0 0 0 0 0 0 0 0 0 0 67 65 67 65 62 61 61 61 61 59 59 57 55 -193 54 53 53 52 48 47 47 47 44 46 45 47 42 43 42 41 40 39 39 36 37 35 36 36 36 36 36 34 37 -193 37 32 30 32 27 27 27 26 31 27 27 25 24 25 25 23 23 20 22 21 23 21 21 -177 22 21 21 18 15 13 16 12 12 10 10 9 10 11 10 9 0 0 0 0 0 0 9 9 9 10 12 12 13 14 15 14 14 15 14 13 12 11 10 9 9 0 0 0 9 9 9 10 15 15 27 27 31 30 33 32 32 34 31 32 33 31 35 35 37 37 34 39 39 41 42 44 41 43 44 52 47 46 47 50 49 49 51 50 0 -193 -177 0 -177 -193 65 -177 66 67 70 69 71 -193 -193 -193 -177 77 76 80 -177 89 89 86 -177 -193 -193 -177 -193 85 -193 -177 90 -193 514 296 210 214 -209 -177 -177 -193 -209 -209 107 108 109 109 108 108 108 110 108 114 115 118 122 129 126 123 124 122 124 127 125 129 126 127 130 130 133 136 137 140 142 146 145 146 146 146 145 145 147 144 140 153 153 153 153 155 154 156 157 158 0 0 0 0 0
    0 0 0 0 0 0 0 0 0 0 0 0 0 0 0 0 0 0 0 0 0 0 0 0 0 0 0 0 0 0 0 0 0 0 0 0 0 0 0 0 0 0 0 0 0 0 0 0 0 0 0 0 0 0 0 0 0 0 0 0 0 0 0 0 0 0 0 0 0 67 65 66 65 62 61 61 61 61 59 59 57 55 -193 54 53 52 51 47 47 47 46 44 45 45 47 42 43 42 41 41 39 39 36 37 35 36 36 36 36 36 34 37 33 38 33 32 32 28 28 27 27 31 27 27 25 25 25 25 23 23 20 22 21 23 21 21 -193 22 21 21 18 16 14 16 12 12 11 11 10 11 12 10 9 9 0 0 0 0 0 9 9 9 11 12 12 14 14 14 14 14 15 13 13 12 11 10 10 9 0 0 0 0 0 0 9 14 14 27 27 32 30 34 32 32 34 31 33 33 31 35 35 37 36 34 38 38 41 42 43 40 43 44 52 47 46 48 50 48 49 50 50 0 -193 -177 0 -177 -193 65 -177 67 67 70 70 71 -193 -193 -177 -177 77 77 81 -177 89 89 87 -177 -177 -193 -177 -193 86 -193 -193 91 -193 514 295 209 214 -209 -177 -177 -177 -193 -193 107 108 109 109 109 108 109 111 109 115 116 119 121 127 125 123 123 122 123 126 125 128 125 126 129 129 132 136 137 140 142 146 145 146 146 146 145 145 147 143 139 153 154 153 154 156 155 158 162 163 0 0 0 0 0
    0 0 0 0 0 0 0 0 0 0 0 0 0 0 0 0 0 0 0 0 0 0 0 0 0 0 0 0 0 0 0 0 0 0 0 0 0 0 0 0 0 0 0 0 0 0 0 0 0 0 0 0 0 0 0 0 0 0 0 0 0 0 0 0 0 0 0 0 0 68 65 66 65 62 62 61 61 61 59 59 57 55 -193 54 53 52 51 47 46 47 46 44 44 44 46 41 43 42 41 41 39 39 36 37 35 36 36 36 36 36 35 37 34 38 35 33 34 29 29 28 27 32 27 27 25 25 25 24 23 22 20 22 20 22 21 21 20 22 21 21 19 16 14 16 12 12 11 12 10 11 12 11 10 9 0 0 0 0 0 9 9 9 12 13 12 14 15 14 14 14 15 13 13 12 11 10 9 9 0 0 0 9 9 0 9 14 13 27 26 33 30 34 32 32 34 31 33 33 31 34 35 36 36 34 38 38 40 41 44 41 43 45 52 47 46 48 50 48 49 50 50 0 55 -177 0 -177 -193 65 -193 67 67 70 70 71 -193 -177 -177 -177 77 78 82 -177 88 88 87 -177 -177 -177 -177 -177 86 -193 -193 91 -193 514 295 -193 214 -209 -177 -177 -193 -193 -193 107 109 109 110 109 109 109 111 109 115 116 119 120 126 125 123 123 122 123 126 124 127 125 125 128 127 132 135 138 139 142 145 144 145 145 145 145 144 147 143 139 153 154 154 155 157 156 160 164 166 0 0 0 0 0
    0 0 0 0 0 0 0 0 0 0 0 0 0 0 0 0 0 0 0 0 0 0 0 0 0 0 0 0 0 0 0 0 0 0 0 0 0 0 0 0 0 0 0 0 0 0 0 0 0 0 0 0 0 0 0 0 0 0 0 0 0 0 0 0 0 0 0 0 0 68 65 66 65 63 62 62 61 62 59 59 57 55 -193 54 52 51 50 46 46 46 45 43 43 43 45 41 42 41 40 40 39 39 36 37 36 36 36 36 36 36 35 37 33 38 36 34 35 30 30 28 28 33 28 27 25 25 25 24 23 22 19 22 20 22 21 21 20 22 21 21 19 17 14 17 13 13 12 13 11 13 14 11 11 10 9 9 0 0 0 9 9 9 12 12 12 14 14 14 14 14 15 13 13 12 11 10 10 9 9 9 9 9 9 9 10 14 12 27 26 34 30 34 32 32 34 31 33 33 31 34 35 36 36 34 38 38 40 41 44 41 44 47 53 48 48 49 51 49 49 50 50 -193 55 -177 0 -177 -193 66 -177 67 67 70 71 71 -193 -177 366 364 77 79 82 -177 88 88 87 -177 -193 -193 -177 -193 86 -193 -193 91 -193 513 -193 -193 214 -209 -193 -193 -209 -209 -193 107 109 109 109 109 109 109 111 109 114 116 119 120 125 124 123 123 122 123 126 124 127 125 125 128 127 131 135 139 139 142 144 144 145 145 145 145 143 146 142 139 153 155 153 154 156 155 159 163 163 0 0 0 0 0
    0 0 0 0 0 0 0 0 0 0 0 0 0 0 0 0 0 0 0 0 0 0 0 0 0 0 0 0 0 0 0 0 0 0 0 0 0 0 0 0 0 0 0 0 0 0 0 0 0 0 0 0 0 0 0 0 0 0 0 0 0 0 0 0 0 0 0 0 0 67 65 66 65 63 62 62 62 61 59 59 57 56 -193 54 53 52 50 46 46 46 45 43 42 42 44 40 41 41 40 40 39 39 36 37 36 36 36 36 36 36 35 37 34 38 37 35 35 31 30 28 28 33 27 26 25 25 24 24 23 22 19 22 20 22 21 21 20 22 21 21 18 17 14 17 13 13 13 15 13 15 17 14 13 12 10 10 0 0 0 0 9 9 11 12 12 14 13 13 13 13 14 13 12 12 11 10 10 10 9 9 9 9 9 9 10 14 11 25 25 34 30 34 33 32 34 32 33 33 30 34 35 36 36 35 38 38 40 41 44 41 44 46 52 47 47 49 51 49 48 50 49 -193 54 -193 -193 -193 -193 66 69 67 67 70 71 -193 -193 -177 367 365 77 80 82 539 87 88 87 -193 -193 -193 -193 87 86 -193 -193 91 -193 513 -193 -193 -177 -193 -193 -193 -209 -209 -177 108 109 109 109 109 109 109 111 108 114 116 120 120 125 124 123 123 122 123 125 124 128 126 126 129 128 132 135 139 140 141 144 144 145 145 145 145 142 146 142 139 153 153 151 153 155 154 157 160 158 0 0 0 0 0
    0 0 0 0 0 0 0 0 0 0 0 0 0 0 0 0 0 0 0 0 0 0 0 0 0 0 0 0 0 0 0 0 0 0 0 0 0 0 0 0 0 0 0 0 0 0 0 0 0 0 0 0 0 0 0 0 0 0 0 0 0 0 0 0 0 0 0 0 0 67 64 66 64 63 62 62 62 61 59 59 58 56 -193 54 53 52 50 46 45 46 44 42 42 42 43 39 41 40 40 39 39 39 36 37 36 36 36 36 36 36 35 37 34 38 37 36 37 34 31 29 28 33 27 26 25 24 24 24 23 22 19 22 20 21 21 21 20 22 21 21 18 17 15 17 14 14 16 19 17 19 20 19 18 16 13 10 0 0 0 0 9 9 11 11 12 13 12 12 13 12 13 12 12 11 10 10 10 9 9 9 9 9 9 9 10 13 10 16 23 32 29 33 32 31 33 31 32 33 30 34 35 36 36 36 38 37 39 40 43 40 43 45 51 46 46 48 50 -177 47 48 48 46 54 -193 -193 -193 67 -177 69 67 67 69 71 71 -193 -177 367 365 77 81 83 -193 86 87 87 87 -193 87 -193 87 86 -193 91 91 -193 512 -193 90 -177 -193 -177 -177 639 -209 -193 108 109 109 109 109 109 109 111 108 114 117 121 121 126 125 124 124 123 124 126 124 128 126 126 130 129 132 136 140 140 141 143 144 145 145 145 145 141 146 142 139 152 153 150 151 154 153 159 163 161 0 0 0 0 0
    0 0 0 0 0 0 0 0 0 0 0 0 0 0 0 0 0 0 0 0 0 0 0 0 0 0 0 0 0 0 0 0 0 0 0 0 0 0 0 0 0 0 0 0 0 0 0 0 0 0 0 0 0 0 0 0 0 0 0 0 0 0 0 0 0 0 0 0 0 67 64 66 64 62 62 62 62 61 59 60 57 57 57 54 53 52 50 46 45 45 44 42 42 42 43 39 41 40 40 39 39 38 36 37 36 36 36 35 36 36 36 37 35 39 37 36 38 36 32 30 29 33 27 26 25 24 24 23 22 22 19 22 20 21 20 21 20 21 21 21 18 18 15 17 16 18 21 22 20 21 22 21 22 20 16 11 0 0 0 0 9 0 10 11 11 13 12 12 13 12 13 12 12 12 11 10 10 10 9 9 9 9 9 9 10 12 10 13 21 30 28 31 31 31 33 31 32 33 31 34 36 36 36 36 38 38 38 40 42 39 42 44 50 45 46 48 50 48 47 48 48 46 54 -193 62 63 67 66 69 67 67 69 71 71 72 -193 -177 -177 77 82 83 -193 86 87 87 87 -193 -193 -193 87 86 -193 91 91 92 -193 -193 91 -193 -193 -177 -177 -177 -209 -209 109 109 109 109 109 109 110 111 108 114 118 122 122 125 126 124 124 123 124 126 124 128 127 126 130 129 132 136 142 140 141 143 144 145 145 145 145 140 144 141 139 150 150 148 150 150 151 157 162 159 0 0 0 0 0
    0 0 0 0 0 0 0 0 0 0 0 0 0 0 0 0 0 0 0 0 0 0 0 0 0 0 0 0 0 0 0 0 0 0 0 0 0 0 0 0 0 0 0 0 0 0 0 0 0 0 0 0 0 0 0 0 0 0 0 0 0 0 0 0 0 0 0 0 0 67 64 66 64 62 62 62 61 61 59 60 58 57 57 55 53 52 49 45 44 45 44 42 42 42 43 40 41 41 41 40 39 39 36 37 36 36 36 35 36 36 36 38 36 39 38 37 39 37 34 30 30 34 28 26 26 25 24 23 22 22 19 22 21 21 21 21 21 22 21 21 20 20 19 20 20 22 23 24 23 23 23 23 24 23 19 14 10 10 9 10 0 0 10 10 11 12 11 12 12 12 13 12 12 12 11 10 10 10 9 9 9 9 9 9 10 12 10 11 20 27 26 29 30 30 32 30 31 33 30 35 36 36 37 37 38 38 39 41 43 39 42 44 48 44 46 48 51 50 50 50 50 49 55 59 61 62 66 65 69 66 66 69 71 72 72 73 -193 -177 77 83 83 -193 85 86 86 86 87 -193 87 87 -193 -193 92 91 93 90 91 91 -193 92 -209 -193 -209 -193 -193 109 109 109 109 109 109 110 112 109 115 118 122 122 125 126 124 125 124 124 126 124 128 127 126 130 130 131 136 143 140 142 143 144 145 145 145 145 139 143 140 139 150 151 150 150 149 153 156 161 158 0 0 0 0 0
    0 0 0 0 0 0 0 0 0 0 0 0 0 0 0 0 0 0 0 0 0 0 0 0 0 0 0 0 0 0 0 0 0 0 0 0 0 0 0 0 0 0 0 0 0 0 0 0 0 0 0 0 0 0 0 0 0 0 0 0 0 0 0 0 0 0 0 0 0 67 64 66 63 62 62 62 61 61 60 60 58 58 58 55 53 52 49 45 44 45 44 42 42 42 44 40 42 42 41 40 40 39 36 37 36 36 36 36 36 36 37 38 36 39 38 37 39 38 35 32 32 35 29 27 26 25 24 23 23 22 19 22 21 21 21 21 21 21 20 21 20 21 20 20 21 24 25 26 24 23 23 23 24 23 20 15 12 10 10 11 8 0 10 10 10 11 11 11 12 12 12 11 12 12 11 10 10 10 9 10 9 9 9 10 11 12 10 12 20 24 25 27 28 28 30 30 31 32 30 35 37 37 37 38 39 39 39 41 44 39 42 43 46 44 46 48 51 50 50 51 51 51 56 59 61 63 65 64 69 66 66 69 72 72 72 73 73 73 77 83 83 83 84 85 86 86 87 -193 86 87 -193 91 92 91 92 90 91 92 92 93 90 -209 -209 -193 107 108 -193 109 109 110 110 111 114 112 116 118 121 122 125 127 124 125 124 124 126 125 128 127 126 131 130 131 136 144 141 142 143 144 144 144 144 145 139 143 140 141 153 154 153 153 154 156 159 163 162 0 0 0 0 0
    0 0 0 0 0 0 0 0 0 0 0 0 0 0 0 0 0 0 0 0 0 0 0 0 0 0 0 0 0 0 0 0 0 0 0 0 0 0 0 0 0 0 0 0 0 0 0 0 0 0 0 0 0 0 0 0 0 0 0 0 0 0 0 0 0 0 0 0 0 67 64 66 63 62 62 62 61 61 60 60 58 58 58 55 53 52 49 45 44 44 44 42 42 42 43 40 41 41 41 41 40 39 36 37 36 36 36 36 36 36 37 38 37 40 39 38 39 38 36 33 33 35 30 27 27 26 24 23 23 23 19 22 21 21 21 21 22 22 21 22 21 22 21 21 22 24 25 26 25 24 24 24 24 23 21 18 14 12 13 13 10 9 10 10 10 11 11 11 12 12 12 12 12 12 11 10 10 11 10 10 10 10 9 10 12 14 12 13 20 23 24 25 26 27 28 28 30 33 31 36 38 38 39 39 40 40 40 42 44 40 42 43 45 44 47 50 52 53 52 52 53 53 56 58 60 62 63 63 69 66 66 69 72 72 72 73 73 73 77 83 82 83 84 85 86 86 87 87 86 87 86 91 91 91 92 91 92 93 93 95 92 -193 -209 -209 107 108 109 109 -193 110 111 112 114 113 116 118 121 123 125 128 125 125 125 125 126 125 128 128 126 131 131 131 137 145 141 142 142 144 144 144 144 145 138 146 143 148 155 158 156 156 156 158 161 164 163 0 0 0 0 0
    0 0 0 0 0 0 0 0 0 0 0 0 0 0 0 0 0 0 0 0 0 0 0 0 0 0 0 0 0 0 0 0 0 0 0 0 0 0 0 0 0 0 0 0 0 0 0 0 0 0 0 0 0 0 0 0 0 0 0 0 0 0 0 0 0 0 0 0 0 67 64 66 64 62 62 62 61 61 60 60 58 58 58 55 54 52 49 46 45 45 44 42 42 42 43 40 41 41 41 41 40 39 36 37 36 36 36 36 36 36 37 39 37 40 39 39 39 39 37 34 34 36 30 28 27 26 24 23 23 23 20 22 21 21 21 21 22 22 22 22 22 22 22 22 22 24 25 26 27 25 25 25 24 24 22 20 17 15 16 15 11 10 10 10 11 11 12 12 12 12 12 12 12 13 12 10 10 11 10 11 10 10 10 12 13 15 14 15 20 22 23 23 25 25 26 27 29 31 30 35 38 38 39 39 40 41 41 42 44 39 43 44 45 45 50 52 53 55 54 53 54 54 57 57 59 60 61 61 68 66 66 69 72 72 72 73 73 73 76 81 80 82 84 85 85 85 86 86 85 86 86 90 91 91 92 91 93 94 95 97 94 98 -209 -209 108 109 109 110 -193 110 111 112 115 113 115 117 119 122 124 127 124 125 126 125 126 125 128 128 126 131 131 130 137 146 141 142 142 144 144 144 144 145 138 148 147 151 155 157 156 156 156 157 159 163 162 0 0 0 0 0
    0 0 0 0 0 0 0 0 0 0 0 0 0 0 0 0 0 0 0 0 0 0 0 0 0 0 0 0 0 0 0 0 0 0 0 0 0 0 0 0 0 0 0 0 0 0 0 0 0 0 0 0 0 0 0 0 0 0 0 0 0 0 0 0 0 0 0 0 0 67 64 66 63 62 62 62 61 61 60 60 58 59 59 56 54 53 50 47 45 45 44 43 42 42 44 40 42 42 42 41 41 39 37 37 36 36 36 36 36 37 37 39 38 41 40 40 39 40 38 36 35 36 31 28 27 26 24 23 23 23 20 22 22 21 21 21 22 22 21 22 22 22 22 22 22 24 25 27 29 26 26 25 25 24 22 21 19 15 17 15 13 11 10 10 10 11 12 12 12 11 12 12 12 13 12 11 11 12 11 11 10 10 11 13 14 15 17 16 21 22 22 23 24 25 26 26 29 31 30 36 38 38 39 39 39 40 40 41 42 37 40 42 43 45 52 53 54 56 55 54 55 56 57 56 58 58 59 59 67 65 65 69 71 72 72 72 73 72 76 80 78 80 83 83 84 84 85 85 85 86 85 89 90 90 91 91 93 95 96 98 96 100 102 104 108 109 109 110 -193 110 111 112 114 113 113 116 117 121 122 126 123 124 126 125 126 126 128 128 127 131 132 130 137 147 142 142 142 143 144 144 144 145 138 149 148 151 154 155 155 155 155 156 158 162 161 0 0 0 0 0
    0 0 0 0 0 0 0 0 0 0 0 0 0 0 0 0 0 0 0 0 0 0 0 0 0 0 0 0 0 0 0 0 0 0 0 0 0 0 0 0 0 0 0 0 0 0 0 0 0 0 0 0 0 0 0 0 0 0 0 0 0 0 0 0 0 0 0 0 0 67 64 66 63 62 62 61 61 61 60 60 58 58 59 56 54 53 51 48 46 46 45 43 42 43 45 40 42 42 42 42 41 40 37 37 36 36 36 36 36 37 38 39 38 41 40 40 40 40 38 36 36 37 32 28 28 26 24 23 23 23 20 22 22 21 22 22 23 23 22 23 22 22 23 20 22 24 25 27 30 26 26 26 25 25 23 22 20 17 18 17 14 13 11 10 11 12 13 12 12 11 12 12 12 13 12 11 11 12 10 10 10 10 10 14 13 14 18 16 21 21 21 23 23 24 25 26 28 30 30 36 39 39 39 40 40 40 39 41 41 35 38 40 41 44 50 53 54 55 55 55 56 57 58 55 57 57 57 58 66 63 64 68 71 71 72 71 72 72 74 78 77 79 81 81 84 84 85 85 84 86 86 89 90 90 91 91 93 96 97 100 99 102 -193 105 108 109 109 111 -193 110 111 112 114 113 113 115 115 120 121 125 123 124 126 125 126 126 128 128 127 132 132 130 137 147 142 142 142 143 144 144 144 145 138 149 148 150 153 154 153 154 154 155 156 160 160 0 0 0 0 0
    0 0 0 0 0 0 0 0 0 0 0 0 0 0 0 0 0 0 0 0 0 0 0 0 0 0 0 0 0 0 0 0 0 0 0 0 0 0 0 0 0 0 0 0 0 0 0 0 0 0 0 0 0 0 0 0 0 0 0 0 0 0 0 0 0 0 0 0 0 67 64 66 63 62 62 61 61 61 60 60 57 57 58 56 54 53 50 48 46 46 45 43 43 43 46 41 43 43 42 42 42 40 38 37 36 36 36 36 36 37 37 39 38 40 40 40 40 40 38 37 36 37 34 29 28 27 25 24 23 23 19 22 22 21 22 22 23 23 22 23 23 23 23 21 22 24 24 26 30 26 26 26 26 25 23 22 21 18 19 18 16 14 12 12 12 14 15 14 12 11 13 12 12 14 13 12 11 12 11 10 10 9 11 15 14 14 19 17 21 21 21 23 23 24 25 26 27 29 29 36 39 39 40 40 40 40 39 41 41 34 37 38 40 44 50 52 53 55 55 55 55 57 57 54 56 57 55 57 63 62 63 68 71 71 72 71 72 71 74 77 76 78 80 80 83 84 85 85 84 86 86 88 89 89 90 90 92 95 96 100 101 103 -193 106 108 109 109 111 -193 110 112 112 114 113 113 115 114 119 120 124 122 123 126 125 126 126 128 129 129 133 133 131 137 147 142 142 142 142 144 145 145 145 138 150 149 150 153 154 154 154 154 155 156 160 162 0 0 0 0 0
    0 0 0 0 0 0 0 0 0 0 0 0 0 0 0 0 0 0 0 0 0 0 0 0 0 0 0 0 0 0 0 0 0 0 0 0 0 0 0 0 0 0 0 0 0 0 0 0 0 0 0 0 0 0 0 0 0 0 0 0 0 0 0 0 0 0 0 0 0 67 64 66 63 62 61 61 61 61 59 59 57 57 58 56 53 52 49 47 46 46 46 44 43 43 46 41 43 43 42 42 42 40 38 37 36 36 36 36 36 37 37 39 38 41 40 40 40 40 39 38 37 38 35 29 28 27 25 24 23 23 19 22 22 21 22 22 23 23 23 23 23 23 23 21 22 24 24 25 29 26 26 26 25 25 23 22 21 18 20 19 17 16 14 16 15 16 18 15 13 12 13 13 12 14 14 12 12 13 13 12 12 10 12 19 17 16 21 18 21 21 22 23 24 25 26 26 27 29 29 35 39 40 41 40 40 41 40 41 41 36 38 38 41 45 51 53 54 55 56 55 56 58 58 54 55 56 54 55 61 60 62 69 72 72 72 71 72 71 73 75 75 77 80 79 83 84 85 85 85 87 86 87 88 87 89 89 89 92 93 100 102 -193 38 -193 107 -193 -193 -193 -193 111 112 113 115 114 113 115 113 118 119 -193 121 122 126 125 125 126 128 130 129 133 133 132 137 147 142 142 142 142 144 145 145 145 138 151 150 151 153 155 155 155 156 156 157 160 162 0 0 0 0 0
    0 0 0 0 0 0 0 0 0 0 0 0 0 0 0 0 0 0 0 0 0 0 0 0 0 0 0 0 0 0 0 0 0 0 0 0 0 0 0 0 0 0 0 0 0 0 0 0 0 0 0 0 0 0 0 0 0 0 0 0 0 0 0 0 0 0 0 0 0 66 64 66 63 61 61 61 60 61 59 59 57 57 58 56 53 52 49 48 46 46 46 44 42 43 46 41 43 42 42 42 42 41 38 37 37 36 36 37 37 37 38 39 39 41 41 41 40 40 39 38 38 38 36 30 29 28 25 25 23 23 19 22 22 21 22 22 23 24 23 23 23 23 23 22 23 24 24 25 29 26 27 26 26 25 23 22 22 19 21 20 19 19 17 21 20 19 21 17 13 12 14 13 13 15 15 13 14 15 16 14 15 12 15 20 18 17 21 19 21 22 23 24 25 25 26 26 27 29 29 35 39 41 42 40 40 41 41 41 42 36 38 38 42 46 50 53 54 55 56 56 57 58 58 55 55 56 54 56 60 60 64 70 72 72 72 71 71 71 72 74 74 77 79 78 82 84 85 86 85 87 87 86 87 84 86 86 87 91 90 101 102 -193 -193 -193 -193 -193 -193 112 111 112 114 114 116 115 114 115 112 118 119 -193 121 122 126 125 125 126 129 130 131 133 133 132 136 146 142 141 142 142 144 145 145 145 138 151 149 150 153 154 154 154 155 156 157 160 163 0 0 0 0 0
    0 0 0 0 0 0 0 0 0 0 0 0 0 0 0 0 0 0 0 0 0 0 0 0 0 0 0 0 0 0 0 0 0 0 0 0 0 0 0 0 0 0 0 0 0 0 0 0 0 0 0 0 0 0 0 0 0 0 0 0 0 0 0 0 0 0 0 0 0 66 64 65 63 61 61 60 60 61 59 59 57 57 58 56 54 52 49 48 46 46 46 44 42 44 46 41 42 42 41 41 41 41 38 36 37 36 36 37 36 37 37 38 39 40 40 41 39 41 40 39 38 38 36 31 29 28 26 25 24 24 20 22 22 22 22 22 23 24 23 23 23 23 23 22 23 23 22 24 29 26 27 27 26 25 23 22 22 20 21 21 21 21 20 23 23 21 22 17 13 12 14 12 12 14 15 13 15 16 17 14 19 12 18 21 18 17 21 19 21 22 24 25 26 26 27 27 28 29 28 34 39 41 42 40 40 41 41 41 41 37 38 38 42 46 51 53 53 55 54 54 55 57 57 50 53 54 53 57 60 60 67 71 71 72 72 70 70 70 71 73 73 76 78 77 81 84 85 85 83 85 84 79 81 76 76 77 80 87 -193 103 103 104 106 106 106 -193 109 112 111 113 115 115 116 116 116 116 115 118 119 120 120 121 126 126 125 127 129 131 132 133 133 132 136 145 141 141 141 141 144 145 145 145 139 150 148 148 152 152 153 153 154 154 156 159 163 0 0 0 0 0
    0 0 0 0 0 0 0 0 0 0 0 0 0 0 0 0 0 0 0 0 0 0 0 0 0 0 0 0 0 0 0 0 0 0 0 0 0 0 0 0 0 0 0 0 0 0 0 0 0 0 0 0 0 0 0 0 0 0 0 0 0 0 0 0 0 0 0 0 0 66 63 65 63 61 60 60 60 61 59 59 57 57 58 56 54 52 50 48 47 47 46 45 43 44 47 40 42 41 41 41 41 40 39 37 37 36 37 38 36 37 38 38 39 40 41 41 40 41 41 40 38 38 36 32 29 29 27 25 24 24 21 23 23 22 23 24 25 25 24 24 25 24 25 24 24 22 20 23 30 27 28 28 27 27 24 24 24 21 22 22 22 22 22 25 24 23 23 18 13 11 13 12 12 14 15 14 16 17 19 14 21 -193 20 22 15 14 20 19 21 22 23 25 25 26 27 27 28 29 28 34 39 42 43 40 40 41 40 41 41 36 38 38 42 47 51 55 55 55 54 54 54 57 57 48 47 49 49 53 58 57 66 71 71 72 72 69 70 70 71 72 72 75 77 76 81 84 85 85 83 84 83 76 77 74 73 71 75 83 85 94 101 103 106 106 106 108 108 112 112 113 115 116 116 116 116 117 117 -193 120 120 120 121 125 126 125 127 131 133 134 135 135 135 137 144 141 141 142 141 143 145 145 145 139 150 146 147 150 151 152 152 153 153 155 158 161 0 0 0 0 0
    0 0 0 0 0 0 0 0 0 0 0 0 0 0 0 0 0 0 0 0 0 0 0 0 0 0 0 0 0 0 0 0 0 0 0 0 0 0 0 0 0 0 0 0 0 0 0 0 0 0 0 0 0 0 0 0 0 0 0 0 0 0 0 0 0 0 0 0 0 66 63 65 62 61 60 60 60 61 59 59 57 57 58 56 54 52 50 48 47 46 46 45 43 44 47 40 41 41 41 41 41 41 39 37 37 37 37 37 36 37 38 38 39 40 40 41 40 41 41 40 38 38 36 31 29 28 26 25 23 24 21 23 23 22 23 23 24 25 24 24 24 24 24 23 24 21 19 22 28 26 28 28 27 28 26 25 25 23 24 23 24 23 23 26 25 25 25 21 11 0 12 11 12 14 16 15 18 19 20 15 23 10 22 23 16 15 21 19 22 23 24 26 26 27 28 28 28 29 29 34 40 42 43 39 40 40 40 41 41 37 37 37 42 46 50 53 54 53 53 53 53 56 56 49 47 50 54 55 58 58 66 70 70 70 71 69 69 69 70 71 71 74 75 75 79 84 84 84 82 83 82 76 78 74 73 70 74 78 82 89 93 99 103 105 104 107 108 112 112 114 116 117 117 117 117 118 119 -193 120 119 121 121 125 125 125 127 131 133 135 135 135 135 136 143 140 141 142 141 143 145 146 146 139 148 142 144 147 150 151 151 152 152 155 158 162 0 0 0 0 0
    0 0 0 0 0 0 0 0 0 0 0 0 0 0 0 0 0 0 0 0 0 0 0 0 0 0 0 0 0 0 0 0 0 0 0 0 0 0 0 0 0 0 0 0 0 0 0 0 0 0 0 0 0 0 0 0 0 0 0 0 0 0 0 0 0 0 0 0 0 65 63 64 62 61 60 60 61 61 59 59 57 57 58 56 54 52 50 47 46 46 46 45 43 44 46 39 41 41 40 41 41 41 39 37 38 37 37 37 36 37 38 38 39 39 40 40 40 41 41 40 38 38 36 32 30 29 28 26 24 24 22 24 24 23 24 24 25 26 25 25 25 25 25 24 25 22 21 23 26 26 28 27 28 29 27 27 26 24 25 24 28 26 24 28 27 27 27 26 -193 0 10 0 10 12 15 16 17 19 20 14 20 11 23 24 17 14 20 20 22 23 25 27 27 27 29 29 28 29 30 35 41 42 43 39 40 40 40 40 41 37 37 36 42 45 48 51 52 52 52 53 53 56 56 53 52 54 57 58 59 58 65 70 70 71 72 69 70 70 70 72 71 73 74 74 78 82 83 83 82 82 81 78 80 76 73 71 73 75 79 79 89 91 92 95 98 -193 -193 109 111 114 116 117 117 117 119 119 120 -193 120 119 121 121 124 124 124 126 131 133 135 135 136 136 136 142 140 141 142 142 143 144 145 146 140 148 141 143 145 149 150 150 151 152 154 156 159 0 0 0 0 0
    0 0 0 0 0 0 0 0 0 0 0 0 0 0 0 0 0 0 0 0 0 0 0 0 0 0 0 0 0 0 0 0 0 0 0 0 0 0 0 0 0 0 0 0 0 0 0 0 0 0 0 0 0 0 0 0 0 0 0 0 0 0 0 0 0 0 0 0 0 65 63 65 63 61 60 60 61 61 59 59 57 56 57 56 54 51 50 47 46 46 45 45 43 44 45 39 40 40 39 40 40 40 40 37 38 37 37 38 36 37 38 37 38 39 39 39 39 40 40 38 38 37 35 32 30 29 28 27 25 26 25 26 27 25 26 26 28 27 25 26 26 26 27 25 25 24 24 25 27 27 29 29 33 34 34 35 34 33 36 34 35 32 30 30 29 30 29 27 -193 0 -193 0 0 9 11 14 16 20 22 19 24 12 23 24 17 13 20 22 24 24 27 29 29 29 31 31 29 31 33 36 41 42 43 40 40 40 41 41 41 38 38 37 42 45 47 49 51 51 51 52 53 55 55 55 55 56 58 60 60 59 66 71 71 71 72 70 70 70 71 72 71 73 74 73 78 83 84 84 83 83 83 82 82 78 76 73 75 78 82 84 89 91 92 95 95 -193 -193 -193 110 113 115 118 118 119 -193 120 122 -193 122 120 123 122 124 124 124 126 132 133 135 135 136 136 136 142 140 141 142 142 144 144 146 146 140 148 142 143 145 150 151 151 153 153 154 156 158 0 0 0 0 0
    0 0 0 0 0 0 0 0 0 0 0 0 0 0 0 0 0 0 0 0 0 0 0 0 0 0 0 0 0 0 0 0 0 0 0 0 0 0 0 0 0 0 0 0 0 0 0 0 0 0 0 0 0 0 0 0 0 0 0 0 0 0 0 0 0 0 0 0 0 66 63 65 63 61 61 61 61 61 59 59 57 56 57 56 54 51 49 46 46 45 45 45 44 44 44 39 39 39 38 39 39 39 40 37 37 37 37 38 37 37 38 37 39 39 39 39 39 40 39 38 38 37 34 33 31 30 30 28 26 28 27 28 29 28 28 29 32 30 27 28 28 28 30 28 26 26 27 28 28 30 31 32 36 38 38 39 40 41 40 38 36 35 35 33 31 31 -225 -225 -225 -225 -225 -225 -225 -225 -225 -225 -225 -225 -225 -225 -225 -225 -225 -225 -225 -225 -225 26 27 27 32 33 32 30 33 34 32 34 36 37 42 42 43 40 40 40 41 41 42 39 39 38 43 45 46 48 50 50 49 52 53 54 54 55 55 56 58 60 61 60 67 72 72 72 73 71 71 71 71 72 72 74 75 74 79 84 84 85 85 84 84 84 84 80 80 78 81 84 85 89 90 93 95 99 96 -193 -193 -193 110 113 -193 118 119 119 122 121 122 122 122 121 123 123 124 124 125 126 131 133 134 134 136 136 136 142 140 141 142 143 144 145 146 146 141 148 144 144 146 152 153 154 155 155 157 159 162 0 0 0 0 0
    0 0 0 0 0 0 0 0 0 0 0 0 0 0 0 0 0 0 0 0 0 0 0 0 0 0 0 0 0 0 0 0 0 0 0 0 0 0 0 0 0 0 0 0 0 0 0 0 0 0 0 0 0 0 0 0 0 0 0 0 0 0 0 0 0 0 0 0 0 66 63 65 63 61 61 61 61 61 59 59 58 57 58 57 55 51 49 46 46 45 45 45 44 44 43 38 39 39 38 38 38 38 39 38 38 37 37 38 38 38 39 38 39 40 39 40 39 40 40 38 38 37 34 35 33 32 32 29 29 32 29 31 32 31 31 34 36 34 31 32 31 32 34 32 27 27 28 28 28 30 32 34 37 39 40 41 41 42 41 37 36 35 35 33 30 -225 -225 -225 -225 -225 -225 -225 -225 -225 -225 -225 -225 -225 -225 -225 -225 -225 -225 -225 -225 -225 -225 -225 -225 28 36 35 34 32 35 37 35 36 38 38 42 42 43 41 40 41 42 42 43 41 41 41 44 48 49 49 52 52 51 54 55 55 55 56 56 57 58 60 61 62 67 73 72 73 73 71 72 72 71 72 72 74 75 -193 79 83 84 85 86 85 86 86 87 85 86 87 89 90 89 91 92 96 98 102 99 -193 -193 -193 110 113 -193 118 119 119 121 121 123 122 122 121 123 123 124 124 124 124 130 132 134 133 135 135 136 142 140 141 143 144 144 145 146 146 141 148 144 144 145 152 153 154 155 155 157 160 164 0 0 0 0 0
    0 0 0 0 0 0 0 0 0 0 0 0 0 0 0 0 0 0 0 0 0 0 0 0 0 0 0 0 0 0 0 0 0 0 0 0 0 0 0 0 0 0 0 0 0 0 0 0 0 0 0 0 0 0 0 0 0 0 0 0 0 0 0 0 0 0 0 0 0 66 63 65 63 62 61 61 62 61 60 60 58 57 58 58 55 51 50 46 46 45 45 45 45 44 44 39 40 40 39 38 39 38 39 38 38 38 38 38 38 38 39 38 40 40 39 40 39 40 40 38 38 37 35 37 35 34 35 30 33 35 33 33 34 34 34 36 38 36 33 35 35 35 37 35 28 28 30 30 30 33 35 36 38 39 40 41 42 42 41 38 37 37 37 34 -225 -225 -225 -225 -225 -225 -225 -225 -225 -225 -225 -225 -225 -225 -225 -225 -225 -225 -225 -225 -225 -225 -225 -225 -225 -225 37 37 36 34 36 39 37 38 39 40 42 42 44 42 41 41 43 43 44 42 42 42 45 49 49 50 52 52 51 53 54 55 54 56 57 57 58 60 61 63 67 73 72 72 73 71 72 72 72 72 72 73 74 74 77 81 84 86 87 87 87 89 89 89 89 90 93 96 93 96 96 102 103 103 100 -193 -193 -193 110 113 115 118 119 119 121 121 123 122 123 122 123 123 124 124 124 124 129 131 133 133 135 135 136 142 140 141 143 144 144 144 145 145 141 147 144 143 142 149 150 152 152 153 155 157 162 0 0 0 0 0
    0 0 0 0 0 0 0 0 0 0 0 0 0 0 0 0 0 0 0 0 0 0 0 0 0 0 0 0 0 0 0 0 0 0 0 0 0 0 0 0 0 0 0 0 0 0 0 0 0 0 0 0 0 0 0 0 0 0 0 0 0 0 0 0 0 0 0 0 0 66 64 66 64 62 62 62 62 61 60 60 58 57 58 58 55 51 51 47 46 45 46 46 45 45 44 40 41 41 41 39 39 38 39 38 38 38 38 38 38 38 39 39 40 40 39 39 39 40 39 37 37 36 34 38 35 35 35 30 32 35 34 36 37 38 37 39 41 39 38 39 39 38 39 39 30 32 36 34 33 35 37 38 39 40 41 41 42 43 41 39 39 39 40 -225 -225 -225 -225 -225 -225 -225 -225 -225 -225 -225 -225 -225 -225 -225 -225 -225 -225 -225 -225 -225 -225 -225 -225 -225 -225 -225 -225 -225 37 35 37 41 40 40 41 41 43 43 44 43 41 42 44 44 44 43 44 43 46 49 48 49 51 51 50 52 52 54 54 56 57 57 58 60 61 64 66 72 72 72 73 72 74 74 73 74 73 74 75 75 77 79 84 87 89 89 88 90 90 90 90 91 93 97 96 99 99 104 -193 -193 -193 -193 -193 -193 108 110 111 116 118 119 121 122 123 122 123 122 123 123 124 124 123 124 127 128 132 132 135 135 136 142 140 142 143 145 144 144 145 145 141 146 143 141 140 145 145 149 152 152 154 156 161 0 0 0 0 0
    0 0 0 0 0 0 0 0 0 0 0 0 0 0 0 0 0 0 0 0 0 0 0 0 0 0 0 0 0 0 0 0 0 0 0 0 0 0 0 0 0 0 0 0 0 0 0 0 0 0 0 0 0 0 0 0 0 0 0 0 0 0 0 0 0 0 0 0 0 66 64 66 64 62 62 62 62 61 60 60 58 57 58 58 56 52 51 47 46 45 46 46 45 45 44 41 42 42 42 41 40 38 40 39 38 38 39 39 39 40 41 40 41 42 39 39 39 39 38 36 37 37 34 39 38 37 36 31 34 36 37 39 40 41 41 42 44 42 42 42 42 41 41 41 37 39 40 38 37 37 39 40 40 40 41 42 43 43 43 41 41 -225 -225 -225 -225 -225 -225 -225 -225 -225 -225 -225 -225 -225 -225 -225 -225 -225 -225 -225 -225 -225 -225 -225 -225 -225 -225 -225 -225 -225 -225 -225 -225 36 38 42 41 41 42 42 44 44 45 43 42 44 45 44 45 45 45 45 47 49 48 48 51 51 50 52 51 53 54 55 57 57 59 60 61 63 65 70 71 71 73 72 75 75 74 74 74 75 76 77 79 79 85 88 91 91 89 92 92 92 92 93 95 98 95 97 -193 -209 -193 54 65 76 -209 -209 -209 -193 108 115 118 119 122 123 123 123 123 122 123 122 124 123 123 124 127 128 131 132 135 135 136 142 140 142 144 146 145 144 146 145 141 146 144 142 140 145 145 148 152 153 154 155 159 0 0 0 0 0
    0 0 0 0 0 0 0 0 0 0 0 0 0 0 0 0 0 0 0 0 0 0 0 0 0 0 0 0 0 0 0 0 0 0 0 0 0 0 0 0 0 0 0 0 0 0 0 0 0 0 0 0 0 0 0 0 0 0 0 0 0 0 0 0 0 0 0 0 0 67 64 66 64 63 62 62 62 61 60 60 58 57 58 57 56 52 51 48 47 45 46 46 46 45 44 42 43 43 43 42 41 40 41 41 40 39 39 39 41 41 42 41 40 41 38 37 38 37 37 36 37 37 34 41 42 40 38 34 37 39 40 41 42 43 43 44 46 45 44 44 44 43 43 42 41 41 41 38 38 38 40 41 40 40 41 42 43 43 43 41 -225 -225 -225 -225 -225 -225 -225 -225 -225 -225 -225 -225 -225 -225 -225 -225 -225 -225 -225 -225 -225 -225 -225 -225 -225 -225 -225 -225 -225 -225 -225 -225 -225 -225 39 44 42 42 43 43 44 44 45 44 43 45 46 45 46 46 46 46 48 49 47 48 50 50 50 51 51 53 53 55 57 58 59 61 62 64 64 68 69 69 71 71 74 75 74 75 75 75 77 78 79 78 86 89 92 92 90 93 93 94 95 95 97 99 97 99 97 99 -193 55 66 85 -209 -209 -209 -193 106 111 118 119 123 123 124 123 123 122 123 122 124 123 122 123 126 127 129 131 135 135 136 142 140 141 144 146 145 144 146 145 142 147 145 143 141 146 146 147 152 153 154 155 158 0 0 0 0 0
    0 0 0 0 0 0 0 0 0 0 0 0 0 0 0 0 0 0 0 0 0 0 0 0 0 0 0 0 0 0 0 0 0 0 0 0 0 0 0 0 0 0 0 0 0 0 0 0 0 0 0 0 0 0 0 0 0 0 0 0 0 0 0 0 0 0 0 0 0 67 64 66 64 63 62 62 62 61 59 59 58 57 57 57 56 52 51 49 48 46 47 47 46 46 45 43 44 44 44 42 42 41 42 42 42 40 41 41 43 43 44 42 42 42 39 38 38 37 37 36 38 39 37 44 49 44 42 39 41 42 42 43 44 44 45 46 47 45 45 45 45 44 43 42 40 40 40 38 38 38 40 41 40 40 39 41 42 42 42 -225 -225 -225 -225 -225 -225 -225 -225 -225 -225 -225 -225 -225 -225 -225 -225 -225 -225 -225 -225 -225 -225 -225 -225 -225 -225 -225 -225 -225 -225 -225 -225 -225 -225 -225 39 48 43 43 42 43 43 44 45 44 43 46 47 47 47 49 48 49 50 50 47 47 50 50 50 51 50 52 52 54 56 57 59 61 62 64 64 66 69 69 71 71 74 75 75 76 77 76 78 80 81 80 88 90 92 93 90 94 94 93 95 96 97 99 98 100 97 99 -193 -209 -193 -193 -209 -209 -209 -209 -209 110 -193 117 119 122 121 121 122 120 122 121 123 122 122 122 125 125 128 130 135 135 137 143 141 142 145 146 146 145 146 145 143 147 146 144 143 147 148 148 152 153 155 155 157 0 0 0 0 0
    0 0 0 0 0 0 0 0 0 0 0 0 0 0 0 0 0 0 0 0 0 0 0 0 0 0 0 0 0 0 0 0 0 0 0 0 0 0 0 0 0 0 0 0 0 0 0 0 0 0 0 0 0 0 0 0 0 0 0 0 0 0 0 0 0 0 0 0 0 67 64 66 64 63 62 62 62 60 59 59 58 57 57 58 57 54 52 51 50 48 48 48 48 47 46 44 44 44 44 43 42 42 43 42 43 42 42 42 44 44 45 44 44 44 40 39 39 39 39 38 40 42 41 48 54 52 48 44 45 45 45 46 47 46 46 48 49 47 46 47 46 45 45 44 -225 -225 -225 39 39 39 41 41 40 41 41 42 44 -225 -225 -225 -225 -225 -225 -225 -225 -225 -225 -225 -225 -225 -225 -225 -225 -225 -225 -225 -225 -225 -225 -225 -225 -225 -225 -225 -225 -225 -225 -225 -225 -225 -225 -225 -225 -225 39 45 42 42 42 43 43 44 45 45 45 49 49 49 49 51 50 51 50 50 47 47 49 49 49 50 49 51 52 54 56 57 60 62 62 64 64 65 68 68 70 70 73 74 74 76 77 77 79 82 83 83 88 90 91 92 89 93 93 92 94 96 97 99 97 98 96 96 -193 -209 -209 97 -209 -209 -209 -193 110 113 114 117 118 121 121 121 122 121 121 121 122 122 120 120 122 122 125 130 135 136 137 144 141 142 146 146 146 146 147 145 144 147 146 144 144 147 148 147 152 154 156 157 160 0 0 0 0 0
    0 0 0 0 0 0 0 0 0 0 0 0 0 0 0 0 0 0 0 0 0 0 0 0 0 0 0 0 0 0 0 0 0 0 0 0 0 0 0 0 0 0 0 0 0 0 0 0 0 0 0 0 0 0 0 0 0 0 0 0 0 0 0 0 0 0 0 0 0 66 64 66 64 63 62 62 62 60 59 59 58 57 57 58 57 55 53 53 52 50 50 50 49 49 47 45 45 45 45 43 43 42 43 43 43 43 43 44 45 46 47 46 46 47 44 42 45 46 47 43 49 54 51 55 55 53 50 48 47 47 46 48 48 48 48 49 50 49 49 49 47 46 46 -225 -225 -225 -225 -225 -225 39 45 42 42 43 43 -225 -225 -225 -225 -225 -225 -225 -225 -225 -225 -225 -225 -225 -225 -225 -225 -225 -225 -225 -225 -225 -225 -225 -225 -225 -225 -225 -225 -225 -225 -225 -225 -225 -225 -225 -225 -225 -225 -225 -225 45 41 43 42 44 43 44 46 46 46 51 50 51 51 53 52 53 52 50 47 48 49 49 49 49 47 50 51 53 55 57 60 62 63 65 65 66 68 67 69 70 72 74 74 75 77 77 78 82 83 83 89 90 92 92 90 93 93 92 94 96 97 98 96 97 94 92 -209 -209 -193 -193 -209 -209 107 110 115 116 117 118 118 121 121 122 123 121 121 121 122 121 119 118 120 115 -209 127 131 131 136 143 140 141 146 145 145 145 147 145 144 147 146 143 145 146 147 144 150 152 154 156 159 0 0 0 0 0
    0 0 0 0 0 0 0 0 0 0 0 0 0 0 0 0 0 0 0 0 0 0 0 0 0 0 0 0 0 0 0 0 0 0 0 0 0 0 0 0 0 0 0 0 0 0 0 0 0 0 0 0 0 0 0 0 0 0 0 0 0 0 0 0 0 0 0 0 0 65 64 66 64 63 62 62 62 60 60 59 58 57 57 57 57 55 54 54 53 51 51 51 50 50 49 45 45 45 45 44 43 43 43 44 44 44 45 46 46 48 50 50 49 51 51 53 57 59 58 55 57 58 57 57 55 54 52 50 50 48 48 48 49 49 48 50 50 51 51 51 49 -225 -225 -225 -225 -225 -225 -225 -225 -225 -225 -225 -225 -225 -225 -225 -225 -225 -225 -225 -225 -225 -225 -225 -225 -225 -225 -225 -225 -225 -225 -225 -225 -225 -225 -225 -225 -225 -225 -225 -225 -225 -225 -225 -225 -225 -225 -225 -225 -225 -225 -225 -225 -225 -225 -225 -225 42 42 44 43 44 46 48 49 52 51 52 52 53 53 53 52 51 47 49 49 48 48 48 46 48 50 53 55 57 60 61 62 64 65 66 69 68 69 70 72 75 75 75 76 76 78 82 82 82 87 89 91 91 89 93 94 93 95 97 97 97 95 95 93 92 -209 -209 73 -193 -209 -209 107 111 115 116 117 119 119 121 121 122 123 122 121 121 121 121 119 119 119 -209 -209 -209 -193 128 134 140 139 140 146 144 144 144 147 145 144 146 146 143 145 146 146 143 148 150 153 154 156 0 0 0 0 0
    0 0 0 0 0 0 0 0 0 0 0 0 0 0 0 0 0 0 0 0 0 0 0 0 0 0 0 0 0 0 0 0 0 0 0 0 0 0 0 0 0 0 0 0 0 0 0 0 0 0 0 0 0 0 0 0 0 0 0 0 0 0 0 0 0 0 0 0 0 65 64 66 64 63 62 62 62 60 59 59 58 57 57 57 57 56 55 55 55 0 -256 -1 20229 52 51 47 46 46 46 45 44 44 44 44 45 45 47 48 49 50 52 53 53 55 56 57 59 62 60 56 57 58 56 56 55 54 52 52 52 50 49 50 50 50 50 50 50 51 51 -225 -225 -225 -225 -225 -225 -225 -225 -225 -225 -225 -225 -225 -225 -225 -225 -225 -225 -225 -225 -225 -225 -225 -225 -225 -225 -225 -225 -225 -225 -225 -225 -225 -225 -225 -225 -225 -225 -225 -225 -225 -225 -225 -225 -225 -225 -225 -225 -225 -225 -225 -225 -225 -225 -225 -225 -225 -225 -225 -225 48 45 47 49 48 50 51 49 51 50 51 51 52 51 50 46 49 48 48 48 47 46 47 48 51 54 56 60 61 62 64 65 66 68 68 69 69 71 74 75 75 76 77 78 82 82 81 84 85 87 86 85 89 91 91 95 97 97 96 95 95 94 92 -193 82 87 90 92 94 -193 109 114 116 117 119 119 121 121 123 124 123 122 122 123 123 121 121 -193 111 -209 -209 126 127 133 137 138 140 146 144 144 144 148 146 145 146 145 143 145 145 146 142 147 150 153 155 156 0 0 0 0 0
    0 0 0 0 0 0 0 0 0 0 0 0 0 0 0 0 0 0 0 0 0 0 0 0 0 0 0 0 0 0 0 0 0 0 0 0 0 0 0 0 0 0 0 0 0 0 0 0 0 0 0 0 0 0 0 0 0 0 0 0 0 0 0 0 0 0 0 0 0 64 64 66 64 63 62 62 62 60 59 59 58 57 58 58 59 57 57 57 57 55 55 53 52 51 51 48 46 46 46 45 45 44 44 45 46 46 48 50 51 51 54 55 55 58 59 61 63 67 63 59 58 58 57 57 55 54 53 52 52 50 50 50 51 50 50 50 51 52 -225 -225 -225 -225 -225 -225 -225 -225 -225 -225 -225 -225 -225 -225 -225 -225 -225 -225 -225 -225 -225 -225 -225 -225 -225 -225 -225 -225 -225 -225 -225 -225 -225 -225 -225 -225 -225 -225 -225 -225 -225 -225 -225 -225 -225 -225 -225 -225 -225 -225 -225 -225 -225 -225 -225 -225 -225 -225 -225 -225 -225 50 46 48 48 49 51 51 50 52 51 52 52 54 52 51 49 51 50 48 48 47 46 47 48 51 54 56 60 61 62 64 65 66 68 68 69 69 71 73 75 75 76 77 78 81 81 81 83 84 85 83 83 87 90 90 93 95 96 97 97 97 96 95 93 -193 91 93 93 92 104 107 112 113 116 116 117 119 119 122 122 121 120 120 121 121 120 119 119 114 120 126 126 127 129 133 135 138 147 143 144 145 149 146 146 146 145 143 145 146 146 142 148 151 153 155 156 0 0 0 0 0
    0 0 0 0 0 0 0 0 0 0 0 0 0 0 0 0 0 0 0 0 0 0 0 0 0 0 0 0 0 0 0 0 0 0 0 0 0 0 0 0 0 0 0 0 0 0 0 0 0 0 0 0 0 0 0 0 0 0 0 0 0 0 0 0 0 0 0 0 0 64 63 66 65 63 62 62 62 60 60 59 58 57 58 59 60 58 58 59 59 58 57 55 53 52 52 49 46 46 46 45 44 44 45 45 46 46 48 50 51 52 54 55 56 58 59 62 63 67 65 63 59 58 57 57 55 54 53 52 51 50 49 49 48 49 48 48 -225 -225 -225 -225 -225 -225 -225 -225 -225 -225 -225 -225 -225 -225 -225 -225 -225 -225 -225 -225 -225 -225 -225 -225 -225 -225 -225 -225 -225 -225 -225 -225 -225 -225 -225 -225 -225 -225 -225 -225 -225 -225 -225 -225 -225 -225 -225 -225 -225 -225 -225 -225 -225 -225 -225 -225 -225 -225 -225 -225 -225 -225 -225 -225 -225 48 47 51 52 52 52 53 52 54 54 55 53 53 52 53 51 50 50 48 47 47 49 51 53 55 60 61 62 64 65 65 67 67 68 68 69 73 74 75 76 77 78 81 81 82 84 85 85 84 84 88 89 89 92 94 94 98 100 99 99 99 98 96 98 97 95 92 100 -193 111 111 115 114 115 -193 117 120 121 118 118 119 120 -193 122 122 123 120 126 132 130 130 132 132 135 139 148 143 144 145 149 147 147 147 146 144 147 147 148 143 148 152 154 155 156 0 0 0 0 0
    0 0 0 0 0 0 0 0 0 0 0 0 0 0 0 0 0 0 0 0 0 0 0 0 0 0 0 0 0 0 0 0 0 0 0 0 0 0 0 0 0 0 0 0 0 0 0 0 0 0 0 0 0 0 0 0 0 0 0 0 0 0 0 0 0 0 0 0 0 63 63 66 65 63 63 62 62 60 60 60 58 58 58 60 60 59 59 59 59 59 58 57 55 54 53 50 46 46 45 45 44 43 44 45 46 45 47 49 51 52 54 55 56 58 60 64 65 69 65 64 60 59 58 58 56 54 53 52 50 49 48 47 46 47 -225 -225 -225 -225 -225 -225 -225 -225 -225 -225 -225 -225 -225 -225 -225 -225 -225 -225 -225 -225 -225 -225 -225 -225 -225 -225 -225 -225 -225 -225 -225 -225 -225 -225 -225 -225 -225 -225 -225 -225 -225 -225 -225 -225 -225 -225 -225 -225 -225 -225 -225 -225 -225 -225 -225 -225 -225 -225 -225 -225 -225 -225 -225 -225 -225 -225 -225 -225 -225 -225 -225 54 54 55 54 54 54 55 54 54 54 53 51 50 51 49 48 47 48 50 52 55 60 62 62 64 65 66 67 68 68 68 68 72 74 74 76 77 78 80 82 84 85 86 86 86 86 89 90 90 91 94 95 99 101 100 100 100 99 99 99 97 96 92 94 -193 107 108 112 109 111 -193 113 -209 -209 -209 -193 -209 -193 121 123 123 124 122 127 132 130 131 132 132 134 137 147 142 142 143 148 147 146 147 146 144 147 147 148 143 149 152 154 156 157 0 0 0 0 0
    0 0 0 0 0 0 0 0 0 0 0 0 0 0 0 0 0 0 0 0 0 0 0 0 0 0 0 0 0 0 0 0 0 0 0 0 0 0 0 0 0 0 0 0 0 0 0 0 0 0 0 0 0 0 0 0 0 0 0 0 0 0 0 0 0 0 0 0 0 62 62 65 64 63 63 62 62 61 61 60 58 58 58 61 60 60 59 60 60 59 58 58 57 56 54 50 46 45 45 45 44 43 45 45 46 45 47 49 51 53 54 55 55 57 59 64 65 68 65 66 62 60 60 59 56 54 52 51 49 48 48 46 -225 -225 -225 -225 -225 -225 -225 -225 -225 -225 -225 -225 -225 -225 -225 -225 -225 -225 -225 -225 -225 -225 -225 -225 -225 -225 -225 -225 -225 -225 -225 -225 -225 -225 -225 -225 -225 -225 -225 -225 -225 -225 -225 -225 -225 -225 -225 -225 -225 -225 -225 -225 -225 -225 -225 -225 -225 -225 -225 -225 -225 -225 -225 -225 -225 -225 -225 -225 -225 -225 -225 -225 -225 -225 56 56 55 55 55 56 54 55 54 53 52 51 51 50 48 46 47 49 52 56 60 63 63 65 67 68 69 70 70 69 69 71 73 74 76 78 79 82 84 85 86 87 86 86 86 89 89 89 91 94 95 99 101 101 100 101 100 99 99 96 96 93 93 -193 106 107 110 109 -193 -193 -193 -193 -193 69 -193 -193 -193 -193 118 118 118 118 122 128 127 128 130 130 132 136 146 141 141 142 148 146 146 146 146 143 147 147 147 142 148 152 154 156 158 0 0 0 0 0
    0 0 0 0 0 0 0 0 0 0 0 0 0 0 0 0 0 0 0 0 0 0 0 0 0 0 0 0 0 0 0 0 0 0 0 0 0 0 0 0 0 0 0 0 0 0 0 0 0 0 0 0 0 0 0 0 0 0 0 0 0 0 0 0 0 0 0 0 0 61 62 65 64 64 64 62 63 61 61 61 59 58 58 60 60 59 59 59 59 59 58 58 56 56 54 50 46 45 44 45 44 43 45 46 48 46 49 51 52 53 54 55 56 58 61 65 65 68 65 66 64 62 60 59 56 54 52 51 49 49 48 -225 -225 -225 -225 -225 -225 -225 -225 -225 -225 -225 -225 -225 -225 -225 -225 -225 -225 -225 -225 -225 -225 -225 -225 -225 -225 -225 -225 -225 -225 -225 -225 -225 -225 -225 -225 -225 -225 -225 -225 -225 -225 -225 -225 -225 -225 -225 -225 -225 -225 -225 -225 -225 -225 -225 -225 -225 -225 -225 -225 -225 -225 -225 -225 -225 -225 -225 -225 -225 -225 -225 -225 -225 -225 -225 -225 55 54 55 55 56 55 -193 -193 56 55 56 54 54 54 52 51 52 54 58 62 65 65 66 68 69 70 70 70 70 70 71 73 74 76 78 79 82 83 84 86 87 86 86 86 88 89 90 91 93 95 100 102 101 101 102 101 100 100 98 98 97 100 106 107 107 109 108 -193 -193 -193 70 -193 -209 -209 -209 -209 -193 114 114 116 117 122 126 125 128 130 130 132 136 146 141 141 143 148 146 146 146 146 143 147 147 147 141 147 150 154 155 158 0 0 0 0 0
    0 0 0 0 0 0 0 0 0 0 0 0 0 0 0 0 0 0 0 0 0 0 0 0 0 0 0 0 0 0 0 0 0 0 0 0 0 0 0 0 0 0 0 0 0 0 0 0 0 0 0 0 0 0 0 0 0 0 0 0 0 0 0 0 0 0 0 0 0 61 62 64 64 64 64 62 63 62 62 62 59 59 58 61 61 60 60 60 59 59 59 59 57 57 55 51 47 46 44 46 45 44 46 48 49 48 51 53 54 55 56 58 59 61 65 68 68 69 68 69 67 63 61 59 56 53 52 52 49 -225 -225 -225 -225 -225 -225 -225 -225 -225 -225 -225 -225 -225 -225 -225 -225 -225 -225 -225 -225 -225 -225 -225 -225 -225 -225 -225 -225 -225 -225 -225 -225 -225 -225 -225 -225 -225 -225 -225 -225 -225 -225 -225 -225 -225 -225 -225 -225 -225 -225 -225 -225 -225 -225 -225 -225 -225 -225 -225 -225 -225 -225 -225 -225 -225 -225 -225 -225 -225 -225 -225 -225 -225 -225 -225 -225 -225 -225 -225 -225 54 55 57 57 60 59 61 61 60 60 59 58 57 56 57 57 59 63 65 66 66 68 69 70 72 71 72 72 72 74 74 75 78 78 80 82 82 86 87 87 87 87 89 89 91 92 94 96 100 102 102 101 102 102 101 102 101 102 101 103 106 107 107 109 108 -193 -193 -209 70 -209 -209 -209 75 -209 109 113 112 115 116 121 124 124 126 128 128 132 136 146 141 142 144 147 146 146 146 146 143 147 147 147 142 148 151 -193 -193 -193 0 0 0 0 0
    0 0 0 0 0 0 0 0 0 0 0 0 0 0 0 0 0 0 0 0 0 0 0 0 0 0 0 0 0 0 0 0 0 0 0 0 0 0 0 0 0 0 0 0 0 0 0 0 0 0 0 0 0 0 0 0 0 0 0 0 0 0 0 0 0 0 0 0 0 61 62 63 64 64 64 63 64 62 62 62 59 60 59 62 61 61 62 62 61 61 59 59 59 58 57 54 52 50 48 51 -193 50 50 51 52 51 53 55 57 57 58 60 62 65 68 70 69 70 69 69 67 61 60 58 56 55 54 54 -225 -225 -225 -225 -225 -225 -225 -225 -225 -225 -225 -225 -225 -225 -225 -225 -225 -225 -225 -225 -225 -225 -225 -225 -225 -225 -225 -225 -225 -225 -225 -225 -225 -225 -225 -225 -225 -225 -225 -225 -225 -225 -225 -225 -225 -225 -225 -225 -225 -225 -225 -225 -225 -225 -225 -225 -225 -225 -225 -225 -225 -225 -225 -225 -225 -225 -225 -225 -225 -225 -225 -225 -225 -225 -225 -225 -225 -225 -225 -225 -225 -225 56 61 62 -209 67 68 68 63 63 62 62 61 58 59 59 59 64 65 66 66 67 69 71 73 72 73 73 73 74 74 75 76 77 78 80 81 85 86 86 87 87 88 89 90 91 94 96 100 102 102 101 102 102 102 104 104 104 103 104 106 106 107 109 107 -193 -209 108 -209 -209 -193 -209 -209 102 108 113 113 115 116 121 123 123 125 126 127 132 137 146 141 142 145 147 146 147 147 146 144 147 147 147 143 149 151 155 155 159 0 0 0 0 0
    0 0 0 0 0 0 0 0 0 0 0 0 0 0 0 0 0 0 0 0 0 0 0 0 0 0 0 0 0 0 0 0 0 0 0 0 0 0 0 0 0 0 0 0 0 0 0 0 0 0 0 0 0 0 0 0 0 0 0 0 0 0 0 0 0 0 0 0 0 61 63 64 64 65 65 63 64 63 62 62 60 61 60 63 65 62 64 64 62 62 60 61 62 61 62 59 59 56 55 -193 -193 56 55 54 54 54 55 57 58 60 62 64 67 69 70 71 71 71 69 68 65 61 59 58 57 56 55 -225 -225 -225 -225 -225 -225 -225 -225 -225 -225 -225 -225 -225 -225 -225 -225 -225 -225 -225 -225 -225 -225 -225 -225 -225 -225 -225 -225 -225 -225 -225 -225 -225 -225 -225 -225 -225 -225 -225 -225 -225 -225 -225 -225 -225 -225 -225 -225 -225 -225 -225 -225 -225 -225 -225 -225 -225 -225 -225 -225 -225 -225 -225 -225 -225 -225 -225 -225 -225 -225 -225 -225 -225 -225 -225 -225 -225 -225 -225 -225 -225 -225 -225 -225 -225 66 -209 70 69 69 65 63 61 63 61 60 60 61 61 65 67 68 68 69 69 70 72 71 72 72 72 73 73 74 76 76 77 80 81 85 86 86 87 87 88 88 90 91 94 95 100 101 101 101 102 103 103 104 105 105 104 104 106 106 106 109 107 108 -209 108 -193 109 106 -193 -193 -193 109 114 113 115 116 121 123 121 123 125 126 132 138 146 142 142 146 148 147 148 147 147 144 148 148 147 144 150 151 154 154 156 0 0 0 0 0
    0 0 0 0 0 0 0 0 0 0 0 0 0 0 0 0 0 0 0 0 0 0 0 0 0 0 0 0 0 0 0 0 0 0 0 0 0 0 0 0 0 0 0 0 0 0 0 0 0 0 0 0 0 0 0 0 0 0 0 0 0 0 0 0 0 0 0 0 0 62 64 64 64 66 65 63 64 63 63 63 61 62 60 64 66 64 64 65 62 62 60 62 63 63 64 62 62 60 58 60 -193 57 57 56 57 56 58 61 61 66 69 69 70 71 72 72 71 71 69 68 65 61 61 60 58 -225 -225 -225 -225 -225 -225 -225 -225 -225 -225 -225 -225 -225 -225 -225 -225 -225 -225 -225 -225 -225 -225 -225 -225 -225 -225 -225 -225 -225 -225 -225 -225 -225 -225 -225 -225 -225 -225 -225 -225 -225 -225 -225 -225 -225 -225 -225 -225 -225 -225 -225 -225 -225 -225 -225 -225 -225 -225 -225 -225 -225 -225 -225 -225 -225 -225 -225 -225 -225 -225 -225 -225 -225 -225 -225 -225 -225 -225 -225 -225 -225 -225 -225 -225 -225 -225 -225 -225 -209 69 68 69 66 65 62 64 63 62 63 64 63 66 68 69 69 69 69 70 71 72 72 72 71 72 73 74 76 75 77 80 80 85 86 86 87 87 88 89 89 90 93 94 99 101 101 101 102 103 103 104 105 105 104 105 106 106 106 109 107 108 106 108 109 110 106 -193 92 -193 109 112 111 112 113 119 121 119 122 123 125 132 137 144 141 141 146 147 147 147 148 147 145 148 149 147 146 150 151 154 153 157 0 0 0 0 0
    0 0 0 0 0 0 0 0 0 0 0 0 0 0 0 0 0 0 0 0 0 0 0 0 0 0 0 0 0 0 0 0 0 0 0 0 0 0 0 0 0 0 0 0 0 0 0 0 0 0 0 0 0 0 0 0 0 0 0 0 0 0 0 0 0 0 0 0 0 62 64 64 64 66 65 62 63 64 65 65 63 66 62 65 68 68 67 68 65 64 63 64 66 65 66 64 62 61 59 60 59 57 57 57 58 58 61 67 66 71 73 73 74 75 75 73 72 71 69 68 66 63 62 61 -225 -225 -225 -225 -225 -225 -225 -225 -225 -225 -225 -225 -225 -225 -225 -225 -225 -225 -225 -225 -225 -225 -225 -225 -225 -225 -225 -225 -225 -225 -225 -225 -225 -225 -225 -225 -225 -225 -225 -225 -225 -225 -225 -225 -225 -225 -225 -225 -225 -225 -225 -225 -225 -225 -225 -225 -225 -225 -225 -225 -225 -225 -225 -225 -225 -225 -225 -225 -225 -225 -225 -225 -225 -225 -225 -225 -225 -225 -225 -225 -225 -225 -225 -225 -225 -225 -225 -225 -225 -225 70 70 70 68 67 64 66 65 66 66 66 65 67 68 70 70 70 70 71 72 73 73 73 72 74 74 75 76 76 77 81 81 84 86 86 87 87 88 88 89 90 93 93 98 100 101 101 102 103 103 103 104 105 105 105 106 107 108 111 109 112 109 111 113 119 111 -193 -209 -209 113 114 114 115 114 118 120 119 121 122 125 132 137 142 141 141 146 147 147 147 148 147 146 149 149 147 148 151 152 155 154 159 0 0 0 0 0
    0 0 0 0 0 0 0 0 0 0 0 0 0 0 0 0 0 0 0 0 0 0 0 0 0 0 0 0 0 0 0 0 0 0 0 0 0 0 0 0 0 0 0 0 0 0 0 0 0 0 0 0 0 0 0 0 0 0 0 0 0 0 0 0 0 0 0 0 0 63 66 65 65 66 66 63 64 66 66 66 66 69 65 65 68 67 68 70 69 68 67 67 69 68 68 67 66 65 62 63 62 59 59 59 61 62 67 70 71 74 78 80 80 79 78 76 74 73 70 69 67 65 64 -225 -225 -225 -225 -225 -225 -225 -225 -225 -225 -225 -225 -225 -225 -225 -225 -225 -225 -225 -225 -225 -225 -225 -225 -225 -225 -225 -225 -225 -225 -225 -225 -225 -225 -225 -225 -225 -225 -225 -225 -225 -225 -225 -225 -225 -225 -225 -225 -225 -225 -225 -225 -225 -225 -225 -225 -225 -225 -225 -225 -225 -225 -225 -225 -225 -225 -225 -225 -225 -225 -225 -225 -225 -225 -225 -225 -225 -225 -225 -225 -225 -225 -225 -225 -225 -225 -225 -225 -225 -225 -225 -225 70 70 68 68 65 67 66 67 67 68 67 68 70 71 71 72 71 72 73 73 73 73 72 74 74 74 76 76 77 80 80 84 85 86 86 86 87 88 89 90 93 93 96 98 99 100 101 102 103 103 105 106 107 107 108 109 110 112 112 115 114 117 118 122 121 -193 -193 123 121 119 118 119 116 120 121 119 121 122 125 132 137 142 141 142 147 147 147 148 148 147 147 149 149 147 149 150 151 154 153 158 0 0 0 0 0
    0 0 0 0 0 0 0 0 0 0 0 0 0 0 0 0 0 0 0 0 0 0 0 0 0 0 0 0 0 0 0 0 0 0 0 0 0 0 0 0 0 0 0 0 0 0 0 0 0 0 0 0 0 0 0 0 0 0 0 0 0 0 0 0 0 0 0 0 0 65 67 66 66 67 66 63 64 67 66 67 68 70 68 67 69 68 69 71 -209 -209 -193 -193 -193 71 71 71 70 69 67 67 67 63 64 63 66 67 70 72 73 77 83 85 82 80 78 76 74 73 72 71 69 -225 -225 -225 -225 -225 -225 -225 -225 -225 -225 -225 -225 -225 -225 -225 -225 -225 -225 -225 -225 -225 -225 -225 -225 -225 -225 -225 -225 -225 -225 -225 -225 -225 -225 -225 -225 -225 -225 -225 -225 -225 -225 -225 -225 -225 -225 -225 -225 -225 -225 -225 -225 -225 -225 -225 -225 -225 -225 -225 -225 -225 -225 -225 -225 -225 -225 -225 -225 -225 -225 -225 -225 -225 -225 -225 -225 -225 -225 -225 -225 -225 -225 -225 -225 -225 -225 -225 -225 -225 -225 -225 -225 -225 -225 70 70 68 68 65 68 66 68 68 69 69 70 71 73 73 73 73 73 74 74 74 73 73 74 74 74 76 75 77 79 79 83 84 85 85 86 86 87 89 89 92 92 95 96 97 98 100 102 102 103 105 107 108 108 108 109 109 111 112 115 114 117 118 121 121 121 122 124 122 121 121 121 119 121 121 120 121 122 125 133 139 142 141 142 148 147 148 148 148 147 147 149 149 146 149 149 150 153 152 156 0 0 0 0 0
    0 0 0 0 0 0 0 0 0 0 0 0 0 0 0 0 0 0 0 0 0 0 0 0 0 0 0 0 0 0 0 0 0 0 0 0 0 0 0 0 0 0 0 0 0 0 0 0 0 0 0 0 0 0 0 0 0 0 0 0 0 0 0 0 0 0 0 0 0 67 68 66 66 66 66 63 63 68 68 69 70 71 71 70 72 71 73 74 -209 86 -193 84 77 -193 73 72 71 70 68 68 69 67 69 68 70 70 73 76 79 81 85 85 82 80 79 77 75 74 73 72 -225 -225 -225 -225 -225 -225 -225 -225 -225 -225 -225 -225 -225 -225 -225 -225 -225 -225 -225 -225 -225 -225 -225 -225 -225 -225 -225 -225 -225 -225 -225 -225 -225 -225 -225 -225 -225 -225 -225 -225 -225 -225 -225 -225 -225 -225 -225 -225 -225 -225 -225 -225 -225 -225 -225 -225 -225 -225 -225 -225 -225 -225 -225 -225 -225 -225 -225 -225 -225 -225 -225 -225 -225 -225 -225 -225 -225 -225 -225 -225 -225 -225 -225 -225 -225 -225 -225 -225 -225 -225 -225 -225 -225 -225 -225 69 70 67 67 65 68 66 68 69 69 69 70 71 73 73 74 74 74 75 75 75 75 74 75 75 75 76 76 77 78 78 82 83 84 85 85 86 87 89 90 92 92 94 95 96 98 99 101 102 -209 -193 107 107 108 107 108 109 110 110 113 112 116 118 121 121 121 123 124 123 122 122 122 121 122 122 121 122 122 127 134 141 144 142 144 148 148 148 148 148 147 147 149 148 145 149 148 149 152 152 155 0 0 0 0 0
    0 0 0 0 0 0 0 0 0 0 0 0 0 0 0 0 0 0 0 0 0 0 0 0 0 0 0 0 0 0 0 0 0 0 0 0 0 0 0 0 0 0 0 0 0 0 0 0 0 0 0 0 0 0 0 0 0 0 0 0 0 0 0 0 0 0 0 0 0 69 69 67 66 65 66 63 63 69 69 70 72 72 72 72 73 72 74 75 77 87 -193 84 77 73 74 72 72 71 70 70 71 70 71 71 72 74 85 88 88 85 87 87 84 82 80 78 77 77 -225 -225 -225 -225 -225 -225 -225 -225 -225 -225 -225 -225 -225 -225 -225 -225 -225 -225 -225 -225 -225 -225 -225 -225 -225 -225 -225 -225 -225 -225 -225 -225 -225 -225 -225 -225 -225 -225 -225 -225 -225 -225 -225 -225 -225 -225 -225 -225 -225 -225 -225 -225 -225 -225 -225 -225 -225 -225 -225 -225 -225 -225 -225 -225 -225 -225 -225 -225 -225 -225 -225 -225 -225 -225 -225 -225 -225 -225 -225 -225 -225 -225 -225 -225 -225 -225 -225 -225 -225 -225 -225 -225 -225 -225 -225 -225 -225 -225 70 66 66 64 68 66 68 69 70 69 72 72 73 74 75 75 75 76 77 76 76 75 75 76 76 77 77 77 78 78 81 82 83 85 86 86 88 89 90 92 92 94 96 97 98 99 100 101 103 105 106 107 107 107 107 108 110 110 113 112 115 118 121 121 122 123 125 124 123 123 123 122 123 123 122 122 123 129 135 140 142 142 144 148 147 148 148 148 147 148 149 148 144 148 147 149 151 152 154 0 0 0 0 0
    0 0 0 0 0 0 0 0 0 0 0 0 0 0 0 0 0 0 0 0 0 0 0 0 0 0 0 0 0 0 0 0 0 0 0 0 0 0 0 0 0 0 0 0 0 0 0 0 0 0 0 0 0 0 0 0 0 0 0 0 0 0 0 0 0 0 0 0 0 70 69 68 67 66 67 65 63 -193 -209 70 71 71 71 71 71 71 -193 -193 -193 79 84 75 -193 72 73 72 72 71 72 72 73 72 74 75 82 87 89 90 89 87 88 87 85 83 82 80 79 -225 -225 -225 -225 -225 -225 -225 -225 -225 -225 -225 -225 -225 -225 -225 -225 -225 -225 -225 -225 -225 -225 -225 -225 -225 -225 -225 -225 -225 -225 -225 -225 -225 -225 -225 -225 -225 -225 -225 -225 -225 -225 -225 -225 -225 -225 -225 -225 -225 -225 -225 -225 -225 -225 -225 -225 -225 -225 -225 -225 -225 -225 -225 -225 -225 -225 -225 -225 -225 -225 -225 -225 -225 -225 -225 -225 -225 -225 -225 -225 -225 -225 -225 -225 -225 -225 -225 -225 -225 -225 -225 -225 -225 -225 -225 -225 -225 -225 -225 67 63 62 61 67 65 69 69 70 70 72 73 74 76 76 76 76 77 78 76 77 76 76 77 78 79 79 78 80 79 83 83 83 85 85 86 87 89 89 91 91 92 94 95 97 98 100 101 102 104 106 107 107 107 107 109 110 110 113 112 115 118 121 122 122 123 125 124 123 124 124 123 125 126 124 123 125 131 134 139 142 141 143 148 147 148 148 148 147 147 148 148 144 147 146 147 149 150 151 0 0 0 0 0
    0 0 0 0 0 0 0 0 0 0 0 0 0 0 0 0 0 0 0 0 0 0 0 0 0 0 0 0 0 0 0 0 0 0 0 0 0 0 0 0 0 0 0 0 0 0 0 0 0 0 0 0 0 0 0 0 0 0 0 0 0 0 0 0 0 0 0 0 0 71 71 70 -209 -209 -209 -193 -209 -209 -209 70 72 71 71 -193 -193 -193 -209 -193 75 82 84 77 74 73 75 73 75 75 75 75 78 79 83 86 89 91 91 91 90 88 88 87 86 84 84 -225 -225 -225 -225 -225 -225 -225 -225 -225 -225 -225 -225 -225 -225 -225 -225 -225 -225 -225 -225 -225 -225 -225 -225 -225 -225 -225 -225 -225 -225 -225 -225 -225 -225 -225 -225 -225 -225 -225 -225 -225 -225 -225 -225 -225 -225 -225 -225 -225 -225 -225 -225 -225 -225 -225 -225 -225 -225 -225 -225 -225 -225 -225 -225 -225 -225 -225 -225 -225 -225 -225 -225 -225 -225 -225 -225 -225 -225 -225 -225 -225 -225 -225 -225 -225 -225 -225 -225 -225 -225 -225 -225 -225 -225 -225 -225 -225 -225 -225 -225 -225 -225 56 55 57 67 63 69 69 70 71 73 73 74 76 76 75 75 76 77 76 76 75 76 78 80 81 82 80 82 82 84 85 84 85 86 86 88 89 89 90 90 91 93 93 96 96 99 100 102 104 106 107 107 107 107 109 110 111 113 113 115 118 121 122 123 124 126 124 124 124 125 124 126 126 126 125 127 131 133 137 140 140 143 147 147 148 149 149 148 149 149 149 147 148 148 149 150 151 151 0 0 0 0 0
    0 0 0 0 0 0 0 0 0 0 0 0 0 0 0 0 0 0 0 0 0 0 0 0 0 0 0 0 0 0 0 0 0 0 0 0 0 0 0 0 0 0 0 0 0 0 0 0 0 0 0 0 0 0 0 0 0 0 0 0 0 0 0 0 0 0 0 0 0 73 -193 -209 -209 -209 -209 -193 -193 -209 -209 71 73 72 72 -209 -209 -209 -193 -193 79 85 86 81 77 75 78 78 84 85 83 83 87 89 89 91 92 92 92 92 91 89 90 89 88 86 -225 -225 -225 -225 -225 -225 -225 -225 -225 -225 -225 -225 -225 -225 -225 -225 -225 -225 -225 -225 -225 -225 -225 -225 -225 -225 -225 -225 -225 -225 -225 -225 -225 -225 -225 -225 -225 -225 -225 -225 -225 -225 -225 -225 -225 -225 -225 -225 -225 -225 -225 -225 -225 -225 -225 -225 -225 -225 -225 -225 -225 -225 -225 -225 -225 -225 -225 -225 -225 -225 -225 -225 -225 -225 -225 -225 -225 -225 -225 -225 -225 -225 -225 -225 -225 -225 -225 -225 -225 -225 -225 -225 -225 -225 -225 -225 -225 -225 -225 -225 -225 -225 -225 -225 -225 64 68 65 70 70 70 72 73 74 75 76 77 76 77 78 80 78 78 77 78 82 83 84 84 83 84 84 86 86 84 86 86 86 88 89 89 90 90 91 92 93 94 95 98 99 101 103 106 107 107 107 108 109 110 111 113 114 116 119 122 123 124 124 126 124 124 124 125 125 127 127 128 128 129 132 133 137 139 139 142 147 147 148 148 149 148 150 150 150 149 149 149 150 151 151 152 0 0 0 0 0
    0 0 0 0 0 0 0 0 0 0 0 0 0 0 0 0 0 0 0 0 0 0 0 0 0 0 0 0 0 0 0 0 0 0 0 0 0 0 0 0 0 0 0 0 0 0 0 0 0 0 0 0 0 0 0 0 0 0 0 0 0 0 0 0 0 0 0 0 0 73 -193 -209 -209 -209 -209 -209 -193 -209 -209 71 -193 -193 -209 -209 -209 -209 -193 -193 78 83 85 83 80 84 87 88 89 90 88 88 90 91 92 92 93 93 93 93 92 91 91 90 -225 -225 -225 -225 -225 -225 -225 -225 -225 -225 -225 -225 -225 -225 -225 -225 -225 -225 -225 -225 -225 -225 -225 -225 -225 -225 -225 -225 -225 -225 -225 -225 -225 -225 -225 -225 -225 -225 -225 -225 -225 -225 -225 -225 -225 -225 -225 -225 -225 -225 -225 -225 -225 -225 -225 -225 -225 -225 -225 -225 -225 -225 -225 -225 -225 -225 -225 -225 -225 -225 -225 -225 -225 -225 -225 -225 -225 -225 -225 -225 -225 -225 -225 -225 -225 -225 -225 -225 -225 -225 -225 -225 -225 -225 -225 -225 -225 -225 -225 -225 -225 -225 -225 -225 -225 -225 -225 -225 -225 67 70 71 71 73 75 76 77 79 80 79 80 82 84 83 83 82 82 86 86 86 86 84 85 85 87 87 82 86 87 86 88 89 88 90 90 90 91 92 93 94 96 99 101 103 107 108 108 107 108 110 110 111 113 114 117 119 122 123 124 125 127 126 126 127 128 129 131 129 129 130 130 133 133 137 139 139 143 146 146 148 148 148 148 149 150 149 149 149 149 149 151 151 151 0 0 0 0 0
    0 0 0 0 0 0 0 0 0 0 0 0 0 0 0 0 0 0 0 0 0 0 0 0 0 0 0 0 0 0 0 0 0 0 0 0 0 0 0 0 0 0 0 0 0 0 0 0 0 0 0 0 0 0 0 0 0 0 0 0 0 0 0 0 0 0 0 0 0 74 75 -193 75 -209 -193 -209 -209 -209 -209 -209 -209 -209 -209 -209 -193 -209 -193 76 77 84 85 85 87 89 90 91 91 91 90 91 92 92 92 92 94 94 94 95 94 93 93 -225 -225 -225 -225 -225 -225 -225 -225 -225 -225 -225 -225 -225 -225 -225 -225 -225 -225 -225 -225 -225 -225 -225 -225 -225 -225 -225 -225 -225 -225 -225 -225 -225 -225 -225 -225 -225 -225 -225 -225 -225 -225 -225 -225 -225 -225 -225 -225 -225 -225 -225 -225 -225 -225 -225 -225 -225 -225 -225 -225 -225 -225 -225 -225 -225 -225 -225 -225 -225 -225 -225 -225 -225 -225 -225 -225 -225 -225 -225 -225 -225 -225 -225 -225 -225 -225 -225 -225 -225 -225 -225 -225 -225 -225 -225 -225 -225 -225 -225 -225 -225 -225 -225 -225 -225 -225 -225 -225 -225 -225 -225 69 71 70 74 77 79 79 82 81 82 83 85 87 85 86 84 84 88 87 86 86 83 84 83 86 86 79 85 86 85 87 88 88 89 89 89 91 91 93 92 95 98 101 104 108 109 108 108 108 110 110 111 112 111 115 118 121 122 124 124 126 126 127 130 130 131 132 131 130 131 131 134 134 136 138 139 142 145 146 148 148 148 148 149 149 149 148 149 148 149 151 152 150 0 0 0 0 0
    0 0 0 0 0 0 0 0 0 0 0 0 0 0 0 0 0 0 0 0 0 0 0 0 0 0 0 0 0 0 0 0 0 0 0 0 0 0 0 0 0 0 0 0 0 0 0 0 0 0 0 0 0 0 0 0 0 0 0 0 0 0 0 0 0 0 0 0 0 75 77 77 77 -193 76 76 -209 -209 -209 -209 -209 -209 -209 -209 -209 77 83 78 79 85 86 87 89 90 92 93 93 94 93 94 94 94 95 94 95 95 96 97 95 -225 -225 -225 -225 -225 -225 -225 -225 -225 -225 -225 -225 -225 -225 -225 -225 -225 -225 -225 -225 -225 -225 -225 -225 -225 -225 -225 -225 -225 -225 -225 -225 -225 -225 -225 -225 -225 -225 -225 -225 -225 -225 -225 -225 -225 -225 -225 -225 -225 -225 -225 -225 -225 -225 -225 -225 -225 -225 -225 -225 -225 -225 -225 -225 -225 -225 -225 -225 -225 -225 -225 -225 -225 -225 -225 -225 -225 -225 -225 -225 -225 -225 -225 -225 -225 -225 -225 -225 -225 -225 -225 -225 -225 -225 -225 -225 -225 -225 -225 -225 -225 -225 -225 -225 -225 -225 -225 -225 -225 -225 -225 -225 -225 -225 73 71 73 79 79 80 83 81 82 84 85 87 86 86 85 85 89 87 85 86 83 85 85 87 88 86 89 90 89 90 90 90 90 90 90 92 92 93 93 95 99 101 103 107 108 107 106 107 108 108 109 110 109 114 117 120 121 123 123 125 124 127 129 129 130 131 129 129 130 131 133 133 134 136 138 140 143 145 148 149 149 148 150 149 149 149 149 148 149 152 153 151 0 0 0 0 0
    0 0 0 0 0 0 0 0 0 0 0 0 0 0 0 0 0 0 0 0 0 0 0 0 0 0 0 0 0 0 0 0 0 0 0 0 0 0 0 0 0 0 0 0 0 0 0 0 0 0 0 0 0 0 0 0 0 0 0 0 0 0 0 0 0 0 0 0 0 76 78 -193 -193 -209 -193 -193 -209 -209 -209 -209 -209 -193 -209 -209 87 83 86 81 83 87 87 88 89 90 92 94 95 97 95 96 97 97 98 96 97 96 95 97 -225 -225 -225 -225 -225 -225 -225 -225 -225 -225 -225 -225 -225 -225 -225 -225 -225 -225 -225 -225 -225 -225 -225 -225 -225 -225 -225 -225 -225 -225 -225 -225 -225 -225 -225 -225 -225 -225 -225 -225 -225 -225 -225 -225 -225 -225 -225 -225 -225 -225 -225 -225 -225 -225 -225 -225 -225 -225 -225 -225 -225 -225 -225 -225 -225 -225 -225 -225 -225 -225 -225 -225 -225 -225 -225 -225 -225 -225 -225 -225 -225 -225 -225 -225 -225 -225 -225 -225 -225 -225 -225 -225 -225 -225 -225 -225 -225 -225 -225 -225 -225 -225 -225 -225 -225 -225 -225 -225 -225 -225 -225 -225 -225 -225 -225 -225 60 68 78 80 82 85 81 83 86 86 88 87 87 86 85 89 87 85 86 83 85 85 88 89 88 89 91 91 92 92 92 90 91 90 92 92 93 93 96 99 101 102 106 107 106 105 106 106 107 108 109 109 114 117 120 121 123 123 124 123 126 127 127 129 129 127 128 130 131 132 133 134 135 137 139 141 143 148 149 150 149 150 149 149 150 150 149 150 151 153 151 0 0 0 0 0
    0 0 0 0 0 0 0 0 0 0 0 0 0 0 0 0 0 0 0 0 0 0 0 0 0 0 0 0 0 0 0 0 0 0 0 0 0 0 0 0 0 0 0 0 0 0 0 0 0 0 0 0 0 0 0 0 0 0 0 0 0 0 0 0 0 0 0 0 0 -193 -193 -193 -193 -193 -193 81 -209 -209 -209 -209 -209 -193 -209 90 90 88 88 85 85 88 88 88 90 90 92 94 95 96 95 97 97 97 97 97 98 97 -225 -225 -225 -225 -225 -225 -225 -225 -225 -225 -225 -225 -225 -225 -225 -225 -225 -225 -225 -225 -225 -225 -225 -225 -225 -225 -225 -225 -225 -225 -225 -225 -225 -225 -225 -225 -225 -225 -225 -225 -225 -225 -225 -225 -225 -225 -225 -225 -225 -225 -225 -225 -225 -225 -225 -225 -225 -225 -225 -225 -225 -225 -225 -225 -225 -225 -225 -225 -225 -225 -225 -225 -225 -225 -225 -225 -225 -225 -225 -225 -225 -225 -225 -225 -225 -225 -225 -225 -225 -225 -225 -225 -225 -225 -225 -225 -225 -225 -225 -225 -225 -225 -225 -225 -225 -225 -225 -225 -225 -225 -225 -225 -225 -225 -225 -225 -225 -225 -225 69 77 81 83 86 80 83 87 87 89 87 87 87 86 89 89 86 87 85 87 87 89 90 89 90 92 93 94 93 93 91 92 91 92 92 93 92 97 100 101 102 105 105 105 105 106 106 107 108 109 109 115 117 120 121 122 -193 123 122 125 125 125 126 127 125 126 128 130 132 132 132 133 136 138 140 142 148 149 150 149 150 150 150 151 151 150 151 152 153 152 0 0 0 0 0
    0 0 0 0 0 0 0 0 0 0 0 0 0 0 0 0 0 0 0 0 0 0 0 0 0 0 0 0 0 0 0 0 0 0 0 0 0 0 0 0 0 0 0 0 0 0 0 0 0 0 0 0 0 0 0 0 0 0 0 0 0 0 0 0 0 0 0 0 0 -193 -193 -193 80 80 79 82 -193 -193 -209 -209 -209 -193 -193 93 92 91 90 88 88 90 90 90 91 92 94 95 95 97 96 98 96 97 97 95 96 -225 -225 -225 -225 -225 -225 -225 -225 -225 -225 -225 -225 -225 -225 -225 -225 -225 -225 -225 -225 -225 -225 -225 -225 -225 -225 -225 -225 -225 -225 -225 -225 -225 -225 -225 -225 -225 -225 -225 -225 -225 -225 -225 -225 -225 -225 -225 -225 -225 -225 -225 -225 -225 -225 -225 -225 -225 -225 -225 -225 -225 -225 -225 -225 -225 -225 -225 -225 -225 -225 -225 -225 -225 -225 -225 -225 -225 -225 -225 -225 -225 -225 -225 -225 -225 -225 -225 -225 -225 -225 -225 -225 -225 -225 -225 -225 -225 -225 -225 -225 -225 -225 -225 -225 -225 -225 -225 -225 -225 -225 -225 -225 -225 -225 -225 -225 -225 -225 -225 -225 -225 75 78 82 84 78 83 88 87 90 88 88 88 88 90 90 88 89 89 89 89 91 91 91 91 93 93 94 93 93 92 93 91 92 92 93 91 96 98 98 100 102 103 103 102 104 104 105 107 107 108 114 116 119 120 121 -193 -193 122 124 124 124 125 125 123 125 126 129 131 130 131 132 135 137 140 141 147 148 150 150 150 151 151 152 151 151 151 152 153 152 0 0 0 0 0</data></disparity>
</opencv_storage>
