<?xml version="1.0"?>
<opencv_storage>
<gps_time_stamp>300325</gps_time_stamp>
<gps_x>-1.2384763717651367e+001</gps_x>
<gps_y>1.0979822158813477e+001</gps_y>
<gps_z>-2.0350468158721924e+000</gps_z>
<image_time_stamp>291156</image_time_stamp>
<disparity type_id="opencv-matrix">
  <rows>91</rows>
  <cols>320</cols>
  <dt>s</dt>
  <data>
    0 0 0 0 0 0 0 0 0 0 0 0 0 0 0 0 0 0 0 0 0 0 0 0 0 0 0 0 0 0 0 0 0 0 0 0 0 0 0 0 0 0 0 0 0 0 0 0 0 0 0 0 0 0 0 0 0 0 0 0 0 0 0 0 0 0 0 0 0 67 68 67 66 66 65 65 62 64 63 58 57 58 57 57 56 57 56 54 55 55 54 53 52 52 52 49 49 48 47 47 46 47 45 44 44 43 42 42 41 40 37 38 37 37 36 37 35 36 35 35 34 33 32 32 31 30 29 27 27 25 24 23 23 23 22 22 22 21 21 20 20 22 18 20 15 15 17 19 19 16 -225 -225 -225 -225 -225 -225 -225 -225 -225 -225 -225 -225 -225 -225 -225 -225 -225 -225 -225 -225 -225 -225 -225 -225 -225 -225 -225 -225 -225 -225 -225 -225 -225 -225 -225 -225 -225 -225 -225 -225 -225 -225 -225 -225 -225 -225 -225 -225 -225 36 35 35 35 35 36 36 35 35 35 35 37 40 41 41 47 45 50 46 49 49 48 48 49 50 49 49 49 50 51 54 -193 -193 -209 58 60 62 68 63 62 66 65 66 69 69 69 68 71 71 70 72 73 72 72 74 74 76 78 78 80 78 79 81 82 84 83 86 88 91 96 97 98 97 97 96 97 95 100 101 100 101 103 104 106 106 106 106 105 106 106 106 106 108 116 117 117 118 -193 -193 -193 -193 -193 -193 121 122 122 122 122 123 125 124 123 129 129 129 131 0 0 0 0 0
    0 0 0 0 0 0 0 0 0 0 0 0 0 0 0 0 0 0 0 0 0 0 0 0 0 0 0 0 0 0 0 0 0 0 0 0 0 0 0 0 0 0 0 0 0 0 0 0 0 0 0 0 0 0 0 0 0 0 0 0 0 0 0 0 0 0 0 0 0 66 67 66 66 66 66 65 62 65 64 59 58 59 58 58 57 57 56 54 55 55 54 54 53 52 52 49 50 48 47 48 46 47 46 44 44 43 42 42 41 40 37 38 37 37 37 36 36 36 35 35 33 32 32 32 30 29 29 27 27 25 24 24 23 23 22 22 22 21 21 21 20 23 18 21 17 16 17 18 18 17 -225 -225 -225 -225 -225 -225 -225 -225 -225 -225 -225 -225 -225 -225 -225 -225 -225 -225 -225 -225 -225 -225 -225 -225 -225 -225 -225 -225 -225 -225 -225 -225 -225 -225 -225 -225 -225 -225 -225 -225 -225 -225 -225 -225 -225 -225 -225 -225 -225 36 34 36 35 36 36 36 36 35 35 37 38 41 42 41 48 45 49 47 49 50 48 48 49 50 49 50 49 50 51 54 54 54 -209 58 60 62 68 63 63 67 67 67 70 70 69 68 70 71 70 71 72 71 71 74 74 76 78 79 80 79 82 83 85 87 86 88 91 93 97 98 98 97 97 96 97 95 99 102 100 101 103 105 106 107 106 106 106 107 107 107 106 109 115 118 118 118 120 -193 122 122 122 122 122 122 123 123 122 123 125 124 124 128 130 130 132 0 0 0 0 0
    0 0 0 0 0 0 0 0 0 0 0 0 0 0 0 0 0 0 0 0 0 0 0 0 0 0 0 0 0 0 0 0 0 0 0 0 0 0 0 0 0 0 0 0 0 0 0 0 0 0 0 0 0 0 0 0 0 0 0 0 0 0 0 0 0 0 0 0 0 65 67 66 65 67 67 66 62 64 62 58 57 58 57 57 56 56 56 54 55 54 54 53 53 52 52 49 50 47 47 47 46 47 45 44 44 43 42 42 41 40 38 39 37 37 37 36 36 36 34 34 33 32 31 31 30 29 29 28 27 25 25 24 22 23 22 22 22 21 21 21 20 23 18 20 17 15 16 17 17 17 -225 -225 -225 -225 -225 -225 -225 -225 -225 -225 -225 -225 -225 -225 -225 -225 -225 -225 -225 -225 -225 -225 -225 -225 -225 -225 -225 -225 -225 -225 -225 -225 -225 -225 -225 -225 -225 -225 -225 -225 -225 -225 -225 -225 -225 -225 -225 -225 -225 35 34 35 35 36 35 36 35 35 36 38 39 42 43 43 50 46 49 47 48 50 48 49 49 50 49 50 49 50 50 54 54 54 -193 58 59 61 67 63 64 67 68 68 70 70 70 69 70 71 70 70 71 69 68 73 73 75 77 77 78 81 83 84 85 87 86 89 90 93 96 98 98 98 98 97 97 97 100 102 100 101 103 106 106 107 107 107 106 108 108 108 106 109 114 118 118 118 -193 123 123 122 123 123 124 123 123 123 122 124 126 125 124 128 131 130 132 0 0 0 0 0
    0 0 0 0 0 0 0 0 0 0 0 0 0 0 0 0 0 0 0 0 0 0 0 0 0 0 0 0 0 0 0 0 0 0 0 0 0 0 0 0 0 0 0 0 0 0 0 0 0 0 0 0 0 0 0 0 0 0 0 0 0 0 0 0 0 0 0 0 0 65 66 66 64 66 67 65 63 62 61 58 56 57 56 56 55 55 55 53 55 54 53 53 53 52 52 49 50 47 47 47 46 47 45 44 44 42 42 42 40 40 38 39 37 37 37 36 34 35 32 33 32 31 30 30 29 29 28 28 27 26 25 25 22 23 22 22 22 21 21 21 20 23 18 20 16 14 16 16 16 16 -225 -225 -225 -225 -225 -225 -225 -225 -225 -225 -225 -225 -225 -225 -225 -225 -225 -225 -225 -225 -225 -225 -225 -225 -225 -225 -225 -225 -225 -225 -225 -225 -225 -225 -225 -225 -225 -225 -225 -225 -225 -225 -225 -225 -225 -225 -225 -225 36 34 35 35 35 35 35 35 35 35 37 38 39 43 44 44 49 46 49 48 48 50 49 49 50 50 50 51 49 51 51 54 54 54 53 58 59 61 66 63 63 67 68 69 70 71 70 69 70 -193 71 70 71 70 67 73 74 75 77 75 78 80 82 83 85 86 85 87 87 91 93 97 98 98 98 97 98 97 99 102 100 100 103 107 107 108 107 107 107 109 109 109 107 110 114 119 119 119 120 125 123 123 123 124 125 124 124 124 123 124 126 125 125 127 132 131 132 0 0 0 0 0
    0 0 0 0 0 0 0 0 0 0 0 0 0 0 0 0 0 0 0 0 0 0 0 0 0 0 0 0 0 0 0 0 0 0 0 0 0 0 0 0 0 0 0 0 0 0 0 0 0 0 0 0 0 0 0 0 0 0 0 0 0 0 0 0 0 0 0 0 0 64 65 65 64 64 66 65 63 61 61 59 56 58 56 56 56 55 55 54 55 54 53 53 53 52 52 50 50 48 48 48 46 47 45 44 43 42 42 42 40 40 38 38 37 37 36 36 34 36 31 33 32 31 30 30 29 29 28 28 28 26 25 25 22 23 22 23 23 21 21 21 20 23 19 19 16 13 15 15 15 15 -225 -225 -225 -225 -225 -225 -225 -225 -225 -225 -225 -225 -225 -225 -225 -225 -225 -225 -225 -225 -225 -225 -225 -225 -225 -225 -225 -225 -225 -225 -225 -225 -225 -225 -225 -225 -225 -225 -225 -225 -225 -225 -225 -225 -225 -225 -225 -225 35 33 35 35 35 35 34 35 36 36 38 38 39 43 44 44 49 46 48 48 48 50 49 49 50 50 50 50 49 51 51 53 54 54 53 58 59 61 65 64 64 67 69 69 69 71 70 69 70 -193 72 70 71 70 67 74 75 76 76 76 78 80 81 82 84 85 84 85 85 87 -193 93 96 95 95 96 96 96 98 102 98 99 102 107 107 109 108 108 107 110 111 110 108 112 114 120 120 120 120 126 124 124 124 125 127 125 125 125 123 125 127 126 126 127 132 131 132 0 0 0 0 0
    0 0 0 0 0 0 0 0 0 0 0 0 0 0 0 0 0 0 0 0 0 0 0 0 0 0 0 0 0 0 0 0 0 0 0 0 0 0 0 0 0 0 0 0 0 0 0 0 0 0 0 0 0 0 0 0 0 0 0 0 0 0 0 0 0 0 0 0 0 64 65 64 63 63 65 65 63 62 62 60 57 59 57 57 56 56 56 54 55 54 53 53 53 53 53 50 51 48 48 48 46 47 45 44 44 43 42 42 40 40 38 38 37 37 37 36 34 37 31 34 32 31 30 30 29 29 28 28 28 26 26 25 22 23 23 23 23 21 21 21 20 23 19 19 16 12 14 15 15 15 -225 -225 -225 -225 -225 -225 -225 -225 -225 -225 -225 -225 -225 -225 -225 -225 -225 -225 -225 -225 -225 -225 -225 -225 -225 -225 -225 -225 -225 -225 -225 -225 -225 -225 -225 -225 -225 -225 -225 -225 -225 -225 -225 -225 -225 -225 -225 36 35 34 35 35 34 35 34 35 36 37 38 38 40 43 45 44 49 46 48 49 48 50 49 48 49 49 49 50 48 51 51 53 54 54 54 58 59 61 64 64 64 67 69 69 69 71 70 69 69 -193 71 68 70 70 65 74 76 77 77 76 79 83 83 83 84 85 84 84 84 86 87 91 93 94 95 95 96 96 96 101 96 97 101 107 107 109 108 108 108 110 112 112 108 112 114 120 120 120 120 127 124 124 125 125 128 126 126 126 123 126 128 127 126 126 133 131 132 0 0 0 0 0
    0 0 0 0 0 0 0 0 0 0 0 0 0 0 0 0 0 0 0 0 0 0 0 0 0 0 0 0 0 0 0 0 0 0 0 0 0 0 0 0 0 0 0 0 0 0 0 0 0 0 0 0 0 0 0 0 0 0 0 0 0 0 0 0 0 0 0 0 0 64 65 64 63 63 65 65 63 61 62 61 58 59 57 57 56 56 56 54 55 53 53 53 53 53 53 50 51 48 48 49 46 47 46 44 44 43 42 43 40 40 38 38 37 37 37 36 35 36 31 34 33 31 30 31 29 29 29 29 29 27 26 26 22 23 23 23 23 21 22 21 20 23 20 19 16 12 13 14 14 14 -225 -225 -225 -225 -225 -225 -225 -225 -225 -225 -225 -225 -225 -225 -225 -225 -225 -225 -225 -225 -225 -225 -225 -225 -225 -225 -225 -225 -225 -225 -225 -225 -225 -225 -225 -225 -225 -225 -225 -225 -225 -225 -225 -225 -225 -225 -225 35 33 34 35 35 34 34 35 36 37 37 38 39 40 42 44 44 48 45 47 48 47 49 49 48 49 49 49 50 48 51 51 52 53 54 54 58 59 61 64 65 65 67 69 68 69 71 69 68 68 70 70 66 69 69 64 74 76 77 77 76 79 82 82 84 84 86 84 85 85 87 87 90 91 92 93 94 95 96 95 101 96 97 101 108 107 109 108 108 108 111 113 113 109 113 114 121 120 120 120 128 124 124 125 125 128 126 127 127 124 126 128 127 127 126 133 130 131 0 0 0 0 0
    0 0 0 0 0 0 0 0 0 0 0 0 0 0 0 0 0 0 0 0 0 0 0 0 0 0 0 0 0 0 0 0 0 0 0 0 0 0 0 0 0 0 0 0 0 0 0 0 0 0 0 0 0 0 0 0 0 0 0 0 0 0 0 0 0 0 0 0 0 64 64 64 63 62 65 64 63 60 60 59 56 58 57 56 56 56 56 55 55 54 53 53 53 53 53 51 51 48 48 49 47 47 46 45 44 43 43 43 41 41 39 39 37 38 37 37 35 36 31 34 33 32 30 32 30 29 29 30 30 27 27 27 22 23 23 23 24 22 22 22 20 24 20 18 16 11 12 13 13 13 -225 -225 -225 -225 -225 -225 -225 -225 -225 -225 -225 -225 -225 -225 -225 -225 -225 -225 -225 -225 -225 -225 -225 -225 -225 -225 -225 -225 -225 -225 -225 -225 -225 -225 -225 -225 -225 -225 -225 -225 -225 -225 -225 -225 -225 -225 35 34 33 33 35 35 34 34 35 37 37 38 39 40 41 43 45 44 47 46 47 49 47 49 49 48 49 50 49 50 49 51 51 52 54 55 55 59 60 61 63 66 65 67 69 68 68 70 68 67 66 69 68 64 68 68 63 74 76 77 77 76 79 81 81 83 83 85 83 83 84 86 87 89 89 90 91 93 93 95 95 102 96 97 101 108 107 109 108 108 108 111 113 113 109 113 114 120 120 120 120 127 124 124 124 125 128 126 127 127 124 127 129 128 127 126 133 130 131 0 0 0 0 0
    0 0 0 0 0 0 0 0 0 0 0 0 0 0 0 0 0 0 0 0 0 0 0 0 0 0 0 0 0 0 0 0 0 0 0 0 0 0 0 0 0 0 0 0 0 0 0 0 0 0 0 0 0 0 0 0 0 0 0 0 0 0 0 0 0 0 0 0 0 64 64 63 63 62 64 64 63 60 60 58 56 57 56 56 55 55 56 54 55 54 53 53 53 53 53 51 51 49 49 50 47 48 46 45 45 44 43 43 41 41 39 39 38 38 37 37 35 36 31 34 32 32 30 32 30 29 29 30 30 27 27 27 22 23 24 24 24 22 22 22 20 24 21 17 15 11 11 12 12 12 -225 -225 -225 -225 -225 -225 -225 -225 -225 -225 -225 -225 -225 -225 -225 -225 -225 -225 -225 -225 -225 -225 -225 -225 -225 -225 -225 -225 -225 -225 -225 -225 -225 -225 -225 -225 -225 -225 -225 -225 -225 -225 -225 -225 -225 -225 35 33 33 33 35 34 34 33 35 37 38 38 39 40 41 42 45 44 46 46 46 48 47 48 50 47 49 50 49 51 49 52 52 52 54 55 55 58 59 60 62 66 65 66 69 67 67 70 67 67 64 68 68 64 68 68 62 74 76 77 77 77 79 82 82 83 83 84 82 83 84 85 86 87 88 89 89 91 93 95 95 102 97 97 102 109 107 109 108 108 108 111 113 113 109 113 113 120 119 119 120 127 123 123 124 124 128 126 128 127 124 127 129 128 128 125 133 129 130 0 0 0 0 0
    0 0 0 0 0 0 0 0 0 0 0 0 0 0 0 0 0 0 0 0 0 0 0 0 0 0 0 0 0 0 0 0 0 0 0 0 0 0 0 0 0 0 0 0 0 0 0 0 0 0 0 0 0 0 0 0 0 0 0 0 0 0 0 0 0 0 0 0 0 64 64 63 62 62 64 64 63 60 60 58 56 57 56 55 55 55 55 54 55 53 53 53 53 53 53 51 51 49 50 51 48 48 47 45 45 44 43 44 41 42 40 40 38 38 38 37 36 36 31 34 31 32 30 32 29 29 29 30 30 27 27 27 22 22 24 24 24 22 22 22 20 24 21 15 15 11 10 11 11 11 -225 -225 -225 -225 -225 -225 -225 -225 -225 -225 -225 -225 -225 -225 -225 -225 -225 -225 -225 -225 -225 -225 -225 -225 -225 -225 -225 -225 -225 -225 -225 -225 -225 -225 -225 -225 -225 -225 -225 -225 -225 -225 -225 -225 -225 -225 34 32 33 33 35 33 33 32 35 37 38 38 40 40 41 42 45 44 46 46 46 48 47 48 50 47 49 50 49 51 49 52 52 52 55 55 55 58 59 60 61 66 64 65 69 67 66 69 67 67 64 68 68 64 68 68 63 74 76 76 76 76 78 82 83 83 84 85 84 85 86 87 88 89 90 90 90 92 94 98 97 102 97 98 102 109 107 109 108 108 108 111 113 113 108 111 112 119 118 118 119 126 122 122 123 123 127 126 127 127 124 127 129 129 128 125 133 129 129 0 0 0 0 0
    0 0 0 0 0 0 0 0 0 0 0 0 0 0 0 0 0 0 0 0 0 0 0 0 0 0 0 0 0 0 0 0 0 0 0 0 0 0 0 0 0 0 0 0 0 0 0 0 0 0 0 0 0 0 0 0 0 0 0 0 0 0 0 0 0 0 0 0 0 65 64 63 62 62 64 64 64 60 60 58 56 56 56 55 55 54 55 54 55 53 53 53 54 53 54 51 52 50 51 51 48 48 46 45 45 44 43 43 41 42 40 40 38 38 38 37 36 36 32 34 32 33 30 32 30 29 29 30 30 28 27 27 22 22 24 24 24 22 21 21 20 24 20 14 14 11 9 9 9 9 -225 -225 -225 -225 -225 -225 -225 -225 -225 -225 -225 -225 -225 -225 -225 -225 -225 -225 -225 -225 -225 -225 -225 -225 -225 -225 -225 -225 -225 -225 -225 -225 -225 -225 -225 -225 -225 -225 -225 -225 -225 -225 -225 -225 -225 34 33 32 33 32 34 32 31 31 35 37 37 38 39 39 40 41 44 43 44 46 45 48 46 48 50 47 49 50 49 51 49 53 53 52 55 55 55 58 58 59 59 66 62 64 68 65 65 68 67 66 64 68 68 64 69 69 65 74 76 77 77 76 78 81 81 83 82 83 82 84 85 86 87 88 88 89 89 93 94 97 97 102 98 98 102 110 107 109 108 108 108 110 112 112 107 109 110 118 117 117 119 124 121 121 121 121 126 125 126 126 124 127 129 129 128 125 132 128 128 0 0 0 0 0
    0 0 0 0 0 0 0 0 0 0 0 0 0 0 0 0 0 0 0 0 0 0 0 0 0 0 0 0 0 0 0 0 0 0 0 0 0 0 0 0 0 0 0 0 0 0 0 0 0 0 0 0 0 0 0 0 0 0 0 0 0 0 0 0 0 0 0 0 0 65 64 63 62 61 64 64 64 60 60 59 57 57 57 57 56 56 -193 55 56 54 54 54 54 54 54 52 52 50 51 52 48 49 46 44 45 44 43 43 41 41 40 40 38 38 38 37 35 36 32 35 32 34 31 32 31 29 29 30 30 28 27 27 22 23 25 24 24 23 22 22 20 24 20 13 13 10 0 0 0 0 -225 -225 -225 -225 -225 -225 -225 -225 -225 -225 -225 -225 -225 -225 -225 -225 -225 -225 -225 -225 -225 -225 -225 -225 -225 -225 -225 -225 -225 -225 -225 -225 -225 -225 -225 -225 -225 -225 -225 -225 -225 -225 -225 -225 -225 33 31 33 32 32 33 32 31 31 35 36 37 38 39 39 40 41 44 43 44 46 45 48 47 47 49 47 49 50 48 51 49 53 54 52 55 56 56 58 59 59 59 66 62 64 68 65 64 68 66 66 64 68 68 64 70 71 68 74 76 78 77 76 79 82 82 83 83 84 82 84 85 86 87 88 88 89 89 92 94 96 97 103 99 101 103 110 108 109 108 108 108 110 111 111 107 108 108 118 116 116 118 122 119 120 120 120 124 124 125 126 124 126 129 129 128 124 132 128 128 0 0 0 0 0
    0 0 0 0 0 0 0 0 0 0 0 0 0 0 0 0 0 0 0 0 0 0 0 0 0 0 0 0 0 0 0 0 0 0 0 0 0 0 0 0 0 0 0 0 0 0 0 0 0 0 0 0 0 0 0 0 0 0 0 0 0 0 0 0 0 0 0 0 0 65 64 63 62 62 64 64 64 60 60 60 59 58 59 58 58 57 58 56 56 55 54 54 55 54 55 53 53 51 52 53 49 49 47 45 45 44 43 43 41 42 40 40 39 38 38 37 35 36 33 35 32 35 31 32 31 30 30 30 30 29 27 27 23 23 25 24 24 23 21 22 20 23 20 12 12 10 0 0 0 0 -225 -225 -225 -225 -225 -225 -225 -225 -225 -225 -225 -225 -225 -225 -225 -225 -225 -225 -225 -225 -225 -225 -225 -225 -225 -225 -225 -225 -225 -225 -225 -225 -225 -225 -225 -225 -225 -225 -225 -225 -225 -225 -225 -225 -225 33 31 33 32 32 33 31 30 30 35 36 36 37 38 39 40 40 43 42 43 46 45 48 46 47 49 47 48 49 47 50 48 53 53 51 56 56 56 58 59 58 59 66 62 63 68 64 64 67 67 67 64 68 68 65 71 71 70 73 75 77 76 76 78 82 83 84 84 86 84 85 87 87 87 88 89 89 90 92 94 95 98 103 101 104 105 111 109 109 108 108 108 110 110 110 106 106 -193 117 115 115 116 120 118 119 119 120 123 123 124 125 123 125 128 129 127 124 131 128 128 0 0 0 0 0
    0 0 0 0 0 0 0 0 0 0 0 0 0 0 0 0 0 0 0 0 0 0 0 0 0 0 0 0 0 0 0 0 0 0 0 0 0 0 0 0 0 0 0 0 0 0 0 0 0 0 0 0 0 0 0 0 0 0 0 0 0 0 0 0 0 0 0 0 0 64 64 63 62 62 65 64 65 61 61 60 61 60 61 60 59 57 58 56 56 55 54 54 54 54 55 53 53 51 51 52 50 49 47 45 45 44 43 44 42 42 40 40 39 39 39 37 36 36 33 36 32 34 31 32 32 30 31 30 29 29 27 27 24 23 25 23 23 23 21 21 20 22 18 11 12 10 0 0 0 0 -225 -225 -225 -225 -225 -225 -225 -225 -225 -225 -225 -225 -225 -225 -225 -225 -225 -225 -225 -225 -225 -225 -225 -225 -225 -225 -225 -225 -225 -225 -225 -225 -225 -225 -225 -225 -225 -225 -225 -225 -225 -225 -225 -225 33 31 32 33 33 32 32 31 31 30 36 35 36 37 37 38 39 39 41 41 42 45 44 48 46 46 49 47 48 49 47 50 49 53 53 51 56 56 57 58 58 58 59 67 63 63 67 64 64 67 67 67 65 69 69 66 72 72 73 73 75 76 75 75 77 81 82 84 84 86 84 86 88 88 -193 -193 90 90 91 93 97 98 99 103 102 106 106 110 109 109 108 108 108 109 109 110 106 104 -193 -193 114 114 115 119 117 118 118 119 122 123 124 124 123 125 127 128 127 124 131 128 128 0 0 0 0 0
    0 0 0 0 0 0 0 0 0 0 0 0 0 0 0 0 0 0 0 0 0 0 0 0 0 0 0 0 0 0 0 0 0 0 0 0 0 0 0 0 0 0 0 0 0 0 0 0 0 0 0 0 0 0 0 0 0 0 0 0 0 0 0 0 0 0 0 0 0 64 64 62 61 62 64 64 65 61 62 61 62 60 61 60 59 57 57 55 56 55 54 54 54 54 54 52 53 50 51 51 49 49 47 45 45 44 43 44 42 42 40 40 40 39 39 37 35 35 33 36 32 34 31 32 32 30 31 30 29 29 27 27 25 23 25 23 23 23 21 20 19 20 16 10 11 9 0 0 0 0 -225 -225 -225 -225 -225 -225 -225 -225 -225 -225 -225 -225 -225 -225 -225 -225 -225 -225 -225 -225 -225 -225 -225 -225 -225 -225 -225 -225 -225 -225 -225 -225 -225 -225 -225 -225 -225 -225 -225 -225 -225 -225 -225 -225 32 30 32 33 32 32 31 31 31 30 36 35 36 37 38 38 39 39 41 41 42 45 44 48 46 47 50 48 49 50 48 52 50 54 54 52 56 57 57 59 59 59 60 68 63 64 67 65 65 68 68 68 66 70 70 68 73 74 73 73 74 74 74 -193 75 79 81 83 84 86 85 87 88 -193 -193 90 90 90 92 95 98 99 100 103 103 106 106 109 109 109 108 108 107 108 108 109 105 102 700 -193 113 113 115 119 117 118 118 118 121 -193 123 124 123 125 127 128 126 124 130 129 129 0 0 0 0 0
    0 0 0 0 0 0 0 0 0 0 0 0 0 0 0 0 0 0 0 0 0 0 0 0 0 0 0 0 0 0 0 0 0 0 0 0 0 0 0 0 0 0 0 0 0 0 0 0 0 0 0 0 0 0 0 0 0 0 0 0 0 0 0 0 0 0 0 0 0 64 63 62 61 62 64 64 65 61 63 61 63 61 61 60 59 57 57 55 56 54 54 54 54 54 54 52 53 49 50 51 49 49 46 44 44 44 43 43 42 42 40 40 40 39 39 37 36 36 34 36 32 34 31 31 32 30 31 30 28 29 27 27 24 23 24 22 22 23 21 20 19 19 15 9 9 0 0 0 0 0 -225 -225 -225 -225 -225 -225 -225 -225 -225 -225 -225 -225 -225 -225 -225 -225 -225 -225 -225 -225 -225 -225 -225 -225 -225 -225 -225 -225 -225 -225 -225 -225 -225 -225 -225 -225 -225 -225 -225 -225 -225 -225 -225 31 30 29 31 32 32 31 31 31 31 31 35 34 36 36 37 38 39 39 40 41 41 46 44 48 46 47 50 48 50 50 48 52 50 54 55 53 57 58 58 59 59 59 60 67 63 63 67 66 65 68 69 69 68 72 72 71 74 75 75 73 73 74 74 -193 -193 80 83 84 85 87 85 87 89 88 90 90 90 92 93 95 98 98 100 103 104 106 106 109 109 109 108 108 108 108 107 108 105 102 -193 -193 112 112 114 118 117 118 118 118 121 -193 123 123 123 124 127 128 126 124 131 131 130 0 0 0 0 0
    0 0 0 0 0 0 0 0 0 0 0 0 0 0 0 0 0 0 0 0 0 0 0 0 0 0 0 0 0 0 0 0 0 0 0 0 0 0 0 0 0 0 0 0 0 0 0 0 0 0 0 0 0 0 0 0 0 0 0 0 0 0 0 0 0 0 0 0 0 64 63 62 61 62 64 64 65 61 64 62 63 63 61 60 60 58 58 56 56 54 53 53 53 53 54 52 52 49 50 51 49 49 46 43 44 43 42 43 41 41 40 40 40 40 39 37 36 36 34 36 32 34 31 31 32 31 31 30 28 29 27 27 25 24 24 22 22 23 21 20 19 18 13 0 0 0 0 0 0 0 -225 -225 -225 -225 -225 -225 -225 -225 -225 -225 -225 -225 -225 -225 -225 -225 -225 -225 -225 -225 -225 -225 -225 -225 -225 -225 -225 -225 -225 -225 -225 -225 -225 -225 -225 -225 -225 -225 -225 -225 -225 -225 -225 29 28 28 30 31 31 30 31 31 30 32 35 33 35 35 36 37 37 38 39 39 41 45 44 47 46 47 50 49 50 50 48 52 49 54 54 54 57 58 58 59 59 60 60 67 63 63 67 66 66 68 70 70 -193 73 74 73 74 76 76 72 73 74 74 -193 75 81 84 85 87 87 87 87 89 89 91 90 93 93 94 96 98 99 101 102 103 105 106 108 109 109 108 107 107 107 107 108 105 101 -193 -193 112 112 113 118 117 117 117 118 121 -193 122 123 123 124 126 128 126 123 130 132 131 0 0 0 0 0
    0 0 0 0 0 0 0 0 0 0 0 0 0 0 0 0 0 0 0 0 0 0 0 0 0 0 0 0 0 0 0 0 0 0 0 0 0 0 0 0 0 0 0 0 0 0 0 0 0 0 0 0 0 0 0 0 0 0 0 0 0 0 0 0 0 0 0 0 0 64 63 62 61 62 65 64 65 61 64 61 62 63 61 60 60 59 58 56 56 54 53 53 53 53 53 51 52 49 50 51 49 49 46 43 43 43 42 42 41 41 39 39 39 39 39 37 36 36 34 36 32 34 31 31 33 31 31 30 29 29 27 27 25 24 24 22 22 22 21 19 18 17 12 0 0 0 0 0 0 0 -225 -225 -225 -225 -225 -225 -225 -225 -225 -225 -225 -225 -225 -225 -225 -225 -225 -225 -225 -225 -225 -225 -225 -225 -225 -225 -225 -225 -225 -225 -225 -225 -225 -225 -225 -225 -225 -225 -225 -225 -225 -225 28 28 27 28 30 30 30 30 31 31 30 33 34 32 34 35 35 36 37 37 37 38 40 44 43 47 46 47 49 49 50 50 48 51 49 54 53 54 57 58 58 61 60 61 61 67 63 64 67 67 66 69 71 71 -193 74 75 74 75 77 77 72 73 74 74 72 75 79 81 84 87 88 88 88 90 91 94 92 94 94 95 97 98 98 100 101 103 105 106 107 109 108 108 107 107 106 106 107 105 101 -193 111 113 112 114 118 118 118 118 118 -193 -193 122 123 122 123 125 127 125 123 129 132 131 0 0 0 0 0
    0 0 0 0 0 0 0 0 0 0 0 0 0 0 0 0 0 0 0 0 0 0 0 0 0 0 0 0 0 0 0 0 0 0 0 0 0 0 0 0 0 0 0 0 0 0 0 0 0 0 0 0 0 0 0 0 0 0 0 0 0 0 0 0 0 0 0 0 0 64 63 62 61 63 66 65 66 62 64 61 61 63 60 59 59 58 58 56 56 54 52 53 53 53 53 51 52 48 49 50 49 48 46 43 43 43 42 42 40 40 39 39 39 39 39 37 35 36 35 36 33 35 32 31 33 32 32 30 29 29 27 27 26 24 24 22 22 23 21 19 18 16 12 0 0 0 0 0 0 0 -225 -225 -225 -225 -225 -225 -225 -225 -225 -225 -225 -225 -225 -225 -225 -225 -225 -225 -225 -225 -225 -225 -225 -225 -225 -225 -225 -225 -225 -225 -225 -225 -225 -225 -225 -225 -225 -225 -225 -225 -225 -225 26 26 26 27 28 29 29 30 31 31 31 33 34 32 34 34 34 35 35 36 35 35 39 43 42 47 45 47 49 49 50 50 48 51 49 53 52 53 56 57 58 61 60 61 61 68 64 64 67 67 67 69 72 71 -193 74 75 75 75 77 77 72 74 76 76 74 77 82 86 87 88 89 89 88 91 92 94 92 94 94 95 97 98 98 99 101 103 104 105 106 107 107 106 -193 106 -193 -193 106 106 102 -193 111 114 114 114 118 119 119 119 119 -193 -193 122 123 123 122 124 126 124 123 128 133 131 0 0 0 0 0
    0 0 0 0 0 0 0 0 0 0 0 0 0 0 0 0 0 0 0 0 0 0 0 0 0 0 0 0 0 0 0 0 0 0 0 0 0 0 0 0 0 0 0 0 0 0 0 0 0 0 0 0 0 0 0 0 0 0 0 0 0 0 0 0 0 0 0 0 0 63 63 62 61 64 66 66 66 62 64 60 61 62 59 59 58 58 57 56 56 54 52 52 53 52 53 51 51 48 48 49 48 47 46 43 43 43 42 42 40 40 39 39 39 39 39 37 35 36 35 36 33 35 32 31 33 32 32 31 29 29 27 27 26 24 24 22 22 22 21 19 18 15 11 0 0 0 0 0 0 0 -225 -225 -225 -225 -225 -225 -225 -225 -225 -225 -225 -225 -225 -225 -225 -225 -225 -225 -225 -225 -225 -225 -225 -225 -225 -225 -225 -225 -225 -225 -225 -225 -225 -225 -225 -225 -225 -225 -225 -225 -225 23 25 25 26 26 28 29 29 30 31 31 32 33 34 32 34 34 34 36 35 36 35 34 39 43 43 47 45 48 49 49 50 50 47 51 48 53 51 53 55 56 57 60 60 60 61 68 64 64 67 68 67 70 72 71 -193 74 75 75 74 76 76 69 74 77 77 73 78 84 87 87 88 88 89 90 91 93 94 92 94 95 95 97 98 98 99 101 103 104 104 105 106 106 106 -193 106 -193 105 106 106 -193 -193 111 115 115 115 118 120 120 120 120 -193 122 123 124 123 122 124 126 125 123 127 133 131 0 0 0 0 0
    0 0 0 0 0 0 0 0 0 0 0 0 0 0 0 0 0 0 0 0 0 0 0 0 0 0 0 0 0 0 0 0 0 0 0 0 0 0 0 0 0 0 0 0 0 0 0 0 0 0 0 0 0 0 0 0 0 0 0 0 0 0 0 0 0 0 0 0 0 63 63 62 61 65 67 66 66 63 64 61 61 62 59 58 58 57 57 55 55 54 51 52 52 52 53 51 50 48 48 49 48 47 46 43 43 42 41 41 40 40 39 39 39 39 39 37 35 36 35 35 33 34 32 31 33 32 32 31 29 29 27 28 26 24 23 22 21 21 20 18 17 14 11 0 0 0 0 0 0 0 -225 -225 -225 -225 -225 -225 -225 -225 -225 -225 -225 -225 -225 -225 -225 -225 -225 -225 -225 -225 -225 -225 -225 -225 -225 -225 -225 -225 -225 -225 -225 -225 -225 -225 -225 -225 -225 -225 -225 -225 -225 24 26 26 27 27 29 29 29 30 31 32 32 33 35 32 34 33 33 36 34 34 34 32 38 41 42 46 44 48 50 50 51 50 48 51 50 53 51 53 55 55 57 60 60 60 61 68 64 63 67 68 67 70 72 71 70 74 75 74 73 74 75 66 73 75 76 72 78 82 85 86 87 88 89 90 91 92 93 93 94 95 94 97 98 99 100 101 103 103 103 104 105 105 -193 -193 105 -193 105 106 106 -193 106 111 116 116 116 119 122 121 122 121 123 123 123 124 124 123 124 126 125 124 127 133 131 0 0 0 0 0
    0 0 0 0 0 0 0 0 0 0 0 0 0 0 0 0 0 0 0 0 0 0 0 0 0 0 0 0 0 0 0 0 0 0 0 0 0 0 0 0 0 0 0 0 0 0 0 0 0 0 0 0 0 0 0 0 0 0 0 0 0 0 0 0 0 0 0 0 0 64 63 63 61 66 67 67 67 64 66 61 61 63 59 58 57 57 56 55 55 53 50 52 52 52 52 50 50 48 48 48 48 47 46 43 43 42 41 41 40 40 39 39 39 39 38 37 35 35 34 35 33 34 31 31 33 32 32 31 29 29 27 28 26 24 23 22 22 22 22 18 17 14 11 0 0 0 0 0 0 0 -225 -225 -225 -225 -225 -225 -225 -225 -225 -225 -225 -225 -225 -225 -225 -225 -225 -225 -225 -225 -225 -225 -225 -225 -225 -225 -225 -225 -225 -225 -225 -225 -225 -225 -225 -225 -225 -225 -225 -225 -225 25 25 25 26 27 28 28 28 30 32 33 33 34 35 33 35 34 34 36 34 34 34 33 38 41 41 45 44 48 50 50 51 50 48 51 49 53 51 53 55 55 57 61 61 61 62 68 64 64 66 69 68 69 72 70 69 73 74 73 72 73 73 64 73 77 78 74 79 80 84 86 87 88 89 90 91 92 94 93 94 95 95 97 98 99 100 100 102 102 102 103 104 102 -193 -177 -193 92 105 106 106 -193 106 111 117 117 117 119 123 122 122 122 124 124 124 125 124 123 125 127 126 124 126 134 130 0 0 0 0 0
    0 0 0 0 0 0 0 0 0 0 0 0 0 0 0 0 0 0 0 0 0 0 0 0 0 0 0 0 0 0 0 0 0 0 0 0 0 0 0 0 0 0 0 0 0 0 0 0 0 0 0 0 0 0 0 0 0 0 0 0 0 0 0 0 0 0 0 0 0 64 64 63 62 66 67 67 67 64 66 61 61 62 58 58 57 57 56 54 54 53 50 51 51 51 52 50 50 48 48 48 48 46 46 43 42 42 41 41 40 40 39 39 39 38 38 37 35 35 34 35 33 34 32 32 32 32 32 32 29 29 27 28 26 24 24 23 22 22 23 18 18 15 10 0 0 0 0 0 0 0 -225 -225 -225 -225 -225 -225 -225 -225 -225 -225 -225 -225 -225 -225 -225 -225 -225 -225 -225 -225 -225 0 0 0 0 0 0 0 0 -225 -225 -225 -225 -225 -225 -225 -225 -225 -225 -225 26 24 24 25 25 26 27 27 28 29 32 33 34 34 34 33 35 34 35 37 34 34 34 33 38 41 41 45 44 48 50 50 51 50 48 51 50 53 52 53 55 55 57 61 61 61 61 68 64 64 67 69 68 69 71 70 68 72 73 72 70 72 72 63 73 80 81 77 81 83 87 87 88 89 89 90 91 92 93 92 94 95 95 97 98 98 99 100 102 101 101 102 103 99 -193 -177 -193 89 105 105 105 -193 106 110 118 117 117 119 124 122 122 122 124 124 124 125 125 123 125 127 127 125 126 133 130 0 0 0 0 0
    0 0 0 0 0 0 0 0 0 0 0 0 0 0 0 0 0 0 0 0 0 0 0 0 0 0 0 0 0 0 0 0 0 0 0 0 0 0 0 0 0 0 0 0 0 0 0 0 0 0 0 0 0 0 0 0 0 0 0 0 0 0 0 0 0 0 0 0 0 65 64 63 61 66 67 66 67 64 64 60 60 62 58 58 57 57 55 54 54 52 49 51 51 51 51 50 49 49 48 48 48 46 46 43 42 42 40 40 39 40 39 38 39 38 38 37 35 36 34 35 33 34 32 32 32 32 32 32 29 29 27 28 26 24 24 24 22 22 23 18 18 15 10 0 0 0 0 0 0 0 -225 -225 -225 -225 -225 -225 -225 -225 -225 -225 -225 -225 -225 -225 -225 -225 -225 -225 -225 -225 0 0 0 0 0 0 0 0 0 0 -225 -225 -225 -225 -225 -225 -225 -225 -225 -225 24 23 23 24 25 26 26 27 28 30 33 33 34 33 34 33 34 33 34 36 33 32 32 32 36 40 41 44 43 48 50 49 50 50 47 50 49 51 51 53 55 55 57 60 61 60 61 67 65 64 67 70 68 69 71 69 68 70 71 71 68 71 70 63 74 81 81 78 82 85 86 87 88 89 89 90 91 92 93 92 94 95 95 96 96 97 98 99 102 100 100 101 103 -193 -193 -177 -193 90 102 102 102 -177 106 110 -193 116 116 118 124 122 122 122 123 124 124 125 125 123 125 127 127 126 125 133 129 0 0 0 0 0
    0 0 0 0 0 0 0 0 0 0 0 0 0 0 0 0 0 0 0 0 0 0 0 0 0 0 0 0 0 0 0 0 0 0 0 0 0 0 0 0 0 0 0 0 0 0 0 0 0 0 0 0 0 0 0 0 0 0 0 0 0 0 0 0 0 0 0 0 0 65 64 63 61 65 67 66 66 63 63 60 59 61 58 57 57 56 55 54 53 52 48 50 51 50 51 50 49 49 48 48 48 46 46 43 42 42 40 41 39 40 39 39 39 38 37 37 35 35 34 35 33 34 32 32 33 32 32 33 30 30 27 29 27 25 24 24 22 22 23 19 17 15 11 0 0 0 0 0 0 0 -225 -225 -225 -225 -225 -225 -225 -225 -225 -225 -225 -225 -225 -225 -225 -225 -225 -225 -225 -225 0 0 0 0 0 0 0 0 0 0 0 -225 -225 -225 -225 -225 -225 -225 -225 -225 24 23 23 24 25 25 26 28 28 30 32 32 33 33 34 33 34 33 33 36 33 32 32 31 36 39 40 43 43 47 50 49 50 50 47 50 49 51 51 52 55 54 57 59 60 60 61 67 65 64 67 69 67 68 70 68 66 69 70 69 66 70 69 62 74 79 81 80 82 85 86 87 88 89 89 91 91 92 93 93 94 95 94 96 96 97 98 99 101 100 100 100 102 97 -193 -193 -193 91 99 99 100 -177 106 109 117 116 116 118 123 121 121 122 -193 -193 124 125 125 123 125 127 128 126 125 132 128 0 0 0 0 0
    0 0 0 0 0 0 0 0 0 0 0 0 0 0 0 0 0 0 0 0 0 0 0 0 0 0 0 0 0 0 0 0 0 0 0 0 0 0 0 0 0 0 0 0 0 0 0 0 0 0 0 0 0 0 0 0 0 0 0 0 0 0 0 0 0 0 0 0 0 65 64 64 62 66 66 67 67 64 62 60 59 61 58 57 57 56 54 53 53 51 47 49 50 49 50 50 49 48 47 47 48 46 47 44 42 42 41 41 40 40 40 39 39 38 37 36 35 35 34 34 33 34 32 32 33 32 32 33 30 30 27 28 26 24 24 24 22 22 23 18 17 15 12 10 9 9 10 0 0 0 -225 -225 -225 -225 -225 -225 -225 -225 -225 -225 -225 -225 -225 -225 -225 -225 -225 -225 -225 0 0 0 0 0 0 0 0 0 0 0 0 0 -225 -225 -225 -225 -225 -225 -225 -193 24 24 24 26 25 25 26 28 28 30 32 31 33 32 34 33 34 34 34 36 33 32 34 33 37 40 41 43 43 47 50 49 50 49 47 50 49 50 51 51 54 53 56 58 59 59 60 67 66 65 67 69 67 67 70 67 65 67 68 68 65 68 68 61 73 79 80 80 81 84 86 87 88 89 89 91 91 93 93 93 93 94 93 96 95 96 97 98 101 100 100 101 102 -193 -193 -193 -193 92 98 98 99 91 105 109 117 115 115 118 123 121 121 121 -193 -193 124 125 125 123 125 127 128 127 124 131 128 0 0 0 0 0
    0 0 0 0 0 0 0 0 0 0 0 0 0 0 0 0 0 0 0 0 0 0 0 0 0 0 0 0 0 0 0 0 0 0 0 0 0 0 0 0 0 0 0 0 0 0 0 0 0 0 0 0 0 0 0 0 0 0 0 0 0 0 0 0 0 0 0 0 0 66 65 64 63 67 66 67 67 65 63 60 60 60 58 57 56 56 53 52 52 51 46 47 47 48 49 50 48 48 47 47 47 46 46 44 42 42 41 41 41 40 40 39 39 38 37 36 35 35 34 34 33 34 31 32 32 32 31 32 30 30 27 28 26 25 25 25 23 23 24 19 19 15 14 11 9 10 10 9 9 9 -225 -225 -225 -225 -225 -225 -225 -225 -225 -225 -225 -225 -225 -225 -225 -225 -225 -225 -225 0 9 0 0 0 0 0 0 0 0 0 0 0 0 -225 -225 -225 -225 -225 -225 -193 23 23 24 25 24 25 27 28 29 30 31 31 33 32 34 32 34 34 34 36 34 33 35 35 38 40 40 42 43 46 49 48 49 48 47 50 49 49 51 50 54 53 56 57 59 59 60 66 66 64 66 69 66 66 69 66 65 65 67 67 64 68 68 63 74 78 79 80 80 85 86 87 88 89 89 91 91 92 92 92 92 93 93 96 95 96 98 100 101 100 100 101 102 99 99 -193 96 92 97 98 98 92 104 108 116 114 114 117 122 120 120 -193 -193 344 124 125 126 124 126 128 129 127 125 131 129 0 0 0 0 0
    0 0 0 0 0 0 0 0 0 0 0 0 0 0 0 0 0 0 0 0 0 0 0 0 0 0 0 0 0 0 0 0 0 0 0 0 0 0 0 0 0 0 0 0 0 0 0 0 0 0 0 0 0 0 0 0 0 0 0 0 0 0 0 0 0 0 0 0 0 66 65 65 63 66 65 67 67 64 63 60 60 60 58 57 56 56 53 51 51 50 45 46 45 45 47 49 47 47 47 46 47 46 46 44 42 42 41 41 41 41 40 39 39 38 37 36 35 35 33 33 33 33 31 32 31 31 30 32 30 29 27 27 25 24 24 24 23 23 24 18 18 15 18 12 10 11 11 10 11 11 -225 -225 -225 -225 -225 -225 -225 -225 -225 -225 -225 -225 -225 -225 -225 -225 -225 -225 -225 0 0 0 0 0 0 0 0 0 0 0 0 0 0 -225 -225 -225 -225 -225 23 24 24 24 24 26 24 24 27 28 29 29 30 31 32 32 34 32 34 35 35 37 34 33 36 37 39 41 40 41 43 45 49 48 47 48 47 49 50 49 51 49 54 54 55 56 59 59 60 65 67 65 66 69 66 65 68 66 64 64 67 67 64 68 69 66 74 78 79 78 79 83 85 85 87 88 89 91 91 91 92 91 92 93 93 95 94 95 98 100 101 101 101 101 103 101 100 -193 -193 92 96 96 97 92 103 107 115 112 112 116 120 119 119 -193 -193 345 124 125 125 124 126 128 130 128 125 131 130 0 0 0 0 0
    0 0 0 0 0 0 0 0 0 0 0 0 0 0 0 0 0 0 0 0 0 0 0 0 0 0 0 0 0 0 0 0 0 0 0 0 0 0 0 0 0 0 0 0 0 0 0 0 0 0 0 0 0 0 0 0 0 0 0 0 0 0 0 0 0 0 0 0 0 67 66 65 64 66 64 65 66 63 61 60 59 59 57 57 56 56 53 51 51 50 45 44 42 43 44 47 47 47 47 46 47 45 46 43 42 41 41 41 40 40 40 38 39 38 37 37 35 35 34 33 33 33 31 32 31 31 30 31 30 29 27 27 25 25 24 25 24 24 25 18 19 17 19 14 12 11 12 10 13 13 13 -225 -225 -225 -225 -225 -225 -225 -225 -225 -225 -225 -225 -225 -225 -225 -225 -225 -225 0 0 0 0 0 0 0 0 0 0 0 0 0 0 -225 -225 -225 -225 -225 22 23 23 23 24 26 24 24 28 29 29 29 30 32 32 32 33 31 34 35 36 37 34 34 37 38 39 41 40 40 43 44 48 47 46 47 46 49 50 48 51 48 54 54 55 55 59 59 60 65 68 65 66 69 65 64 68 65 64 63 67 67 65 70 70 69 75 79 79 78 80 83 84 85 87 88 89 90 90 90 91 91 92 92 91 94 93 94 98 99 101 101 102 101 103 102 101 -193 -193 93 95 96 97 92 101 106 113 112 112 115 119 118 118 119 119 344 123 124 125 124 125 128 130 128 125 131 130 0 0 0 0 0
    0 0 0 0 0 0 0 0 0 0 0 0 0 0 0 0 0 0 0 0 0 0 0 0 0 0 0 0 0 0 0 0 0 0 0 0 0 0 0 0 0 0 0 0 0 0 0 0 0 0 0 0 0 0 0 0 0 0 0 0 0 0 0 0 0 0 0 0 0 67 66 64 64 65 63 63 64 61 60 59 59 59 57 57 57 56 54 52 52 50 45 45 41 43 44 46 46 46 46 46 46 45 46 43 42 41 41 40 40 40 39 38 38 38 37 37 35 36 34 33 33 34 31 32 31 31 30 31 29 29 27 27 25 26 24 24 24 24 25 18 19 18 20 16 13 12 13 11 15 15 15 -225 -225 -225 -225 -225 -225 -225 -225 -225 -225 -225 -225 -225 -225 -225 -225 -225 -225 0 0 0 0 0 0 0 0 0 0 0 0 0 0 -225 -225 -225 -225 22 21 21 22 22 23 25 23 24 29 29 29 29 30 32 32 32 33 31 34 36 36 37 34 35 39 41 41 42 40 40 43 44 47 46 45 46 46 48 50 47 51 47 53 53 54 55 59 60 61 65 69 65 65 68 65 64 68 65 64 63 67 68 65 -193 71 70 75 78 78 78 79 83 85 86 87 88 89 90 90 90 91 90 91 90 91 93 92 92 96 98 100 100 101 101 103 103 101 -193 -193 93 95 96 97 93 99 105 112 111 111 113 118 117 117 118 119 344 123 123 124 123 125 127 130 127 124 131 131 0 0 0 0 0
    0 0 0 0 0 0 0 0 0 0 0 0 0 0 0 0 0 0 0 0 0 0 0 0 0 0 0 0 0 0 0 0 0 0 0 0 0 0 0 0 0 0 0 0 0 0 0 0 0 0 0 0 0 0 0 0 0 0 0 0 0 0 0 0 0 0 0 0 0 66 65 64 63 64 62 61 62 60 59 58 58 58 57 57 57 57 55 52 52 51 46 45 41 43 43 46 45 45 45 45 46 44 45 43 42 41 41 40 40 40 39 37 38 37 37 37 36 36 34 34 34 34 31 32 31 31 29 30 29 29 27 27 25 25 23 23 22 22 23 17 18 16 20 17 14 13 13 12 16 16 16 -225 -225 -225 -225 -225 -225 -225 -225 -225 -225 -225 -225 -225 -225 -225 -225 -225 0 0 0 0 0 0 0 0 0 0 0 0 0 0 0 0 -225 -225 -225 21 20 20 21 21 22 24 23 24 29 29 29 29 30 32 31 32 32 30 32 34 34 36 32 35 39 41 41 42 39 40 43 43 46 45 45 46 46 48 50 47 51 47 53 53 53 54 59 60 61 64 69 65 65 68 65 64 68 66 65 63 67 68 66 70 71 71 75 78 78 78 79 84 85 86 87 87 88 89 89 89 89 89 90 90 89 92 91 91 95 97 100 100 101 100 102 103 101 99 -193 94 96 98 98 95 99 105 111 110 110 112 117 116 117 117 118 344 122 122 123 123 124 126 129 127 124 130 132 0 0 0 0 0
    0 0 0 0 0 0 0 0 0 0 0 0 0 0 0 0 0 0 0 0 0 0 0 0 0 0 0 0 0 0 0 0 0 0 0 0 0 0 0 0 0 0 0 0 0 0 0 0 0 0 0 0 0 0 0 0 0 0 0 0 0 0 0 0 0 0 0 0 0 66 65 64 63 63 62 60 61 59 59 58 58 58 57 57 57 57 55 54 53 52 48 47 43 45 45 46 45 45 46 45 46 44 45 43 42 41 41 41 40 40 39 37 38 37 37 36 35 36 34 33 33 33 31 32 30 31 29 30 29 29 27 26 24 25 23 22 22 22 22 17 19 16 21 18 15 14 13 12 16 16 16 -225 -225 -225 -225 -225 -225 -225 -225 -225 -225 -225 -225 -225 -225 -225 -225 -225 0 0 0 0 0 0 0 0 0 0 0 0 0 0 0 0 -225 -225 19 20 19 19 21 21 23 24 23 24 30 30 30 30 30 32 31 32 33 30 31 33 33 36 31 35 39 40 41 42 39 39 42 43 45 45 45 45 46 48 50 47 51 48 51 53 53 53 59 59 61 62 69 64 64 68 65 64 68 66 66 64 68 69 68 71 72 72 75 78 78 78 80 83 84 85 86 86 87 89 88 88 89 88 90 89 89 92 90 91 96 97 100 100 101 101 102 104 102 100 -193 94 97 99 99 97 98 105 112 111 111 112 117 117 117 118 119 345 122 122 123 123 124 126 129 126 124 130 133 0 0 0 0 0
    0 0 0 0 0 0 0 0 0 0 0 0 0 0 0 0 0 0 0 0 0 0 0 0 0 0 0 0 0 0 0 0 0 0 0 0 0 0 0 0 0 0 0 0 0 0 0 0 0 0 0 0 0 0 0 0 0 0 0 0 0 0 0 0 0 0 0 0 0 66 65 64 64 63 62 61 62 60 59 58 58 58 57 57 57 57 56 54 54 53 51 50 46 47 46 45 45 45 46 45 45 44 45 42 42 42 41 41 40 40 39 36 38 37 36 36 34 35 33 32 33 33 31 32 30 31 29 29 28 28 26 26 24 24 22 21 22 21 22 18 19 17 21 18 16 14 13 12 16 16 16 -225 -225 -225 -225 -225 -225 -225 -225 -225 -225 -225 -225 -225 -225 -225 -225 -225 0 0 9 0 0 0 0 0 0 0 0 0 0 0 0 0 12 13 18 19 18 19 21 21 24 25 24 25 32 30 30 30 30 32 31 32 33 29 30 33 33 36 31 37 39 41 41 43 38 39 42 42 44 45 44 45 46 48 50 47 51 48 51 53 53 53 59 60 61 62 69 64 64 68 66 64 68 66 66 65 69 69 68 71 72 72 75 78 79 78 79 83 84 85 85 85 86 87 86 86 87 86 88 89 88 92 91 92 96 97 100 100 101 101 102 104 102 -193 -193 95 97 99 100 98 95 105 112 112 112 112 117 118 118 118 119 345 122 123 124 124 123 125 128 126 124 129 133 0 0 0 0 0
    0 0 0 0 0 0 0 0 0 0 0 0 0 0 0 0 0 0 0 0 0 0 0 0 0 0 0 0 0 0 0 0 0 0 0 0 0 0 0 0 0 0 0 0 0 0 0 0 0 0 0 0 0 0 0 0 0 0 0 0 0 0 0 0 0 0 0 0 0 66 66 65 65 64 63 61 62 61 60 58 58 58 57 57 57 57 56 54 55 54 52 50 47 49 48 45 45 44 45 45 44 43 44 42 42 41 41 40 39 39 39 36 37 36 36 36 34 35 33 32 33 33 31 32 29 31 28 29 28 27 26 25 24 24 21 21 21 20 21 17 19 15 21 18 15 14 14 13 16 16 16 -225 -225 -225 -225 -225 -225 -225 -225 -225 -225 -225 -225 -225 -225 -225 -225 -225 0 0 10 0 0 0 0 0 0 9 9 0 9 0 0 9 13 14 19 18 18 20 21 22 24 25 26 26 33 31 31 31 31 33 31 32 33 30 30 33 33 36 32 40 41 42 43 44 38 39 41 42 43 44 43 44 45 47 50 47 52 50 51 54 54 53 60 61 61 62 69 64 64 68 66 65 68 67 67 65 69 70 68 71 72 72 75 79 79 78 79 82 83 84 83 83 83 85 85 85 86 85 87 89 88 93 91 93 96 97 99 99 100 100 101 104 102 -193 -193 95 97 99 100 98 94 105 113 113 113 113 117 119 119 120 -193 345 123 123 124 124 123 125 128 126 125 129 134 0 0 0 0 0
    0 0 0 0 0 0 0 0 0 0 0 0 0 0 0 0 0 0 0 0 0 0 0 0 0 0 0 0 0 0 0 0 0 0 0 0 0 0 0 0 0 0 0 0 0 0 0 0 0 0 0 0 0 0 0 0 0 0 0 0 0 0 0 0 0 0 0 0 0 66 66 65 65 64 63 61 62 61 60 58 58 58 57 56 56 56 55 54 55 54 53 51 50 50 49 45 45 45 46 45 44 43 43 41 41 40 40 39 38 39 38 36 37 36 36 36 34 35 33 32 33 33 31 32 29 31 28 28 27 27 25 25 23 24 21 20 20 19 20 16 18 14 20 16 14 14 14 13 16 16 16 -225 -225 -225 -225 -225 -225 -225 -225 -225 -225 -225 -225 -225 -225 -225 -225 -225 0 0 0 0 0 0 0 0 0 9 9 0 9 10 9 9 14 15 19 18 18 20 21 22 24 25 26 27 32 31 30 31 30 33 31 32 33 30 31 33 33 36 31 39 40 41 42 43 37 38 41 41 43 44 43 44 45 47 50 47 52 50 50 54 54 54 61 62 62 63 69 64 64 68 67 67 69 68 68 67 71 71 70 72 73 73 76 79 79 78 80 83 83 84 83 83 84 84 85 84 85 84 87 89 89 94 92 93 96 96 98 98 99 100 100 104 101 -193 -193 94 97 99 100 99 94 105 113 114 114 114 118 120 121 121 121 -193 124 124 125 125 123 125 128 126 125 128 134 0 0 0 0 0
    0 0 0 0 0 0 0 0 0 0 0 0 0 0 0 0 0 0 0 0 0 0 0 0 0 0 0 0 0 0 0 0 0 0 0 0 0 0 0 0 0 0 0 0 0 0 0 0 0 0 0 0 0 0 0 0 0 0 0 0 0 0 0 0 0 0 0 0 0 66 66 64 65 63 63 60 61 60 59 57 57 57 56 56 56 56 55 53 54 54 53 52 51 51 50 45 45 45 46 45 44 43 43 41 40 40 40 39 38 38 38 35 37 36 36 36 34 35 33 32 33 33 31 33 28 31 28 28 27 27 25 24 23 23 20 19 20 19 19 16 18 13 20 16 14 14 14 14 16 16 16 -225 -225 -225 -225 -225 -225 -225 -225 -225 -225 -225 -225 -225 -225 -225 -225 -225 0 0 0 0 0 0 0 0 0 9 9 0 10 9 9 10 15 15 18 18 18 20 20 22 25 26 27 29 32 31 30 32 31 33 32 33 34 31 32 33 33 35 31 37 38 37 41 42 37 38 41 41 43 44 44 44 45 47 50 47 52 51 49 54 55 55 61 62 63 64 69 65 65 68 68 68 70 69 69 68 72 -193 73 73 74 73 75 78 78 77 79 81 81 83 83 83 84 84 85 86 87 86 89 90 90 96 92 93 95 95 98 97 98 99 99 104 101 -193 -193 95 98 100 102 101 97 106 113 116 116 116 118 122 122 122 123 124 125 124 125 125 123 125 127 126 126 127 134 0 0 0 0 0
    0 0 0 0 0 0 0 0 0 0 0 0 0 0 0 0 0 0 0 0 0 0 0 0 0 0 0 0 0 0 0 0 0 0 0 0 0 0 0 0 0 0 0 0 0 0 0 0 0 0 0 0 0 0 0 0 0 0 0 0 0 0 0 0 0 0 0 0 0 66 65 64 65 63 63 59 60 60 59 56 56 56 56 55 55 55 54 53 54 54 54 53 53 53 51 46 46 45 46 46 44 43 43 41 41 40 40 40 38 39 38 36 37 36 36 36 34 35 33 33 34 34 31 33 28 31 29 28 27 27 25 24 23 23 20 19 19 18 18 16 18 13 20 16 15 14 14 14 16 16 16 -225 -225 -225 -225 -225 -225 -225 -225 -225 -225 -225 -225 -225 -225 -225 -225 -225 0 0 0 0 0 0 0 0 0 9 9 9 10 9 9 10 16 16 18 19 19 21 21 23 25 26 27 29 31 30 30 32 30 32 32 32 34 32 32 33 32 35 32 35 37 35 39 41 37 38 42 42 43 45 44 44 45 47 50 47 52 52 48 55 55 56 61 62 63 64 69 64 65 68 69 68 71 70 70 69 73 74 74 74 74 73 75 77 76 76 77 78 78 85 83 83 85 85 86 87 88 86 89 90 90 97 92 94 95 94 97 96 98 99 97 104 101 -193 -193 98 99 101 103 102 100 107 113 117 117 117 119 124 123 123 123 124 126 125 126 126 123 125 127 127 126 126 134 0 0 0 0 0
    0 0 0 0 0 0 0 0 0 0 0 0 0 0 0 0 0 0 0 0 0 0 0 0 0 0 0 0 0 0 0 0 0 0 0 0 0 0 0 0 0 0 0 0 0 0 0 0 0 0 0 0 0 0 0 0 0 0 0 0 0 0 0 0 0 0 0 0 0 66 65 65 65 63 64 60 61 61 60 57 55 55 55 55 55 55 53 53 54 54 54 53 54 54 52 47 46 45 46 46 44 43 43 41 42 41 41 41 39 39 38 36 37 36 37 36 33 35 33 33 34 34 32 34 28 31 28 28 27 26 25 24 23 23 20 19 19 18 18 16 18 13 20 16 15 14 14 15 16 16 16 -225 -225 -225 -225 -225 -225 -225 -225 -225 -225 -225 -225 -225 -225 -225 -225 -225 0 0 0 0 0 0 0 0 9 9 9 9 10 9 10 11 16 15 19 19 20 22 22 23 26 26 27 28 29 29 29 31 30 31 31 32 33 32 32 32 32 34 32 35 35 34 38 40 38 39 43 42 43 46 45 45 46 47 50 47 52 52 47 56 56 57 61 62 63 64 69 64 65 68 69 69 71 71 71 70 74 74 74 73 74 73 74 75 74 75 74 77 78 84 82 84 85 86 87 88 89 87 89 90 89 98 93 94 96 94 -193 96 97 -193 96 104 100 -193 -193 99 100 101 102 102 99 107 113 118 118 118 119 125 123 123 124 124 127 125 126 126 123 125 127 127 127 126 133 0 0 0 0 0
    0 0 0 0 0 0 0 0 0 0 0 0 0 0 0 0 0 0 0 0 0 0 0 0 0 0 0 0 0 0 0 0 0 0 0 0 0 0 0 0 0 0 0 0 0 0 0 0 0 0 0 0 0 0 0 0 0 0 0 0 0 0 0 0 0 0 0 0 0 66 65 65 65 64 64 61 62 63 60 57 56 56 56 55 54 54 53 52 53 54 53 52 53 53 52 47 46 45 45 46 45 43 44 42 43 42 42 42 40 39 39 37 38 36 37 37 33 36 34 34 35 35 33 34 28 30 28 28 27 26 25 24 23 22 20 19 19 19 17 16 18 13 20 16 16 15 13 15 16 16 16 -225 -225 -225 -225 -225 -225 -225 -225 -225 -225 -225 -225 -225 -225 -225 -225 0 0 0 0 0 0 0 0 0 9 9 9 9 10 9 10 11 15 14 19 19 20 23 22 23 29 27 28 29 29 29 29 32 30 30 32 32 33 33 32 32 31 34 32 33 33 32 35 39 38 39 43 43 43 47 45 46 46 47 50 46 51 52 46 56 56 57 61 62 62 63 69 64 65 67 69 69 71 71 71 71 75 75 75 74 75 73 74 75 74 73 74 77 77 85 82 85 86 87 87 89 89 87 89 91 90 98 93 95 96 94 -193 -193 -193 -177 -193 104 100 -193 -193 99 99 100 101 102 97 106 114 118 118 118 119 125 123 123 123 124 127 125 126 126 123 125 127 128 127 125 133 0 0 0 0 0
    0 0 0 0 0 0 0 0 0 0 0 0 0 0 0 0 0 0 0 0 0 0 0 0 0 0 0 0 0 0 0 0 0 0 0 0 0 0 0 0 0 0 0 0 0 0 0 0 0 0 0 0 0 0 0 0 0 0 0 0 0 0 0 0 0 0 0 0 0 66 66 66 65 64 65 62 63 64 60 56 55 55 55 54 54 53 51 51 52 53 52 51 52 51 50 46 46 45 45 46 45 43 44 42 43 43 42 42 40 40 39 37 38 37 37 37 34 35 34 34 35 35 33 34 28 30 28 27 26 26 24 23 23 22 20 19 19 19 17 16 17 13 20 16 16 15 13 16 16 16 16 -225 -225 -225 -225 -225 -225 -225 -225 -225 -225 -225 -225 -225 -225 -225 -225 0 0 0 0 0 0 0 0 0 9 9 9 9 10 9 10 11 14 14 20 19 20 22 21 23 27 26 27 28 28 28 28 32 30 30 32 33 33 34 34 33 32 35 34 34 33 32 35 38 39 40 44 43 44 48 46 46 46 47 49 46 51 52 46 56 56 57 61 62 63 63 68 65 65 67 69 69 71 71 71 72 75 75 76 74 76 73 74 75 73 73 73 76 77 85 82 85 86 87 87 89 90 88 89 91 90 99 94 95 97 -193 -177 -193 -193 -177 -193 103 99 98 100 98 97 99 100 101 95 106 115 120 120 120 120 126 123 123 123 123 -193 125 126 126 123 126 128 129 127 124 133 0 0 0 0 0
    0 0 0 0 0 0 0 0 0 0 0 0 0 0 0 0 0 0 0 0 0 0 0 0 0 0 0 0 0 0 0 0 0 0 0 0 0 0 0 0 0 0 0 0 0 0 0 0 0 0 0 0 0 0 0 0 0 0 0 0 0 0 0 0 0 0 0 0 0 66 66 66 66 65 65 62 62 64 60 56 55 55 55 53 53 53 51 50 51 51 51 49 51 50 48 46 45 44 44 46 45 43 44 42 43 43 42 42 40 39 39 37 37 37 37 37 34 35 35 35 35 35 32 33 27 30 27 27 26 25 24 23 23 22 20 19 19 19 17 16 18 13 20 16 16 15 13 16 16 16 16 -225 -225 -225 -225 -225 -225 -225 -225 -225 -225 -225 -225 -225 -225 0 0 0 0 0 0 0 0 0 9 9 9 9 9 0 9 0 -193 10 12 15 21 20 21 22 21 22 25 24 25 26 26 26 27 30 29 29 32 33 33 34 34 34 32 35 34 34 34 34 36 38 41 41 45 44 45 49 46 46 47 47 50 46 51 52 47 56 58 58 61 62 65 64 68 65 65 67 69 68 71 70 71 71 -193 75 75 -193 75 73 74 74 73 73 73 76 77 85 82 85 86 87 87 89 90 88 89 91 89 99 94 95 97 -177 -177 -177 -193 -177 -193 102 97 95 98 97 95 98 100 101 95 107 115 120 120 120 120 126 122 122 123 -193 348 125 125 126 123 125 127 129 128 124 133 0 0 0 0 0
    0 0 0 0 0 0 0 0 0 0 0 0 0 0 0 0 0 0 0 0 0 0 0 0 0 0 0 0 0 0 0 0 0 0 0 0 0 0 0 0 0 0 0 0 0 0 0 0 0 0 0 0 0 0 0 0 0 0 0 0 0 0 0 0 0 0 0 0 0 67 66 66 66 65 65 63 61 64 60 57 55 55 55 53 53 52 51 50 50 50 49 48 50 49 48 45 45 44 44 46 45 44 44 42 43 43 42 42 40 39 38 37 37 36 37 37 35 35 35 35 35 35 32 32 28 30 27 27 26 26 24 23 23 23 21 19 19 20 17 17 18 14 19 17 16 15 13 16 16 16 16 -225 -225 -225 -225 -225 -225 -225 -225 -225 -225 -225 -225 0 0 0 0 0 0 0 0 0 0 0 0 -193 -193 0 0 0 0 0 -177 10 10 14 21 19 21 21 21 21 23 23 24 25 26 26 26 29 29 29 32 33 32 35 35 34 32 35 35 33 34 34 35 38 42 42 46 45 45 49 46 47 47 47 49 46 51 52 48 57 59 59 61 63 67 65 68 66 66 67 69 68 71 70 71 71 -193 74 74 -193 75 72 74 74 73 73 73 76 76 84 82 85 86 87 87 89 90 88 89 91 -193 -193 -193 -209 -193 -177 -177 -177 -193 -177 -193 100 96 94 97 96 95 99 100 101 96 107 115 121 120 120 120 125 122 -193 -193 -193 349 124 125 125 123 125 127 129 128 124 132 0 0 0 0 0
    0 0 0 0 0 0 0 0 0 0 0 0 0 0 0 0 0 0 0 0 0 0 0 0 0 0 0 0 0 0 0 0 0 0 0 0 0 0 0 0 0 0 0 0 0 0 0 0 0 0 0 0 0 0 0 0 0 0 0 0 0 0 0 0 0 0 0 0 0 66 66 66 65 65 64 63 61 63 60 56 55 55 55 54 54 53 52 51 51 50 49 48 49 48 48 45 44 44 44 46 45 44 44 43 44 43 42 43 40 40 38 37 37 36 37 37 35 35 34 35 35 36 32 32 28 30 27 27 26 26 24 23 23 23 21 19 20 20 18 17 18 15 19 17 17 16 13 16 16 16 16 -225 -225 -225 -225 -225 -225 -225 -225 -225 -225 -225 0 0 0 0 0 0 0 0 0 0 0 0 0 0 0 0 0 0 0 0 10 10 10 14 20 18 21 20 21 20 23 23 23 25 25 26 26 29 29 29 31 33 32 35 35 34 32 34 34 32 33 34 34 37 43 42 46 45 46 49 47 47 48 47 49 47 51 52 49 57 59 59 61 64 67 65 68 67 66 66 69 68 70 69 70 70 -177 73 74 -193 74 72 73 73 72 72 73 75 75 84 82 85 86 87 88 89 90 89 89 -193 -193 -209 -177 -209 -193 -177 -177 -177 -193 -177 93 100 96 95 98 97 -177 100 101 102 97 107 115 121 119 119 120 124 121 -193 -193 351 349 124 124 125 123 125 127 129 127 123 132 0 0 0 0 0
    0 0 0 0 0 0 0 0 0 0 0 0 0 0 0 0 0 0 0 0 0 0 0 0 0 0 0 0 0 0 0 0 0 0 0 0 0 0 0 0 0 0 0 0 0 0 0 0 0 0 0 0 0 0 0 0 0 0 0 0 0 0 0 0 0 0 0 0 0 66 65 66 65 64 64 62 60 61 58 56 55 55 55 54 54 54 53 53 52 50 51 50 50 49 49 46 45 44 44 45 45 44 44 43 44 43 43 43 41 40 38 37 37 36 37 37 35 35 33 35 35 36 32 32 28 29 27 27 26 26 24 23 23 23 22 20 20 21 19 18 19 16 20 17 18 16 12 15 16 16 16 -225 -225 -225 -225 -225 -225 -225 -225 -225 -225 -225 0 0 0 0 0 0 0 0 0 0 0 0 0 9 0 9 9 9 9 0 12 11 11 15 20 18 21 20 21 20 22 23 23 24 25 25 26 28 29 30 31 33 31 34 34 33 32 34 34 32 33 35 35 37 44 43 47 46 46 50 47 48 49 47 50 48 51 53 50 57 58 58 61 64 66 65 67 67 66 66 69 67 69 68 69 69 -177 72 72 70 73 70 72 71 71 71 72 74 75 83 81 85 85 87 87 89 90 -193 89 -193 -177 -177 -177 -193 -209 -177 -193 -193 -193 -193 93 100 97 95 98 98 97 100 101 102 98 106 115 120 118 118 119 122 120 -193 354 353 351 123 123 124 122 124 125 128 126 123 131 0 0 0 0 0
    0 0 0 0 0 0 0 0 0 0 0 0 0 0 0 0 0 0 0 0 0 0 0 0 0 0 0 0 0 0 0 0 0 0 0 0 0 0 0 0 0 0 0 0 0 0 0 0 0 0 0 0 0 0 0 0 0 0 0 0 0 0 0 0 0 0 0 0 0 66 65 66 65 64 64 63 60 60 57 56 55 55 56 55 55 55 54 55 53 51 52 51 52 50 50 48 46 45 44 45 45 44 45 43 45 43 43 44 41 40 38 37 36 36 37 37 35 35 33 35 35 36 32 32 28 29 27 27 27 26 24 23 23 23 22 21 20 21 19 18 19 17 20 17 18 17 12 14 16 16 16 -225 -225 -225 -225 -225 -225 -225 -225 -225 -225 0 0 0 0 0 0 0 0 0 9 9 9 9 9 9 9 9 9 0 9 10 13 12 12 15 21 19 22 21 21 20 23 23 23 24 24 25 26 28 28 29 30 32 30 33 34 33 31 33 33 33 34 36 35 37 45 44 47 46 46 50 47 48 49 47 50 48 50 52 50 57 58 58 60 64 66 65 67 67 65 65 68 66 68 67 68 68 -177 70 70 69 72 69 71 70 70 71 72 74 74 82 80 85 85 87 87 89 90 -193 -193 -193 -193 -177 -177 -193 -209 -193 -193 -193 -193 97 94 100 98 96 99 99 97 100 102 102 98 105 115 120 117 117 118 120 119 -193 354 354 351 122 122 123 122 123 125 127 125 123 131 0 0 0 0 0
    0 0 0 0 0 0 0 0 0 0 0 0 0 0 0 0 0 0 0 0 0 0 0 0 0 0 0 0 0 0 0 0 0 0 0 0 0 0 0 0 0 0 0 0 0 0 0 0 0 0 0 0 0 0 0 0 0 0 0 0 0 0 0 0 0 0 0 0 0 66 65 66 65 65 64 64 61 60 58 56 57 56 57 56 56 56 56 57 55 51 53 52 52 51 51 49 47 46 45 45 44 43 44 43 44 43 43 43 41 40 38 37 36 35 36 37 35 35 33 35 34 36 32 31 28 29 27 28 27 26 23 23 23 23 23 21 20 22 20 19 19 17 20 16 17 17 12 13 15 15 15 -225 -225 -225 -225 -225 -225 -225 -225 -225 -225 0 0 0 0 0 0 0 0 0 9 9 9 9 9 9 9 10 9 0 9 10 13 12 12 16 21 19 22 20 21 20 23 24 23 24 24 25 26 28 28 30 29 31 30 32 34 33 32 34 33 34 35 37 36 37 45 44 46 46 46 50 47 49 49 47 50 49 50 53 50 56 58 58 61 64 66 64 66 67 65 65 68 65 68 66 67 67 -177 68 69 68 71 68 70 70 70 71 72 73 74 81 80 84 85 86 87 88 90 88 -193 88 -193 -193 -177 -193 -193 95 95 -193 96 97 94 100 99 96 99 -177 -177 100 102 102 98 104 112 119 116 116 117 119 118 -193 353 353 351 -193 121 122 122 123 124 127 125 123 130 0 0 0 0 0
    0 0 0 0 0 0 0 0 0 0 0 0 0 0 0 0 0 0 0 0 0 0 0 0 0 0 0 0 0 0 0 0 0 0 0 0 0 0 0 0 0 0 0 0 0 0 0 0 0 0 0 0 0 0 0 0 0 0 0 0 0 0 0 0 0 0 0 0 0 66 65 66 65 65 65 65 61 60 59 58 58 57 58 57 57 57 57 57 56 52 54 52 53 52 51 49 47 46 45 45 44 43 44 44 44 43 43 43 41 40 38 36 35 35 35 37 35 35 32 34 34 35 31 31 28 28 27 28 27 26 23 23 23 24 23 22 20 22 20 19 19 18 19 16 16 16 12 11 13 13 13 -225 -225 -225 -225 -225 -225 -225 -225 -225 -225 0 0 0 0 0 0 0 0 9 10 9 10 9 9 9 10 10 9 9 9 10 13 11 12 16 21 19 22 20 21 21 23 24 24 25 26 26 27 28 28 30 29 31 29 30 33 32 32 34 33 34 36 37 37 38 45 45 46 47 46 50 48 49 50 47 50 49 50 53 51 57 58 58 61 65 65 64 65 68 65 65 67 65 67 66 66 66 -177 67 68 66 69 67 70 70 70 71 72 73 73 79 79 83 84 85 86 88 89 88 -193 88 88 97 -193 -193 101 95 96 98 97 98 95 100 99 97 99 98 -177 100 101 102 98 103 109 118 116 116 116 119 118 119 -193 352 350 -193 121 122 122 122 124 126 125 123 130 0 0 0 0 0
    0 0 0 0 0 0 0 0 0 0 0 0 0 0 0 0 0 0 0 0 0 0 0 0 0 0 0 0 0 0 0 0 0 0 0 0 0 0 0 0 0 0 0 0 0 0 0 0 0 0 0 0 0 0 0 0 0 0 0 0 0 0 0 0 0 0 0 0 0 66 65 66 65 65 65 65 61 61 60 58 59 58 59 58 58 58 57 58 57 53 55 53 53 52 52 50 48 47 46 45 45 43 44 44 44 43 43 43 41 40 38 36 35 35 35 36 35 34 32 32 33 35 30 30 27 28 27 28 27 26 23 23 23 24 23 22 20 22 20 19 19 18 19 15 15 15 11 10 11 11 11 -225 -225 -225 -225 -225 -225 -225 -225 -225 9 0 0 0 0 0 0 0 0 10 10 11 11 10 10 10 10 11 10 9 9 10 12 12 12 16 20 18 21 20 21 21 23 24 24 24 25 -193 27 28 28 30 29 30 29 29 32 32 32 34 34 35 37 38 38 38 45 45 46 47 46 49 47 49 49 47 50 50 49 53 51 57 58 59 62 65 65 64 65 68 65 65 67 65 67 65 66 66 -193 67 68 66 68 66 70 69 69 70 71 72 72 77 77 81 83 84 85 87 89 87 -193 88 88 97 -209 98 102 96 97 98 97 98 97 100 100 97 99 98 -177 100 101 102 99 102 108 117 115 115 115 118 119 119 -193 351 349 -193 122 122 122 122 124 126 125 123 129 0 0 0 0 0
    0 0 0 0 0 0 0 0 0 0 0 0 0 0 0 0 0 0 0 0 0 0 0 0 0 0 0 0 0 0 0 0 0 0 0 0 0 0 0 0 0 0 0 0 0 0 0 0 0 0 0 0 0 0 0 0 0 0 0 0 0 0 0 0 0 0 0 0 0 66 66 66 65 64 65 65 61 62 61 59 61 58 59 59 59 58 58 58 57 53 56 53 53 52 52 51 49 47 46 44 45 43 44 43 44 43 42 42 40 40 38 35 34 34 34 36 34 34 31 31 32 34 30 29 27 28 26 28 27 27 23 23 23 24 24 23 20 22 20 19 19 18 19 14 14 14 11 9 9 10 10 -225 -225 -225 -225 -225 -225 -225 -225 -225 9 0 0 0 0 0 0 0 0 11 10 11 11 10 10 10 10 11 9 10 10 10 12 12 12 15 18 18 21 19 20 21 22 -193 24 24 25 -193 27 28 27 30 29 29 28 29 31 32 32 34 33 35 38 39 39 39 44 44 45 47 45 49 47 48 49 47 50 50 49 53 51 57 59 59 62 66 65 64 64 69 65 64 67 65 67 65 65 66 -193 66 67 66 68 65 70 69 -193 70 71 72 71 75 76 79 82 84 85 87 89 87 87 88 88 93 -209 96 102 96 98 99 98 99 98 100 101 97 99 99 -177 100 101 -193 100 99 107 116 114 114 115 118 119 120 -193 351 349 123 123 123 123 123 124 127 125 124 128 0 0 0 0 0
    0 0 0 0 0 0 0 0 0 0 0 0 0 0 0 0 0 0 0 0 0 0 0 0 0 0 0 0 0 0 0 0 0 0 0 0 0 0 0 0 0 0 0 0 0 0 0 0 0 0 0 0 0 0 0 0 0 0 0 0 0 0 0 0 0 0 0 0 0 66 66 66 65 64 65 65 61 62 61 59 62 59 59 59 59 59 58 59 58 54 57 53 53 52 52 51 49 48 47 44 44 43 43 43 43 42 42 42 40 40 39 35 35 35 35 36 35 35 32 31 33 35 30 30 28 28 27 29 28 27 24 24 24 24 24 23 21 22 20 19 19 19 19 14 13 13 10 0 0 0 0 -225 -225 -225 -225 -225 -225 -225 -225 12 11 0 0 0 0 9 9 9 9 11 10 11 11 10 9 9 10 10 9 10 10 10 12 12 13 15 17 17 20 19 20 21 22 -193 23 24 25 26 27 27 27 30 28 29 28 28 31 32 33 35 34 35 38 39 39 39 44 43 43 46 45 49 47 48 49 47 50 51 49 54 51 57 57 58 61 65 64 64 64 69 64 65 67 65 67 65 65 66 63 66 67 66 67 65 69 69 -193 70 71 71 70 75 75 78 82 84 85 87 88 87 88 88 88 91 94 94 101 97 99 100 99 100 99 100 102 98 100 99 -177 99 101 -193 100 96 106 116 114 114 114 118 120 121 -193 351 349 124 124 124 124 123 125 127 126 125 127 0 0 0 0 0
    0 0 0 0 0 0 0 0 0 0 0 0 0 0 0 0 0 0 0 0 0 0 0 0 0 0 0 0 0 0 0 0 0 0 0 0 0 0 0 0 0 0 0 0 0 0 0 0 0 0 0 0 0 0 0 0 0 0 0 0 0 0 0 0 0 0 0 0 0 66 66 66 66 65 65 65 62 63 61 58 62 -193 59 59 59 59 58 59 59 55 58 54 54 53 53 51 50 48 47 44 44 42 43 42 42 42 41 41 40 40 39 36 35 35 35 36 35 35 33 31 33 35 31 30 29 29 28 30 29 28 25 25 25 25 24 24 21 22 20 20 19 19 20 14 12 12 9 0 0 0 0 -225 -225 -225 -225 -225 12 13 12 11 11 9 10 10 10 11 10 10 10 11 11 10 11 9 9 9 10 10 10 10 10 11 13 14 14 17 18 18 19 19 19 21 22 23 23 24 24 -193 26 27 27 29 28 29 28 28 32 32 33 35 35 37 39 40 40 40 44 43 43 47 45 48 47 48 49 47 50 51 48 53 49 56 56 57 61 64 62 62 62 68 63 64 67 65 67 66 66 66 63 66 67 66 67 65 69 69 -177 70 70 71 69 74 75 78 83 85 85 87 89 88 89 89 90 91 95 94 100 98 99 100 100 100 100 100 102 99 100 -193 -177 98 100 703 100 94 106 115 114 114 114 118 120 121 -193 350 348 125 124 125 125 123 125 127 126 126 127 0 0 0 0 0
    0 0 0 0 0 0 0 0 0 0 0 0 0 0 0 0 0 0 0 0 0 0 0 0 0 0 0 0 0 0 0 0 0 0 0 0 0 0 0 0 0 0 0 0 0 0 0 0 0 0 0 0 0 0 0 0 0 0 0 0 0 0 0 0 0 0 0 0 0 66 67 66 66 65 65 65 62 64 61 58 61 58 59 59 59 59 58 59 59 55 58 54 54 53 53 52 51 49 48 44 44 42 43 43 43 41 41 41 39 40 39 36 36 36 35 36 35 36 35 32 34 36 32 31 30 30 28 31 29 29 26 26 26 25 24 24 21 22 21 20 20 20 20 15 12 11 0 0 0 0 0 -225 -225 -225 19 19 13 14 13 12 11 10 11 10 9 10 10 9 9 11 11 10 11 9 9 9 9 10 9 9 9 10 12 13 15 18 18 19 19 20 19 21 22 -193 22 24 24 -193 26 27 26 29 28 29 28 28 32 33 34 36 37 37 40 40 40 40 44 43 43 47 46 48 48 49 49 47 50 51 47 52 48 54 54 56 61 63 61 61 61 68 63 63 67 65 68 66 66 67 64 67 68 67 67 65 69 69 -177 70 70 70 69 74 75 78 83 85 85 87 88 88 89 89 90 90 95 93 99 97 99 99 100 99 99 99 102 98 98 -177 -177 96 100 703 100 93 105 115 114 114 114 118 121 121 121 349 347 -193 124 125 125 123 125 127 127 127 126 0 0 0 0 0
    0 0 0 0 0 0 0 0 0 0 0 0 0 0 0 0 0 0 0 0 0 0 0 0 0 0 0 0 0 0 0 0 0 0 0 0 0 0 0 0 0 0 0 0 0 0 0 0 0 0 0 0 0 0 0 0 0 0 0 0 0 0 0 0 0 0 0 0 0 66 67 66 66 65 65 64 62 65 62 59 62 59 60 59 60 59 58 59 59 56 58 54 54 53 53 52 52 49 48 44 44 42 43 43 43 41 41 41 39 40 40 37 36 36 36 37 36 36 36 33 34 36 33 31 31 31 29 31 30 29 26 26 26 25 24 24 21 22 21 20 20 20 20 16 11 10 0 0 0 0 0 -225 -225 19 19 19 13 14 14 11 10 9 12 10 10 10 11 10 10 12 11 10 11 9 9 9 9 10 0 9 9 10 12 14 15 17 18 19 19 20 20 22 22 -193 23 25 25 26 26 27 26 28 28 29 28 28 33 34 34 38 38 38 40 40 41 40 43 42 42 45 45 48 47 48 48 46 49 50 46 50 46 52 53 56 59 60 60 59 59 67 62 63 66 66 69 67 67 68 65 69 69 -193 67 65 69 69 -193 70 70 71 69 74 75 78 83 85 85 87 88 88 90 89 91 90 96 93 98 96 98 98 99 97 98 96 102 97 -193 -177 95 95 98 704 99 93 105 115 115 115 115 118 121 121 121 348 347 -193 125 125 125 123 126 128 128 128 125 0 0 0 0 0
    0 0 0 0 0 0 0 0 0 0 0 0 0 0 0 0 0 0 0 0 0 0 0 0 0 0 0 0 0 0 0 0 0 0 0 0 0 0 0 0 0 0 0 0 0 0 0 0 0 0 0 0 0 0 0 0 0 0 0 0 0 0 0 0 0 0 0 0 0 66 67 66 66 65 65 64 62 66 63 59 62 60 60 60 60 59 58 59 59 56 58 54 54 54 53 52 52 49 48 44 45 43 44 43 43 41 41 41 40 39 40 37 36 37 37 37 36 36 36 33 34 36 34 32 31 31 29 32 30 29 26 26 25 24 23 24 22 22 21 21 21 21 20 16 11 9 0 0 0 0 0 -225 12 18 19 19 14 14 14 11 10 9 12 11 10 10 10 9 9 11 10 9 10 0 0 0 0 9 0 9 0 9 11 12 14 16 17 19 18 20 20 23 22 24 23 25 25 26 26 28 26 28 28 30 28 28 34 35 35 38 39 38 41 41 41 41 43 43 42 45 46 47 47 48 48 47 49 50 47 50 50 54 54 56 58 59 59 58 58 67 62 62 66 66 69 68 69 69 67 70 70 -177 68 66 69 68 -193 69 70 71 70 74 75 78 83 85 85 87 88 88 90 90 91 90 97 93 96 95 97 96 97 96 96 94 100 96 -193 -177 94 94 97 99 99 93 105 115 117 117 117 118 122 121 121 347 346 -193 124 125 125 123 126 128 128 128 124 0 0 0 0 0
    0 0 0 0 0 0 0 0 0 0 0 0 0 0 0 0 0 0 0 0 0 0 0 0 0 0 0 0 0 0 0 0 0 0 0 0 0 0 0 0 0 0 0 0 0 0 0 0 0 0 0 0 0 0 0 0 0 0 0 0 0 0 0 0 0 0 0 0 0 66 67 66 65 65 65 64 61 67 64 58 61 59 60 59 59 59 58 58 59 57 58 55 55 54 54 52 52 50 48 45 46 45 46 44 43 42 41 41 40 39 40 37 36 37 37 37 36 36 36 34 34 36 34 32 32 32 30 32 31 30 27 26 26 25 24 24 22 22 22 21 21 21 20 18 12 0 0 0 0 0 0 -225 12 19 18 19 13 14 14 11 9 0 11 10 9 10 10 10 10 12 11 9 10 0 0 0 0 0 0 8 0 9 11 12 13 15 16 19 18 20 20 23 22 24 23 25 25 26 26 28 26 28 29 31 29 29 35 36 36 39 39 38 40 41 42 42 43 43 42 45 46 47 47 47 47 47 49 50 47 49 51 54 54 55 57 58 58 58 57 67 61 62 66 67 70 69 70 70 68 70 71 -177 68 67 68 68 68 69 71 71 70 73 75 77 80 84 85 86 87 88 91 91 91 91 97 93 95 94 95 94 95 94 95 92 99 95 -193 -177 94 94 97 99 100 95 105 114 117 117 117 119 122 120 120 -193 346 -177 124 124 124 122 125 127 128 127 123 0 0 0 0 0
    0 0 0 0 0 0 0 0 0 0 0 0 0 0 0 0 0 0 0 0 0 0 0 0 0 0 0 0 0 0 0 0 0 0 0 0 0 0 0 0 0 0 0 0 0 0 0 0 0 0 0 0 0 0 0 0 0 0 0 0 0 0 0 0 0 0 0 0 0 66 67 66 65 64 65 63 61 66 64 57 59 59 59 59 59 58 58 58 59 57 58 55 55 54 54 52 51 51 49 45 47 45 46 45 43 43 41 41 41 40 40 38 37 38 37 36 37 36 36 34 35 36 35 33 33 32 31 34 32 31 28 26 26 25 23 24 22 23 22 22 22 21 21 20 13 0 0 0 0 0 0 0 11 18 15 14 12 12 12 11 10 9 11 10 10 11 11 10 10 11 10 9 9 0 0 0 0 0 0 0 0 9 11 12 13 13 15 18 17 20 19 22 22 23 23 25 25 26 26 28 27 29 30 33 31 32 37 37 37 39 39 38 40 41 42 42 43 44 43 45 46 47 47 47 47 47 49 51 47 49 51 54 54 55 56 57 57 57 57 66 61 62 66 68 70 -193 70 71 69 71 -193 -177 -193 67 68 68 68 69 71 71 71 73 75 77 78 83 85 86 87 89 92 91 91 90 96 92 93 93 93 92 93 93 93 91 98 96 -193 -193 95 95 98 100 101 97 105 114 118 117 117 118 121 119 119 -193 -177 -177 123 123 123 121 124 126 127 126 122 0 0 0 0 0
    0 0 0 0 0 0 0 0 0 0 0 0 0 0 0 0 0 0 0 0 0 0 0 0 0 0 0 0 0 0 0 0 0 0 0 0 0 0 0 0 0 0 0 0 0 0 0 0 0 0 0 0 0 0 0 0 0 0 0 0 0 0 0 0 0 0 0 0 0 67 67 66 65 65 65 63 61 66 64 57 58 59 59 59 59 58 58 58 59 58 58 55 55 54 54 52 51 51 48 46 47 46 47 45 43 43 41 41 41 39 40 38 37 38 37 36 37 37 36 35 35 36 36 33 34 33 31 34 32 31 28 25 26 24 23 23 22 23 22 22 22 22 21 22 15 9 0 0 0 0 0 0 11 13 11 10 9 10 10 10 0 0 10 10 10 10 11 10 9 10 9 0 0 0 0 0 0 0 0 0 0 0 10 11 12 12 14 18 18 21 20 23 22 24 23 25 25 26 26 29 28 30 31 34 32 33 37 37 37 38 39 38 39 41 43 42 43 45 43 46 47 48 48 47 48 48 49 51 48 50 52 54 54 55 55 56 56 56 56 65 61 61 65 68 70 -177 71 71 70 71 -193 -177 -177 68 67 68 68 69 71 71 71 73 75 77 77 81 85 86 88 90 93 92 92 91 98 93 93 93 92 91 -193 92 92 89 97 -193 -177 -193 96 96 99 101 102 99 105 114 118 117 117 118 121 119 119 119 -193 -177 122 122 122 121 123 124 126 125 121 0 0 0 0 0
    0 0 0 0 0 0 0 0 0 0 0 0 0 0 0 0 0 0 0 0 0 0 0 0 0 0 0 0 0 0 0 0 0 0 0 0 0 0 0 0 0 0 0 0 0 0 0 0 0 0 0 0 0 0 0 0 0 0 0 0 0 0 0 0 0 0 0 0 0 67 68 66 66 65 65 63 61 65 64 57 57 59 59 59 59 58 58 58 59 59 59 55 55 54 54 53 51 51 49 46 47 47 47 45 44 43 41 41 41 39 39 38 37 38 38 36 37 37 37 35 35 36 36 33 34 33 31 33 32 30 28 25 25 24 23 23 22 23 22 22 22 22 22 23 18 10 0 0 0 0 0 0 10 9 9 0 0 0 9 10 0 0 9 9 10 10 11 10 9 10 9 0 0 0 0 0 0 0 0 0 0 0 10 12 12 13 14 19 18 21 21 23 23 24 24 25 26 26 27 29 28 30 31 35 33 33 38 38 37 38 39 38 39 41 43 42 43 46 44 46 48 48 48 47 -177 49 49 52 49 49 53 53 53 54 54 54 54 55 56 65 61 62 65 69 70 -177 72 72 -193 -193 -193 -177 496 -193 68 69 68 69 72 71 72 73 76 78 76 79 84 85 88 91 94 93 94 93 100 94 94 93 92 -209 423 -193 -193 88 95 -193 -177 -193 97 98 101 102 103 101 105 114 119 117 117 118 120 118 118 118 -193 347 120 121 121 119 122 123 124 123 120 0 0 0 0 0
    0 0 0 0 0 0 0 0 0 0 0 0 0 0 0 0 0 0 0 0 0 0 0 0 0 0 0 0 0 0 0 0 0 0 0 0 0 0 0 0 0 0 0 0 0 0 0 0 0 0 0 0 0 0 0 0 0 0 0 0 0 0 0 0 0 0 0 0 0 67 68 66 66 65 65 63 61 65 65 57 57 59 59 59 59 58 58 57 59 59 58 55 55 55 54 53 51 52 49 47 48 47 47 46 44 44 42 42 41 40 39 39 38 38 38 35 36 36 36 35 34 36 35 33 34 33 31 32 32 30 28 26 25 24 23 23 22 23 22 22 22 22 22 23 20 12 0 0 0 0 0 0 9 0 0 0 0 0 0 9 0 0 9 9 10 10 11 10 9 10 10 0 0 0 0 0 0 0 0 0 0 0 10 12 12 14 15 19 18 21 21 24 23 25 24 26 27 27 27 29 28 30 32 35 34 34 39 39 38 39 39 39 40 42 44 42 43 48 45 47 48 47 48 47 -177 48 48 51 48 48 52 53 53 53 54 53 53 54 56 63 61 61 65 68 69 -177 72 72 -193 -209 -177 -177 496 -177 68 70 68 70 72 72 72 73 76 78 76 79 84 84 87 90 93 92 94 95 101 96 94 93 92 -177 -177 -177 -209 87 -193 -193 -177 -177 99 100 102 103 104 104 105 113 118 117 117 117 119 117 118 118 118 348 120 120 120 119 121 122 123 123 121 0 0 0 0 0
    0 0 0 0 0 0 0 0 0 0 0 0 0 0 0 0 0 0 0 0 0 0 0 0 0 0 0 0 0 0 0 0 0 0 0 0 0 0 0 0 0 0 0 0 0 0 0 0 0 0 0 0 0 0 0 0 0 0 0 0 0 0 0 0 0 0 0 0 0 68 68 66 66 65 65 63 61 63 65 57 56 59 59 59 59 58 59 57 59 59 58 55 55 55 54 53 51 52 49 47 49 48 48 46 44 45 42 42 42 40 39 39 38 39 38 35 36 36 36 35 34 35 34 32 33 32 31 31 32 30 29 26 26 24 23 23 22 23 22 22 22 22 22 23 21 14 9 9 9 10 10 9 9 0 0 0 0 0 0 9 0 0 0 0 9 9 10 10 0 10 10 0 0 0 0 0 0 0 0 0 0 9 10 11 11 12 14 18 18 20 21 23 23 25 24 25 27 27 27 29 28 30 31 35 35 35 40 39 39 39 39 39 40 41 43 42 43 48 45 46 48 48 47 46 -177 49 48 51 49 48 51 52 53 53 54 52 53 53 55 62 61 61 64 68 69 677 72 72 -193 -209 -177 -177 496 -177 69 70 69 70 72 72 73 73 76 78 76 79 84 83 87 90 92 91 94 95 101 96 94 93 91 -193 -177 -177 -193 -209 -209 181 -177 -177 101 101 103 104 105 105 104 112 118 116 116 116 119 117 118 118 118 349 120 120 120 119 121 121 123 123 121 0 0 0 0 0
    0 0 0 0 0 0 0 0 0 0 0 0 0 0 0 0 0 0 0 0 0 0 0 0 0 0 0 0 0 0 0 0 0 0 0 0 0 0 0 0 0 0 0 0 0 0 0 0 0 0 0 0 0 0 0 0 0 0 0 0 0 0 0 0 0 0 0 0 0 67 68 66 66 65 65 63 61 63 64 57 56 59 59 58 58 58 59 57 59 59 57 55 55 55 54 53 51 52 49 47 49 48 48 46 44 45 42 42 42 40 40 39 38 39 38 34 36 35 35 34 33 34 33 31 32 32 31 31 32 30 29 26 26 25 23 23 23 -193 22 22 22 22 22 23 21 16 11 11 12 12 12 11 10 0 0 0 0 0 0 0 0 0 0 0 9 9 10 10 0 10 9 0 0 0 0 0 0 0 0 0 0 0 9 11 11 11 13 17 17 19 21 23 23 25 24 25 26 26 27 28 28 30 31 35 36 35 40 39 40 39 39 39 39 41 42 41 42 48 45 45 47 47 47 46 47 48 47 51 50 49 51 53 53 53 54 52 53 53 55 61 62 62 64 68 68 676 71 72 71 -209 -177 -177 495 -177 69 71 70 71 72 72 73 73 75 78 77 78 84 83 87 90 92 91 93 96 101 98 95 94 -193 -193 -193 -177 -177 -193 -209 180 -193 -177 102 102 103 105 105 105 103 110 118 115 115 116 118 118 118 118 118 350 120 120 120 120 121 121 123 123 121 0 0 0 0 0
    0 0 0 0 0 0 0 0 0 0 0 0 0 0 0 0 0 0 0 0 0 0 0 0 0 0 0 0 0 0 0 0 0 0 0 0 0 0 0 0 0 0 0 0 0 0 0 0 0 0 0 0 0 0 0 0 0 0 0 0 0 0 0 0 0 0 0 0 0 68 68 66 66 66 65 63 61 63 64 56 56 59 58 58 58 57 58 57 59 59 57 55 55 55 54 53 51 52 49 47 49 48 48 46 44 45 42 42 41 40 40 39 38 38 38 33 35 34 34 33 33 33 33 30 32 32 30 30 31 30 29 27 27 26 24 23 23 -193 22 22 23 22 22 23 22 18 12 13 14 14 14 13 11 10 10 0 0 0 0 9 0 0 0 0 9 9 10 10 9 10 9 9 9 9 0 0 0 0 0 0 0 0 9 10 10 11 12 16 16 19 21 23 22 24 23 23 25 26 26 28 27 30 31 35 37 35 40 39 40 39 39 38 39 40 42 41 42 49 45 45 47 47 47 46 -177 48 47 51 51 49 51 53 53 53 54 53 53 54 56 62 64 62 64 68 68 -193 70 71 71 -209 -193 -177 495 -177 70 72 72 71 -193 73 74 73 75 78 77 78 84 83 87 90 92 92 93 96 101 98 96 94 -193 -193 -193 -193 -177 -177 -209 179 -193 -177 -193 104 104 105 105 105 102 109 118 115 115 115 118 117 118 118 118 349 120 120 120 120 121 121 123 122 122 0 0 0 0 0
    0 0 0 0 0 0 0 0 0 0 0 0 0 0 0 0 0 0 0 0 0 0 0 0 0 0 0 0 0 0 0 0 0 0 0 0 0 0 0 0 0 0 0 0 0 0 0 0 0 0 0 0 0 0 0 0 0 0 0 0 0 0 0 0 0 0 0 0 0 68 69 66 66 66 65 63 61 63 64 56 55 58 58 57 57 57 58 57 59 60 58 55 55 54 53 52 50 51 49 47 49 47 47 46 44 45 42 41 41 40 40 39 38 38 38 33 35 34 34 33 32 33 32 30 31 32 30 30 31 30 29 27 27 26 24 23 23 23 22 22 22 22 22 23 22 19 13 14 15 15 14 14 11 11 11 0 9 0 0 9 0 0 0 0 9 9 11 11 10 11 11 10 10 10 10 9 0 0 0 0 0 0 0 10 10 11 13 16 17 19 21 22 21 23 22 23 25 25 27 27 28 30 31 35 37 35 40 38 39 37 38 37 37 39 40 39 42 48 45 45 47 48 46 46 -177 48 47 50 51 49 50 53 53 53 54 53 53 54 56 61 65 63 64 68 67 69 69 70 -193 -209 -209 -193 494 -177 70 -193 73 -193 826 -193 74 74 75 78 77 79 85 84 87 90 92 92 92 96 101 99 97 96 -193 -193 421 421 -177 -177 -177 180 -177 -177 -193 104 104 105 105 105 100 108 117 114 114 114 118 117 118 118 118 -193 120 120 120 120 121 121 123 122 122 0 0 0 0 0
    0 0 0 0 0 0 0 0 0 0 0 0 0 0 0 0 0 0 0 0 0 0 0 0 0 0 0 0 0 0 0 0 0 0 0 0 0 0 0 0 0 0 0 0 0 0 0 0 0 0 0 0 0 0 0 0 0 0 0 0 0 0 0 0 0 0 0 0 0 68 69 66 66 66 65 63 61 63 65 56 56 58 58 57 57 57 58 57 59 60 58 54 54 53 52 52 50 51 48 46 48 47 47 46 44 44 42 40 40 40 39 39 38 38 38 34 35 35 34 34 32 32 32 29 31 32 30 29 30 29 29 27 27 27 24 23 23 23 22 22 22 22 22 23 22 19 14 15 16 15 14 15 12 13 12 10 10 0 0 10 0 0 0 0 9 9 10 11 10 10 12 11 10 11 10 10 9 0 0 0 9 0 9 11 10 11 13 16 17 19 21 22 21 23 22 23 25 25 27 27 28 30 31 34 36 34 39 37 38 37 37 36 36 38 39 37 42 47 45 44 47 48 46 46 47 47 47 50 51 49 49 53 53 53 54 53 53 54 56 60 66 64 64 67 66 69 68 69 -193 -193 -193 -193 494 -177 71 73 73 -193 827 -193 74 74 75 78 78 79 85 84 87 90 92 91 92 96 100 100 98 97 96 -193 -193 -193 -177 -177 -193 -193 -177 -177 -177 104 104 105 105 105 99 107 117 114 114 114 118 118 119 119 119 351 -193 120 121 121 120 120 122 122 122 0 0 0 0 0
    0 0 0 0 0 0 0 0 0 0 0 0 0 0 0 0 0 0 0 0 0 0 0 0 0 0 0 0 0 0 0 0 0 0 0 0 0 0 0 0 0 0 0 0 0 0 0 0 0 0 0 0 0 0 0 0 0 0 0 0 0 0 0 0 0 0 0 0 0 67 68 66 66 66 65 64 62 64 65 57 56 58 58 57 57 57 57 56 59 59 58 53 53 53 51 52 50 50 48 46 48 47 46 46 44 43 42 40 40 40 39 39 39 39 39 35 36 35 34 34 32 32 32 29 30 32 30 29 29 29 28 27 26 26 24 23 23 23 22 22 22 22 22 22 22 20 16 17 18 17 16 17 14 15 14 12 12 9 0 10 0 0 0 0 0 0 0 9 9 10 11 11 11 11 10 10 10 9 9 9 9 9 9 11 11 12 14 16 17 19 21 22 21 23 22 23 25 25 27 27 28 30 32 33 35 33 39 35 37 36 37 35 35 38 39 36 42 46 45 44 47 48 46 46 47 47 47 49 51 49 49 53 52 53 53 53 52 53 55 59 67 64 64 67 66 68 67 69 -193 -193 -193 -209 -177 -177 71 73 74 -193 828 -193 74 74 75 78 79 80 86 85 87 89 91 91 92 96 100 101 99 99 98 -193 -193 -193 -177 -177 -193 -209 -177 -177 -177 104 104 104 104 104 96 106 116 114 114 114 118 120 120 121 -193 352 -193 121 122 122 120 120 122 122 122 0 0 0 0 0
    0 0 0 0 0 0 0 0 0 0 0 0 0 0 0 0 0 0 0 0 0 0 0 0 0 0 0 0 0 0 0 0 0 0 0 0 0 0 0 0 0 0 0 0 0 0 0 0 0 0 0 0 0 0 0 0 0 0 0 0 0 0 0 0 0 0 0 0 0 67 68 66 66 66 65 64 62 64 65 57 56 57 57 57 57 56 57 56 59 59 57 52 52 52 51 51 50 50 48 46 48 47 46 46 44 43 42 40 40 40 39 39 39 39 39 35 36 35 34 34 32 32 32 29 30 32 30 29 30 29 29 27 27 27 25 24 24 23 23 22 23 22 22 23 22 21 18 19 19 19 17 18 16 18 17 16 15 11 9 10 0 0 0 0 0 0 0 0 9 9 11 11 11 12 10 11 11 10 10 10 11 10 10 12 12 13 16 16 17 19 21 22 21 22 22 23 25 25 28 27 28 29 31 33 35 32 38 34 36 36 37 35 36 38 38 35 41 45 45 44 47 48 46 46 47 47 47 49 51 49 48 53 52 52 53 52 52 54 54 58 68 64 64 68 65 68 67 68 -193 -193 -193 -209 -193 -177 70 73 74 -193 829 -177 -193 74 75 79 80 81 86 85 87 89 90 91 91 95 100 102 100 100 100 -209 -193 -193 -193 -193 95 -209 -177 -177 -177 103 103 103 103 103 95 106 117 115 115 115 118 -193 121 122 122 352 123 123 123 123 121 121 123 123 123 0 0 0 0 0
    0 0 0 0 0 0 0 0 0 0 0 0 0 0 0 0 0 0 0 0 0 0 0 0 0 0 0 0 0 0 0 0 0 0 0 0 0 0 0 0 0 0 0 0 0 0 0 0 0 0 0 0 0 0 0 0 0 0 0 0 0 0 0 0 0 0 0 0 0 67 68 66 65 66 65 63 62 64 65 -193 55 56 56 56 56 56 56 55 58 58 57 52 52 51 50 51 50 49 48 46 48 46 46 46 43 42 43 40 40 40 40 39 39 39 39 36 37 35 34 34 31 31 31 29 29 32 30 29 30 29 29 28 27 28 26 26 25 24 23 23 23 23 22 23 22 21 19 20 21 20 19 20 18 20 19 20 19 15 12 13 10 0 0 0 0 0 0 9 9 9 10 11 11 12 10 11 11 10 11 11 11 10 10 12 12 12 16 16 18 19 22 22 21 23 22 23 26 26 28 27 28 29 31 32 34 31 38 32 35 35 36 35 35 38 38 35 41 44 46 44 48 48 46 46 47 47 48 49 50 49 48 53 52 52 53 52 52 54 53 57 68 64 64 67 65 67 66 67 -193 69 -193 -193 143 -177 70 73 73 -193 830 -177 -193 74 75 79 80 81 86 86 87 89 90 91 91 95 100 102 100 101 100 97 -193 -193 -193 -193 94 -209 -177 -177 -177 103 102 102 102 102 95 106 116 115 115 115 118 -193 122 122 122 -193 125 124 124 124 122 123 124 124 124 0 0 0 0 0
    0 0 0 0 0 0 0 0 0 0 0 0 0 0 0 0 0 0 0 0 0 0 0 0 0 0 0 0 0 0 0 0 0 0 0 0 0 0 0 0 0 0 0 0 0 0 0 0 0 0 0 0 0 0 0 0 0 0 0 0 0 0 0 0 0 0 0 0 0 67 68 66 65 66 65 63 62 64 65 -193 54 56 55 56 55 55 56 54 58 58 57 51 52 51 50 50 50 48 48 45 48 45 45 45 43 42 42 40 40 40 40 39 39 39 39 36 37 36 34 34 31 30 31 29 28 31 30 29 31 29 29 29 27 29 27 27 26 25 25 25 25 25 23 24 22 22 20 21 21 20 20 21 19 21 20 20 20 17 15 14 11 0 0 0 0 0 9 9 10 10 11 11 11 12 11 10 11 10 10 10 10 10 10 11 12 11 17 16 19 19 21 22 22 23 23 23 26 26 28 28 29 29 30 32 34 30 37 31 34 34 35 35 35 37 38 35 41 44 47 44 48 49 46 46 47 47 48 49 50 49 47 53 52 52 52 52 51 54 52 58 68 64 65 68 65 67 65 67 -193 68 69 69 143 -177 69 72 73 71 -177 -177 -193 -193 74 79 81 81 87 86 87 89 90 91 91 94 99 102 100 101 100 97 -177 -177 -193 97 94 -193 -177 -177 -177 103 101 102 102 101 95 106 116 116 116 116 119 123 122 122 122 -193 125 124 125 124 122 123 125 124 124 0 0 0 0 0
    0 0 0 0 0 0 0 0 0 0 0 0 0 0 0 0 0 0 0 0 0 0 0 0 0 0 0 0 0 0 0 0 0 0 0 0 0 0 0 0 0 0 0 0 0 0 0 0 0 0 0 0 0 0 0 0 0 0 0 0 0 0 0 0 0 0 0 0 0 66 68 66 65 66 65 64 63 65 65 -193 54 55 55 55 55 54 55 53 57 57 56 50 51 50 49 49 50 48 47 45 48 45 45 45 43 42 42 40 40 40 39 39 39 39 39 37 37 36 35 35 32 32 33 30 29 32 30 29 31 29 29 29 27 29 27 28 27 26 26 26 25 25 23 24 21 21 20 20 21 20 20 21 19 21 20 20 20 18 16 15 11 9 0 0 0 0 9 10 11 10 11 11 11 11 10 10 10 9 10 9 9 9 10 10 11 11 17 15 19 19 21 22 22 23 23 23 26 26 29 28 29 29 30 32 33 30 36 31 34 34 36 35 35 38 39 37 42 44 48 44 48 49 47 47 47 47 48 48 50 49 48 54 52 52 52 52 51 54 51 58 68 64 65 68 66 68 66 67 -193 68 69 69 143 -193 -193 72 73 -193 -177 -177 -193 -193 -209 79 81 81 86 86 87 89 90 91 91 94 99 102 100 101 100 97 -177 -177 -193 97 93 103 -177 -177 -193 102 101 101 101 101 96 106 117 116 116 116 119 123 122 122 -193 349 -193 124 124 124 121 122 124 124 124 0 0 0 0 0
    0 0 0 0 0 0 0 0 0 0 0 0 0 0 0 0 0 0 0 0 0 0 0 0 0 0 0 0 0 0 0 0 0 0 0 0 0 0 0 0 0 0 0 0 0 0 0 0 0 0 0 0 0 0 0 0 0 0 0 0 0 0 0 0 0 0 0 0 0 66 68 67 65 66 65 64 63 65 66 -193 53 55 55 55 55 54 54 53 57 57 56 50 51 50 49 49 50 48 47 45 48 45 45 44 43 41 42 40 40 40 39 39 39 39 39 37 38 37 36 37 34 34 35 33 30 32 30 29 31 29 28 29 27 29 28 29 28 26 26 26 25 25 22 23 20 21 20 20 20 20 20 21 19 21 20 20 20 19 16 15 12 10 0 0 0 0 10 10 11 10 12 11 11 11 10 10 10 10 10 9 9 9 10 11 11 11 18 15 19 19 21 22 22 23 23 23 27 26 29 28 28 29 30 32 32 29 35 31 33 34 35 35 36 40 40 40 42 44 50 46 49 50 47 47 48 48 48 48 51 50 48 54 52 52 52 52 51 54 50 57 67 64 65 68 67 68 67 68 -193 68 70 70 143 -193 -193 71 -193 -193 -177 -177 -177 -193 -209 79 81 80 86 86 88 89 90 91 91 94 99 103 100 101 100 97 -193 323 -193 97 93 102 -177 -193 -193 -177 -177 101 102 102 98 107 117 117 116 116 119 122 121 122 351 349 349 123 123 123 120 121 123 123 123 0 0 0 0 0
    0 0 0 0 0 0 0 0 0 0 0 0 0 0 0 0 0 0 0 0 0 0 0 0 0 0 0 0 0 0 0 0 0 0 0 0 0 0 0 0 0 0 0 0 0 0 0 0 0 0 0 0 0 0 0 0 0 0 0 0 0 0 0 0 0 0 0 0 0 66 68 67 65 66 65 64 63 66 66 -193 53 54 55 55 54 54 54 53 58 56 56 50 51 50 49 49 50 48 47 45 48 45 45 44 43 41 42 40 40 40 39 39 40 39 39 38 39 38 38 38 37 36 37 36 31 33 30 28 31 29 28 30 28 30 28 29 28 26 26 26 24 24 22 22 20 21 19 20 20 19 19 21 19 20 19 19 19 18 16 16 12 11 0 0 0 9 10 10 11 10 12 11 11 11 10 10 10 10 10 9 9 9 10 10 11 10 17 14 19 19 20 22 22 23 23 23 26 26 28 28 28 29 30 31 31 28 34 31 32 34 35 36 37 41 42 41 43 45 52 47 50 50 48 47 48 48 49 48 51 50 48 54 52 52 52 52 51 53 49 57 66 64 65 68 67 69 68 69 -193 69 70 70 -177 -193 -193 70 72 -193 -177 -177 -177 -177 -177 -193 81 80 86 86 88 -193 89 91 91 93 99 103 100 100 100 97 -193 -193 99 97 92 102 -193 -193 101 -177 -177 102 102 103 99 107 117 117 117 117 119 123 121 122 351 350 350 123 122 122 119 120 122 122 122 0 0 0 0 0
    0 0 0 0 0 0 0 0 0 0 0 0 0 0 0 0 0 0 0 0 0 0 0 0 0 0 0 0 0 0 0 0 0 0 0 0 0 0 0 0 0 0 0 0 0 0 0 0 0 0 0 0 0 0 0 0 0 0 0 0 0 0 0 0 0 0 0 0 0 67 69 68 66 67 66 65 64 67 67 -193 53 54 55 55 54 54 54 53 57 56 56 50 51 50 50 49 50 48 48 45 49 46 46 44 44 41 42 40 41 40 39 39 40 40 40 39 40 39 39 40 39 38 39 38 34 34 30 27 31 28 28 30 28 30 29 29 28 26 26 26 24 23 22 22 19 21 19 20 20 19 19 21 18 19 19 19 19 19 16 16 12 11 9 0 0 9 10 10 10 10 12 11 11 11 10 10 10 10 10 0 9 0 10 10 10 10 17 14 18 18 19 21 21 22 22 22 26 25 28 28 28 29 30 31 31 28 34 32 32 34 35 36 38 41 42 42 43 45 52 47 50 50 48 48 49 49 49 48 51 50 48 53 52 51 52 52 51 53 50 57 66 64 65 68 68 69 69 70 -193 69 71 71 -193 -193 -193 70 71 -193 -177 -177 -177 -177 -177 -193 80 -193 -193 86 -193 -209 89 91 91 93 98 102 100 100 99 96 -193 -193 98 97 92 101 99 100 101 -177 -177 102 103 103 101 106 117 117 117 117 119 124 121 -193 352 351 350 122 122 122 118 120 121 122 121 0 0 0 0 0
    0 0 0 0 0 0 0 0 0 0 0 0 0 0 0 0 0 0 0 0 0 0 0 0 0 0 0 0 0 0 0 0 0 0 0 0 0 0 0 0 0 0 0 0 0 0 0 0 0 0 0 0 0 0 0 0 0 0 0 0 0 0 0 0 0 0 0 0 0 68 69 68 67 67 67 66 65 67 67 57 53 54 55 55 54 54 54 54 58 57 56 51 52 51 50 50 51 48 48 45 49 46 46 45 44 42 43 41 42 40 40 40 40 40 40 39 40 39 41 40 40 39 40 39 35 34 29 27 32 28 28 30 28 30 29 30 28 26 26 26 23 22 21 22 19 20 19 18 19 18 18 20 17 18 18 18 19 18 17 16 12 11 10 9 9 10 10 10 10 10 12 10 11 10 10 10 10 9 10 0 9 0 10 9 10 9 16 14 18 18 18 20 20 22 21 21 25 25 27 28 28 28 30 31 31 28 33 32 31 34 35 36 38 41 43 42 42 46 53 48 51 50 48 48 49 49 49 48 50 50 48 53 51 51 51 52 51 54 50 57 65 64 66 68 -193 70 70 71 -193 70 71 -193 -193 -177 -193 69 71 -193 -177 -177 -177 -193 -177 77 80 -193 -193 -193 -193 -209 89 91 91 93 98 102 99 99 99 96 96 -193 98 96 93 100 100 100 -177 -177 -177 103 104 103 102 106 117 118 117 117 119 123 120 349 351 350 350 121 121 121 117 120 120 122 121 0 0 0 0 0
    0 0 0 0 0 0 0 0 0 0 0 0 0 0 0 0 0 0 0 0 0 0 0 0 0 0 0 0 0 0 0 0 0 0 0 0 0 0 0 0 0 0 0 0 0 0 0 0 0 0 0 0 0 0 0 0 0 0 0 0 0 0 0 0 0 0 0 0 0 67 69 68 67 67 67 65 65 67 68 57 53 55 56 56 55 55 55 55 58 57 56 52 52 51 51 50 51 49 49 46 50 46 46 45 44 42 43 42 43 41 40 40 41 40 40 40 41 40 42 41 41 41 41 40 37 34 29 26 32 28 27 31 28 30 29 30 28 26 26 26 23 22 21 21 18 20 18 17 18 16 17 19 16 16 15 15 17 16 16 14 11 11 11 10 11 10 10 10 11 10 13 11 11 10 10 10 10 9 10 0 9 0 10 9 10 10 15 14 18 18 18 20 20 21 21 21 24 24 26 28 28 28 30 31 30 28 32 33 30 33 35 36 37 41 43 42 42 45 53 48 51 51 48 48 49 49 48 48 50 49 47 -193 51 -193 51 52 52 54 51 57 64 64 66 68 -177 70 -193 72 -193 -193 -193 -193 -193 -177 -193 69 71 -177 -177 -177 -177 -193 -177 -193 80 -193 -193 -193 -193 89 89 91 91 92 97 102 99 99 99 96 96 -193 97 96 93 100 100 100 -177 -177 -177 104 104 104 105 105 116 118 117 117 119 122 119 348 350 350 349 -193 120 120 117 120 120 122 121 0 0 0 0 0
    0 0 0 0 0 0 0 0 0 0 0 0 0 0 0 0 0 0 0 0 0 0 0 0 0 0 0 0 0 0 0 0 0 0 0 0 0 0 0 0 0 0 0 0 0 0 0 0 0 0 0 0 0 0 0 0 0 0 0 0 0 0 0 0 0 0 0 0 0 67 69 68 67 67 67 65 65 68 68 57 54 55 57 57 56 56 55 56 58 57 56 52 52 51 51 50 51 49 49 46 50 47 47 45 45 43 43 43 44 41 40 40 41 40 40 40 42 40 44 43 43 42 42 42 39 35 29 26 30 27 27 30 28 29 29 30 28 26 26 26 22 21 20 20 17 19 17 16 17 14 15 17 14 14 13 13 14 14 15 13 11 11 12 11 12 11 11 11 12 10 13 11 12 10 11 10 10 9 10 0 8 0 10 9 10 10 15 14 18 18 17 19 20 21 21 21 24 24 26 28 28 28 30 30 30 28 32 33 30 33 34 36 37 41 43 42 41 45 54 48 51 51 48 48 49 49 48 48 50 50 48 -193 -193 -193 51 53 52 54 52 57 63 64 66 68 -177 70 -177 72 -193 -193 -193 -193 -177 -177 -193 69 -193 -177 -177 -177 -177 -193 -177 -193 80 77 -193 86 87 89 89 90 91 91 96 101 99 98 98 95 95 -193 96 96 93 99 101 100 101 -177 -177 104 105 105 105 105 115 118 117 117 118 121 118 -193 349 349 348 119 119 119 116 120 120 122 121 0 0 0 0 0
    0 0 0 0 0 0 0 0 0 0 0 0 0 0 0 0 0 0 0 0 0 0 0 0 0 0 0 0 0 0 0 0 0 0 0 0 0 0 0 0 0 0 0 0 0 0 0 0 0 0 0 0 0 0 0 0 0 0 0 0 0 0 0 0 0 0 0 0 0 66 69 68 68 67 67 65 66 68 68 57 55 55 58 57 57 -193 56 -193 -193 57 57 53 52 52 51 51 51 49 50 46 51 48 47 45 45 43 44 44 45 41 40 40 41 41 41 41 43 41 46 44 45 44 44 43 -193 36 29 25 29 27 26 30 27 29 29 29 27 25 26 25 21 20 19 19 16 18 16 14 15 13 14 15 12 12 11 11 12 11 13 11 10 10 11 11 12 11 11 11 12 10 13 11 12 10 10 9 9 9 9 0 0 0 9 9 10 10 14 14 18 17 17 19 19 21 21 21 23 24 25 28 28 28 30 30 30 28 31 34 29 33 34 36 37 41 43 42 41 44 54 48 51 51 49 48 49 49 49 48 51 -177 48 111 112 111 52 53 52 54 52 57 62 64 65 67 -177 70 -177 73 -193 -193 -193 -209 -177 -177 145 70 -193 -177 -177 -177 -177 -193 -177 -193 79 -193 -193 86 87 89 88 89 91 91 95 100 98 96 97 95 94 98 96 96 94 98 101 100 101 -177 -177 104 105 105 105 104 114 118 117 117 118 120 117 118 348 348 347 118 118 119 116 120 120 122 121 0 0 0 0 0
    0 0 0 0 0 0 0 0 0 0 0 0 0 0 0 0 0 0 0 0 0 0 0 0 0 0 0 0 0 0 0 0 0 0 0 0 0 0 0 0 0 0 0 0 0 0 0 0 0 0 0 0 0 0 0 0 0 0 0 0 0 0 0 0 0 0 0 0 0 66 68 68 68 68 67 66 67 68 68 58 -193 -193 59 58 57 57 57 -193 59 58 57 53 53 52 52 52 52 49 50 46 51 48 47 45 45 43 44 44 46 41 40 40 41 41 41 41 43 41 47 46 46 46 45 45 -193 37 32 25 28 27 26 29 27 28 28 28 26 25 25 24 20 20 19 19 16 18 16 14 14 12 13 13 12 11 11 10 11 11 12 11 10 10 11 11 12 11 11 11 12 10 13 11 11 10 10 9 9 0 9 0 0 0 0 0 9 9 13 14 17 17 17 19 20 21 21 21 23 24 26 28 28 29 30 30 30 28 31 34 29 32 34 35 35 41 42 42 39 44 53 48 50 51 49 48 50 50 49 48 52 -177 50 111 113 112 52 54 53 54 53 57 61 65 65 66 574 69 -177 73 -193 -193 -193 -209 -177 -177 -193 70 -193 -177 -177 -177 -177 -193 -177 -193 80 -193 -193 86 87 89 88 88 90 90 93 99 98 96 96 95 94 97 96 96 94 97 100 99 100 101 -177 104 104 105 105 103 112 118 117 117 117 120 117 117 -193 348 347 118 118 119 116 120 120 122 122 0 0 0 0 0
    0 0 0 0 0 0 0 0 0 0 0 0 0 0 0 0 0 0 0 0 0 0 0 0 0 0 0 0 0 0 0 0 0 0 0 0 0 0 0 0 0 0 0 0 0 0 0 0 0 0 0 0 0 0 0 0 0 0 0 0 0 0 0 0 0 0 0 0 0 67 68 68 68 68 67 66 67 68 68 58 -193 -193 59 58 58 58 57 -193 59 58 58 54 53 53 52 51 52 49 50 46 51 48 47 45 45 43 44 44 46 41 40 41 41 41 41 41 43 41 47 47 47 47 46 46 -193 38 32 24 27 26 25 28 26 27 27 27 25 24 25 23 20 19 19 19 16 18 15 14 14 12 12 12 11 10 10 9 9 10 11 10 10 10 11 11 12 11 11 11 11 10 12 11 11 10 10 9 9 0 0 0 0 0 0 0 9 0 12 14 18 17 18 20 20 21 22 22 24 25 26 29 28 29 31 30 30 28 30 34 28 31 32 34 33 39 40 40 38 43 54 48 50 51 49 48 50 50 49 48 52 52 50 111 113 -193 53 54 54 54 54 57 61 65 64 65 -177 68 -177 73 -193 -209 -193 -209 -177 -177 -193 71 -193 -177 -177 -177 -177 -193 -177 -193 80 -193 82 -193 86 88 87 87 89 88 91 98 97 95 96 95 94 97 96 96 94 97 100 99 99 101 99 103 104 105 105 103 111 118 117 117 117 119 117 117 -193 348 -193 -193 119 119 118 121 121 123 122 0 0 0 0 0
    0 0 0 0 0 0 0 0 0 0 0 0 0 0 0 0 0 0 0 0 0 0 0 0 0 0 0 0 0 0 0 0 0 0 0 0 0 0 0 0 0 0 0 0 0 0 0 0 0 0 0 0 0 0 0 0 0 0 0 0 0 0 0 0 0 0 0 0 0 67 69 68 68 68 68 66 67 68 68 58 -193 -193 59 58 58 58 58 -193 59 58 58 54 53 53 52 51 52 49 50 46 51 48 47 45 45 44 45 45 47 42 41 41 41 42 42 42 44 41 47 47 48 48 48 47 -193 37 31 24 26 24 24 27 25 25 26 26 24 23 24 23 20 20 20 19 16 18 15 14 13 11 12 11 10 9 9 9 9 9 10 10 10 10 11 11 11 11 11 11 11 10 12 10 11 10 9 9 0 0 0 0 0 0 0 0 9 0 11 15 18 18 18 20 21 22 23 23 -193 26 27 29 29 30 31 30 30 28 30 34 28 30 31 32 32 38 39 39 36 43 54 48 50 51 49 48 50 50 49 48 52 52 51 -177 -193 -193 53 54 54 55 55 58 60 65 64 65 -193 68 -177 71 -193 -193 -193 -209 -177 -177 -193 71 73 -177 -177 -177 -177 -193 -177 -193 80 -193 81 85 85 87 87 86 88 87 90 96 97 95 96 95 94 97 96 96 95 96 101 99 99 101 99 103 104 104 105 102 110 118 117 117 117 119 117 117 -193 348 -193 -177 120 120 120 121 122 124 123 0 0 0 0 0
    0 0 0 0 0 0 0 0 0 0 0 0 0 0 0 0 0 0 0 0 0 0 0 0 0 0 0 0 0 0 0 0 0 0 0 0 0 0 0 0 0 0 0 0 0 0 0 0 0 0 0 0 0 0 0 0 0 0 0 0 0 0 0 0 0 0 0 0 0 67 69 68 68 68 68 66 67 68 68 58 -193 -193 -193 59 58 58 58 -193 59 58 58 54 53 53 52 52 52 49 50 46 51 48 47 46 46 44 46 46 48 42 41 41 41 41 41 41 43 41 46 48 49 49 49 -193 -209 37 30 24 25 24 24 26 25 24 24 25 23 22 23 22 20 20 20 19 16 18 16 15 13 11 12 10 9 9 9 0 0 0 10 9 10 10 10 10 11 11 10 11 11 10 11 10 10 10 9 9 0 0 0 0 0 0 0 0 9 9 11 16 18 18 19 20 22 22 -193 24 -193 27 28 30 30 30 32 30 30 27 29 33 28 29 30 31 31 37 38 38 35 43 54 48 50 51 50 48 50 50 49 48 52 53 -193 -193 -193 -193 53 55 55 55 56 58 60 65 64 64 68 67 -193 70 -193 -177 -209 -209 -177 -177 -193 72 74 -193 -193 -193 -177 -193 -177 -193 80 -193 80 85 85 87 86 85 88 87 89 95 98 95 96 95 94 97 96 96 95 96 101 99 99 101 -177 102 103 104 104 100 109 118 116 116 116 119 117 118 -193 348 347 -177 121 121 121 122 123 125 124 0 0 0 0 0
    0 0 0 0 0 0 0 0 0 0 0 0 0 0 0 0 0 0 0 0 0 0 0 0 0 0 0 0 0 0 0 0 0 0 0 0 0 0 0 0 0 0 0 0 0 0 0 0 0 0 0 0 0 0 0 0 0 0 0 0 0 0 0 0 0 0 0 0 0 68 69 68 68 68 67 65 66 67 68 58 -193 -209 -193 59 59 59 59 -193 60 59 59 54 54 53 53 52 52 49 50 46 51 48 47 46 46 45 46 46 48 43 41 41 41 41 41 41 44 41 46 49 51 51 -193 -193 -209 -193 -193 24 25 24 24 25 24 23 23 24 22 22 23 22 21 20 21 19 16 18 16 16 14 12 12 10 9 9 9 0 0 0 9 0 9 9 10 10 11 10 10 11 11 10 11 11 11 10 10 9 9 0 0 0 0 0 0 9 9 9 11 16 19 18 20 21 22 23 -209 25 27 28 29 30 30 30 31 29 29 27 29 33 28 29 30 31 30 36 38 38 35 43 54 48 49 50 49 47 50 50 48 48 53 53 -193 -193 53 52 53 55 55 56 57 59 60 66 64 64 67 66 68 69 -193 -177 -193 -209 -193 -193 -193 73 75 75 74 -193 -177 -193 -193 -193 80 77 79 84 84 86 86 84 87 86 89 94 98 95 96 96 94 97 96 97 96 96 101 99 99 101 -177 101 102 103 104 99 107 117 116 116 116 118 118 118 -193 348 347 -177 122 123 123 123 124 126 126 0 0 0 0 0
    0 0 0 0 0 0 0 0 0 0 0 0 0 0 0 0 0 0 0 0 0 0 0 0 0 0 0 0 0 0 0 0 0 0 0 0 0 0 0 0 0 0 0 0 0 0 0 0 0 0 0 0 0 0 0 0 0 0 0 0 0 0 0 0 0 0 0 0 0 68 69 68 68 68 67 65 65 66 67 58 57 -193 60 59 59 59 59 58 60 59 59 55 54 54 53 52 52 49 50 46 51 48 46 46 46 45 46 46 48 42 41 41 41 41 41 41 44 41 46 50 53 53 -193 -209 -209 -193 -209 23 24 23 23 24 23 22 23 24 22 22 22 22 21 20 21 20 17 18 16 17 15 12 13 10 10 10 10 9 9 0 9 0 9 9 9 9 10 10 10 11 11 10 12 11 11 10 10 10 9 9 9 0 0 0 9 9 10 10 11 16 19 18 20 21 23 24 27 26 28 28 29 30 30 29 31 29 29 27 29 33 28 30 30 31 30 36 38 38 35 43 53 48 48 50 49 47 50 50 48 48 53 54 52 53 53 52 54 55 56 -193 57 59 60 65 64 63 67 65 67 68 69 -177 -193 -209 -209 -177 -193 73 76 76 74 -193 -177 75 -209 -193 80 77 78 83 83 85 85 82 87 85 88 92 98 94 95 95 94 96 97 97 96 96 102 99 99 -177 -177 100 101 103 103 99 107 116 115 115 115 118 119 119 347 348 346 -193 124 124 124 123 125 127 127 0 0 0 0 0
    0 0 0 0 0 0 0 0 0 0 0 0 0 0 0 0 0 0 0 0 0 0 0 0 0 0 0 0 0 0 0 0 0 0 0 0 0 0 0 0 0 0 0 0 0 0 0 0 0 0 0 0 0 0 0 0 0 0 0 0 0 0 0 0 0 0 0 0 0 69 69 68 68 68 66 65 64 65 66 58 57 57 60 59 59 59 59 58 60 60 60 56 55 54 53 52 52 49 49 46 50 48 46 45 45 44 46 46 47 42 40 41 41 41 41 41 44 41 45 51 54 -193 -193 -193 -209 -193 -209 24 25 24 24 24 23 22 22 24 22 22 22 22 22 21 22 20 17 19 17 18 15 13 13 10 11 11 11 10 9 9 10 9 9 10 10 9 10 10 10 10 11 11 12 12 11 10 10 10 0 0 0 0 0 0 0 10 10 11 11 17 18 18 21 22 23 24 27 26 28 29 29 30 30 29 30 29 29 27 29 34 28 30 30 31 29 36 38 38 34 43 53 49 48 49 49 47 50 50 48 48 -193 54 53 54 54 53 54 56 56 -193 58 59 61 65 64 63 66 64 66 67 68 -177 -193 -193 -193 -177 -193 74 76 77 74 -193 -193 75 -209 -193 79 77 77 82 82 84 84 81 86 84 87 91 98 94 94 95 93 96 96 97 97 96 101 99 99 -177 -177 100 101 102 103 99 107 115 114 114 114 118 120 120 347 348 347 -193 125 125 125 123 125 127 127 0 0 0 0 0
    0 0 0 0 0 0 0 0 0 0 0 0 0 0 0 0 0 0 0 0 0 0 0 0 0 0 0 0 0 0 0 0 0 0 0 0 0 0 0 0 0 0 0 0 0 0 0 0 0 0 0 0 0 0 0 0 0 0 0 0 0 0 0 0 0 0 0 0 0 70 70 68 68 68 66 65 63 64 66 58 57 57 59 59 59 59 60 58 60 61 60 57 56 55 54 53 53 48 49 46 50 47 45 45 45 44 46 46 47 42 40 41 41 41 41 41 43 41 44 52 -193 -209 -193 -209 -209 -177 -209 -209 26 25 24 24 24 22 22 24 22 23 22 22 22 21 22 20 18 19 18 19 16 13 14 11 11 12 11 10 9 9 11 9 10 10 10 10 10 11 11 11 12 12 12 12 11 10 10 10 0 0 0 0 0 0 0 10 10 10 10 17 18 18 20 22 24 24 28 27 28 29 29 30 30 28 30 28 28 27 29 34 28 30 30 31 29 35 38 38 35 43 52 49 47 49 49 47 50 50 48 49 -193 54 53 54 54 53 55 56 57 -193 58 59 61 65 64 63 66 64 66 66 68 787 -193 -193 -177 143 -193 -193 76 77 74 -193 -193 75 -193 76 79 77 77 82 81 84 84 81 86 84 87 90 98 93 94 95 93 96 96 97 97 95 101 99 99 -177 -177 100 101 102 103 100 107 115 114 114 114 118 121 121 348 348 347 128 126 126 126 123 124 126 127 0 0 0 0 0
    0 0 0 0 0 0 0 0 0 0 0 0 0 0 0 0 0 0 0 0 0 0 0 0 0 0 0 0 0 0 0 0 0 0 0 0 0 0 0 0 0 0 0 0 0 0 0 0 0 0 0 0 0 0 0 0 0 0 0 0 0 0 0 0 0 0 0 0 0 70 70 69 68 68 67 65 63 65 66 58 57 57 59 59 59 59 60 59 60 61 60 57 56 55 54 53 53 48 49 46 50 47 45 45 45 44 45 45 46 42 40 41 41 41 41 41 43 42 44 52 -209 -209 -209 -209 -177 -177 -177 -209 26 26 25 25 24 22 22 24 22 23 22 22 23 21 22 21 18 20 18 19 17 14 15 11 11 12 11 10 9 9 11 9 9 10 10 10 10 11 10 11 12 13 13 13 12 12 11 11 9 9 0 0 0 0 0 10 10 10 11 17 18 18 20 22 24 25 29 27 28 29 29 30 30 28 29 28 28 27 29 34 29 31 31 31 29 35 38 38 35 43 52 50 47 49 50 46 50 50 48 49 -193 54 53 54 55 54 55 56 58 58 59 59 61 65 64 63 66 64 66 66 67 787 -193 -177 -177 143 -193 -193 76 77 74 -193 -193 75 77 76 79 78 76 82 81 84 84 81 86 84 87 89 98 93 93 95 93 96 97 97 97 95 101 100 98 101 100 100 101 102 103 99 106 115 115 115 115 118 123 122 -193 -193 348 128 126 125 126 122 124 125 127 0 0 0 0 0
    0 0 0 0 0 0 0 0 0 0 0 0 0 0 0 0 0 0 0 0 0 0 0 0 0 0 0 0 0 0 0 0 0 0 0 0 0 0 0 0 0 0 0 0 0 0 0 0 0 0 0 0 0 0 0 0 0 0 0 0 0 0 0 0 0 0 0 0 0 71 71 69 68 68 67 66 62 65 66 58 57 56 58 59 59 59 60 58 60 60 60 57 55 55 54 53 53 48 49 46 50 47 45 45 45 44 45 46 46 41 40 41 41 41 41 42 44 42 44 52 -193 -193 -177 -177 -177 -177 -209 -209 26 26 25 25 24 23 22 24 22 23 21 22 23 21 23 21 18 20 18 20 18 14 15 11 11 12 11 10 9 0 10 0 0 9 9 9 10 10 10 11 12 14 13 13 13 12 12 12 10 9 9 0 0 0 0 10 10 10 11 17 18 18 20 22 -193 25 29 27 28 28 29 30 30 28 29 27 28 27 29 35 29 31 31 32 29 35 38 39 36 43 51 50 47 50 50 46 49 50 48 49 -193 53 -193 53 55 -193 55 56 58 -193 59 59 61 66 64 64 67 64 66 65 67 786 -193 -177 -177 142 -209 -193 75 77 74 -177 75 75 77 -193 79 78 76 81 81 83 85 81 86 84 87 89 97 93 93 96 93 96 97 97 97 95 101 100 98 101 100 100 101 102 102 99 106 114 115 115 115 118 124 122 -193 -193 349 128 125 125 125 121 122 124 125 0 0 0 0 0
    0 0 0 0 0 0 0 0 0 0 0 0 0 0 0 0 0 0 0 0 0 0 0 0 0 0 0 0 0 0 0 0 0 0 0 0 0 0 0 0 0 0 0 0 0 0 0 0 0 0 0 0 0 0 0 0 0 0 0 0 0 0 0 0 0 0 0 0 0 71 71 69 69 69 67 66 62 65 66 -193 56 56 58 59 59 59 59 58 59 60 60 57 55 55 54 53 53 49 49 46 51 47 45 45 45 44 45 46 46 41 40 40 41 41 41 41 43 42 43 52 -177 -177 -177 -177 -177 -177 -209 -209 27 27 26 26 25 23 22 24 22 23 21 22 23 21 23 21 19 20 18 20 18 14 15 11 12 13 12 11 10 10 11 9 9 10 10 9 10 11 11 11 13 14 14 13 13 12 12 12 10 9 0 0 0 0 0 10 10 10 11 17 18 18 21 22 -193 25 29 28 28 28 28 29 29 27 28 27 27 27 29 35 29 31 31 32 30 34 38 39 37 43 50 51 47 50 50 46 49 50 48 49 51 53 -193 53 55 -193 -193 57 58 -193 60 59 62 66 64 64 67 64 66 66 67 786 -193 -193 -193 -193 -193 -193 -193 76 73 -177 75 76 78 -193 79 79 76 81 80 83 84 81 86 85 87 90 98 93 93 96 93 96 97 97 97 95 100 100 98 101 100 -177 101 102 102 99 106 115 116 116 116 119 124 122 -193 -193 349 350 124 123 124 120 121 122 124 0 0 0 0 0
    0 0 0 0 0 0 0 0 0 0 0 0 0 0 0 0 0 0 0 0 0 0 0 0 0 0 0 0 0 0 0 0 0 0 0 0 0 0 0 0 0 0 0 0 0 0 0 0 0 0 0 0 0 0 0 0 0 0 0 0 0 0 0 0 0 0 0 0 0 71 71 70 69 69 67 67 62 66 66 -193 56 56 58 59 59 59 59 58 59 60 59 57 55 55 54 53 53 50 50 46 51 47 45 45 45 44 45 45 46 40 39 40 40 40 40 41 42 41 43 52 -177 -177 -177 -177 -177 -177 -209 -209 27 28 27 26 26 24 23 25 22 23 21 22 23 22 23 22 19 20 19 20 19 14 16 12 12 14 13 11 11 11 12 10 10 10 10 10 10 11 11 11 13 13 13 13 12 12 11 11 10 0 0 0 0 0 0 9 9 10 11 16 18 18 21 22 24 24 28 27 27 27 27 28 28 26 27 26 27 27 29 35 29 32 32 32 30 34 38 39 37 43 48 51 47 50 50 46 49 50 48 49 50 52 -177 53 56 -193 -193 57 58 -193 60 60 62 66 64 64 67 65 67 66 68 786 -193 -193 -193 -193 -177 -209 -193 -193 -193 -177 75 76 78 76 79 79 76 80 80 82 84 80 86 85 88 90 98 93 93 97 94 97 97 97 97 95 100 100 98 101 100 -177 102 102 103 101 106 115 117 117 117 119 124 121 -193 -193 349 349 123 122 122 119 121 121 124 0 0 0 0 0
    0 0 0 0 0 0 0 0 0 0 0 0 0 0 0 0 0 0 0 0 0 0 0 0 0 0 0 0 0 0 0 0 0 0 0 0 0 0 0 0 0 0 0 0 0 0 0 0 0 0 0 0 0 0 0 0 0 0 0 0 0 0 0 0 0 0 0 0 0 71 71 70 69 70 68 68 62 66 67 534 -193 55 -193 59 58 58 59 58 59 60 59 56 55 54 53 53 53 50 50 47 51 47 45 46 45 44 45 45 45 39 39 39 39 40 40 41 42 41 43 52 -177 -177 -177 -177 -177 -177 -209 -209 28 28 28 27 27 25 23 25 22 23 22 22 23 22 23 22 20 21 19 20 19 14 15 12 13 13 13 11 11 11 12 11 10 11 11 10 11 11 11 11 13 13 13 13 12 12 11 11 10 0 0 0 0 0 0 0 0 9 10 14 16 17 20 21 24 24 27 26 -193 26 26 -193 27 -193 27 26 27 27 30 35 30 32 32 33 30 33 38 39 37 43 46 51 47 50 50 46 48 49 48 49 49 52 -177 53 56 55 55 57 58 59 61 60 62 66 64 64 67 66 67 67 68 787 -193 -193 -193 -193 -177 -209 -193 -193 -209 -177 75 76 79 76 80 80 76 80 80 82 84 80 86 84 87 90 98 94 94 97 94 97 97 97 97 95 99 100 98 102 -177 -177 103 103 104 104 106 114 118 117 117 119 123 120 -193 349 349 349 -193 -193 121 118 121 121 123 0 0 0 0 0
    0 0 0 0 0 0 0 0 0 0 0 0 0 0 0 0 0 0 0 0 0 0 0 0 0 0 0 0 0 0 0 0 0 0 0 0 0 0 0 0 0 0 0 0 0 0 0 0 0 0 0 0 0 0 0 0 0 0 0 0 0 0 0 0 0 0 0 0 0 71 71 70 70 70 68 68 62 67 67 534 -193 -193 -193 58 58 58 58 58 58 58 58 55 54 54 53 52 53 50 50 47 51 47 45 46 45 44 44 45 45 38 39 39 39 40 40 41 42 41 42 51 -177 -177 -177 -177 -177 -193 -209 -209 28 28 28 28 28 26 24 26 23 24 22 22 23 22 23 22 20 21 19 20 19 14 15 12 13 12 13 12 11 11 12 11 11 11 11 11 11 12 11 11 13 13 13 12 12 11 11 11 9 0 0 0 0 0 0 0 0 0 9 13 15 16 20 21 23 24 27 26 26 26 26 -193 28 27 27 27 28 28 30 35 30 33 33 33 30 33 38 39 37 42 45 51 47 50 50 47 48 49 48 49 49 52 -193 52 56 55 55 57 58 59 61 60 61 66 64 64 67 66 68 68 69 -193 70 70 -193 -193 -193 -193 -193 -177 -193 -177 76 77 80 76 80 80 77 81 81 83 84 81 86 84 87 91 99 95 94 98 95 97 97 97 97 95 99 100 98 102 -177 -177 104 105 105 105 106 115 118 117 117 119 122 119 -193 349 349 349 -193 -193 120 118 121 121 123 0 0 0 0 0
    0 0 0 0 0 0 0 0 0 0 0 0 0 0 0 0 0 0 0 0 0 0 0 0 0 0 0 0 0 0 0 0 0 0 0 0 0 0 0 0 0 0 0 0 0 0 0 0 0 0 0 0 0 0 0 0 0 0 0 0 0 0 0 0 0 0 0 0 0 71 71 70 70 70 69 68 62 68 68 -193 -193 -193 -193 58 58 58 58 57 57 58 57 55 53 53 52 51 52 50 49 47 51 47 46 46 45 44 44 45 45 38 38 38 38 39 40 41 41 -193 42 50 -177 -177 -177 -177 -177 -193 -209 -209 28 29 29 29 29 27 26 28 23 24 23 22 23 22 23 22 20 21 18 20 19 14 15 12 12 12 13 13 12 12 13 12 13 13 13 12 12 13 12 12 13 12 13 12 12 11 10 10 9 0 0 0 0 0 0 0 0 0 9 12 14 16 21 21 23 24 26 26 26 26 26 27 28 27 27 28 28 28 30 35 30 33 32 33 30 33 37 38 36 41 43 49 46 50 49 47 48 49 48 49 48 51 50 52 56 55 55 56 57 59 61 60 61 66 64 64 67 67 69 69 70 -193 70 71 -193 -193 -177 71 71 -177 -177 -177 76 78 80 77 81 82 78 82 82 83 85 83 86 84 88 91 100 96 95 99 95 97 97 97 97 95 98 100 98 -177 -177 -177 105 106 106 106 105 115 119 117 117 119 121 119 349 350 350 350 -193 119 120 118 121 121 124 0 0 0 0 0</data></disparity>
</opencv_storage>
