<?xml version="1.0"?>
<opencv_storage>
<gps_time_stamp>318716</gps_time_stamp>
<gps_x>-1.2426940917968750e+001</gps_x>
<gps_y>1.0958586692810059e+001</gps_y>
<gps_z>-2.0006673336029053e+000</gps_z>
<image_time_stamp>309560</image_time_stamp>
<disparity type_id="opencv-matrix">
  <rows>88</rows>
  <cols>320</cols>
  <dt>s</dt>
  <data>
    0 0 0 0 0 0 0 0 0 0 0 0 0 0 0 0 0 0 0 0 0 0 0 0 0 0 0 0 0 0 0 0 0 0 0 0 0 0 0 0 0 0 0 0 0 0 0 0 0 0 0 0 0 0 0 0 0 0 0 0 0 0 0 0 0 0 0 0 0 52 48 48 50 50 50 44 42 41 44 45 43 44 44 45 44 44 45 44 44 44 43 41 39 39 39 -193 0 0 0 0 0 0 0 0 0 0 0 0 0 9 11 11 11 10 0 9 0 0 0 0 0 0 0 0 0 0 0 9 10 12 11 10 11 9 9 9 0 0 0 0 0 -177 13 17 14 14 14 13 13 12 10 11 0 9 9 0 0 10 9 10 10 9 10 11 11 12 12 13 12 13 14 14 13 14 13 12 13 13 13 11 13 11 12 11 11 10 11 10 9 12 17 20 24 28 30 31 33 35 38 42 44 44 44 45 47 51 52 53 50 59 69 70 69 69 66 71 81 77 77 83 78 78 82 -193 84 84 85 86 83 85 85 85 84 82 82 83 80 84 189 195 -177 -177 -193 -177 -177 106 107 107 107 109 110 -193 108 110 -177 179 -193 -209 -193 -193 -177 -177 -177 -193 124 134 133 135 134 136 136 136 136 137 137 138 145 145 146 147 149 158 157 159 161 167 165 166 166 167 -177 169 -177 -177 172 172 178 175 175 176 -177 -177 339 339 340 -209 -177 -193 31 -193 -177 -209 -193 197 -209 0 0 0 0 0
    0 0 0 0 0 0 0 0 0 0 0 0 0 0 0 0 0 0 0 0 0 0 0 0 0 0 0 0 0 0 0 0 0 0 0 0 0 0 0 0 0 0 0 0 0 0 0 0 0 0 0 0 0 0 0 0 0 0 0 0 0 0 0 0 0 0 0 0 0 50 47 47 47 46 44 43 41 40 43 43 43 43 43 45 44 44 44 44 44 44 43 41 39 40 40 37 -193 0 0 0 0 0 0 0 0 0 0 0 0 9 11 11 12 10 0 10 0 0 0 0 0 0 0 0 0 0 0 0 9 11 10 10 9 0 0 0 0 0 0 0 0 -177 13 17 14 14 14 14 13 13 11 12 9 10 9 9 0 10 9 10 10 9 10 12 11 12 11 13 12 13 14 14 13 14 13 13 13 13 13 12 12 11 12 11 11 10 11 10 9 13 18 20 24 28 30 31 32 34 38 42 43 44 44 45 47 50 51 52 49 59 70 70 69 69 67 71 82 77 78 83 78 78 82 -177 84 -193 86 86 83 85 86 86 84 82 82 83 80 84 189 195 -177 -177 -193 -177 -177 106 107 107 106 109 -177 -193 108 111 175 178 -193 -209 -193 -209 -177 -177 -177 -193 123 134 133 135 134 136 136 137 137 137 138 138 145 144 145 146 149 156 156 157 160 167 166 166 166 167 -177 169 -177 -193 171 172 178 175 175 176 -177 -177 339 339 340 -193 -193 -193 31 -193 -177 -209 -193 -193 -209 0 0 0 0 0
    0 0 0 0 0 0 0 0 0 0 0 0 0 0 0 0 0 0 0 0 0 0 0 0 0 0 0 0 0 0 0 0 0 0 0 0 0 0 0 0 0 0 0 0 0 0 0 0 0 0 0 0 0 0 0 0 0 0 0 0 0 0 0 0 0 0 0 0 0 44 42 42 43 43 41 41 40 40 42 43 42 43 43 45 44 44 44 44 44 43 43 41 39 40 41 39 31 0 0 0 0 0 0 0 0 0 0 0 9 10 11 11 12 10 0 10 0 0 0 0 0 0 0 0 0 0 0 9 10 11 11 10 10 9 9 0 0 0 0 0 0 -177 13 18 14 15 15 14 14 14 12 13 11 11 10 9 9 10 9 10 10 10 10 12 11 12 12 13 12 13 14 15 13 14 13 12 13 13 13 12 12 11 12 12 11 11 11 10 9 13 20 21 24 28 30 31 33 34 37 41 43 44 44 45 46 50 51 52 46 59 70 70 70 70 69 71 82 78 78 82 78 78 81 447 84 -177 -193 87 83 85 86 86 84 83 83 83 80 84 -193 -177 -177 -177 -209 -177 -193 106 106 106 106 108 -177 -193 109 111 175 178 -193 -209 -193 -209 -177 -193 -177 118 122 133 132 134 133 136 136 136 136 137 138 138 147 146 146 146 149 158 157 159 161 167 167 167 167 168 -177 169 -177 -193 172 172 178 174 174 175 -177 340 339 339 340 -193 -177 -193 31 31 -193 -193 -193 -209 -209 0 0 0 0 0
    0 0 0 0 0 0 0 0 0 0 0 0 0 0 0 0 0 0 0 0 0 0 0 0 0 0 0 0 0 0 0 0 0 0 0 0 0 0 0 0 0 0 0 0 0 0 0 0 0 0 0 0 0 0 0 0 0 0 0 0 0 0 0 0 0 0 0 0 0 42 40 41 42 44 43 43 42 40 42 43 43 43 43 45 44 44 44 43 44 43 43 42 39 40 42 40 38 -209 0 0 0 0 0 0 0 0 0 10 11 11 13 12 13 11 9 11 9 9 0 0 0 0 0 0 0 0 0 9 10 11 11 11 11 10 10 9 0 0 0 0 0 15 13 18 14 15 15 14 14 14 12 14 11 12 11 10 10 11 10 11 12 11 11 13 12 13 13 13 13 13 14 16 13 15 14 13 13 13 13 12 12 12 12 12 12 12 12 11 11 15 22 22 24 28 31 32 34 35 38 41 43 45 44 45 46 49 50 51 45 59 71 71 71 71 71 71 82 78 78 82 78 77 80 446 83 -177 -177 -193 -193 85 86 86 85 83 83 83 80 84 -193 195 196 -177 -209 -177 -193 106 106 106 106 108 109 107 110 113 -177 -177 -193 -209 -193 -209 -209 -209 -209 117 121 132 131 133 132 135 136 136 136 137 137 138 146 146 146 146 149 158 158 161 163 167 168 168 168 168 -177 169 1008 -193 172 171 178 175 175 175 -193 340 339 340 340 -193 -177 -193 30 30 -193 191 196 -193 -209 0 0 0 0 0
    0 0 0 0 0 0 0 0 0 0 0 0 0 0 0 0 0 0 0 0 0 0 0 0 0 0 0 0 0 0 0 0 0 0 0 0 0 0 0 0 0 0 0 0 0 0 0 0 0 0 0 0 0 0 0 0 0 0 0 0 0 0 0 0 0 0 0 0 0 40 39 41 43 45 45 44 43 41 43 44 43 43 42 44 44 44 44 43 43 43 42 41 39 40 41 40 38 36 0 0 0 0 0 0 0 9 0 11 13 13 13 12 13 12 11 12 10 9 9 0 0 0 0 0 0 0 9 9 10 11 11 11 12 10 10 9 0 0 0 0 9 13 13 17 14 15 15 14 14 15 12 14 12 12 11 10 10 11 10 12 12 11 11 14 12 13 13 14 13 14 14 16 13 15 14 13 13 14 13 13 13 12 14 13 13 13 12 11 11 15 23 23 25 29 31 34 35 36 38 41 43 45 45 45 45 48 49 50 43 59 72 71 72 72 73 72 82 78 78 82 78 77 -193 446 82 -177 -177 -193 -193 85 86 86 85 83 83 83 80 84 -193 195 196 -177 -209 -209 -193 106 106 106 106 108 110 108 111 114 -177 -177 -193 -209 -193 -209 -209 -209 -193 116 121 131 -193 133 132 136 136 136 136 137 137 138 145 145 145 145 149 156 158 161 163 167 170 169 169 170 -193 169 1008 -177 172 171 177 175 175 175 -193 -193 340 341 341 -193 -177 -177 29 29 -177 191 196 -209 -209 0 0 0 0 0
    0 0 0 0 0 0 0 0 0 0 0 0 0 0 0 0 0 0 0 0 0 0 0 0 0 0 0 0 0 0 0 0 0 0 0 0 0 0 0 0 0 0 0 0 0 0 0 0 0 0 0 0 0 0 0 0 0 0 0 0 0 0 0 0 0 0 0 0 0 40 39 40 43 45 46 44 44 42 44 44 43 43 42 44 44 43 43 43 42 42 42 41 39 40 41 39 38 36 0 0 0 0 0 0 0 9 9 12 14 14 14 13 14 13 12 13 11 11 10 9 0 0 0 0 0 0 9 10 10 11 12 11 12 11 11 9 0 0 9 0 9 12 13 16 14 14 15 14 14 14 12 14 12 12 12 11 11 11 11 13 12 12 12 14 13 13 13 13 13 14 14 16 13 15 13 12 12 14 13 13 14 13 14 14 14 14 13 12 12 15 23 22 25 29 32 34 35 36 38 41 43 45 45 45 45 47 48 49 42 59 71 71 71 72 73 72 81 77 77 82 78 77 -193 446 81 -177 -177 -193 -177 85 86 86 85 83 83 83 80 84 86 194 196 -177 -209 -209 -209 106 106 107 107 109 111 108 113 115 -193 -177 -209 -209 -193 -209 -209 -193 -193 115 120 131 -193 133 133 136 136 137 137 137 138 138 145 145 145 146 149 156 158 162 164 168 172 170 170 170 -193 170 1008 -177 173 171 177 175 175 175 178 180 341 342 342 -193 -177 -177 28 29 -177 191 195 -209 -209 0 0 0 0 0
    0 0 0 0 0 0 0 0 0 0 0 0 0 0 0 0 0 0 0 0 0 0 0 0 0 0 0 0 0 0 0 0 0 0 0 0 0 0 0 0 0 0 0 0 0 0 0 0 0 0 0 0 0 0 0 0 0 0 0 0 0 0 0 0 0 0 0 0 0 42 40 41 44 47 46 43 44 42 44 44 44 43 42 44 44 43 43 42 42 42 42 41 40 40 41 40 39 38 0 0 0 0 0 9 10 10 10 14 17 17 17 17 17 16 15 15 13 12 12 10 9 0 9 0 0 0 10 10 11 11 12 11 13 11 11 9 9 9 9 9 9 12 13 15 14 14 15 14 14 14 12 13 12 11 12 10 10 11 11 13 12 12 12 14 13 13 14 14 13 14 13 15 12 14 13 12 12 14 13 13 14 13 15 15 15 14 13 13 13 16 23 23 25 29 32 34 35 36 38 41 43 45 45 45 45 47 47 48 42 59 70 70 71 71 73 72 80 77 77 81 78 77 -193 446 80 -193 -177 -193 -193 84 86 85 85 84 84 83 81 84 86 194 195 -177 -193 -209 -209 106 106 107 107 108 111 108 114 116 -193 -193 -209 -209 -209 -209 -209 -209 -209 114 120 131 132 134 134 137 137 137 137 137 138 138 143 144 143 144 149 155 157 160 164 168 173 171 171 171 173 170 1008 -177 -193 171 176 175 175 174 178 180 -193 342 343 -209 -177 -177 -193 28 457 190 195 -193 -193 0 0 0 0 0
    0 0 0 0 0 0 0 0 0 0 0 0 0 0 0 0 0 0 0 0 0 0 0 0 0 0 0 0 0 0 0 0 0 0 0 0 0 0 0 0 0 0 0 0 0 0 0 0 0 0 0 0 0 0 0 0 0 0 0 0 0 0 0 0 0 0 0 0 0 41 40 39 41 44 44 42 44 41 43 44 44 43 42 44 44 43 43 42 42 41 42 41 40 41 42 41 40 40 -209 0 0 10 11 11 11 12 12 16 18 18 17 17 18 16 15 15 13 12 11 10 9 0 9 0 0 0 10 11 11 12 13 12 13 11 12 9 9 9 9 9 10 12 13 15 14 13 15 13 13 13 12 13 12 11 12 10 11 10 11 13 12 12 12 14 12 13 14 13 13 13 13 14 12 13 13 12 12 14 13 13 15 14 15 16 15 15 14 14 13 16 24 24 26 30 33 34 35 36 38 41 43 45 45 45 45 46 46 47 42 59 70 69 70 71 72 72 79 77 77 80 77 76 -193 445 79 -193 -177 -193 -193 84 85 85 85 84 84 83 82 84 87 192 195 -177 -193 -193 -193 106 106 106 106 107 109 106 112 114 122 -209 -209 -209 -209 -209 -209 -209 -209 114 120 132 133 134 135 137 138 138 138 138 138 137 142 143 142 143 148 154 155 159 164 168 174 171 171 172 173 170 1008 173 -193 171 175 175 175 174 177 179 174 -177 345 -193 -193 -177 -193 -193 457 189 195 278 -193 0 0 0 0 0
    0 0 0 0 0 0 0 0 0 0 0 0 0 0 0 0 0 0 0 0 0 0 0 0 0 0 0 0 0 0 0 0 0 0 0 0 0 0 0 0 0 0 0 0 0 0 0 0 0 0 0 0 0 0 0 0 0 0 0 0 0 0 0 0 0 0 0 0 0 41 40 -193 -193 42 43 43 45 42 43 44 45 43 42 44 43 43 43 42 42 41 42 42 41 42 43 43 41 41 41 -193 10 13 13 13 13 13 13 18 19 19 19 20 20 17 15 15 13 12 11 11 10 9 10 0 9 0 13 12 12 13 13 12 13 12 12 9 10 10 10 10 11 13 13 14 14 13 15 13 13 13 12 12 12 11 12 11 11 11 11 13 12 12 12 14 12 13 13 13 13 13 13 14 12 13 12 11 12 13 12 14 15 14 16 16 16 15 14 14 13 16 24 25 26 30 34 35 36 -177 38 41 44 45 45 45 45 45 46 46 41 59 69 68 69 70 72 72 79 77 77 80 77 76 445 446 78 -193 -177 -193 -209 83 85 85 84 84 84 83 82 -193 87 191 194 -193 -193 385 -193 105 106 106 106 107 108 106 111 113 121 -209 -209 -209 -209 -209 -209 -209 -209 113 119 132 134 135 135 137 138 138 138 138 138 137 141 143 141 143 148 154 156 159 163 168 176 172 172 172 174 171 1008 174 -193 171 175 176 175 174 176 179 174 -193 346 -193 179 -177 -193 -193 457 189 194 277 276 0 0 0 0 0
    0 0 0 0 0 0 0 0 0 0 0 0 0 0 0 0 0 0 0 0 0 0 0 0 0 0 0 0 0 0 0 0 0 0 0 0 0 0 0 0 0 0 0 0 0 0 0 0 0 0 0 0 0 0 0 0 0 0 0 0 0 0 0 0 0 0 0 0 0 -193 -209 -193 -193 -193 43 -209 48 43 44 45 45 43 43 44 43 42 43 42 42 41 42 42 41 43 43 43 42 42 42 -209 -193 16 17 15 14 15 15 18 19 20 19 21 21 18 17 16 14 14 13 13 12 10 12 9 10 10 16 13 13 13 14 13 14 13 13 10 11 11 11 11 12 13 14 14 14 13 15 13 13 13 12 12 12 11 12 10 11 11 11 13 12 12 13 14 12 13 13 13 13 13 12 13 12 13 13 11 12 13 12 14 15 14 15 15 15 15 13 14 13 16 25 25 27 31 35 36 37 37 39 42 44 45 45 45 45 45 45 46 41 59 68 66 68 69 71 72 79 77 77 79 78 76 -193 446 78 77 -177 83 -193 82 84 84 84 84 84 -193 -193 -177 87 190 193 -193 -193 385 -193 105 106 106 106 106 107 105 110 111 -193 -193 -209 -209 -209 -209 -209 -209 -209 110 119 132 134 135 135 137 138 138 138 138 138 137 140 142 141 142 148 155 157 160 163 167 177 172 172 172 174 171 172 174 -193 172 175 176 175 174 176 179 174 -193 347 -193 177 -193 -209 -193 -177 -193 193 277 276 0 0 0 0 0
    0 0 0 0 0 0 0 0 0 0 0 0 0 0 0 0 0 0 0 0 0 0 0 0 0 0 0 0 0 0 0 0 0 0 0 0 0 0 0 0 0 0 0 0 0 0 0 0 0 0 0 0 0 0 0 0 0 0 0 0 0 0 0 0 0 0 0 0 0 -209 -209 -193 -209 -209 -209 -209 48 43 44 46 46 43 43 45 43 42 43 42 42 41 42 42 41 43 43 43 42 42 41 40 36 22 21 20 17 17 17 19 20 20 -193 22 22 18 18 16 15 15 14 15 13 12 14 11 13 12 18 15 14 15 15 14 15 14 14 11 12 12 13 12 13 14 14 15 14 14 15 13 13 13 12 12 12 11 11 10 11 11 11 13 12 12 13 14 12 13 14 13 13 13 12 13 12 13 13 12 12 14 12 13 15 14 14 15 15 14 12 13 13 16 25 26 27 32 36 37 37 37 38 41 43 45 45 44 45 45 45 46 41 58 65 63 -193 67 70 72 79 77 77 79 79 77 77 81 78 78 -193 83 -193 81 83 84 84 84 84 -193 -193 -177 87 189 193 -193 -193 -177 -193 105 106 106 106 106 107 105 110 111 120 -209 -209 -193 -209 -209 -209 -209 -209 106 119 132 135 135 136 137 138 138 138 138 138 137 140 143 142 142 148 154 157 160 162 167 177 172 172 172 173 171 172 175 175 172 175 177 175 175 176 179 174 -193 -177 -177 175 -177 -209 -193 -177 -193 193 277 -193 0 0 0 0 0
    0 0 0 0 0 0 0 0 0 0 0 0 0 0 0 0 0 0 0 0 0 0 0 0 0 0 0 0 0 0 0 0 0 0 0 0 0 0 0 0 0 0 0 0 0 0 0 0 0 0 0 0 0 0 0 0 0 0 0 0 0 0 0 0 0 0 0 0 0 -209 -209 -209 -209 -209 -209 -209 -193 43 44 46 46 43 43 45 43 42 43 42 42 41 42 42 41 44 44 43 41 41 41 41 38 -193 23 23 18 17 16 18 20 20 -193 -193 21 18 18 17 17 16 15 16 14 13 15 13 14 14 19 17 16 16 16 15 16 15 14 12 12 12 13 12 13 14 15 14 14 13 15 13 13 12 11 11 11 10 11 10 11 11 11 12 12 12 12 13 12 12 13 13 13 14 12 13 12 13 13 11 12 13 12 13 15 13 14 14 14 14 12 13 12 15 26 26 27 32 36 37 37 37 38 41 42 44 44 43 44 44 45 46 42 58 63 63 -193 66 69 72 78 76 77 78 80 77 78 82 79 78 84 83 82 80 83 83 83 84 84 -177 -177 -177 -193 189 -193 -193 -193 -193 -193 -193 106 106 106 106 107 106 110 111 119 86 -209 -209 -209 -209 -209 88 -193 103 118 132 -193 135 137 137 137 137 138 138 138 137 139 143 142 143 148 153 157 159 162 167 176 171 171 171 172 171 171 175 175 172 175 178 176 175 176 179 175 -177 -177 -177 174 -177 -209 -193 -177 -177 -193 277 -193 0 0 0 0 0
    0 0 0 0 0 0 0 0 0 0 0 0 0 0 0 0 0 0 0 0 0 0 0 0 0 0 0 0 0 0 0 0 0 0 0 0 0 0 0 0 0 0 0 0 0 0 0 0 0 0 0 0 0 0 0 0 0 0 0 0 0 0 0 0 0 0 0 0 0 -209 -209 -209 -193 -193 -209 -193 -209 42 42 45 46 44 43 45 42 42 43 42 42 41 41 43 41 44 44 43 41 41 41 41 38 30 25 25 17 17 16 18 19 20 -193 -193 21 18 18 17 17 17 15 16 15 14 16 14 16 16 19 18 17 17 17 16 16 16 15 12 13 12 14 13 14 14 14 13 14 13 15 12 12 11 11 11 11 10 11 10 11 10 11 12 11 12 12 12 11 12 13 12 12 14 12 12 12 13 12 11 11 12 11 12 13 12 12 13 13 12 11 11 11 14 25 26 27 30 36 37 37 37 38 40 41 43 43 42 43 44 45 46 42 58 62 62 -193 64 67 72 77 76 76 78 80 77 78 82 79 78 83 82 82 80 82 83 82 83 84 -177 -177 -177 -193 -193 -193 -193 -193 -193 -193 -209 105 106 106 105 107 106 110 112 119 -193 -193 -209 -209 -193 -193 88 89 101 117 132 140 136 137 137 137 137 138 137 138 136 139 145 144 145 149 154 157 158 159 166 173 169 170 170 171 -193 171 174 -193 172 174 179 176 176 176 179 176 -177 347 349 -193 -177 -209 -193 -177 -177 -193 -193 198 0 0 0 0 0
    0 0 0 0 0 0 0 0 0 0 0 0 0 0 0 0 0 0 0 0 0 0 0 0 0 0 0 0 0 0 0 0 0 0 0 0 0 0 0 0 0 0 0 0 0 0 0 0 0 0 0 0 0 0 0 0 0 0 0 0 0 0 0 0 0 0 0 0 0 -209 -209 -209 -209 -193 -209 -209 -193 41 41 44 46 44 43 45 42 42 42 42 41 41 41 43 41 44 44 43 41 41 41 41 38 -193 26 26 18 17 16 18 19 21 -193 -193 21 18 19 18 17 17 16 17 16 15 19 17 18 19 20 20 18 17 18 17 17 17 16 13 14 13 15 13 14 14 14 13 13 12 14 12 12 11 11 10 11 10 11 9 11 10 11 12 11 12 12 12 12 12 12 12 13 14 12 12 12 13 12 11 11 11 10 11 12 11 11 11 11 11 9 9 9 12 24 26 27 30 36 36 36 36 37 39 40 42 42 40 42 43 45 45 42 57 61 61 -193 62 65 71 76 75 75 76 79 77 77 81 78 77 83 82 82 79 81 82 82 83 84 -177 -177 -177 -177 -193 -193 -177 -193 -193 -193 -193 -193 105 106 105 107 106 110 112 119 -193 -193 -209 -209 -193 -193 87 90 100 117 132 140 136 137 137 137 137 137 137 138 135 139 147 147 148 150 154 157 157 158 165 170 168 168 168 169 -193 171 173 -193 172 175 179 176 177 177 180 178 -177 -177 -177 -209 -177 -193 -193 -177 452 -193 -209 197 0 0 0 0 0
    0 0 0 0 0 0 0 0 0 0 0 0 0 0 0 0 0 0 0 0 0 0 0 0 0 0 0 0 0 0 0 0 0 0 0 0 0 0 0 0 0 0 0 0 0 0 0 0 0 0 0 0 0 0 0 0 0 0 0 0 0 0 0 0 0 0 0 0 0 -209 -193 31 -209 -193 -209 -209 42 41 41 44 45 44 43 45 42 41 42 42 41 41 41 43 -193 45 44 43 41 41 41 41 38 -193 27 27 17 15 15 17 17 19 -193 21 20 18 19 18 18 18 17 18 19 17 21 19 20 21 21 21 19 18 19 17 18 17 15 13 13 12 14 13 15 14 13 12 13 12 14 12 12 10 11 10 11 11 11 10 12 10 11 12 11 13 12 12 12 12 12 13 13 14 12 13 13 13 13 11 11 11 10 10 11 11 10 9 10 10 0 0 0 10 22 26 26 29 35 35 35 36 37 39 39 41 41 39 42 43 45 46 43 56 60 60 61 61 64 71 75 74 74 75 79 76 77 81 78 77 82 81 82 78 81 82 81 83 83 -177 -177 -177 -177 91 -193 -177 -193 -193 -193 -193 -209 105 105 105 107 106 110 113 119 -193 86 -209 -209 -209 -209 87 91 100 -177 132 138 135 136 136 136 136 136 136 137 135 140 147 147 148 150 154 157 157 157 164 168 166 166 166 167 -177 170 173 174 172 176 180 178 178 178 181 -193 -177 -177 -177 -209 -177 23 -193 -177 -177 -193 -209 197 0 0 0 0 0
    0 0 0 0 0 0 0 0 0 0 0 0 0 0 0 0 0 0 0 0 0 0 0 0 0 0 0 0 0 0 0 0 0 0 0 0 0 0 0 0 0 0 0 0 0 0 0 0 0 0 0 0 0 0 0 0 0 0 0 0 0 0 0 0 0 0 0 0 0 -209 -209 31 -209 -193 -209 44 43 42 41 44 46 44 43 45 41 41 42 42 41 41 41 43 -177 44 44 43 41 41 41 41 38 -193 27 27 16 13 13 16 16 18 18 19 19 18 18 18 18 18 18 19 20 19 22 20 21 22 22 22 21 19 19 17 18 17 15 13 12 12 14 12 14 13 13 12 13 12 14 12 12 11 11 11 11 11 12 11 12 11 11 12 11 13 12 12 13 12 13 13 14 14 13 13 13 13 13 12 11 11 10 11 11 11 10 9 10 10 0 0 0 10 19 25 26 28 34 34 35 36 37 38 38 41 41 39 43 43 45 47 45 54 59 60 60 60 63 70 74 73 73 -193 -193 75 76 80 77 76 82 80 82 78 80 81 81 83 84 -177 -177 -177 -177 92 -193 -177 -193 -193 -193 -193 -177 105 105 105 107 107 110 114 119 -209 -193 -209 -209 -193 -209 88 93 100 117 131 136 134 135 134 134 135 135 135 136 135 140 149 149 150 151 154 157 157 157 162 167 164 164 165 166 -177 170 173 174 -193 177 181 179 179 179 -193 -177 -177 -177 346 -209 -177 22 24 -177 451 -193 -209 197 0 0 0 0 0
    0 0 0 0 0 0 0 0 0 0 0 0 0 0 0 0 0 0 0 0 0 0 0 0 0 0 0 0 0 0 0 0 0 0 0 0 0 0 0 0 0 0 0 0 0 0 0 0 0 0 0 0 0 0 0 0 0 0 0 0 0 0 0 0 0 0 0 0 0 -209 -209 -209 -209 -209 -209 46 44 42 42 45 46 44 43 44 41 41 42 42 41 41 41 42 -177 44 44 43 41 41 42 41 39 -193 28 27 15 11 12 14 13 16 17 17 18 17 18 18 18 18 19 19 21 21 23 21 22 22 22 21 21 18 19 16 16 16 14 12 12 11 13 12 14 13 13 13 13 13 14 13 13 11 12 11 12 12 12 11 11 11 12 12 12 13 13 13 13 13 14 14 14 15 13 14 14 13 13 12 11 11 11 11 11 11 10 9 10 10 9 0 0 9 16 24 25 27 32 32 34 35 36 38 37 41 41 39 43 44 46 48 47 54 58 59 59 59 62 69 72 71 70 -193 308 75 76 80 77 76 82 80 82 78 80 81 81 83 84 -177 -177 -177 -177 92 95 -193 -193 -193 -193 -193 -177 -193 105 105 107 108 112 116 119 -209 -193 -209 -193 -193 -209 88 94 100 117 129 135 133 134 134 134 134 134 134 135 136 141 149 150 150 151 153 157 156 156 159 166 162 163 163 165 -177 170 172 174 -193 178 182 180 181 181 -209 -177 -177 -177 345 -209 -177 21 23 -177 450 -193 -193 196 0 0 0 0 0
    0 0 0 0 0 0 0 0 0 0 0 0 0 0 0 0 0 0 0 0 0 0 0 0 0 0 0 0 0 0 0 0 0 0 0 0 0 0 0 0 0 0 0 0 0 0 0 0 0 0 0 0 0 0 0 0 0 0 0 0 0 0 0 0 0 0 0 0 0 -209 -209 -209 -209 -193 -209 44 44 42 42 45 46 44 43 44 -193 41 42 42 41 41 41 42 -193 44 43 43 40 40 42 -193 -209 -193 -193 28 15 10 11 14 13 15 16 17 18 17 19 18 19 18 19 19 21 20 22 21 21 22 22 21 20 18 19 16 16 15 13 12 11 11 13 11 13 13 13 13 13 13 14 14 14 12 13 12 12 12 13 12 12 12 12 13 13 14 14 14 14 13 14 14 14 15 14 14 13 13 14 12 11 12 11 11 11 11 10 9 10 9 0 0 0 9 14 22 23 26 30 31 32 34 36 38 37 41 41 39 43 44 47 48 49 53 58 59 59 59 61 68 71 69 68 -193 307 -193 75 79 77 76 82 81 82 78 80 81 81 83 84 -177 -193 -193 -177 92 95 -193 -193 -193 -193 -193 -177 -193 105 104 107 109 113 118 121 -193 86 -193 -193 -193 -209 88 94 100 117 128 134 133 134 133 133 133 134 134 135 137 141 150 151 151 151 152 157 156 156 158 165 161 161 162 164 -177 169 172 173 -193 178 182 181 181 181 -209 -177 -177 -177 344 -193 -193 21 22 -177 450 -193 -193 196 0 0 0 0 0
    0 0 0 0 0 0 0 0 0 0 0 0 0 0 0 0 0 0 0 0 0 0 0 0 0 0 0 0 0 0 0 0 0 0 0 0 0 0 0 0 0 0 0 0 0 0 0 0 0 0 0 0 0 0 0 0 0 0 0 0 0 0 0 0 0 0 0 0 0 -209 -209 -209 -209 -193 -209 44 44 42 42 45 46 45 43 44 -193 41 42 42 41 41 41 42 -193 44 43 43 40 40 42 -193 -209 -193 -193 -193 16 11 12 14 14 16 16 17 17 17 19 18 18 18 18 18 20 20 21 20 20 21 21 20 20 17 18 16 15 15 13 12 11 11 12 11 13 12 13 12 13 13 14 13 13 12 13 12 13 13 14 12 14 14 14 14 14 15 14 14 15 13 15 14 14 15 14 14 14 13 13 11 11 12 11 11 11 12 10 10 10 10 9 9 9 9 14 20 22 25 29 30 31 34 35 37 36 40 40 39 -177 44 47 48 50 53 58 58 59 59 61 66 69 68 66 70 307 305 75 79 77 76 82 81 82 78 81 82 82 84 85 -193 -193 -193 -177 92 95 -193 -193 -193 -193 -193 -177 -193 105 104 107 110 114 120 121 -193 -193 -193 -193 -177 -193 88 95 101 118 128 134 132 133 132 132 133 134 134 134 137 142 150 151 151 152 152 157 156 157 158 165 161 162 162 165 -177 169 172 173 -193 178 183 181 181 -193 -209 -177 -177 -177 344 -193 -193 20 22 -177 449 -193 12 196 0 0 0 0 0
    0 0 0 0 0 0 0 0 0 0 0 0 0 0 0 0 0 0 0 0 0 0 0 0 0 0 0 0 0 0 0 0 0 0 0 0 0 0 0 0 0 0 0 0 0 0 0 0 0 0 0 0 0 0 0 0 0 0 0 0 0 0 0 0 0 0 0 0 0 57 -209 -209 -193 -193 -193 49 46 43 42 45 46 45 44 44 -193 41 42 42 41 41 40 42 -193 43 43 43 40 40 42 -193 -209 -193 -193 -193 16 11 11 14 13 15 15 17 16 16 18 19 18 18 18 18 21 20 21 20 20 20 20 19 19 16 17 15 15 14 12 11 11 11 11 11 12 12 12 12 13 12 14 13 13 13 13 13 13 14 14 13 15 15 16 16 16 16 15 15 16 14 15 14 13 14 14 14 13 12 13 11 11 12 11 11 11 11 10 10 11 10 9 9 9 9 13 20 21 24 28 29 31 33 35 37 36 40 40 39 -177 44 47 49 50 52 57 58 58 58 60 64 68 67 65 69 306 305 74 78 77 77 82 82 83 79 82 83 83 85 85 -193 -193 87 -193 91 95 -193 -193 -193 -193 -193 -177 104 105 105 107 110 113 120 121 -193 -209 -193 -177 -177 -193 -209 96 101 119 128 133 132 133 132 132 133 133 133 134 137 142 150 151 151 152 153 157 156 157 158 164 161 162 162 165 -177 169 172 173 -193 178 183 181 182 -193 -193 -193 -177 -177 344 -193 -193 20 21 -177 449 -193 12 -193 0 0 0 0 0
    0 0 0 0 0 0 0 0 0 0 0 0 0 0 0 0 0 0 0 0 0 0 0 0 0 0 0 0 0 0 0 0 0 0 0 0 0 0 0 0 0 0 0 0 0 0 0 0 0 0 0 0 0 0 0 0 0 0 0 0 0 0 0 0 0 0 0 0 0 56 57 -209 -209 -209 -193 50 49 44 43 46 47 45 44 44 -193 42 42 43 41 41 40 42 -193 -193 42 42 39 40 -193 -193 -193 -193 -193 -193 17 -193 11 13 12 14 14 16 16 16 17 19 18 18 19 18 21 20 20 20 19 19 19 18 18 15 16 13 14 14 12 11 11 11 11 11 12 11 11 12 12 12 13 13 13 13 14 13 13 14 14 14 16 17 17 19 19 19 18 18 18 15 16 15 14 14 14 14 13 12 13 11 11 12 12 12 11 12 11 10 11 11 9 10 9 9 13 21 22 24 28 29 30 33 35 37 37 41 41 40 45 45 48 49 50 51 57 57 58 -193 60 62 67 66 65 69 307 305 74 78 77 77 82 83 84 80 83 84 84 86 86 -193 89 87 -193 91 95 -193 -193 -193 -193 -193 -193 105 105 105 107 110 112 120 121 -193 -209 -193 773 -177 -193 -209 -209 -193 120 128 133 132 133 132 132 133 133 133 133 137 142 150 151 151 152 152 157 156 157 158 164 161 162 162 165 -177 170 173 174 -193 178 183 181 182 -193 -193 -209 -177 -177 344 -193 -193 19 21 -177 448 -193 12 -193 0 0 0 0 0
    0 0 0 0 0 0 0 0 0 0 0 0 0 0 0 0 0 0 0 0 0 0 0 0 0 0 0 0 0 0 0 0 0 0 0 0 0 0 0 0 0 0 0 0 0 0 0 0 0 0 0 0 0 0 0 0 0 0 0 0 0 0 0 0 0 0 0 0 0 55 55 55 52 52 51 50 49 45 44 47 47 45 44 44 43 42 43 43 41 41 40 42 -193 -193 42 41 38 39 -193 -193 38 -193 -193 -193 16 -193 10 12 12 13 14 15 15 15 17 18 18 18 19 18 22 19 20 19 19 19 19 17 18 14 15 12 13 13 12 10 10 10 10 10 11 11 11 11 12 13 13 13 13 13 14 13 13 14 14 14 16 19 19 20 21 21 19 19 20 17 17 16 15 15 14 15 14 12 13 11 11 13 12 13 12 13 12 11 12 11 9 10 10 10 14 21 22 24 27 29 30 33 35 37 38 42 42 41 46 46 49 50 51 51 56 56 57 -193 60 61 66 66 65 70 -177 -193 75 79 78 78 83 83 85 81 84 85 -193 -193 -193 -209 89 87 -193 92 96 -193 -193 -193 -193 -193 -193 105 105 105 107 109 111 119 120 -193 -209 -193 -193 -177 -177 -209 -209 -193 120 128 133 132 132 132 132 133 133 133 133 137 142 150 151 152 152 153 158 157 158 158 164 162 163 163 165 -177 170 173 174 -193 178 183 182 182 -193 -193 -209 -177 -177 344 94 -193 19 21 -177 448 -193 12 -193 0 0 0 0 0
    0 0 0 0 0 0 0 0 0 0 0 0 0 0 0 0 0 0 0 0 0 0 0 0 0 0 0 0 0 0 0 0 0 0 0 0 0 0 0 0 0 0 0 0 0 0 0 0 0 0 0 0 0 0 0 0 0 0 0 0 0 0 0 0 0 0 0 0 0 53 54 53 51 52 51 51 50 46 45 47 48 46 44 44 44 42 43 43 41 41 41 42 -193 -193 41 41 38 39 -193 -193 36 37 -193 -193 16 11 10 12 11 12 13 15 15 16 17 18 18 19 19 19 21 18 19 19 18 18 17 16 16 13 14 12 12 12 11 10 9 9 9 10 10 10 10 11 11 13 13 13 12 14 14 13 14 14 15 16 18 20 20 21 22 21 20 20 20 18 17 16 15 15 14 15 14 12 12 12 11 14 13 13 12 13 13 12 12 12 10 11 10 10 14 21 22 24 27 29 30 33 36 37 -193 43 44 43 48 46 50 51 51 51 56 56 58 -193 60 62 66 68 67 70 -177 75 75 80 80 80 83 84 85 82 85 86 -193 -193 -193 -209 90 -193 -193 -193 98 -193 -193 -193 -193 -193 105 106 106 106 107 110 110 118 119 122 -209 -193 -193 -177 -177 -209 -209 -193 120 128 133 132 132 132 132 133 133 134 133 137 141 150 151 152 152 153 158 157 158 158 164 164 164 164 166 -177 171 174 175 911 178 -193 181 181 182 -193 -209 -177 -177 345 94 -209 19 21 -177 -177 -193 11 -193 0 0 0 0 0
    0 0 0 0 0 0 0 0 0 0 0 0 0 0 0 0 0 0 0 0 0 0 0 0 0 0 0 0 0 0 0 0 0 0 0 0 0 0 0 0 0 0 0 0 0 0 0 0 0 0 0 0 0 0 0 0 0 0 0 0 0 0 0 0 0 0 0 0 0 52 53 50 49 51 51 51 50 47 45 48 49 46 45 44 45 43 44 44 42 41 41 42 -193 -193 41 41 38 39 -193 -193 -193 -193 -193 -193 17 12 11 12 11 11 12 13 14 14 15 16 15 18 19 18 20 17 18 18 18 16 15 14 14 13 13 12 11 12 11 11 10 10 10 10 10 10 10 10 10 12 12 12 12 13 14 13 13 15 16 17 19 21 21 22 23 22 21 20 21 19 18 16 15 15 14 15 14 13 12 12 11 13 12 13 12 12 12 12 12 12 10 12 10 11 14 20 21 24 27 29 31 34 37 38 -209 43 45 45 49 47 50 51 52 51 56 56 58 58 60 62 67 69 69 71 -193 76 76 80 82 82 84 85 86 84 86 86 -193 -193 -209 -209 91 89 -193 -193 100 -193 -193 -209 -209 -193 106 107 107 107 108 111 110 117 117 120 119 122 -193 -193 -193 121 120 -193 121 128 133 133 133 133 133 134 134 135 134 137 141 150 151 152 152 153 158 157 158 159 164 165 166 166 167 -177 171 175 175 912 -193 -193 181 181 181 -209 -193 -177 -177 345 95 -209 18 20 -193 -177 16 10 -193 0 0 0 0 0
    0 0 0 0 0 0 0 0 0 0 0 0 0 0 0 0 0 0 0 0 0 0 0 0 0 0 0 0 0 0 0 0 0 0 0 0 0 0 0 0 0 0 0 0 0 0 0 0 0 0 0 0 0 0 0 0 0 0 0 0 0 0 0 0 0 0 0 0 0 54 55 50 49 50 50 50 50 47 45 48 49 47 45 45 46 44 44 45 43 42 42 43 42 42 41 41 38 38 -193 -193 -193 -193 -209 -209 18 13 11 12 11 -193 11 12 13 13 14 15 14 17 18 18 20 16 16 18 16 14 14 13 13 12 12 12 11 11 11 10 9 9 9 9 10 9 10 10 9 11 11 11 11 12 13 12 13 15 16 17 20 21 22 22 23 22 21 20 21 19 18 17 16 15 15 15 14 12 11 11 11 12 12 12 11 11 11 12 12 11 10 12 10 11 14 20 21 23 26 29 31 34 37 38 -193 44 46 46 49 47 50 51 51 51 55 56 59 59 61 63 67 70 70 72 -193 76 76 81 -193 83 84 85 86 84 87 87 88 88 -193 -209 91 90 93 -193 101 -193 -193 -209 -193 -209 107 108 108 108 108 113 111 116 117 119 118 122 122 121 -193 122 122 121 122 128 132 134 134 134 134 135 135 136 135 137 140 150 151 151 152 152 158 158 159 159 165 167 167 168 168 -177 172 175 175 -193 -193 -193 180 180 180 -209 341 -177 -177 345 96 -209 17 20 -193 447 13 9 -193 0 0 0 0 0
    0 0 0 0 0 0 0 0 0 0 0 0 0 0 0 0 0 0 0 0 0 0 0 0 0 0 0 0 0 0 0 0 0 0 0 0 0 0 0 0 0 0 0 0 0 0 0 0 0 0 0 0 0 0 0 0 0 0 0 0 0 0 0 0 0 0 0 0 0 53 54 49 49 49 49 50 50 47 46 50 50 48 46 46 48 45 45 46 43 42 42 43 42 42 41 40 37 38 39 38 36 36 -209 27 19 14 12 12 12 -193 12 13 14 14 16 16 14 16 18 18 19 16 15 16 15 14 14 12 12 11 11 11 10 11 11 10 9 9 9 9 9 9 9 9 9 10 11 10 10 11 12 12 13 16 17 18 21 22 22 23 24 23 22 21 21 20 19 17 16 15 15 15 14 12 11 11 10 11 11 11 11 11 11 11 11 11 10 12 10 11 13 19 20 22 26 29 31 34 37 38 41 43 46 46 49 47 50 51 51 50 54 55 59 59 61 64 68 71 71 72 79 77 77 81 -193 83 84 85 86 84 87 87 89 88 90 90 92 91 95 -193 102 -193 -193 106 105 -193 107 109 108 110 109 -193 112 116 117 118 118 121 121 121 121 122 122 122 123 128 131 134 134 135 135 136 136 136 136 137 139 150 151 152 152 153 159 159 160 161 166 168 169 169 170 -193 172 175 175 -193 -193 -193 179 179 179 -209 341 -177 -177 344 98 -193 17 19 18 -193 -193 -193 0 0 0 0 0 0
    0 0 0 0 0 0 0 0 0 0 0 0 0 0 0 0 0 0 0 0 0 0 0 0 0 0 0 0 0 0 0 0 0 0 0 0 0 0 0 0 0 0 0 0 0 0 0 0 0 0 0 0 0 0 0 0 0 0 0 0 0 0 0 0 0 0 0 0 0 52 53 50 49 49 49 51 51 49 48 51 51 50 48 48 49 45 46 46 43 42 42 43 43 42 40 40 37 37 38 37 34 35 27 27 19 16 13 13 12 13 13 14 15 16 18 17 15 17 19 18 19 17 16 16 15 14 14 11 12 11 10 10 10 10 10 10 9 0 9 9 9 9 9 9 0 10 10 10 10 11 12 12 13 16 18 19 22 22 22 24 24 23 22 21 22 20 19 18 17 16 15 14 14 12 11 11 11 11 11 11 11 11 11 11 11 11 10 12 10 11 14 20 21 23 26 29 32 34 37 38 40 43 46 46 49 47 50 50 51 50 53 54 58 58 61 64 68 72 73 73 80 77 77 81 -193 83 83 85 86 84 87 87 89 87 90 90 93 92 97 100 102 103 103 106 106 107 108 109 109 -193 -193 -193 112 116 117 118 118 121 121 122 122 123 123 122 124 128 131 134 134 136 136 136 136 137 137 137 139 150 151 151 152 153 159 159 161 162 166 170 170 170 171 -193 172 175 175 -193 174 182 178 178 178 -209 341 -177 -177 343 100 -193 -193 18 17 -193 -209 -193 0 0 0 0 0 0
    0 0 0 0 0 0 0 0 0 0 0 0 0 0 0 0 0 0 0 0 0 0 0 0 0 0 0 0 0 0 0 0 0 0 0 0 0 0 0 0 0 0 0 0 0 0 0 0 0 0 0 0 0 0 0 0 0 0 0 0 0 0 0 0 0 0 0 0 0 52 51 49 48 49 50 52 52 51 51 52 52 51 50 49 50 46 47 47 44 42 42 44 43 42 40 40 36 37 38 37 34 34 27 28 20 18 15 14 -193 14 15 16 18 21 22 20 18 20 21 20 21 19 17 18 16 14 14 11 12 10 10 9 9 10 10 9 9 0 9 9 10 9 9 9 0 10 10 9 9 11 11 11 12 15 17 19 22 22 22 24 24 23 23 21 22 20 19 18 17 16 15 14 14 12 12 11 11 11 11 11 11 11 11 10 11 11 10 11 10 11 14 21 22 23 26 29 32 35 37 38 40 43 47 48 50 48 50 51 52 51 53 54 58 58 61 65 69 75 74 75 81 78 78 81 84 83 83 85 86 84 88 88 89 87 90 90 94 93 98 101 102 104 103 107 106 108 108 110 110 -193 -193 -193 113 116 118 118 118 122 122 122 122 123 123 122 124 128 131 134 134 137 137 137 137 137 137 137 139 150 151 151 152 152 159 159 161 163 166 172 170 171 171 174 172 175 175 -177 173 182 177 177 178 -209 -177 -177 -177 343 101 -193 -193 17 16 11 -209 -193 0 0 0 0 0 0
    0 0 0 0 0 0 0 0 0 0 0 0 0 0 0 0 0 0 0 0 0 0 0 0 0 0 0 0 0 0 0 0 0 0 0 0 0 0 0 0 0 0 0 0 0 0 0 0 0 0 0 0 0 0 0 0 0 0 0 0 0 0 0 0 0 0 0 0 0 49 51 49 47 49 52 53 53 52 53 53 53 53 52 51 52 47 48 48 44 43 43 44 43 42 41 40 37 37 38 36 34 34 28 29 21 21 -193 -209 -209 -209 -209 -193 -209 -209 -209 -193 -193 23 23 22 22 20 19 19 17 15 14 11 12 10 9 9 0 9 9 9 9 0 9 9 10 10 9 8 0 9 9 9 9 9 10 10 12 14 17 19 21 21 22 22 23 22 22 21 21 20 19 18 18 16 15 14 14 12 12 11 11 11 11 11 11 11 11 10 11 11 10 12 10 11 13 21 22 23 26 29 33 36 38 38 40 43 48 49 50 48 50 51 52 51 52 53 57 57 61 64 69 77 75 75 81 78 78 80 84 83 82 85 86 84 88 88 89 -193 91 92 94 94 99 100 102 104 103 106 106 108 109 111 111 112 112 -193 113 116 118 118 118 121 121 122 122 123 123 122 123 128 130 134 133 136 137 137 137 138 138 138 139 150 151 150 150 152 159 159 162 163 167 173 171 171 172 174 172 174 174 175 171 181 177 177 -193 -177 -177 -177 -177 342 -193 14 14 16 14 -193 -193 -193 0 0 0 0 0 0
    0 0 0 0 0 0 0 0 0 0 0 0 0 0 0 0 0 0 0 0 0 0 0 0 0 0 0 0 0 0 0 0 0 0 0 0 0 0 0 0 0 0 0 0 0 0 0 0 0 0 0 0 0 0 0 0 0 0 0 0 0 0 0 0 0 0 0 0 0 47 51 49 48 52 54 55 55 54 55 55 55 54 53 52 53 49 50 49 45 44 44 44 43 42 41 40 37 38 39 37 35 34 30 31 24 23 -209 -209 -209 -193 -193 60 -193 -209 -209 49 44 32 31 24 24 22 20 20 18 16 15 11 12 10 9 0 0 9 9 9 9 0 9 9 10 10 9 9 0 9 9 9 9 8 9 9 11 14 17 18 20 20 21 21 21 21 21 20 20 20 19 18 18 16 15 13 14 12 12 11 11 10 10 11 11 10 11 10 11 11 11 12 10 11 13 21 23 24 26 30 34 37 39 40 41 44 48 50 51 49 50 51 52 51 51 53 57 57 61 64 70 78 74 74 79 77 77 79 83 83 82 85 86 84 88 89 90 -193 91 93 94 95 99 100 101 103 103 106 107 109 110 112 111 113 113 116 114 116 117 118 118 121 121 122 122 123 124 122 125 130 131 135 134 137 137 138 138 138 138 138 139 149 150 148 149 152 158 160 161 163 166 174 171 171 172 174 172 173 -177 175 170 181 176 176 -193 -177 -177 -177 339 341 -193 13 13 14 13 -193 -193 -193 0 0 0 0 0 0
    0 0 0 0 0 0 0 0 0 0 0 0 0 0 0 0 0 0 0 0 0 0 0 0 0 0 0 0 0 0 0 0 0 0 0 0 0 0 0 0 0 0 0 0 0 0 0 0 0 0 0 0 0 0 0 0 0 0 0 0 0 0 0 0 0 0 0 0 0 51 54 52 53 56 57 58 58 57 57 56 56 55 55 54 54 50 51 50 46 44 44 45 44 43 43 42 40 40 40 38 38 36 35 36 29 29 -209 -209 -209 -193 59 61 59 -193 -209 52 49 42 42 -209 27 -209 22 21 19 18 15 11 12 10 9 0 0 0 9 9 0 0 9 0 10 10 10 10 9 9 9 9 9 0 9 9 11 13 16 17 19 19 20 20 20 20 21 19 20 19 18 17 17 15 14 13 13 11 12 11 11 10 10 10 10 10 11 9 11 11 11 12 11 11 13 20 23 24 27 30 34 37 39 40 41 44 48 50 51 50 50 51 52 51 50 52 57 58 61 65 70 77 74 74 78 75 75 77 81 81 80 84 86 84 88 89 90 89 91 93 94 96 99 100 101 103 103 106 107 110 110 113 112 114 114 116 115 116 117 118 118 121 121 122 123 124 125 123 126 131 132 135 134 137 138 138 138 138 138 138 138 148 148 147 148 151 157 161 161 163 166 174 171 172 172 174 171 173 -177 174 169 181 175 -193 -193 -193 -177 -177 338 340 -209 13 13 14 -193 -193 -209 -193 0 0 0 0 0 0
    0 0 0 0 0 0 0 0 0 0 0 0 0 0 0 0 0 0 0 0 0 0 0 0 0 0 0 0 0 0 0 0 0 0 0 0 0 0 0 0 0 0 0 0 0 0 0 0 0 0 0 0 0 0 0 0 0 0 0 0 0 0 0 0 0 0 0 0 0 57 58 59 60 60 61 60 60 58 58 58 57 56 56 55 54 52 52 50 47 45 46 46 45 44 45 44 44 43 43 41 42 39 40 39 38 -193 42 57 68 61 59 62 60 59 58 54 52 45 45 -209 31 -209 -209 -209 19 17 16 12 13 10 9 0 0 0 9 9 9 0 9 9 11 10 10 11 9 9 9 9 9 0 9 9 10 13 15 16 19 19 19 20 20 19 20 20 20 18 19 16 17 14 14 12 12 11 12 11 11 10 10 10 10 10 10 9 10 10 10 11 11 10 12 20 23 25 28 31 34 37 39 40 41 44 47 49 50 50 50 50 51 51 47 51 56 58 62 66 71 76 73 73 76 74 74 76 79 79 78 83 84 82 87 88 89 89 91 93 92 95 97 98 100 102 103 105 108 110 111 114 113 115 115 116 115 116 117 118 118 122 121 123 123 125 126 124 127 131 132 135 134 137 138 139 139 139 138 138 138 146 146 145 148 151 158 163 162 163 167 174 171 171 172 173 171 172 -177 174 169 181 175 175 -193 -193 -177 -177 337 339 -209 -193 12 12 -193 -193 -193 -193 0 0 0 0 0 0
    0 0 0 0 0 0 0 0 0 0 0 0 0 0 0 0 0 0 0 0 0 0 0 0 0 0 0 0 0 0 0 0 0 0 0 0 0 0 0 0 0 0 0 0 0 0 0 0 0 0 0 0 0 0 0 0 0 0 0 0 0 0 0 0 0 0 0 0 0 58 59 62 62 62 63 61 61 60 60 59 57 57 57 56 55 53 53 51 48 47 47 47 47 47 48 47 47 46 46 43 44 41 41 40 40 41 42 54 67 60 58 61 60 59 59 56 55 50 51 51 -209 -209 -209 -209 -193 16 16 12 13 10 9 0 0 0 9 9 9 0 9 9 11 11 11 11 10 10 9 9 10 9 9 9 10 12 13 14 17 17 18 18 19 18 20 19 20 18 18 16 16 14 13 11 12 10 12 10 11 10 10 10 11 10 10 0 10 10 10 11 11 10 12 21 23 25 28 31 33 36 38 39 40 44 46 48 50 51 51 51 51 52 47 51 55 57 61 64 70 74 71 72 75 73 73 75 77 77 77 81 83 80 85 87 87 89 91 93 92 94 95 96 98 100 101 102 107 109 111 114 113 115 115 116 116 116 118 118 118 122 122 124 124 125 126 124 128 132 132 135 134 137 138 139 139 139 138 138 138 146 142 143 146 150 157 163 161 162 166 173 170 171 171 172 170 171 171 173 168 179 175 175 177 -193 -193 -209 335 338 -209 -193 12 12 -209 -193 -193 -193 -193 0 0 0 0 0
    0 0 0 0 0 0 0 0 0 0 0 0 0 0 0 0 0 0 0 0 0 0 0 0 0 0 0 0 0 0 0 0 0 0 0 0 0 0 0 0 0 0 0 0 0 0 0 0 0 0 0 0 0 0 0 0 0 0 0 0 0 0 0 0 0 0 0 0 0 57 58 60 60 62 62 60 60 60 60 59 58 58 57 56 55 54 54 51 49 49 48 47 49 50 49 48 49 48 48 45 45 43 42 41 41 41 40 51 67 59 59 61 60 60 58 57 57 53 53 52 -193 -209 -209 -209 -193 16 16 12 13 11 9 0 0 0 9 9 9 0 9 9 11 12 11 12 11 10 10 10 11 10 9 10 10 11 12 13 16 16 18 18 19 18 19 19 19 17 18 14 15 13 13 11 12 11 12 11 11 10 10 10 11 10 11 0 10 10 10 12 14 15 16 24 25 27 30 32 33 36 38 38 40 44 46 48 51 51 51 51 52 52 49 50 55 56 60 64 70 73 71 72 74 72 72 74 76 76 76 79 81 79 84 87 87 89 90 92 91 92 92 93 95 97 100 100 107 109 110 115 113 115 115 116 116 116 118 119 119 122 122 125 125 126 127 125 130 133 133 135 135 137 138 139 139 139 137 138 138 146 140 141 143 149 156 162 160 161 165 171 169 169 170 170 169 170 170 172 167 177 175 175 177 181 183 -193 -193 335 -209 -193 -193 -193 -193 -193 -193 188 -193 0 0 0 0 0
    0 0 0 0 0 0 0 0 0 0 0 0 0 0 0 0 0 0 0 0 0 0 0 0 0 0 0 0 0 0 0 0 0 0 0 0 0 0 0 0 0 0 0 0 0 0 0 0 0 0 0 0 0 0 0 0 0 0 0 0 0 0 0 0 0 0 0 0 0 57 57 59 60 61 61 60 60 59 60 59 58 58 57 55 55 54 53 49 49 47 47 46 50 50 48 49 50 49 49 46 47 44 43 43 42 42 41 52 65 59 60 62 61 60 59 59 59 55 55 54 -193 -209 -209 -209 -209 17 16 13 14 11 10 0 9 9 9 9 9 9 10 9 12 12 12 12 12 11 10 11 11 10 9 10 11 10 11 12 15 15 18 18 19 18 19 19 19 16 17 13 14 12 12 11 12 11 13 11 11 10 11 11 11 11 11 0 10 10 11 11 18 24 21 27 30 32 32 32 34 36 38 39 40 44 47 48 51 51 51 51 51 52 48 49 54 57 62 68 71 74 72 72 74 72 72 73 75 75 75 77 80 78 84 87 86 89 90 91 90 90 90 91 92 95 98 97 106 108 110 114 113 115 115 115 116 116 118 119 119 123 122 126 126 126 127 126 131 134 134 136 135 137 138 138 139 138 137 137 138 146 140 140 142 148 156 163 160 161 165 170 168 168 168 169 168 170 169 171 166 176 175 176 178 181 183 -209 183 -209 -209 189 -193 -193 187 187 187 187 187 0 0 0 0 0
    0 0 0 0 0 0 0 0 0 0 0 0 0 0 0 0 0 0 0 0 0 0 0 0 0 0 0 0 0 0 0 0 0 0 0 0 0 0 0 0 0 0 0 0 0 0 0 0 0 0 0 0 0 0 0 0 0 0 0 0 0 0 0 0 0 0 0 0 0 57 58 59 60 60 61 60 60 59 60 60 58 58 56 55 54 53 52 49 49 50 50 48 51 51 50 51 52 51 51 48 49 46 45 45 44 44 43 53 64 60 61 62 61 61 60 60 59 56 56 55 54 -193 -209 -209 -209 17 16 14 14 12 11 10 10 10 10 10 10 10 10 9 12 12 12 13 12 11 11 11 11 10 9 10 10 10 11 12 15 15 18 18 19 18 19 19 19 17 16 12 13 11 12 12 12 11 12 11 11 11 10 10 10 10 10 0 10 11 11 12 21 25 23 25 29 31 30 30 32 36 38 40 42 45 47 49 52 52 51 51 51 53 49 50 55 60 66 69 71 73 72 72 74 71 72 73 74 75 75 76 79 78 83 87 86 90 90 91 90 90 90 92 93 96 99 98 105 107 109 113 112 114 114 114 115 115 117 118 118 122 122 126 126 126 127 127 133 135 135 136 136 137 138 138 138 138 136 137 137 135 134 135 138 147 156 164 160 160 164 168 167 167 168 168 167 169 169 170 165 175 176 177 179 181 183 184 184 185 -209 188 189 190 187 188 188 187 187 0 0 0 0 0
    0 0 0 0 0 0 0 0 0 0 0 0 0 0 0 0 0 0 0 0 0 0 0 0 0 0 0 0 0 0 0 0 0 0 0 0 0 0 0 0 0 0 0 0 0 0 0 0 0 0 0 0 0 0 0 0 0 0 0 0 0 0 0 0 0 0 0 0 0 58 59 60 61 61 61 60 60 59 61 60 58 58 57 55 55 53 53 51 52 53 52 50 52 51 50 51 52 51 52 49 50 46 46 47 45 45 44 53 63 60 61 61 61 61 60 60 59 57 56 55 55 54 53 -209 -209 16 17 14 14 13 12 11 11 10 10 10 10 10 11 10 12 12 12 13 12 11 11 11 11 10 9 10 10 10 11 13 16 16 19 18 19 19 19 19 18 16 16 11 13 11 12 12 12 12 13 11 11 11 10 10 10 9 9 0 10 11 10 11 21 24 22 24 31 31 30 30 31 35 38 41 43 45 46 48 51 51 51 51 50 51 48 49 55 61 68 70 71 73 71 72 73 71 72 73 74 74 74 76 78 77 81 86 84 89 90 91 89 90 90 91 92 96 99 99 105 108 109 112 111 114 114 113 115 114 115 116 115 121 119 125 131 129 129 130 135 137 136 137 137 137 138 139 139 138 137 138 138 136 136 137 139 150 156 164 160 159 164 168 166 166 167 167 167 169 169 170 166 174 177 178 180 181 183 184 184 185 185 187 189 189 188 188 189 188 188 0 0 0 0 0
    0 0 0 0 0 0 0 0 0 0 0 0 0 0 0 0 0 0 0 0 0 0 0 0 0 0 0 0 0 0 0 0 0 0 0 0 0 0 0 0 0 0 0 0 0 0 0 0 0 0 0 0 0 0 0 0 0 0 0 0 0 0 0 0 0 0 0 0 0 59 59 61 62 61 61 61 61 60 62 61 59 58 57 56 56 55 54 53 55 57 54 51 53 51 49 51 52 52 53 52 51 50 50 51 50 50 49 54 62 60 62 62 62 62 61 61 60 58 57 56 56 55 54 -209 -193 16 17 15 14 13 12 12 12 11 11 11 11 11 12 10 13 12 12 13 12 11 11 11 12 10 10 11 10 11 11 13 17 16 20 18 20 19 19 19 19 17 17 12 14 11 13 13 12 13 13 12 12 11 11 10 10 10 10 9 11 12 12 13 22 25 23 24 27 30 28 28 29 32 36 42 44 46 46 48 51 51 51 51 49 50 49 50 56 65 71 72 73 74 72 73 73 72 72 73 74 74 74 75 77 76 79 84 79 89 90 89 89 90 89 92 94 97 101 102 107 108 108 112 111 113 114 113 115 113 114 115 113 119 116 125 133 133 132 133 136 137 137 138 138 139 139 140 140 139 137 139 137 136 135 136 137 149 156 164 160 160 163 167 165 166 167 167 167 169 169 170 167 173 177 178 180 181 183 185 185 185 186 187 188 189 189 189 190 189 190 0 0 0 0 0
    0 0 0 0 0 0 0 0 0 0 0 0 0 0 0 0 0 0 0 0 0 0 0 0 0 0 0 0 0 0 0 0 0 0 0 0 0 0 0 0 0 0 0 0 0 0 0 0 0 0 0 0 0 0 0 0 0 0 0 0 0 0 0 0 0 0 0 0 0 60 60 62 62 62 62 61 61 60 62 61 58 58 57 56 56 56 54 54 56 59 54 50 53 50 48 51 53 54 55 56 56 56 56 56 57 57 56 57 63 61 63 63 62 62 61 61 60 58 58 56 56 55 54 -193 -193 16 19 17 15 14 14 14 13 12 13 12 13 13 13 11 13 13 13 13 13 11 11 12 12 11 10 11 11 11 11 14 17 16 20 18 20 19 19 19 19 17 18 12 16 13 15 14 13 13 14 13 13 12 12 11 12 13 12 12 12 14 15 16 23 26 23 23 24 25 26 25 26 27 29 39 43 -193 46 48 51 51 51 51 49 50 50 49 55 65 72 73 73 75 74 74 74 72 72 74 74 74 74 75 76 75 78 82 75 86 88 88 86 89 86 90 95 101 104 104 109 109 108 111 110 113 113 111 114 112 113 115 111 116 108 119 122 123 125 128 134 136 136 138 138 139 140 142 140 139 138 139 137 136 136 136 136 148 155 164 161 160 163 167 165 165 166 167 167 168 168 169 167 172 175 177 180 180 182 184 184 185 186 187 189 189 191 191 192 194 196 0 0 0 0 0
    0 0 0 0 0 0 0 0 0 0 0 0 0 0 0 0 0 0 0 0 0 0 0 0 0 0 0 0 0 0 0 0 0 0 0 0 0 0 0 0 0 0 0 0 0 0 0 0 0 0 0 0 0 0 0 0 0 0 0 0 0 0 0 0 0 0 0 0 0 60 61 62 63 62 62 61 60 59 62 61 58 58 57 56 57 57 55 55 -193 -193 50 44 50 47 46 51 54 55 56 57 57 57 58 58 59 59 59 59 63 61 64 63 62 62 61 60 60 58 58 56 56 55 55 52 45 16 20 18 17 15 14 14 14 13 14 13 14 14 14 13 14 15 14 15 14 13 12 13 13 12 11 11 11 11 11 15 17 16 21 19 20 19 19 19 19 18 19 13 18 14 17 16 15 16 15 16 15 14 14 12 13 13 12 12 11 11 11 12 22 25 22 23 24 23 23 23 25 -193 -193 -193 -209 -193 -193 49 51 51 51 51 50 50 51 50 55 64 73 73 73 76 75 74 75 73 73 74 74 74 74 74 75 75 77 80 74 85 86 86 86 86 84 88 92 100 104 103 108 107 106 108 109 111 112 109 112 110 112 115 111 110 104 116 117 119 122 125 134 136 137 139 139 140 141 143 141 139 139 139 138 136 136 136 135 148 156 164 162 161 163 167 164 165 166 167 167 168 168 169 168 172 174 177 180 180 182 184 184 184 187 188 189 190 192 192 194 195 197 0 0 0 0 0
    0 0 0 0 0 0 0 0 0 0 0 0 0 0 0 0 0 0 0 0 0 0 0 0 0 0 0 0 0 0 0 0 0 0 0 0 0 0 0 0 0 0 0 0 0 0 0 0 0 0 0 0 0 0 0 0 0 0 0 0 0 0 0 0 0 0 0 0 0 61 61 62 63 61 61 60 60 59 63 61 58 58 57 57 58 57 55 55 -209 -209 -209 42 47 45 44 50 54 56 57 59 59 58 58 59 59 59 60 59 62 61 64 64 62 62 61 60 60 59 58 56 55 55 55 52 46 -193 21 19 18 15 14 15 15 15 15 13 15 15 15 14 15 17 15 16 16 15 13 14 13 13 12 12 12 12 12 15 17 16 21 18 20 19 19 19 19 18 19 13 18 15 19 17 15 17 16 17 16 17 17 15 17 16 14 15 13 13 13 14 21 24 24 24 24 23 23 -193 -193 -177 -177 -177 -177 -209 -193 50 51 51 51 51 51 50 52 50 54 64 73 73 74 76 75 75 75 74 73 74 75 75 74 74 75 75 77 80 74 89 89 88 89 87 86 87 91 96 -193 -193 -193 102 99 102 102 104 101 99 102 98 104 108 106 104 104 110 115 117 120 125 136 137 138 141 140 140 141 144 140 139 139 140 138 137 137 138 135 150 156 163 161 160 163 166 164 165 166 166 167 168 168 168 168 171 174 178 180 180 183 184 184 185 187 188 188 190 192 192 194 195 197 0 0 0 0 0
    0 0 0 0 0 0 0 0 0 0 0 0 0 0 0 0 0 0 0 0 0 0 0 0 0 0 0 0 0 0 0 0 0 0 0 0 0 0 0 0 0 0 0 0 0 0 0 0 0 0 0 0 0 0 0 0 0 0 0 0 0 0 0 0 0 0 0 0 0 62 62 63 63 61 61 61 60 59 65 63 60 60 60 60 61 60 58 58 59 -193 -209 42 45 43 43 51 -209 59 61 63 63 60 61 63 63 62 63 60 62 62 65 63 62 61 61 60 60 59 58 56 56 56 55 53 48 -193 -193 21 18 15 15 15 16 15 16 14 16 18 18 17 18 19 18 19 18 17 15 16 15 15 13 14 14 15 16 19 20 17 22 19 21 19 19 19 19 18 19 13 18 15 19 17 16 19 17 19 18 19 19 18 19 19 16 17 14 14 13 15 21 23 23 24 25 24 24 24 24 -193 -193 -193 -193 -209 48 50 51 51 50 49 50 49 51 49 53 64 75 74 74 77 76 75 75 75 74 75 75 75 75 75 76 76 77 80 74 89 89 89 89 88 87 88 92 95 -209 -209 -209 98 96 99 98 100 95 95 100 100 105 109 108 106 106 107 115 116 119 125 136 136 137 141 140 141 141 144 140 139 139 140 138 138 139 139 137 150 155 161 160 159 162 166 163 165 166 166 167 168 168 168 168 171 173 177 180 181 183 184 185 185 187 189 189 190 193 193 194 195 197 0 0 0 0 0
    0 0 0 0 0 0 0 0 0 0 0 0 0 0 0 0 0 0 0 0 0 0 0 0 0 0 0 0 0 0 0 0 0 0 0 0 0 0 0 0 0 0 0 0 0 0 0 0 0 0 0 0 0 0 0 0 0 0 0 0 0 0 0 0 0 0 0 0 0 64 64 64 64 61 61 61 60 59 66 66 62 63 65 64 64 63 60 59 59 60 54 46 45 44 45 -193 -209 66 65 67 67 63 65 67 67 66 65 63 63 63 66 64 62 62 61 60 60 60 59 57 56 55 54 53 50 47 43 21 18 14 14 15 15 15 16 14 17 19 20 20 20 20 19 20 19 18 17 17 15 16 14 15 16 19 20 21 21 19 22 20 21 20 20 19 19 19 20 14 19 15 19 17 17 20 18 20 20 21 21 20 20 20 18 18 15 16 14 16 20 22 22 23 24 23 23 23 23 26 28 42 47 -193 48 50 50 50 49 49 49 48 49 48 51 63 75 74 74 77 77 76 76 76 75 76 76 76 76 76 77 77 77 81 74 89 89 87 88 89 88 89 93 -209 -193 -193 100 98 95 99 97 98 95 97 -193 -193 107 111 111 108 107 107 117 117 119 124 134 135 136 143 141 141 141 145 140 139 140 140 139 139 140 140 138 149 153 159 159 159 163 167 164 166 167 167 168 168 169 169 169 171 173 177 180 180 183 184 185 185 187 188 189 190 193 193 194 196 198 0 0 0 0 0
    0 0 0 0 0 0 0 0 0 0 0 0 0 0 0 0 0 0 0 0 0 0 0 0 0 0 0 0 0 0 0 0 0 0 0 0 0 0 0 0 0 0 0 0 0 0 0 0 0 0 0 0 0 0 0 0 0 0 0 0 0 0 0 0 0 0 0 0 0 67 67 67 66 63 63 63 62 61 69 70 67 69 69 68 68 66 62 61 60 61 57 51 51 51 -209 -209 -209 69 68 70 71 66 67 68 67 67 66 64 63 64 66 64 62 62 61 60 60 59 59 56 55 54 54 53 51 49 45 -193 20 13 14 14 15 15 16 15 17 19 20 21 20 21 19 21 20 20 18 18 17 17 16 18 19 21 22 22 22 20 22 19 21 19 19 19 19 19 20 14 19 15 19 18 18 21 19 21 20 22 21 20 21 20 18 19 15 16 14 17 20 22 22 23 24 23 23 23 23 27 30 42 47 47 48 50 50 50 49 49 49 48 49 48 50 62 73 73 73 76 77 75 75 77 76 77 77 77 76 77 78 78 77 81 74 88 88 86 87 85 90 91 93 96 -193 96 97 97 93 95 94 95 94 95 -193 -193 107 110 113 110 112 108 -193 -193 121 124 132 135 136 147 142 142 142 146 141 140 141 141 139 140 140 140 -193 147 -193 -193 -209 157 162 166 165 167 168 167 168 168 169 169 169 171 173 175 179 180 183 184 185 185 188 189 189 191 194 193 195 197 198 0 0 0 0 0
    0 0 0 0 0 0 0 0 0 0 0 0 0 0 0 0 0 0 0 0 0 0 0 0 0 0 0 0 0 0 0 0 0 0 0 0 0 0 0 0 0 0 0 0 0 0 0 0 0 0 0 0 0 0 0 0 0 0 0 0 0 0 0 0 0 0 0 0 0 69 69 68 67 66 67 67 66 66 71 72 71 72 70 69 69 68 65 62 60 64 59 56 62 -209 -209 -193 74 71 70 71 72 68 68 67 67 67 66 65 64 64 66 64 63 62 61 60 59 60 59 56 54 54 54 53 52 51 47 45 -193 13 14 14 15 15 16 15 17 20 21 22 21 22 20 22 21 21 19 20 18 19 18 19 20 22 23 23 22 20 22 19 21 19 19 18 19 19 20 14 20 15 20 18 19 22 20 22 21 22 22 21 21 21 19 19 16 16 14 18 20 22 23 23 24 23 24 23 23 28 34 42 47 47 48 50 50 50 49 49 50 49 50 50 51 61 71 72 73 76 77 75 75 77 76 77 77 78 77 77 79 79 77 82 75 88 88 86 86 -193 -193 -209 91 94 92 95 96 96 92 93 93 94 95 94 -193 107 110 112 116 114 116 -193 122 -193 -193 -193 130 138 -193 149 141 141 142 147 142 141 141 141 140 142 142 142 -209 -193 -209 -209 -209 156 162 166 165 167 168 167 168 168 169 169 169 171 172 174 178 180 183 184 185 185 188 190 190 192 195 194 195 196 198 0 0 0 0 0
    0 0 0 0 0 0 0 0 0 0 0 0 0 0 0 0 0 0 0 0 0 0 0 0 0 0 0 0 0 0 0 0 0 0 0 0 0 0 0 0 0 0 0 0 0 0 0 0 0 0 0 0 0 0 0 0 0 0 0 0 0 0 0 0 0 0 0 0 0 69 69 67 66 65 68 71 71 71 72 74 73 73 70 70 69 69 68 68 67 69 64 65 71 70 71 71 71 70 70 71 72 68 69 68 69 68 67 67 64 65 67 65 64 63 63 61 60 61 59 56 54 53 53 53 52 50 46 45 -193 14 13 14 16 16 17 16 18 21 23 24 22 23 22 24 23 23 21 21 20 20 19 20 21 23 23 24 22 20 22 19 21 19 19 18 19 20 21 15 20 16 21 19 20 23 20 23 22 23 22 21 22 21 20 21 17 17 15 19 21 23 23 24 24 24 25 24 23 30 37 41 47 48 49 51 51 51 50 50 51 51 52 53 53 62 69 70 72 74 77 75 75 78 77 78 78 78 78 77 80 80 78 82 76 87 87 85 85 -193 88 -209 -193 -209 90 93 95 96 92 93 93 94 95 94 97 105 109 112 117 116 116 119 121 -193 123 -193 -209 -209 -209 150 141 141 142 147 142 142 141 141 140 142 142 142 -209 -209 -209 -209 -209 -209 -193 166 166 168 168 167 168 167 168 168 169 170 171 173 178 180 182 184 185 185 188 189 190 192 194 194 195 196 198 0 0 0 0 0
    0 0 0 0 0 0 0 0 0 0 0 0 0 0 0 0 0 0 0 0 0 0 0 0 0 0 0 0 0 0 0 0 0 0 0 0 0 0 0 0 0 0 0 0 0 0 0 0 0 0 0 0 0 0 0 0 0 0 0 0 0 0 0 0 0 0 0 0 0 68 67 64 64 64 65 67 71 71 71 71 72 72 70 69 69 69 68 68 69 70 69 70 74 74 74 74 74 73 73 74 74 70 71 70 70 70 69 67 65 66 67 65 65 64 63 61 60 61 59 56 53 52 51 51 51 48 45 43 23 15 13 14 16 16 18 17 19 21 24 24 23 24 23 25 24 24 22 22 21 21 19 21 21 23 24 25 23 21 23 20 22 19 19 19 20 21 22 16 20 16 20 19 20 23 19 23 22 24 23 22 22 22 20 21 17 17 15 20 21 23 23 24 25 24 25 25 24 31 40 41 47 48 49 51 50 51 50 50 52 51 53 55 55 62 68 69 70 72 76 75 75 78 77 78 78 79 79 78 81 81 78 82 77 86 84 82 84 71 75 74 76 -209 86 91 93 94 91 93 94 95 95 94 92 103 108 111 117 116 118 120 122 123 124 -193 -209 146 -209 150 141 141 141 146 141 141 141 141 139 142 143 142 -209 -209 -209 -193 -209 -209 162 165 165 167 167 165 166 166 167 167 168 169 170 172 177 180 182 183 184 184 187 189 190 192 194 194 195 196 198 0 0 0 0 0
    0 0 0 0 0 0 0 0 0 0 0 0 0 0 0 0 0 0 0 0 0 0 0 0 0 0 0 0 0 0 0 0 0 0 0 0 0 0 0 0 0 0 0 0 0 0 0 0 0 0 0 0 0 0 0 0 0 0 0 0 0 0 0 0 0 0 0 0 0 68 66 62 63 64 65 64 70 71 70 71 72 72 70 70 70 70 69 70 73 73 72 73 73 73 73 74 73 73 72 73 74 73 73 73 72 71 70 68 66 67 68 66 66 65 63 61 61 62 59 56 54 52 50 51 50 47 44 43 23 17 14 15 17 17 19 19 20 23 25 27 25 26 25 25 25 25 23 23 22 23 19 22 22 24 26 26 25 23 23 21 23 21 21 20 21 22 24 18 20 16 21 19 21 24 20 23 23 25 23 23 22 22 20 21 17 17 14 20 21 23 24 25 25 26 26 26 24 35 42 42 47 48 48 51 50 50 50 49 52 52 53 55 55 62 68 68 69 71 75 74 74 79 78 79 79 80 80 78 81 81 78 81 77 84 83 80 84 74 85 88 89 -193 88 90 91 91 90 90 91 93 94 94 95 103 107 110 116 114 117 118 -209 -193 123 -193 -209 149 140 150 141 141 141 145 140 141 140 140 139 142 142 142 -209 147 -209 150 150 -209 160 160 164 167 167 165 166 166 167 166 168 168 169 -209 176 181 182 182 184 185 187 189 189 191 193 193 194 195 197 0 0 0 0 0
    0 0 0 0 0 0 0 0 0 0 0 0 0 0 0 0 0 0 0 0 0 0 0 0 0 0 0 0 0 0 0 0 0 0 0 0 0 0 0 0 0 0 0 0 0 0 0 0 0 0 0 0 0 0 0 0 0 0 0 0 0 0 0 0 0 0 0 0 0 67 66 61 63 63 64 63 70 71 72 71 72 73 71 70 70 70 69 71 73 73 72 74 74 74 74 74 74 74 74 75 74 73 74 73 73 72 70 68 66 68 68 66 66 66 64 63 62 64 60 59 56 52 50 50 50 46 44 43 -193 17 15 15 17 18 21 21 23 25 27 30 29 30 26 27 26 26 24 24 24 24 21 22 23 24 26 26 26 23 24 22 23 22 25 21 22 23 25 18 17 0 15 12 18 24 20 24 23 26 24 23 23 23 21 22 18 19 16 22 22 22 24 26 26 28 29 29 26 37 43 42 46 47 48 50 50 50 50 49 52 52 53 55 55 61 66 66 67 70 76 74 75 79 78 79 79 80 80 78 82 81 78 81 78 84 84 83 85 80 89 91 91 91 90 90 90 90 89 89 88 89 89 89 94 104 109 110 116 115 117 116 118 -193 121 116 -209 -209 137 151 141 141 140 143 140 140 140 140 139 141 141 141 139 147 147 147 148 -209 -209 155 159 162 166 163 164 165 164 164 166 166 166 -209 173 179 181 181 183 184 186 188 188 189 190 191 193 193 195 0 0 0 0 0
    0 0 0 0 0 0 0 0 0 0 0 0 0 0 0 0 0 0 0 0 0 0 0 0 0 0 0 0 0 0 0 0 0 0 0 0 0 0 0 0 0 0 0 0 0 0 0 0 0 0 0 0 0 0 0 0 0 0 0 0 0 0 0 0 0 0 0 0 0 67 66 60 62 63 64 62 68 71 72 70 71 71 70 71 70 69 69 70 72 72 71 73 73 73 74 74 73 73 73 74 73 73 73 72 73 72 70 69 67 68 68 65 66 66 63 63 62 63 61 59 56 53 51 50 49 47 45 44 -193 20 15 14 16 17 22 24 25 26 29 35 36 36 31 31 29 29 28 28 28 27 23 25 25 28 28 29 29 27 27 26 27 26 27 29 27 29 32 -193 13 0 -193 -177 18 -209 -193 -193 24 26 24 23 23 24 22 22 18 18 16 23 23 23 23 26 27 29 32 32 28 39 44 42 46 47 47 50 50 50 50 50 52 53 54 55 55 59 63 63 65 69 76 75 75 80 78 80 80 80 81 78 82 82 78 82 79 85 85 84 87 84 89 93 92 92 91 91 91 91 89 90 89 90 90 89 93 102 108 109 116 114 114 114 115 117 120 108 -193 -209 136 150 140 140 140 142 139 140 140 140 138 140 140 140 139 145 144 144 147 -193 -209 154 157 158 165 162 163 164 163 162 164 164 164 -193 170 173 174 174 172 178 182 185 185 186 188 189 190 193 195 0 0 0 0 0
    0 0 0 0 0 0 0 0 0 0 0 0 0 0 0 0 0 0 0 0 0 0 0 0 0 0 0 0 0 0 0 0 0 0 0 0 0 0 0 0 0 0 0 0 0 0 0 0 0 0 0 0 0 0 0 0 0 0 0 0 0 0 0 0 0 0 0 0 0 67 66 59 61 62 62 60 66 69 69 68 69 69 69 70 69 68 68 70 72 72 72 73 73 73 74 74 73 73 73 73 73 72 72 71 72 71 69 69 67 68 67 65 66 66 63 64 62 63 61 60 57 54 51 50 49 47 46 45 41 -193 -209 16 18 19 23 -209 -209 25 31 38 43 42 41 40 40 41 41 41 40 36 27 -225 -225 29 -225 28 27 26 27 26 26 26 29 39 -225 -225 -225 -225 -225 -225 -225 -225 20 -193 -177 -209 -209 29 -193 24 24 25 24 24 19 19 18 25 25 23 23 27 27 28 32 33 28 40 44 41 45 46 47 49 50 51 50 51 53 54 55 56 56 59 61 61 62 68 75 74 74 80 78 80 80 81 81 78 83 82 79 83 81 85 86 86 88 86 89 91 91 92 91 91 93 92 91 93 92 94 95 93 96 100 105 107 112 111 112 111 111 116 120 108 -193 -193 135 149 140 140 140 141 139 139 139 139 138 139 139 139 139 145 145 144 148 -209 -209 154 157 157 165 162 163 164 163 163 164 164 164 156 170 172 172 173 170 172 174 180 -209 179 -193 186 187 190 -193 0 0 0 0 0
    0 0 0 0 0 0 0 0 0 0 0 0 0 0 0 0 0 0 0 0 0 0 0 0 0 0 0 0 0 0 0 0 0 0 0 0 0 0 0 0 0 0 0 0 0 0 0 0 0 0 0 0 0 0 0 0 0 0 0 0 0 0 0 0 0 0 0 0 0 67 65 59 61 62 62 60 66 69 69 67 68 68 67 70 70 68 68 70 72 72 72 73 73 73 74 74 73 73 73 73 73 72 72 70 71 71 68 67 66 68 67 65 65 66 63 63 63 63 60 60 57 55 50 49 49 47 46 45 41 42 44 28 26 -193 33 35 38 31 36 41 45 47 44 43 43 43 43 43 42 40 -225 -225 -225 -225 -225 -225 -225 -225 -225 -225 -225 -225 -225 -225 -225 -225 -225 -225 -225 -225 -225 -225 -225 -225 -225 -225 -225 -225 -225 -225 -225 -225 -225 -225 -225 -225 -225 -225 -225 22 -209 31 31 32 36 37 36 42 46 42 45 46 47 49 50 51 51 51 54 55 55 57 56 58 60 61 61 67 74 74 74 79 78 79 80 81 81 79 83 83 80 83 82 86 87 87 89 87 89 91 91 91 91 90 93 92 93 93 93 95 99 99 100 101 105 106 110 109 110 111 112 116 121 -193 125 126 135 144 139 138 139 139 138 138 138 138 137 138 139 139 140 149 149 149 151 -209 156 155 157 155 163 161 162 164 163 163 165 165 165 158 170 172 173 174 170 174 -209 -209 -209 -209 188 189 189 191 -193 0 0 0 0 0
    0 0 0 0 0 0 0 0 0 0 0 0 0 0 0 0 0 0 0 0 0 0 0 0 0 0 0 0 0 0 0 0 0 0 0 0 0 0 0 0 0 0 0 0 0 0 0 0 0 0 0 0 0 0 0 0 0 0 0 0 0 0 0 0 0 0 0 0 0 67 66 59 61 62 63 62 67 70 70 67 68 68 67 69 69 67 68 70 72 73 73 74 73 73 74 74 73 73 73 73 73 72 72 70 71 71 68 68 67 68 67 65 65 67 63 63 62 63 60 60 58 55 49 49 48 47 46 44 41 41 42 36 32 33 38 39 40 39 40 42 46 48 45 43 43 44 44 43 42 -225 -225 -225 -225 -225 -225 -225 -225 -225 -225 -225 -225 -225 -225 -225 -225 -225 -225 -225 -225 -225 -225 -225 -225 -225 -225 -225 -225 -225 -225 -225 -225 -225 -225 -225 -225 -225 -225 -225 -225 -225 -209 39 41 40 41 41 41 43 46 44 45 46 46 49 50 51 50 52 54 56 56 57 57 59 61 61 62 67 73 73 74 79 78 79 80 81 81 78 83 83 -193 84 83 86 87 87 89 88 89 91 91 91 91 90 93 92 93 94 94 96 100 101 102 103 106 108 111 110 110 111 112 114 121 121 125 131 135 141 138 138 138 138 137 137 138 138 137 138 138 -193 140 151 151 150 152 154 157 155 156 155 161 160 161 163 163 163 165 165 165 160 169 171 173 173 170 -193 -209 -209 -209 -209 -209 -193 -209 -209 -193 0 0 0 0 0
    0 0 0 0 0 0 0 0 0 0 0 0 0 0 0 0 0 0 0 0 0 0 0 0 0 0 0 0 0 0 0 0 0 0 0 0 0 0 0 0 0 0 0 0 0 0 0 0 0 0 0 0 0 0 0 0 0 0 0 0 0 0 0 0 0 0 0 0 0 67 66 61 63 64 64 62 68 69 69 66 67 67 66 68 68 66 67 69 72 72 73 74 73 73 74 74 73 73 73 73 72 72 72 71 73 73 68 67 67 69 67 65 65 66 62 62 62 63 60 59 58 56 49 49 49 47 45 43 41 41 42 37 35 36 40 41 41 41 41 43 46 48 46 44 44 44 44 43 42 -225 -225 -225 -225 -225 -225 -225 -225 -225 -225 -225 -225 -225 -225 -225 -225 -225 -225 -225 -225 -225 -225 -225 -225 -225 -225 -225 -225 -225 -225 -225 -225 -225 -225 -225 -225 -225 -225 -225 -225 -225 -209 40 44 42 42 41 42 44 46 44 45 45 46 47 48 50 49 51 53 56 56 57 57 59 61 62 62 67 73 74 74 79 78 79 80 80 81 78 83 83 80 84 83 86 87 87 89 89 89 91 91 91 91 90 93 92 92 94 93 96 99 101 102 102 107 109 112 112 113 115 116 117 122 123 129 134 136 140 138 137 138 137 137 137 138 138 137 138 139 -209 142 152 151 151 152 154 157 156 156 155 160 161 162 163 163 163 166 166 166 161 168 170 171 171 169 -193 -209 -209 -209 -209 -209 -209 -209 -209 -209 0 0 0 0 0
    0 0 0 0 0 0 0 0 0 0 0 0 0 0 0 0 0 0 0 0 0 0 0 0 0 0 0 0 0 0 0 0 0 0 0 0 0 0 0 0 0 0 0 0 0 0 0 0 0 0 0 0 0 0 0 0 0 0 0 0 0 0 0 0 0 0 0 0 0 68 68 63 67 68 67 65 69 70 69 67 67 66 66 68 67 64 65 68 71 72 72 73 73 74 74 74 74 74 74 73 72 72 71 70 71 72 67 65 66 68 67 64 64 66 61 62 62 62 60 60 59 57 50 51 49 47 45 43 41 42 43 39 38 38 41 40 42 42 43 43 47 49 47 45 46 45 44 43 42 -225 -225 -225 -225 -225 -225 -225 -225 -225 -225 -225 -225 -225 -225 -225 -225 -225 -225 -225 -225 -225 -225 -225 -225 -225 -225 -225 -225 -225 -225 -225 -225 -225 -225 -225 -225 -225 -225 -225 -225 -225 -225 40 47 44 43 42 43 44 46 44 46 45 45 46 47 49 48 50 52 55 56 57 57 59 61 62 62 68 73 74 75 79 78 79 80 80 81 78 83 82 80 83 83 85 87 87 89 89 90 92 92 92 92 91 94 93 93 95 94 95 101 104 104 105 108 111 113 112 113 115 116 117 123 126 131 133 135 139 137 136 138 136 137 137 138 138 137 138 139 -193 142 152 152 151 152 154 158 156 156 155 160 161 162 163 164 163 166 166 166 162 167 170 171 170 169 170 -209 -209 -209 -209 -209 -209 -209 -209 -209 0 0 0 0 0
    0 0 0 0 0 0 0 0 0 0 0 0 0 0 0 0 0 0 0 0 0 0 0 0 0 0 0 0 0 0 0 0 0 0 0 0 0 0 0 0 0 0 0 0 0 0 0 0 0 0 0 0 0 0 0 0 0 0 0 0 0 0 0 0 0 0 0 0 0 70 69 67 69 71 71 69 72 72 71 69 69 68 67 69 69 64 66 68 71 72 72 73 72 72 73 73 73 73 72 70 69 71 70 68 69 70 65 64 65 67 66 63 64 65 61 62 62 62 60 59 59 57 53 53 51 49 46 45 43 41 42 40 38 38 39 40 42 42 44 45 48 50 48 48 48 46 45 44 43 -225 -225 -225 -225 -225 -225 -225 -225 -225 -225 -225 -225 -225 -225 -225 -225 -225 -225 -225 -225 -225 -225 -225 -225 -225 -225 -225 -225 -225 -225 -225 -225 -225 -225 -225 -225 -225 -225 -225 -225 -225 -225 41 48 47 45 43 44 45 47 45 47 46 46 48 49 50 49 51 53 55 55 57 56 58 61 61 62 67 73 74 75 79 78 79 80 80 81 78 83 82 80 84 84 85 88 87 89 89 90 93 93 93 93 93 96 94 94 96 95 96 103 105 106 107 109 111 112 110 111 113 116 117 122 126 129 131 134 137 136 135 137 136 136 137 138 138 137 138 139 -193 143 151 151 151 153 154 158 157 157 156 161 163 163 164 165 163 166 167 167 164 168 171 172 172 171 176 -209 -209 -209 -209 -209 -209 -209 -209 -209 0 0 0 0 0
    0 0 0 0 0 0 0 0 0 0 0 0 0 0 0 0 0 0 0 0 0 0 0 0 0 0 0 0 0 0 0 0 0 0 0 0 0 0 0 0 0 0 0 0 0 0 0 0 0 0 0 0 0 0 0 0 0 0 0 0 0 0 0 0 0 0 0 0 0 70 69 69 70 72 72 71 72 71 71 70 69 69 67 68 69 62 66 68 70 71 72 73 71 72 73 73 72 73 72 70 69 71 70 67 69 70 65 64 66 67 66 63 64 64 60 62 62 62 61 60 59 58 54 53 52 50 48 46 43 42 42 41 39 39 40 41 43 43 46 48 51 52 50 50 49 47 46 45 -225 -225 -225 -225 -225 -225 -225 -225 -225 -225 -225 -225 -225 -225 -225 -225 -225 -225 -225 -225 -225 -225 -225 -225 -225 -225 -225 -225 -225 -225 -225 -225 -225 -225 -225 -225 -225 -225 -225 -225 -225 -225 -225 -225 48 46 45 43 45 45 47 47 48 48 48 49 50 51 50 51 53 56 55 57 57 58 61 62 63 68 73 74 75 79 78 78 80 80 81 78 83 83 80 84 84 86 88 87 88 89 90 93 94 93 93 94 97 96 96 97 96 97 104 105 107 108 111 115 115 113 114 115 119 120 124 127 130 131 134 136 135 135 136 136 136 137 138 138 137 139 140 138 143 151 151 151 153 153 158 157 157 156 161 163 163 164 165 164 167 167 167 165 167 171 172 172 172 177 -209 -209 -209 -209 -209 -209 -193 -193 -193 0 0 0 0 0
    0 0 0 0 0 0 0 0 0 0 0 0 0 0 0 0 0 0 0 0 0 0 0 0 0 0 0 0 0 0 0 0 0 0 0 0 0 0 0 0 0 0 0 0 0 0 0 0 0 0 0 0 0 0 0 0 0 0 0 0 0 0 0 0 0 0 0 0 0 70 69 70 70 72 72 71 72 71 69 69 69 68 67 68 68 63 67 68 70 71 72 73 71 72 73 72 72 72 71 69 68 70 69 64 69 69 64 64 66 66 66 63 64 63 60 62 61 61 61 60 59 58 55 54 53 52 49 46 42 42 41 39 37 39 41 43 45 45 48 51 52 53 52 51 50 49 48 -225 -225 -225 -225 -225 -225 -225 -225 -225 -225 -225 -225 -225 -225 -225 -225 -225 -225 -225 -225 -225 -225 -225 -225 -225 -225 -225 -225 -225 -225 -225 -225 -225 -225 -225 -225 -225 -225 -225 -225 -225 -225 -225 -225 -225 -225 -225 50 43 47 47 50 49 50 51 51 51 52 52 51 52 53 56 55 57 57 59 62 63 64 68 73 74 75 79 78 78 79 80 81 78 84 83 81 85 85 86 89 88 89 89 90 93 94 93 94 94 98 96 97 99 100 100 106 109 110 112 114 116 116 115 115 116 119 120 124 128 130 132 134 136 135 135 136 136 136 137 138 138 137 139 140 138 143 150 151 152 153 153 157 156 156 155 160 163 162 164 165 165 167 167 167 166 167 171 171 171 173 175 -193 -193 -209 181 180 182 -193 -193 -193 0 0 0 0 0
    0 0 0 0 0 0 0 0 0 0 0 0 0 0 0 0 0 0 0 0 0 0 0 0 0 0 0 0 0 0 0 0 0 0 0 0 0 0 0 0 0 0 0 0 0 0 0 0 0 0 0 0 0 0 0 0 0 0 0 0 0 0 0 0 0 0 0 0 0 69 68 70 70 72 72 71 72 70 69 69 68 68 66 67 68 63 68 69 70 72 73 76 72 73 73 72 72 72 72 70 68 70 69 65 70 69 65 65 68 66 66 64 64 63 60 62 61 61 61 60 59 58 56 55 55 54 50 45 44 43 41 39 39 41 43 44 46 46 49 52 53 53 52 51 51 50 -225 -225 -225 -225 -225 -225 -225 -225 -225 -225 -225 -225 -225 -225 -225 -225 -225 -225 -225 -225 -225 -225 -225 -225 -225 -225 -225 -225 -225 -225 -225 -225 -225 -225 -225 -225 -225 -225 -225 -225 -225 -225 -225 -225 -225 -225 -225 -225 -225 -225 50 49 51 50 50 52 52 53 52 52 51 51 53 56 55 57 57 59 62 64 65 69 73 74 75 79 78 78 79 80 81 78 84 83 81 85 86 87 89 88 89 89 90 92 93 93 93 93 97 96 97 100 101 102 108 112 114 114 115 116 115 115 115 116 119 120 122 126 128 131 134 135 135 135 137 137 137 137 138 138 137 139 140 138 142 148 150 151 154 154 157 156 156 156 159 162 161 163 164 163 167 167 167 166 165 171 172 172 174 174 178 180 181 180 180 180 180 179 -209 0 0 0 0 0
    0 0 0 0 0 0 0 0 0 0 0 0 0 0 0 0 0 0 0 0 0 0 0 0 0 0 0 0 0 0 0 0 0 0 0 0 0 0 0 0 0 0 0 0 0 0 0 0 0 0 0 0 0 0 0 0 0 0 0 0 0 0 0 0 0 0 0 0 0 69 68 70 71 72 73 72 73 71 70 70 70 69 67 67 68 63 69 70 71 73 73 75 72 72 73 72 72 72 71 70 68 71 70 69 72 70 66 67 69 66 67 65 65 63 61 63 61 61 62 59 59 58 57 56 56 54 48 41 53 44 -193 -193 42 45 47 49 50 50 52 53 54 54 52 52 50 49 -225 -225 -225 -225 -225 -225 -225 -225 -225 -225 -225 -225 -225 -225 -225 -225 -225 -225 -225 -225 -225 -225 -225 -225 -225 -225 -225 -225 -225 -225 -225 -225 -225 -225 -225 -225 -225 -225 -225 -225 -225 -225 -225 -225 -225 -225 -225 -225 -225 -225 51 50 52 51 51 53 53 53 53 52 51 51 53 56 55 57 57 59 63 65 66 69 73 74 75 79 77 77 78 79 80 77 83 83 80 85 86 86 89 88 89 89 90 92 93 92 92 92 96 96 97 100 103 104 110 113 114 115 115 116 115 115 116 116 119 119 122 125 127 130 133 135 135 135 137 137 137 138 138 139 138 140 141 139 141 146 148 150 152 153 157 156 156 156 159 163 161 162 163 162 166 166 166 165 161 170 171 171 177 175 -193 181 -209 -193 181 -209 -209 179 -209 0 0 0 0 0
    0 0 0 0 0 0 0 0 0 0 0 0 0 0 0 0 0 0 0 0 0 0 0 0 0 0 0 0 0 0 0 0 0 0 0 0 0 0 0 0 0 0 0 0 0 0 0 0 0 0 0 0 0 0 0 0 0 0 0 0 0 0 0 0 0 0 0 0 0 70 68 71 71 72 73 73 73 72 71 71 70 69 67 67 68 65 70 70 71 0 -256 -1 -21591 72 72 71 71 71 71 69 69 71 71 71 73 71 68 69 71 68 69 67 66 64 63 64 62 62 63 60 60 58 58 58 58 57 42 -193 -209 -209 -193 -209 -193 -193 53 53 53 54 54 55 56 54 52 52 50 -225 -225 -225 -225 -225 -225 -225 -225 -225 -225 -225 -225 -225 -225 -225 -225 -225 -225 -225 -225 -225 -225 -225 -225 -225 -225 -225 -225 -225 -225 -225 -225 -225 -225 -225 -225 -225 -225 -225 -225 -225 -225 -225 -225 -225 -225 -225 -225 -225 -225 -225 48 47 51 52 52 54 54 54 53 53 53 52 53 55 55 57 58 60 63 66 66 69 72 73 74 78 77 77 77 78 80 76 82 82 79 84 86 87 88 88 89 89 90 93 93 92 92 93 95 95 96 100 103 105 113 115 116 116 117 117 117 117 117 118 120 120 122 125 127 129 133 134 134 134 136 137 137 137 138 138 138 140 141 139 140 144 146 149 151 153 158 157 157 157 160 163 162 162 163 161 165 166 166 165 159 169 169 -193 174 174 -193 182 184 183 182 -193 -193 -209 -209 0 0 0 0 0
    0 0 0 0 0 0 0 0 0 0 0 0 0 0 0 0 0 0 0 0 0 0 0 0 0 0 0 0 0 0 0 0 0 0 0 0 0 0 0 0 0 0 0 0 0 0 0 0 0 0 0 0 0 0 0 0 0 0 0 0 0 0 0 0 0 0 0 0 0 70 69 71 72 73 73 73 74 72 70 71 70 68 66 66 68 66 70 70 70 72 73 73 71 71 72 71 71 71 71 70 70 72 71 71 73 71 69 69 71 68 69 68 67 64 64 64 62 62 63 60 60 58 59 58 58 57 41 -193 -209 -209 -193 -209 -193 -193 56 56 56 56 56 57 57 55 53 53 -225 -225 -225 -225 -225 -225 -225 -225 -225 -225 -225 -225 -225 -225 -225 -225 -225 -225 -225 -225 -225 -225 -225 -225 -225 -225 -225 -225 -225 -225 -225 -225 -225 -225 -225 -225 -225 -225 -225 -225 -225 -225 -225 -225 -225 -225 -225 -225 -225 -225 -225 -225 -225 -225 -209 54 56 57 56 56 55 55 55 54 55 57 57 59 60 62 64 68 67 70 73 74 75 78 76 76 76 78 79 76 82 81 78 84 86 87 88 88 89 89 90 93 93 93 92 93 95 97 97 101 106 107 115 116 117 117 117 118 117 118 119 119 121 122 123 126 127 129 132 133 133 133 135 135 135 136 137 137 137 139 141 139 140 143 145 148 151 153 157 157 157 157 160 163 162 162 162 161 163 165 165 164 158 166 -193 -193 174 176 181 -193 186 -209 183 -209 -209 -209 -209 0 0 0 0 0
    0 0 0 0 0 0 0 0 0 0 0 0 0 0 0 0 0 0 0 0 0 0 0 0 0 0 0 0 0 0 0 0 0 0 0 0 0 0 0 0 0 0 0 0 0 0 0 0 0 0 0 0 0 0 0 0 0 0 0 0 0 0 0 0 0 0 0 0 0 70 69 71 72 73 73 73 74 73 71 71 70 68 66 66 68 67 71 71 71 72 73 73 71 72 72 71 71 71 71 70 70 72 72 72 73 71 70 70 72 69 69 68 67 65 66 65 63 62 64 61 60 60 60 59 59 58 65 -193 -209 105 116 -209 -193 60 59 58 58 58 58 58 57 56 54 -225 -225 -225 -225 -225 -225 -225 -225 -225 -225 -225 -225 -225 -225 -225 -225 -225 -225 -225 -225 -225 -225 -225 -225 -225 -225 -225 -225 -225 -225 -225 -225 -225 -225 -225 -225 -225 -225 -225 -225 -225 -225 -225 -225 -225 -225 -225 -225 -225 -225 -225 -225 -225 -225 -225 -225 55 59 61 58 58 56 56 56 56 57 58 58 60 60 62 64 67 67 70 73 74 74 78 77 76 76 78 79 75 83 81 78 84 86 87 88 88 89 89 91 93 93 93 92 94 96 99 100 103 108 108 116 116 116 116 116 117 116 118 118 118 121 122 123 126 127 129 132 132 132 132 133 134 132 133 134 -193 134 137 139 138 138 140 142 146 149 151 153 155 155 155 158 161 161 161 161 160 161 164 164 163 156 -209 -209 -209 173 177 182 -193 -193 -209 183 -193 -209 -209 -209 0 0 0 0 0
    0 0 0 0 0 0 0 0 0 0 0 0 0 0 0 0 0 0 0 0 0 0 0 0 0 0 0 0 0 0 0 0 0 0 0 0 0 0 0 0 0 0 0 0 0 0 0 0 0 0 0 0 0 0 0 0 0 0 0 0 0 0 0 0 0 0 0 0 0 70 68 71 72 73 73 73 74 72 71 71 70 69 66 67 69 68 72 71 71 72 73 74 71 72 72 71 71 71 71 70 70 73 73 73 75 72 72 71 73 69 69 69 68 66 67 65 62 61 65 62 60 63 63 62 66 69 72 71 -193 -209 114 64 64 63 62 61 60 59 59 59 58 57 -225 -225 -225 -225 -225 -225 -225 -225 -225 -225 -225 -225 -225 -225 -225 -225 -225 -225 -225 -225 -225 -225 -225 -225 -225 -225 -225 -225 -225 -225 -225 -225 -225 -225 -225 -225 -225 -225 -225 -225 -225 -225 -225 -225 -225 -225 -225 -225 -225 -225 -225 -225 -225 -225 -225 -225 -225 56 64 63 59 60 57 59 58 58 58 59 58 61 61 62 64 68 68 70 73 74 74 78 77 77 76 78 79 75 83 81 77 84 86 88 88 88 88 89 90 92 92 92 91 93 94 99 101 103 107 106 113 113 114 115 115 117 116 118 118 118 120 121 122 124 126 127 131 131 131 131 132 133 131 131 132 -193 131 134 136 136 136 138 140 144 147 151 151 155 156 155 158 161 161 161 162 161 161 163 163 161 -193 143 137 142 -209 -193 -193 -209 -209 -209 -209 -209 -209 -209 -209 0 0 0 0 0
    0 0 0 0 0 0 0 0 0 0 0 0 0 0 0 0 0 0 0 0 0 0 0 0 0 0 0 0 0 0 0 0 0 0 0 0 0 0 0 0 0 0 0 0 0 0 0 0 0 0 0 0 0 0 0 0 0 0 0 0 0 0 0 0 0 0 0 0 0 69 66 70 70 71 71 72 71 70 68 68 68 67 65 66 68 68 72 72 72 73 74 74 72 72 72 71 71 71 71 70 71 73 73 74 76 75 74 73 74 70 70 70 68 67 67 66 63 62 66 63 61 67 69 72 73 71 72 72 75 -209 68 67 66 65 64 62 61 61 60 59 58 57 -225 -225 -225 -225 -225 -225 -225 -225 -225 -225 -225 -225 -225 -225 -225 -225 -225 -225 -225 -225 -225 -225 -225 -225 -225 -225 -225 -225 -225 -225 -225 -225 -225 -225 -225 -225 -225 -225 -225 -225 -225 -225 -225 -225 -225 -225 -225 -225 -225 -225 -225 -225 -225 -225 -225 -225 -225 -225 -225 68 64 63 59 66 60 59 60 60 59 62 62 63 64 68 68 70 73 73 74 77 76 76 75 78 78 75 83 81 77 84 86 88 88 89 89 -193 90 91 91 91 90 91 92 96 100 103 107 107 112 113 114 115 116 118 117 119 119 119 120 120 122 123 124 126 129 130 130 131 133 133 131 132 133 -193 134 136 137 138 137 139 140 144 146 150 150 153 154 154 156 160 160 162 162 161 162 162 162 160 -193 -193 135 138 135 -209 -193 -193 -193 77 -209 -209 -209 -209 -209 0 0 0 0 0
    0 0 0 0 0 0 0 0 0 0 0 0 0 0 0 0 0 0 0 0 0 0 0 0 0 0 0 0 0 0 0 0 0 0 0 0 0 0 0 0 0 0 0 0 0 0 0 0 0 0 0 0 0 0 0 0 0 0 0 0 0 0 0 0 0 0 0 0 0 69 66 68 70 69 69 69 69 68 61 62 64 62 65 66 67 69 72 72 72 72 73 73 72 72 72 71 71 71 72 71 72 73 74 74 77 76 75 74 74 70 70 70 68 67 67 66 63 61 66 63 60 70 74 74 75 75 75 74 75 76 70 69 68 67 66 64 63 62 61 60 59 -225 -225 -225 -225 -225 -225 -225 -225 -225 -225 -225 -225 -225 -225 -225 -225 -225 -225 -225 -225 -225 -225 -225 -225 -225 -225 -225 -225 -225 -225 -225 -225 -225 -225 -225 -225 -225 -225 -225 -225 -225 -225 -225 -225 -225 -225 -225 -225 -225 -225 -225 -225 -225 -225 -225 -225 -225 -225 -225 -225 -225 65 65 60 68 62 61 61 61 60 63 63 63 63 68 68 70 72 73 73 77 76 76 75 78 78 75 83 81 77 84 87 88 88 89 89 -193 90 91 91 92 90 91 92 97 100 103 107 107 111 112 112 113 114 116 115 117 117 117 118 118 120 121 122 125 127 128 128 131 133 133 132 132 132 133 135 137 137 138 138 139 140 142 143 149 149 153 154 154 155 159 161 162 161 160 160 160 160 159 -193 144 135 137 135 -193 131 130 -193 -193 -209 -209 -209 -209 -209 0 0 0 0 0
    0 0 0 0 0 0 0 0 0 0 0 0 0 0 0 0 0 0 0 0 0 0 0 0 0 0 0 0 0 0 0 0 0 0 0 0 0 0 0 0 0 0 0 0 0 0 0 0 0 0 0 0 0 0 0 0 0 0 0 0 0 0 0 0 0 0 0 0 0 69 66 66 70 69 67 67 62 -225 -225 -225 -225 58 63 65 67 -193 77 72 72 72 74 72 72 72 72 71 71 72 72 71 73 74 74 75 78 78 77 75 74 71 71 70 69 68 68 66 64 62 67 63 61 73 73 73 74 73 73 72 76 77 72 71 70 69 67 67 66 64 62 60 -225 -225 -225 -225 -225 -225 -225 -225 -225 -225 -225 -225 -225 -225 -225 -225 -225 -225 -225 -225 -225 -225 -225 -225 -225 -225 -225 -225 -225 -225 -225 -225 -225 -225 -225 -225 -225 -225 -225 -225 -225 -225 -225 -225 -225 -225 -225 -225 -225 -225 -225 -225 -225 -225 -225 -225 -225 -225 -225 -225 -225 -225 67 67 63 69 66 64 63 62 62 64 64 65 64 67 67 69 71 72 73 77 76 76 76 78 78 76 83 82 78 84 86 87 87 88 88 -193 90 91 92 92 91 92 93 97 99 102 106 105 109 110 111 112 113 116 115 117 117 117 117 117 120 120 121 123 125 125 125 129 132 132 132 133 133 134 135 137 137 138 138 139 139 142 144 149 151 155 155 155 156 159 160 161 160 159 158 158 159 159 155 153 -193 138 -193 -193 133 133 136 135 -193 138 -209 -209 -209 0 0 0 0 0
    0 0 0 0 0 0 0 0 0 0 0 0 0 0 0 0 0 0 0 0 0 0 0 0 0 0 0 0 0 0 0 0 0 0 0 0 0 0 0 0 0 0 0 0 0 0 0 0 0 0 0 0 0 0 0 0 0 0 0 0 0 0 0 0 0 0 0 0 0 71 70 67 71 71 70 -225 -225 -225 -225 -225 -225 -225 64 64 68 -209 -193 73 73 72 75 70 70 71 70 69 70 71 72 70 75 75 75 77 78 80 78 76 74 71 71 70 69 69 69 67 66 64 69 64 68 73 72 73 73 73 76 75 77 78 75 72 71 70 69 68 68 66 64 -225 -225 -225 -225 -225 -225 -225 -225 -225 -225 -225 -225 -225 -225 -225 -225 -225 -225 -225 -225 -225 -225 -225 -225 -225 -225 -225 -225 -225 -225 -225 -225 -225 -225 -225 -225 -225 -225 -225 -225 -225 -225 -225 -225 -225 -225 -225 -225 -225 -225 -225 -225 -225 -225 -225 -225 -225 -225 -225 -225 -225 -225 -225 68 67 64 69 66 66 64 64 63 66 66 66 65 68 67 69 71 72 72 76 75 76 76 78 78 76 81 81 77 83 85 87 87 88 88 -193 90 92 92 92 91 93 94 98 100 101 104 104 107 107 109 111 112 116 116 118 118 118 117 117 118 119 120 121 124 125 125 129 132 132 133 133 133 133 135 137 137 138 138 139 140 142 143 149 151 154 154 154 156 158 159 161 160 158 156 157 157 157 154 153 142 139 -193 -193 134 135 139 136 138 140 136 -193 135 0 0 0 0 0
    0 0 0 0 0 0 0 0 0 0 0 0 0 0 0 0 0 0 0 0 0 0 0 0 0 0 0 0 0 0 0 0 0 0 0 0 0 0 0 0 0 0 0 0 0 0 0 0 0 0 0 0 0 0 0 0 0 0 0 0 0 0 0 0 0 0 0 0 0 72 72 70 74 77 77 -225 -225 -225 -225 -225 -225 -209 63 63 67 71 77 72 72 71 74 70 71 72 71 70 71 72 73 72 77 77 76 76 76 79 77 75 74 71 72 71 71 71 70 68 69 67 70 66 72 72 71 72 73 78 78 77 79 80 77 74 72 71 70 69 68 67 64 -225 -225 -225 -225 -225 -225 -225 -225 -225 -225 -225 -225 -225 -225 -225 -225 -225 -225 -225 -225 -225 -225 -225 -225 -225 -225 -225 -225 -225 -225 -225 -225 -225 -225 -225 -225 -225 -225 -225 -225 -225 -225 -225 -225 -225 -225 -225 -225 -225 -225 -225 -225 -225 -225 -225 -225 -225 -225 -225 -225 -225 -225 -225 69 68 67 70 66 66 65 65 64 67 66 66 66 69 68 70 72 72 73 77 76 77 76 79 78 77 81 81 78 83 85 87 87 88 89 89 91 92 93 92 91 93 94 98 99 100 102 102 105 106 108 110 111 114 115 116 116 116 116 115 116 118 119 120 123 126 126 131 133 133 134 134 133 132 134 135 135 137 137 139 139 141 142 147 149 152 152 152 154 156 158 159 158 157 155 156 157 156 155 153 -193 144 -209 -209 -209 -193 -209 -209 142 145 145 142 138 0 0 0 0 0
    0 0 0 0 0 0 0 0 0 0 0 0 0 0 0 0 0 0 0 0 0 0 0 0 0 0 0 0 0 0 0 0 0 0 0 0 0 0 0 0 0 0 0 0 0 0 0 0 0 0 0 0 0 0 0 0 0 0 0 0 0 0 0 0 0 0 0 0 0 74 77 74 79 -193 -225 -225 -225 -225 -225 -225 -225 -209 -193 61 62 70 75 71 71 71 75 73 74 75 75 76 76 80 81 78 82 79 77 75 75 77 75 70 71 69 71 70 71 71 69 65 70 70 73 71 72 71 70 72 75 81 81 80 81 82 79 76 74 72 71 70 69 68 -225 -225 -225 -225 -225 -225 -225 -225 -225 -225 -225 -225 -225 -225 -225 -225 -225 -225 -225 -225 -225 -225 -225 -225 -225 -225 -225 -225 -225 -225 -225 -225 -225 -225 -225 -225 -225 -225 -225 -225 -225 -225 -225 -225 -225 -225 -225 -225 -225 -225 -225 -225 -225 -225 -225 -225 -225 -225 -225 -225 -225 -225 -225 -225 69 68 69 71 67 68 67 67 66 67 67 67 68 70 70 71 73 74 74 78 77 78 77 80 79 78 81 82 79 83 85 87 88 88 89 89 91 92 93 92 92 93 95 99 99 100 102 101 104 104 106 108 109 111 112 113 114 114 113 113 115 116 118 119 122 127 -193 132 134 135 135 135 134 134 134 135 135 137 137 138 139 140 141 145 148 150 151 151 153 154 155 157 156 156 154 155 156 156 155 153 -193 138 -209 -209 -209 -209 -209 -209 146 149 151 152 -209 0 0 0 0 0
    0 0 0 0 0 0 0 0 0 0 0 0 0 0 0 0 0 0 0 0 0 0 0 0 0 0 0 0 0 0 0 0 0 0 0 0 0 0 0 0 0 0 0 0 0 0 0 0 0 0 0 0 0 0 0 0 0 0 0 0 0 0 0 0 0 0 0 0 0 75 86 -225 -225 -225 -225 -225 -225 -225 -225 -225 -225 -209 -209 -209 -209 -209 -209 -209 -209 71 75 75 80 81 80 81 78 82 84 82 83 77 77 75 75 77 75 73 73 72 74 72 74 76 72 70 72 73 74 72 72 71 72 74 77 83 82 82 83 83 81 76 75 74 73 71 71 -225 -225 -225 -225 -225 -225 -225 -225 -225 -225 -225 -225 -225 -225 -225 -225 -225 -225 -225 -225 -225 -225 -225 -225 -225 -225 -225 -225 -225 -225 -225 -225 -225 -225 -225 -225 -225 -225 -225 -225 -225 -225 -225 -225 -225 -225 -225 -225 -225 -225 -225 -225 -225 -225 -225 -225 -225 -225 -225 -225 -225 -225 -225 -225 -225 71 70 69 71 67 67 67 67 65 67 67 67 68 70 70 71 73 74 74 78 78 78 78 81 80 80 82 83 80 85 86 88 88 88 89 90 91 92 93 93 93 93 97 100 100 101 101 101 104 104 106 107 108 110 110 112 112 112 111 112 114 116 117 119 121 126 127 132 134 135 136 136 135 134 134 136 136 138 137 139 138 141 142 146 147 150 151 151 152 153 155 156 156 156 156 157 158 160 158 156 157 -209 -209 -209 -209 -209 -209 -209 -209 -209 157 159 159 0 0 0 0 0
    0 0 0 0 0 0 0 0 0 0 0 0 0 0 0 0 0 0 0 0 0 0 0 0 0 0 0 0 0 0 0 0 0 0 0 0 0 0 0 0 0 0 0 0 0 0 0 0 0 0 0 0 0 0 0 0 0 0 0 0 0 0 0 0 0 0 0 0 0 76 78 72 73 -209 -209 -209 -225 -225 -225 -225 -209 -209 -209 -209 34 -209 -209 -209 -209 75 76 76 82 83 83 84 80 84 84 84 83 78 78 76 76 77 76 74 74 72 75 73 76 80 87 -193 74 77 79 75 74 76 75 75 78 84 83 82 83 84 81 77 76 75 74 72 72 -225 -225 -225 -225 -225 -225 -225 -225 -225 -225 -225 -225 -225 -225 -225 -225 -225 -225 -225 -225 -225 -225 -225 -225 -225 -225 -225 -225 -225 -225 -225 -225 -225 -225 -225 -225 -225 -225 -225 -225 -225 -225 -225 -225 -225 -225 -225 -225 -225 -225 -225 -225 -225 -225 -225 -225 -225 -225 -225 -225 -225 -225 -225 -225 -225 -225 70 70 71 68 67 67 68 66 68 68 68 69 72 71 72 74 75 75 78 78 78 78 82 81 81 81 82 81 84 85 87 87 88 88 90 90 91 92 92 93 93 96 98 99 100 101 102 104 104 106 108 108 109 110 111 111 112 112 113 114 116 116 118 -193 -193 126 -193 -193 136 137 137 136 136 136 138 138 139 138 140 140 142 143 146 147 150 -193 -193 153 154 155 156 157 157 158 160 163 165 166 165 164 169 170 171 168 -193 -193 168 167 166 163 163 164 0 0 0 0 0
    0 0 0 0 0 0 0 0 0 0 0 0 0 0 0 0 0 0 0 0 0 0 0 0 0 0 0 0 0 0 0 0 0 0 0 0 0 0 0 0 0 0 0 0 0 0 0 0 0 0 0 0 0 0 0 0 0 0 0 0 0 0 0 0 0 0 0 0 0 76 77 75 75 76 75 -193 -193 72 74 -209 -209 -209 -193 -193 -209 -209 -193 75 76 76 76 78 82 83 82 83 80 84 84 84 83 79 78 77 77 78 76 75 74 73 75 74 77 86 90 91 77 79 81 77 80 80 77 77 81 85 84 84 85 84 81 78 77 76 74 72 -225 -225 -225 -225 -225 -225 -225 -225 -225 -225 -225 -225 -225 -225 -225 -225 -225 -225 -225 -225 -225 -225 -225 -225 -225 -225 -225 -225 -225 -225 -225 -225 -225 -225 -225 -225 -225 -225 -225 -225 -225 -225 -225 -225 -225 -225 -225 -225 -225 -225 -225 -225 -225 -225 -225 -225 -225 -225 -225 -225 -225 -225 -225 -225 -225 -225 -225 69 68 70 68 67 67 68 67 68 68 69 70 72 72 73 74 76 76 79 78 79 79 83 83 84 83 85 83 86 87 88 88 89 89 90 90 91 93 92 94 93 97 98 99 101 101 102 104 105 105 107 107 108 109 110 111 112 113 114 116 117 118 119 121 125 126 131 133 -193 138 138 136 138 138 141 141 141 140 142 142 143 144 146 147 150 -193 -193 -193 -193 155 156 156 157 159 163 166 168 169 169 168 170 171 171 169 169 168 168 167 167 165 166 -209 0 0 0 0 0
    0 0 0 0 0 0 0 0 0 0 0 0 0 0 0 0 0 0 0 0 0 0 0 0 0 0 0 0 0 0 0 0 0 0 0 0 0 0 0 0 0 0 0 0 0 0 0 0 0 0 0 0 0 0 0 0 0 0 0 0 0 0 0 0 0 0 0 0 0 77 79 77 77 77 77 78 77 75 80 -209 -209 -209 18 21 -209 -209 -193 75 76 76 77 80 83 84 82 82 80 84 84 84 83 81 79 78 77 78 76 75 72 71 73 72 78 88 92 91 81 83 84 84 85 84 80 80 83 86 86 85 85 84 82 81 80 78 76 -225 -225 -225 -225 -225 -225 -225 -225 -225 -225 -225 -225 -225 -225 -225 -225 -225 -225 -225 -225 -225 -225 -225 -225 -225 -225 -225 -225 -225 -225 -225 -225 -225 -225 -225 -225 -225 -225 -225 -225 -225 -225 -225 -225 -225 -225 -225 -225 -225 -225 -225 -225 -225 -225 -225 -225 -225 -225 -225 -225 -225 -225 -225 -225 -225 -225 -225 -225 66 64 65 68 66 65 69 68 69 68 69 71 72 73 74 76 79 78 81 80 80 81 84 85 85 84 86 86 88 89 89 90 90 89 90 90 92 94 93 95 95 99 99 100 102 102 103 105 105 106 107 108 109 109 110 111 112 113 115 117 119 120 120 122 126 127 130 132 133 137 137 135 137 137 140 140 141 140 141 142 144 145 146 147 149 150 152 152 152 154 154 155 156 160 165 168 170 170 170 170 171 172 172 170 170 169 169 167 166 164 165 -209 0 0 0 0 0
    0 0 0 0 0 0 0 0 0 0 0 0 0 0 0 0 0 0 0 0 0 0 0 0 0 0 0 0 0 0 0 0 0 0 0 0 0 0 0 0 0 0 0 0 0 0 0 0 0 0 0 0 0 0 0 0 0 0 0 0 0 0 0 0 0 0 0 0 0 77 78 77 76 76 76 77 -193 74 79 -209 -209 -209 -209 -209 -209 -193 76 77 77 76 78 80 83 84 82 81 79 82 83 83 82 81 79 77 77 78 77 76 73 72 76 76 84 89 91 90 85 85 87 86 86 86 83 83 85 87 86 85 85 84 84 83 83 80 -225 -225 -225 -225 -225 -225 -225 -225 -225 -225 -225 -225 -225 -225 -225 -225 -225 -225 -225 -225 -225 -225 -225 -225 -225 -225 -225 -225 -225 -225 -225 -225 -225 -225 -225 -225 -225 -225 -225 -225 -225 -225 -225 -225 -225 -225 -225 -225 -225 -225 -225 -225 -225 -225 -225 -225 -225 -225 -225 -225 -225 -225 -225 -225 -225 -225 -225 -225 -225 -225 62 59 58 60 60 67 68 69 67 70 72 74 75 75 77 80 79 81 80 80 81 84 85 85 84 87 87 89 90 90 90 90 90 91 91 92 94 93 96 95 98 98 99 102 102 103 104 105 105 107 108 109 110 111 112 113 114 116 118 119 120 120 123 126 127 130 132 134 138 138 137 138 138 140 140 140 140 141 142 143 146 147 148 149 150 152 153 152 154 153 154 156 162 167 169 171 171 172 172 172 173 173 171 173 171 174 172 173 176 175 181 0 0 0 0 0
    0 0 0 0 0 0 0 0 0 0 0 0 0 0 0 0 0 0 0 0 0 0 0 0 0 0 0 0 0 0 0 0 0 0 0 0 0 0 0 0 0 0 0 0 0 0 0 0 0 0 0 0 0 0 0 0 0 0 0 0 0 0 0 0 0 0 0 0 0 77 78 76 76 76 75 76 -209 74 77 -209 -209 -209 -209 78 -209 78 78 79 78 77 79 81 83 84 80 79 77 80 81 81 80 80 78 77 77 79 78 78 76 76 81 80 84 88 90 90 85 86 86 85 87 87 85 85 86 88 86 86 86 85 85 84 84 -225 -225 -225 -225 -225 -225 -225 -225 -225 -225 -225 -225 -225 -225 -225 -225 -225 -225 -225 -225 -225 -225 -225 -225 -225 -225 -225 -225 -225 -225 -225 -225 -225 -225 -225 -225 -225 -225 -225 -225 -225 -225 -225 -225 -225 -225 -225 -225 -225 -225 -225 -225 -225 -225 -225 -225 -225 -225 -225 -225 -225 -225 -225 -225 -225 -225 -225 -225 -225 -225 -225 -225 53 54 57 59 69 68 69 68 70 73 75 76 77 79 82 81 82 81 80 80 83 85 86 84 88 88 89 91 91 91 91 91 91 90 91 94 93 95 95 98 98 99 102 102 103 103 104 104 106 107 108 109 111 112 114 116 117 119 121 121 122 124 126 127 129 132 134 137 138 137 138 138 140 140 140 140 141 142 142 145 147 147 149 148 150 150 150 152 152 153 155 161 168 170 172 172 173 173 173 174 173 171 174 172 176 176 178 182 184 186 0 0 0 0 0
    0 0 0 0 0 0 0 0 0 0 0 0 0 0 0 0 0 0 0 0 0 0 0 0 0 0 0 0 0 0 0 0 0 0 0 0 0 0 0 0 0 0 0 0 0 0 0 0 0 0 0 0 0 0 0 0 0 0 0 0 0 0 0 0 0 0 0 0 0 76 77 75 75 75 74 75 -193 74 77 -209 -193 -209 84 82 84 83 83 85 84 81 84 83 83 84 80 78 76 77 79 80 79 79 78 -193 -193 79 78 78 78 78 82 81 84 88 90 90 89 88 88 87 88 88 87 87 87 88 86 86 86 85 85 -225 -225 -225 -225 -225 -225 -225 -225 -225 -225 -225 -225 -225 -225 -225 -225 -225 -225 -225 -225 -225 -225 -225 -225 -225 -225 -225 -225 -225 -225 -225 -225 -225 -225 -225 -225 -225 -225 -225 -225 -225 -225 -225 -225 -225 -225 -225 -225 -225 -225 -225 -225 -225 -225 -225 -225 -225 -225 -225 -225 -225 -225 -225 -225 -225 -225 -225 -225 -225 -225 -225 -225 -225 -225 -225 -225 -225 56 65 66 67 64 69 73 75 77 77 79 82 81 82 81 79 81 84 86 88 87 89 90 91 92 92 92 91 91 92 91 92 94 94 95 95 98 98 99 103 101 103 104 104 104 105 107 108 108 110 112 114 117 118 120 122 122 123 124 126 126 127 131 132 135 137 137 138 138 139 139 140 140 141 142 143 147 148 148 150 150 150 150 150 153 152 154 156 -193 -193 170 171 171 173 172 173 174 173 171 173 172 176 176 178 182 184 187 0 0 0 0 0
    0 0 0 0 0 0 0 0 0 0 0 0 0 0 0 0 0 0 0 0 0 0 0 0 0 0 0 0 0 0 0 0 0 0 0 0 0 0 0 0 0 0 0 0 0 0 0 0 0 0 0 0 0 0 0 0 0 0 0 0 0 0 0 0 0 0 0 0 0 76 76 75 75 75 74 74 -193 74 76 75 78 82 82 81 83 83 85 87 86 85 87 86 86 85 82 80 77 78 80 79 78 78 78 -193 -193 79 78 80 83 84 85 84 85 88 90 92 91 89 89 89 89 90 89 88 88 87 87 87 87 86 -225 -225 -225 -225 -225 -225 -225 -225 -225 -225 -225 -225 -225 -225 -225 -225 -225 -225 -225 -225 -225 -225 -225 -225 -225 -225 -225 -225 -225 -225 -225 -225 -225 -225 -225 -225 -225 -225 -225 -225 -225 -225 -225 -225 -225 -225 -225 -225 -225 -225 -225 -225 -225 -225 -225 -225 -225 -225 -225 -225 -225 -225 -225 -225 -225 -225 -225 -225 -225 -225 -225 -225 -225 -225 -225 -225 -225 -225 -225 -225 -225 67 64 68 72 74 77 77 79 83 82 82 82 80 82 86 88 90 89 90 91 91 92 93 92 92 91 92 91 92 95 95 95 96 99 99 100 104 102 104 105 105 104 106 107 108 109 111 113 115 118 119 122 123 123 123 124 125 125 125 129 129 133 136 137 138 138 140 140 141 141 142 144 144 148 148 148 149 149 151 149 150 154 153 155 -193 -193 -193 169 170 170 172 171 172 173 173 171 174 172 177 179 181 183 185 188 0 0 0 0 0
    0 0 0 0 0 0 0 0 0 0 0 0 0 0 0 0 0 0 0 0 0 0 0 0 0 0 0 0 0 0 0 0 0 0 0 0 0 0 0 0 0 0 0 0 0 0 0 0 0 0 0 0 0 0 0 0 0 0 0 0 0 0 0 0 0 0 0 0 0 77 76 75 75 75 74 74 74 74 76 76 79 84 85 84 85 85 86 87 87 86 88 86 85 85 81 79 77 77 78 78 78 79 -193 -193 -193 -193 81 84 86 87 87 86 86 88 91 92 92 91 90 90 91 91 90 89 88 87 87 87 86 -225 -225 -225 -225 -225 -225 -225 -225 -225 -225 -225 -225 -225 -225 -225 -225 -225 -225 -225 -225 -225 -225 -225 -225 -225 -225 -225 -225 -225 -225 -225 -225 -225 -225 -225 -225 -225 -225 -225 -225 -225 -225 -225 -225 -225 -225 -225 -225 -225 -225 -225 -225 -225 -225 -225 -225 -225 -225 -225 -225 -225 -225 -225 -225 -225 -225 -225 -225 -225 -225 -225 -225 -225 -225 -225 -225 -225 -225 -225 -225 -225 -225 -225 66 68 71 74 77 77 78 82 83 82 81 81 83 87 89 91 90 91 92 92 93 95 94 93 93 94 92 95 98 99 97 98 101 101 101 105 103 105 106 106 106 107 108 109 109 111 114 115 119 119 122 124 123 123 123 124 125 124 127 127 132 136 137 139 139 141 141 142 141 143 145 144 147 147 146 147 146 148 148 149 155 156 157 -193 -193 -209 169 170 170 171 171 172 173 173 171 173 171 177 179 181 -193 -193 187 0 0 0 0 0
    0 0 0 0 0 0 0 0 0 0 0 0 0 0 0 0 0 0 0 0 0 0 0 0 0 0 0 0 0 0 0 0 0 0 0 0 0 0 0 0 0 0 0 0 0 0 0 0 0 0 0 0 0 0 0 0 0 0 0 0 0 0 0 0 0 0 0 0 0 77 77 76 75 75 74 75 75 75 78 78 83 87 89 87 87 87 88 88 89 87 89 87 86 86 -193 81 78 78 -193 78 -193 81 -193 -193 -193 -193 -193 87 90 91 90 88 89 91 92 93 93 92 92 91 92 92 90 90 89 88 86 86 -225 -225 -225 -225 -225 -225 -225 -225 -225 -225 -225 -225 -225 -225 -225 -225 -225 -225 -225 -225 -225 -225 -225 -225 -225 -225 -225 -225 -225 -225 -225 -225 -225 -225 -225 -225 -225 -225 -225 -225 -225 -225 -225 -225 -225 -225 -225 -225 -225 -225 -225 -225 -225 -225 -225 -225 -225 -225 -225 -225 -225 -225 -225 -225 -225 -225 -225 -225 -225 -225 -225 -225 -225 -225 -225 -225 -225 -225 -225 -225 -225 -225 -225 -225 -225 69 71 72 79 77 78 80 81 82 81 79 84 88 90 92 92 93 94 93 95 97 96 96 97 99 96 99 101 101 99 100 102 101 101 104 102 104 105 106 106 107 108 109 109 111 114 116 119 119 122 123 123 122 123 124 124 124 127 127 133 136 138 140 141 142 142 143 143 143 145 144 146 147 146 146 146 147 147 148 154 157 157 161 -193 -209 169 169 169 171 170 171 172 172 170 170 169 172 175 179 -193 -193 186 0 0 0 0 0
    0 0 0 0 0 0 0 0 0 0 0 0 0 0 0 0 0 0 0 0 0 0 0 0 0 0 0 0 0 0 0 0 0 0 0 0 0 0 0 0 0 0 0 0 0 0 0 0 0 0 0 0 0 0 0 0 0 0 0 0 0 0 0 0 0 0 0 0 0 78 78 77 76 76 75 77 77 79 84 84 86 88 91 89 89 88 90 91 92 89 91 89 88 88 86 84 82 81 -193 81 -193 -193 -193 -193 -209 -209 -209 90 95 93 93 91 93 94 93 94 94 93 93 93 93 92 91 90 90 88 87 -225 -225 -225 -225 -225 -225 -225 -225 -225 -225 -225 -225 -225 -225 -225 -225 -225 -225 -225 -225 -225 -225 -225 -225 -225 -225 -225 -225 -225 -225 -225 -225 -225 -225 -225 -225 -225 -225 -225 -225 -225 -225 -225 -225 -225 -225 -225 -225 -225 -225 -225 -225 -225 -225 -225 -225 -225 -225 -225 -225 -225 -225 -225 -225 -225 -225 -225 -225 -225 -225 -225 -225 -225 -225 -225 -225 -225 -225 -225 -225 -225 -225 -225 -225 -225 -225 -225 64 69 78 77 77 79 78 80 79 78 86 88 91 94 94 97 97 96 98 100 98 98 99 101 98 101 103 103 102 103 104 104 102 105 103 104 104 105 105 106 108 109 110 113 115 116 120 120 -209 123 123 123 123 124 125 125 127 129 133 136 137 138 140 140 141 142 143 143 145 144 147 147 147 147 147 147 148 149 154 156 156 159 164 166 167 168 168 169 169 170 172 171 169 170 -193 172 175 179 180 182 183 0 0 0 0 0
    0 0 0 0 0 0 0 0 0 0 0 0 0 0 0 0 0 0 0 0 0 0 0 0 0 0 0 0 0 0 0 0 0 0 0 0 0 0 0 0 0 0 0 0 0 0 0 0 0 0 0 0 0 0 0 0 0 0 0 0 0 0 0 0 0 0 0 0 0 82 80 79 77 76 76 79 80 83 86 86 87 89 91 90 89 90 91 93 94 91 92 89 90 89 88 87 85 84 -193 83 -193 -209 -193 -193 -209 -209 -193 94 98 96 96 96 94 95 94 95 95 94 94 93 92 92 92 91 90 89 -225 -225 -225 -225 -225 -225 -225 -225 -225 -225 -225 -225 -225 -225 -225 -225 -225 -225 -225 -225 -225 -225 -225 -225 -225 -225 -225 -225 -225 -225 -225 -225 -225 -225 -225 -225 -225 -225 -225 -225 -225 -225 -225 -225 -225 -225 -225 -225 -225 -225 -225 -225 -225 -225 -225 -225 -225 -225 -225 -225 -225 -225 -225 -225 -225 -225 -225 -225 -225 -225 -225 -225 -225 -225 -225 -225 -225 -225 -225 -225 -225 -225 -225 -225 -225 -225 -225 -225 -225 69 75 77 76 77 76 76 75 75 83 85 90 93 94 98 98 97 99 100 99 99 101 103 102 104 105 106 106 106 106 106 105 106 105 104 104 105 106 108 110 111 112 112 115 115 118 118 120 -209 -193 121 123 123 124 124 127 129 133 135 136 137 138 139 140 140 142 142 143 143 147 148 148 148 149 148 150 151 155 155 156 158 163 165 166 166 165 167 166 168 170 171 169 169 170 -193 176 179 180 180 181 0 0 0 0 0
    0 0 0 0 0 0 0 0 0 0 0 0 0 0 0 0 0 0 0 0 0 0 0 0 0 0 0 0 0 0 0 0 0 0 0 0 0 0 0 0 0 0 0 0 0 0 0 0 0 0 0 0 0 0 0 0 0 0 0 0 0 0 0 0 0 0 0 0 0 -193 -193 -209 -209 72 71 -209 83 85 87 87 87 89 91 90 90 91 91 92 93 90 91 88 89 88 88 87 86 85 -193 -193 -209 -209 -193 -193 100 -193 -193 96 99 99 100 99 96 96 95 96 96 96 94 93 92 93 92 92 90 -225 -225 -225 -225 -225 -225 -225 -225 -225 -225 -225 -225 -225 -225 -225 -225 -225 -225 -225 -225 -225 -225 -225 -225 -225 -225 -225 -225 -225 -225 -225 -225 -225 -225 -225 -225 -225 -225 -225 -225 -225 -225 -225 -225 -225 -225 -225 -225 -225 -225 -225 -225 -225 -225 -225 -225 -225 -225 -225 -225 -225 -225 -225 -225 -225 -225 -225 -225 -225 -225 -225 -225 -225 -225 -225 -225 -225 -225 -225 -225 -225 -225 -225 -225 -225 -225 -225 -225 -225 -225 -225 72 76 74 74 74 73 72 73 76 85 91 94 95 100 100 100 101 102 101 101 103 105 104 105 106 106 106 107 106 106 106 106 105 105 106 107 106 107 109 110 110 110 111 112 117 116 117 -209 -209 -209 -209 121 123 122 124 127 132 135 135 137 138 139 140 140 142 142 143 143 147 148 149 149 150 149 151 152 155 155 155 156 160 162 164 163 163 165 164 166 -193 170 167 168 171 174 174 177 178 179 181 0 0 0 0 0
    0 0 0 0 0 0 0 0 0 0 0 0 0 0 0 0 0 0 0 0 0 0 0 0 0 0 0 0 0 0 0 0 0 0 0 0 0 0 0 0 0 0 0 0 0 0 0 0 0 0 0 0 0 0 0 0 0 0 0 0 0 0 0 0 0 0 0 0 0 -209 -193 -209 -209 75 -209 -193 84 85 86 86 87 88 90 90 90 91 92 93 94 91 90 87 88 88 88 88 87 -193 -209 -209 -209 -209 95 95 101 105 -193 99 101 102 102 101 100 100 98 98 98 97 95 94 94 94 93 -225 -225 -225 -225 -225 -225 -225 -225 -225 -225 -225 -225 -225 -225 -225 -225 -225 -225 -225 -225 -225 -225 -225 -225 -225 -225 -225 -225 -225 -225 -225 -225 -225 -225 -225 -225 -225 -225 -225 -225 -225 -225 -225 -225 -225 -225 -225 -225 -225 -225 -225 -225 -225 -225 -225 -225 -225 -225 -225 -225 -225 -225 -225 -225 -225 -225 -225 -225 -225 -225 -225 -225 -225 -225 -225 -225 -225 -225 -225 -225 -225 -225 -225 -225 -225 -225 -225 -225 -225 -225 -225 -225 -225 -225 -193 71 70 71 72 71 72 73 -193 94 96 97 101 102 101 102 104 103 102 104 105 104 105 106 106 106 107 107 107 106 106 106 105 105 105 104 105 106 107 108 108 109 112 116 116 117 117 117 118 120 120 122 122 123 125 130 133 134 135 137 138 140 141 143 143 145 145 147 148 149 149 150 149 150 151 154 154 154 156 158 159 161 160 161 162 162 164 167 167 166 166 170 171 172 175 175 176 177 0 0 0 0 0
    0 0 0 0 0 0 0 0 0 0 0 0 0 0 0 0 0 0 0 0 0 0 0 0 0 0 0 0 0 0 0 0 0 0 0 0 0 0 0 0 0 0 0 0 0 0 0 0 0 0 0 0 0 0 0 0 0 0 0 0 0 0 0 0 0 0 0 0 0 89 90 87 80 79 80 85 86 85 86 86 87 88 90 90 90 91 92 94 95 92 90 87 88 88 88 88 88 -209 -209 -209 -209 94 99 100 103 104 105 102 103 102 103 103 103 102 101 100 99 98 97 96 95 94 -225 -225 -225 -225 -225 -225 -225 -225 -225 -225 -225 -225 -225 -225 -225 -225 -225 -225 -225 -225 -225 -225 -225 -225 -225 -225 -225 -225 -225 -225 -225 -225 -225 -225 -225 -225 -225 -225 -225 -225 -225 -225 -225 -225 -225 -225 -225 -225 -225 -225 -225 -225 -225 -225 -225 -225 -225 -225 -225 -225 -225 -225 -225 -225 -225 -225 -225 -225 -225 -225 -225 -225 -225 -225 -225 -225 -225 -225 -225 -225 -225 -225 -225 -225 -225 -225 -225 -225 -225 -225 -225 -225 -225 -225 -225 -225 64 66 69 71 71 71 -193 90 98 98 99 102 103 102 104 105 104 105 106 106 106 107 107 107 106 107 106 107 106 105 105 104 104 105 103 103 105 106 108 107 108 111 114 115 116 116 116 116 118 119 121 121 122 124 129 133 133 136 137 138 140 141 143 144 146 146 147 147 148 149 150 150 151 152 155 155 156 156 158 159 160 160 160 161 161 163 166 166 164 165 168 169 171 173 173 174 174 0 0 0 0 0
    0 0 0 0 0 0 0 0 0 0 0 0 0 0 0 0 0 0 0 0 0 0 0 0 0 0 0 0 0 0 0 0 0 0 0 0 0 0 0 0 0 0 0 0 0 0 0 0 0 0 0 0 0 0 0 0 0 0 0 0 0 0 0 0 0 0 0 0 0 92 90 86 83 83 84 86 88 87 88 88 89 90 92 92 91 92 92 94 96 93 89 86 87 87 87 88 87 -209 -193 -177 -193 94 99 99 103 103 105 103 103 103 104 104 104 103 102 101 99 99 98 96 95 -225 -225 -225 -225 -225 -225 -225 -225 -225 -225 -225 -225 -225 -225 -225 -225 -225 -225 -225 -225 -225 -225 -225 -225 -225 -225 -225 -225 -225 -225 -225 -225 -225 -225 -225 -225 -225 -225 -225 -225 -225 -225 -225 -225 -225 -225 -225 -225 -225 -225 -225 -225 -225 -225 -225 -225 -225 -225 -225 -225 -225 -225 -225 -225 -225 -225 -225 -225 -225 -225 -225 -225 -225 -225 -225 -225 -225 -225 -225 -225 -225 -225 -225 -225 -225 -225 -225 -225 -225 -225 -225 -225 -225 -225 -225 -225 -225 -225 67 69 71 71 71 -193 92 99 100 100 103 103 104 106 108 106 107 107 108 108 108 109 108 107 109 108 108 108 107 107 106 107 107 105 106 106 107 109 109 109 111 114 115 116 116 116 115 117 -209 -209 -193 123 125 -193 133 133 136 137 138 141 142 143 144 144 144 144 144 147 147 149 150 151 152 156 156 157 157 159 160 162 161 161 163 163 165 167 167 165 166 169 170 171 173 174 175 177 0 0 0 0 0
    0 0 0 0 0 0 0 0 0 0 0 0 0 0 0 0 0 0 0 0 0 0 0 0 0 0 0 0 0 0 0 0 0 0 0 0 0 0 0 0 0 0 0 0 0 0 0 0 0 0 0 0 0 0 0 0 0 0 0 0 0 0 0 0 0 0 0 0 0 102 92 90 87 87 87 88 90 88 90 90 91 91 93 93 93 94 93 98 98 95 90 87 87 87 -193 -193 -193 -209 -209 -193 -193 95 99 99 102 104 105 103 104 104 105 105 105 104 102 101 100 100 98 96 -225 -225 -225 -225 -225 -225 -225 -225 -225 -225 -225 -225 -225 -225 -225 -225 -225 -225 -225 -225 -225 -225 -225 -225 -225 -225 -225 -225 -225 -225 -225 -225 -225 -225 -225 -225 -225 -225 -225 -225 -225 -225 -225 -225 -225 -225 -225 -225 -225 -225 -225 -225 -225 -225 -225 -225 -225 -225 -225 -225 -225 -225 -225 -225 -225 -225 -225 -225 -225 -225 -225 -225 -225 -225 -225 -225 -225 -225 -225 -225 -225 -225 -225 -225 -225 -225 -225 -225 -225 -225 -225 -225 -225 -225 -225 -225 -225 -225 -225 -225 70 72 71 71 -193 94 101 101 102 103 104 104 107 109 107 109 109 110 110 109 111 109 108 110 108 109 108 107 108 107 107 107 106 106 106 107 109 108 108 110 113 114 116 116 116 115 117 -209 -209 122 122 124 129 131 132 134 135 137 139 140 141 142 142 143 143 144 147 148 150 150 151 152 155 156 156 157 158 159 162 162 162 164 164 165 167 166 165 166 169 169 171 173 173 174 177 0 0 0 0 0
    0 0 0 0 0 0 0 0 0 0 0 0 0 0 0 0 0 0 0 0 0 0 0 0 0 0 0 0 0 0 0 0 0 0 0 0 0 0 0 0 0 0 0 0 0 0 0 0 0 0 0 0 0 0 0 0 0 0 0 0 0 0 0 0 0 0 0 0 0 105 98 95 90 90 90 89 92 92 91 92 92 92 93 94 96 97 96 99 98 97 94 89 89 -193 -193 -193 -193 -193 -209 -193 99 98 101 102 105 106 106 105 106 106 106 106 106 105 102 102 102 101 99 -225 -225 -225 -225 -225 -225 -225 -225 -225 -225 -225 -225 -225 -225 -225 -225 -225 -225 -225 -225 -225 -225 -225 -225 -225 -225 -225 -225 -225 -225 -225 -225 -225 -225 -225 -225 -225 -225 -225 -225 -225 -225 -225 -225 -225 -225 -225 -225 -225 -225 -225 -225 -225 -225 -225 -225 -225 -225 -225 -225 -225 -225 -225 -225 -225 -225 -225 -225 -225 -225 -225 -225 -225 -225 -225 -225 -225 -225 -225 -225 -225 -225 -225 -225 -225 -225 -225 -225 -225 -225 -225 -225 -225 -225 -225 -225 -225 -225 -225 -225 -225 -225 73 72 72 -193 93 -193 102 102 104 104 104 107 108 106 108 108 109 109 109 111 109 109 110 108 110 108 107 108 107 107 108 107 107 106 107 109 108 108 110 113 114 115 115 116 115 118 -193 -209 -209 123 126 130 132 132 134 134 136 138 140 140 141 141 143 145 146 149 150 151 151 151 153 154 154 155 155 156 157 160 161 160 162 163 165 166 165 163 164 168 169 170 172 173 173 176 0 0 0 0 0</data></disparity>
</opencv_storage>
