<?xml version="1.0"?>
<opencv_storage>
<gps_time_stamp>296121</gps_time_stamp>
<gps_x>-1.2417209625244141e+001</gps_x>
<gps_y>1.0997770309448242e+001</gps_y>
<gps_z>-2.0902619361877441e+000</gps_z>
<image_time_stamp>286959</image_time_stamp>
<disparity type_id="opencv-matrix">
  <rows>92</rows>
  <cols>320</cols>
  <dt>s</dt>
  <data>
    0 0 0 0 0 0 0 0 0 0 0 0 0 0 0 0 0 0 0 0 0 0 0 0 0 0 0 0 0 0 0 0 0 0 0 0 0 0 0 0 0 0 0 0 0 0 0 0 0 0 0 0 0 0 0 0 0 0 0 0 0 0 0 0 0 0 0 0 0 71 70 69 67 67 65 65 62 60 62 61 62 64 56 57 58 56 56 55 55 54 53 54 52 47 50 48 47 45 43 44 42 42 42 40 39 37 37 37 35 36 35 35 34 32 32 30 29 29 28 28 28 26 28 24 24 21 22 20 18 17 17 15 16 14 16 12 11 14 20 20 -225 -225 -225 -225 -225 -225 -225 -225 -225 -225 -225 -225 -225 -225 -225 -225 -225 -225 -225 -225 -225 -225 -225 -225 -225 -225 -225 -225 -225 -225 -225 -225 -225 -225 -225 -225 -225 -225 -225 -225 -225 -225 -225 33 32 31 31 32 32 31 32 31 31 30 32 32 30 32 32 34 35 36 37 37 39 40 41 42 46 44 44 43 46 45 45 45 45 43 44 45 47 44 47 48 48 50 52 54 54 56 60 59 62 60 61 64 62 64 62 60 62 62 63 63 61 64 60 65 66 65 60 70 69 65 68 72 73 73 72 69 70 74 -193 -209 -209 -209 -209 -193 76 -193 -209 82 -209 90 -193 103 95 98 101 93 93 96 89 89 88 88 88 88 88 88 83 91 98 101 102 102 106 103 104 104 108 107 107 -193 108 384 110 113 113 108 115 117 117 117 118 0 0 0 0 0
    0 0 0 0 0 0 0 0 0 0 0 0 0 0 0 0 0 0 0 0 0 0 0 0 0 0 0 0 0 0 0 0 0 0 0 0 0 0 0 0 0 0 0 0 0 0 0 0 0 0 0 0 0 0 0 0 0 0 0 0 0 0 0 0 0 0 0 0 0 70 70 69 67 66 65 65 64 63 63 62 63 65 56 57 58 55 55 55 55 54 53 54 52 46 49 48 46 45 43 43 42 42 42 40 39 37 37 37 35 36 35 35 34 32 33 30 30 30 29 28 29 26 27 24 24 21 22 20 18 17 17 16 16 14 15 12 11 15 19 19 -225 -225 -225 -225 -225 -225 -225 -225 -225 -225 -225 -225 -225 -225 -225 -225 -225 -225 -225 -225 -225 -225 -225 -225 -225 -225 -225 -225 -225 -225 -225 -225 -225 -225 -225 -225 -225 -225 -225 -225 -225 -225 33 33 32 31 31 32 32 31 32 31 31 30 32 32 30 32 33 33 35 37 37 37 38 39 41 42 45 44 44 43 46 44 45 44 45 43 44 45 47 44 48 49 49 50 53 55 54 56 61 60 62 61 61 64 62 64 62 60 61 62 62 63 61 63 60 64 66 66 59 70 69 63 68 71 72 72 71 69 69 72 -193 -209 -209 -209 -209 -209 -193 -209 -209 86 93 96 101 104 98 101 102 93 94 96 89 89 88 88 88 88 88 88 84 91 99 101 102 102 106 104 104 104 109 107 107 -193 109 -193 111 113 113 107 114 116 116 116 118 0 0 0 0 0
    0 0 0 0 0 0 0 0 0 0 0 0 0 0 0 0 0 0 0 0 0 0 0 0 0 0 0 0 0 0 0 0 0 0 0 0 0 0 0 0 0 0 0 0 0 0 0 0 0 0 0 0 0 0 0 0 0 0 0 0 0 0 0 0 0 0 0 0 0 69 69 68 67 66 66 65 64 64 64 62 62 63 55 56 57 55 55 54 54 53 53 54 51 45 47 47 45 45 43 43 42 43 42 41 39 38 37 37 35 36 35 35 34 33 33 30 29 30 28 28 29 26 26 23 23 21 21 20 17 16 17 16 16 14 15 12 11 14 18 18 -225 -225 -225 -225 -225 -225 -225 -225 -225 -225 -225 -225 -225 -225 -225 -225 -225 -225 -225 -225 -225 -225 -225 -225 -225 -225 -225 -225 -225 -225 -225 -225 -225 -225 -225 -225 -225 -225 -225 -225 -225 35 34 34 32 32 32 32 32 31 31 31 32 31 33 33 30 33 33 33 35 37 37 37 39 39 41 42 45 44 44 44 46 44 45 45 45 43 44 45 47 44 48 49 50 50 53 54 54 56 61 59 62 60 60 64 62 64 62 59 60 61 62 63 60 63 60 63 66 66 59 71 70 65 69 72 73 73 73 71 71 73 75 -193 -209 -209 -209 -209 -193 -209 -209 -209 94 95 97 102 98 100 102 93 93 95 89 88 88 88 88 88 88 88 86 91 100 102 102 103 106 105 105 105 110 108 108 108 109 107 111 113 113 107 112 115 115 116 117 0 0 0 0 0
    0 0 0 0 0 0 0 0 0 0 0 0 0 0 0 0 0 0 0 0 0 0 0 0 0 0 0 0 0 0 0 0 0 0 0 0 0 0 0 0 0 0 0 0 0 0 0 0 0 0 0 0 0 0 0 0 0 0 0 0 0 0 0 0 0 0 0 0 0 68 68 68 67 66 66 65 64 65 65 63 62 62 55 56 57 54 54 53 53 53 52 53 51 45 46 47 45 45 43 43 42 42 42 41 39 38 37 37 36 37 35 35 35 33 33 30 30 29 28 28 28 25 25 23 22 21 21 20 17 16 17 16 15 14 15 13 11 15 17 17 -225 -225 -225 -225 -225 -225 -225 -225 -225 -225 -225 -225 -225 -225 -225 -225 -225 -225 -225 -225 -225 -225 -225 -225 -225 -225 -225 -225 -225 -225 -225 -225 -225 -225 -225 -225 -225 -225 -225 -225 31 30 31 32 31 31 31 32 32 31 31 32 32 31 34 34 31 34 33 33 35 36 37 37 38 39 40 41 45 44 44 44 46 45 45 45 46 44 45 45 47 44 49 50 50 51 53 54 53 56 62 60 62 60 60 63 62 63 61 59 59 61 61 62 60 62 60 63 66 66 59 71 71 68 71 74 75 76 76 74 73 75 79 78 -209 -209 -209 -209 -209 -209 -209 -209 97 99 -193 102 100 101 103 94 94 95 89 88 88 88 88 88 88 88 86 91 100 101 101 103 105 105 105 105 110 108 108 108 110 108 111 113 113 108 112 115 115 115 117 0 0 0 0 0
    0 0 0 0 0 0 0 0 0 0 0 0 0 0 0 0 0 0 0 0 0 0 0 0 0 0 0 0 0 0 0 0 0 0 0 0 0 0 0 0 0 0 0 0 0 0 0 0 0 0 0 0 0 0 0 0 0 0 0 0 0 0 0 0 0 0 0 0 0 67 67 67 66 66 65 65 63 65 65 63 61 61 54 55 -193 54 53 53 53 52 51 53 50 44 45 46 44 44 43 43 42 42 42 41 40 39 38 37 36 37 36 36 35 34 33 31 30 30 29 28 28 25 25 23 23 21 21 20 17 17 17 17 16 15 15 13 11 15 17 16 -225 -225 -225 -225 -225 -225 -225 -225 -225 -225 -225 -225 -225 -225 -225 -225 -225 -225 -225 -225 -225 -225 -225 -225 -225 -225 -225 -225 -225 -225 -225 -225 -225 -225 -225 -225 18 20 20 23 25 27 29 31 31 31 31 32 32 31 32 32 32 33 36 36 34 36 34 34 36 36 37 36 38 38 40 41 44 43 45 44 46 45 46 45 46 44 46 45 47 44 50 50 51 52 54 54 54 56 63 60 63 60 59 63 61 62 61 58 59 60 61 62 59 61 60 63 66 66 59 72 71 70 73 74 77 78 78 78 76 79 85 85 -193 -209 -209 -209 -209 -209 -209 -209 -209 -209 -193 102 99 100 103 94 94 96 90 89 89 89 89 89 89 89 87 92 100 101 101 103 105 105 105 105 110 108 108 109 110 109 112 113 113 108 112 115 115 114 117 0 0 0 0 0
    0 0 0 0 0 0 0 0 0 0 0 0 0 0 0 0 0 0 0 0 0 0 0 0 0 0 0 0 0 0 0 0 0 0 0 0 0 0 0 0 0 0 0 0 0 0 0 0 0 0 0 0 0 0 0 0 0 0 0 0 0 0 0 0 0 0 0 0 0 66 65 67 66 66 65 64 62 64 63 63 59 60 54 55 -193 53 53 53 52 52 51 52 50 44 45 46 44 44 43 43 42 42 42 42 40 39 38 38 37 37 36 35 35 35 33 31 29 30 29 28 28 26 25 23 23 21 21 20 18 17 17 17 16 15 15 13 11 16 17 16 -225 -225 -225 -225 -225 -225 -225 -225 -225 -225 -225 -225 -225 -225 -225 -225 -225 -225 -225 -225 -225 -225 -225 -225 -225 -225 -225 -225 -225 -225 -225 -225 -225 -225 -225 15 16 18 19 22 24 25 26 29 30 31 31 31 31 31 32 32 32 34 36 36 35 37 35 35 36 36 36 36 37 37 39 41 43 43 45 44 46 45 46 45 47 44 47 45 47 45 50 52 52 52 55 55 55 56 64 61 63 59 59 62 61 62 60 58 58 60 60 61 59 61 60 62 66 66 59 72 70 70 71 72 75 75 76 77 76 79 86 85 83 -209 80 77 80 83 -209 -209 94 96 93 96 96 97 101 94 94 97 91 90 90 90 90 90 90 90 88 92 99 100 100 103 104 105 105 105 110 108 109 109 110 109 113 113 113 108 112 114 114 113 116 0 0 0 0 0
    0 0 0 0 0 0 0 0 0 0 0 0 0 0 0 0 0 0 0 0 0 0 0 0 0 0 0 0 0 0 0 0 0 0 0 0 0 0 0 0 0 0 0 0 0 0 0 0 0 0 0 0 0 0 0 0 0 0 0 0 0 0 0 0 0 0 0 0 0 66 66 67 66 66 65 65 63 66 65 64 60 61 55 55 -193 53 53 52 52 52 50 51 50 44 45 46 44 44 43 43 42 42 42 42 40 40 38 37 36 37 36 35 34 34 33 30 28 29 28 27 28 26 25 24 24 22 21 20 18 18 17 18 16 15 15 14 11 16 17 16 -225 -225 -225 -225 -225 -225 -225 -225 -225 -225 -225 -225 -225 -225 -225 -225 15 17 15 15 15 14 14 -225 -225 -225 -225 -225 -225 -225 -225 -225 -225 -225 -225 14 15 17 18 21 23 23 24 27 28 29 29 31 30 30 31 32 32 34 36 36 35 38 35 35 36 36 36 35 37 36 37 40 43 42 44 44 45 45 46 45 47 45 47 45 47 45 50 52 52 52 54 54 54 56 65 61 62 59 58 62 61 61 60 57 -193 59 60 61 59 60 60 63 66 67 60 73 71 71 73 73 75 75 75 76 76 79 84 84 83 84 82 80 82 84 86 -193 92 92 91 94 94 95 100 94 93 97 92 90 90 90 90 90 91 91 89 92 99 100 100 103 104 104 105 105 110 108 108 109 110 109 113 113 113 108 112 114 114 113 116 0 0 0 0 0
    0 0 0 0 0 0 0 0 0 0 0 0 0 0 0 0 0 0 0 0 0 0 0 0 0 0 0 0 0 0 0 0 0 0 0 0 0 0 0 0 0 0 0 0 0 0 0 0 0 0 0 0 0 0 0 0 0 0 0 0 0 0 0 0 0 0 0 0 0 66 66 67 66 66 65 65 62 66 65 64 60 60 55 56 -193 54 53 52 52 51 50 51 49 44 44 45 44 44 43 43 42 42 42 42 39 39 37 37 36 36 36 34 33 34 32 29 27 28 28 26 27 26 25 24 24 22 21 20 18 18 17 18 16 15 15 14 11 17 17 16 -225 -225 -225 -225 -225 -225 -225 -225 -225 -225 -225 -225 -225 -225 -225 19 12 14 13 13 13 12 11 12 -225 -225 -225 -225 -225 -225 -225 -225 -225 -225 -225 15 15 17 18 21 22 22 23 26 27 28 28 30 29 29 30 31 32 33 35 36 35 38 35 35 36 36 36 35 37 36 37 40 42 -193 44 44 45 44 46 45 47 45 47 45 47 46 50 52 51 52 54 54 55 56 65 61 62 59 58 61 60 61 59 -193 -193 -193 60 61 59 60 60 63 67 67 60 73 73 73 74 74 74 75 75 77 77 79 82 82 82 83 82 81 82 84 86 88 91 91 90 94 96 94 99 97 94 98 94 91 91 91 91 91 91 91 89 91 98 100 100 103 103 104 104 104 110 108 108 109 110 110 113 113 113 108 111 114 113 112 115 0 0 0 0 0
    0 0 0 0 0 0 0 0 0 0 0 0 0 0 0 0 0 0 0 0 0 0 0 0 0 0 0 0 0 0 0 0 0 0 0 0 0 0 0 0 0 0 0 0 0 0 0 0 0 0 0 0 0 0 0 0 0 0 0 0 0 0 0 0 0 0 0 0 0 65 66 67 66 66 65 64 62 66 66 64 60 61 56 56 -193 54 54 53 52 51 50 51 49 43 44 44 44 44 43 42 42 42 42 41 39 38 37 37 36 36 35 34 32 33 31 28 27 28 28 27 26 26 25 24 23 22 21 20 18 18 17 18 16 15 14 14 11 16 16 16 -225 -225 -225 -225 -225 -225 -225 -225 -225 -225 -225 -225 -225 -225 16 15 10 13 12 12 12 10 10 10 11 -225 -225 -225 -225 -225 -225 -225 -225 -225 14 15 15 17 19 21 22 22 23 26 27 27 28 29 28 28 30 30 31 32 34 35 35 38 36 35 37 36 37 36 38 36 37 40 42 -193 44 44 45 45 46 46 47 45 47 45 47 46 51 51 51 52 54 54 55 56 64 61 62 59 58 61 60 61 60 57 57 -193 60 61 59 61 60 63 67 67 60 73 74 74 75 74 75 76 76 80 78 80 81 81 82 84 82 82 82 84 85 88 91 91 89 92 94 93 96 97 94 96 95 92 91 91 91 91 90 91 89 90 95 99 100 104 102 103 104 104 110 108 108 109 110 110 113 113 113 108 111 113 113 112 115 0 0 0 0 0
    0 0 0 0 0 0 0 0 0 0 0 0 0 0 0 0 0 0 0 0 0 0 0 0 0 0 0 0 0 0 0 0 0 0 0 0 0 0 0 0 0 0 0 0 0 0 0 0 0 0 0 0 0 0 0 0 0 0 0 0 0 0 0 0 0 0 0 0 0 65 65 67 66 66 66 65 62 66 67 65 60 61 56 56 -193 -193 54 53 53 51 50 51 49 43 43 43 43 43 43 42 41 41 41 41 38 38 36 37 36 35 35 34 32 32 31 28 27 27 28 27 27 26 26 24 23 22 20 20 17 17 17 17 15 15 14 14 11 16 16 16 -225 -225 -225 -225 -225 -225 -225 -225 -225 -225 -225 -225 -225 -225 18 15 12 14 12 12 12 10 10 9 9 -225 -225 -225 -225 -225 -225 -225 -225 -225 15 15 15 17 19 21 21 22 23 26 26 27 28 28 27 29 29 30 31 32 34 35 35 38 36 36 38 36 37 37 38 37 37 40 42 -193 45 45 45 45 47 46 48 45 48 46 47 48 51 50 51 52 54 53 54 56 64 61 62 58 58 61 60 61 60 57 57 60 60 62 59 61 60 64 67 67 60 73 74 74 75 73 76 81 79 83 82 81 82 82 82 84 82 82 82 84 87 89 91 91 90 93 94 93 96 98 94 97 96 92 91 91 91 91 90 90 89 89 94 99 101 104 102 103 104 104 110 108 108 109 109 110 113 113 114 109 112 113 113 111 115 0 0 0 0 0
    0 0 0 0 0 0 0 0 0 0 0 0 0 0 0 0 0 0 0 0 0 0 0 0 0 0 0 0 0 0 0 0 0 0 0 0 0 0 0 0 0 0 0 0 0 0 0 0 0 0 0 0 0 0 0 0 0 0 0 0 0 0 0 0 0 0 0 0 0 65 66 67 66 67 66 65 62 67 68 66 60 61 56 56 -193 -193 55 54 53 52 50 52 50 43 43 43 43 43 42 42 41 41 41 41 38 37 36 36 36 35 34 33 32 32 31 28 27 27 28 27 27 26 26 24 23 22 20 20 17 17 16 17 15 15 14 14 12 16 16 16 -225 -225 -225 -225 -225 -225 -225 -225 -225 -225 -225 -225 -225 -225 18 13 11 12 11 11 11 9 9 0 10 11 -225 -225 -225 -225 -225 -225 -225 19 15 15 15 17 19 20 20 21 23 25 25 26 27 28 27 29 29 30 32 32 34 34 35 37 36 37 38 36 37 37 39 37 37 39 42 -177 -193 46 46 46 48 47 48 46 49 46 47 48 50 48 50 52 54 53 53 56 64 61 61 58 58 61 60 61 59 57 57 59 60 61 59 61 60 63 67 67 60 73 73 74 74 73 76 81 81 83 82 81 82 81 81 83 81 83 83 84 87 89 91 91 91 93 94 93 97 98 94 97 96 93 91 91 91 91 90 90 88 89 93 99 102 105 103 103 104 104 110 108 108 108 109 111 113 113 114 109 112 113 113 111 114 0 0 0 0 0
    0 0 0 0 0 0 0 0 0 0 0 0 0 0 0 0 0 0 0 0 0 0 0 0 0 0 0 0 0 0 0 0 0 0 0 0 0 0 0 0 0 0 0 0 0 0 0 0 0 0 0 0 0 0 0 0 0 0 0 0 0 0 0 0 0 0 0 0 0 65 66 67 66 67 67 66 63 68 68 67 61 62 57 57 59 -193 56 55 54 53 52 53 51 43 44 43 44 43 43 43 42 41 41 41 38 36 36 36 36 34 33 33 31 32 30 28 27 28 28 27 27 27 26 24 24 23 21 20 18 18 17 17 15 15 14 14 12 16 16 16 -225 -225 -225 -225 -225 -225 -225 -225 -225 -225 -225 -225 -225 16 16 10 9 11 10 10 10 9 9 0 10 12 0 -225 -225 -225 -225 -225 -225 18 14 14 15 16 18 19 20 21 22 24 24 25 27 28 28 29 30 30 32 32 34 34 36 38 37 37 38 37 38 38 40 37 38 39 42 -177 45 46 45 46 48 47 48 46 48 46 46 47 49 47 50 52 54 53 54 56 64 60 61 58 58 60 60 61 60 57 57 60 60 62 59 61 61 63 67 67 60 73 72 73 73 72 74 77 -193 83 82 82 83 82 82 84 85 85 84 85 87 89 91 91 91 91 94 93 98 99 95 97 96 93 92 92 92 91 90 90 88 88 93 100 102 106 103 104 104 104 110 108 108 108 109 111 114 113 114 109 112 114 114 111 114 0 0 0 0 0
    0 0 0 0 0 0 0 0 0 0 0 0 0 0 0 0 0 0 0 0 0 0 0 0 0 0 0 0 0 0 0 0 0 0 0 0 0 0 0 0 0 0 0 0 0 0 0 0 0 0 0 0 0 0 0 0 0 0 0 0 0 0 0 0 0 0 0 0 0 65 66 67 66 66 66 66 63 68 68 67 61 60 56 56 59 57 57 56 56 55 54 55 53 43 44 43 44 44 43 43 42 42 41 42 39 36 36 35 35 34 33 33 31 32 30 28 27 28 29 27 27 27 27 25 24 22 21 20 18 18 16 16 15 14 14 14 12 16 16 16 -225 -225 -225 -225 -225 -225 -225 -225 -225 -225 -225 -225 -225 16 16 9 9 10 9 10 10 9 0 0 10 12 9 11 -225 -225 -225 -225 16 17 14 14 14 16 17 19 20 21 22 24 24 24 27 28 28 29 29 30 32 31 34 34 36 38 38 38 38 38 39 39 41 38 39 40 43 -193 45 46 45 45 47 46 47 45 48 45 45 47 50 47 50 52 55 54 55 56 64 60 61 58 58 60 60 61 60 57 58 60 61 62 59 62 61 63 67 67 60 73 72 73 73 71 74 79 79 83 82 82 83 84 85 87 87 87 86 87 88 90 91 90 91 91 94 93 97 99 95 97 97 94 92 92 92 91 90 90 89 87 92 101 103 106 103 103 104 104 110 108 108 108 110 112 114 113 114 109 112 114 114 111 114 0 0 0 0 0
    0 0 0 0 0 0 0 0 0 0 0 0 0 0 0 0 0 0 0 0 0 0 0 0 0 0 0 0 0 0 0 0 0 0 0 0 0 0 0 0 0 0 0 0 0 0 0 0 0 0 0 0 0 0 0 0 0 0 0 0 0 0 0 0 0 0 0 0 0 65 66 67 66 66 67 65 63 68 68 66 60 58 56 56 59 57 57 57 57 56 56 56 55 44 44 44 45 44 44 44 43 42 42 42 39 36 36 36 36 34 33 33 30 32 30 28 27 28 29 27 27 27 27 24 23 22 20 19 17 17 16 15 15 14 14 14 12 16 16 16 -225 -225 -225 -225 -225 -225 -225 -225 -225 -225 -225 -225 -225 16 16 0 0 10 9 9 9 0 0 0 10 12 9 11 -225 -225 -225 13 14 14 12 11 11 12 14 16 17 19 21 23 23 24 26 27 27 28 29 30 31 31 33 33 36 37 38 37 38 38 39 39 41 38 39 40 43 42 45 46 45 45 47 46 47 45 47 45 45 47 50 47 49 52 55 54 55 56 64 60 60 58 58 60 60 61 61 58 58 61 61 63 60 62 62 63 67 67 60 73 72 72 73 73 75 78 78 81 81 83 84 84 86 88 88 88 88 88 89 90 91 91 91 91 95 93 97 99 95 96 97 93 91 91 91 90 89 89 89 86 92 102 103 105 103 103 104 104 110 108 108 108 110 112 114 113 115 109 112 114 114 112 114 0 0 0 0 0
    0 0 0 0 0 0 0 0 0 0 0 0 0 0 0 0 0 0 0 0 0 0 0 0 0 0 0 0 0 0 0 0 0 0 0 0 0 0 0 0 0 0 0 0 0 0 0 0 0 0 0 0 0 0 0 0 0 0 0 0 0 0 0 0 0 0 0 0 0 65 66 68 67 67 67 66 63 69 69 68 61 -193 56 56 59 57 57 56 56 55 56 56 55 44 44 44 46 45 45 44 43 42 -193 42 39 37 36 36 36 34 33 33 31 32 30 29 27 28 28 27 27 27 26 24 22 21 20 19 17 17 16 15 14 14 14 14 13 16 16 16 -225 -225 -225 -225 -225 -225 -225 -225 -225 -225 -225 -225 -225 15 17 0 0 9 9 9 9 0 0 -193 10 13 10 11 -225 -225 -225 13 17 14 12 12 12 13 14 16 17 18 21 23 23 24 27 27 27 28 29 30 31 31 34 33 36 37 38 37 38 38 39 39 41 39 40 40 44 43 45 46 45 45 47 46 47 45 47 45 45 46 49 45 48 53 56 55 55 56 65 61 61 58 58 61 60 61 61 58 59 61 61 63 61 63 63 63 67 67 60 73 73 74 74 74 75 79 80 83 82 84 84 85 86 87 88 88 88 89 89 91 92 91 92 92 96 94 97 99 95 96 98 92 91 90 90 90 -193 89 89 86 92 103 104 104 103 102 103 104 109 107 107 107 110 112 114 113 115 110 113 114 114 112 114 0 0 0 0 0
    0 0 0 0 0 0 0 0 0 0 0 0 0 0 0 0 0 0 0 0 0 0 0 0 0 0 0 0 0 0 0 0 0 0 0 0 0 0 0 0 0 0 0 0 0 0 0 0 0 0 0 0 0 0 0 0 0 0 0 0 0 0 0 0 0 0 0 0 0 65 67 68 67 67 68 66 64 70 70 68 61 56 55 55 58 57 56 56 56 55 56 56 55 45 45 45 47 46 46 45 44 42 41 42 40 38 37 37 36 34 33 34 31 32 30 29 27 28 28 28 27 26 26 23 21 20 19 18 16 15 16 15 14 14 14 14 13 16 16 16 -225 -225 -225 -225 -225 -225 -225 -225 -225 -225 -225 -225 -225 15 18 0 0 9 9 10 9 0 0 -193 11 14 12 12 12 -225 12 11 17 13 12 13 12 13 15 16 17 17 21 23 23 25 29 28 28 29 30 30 32 31 34 33 36 37 38 37 38 38 39 39 42 40 40 40 44 43 46 46 46 45 47 46 46 45 47 45 46 46 48 45 48 53 56 55 55 56 66 61 61 59 58 61 60 61 62 59 59 62 62 63 61 64 64 63 67 67 61 73 74 74 74 74 76 81 81 83 83 84 85 85 87 88 88 88 89 90 90 91 92 91 92 93 96 94 96 99 95 95 98 92 91 90 90 90 89 89 90 86 93 102 104 103 102 102 103 104 109 107 107 107 110 112 113 113 115 110 112 114 114 112 114 0 0 0 0 0
    0 0 0 0 0 0 0 0 0 0 0 0 0 0 0 0 0 0 0 0 0 0 0 0 0 0 0 0 0 0 0 0 0 0 0 0 0 0 0 0 0 0 0 0 0 0 0 0 0 0 0 0 0 0 0 0 0 0 0 0 0 0 0 0 0 0 0 0 0 66 67 68 68 68 68 66 65 71 71 69 60 55 54 55 57 56 56 55 55 55 56 56 55 46 46 45 48 47 46 45 44 41 41 41 39 38 37 37 36 34 33 34 32 33 30 29 28 28 29 28 27 26 26 23 21 20 18 18 15 15 15 14 14 14 14 14 13 16 16 16 -225 -225 -225 -225 -225 -225 -225 -225 -225 -225 -225 -225 18 15 18 0 0 9 9 10 9 0 9 0 11 13 12 12 12 11 13 13 16 13 13 13 13 14 15 16 16 18 21 22 23 24 29 27 27 28 30 30 31 30 33 32 36 37 38 37 39 39 40 40 42 41 41 40 44 43 46 46 46 46 47 46 46 45 47 45 46 45 48 45 48 53 56 55 56 57 67 61 61 60 59 62 61 61 62 59 60 63 62 64 61 64 64 63 67 67 61 73 73 74 75 75 77 81 81 83 83 84 85 85 87 88 89 89 89 90 90 92 92 91 92 92 94 93 93 96 94 94 97 91 90 -193 90 90 89 89 90 87 94 102 104 103 102 102 103 103 108 106 106 106 110 112 113 113 114 110 112 114 114 112 114 0 0 0 0 0
    0 0 0 0 0 0 0 0 0 0 0 0 0 0 0 0 0 0 0 0 0 0 0 0 0 0 0 0 0 0 0 0 0 0 0 0 0 0 0 0 0 0 0 0 0 0 0 0 0 0 0 0 0 0 0 0 0 0 0 0 0 0 0 0 0 0 0 0 0 66 67 68 68 68 68 67 66 71 71 69 59 55 54 54 56 55 55 55 55 54 55 55 55 47 47 46 48 47 46 45 44 41 40 41 40 38 37 36 36 34 34 34 32 33 30 30 29 28 29 28 27 26 26 23 21 20 19 18 16 15 16 15 14 14 14 15 14 16 16 16 -225 -225 -225 -225 -225 -225 -225 -225 -225 -225 -225 -225 17 15 16 0 9 9 9 10 9 9 10 9 12 13 12 12 12 11 12 13 14 13 13 13 13 14 15 17 16 19 21 22 23 24 28 26 27 28 29 30 30 29 33 32 36 37 38 37 39 39 40 40 42 40 41 40 45 44 47 46 46 46 46 46 47 45 47 45 46 45 49 47 49 54 57 56 57 57 67 61 61 60 59 62 61 61 63 59 60 63 62 64 61 65 65 63 67 67 61 73 74 74 75 76 78 81 81 82 83 83 85 85 88 88 89 89 89 91 90 91 90 90 91 91 93 91 92 95 93 94 96 -193 -193 901 89 89 89 89 90 89 95 103 104 103 103 102 103 103 108 106 106 -193 109 112 112 113 114 110 112 114 114 112 114 0 0 0 0 0
    0 0 0 0 0 0 0 0 0 0 0 0 0 0 0 0 0 0 0 0 0 0 0 0 0 0 0 0 0 0 0 0 0 0 0 0 0 0 0 0 0 0 0 0 0 0 0 0 0 0 0 0 0 0 0 0 0 0 0 0 0 0 0 0 0 0 0 0 0 66 67 68 68 68 69 66 66 71 71 67 58 54 53 54 56 55 55 55 54 53 54 55 54 47 47 47 49 47 46 45 44 41 40 40 40 38 37 37 37 34 35 35 33 34 31 30 29 28 28 28 26 26 25 23 22 20 19 18 16 16 16 15 15 15 15 15 15 16 16 16 -225 -225 -225 -225 -225 -225 -225 -225 -225 -225 -225 -225 16 16 15 9 9 9 9 9 9 9 9 9 11 12 13 12 11 10 10 -193 12 11 11 12 12 13 14 16 15 18 20 21 23 24 27 27 27 28 31 30 30 30 34 32 36 37 38 36 38 39 39 40 42 40 41 40 45 44 46 45 47 46 46 46 46 45 47 44 47 44 50 49 50 56 60 58 58 58 68 61 61 61 59 62 61 61 64 60 61 64 62 64 62 65 65 63 67 68 63 73 75 74 75 76 78 81 80 82 83 83 85 85 88 88 89 89 88 90 88 89 88 88 89 89 91 90 90 94 93 93 96 -193 -193 901 89 89 89 90 91 90 95 103 104 103 102 102 103 103 107 105 105 365 109 112 111 112 113 110 112 114 114 112 113 0 0 0 0 0
    0 0 0 0 0 0 0 0 0 0 0 0 0 0 0 0 0 0 0 0 0 0 0 0 0 0 0 0 0 0 0 0 0 0 0 0 0 0 0 0 0 0 0 0 0 0 0 0 0 0 0 0 0 0 0 0 0 0 0 0 0 0 0 0 0 0 0 0 0 66 67 68 68 68 68 66 66 70 70 66 58 54 53 54 55 55 54 54 53 52 54 54 53 47 47 47 49 47 46 44 44 41 40 40 39 38 37 37 37 35 35 35 33 34 31 29 29 28 28 28 26 26 25 23 21 20 18 18 16 15 15 15 14 14 13 16 16 16 16 16 -225 -225 -225 -225 -225 -225 -225 -225 -225 -225 -225 -225 15 18 15 11 10 10 10 10 10 10 10 10 11 12 13 12 10 9 9 -193 -193 10 10 11 12 13 13 16 15 18 19 21 22 24 25 26 26 27 31 30 30 29 34 32 35 37 38 35 38 39 39 39 42 40 41 41 46 44 47 45 47 46 46 46 46 45 47 44 47 43 50 51 50 57 63 59 59 58 68 62 62 62 60 63 62 62 64 60 62 64 62 64 63 66 66 63 68 69 66 73 75 75 76 77 79 80 81 82 83 83 85 85 88 88 89 89 87 90 87 87 87 87 88 87 89 89 88 93 92 93 95 -193 -193 -193 89 90 90 90 92 90 95 103 104 102 102 102 102 103 106 104 104 -177 109 112 111 112 113 110 112 114 114 111 113 0 0 0 0 0
    0 0 0 0 0 0 0 0 0 0 0 0 0 0 0 0 0 0 0 0 0 0 0 0 0 0 0 0 0 0 0 0 0 0 0 0 0 0 0 0 0 0 0 0 0 0 0 0 0 0 0 0 0 0 0 0 0 0 0 0 0 0 0 0 0 0 0 0 0 67 68 68 68 68 68 65 65 69 70 63 58 54 53 54 55 54 53 53 52 51 52 54 52 47 47 47 50 47 46 44 43 41 40 40 39 38 37 37 37 35 35 35 34 34 32 29 29 28 28 28 25 25 24 22 21 20 18 18 15 15 15 15 13 13 13 15 16 16 16 16 -225 -225 -225 -225 -225 -225 -225 -225 -225 -225 -225 -225 16 19 15 11 11 11 11 11 10 10 10 10 12 12 13 13 10 9 9 -177 291 10 10 11 12 13 13 17 15 18 19 21 22 23 24 25 25 26 30 29 29 29 33 32 34 37 37 35 38 39 39 39 42 40 40 40 46 44 47 45 48 46 46 47 47 45 47 45 48 43 51 53 49 57 63 59 59 59 68 62 62 63 60 63 62 62 65 61 62 65 62 65 63 66 66 63 68 69 66 73 76 75 77 78 79 81 81 82 83 83 85 85 88 88 88 88 86 89 86 86 86 85 87 87 89 89 87 91 91 92 94 -193 -193 -193 89 90 90 91 92 91 94 103 104 102 102 102 102 102 105 104 104 -193 109 112 111 112 112 110 111 114 114 111 113 0 0 0 0 0
    0 0 0 0 0 0 0 0 0 0 0 0 0 0 0 0 0 0 0 0 0 0 0 0 0 0 0 0 0 0 0 0 0 0 0 0 0 0 0 0 0 0 0 0 0 0 0 0 0 0 0 0 0 0 0 0 0 0 0 0 0 0 0 0 0 0 0 0 0 67 68 69 68 68 68 64 65 68 68 62 57 54 53 54 54 53 53 53 51 49 50 52 51 46 47 47 49 47 45 44 43 41 40 40 39 38 37 37 37 35 34 35 34 34 33 29 29 27 27 27 25 25 24 22 21 20 19 17 15 14 14 15 14 13 13 14 18 18 18 17 -225 -225 -225 -225 -225 -225 -225 -225 -225 -225 -225 19 15 18 13 11 10 10 11 10 10 10 10 11 12 12 13 12 10 10 9 290 -193 10 10 11 12 13 13 17 15 18 19 21 22 22 24 25 25 26 30 28 28 29 33 32 34 37 37 35 38 38 38 38 41 39 39 40 45 44 49 46 49 47 47 48 47 45 47 45 48 43 50 52 47 56 63 59 59 58 68 62 62 64 61 64 63 63 65 61 63 65 62 65 63 66 66 63 68 69 65 74 76 75 77 78 80 80 81 82 83 82 85 84 87 86 87 87 84 88 85 85 85 86 86 86 88 88 85 91 91 92 94 -193 -193 -193 90 91 91 92 94 92 94 103 104 102 102 101 102 102 104 104 104 -193 109 112 111 112 112 111 111 114 114 111 113 0 0 0 0 0
    0 0 0 0 0 0 0 0 0 0 0 0 0 0 0 0 0 0 0 0 0 0 0 0 0 0 0 0 0 0 0 0 0 0 0 0 0 0 0 0 0 0 0 0 0 0 0 0 0 0 0 0 0 0 0 0 0 0 0 0 0 0 0 0 0 0 0 0 0 68 68 69 68 68 68 64 65 67 67 61 57 54 53 53 54 53 52 52 51 49 50 51 50 46 46 46 48 46 45 44 43 41 40 40 39 38 36 37 38 35 34 34 34 33 34 30 30 27 27 28 25 24 24 22 21 20 19 18 15 14 15 15 14 14 14 15 19 19 19 18 -225 -225 -225 -225 -225 -225 -225 -225 -225 -225 -225 17 15 18 12 10 10 10 10 10 10 10 9 11 12 12 12 13 10 10 10 -193 10 10 11 12 13 14 15 19 17 19 20 21 21 22 23 24 23 25 29 28 27 28 33 31 33 37 37 35 37 38 38 37 41 39 38 40 46 45 49 47 49 47 47 48 48 45 48 45 48 43 51 52 47 57 64 59 58 58 68 62 62 65 62 64 63 63 66 62 63 66 62 65 63 66 66 63 68 69 65 74 76 76 77 78 81 81 81 82 83 80 82 81 84 80 83 85 80 87 85 86 85 86 86 86 87 88 85 91 91 92 94 94 91 91 91 92 92 93 95 94 94 102 104 102 102 101 102 102 104 104 104 104 109 112 111 112 112 111 111 114 114 111 113 0 0 0 0 0
    0 0 0 0 0 0 0 0 0 0 0 0 0 0 0 0 0 0 0 0 0 0 0 0 0 0 0 0 0 0 0 0 0 0 0 0 0 0 0 0 0 0 0 0 0 0 0 0 0 0 0 0 0 0 0 0 0 0 0 0 0 0 0 0 0 0 0 0 0 68 69 69 68 68 68 64 65 67 67 61 57 54 54 54 54 53 53 53 52 50 50 50 49 47 46 46 48 46 44 43 43 42 41 40 40 38 36 38 38 35 34 34 34 33 34 30 31 28 28 28 25 25 24 22 22 20 19 18 15 14 15 15 14 14 14 15 19 21 21 20 -225 -225 -225 -225 -225 -225 -225 -225 -225 18 21 18 16 19 12 11 11 10 10 11 10 10 10 11 12 12 13 14 10 10 10 9 10 10 11 12 13 15 15 19 17 19 19 21 20 21 22 23 22 24 27 26 26 27 32 31 32 36 36 35 37 37 38 38 41 38 37 40 46 44 49 46 49 47 48 49 48 46 48 45 48 43 51 52 46 57 65 59 59 58 68 62 62 65 62 65 63 64 66 62 64 66 63 65 63 66 66 64 69 69 66 74 76 76 78 79 80 80 80 80 82 79 80 79 82 79 82 88 84 88 85 86 85 86 87 86 86 88 85 91 91 92 94 95 92 92 92 93 92 94 95 95 93 101 104 102 102 102 102 102 104 104 104 104 109 112 112 112 112 112 111 115 114 111 113 0 0 0 0 0
    0 0 0 0 0 0 0 0 0 0 0 0 0 0 0 0 0 0 0 0 0 0 0 0 0 0 0 0 0 0 0 0 0 0 0 0 0 0 0 0 0 0 0 0 0 0 0 0 0 0 0 0 0 0 0 0 0 0 0 0 0 0 0 0 0 0 0 0 0 69 69 69 67 67 68 64 66 67 67 62 58 55 55 54 54 54 53 53 52 50 50 49 47 47 46 46 47 46 44 43 43 42 41 40 40 38 36 38 39 36 35 34 35 33 35 31 31 28 28 28 25 25 24 22 21 20 19 18 15 14 15 15 15 15 15 16 20 23 23 22 -225 -225 -225 -225 -225 -225 -225 21 22 15 17 14 14 16 11 10 10 9 10 10 10 10 9 11 12 12 13 14 10 11 11 9 9 9 11 13 14 16 16 20 18 20 20 22 20 21 22 23 22 24 26 26 26 27 32 31 32 36 36 35 37 37 38 38 41 38 36 40 47 44 50 46 50 48 48 49 48 46 48 44 48 42 50 51 44 58 67 59 59 58 68 62 62 66 62 65 64 64 66 62 65 66 63 65 63 66 66 63 69 69 66 73 76 75 77 79 79 79 79 79 80 78 80 79 80 81 86 92 86 89 86 86 86 86 87 86 86 87 85 91 91 92 93 96 93 92 92 93 92 94 95 95 93 100 104 103 102 102 102 102 104 106 105 105 110 112 112 113 113 112 111 115 114 111 113 0 0 0 0 0
    0 0 0 0 0 0 0 0 0 0 0 0 0 0 0 0 0 0 0 0 0 0 0 0 0 0 0 0 0 0 0 0 0 0 0 0 0 0 0 0 0 0 0 0 0 0 0 0 0 0 0 0 0 0 0 0 0 0 0 0 0 0 0 0 0 0 0 0 0 69 69 69 67 67 67 63 65 66 66 62 57 55 55 55 54 54 52 53 51 50 49 47 46 46 45 46 47 45 44 43 43 43 41 41 40 38 37 38 39 37 35 35 34 33 36 32 32 29 28 29 26 25 24 22 21 20 19 18 15 14 15 15 15 15 16 16 20 25 25 25 -225 -225 -225 -225 -225 -225 23 18 18 10 12 11 12 13 10 9 10 9 10 11 10 10 9 12 12 12 12 12 10 10 9 0 0 0 9 12 13 17 16 20 19 21 21 22 21 21 22 23 22 24 -193 25 25 27 32 31 32 36 35 35 36 37 38 37 40 37 34 40 47 45 50 47 50 48 48 49 48 45 48 44 47 42 48 50 44 57 66 59 59 58 68 62 62 66 63 65 64 64 66 62 65 66 63 65 63 66 66 63 68 68 66 73 74 74 75 76 77 78 78 79 79 77 79 80 79 81 86 95 86 88 86 86 86 86 87 86 86 87 85 91 91 92 93 97 93 93 93 93 92 94 96 95 92 100 104 103 102 102 102 102 104 107 106 105 110 112 113 113 113 113 111 115 114 111 113 0 0 0 0 0
    0 0 0 0 0 0 0 0 0 0 0 0 0 0 0 0 0 0 0 0 0 0 0 0 0 0 0 0 0 0 0 0 0 0 0 0 0 0 0 0 0 0 0 0 0 0 0 0 0 0 0 0 0 0 0 0 0 0 0 0 0 0 0 0 0 0 0 0 0 69 69 69 67 66 67 63 65 66 65 62 57 55 56 56 55 55 54 54 53 52 50 49 46 47 45 46 47 45 43 43 43 43 42 41 41 38 37 39 40 37 35 35 33 33 35 32 31 29 28 29 26 25 25 22 21 20 19 18 15 14 15 15 15 15 17 17 21 26 27 27 -225 -225 -225 -225 -225 -225 22 16 14 10 11 10 12 12 10 10 11 10 11 12 11 10 9 11 10 10 10 10 9 9 9 0 0 0 10 13 14 19 17 20 20 21 21 23 20 20 21 23 22 24 25 25 25 27 32 31 32 37 35 35 36 37 38 36 40 37 33 40 46 44 49 47 50 48 48 49 48 45 48 44 47 41 44 46 45 55 64 58 58 58 68 62 62 66 63 66 64 64 66 62 65 66 63 65 63 66 66 63 68 67 66 72 71 71 73 73 74 76 76 77 77 77 78 79 78 80 84 89 85 88 86 86 86 86 87 86 86 87 85 91 91 92 93 99 95 94 94 94 93 96 97 96 92 100 104 103 102 102 102 102 103 108 106 106 111 112 114 113 113 114 111 115 114 111 114 0 0 0 0 0
    0 0 0 0 0 0 0 0 0 0 0 0 0 0 0 0 0 0 0 0 0 0 0 0 0 0 0 0 0 0 0 0 0 0 0 0 0 0 0 0 0 0 0 0 0 0 0 0 0 0 0 0 0 0 0 0 0 0 0 0 0 0 0 0 0 0 0 0 0 69 69 69 67 67 67 63 65 65 65 62 57 56 57 56 56 56 55 55 54 54 51 50 47 47 46 46 46 45 43 43 42 44 42 42 40 38 37 39 40 37 35 35 33 33 35 32 32 29 29 29 26 25 25 22 21 19 18 18 15 14 15 15 16 15 17 17 21 27 28 28 -225 -225 -225 -225 -225 21 21 14 11 0 0 0 10 10 9 9 10 10 11 13 12 10 9 11 11 10 10 10 0 10 10 10 10 11 13 19 20 22 20 21 21 22 21 23 19 20 21 23 21 23 24 24 25 27 32 31 33 37 36 36 36 37 38 37 40 36 32 40 46 44 49 47 50 48 48 49 48 45 47 44 47 41 44 46 46 54 62 58 58 58 68 62 62 66 63 66 64 64 66 62 66 66 63 65 63 66 66 63 68 64 64 69 68 68 69 68 71 73 74 75 75 76 76 77 76 78 80 88 85 88 85 86 86 86 87 86 86 87 85 91 91 92 94 99 95 95 95 95 94 96 97 97 92 100 104 102 102 102 102 102 103 109 107 106 112 113 114 113 114 114 111 115 114 111 114 0 0 0 0 0
    0 0 0 0 0 0 0 0 0 0 0 0 0 0 0 0 0 0 0 0 0 0 0 0 0 0 0 0 0 0 0 0 0 0 0 0 0 0 0 0 0 0 0 0 0 0 0 0 0 0 0 0 0 0 0 0 0 0 0 0 0 0 0 0 0 0 0 0 0 69 69 69 67 67 67 63 65 65 65 62 57 56 58 57 57 57 56 55 54 54 52 50 48 48 46 46 46 45 43 43 42 43 42 41 40 38 36 39 40 37 34 35 33 33 35 33 32 29 29 29 26 25 25 21 21 19 18 18 15 15 16 16 17 16 18 18 21 27 30 30 -225 -225 -225 -225 -225 18 19 13 13 9 0 0 9 9 0 0 9 9 10 11 11 9 10 11 11 10 10 10 9 11 11 12 12 14 16 21 21 22 20 21 21 22 21 22 18 20 21 22 22 23 23 25 25 27 32 31 35 38 36 36 36 37 38 37 39 36 31 39 45 44 49 47 50 47 47 49 48 45 48 44 47 42 48 50 50 54 61 59 59 58 69 62 62 67 63 66 64 64 66 62 66 65 63 65 62 65 66 62 66 62 63 67 66 67 67 64 70 71 73 73 74 74 74 75 75 77 76 87 84 87 85 86 86 86 87 86 86 87 85 91 92 92 94 99 96 95 95 95 94 97 98 97 92 100 104 102 102 101 101 102 104 110 107 106 113 113 115 113 114 114 111 115 114 111 114 0 0 0 0 0
    0 0 0 0 0 0 0 0 0 0 0 0 0 0 0 0 0 0 0 0 0 0 0 0 0 0 0 0 0 0 0 0 0 0 0 0 0 0 0 0 0 0 0 0 0 0 0 0 0 0 0 0 0 0 0 0 0 0 0 0 0 0 0 0 0 0 0 0 0 69 69 69 67 67 67 63 65 65 65 62 57 56 59 57 57 57 57 56 55 55 53 50 49 49 47 46 46 45 42 43 43 43 42 42 -193 38 36 38 40 36 35 35 32 33 35 33 32 29 29 29 26 26 26 21 21 20 18 18 15 15 16 16 18 17 19 20 21 28 32 32 -225 -225 -225 -225 17 13 16 11 11 0 0 0 9 0 0 0 9 9 10 12 11 10 11 12 11 11 10 10 9 12 11 13 13 15 17 21 20 22 19 20 20 21 20 22 18 20 21 23 22 23 24 25 26 27 33 31 36 38 36 36 37 37 38 37 39 35 30 40 46 44 48 46 49 47 47 49 48 45 48 45 48 43 52 53 54 57 61 60 58 58 68 62 62 66 63 66 64 64 66 62 66 65 63 65 62 65 66 62 66 62 65 67 66 67 67 64 69 71 72 72 73 73 73 74 74 76 75 85 82 87 85 86 86 86 87 87 86 87 86 91 92 93 94 100 96 95 95 95 94 97 98 97 92 100 104 102 102 101 102 102 104 111 108 107 113 113 115 113 114 114 111 114 114 111 114 0 0 0 0 0
    0 0 0 0 0 0 0 0 0 0 0 0 0 0 0 0 0 0 0 0 0 0 0 0 0 0 0 0 0 0 0 0 0 0 0 0 0 0 0 0 0 0 0 0 0 0 0 0 0 0 0 0 0 0 0 0 0 0 0 0 0 0 0 0 0 0 0 0 0 69 69 69 67 67 67 63 65 65 65 62 58 57 59 58 58 58 57 56 55 55 53 51 49 50 48 46 46 46 43 43 43 43 42 42 -193 38 37 38 39 36 34 36 32 32 34 32 32 29 29 29 26 26 26 22 22 20 18 19 16 16 16 16 18 17 18 20 19 27 32 32 -225 -225 -225 -225 14 12 15 11 11 0 0 0 9 9 0 9 9 10 11 12 12 11 11 13 11 11 10 10 9 13 11 14 14 16 17 21 20 21 18 20 19 21 19 21 18 20 21 23 22 23 23 25 25 27 32 31 35 38 36 36 37 37 38 37 40 35 30 39 46 43 48 46 49 47 47 48 48 46 48 45 49 44 55 55 55 58 61 61 59 59 66 61 61 65 62 65 63 64 66 62 66 65 63 65 62 65 66 62 67 61 66 67 66 67 67 64 68 70 71 72 73 73 73 74 74 76 74 79 77 86 84 86 86 86 88 87 87 87 86 91 92 93 94 100 96 95 95 95 94 96 97 96 91 99 104 102 102 101 102 102 104 111 108 107 114 113 115 113 114 114 111 114 114 111 114 0 0 0 0 0
    0 0 0 0 0 0 0 0 0 0 0 0 0 0 0 0 0 0 0 0 0 0 0 0 0 0 0 0 0 0 0 0 0 0 0 0 0 0 0 0 0 0 0 0 0 0 0 0 0 0 0 0 0 0 0 0 0 0 0 0 0 0 0 0 0 0 0 0 0 68 68 69 67 67 67 63 66 66 66 63 58 57 -193 58 58 58 57 56 55 55 53 51 49 50 48 46 47 46 43 43 43 44 42 42 40 38 37 38 39 36 34 36 32 32 34 32 31 29 29 29 26 27 26 22 22 20 18 19 16 16 16 17 18 17 17 20 17 26 29 29 -225 -225 0 10 11 10 12 9 10 0 0 0 9 0 0 9 10 10 11 13 13 11 12 13 12 12 11 10 10 14 12 15 14 16 17 20 20 21 18 20 20 22 20 22 20 22 22 24 24 24 24 26 27 27 33 32 36 38 36 37 37 37 38 37 40 36 31 40 45 42 47 45 48 47 47 48 48 46 48 46 50 45 54 55 55 58 60 62 60 59 66 60 60 65 62 65 62 63 66 62 66 65 63 65 62 65 67 62 67 61 67 67 65 67 67 64 69 71 72 72 73 73 73 74 74 75 71 -193 73 85 84 86 86 86 88 87 87 88 87 91 92 93 94 99 95 94 94 94 93 95 96 95 90 99 105 102 102 101 102 102 104 111 108 106 114 113 115 113 114 114 111 113 113 111 114 0 0 0 0 0
    0 0 0 0 0 0 0 0 0 0 0 0 0 0 0 0 0 0 0 0 0 0 0 0 0 0 0 0 0 0 0 0 0 0 0 0 0 0 0 0 0 0 0 0 0 0 0 0 0 0 0 0 0 0 0 0 0 0 0 0 0 0 0 0 0 0 0 0 0 68 68 68 67 67 67 62 66 66 66 63 58 57 -193 58 58 58 57 56 55 55 53 51 50 50 49 46 47 46 43 43 43 43 41 42 40 37 36 37 38 35 34 36 32 32 34 32 31 29 29 29 26 27 26 22 23 21 18 19 16 16 16 17 18 17 17 20 17 26 29 29 13 10 0 9 9 9 10 9 0 0 0 0 0 0 0 0 9 10 11 12 12 11 12 13 12 11 11 11 10 14 12 16 14 17 17 19 20 21 18 20 20 22 20 22 20 21 23 -193 25 25 25 27 27 28 34 32 36 38 37 37 38 38 38 38 41 37 33 40 45 42 46 45 48 46 46 48 48 46 48 46 50 46 54 55 54 58 60 61 59 59 65 59 59 63 61 64 62 63 65 62 66 64 62 65 62 65 66 62 66 61 67 67 65 66 66 63 69 71 72 72 73 73 73 74 74 74 68 70 71 83 84 85 86 86 88 88 87 88 88 92 93 93 94 99 95 94 94 94 93 95 96 95 90 99 106 102 102 102 102 102 103 110 108 106 114 112 115 112 113 113 110 113 113 110 113 0 0 0 0 0
    0 0 0 0 0 0 0 0 0 0 0 0 0 0 0 0 0 0 0 0 0 0 0 0 0 0 0 0 0 0 0 0 0 0 0 0 0 0 0 0 0 0 0 0 0 0 0 0 0 0 0 0 0 0 0 0 0 0 0 0 0 0 0 0 0 0 0 0 0 68 68 68 67 67 66 62 66 66 65 62 57 -193 -193 58 58 57 57 -193 55 55 53 52 50 50 49 47 47 46 44 44 43 43 41 41 39 36 35 36 38 34 34 36 32 31 33 32 31 29 29 29 26 27 26 22 23 21 18 19 17 17 16 17 18 17 16 20 16 25 27 26 13 11 9 9 10 9 9 0 0 0 0 0 0 0 0 0 9 10 11 11 11 11 12 13 12 11 11 11 11 15 13 16 15 18 18 20 21 21 19 20 20 22 20 22 20 21 23 -193 25 26 26 28 28 28 34 32 36 38 37 38 38 39 39 38 41 38 35 40 45 41 46 45 48 46 46 47 47 46 48 46 50 46 55 55 55 58 59 61 59 58 63 58 58 62 60 63 61 62 65 62 66 64 62 65 62 65 66 62 66 61 67 67 66 66 67 63 69 71 72 73 73 73 73 74 74 74 64 66 69 81 83 85 86 86 88 88 88 89 89 92 93 93 94 99 95 94 93 94 93 95 95 95 90 99 106 102 102 102 102 102 103 110 108 106 113 112 114 112 113 113 110 112 112 110 113 0 0 0 0 0
    0 0 0 0 0 0 0 0 0 0 0 0 0 0 0 0 0 0 0 0 0 0 0 0 0 0 0 0 0 0 0 0 0 0 0 0 0 0 0 0 0 0 0 0 0 0 0 0 0 0 0 0 0 0 0 0 0 0 0 0 0 0 0 0 0 0 0 0 0 68 68 68 67 68 66 63 67 67 66 62 57 -193 -193 58 58 58 57 -193 55 55 53 52 50 50 50 47 48 46 44 43 42 42 41 40 39 36 35 36 37 34 33 36 31 31 33 31 30 29 29 29 26 28 26 21 23 22 17 19 17 17 16 17 18 17 15 19 15 24 24 24 12 11 9 9 9 9 10 9 0 0 0 0 0 0 0 0 9 10 10 11 11 11 12 14 12 12 12 12 11 16 14 17 16 19 18 20 21 21 19 20 19 21 19 21 20 21 23 -193 25 26 27 29 28 29 34 33 36 38 38 38 39 39 39 39 42 39 37 40 44 41 45 44 48 46 45 47 47 46 48 47 51 47 55 55 55 58 59 60 58 58 61 57 56 61 59 62 61 61 64 61 65 64 62 65 62 65 66 62 66 61 67 67 66 67 67 64 69 71 72 73 73 72 73 74 73 73 60 60 66 79 82 85 85 86 87 88 88 89 89 92 94 94 94 99 95 94 93 93 92 94 94 95 90 99 106 102 102 102 102 102 104 110 108 106 113 112 114 112 113 113 110 112 112 110 112 0 0 0 0 0
    0 0 0 0 0 0 0 0 0 0 0 0 0 0 0 0 0 0 0 0 0 0 0 0 0 0 0 0 0 0 0 0 0 0 0 0 0 0 0 0 0 0 0 0 0 0 0 0 0 0 0 0 0 0 0 0 0 0 0 0 0 0 0 0 0 0 0 0 0 68 68 68 66 68 66 63 67 68 66 63 58 -193 -193 58 58 57 58 -193 55 55 52 51 50 49 50 47 47 46 44 44 43 42 41 40 39 36 35 35 36 33 33 36 31 31 32 31 30 29 29 29 26 27 25 21 23 22 17 19 16 16 15 18 17 17 15 18 15 23 23 22 11 10 9 0 9 0 9 9 0 0 0 0 0 0 0 0 9 9 10 11 11 11 12 13 12 12 13 12 12 17 15 17 17 18 18 20 21 21 20 20 20 21 20 22 21 21 23 24 25 26 27 29 28 28 33 32 36 38 38 39 40 -193 40 40 42 40 39 40 44 41 45 44 47 45 45 47 47 45 48 47 51 48 55 56 55 58 58 59 57 57 60 55 55 59 58 61 60 61 64 61 65 64 62 65 62 65 66 62 66 62 68 67 67 67 67 65 69 72 73 73 73 72 73 74 73 -193 59 57 59 78 83 85 86 87 89 89 89 90 90 93 94 94 94 99 94 93 92 93 92 94 94 94 90 98 106 102 102 102 102 103 104 110 108 106 112 112 114 111 113 113 110 112 112 111 112 0 0 0 0 0
    0 0 0 0 0 0 0 0 0 0 0 0 0 0 0 0 0 0 0 0 0 0 0 0 0 0 0 0 0 0 0 0 0 0 0 0 0 0 0 0 0 0 0 0 0 0 0 0 0 0 0 0 0 0 0 0 0 0 0 0 0 0 0 0 0 0 0 0 0 67 67 68 66 67 66 63 67 67 67 63 58 -193 -193 58 58 57 57 -193 -193 55 52 51 49 49 50 47 47 47 44 44 43 43 41 40 39 37 36 35 36 33 32 35 31 30 32 30 29 28 29 29 26 27 25 21 23 22 18 19 17 17 15 18 17 17 15 17 14 20 20 19 10 9 0 0 0 0 9 9 9 0 0 0 9 0 0 9 10 9 10 11 11 11 13 14 12 12 14 13 14 18 15 17 17 18 18 19 20 20 19 20 20 20 19 21 21 21 23 24 25 26 27 28 27 28 33 32 35 38 39 39 40 41 40 40 43 41 41 40 44 41 44 44 47 45 45 46 47 45 48 47 51 48 55 55 54 57 57 57 56 56 58 54 55 -193 58 60 60 60 63 61 65 64 62 65 62 64 66 62 66 62 68 68 67 68 68 65 70 72 74 74 74 73 74 74 74 -193 58 56 -209 -193 85 87 87 88 89 90 90 91 91 93 94 94 94 98 94 93 92 92 91 93 93 94 90 98 105 102 102 102 102 103 104 110 108 106 111 112 114 111 113 113 110 112 112 111 112 0 0 0 0 0
    0 0 0 0 0 0 0 0 0 0 0 0 0 0 0 0 0 0 0 0 0 0 0 0 0 0 0 0 0 0 0 0 0 0 0 0 0 0 0 0 0 0 0 0 0 0 0 0 0 0 0 0 0 0 0 0 0 0 0 0 0 0 0 0 0 0 0 0 0 67 67 67 66 67 65 63 67 67 67 63 57 -193 -193 57 57 56 57 -193 -193 54 52 51 49 49 50 47 47 46 45 45 43 43 42 40 39 38 37 36 36 33 32 35 31 30 31 30 29 28 28 28 26 27 25 22 23 23 18 19 17 16 14 18 16 16 14 15 12 15 15 14 9 0 0 0 0 0 0 0 0 0 0 0 9 0 0 9 10 10 10 11 11 11 13 14 12 12 15 14 15 18 16 17 18 18 18 18 19 20 19 19 20 20 20 22 22 22 23 24 25 26 27 28 27 27 32 32 35 38 39 39 40 41 41 41 43 41 42 39 44 40 44 44 46 45 45 46 47 45 48 47 51 49 54 55 53 55 56 56 56 56 57 53 54 -177 -193 -193 59 60 63 61 65 64 62 65 62 64 66 62 67 62 68 68 67 67 68 66 70 73 74 75 75 74 75 75 74 -209 57 55 -209 -209 86 88 88 89 90 91 91 93 92 93 94 94 94 98 94 92 91 91 90 92 92 93 89 96 105 102 102 102 103 104 104 110 108 107 111 113 113 111 113 113 110 112 112 111 112 0 0 0 0 0
    0 0 0 0 0 0 0 0 0 0 0 0 0 0 0 0 0 0 0 0 0 0 0 0 0 0 0 0 0 0 0 0 0 0 0 0 0 0 0 0 0 0 0 0 0 0 0 0 0 0 0 0 0 0 0 0 0 0 0 0 0 0 0 0 0 0 0 0 0 67 67 67 65 67 65 62 67 67 67 64 -193 -193 -193 57 57 56 56 55 -193 54 51 51 49 48 50 47 47 46 45 45 43 43 42 40 40 38 37 37 36 34 33 35 31 30 32 30 29 29 29 29 26 28 26 22 23 22 18 19 16 16 14 18 16 15 13 13 12 12 13 12 0 0 0 0 0 0 0 0 0 0 0 0 9 9 0 10 10 10 10 11 11 11 12 13 11 12 14 13 14 17 16 17 18 18 18 18 19 19 19 20 20 20 21 22 22 21 23 24 25 25 26 27 26 27 31 31 34 38 -193 39 40 41 41 41 43 42 43 40 44 40 43 43 46 44 44 45 46 44 47 47 51 50 54 54 53 55 55 55 55 55 56 52 53 -177 -193 -193 59 59 62 61 64 64 62 65 62 64 66 62 67 62 68 68 67 67 68 66 71 74 75 77 76 76 77 76 74 -193 61 62 -209 80 88 88 88 89 90 90 91 93 92 93 93 93 93 97 93 91 90 91 90 91 91 92 89 95 105 101 102 102 103 104 104 110 108 107 111 113 113 111 113 113 110 112 112 112 112 0 0 0 0 0
    0 0 0 0 0 0 0 0 0 0 0 0 0 0 0 0 0 0 0 0 0 0 0 0 0 0 0 0 0 0 0 0 0 0 0 0 0 0 0 0 0 0 0 0 0 0 0 0 0 0 0 0 0 0 0 0 0 0 0 0 0 0 0 0 0 0 0 0 0 67 67 67 65 67 64 62 67 67 66 63 57 -193 -193 57 57 56 56 -193 -193 54 51 51 49 48 50 47 47 46 45 45 44 44 42 40 40 38 37 37 36 34 33 35 31 30 32 31 29 29 29 29 27 28 26 23 22 22 19 18 16 16 13 18 15 15 13 12 11 11 12 11 0 0 0 0 0 0 0 0 0 0 0 0 0 9 0 9 10 9 10 10 10 10 11 12 11 11 13 12 14 16 15 16 17 17 18 18 19 19 19 20 20 20 21 22 21 21 22 24 25 25 26 27 26 27 32 32 -193 38 -193 39 40 41 41 41 44 42 44 41 45 40 43 43 45 44 44 44 45 44 47 48 51 50 53 54 52 54 54 55 55 55 55 52 53 -177 56 -193 59 59 62 60 64 64 62 65 62 64 66 62 67 62 68 68 68 67 69 66 71 74 76 79 79 79 80 77 75 74 68 70 70 83 87 87 88 88 89 89 90 92 91 92 92 92 92 95 92 90 89 90 89 91 90 91 89 94 105 101 102 102 103 105 105 111 108 107 110 113 113 111 113 113 111 112 112 112 112 0 0 0 0 0
    0 0 0 0 0 0 0 0 0 0 0 0 0 0 0 0 0 0 0 0 0 0 0 0 0 0 0 0 0 0 0 0 0 0 0 0 0 0 0 0 0 0 0 0 0 0 0 0 0 0 0 0 0 0 0 0 0 0 0 0 0 0 0 0 0 0 0 0 0 67 67 67 65 67 64 63 68 67 66 63 57 -193 -193 57 57 -193 -193 -193 -193 54 52 51 49 48 50 47 47 46 45 45 43 43 42 40 40 39 37 37 36 34 33 35 32 30 32 31 30 29 29 28 27 28 26 23 22 22 19 18 16 16 13 18 15 14 12 10 11 10 10 10 0 0 0 0 0 0 0 0 0 0 0 0 9 9 0 10 10 9 10 10 10 10 11 12 11 12 14 12 15 17 16 17 18 18 18 18 19 19 18 19 20 19 20 21 20 20 21 23 23 24 25 26 25 27 31 31 33 37 -193 39 40 41 41 41 43 42 45 41 45 41 43 43 44 43 43 43 45 43 46 47 51 50 53 54 53 54 54 54 54 54 55 51 52 -193 56 -193 59 59 62 60 64 64 62 65 62 64 66 62 67 62 68 68 68 68 68 66 71 73 76 79 78 80 82 77 76 76 72 74 76 86 87 87 88 87 88 88 89 90 90 91 91 91 92 94 91 90 89 89 89 91 90 91 89 94 104 101 102 102 103 105 105 111 108 107 109 113 112 111 113 113 111 113 113 113 113 0 0 0 0 0
    0 0 0 0 0 0 0 0 0 0 0 0 0 0 0 0 0 0 0 0 0 0 0 0 0 0 0 0 0 0 0 0 0 0 0 0 0 0 0 0 0 0 0 0 0 0 0 0 0 0 0 0 0 0 0 0 0 0 0 0 0 0 0 0 0 0 0 0 0 67 67 67 65 67 64 63 67 67 66 63 58 -193 -193 57 57 -193 -193 -193 -193 54 52 51 49 48 50 47 47 46 45 45 43 43 42 40 40 39 37 37 36 35 34 34 32 31 31 31 30 29 29 28 27 28 25 23 22 22 19 18 16 16 13 18 14 14 12 10 11 10 10 10 0 0 0 0 0 0 0 0 0 0 0 0 0 9 0 10 10 9 9 10 10 10 10 10 10 12 12 11 14 16 15 16 18 18 18 19 19 19 18 19 20 19 20 21 20 20 21 23 23 23 24 25 24 26 31 30 33 37 38 38 39 40 40 40 43 42 45 42 46 42 43 43 44 43 43 42 44 42 45 46 50 51 53 53 53 54 54 53 54 53 54 50 52 -193 56 -193 59 59 62 60 64 64 62 64 62 64 66 62 67 61 68 68 68 68 68 66 70 72 74 76 76 77 78 74 74 75 71 77 -209 87 87 87 88 87 87 87 87 90 89 90 90 90 91 94 91 90 89 89 89 91 -193 91 89 93 103 101 101 102 104 105 106 112 108 107 109 113 112 111 114 113 111 113 113 113 113 0 0 0 0 0
    0 0 0 0 0 0 0 0 0 0 0 0 0 0 0 0 0 0 0 0 0 0 0 0 0 0 0 0 0 0 0 0 0 0 0 0 0 0 0 0 0 0 0 0 0 0 0 0 0 0 0 0 0 0 0 0 0 0 0 0 0 0 0 0 0 0 0 0 0 67 67 67 65 67 64 63 67 67 66 63 58 -193 -193 58 57 57 57 -193 55 54 52 51 48 48 50 47 47 46 45 44 43 43 42 40 40 39 37 37 36 34 34 33 32 31 31 31 30 29 29 28 27 28 25 23 21 21 19 18 16 15 14 17 14 14 12 10 11 10 10 9 0 0 0 0 0 0 0 0 0 0 0 0 9 9 9 11 11 10 10 10 10 9 0 9 0 10 10 9 13 14 15 15 17 17 17 18 18 19 18 18 20 19 20 21 19 20 21 22 23 23 24 24 23 26 30 30 32 36 38 37 38 40 39 40 43 42 46 42 47 43 43 43 44 43 42 42 44 42 45 47 50 52 53 53 52 53 53 53 53 53 54 50 52 55 55 59 59 59 62 60 64 64 62 64 62 64 66 62 66 61 68 68 68 68 68 67 70 71 73 74 74 74 75 -209 -209 -193 -209 -209 -209 -209 85 87 87 86 86 86 86 89 88 89 89 90 91 94 90 89 88 89 88 90 -193 90 88 92 103 101 101 102 104 106 106 113 108 107 108 113 112 111 114 113 112 113 114 114 113 0 0 0 0 0
    0 0 0 0 0 0 0 0 0 0 0 0 0 0 0 0 0 0 0 0 0 0 0 0 0 0 0 0 0 0 0 0 0 0 0 0 0 0 0 0 0 0 0 0 0 0 0 0 0 0 0 0 0 0 0 0 0 0 0 0 0 0 0 0 0 0 0 0 0 68 68 67 66 67 64 63 67 67 66 63 59 59 -193 58 57 57 57 56 55 54 52 51 48 49 49 46 47 45 44 44 43 43 42 40 40 39 37 37 35 34 35 33 32 32 31 32 30 30 29 28 27 28 25 23 22 21 19 18 16 16 14 17 14 14 13 11 11 11 11 9 0 0 0 0 0 0 0 0 0 0 0 0 0 0 0 10 10 9 10 0 9 0 0 0 0 0 0 0 12 13 14 14 17 17 16 18 17 18 17 17 19 19 19 22 19 21 21 23 23 -193 23 24 23 26 31 30 32 36 37 37 38 39 39 39 42 42 45 42 47 44 43 44 43 43 42 42 44 42 44 49 50 52 53 53 52 53 53 53 53 53 54 49 52 -193 55 -193 -193 -193 -193 -193 64 64 62 65 62 64 66 62 66 61 67 67 67 67 68 67 69 71 73 73 74 75 -193 -209 -209 -177 -193 -209 170 -193 -193 87 87 86 85 85 86 89 88 89 89 89 91 93 90 89 88 88 88 90 -193 90 87 92 102 100 100 102 104 106 107 113 108 107 108 112 111 111 113 113 112 113 114 114 113 0 0 0 0 0
    0 0 0 0 0 0 0 0 0 0 0 0 0 0 0 0 0 0 0 0 0 0 0 0 0 0 0 0 0 0 0 0 0 0 0 0 0 0 0 0 0 0 0 0 0 0 0 0 0 0 0 0 0 0 0 0 0 0 0 0 0 0 0 0 0 0 0 0 0 68 68 67 66 67 64 63 68 67 66 62 59 59 57 58 58 57 57 57 56 55 52 52 48 49 49 46 47 45 44 44 43 43 42 40 40 39 37 37 36 35 35 33 33 33 32 32 31 30 30 28 27 27 24 23 21 20 19 18 15 16 15 17 15 14 13 11 11 11 11 9 0 0 0 0 0 0 0 0 0 0 0 0 0 0 0 10 9 0 9 0 9 0 0 0 0 0 0 0 12 14 14 15 17 17 16 18 17 18 16 16 19 18 18 21 18 20 20 22 -193 -177 23 23 23 26 31 30 31 35 36 36 37 38 38 37 42 42 45 42 46 44 43 44 43 43 42 42 45 43 44 49 50 52 53 53 52 52 53 52 52 52 53 49 51 -193 55 -177 -193 -193 -193 -193 64 64 62 65 62 64 65 62 66 61 67 66 65 66 67 67 68 71 73 73 74 75 -193 -209 -209 -177 -193 -193 170 -209 -193 87 87 86 85 85 86 88 87 88 88 89 90 93 89 89 87 88 88 89 -193 89 86 91 100 99 99 102 105 106 108 113 108 107 107 112 111 111 113 113 112 113 114 114 113 0 0 0 0 0
    0 0 0 0 0 0 0 0 0 0 0 0 0 0 0 0 0 0 0 0 0 0 0 0 0 0 0 0 0 0 0 0 0 0 0 0 0 0 0 0 0 0 0 0 0 0 0 0 0 0 0 0 0 0 0 0 0 0 0 0 0 0 0 0 0 0 0 0 0 68 68 67 66 67 65 64 68 68 66 62 59 60 57 58 58 58 58 57 57 55 53 52 49 50 49 47 47 45 44 44 43 43 41 40 39 39 37 37 36 35 36 33 33 34 32 33 31 30 30 28 27 27 23 22 21 20 19 18 16 16 15 17 15 14 13 11 11 11 12 9 0 0 0 0 0 0 0 0 0 0 0 0 0 0 0 0 0 0 0 0 0 0 0 0 0 0 0 0 11 13 14 14 17 17 16 18 17 18 16 16 18 18 18 21 17 20 20 22 -193 -177 23 23 24 27 32 30 31 35 35 35 36 37 37 36 41 41 45 43 45 44 43 44 43 43 42 42 45 44 44 49 50 52 53 53 52 52 53 52 52 52 53 48 51 -177 55 -177 -193 -193 -193 -193 64 64 62 65 62 64 65 63 65 61 66 66 64 64 66 66 66 70 72 73 73 74 -193 -209 -209 -177 -193 -209 -209 -209 -193 88 87 86 85 85 86 87 86 88 87 88 90 93 89 88 87 88 87 88 -177 88 83 90 97 96 96 102 106 107 108 114 108 107 107 112 110 111 113 112 113 113 115 115 113 0 0 0 0 0
    0 0 0 0 0 0 0 0 0 0 0 0 0 0 0 0 0 0 0 0 0 0 0 0 0 0 0 0 0 0 0 0 0 0 0 0 0 0 0 0 0 0 0 0 0 0 0 0 0 0 0 0 0 0 0 0 0 0 0 0 0 0 0 0 0 0 0 0 0 68 68 68 67 67 66 64 69 68 66 61 59 60 57 59 58 58 58 58 58 56 53 54 50 51 49 47 47 44 44 43 42 43 40 39 39 38 36 37 35 35 36 33 34 34 32 33 31 31 30 27 27 27 23 22 21 20 19 18 16 16 16 17 15 15 13 12 12 12 12 10 0 0 9 9 0 0 0 0 0 0 0 0 0 0 0 0 0 0 0 0 0 0 0 0 0 0 0 0 9 12 13 14 17 17 16 19 17 18 16 16 18 17 17 20 17 19 20 22 -177 -177 23 24 24 27 33 30 31 34 34 34 35 36 37 35 41 42 46 44 45 46 43 44 43 43 42 42 45 44 44 48 49 52 53 52 52 52 53 52 52 52 53 48 51 -177 55 -177 812 812 812 -193 64 64 62 65 62 64 65 63 65 61 66 65 63 63 66 66 65 70 71 73 73 74 -193 -209 -209 -177 -193 -209 -209 -193 -193 88 87 86 85 85 85 86 86 87 86 88 90 92 88 88 86 87 87 88 751 88 82 90 95 95 95 102 107 107 108 113 109 107 107 112 110 111 113 112 113 113 115 115 113 0 0 0 0 0
    0 0 0 0 0 0 0 0 0 0 0 0 0 0 0 0 0 0 0 0 0 0 0 0 0 0 0 0 0 0 0 0 0 0 0 0 0 0 0 0 0 0 0 0 0 0 0 0 0 0 0 0 0 0 0 0 0 0 0 0 0 0 0 0 0 0 0 0 0 68 68 68 68 68 66 65 69 68 67 61 59 61 58 59 58 58 58 58 58 57 54 55 50 52 49 48 48 44 44 43 42 42 40 39 39 38 35 37 35 35 36 33 34 34 32 33 31 30 29 27 27 26 22 22 21 20 19 18 16 16 17 17 15 15 14 13 13 13 13 11 10 10 10 10 0 0 0 0 0 0 0 0 0 0 0 0 0 0 0 0 0 0 0 0 0 0 0 0 9 13 14 14 17 18 16 19 17 18 16 16 19 17 17 21 17 20 20 -177 -177 -177 24 25 25 28 33 30 32 34 34 33 34 35 36 33 40 42 45 43 45 48 44 44 44 44 43 43 47 45 43 48 49 52 52 52 52 51 52 51 52 51 52 48 51 -177 55 812 813 813 813 -193 64 64 62 65 62 64 65 63 65 62 66 65 62 63 66 67 65 70 71 73 73 75 -193 -209 -193 -193 -209 -209 -193 -209 -193 88 87 86 85 85 85 86 85 87 86 89 90 93 88 88 87 87 86 87 -177 88 83 90 97 98 98 103 108 107 108 112 110 107 107 112 110 111 113 112 114 113 115 115 113 0 0 0 0 0
    0 0 0 0 0 0 0 0 0 0 0 0 0 0 0 0 0 0 0 0 0 0 0 0 0 0 0 0 0 0 0 0 0 0 0 0 0 0 0 0 0 0 0 0 0 0 0 0 0 0 0 0 0 0 0 0 0 0 0 0 0 0 0 0 0 0 0 0 0 68 69 68 68 68 67 66 70 69 68 61 58 62 57 59 58 58 59 58 58 57 54 55 49 52 49 47 47 44 43 43 42 42 40 39 38 38 35 37 35 35 36 33 34 34 31 32 30 30 29 27 26 25 22 22 21 20 19 19 17 17 18 17 16 16 14 15 14 14 15 12 12 12 12 11 9 9 0 0 0 0 0 0 0 0 0 0 0 0 0 0 0 0 0 0 0 0 0 0 9 13 14 15 19 19 17 19 17 18 16 16 18 17 16 20 17 20 21 -177 -193 -193 25 26 26 28 34 30 32 34 34 33 33 34 36 31 40 42 43 43 44 49 44 45 44 44 43 45 48 46 43 48 49 52 52 52 51 50 52 50 50 50 52 47 50 381 55 813 813 814 814 -193 64 64 62 65 62 64 65 63 65 62 66 65 62 63 66 67 66 71 -193 74 73 75 -193 -193 -193 -209 -209 -193 -177 -209 90 90 88 86 85 85 85 85 85 87 87 89 91 94 88 88 87 87 86 87 -193 88 84 91 99 100 100 103 108 107 108 111 111 108 107 112 110 111 113 112 114 113 115 115 113 0 0 0 0 0
    0 0 0 0 0 0 0 0 0 0 0 0 0 0 0 0 0 0 0 0 0 0 0 0 0 0 0 0 0 0 0 0 0 0 0 0 0 0 0 0 0 0 0 0 0 0 0 0 0 0 0 0 0 0 0 0 0 0 0 0 0 0 0 0 0 0 0 0 0 68 69 69 68 68 67 66 70 69 68 59 -193 61 57 59 58 58 58 58 58 57 54 55 49 52 48 48 47 44 43 43 42 42 40 39 38 38 35 37 34 35 35 32 34 34 31 32 30 30 29 26 26 25 22 22 21 21 20 19 17 18 18 17 16 17 15 17 15 16 17 13 13 13 13 12 10 10 0 0 0 0 0 0 0 0 0 0 0 0 0 0 0 0 0 0 0 0 0 0 0 11 14 14 18 18 16 19 17 18 16 16 18 17 16 20 17 20 21 -177 -177 -193 25 26 27 28 34 30 32 34 33 32 33 34 35 31 39 42 42 43 43 50 45 46 45 45 44 47 50 48 44 49 49 52 52 52 51 48 51 48 49 49 52 47 50 382 -193 -193 814 816 815 60 64 64 62 65 63 65 65 64 65 63 65 65 62 63 67 68 67 -193 -209 -193 74 76 -193 -193 74 -193 -209 -209 -177 -209 91 90 88 86 85 85 86 85 86 87 88 90 92 95 88 88 87 87 86 87 -193 88 85 91 99 100 100 103 108 107 108 110 112 108 108 112 109 111 112 112 -193 112 115 115 112 0 0 0 0 0
    0 0 0 0 0 0 0 0 0 0 0 0 0 0 0 0 0 0 0 0 0 0 0 0 0 0 0 0 0 0 0 0 0 0 0 0 0 0 0 0 0 0 0 0 0 0 0 0 0 0 0 0 0 0 0 0 0 0 0 0 0 0 0 0 0 0 0 0 0 68 69 69 69 68 67 67 70 70 68 -193 -193 -193 -193 59 58 58 58 58 59 58 54 56 49 52 49 48 47 44 43 43 43 43 41 39 38 37 35 38 34 35 35 32 34 34 32 31 29 30 29 27 26 25 22 22 22 21 20 20 18 19 19 18 17 17 16 17 16 17 17 14 14 13 13 13 11 11 0 0 0 0 0 0 0 0 0 0 0 0 0 0 0 0 0 0 0 0 0 0 0 12 14 14 19 18 17 19 17 18 16 16 18 16 16 20 17 20 21 -177 -177 25 25 27 27 28 34 30 32 33 33 32 33 34 36 31 41 44 42 42 42 50 45 46 46 45 45 48 51 49 44 49 50 51 51 51 50 47 50 48 49 48 52 47 50 383 -193 -193 816 818 817 60 64 65 62 65 63 65 65 64 66 63 65 65 62 63 67 -193 -193 -193 -193 452 75 77 -193 -193 76 77 -209 -209 -209 -209 90 88 87 86 85 86 86 85 86 87 88 90 92 94 89 88 88 88 87 87 -193 88 87 91 101 101 102 104 108 106 107 108 113 108 108 112 109 110 112 111 -193 111 115 115 112 0 0 0 0 0
    0 0 0 0 0 0 0 0 0 0 0 0 0 0 0 0 0 0 0 0 0 0 0 0 0 0 0 0 0 0 0 0 0 0 0 0 0 0 0 0 0 0 0 0 0 0 0 0 0 0 0 0 0 0 0 0 0 0 0 0 0 0 0 0 0 0 0 0 0 68 69 69 69 68 66 67 70 70 68 -193 -193 -193 -193 59 58 58 58 58 59 58 54 57 51 52 49 49 48 44 43 43 43 43 41 39 38 37 36 38 34 35 35 32 34 34 32 31 29 30 29 27 26 25 23 23 23 22 22 21 19 20 20 18 18 17 16 16 15 16 17 14 14 13 13 12 11 11 9 0 0 0 0 0 0 0 0 0 0 0 0 0 0 0 0 0 0 0 0 0 0 14 15 14 19 19 17 19 18 19 16 17 18 16 16 20 17 20 21 24 24 25 26 28 27 29 34 30 32 34 33 33 33 35 36 31 40 42 41 41 41 50 45 46 46 46 46 48 51 49 45 49 50 50 50 50 50 47 50 47 49 47 52 48 51 -177 -193 57 -193 -193 -193 60 64 65 63 66 64 65 66 65 67 64 65 65 62 62 66 -193 -193 -193 -193 451 -193 78 79 78 77 79 76 77 83 87 89 88 87 86 86 86 85 84 85 86 88 90 92 94 89 89 88 89 87 88 -193 89 89 91 102 103 103 104 108 106 106 107 114 108 108 112 109 110 112 111 -193 110 115 114 111 0 0 0 0 0
    0 0 0 0 0 0 0 0 0 0 0 0 0 0 0 0 0 0 0 0 0 0 0 0 0 0 0 0 0 0 0 0 0 0 0 0 0 0 0 0 0 0 0 0 0 0 0 0 0 0 0 0 0 0 0 0 0 0 0 0 0 0 0 0 0 0 0 0 0 68 68 68 68 67 65 67 70 69 66 -193 55 -193 -193 58 58 58 58 58 59 58 56 57 53 53 51 50 49 44 43 43 43 43 41 39 38 37 37 39 34 35 35 32 34 34 32 31 28 30 28 26 26 25 24 23 24 23 23 22 21 21 21 19 18 16 14 14 14 15 15 14 13 13 13 12 11 11 9 0 0 0 0 0 0 0 0 0 0 0 0 0 0 0 0 0 0 0 0 0 0 16 16 15 19 19 18 19 18 19 16 18 18 17 17 20 18 21 22 25 25 26 27 28 28 29 34 30 33 34 34 34 34 36 37 33 40 41 41 41 41 49 45 46 46 46 46 48 51 49 46 49 50 50 50 50 50 46 50 47 49 47 52 49 52 -177 -193 58 59 59 61 60 64 65 63 66 65 65 67 65 68 65 65 65 61 62 66 -193 -193 -177 -193 450 -193 77 79 78 77 80 77 79 84 86 88 87 86 86 86 86 85 84 85 85 88 90 92 93 90 89 89 89 88 89 89 90 90 92 103 103 103 104 109 105 106 107 115 109 109 113 109 110 112 111 113 110 115 -193 111 0 0 0 0 0
    0 0 0 0 0 0 0 0 0 0 0 0 0 0 0 0 0 0 0 0 0 0 0 0 0 0 0 0 0 0 0 0 0 0 0 0 0 0 0 0 0 0 0 0 0 0 0 0 0 0 0 0 0 0 0 0 0 0 0 0 0 0 0 0 0 0 0 0 0 67 68 68 68 67 65 67 70 69 66 54 54 58 56 58 57 57 58 58 59 59 56 57 53 53 51 50 49 43 43 43 42 42 41 39 37 36 37 39 34 35 35 33 33 34 32 31 28 29 28 27 26 25 25 24 25 25 24 23 22 22 22 20 19 16 13 13 13 15 14 13 12 12 13 12 11 11 9 0 0 0 0 0 0 0 0 0 0 0 0 0 0 0 0 0 0 0 0 0 0 15 15 15 18 19 18 19 18 19 16 18 19 17 17 21 18 22 23 26 26 27 28 30 28 29 34 30 34 34 34 34 35 38 38 34 39 40 40 40 40 49 45 46 46 46 46 48 51 50 46 49 50 49 49 49 49 46 50 47 49 47 53 51 53 -177 -193 58 59 59 62 61 64 66 -193 -193 66 66 67 66 69 66 65 66 62 63 67 68 -193 -177 -193 449 -193 77 79 79 78 80 78 80 84 86 87 87 86 86 86 86 85 83 84 84 88 90 92 93 92 90 90 90 89 89 90 91 91 92 103 104 103 104 108 105 106 106 115 109 109 113 109 110 112 112 114 110 115 -193 -193 0 0 0 0 0
    0 0 0 0 0 0 0 0 0 0 0 0 0 0 0 0 0 0 0 0 0 0 0 0 0 0 0 0 0 0 0 0 0 0 0 0 0 0 0 0 0 0 0 0 0 0 0 0 0 0 0 0 0 0 0 0 0 0 0 0 0 0 0 0 0 0 0 0 0 67 68 68 68 67 64 68 70 69 66 54 54 57 56 58 57 57 58 57 59 58 56 56 53 53 50 50 49 43 42 43 42 42 41 39 37 36 37 39 34 35 35 33 33 34 32 31 28 30 29 28 27 26 26 25 26 25 25 24 23 22 22 20 20 16 13 13 12 14 13 13 12 11 12 11 10 10 0 0 0 0 0 0 0 0 0 0 0 0 0 0 0 0 0 0 0 0 0 0 9 15 15 15 18 19 18 19 18 19 16 18 18 17 18 21 19 22 24 26 27 27 29 30 28 30 34 31 35 35 35 35 36 39 39 37 39 40 40 40 40 49 45 46 46 46 46 48 51 50 47 49 51 49 49 49 49 46 50 47 50 48 54 52 53 -177 57 58 60 -177 -177 61 64 66 141 144 143 66 67 66 69 67 66 67 62 63 67 68 68 -177 -177 -193 75 77 79 79 78 80 78 81 83 85 86 86 85 86 86 85 85 82 84 84 89 90 92 92 94 91 91 91 90 90 91 92 92 91 103 104 104 105 108 105 105 106 116 110 110 113 109 110 112 112 114 110 115 -193 -193 0 0 0 0 0
    0 0 0 0 0 0 0 0 0 0 0 0 0 0 0 0 0 0 0 0 0 0 0 0 0 0 0 0 0 0 0 0 0 0 0 0 0 0 0 0 0 0 0 0 0 0 0 0 0 0 0 0 0 0 0 0 0 0 0 0 0 0 0 0 0 0 0 0 0 67 68 68 68 67 63 69 70 69 66 53 54 56 56 57 57 57 57 57 59 58 55 55 52 52 50 49 48 44 42 43 42 42 41 39 37 36 37 38 34 35 35 33 33 33 32 31 28 29 29 28 27 26 27 26 27 25 25 23 22 22 22 20 19 16 12 13 12 13 13 12 11 11 11 10 10 9 0 0 0 0 0 0 0 0 0 0 0 0 0 0 0 0 0 0 0 0 0 0 9 13 14 15 16 19 17 19 17 19 16 18 18 18 18 22 20 23 25 27 28 28 30 31 28 30 34 31 36 36 36 36 37 41 39 38 39 40 40 40 40 49 45 46 46 46 46 -193 51 50 48 49 51 49 49 49 50 47 50 47 50 47 54 53 54 -177 58 58 60 -177 -177 61 64 66 142 145 143 66 68 66 70 68 66 67 62 64 68 69 69 -177 -193 -193 75 78 79 79 79 80 78 81 83 84 86 85 84 85 85 85 84 82 84 84 89 91 92 92 97 92 92 92 91 91 92 93 93 91 102 103 103 104 107 104 105 105 116 110 110 113 109 110 112 113 114 110 114 -193 -193 0 0 0 0 0
    0 0 0 0 0 0 0 0 0 0 0 0 0 0 0 0 0 0 0 0 0 0 0 0 0 0 0 0 0 0 0 0 0 0 0 0 0 0 0 0 0 0 0 0 0 0 0 0 0 0 0 0 0 0 0 0 0 0 0 0 0 0 0 0 0 0 0 0 0 67 68 68 68 67 63 70 70 69 65 53 53 56 56 57 56 57 57 56 58 58 55 54 52 51 49 49 48 43 42 42 42 42 40 39 37 36 37 38 34 35 34 33 33 33 32 31 28 30 30 29 27 27 29 27 28 26 25 24 23 22 22 20 19 15 12 12 11 12 12 12 11 10 11 10 9 0 0 0 0 0 0 0 0 0 0 0 0 0 0 0 0 0 0 0 0 0 0 0 9 12 14 14 15 18 17 19 17 18 16 18 18 18 18 22 20 23 25 27 28 28 31 31 28 30 34 32 37 37 37 36 39 42 40 39 38 40 40 40 40 49 45 46 47 46 46 -193 51 50 48 50 51 49 49 49 50 47 50 47 50 47 54 54 55 -193 58 59 61 -177 -177 62 63 67 143 145 144 65 68 -193 -193 68 66 68 63 64 69 69 70 -209 -193 77 76 78 79 80 79 80 78 81 82 84 85 85 84 85 85 85 84 82 84 84 90 92 93 93 99 93 93 93 93 92 94 94 94 91 101 101 101 102 104 103 103 104 115 109 109 113 109 110 111 113 114 110 114 -193 -193 0 0 0 0 0
    0 0 0 0 0 0 0 0 0 0 0 0 0 0 0 0 0 0 0 0 0 0 0 0 0 0 0 0 0 0 0 0 0 0 0 0 0 0 0 0 0 0 0 0 0 0 0 0 0 0 0 0 0 0 0 0 0 0 0 0 0 0 0 0 0 0 0 0 0 67 68 68 68 67 62 69 70 69 64 53 53 55 56 56 56 56 56 56 58 57 55 53 52 51 49 50 48 43 42 42 42 41 40 39 37 35 37 38 34 34 34 33 33 33 32 31 28 30 30 30 27 28 29 27 28 26 25 24 23 22 21 20 18 15 12 12 11 12 12 11 11 10 11 10 9 0 0 0 0 0 0 0 0 0 0 0 0 0 0 0 0 0 0 0 0 0 0 0 9 13 14 15 15 18 17 19 17 18 16 18 18 18 18 22 20 23 25 27 28 28 31 31 28 30 34 33 38 38 38 37 40 43 41 41 38 39 39 39 40 50 45 46 47 46 46 -193 51 50 49 50 52 50 50 50 50 48 51 47 51 48 54 55 55 -177 59 59 62 -177 -177 62 63 67 143 145 144 65 68 -193 -193 -193 65 68 63 64 68 69 70 72 74 76 75 78 78 79 79 80 78 81 82 83 85 84 83 85 85 85 84 82 84 84 90 92 93 94 100 94 94 94 94 93 95 96 95 91 100 100 100 101 103 102 102 104 115 109 109 113 109 111 111 113 114 110 113 113 -193 0 0 0 0 0
    0 0 0 0 0 0 0 0 0 0 0 0 0 0 0 0 0 0 0 0 0 0 0 0 0 0 0 0 0 0 0 0 0 0 0 0 0 0 0 0 0 0 0 0 0 0 0 0 0 0 0 0 0 0 0 0 0 0 0 0 0 0 0 0 0 0 0 0 0 66 68 68 68 66 62 69 70 69 64 54 53 55 56 57 56 57 56 56 58 58 56 53 52 51 49 50 48 43 42 42 42 41 40 39 36 35 37 38 34 34 34 33 33 34 33 31 28 30 31 31 28 29 30 28 28 26 26 24 23 22 21 19 17 14 11 11 10 11 11 11 10 10 10 9 9 0 0 0 0 0 0 0 0 0 0 0 0 0 0 0 0 0 0 0 0 0 0 0 9 13 15 15 15 18 17 18 17 18 16 18 18 19 19 23 21 24 26 28 29 29 32 32 28 30 34 34 39 39 39 38 41 44 42 42 39 40 40 40 40 50 45 47 47 46 46 -193 52 51 49 50 52 50 50 50 50 48 51 47 51 48 54 56 56 -177 59 59 62 -177 -177 62 63 67 143 145 144 65 67 -193 -193 -193 65 68 63 63 68 69 70 71 73 75 75 77 77 79 78 79 79 81 82 83 85 84 83 85 85 85 84 82 84 84 91 93 93 94 100 95 95 95 94 94 96 96 96 91 100 100 100 101 103 102 102 104 115 110 110 113 109 111 111 113 114 110 113 113 111 0 0 0 0 0
    0 0 0 0 0 0 0 0 0 0 0 0 0 0 0 0 0 0 0 0 0 0 0 0 0 0 0 0 0 0 0 0 0 0 0 0 0 0 0 0 0 0 0 0 0 0 0 0 0 0 0 0 0 0 0 0 0 0 0 0 0 0 0 0 0 0 0 0 0 66 67 67 67 66 62 69 70 69 63 55 54 55 58 57 56 57 56 56 58 58 57 53 53 51 50 51 49 43 42 42 42 41 40 39 36 35 37 38 35 35 35 34 33 34 33 31 28 31 32 32 28 29 30 28 28 26 26 24 23 22 21 19 16 13 10 10 10 10 10 10 10 9 10 9 0 0 0 0 0 0 0 0 0 0 0 0 0 0 0 0 0 0 0 0 0 0 0 0 9 13 15 16 14 18 16 18 17 18 16 18 18 19 19 23 22 24 27 28 30 29 33 32 29 31 35 35 39 39 39 39 42 45 43 43 39 40 40 40 40 51 45 47 47 46 46 -193 51 51 49 50 52 50 51 51 51 49 51 48 51 48 54 57 -193 -177 59 59 63 -177 -177 63 62 66 143 145 143 64 67 -193 -193 -193 65 67 63 63 67 68 69 70 71 74 74 76 77 78 78 79 78 81 82 83 85 84 83 84 85 85 84 83 85 85 92 93 93 94 100 95 95 95 95 94 97 97 96 90 99 100 99 101 103 103 103 104 116 110 110 113 110 111 111 114 114 111 113 113 111 0 0 0 0 0
    0 0 0 0 0 0 0 0 0 0 0 0 0 0 0 0 0 0 0 0 0 0 0 0 0 0 0 0 0 0 0 0 0 0 0 0 0 0 0 0 0 0 0 0 0 0 0 0 0 0 0 0 0 0 0 0 0 0 0 0 0 0 0 0 0 0 0 0 0 67 67 67 67 66 62 69 70 69 62 56 54 55 59 57 57 58 57 56 59 58 57 53 53 51 50 51 50 44 42 42 42 41 40 39 36 35 38 38 35 35 35 35 33 34 34 32 29 32 33 33 28 29 30 28 27 25 25 24 22 21 20 18 15 13 10 10 9 9 10 9 9 9 10 9 0 0 0 0 0 0 0 0 0 0 0 0 0 0 0 0 0 0 0 0 0 0 0 0 9 13 15 16 14 17 16 18 16 17 15 17 18 19 19 23 22 25 27 29 30 29 33 32 29 31 35 35 40 40 40 40 42 45 44 44 39 40 40 40 40 51 45 47 47 46 46 -193 51 51 50 51 52 51 51 51 51 49 51 48 51 48 54 58 -193 -177 59 58 63 62 65 63 62 66 142 -193 143 64 66 64 68 67 64 67 63 63 67 67 68 69 71 72 73 75 76 77 78 78 78 80 82 82 84 83 82 84 84 85 84 83 85 85 92 93 93 94 100 95 96 96 95 94 96 96 96 90 98 98 98 100 102 103 104 104 116 110 110 113 110 112 111 114 114 111 113 113 111 0 0 0 0 0
    0 0 0 0 0 0 0 0 0 0 0 0 0 0 0 0 0 0 0 0 0 0 0 0 0 0 0 0 0 0 0 0 0 0 0 0 0 0 0 0 0 0 0 0 0 0 0 0 0 0 0 0 0 0 0 0 0 0 0 0 0 0 0 0 0 0 0 0 0 67 67 67 67 66 63 70 70 69 62 57 55 56 60 58 58 58 57 57 59 58 57 54 53 51 50 51 50 44 42 42 42 41 41 39 36 35 38 38 36 35 35 35 34 35 34 32 30 33 33 33 28 28 29 27 25 24 23 22 21 20 19 16 14 13 11 11 10 9 10 9 9 9 9 8 0 0 0 0 0 0 0 0 0 0 0 0 0 0 0 0 0 0 0 0 0 0 0 0 0 12 15 16 14 17 16 18 16 17 15 17 17 19 19 23 22 25 27 29 30 29 33 32 29 31 35 36 40 40 40 40 43 46 45 45 40 41 41 41 41 51 45 47 47 46 46 -193 51 -193 50 51 53 51 51 51 51 49 51 47 51 48 54 59 -193 -177 59 59 63 62 65 63 61 66 142 66 -177 63 66 63 67 66 64 67 63 63 67 67 68 68 70 71 72 75 75 77 77 77 77 80 81 81 84 82 81 83 83 84 84 83 86 86 93 94 94 94 100 96 96 96 96 94 96 97 97 90 97 98 98 99 102 104 104 105 116 110 110 113 110 112 111 113 114 110 112 112 111 0 0 0 0 0
    0 0 0 0 0 0 0 0 0 0 0 0 0 0 0 0 0 0 0 0 0 0 0 0 0 0 0 0 0 0 0 0 0 0 0 0 0 0 0 0 0 0 0 0 0 0 0 0 0 0 0 0 0 0 0 0 0 0 0 0 0 0 0 0 0 0 0 0 0 67 67 67 67 66 63 70 70 69 61 57 56 56 60 58 58 59 57 56 58 57 56 53 53 51 50 51 50 44 43 43 42 41 41 40 36 35 38 38 36 36 35 35 34 35 35 31 30 33 33 33 28 27 27 25 24 23 22 21 21 19 18 15 14 13 11 11 11 9 9 9 9 0 8 0 0 0 0 0 0 0 0 0 0 0 0 0 0 0 0 0 0 0 0 0 0 0 0 0 0 13 15 16 14 17 16 18 16 17 15 16 17 19 19 23 22 25 27 29 30 29 33 32 29 31 35 36 41 41 41 41 43 46 46 46 40 43 41 41 41 52 46 47 47 46 46 -193 51 273 50 51 53 51 51 51 51 49 51 47 51 48 54 -193 -193 -177 59 59 63 62 64 62 61 65 142 65 -193 63 65 62 66 66 64 66 63 62 66 66 67 66 69 70 72 74 75 76 76 76 76 79 80 80 83 81 80 81 83 84 84 83 86 86 93 94 94 95 100 96 96 96 96 94 97 97 97 90 98 99 100 101 103 104 104 105 116 110 110 113 110 112 110 113 114 110 112 112 110 0 0 0 0 0
    0 0 0 0 0 0 0 0 0 0 0 0 0 0 0 0 0 0 0 0 0 0 0 0 0 0 0 0 0 0 0 0 0 0 0 0 0 0 0 0 0 0 0 0 0 0 0 0 0 0 0 0 0 0 0 0 0 0 0 0 0 0 0 0 0 0 0 0 0 67 66 67 67 66 62 69 69 68 61 57 56 56 60 58 58 59 57 56 58 56 56 53 53 51 50 51 50 45 43 43 43 41 41 40 37 35 38 38 36 36 36 35 34 35 35 31 31 33 33 32 28 26 26 24 23 22 21 20 20 18 17 14 14 13 12 12 12 10 10 10 10 9 9 9 0 0 0 0 0 0 0 0 0 0 0 0 0 0 0 0 0 0 0 0 0 0 0 0 0 13 16 17 14 17 16 18 16 18 15 16 17 19 19 23 22 24 27 28 30 29 33 32 29 31 35 36 41 41 41 41 43 46 46 47 40 43 41 41 41 52 46 47 47 46 46 -193 51 273 50 51 53 51 51 51 51 49 51 47 51 47 54 -193 -193 -177 59 59 63 62 64 62 60 64 142 65 65 62 64 62 66 66 63 66 63 61 66 66 67 64 68 69 71 73 74 76 75 75 76 77 80 80 84 81 80 81 82 84 84 83 86 86 93 94 94 95 100 96 96 96 96 95 97 97 97 90 99 100 100 101 103 104 105 105 116 110 110 112 109 111 110 113 113 110 111 111 110 0 0 0 0 0
    0 0 0 0 0 0 0 0 0 0 0 0 0 0 0 0 0 0 0 0 0 0 0 0 0 0 0 0 0 0 0 0 0 0 0 0 0 0 0 0 0 0 0 0 0 0 0 0 0 0 0 0 0 0 0 0 0 0 0 0 0 0 0 0 0 0 0 0 0 67 66 66 67 66 62 68 68 67 61 58 57 56 59 58 58 58 56 55 58 56 56 54 53 51 50 52 51 45 44 43 43 42 42 40 37 35 39 38 36 36 36 35 34 35 35 30 32 33 33 32 28 26 26 24 22 21 20 19 19 17 16 14 14 13 12 12 12 10 10 10 10 9 9 9 0 0 0 0 0 0 0 0 0 0 0 0 0 0 0 0 0 0 0 0 0 0 0 0 0 14 16 17 15 17 16 18 16 18 15 17 17 19 19 23 22 24 27 28 30 29 33 32 29 31 35 36 41 41 41 41 43 46 46 47 40 42 41 41 41 52 46 47 47 45 46 -193 51 273 50 51 53 51 51 51 51 49 51 47 51 47 54 -193 -193 397 58 -193 62 62 63 62 59 63 142 64 65 62 63 62 65 65 63 65 63 61 65 65 66 63 66 67 70 72 74 75 74 75 77 78 80 81 84 81 80 81 83 84 84 84 86 -193 93 94 94 95 100 96 96 96 96 95 97 97 97 90 100 101 101 101 103 105 105 105 116 110 110 111 109 111 109 112 112 109 111 111 110 0 0 0 0 0
    0 0 0 0 0 0 0 0 0 0 0 0 0 0 0 0 0 0 0 0 0 0 0 0 0 0 0 0 0 0 0 0 0 0 0 0 0 0 0 0 0 0 0 0 0 0 0 0 0 0 0 0 0 0 0 0 0 0 0 0 0 0 0 0 0 0 0 0 0 67 66 66 67 66 62 68 68 67 61 58 57 57 59 58 58 58 56 55 58 56 56 54 54 52 51 52 51 45 44 44 44 42 42 41 37 35 39 37 36 36 36 35 34 35 35 29 33 33 32 31 28 26 26 23 22 21 19 19 19 17 16 14 14 13 12 13 13 10 10 10 10 9 9 9 0 0 0 0 0 0 0 0 0 0 0 0 0 0 0 0 0 0 0 0 0 0 0 0 0 13 15 16 14 17 16 18 16 18 15 17 17 19 18 22 21 24 27 28 29 29 33 33 29 32 35 36 41 41 41 41 43 46 46 47 40 -193 40 40 40 51 45 47 46 45 46 -193 51 273 50 51 52 51 51 50 51 48 50 47 50 47 54 -193 -193 397 -193 -193 62 61 63 61 59 62 142 63 65 62 63 62 65 65 63 65 62 61 64 64 65 62 66 66 69 71 74 75 74 75 77 79 81 81 85 81 81 81 83 84 84 84 86 -193 93 94 94 95 100 96 96 96 96 95 97 97 97 90 101 102 102 102 103 107 106 106 116 110 109 110 109 110 109 112 112 109 111 111 111 0 0 0 0 0
    0 0 0 0 0 0 0 0 0 0 0 0 0 0 0 0 0 0 0 0 0 0 0 0 0 0 0 0 0 0 0 0 0 0 0 0 0 0 0 0 0 0 0 0 0 0 0 0 0 0 0 0 0 0 0 0 0 0 0 0 0 0 0 0 0 0 0 0 0 67 67 66 67 66 62 68 68 66 61 57 57 57 59 57 57 57 56 55 57 56 56 54 54 52 51 53 51 46 45 44 44 42 42 41 37 35 39 37 36 36 36 35 33 34 34 28 33 32 32 31 28 26 -193 23 22 21 19 19 19 17 16 14 14 13 12 13 13 11 11 11 11 10 10 10 0 0 0 0 0 0 9 9 9 10 0 0 0 0 0 0 0 0 0 0 0 0 0 0 0 12 14 16 14 17 16 18 16 18 15 17 16 18 18 22 21 24 -193 28 29 29 32 33 29 32 35 37 41 41 41 41 42 46 46 47 40 40 40 40 40 51 -193 46 46 45 46 48 51 273 50 51 52 50 50 50 50 48 50 46 50 47 54 -193 396 397 -193 -177 61 61 62 -193 -193 -193 142 63 64 61 63 62 64 65 62 64 62 61 64 64 64 61 65 66 69 71 74 75 75 75 78 79 81 82 84 81 81 81 82 83 84 83 86 -193 92 93 93 94 100 96 96 96 96 95 97 97 97 90 102 103 102 102 103 108 107 107 115 109 109 109 109 110 108 111 112 109 111 111 111 0 0 0 0 0
    0 0 0 0 0 0 0 0 0 0 0 0 0 0 0 0 0 0 0 0 0 0 0 0 0 0 0 0 0 0 0 0 0 0 0 0 0 0 0 0 0 0 0 0 0 0 0 0 0 0 0 0 0 0 0 0 0 0 0 0 0 0 0 0 0 0 0 0 0 68 67 67 67 66 62 68 68 66 61 57 56 57 58 57 57 57 56 55 57 56 56 54 53 52 51 53 51 46 45 44 44 42 42 41 38 36 -193 37 36 36 35 35 33 34 34 28 34 32 32 30 27 25 -193 23 22 21 19 18 18 17 16 14 14 13 12 14 13 11 11 11 12 11 11 11 9 9 9 9 9 0 9 10 10 10 9 9 9 0 0 0 0 0 0 0 0 0 0 0 0 12 14 16 14 17 16 18 16 18 15 17 16 18 18 22 20 23 -193 27 28 29 32 33 29 32 35 37 41 41 41 41 42 46 46 47 40 40 40 40 40 50 -177 46 46 45 46 48 51 273 50 50 52 50 50 49 50 47 49 46 50 48 54 -193 396 397 -193 -177 61 61 62 61 58 62 143 -193 64 61 63 62 64 65 62 64 62 61 63 63 64 61 64 65 68 71 74 75 76 75 79 80 82 82 84 82 81 80 82 82 83 83 85 -193 91 93 93 94 100 95 96 95 96 95 97 97 97 90 102 103 102 102 103 109 107 107 115 108 108 108 109 109 108 111 111 109 111 111 111 0 0 0 0 0
    0 0 0 0 0 0 0 0 0 0 0 0 0 0 0 0 0 0 0 0 0 0 0 0 0 0 0 0 0 0 0 0 0 0 0 0 0 0 0 0 0 0 0 0 0 0 0 0 0 0 0 0 0 0 0 0 0 0 0 0 0 0 0 0 0 0 0 0 0 68 68 67 68 66 62 68 68 65 60 56 56 56 58 57 57 57 56 55 57 55 55 54 53 51 51 52 51 45 44 44 43 43 42 41 37 36 39 36 36 35 35 34 33 34 34 27 34 32 32 30 -193 25 -193 22 22 20 18 18 18 16 16 14 14 13 12 14 14 11 11 11 12 11 11 11 10 10 10 10 9 9 9 10 10 10 9 0 0 0 0 0 0 0 0 0 0 0 0 0 0 12 14 16 14 17 16 18 16 18 16 17 16 18 17 21 19 22 -193 26 27 28 31 33 29 32 35 37 41 41 41 41 42 45 46 46 40 39 39 39 40 49 -177 45 45 44 46 48 51 273 50 50 51 49 49 49 49 47 49 46 51 48 54 -193 396 397 -193 -177 61 -177 62 61 58 62 143 144 64 61 63 62 64 65 62 64 62 61 63 63 63 61 63 64 67 70 74 75 76 75 79 79 82 82 84 82 81 81 82 83 84 84 -193 -193 -193 92 92 93 100 95 95 95 96 95 97 97 97 90 102 103 102 102 104 110 107 108 115 107 107 107 109 109 108 111 111 109 111 112 112 0 0 0 0 0
    0 0 0 0 0 0 0 0 0 0 0 0 0 0 0 0 0 0 0 0 0 0 0 0 0 0 0 0 0 0 0 0 0 0 0 0 0 0 0 0 0 0 0 0 0 0 0 0 0 0 0 0 0 0 0 0 0 0 0 0 0 0 0 0 0 0 0 0 0 68 68 67 68 67 62 67 67 64 61 57 56 57 58 57 57 56 55 54 57 55 54 54 52 51 51 52 51 45 44 44 43 43 42 40 37 35 39 36 36 35 35 34 33 34 33 27 34 32 32 30 -193 25 -193 22 22 20 19 19 18 17 16 14 15 13 12 13 13 11 11 11 12 11 11 12 10 10 10 10 10 9 10 10 9 10 9 0 9 0 0 0 0 0 0 0 0 0 0 0 0 11 13 17 14 17 16 18 16 18 16 17 16 17 17 21 18 22 -193 26 26 28 30 32 29 31 35 37 41 41 41 41 42 45 46 46 39 39 39 39 40 49 -177 45 45 44 46 48 51 -193 49 49 51 49 48 48 49 47 49 46 51 48 54 -193 396 397 -193 -177 61 -177 61 -193 -193 -193 144 144 -193 61 62 62 63 65 62 63 62 61 63 63 63 60 63 63 66 69 73 74 75 75 78 80 82 83 84 83 82 81 82 83 84 84 -193 -193 90 91 92 92 100 94 95 94 95 95 97 97 97 90 102 103 102 102 104 111 107 108 114 107 106 106 -193 108 108 110 111 109 111 113 113 0 0 0 0 0
    0 0 0 0 0 0 0 0 0 0 0 0 0 0 0 0 0 0 0 0 0 0 0 0 0 0 0 0 0 0 0 0 0 0 0 0 0 0 0 0 0 0 0 0 0 0 0 0 0 0 0 0 0 0 0 0 0 0 0 0 0 0 0 0 0 0 0 0 0 68 68 67 68 66 62 66 66 63 60 56 56 57 57 57 57 56 55 54 56 54 52 53 51 50 50 51 50 45 44 44 43 42 42 40 37 35 39 36 35 34 35 33 32 33 33 28 35 32 32 30 -193 25 -193 23 22 21 20 19 18 17 17 15 15 14 12 14 14 12 12 12 13 12 12 13 11 11 11 11 10 9 10 10 9 10 9 0 0 0 0 0 0 0 0 0 0 0 0 0 0 10 12 17 14 18 16 18 16 18 16 18 15 17 17 21 19 22 -193 26 26 28 31 33 29 32 35 37 41 41 41 41 41 45 46 46 40 39 39 39 40 49 44 45 45 44 46 48 50 51 49 49 50 48 48 48 49 47 49 47 51 49 54 -193 -193 397 -193 -177 60 -177 60 61 -193 -193 144 144 -193 61 62 63 63 65 62 63 62 61 63 63 63 61 63 63 67 69 73 74 74 74 78 80 82 84 85 84 82 82 82 83 84 85 86 -193 89 90 91 91 99 94 94 94 95 95 97 97 97 90 101 101 100 100 103 112 108 108 113 106 106 106 109 108 108 110 111 110 111 113 114 0 0 0 0 0
    0 0 0 0 0 0 0 0 0 0 0 0 0 0 0 0 0 0 0 0 0 0 0 0 0 0 0 0 0 0 0 0 0 0 0 0 0 0 0 0 0 0 0 0 0 0 0 0 0 0 0 0 0 0 0 0 0 0 0 0 0 0 0 0 0 0 0 0 0 68 68 68 68 67 62 66 66 62 60 56 56 57 57 57 57 56 55 53 56 54 52 53 51 50 50 51 50 44 44 44 43 43 42 40 37 35 38 35 34 34 34 33 32 33 33 28 35 32 32 30 28 -193 -193 23 23 22 20 20 19 18 18 15 16 14 13 15 14 12 12 13 15 13 13 14 12 12 12 11 10 9 10 10 9 10 0 0 0 0 0 0 0 0 0 0 0 0 0 0 0 9 11 17 14 18 16 19 17 18 16 18 15 17 17 20 18 21 23 25 25 27 30 32 29 31 35 36 40 41 41 41 41 44 44 44 40 39 40 40 40 48 44 45 45 44 46 47 50 51 48 48 50 48 48 48 49 47 49 47 51 49 54 -193 -193 -177 -193 -177 60 -177 60 61 -193 -193 144 144 64 61 63 63 63 64 62 63 62 62 63 64 64 62 64 64 68 69 72 73 74 74 78 80 82 84 85 84 83 82 83 83 84 85 86 86 88 90 90 90 98 94 94 94 95 95 97 97 97 90 100 101 99 99 103 113 108 109 112 106 106 106 110 108 108 110 111 -193 112 114 114 0 0 0 0 0
    0 0 0 0 0 0 0 0 0 0 0 0 0 0 0 0 0 0 0 0 0 0 0 0 0 0 0 0 0 0 0 0 0 0 0 0 0 0 0 0 0 0 0 0 0 0 0 0 0 0 0 0 0 0 0 0 0 0 0 0 0 0 0 0 0 0 0 0 0 68 68 68 68 67 62 66 66 62 60 56 55 56 56 56 56 55 55 53 55 54 51 53 51 49 50 50 50 44 44 44 43 43 42 40 37 35 38 35 34 34 34 32 32 32 33 28 34 32 32 30 28 -193 -193 24 23 22 21 21 20 19 18 16 16 15 13 15 14 12 13 14 16 14 13 13 12 12 12 11 10 9 9 10 9 10 0 0 0 0 0 0 0 0 0 0 0 0 0 0 0 0 10 18 14 17 16 19 17 19 17 18 15 17 17 20 18 21 22 24 24 27 29 31 28 31 35 36 39 39 39 39 38 42 41 40 38 38 39 40 40 48 44 45 45 45 46 47 50 51 48 48 50 48 48 48 48 47 49 48 51 50 54 -193 -193 -177 -193 -177 60 -177 60 62 -193 -193 144 144 65 62 64 64 63 64 62 63 63 62 64 64 65 62 65 64 68 69 72 73 73 74 77 80 82 84 85 84 82 82 83 84 84 85 85 85 86 89 89 89 98 93 94 93 95 95 97 97 97 90 99 99 98 98 103 112 108 109 111 107 106 106 111 109 109 111 111 -193 112 115 115 0 0 0 0 0
    0 0 0 0 0 0 0 0 0 0 0 0 0 0 0 0 0 0 0 0 0 0 0 0 0 0 0 0 0 0 0 0 0 0 0 0 0 0 0 0 0 0 0 0 0 0 0 0 0 0 0 0 0 0 0 0 0 0 0 0 0 0 0 0 0 0 0 0 0 69 69 68 68 68 64 67 67 63 61 56 55 56 56 56 56 55 55 53 55 53 51 52 51 49 49 49 49 44 44 43 43 42 42 40 37 35 38 35 34 34 34 32 32 32 33 28 33 33 32 30 28 26 27 24 23 22 21 21 20 19 19 16 17 16 14 16 14 13 14 15 18 15 14 13 13 12 12 12 11 9 9 10 9 10 9 0 0 0 0 0 0 0 0 0 0 0 0 0 0 0 -177 19 14 18 16 19 17 19 17 19 15 17 17 20 18 21 21 24 23 27 29 30 28 30 35 35 38 39 38 38 37 41 40 38 38 38 39 40 41 49 45 45 46 45 46 46 50 51 47 48 50 48 48 47 48 46 49 48 52 51 55 60 -193 -193 -193 -177 60 -177 60 62 59 62 144 144 65 62 64 64 63 64 62 64 63 63 64 65 65 63 66 65 69 69 71 72 72 72 76 80 82 84 85 85 83 83 83 84 84 84 85 85 85 88 88 88 97 93 93 93 94 95 97 97 97 90 100 100 99 99 103 113 108 109 110 108 106 106 111 109 109 111 111 -193 112 115 115 0 0 0 0 0
    0 0 0 0 0 0 0 0 0 0 0 0 0 0 0 0 0 0 0 0 0 0 0 0 0 0 0 0 0 0 0 0 0 0 0 0 0 0 0 0 0 0 0 0 0 0 0 0 0 0 0 0 0 0 0 0 0 0 0 0 0 0 0 0 0 0 0 0 0 69 69 69 69 69 66 69 67 64 62 56 55 56 56 56 56 55 55 54 55 54 51 52 51 49 49 48 48 43 43 43 43 42 41 40 38 35 38 36 34 34 34 32 32 32 33 29 33 33 33 30 29 26 27 24 23 23 22 22 20 20 20 17 18 18 16 17 15 15 15 16 18 15 14 14 13 13 13 12 11 10 10 10 10 10 9 0 0 0 0 0 0 0 0 0 0 0 0 0 0 0 -177 20 14 18 17 19 17 19 18 20 16 18 18 21 19 21 22 24 24 27 28 29 28 29 34 34 36 38 38 38 38 41 40 40 39 39 41 41 42 50 45 45 45 44 45 45 49 49 46 48 49 47 47 47 48 46 50 50 53 52 55 61 59 59 58 -193 60 -177 60 63 59 63 144 144 65 62 64 65 63 64 62 64 64 63 65 65 66 63 66 65 69 69 70 71 71 71 75 79 82 84 85 85 83 84 84 84 83 83 84 84 84 86 86 88 96 92 93 92 94 95 97 97 96 90 97 98 99 99 103 113 108 108 109 109 106 106 112 109 110 111 112 112 112 116 115 0 0 0 0 0
    0 0 0 0 0 0 0 0 0 0 0 0 0 0 0 0 0 0 0 0 0 0 0 0 0 0 0 0 0 0 0 0 0 0 0 0 0 0 0 0 0 0 0 0 0 0 0 0 0 0 0 0 0 0 0 0 0 0 0 0 0 0 0 0 0 0 0 0 0 70 70 69 69 70 67 69 68 65 64 58 56 57 56 56 57 55 56 54 55 54 51 52 51 49 49 48 48 43 43 44 43 42 41 40 38 36 38 36 34 34 35 32 32 32 33 29 32 33 33 30 30 27 27 24 23 23 22 22 21 21 21 19 20 19 18 18 16 16 15 16 18 15 14 13 13 14 14 13 12 10 10 10 9 9 0 0 0 0 0 0 0 0 0 0 0 0 0 0 0 0 -177 19 14 17 16 18 17 19 18 20 17 20 19 21 20 22 22 24 24 27 28 29 27 29 32 32 35 37 36 37 36 38 38 38 38 38 40 40 41 48 44 45 45 44 44 44 46 47 45 46 47 46 47 47 48 46 50 51 53 52 55 61 59 60 58 58 60 -177 60 63 59 63 145 144 65 62 64 65 63 64 62 64 64 64 65 65 66 64 66 65 69 69 70 71 71 71 74 78 82 83 85 86 84 85 85 85 84 84 85 84 84 86 85 87 95 92 92 92 93 95 96 96 96 89 94 97 100 100 103 114 108 109 109 112 107 107 112 109 111 112 112 113 113 116 116 0 0 0 0 0
    0 0 0 0 0 0 0 0 0 0 0 0 0 0 0 0 0 0 0 0 0 0 0 0 0 0 0 0 0 0 0 0 0 0 0 0 0 0 0 0 0 0 0 0 0 0 0 0 0 0 0 0 0 0 0 0 0 0 0 0 0 0 0 0 0 0 0 0 0 71 70 70 70 70 68 69 68 66 65 59 57 58 57 57 57 56 56 54 56 54 51 52 51 49 48 47 48 43 43 44 43 42 41 39 38 36 38 36 34 34 35 32 33 33 33 29 32 33 33 30 31 27 27 24 23 23 22 22 21 21 21 20 21 20 19 19 17 16 16 15 18 15 14 13 13 14 14 13 12 10 10 9 9 9 0 0 0 0 0 0 0 0 0 0 0 0 0 0 0 0 10 19 14 17 17 19 17 19 19 21 18 21 21 22 21 23 23 25 24 27 27 28 27 29 32 31 34 36 35 36 35 36 36 36 36 36 39 39 40 46 44 45 45 44 44 43 46 47 45 45 47 46 47 47 48 47 50 51 53 53 55 61 59 59 58 58 60 60 61 63 60 63 145 -193 65 62 64 65 63 64 62 64 64 64 65 66 66 65 67 67 71 71 71 73 72 71 74 77 81 80 84 85 83 85 85 85 84 84 86 86 85 87 86 88 97 93 93 92 93 95 97 97 96 89 93 97 100 102 103 115 108 109 110 116 108 108 114 110 111 112 113 114 113 116 116 0 0 0 0 0
    0 0 0 0 0 0 0 0 0 0 0 0 0 0 0 0 0 0 0 0 0 0 0 0 0 0 0 0 0 0 0 0 0 0 0 0 0 0 0 0 0 0 0 0 0 0 0 0 0 0 0 0 0 0 0 0 0 0 0 0 0 0 0 0 0 0 0 0 0 71 71 71 70 70 68 69 68 67 66 60 57 59 57 57 57 56 56 55 56 53 51 52 51 49 48 47 47 43 43 43 43 42 41 39 38 36 38 36 34 34 35 32 32 33 33 29 32 33 33 30 31 27 27 24 24 23 23 23 22 22 22 20 22 21 20 19 17 17 16 15 18 15 14 12 13 15 14 14 13 10 10 10 10 9 0 0 0 0 0 0 0 0 0 0 0 0 0 0 0 9 10 18 14 17 16 19 17 19 19 21 19 22 22 23 23 24 24 26 25 27 27 28 27 29 31 31 34 35 34 35 35 35 35 35 36 35 39 39 40 44 44 45 45 44 44 43 46 47 46 46 47 46 48 48 50 48 50 52 53 53 55 61 59 59 59 58 60 60 61 63 60 64 145 63 65 62 65 65 64 65 63 65 65 65 67 67 67 66 69 69 72 73 73 75 74 73 76 77 82 78 86 86 80 83 82 81 -193 -193 -209 -209 81 85 83 87 102 94 94 92 93 96 98 97 96 89 94 99 102 103 -193 117 108 109 110 117 110 109 114 110 112 112 113 114 112 116 -193 0 0 0 0 0
    0 0 0 0 0 0 0 0 0 0 0 0 0 0 0 0 0 0 0 0 0 0 0 0 0 0 0 0 0 0 0 0 0 0 0 0 0 0 0 0 0 0 0 0 0 0 0 0 0 0 0 0 0 0 0 0 0 0 0 0 0 0 0 0 0 0 0 0 0 72 72 71 70 70 68 69 68 67 66 61 58 60 58 57 57 56 56 55 56 53 51 51 51 49 48 47 47 43 43 43 43 42 41 40 38 36 38 35 34 33 34 32 32 33 33 29 32 33 33 30 30 27 26 24 23 23 23 23 22 22 22 21 22 22 20 20 17 17 17 16 18 15 15 12 13 15 14 14 14 12 11 11 11 11 9 0 0 0 0 0 0 0 0 0 0 0 0 0 9 9 10 17 15 16 16 18 18 19 20 22 20 23 24 25 25 26 26 27 25 28 27 28 27 29 30 30 32 34 33 34 35 35 35 35 36 34 39 39 40 43 43 45 45 44 45 43 45 46 45 45 45 45 47 47 50 48 51 53 54 54 56 61 60 60 60 59 61 61 61 64 60 64 -193 63 65 62 65 66 64 66 64 67 67 68 69 69 69 68 71 71 75 75 75 77 77 76 78 79 84 79 87 -193 -209 -209 -209 -209 -209 -193 -209 -193 -209 -209 -209 -193 122 95 95 91 92 96 97 96 95 89 93 101 -193 -193 -209 123 113 113 114 118 111 110 114 111 112 113 113 114 112 116 -193 0 0 0 0 0
    0 0 0 0 0 0 0 0 0 0 0 0 0 0 0 0 0 0 0 0 0 0 0 0 0 0 0 0 0 0 0 0 0 0 0 0 0 0 0 0 0 0 0 0 0 0 0 0 0 0 0 0 0 0 0 0 0 0 0 0 0 0 0 0 0 0 0 0 0 72 72 72 71 70 68 69 68 67 66 61 59 61 58 58 57 56 57 55 55 53 51 51 51 49 48 47 47 43 43 44 43 42 41 40 -193 36 37 35 34 33 34 32 32 32 32 29 32 32 32 29 29 27 25 24 23 23 22 22 22 22 22 21 22 21 20 20 18 17 17 16 17 15 14 12 13 14 13 14 14 12 11 11 12 11 10 0 0 0 0 0 0 0 0 0 0 0 0 9 9 10 10 16 15 16 16 18 18 19 20 23 22 24 25 26 26 26 26 28 26 28 27 27 26 28 29 29 31 32 31 33 34 34 34 34 35 33 38 38 40 42 43 45 44 44 44 43 44 45 45 45 44 44 46 46 49 47 50 53 53 54 56 61 60 61 60 59 62 61 62 64 61 65 63 63 65 62 65 66 65 67 65 68 69 70 71 71 69 69 72 72 77 77 76 79 79 78 80 81 85 78 87 -193 -193 -209 -209 -193 -193 -193 -193 129 131 124 124 124 123 -193 93 90 91 95 96 -193 94 87 91 -193 -209 134 137 135 122 119 119 120 114 112 115 111 113 113 113 115 112 116 -193 0 0 0 0 0
    0 0 0 0 0 0 0 0 0 0 0 0 0 0 0 0 0 0 0 0 0 0 0 0 0 0 0 0 0 0 0 0 0 0 0 0 0 0 0 0 0 0 0 0 0 0 0 0 0 0 0 0 0 0 0 0 0 0 0 0 0 0 0 0 0 0 0 0 0 73 73 72 71 70 68 68 68 66 65 62 60 61 58 58 57 57 57 55 55 53 51 51 51 49 48 47 47 43 43 44 43 42 41 40 -193 36 37 35 33 33 34 32 32 32 32 30 32 33 32 30 29 27 25 24 23 23 22 22 22 22 22 21 21 21 20 20 18 18 16 16 17 15 15 12 13 14 13 13 14 12 11 11 12 11 11 9 0 0 0 0 0 0 0 0 0 0 0 9 10 11 11 15 15 16 15 18 18 19 21 23 23 25 25 26 26 26 26 28 26 28 27 27 27 28 29 29 30 31 31 32 34 33 33 34 35 32 37 38 40 41 42 45 45 44 44 44 44 45 45 46 43 44 46 46 48 46 50 53 53 53 56 60 60 61 61 60 63 62 62 64 61 65 63 63 65 62 66 67 65 68 67 70 71 -209 -209 -209 70 69 73 74 80 80 79 82 82 81 83 82 86 78 87 -193 -177 -177 124 130 129 131 129 129 130 125 125 125 124 -193 91 87 89 92 93 -193 -193 -209 -209 -209 138 137 139 138 137 136 131 136 116 114 115 112 114 114 114 115 112 117 -193 0 0 0 0 0
    0 0 0 0 0 0 0 0 0 0 0 0 0 0 0 0 0 0 0 0 0 0 0 0 0 0 0 0 0 0 0 0 0 0 0 0 0 0 0 0 0 0 0 0 0 0 0 0 0 0 0 0 0 0 0 0 0 0 0 0 0 0 0 0 0 0 0 0 0 73 73 73 71 71 69 69 68 66 65 62 60 62 59 59 58 57 58 56 56 53 52 51 51 49 48 47 47 43 43 44 43 42 41 -193 -193 37 37 35 33 33 34 32 32 32 32 30 32 33 32 30 29 27 25 24 23 23 21 21 21 21 22 21 21 21 19 20 19 18 16 16 16 16 16 13 14 14 14 15 15 13 12 11 12 12 11 10 0 0 0 0 0 0 0 0 0 0 0 10 9 10 10 14 14 16 15 18 19 19 21 24 23 26 26 27 26 27 27 28 26 27 26 26 26 28 27 28 29 30 31 32 34 34 34 35 35 32 37 37 39 39 41 45 44 44 44 44 44 44 45 45 42 43 45 45 47 47 49 53 52 53 56 59 59 60 60 59 63 62 62 65 62 65 64 63 65 62 66 68 66 69 68 -193 78 -193 109 -209 -193 -193 -193 -193 85 83 81 82 82 80 81 80 86 74 77 -209 -209 124 124 131 130 131 129 128 128 126 126 126 124 126 90 85 87 91 92 92 -209 -209 -209 -193 139 138 140 138 138 138 138 139 -193 116 116 113 114 114 114 116 114 118 -193 0 0 0 0 0
    0 0 0 0 0 0 0 0 0 0 0 0 0 0 0 0 0 0 0 0 0 0 0 0 0 0 0 0 0 0 0 0 0 0 0 0 0 0 0 0 0 0 0 0 0 0 0 0 0 0 0 0 0 0 0 0 0 0 0 0 0 0 0 0 0 0 0 0 0 74 74 73 71 71 69 69 68 66 65 63 61 62 60 59 59 58 59 56 56 53 51 51 51 49 48 47 47 43 43 44 43 42 41 -193 -193 37 37 34 33 33 33 32 33 33 32 31 33 33 32 30 29 27 25 24 23 23 21 21 21 21 22 21 22 21 20 21 20 18 17 18 17 17 18 15 15 16 15 16 15 13 12 11 12 12 11 11 0 0 0 0 0 0 0 0 0 0 0 10 10 11 11 14 14 17 15 18 19 18 21 24 24 26 26 27 27 27 28 28 27 27 26 26 26 27 27 28 30 31 32 33 35 35 35 36 35 31 35 36 37 36 39 44 43 43 43 43 43 44 45 45 42 42 44 44 -193 46 45 51 49 52 55 58 58 59 60 59 63 62 62 65 62 65 64 64 65 62 66 67 65 69 67 72 82 102 107 108 108 109 -193 -209 -209 86 85 84 83 81 81 79 86 73 -209 -209 -209 124 124 131 128 130 128 127 -193 125 125 126 124 126 -193 -193 86 -193 -209 -209 -209 -209 -209 138 140 139 141 139 139 140 141 143 146 -193 117 114 115 115 114 116 114 -193 -193 0 0 0 0 0
    0 0 0 0 0 0 0 0 0 0 0 0 0 0 0 0 0 0 0 0 0 0 0 0 0 0 0 0 0 0 0 0 0 0 0 0 0 0 0 0 0 0 0 0 0 0 0 0 0 0 0 0 0 0 0 0 0 0 0 0 0 0 0 0 0 0 0 0 0 74 74 73 71 71 68 68 67 65 64 62 61 62 60 59 59 59 59 56 56 53 51 51 51 49 48 47 46 44 43 44 42 41 41 -193 -193 37 37 33 33 32 33 32 33 32 31 31 33 32 31 30 28 27 26 24 23 23 21 21 21 21 22 22 22 22 20 22 21 20 20 20 19 18 19 16 17 15 14 14 15 13 12 11 11 11 12 12 9 0 0 0 0 0 0 0 0 0 0 9 10 12 11 13 15 18 15 17 19 18 21 23 24 25 26 27 26 27 28 28 27 27 26 26 26 30 28 30 34 33 33 34 34 34 33 33 32 29 31 34 35 35 39 43 43 43 44 44 43 44 45 45 42 42 45 44 -193 -193 42 46 46 50 55 57 58 59 60 59 64 62 62 65 63 66 64 64 65 62 65 67 64 69 67 71 82 98 106 106 108 110 108 120 -209 -209 -193 85 85 83 82 79 86 72 -209 -209 -209 125 125 131 128 130 128 126 125 124 125 125 123 125 -209 -193 -209 -209 140 143 142 143 142 140 142 139 142 140 139 139 142 147 150 -209 -193 116 116 115 -193 115 115 -209 -209 0 0 0 0 0
    0 0 0 0 0 0 0 0 0 0 0 0 0 0 0 0 0 0 0 0 0 0 0 0 0 0 0 0 0 0 0 0 0 0 0 0 0 0 0 0 0 0 0 0 0 0 0 0 0 0 0 0 0 0 0 0 0 0 0 0 0 0 0 0 0 0 0 0 0 74 74 73 71 71 68 68 66 64 63 62 61 61 59 59 59 58 58 56 55 54 52 51 51 48 48 47 46 44 42 43 42 41 40 -193 -193 36 36 32 32 32 32 32 32 32 31 31 32 32 31 30 28 27 26 25 23 23 21 21 21 21 21 20 21 20 18 20 20 20 22 23 21 21 21 20 21 18 15 14 15 13 12 12 12 12 13 14 11 -225 -225 -225 0 0 0 0 0 0 0 9 10 13 13 14 17 19 16 18 19 19 21 23 24 25 26 27 26 27 27 28 26 26 26 26 27 31 31 32 35 35 35 36 36 36 34 35 33 31 32 35 35 36 38 42 43 43 44 44 44 44 46 46 43 43 44 43 -193 -209 -193 43 44 50 56 57 58 59 60 59 66 62 63 65 63 66 64 64 65 62 66 67 64 69 67 73 -177 101 106 106 108 110 109 120 130 137 -209 -193 87 86 86 82 88 -193 -209 -209 -209 126 126 131 127 129 127 125 -193 124 124 124 123 125 -209 -193 -209 -193 140 143 144 145 142 140 142 140 141 139 138 138 141 147 151 154 150 -193 -193 160 -193 -193 -209 -209 -209 0 0 0 0 0
    0 0 0 0 0 0 0 0 0 0 0 0 0 0 0 0 0 0 0 0 0 0 0 0 0 0 0 0 0 0 0 0 0 0 0 0 0 0 0 0 0 0 0 0 0 0 0 0 0 0 0 0 0 0 0 0 0 0 0 0 0 0 0 0 0 0 0 0 0 74 74 73 71 70 67 66 64 62 63 62 61 60 59 59 58 57 57 56 54 54 52 52 51 48 49 47 46 44 42 43 41 41 40 -193 -193 36 -193 -193 32 32 31 32 32 32 31 32 32 32 31 30 29 28 27 27 25 25 23 23 22 22 22 22 21 20 17 20 21 22 24 25 23 23 23 22 23 20 16 14 15 13 13 13 13 14 16 17 -225 -225 -225 -225 -225 -225 -225 -225 -225 -225 -225 10 11 11 11 10 15 17 15 15 19 19 21 23 24 24 26 26 26 27 27 27 26 26 26 26 27 30 30 32 35 35 36 36 37 37 36 35 33 33 33 36 36 37 38 42 42 43 44 43 43 43 45 45 41 41 42 41 -193 -209 -209 31 40 50 57 57 58 59 60 60 67 62 62 65 64 66 65 64 65 62 66 67 65 69 -193 -193 90 104 106 107 109 112 111 121 126 134 -209 -209 93 94 94 -209 93 -209 -209 -209 -209 -209 124 130 126 128 126 125 124 124 125 125 123 126 88 -209 -209 138 140 143 144 145 142 140 141 139 140 139 138 138 142 149 153 155 153 154 156 158 159 157 -193 -209 -209 0 0 0 0 0
    0 0 0 0 0 0 0 0 0 0 0 0 0 0 0 0 0 0 0 0 0 0 0 0 0 0 0 0 0 0 0 0 0 0 0 0 0 0 0 0 0 0 0 0 0 0 0 0 0 0 0 0 0 0 0 0 0 0 0 0 0 0 0 0 0 0 0 0 0 74 74 73 71 70 66 65 62 61 62 62 61 59 59 58 58 56 56 55 54 54 51 52 51 48 49 47 45 44 42 43 41 40 40 -193 37 36 -193 -209 32 32 31 32 32 32 31 32 32 32 31 31 29 29 28 28 27 27 25 24 23 24 24 24 23 23 19 22 23 26 27 28 25 25 25 24 25 22 17 15 14 13 13 14 14 15 17 18 -225 -225 -225 -225 -225 -225 -225 -225 -225 -225 -225 -225 -225 -225 10 9 13 18 15 14 21 20 22 23 24 24 25 26 26 26 27 27 26 26 27 27 27 29 30 32 34 36 36 37 37 37 36 34 32 34 33 37 37 37 38 41 42 42 43 42 42 42 44 44 40 39 39 37 36 29 27 28 38 47 57 57 57 59 60 60 67 63 63 65 64 66 65 65 65 62 66 67 64 -193 -209 -209 90 105 107 109 111 114 114 121 126 129 -209 118 -193 100 100 98 98 97 -193 -209 85 -209 -209 130 124 126 125 124 122 123 124 -193 -209 -193 87 88 -209 139 140 141 142 143 141 140 141 139 141 140 139 140 145 151 155 156 156 156 158 158 158 156 154 154 152 0 0 0 0 0
    0 0 0 0 0 0 0 0 0 0 0 0 0 0 0 0 0 0 0 0 0 0 0 0 0 0 0 0 0 0 0 0 0 0 0 0 0 0 0 0 0 0 0 0 0 0 0 0 0 0 0 0 0 0 0 0 0 0 0 0 0 0 0 0 0 0 0 0 0 74 74 73 71 69 65 65 61 60 62 61 61 59 59 58 58 56 56 55 53 54 51 52 51 47 49 47 45 45 42 43 41 40 40 -193 38 37 -193 -209 32 32 31 32 32 31 31 32 32 32 31 31 30 30 29 29 28 27 26 25 25 25 24 24 24 24 22 24 26 28 29 29 26 26 26 25 26 22 18 15 13 13 13 13 14 14 17 -225 -225 -225 -225 -225 -225 -225 -225 -225 -225 -225 -225 -225 -225 -225 -225 -225 -225 17 15 14 21 21 23 23 24 24 25 26 25 26 26 25 25 25 27 27 28 29 32 33 35 37 37 38 37 38 36 33 32 34 33 36 36 37 37 40 41 41 41 42 41 42 43 44 41 41 41 41 40 38 31 32 38 45 54 54 55 57 57 58 67 62 62 65 64 66 65 65 65 62 66 67 64 -193 -193 -209 89 105 108 110 112 115 116 121 126 126 122 122 -209 -193 101 99 98 101 -209 -209 87 -209 -209 129 123 125 125 -209 115 -193 -209 -193 90 88 87 89 -209 140 141 142 142 143 141 140 142 140 142 141 140 142 148 153 156 157 157 156 158 158 158 156 154 155 151 0 0 0 0 0
    0 0 0 0 0 0 0 0 0 0 0 0 0 0 0 0 0 0 0 0 0 0 0 0 0 0 0 0 0 0 0 0 0 0 0 0 0 0 0 0 0 0 0 0 0 0 0 0 0 0 0 0 0 0 0 0 0 0 0 0 0 0 0 0 0 0 0 0 0 73 71 71 71 69 66 65 60 61 62 62 61 59 58 58 58 55 55 55 53 54 51 52 51 47 49 47 45 45 42 43 41 40 40 -193 38 37 37 -193 33 32 31 32 32 32 31 32 32 32 31 31 31 32 31 32 31 30 30 28 26 26 26 25 25 25 25 25 28 31 31 31 29 28 27 27 27 24 20 17 14 14 14 14 14 14 -225 -225 -225 -225 -225 -225 -225 -225 -225 -225 -225 -225 -225 -225 -225 -225 -225 -225 -225 -225 -225 17 22 21 23 23 24 23 24 24 25 24 25 24 23 23 26 26 28 29 33 35 38 39 39 39 38 39 37 34 32 34 32 36 36 37 36 39 40 40 40 41 41 41 43 43 41 42 43 43 42 42 37 36 39 44 52 53 52 53 55 56 66 61 61 65 64 67 65 65 65 63 66 67 63 -193 -193 -209 -209 -209 108 110 113 116 118 121 123 124 122 122 -193 -193 -193 -209 100 105 -209 -209 -193 -209 -209 -209 124 125 -193 -209 -193 -209 -209 -193 92 89 88 90 -209 -209 -193 139 140 140 139 140 142 141 147 -209 -209 149 -193 160 159 161 159 159 159 159 159 157 154 154 149 0 0 0 0 0
    0 0 0 0 0 0 0 0 0 0 0 0 0 0 0 0 0 0 0 0 0 0 0 0 0 0 0 0 0 0 0 0 0 0 0 0 0 0 0 0 0 0 0 0 0 0 0 0 0 0 0 0 0 0 0 0 0 0 0 0 0 0 0 0 0 0 0 0 0 71 68 68 70 69 66 64 59 61 62 63 61 60 58 58 58 55 55 55 53 0 -256 -1 30559 47 49 47 45 45 42 43 41 40 40 38 38 37 37 33 33 33 32 32 32 32 31 32 32 32 31 32 32 34 34 35 36 35 36 32 29 28 27 26 26 26 26 27 30 32 33 33 30 29 29 29 28 26 23 -225 -225 -225 -225 -225 -225 -225 -225 -225 -225 -225 -225 -225 -225 -225 -225 -225 -225 -225 -225 -225 -225 -225 -225 -225 -225 -225 -225 -225 -225 21 22 23 25 23 26 26 26 25 25 24 23 23 26 26 28 29 35 37 39 39 39 39 39 39 38 35 33 33 32 35 35 35 35 37 38 38 38 39 39 40 42 43 42 43 44 45 45 45 42 41 41 47 52 53 53 54 55 56 66 61 61 65 63 67 65 65 65 63 66 67 63 68 -193 -209 -209 -193 -193 109 112 114 117 119 119 120 118 120 117 101 101 99 100 103 -209 -209 87 -209 -209 -209 -209 -193 -193 92 100 103 102 90 100 94 92 96 101 -193 -209 -209 -209 -209 133 139 142 -209 -209 -209 -209 -209 162 164 162 165 162 162 160 160 160 157 154 -193 144 0 0 0 0 0
    0 0 0 0 0 0 0 0 0 0 0 0 0 0 0 0 0 0 0 0 0 0 0 0 0 0 0 0 0 0 0 0 0 0 0 0 0 0 0 0 0 0 0 0 0 0 0 0 0 0 0 0 0 0 0 0 0 0 0 0 0 0 0 0 0 0 0 0 0 71 68 68 71 69 66 62 59 62 62 63 61 60 58 58 58 55 55 55 53 53 50 51 51 47 49 47 45 45 42 43 41 40 40 38 38 37 37 35 34 34 32 33 32 32 31 32 32 32 31 34 35 37 38 39 39 39 40 37 33 30 28 27 27 27 28 30 33 35 35 35 33 33 33 32 29 28 -225 -225 -225 -225 -225 -225 -225 -225 -225 -225 -225 -225 -225 -225 -225 -225 -225 -225 -225 -225 -225 -225 -225 -225 -225 -225 -225 -225 -225 -225 -225 -225 -225 24 29 27 30 29 29 28 26 27 26 24 28 28 30 31 36 38 40 39 39 39 39 39 38 35 33 33 32 35 34 35 34 36 37 37 37 38 37 40 42 43 43 44 45 46 46 46 44 43 43 50 54 55 55 57 57 58 66 61 62 65 63 67 64 64 65 62 66 66 63 67 -193 76 -193 -193 107 109 114 115 117 119 119 119 117 119 113 102 103 102 100 102 101 90 -193 -209 -209 -209 -209 -209 -209 93 98 101 99 94 99 96 94 99 103 -193 120 -209 -209 -209 126 -193 142 -209 -209 -209 160 159 160 163 162 165 163 163 161 160 159 157 155 -209 -209 0 0 0 0 0
    0 0 0 0 0 0 0 0 0 0 0 0 0 0 0 0 0 0 0 0 0 0 0 0 0 0 0 0 0 0 0 0 0 0 0 0 0 0 0 0 0 0 0 0 0 0 0 0 0 0 0 0 0 0 0 0 0 0 0 0 0 0 0 0 0 0 0 0 0 70 66 64 63 66 63 60 58 62 62 63 61 60 58 58 58 55 54 54 53 53 50 51 50 47 49 47 45 45 42 43 41 40 40 38 38 38 38 36 35 35 32 33 32 32 32 32 33 33 34 37 39 41 42 41 41 41 41 39 37 34 29 29 28 27 30 31 34 35 35 34 34 33 33 31 29 -225 -225 -225 -225 -225 -225 -225 -225 -225 -225 -225 -225 -225 -225 -225 -225 -225 -225 -225 -225 -225 -225 -225 -225 -225 -225 -225 -225 -225 -225 -225 -225 -225 -225 -225 -225 -225 -225 -225 -225 26 23 24 22 23 28 30 31 32 36 38 40 39 38 38 38 38 37 35 34 34 33 37 36 36 35 36 37 37 37 38 38 41 42 43 43 45 45 46 46 46 44 44 43 49 53 54 55 57 58 59 66 62 62 65 63 67 64 64 64 62 66 67 64 -193 -177 -209 -193 -193 109 112 116 116 117 120 120 120 117 118 113 102 102 102 100 102 101 92 -209 -209 -209 -209 -209 -209 -193 93 96 98 97 97 100 97 96 99 103 -193 120 128 -193 -209 -209 142 150 -209 154 158 160 161 159 163 163 166 164 164 162 160 159 157 155 -209 -209 0 0 0 0 0</data></disparity>
</opencv_storage>
