<?xml version="1.0"?>
<opencv_storage>
<gps_time_stamp>315708</gps_time_stamp>
<gps_x>-1.2431012153625488e+001</gps_x>
<gps_y>1.0960979461669922e+001</gps_y>
<gps_z>-1.9958403110504150e+000</gps_z>
<image_time_stamp>306556</image_time_stamp>
<disparity type_id="opencv-matrix">
  <rows>87</rows>
  <cols>320</cols>
  <dt>s</dt>
  <data>
    0 0 0 0 0 0 0 0 0 0 0 0 0 0 0 0 0 0 0 0 0 0 0 0 0 0 0 0 0 0 0 0 0 0 0 0 0 0 0 0 0 0 0 0 0 0 0 0 0 0 0 0 0 0 0 0 0 0 0 0 0 0 0 0 0 0 0 0 0 51 49 51 52 50 47 50 50 47 48 48 48 50 47 49 50 47 49 52 48 48 47 48 47 44 46 47 41 41 38 33 37 37 34 37 34 35 34 34 35 34 34 35 33 35 33 32 32 30 28 27 24 21 16 13 12 12 14 17 19 17 19 19 18 18 18 17 16 13 14 11 10 10 10 10 11 12 12 13 12 13 12 12 11 10 10 10 10 11 11 11 11 12 14 13 13 14 13 14 14 13 13 12 12 11 11 11 10 10 10 10 10 10 10 10 10 10 11 12 20 26 26 31 29 30 33 32 32 34 33 36 35 39 39 43 45 47 -177 47 47 49 49 50 44 -193 92 77 81 79 78 77 74 74 83 77 75 77 -193 82 79 80 83 79 82 81 -193 -193 76 -193 -193 -193 -177 -177 87 -193 -193 92 92 -193 -193 94 99 103 105 105 106 109 -193 -209 -209 122 -193 110 -193 -177 -193 -193 -177 -177 -193 127 134 138 139 142 142 147 145 148 -193 -193 -193 -193 -193 153 156 158 159 157 159 159 159 159 159 154 157 157 157 169 172 178 179 179 179 180 182 186 185 186 186 193 193 192 192 193 192 0 0 0 0 0
    0 0 0 0 0 0 0 0 0 0 0 0 0 0 0 0 0 0 0 0 0 0 0 0 0 0 0 0 0 0 0 0 0 0 0 0 0 0 0 0 0 0 0 0 0 0 0 0 0 0 0 0 0 0 0 0 0 0 0 0 0 0 0 0 0 0 0 0 0 51 50 52 52 50 47 50 50 47 48 48 48 50 47 49 50 47 49 52 48 48 47 48 47 44 46 47 41 42 38 33 37 38 34 37 34 35 34 34 35 34 35 35 33 35 34 32 32 30 28 27 -193 20 15 12 12 12 14 17 19 17 20 19 19 19 18 17 16 13 13 10 10 9 9 9 10 11 12 13 12 13 12 12 11 11 11 11 10 11 12 11 12 12 15 14 14 15 14 14 14 13 13 13 13 12 11 11 11 11 10 10 11 10 10 11 10 11 12 13 20 27 26 31 29 30 33 31 32 33 32 36 34 38 39 42 45 47 -177 -177 48 49 49 50 44 -193 92 78 82 80 78 78 74 74 82 76 74 76 348 82 79 80 83 79 82 81 78 77 76 -193 -193 -193 -177 -177 -193 -193 -193 92 93 -193 -193 -193 100 104 106 105 106 109 -209 -209 -193 122 -209 -209 -193 -177 -193 -177 806 807 -177 128 135 138 140 143 142 147 145 147 -193 -193 -193 -177 -193 153 157 158 160 157 159 159 159 159 159 154 157 157 159 169 172 178 179 179 179 180 182 -193 186 186 186 193 194 192 192 193 192 0 0 0 0 0
    0 0 0 0 0 0 0 0 0 0 0 0 0 0 0 0 0 0 0 0 0 0 0 0 0 0 0 0 0 0 0 0 0 0 0 0 0 0 0 0 0 0 0 0 0 0 0 0 0 0 0 0 0 0 0 0 0 0 0 0 0 0 0 0 0 0 0 0 0 51 50 52 53 51 47 50 50 47 47 48 48 49 47 50 50 47 49 52 48 48 47 48 47 44 47 47 41 42 39 34 37 38 34 37 34 35 34 34 35 34 34 35 33 35 34 32 32 30 28 -193 -193 20 15 12 12 13 15 17 19 18 20 20 20 19 19 17 15 12 12 10 9 9 9 9 10 11 11 13 12 13 13 13 11 11 11 11 11 12 12 12 12 13 16 14 15 15 15 15 15 13 13 12 13 12 11 11 11 11 10 11 11 10 10 11 10 11 12 13 20 26 26 31 29 29 33 31 32 33 32 36 34 38 39 42 45 48 -177 -177 48 50 50 50 44 -209 92 81 83 81 79 79 75 75 81 76 74 75 348 82 79 80 83 79 82 82 79 78 77 81 -193 -193 -177 -193 -193 -193 92 93 93 204 -193 -193 -193 104 106 106 107 109 108 118 120 121 -193 -209 -193 -177 -177 -177 805 806 -177 128 135 138 140 143 142 147 145 147 -193 -177 -193 -177 -193 153 157 158 160 157 160 159 159 159 159 154 158 158 160 170 172 176 178 178 178 180 182 -209 186 186 187 192 194 192 192 193 191 0 0 0 0 0
    0 0 0 0 0 0 0 0 0 0 0 0 0 0 0 0 0 0 0 0 0 0 0 0 0 0 0 0 0 0 0 0 0 0 0 0 0 0 0 0 0 0 0 0 0 0 0 0 0 0 0 0 0 0 0 0 0 0 0 0 0 0 0 0 0 0 0 0 0 51 50 52 53 51 47 50 50 47 47 48 48 49 47 50 50 47 49 52 49 48 47 48 47 44 46 47 41 42 38 33 37 37 34 37 33 35 34 34 35 34 34 35 32 35 34 32 31 29 28 -193 23 20 16 12 13 13 15 17 20 18 21 20 20 19 18 16 14 12 11 10 9 9 9 9 11 11 11 12 12 13 13 13 12 11 12 11 11 12 12 12 13 14 16 14 16 15 15 16 15 13 13 12 12 12 11 11 10 10 10 11 11 10 10 10 10 12 13 14 19 25 25 30 29 29 32 31 32 33 32 36 34 38 39 43 45 48 -177 -177 48 50 50 50 44 -209 92 83 84 81 80 80 76 76 80 76 74 74 349 81 -193 81 83 80 82 83 81 79 78 -193 -193 -193 -177 -209 -193 90 92 93 94 205 205 -193 -193 -193 107 107 107 109 108 117 120 120 -209 -193 -209 -177 -177 -177 804 805 -177 -193 136 138 -193 142 142 147 145 147 -193 -177 -193 -177 807 153 157 158 160 157 160 159 159 159 159 154 158 159 160 169 172 175 177 177 177 179 182 -209 186 186 187 192 195 192 192 193 191 0 0 0 0 0
    0 0 0 0 0 0 0 0 0 0 0 0 0 0 0 0 0 0 0 0 0 0 0 0 0 0 0 0 0 0 0 0 0 0 0 0 0 0 0 0 0 0 0 0 0 0 0 0 0 0 0 0 0 0 0 0 0 0 0 0 0 0 0 0 0 0 0 0 0 52 51 52 53 51 47 50 49 47 47 48 48 49 47 50 50 47 49 52 49 48 47 48 47 44 46 46 41 40 36 32 36 37 34 36 33 35 34 34 35 34 34 36 32 35 34 32 31 30 28 -193 23 20 16 12 13 14 16 16 20 18 20 19 19 18 17 14 13 11 11 9 9 9 9 9 11 11 11 12 12 13 13 13 12 12 12 12 11 12 12 12 13 14 16 15 17 16 16 17 15 14 14 12 12 12 11 11 10 10 10 10 11 10 10 10 11 12 13 14 19 24 25 29 28 29 32 31 32 33 32 36 35 39 39 -193 45 48 -193 48 48 50 50 50 43 -209 92 84 84 82 81 81 76 77 79 77 74 74 -193 81 -193 81 84 80 82 84 82 80 80 82 -193 -193 -177 -193 -193 89 92 93 94 205 206 -193 -193 -209 -193 108 107 110 109 118 120 120 -193 -193 -209 -177 -177 -177 803 805 -177 -193 135 138 -193 142 142 147 144 147 -193 -177 -193 -177 -177 153 157 158 160 157 159 159 159 159 159 154 157 158 159 168 170 173 176 176 177 180 182 187 187 187 188 192 195 192 192 193 191 0 0 0 0 0
    0 0 0 0 0 0 0 0 0 0 0 0 0 0 0 0 0 0 0 0 0 0 0 0 0 0 0 0 0 0 0 0 0 0 0 0 0 0 0 0 0 0 0 0 0 0 0 0 0 0 0 0 0 0 0 0 0 0 0 0 0 0 0 0 0 0 0 0 0 52 51 53 53 50 46 49 49 46 47 47 48 48 46 49 50 47 49 52 48 48 47 48 47 44 46 46 40 40 35 32 36 36 33 36 33 34 34 34 34 34 34 36 32 35 34 32 32 30 28 26 22 20 16 12 13 14 16 16 19 18 20 19 18 17 16 13 12 10 10 9 9 9 9 9 10 11 11 12 12 13 13 13 12 12 13 12 12 13 13 13 14 16 18 17 19 18 18 18 17 15 14 12 13 12 12 11 10 11 10 11 11 11 10 11 11 12 13 14 18 23 24 29 28 29 32 31 32 34 33 37 36 40 40 45 45 48 -193 48 47 50 50 50 43 -209 92 84 84 81 81 82 77 78 79 78 75 74 79 80 -193 82 84 81 83 84 83 80 81 83 82 80 -193 -193 -193 -193 -193 -193 94 -193 207 -193 -193 -193 -193 108 107 111 110 118 120 120 119 -193 -209 -177 -177 -177 803 805 807 -193 135 -193 -193 141 141 146 144 147 -193 -177 -193 -193 -209 154 157 157 159 156 159 158 158 158 158 154 157 159 158 167 169 170 175 174 176 178 182 186 187 186 187 190 195 192 192 192 191 0 0 0 0 0
    0 0 0 0 0 0 0 0 0 0 0 0 0 0 0 0 0 0 0 0 0 0 0 0 0 0 0 0 0 0 0 0 0 0 0 0 0 0 0 0 0 0 0 0 0 0 0 0 0 0 0 0 0 0 0 0 0 0 0 0 0 0 0 0 0 0 0 0 0 52 51 53 53 50 46 49 49 46 47 47 48 48 46 49 49 47 49 51 48 48 47 48 47 44 46 46 40 40 36 32 36 36 33 36 33 34 33 34 34 33 34 36 32 34 33 31 31 29 27 26 22 20 17 13 14 14 15 16 18 18 20 17 18 16 15 13 12 11 10 10 10 9 9 9 11 11 11 11 11 12 13 13 12 12 13 13 12 13 14 14 15 18 19 18 20 19 19 19 19 15 15 13 13 12 12 11 10 10 10 11 11 11 11 11 11 12 14 14 17 23 24 28 28 28 32 32 33 34 33 37 37 41 41 46 45 48 48 48 47 49 50 50 43 -209 93 85 84 81 81 82 77 78 78 79 75 74 80 80 80 82 84 81 83 84 83 -193 -193 83 82 80 -193 -193 -177 -193 -193 -193 94 -193 -193 -193 -193 -193 -193 108 107 111 111 119 120 120 120 -209 -193 -209 -193 -177 -177 -177 -177 -193 134 -193 -177 -193 140 145 144 147 -177 -177 -193 -209 153 154 157 157 159 156 158 158 158 159 159 154 158 162 161 169 170 171 176 175 175 177 180 184 186 185 186 188 195 191 191 192 191 0 0 0 0 0
    0 0 0 0 0 0 0 0 0 0 0 0 0 0 0 0 0 0 0 0 0 0 0 0 0 0 0 0 0 0 0 0 0 0 0 0 0 0 0 0 0 0 0 0 0 0 0 0 0 0 0 0 0 0 0 0 0 0 0 0 0 0 0 0 0 0 0 0 0 52 50 52 53 49 46 49 49 46 47 47 48 47 46 49 49 46 48 51 48 48 47 48 47 44 46 46 40 40 36 33 36 36 33 36 33 34 33 33 34 33 33 35 31 33 33 30 30 29 27 25 22 20 17 14 15 15 17 18 21 20 21 18 19 17 16 13 12 11 11 10 11 10 10 10 11 11 11 11 11 11 12 12 11 11 13 12 12 13 15 15 17 19 19 19 21 20 19 19 19 16 16 13 13 13 12 12 11 10 10 10 10 11 10 11 11 12 14 14 16 22 24 28 28 29 33 33 34 35 35 38 39 42 43 48 45 48 48 48 48 49 51 50 43 -209 93 84 84 81 81 82 77 78 78 80 75 75 80 80 81 83 85 82 83 84 84 -193 -193 83 82 80 -193 -193 -177 -193 91 -193 95 -193 -193 -193 -193 -193 -193 108 106 111 112 119 120 120 120 -209 -193 -209 -209 -193 -193 -177 -177 129 134 -193 -177 -193 140 144 145 148 -177 -177 -193 -193 155 155 158 157 159 156 158 158 158 158 158 154 159 163 162 168 170 171 177 175 176 178 181 184 186 185 186 187 195 191 191 192 191 0 0 0 0 0
    0 0 0 0 0 0 0 0 0 0 0 0 0 0 0 0 0 0 0 0 0 0 0 0 0 0 0 0 0 0 0 0 0 0 0 0 0 0 0 0 0 0 0 0 0 0 0 0 0 0 0 0 0 0 0 0 0 0 0 0 0 0 0 0 0 0 0 0 0 51 50 51 52 48 46 49 49 46 47 47 48 47 46 49 49 46 48 51 48 48 47 48 47 44 46 46 40 39 36 33 36 36 33 35 33 34 33 33 33 33 33 35 31 33 33 30 30 29 27 25 21 20 18 15 17 17 18 21 22 23 22 19 19 16 16 12 11 11 10 11 11 10 10 10 11 11 11 11 11 10 11 12 11 11 13 12 12 14 16 15 18 19 19 19 21 20 19 19 20 16 17 14 14 13 12 12 11 10 10 10 10 10 9 10 10 11 13 13 15 21 -193 -193 28 29 34 34 35 36 36 39 41 43 44 49 46 49 49 49 48 48 51 51 43 -209 93 84 82 79 79 81 76 77 76 80 76 75 81 81 82 84 85 83 83 85 84 -177 -193 83 82 80 -193 -193 -193 -193 92 -193 -193 -193 -193 -193 -193 -193 -193 107 106 110 110 118 120 120 120 -209 -193 -193 -209 -193 -193 -193 -193 130 135 -193 -177 -177 139 143 145 -193 -177 -177 -193 155 156 156 159 157 158 155 157 157 157 158 158 154 158 162 161 166 169 169 175 173 175 177 180 184 186 185 186 187 196 192 192 192 191 0 0 0 0 0
    0 0 0 0 0 0 0 0 0 0 0 0 0 0 0 0 0 0 0 0 0 0 0 0 0 0 0 0 0 0 0 0 0 0 0 0 0 0 0 0 0 0 0 0 0 0 0 0 0 0 0 0 0 0 0 0 0 0 0 0 0 0 0 0 0 0 0 0 0 51 49 51 52 48 46 50 49 46 47 47 48 47 46 48 49 46 48 51 48 48 47 48 47 44 46 46 40 39 36 34 36 36 33 35 33 34 33 33 33 33 33 35 31 33 33 31 31 29 27 25 22 20 19 17 19 19 20 23 24 24 23 20 19 17 16 12 11 10 10 10 11 10 10 9 10 10 10 10 10 9 10 10 11 11 12 12 12 15 16 16 19 19 20 20 21 20 19 19 20 16 17 14 14 14 12 12 11 10 10 10 9 10 9 10 9 11 12 12 14 20 -193 -193 28 30 34 35 35 37 36 39 42 43 45 50 46 50 50 50 49 48 51 50 44 -209 93 82 79 77 78 80 75 76 76 81 77 76 82 81 83 85 86 84 84 85 85 -193 -193 84 83 81 86 87 -193 90 92 -193 -193 -193 -193 -193 -193 -193 -193 107 105 109 109 117 119 120 121 121 -193 121 124 125 128 129 128 131 135 135 -177 -177 138 141 -193 -209 -177 -177 154 156 157 157 159 156 157 155 156 156 156 156 157 153 157 162 159 164 166 168 171 170 172 174 178 183 185 185 186 186 195 191 192 192 191 0 0 0 0 0
    0 0 0 0 0 0 0 0 0 0 0 0 0 0 0 0 0 0 0 0 0 0 0 0 0 0 0 0 0 0 0 0 0 0 0 0 0 0 0 0 0 0 0 0 0 0 0 0 0 0 0 0 0 0 0 0 0 0 0 0 0 0 0 0 0 0 0 0 0 51 49 51 52 48 46 49 49 46 47 47 48 46 45 48 49 46 49 51 48 48 48 48 47 44 46 46 40 39 37 34 36 36 34 35 33 34 33 33 34 33 33 35 32 34 33 32 32 30 28 26 24 22 22 21 22 22 23 25 27 26 25 22 21 18 18 13 11 10 10 10 10 10 10 10 10 11 11 10 10 10 10 10 10 10 12 11 11 14 15 16 19 20 20 20 21 21 19 19 19 16 16 15 14 14 12 12 11 9 9 9 9 10 9 10 9 10 12 11 12 19 21 28 28 29 34 36 36 37 37 39 43 44 46 51 46 50 51 51 50 49 51 51 45 -193 94 75 76 76 78 80 75 76 76 82 77 77 82 82 84 85 86 84 84 85 85 -193 86 84 83 81 86 87 90 90 92 -209 -193 -209 -193 -193 -193 -193 -193 107 105 108 108 114 118 119 121 122 121 122 125 126 130 131 130 132 135 135 -193 -177 138 -193 -193 -193 -177 -177 -193 156 157 157 159 155 156 154 154 155 155 155 155 153 156 160 158 162 166 168 170 170 172 174 178 182 185 185 186 186 195 191 191 192 192 0 0 0 0 0
    0 0 0 0 0 0 0 0 0 0 0 0 0 0 0 0 0 0 0 0 0 0 0 0 0 0 0 0 0 0 0 0 0 0 0 0 0 0 0 0 0 0 0 0 0 0 0 0 0 0 0 0 0 0 0 0 0 0 0 0 0 0 0 0 0 0 0 0 0 51 48 50 52 48 46 49 49 46 47 47 48 46 45 48 49 46 49 51 48 47 47 48 47 44 46 45 40 40 37 35 37 36 35 35 34 34 33 33 34 33 34 35 32 34 34 32 33 31 29 27 25 23 23 23 25 25 24 32 30 31 27 24 23 19 18 13 11 10 10 10 10 10 10 10 11 11 11 11 11 11 10 10 11 10 12 12 12 15 17 18 20 20 21 21 21 21 20 20 20 16 17 16 14 14 12 13 11 9 9 9 9 10 9 10 9 10 12 12 12 18 21 27 28 30 34 36 37 38 38 40 43 44 46 51 46 49 50 50 50 49 51 51 46 54 -177 69 72 74 76 80 75 76 75 82 77 77 82 82 84 86 -193 -193 85 85 85 158 86 85 83 81 86 87 90 90 93 -193 -193 -209 105 -193 -209 107 107 108 106 109 109 114 118 120 122 122 122 122 126 127 131 133 132 133 136 135 -193 -177 138 -193 -193 -177 -177 -177 -193 156 157 157 159 155 155 153 153 153 153 154 154 151 155 159 157 162 167 168 171 169 172 173 178 182 186 185 186 186 195 191 192 192 192 0 0 0 0 0
    0 0 0 0 0 0 0 0 0 0 0 0 0 0 0 0 0 0 0 0 0 0 0 0 0 0 0 0 0 0 0 0 0 0 0 0 0 0 0 0 0 0 0 0 0 0 0 0 0 0 0 0 0 0 0 0 0 0 0 0 0 0 0 0 0 0 0 0 0 51 48 50 52 47 46 49 49 46 47 47 48 46 45 48 48 46 48 50 47 47 47 47 46 44 46 45 41 40 39 37 38 37 36 37 35 35 34 34 35 34 34 35 33 34 34 34 34 33 30 28 27 25 25 24 32 31 31 38 34 34 32 28 26 21 20 13 11 10 9 10 10 10 10 10 11 11 12 12 12 12 11 12 13 12 14 14 14 18 19 19 21 20 21 21 21 21 19 19 20 17 17 17 15 14 12 13 11 9 0 9 9 9 9 10 9 10 12 12 12 19 21 28 29 31 34 36 37 38 38 39 43 43 45 50 46 49 50 50 50 49 51 51 47 54 -193 63 66 71 74 78 74 74 74 81 77 77 82 82 84 86 -193 -193 85 85 85 158 86 84 83 81 85 85 90 90 93 100 98 -209 106 106 -209 107 108 109 107 111 113 116 119 121 122 123 123 123 126 127 131 133 131 133 136 135 -193 -177 -193 -193 -193 -177 -177 -177 -193 156 158 158 159 154 155 153 153 153 153 153 153 151 155 159 157 163 169 170 173 171 175 174 178 182 186 185 186 186 195 191 191 192 192 0 0 0 0 0
    0 0 0 0 0 0 0 0 0 0 0 0 0 0 0 0 0 0 0 0 0 0 0 0 0 0 0 0 0 0 0 0 0 0 0 0 0 0 0 0 0 0 0 0 0 0 0 0 0 0 0 0 0 0 0 0 0 0 0 0 0 0 0 0 0 0 0 0 0 51 48 50 51 48 46 49 49 46 47 47 48 46 45 48 48 46 49 50 47 47 47 47 46 44 45 44 41 42 40 39 39 39 38 38 37 36 35 34 35 35 35 36 35 35 35 35 36 35 33 31 30 28 29 31 39 40 40 41 38 39 38 36 31 23 22 15 11 10 9 10 10 10 10 10 11 12 14 13 15 13 13 15 15 14 17 16 18 20 21 21 22 21 22 21 21 21 19 19 20 16 17 17 15 14 12 13 11 9 0 9 9 9 9 10 9 10 12 12 11 19 22 29 30 32 34 37 37 38 38 38 42 42 44 49 45 49 49 50 50 50 51 51 48 53 52 59 58 66 72 75 73 74 74 81 77 77 83 82 84 85 86 85 84 85 85 -193 86 84 83 81 84 85 90 90 94 100 99 -209 106 106 -193 108 110 110 109 113 116 118 119 121 122 122 123 123 126 127 130 133 131 133 136 134 -193 -177 -193 -193 -193 -177 -177 -177 -193 157 158 158 159 154 154 153 153 153 153 154 154 153 155 160 159 163 169 170 173 171 174 174 177 182 185 185 185 185 195 191 191 192 192 0 0 0 0 0
    0 0 0 0 0 0 0 0 0 0 0 0 0 0 0 0 0 0 0 0 0 0 0 0 0 0 0 0 0 0 0 0 0 0 0 0 0 0 0 0 0 0 0 0 0 0 0 0 0 0 0 0 0 0 0 0 0 0 0 0 0 0 0 0 0 0 0 0 0 51 48 50 51 48 47 49 49 46 47 47 48 46 45 48 48 46 49 50 47 46 46 46 45 44 45 44 42 42 42 40 41 41 39 39 38 37 36 36 36 36 36 36 36 36 36 37 38 38 36 36 37 37 38 41 41 43 42 43 40 41 41 39 38 -209 -209 16 12 10 9 10 10 10 10 11 12 13 15 14 16 14 14 17 16 15 19 17 19 21 22 21 22 21 22 21 21 21 19 19 19 16 17 17 15 14 12 12 11 8 0 9 9 9 9 10 9 10 12 12 11 18 23 30 31 33 34 37 37 38 38 38 42 42 43 49 45 48 49 50 50 50 51 52 48 54 53 59 58 63 71 73 73 73 74 81 77 77 83 81 83 85 86 84 84 85 85 83 86 84 84 82 85 85 90 92 95 101 100 -193 107 107 -193 109 111 112 111 115 117 119 120 122 123 123 123 123 126 127 130 133 132 134 137 134 135 -193 -193 -193 -193 -177 -177 -177 154 157 158 158 159 155 155 153 153 154 154 154 155 154 155 161 160 163 169 170 171 170 173 172 176 182 187 185 186 186 195 192 192 192 192 0 0 0 0 0
    0 0 0 0 0 0 0 0 0 0 0 0 0 0 0 0 0 0 0 0 0 0 0 0 0 0 0 0 0 0 0 0 0 0 0 0 0 0 0 0 0 0 0 0 0 0 0 0 0 0 0 0 0 0 0 0 0 0 0 0 0 0 0 0 0 0 0 0 0 50 48 49 50 48 47 49 49 46 47 47 48 46 45 48 48 46 49 50 47 46 46 46 45 44 44 44 43 42 42 41 42 42 41 40 40 38 38 38 38 38 38 38 39 39 39 41 42 42 41 41 42 43 43 45 43 46 43 46 42 43 42 41 41 -209 -193 18 12 10 9 10 10 10 10 11 12 13 17 17 20 18 18 20 19 20 22 20 21 22 22 22 23 21 21 20 21 21 18 19 18 15 16 17 14 14 12 12 11 9 0 10 9 9 9 9 9 9 11 12 10 17 24 31 31 34 34 37 37 37 38 38 42 42 43 49 46 49 50 50 50 50 52 52 48 53 52 57 57 59 67 70 71 72 74 81 77 77 82 81 83 84 85 84 84 84 84 83 86 84 84 83 85 86 91 93 96 102 101 106 -193 108 108 110 112 113 112 116 118 119 121 122 124 123 124 124 126 127 130 132 131 133 137 134 134 134 136 138 -177 -177 -177 -177 -193 156 158 158 159 155 155 154 154 154 155 155 155 155 155 160 160 161 168 170 169 168 172 171 174 182 191 187 187 187 196 193 193 193 193 0 0 0 0 0
    0 0 0 0 0 0 0 0 0 0 0 0 0 0 0 0 0 0 0 0 0 0 0 0 0 0 0 0 0 0 0 0 0 0 0 0 0 0 0 0 0 0 0 0 0 0 0 0 0 0 0 0 0 0 0 0 0 0 0 0 0 0 0 0 0 0 0 0 0 51 48 49 50 48 47 49 49 46 47 47 48 46 46 48 48 46 48 49 47 46 45 45 45 44 44 44 43 42 42 42 42 42 42 41 41 40 41 41 41 41 40 40 41 41 40 41 41 42 40 41 42 42 42 44 43 47 44 46 43 44 43 42 42 42 39 -209 15 9 9 10 9 10 10 11 13 13 19 18 21 20 19 21 20 19 22 20 21 21 21 21 22 21 21 20 20 20 17 19 18 14 15 16 14 14 11 12 11 9 0 10 9 9 9 10 9 9 11 12 10 18 24 31 31 33 34 36 36 37 37 37 41 42 43 50 47 50 50 51 51 51 51 52 48 53 52 56 55 57 62 65 68 71 73 79 77 77 82 80 83 84 84 84 84 84 84 83 85 84 84 84 86 86 92 96 98 103 103 108 109 109 109 111 113 113 114 116 118 120 121 123 124 124 124 124 126 128 130 132 130 133 138 133 133 133 135 138 -177 -177 -177 -177 -193 156 158 158 158 155 155 154 154 155 155 155 156 156 155 159 158 159 168 169 167 167 172 170 172 182 194 187 188 188 196 193 193 194 194 0 0 0 0 0
    0 0 0 0 0 0 0 0 0 0 0 0 0 0 0 0 0 0 0 0 0 0 0 0 0 0 0 0 0 0 0 0 0 0 0 0 0 0 0 0 0 0 0 0 0 0 0 0 0 0 0 0 0 0 0 0 0 0 0 0 0 0 0 0 0 0 0 0 0 51 48 50 50 48 47 49 49 47 47 48 49 47 46 49 48 46 48 48 47 45 45 45 45 44 44 44 44 43 43 42 43 44 43 43 42 41 42 42 42 42 42 41 41 41 40 41 41 42 41 40 42 42 43 44 45 48 44 47 44 45 44 43 43 42 41 38 23 10 9 9 9 10 11 12 13 14 19 18 20 20 19 20 19 19 21 20 20 21 21 21 22 21 21 20 19 20 17 18 16 13 14 15 13 13 11 11 11 9 0 10 9 9 9 10 10 9 12 14 12 20 26 31 30 32 33 35 35 36 37 37 40 42 43 50 47 50 51 51 51 51 51 52 48 53 51 55 53 55 59 61 62 70 73 79 76 76 81 80 82 84 84 84 84 84 85 84 86 85 85 86 87 88 94 100 101 104 104 108 110 111 -193 -193 -193 -193 -193 -193 -193 120 121 123 125 124 125 124 126 128 129 132 129 132 138 133 133 132 134 138 -177 18 18 -177 -177 156 157 158 158 155 -177 155 155 156 156 156 156 156 155 159 158 160 169 169 168 168 173 170 173 182 -193 188 188 188 196 193 193 194 194 0 0 0 0 0
    0 0 0 0 0 0 0 0 0 0 0 0 0 0 0 0 0 0 0 0 0 0 0 0 0 0 0 0 0 0 0 0 0 0 0 0 0 0 0 0 0 0 0 0 0 0 0 0 0 0 0 0 0 0 0 0 0 0 0 0 0 0 0 0 0 0 0 0 0 51 48 50 50 48 47 49 48 47 47 48 49 47 46 49 47 46 47 47 47 45 45 45 44 44 45 44 45 43 44 43 44 45 44 44 43 42 43 43 43 43 42 42 42 42 41 41 42 42 42 42 43 43 44 45 47 50 46 49 45 45 45 44 43 43 41 39 29 13 9 9 10 11 11 13 14 15 19 19 21 20 19 20 20 20 21 21 20 21 20 21 22 21 20 19 19 20 17 19 16 12 13 13 12 12 11 10 10 0 0 9 9 9 9 10 10 10 13 17 15 22 27 31 31 32 33 35 36 36 37 37 40 42 43 50 47 50 51 52 52 52 52 52 48 54 52 55 52 55 57 58 59 68 73 77 76 75 80 79 82 84 84 84 85 85 85 84 86 85 85 86 87 89 96 102 103 106 105 109 -193 113 -193 -193 -193 46 47 -177 -193 -193 -177 123 125 124 125 124 126 127 128 131 128 131 138 132 132 132 133 137 -177 18 18 -177 -177 156 157 158 158 156 -177 156 155 156 157 157 157 157 154 159 159 -193 170 171 172 175 179 175 173 182 -193 189 189 189 197 194 194 194 194 0 0 0 0 0
    0 0 0 0 0 0 0 0 0 0 0 0 0 0 0 0 0 0 0 0 0 0 0 0 0 0 0 0 0 0 0 0 0 0 0 0 0 0 0 0 0 0 0 0 0 0 0 0 0 0 0 0 0 0 0 0 0 0 0 0 0 0 0 0 0 0 0 0 0 51 48 50 49 48 47 48 48 47 47 48 49 47 46 49 46 46 46 47 46 45 45 44 44 44 44 44 45 44 44 44 45 45 44 44 44 42 43 44 43 43 42 42 42 42 41 42 41 42 42 42 43 43 44 46 48 51 47 50 46 46 46 44 43 43 41 41 34 21 10 11 11 11 12 13 15 16 20 20 21 21 20 20 20 20 22 21 21 21 20 21 22 21 20 19 19 19 17 18 16 12 13 13 12 11 11 10 10 0 0 9 9 9 9 10 11 11 14 19 20 23 26 30 30 32 32 35 36 36 37 37 40 41 43 49 47 49 50 51 52 52 51 52 47 53 51 54 52 54 56 56 56 64 72 76 75 74 80 79 81 84 84 84 84 84 84 83 86 84 84 86 83 -209 95 102 103 105 -193 -193 -193 -193 -193 -193 47 46 46 47 46 -177 -193 -177 -177 124 125 124 125 127 127 130 126 129 137 132 132 132 134 -193 -177 18 17 -177 -177 156 158 158 158 157 -177 156 156 157 158 158 158 159 155 161 161 -193 170 171 173 178 179 179 177 182 193 189 189 189 197 195 194 194 194 0 0 0 0 0
    0 0 0 0 0 0 0 0 0 0 0 0 0 0 0 0 0 0 0 0 0 0 0 0 0 0 0 0 0 0 0 0 0 0 0 0 0 0 0 0 0 0 0 0 0 0 0 0 0 0 0 0 0 0 0 0 0 0 0 0 0 0 0 0 0 0 0 0 0 51 48 50 49 48 48 49 48 48 47 47 49 47 46 48 46 45 45 46 46 44 44 44 44 44 44 45 46 44 44 44 46 46 45 44 44 42 43 44 43 43 42 41 42 42 41 42 41 42 42 43 43 44 45 47 48 50 47 49 47 47 46 44 43 43 41 41 37 26 18 14 14 13 14 15 15 17 20 20 20 20 20 20 20 20 21 20 21 21 20 21 22 20 20 18 19 19 16 17 16 12 13 14 13 12 11 11 11 10 9 10 10 10 10 11 12 13 15 20 23 24 26 30 29 31 32 34 35 34 36 37 39 41 42 50 47 49 51 52 52 52 51 52 47 54 53 54 52 54 54 54 55 62 71 74 74 74 80 79 81 83 83 83 84 84 84 82 84 83 82 84 -193 -193 -193 97 100 103 -193 49 48 -193 48 46 47 46 46 46 46 -177 -193 -177 -177 124 125 124 124 126 126 128 125 128 136 132 132 132 134 -193 -177 17 17 -177 -177 156 158 158 158 157 -177 157 157 158 159 159 159 160 156 162 163 -193 -193 -193 172 174 177 179 179 182 190 188 188 188 196 194 193 194 194 0 0 0 0 0
    0 0 0 0 0 0 0 0 0 0 0 0 0 0 0 0 0 0 0 0 0 0 0 0 0 0 0 0 0 0 0 0 0 0 0 0 0 0 0 0 0 0 0 0 0 0 0 0 0 0 0 0 0 0 0 0 0 0 0 0 0 0 0 0 0 0 0 0 0 51 48 50 48 48 48 49 49 48 47 48 49 47 46 48 45 45 44 46 47 45 45 45 45 45 45 46 47 44 44 44 45 45 44 44 43 40 42 44 43 42 41 42 45 45 43 45 47 46 47 47 46 45 45 47 48 49 46 48 46 46 45 44 43 42 41 42 38 29 24 19 18 15 16 18 17 19 21 20 20 20 20 20 20 20 21 20 21 21 21 21 22 20 20 18 18 18 16 15 15 12 13 13 13 12 12 12 12 11 10 11 11 11 11 12 13 13 15 20 24 24 25 29 29 30 32 34 35 35 37 37 40 42 44 52 48 50 52 52 52 51 50 51 46 52 51 51 49 54 51 51 55 63 73 73 74 73 80 78 80 82 82 82 83 83 83 81 83 82 80 83 -193 -193 -193 -193 95 99 -193 51 49 49 49 46 47 45 46 46 -193 -193 -193 -177 125 124 125 124 125 126 126 128 126 130 136 132 132 132 134 140 -177 17 16 -177 -193 157 158 158 158 158 -177 158 157 159 160 160 160 160 156 163 163 -193 -209 -193 171 174 177 180 180 183 190 188 188 189 195 195 193 194 194 0 0 0 0 0
    0 0 0 0 0 0 0 0 0 0 0 0 0 0 0 0 0 0 0 0 0 0 0 0 0 0 0 0 0 0 0 0 0 0 0 0 0 0 0 0 0 0 0 0 0 0 0 0 0 0 0 0 0 0 0 0 0 0 0 0 0 0 0 0 0 0 0 0 0 50 48 50 48 48 48 49 49 49 48 48 49 47 46 47 46 45 44 45 46 45 46 45 45 45 45 47 47 45 45 45 46 45 44 44 42 40 42 43 41 40 40 46 50 53 48 51 53 51 51 51 51 48 46 49 48 49 46 48 46 46 45 43 43 42 40 41 37 32 26 22 19 16 17 18 17 18 20 19 19 21 20 19 20 20 21 20 20 21 20 21 21 19 19 17 17 18 16 15 15 12 13 13 13 13 13 13 13 13 13 13 13 12 12 12 13 12 13 17 23 23 24 27 29 29 31 33 35 35 37 38 41 43 46 53 49 50 52 52 52 51 50 50 45 52 52 49 49 53 54 53 55 64 72 72 72 72 78 78 79 82 81 82 84 83 83 81 84 83 80 83 48 52 51 -209 -193 -193 -193 51 50 -193 -193 -193 -193 -193 45 45 -193 -193 120 -177 125 125 125 124 125 127 128 129 127 130 136 132 132 132 134 140 -177 -177 -177 -177 -193 157 159 159 159 159 159 159 157 160 160 160 160 161 156 164 165 -193 -209 -209 172 175 178 180 181 183 192 189 189 190 196 196 194 195 195 0 0 0 0 0
    0 0 0 0 0 0 0 0 0 0 0 0 0 0 0 0 0 0 0 0 0 0 0 0 0 0 0 0 0 0 0 0 0 0 0 0 0 0 0 0 0 0 0 0 0 0 0 0 0 0 0 0 0 0 0 0 0 0 0 0 0 0 0 0 0 0 0 0 0 50 47 50 48 48 49 49 49 49 48 48 49 47 46 46 45 44 43 44 45 45 46 45 45 45 46 49 47 46 45 45 46 45 45 44 42 40 42 42 40 40 44 48 54 56 53 54 54 53 53 53 52 49 47 49 49 50 47 49 47 46 46 43 43 42 40 41 38 36 28 25 21 19 20 20 19 20 21 20 20 22 20 20 20 21 20 20 20 21 20 20 21 19 19 18 18 19 18 16 17 14 15 14 14 15 14 15 16 14 15 14 15 15 14 13 13 12 13 16 22 22 23 25 28 29 31 32 34 33 37 38 40 42 44 53 49 50 52 52 52 51 50 50 45 51 50 47 47 50 52 53 56 64 71 70 70 71 77 77 77 80 80 81 84 83 83 81 82 83 80 83 -209 54 54 -209 -193 -193 -193 -193 -193 104 107 107 108 110 115 117 117 116 115 120 123 125 125 124 125 126 129 130 129 132 136 133 133 133 135 141 -177 -177 -177 -177 -193 158 159 159 159 159 159 159 157 160 160 160 160 161 156 164 165 -193 -193 -193 173 177 178 180 181 183 190 189 189 190 196 197 194 195 195 0 0 0 0 0
    0 0 0 0 0 0 0 0 0 0 0 0 0 0 0 0 0 0 0 0 0 0 0 0 0 0 0 0 0 0 0 0 0 0 0 0 0 0 0 0 0 0 0 0 0 0 0 0 0 0 0 0 0 0 0 0 0 0 0 0 0 0 0 0 0 0 0 0 0 50 47 50 48 48 49 50 50 50 49 48 49 47 45 46 44 43 42 43 44 44 46 45 46 45 46 50 47 47 46 46 46 46 46 44 41 40 41 40 39 40 44 47 55 56 54 55 54 53 54 54 53 50 49 50 50 51 48 49 46 45 45 42 42 40 39 40 36 35 30 27 22 22 22 20 20 22 21 21 20 21 20 19 20 20 19 20 19 20 19 20 20 19 19 18 18 19 19 17 19 17 17 17 17 18 18 17 18 16 17 15 16 16 15 13 13 11 13 15 22 22 22 24 27 29 31 32 34 34 38 38 40 41 43 52 48 49 52 51 51 51 50 50 46 51 51 47 49 52 52 55 56 66 71 68 69 71 76 77 77 79 80 81 84 84 84 81 82 84 82 83 -209 55 54 -209 94 -193 -193 -193 -193 103 106 107 108 110 113 116 116 112 112 115 120 -209 -209 -209 121 123 127 129 128 132 136 133 133 134 136 142 -177 -177 -177 -177 156 158 160 160 159 160 159 159 157 160 160 160 160 161 156 164 165 -193 -209 -193 173 177 179 181 182 183 189 189 189 190 195 197 194 195 195 0 0 0 0 0
    0 0 0 0 0 0 0 0 0 0 0 0 0 0 0 0 0 0 0 0 0 0 0 0 0 0 0 0 0 0 0 0 0 0 0 0 0 0 0 0 0 0 0 0 0 0 0 0 0 0 0 0 0 0 0 0 0 0 0 0 0 0 0 0 0 0 0 0 0 50 47 50 47 48 51 51 51 51 50 49 50 47 45 45 44 43 42 43 43 44 45 45 46 45 46 50 47 47 47 46 46 46 46 45 41 41 41 40 40 40 44 47 54 57 55 56 54 54 54 54 54 51 50 52 52 51 49 50 47 46 46 43 42 40 40 40 37 36 33 29 24 23 22 20 20 22 21 21 20 21 20 20 20 20 20 20 20 20 20 20 20 20 19 18 19 19 20 18 20 19 19 19 19 20 20 19 20 17 18 16 16 16 16 14 13 11 13 16 22 22 22 24 27 29 31 32 34 34 38 39 40 41 42 51 47 48 51 51 50 51 50 50 46 51 51 47 50 53 54 57 58 67 71 68 69 71 76 77 77 78 78 79 83 83 83 80 82 84 82 81 -193 54 54 -209 -193 -193 97 101 104 105 107 107 109 110 114 117 118 115 114 115 -193 -209 -209 -209 117 121 124 126 127 131 135 133 133 134 136 143 -177 -177 -177 -177 157 159 160 160 160 161 160 160 157 160 160 160 160 161 157 165 166 -193 -209 -193 173 177 179 181 182 183 190 191 191 193 196 198 194 195 195 0 0 0 0 0
    0 0 0 0 0 0 0 0 0 0 0 0 0 0 0 0 0 0 0 0 0 0 0 0 0 0 0 0 0 0 0 0 0 0 0 0 0 0 0 0 0 0 0 0 0 0 0 0 0 0 0 0 0 0 0 0 0 0 0 0 0 0 0 0 0 0 0 0 0 50 47 50 47 49 52 51 52 51 50 49 49 46 45 44 43 42 42 43 43 44 45 45 46 45 46 50 47 47 46 45 46 45 46 45 41 42 42 42 41 42 45 46 53 57 55 56 54 54 54 54 54 51 50 52 51 51 49 50 47 47 46 44 42 40 40 41 38 37 34 32 25 24 23 21 21 23 22 21 20 22 21 20 20 20 20 20 20 20 21 20 20 20 20 18 19 19 20 18 20 20 20 19 19 21 22 19 20 17 18 16 16 16 15 13 13 11 13 15 21 21 22 24 26 28 30 31 33 33 38 39 40 40 42 51 46 47 51 50 50 50 50 49 46 50 51 47 51 54 54 57 59 66 71 69 70 72 77 77 77 77 78 77 81 82 81 77 78 80 81 81 77 59 -209 -193 91 97 94 100 105 107 110 108 111 112 116 118 119 117 116 116 116 -209 -209 -209 116 120 123 125 126 131 135 134 134 135 137 143 151 153 153 159 157 159 160 160 160 162 160 160 157 161 161 160 161 162 157 165 167 -193 -209 -193 174 177 179 181 182 183 189 191 191 192 196 199 194 195 195 0 0 0 0 0
    0 0 0 0 0 0 0 0 0 0 0 0 0 0 0 0 0 0 0 0 0 0 0 0 0 0 0 0 0 0 0 0 0 0 0 0 0 0 0 0 0 0 0 0 0 0 0 0 0 0 0 0 0 0 0 0 0 0 0 0 0 0 0 0 0 0 0 0 0 50 47 51 47 48 52 51 51 50 49 48 48 46 45 44 44 42 43 44 43 44 46 46 46 45 46 51 47 48 46 46 46 46 47 46 42 42 42 42 42 41 44 45 52 56 54 56 54 54 54 54 53 51 50 51 50 51 48 50 47 48 47 45 43 41 41 42 39 38 35 35 27 25 25 21 22 24 22 22 21 22 21 21 21 20 20 19 20 20 21 20 19 19 19 18 19 19 20 17 21 21 21 21 20 22 23 20 21 17 19 16 16 16 16 13 13 11 14 15 22 21 22 23 25 28 29 30 33 33 37 39 40 39 41 50 46 46 50 49 49 50 49 49 46 50 50 47 52 54 55 58 60 66 71 69 71 72 77 77 76 77 77 76 80 81 80 76 76 80 81 82 80 57 -209 -209 -209 -209 -209 96 104 106 109 108 113 114 119 122 121 120 118 117 116 119 119 -209 115 117 122 124 125 131 135 136 136 137 139 146 151 152 153 159 158 159 160 160 160 163 160 160 158 161 161 161 161 162 157 166 167 166 170 172 174 176 178 180 181 182 -193 188 188 190 194 199 194 195 195 0 0 0 0 0
    0 0 0 0 0 0 0 0 0 0 0 0 0 0 0 0 0 0 0 0 0 0 0 0 0 0 0 0 0 0 0 0 0 0 0 0 0 0 0 0 0 0 0 0 0 0 0 0 0 0 0 0 0 0 0 0 0 0 0 0 0 0 0 0 0 0 0 0 0 50 48 51 48 50 52 51 51 50 49 48 48 46 45 44 44 43 44 45 44 45 47 47 47 45 46 50 47 48 46 45 46 47 48 47 43 44 43 44 44 43 44 45 49 54 53 55 54 54 54 54 53 51 50 51 50 51 48 51 47 48 47 46 44 42 41 42 39 38 36 35 27 26 26 22 22 24 22 22 21 22 21 21 21 20 20 19 19 20 21 20 19 20 20 18 20 20 21 17 22 23 22 22 22 23 24 21 22 18 19 17 17 17 16 14 13 12 14 15 22 21 21 23 25 28 28 29 32 34 37 39 40 40 41 51 46 46 50 49 49 50 49 49 46 50 50 47 53 55 56 59 62 68 71 70 72 72 77 77 76 76 77 76 80 81 81 77 78 83 84 84 83 60 -209 -209 -209 -209 -209 98 104 106 107 108 116 113 120 123 123 123 121 119 117 114 117 115 114 114 117 122 123 130 135 135 136 139 141 148 151 152 153 160 158 159 159 160 160 163 160 160 158 162 161 161 162 162 158 165 166 165 169 171 174 175 177 179 179 181 -209 187 188 189 193 198 194 194 194 0 0 0 0 0
    0 0 0 0 0 0 0 0 0 0 0 0 0 0 0 0 0 0 0 0 0 0 0 0 0 0 0 0 0 0 0 0 0 0 0 0 0 0 0 0 0 0 0 0 0 0 0 0 0 0 0 0 0 0 0 0 0 0 0 0 0 0 0 0 0 0 0 0 0 51 49 52 50 52 53 52 52 51 49 48 47 45 45 43 43 43 44 46 44 47 48 48 48 46 47 50 47 48 46 46 46 47 48 48 44 45 44 45 44 43 44 45 48 54 53 55 53 54 53 53 52 51 50 51 50 50 48 51 48 49 48 46 44 42 42 42 39 38 35 35 27 26 27 23 24 26 24 24 22 23 22 22 22 22 21 20 19 21 22 20 19 20 20 19 21 20 22 19 24 25 25 24 24 26 27 22 22 18 20 18 18 17 16 14 13 12 15 15 21 21 21 23 25 28 28 29 31 34 38 40 40 40 41 51 46 46 50 48 48 50 50 49 46 50 51 47 53 54 55 59 61 67 71 70 71 72 76 76 76 76 76 75 80 81 81 77 78 82 85 85 84 67 -209 -193 -209 -209 102 105 105 106 107 108 115 112 119 123 122 123 121 120 118 113 117 113 113 113 115 120 121 129 134 133 135 139 142 148 152 152 152 162 158 159 159 160 160 163 160 160 158 161 161 161 161 161 157 165 165 164 -193 171 173 174 176 178 178 181 -209 188 189 190 193 199 194 194 194 0 0 0 0 0
    0 0 0 0 0 0 0 0 0 0 0 0 0 0 0 0 0 0 0 0 0 0 0 0 0 0 0 0 0 0 0 0 0 0 0 0 0 0 0 0 0 0 0 0 0 0 0 0 0 0 0 0 0 0 0 0 0 0 0 0 0 0 0 0 0 0 0 0 0 52 51 53 52 54 54 53 52 51 48 48 46 44 44 43 43 43 44 47 45 47 48 47 49 46 47 48 46 47 46 46 47 46 48 47 44 46 45 45 45 44 44 45 46 52 52 55 52 53 52 52 52 50 50 51 49 51 48 52 49 50 48 47 44 42 42 42 39 38 35 35 28 28 32 23 24 28 24 26 23 24 22 22 22 22 20 19 18 19 21 20 18 20 21 20 22 22 24 22 25 27 26 26 26 27 29 22 23 19 21 19 19 18 17 15 14 12 16 15 21 21 21 24 26 28 29 29 31 35 38 40 40 40 41 50 46 46 50 48 48 50 50 50 47 51 51 48 55 55 55 58 61 65 70 69 71 72 76 76 75 75 76 75 79 80 81 76 77 82 85 85 83 71 -193 -193 -209 102 105 106 106 107 109 112 117 113 118 121 121 121 120 118 117 113 117 114 113 111 114 120 120 127 133 132 134 140 143 147 149 149 152 162 158 158 159 159 160 164 160 159 157 160 159 160 160 161 157 163 164 163 166 170 172 174 174 176 177 180 -209 -193 188 189 193 199 193 194 194 0 0 0 0 0
    0 0 0 0 0 0 0 0 0 0 0 0 0 0 0 0 0 0 0 0 0 0 0 0 0 0 0 0 0 0 0 0 0 0 0 0 0 0 0 0 0 0 0 0 0 0 0 0 0 0 0 0 0 0 0 0 0 0 0 0 0 0 0 0 0 0 0 0 0 53 51 54 53 54 55 53 52 51 47 47 45 43 43 42 42 42 45 48 45 47 47 47 48 46 47 48 46 47 46 46 47 46 48 47 45 46 45 46 45 44 45 45 45 50 52 56 52 53 52 52 51 51 51 52 49 51 48 52 50 51 49 47 44 43 43 43 40 39 36 35 27 32 33 26 28 36 31 30 25 25 24 24 23 22 20 19 18 20 22 21 19 21 22 21 22 23 25 24 26 28 28 28 31 36 36 23 24 20 21 19 19 19 19 16 15 13 17 17 23 23 22 24 26 29 30 30 32 36 38 40 41 41 41 51 47 47 51 48 49 51 50 50 48 51 52 49 56 55 56 59 61 65 70 70 71 72 76 76 75 75 76 75 79 80 81 76 78 84 86 84 81 72 72 -193 -209 96 103 105 106 106 108 111 116 114 119 123 122 122 120 119 117 113 116 113 112 111 112 117 117 124 133 132 135 143 145 148 148 148 151 162 157 157 158 158 160 164 159 158 156 159 159 159 159 159 156 161 163 161 163 169 171 173 174 177 177 180 -209 -209 187 188 190 198 193 193 194 0 0 0 0 0
    0 0 0 0 0 0 0 0 0 0 0 0 0 0 0 0 0 0 0 0 0 0 0 0 0 0 0 0 0 0 0 0 0 0 0 0 0 0 0 0 0 0 0 0 0 0 0 0 0 0 0 0 0 0 0 0 0 0 0 0 0 0 0 0 0 0 0 0 0 53 52 54 53 54 54 53 52 50 47 46 44 43 43 42 42 42 45 48 45 47 47 47 48 46 48 47 46 47 46 46 47 46 49 48 46 47 46 47 47 45 44 44 42 44 49 55 51 53 51 51 51 51 51 52 50 51 48 53 50 51 49 47 44 42 43 42 40 39 35 33 27 36 33 29 -209 -209 36 36 30 32 29 31 29 25 22 19 17 19 22 20 18 20 20 19 20 20 23 22 25 26 26 26 30 31 32 26 27 21 22 20 19 20 20 17 16 14 19 20 24 25 24 25 26 30 30 31 33 37 38 40 41 41 41 51 47 47 51 48 49 51 51 51 48 51 52 49 56 56 56 59 61 66 70 70 71 73 75 75 75 75 77 76 80 80 82 79 82 85 86 84 83 73 78 -193 -209 97 103 105 105 105 107 109 114 111 117 121 121 122 120 120 119 116 118 116 116 114 113 117 114 121 127 127 136 147 145 146 147 146 151 162 156 156 156 157 159 163 159 158 155 159 158 158 158 159 156 160 162 160 160 167 -193 -193 -193 177 177 181 -193 188 187 188 190 197 192 193 193 0 0 0 0 0
    0 0 0 0 0 0 0 0 0 0 0 0 0 0 0 0 0 0 0 0 0 0 0 0 0 0 0 0 0 0 0 0 0 0 0 0 0 0 0 0 0 0 0 0 0 0 0 0 0 0 0 0 0 0 0 0 0 0 0 0 0 0 0 0 0 0 0 0 0 53 52 53 53 54 54 53 51 50 47 45 44 43 43 42 42 43 46 49 46 48 48 47 49 46 48 47 45 47 46 46 47 47 49 48 47 48 47 49 48 46 44 44 41 43 47 54 50 53 50 50 49 50 51 52 50 51 48 53 51 51 49 48 45 43 43 43 41 40 36 33 27 35 33 -209 -209 -209 39 39 36 38 39 40 39 33 24 19 -225 -225 -225 -225 -225 -225 -225 -225 -225 -225 21 -225 22 -225 -225 -225 -225 -225 -225 -225 -225 -225 -225 -225 -225 -225 -225 -225 -225 -225 21 22 26 26 26 28 28 31 31 32 35 37 38 39 42 42 42 51 47 47 51 49 50 51 51 51 48 52 52 50 56 56 57 60 62 66 70 70 72 73 75 75 75 75 77 76 82 80 83 82 84 85 86 82 82 73 74 83 -209 -193 98 105 105 105 106 107 109 106 110 112 117 121 118 119 119 118 120 119 119 120 118 121 118 122 -209 126 137 149 146 146 146 147 151 161 156 155 155 157 159 162 158 157 155 158 157 158 158 158 156 159 161 159 158 165 -209 -209 -209 -193 -193 180 -209 -209 187 187 189 197 192 192 192 0 0 0 0 0
    0 0 0 0 0 0 0 0 0 0 0 0 0 0 0 0 0 0 0 0 0 0 0 0 0 0 0 0 0 0 0 0 0 0 0 0 0 0 0 0 0 0 0 0 0 0 0 0 0 0 0 0 0 0 0 0 0 0 0 0 0 0 0 0 0 0 0 0 0 53 52 53 52 53 53 52 50 50 46 45 44 43 44 43 43 44 48 50 48 50 48 47 49 46 48 47 45 47 46 46 47 47 49 49 49 49 48 49 49 45 43 45 41 42 45 53 49 52 50 50 49 50 51 52 50 50 48 53 51 51 49 48 45 43 44 44 41 41 37 32 27 39 40 -193 43 44 43 42 41 41 41 41 40 39 28 -225 -225 -225 -225 -225 -225 -225 -225 -225 -225 -225 -225 -225 -225 -225 -225 -225 -225 -225 -225 -225 -225 -225 -225 -225 -225 -225 -225 -225 -225 -225 -225 -225 -225 31 28 31 32 34 33 33 36 38 37 39 42 41 41 50 46 47 51 48 49 51 51 51 49 52 52 50 56 57 57 60 61 66 70 71 73 74 75 75 75 76 78 77 83 80 84 84 84 86 86 83 82 74 76 79 73 86 94 104 -193 104 106 106 105 103 104 104 107 110 110 112 113 114 118 119 119 121 119 124 -193 125 133 135 138 150 145 145 145 145 150 158 154 154 154 156 158 161 158 156 154 157 157 157 157 158 156 158 161 159 158 164 166 -209 -209 -193 174 180 -193 -209 185 186 188 195 191 191 191 0 0 0 0 0
    0 0 0 0 0 0 0 0 0 0 0 0 0 0 0 0 0 0 0 0 0 0 0 0 0 0 0 0 0 0 0 0 0 0 0 0 0 0 0 0 0 0 0 0 0 0 0 0 0 0 0 0 0 0 0 0 0 0 0 0 0 0 0 0 0 0 0 0 0 53 52 53 52 53 53 52 50 51 47 45 45 43 44 43 44 45 48 51 49 0 -256 -1 -8407 46 48 46 45 46 46 46 48 47 50 49 50 51 49 50 49 44 42 44 41 42 44 53 49 52 50 50 49 50 51 52 50 51 49 53 52 51 50 48 45 44 44 44 42 41 38 32 28 39 43 44 43 44 43 43 42 41 41 40 38 37 31 -225 -225 -225 -225 -225 -225 -225 -225 -225 -225 -225 -225 -225 -225 -225 -225 -225 -225 -225 -225 -225 -225 -225 -225 -225 -225 -225 -225 -225 -225 -225 -225 -225 -225 -225 29 35 38 38 38 39 39 40 39 40 42 41 41 49 45 46 51 48 49 51 51 52 50 52 52 50 56 56 -209 59 61 66 70 72 74 74 75 76 75 76 79 79 84 80 86 86 86 87 87 84 82 75 76 80 77 83 88 92 90 95 99 102 102 100 101 102 104 105 106 107 108 109 115 118 119 122 122 129 -209 129 137 138 139 150 145 145 146 146 150 157 153 153 153 155 157 160 157 155 153 157 156 157 157 157 156 157 160 159 157 164 166 -209 -209 -209 172 179 182 -209 185 186 188 194 190 191 191 0 0 0 0 0
    0 0 0 0 0 0 0 0 0 0 0 0 0 0 0 0 0 0 0 0 0 0 0 0 0 0 0 0 0 0 0 0 0 0 0 0 0 0 0 0 0 0 0 0 0 0 0 0 0 0 0 0 0 0 0 0 0 0 0 0 0 0 0 0 0 0 0 0 0 53 52 53 53 53 53 52 50 52 47 44 44 42 43 43 44 45 48 51 50 50 49 46 48 45 47 46 45 45 45 45 47 46 49 48 49 51 50 49 48 45 44 47 42 43 44 53 49 52 50 50 50 51 52 53 51 52 50 54 53 51 50 48 45 44 45 45 42 41 41 36 41 45 46 46 44 45 45 44 42 42 42 41 41 40 -225 -225 -225 -225 -225 -225 -225 -225 -225 -225 -225 -225 -225 -225 -225 -225 -225 -225 -225 -225 -225 -225 -225 -225 -225 -225 -225 -225 -225 -225 -225 -225 -225 -225 -225 -225 -225 38 42 42 40 43 42 42 41 41 44 42 42 50 46 47 52 49 51 52 52 53 52 54 53 51 56 56 -209 59 60 64 70 72 74 74 75 76 75 76 79 79 84 81 86 86 86 87 87 84 83 76 79 83 81 86 90 92 91 94 95 100 100 99 100 101 103 104 105 105 106 107 110 115 118 -193 -193 129 -209 131 137 137 139 149 144 144 145 145 149 155 153 153 153 155 156 158 156 155 153 156 156 156 156 156 156 156 160 159 157 162 -193 -209 -209 -209 -193 180 184 -193 186 187 188 193 190 190 190 0 0 0 0 0
    0 0 0 0 0 0 0 0 0 0 0 0 0 0 0 0 0 0 0 0 0 0 0 0 0 0 0 0 0 0 0 0 0 0 0 0 0 0 0 0 0 0 0 0 0 0 0 0 0 0 0 0 0 0 0 0 0 0 0 0 0 0 0 0 0 0 0 0 0 54 53 54 53 54 53 53 51 54 48 43 43 41 42 43 44 45 48 52 50 50 48 45 48 45 47 46 45 45 45 46 48 46 48 46 47 50 50 48 46 44 44 49 43 43 45 53 49 52 50 50 50 51 52 53 51 52 51 54 53 52 51 49 46 45 46 45 44 42 40 36 44 54 51 49 47 46 46 45 44 44 43 42 42 -225 -225 -225 -225 -225 -225 -225 -225 -225 -225 -225 -225 -225 -225 -225 -225 -225 -225 -225 -225 -225 -225 -225 -225 -225 -225 -225 -225 -225 -225 -225 -225 -225 -225 -225 -225 -225 -225 -225 -225 46 42 47 44 43 43 43 47 44 44 51 46 50 53 51 51 52 53 53 53 54 54 52 56 57 -193 58 59 62 69 71 74 74 75 76 76 77 79 79 84 81 86 86 86 87 88 85 85 78 84 86 87 89 92 93 91 95 96 100 100 99 100 101 104 105 105 104 104 105 107 109 112 111 112 -193 -193 -193 -193 136 137 149 143 143 144 144 148 152 151 152 152 154 156 156 156 155 153 156 156 156 156 156 156 156 159 158 156 161 -193 -209 -209 -209 -193 179 184 188 187 188 189 193 190 191 191 0 0 0 0 0
    0 0 0 0 0 0 0 0 0 0 0 0 0 0 0 0 0 0 0 0 0 0 0 0 0 0 0 0 0 0 0 0 0 0 0 0 0 0 0 0 0 0 0 0 0 0 0 0 0 0 0 0 0 0 0 0 0 0 0 0 0 0 0 0 0 0 0 0 0 54 54 54 53 54 54 53 52 56 48 43 43 42 43 43 44 45 49 52 50 49 48 45 47 45 47 46 44 45 46 45 48 46 48 46 47 50 48 46 48 42 45 52 45 44 48 54 50 52 50 50 50 52 53 53 51 53 52 55 54 53 52 50 47 47 47 46 44 42 41 44 51 54 52 50 48 47 47 46 45 45 43 43 -225 -225 -225 -225 -225 -225 -225 -225 -225 -225 -225 -225 -225 -225 -225 -225 -225 -225 -225 -225 -225 -225 -225 -225 -225 -225 -225 -225 -225 -225 -225 -225 -225 -225 -225 -225 -225 -225 -225 -225 -225 -225 44 49 45 44 43 44 48 44 45 51 47 51 53 51 52 52 53 54 53 54 54 53 57 57 57 58 60 62 69 71 74 74 76 76 76 77 79 79 84 82 86 85 85 87 88 86 86 79 86 87 89 90 93 93 91 95 98 102 101 101 102 103 105 105 105 103 103 104 105 106 107 105 -193 -193 101 -193 -209 134 137 149 142 143 143 144 147 151 150 151 150 154 155 155 157 155 153 156 156 156 156 156 156 155 158 158 156 161 -193 -209 -209 -209 173 179 183 -193 187 188 189 192 191 192 191 0 0 0 0 0
    0 0 0 0 0 0 0 0 0 0 0 0 0 0 0 0 0 0 0 0 0 0 0 0 0 0 0 0 0 0 0 0 0 0 0 0 0 0 0 0 0 0 0 0 0 0 0 0 0 0 0 0 0 0 0 0 0 0 0 0 0 0 0 0 0 0 0 0 0 54 54 54 53 53 53 52 51 55 50 43 46 48 47 46 48 50 51 53 52 50 48 45 46 44 46 45 44 44 47 47 50 49 50 50 51 52 52 50 51 43 52 56 47 44 50 54 51 53 51 51 51 53 54 54 53 54 54 56 55 53 52 51 49 48 48 48 44 42 54 59 55 56 54 52 50 49 47 46 45 45 43 42 -225 -225 -225 -225 -225 -225 -225 -225 -225 -225 -225 -225 -225 -225 -225 -225 -225 -225 -225 -225 -225 -225 -225 -225 -225 -225 -225 -225 -225 -225 -225 -225 -225 -225 -225 -225 -225 -225 -225 -225 -225 -225 46 51 46 45 44 45 50 46 46 51 47 52 54 52 52 52 53 54 54 55 54 54 57 58 58 59 61 63 69 71 74 74 75 76 76 77 79 79 84 82 85 85 85 87 87 86 86 80 86 89 91 92 95 95 92 97 100 102 101 100 101 102 104 105 105 103 102 102 104 105 106 106 104 104 103 -193 -193 128 136 148 141 142 143 143 147 151 150 150 149 153 154 154 157 155 153 156 157 156 156 156 157 155 158 158 155 160 -209 -193 167 170 171 177 183 187 186 188 190 191 191 193 192 0 0 0 0 0
    0 0 0 0 0 0 0 0 0 0 0 0 0 0 0 0 0 0 0 0 0 0 0 0 0 0 0 0 0 0 0 0 0 0 0 0 0 0 0 0 0 0 0 0 0 0 0 0 0 0 0 0 0 0 0 0 0 0 0 0 0 0 0 0 0 0 0 0 0 54 54 53 52 52 52 51 51 54 51 44 52 54 53 53 53 54 54 55 55 52 48 45 45 42 43 45 44 44 49 50 53 52 53 53 54 55 54 53 54 42 56 -193 37 39 42 48 48 50 49 50 50 53 54 54 55 55 56 56 55 54 53 52 51 48 47 47 42 48 58 61 58 58 56 54 52 50 47 46 45 44 43 -225 -225 -225 -225 -225 -225 -225 -225 -225 -225 -225 -225 -225 -225 -225 -225 -225 -225 -225 -225 -225 -225 -225 -225 -225 -225 -225 -225 -225 -225 -225 -225 -225 -225 -225 -225 -225 -225 -225 -225 -225 -225 -225 47 52 47 45 44 45 50 47 47 51 46 51 53 52 52 52 53 54 54 55 55 55 57 59 59 59 62 63 69 71 73 74 75 76 76 77 79 78 83 82 85 85 85 87 87 86 86 82 87 89 91 93 96 97 93 99 103 104 102 100 101 103 104 104 105 104 103 -193 105 104 105 104 105 -193 103 -193 -193 125 135 147 141 141 142 143 146 150 149 149 148 153 153 153 156 154 153 155 156 156 156 156 156 154 157 158 155 160 166 -209 167 168 168 172 178 182 184 187 190 190 191 194 192 0 0 0 0 0
    0 0 0 0 0 0 0 0 0 0 0 0 0 0 0 0 0 0 0 0 0 0 0 0 0 0 0 0 0 0 0 0 0 0 0 0 0 0 0 0 0 0 0 0 0 0 0 0 0 0 0 0 0 0 0 0 0 0 0 0 0 0 0 0 0 0 0 0 0 55 54 54 53 53 53 52 52 54 53 49 55 58 56 56 55 56 57 57 56 54 51 48 47 42 42 43 44 41 49 53 56 54 55 55 56 56 56 55 55 48 57 -209 28 35 38 44 47 48 50 53 55 58 57 56 56 55 56 56 55 54 53 53 54 51 51 50 49 56 59 61 59 59 56 55 53 50 48 47 45 44 -225 -225 -225 -225 -225 -225 -225 -225 -225 -225 -225 -225 -225 -225 -225 -225 -225 -225 -225 -225 -225 -225 -225 -225 -225 -225 -225 -225 -225 -225 -225 -225 -225 -225 -225 -225 -225 -225 -225 -225 -225 -225 -225 -225 47 52 47 46 44 46 51 47 48 52 48 52 54 53 53 52 54 54 55 56 56 56 58 59 60 59 61 62 68 70 73 74 74 76 76 77 78 78 82 82 85 85 84 86 87 86 86 83 86 89 91 93 97 99 97 101 104 105 104 103 103 105 105 106 106 106 107 107 108 108 107 108 108 104 103 103 -193 -177 135 147 141 141 142 143 145 150 149 148 146 151 151 152 155 154 153 155 157 157 157 157 157 154 157 159 156 162 166 167 166 167 167 170 171 170 182 186 190 191 192 194 193 0 0 0 0 0
    0 0 0 0 0 0 0 0 0 0 0 0 0 0 0 0 0 0 0 0 0 0 0 0 0 0 0 0 0 0 0 0 0 0 0 0 0 0 0 0 0 0 0 0 0 0 0 0 0 0 0 0 0 0 0 0 0 0 0 0 0 0 0 0 0 0 0 0 0 55 55 55 54 54 54 53 54 56 57 55 57 60 58 58 57 58 58 58 56 55 53 50 51 45 45 45 46 46 -193 55 59 55 56 56 57 56 56 56 56 -193 57 -193 -209 32 38 -209 -209 -209 -193 60 58 63 66 66 61 55 56 57 57 56 54 53 54 52 58 58 59 59 60 61 60 60 58 56 53 52 50 48 46 45 -225 -225 -225 -225 -225 -225 -225 -225 -225 -225 -225 -225 -225 -225 -225 -225 -225 -225 -225 -225 -225 -225 -225 -225 -225 -225 -225 -225 -225 -225 -225 -225 -225 -225 -225 -225 -225 -225 -225 -225 -225 -225 -225 -225 47 52 47 46 45 46 51 48 49 52 49 54 54 55 55 53 54 55 55 56 57 57 58 59 60 60 62 61 67 69 72 73 73 76 76 77 78 78 81 83 84 84 84 86 87 87 86 85 88 91 94 97 99 100 100 102 104 105 105 105 105 106 106 106 107 107 107 109 109 110 110 116 120 114 106 -193 -193 129 135 146 140 141 142 142 144 149 148 148 146 151 151 152 156 154 154 155 157 157 157 157 157 154 156 159 155 161 -193 168 167 167 167 171 174 175 181 186 191 190 191 194 194 0 0 0 0 0
    0 0 0 0 0 0 0 0 0 0 0 0 0 0 0 0 0 0 0 0 0 0 0 0 0 0 0 0 0 0 0 0 0 0 0 0 0 0 0 0 0 0 0 0 0 0 0 0 0 0 0 0 0 0 0 0 0 0 0 0 0 0 0 0 0 0 0 0 0 56 56 57 55 56 55 54 55 -193 58 57 57 60 60 60 59 59 59 59 58 56 54 51 52 47 46 47 50 53 68 58 66 56 57 57 58 57 57 57 57 57 58 62 -193 -209 -209 -209 -209 69 68 66 63 68 70 71 67 65 65 64 66 66 57 57 57 61 65 61 61 61 61 62 61 61 58 56 55 54 52 50 48 -225 -225 -225 -225 -225 -225 -225 -225 -225 -225 -225 -225 -225 -225 -225 -225 -225 -225 -225 -225 -225 -225 -225 -225 -225 -225 -225 -225 -225 -225 -225 -225 -225 -225 -225 -225 -225 -225 -225 -225 -225 -225 -225 -225 -225 47 52 48 47 46 47 52 49 51 53 51 55 56 57 57 55 56 56 56 57 58 58 58 59 60 60 63 62 67 69 71 72 72 75 75 76 78 78 81 83 84 85 84 86 87 86 87 86 89 92 94 97 99 101 100 102 104 105 105 106 105 106 106 108 108 108 111 114 113 115 117 121 123 121 121 -193 122 129 135 146 140 141 141 142 144 149 149 148 146 152 152 152 158 155 154 156 158 158 157 157 158 154 156 158 155 159 166 168 167 167 168 171 173 178 180 185 190 188 190 191 193 0 0 0 0 0
    0 0 0 0 0 0 0 0 0 0 0 0 0 0 0 0 0 0 0 0 0 0 0 0 0 0 0 0 0 0 0 0 0 0 0 0 0 0 0 0 0 0 0 0 0 0 0 0 0 0 0 0 0 0 0 0 0 0 0 0 0 0 0 0 0 0 0 0 0 56 56 57 56 56 56 54 56 -193 59 59 59 62 61 61 61 60 60 59 58 57 55 52 54 51 51 52 -193 -193 70 60 70 56 56 57 58 57 58 57 58 58 59 63 -193 -209 -209 -209 -209 69 62 64 62 68 70 70 67 69 67 68 68 70 59 58 64 66 65 62 62 62 62 63 62 61 58 57 56 55 53 51 -225 -225 -225 -225 -225 -225 -225 -225 -225 -225 -225 -225 -225 -225 -225 -225 -225 -225 -225 -225 -225 -225 -225 -225 -225 -225 -225 -225 -225 -225 -225 -225 -225 -225 -225 -225 -225 -225 -225 -225 -225 -225 -225 -225 -225 -225 47 52 47 46 46 48 53 52 53 54 53 56 56 58 58 56 58 57 58 58 59 59 59 60 61 60 63 62 67 68 69 71 71 74 75 75 77 77 81 83 84 84 84 85 86 86 87 86 89 93 95 99 101 102 102 104 105 105 105 106 106 107 107 108 109 109 114 117 117 118 119 121 122 121 121 121 121 126 135 145 140 140 141 141 143 148 148 148 146 151 152 152 158 155 155 156 158 158 158 158 158 154 157 159 156 161 166 168 167 168 167 170 171 173 176 184 192 188 190 191 194 0 0 0 0 0
    0 0 0 0 0 0 0 0 0 0 0 0 0 0 0 0 0 0 0 0 0 0 0 0 0 0 0 0 0 0 0 0 0 0 0 0 0 0 0 0 0 0 0 0 0 0 0 0 0 0 0 0 0 0 0 0 0 0 0 0 0 0 0 0 0 0 0 0 0 56 56 57 55 57 57 56 58 -209 59 61 62 63 62 61 61 60 60 60 59 57 56 54 56 55 -193 -193 -209 60 69 61 69 56 57 57 58 57 58 57 58 58 59 62 -193 -209 -209 -193 59 61 59 61 60 63 66 69 68 70 69 69 70 73 71 69 70 70 68 66 66 65 64 64 62 61 59 58 58 57 55 -225 -225 -225 -225 -225 -225 -225 -225 -225 -225 -225 -225 -225 -225 -225 -225 -225 -225 -225 -225 -225 -225 -225 -225 -225 -225 -225 -225 -225 -225 -225 -225 -225 -225 -225 -225 -225 -225 -225 -225 -225 -225 -225 -225 -225 -225 -225 -225 50 46 45 45 48 54 52 53 54 54 55 55 57 57 56 59 58 59 59 60 61 60 61 61 60 63 63 67 68 69 71 71 74 74 75 77 77 81 83 84 84 84 86 86 86 87 87 90 93 96 100 101 103 104 105 105 105 105 106 106 107 107 108 111 110 115 117 118 118 119 120 121 119 120 119 120 125 134 143 139 140 140 141 142 148 148 148 145 150 151 152 158 155 155 156 158 158 158 158 159 154 157 159 157 163 167 168 167 168 168 171 172 172 171 182 195 188 191 191 195 0 0 0 0 0
    0 0 0 0 0 0 0 0 0 0 0 0 0 0 0 0 0 0 0 0 0 0 0 0 0 0 0 0 0 0 0 0 0 0 0 0 0 0 0 0 0 0 0 0 0 0 0 0 0 0 0 0 0 0 0 0 0 0 0 0 0 0 0 0 0 0 0 0 0 55 55 56 55 57 57 56 58 -193 60 62 63 64 62 62 62 60 60 60 58 57 56 54 56 55 58 58 -209 62 69 62 67 56 58 58 59 58 59 58 59 59 61 64 62 62 61 62 61 61 61 62 62 65 68 71 70 72 71 72 72 73 73 72 72 71 70 68 68 67 65 64 62 60 59 58 58 57 -225 -225 -225 -225 -225 -225 -225 -225 -225 -225 -225 -225 -225 -225 -225 -225 -225 -225 -225 -225 -225 -225 -225 -225 -225 -225 -225 -225 -225 -225 -225 -225 -225 -225 -225 -225 -225 -225 -225 -225 -225 -225 -225 -225 -225 -225 -225 -225 -225 44 44 42 42 44 53 51 52 54 54 54 55 57 58 58 61 61 61 60 62 62 61 62 61 60 63 63 67 68 69 70 71 73 74 74 76 76 81 83 84 84 84 86 86 86 87 87 90 94 96 100 101 104 105 105 105 106 106 106 106 107 107 109 112 111 116 118 119 119 120 121 123 122 122 122 122 127 134 139 138 140 140 141 142 149 149 148 146 150 151 152 158 155 155 156 158 158 159 159 159 154 158 160 158 163 167 168 167 168 168 172 176 175 173 182 194 188 190 190 195 0 0 0 0 0
    0 0 0 0 0 0 0 0 0 0 0 0 0 0 0 0 0 0 0 0 0 0 0 0 0 0 0 0 0 0 0 0 0 0 0 0 0 0 0 0 0 0 0 0 0 0 0 0 0 0 0 0 0 0 0 0 0 0 0 0 0 0 0 0 0 0 0 0 0 54 54 55 55 56 56 55 58 58 60 62 63 63 62 62 62 60 60 60 58 57 56 53 56 54 58 58 -209 59 67 59 65 58 59 59 60 59 60 60 62 61 63 67 65 65 64 65 64 64 63 64 65 68 71 74 74 75 74 74 75 74 73 73 72 71 70 69 69 67 66 65 63 62 61 60 60 -225 -225 -225 -225 -225 -225 -225 -225 -225 -225 -225 -225 -225 -225 -225 -225 -225 -225 -225 -225 -225 -225 -225 -225 -225 -225 -225 -225 -225 -225 -225 -225 -225 -225 -225 -225 -225 -225 -225 -225 -225 -225 -225 -225 -225 -225 -225 -225 -225 -225 -225 -225 40 40 42 54 51 52 54 54 54 56 58 58 60 62 64 63 62 64 63 62 63 62 61 63 63 67 68 69 70 70 72 73 73 76 76 81 82 84 84 84 86 86 86 87 88 91 95 97 100 101 104 104 105 106 106 106 107 107 108 108 110 113 113 117 118 119 120 121 123 125 123 124 125 125 130 134 136 137 139 140 141 142 149 149 148 147 151 151 152 158 155 155 156 158 158 159 159 159 155 158 161 160 164 167 168 167 169 168 170 172 174 172 181 190 187 188 188 194 0 0 0 0 0
    0 0 0 0 0 0 0 0 0 0 0 0 0 0 0 0 0 0 0 0 0 0 0 0 0 0 0 0 0 0 0 0 0 0 0 0 0 0 0 0 0 0 0 0 0 0 0 0 0 0 0 0 0 0 0 0 0 0 0 0 0 0 0 0 0 0 0 0 0 55 55 55 55 57 57 56 59 60 61 63 64 64 63 63 63 61 61 61 59 57 56 55 57 56 59 59 -209 59 66 63 66 62 62 62 63 61 63 63 65 64 67 69 66 66 64 65 63 63 63 64 66 69 70 73 73 75 74 76 76 75 75 75 74 73 72 71 70 68 66 65 64 62 61 -225 -225 -225 -225 -225 -225 -225 -225 -225 -225 -225 -225 -225 -225 -225 -225 -225 -225 -225 -225 -225 -225 -225 -225 -225 -225 -225 -225 -225 -225 -225 -225 -225 -225 -225 -225 -225 -225 -225 -225 -225 -225 -225 -225 -225 -225 -225 -225 -225 -225 -225 -225 -225 -225 -225 -225 42 54 48 50 54 54 55 56 58 58 61 64 65 64 62 64 63 62 63 61 61 62 63 65 66 68 69 70 72 73 74 76 77 81 82 84 85 85 86 86 87 89 89 92 96 96 99 101 103 104 105 106 106 107 108 108 109 109 111 114 114 117 118 119 120 121 123 125 124 126 126 126 132 134 136 136 138 139 140 141 149 149 149 149 152 152 152 159 156 155 156 159 159 159 159 159 155 158 161 159 163 166 167 167 168 168 169 170 171 171 180 188 186 187 187 194 0 0 0 0 0
    0 0 0 0 0 0 0 0 0 0 0 0 0 0 0 0 0 0 0 0 0 0 0 0 0 0 0 0 0 0 0 0 0 0 0 0 0 0 0 0 0 0 0 0 0 0 0 0 0 0 0 0 0 0 0 0 0 0 0 0 0 0 0 0 0 0 0 0 0 56 56 56 55 59 59 58 61 63 63 65 66 66 66 66 67 65 64 66 62 59 58 56 58 57 61 62 68 61 68 69 69 69 67 67 67 65 66 66 68 67 69 70 65 65 63 64 63 62 64 64 66 69 70 74 74 75 76 77 77 77 76 77 76 75 74 72 71 69 68 66 64 62 -225 -225 -225 -225 -225 -225 -225 -225 -225 -225 -225 -225 -225 -225 -225 -225 -225 -225 -225 -225 -225 -225 -225 -225 -225 -225 -225 -225 -225 -225 -225 -225 -225 -225 -225 -225 -225 -225 -225 -225 -225 -225 -225 -225 -225 -225 -225 -225 -225 -225 -225 -225 -225 -225 -225 -225 -225 -225 55 52 53 56 58 57 59 62 62 67 66 67 65 64 64 64 63 64 61 61 61 62 64 65 67 68 69 71 73 73 76 77 82 83 84 85 85 86 86 88 90 91 93 98 98 99 100 102 103 104 106 106 107 108 109 110 110 112 114 114 117 118 119 120 121 122 124 123 125 126 126 132 134 135 135 137 138 139 139 148 150 149 150 153 154 154 161 157 157 157 160 159 160 160 160 155 158 160 158 162 166 168 167 169 168 170 173 176 174 182 188 186 187 187 192 0 0 0 0 0
    0 0 0 0 0 0 0 0 0 0 0 0 0 0 0 0 0 0 0 0 0 0 0 0 0 0 0 0 0 0 0 0 0 0 0 0 0 0 0 0 0 0 0 0 0 0 0 0 0 0 0 0 0 0 0 0 0 0 0 0 0 0 0 0 0 0 0 0 0 55 56 56 55 60 60 59 63 65 64 65 65 66 66 67 65 63 63 66 63 60 -193 57 59 59 64 65 69 64 69 69 69 68 68 68 -193 66 67 66 68 67 69 69 63 62 61 61 62 62 64 65 67 70 71 75 76 77 77 78 78 77 77 78 77 75 74 72 70 70 69 68 65 -225 -225 -225 -225 -225 -225 -225 -225 -225 -225 -225 -225 -225 -225 -225 -225 -225 -225 -225 -225 -225 -225 -225 -225 -225 -225 -225 -225 -225 -225 -225 -225 -225 -225 -225 -225 -225 -225 -225 -225 -225 -225 -225 -225 -225 -225 -225 -225 -225 -225 -225 -225 -225 -225 -225 -225 -225 -225 -225 -225 -225 -225 57 62 63 68 68 67 70 69 69 67 67 66 65 65 66 62 64 63 65 65 66 67 68 68 69 71 72 76 77 82 83 84 85 86 86 87 89 90 92 94 98 98 100 101 102 102 104 106 106 108 108 109 109 110 112 114 114 117 119 120 121 121 123 125 123 125 126 126 131 133 134 134 136 137 138 138 148 150 150 152 154 155 155 163 158 158 157 160 159 159 159 159 154 158 158 157 160 166 169 169 169 169 172 176 177 174 181 -193 185 186 186 191 0 0 0 0 0
    0 0 0 0 0 0 0 0 0 0 0 0 0 0 0 0 0 0 0 0 0 0 0 0 0 0 0 0 0 0 0 0 0 0 0 0 0 0 0 0 0 0 0 0 0 0 0 0 0 0 0 0 0 0 0 0 0 0 0 0 0 0 0 0 0 0 0 0 0 54 54 54 54 59 60 60 64 67 64 67 67 67 68 69 66 62 61 67 -193 61 60 57 61 -209 -193 -193 -209 -209 -209 -209 -209 -209 -209 -209 -209 -193 68 68 69 68 69 68 63 61 61 61 63 64 66 66 68 71 72 76 77 76 78 78 79 78 78 79 77 76 74 72 72 71 71 69 -225 -225 -225 -225 -225 -225 -225 -225 -225 -225 -225 -225 -225 -225 -225 -225 -225 -225 -225 -225 -225 -225 -225 -225 -225 -225 -225 -225 -225 -225 -225 -225 -225 -225 -225 -225 -225 -225 -225 -225 -225 -225 -225 -225 -225 -225 -225 -225 -225 -225 -225 -225 -225 -225 -225 -225 -225 -225 -225 -225 -225 -225 -225 -225 -225 -209 -209 -209 71 73 71 71 69 69 68 68 68 68 65 67 66 69 68 67 67 69 68 70 71 73 76 76 82 83 84 85 86 86 86 89 90 92 94 98 98 99 100 101 102 103 106 106 107 108 109 109 110 112 114 114 117 118 120 120 121 122 125 123 126 126 126 131 133 133 134 135 136 137 138 148 151 152 153 154 155 155 162 158 157 156 159 158 158 158 159 154 158 159 159 161 166 169 168 167 -193 -193 171 171 169 181 -193 186 187 187 193 0 0 0 0 0
    0 0 0 0 0 0 0 0 0 0 0 0 0 0 0 0 0 0 0 0 0 0 0 0 0 0 0 0 0 0 0 0 0 0 0 0 0 0 0 0 0 0 0 0 0 0 0 0 0 0 0 0 0 0 0 0 0 0 0 0 0 0 0 0 0 0 0 0 0 53 53 52 55 59 61 62 65 67 66 68 69 69 70 73 69 -209 -209 -209 -209 -209 -209 -209 -209 -209 77 -209 -209 -209 -209 -209 -209 -209 -209 -209 -209 -193 67 67 69 67 68 68 65 63 63 65 67 68 70 69 71 72 75 77 78 78 79 80 80 80 80 79 78 77 75 74 73 73 -225 -225 -225 -225 -225 -225 -225 -225 -225 -225 -225 -225 -225 -225 -225 -225 -225 -225 -225 -225 -225 -225 -225 -225 -225 -225 -225 -225 -225 -225 -225 -225 -225 -225 -225 -225 -225 -225 -225 -225 -225 -225 -225 -225 -225 -225 -225 -225 -225 -225 -225 -225 -225 -225 -225 -225 -225 -225 -225 -225 -225 -225 -225 -225 -225 -225 -225 -225 -209 73 71 73 71 70 69 69 68 68 68 68 65 67 67 70 70 71 71 72 73 73 74 76 76 77 81 82 84 85 85 86 86 -193 90 -193 94 97 96 97 98 100 101 102 105 105 107 108 109 110 110 113 115 114 117 118 120 120 121 122 125 124 126 127 127 131 133 133 133 135 -193 137 138 148 152 152 153 154 155 155 161 157 156 155 157 157 158 158 158 154 158 160 160 162 166 170 169 167 167 -193 170 170 169 182 190 187 188 188 194 0 0 0 0 0
    0 0 0 0 0 0 0 0 0 0 0 0 0 0 0 0 0 0 0 0 0 0 0 0 0 0 0 0 0 0 0 0 0 0 0 0 0 0 0 0 0 0 0 0 0 0 0 0 0 0 0 0 0 0 0 0 0 0 0 0 0 0 0 0 0 0 0 0 0 -209 -209 -209 -193 -209 62 62 65 68 68 70 70 70 71 75 -209 -209 -209 -209 -209 -209 -209 -209 -209 80 86 -209 -209 -209 -209 -209 -209 -209 -209 -209 -209 -193 64 64 65 62 64 65 63 64 65 66 68 69 71 71 72 74 77 79 80 80 82 82 82 82 80 80 78 78 78 76 75 -225 -225 -225 -225 -225 -225 -225 -225 -225 -225 -225 -225 -225 -225 -225 -225 -225 -225 -225 -225 -225 -225 -225 -225 -225 -225 -225 -225 -225 -225 -225 -225 -225 -225 -225 -225 -225 -225 -225 -225 -225 -225 -225 -225 -225 -225 -225 -225 -225 -225 -225 -225 -225 -225 -225 -225 -225 -225 -225 -225 -225 -225 -225 -225 -225 -225 -225 -225 -225 -209 72 71 73 71 70 69 70 69 68 69 69 66 68 68 73 72 72 73 73 73 73 74 75 75 77 79 80 82 84 85 86 86 89 90 93 94 97 96 97 98 99 100 102 104 105 108 109 110 111 111 113 114 114 116 117 119 119 121 123 125 124 127 128 128 132 133 133 133 135 137 138 139 149 153 153 154 155 155 155 161 157 156 154 156 156 156 156 157 153 156 159 158 159 164 169 170 166 167 -193 174 174 172 182 190 187 187 188 194 0 0 0 0 0
    0 0 0 0 0 0 0 0 0 0 0 0 0 0 0 0 0 0 0 0 0 0 0 0 0 0 0 0 0 0 0 0 0 0 0 0 0 0 0 0 0 0 0 0 0 0 0 0 0 0 0 0 0 0 0 0 0 0 0 0 0 0 0 0 0 0 0 0 0 -209 -209 -209 -209 -209 64 63 67 70 70 72 71 71 71 -209 -209 -209 -209 -209 -209 -209 -209 -209 -209 -193 85 -193 -193 -209 -209 718 718 -193 -193 -193 -193 -193 65 63 64 63 65 66 66 66 67 68 70 72 73 75 77 79 81 82 83 83 84 84 83 82 81 80 79 79 78 76 -225 -225 -225 -225 -225 -225 -225 -225 -225 -225 -225 -225 -225 -225 -225 -225 -225 -225 -225 -225 -225 -225 -225 -225 -225 -225 -225 -225 -225 -225 -225 -225 -225 -225 -225 -225 -225 -225 -225 -225 -225 -225 -225 -225 -225 -225 -225 -225 -225 -225 -225 -225 -225 -225 -225 -225 -225 -225 -225 -225 -225 -225 -225 -225 -225 -225 -225 -225 -225 -225 -225 71 70 74 71 70 68 69 69 69 69 70 68 69 69 74 73 73 73 73 73 73 73 75 74 75 76 78 80 81 83 85 85 88 90 93 94 97 96 96 97 99 100 101 103 105 108 109 111 112 112 114 114 114 116 117 119 120 121 124 127 126 129 129 129 132 133 133 133 135 137 138 139 149 155 153 155 156 156 155 161 157 156 154 156 156 156 156 156 153 155 158 157 156 158 166 168 162 163 166 172 -193 168 183 -193 187 187 188 193 0 0 0 0 0
    0 0 0 0 0 0 0 0 0 0 0 0 0 0 0 0 0 0 0 0 0 0 0 0 0 0 0 0 0 0 0 0 0 0 0 0 0 0 0 0 0 0 0 0 0 0 0 0 0 0 0 0 0 0 0 0 0 0 0 0 0 0 0 0 0 0 0 0 0 -209 -209 -209 -209 -209 -209 -209 -209 -193 -193 76 74 -209 -209 -209 -209 -209 -209 -209 -209 -209 -209 -209 -209 82 85 -193 -193 -209 -193 -193 -193 -193 -209 -209 -209 -193 -209 -209 -193 64 66 -193 -193 70 70 70 73 75 78 80 81 83 84 84 85 85 85 85 84 83 81 81 80 80 79 -225 -225 -225 -225 -225 -225 -225 -225 -225 -225 -225 -225 -225 -225 -225 -225 -225 -225 -225 -225 -225 -225 -225 -225 -225 -225 -225 -225 -225 -225 -225 -225 -225 -225 -225 -225 -225 -225 -225 -225 -225 -225 -225 -225 -225 -225 -225 -225 -225 -225 -225 -225 -225 -225 -225 -225 -225 -225 -225 -225 -225 -225 -225 -225 -225 -225 -225 -225 -225 -225 -225 -225 67 69 73 69 69 67 68 68 68 70 71 69 71 71 75 74 74 74 74 73 74 74 75 75 76 77 78 80 81 82 85 85 -209 -193 93 94 96 96 95 96 97 98 100 102 104 107 108 110 112 112 114 115 115 116 117 119 119 121 123 126 125 129 130 130 132 133 133 133 135 137 138 139 149 155 153 155 156 156 155 160 157 156 153 156 156 155 155 156 153 155 157 156 155 155 160 162 158 158 163 166 166 167 181 -193 187 187 188 194 0 0 0 0 0
    0 0 0 0 0 0 0 0 0 0 0 0 0 0 0 0 0 0 0 0 0 0 0 0 0 0 0 0 0 0 0 0 0 0 0 0 0 0 0 0 0 0 0 0 0 0 0 0 0 0 0 0 0 0 0 0 0 0 0 0 0 0 0 0 0 0 0 0 0 -209 -193 -209 -209 -209 -209 -209 -193 -193 -193 -193 -209 -209 -209 -209 -209 -209 -209 -209 -209 -209 -209 -209 -193 82 84 -193 81 -193 -193 -209 -209 214 -209 -209 -209 -209 -209 -209 -209 -209 -209 -209 -209 -209 74 74 76 83 82 83 82 84 84 84 84 84 84 85 84 84 83 83 83 -225 -225 -225 -225 -225 -225 -225 -225 -225 -225 -225 -225 -225 -225 -225 -225 -225 -225 -225 -225 -225 -225 -225 -225 -225 -225 -225 -225 -225 -225 -225 -225 -225 -225 -225 -225 -225 -225 -225 -225 -225 -225 -225 -225 -225 -225 -225 -225 -225 -225 -225 -225 -225 -225 -225 -225 -225 -225 -225 -225 -225 -225 -225 -225 -225 -225 -225 -225 -225 -225 -225 -225 -225 -225 -225 71 75 71 70 68 70 70 69 71 72 71 73 74 76 76 76 76 76 75 76 76 77 77 77 78 79 81 82 83 87 87 -209 -193 92 93 94 94 94 95 96 97 99 101 103 106 108 109 112 112 114 115 114 116 117 119 119 119 122 126 125 129 130 130 132 133 133 133 136 137 138 139 148 156 153 155 155 156 155 159 158 156 153 155 156 155 155 156 154 154 156 156 154 153 155 -209 155 155 159 162 163 167 -209 -193 188 188 189 194 0 0 0 0 0
    0 0 0 0 0 0 0 0 0 0 0 0 0 0 0 0 0 0 0 0 0 0 0 0 0 0 0 0 0 0 0 0 0 0 0 0 0 0 0 0 0 0 0 0 0 0 0 0 0 0 0 0 0 0 0 0 0 0 0 0 0 0 0 0 0 0 0 0 0 -209 -193 -193 -177 -177 635 632 630 632 -209 -209 -209 -209 -209 -209 -209 -209 -209 -209 -209 -209 -209 -193 81 82 84 -193 82 80 83 -209 -209 -209 -193 -209 -209 -193 -209 -209 -209 -209 -209 -209 -209 -209 86 86 85 86 84 84 84 85 85 84 85 84 85 85 85 85 83 82 -225 -225 -225 -225 -225 -225 -225 -225 -225 -225 -225 -225 -225 -225 -225 -225 -225 -225 -225 -225 -225 -225 -225 -225 -225 -225 -225 -225 -225 -225 -225 -225 -225 -225 -225 -225 -225 -225 -225 -225 -225 -225 -225 -225 -225 -225 -225 -225 -225 -225 -225 -225 -225 -225 -225 -225 -225 -225 -225 -225 -225 -225 -225 -225 -225 -225 -225 -225 -225 -225 -225 -225 -225 -225 -225 -225 72 78 73 72 70 72 71 72 73 75 75 75 76 77 77 78 77 77 76 77 77 78 78 78 78 79 81 83 82 87 87 89 89 91 92 93 93 93 94 95 96 99 100 102 105 107 108 111 111 113 113 113 114 116 118 118 119 122 126 125 129 131 130 131 133 132 133 136 137 138 140 149 156 154 154 155 156 155 158 158 156 153 155 156 155 155 156 154 154 156 156 154 -209 -209 -209 -193 -193 161 -209 -209 -193 -193 -193 189 188 189 193 0 0 0 0 0
    0 0 0 0 0 0 0 0 0 0 0 0 0 0 0 0 0 0 0 0 0 0 0 0 0 0 0 0 0 0 0 0 0 0 0 0 0 0 0 0 0 0 0 0 0 0 0 0 0 0 0 0 0 0 0 0 0 0 0 0 0 0 0 0 0 0 0 0 0 -209 -193 -193 -177 -177 637 634 632 634 -209 -209 -209 472 -209 -209 -209 -209 94 94 94 -193 -209 -209 84 84 86 -193 -193 -193 -209 -209 -209 -209 -209 -209 -209 92 -209 -209 -209 -193 98 101 89 88 87 89 87 86 84 84 84 85 85 84 84 84 84 86 86 85 83 -225 -225 -225 -225 -225 -225 -225 -225 -225 -225 -225 -225 -225 -225 -225 -225 -225 -225 -225 -225 -225 -225 -225 -225 -225 -225 -225 -225 -225 -225 -225 -225 -225 -225 -225 -225 -225 -225 -225 -225 -225 -225 -225 -225 -225 -225 -225 -225 -225 -225 -225 -225 -225 -225 -225 -225 -225 -225 -225 -225 -225 -225 -225 -225 -225 -225 -225 -225 -225 -225 -225 -225 -225 -225 -225 -225 -225 -225 84 79 76 73 74 74 75 74 77 77 76 76 78 78 79 77 78 77 77 77 78 78 78 78 80 81 82 82 86 86 87 87 90 90 91 92 93 94 95 97 99 100 102 104 106 107 109 110 112 113 113 114 116 118 118 119 122 127 127 129 132 131 131 133 132 133 136 -193 -193 -193 149 156 154 154 155 156 154 156 158 155 153 155 156 156 156 156 155 154 157 158 156 -209 -193 -209 159 -193 165 170 -209 171 180 -209 188 188 190 194 0 0 0 0 0
    0 0 0 0 0 0 0 0 0 0 0 0 0 0 0 0 0 0 0 0 0 0 0 0 0 0 0 0 0 0 0 0 0 0 0 0 0 0 0 0 0 0 0 0 0 0 0 0 0 0 0 0 0 0 0 0 0 0 0 0 0 0 0 0 0 0 0 0 0 -209 -193 -193 -177 -177 637 635 632 634 -209 -209 -209 -193 -209 -209 -209 -209 92 92 93 90 -193 -193 84 85 -193 -209 -209 -193 -209 -209 -209 -209 -209 -209 -193 91 -193 -209 85 88 91 88 87 87 88 89 88 87 85 85 85 86 85 84 84 84 84 86 86 -225 -225 -225 -225 -225 -225 -225 -225 -225 -225 -225 -225 -225 -225 -225 -225 -225 -225 -225 -225 -225 -225 -225 -225 -225 -225 -225 -225 -225 -225 -225 -225 -225 -225 -225 -225 -225 -225 -225 -225 -225 -225 -225 -225 -225 -225 -225 -225 -225 -225 -225 -225 -225 -225 -225 -225 -225 -225 -225 -225 -225 -225 -225 -225 -225 -225 -225 -225 -225 -225 -225 -225 -225 -225 -225 -225 -225 -225 -225 -225 -225 -225 77 -209 -193 76 77 75 78 80 78 78 80 81 81 79 80 79 79 79 80 80 80 80 82 83 85 84 87 86 86 86 88 89 90 91 92 93 94 96 98 99 101 103 105 108 110 110 113 113 114 114 115 117 117 -193 122 129 128 131 132 131 132 133 133 134 137 -193 -193 -193 150 156 154 154 155 155 154 155 158 155 153 156 157 157 157 157 157 155 159 160 157 -209 -209 -209 -209 -209 -193 173 174 173 178 182 185 187 188 192 0 0 0 0 0
    0 0 0 0 0 0 0 0 0 0 0 0 0 0 0 0 0 0 0 0 0 0 0 0 0 0 0 0 0 0 0 0 0 0 0 0 0 0 0 0 0 0 0 0 0 0 0 0 0 0 0 0 0 0 0 0 0 0 0 0 0 0 0 0 0 0 0 0 0 -193 -193 -193 -177 -193 -193 639 -193 -193 -209 -209 -209 -209 -209 -193 -209 -209 94 94 93 92 90 -209 87 -209 -209 -209 -209 -209 -209 -209 -209 -209 -209 -209 90 91 -209 89 87 89 91 91 90 91 91 90 89 89 87 86 86 87 86 84 84 84 85 86 -225 -225 -225 -225 -225 -225 -225 -225 -225 -225 -225 -225 -225 -225 -225 -225 -225 -225 -225 -225 -225 -225 -225 -225 -225 -225 -225 -225 -225 -225 -225 -225 -225 -225 -225 -225 -225 -225 -225 -225 -225 -225 -225 -225 -225 -225 -225 -225 -225 -225 -225 -225 -225 -225 -225 -225 -225 -225 -225 -225 -225 -225 -225 -225 -225 -225 -225 -225 -225 -225 -225 -225 -225 -225 -225 -225 -225 -225 -225 -225 -225 -225 -225 -225 49 54 -177 75 74 78 81 81 80 81 81 82 82 82 81 81 81 82 83 83 83 83 84 86 84 87 87 87 88 89 90 90 91 92 93 94 96 97 98 101 103 105 108 110 111 113 114 115 114 115 117 117 -209 -193 128 127 130 132 131 132 133 133 134 138 -193 -193 -177 150 155 154 154 155 155 153 154 159 156 154 156 158 158 157 158 158 155 159 160 158 -209 -209 -209 -209 -209 172 177 177 175 179 181 183 186 186 190 0 0 0 0 0
    0 0 0 0 0 0 0 0 0 0 0 0 0 0 0 0 0 0 0 0 0 0 0 0 0 0 0 0 0 0 0 0 0 0 0 0 0 0 0 0 0 0 0 0 0 0 0 0 0 0 0 0 0 0 0 0 0 0 0 0 0 0 0 0 0 0 0 0 0 -193 -193 -209 -209 -193 -193 -177 -209 -193 -209 -209 -209 -209 -209 -177 -193 -209 96 96 95 95 93 -209 -209 -209 -209 -209 -209 -209 -209 -209 -209 -209 -209 89 90 92 91 90 89 91 92 93 92 91 91 91 90 90 88 87 87 88 86 85 85 85 85 -225 -225 -225 -225 -225 -225 -225 -225 -225 -225 -225 -225 -225 -225 -225 -225 -225 -225 -225 -225 -225 -225 -225 -225 -225 -225 -225 -225 -225 -225 -225 -225 -225 -225 -225 -225 -225 -225 -225 -225 -225 -225 -225 -225 -225 -225 -225 -225 -225 -225 -225 -225 -225 -225 -225 -225 -225 -225 -225 -225 -225 -225 -225 -225 -225 -225 -225 -225 -225 -225 -225 -225 -225 -225 -225 -225 -225 -225 -225 -225 -225 -225 -225 -225 -225 -225 55 71 75 75 79 82 82 81 82 83 84 84 85 84 84 83 84 85 85 85 85 86 87 87 89 89 89 89 89 91 91 92 93 94 95 97 98 99 101 103 105 107 110 110 112 114 115 115 116 117 117 119 -193 126 126 129 132 131 131 133 133 135 138 -193 -193 -193 150 155 154 154 155 155 154 155 160 157 155 157 159 159 159 159 159 155 161 162 159 163 -193 171 169 172 174 179 178 175 177 180 181 184 184 187 0 0 0 0 0
    0 0 0 0 0 0 0 0 0 0 0 0 0 0 0 0 0 0 0 0 0 0 0 0 0 0 0 0 0 0 0 0 0 0 0 0 0 0 0 0 0 0 0 0 0 0 0 0 0 0 0 0 0 0 0 0 0 0 0 0 0 0 0 0 0 0 0 0 0 -193 -193 -209 -193 101 98 -209 -209 -209 -209 -209 -209 -209 -209 -193 -193 -193 98 98 99 99 97 -193 -209 -209 -209 -209 -209 -209 -209 -209 -209 -209 89 90 92 93 93 91 90 91 94 96 94 92 92 92 92 91 90 88 88 87 86 84 84 83 -225 -225 -225 -225 -225 -225 -225 -225 -225 -225 -225 -225 -225 -225 -225 -225 -225 -225 -225 -225 -225 -225 -225 -225 -225 -225 -225 -225 -225 -225 -225 -225 -225 -225 -225 -225 -225 -225 -225 -225 -225 -225 -225 -225 -225 -225 -225 -225 -225 -225 -225 -225 -225 -225 -225 -225 -225 -225 -225 -225 -225 -225 -225 -225 -225 -225 -225 -225 -225 -225 -225 -225 -225 -225 -225 -225 -225 -225 -225 -225 -225 -225 -225 -225 -225 -225 -225 -225 -225 80 76 78 82 83 83 83 85 85 86 86 87 87 87 88 89 88 89 88 89 90 90 91 91 91 91 90 92 91 92 92 93 95 96 97 98 100 102 104 106 109 109 112 114 115 115 116 117 118 119 122 127 126 130 133 131 131 133 133 135 139 -193 -193 -193 150 155 154 154 155 155 154 155 161 157 156 158 160 160 160 160 160 155 163 163 162 167 169 172 170 173 175 179 176 174 176 178 180 182 182 184 0 0 0 0 0
    0 0 0 0 0 0 0 0 0 0 0 0 0 0 0 0 0 0 0 0 0 0 0 0 0 0 0 0 0 0 0 0 0 0 0 0 0 0 0 0 0 0 0 0 0 0 0 0 0 0 0 0 0 0 0 0 0 0 0 0 0 0 0 0 0 0 0 0 0 105 103 -193 98 100 99 -193 -193 -209 -209 -209 -193 -209 -209 -209 -193 -193 98 98 99 99 97 -193 94 -193 -209 -209 -209 -209 -209 -209 -209 -209 89 92 94 96 96 92 92 94 97 97 94 93 93 93 93 92 89 88 87 86 85 82 81 -225 -225 -225 -225 -225 -225 -225 -225 -225 -225 -225 -225 -225 -225 -225 -225 -225 -225 -225 -225 -225 -225 -225 -225 -225 -225 -225 -225 -225 -225 -225 -225 -225 -225 -225 -225 -225 -225 -225 -225 -225 -225 -225 -225 -225 -225 -225 -225 -225 -225 -225 -225 -225 -225 -225 -225 -225 -225 -225 -225 -225 -225 -225 -225 -225 -225 -225 -225 -225 -225 -225 -225 -225 -225 -225 -225 -225 -225 -225 -225 -225 -225 -225 -225 -225 -225 -225 -225 -225 -225 -225 78 78 83 84 83 84 85 86 87 87 88 89 89 90 91 90 91 90 91 92 92 93 93 94 95 93 95 93 93 93 94 95 95 95 98 100 101 103 105 106 108 109 111 113 115 115 116 117 118 121 126 126 129 132 131 131 133 133 135 139 -193 146 -193 150 154 154 154 155 155 154 155 162 157 156 158 160 160 161 161 161 156 164 165 164 169 171 173 172 174 176 179 176 174 175 176 178 180 180 182 0 0 0 0 0
    0 0 0 0 0 0 0 0 0 0 0 0 0 0 0 0 0 0 0 0 0 0 0 0 0 0 0 0 0 0 0 0 0 0 0 0 0 0 0 0 0 0 0 0 0 0 0 0 0 0 0 0 0 0 0 0 0 0 0 0 0 0 0 0 0 0 0 0 0 105 -193 -193 100 101 100 -193 -193 -193 -209 -209 100 -209 -193 -209 -193 97 97 97 97 96 95 -209 -209 -209 -209 -209 -209 -209 -209 -209 -209 -209 93 98 100 100 100 94 95 96 98 98 96 95 95 94 94 93 90 89 88 87 85 82 -225 -225 -225 -225 -225 -225 -225 -225 -225 -225 -225 -225 -225 -225 -225 -225 -225 -225 -225 -225 -225 -225 -225 -225 -225 -225 -225 -225 -225 -225 -225 -225 -225 -225 -225 -225 -225 -225 -225 -225 -225 -225 -225 -225 -225 -225 -225 -225 -225 -225 -225 -225 -225 -225 -225 -225 -225 -225 -225 -225 -225 -225 -225 -225 -225 -225 -225 -225 -225 -225 -225 -225 -225 -225 -225 -225 -225 -225 -225 -225 -225 -225 -225 -225 -225 -225 -225 -225 -225 -225 -225 -225 79 78 83 85 84 85 86 88 89 90 92 93 94 94 96 96 96 93 95 95 94 94 94 95 96 93 96 94 93 93 95 94 95 95 99 100 101 102 104 105 107 107 109 112 114 115 117 118 119 121 125 125 127 130 129 130 133 133 135 140 143 147 147 150 153 154 154 155 155 154 155 162 158 157 158 161 161 161 162 162 156 165 166 165 169 172 174 174 175 177 178 176 174 174 174 175 177 178 180 0 0 0 0 0
    0 0 0 0 0 0 0 0 0 0 0 0 0 0 0 0 0 0 0 0 0 0 0 0 0 0 0 0 0 0 0 0 0 0 0 0 0 0 0 0 0 0 0 0 0 0 0 0 0 0 0 0 0 0 0 0 0 0 0 0 0 0 0 0 0 0 0 0 0 109 108 -209 -193 -193 102 -193 -193 -193 -209 -209 101 -209 -193 -209 99 97 95 95 95 94 94 -193 -209 -209 -209 -209 -209 -209 -209 -209 -209 105 99 102 103 103 103 100 98 97 98 98 96 95 95 94 94 92 91 90 89 89 87 -225 -225 -225 -225 -225 -225 -225 -225 -225 -225 -225 -225 -225 -225 -225 -225 -225 -225 -225 -225 -225 -225 -225 -225 -225 -225 -225 -225 -225 -225 -225 -225 -225 -225 -225 -225 -225 -225 -225 -225 -225 -225 -225 -225 -225 -225 -225 -225 -225 -225 -225 -225 -225 -225 -225 -225 -225 -225 -225 -225 -225 -225 -225 -225 -225 -225 -225 -225 -225 -225 -225 -225 -225 -225 -225 -225 -225 -225 -225 -225 -225 -225 -225 -225 -225 -225 -225 -225 -225 -225 -225 -225 -225 -225 79 83 85 85 85 87 89 91 93 95 97 98 99 101 100 100 96 98 97 96 94 94 94 97 94 97 96 96 95 98 97 98 97 99 100 100 102 105 105 107 107 109 113 116 116 118 119 -209 121 124 124 126 128 128 129 133 133 135 141 145 148 148 150 153 154 154 155 155 154 155 162 158 157 157 161 161 161 162 162 156 165 166 166 169 172 174 174 176 177 178 176 174 174 174 174 176 176 177 0 0 0 0 0
    0 0 0 0 0 0 0 0 0 0 0 0 0 0 0 0 0 0 0 0 0 0 0 0 0 0 0 0 0 0 0 0 0 0 0 0 0 0 0 0 0 0 0 0 0 0 0 0 0 0 0 0 0 0 0 0 0 0 0 0 0 0 0 0 0 0 0 0 0 113 -209 -209 -209 -193 -193 -209 -193 -209 -209 -209 100 -193 -209 -193 98 95 94 93 94 93 94 -193 -209 -209 -209 -193 -209 -209 -209 -209 103 -193 99 103 104 104 105 102 100 98 99 98 97 96 95 94 93 93 92 91 91 -225 -225 -225 -225 -225 -225 -225 -225 -225 -225 -225 -225 -225 -225 -225 -225 -225 -225 -225 -225 -225 -225 -225 -225 -225 -225 -225 -225 -225 -225 -225 -225 -225 -225 -225 -225 -225 -225 -225 -225 -225 -225 -225 -225 -225 -225 -225 -225 -225 -225 -225 -225 -225 -225 -225 -225 -225 -225 -225 -225 -225 -225 -225 -225 -225 -225 -225 -225 -225 -225 -225 -225 -225 -225 -225 -225 -225 -225 -225 -225 -225 -225 -225 -225 -225 -225 -225 -225 -225 -225 -225 -225 -225 -225 -225 -225 78 80 84 84 86 87 90 93 94 97 100 100 101 103 102 102 100 101 100 99 97 96 95 98 96 98 97 99 96 97 98 98 98 99 100 101 102 105 106 108 108 110 113 116 116 117 118 119 121 123 123 125 127 127 130 133 133 135 141 145 148 147 149 152 153 154 155 155 154 155 162 158 157 157 161 161 161 162 162 156 165 166 165 169 172 174 174 175 177 177 175 174 174 173 173 175 176 176 0 0 0 0 0
    0 0 0 0 0 0 0 0 0 0 0 0 0 0 0 0 0 0 0 0 0 0 0 0 0 0 0 0 0 0 0 0 0 0 0 0 0 0 0 0 0 0 0 0 0 0 0 0 0 0 0 0 0 0 0 0 0 0 0 0 0 0 0 0 0 0 0 0 0 -209 -209 -209 -209 -193 -193 -209 -193 -209 -209 -209 97 -193 -193 -193 97 95 93 92 94 -193 94 -209 -209 -209 -209 68 -209 -209 -209 -209 97 102 99 102 104 105 105 104 102 101 101 100 99 98 96 93 93 93 92 91 -225 -225 -225 -225 -225 -225 -225 -225 -225 -225 -225 -225 -225 -225 -225 -225 -225 -225 -225 -225 -225 -225 -225 -225 -225 -225 -225 -225 -225 -225 -225 -225 -225 -225 -225 -225 -225 -225 -225 -225 -225 -225 -225 -225 -225 -225 -225 -225 -225 -225 -225 -225 -225 -225 -225 -225 -225 -225 -225 -225 -225 -225 -225 -225 -225 -225 -225 -225 -225 -225 -225 -225 -225 -225 -225 -225 -225 -225 -225 -225 -225 -225 -225 -225 -225 -225 -225 -225 -225 -225 -225 -225 -225 -225 -225 -225 -225 78 77 85 86 87 89 91 94 95 98 100 101 102 104 103 103 101 103 101 100 99 98 97 99 98 99 98 100 98 99 98 100 99 100 101 102 103 105 107 108 108 110 111 114 115 115 116 -209 119 121 122 125 126 127 130 132 133 135 141 144 146 146 148 151 153 154 155 155 154 155 163 158 158 157 161 161 161 161 162 156 165 165 165 168 172 174 174 174 176 176 174 173 173 172 172 174 176 176 0 0 0 0 0
    0 0 0 0 0 0 0 0 0 0 0 0 0 0 0 0 0 0 0 0 0 0 0 0 0 0 0 0 0 0 0 0 0 0 0 0 0 0 0 0 0 0 0 0 0 0 0 0 0 0 0 0 0 0 0 0 0 0 0 0 0 0 0 0 0 0 0 0 0 -209 -209 -193 -209 -209 -209 -209 -209 -209 -209 -209 98 -209 99 99 98 95 93 92 94 -193 94 -193 -209 -193 -209 66 -209 -209 93 92 95 100 99 102 105 106 105 105 104 103 103 102 101 99 96 95 95 94 93 91 -225 -225 -225 -225 -225 -225 -225 -225 -225 -225 -225 -225 -225 -225 -225 -225 -225 -225 -225 -225 -225 -225 -225 -225 -225 -225 -225 -225 -225 -225 -225 -225 -225 -225 -225 -225 -225 -225 -225 -225 -225 -225 -225 -225 -225 -225 -225 -225 -225 -225 -225 -225 -225 -225 -225 -225 -225 -225 -225 -225 -225 -225 -225 -225 -225 -225 -225 -225 -225 -225 -225 -225 -225 -225 -225 -225 -225 -225 -225 -225 -225 -225 -225 -225 -225 -225 -225 -225 -225 -225 -225 -225 -225 -225 -225 -225 -225 -225 79 86 88 89 91 93 97 97 100 102 102 103 105 104 104 103 103 102 101 100 100 99 100 99 100 99 101 99 100 99 100 99 100 100 101 102 104 106 108 108 108 110 112 113 114 115 115 115 119 -209 -209 -209 128 131 133 134 135 142 145 146 146 148 151 154 154 155 155 155 156 163 158 158 157 161 161 161 161 161 156 164 165 163 167 171 172 172 172 175 175 173 173 173 172 172 173 175 175 0 0 0 0 0
    0 0 0 0 0 0 0 0 0 0 0 0 0 0 0 0 0 0 0 0 0 0 0 0 0 0 0 0 0 0 0 0 0 0 0 0 0 0 0 0 0 0 0 0 0 0 0 0 0 0 0 0 0 0 0 0 0 0 0 0 0 0 0 0 0 0 0 0 0 -209 -209 255 -209 -209 -209 -209 -209 -209 -209 -193 -193 -193 100 99 99 96 94 93 94 -193 94 -209 -209 -193 -193 -193 -209 -209 91 91 94 99 100 104 106 106 106 106 105 104 104 104 102 99 99 98 97 95 95 92 -225 -225 -225 -225 -225 -225 -225 -225 -225 -225 -225 -225 -225 -225 -225 -225 -225 -225 -225 -225 -225 -225 -225 -225 -225 -225 -225 -225 -225 -225 -225 -225 -225 -225 -225 -225 -225 -225 -225 -225 -225 -225 -225 -225 -225 -225 -225 -225 -225 -225 -225 -225 -225 -225 -225 -225 -225 -225 -225 -225 -225 -225 -225 -225 -225 -225 -225 -225 -225 -225 -225 -225 -225 -225 -225 -225 -225 -225 -225 -225 -225 -225 -225 -225 -225 -225 -225 -225 -225 -225 -225 -225 -225 -225 -225 -225 -225 -225 -225 86 93 91 93 95 98 97 100 102 102 103 105 104 104 103 103 102 102 102 101 100 100 100 100 100 100 100 100 100 100 100 101 101 102 103 105 105 108 108 108 109 110 111 112 113 113 112 118 -209 -209 -209 131 133 134 134 136 142 146 147 147 148 151 154 155 155 156 155 156 163 159 159 157 161 161 161 161 161 156 164 164 162 166 170 170 170 170 172 173 172 173 172 171 171 172 175 175 0 0 0 0 0
    0 0 0 0 0 0 0 0 0 0 0 0 0 0 0 0 0 0 0 0 0 0 0 0 0 0 0 0 0 0 0 0 0 0 0 0 0 0 0 0 0 0 0 0 0 0 0 0 0 0 0 0 0 0 0 0 0 0 0 0 0 0 0 0 0 0 0 0 0 -209 -209 -209 -209 -209 -209 -209 -209 -209 -209 -193 -209 -193 101 99 99 97 94 -193 93 92 93 -193 86 79 78 -209 -209 -209 90 90 93 99 102 105 107 107 107 106 106 105 105 105 103 101 101 101 102 101 104 104 -193 106 107 106 -225 -225 -225 -225 -225 -225 -225 -225 -225 -225 -225 -225 -225 -225 -225 -225 -225 -225 -225 -225 -225 -225 -225 -225 -225 -225 -225 -225 -225 -225 -225 -225 -225 -225 -225 -225 -225 -225 -225 -225 -225 -225 -225 -225 -225 -225 -225 -225 -225 -225 -225 -225 -225 -225 -225 -225 -225 -225 -225 -225 -225 -225 -225 -225 -225 -225 -225 -225 -225 -225 -225 -225 -225 -225 -225 -225 -225 -225 -225 -225 -225 -225 -225 -225 -225 -225 -225 -225 -225 -225 -225 -225 -225 -225 -225 -225 95 95 94 96 99 98 100 102 102 104 105 105 105 104 104 103 103 103 102 101 102 101 102 101 102 101 101 100 99 99 101 100 101 101 104 105 106 108 108 109 109 110 111 112 112 112 -209 -209 -209 -209 133 133 134 134 135 141 144 146 146 148 151 155 155 156 156 156 157 164 159 159 157 161 160 160 161 161 155 162 162 159 164 169 168 169 169 171 171 172 174 172 171 171 173 175 176 0 0 0 0 0
    0 0 0 0 0 0 0 0 0 0 0 0 0 0 0 0 0 0 0 0 0 0 0 0 0 0 0 0 0 0 0 0 0 0 0 0 0 0 0 0 0 0 0 0 0 0 0 0 0 0 0 0 0 0 0 0 0 0 0 0 0 0 0 0 0 0 0 0 0 -209 -209 -209 -209 -209 -209 -209 -209 -209 -193 -193 -209 -193 101 -193 -193 98 94 92 93 92 93 89 -193 -193 87 -209 -209 -209 94 96 96 101 104 106 106 106 106 105 105 104 104 104 103 102 102 103 104 105 107 107 108 108 113 112 -209 -225 -225 -225 -225 -225 -225 -225 -225 -225 -225 -225 -225 -225 -225 -225 -225 -225 -225 -225 -225 -225 -225 -225 -225 -225 -225 -225 -225 -225 -225 -225 -225 -225 -225 -225 -225 -225 -225 -225 -225 -225 -225 -225 -225 -225 -225 -225 -225 -225 -225 -225 -225 -225 -225 -225 -225 -225 -225 -225 -225 -225 -225 -225 -225 -225 -225 -225 -225 -225 -225 -225 -225 -225 -225 -225 -225 -225 -225 -225 -225 -225 -225 -225 -225 -225 -225 -225 -209 -225 -225 -225 -225 -225 -225 -225 -225 -209 99 101 104 102 102 104 104 107 107 107 106 106 105 105 105 105 103 102 102 102 103 102 103 102 102 101 100 101 101 101 102 103 105 106 108 108 108 109 110 111 112 113 113 114 -209 -209 -209 126 131 132 133 133 135 139 142 143 144 145 150 154 155 156 156 156 157 164 159 159 157 161 161 160 160 160 155 160 160 157 159 163 164 166 168 169 171 173 175 173 172 172 173 176 178 0 0 0 0 0
    0 0 0 0 0 0 0 0 0 0 0 0 0 0 0 0 0 0 0 0 0 0 0 0 0 0 0 0 0 0 0 0 0 0 0 0 0 0 0 0 0 0 0 0 0 0 0 0 0 0 0 0 0 0 0 0 0 0 0 0 0 0 0 0 0 0 0 0 0 -209 -209 -209 -209 -209 -209 -209 -209 -209 -209 -209 -209 -209 -209 -193 101 -193 95 93 94 92 93 90 -193 91 91 -209 -209 98 98 101 101 105 104 106 105 105 105 105 104 103 104 104 103 103 103 104 105 106 108 107 109 109 116 117 -209 -225 -225 -225 -225 -225 -225 -225 -225 -225 -225 -225 -225 -225 -225 -225 -225 -225 -225 -225 -225 -225 -225 -225 -225 -225 -225 -225 -225 -225 -225 -225 -225 -225 -225 -225 -225 -225 -225 -225 -225 -225 -225 -225 -225 -225 -225 -225 -225 -225 -225 -225 -225 -225 -225 -225 -225 -225 -225 -225 -225 -225 -225 -225 -225 -225 -225 -225 -225 -225 -225 -225 -225 -225 -225 -225 -225 -225 -225 -225 -225 -225 -225 -225 -209 -209 -209 -209 -209 -209 -209 -209 -209 -225 -225 -225 -225 -209 99 101 104 102 102 103 103 106 106 106 106 106 105 105 105 105 103 102 102 103 103 103 103 103 104 104 104 105 104 104 106 107 108 110 112 110 110 111 111 112 113 113 114 114 -209 -209 -209 125 131 132 132 132 134 138 140 141 142 143 149 154 155 156 156 156 157 164 159 159 157 160 160 160 160 160 155 159 159 156 157 155 160 163 164 167 170 173 177 174 173 173 173 176 177 0 0 0 0 0
    0 0 0 0 0 0 0 0 0 0 0 0 0 0 0 0 0 0 0 0 0 0 0 0 0 0 0 0 0 0 0 0 0 0 0 0 0 0 0 0 0 0 0 0 0 0 0 0 0 0 0 0 0 0 0 0 0 0 0 0 0 0 0 0 0 0 0 0 0 -209 -209 -209 -209 -209 -209 -209 -209 -209 -209 -209 -209 -209 103 -193 -193 -193 101 99 98 96 97 93 -193 95 97 -209 -193 100 99 103 104 105 105 106 105 105 105 105 104 103 104 104 103 103 104 104 106 107 110 107 109 109 117 117 -209 -225 -225 -225 -225 -225 -225 -225 -225 -225 -225 -225 -225 -225 -225 -225 -225 -225 -225 -225 -225 -225 -225 -225 -225 -225 -225 -225 -225 -225 -225 -225 -225 -225 -225 -225 -225 -225 -225 -225 -225 -225 -225 -225 -225 -225 -225 -225 -225 -225 -225 -225 -225 -225 -225 -225 -225 -225 -225 -225 -225 -225 -225 -225 -225 -225 -225 -225 -225 -225 -225 -225 -225 -225 -225 -225 -225 -225 -225 -225 -225 -225 -225 -225 -209 -209 -209 -209 -209 -209 -209 -209 -209 -209 -209 -209 -209 -209 101 101 104 102 100 103 102 105 106 106 105 106 105 105 105 105 104 103 103 106 104 104 105 106 106 106 107 107 106 106 108 110 111 114 115 112 113 113 113 113 112 112 111 113 -209 -209 -209 124 130 132 131 131 133 136 139 140 141 142 149 154 155 156 156 156 157 164 159 159 157 160 160 159 159 159 155 158 159 156 157 155 160 163 165 167 171 174 178 175 173 174 175 178 179 0 0 0 0 0
    0 0 0 0 0 0 0 0 0 0 0 0 0 0 0 0 0 0 0 0 0 0 0 0 0 0 0 0 0 0 0 0 0 0 0 0 0 0 0 0 0 0 0 0 0 0 0 0 0 0 0 0 0 0 0 0 0 0 0 0 0 0 0 0 0 0 0 0 0 -209 -209 -209 -209 -209 -209 -209 -209 -209 -209 -209 -209 -209 105 106 106 107 105 104 103 102 102 102 102 102 102 102 -193 102 102 105 105 106 106 107 106 105 105 105 104 104 105 104 104 104 105 105 107 108 111 107 109 109 117 117 -209 -225 -225 -225 -225 -225 -225 -225 -225 -225 -225 -225 -225 -225 -225 -225 -225 -225 -225 -225 -225 -225 -225 -225 -225 -225 -225 -225 -225 -225 -225 -225 -225 -225 -225 -225 -225 -225 -225 -225 -225 -225 -225 -225 -225 -225 -225 -225 -225 -225 -225 -225 -225 -225 -225 -225 -225 -225 -225 -225 -225 -225 -225 -225 -225 -225 -225 -225 -225 -225 -225 -225 -225 -225 -225 -225 -225 -225 -225 -225 -225 -225 -225 -225 -209 -209 -209 -209 -209 -209 -209 -209 -209 -209 -209 -209 -209 -209 -209 103 104 104 100 103 102 106 106 106 105 106 106 106 106 106 105 105 105 108 106 105 106 107 108 108 109 110 108 109 112 114 113 115 116 113 115 114 113 112 112 112 111 114 117 -209 -209 124 128 130 130 130 132 135 -193 -193 140 141 149 154 155 156 156 156 157 163 159 159 156 159 159 159 159 159 155 158 159 155 158 158 162 164 165 167 170 172 177 175 173 175 176 180 181 0 0 0 0 0
    0 0 0 0 0 0 0 0 0 0 0 0 0 0 0 0 0 0 0 0 0 0 0 0 0 0 0 0 0 0 0 0 0 0 0 0 0 0 0 0 0 0 0 0 0 0 0 0 0 0 0 0 0 0 0 0 0 0 0 0 0 0 0 0 0 0 0 0 0 -209 -177 -177 -209 -209 -209 -193 -209 -209 -209 115 111 109 108 109 108 109 108 107 106 106 105 105 105 104 105 107 -209 106 105 109 108 109 110 110 106 105 105 105 104 104 105 105 104 104 105 106 107 108 111 107 109 109 117 117 -209 -225 -225 -225 -225 -225 -225 -225 -225 -225 -225 -225 -225 -225 -225 -225 -225 -225 -225 -225 -225 -225 -225 -225 -225 -225 -225 -225 -225 -225 -225 -225 -225 -225 -225 -225 -225 -225 -225 -225 -225 -225 -225 -225 -225 -225 -225 -225 -225 -225 -225 -225 -225 -225 -225 -225 -225 -225 -225 -225 -225 -225 -225 -225 -225 -225 -225 -225 -225 -225 -225 -225 -225 -225 -225 -225 -225 -225 -225 -225 -225 -225 -225 -225 -209 -209 -209 -209 -209 -209 -209 -209 -209 -209 -209 -209 -209 -209 -209 105 107 106 101 103 103 106 106 106 104 106 105 106 106 106 105 105 105 109 108 108 108 112 113 112 112 113 111 112 114 116 115 117 118 115 117 117 115 114 114 114 112 115 117 119 121 122 126 128 129 130 133 136 139 140 141 142 149 154 155 156 156 156 156 163 159 158 156 158 158 158 158 158 155 157 159 155 159 161 163 164 164 165 168 168 172 170 170 172 173 177 179 0 0 0 0 0
    0 0 0 0 0 0 0 0 0 0 0 0 0 0 0 0 0 0 0 0 0 0 0 0 0 0 0 0 0 0 0 0 0 0 0 0 0 0 0 0 0 0 0 0 0 0 0 0 0 0 0 0 0 0 0 0 0 0 0 0 0 0 0 0 0 0 0 0 0 -209 -177 -177 -177 -209 -209 -209 -209 -209 113 117 113 110 109 110 109 109 110 109 107 107 106 107 107 107 112 116 120 -209 113 117 116 116 116 113 106 104 105 105 104 104 105 105 104 104 105 106 107 108 111 108 109 109 117 117 -209 -225 -225 -225 -225 -225 -225 -225 -225 -225 -225 -225 -225 -225 -225 -225 -225 -225 -225 -225 -225 -225 -225 -225 -225 -225 -225 -225 -225 -225 -225 -225 -225 -225 -225 -225 -225 -225 -225 -225 -225 -225 -225 -225 -225 -225 -225 -225 -225 -225 -225 -225 -225 -225 -225 -225 -225 -225 -225 -225 -225 -225 -225 -225 -225 -225 -225 -225 -225 -225 -225 -225 -225 -225 -225 -225 -225 -225 -225 -225 -225 -225 -225 -225 -209 -209 -209 -209 -209 -209 -209 -209 -209 -209 -209 -209 -209 -209 -209 106 112 109 102 103 103 106 105 105 104 104 104 106 106 107 106 108 109 115 115 116 115 117 117 116 115 114 112 115 115 116 116 117 117 116 118 118 117 116 116 116 115 116 118 120 121 122 125 127 129 131 133 136 140 141 142 144 149 155 155 156 156 156 156 162 159 158 155 157 157 157 157 157 154 156 159 155 159 161 162 163 163 163 166 166 168 167 168 170 171 174 174 0 0 0 0 0
    0 0 0 0 0 0 0 0 0 0 0 0 0 0 0 0 0 0 0 0 0 0 0 0 0 0 0 0 0 0 0 0 0 0 0 0 0 0 0 0 0 0 0 0 0 0 0 0 0 0 0 0 0 0 0 0 0 0 0 0 0 0 0 0 0 0 0 0 0 -209 -193 -177 -209 -209 -209 -209 -209 -193 112 116 112 109 109 110 109 111 113 111 110 109 110 111 114 118 120 122 128 126 120 122 120 120 119 115 106 104 105 104 104 104 104 104 104 105 106 107 107 108 112 108 110 110 117 118 -209 -225 -225 -225 -225 -225 -225 -225 -225 -225 -225 -225 -225 -225 -225 -225 -225 -225 -225 -225 -225 -225 -225 -225 -225 -225 -225 -225 -225 -225 -225 -225 -225 -225 -225 -225 -225 -225 -225 -225 -225 -225 -225 -225 -225 -225 -225 -225 -225 -225 -225 -225 -225 -225 -225 -225 -225 -225 -225 -225 -225 -225 -225 -225 -225 -225 -225 -225 -225 -225 -225 -225 -225 -225 -225 -225 -225 -225 -225 -225 -225 -225 -225 -225 -209 -209 -209 -209 -209 -209 -209 -209 -209 -209 -209 -209 -209 -209 -209 106 114 112 103 103 104 106 105 105 104 104 104 107 108 109 109 115 117 118 118 119 119 121 120 119 119 117 116 117 118 118 118 119 118 118 119 120 120 119 118 119 118 119 120 121 121 121 124 125 127 129 132 136 140 140 142 144 149 155 155 156 156 156 156 162 159 157 155 157 157 156 156 157 154 156 158 155 158 161 162 164 163 162 165 166 168 167 168 171 171 173 174 0 0 0 0 0
    0 0 0 0 0 0 0 0 0 0 0 0 0 0 0 0 0 0 0 0 0 0 0 0 0 0 0 0 0 0 0 0 0 0 0 0 0 0 0 0 0 0 0 0 0 0 0 0 0 0 0 0 0 0 0 0 0 0 0 0 0 0 0 0 0 0 0 0 0 -209 -209 -193 -209 -209 -209 -209 -209 -209 113 116 112 109 109 111 111 114 116 114 113 113 114 116 119 122 123 127 132 135 131 131 130 123 120 116 105 103 104 104 103 103 104 104 103 105 106 107 107 109 113 108 112 111 119 120 -225 -225 -225 -225 -225 -225 -225 -225 -225 -225 -225 -225 -225 -225 -225 -225 -225 -225 -225 -225 -225 -225 -225 -225 -225 -225 -225 -225 -225 -225 -225 -225 -225 -225 -225 -225 -225 -225 -225 -225 -225 -225 -225 -225 -225 -225 -225 -225 -225 -225 -225 -225 -225 -225 -225 -225 -225 -225 -225 -225 -225 -225 -225 -225 -225 -225 -225 -225 -225 -225 -225 -225 -225 -225 -225 -225 -225 -225 -225 -225 -225 -225 -225 -225 -209 -209 -209 -209 -209 -209 -209 -209 -209 -209 -209 -209 -209 -209 -209 106 115 115 -209 104 -193 108 106 106 105 105 105 109 109 109 111 116 117 119 118 119 120 122 121 120 120 119 117 118 119 118 118 119 118 118 120 122 122 121 120 120 120 122 121 122 122 121 124 124 126 129 132 135 139 -193 141 143 149 155 154 156 156 156 156 161 159 157 155 156 157 157 157 157 155 156 160 156 161 163 164 166 166 165 167 168 170 170 171 173 173 174 176 0 0 0 0 0
    0 0 0 0 0 0 0 0 0 0 0 0 0 0 0 0 0 0 0 0 0 0 0 0 0 0 0 0 0 0 0 0 0 0 0 0 0 0 0 0 0 0 0 0 0 0 0 0 0 0 0 0 0 0 0 0 0 0 0 0 0 0 0 0 0 0 0 0 0 -209 -209 -209 -209 -209 -209 -209 -209 -209 116 116 113 110 112 114 113 116 118 117 116 116 117 119 121 123 125 130 132 134 135 135 134 128 124 117 104 102 103 103 102 102 104 103 103 105 106 107 -193 -193 114 107 114 112 121 -225 -225 -225 -225 -225 -225 -225 -225 -225 -225 -225 -225 -225 -225 -225 -225 -225 -225 -225 -225 -225 -225 -225 -225 -225 -225 -225 -225 -225 -225 -225 -225 -225 -225 -225 -225 -225 -225 -225 -225 -225 -225 -225 -225 -225 -225 -225 -225 -225 -225 -225 -225 -225 -225 -225 -225 -225 -225 -225 -225 -225 -225 -225 -225 -225 -225 -225 -225 -225 -225 -225 -225 -225 -225 -225 -225 -225 -225 -225 -225 -225 -225 -225 -225 -225 -225 -209 -209 -209 -209 -209 -209 -209 -209 -209 -209 -209 -209 -209 104 104 113 113 108 105 106 105 104 104 103 103 103 107 108 109 112 117 118 120 121 121 122 123 123 123 121 120 119 119 120 119 119 119 118 119 120 122 122 122 121 121 121 122 122 122 122 122 123 124 125 128 131 135 -193 -209 141 143 149 154 154 155 156 156 156 160 159 157 155 156 157 157 157 157 156 156 161 158 163 164 165 167 -193 -193 -193 168 170 170 172 173 174 175 179 0 0 0 0 0
    0 0 0 0 0 0 0 0 0 0 0 0 0 0 0 0 0 0 0 0 0 0 0 0 0 0 0 0 0 0 0 0 0 0 0 0 0 0 0 0 0 0 0 0 0 0 0 0 0 0 0 0 0 0 0 0 0 0 0 0 0 0 0 0 0 0 0 0 0 -209 -209 -209 -209 -209 -209 -209 -193 -209 -193 117 114 -193 -193 -193 116 117 119 118 118 118 120 121 123 125 126 130 132 134 134 134 133 127 124 120 107 102 103 104 103 103 104 104 104 105 107 108 -193 -193 116 106 110 113 -225 -225 -225 -225 -225 -225 -225 -225 -225 -225 -225 -225 -225 -225 -225 -225 -225 -225 -225 -225 -225 -225 -225 -225 -225 -225 -225 -225 -225 -225 -225 -225 -225 -225 -225 -225 -225 -225 -225 -225 -225 -225 -225 -225 -225 -225 -225 -225 -225 -225 -225 -225 -225 -225 -225 -225 -225 -225 -225 -225 -225 -225 -225 -225 -225 -225 -225 -225 -225 -225 -225 -225 -225 -225 -225 -225 -225 -225 -225 -225 -225 -225 -225 -225 -225 -225 -225 -225 -225 -225 -225 -225 -225 -225 -225 -225 -225 -225 -225 -225 -193 -193 -193 111 109 106 105 103 102 102 102 103 103 106 107 109 114 117 120 121 121 121 123 124 123 123 122 121 120 120 121 119 120 120 119 120 121 123 124 123 123 124 123 124 125 123 121 121 122 123 124 128 130 135 -193 -193 142 145 150 155 155 155 156 156 155 159 159 156 155 156 157 157 157 157 156 156 162 159 164 165 165 167 168 167 -193 168 169 169 170 172 173 175 180 0 0 0 0 0
    0 0 0 0 0 0 0 0 0 0 0 0 0 0 0 0 0 0 0 0 0 0 0 0 0 0 0 0 0 0 0 0 0 0 0 0 0 0 0 0 0 0 0 0 0 0 0 0 0 0 0 0 0 0 0 0 0 0 0 0 0 0 0 0 0 0 0 0 0 -209 -209 -209 -209 -209 -209 -209 -193 -209 -209 112 113 -193 -193 -193 118 119 120 120 120 121 123 124 127 129 131 134 134 135 135 135 134 130 124 122 115 102 104 105 102 103 105 105 105 106 109 111 -209 -209 -225 -225 -225 -225 -225 -225 -225 -225 -225 -225 -225 -225 -225 -225 -225 -225 -225 -225 -225 -225 -225 -225 -225 -225 -225 -225 -225 -225 -225 -225 -225 -225 -225 -225 -225 -225 -225 -225 -225 -225 -225 -225 -225 -225 -225 -225 -225 -225 -225 -225 -225 -225 -225 -225 -225 -225 -225 -225 -225 -225 -225 -225 -225 -225 -225 -225 -225 -225 -225 -225 -225 -225 -225 -225 -225 -225 -225 -225 -225 -225 -225 -225 -225 -225 -225 -225 -225 -225 -225 -225 -225 -225 -225 -225 -225 -225 -225 -225 -225 -225 -225 -225 -225 -225 -225 -225 -225 -225 -225 -225 -225 -225 101 99 102 104 104 107 107 110 115 118 120 122 122 122 124 125 125 125 124 122 121 121 122 120 121 121 121 121 123 125 126 125 126 126 125 127 130 127 124 123 124 124 126 129 131 134 -193 -209 143 147 151 156 156 156 157 157 155 158 160 157 155 156 157 157 157 157 157 156 160 158 163 165 164 165 166 165 -193 166 167 167 169 171 172 175 182 0 0 0 0 0
    0 0 0 0 0 0 0 0 0 0 0 0 0 0 0 0 0 0 0 0 0 0 0 0 0 0 0 0 0 0 0 0 0 0 0 0 0 0 0 0 0 0 0 0 0 0 0 0 0 0 0 0 0 0 0 0 0 0 0 0 0 0 0 0 0 0 0 0 0 -209 -193 -193 -209 -209 -209 -209 -193 -209 -209 -209 -209 -209 -193 122 121 123 124 126 126 127 130 129 131 132 133 135 136 135 136 135 135 134 131 128 123 94 103 -225 -225 106 108 108 108 109 112 -225 -225 -225 -225 -225 -225 -225 -225 -225 -225 -225 -225 -225 -225 -225 -225 -225 -225 -225 -225 -225 -225 -225 -225 -225 -225 -225 -225 -225 -225 -225 -225 -225 -225 -225 -225 -225 -225 -225 -225 -225 -225 -225 -225 -225 -225 -225 -225 -225 -225 -225 -225 -225 -225 -225 -225 -225 -225 -225 -225 -225 -225 -225 -225 -225 -225 -225 -225 -225 -225 -225 -225 -225 -225 -225 -225 -225 -225 -225 -225 -225 -225 -225 -225 -225 -225 -225 -225 -225 -225 -225 -225 -225 -225 -225 -225 -225 -225 -225 -225 -225 -225 -225 -225 -225 -225 -225 -225 -225 -225 -225 -225 -225 -225 -225 -225 -225 99 100 103 104 106 108 113 116 119 121 123 123 125 126 126 127 125 125 123 123 123 122 122 122 122 123 124 127 128 127 131 131 130 130 133 130 127 126 127 124 126 130 131 134 -193 -209 145 148 152 156 156 156 157 157 155 157 161 157 156 156 157 158 157 157 157 155 158 157 159 162 161 164 164 164 165 165 166 167 169 170 172 175 182 0 0 0 0 0
    0 0 0 0 0 0 0 0 0 0 0 0 0 0 0 0 0 0 0 0 0 0 0 0 0 0 0 0 0 0 0 0 0 0 0 0 0 0 0 0 0 0 0 0 0 0 0 0 0 0 0 0 0 0 0 0 0 0 0 0 0 0 0 0 0 0 0 0 0 -177 -177 -193 -209 -209 -209 -209 -209 -209 -193 -209 -209 -193 122 124 125 127 130 132 132 133 134 133 134 134 135 136 135 135 135 135 135 135 135 -225 -225 -225 -225 -225 -225 -225 -225 -225 -225 -225 -225 -225 -225 -225 -225 -225 -225 -225 -225 -225 -225 -225 -225 -225 -225 -225 -225 -225 -225 -225 -225 -225 -225 -225 -225 -225 -225 -225 -225 -225 -225 -225 -225 -225 -225 -225 -225 -225 -225 -225 -225 -225 -225 -225 -225 -225 -225 -225 -225 -225 -225 -225 -225 -225 -225 -225 -225 -225 -225 -225 -225 -225 -225 -225 -225 -225 -225 -225 -225 -225 -225 -225 -225 -225 -225 -225 -225 -225 -225 -225 -225 -225 -225 -225 -225 -225 -225 -225 -225 -225 -225 -225 -225 -225 -225 -225 -225 -225 -225 -225 -225 -225 -225 -225 -225 -225 -225 -225 -225 -225 -225 -225 -225 -225 -225 -225 -225 -225 -225 95 102 103 105 108 114 117 120 122 124 124 126 127 127 128 127 127 126 124 125 123 124 125 124 125 126 129 130 130 132 133 132 132 133 132 131 132 134 133 132 135 135 136 140 -209 147 147 152 157 157 156 157 157 155 156 161 157 156 156 158 158 157 157 157 155 158 157 158 161 161 163 164 164 164 165 165 167 169 169 172 175 181 0 0 0 0 0
    0 0 0 0 0 0 0 0 0 0 0 0 0 0 0 0 0 0 0 0 0 0 0 0 0 0 0 0 0 0 0 0 0 0 0 0 0 0 0 0 0 0 0 0 0 0 0 0 0 0 0 0 0 0 0 0 0 0 0 0 0 0 0 0 0 0 0 0 0 988 -177 -177 -209 -209 -209 -209 -209 -209 -209 -209 -209 124 125 127 128 132 133 133 135 136 136 136 136 135 136 137 137 136 136 135 136 -225 -225 -225 -225 -225 -225 -225 -225 -225 -225 -225 -225 -225 -225 -225 -225 -225 -225 -225 -225 -225 -225 -225 -225 -225 -225 -225 -225 -225 -225 -225 -225 -225 -225 -225 -225 -225 -225 -225 -225 -225 -225 -225 -225 -225 -225 -225 -225 -225 -225 -225 -225 -225 -225 -225 -225 -225 -225 -225 -225 -225 -225 -225 -225 -225 -225 -225 -225 -225 -225 -225 -225 -225 -225 -225 -225 -225 -225 -225 -225 -225 -225 -225 -225 -225 -225 -225 -225 -225 -225 -225 -225 -225 -225 -225 -225 -225 -225 -225 -225 -225 -225 -225 -225 -225 -225 -225 -225 -225 -225 -225 -225 -225 -225 -225 -225 -225 -225 -225 -225 -225 -225 -225 -225 -225 -225 -225 -225 -225 -225 -225 -225 -225 102 107 107 110 115 117 119 122 123 124 127 128 128 130 128 128 127 125 125 124 124 125 123 126 127 130 131 130 132 134 133 134 134 135 134 135 138 137 135 136 136 136 139 -209 145 141 153 157 157 156 156 157 155 156 161 157 156 157 158 159 158 158 158 155 158 158 159 161 162 164 165 165 166 166 166 167 170 170 172 174 180 0 0 0 0 0
    0 0 0 0 0 0 0 0 0 0 0 0 0 0 0 0 0 0 0 0 0 0 0 0 0 0 0 0 0 0 0 0 0 0 0 0 0 0 0 0 0 0 0 0 0 0 0 0 0 0 0 0 0 0 0 0 0 0 0 0 0 0 0 0 0 0 0 0 0 -177 -177 -177 -209 -177 -177 -209 -209 -209 -209 -209 -209 126 128 130 133 134 134 135 137 138 138 137 137 137 137 137 138 137 136 136 -225 -225 -225 -225 -225 -225 -225 -225 -225 -225 -225 -225 -225 -225 -225 -225 -225 -225 -225 -225 -225 -225 -225 -225 -225 -225 -225 -225 -225 -225 -225 -225 -225 -225 -225 -225 -225 -225 -225 -225 -225 -225 -225 -225 -225 -225 -225 -225 -225 -225 -225 -225 -225 -225 -225 -225 -225 -225 -225 -225 -225 -225 -225 -225 -225 -225 -225 -225 -225 -225 -225 -225 -225 -225 -225 -225 -225 -225 -225 -225 -225 -225 -225 -225 -225 -225 -225 -225 -225 -225 -225 -225 -225 -225 -225 -225 -225 -225 -225 -225 -225 -225 -225 -225 -225 -225 -225 -225 -225 -225 -225 -225 -225 -225 -225 -225 -225 -225 -225 -225 -225 -225 -225 -225 -225 -225 -225 -225 -225 -225 -225 -225 -225 -225 -225 104 106 108 113 116 119 121 123 124 126 128 128 130 127 128 127 126 127 126 125 126 125 128 129 131 132 132 133 135 134 136 137 136 136 136 141 139 138 139 138 137 140 141 143 138 152 156 157 155 156 156 155 156 162 158 157 157 160 160 159 159 159 156 159 159 159 161 162 164 166 166 167 167 168 168 171 171 173 175 180 0 0 0 0 0
    0 0 0 0 0 0 0 0 0 0 0 0 0 0 0 0 0 0 0 0 0 0 0 0 0 0 0 0 0 0 0 0 0 0 0 0 0 0 0 0 0 0 0 0 0 0 0 0 0 0 0 0 0 0 0 0 0 0 0 0 0 0 0 0 0 0 0 0 0 -177 -177 -177 -209 -193 -209 -209 -209 -209 -209 -209 128 129 131 132 134 135 135 136 138 139 140 139 138 138 138 138 138 137 136 -225 -225 -225 -225 -225 -225 -225 -225 -225 -225 -225 -225 -225 -225 -225 -225 -225 -225 -225 -225 -225 -225 -225 -225 -225 -225 -225 -225 -225 -225 -225 -225 -225 -225 -225 -225 -225 -225 -225 -225 -225 -225 -225 -225 -225 -225 -225 -225 -225 -225 -225 -225 -225 -225 -225 -225 -225 -225 -225 -225 -225 -225 -225 -225 -225 -225 -225 -225 -225 -225 -225 -225 -225 -225 -225 -225 -225 -225 -225 -225 -225 -225 -225 -225 -225 -225 -225 -225 -225 -225 -225 -225 -225 -225 -225 -225 -225 -225 -225 -225 -225 -225 -225 -225 -225 -225 -225 -225 -225 -225 -225 -225 -225 -225 -225 -225 -225 -225 -225 -225 -225 -225 -225 -225 -225 -225 -225 -225 -225 -225 -225 -225 -225 -225 -225 -225 -225 103 104 110 113 117 118 122 123 125 128 128 129 127 129 128 127 128 127 126 128 126 129 130 132 132 132 133 135 135 137 138 138 138 139 143 141 139 141 139 138 141 143 144 139 152 154 157 155 156 156 155 156 163 158 158 158 160 160 160 159 159 156 159 159 158 160 161 163 166 166 167 168 167 168 170 171 173 175 179 0 0 0 0 0</data></disparity>
</opencv_storage>
