<?xml version="1.0"?>
<opencv_storage>
<gps_time_stamp>287420</gps_time_stamp>
<gps_x>-1.2384174346923828e+001</gps_x>
<gps_y>1.1136144638061523e+001</gps_y>
<gps_z>-2.2231321334838867e+000</gps_z>
<image_time_stamp>278258</image_time_stamp>
<disparity type_id="opencv-matrix">
  <rows>88</rows>
  <cols>320</cols>
  <dt>s</dt>
  <data>
    0 0 0 0 0 0 0 0 0 0 0 0 0 0 0 0 0 0 0 0 0 0 0 0 0 0 0 0 0 0 0 0 0 0 0 0 0 0 0 0 0 0 0 0 0 0 0 0 0 0 0 0 0 0 0 0 0 0 0 0 0 0 0 0 0 0 0 0 0 47 46 47 47 46 42 44 45 45 42 41 41 42 43 47 53 52 52 -193 56 -209 -209 -209 50 47 50 53 55 53 51 52 53 -209 -209 -193 51 50 47 50 52 52 50 50 52 51 49 50 49 47 47 53 51 49 49 51 -177 -193 51 -193 -193 46 47 -193 51 54 46 47 43 45 49 51 49 47 47 49 49 49 51 50 48 53 54 51 52 52 51 50 50 50 50 50 52 49 48 50 -177 -193 52 51 51 54 56 56 57 57 56 55 56 55 55 54 56 51 52 53 51 51 52 51 50 47 51 49 48 53 52 49 50 53 53 53 53 51 48 -193 45 -193 47 47 47 47 46 45 46 49 49 49 50 48 49 50 54 56 56 56 57 57 58 59 61 63 63 64 68 68 70 70 71 71 -193 -193 75 75 78 79 79 80 84 84 83 86 86 85 85 89 89 86 94 93 94 97 95 97 96 101 100 97 104 104 -209 107 108 108 108 111 111 113 115 115 116 118 118 118 119 119 121 121 122 125 123 125 126 125 126 126 127 126 125 126 126 127 129 127 129 129 131 132 132 133 132 132 134 134 132 132 130 0 0 0 0 0
    0 0 0 0 0 0 0 0 0 0 0 0 0 0 0 0 0 0 0 0 0 0 0 0 0 0 0 0 0 0 0 0 0 0 0 0 0 0 0 0 0 0 0 0 0 0 0 0 0 0 0 0 0 0 0 0 0 0 0 0 0 0 0 0 0 0 0 0 0 47 46 47 47 46 41 43 44 44 42 40 40 40 42 45 50 49 49 56 52 -209 -209 -209 49 48 49 52 53 53 51 51 53 -209 -193 55 51 49 48 51 52 51 50 50 52 51 49 50 50 47 48 53 51 49 50 -193 -177 -193 51 51 43 47 49 47 51 52 45 46 44 45 51 50 48 47 47 50 49 49 51 50 48 54 54 51 52 52 51 50 50 50 50 50 51 49 -177 51 -193 -193 53 51 52 55 57 57 58 57 57 56 57 56 56 54 55 50 51 52 49 50 52 50 50 46 50 49 49 54 52 49 51 53 53 53 53 51 50 54 47 -193 50 51 51 51 50 48 49 51 51 50 50 48 49 50 54 56 55 55 57 57 58 59 61 63 63 64 69 68 70 70 71 71 71 -193 75 75 78 79 79 80 84 84 83 86 86 85 85 89 89 87 94 93 94 97 96 98 97 101 101 99 105 105 -193 107 108 107 107 110 111 112 114 114 115 117 117 117 118 119 120 121 122 125 123 125 126 125 126 126 127 126 125 126 127 127 130 128 129 129 131 132 132 132 132 132 133 133 132 132 130 0 0 0 0 0
    0 0 0 0 0 0 0 0 0 0 0 0 0 0 0 0 0 0 0 0 0 0 0 0 0 0 0 0 0 0 0 0 0 0 0 0 0 0 0 0 0 0 0 0 0 0 0 0 0 0 0 0 0 0 0 0 0 0 0 0 0 0 0 0 0 0 0 0 0 47 46 47 47 47 42 44 44 45 42 41 41 42 44 48 50 50 51 54 51 54 55 52 48 48 48 51 53 53 51 52 54 -209 -193 56 52 49 49 51 52 50 49 51 52 51 49 51 50 47 48 53 50 49 50 -193 -177 50 51 51 43 48 50 49 53 52 46 47 46 46 52 50 48 47 -177 50 50 50 51 49 49 55 53 52 52 52 52 51 51 51 51 51 51 49 367 -193 -193 -193 53 51 54 57 58 57 58 58 57 57 57 56 56 54 55 50 51 51 48 49 52 50 50 46 51 -193 51 55 53 50 52 54 54 54 54 52 53 56 51 -193 -193 52 52 51 50 47 49 51 52 50 51 50 50 51 54 56 55 55 57 57 58 59 61 63 63 65 69 68 70 70 71 71 71 77 75 76 78 79 79 80 84 84 82 86 85 85 85 89 89 87 94 93 94 97 97 98 98 102 101 100 105 105 105 107 108 107 107 111 111 112 114 114 115 116 116 117 118 118 120 120 121 126 123 125 125 125 126 126 127 126 125 126 127 128 130 128 130 129 131 132 132 132 132 132 133 133 132 132 130 0 0 0 0 0
    0 0 0 0 0 0 0 0 0 0 0 0 0 0 0 0 0 0 0 0 0 0 0 0 0 0 0 0 0 0 0 0 0 0 0 0 0 0 0 0 0 0 0 0 0 0 0 0 0 0 0 0 0 0 0 0 0 0 0 0 0 0 0 0 0 0 0 0 0 -193 46 47 47 47 42 44 45 45 42 43 44 44 47 52 53 54 55 57 54 55 55 53 48 48 46 50 51 52 51 51 54 54 55 56 52 50 50 52 51 49 48 51 51 50 49 50 50 48 48 53 49 48 50 51 -177 50 51 51 44 49 52 52 53 52 45 45 45 47 53 50 47 47 -177 51 50 50 51 49 51 54 53 52 52 52 52 51 51 51 51 51 51 -193 367 -193 -193 -193 53 52 54 57 57 56 58 58 57 57 57 54 56 54 56 50 52 50 48 50 52 50 50 46 51 -193 52 -193 54 50 54 54 54 55 54 53 55 57 53 56 -193 52 53 51 50 48 51 52 53 52 52 51 52 52 55 57 55 55 57 57 58 59 60 62 62 65 69 68 70 71 71 71 72 77 76 76 78 79 79 80 84 84 82 85 85 85 85 89 89 87 94 93 95 98 98 99 99 103 102 101 105 105 105 107 108 108 108 111 112 112 114 114 114 116 116 116 117 117 120 119 121 126 123 125 125 125 126 126 127 126 125 126 127 128 131 129 130 129 130 132 131 132 132 132 133 133 132 133 131 0 0 0 0 0
    0 0 0 0 0 0 0 0 0 0 0 0 0 0 0 0 0 0 0 0 0 0 0 0 0 0 0 0 0 0 0 0 0 0 0 0 0 0 0 0 0 0 0 0 0 0 0 0 0 0 0 0 0 0 0 0 0 0 0 0 0 0 0 0 0 0 0 0 0 -193 45 47 47 47 42 44 45 45 42 43 44 46 50 55 55 56 58 57 55 55 55 53 49 49 46 49 49 51 51 51 52 52 54 54 51 49 50 52 50 49 48 51 51 49 49 50 50 48 49 53 49 48 51 52 -177 50 51 51 44 50 53 53 54 52 45 45 45 50 54 50 48 47 49 52 51 51 51 49 52 54 53 53 52 52 52 51 51 51 51 51 50 -177 367 -193 -193 -193 53 51 55 56 56 55 57 57 56 56 56 55 56 54 56 51 52 50 48 50 51 49 49 46 50 -193 52 55 53 50 54 54 54 55 54 53 56 57 52 55 52 52 53 52 50 48 51 53 54 52 52 51 52 53 55 59 56 55 57 57 57 59 60 62 62 65 68 68 70 71 71 71 72 78 76 76 79 79 79 80 84 84 83 86 86 86 86 89 89 88 94 93 95 99 99 100 100 103 102 102 105 105 106 107 108 108 -193 111 111 112 114 113 114 116 116 116 117 118 120 120 121 127 123 125 125 125 125 125 127 126 125 126 127 129 131 129 130 129 130 131 131 131 131 131 132 132 132 133 131 0 0 0 0 0
    0 0 0 0 0 0 0 0 0 0 0 0 0 0 0 0 0 0 0 0 0 0 0 0 0 0 0 0 0 0 0 0 0 0 0 0 0 0 0 0 0 0 0 0 0 0 0 0 0 0 0 0 0 0 0 0 0 0 0 0 0 0 0 0 0 0 0 0 0 -193 45 47 48 47 42 44 45 45 41 42 42 45 51 55 56 56 57 57 56 56 55 52 50 50 46 50 48 50 50 50 52 52 54 54 51 50 51 53 50 49 49 51 50 49 49 50 49 48 49 52 48 48 51 52 -193 50 51 51 45 51 53 54 54 53 46 48 48 53 54 49 48 48 49 52 51 51 51 49 53 54 52 53 52 52 52 51 51 51 51 51 50 -177 367 -193 -193 -193 52 51 55 55 55 54 56 57 55 56 55 54 56 53 56 50 52 49 47 50 51 49 49 46 50 -177 52 54 52 50 54 54 54 54 53 51 56 55 47 53 50 49 51 51 49 49 52 53 54 53 53 52 53 54 56 60 56 55 57 57 57 59 60 62 61 65 68 68 69 71 71 72 72 78 76 77 79 80 79 81 84 84 83 86 86 86 87 89 89 88 93 93 96 99 99 100 100 104 102 102 105 105 105 106 107 108 -193 111 112 113 114 114 115 117 117 117 117 118 120 120 122 128 124 125 125 125 125 125 127 126 125 126 127 128 132 130 131 130 130 131 131 131 131 130 132 132 132 132 131 0 0 0 0 0
    0 0 0 0 0 0 0 0 0 0 0 0 0 0 0 0 0 0 0 0 0 0 0 0 0 0 0 0 0 0 0 0 0 0 0 0 0 0 0 0 0 0 0 0 0 0 0 0 0 0 0 0 0 0 0 0 0 0 0 0 0 0 0 0 0 0 0 0 0 46 46 47 48 48 42 43 43 43 38 39 38 39 40 -209 52 53 54 55 56 55 55 53 52 51 48 51 49 51 50 49 51 51 54 53 50 51 52 53 50 49 50 51 50 49 49 50 49 48 49 52 48 48 51 51 -193 49 51 51 45 51 53 53 53 53 47 51 50 55 54 49 48 48 49 51 51 51 49 48 54 53 51 52 51 51 51 51 51 51 51 51 50 -177 367 52 52 -193 50 50 55 55 55 54 56 57 56 57 56 54 56 52 56 50 52 49 47 50 51 49 50 46 51 -177 -193 -193 51 50 54 53 54 53 50 47 52 47 42 43 43 45 50 50 49 51 52 54 55 53 54 53 54 55 57 61 57 56 57 58 57 59 60 62 61 65 67 67 68 70 71 72 72 79 77 78 80 81 80 81 84 84 83 86 86 86 87 89 89 88 93 93 96 99 100 101 101 104 103 103 105 105 105 106 107 107 -193 112 112 113 114 114 115 116 117 117 117 118 120 121 122 129 125 125 126 125 125 126 127 126 125 125 127 128 131 130 130 129 130 131 130 130 131 130 131 131 132 132 131 0 0 0 0 0
    0 0 0 0 0 0 0 0 0 0 0 0 0 0 0 0 0 0 0 0 0 0 0 0 0 0 0 0 0 0 0 0 0 0 0 0 0 0 0 0 0 0 0 0 0 0 0 0 0 0 0 0 0 0 0 0 0 0 0 0 0 0 0 0 0 0 0 0 0 47 46 47 47 47 41 41 41 41 37 38 38 38 41 43 48 51 52 54 55 55 54 52 52 52 47 51 49 51 50 48 51 -193 54 53 50 51 52 52 50 49 50 50 49 49 48 50 50 48 49 52 47 49 51 51 -193 48 50 51 45 51 52 52 52 53 48 51 51 55 53 48 48 49 -177 51 51 50 48 47 54 52 51 52 51 51 51 50 51 51 51 51 -193 369 367 52 52 -193 50 51 56 55 56 54 57 57 57 57 56 54 56 51 56 49 51 49 48 51 51 50 50 47 51 -177 -193 -193 51 52 54 53 54 53 49 48 54 50 46 46 41 45 52 53 51 52 53 54 54 53 54 53 54 55 57 61 56 56 57 58 58 59 60 62 61 65 66 67 68 70 70 71 72 80 77 78 81 81 80 82 85 85 83 87 87 86 87 89 89 88 92 93 96 99 100 101 102 105 103 104 105 105 106 106 107 107 107 111 112 113 114 114 114 116 117 117 117 118 120 121 122 130 126 126 126 126 126 126 127 126 125 125 126 127 131 129 130 129 130 131 130 130 130 129 131 131 131 132 131 0 0 0 0 0
    0 0 0 0 0 0 0 0 0 0 0 0 0 0 0 0 0 0 0 0 0 0 0 0 0 0 0 0 0 0 0 0 0 0 0 0 0 0 0 0 0 0 0 0 0 0 0 0 0 0 0 0 0 0 0 0 0 0 0 0 0 0 0 0 0 0 0 0 0 47 45 47 47 47 41 40 40 40 36 38 38 38 40 41 47 49 51 55 55 55 55 53 54 53 50 53 51 53 53 48 53 -193 54 52 50 51 52 52 49 48 50 50 48 49 47 49 51 48 49 51 47 49 50 50 -193 48 50 50 45 51 52 52 52 52 49 51 52 54 53 49 49 49 -177 51 51 50 47 48 53 52 51 52 50 50 50 50 51 51 51 50 -177 369 368 -193 -193 -193 50 52 56 55 55 54 56 57 56 56 55 53 55 49 55 49 51 50 49 51 51 51 51 48 52 -193 53 54 50 53 54 54 54 54 51 54 56 55 -193 -193 48 49 54 54 52 53 54 54 54 54 54 53 53 55 56 60 56 56 57 58 58 59 60 62 61 65 66 66 67 69 70 70 71 80 77 79 81 82 80 82 85 85 84 87 87 87 88 89 90 89 92 94 97 99 101 102 103 106 104 105 106 105 106 106 107 107 -193 111 112 113 114 113 114 116 117 117 116 117 120 121 123 131 126 127 127 126 126 126 127 126 125 125 126 127 130 129 130 129 130 131 130 130 130 129 130 130 131 131 131 0 0 0 0 0
    0 0 0 0 0 0 0 0 0 0 0 0 0 0 0 0 0 0 0 0 0 0 0 0 0 0 0 0 0 0 0 0 0 0 0 0 0 0 0 0 0 0 0 0 0 0 0 0 0 0 0 0 0 0 0 0 0 0 0 0 0 0 0 0 0 0 0 0 0 46 45 46 47 47 41 40 41 40 37 38 38 39 41 42 46 48 50 54 54 54 54 52 53 54 54 56 55 57 57 52 57 -193 55 53 51 53 53 52 50 49 50 50 48 49 47 49 51 48 48 51 47 49 50 50 -193 47 50 50 45 50 52 51 51 53 51 52 54 54 52 49 49 50 -177 51 51 50 47 49 53 51 51 52 50 50 50 50 51 51 51 50 -177 369 369 -193 -193 -193 50 53 56 55 56 54 57 57 56 55 54 52 54 48 55 49 51 51 50 52 51 51 51 48 52 51 51 53 47 53 54 54 54 54 53 57 57 57 57 58 -193 46 53 55 52 54 55 55 55 55 56 55 55 56 57 60 56 56 57 58 58 59 60 61 61 65 66 66 66 69 69 70 71 79 77 79 81 82 81 82 85 85 84 87 87 88 89 90 90 89 92 94 97 99 101 103 105 107 105 106 106 106 106 106 107 107 -193 112 114 114 115 114 115 116 116 116 116 116 119 119 123 131 127 127 127 126 126 126 127 126 125 125 125 126 130 128 130 128 130 131 130 130 130 129 130 130 131 131 131 0 0 0 0 0
    0 0 0 0 0 0 0 0 0 0 0 0 0 0 0 0 0 0 0 0 0 0 0 0 0 0 0 0 0 0 0 0 0 0 0 0 0 0 0 0 0 0 0 0 0 0 0 0 0 0 0 0 0 0 0 0 0 0 0 0 0 0 0 0 0 0 0 0 0 47 45 46 47 46 41 41 41 41 37 40 40 42 43 42 47 48 50 53 -209 53 -193 52 54 57 58 60 58 59 60 58 60 62 57 54 53 54 54 52 50 50 50 49 48 48 47 49 51 48 48 51 47 50 50 50 47 47 50 50 45 50 52 51 51 52 53 54 55 54 52 49 49 -177 50 51 51 49 47 51 53 51 51 51 50 50 50 51 51 51 51 50 369 370 370 -193 -193 52 50 55 56 55 56 54 57 57 57 57 55 -193 -193 50 -193 50 52 52 50 52 51 51 51 48 52 50 50 52 46 54 54 54 55 54 53 57 56 55 -193 -193 37 39 48 -209 51 55 56 55 55 56 56 56 55 56 57 61 56 56 56 58 58 59 59 61 61 64 66 66 65 69 69 70 70 79 77 79 81 81 81 83 86 85 85 87 88 88 89 89 90 89 92 94 97 98 102 103 106 108 105 106 106 106 107 107 108 108 -193 113 115 115 116 114 115 116 117 116 116 115 118 119 123 131 127 127 128 127 127 126 128 126 125 125 126 126 130 128 130 128 130 130 130 130 130 129 130 130 131 131 131 0 0 0 0 0
    0 0 0 0 0 0 0 0 0 0 0 0 0 0 0 0 0 0 0 0 0 0 0 0 0 0 0 0 0 0 0 0 0 0 0 0 0 0 0 0 0 0 0 0 0 0 0 0 0 0 0 0 0 0 0 0 0 0 0 0 0 0 0 0 0 0 0 0 0 47 45 46 47 46 41 41 41 41 38 40 40 44 45 42 47 48 48 52 -209 52 -209 51 55 58 63 67 61 62 62 62 63 64 58 55 54 55 55 52 50 51 50 49 48 48 46 49 51 48 47 51 48 50 50 50 47 47 50 50 45 50 52 51 50 51 52 52 55 53 51 49 49 -177 50 51 51 48 46 52 52 51 51 51 50 49 50 50 51 51 51 50 370 370 370 -177 -193 51 49 55 56 56 56 55 57 57 57 56 55 -193 -193 52 56 51 52 53 51 53 51 50 51 48 51 50 48 51 45 54 54 54 54 53 51 56 54 53 55 56 -193 42 55 -193 -193 57 56 55 55 56 56 55 55 55 57 61 56 56 56 58 57 58 58 60 60 64 65 66 65 68 69 69 70 78 76 79 80 81 82 83 86 86 85 88 88 89 89 89 90 89 92 94 96 96 101 104 107 109 105 107 106 107 107 107 108 108 -193 113 115 115 116 115 116 117 117 117 116 116 119 119 123 131 127 127 128 127 127 126 127 126 125 125 126 126 130 129 130 129 130 130 130 129 129 128 129 129 130 130 131 0 0 0 0 0
    0 0 0 0 0 0 0 0 0 0 0 0 0 0 0 0 0 0 0 0 0 0 0 0 0 0 0 0 0 0 0 0 0 0 0 0 0 0 0 0 0 0 0 0 0 0 0 0 0 0 0 0 0 0 0 0 0 0 0 0 0 0 0 0 0 0 0 0 0 48 46 47 47 47 41 42 42 42 39 40 40 43 46 42 46 47 46 49 -209 50 -209 49 55 57 62 67 62 63 64 66 64 62 57 54 54 54 54 51 50 51 50 49 48 48 46 49 51 48 47 51 48 49 50 50 46 46 50 49 45 50 51 50 49 50 52 52 55 53 50 49 49 50 50 50 51 47 45 52 52 51 50 50 49 48 49 50 50 51 50 50 -177 371 370 -177 -177 51 51 57 56 57 57 55 57 58 56 55 55 -193 -193 53 56 52 52 54 51 53 50 50 51 48 51 50 47 50 44 53 53 53 53 51 50 54 52 51 54 53 -193 -193 -193 60 58 58 57 55 54 56 56 54 54 55 56 60 55 56 56 57 57 57 58 60 60 63 65 65 64 68 68 69 69 77 76 79 82 82 83 84 87 86 86 88 88 89 89 89 90 89 92 93 94 95 98 102 104 108 104 106 106 106 107 107 108 108 -193 113 115 116 117 115 116 118 118 117 117 116 119 119 123 130 127 127 128 127 127 126 127 126 125 125 126 125 130 129 130 128 129 129 129 128 129 127 128 129 129 130 130 0 0 0 0 0
    0 0 0 0 0 0 0 0 0 0 0 0 0 0 0 0 0 0 0 0 0 0 0 0 0 0 0 0 0 0 0 0 0 0 0 0 0 0 0 0 0 0 0 0 0 0 0 0 0 0 0 0 0 0 0 0 0 0 0 0 0 0 0 0 0 0 0 0 0 49 47 48 47 47 42 43 43 43 40 41 40 43 -209 42 46 -193 -193 -193 -209 51 -209 49 56 56 62 66 61 63 65 69 58 58 55 53 53 54 53 50 49 51 50 48 48 48 46 49 52 48 46 51 48 49 49 49 -193 45 49 49 45 50 51 50 49 50 52 53 54 52 49 48 49 50 49 49 50 46 45 52 51 50 50 50 49 48 49 50 50 50 49 50 -177 371 370 -177 -177 52 54 58 57 58 58 57 58 59 57 55 54 56 55 53 56 53 52 54 51 53 51 50 51 49 50 50 46 50 43 -193 53 53 52 48 49 53 52 50 54 52 -193 -193 -193 61 58 57 57 55 54 56 56 55 54 55 56 58 55 55 55 57 56 57 57 59 59 63 65 65 63 67 67 68 69 77 77 80 83 83 84 85 87 86 86 88 88 89 89 89 90 89 92 94 94 94 97 101 103 107 104 106 106 106 106 107 107 107 -193 112 115 117 117 116 117 118 118 118 117 117 118 119 122 129 127 127 128 127 127 127 127 126 125 125 126 125 130 128 129 128 129 129 129 128 128 127 127 128 129 129 130 0 0 0 0 0
    0 0 0 0 0 0 0 0 0 0 0 0 0 0 0 0 0 0 0 0 0 0 0 0 0 0 0 0 0 0 0 0 0 0 0 0 0 0 0 0 0 0 0 0 0 0 0 0 0 0 0 0 0 0 0 0 0 0 0 0 0 0 0 0 0 0 0 0 0 49 47 48 47 47 42 44 43 43 41 41 41 45 -209 44 47 47 46 -193 -209 53 52 50 55 54 59 62 60 62 65 68 -193 56 55 52 52 53 52 50 49 51 50 47 48 48 46 50 53 48 45 50 48 47 48 -193 -193 45 48 48 44 50 51 49 49 50 52 53 54 50 48 48 49 50 49 49 49 45 46 52 50 50 50 50 49 48 49 50 49 50 49 -193 -177 370 370 -177 -177 52 56 58 57 58 58 57 58 59 57 55 54 -193 55 53 55 54 52 54 51 53 51 51 51 50 51 50 46 50 -193 50 52 52 51 46 49 52 52 51 54 52 42 43 -193 60 57 57 56 55 54 55 55 54 54 54 55 58 54 55 55 57 56 56 57 59 60 62 64 64 62 66 66 67 68 75 77 81 84 84 85 85 87 86 85 87 87 87 88 88 90 89 92 94 94 94 96 100 101 106 104 106 106 106 106 107 107 107 107 111 115 117 117 116 117 118 118 118 118 117 118 118 122 128 127 127 128 127 127 126 127 126 125 125 126 125 129 128 129 128 129 128 128 127 128 126 127 128 128 129 130 0 0 0 0 0
    0 0 0 0 0 0 0 0 0 0 0 0 0 0 0 0 0 0 0 0 0 0 0 0 0 0 0 0 0 0 0 0 0 0 0 0 0 0 0 0 0 0 0 0 0 0 0 0 0 0 0 0 0 0 0 0 0 0 0 0 0 0 0 0 0 0 0 0 0 48 47 48 47 47 42 44 44 44 42 43 43 49 51 48 50 49 49 -193 -209 53 50 48 52 51 56 -193 58 60 63 67 -193 56 55 52 52 54 52 50 49 52 50 48 49 49 46 50 53 48 45 50 48 47 47 -193 -193 44 48 48 44 49 50 48 48 49 51 52 53 49 48 48 49 50 49 49 49 45 48 52 50 51 50 50 49 48 49 50 49 50 49 -193 -177 370 370 -177 -177 -193 57 59 57 58 57 56 57 57 56 53 53 55 54 53 55 55 53 54 51 53 51 51 51 50 50 50 47 51 -193 49 51 51 49 46 50 53 53 52 55 55 49 51 56 58 57 56 55 54 53 55 55 54 54 54 55 57 54 54 55 56 56 56 57 59 60 63 65 64 62 66 66 66 67 71 75 80 84 83 85 84 86 85 84 85 85 86 87 87 90 89 92 93 94 94 96 99 101 105 104 106 106 106 106 107 107 107 106 110 114 117 117 116 116 118 118 118 118 117 118 118 122 129 127 127 128 126 127 126 127 126 125 125 125 124 129 128 129 128 129 129 129 128 128 127 127 128 128 129 130 0 0 0 0 0
    0 0 0 0 0 0 0 0 0 0 0 0 0 0 0 0 0 0 0 0 0 0 0 0 0 0 0 0 0 0 0 0 0 0 0 0 0 0 0 0 0 0 0 0 0 0 0 0 0 0 0 0 0 0 0 0 0 0 0 0 0 0 0 0 0 0 0 0 0 48 47 48 47 47 42 45 45 45 44 44 45 52 54 51 51 50 50 -209 -209 -193 -209 48 50 49 53 53 55 59 59 -209 52 54 54 50 51 53 51 49 49 51 50 48 49 49 47 51 53 47 45 51 47 47 48 -193 -193 44 48 48 44 49 49 47 47 48 50 52 53 49 48 48 49 50 50 50 50 45 50 53 50 51 50 50 49 48 49 50 49 50 48 -193 -193 -193 -177 -177 -177 52 58 59 57 58 56 53 53 55 53 51 52 54 54 54 56 55 53 54 52 53 52 52 52 51 51 51 48 53 -193 49 51 51 48 45 49 52 52 51 54 53 48 50 53 56 55 55 55 54 54 55 55 55 54 54 55 57 54 54 54 56 56 56 57 59 61 63 66 65 63 66 67 67 68 71 75 79 84 82 85 84 85 84 84 85 85 85 86 87 90 90 92 93 94 94 96 98 100 105 104 106 106 106 107 107 107 106 106 109 112 116 117 116 116 118 118 118 118 117 118 119 123 129 127 127 129 127 127 126 127 126 125 125 126 125 129 128 129 128 129 129 130 129 129 128 128 130 130 130 131 0 0 0 0 0
    0 0 0 0 0 0 0 0 0 0 0 0 0 0 0 0 0 0 0 0 0 0 0 0 0 0 0 0 0 0 0 0 0 0 0 0 0 0 0 0 0 0 0 0 0 0 0 0 0 0 0 0 0 0 0 0 0 0 0 0 0 0 0 0 0 0 0 0 0 48 47 48 47 47 42 46 46 47 45 45 47 52 -209 -193 -193 49 -193 -209 -209 53 -209 49 50 49 49 49 53 -209 -209 68 52 52 53 50 51 52 50 49 49 51 49 48 49 49 48 51 53 47 44 52 48 47 -193 -193 44 45 48 48 44 48 49 46 47 47 49 51 53 48 48 48 49 50 50 50 50 46 51 53 49 51 50 50 49 48 48 50 48 50 47 -193 -193 -193 -193 -193 -193 53 59 61 58 58 55 51 51 54 52 51 52 54 54 55 56 56 54 54 52 53 52 52 52 52 52 52 50 54 51 51 52 52 48 46 48 50 51 49 52 50 48 48 50 52 53 54 54 53 54 55 55 55 55 54 55 58 54 54 54 56 56 56 58 59 61 64 67 66 64 67 68 68 70 71 75 78 84 82 85 84 85 84 84 84 85 84 86 87 90 91 93 93 94 94 96 98 99 104 -193 107 107 107 107 107 107 107 107 109 -193 116 118 117 117 119 120 119 119 119 120 121 123 129 127 126 129 127 128 127 128 126 126 126 126 125 129 128 129 128 129 129 130 129 130 129 129 131 130 131 131 0 0 0 0 0
    0 0 0 0 0 0 0 0 0 0 0 0 0 0 0 0 0 0 0 0 0 0 0 0 0 0 0 0 0 0 0 0 0 0 0 0 0 0 0 0 0 0 0 0 0 0 0 0 0 0 0 0 0 0 0 0 0 0 0 0 0 0 0 0 0 0 0 0 0 49 47 48 47 47 42 46 46 47 45 45 46 49 -193 -193 -193 47 44 44 47 52 48 50 51 49 50 49 52 -209 56 64 53 52 54 51 51 52 50 49 50 51 49 48 49 49 49 51 54 47 45 53 48 48 -193 47 45 45 48 48 44 49 49 46 49 48 50 52 52 49 48 49 50 50 50 51 50 47 53 54 49 51 50 50 50 48 48 50 48 50 47 -193 51 -193 -193 -177 -193 57 60 63 59 59 56 50 49 53 52 52 52 55 56 56 56 56 54 55 52 53 53 52 52 52 52 53 51 55 54 51 53 52 49 46 48 49 51 49 52 50 49 49 51 52 54 55 54 52 54 54 55 55 55 54 54 57 54 54 54 56 56 56 59 60 62 64 67 67 66 68 69 69 70 71 75 78 84 82 86 84 85 84 84 85 85 84 86 87 90 91 93 94 94 95 96 98 98 103 -193 106 107 107 107 107 108 107 107 109 -193 116 118 117 118 119 120 120 119 120 121 121 123 128 127 126 129 127 127 127 128 126 126 126 126 125 129 128 129 128 129 129 130 129 129 129 129 131 130 131 131 0 0 0 0 0
    0 0 0 0 0 0 0 0 0 0 0 0 0 0 0 0 0 0 0 0 0 0 0 0 0 0 0 0 0 0 0 0 0 0 0 0 0 0 0 0 0 0 0 0 0 0 0 0 0 0 0 0 0 0 0 0 0 0 0 0 0 0 0 0 0 0 0 0 0 48 47 48 48 47 42 46 46 47 45 44 45 45 -193 -193 -193 46 42 42 45 49 47 49 50 49 52 53 54 -209 54 59 53 51 53 50 51 51 50 49 50 51 50 48 49 49 50 52 54 47 45 53 49 48 -193 47 45 45 48 49 44 50 50 46 52 50 52 53 51 49 48 49 50 50 49 50 50 49 54 54 49 51 50 50 50 48 48 50 47 49 46 50 51 -193 -193 -193 -193 58 61 62 59 58 53 50 49 51 51 52 52 55 56 57 56 56 54 54 51 53 53 52 52 52 52 53 52 56 55 50 53 51 49 46 48 50 51 51 52 51 51 51 52 52 54 55 54 53 55 55 55 56 56 54 54 56 53 53 54 56 56 56 59 60 63 65 68 67 66 68 69 69 70 70 75 77 84 82 86 84 85 84 84 84 85 83 86 87 91 92 94 94 94 95 96 97 97 102 -193 106 106 106 107 107 107 106 106 108 -193 116 117 116 117 119 -193 -193 120 120 121 122 124 128 127 126 129 127 127 126 127 126 126 125 126 125 129 127 128 127 128 129 130 128 129 128 128 130 130 131 131 0 0 0 0 0
    0 0 0 0 0 0 0 0 0 0 0 0 0 0 0 0 0 0 0 0 0 0 0 0 0 0 0 0 0 0 0 0 0 0 0 0 0 0 0 0 0 0 0 0 0 0 0 0 0 0 0 0 0 0 0 0 0 0 0 0 0 0 0 0 0 0 0 0 0 48 47 48 48 48 42 46 46 47 45 44 44 43 -193 -193 -193 -193 42 -193 44 47 45 47 47 45 49 50 52 51 51 -193 51 49 52 49 49 50 49 49 49 50 50 48 49 50 50 52 54 46 46 54 49 48 -193 47 45 45 48 49 44 50 50 45 55 -193 56 56 50 50 48 50 50 50 49 50 49 52 56 54 50 52 51 51 51 49 48 51 46 48 46 49 50 53 -193 -193 -193 59 61 62 59 58 54 52 50 51 52 52 53 55 57 58 57 55 53 54 51 52 53 52 52 52 52 53 52 56 56 49 53 -193 49 46 48 50 52 51 52 52 50 50 51 50 53 54 53 52 54 54 55 57 58 54 54 57 53 53 54 56 56 56 59 60 63 65 68 67 66 68 69 68 70 69 74 76 84 82 86 84 85 84 84 84 85 83 86 88 91 93 94 94 95 95 96 97 97 -193 -193 106 106 106 107 107 107 106 106 107 108 114 116 116 117 119 -209 -193 -193 121 121 122 124 128 127 126 129 127 128 127 127 126 126 125 126 124 128 127 128 127 128 129 130 128 129 128 129 130 131 131 131 0 0 0 0 0
    0 0 0 0 0 0 0 0 0 0 0 0 0 0 0 0 0 0 0 0 0 0 0 0 0 0 0 0 0 0 0 0 0 0 0 0 0 0 0 0 0 0 0 0 0 0 0 0 0 0 0 0 0 0 0 0 0 0 0 0 0 0 0 0 0 0 0 0 0 48 47 48 48 48 42 47 47 47 46 44 43 41 -193 -193 -193 -209 -209 -209 -193 45 -193 45 43 42 46 46 49 46 47 54 51 48 52 49 49 50 49 50 49 50 50 47 49 50 51 53 54 46 47 53 49 48 913 46 45 45 48 49 44 49 50 44 57 -193 59 58 49 51 49 51 50 50 49 51 48 55 57 54 50 52 51 52 52 50 48 51 46 48 46 49 50 52 52 -193 -209 59 61 61 59 58 -193 53 49 48 52 52 53 56 58 59 58 54 53 54 50 52 53 52 52 52 53 53 53 57 57 49 53 51 50 47 50 51 53 52 53 52 51 51 51 50 52 51 50 50 52 52 53 56 56 53 54 57 53 53 54 56 56 56 60 60 63 65 67 67 66 68 69 68 70 68 74 75 83 80 85 82 84 83 84 84 85 83 86 88 91 93 94 95 95 96 97 98 97 -193 -177 107 106 106 107 107 107 106 106 107 107 112 115 115 116 119 -209 121 -193 121 122 123 125 128 127 126 129 127 128 127 128 126 126 126 126 124 128 126 128 127 129 129 130 129 130 129 130 131 131 131 131 0 0 0 0 0
    0 0 0 0 0 0 0 0 0 0 0 0 0 0 0 0 0 0 0 0 0 0 0 0 0 0 0 0 0 0 0 0 0 0 0 0 0 0 0 0 0 0 0 0 0 0 0 0 0 0 0 0 0 0 0 0 0 0 0 0 0 0 0 0 0 0 0 0 0 48 46 48 48 48 42 46 47 47 44 44 42 39 -193 -193 -209 -209 -193 -209 -209 -193 -209 42 41 40 44 45 49 46 -193 -193 52 50 53 50 49 50 49 50 50 49 50 48 49 50 51 53 54 46 47 53 49 48 913 47 46 45 48 49 44 49 50 43 57 60 -209 61 52 -209 -209 -209 -193 51 51 53 52 58 60 54 51 53 54 55 55 55 51 54 48 51 49 49 49 51 52 55 -209 60 63 63 61 59 -193 -193 48 47 51 51 52 56 58 60 57 53 53 53 50 52 53 52 53 52 53 54 53 57 57 50 55 53 52 50 52 53 54 53 53 53 52 52 52 51 52 50 48 48 50 49 49 54 55 51 54 57 54 54 54 56 56 57 60 60 63 65 67 67 66 68 69 67 70 68 73 74 82 79 84 82 83 83 84 -193 84 83 86 87 91 93 94 95 95 96 97 98 -193 -193 -193 107 107 107 107 107 108 106 106 107 106 110 113 114 116 -193 -209 122 121 122 123 124 126 128 128 126 130 127 128 127 128 126 126 126 127 124 128 126 128 127 129 130 131 130 130 129 130 131 131 131 131 0 0 0 0 0
    0 0 0 0 0 0 0 0 0 0 0 0 0 0 0 0 0 0 0 0 0 0 0 0 0 0 0 0 0 0 0 0 0 0 0 0 0 0 0 0 0 0 0 0 0 0 0 0 0 0 0 0 0 0 0 0 0 0 0 0 0 0 0 0 0 0 0 0 0 48 46 48 48 48 42 47 47 46 44 42 40 37 37 -193 -209 -193 39 -193 -209 40 -193 40 40 40 44 47 50 48 49 -193 52 50 53 50 49 49 49 51 49 49 49 48 49 50 52 53 53 46 49 54 49 49 -193 47 46 46 49 49 45 49 50 43 57 60 61 -209 -209 -209 -193 -193 -209 74 -209 61 62 63 -209 -209 -209 -193 62 62 62 -193 -209 -209 -209 55 -193 49 49 -209 -209 -209 -209 -193 303 -193 63 -193 -193 -209 -209 46 51 50 51 55 58 59 57 52 52 54 50 51 53 52 53 52 54 54 53 57 58 52 56 55 54 53 53 53 54 54 54 53 53 52 52 51 52 49 48 48 48 47 49 53 55 52 54 57 54 54 54 56 56 57 60 60 63 64 67 67 66 68 69 68 70 68 74 74 82 79 84 82 83 83 84 -193 85 84 87 88 91 93 94 95 95 96 97 98 -193 -193 -193 108 107 107 108 107 108 106 106 106 105 109 111 112 115 -209 -209 122 122 123 124 125 127 129 128 126 130 128 129 128 128 127 127 126 127 125 128 126 128 127 129 130 131 130 130 130 130 131 131 131 130 0 0 0 0 0
    0 0 0 0 0 0 0 0 0 0 0 0 0 0 0 0 0 0 0 0 0 0 0 0 0 0 0 0 0 0 0 0 0 0 0 0 0 0 0 0 0 0 0 0 0 0 0 0 0 0 0 0 0 0 0 0 0 0 0 0 0 0 0 0 0 0 0 0 0 48 47 49 49 48 42 47 47 47 43 41 38 37 37 -193 -209 -209 -193 -193 40 41 40 40 40 39 42 45 48 48 50 54 52 50 52 51 48 48 48 51 49 48 49 48 48 50 52 53 53 47 50 54 49 49 -193 48 47 46 49 49 45 49 50 43 57 61 63 -209 -209 73 76 -193 -209 76 -209 67 67 -193 -209 -193 -209 -209 -193 63 65 -193 -209 -209 -209 -193 -209 -209 -209 -209 -209 -209 -209 -209 -193 -193 62 60 -193 -193 -209 47 50 50 52 55 58 59 56 51 51 54 50 51 53 52 52 52 54 54 53 57 58 53 57 57 57 55 54 53 54 54 53 53 52 53 53 52 53 50 49 49 48 47 50 53 55 51 54 57 54 54 54 56 56 56 60 60 62 64 67 67 65 68 69 68 70 69 74 75 81 80 84 82 84 83 84 -193 85 84 87 89 92 94 95 96 95 96 97 98 -193 -193 -193 108 107 107 108 108 108 107 106 106 106 109 113 114 116 -209 -209 122 122 123 124 125 127 129 128 126 131 129 129 128 129 127 127 127 128 125 128 127 128 127 129 130 131 131 130 130 130 131 131 130 129 0 0 0 0 0
    0 0 0 0 0 0 0 0 0 0 0 0 0 0 0 0 0 0 0 0 0 0 0 0 0 0 0 0 0 0 0 0 0 0 0 0 0 0 0 0 0 0 0 0 0 0 0 0 0 0 0 0 0 0 0 0 0 0 0 0 0 0 0 0 0 0 0 0 0 48 47 49 49 49 42 48 48 47 42 40 36 38 38 41 41 42 43 43 42 43 40 40 40 40 43 45 48 48 50 53 51 50 52 51 49 48 49 51 49 49 49 48 48 50 52 53 53 48 51 53 49 49 -193 48 47 46 49 49 45 49 50 43 57 64 66 -209 -209 74 76 -193 -209 76 -209 -209 -209 -193 -209 -193 -193 -193 -193 -193 -209 -209 -209 -209 -209 -193 -209 -209 -193 -209 -209 -209 -209 -193 -209 -193 62 61 -193 -193 -209 47 51 50 52 54 59 58 55 50 50 53 49 50 52 51 52 51 54 53 52 57 57 53 58 58 58 56 55 54 55 55 54 54 53 54 54 53 54 51 50 51 48 46 50 52 54 51 54 56 54 54 54 56 56 56 59 60 61 64 67 67 65 68 69 68 71 70 74 75 81 80 84 82 84 84 84 -193 -193 85 87 89 92 95 96 97 96 97 97 99 -193 -193 -193 108 107 107 108 108 108 107 107 107 107 110 113 114 117 -193 -209 122 122 122 124 125 127 129 129 126 131 129 129 128 129 127 127 127 128 125 128 126 128 127 129 130 131 130 130 129 130 131 131 130 129 0 0 0 0 0
    0 0 0 0 0 0 0 0 0 0 0 0 0 0 0 0 0 0 0 0 0 0 0 0 0 0 0 0 0 0 0 0 0 0 0 0 0 0 0 0 0 0 0 0 0 0 0 0 0 0 0 0 0 0 0 0 0 0 0 0 0 0 0 0 0 0 0 0 0 48 47 50 50 49 42 47 47 45 41 38 33 36 37 41 41 41 44 44 43 44 42 40 40 40 44 47 48 48 51 53 51 51 52 51 48 48 50 51 49 49 48 48 48 51 52 52 53 48 50 53 49 49 51 48 47 46 49 49 45 49 50 44 57 64 65 -193 -209 74 -193 -193 -209 75 -209 60 -193 -193 -209 -193 -209 -209 -209 -209 -209 -193 -209 -209 -209 -209 -209 -209 -209 -209 -209 -209 -209 -209 -209 -193 62 -209 -209 -209 -209 -209 56 -209 -209 -193 63 -193 55 49 49 53 48 50 52 51 51 50 53 53 50 56 56 52 57 -193 58 58 57 56 57 57 55 55 55 56 57 56 56 54 53 54 51 49 51 52 53 51 55 57 54 54 54 56 56 56 58 59 60 63 66 66 63 68 69 68 71 70 74 75 82 80 83 82 84 84 84 -193 -193 85 88 90 93 96 97 98 97 98 98 100 -193 -193 -193 108 -193 107 108 107 108 107 -193 107 107 110 113 114 116 -193 -209 121 122 123 124 125 127 129 129 126 131 129 129 128 129 127 127 127 128 125 128 126 127 127 129 129 130 130 129 128 129 130 130 129 128 0 0 0 0 0
    0 0 0 0 0 0 0 0 0 0 0 0 0 0 0 0 0 0 0 0 0 0 0 0 0 0 0 0 0 0 0 0 0 0 0 0 0 0 0 0 0 0 0 0 0 0 0 0 0 0 0 0 0 0 0 0 0 0 0 0 0 0 0 0 0 0 0 0 0 48 47 50 50 49 43 47 47 45 41 38 34 37 38 42 44 45 47 49 46 45 42 40 40 40 44 45 47 47 51 52 50 51 52 51 48 48 50 50 48 49 48 48 49 51 52 51 53 48 50 53 48 48 51 48 47 46 49 49 45 49 50 43 57 63 -209 -193 -209 73 -193 -209 -209 -209 -209 -209 -193 -209 -209 -209 -209 -209 -209 -209 -209 -193 -209 -209 -209 -193 -209 -209 -209 -209 -209 -209 -209 -209 -209 -209 -209 -209 -209 -209 -209 -209 -209 -209 -209 -209 -209 -209 -193 49 48 52 48 49 52 51 51 49 52 52 50 56 56 52 58 -193 58 58 58 56 57 57 56 56 56 58 58 57 57 56 54 55 53 52 52 52 53 52 55 57 54 54 54 56 56 56 58 58 59 61 64 64 61 66 68 68 71 70 75 76 81 79 83 82 83 83 84 -193 -193 -193 -193 -193 93 97 97 98 97 98 98 101 -193 108 -193 109 107 107 107 107 108 106 -193 106 -193 108 112 114 116 118 -209 122 123 123 125 126 127 129 129 126 131 129 129 128 129 128 127 127 128 125 127 126 127 127 128 129 130 129 129 128 129 129 130 128 128 0 0 0 0 0
    0 0 0 0 0 0 0 0 0 0 0 0 0 0 0 0 0 0 0 0 0 0 0 0 0 0 0 0 0 0 0 0 0 0 0 0 0 0 0 0 0 0 0 0 0 0 0 0 0 0 0 0 0 0 0 0 0 0 0 0 0 0 0 0 0 0 0 0 0 48 47 50 50 49 43 48 46 44 40 36 33 37 38 42 43 45 49 51 48 48 44 41 40 41 43 43 44 46 50 51 50 52 52 51 48 48 50 50 48 49 48 48 49 51 52 50 54 48 49 53 48 47 51 48 47 46 49 48 45 49 49 43 57 62 -209 -209 -209 73 -193 -193 -209 -209 -209 55 46 -209 -209 -209 -209 -209 -209 -193 -209 -209 -209 -209 -209 -209 -209 -209 -209 -209 -209 -209 36 -209 -209 -209 -209 -209 -209 -209 -209 -209 0 -209 -209 -209 -209 -209 54 48 48 52 48 49 51 51 51 49 52 52 50 57 57 52 58 57 57 57 56 55 55 55 55 54 55 56 56 56 56 55 54 54 54 53 53 52 53 53 56 57 54 54 54 56 56 56 57 58 58 60 62 62 60 65 68 -193 71 71 75 76 81 79 82 82 83 83 84 -193 -193 -209 -209 -193 93 97 96 98 97 99 99 102 109 109 111 110 108 107 107 107 107 106 106 106 -193 108 111 113 116 118 -193 122 123 124 125 126 127 129 129 126 131 129 129 129 129 127 127 127 128 125 127 126 127 127 128 129 131 130 129 128 129 129 130 128 128 0 0 0 0 0
    0 0 0 0 0 0 0 0 0 0 0 0 0 0 0 0 0 0 0 0 0 0 0 0 0 0 0 0 0 0 0 0 0 0 0 0 0 0 0 0 0 0 0 0 0 0 0 0 0 0 0 0 0 0 0 0 0 0 0 0 0 0 0 0 0 0 0 0 0 48 46 50 49 49 42 46 45 42 39 35 32 37 38 41 43 45 49 51 48 48 44 42 41 42 42 43 43 47 51 52 51 52 53 51 49 49 51 50 48 49 48 48 50 52 52 50 54 49 49 53 47 47 51 48 47 46 49 48 44 48 49 42 54 -209 -209 -209 -209 74 76 78 -193 -193 -209 53 42 -193 -209 -209 -209 -209 -209 -193 -193 -209 -193 -209 -193 -209 -209 -209 -209 -209 -209 -209 -209 -209 -209 -209 -209 -209 -209 -209 -209 -209 0 -209 -209 -209 -209 -209 -193 48 48 52 48 49 51 50 50 49 53 52 49 57 58 54 60 58 57 57 56 54 55 55 55 54 54 56 56 56 56 55 54 54 54 54 54 52 52 53 56 57 54 54 54 56 56 56 57 58 57 60 61 61 59 -193 -193 -193 -193 73 75 77 81 80 82 82 82 83 84 -193 -193 -209 -209 -193 93 97 97 -193 97 99 100 103 111 110 111 110 108 107 107 107 108 106 106 106 -209 108 111 113 116 118 -209 122 123 124 125 126 127 129 129 125 131 129 129 128 128 127 127 126 128 124 127 126 127 127 128 129 131 130 129 128 128 129 130 128 128 0 0 0 0 0
    0 0 0 0 0 0 0 0 0 0 0 0 0 0 0 0 0 0 0 0 0 0 0 0 0 0 0 0 0 0 0 0 0 0 0 0 0 0 0 0 0 0 0 0 0 0 0 0 0 0 0 0 0 0 0 0 0 0 0 0 0 0 0 0 0 0 0 0 0 48 46 50 49 48 42 46 44 42 40 35 34 38 39 42 45 48 51 53 49 50 45 44 43 43 43 44 44 49 52 52 52 53 53 51 49 50 51 50 49 49 48 48 51 52 52 49 55 49 49 52 47 47 51 48 47 46 49 48 44 48 48 42 48 -193 -209 -209 -209 -209 -193 79 -193 -209 -209 -209 -193 -209 -209 -209 -209 -209 -209 -193 -193 -193 -193 -193 -193 -193 -193 -209 -209 -209 -209 -209 -209 -209 -209 -209 -209 -209 -209 -209 -209 -209 -193 -209 -209 -209 -209 -209 53 47 47 51 48 48 50 50 50 48 52 52 48 57 58 54 59 58 55 57 55 54 54 54 55 54 54 56 55 55 55 54 54 54 54 54 54 52 53 54 56 58 54 54 54 56 56 56 57 58 58 60 62 62 59 66 -193 -177 -193 75 77 78 82 81 82 83 83 84 84 -193 -193 -209 -209 -209 94 97 -193 99 98 99 99 103 111 110 111 110 108 108 108 108 108 106 106 106 -209 -193 112 114 116 117 -209 122 123 123 124 125 126 128 129 125 131 129 129 128 128 127 127 126 128 124 127 126 127 127 128 129 130 129 129 128 127 128 129 127 127 0 0 0 0 0
    0 0 0 0 0 0 0 0 0 0 0 0 0 0 0 0 0 0 0 0 0 0 0 0 0 0 0 0 0 0 0 0 0 0 0 0 0 0 0 0 0 0 0 0 0 0 0 0 0 0 0 0 0 0 0 0 0 0 0 0 0 0 0 0 0 0 0 0 0 47 46 49 49 49 42 47 44 42 42 37 37 41 42 44 47 49 52 52 50 50 47 47 44 45 45 45 45 50 52 51 52 53 53 50 49 50 51 49 49 48 48 48 51 52 52 49 55 49 49 52 48 48 51 48 48 46 49 48 44 48 48 42 47 49 -209 -209 -209 -209 -209 -193 -209 -209 -209 -209 -209 -209 -209 -209 -193 -209 28 29 33 -209 -193 -209 -193 -193 -193 -209 -209 -209 -209 -209 -209 -209 -209 -209 -209 -209 -209 -209 -209 -209 -209 -209 -209 -209 -209 520 -193 48 47 51 48 48 50 49 49 47 51 52 47 57 57 52 55 56 54 56 54 52 53 53 55 54 54 55 55 55 56 55 55 55 55 56 56 53 54 55 56 58 54 54 54 56 56 56 56 58 57 60 62 63 60 68 -193 -177 -193 76 77 79 82 81 82 83 83 84 83 -193 85 -209 -193 -209 94 98 -193 99 99 100 100 104 111 110 112 110 108 108 108 108 108 106 106 106 -209 109 112 114 116 117 -209 121 122 123 124 124 125 128 128 125 131 128 129 128 128 127 126 126 127 124 127 126 127 128 129 129 131 130 129 128 127 128 129 127 127 0 0 0 0 0
    0 0 0 0 0 0 0 0 0 0 0 0 0 0 0 0 0 0 0 0 0 0 0 0 0 0 0 0 0 0 0 0 0 0 0 0 0 0 0 0 0 0 0 0 0 0 0 0 0 0 0 0 0 0 0 0 0 0 0 0 0 0 0 0 0 0 0 0 0 47 45 49 49 49 42 47 44 43 43 38 39 41 42 44 46 47 52 49 48 47 46 46 44 44 45 45 46 50 52 50 53 53 52 50 49 50 50 49 49 48 48 48 51 52 50 48 56 48 48 52 47 47 50 47 47 46 49 49 45 48 48 42 48 49 -209 -209 -193 -209 -209 -193 -193 -209 -209 -209 -209 -209 -209 -209 -209 -209 27 28 31 -209 -193 35 36 38 37 -209 -209 -209 -209 -209 -193 -209 -209 -193 -209 -209 -209 -209 -209 -209 -209 -209 -209 -209 -193 -193 -209 48 47 51 47 47 49 49 48 46 50 51 46 55 56 52 53 55 54 55 53 52 53 53 55 54 54 56 55 56 57 57 57 57 57 58 57 54 55 55 56 58 54 54 54 56 56 56 56 58 57 61 63 64 61 69 -193 -193 -193 76 77 78 82 80 81 82 82 83 83 -193 84 -209 -177 -209 95 -193 -193 100 100 101 101 104 110 110 111 110 108 108 108 108 108 106 107 106 -193 109 113 116 117 117 -209 121 121 122 123 123 125 127 128 125 130 128 128 128 128 127 126 126 127 124 127 126 127 128 129 130 131 130 130 128 128 129 129 127 127 0 0 0 0 0
    0 0 0 0 0 0 0 0 0 0 0 0 0 0 0 0 0 0 0 0 0 0 0 0 0 0 0 0 0 0 0 0 0 0 0 0 0 0 0 0 0 0 0 0 0 0 0 0 0 0 0 0 0 0 0 0 0 0 0 0 0 0 0 0 0 0 0 0 0 47 45 49 49 49 42 48 45 43 44 39 40 40 -193 42 43 44 52 44 47 44 46 47 43 44 45 45 48 50 52 51 53 53 52 50 49 51 50 49 49 48 48 48 51 52 49 48 56 47 47 51 47 47 50 47 47 47 49 49 45 48 48 42 47 48 -209 -209 0 -209 -209 -209 -193 -209 -209 -209 -209 -209 -209 -193 -209 -193 -193 -193 -193 -209 -193 34 35 -209 -209 -209 -209 -209 -209 -209 -209 -209 -209 -193 -193 -209 -209 -193 -193 -209 -209 -209 -209 -209 -193 -209 -209 47 46 51 47 47 48 48 47 45 49 50 44 54 55 52 53 54 54 54 53 52 53 53 55 54 54 55 55 55 56 56 57 56 57 59 57 55 56 56 56 58 54 54 54 56 56 56 56 59 58 61 64 66 62 -193 -209 -209 -193 76 77 78 81 80 80 82 81 83 83 84 84 -193 -193 -193 95 97 98 99 99 100 101 103 109 109 111 111 108 108 108 108 108 106 107 106 -193 109 113 115 116 117 -209 -209 121 121 122 123 124 126 127 124 130 127 128 127 128 127 126 126 127 125 127 127 127 127 129 130 131 130 130 128 128 128 129 127 127 0 0 0 0 0
    0 0 0 0 0 0 0 0 0 0 0 0 0 0 0 0 0 0 0 0 0 0 0 0 0 0 0 0 0 0 0 0 0 0 0 0 0 0 0 0 0 0 0 0 0 0 0 0 0 0 0 0 0 0 0 0 0 0 0 0 0 0 0 0 0 0 0 0 0 47 45 48 48 48 42 47 44 44 44 -193 42 -193 -209 -209 42 -209 -209 -193 45 -193 46 46 42 44 45 45 -193 51 52 52 53 54 52 50 50 51 50 49 49 48 48 48 51 52 49 48 55 47 46 51 47 47 50 47 47 47 49 49 45 48 48 42 47 47 -209 -209 0 -209 -209 -209 -209 -209 -209 -193 -209 -209 -209 -209 -209 -193 31 31 34 -209 -193 34 34 -209 -209 -193 -209 -209 -193 -177 -193 -209 -209 -177 361 -193 -193 435 435 -193 -209 -209 -193 -193 -193 -193 -209 47 46 51 46 46 46 47 46 44 48 49 44 53 55 52 52 53 53 54 53 52 53 53 55 54 54 55 54 54 55 55 56 55 57 59 57 56 56 56 55 58 54 54 54 56 56 56 56 59 58 61 64 66 63 -193 -193 -193 -193 76 77 78 81 80 80 82 81 83 83 84 84 84 -193 92 95 96 97 98 98 100 100 102 108 109 112 111 108 108 -193 108 108 -193 -193 106 -193 109 112 116 117 117 -209 -209 121 122 122 122 123 125 126 123 129 127 128 127 127 127 126 126 127 125 128 127 127 127 129 129 131 130 129 128 128 128 129 127 127 0 0 0 0 0
    0 0 0 0 0 0 0 0 0 0 0 0 0 0 0 0 0 0 0 0 0 0 0 0 0 0 0 0 0 0 0 0 0 0 0 0 0 0 0 0 0 0 0 0 0 0 0 0 0 0 0 0 0 0 0 0 0 0 0 0 0 0 0 0 0 0 0 0 0 48 45 49 49 48 42 49 45 45 46 52 47 -193 44 43 44 45 -193 40 44 40 44 45 42 43 44 45 -193 51 52 53 54 53 52 50 50 51 50 49 49 48 48 48 51 51 48 49 55 46 46 51 47 47 50 47 48 47 50 49 45 48 48 42 46 46 -209 -209 -193 -209 -209 -209 -209 -209 -209 77 -209 -209 88 92 -209 -193 31 32 34 -193 34 34 35 -209 -209 -193 -209 -193 -177 -177 -177 -209 -209 -193 -193 -209 434 433 432 439 -209 -209 463 -209 -193 -193 -193 46 45 50 46 45 45 46 46 44 47 49 43 52 55 53 52 52 52 53 52 51 52 52 54 53 54 54 54 54 54 55 56 55 57 58 56 56 56 55 55 57 54 53 53 56 55 56 56 59 58 62 65 67 64 71 71 -193 -193 75 76 77 80 80 79 82 81 83 83 83 84 84 -193 92 94 96 97 98 98 99 100 100 108 108 112 111 108 108 -193 108 108 107 -193 106 -193 109 112 116 117 118 -193 -193 122 122 122 122 123 125 126 123 128 126 127 127 127 126 126 126 128 125 128 127 128 127 128 129 131 129 129 128 127 128 129 127 128 0 0 0 0 0
    0 0 0 0 0 0 0 0 0 0 0 0 0 0 0 0 0 0 0 0 0 0 0 0 0 0 0 0 0 0 0 0 0 0 0 0 0 0 0 0 0 0 0 0 0 0 0 0 0 0 0 0 0 0 0 0 0 0 0 0 0 0 0 0 0 0 0 0 0 48 46 49 49 49 42 45 44 44 46 53 47 -193 -209 -209 42 -193 -209 38 42 40 43 43 43 44 44 -193 -193 53 53 54 54 53 52 50 50 51 50 49 49 47 48 48 50 49 47 49 54 46 46 51 48 48 51 48 48 48 50 50 45 48 48 41 45 45 -209 -209 -209 -193 -209 -193 92 -209 -209 77 -193 -209 89 92 -209 -193 32 33 35 -193 35 34 35 -209 -209 300 -209 -193 -193 -193 -177 -193 -193 -193 -193 -193 432 433 432 439 -209 -209 -209 -209 -193 -193 -209 45 44 49 45 45 45 46 45 43 46 48 43 51 56 53 49 51 52 53 52 50 52 52 54 53 53 53 52 52 53 53 54 53 56 58 56 56 56 56 55 58 54 53 53 56 56 57 57 60 59 63 66 68 66 72 71 -193 -193 75 75 77 80 80 79 82 81 83 83 83 84 84 89 92 94 95 97 98 98 99 100 99 107 107 111 111 108 108 -193 108 108 -193 -193 107 -193 109 112 115 117 118 -209 -193 121 122 122 122 123 125 125 123 127 126 127 126 127 126 126 126 128 126 129 128 129 129 130 130 131 129 129 128 127 128 128 127 128 0 0 0 0 0
    0 0 0 0 0 0 0 0 0 0 0 0 0 0 0 0 0 0 0 0 0 0 0 0 0 0 0 0 0 0 0 0 0 0 0 0 0 0 0 0 0 0 0 0 0 0 0 0 0 0 0 0 0 0 0 0 0 0 0 0 0 0 0 0 0 0 0 0 0 49 46 50 49 49 42 45 44 45 47 54 51 -209 -193 43 42 43 -193 39 41 40 43 42 43 44 43 48 -209 53 54 54 54 53 51 50 50 50 49 49 48 47 48 48 50 48 46 49 53 45 45 51 48 49 51 48 49 48 51 51 46 49 48 42 46 45 -193 -209 -209 -193 -209 -193 94 -209 -209 -209 -209 -209 -193 93 -209 -209 -193 32 35 -193 -193 33 -193 -193 -193 300 -193 -193 -209 -193 -177 -193 -193 -209 -209 -209 433 434 434 439 -209 -209 -209 -193 -209 -193 -209 45 44 48 45 44 44 46 45 43 46 48 43 49 55 53 49 51 52 53 52 50 53 53 54 54 54 54 54 52 54 52 54 54 57 59 56 57 58 58 56 61 54 53 54 56 56 57 57 61 59 64 67 68 68 73 -193 -193 73 75 76 77 80 80 79 82 80 83 83 83 84 84 88 91 93 95 97 98 98 99 100 98 106 106 111 111 108 108 -193 108 108 -193 -193 107 -193 109 112 115 117 117 -209 -193 121 121 121 121 123 124 125 123 127 126 127 127 127 127 126 127 128 126 130 130 131 130 131 131 131 130 130 129 128 128 128 127 128 0 0 0 0 0
    0 0 0 0 0 0 0 0 0 0 0 0 0 0 0 0 0 0 0 0 0 0 0 0 0 0 0 0 0 0 0 0 0 0 0 0 0 0 0 0 0 0 0 0 0 0 0 0 0 0 0 0 0 0 0 0 0 0 0 0 0 0 0 0 0 0 0 0 0 50 46 50 49 49 42 45 45 45 47 51 50 -193 44 43 41 42 -193 39 40 39 42 41 42 44 43 49 52 52 53 53 54 52 50 50 51 50 49 49 48 47 47 49 49 47 45 49 53 45 45 51 48 49 52 49 49 49 52 51 47 50 49 42 47 45 42 -209 -193 -193 -209 -193 -193 -209 -209 -209 -209 -209 89 91 -209 -209 -209 -193 -193 -193 -193 -193 -209 -193 301 299 -209 -209 -209 -209 -193 -193 -209 -209 -209 -209 432 435 435 -193 -209 -193 -209 -209 -209 -193 -209 45 44 48 45 44 44 46 45 43 46 48 44 48 53 52 49 52 53 53 53 53 54 54 55 55 55 54 54 53 53 52 54 55 57 59 56 57 59 56 56 61 54 53 54 57 56 57 57 61 59 64 68 69 69 74 -193 73 73 75 76 77 80 80 79 81 80 82 83 83 83 83 87 91 93 95 97 98 98 98 99 96 105 105 110 111 108 108 -193 108 108 -193 -193 107 -193 109 111 115 117 117 -209 120 120 120 121 121 122 123 124 122 127 126 127 127 127 127 126 127 129 127 131 131 132 131 133 132 132 131 131 130 128 128 129 127 128 0 0 0 0 0
    0 0 0 0 0 0 0 0 0 0 0 0 0 0 0 0 0 0 0 0 0 0 0 0 0 0 0 0 0 0 0 0 0 0 0 0 0 0 0 0 0 0 0 0 0 0 0 0 0 0 0 0 0 0 0 0 0 0 0 0 0 0 0 0 0 0 0 0 0 50 47 50 49 49 42 45 45 46 46 48 49 -193 44 44 41 42 40 39 39 39 41 41 41 43 43 49 51 51 53 53 53 52 50 50 51 50 49 49 48 47 47 49 49 46 46 51 54 45 45 51 49 50 52 49 50 49 52 52 48 50 49 42 46 43 39 38 -209 -193 -209 -193 -209 -209 -209 79 83 -209 87 89 -209 -209 -209 -209 -209 -193 166 -209 -209 300 -193 300 -209 -209 -209 -193 -209 -209 -209 -209 -209 -209 -193 435 -193 -209 -193 -193 -209 -209 -193 528 -209 -193 43 47 45 44 44 46 45 43 46 48 44 48 54 53 51 53 54 55 54 54 55 54 55 55 56 56 56 55 55 54 56 57 58 59 56 57 59 56 56 60 54 53 54 57 56 57 57 61 60 64 68 69 69 74 73 74 73 75 76 77 80 80 78 81 80 82 83 83 83 83 87 90 93 94 96 97 97 97 98 95 104 105 109 111 107 108 -193 -193 108 -193 -193 107 -193 109 111 115 117 117 -209 119 119 119 120 120 121 122 124 122 127 126 127 127 128 127 127 128 130 128 132 131 132 132 133 133 133 132 131 130 129 129 129 127 130 0 0 0 0 0
    0 0 0 0 0 0 0 0 0 0 0 0 0 0 0 0 0 0 0 0 0 0 0 0 0 0 0 0 0 0 0 0 0 0 0 0 0 0 0 0 0 0 0 0 0 0 0 0 0 0 0 0 0 0 0 0 0 0 0 0 0 0 0 0 0 0 0 0 0 51 48 50 49 48 41 43 43 44 44 43 45 -193 42 42 38 39 36 38 37 37 39 39 40 42 42 50 51 51 53 53 53 52 50 51 50 50 49 49 48 47 48 50 49 46 48 52 54 46 46 52 50 51 53 50 51 50 53 52 49 50 49 42 46 42 37 34 37 35 -209 -209 -209 -209 -209 -209 82 -209 87 -209 -209 -209 -209 -209 -193 -209 -209 -209 -209 -209 -209 -209 -209 -209 -193 -193 -193 -209 -209 -209 -209 -209 -209 -209 -209 -209 -209 -209 -209 -193 -193 -193 -209 -193 43 46 45 44 44 46 45 43 46 49 46 48 55 55 55 57 57 58 57 57 57 57 57 56 58 58 58 57 57 56 57 58 58 60 56 57 58 56 56 59 53 52 53 56 56 57 58 62 60 65 68 69 69 74 73 74 -193 75 76 77 80 81 78 81 80 83 83 84 83 84 87 90 92 93 95 96 96 95 97 94 104 -193 110 111 108 108 107 -193 108 -193 -193 107 -193 110 111 114 116 115 -193 117 -193 118 119 119 121 122 123 122 126 126 127 127 128 127 127 128 130 128 131 131 132 132 133 133 133 132 132 131 130 130 130 128 131 0 0 0 0 0
    0 0 0 0 0 0 0 0 0 0 0 0 0 0 0 0 0 0 0 0 0 0 0 0 0 0 0 0 0 0 0 0 0 0 0 0 0 0 0 0 0 0 0 0 0 0 0 0 0 0 0 0 0 0 0 0 0 0 0 0 0 0 0 0 0 0 0 0 0 51 47 47 46 45 41 42 41 42 43 43 46 43 44 43 -193 39 38 39 37 36 39 39 40 41 43 51 51 51 53 53 53 51 50 51 50 49 49 48 48 47 48 50 49 47 51 53 55 47 48 52 51 52 53 51 51 50 53 53 49 50 49 42 46 41 36 33 36 33 -209 -209 -209 -209 -209 -209 -209 -209 -209 -209 -209 -209 -209 -209 -209 -209 -209 -209 -209 -193 -209 -209 287 -209 -209 -209 -209 -209 -209 -209 -209 -209 -209 -209 -209 -209 -209 -209 -209 -209 -209 -193 -209 -193 43 46 46 45 45 46 45 44 47 50 47 48 55 55 56 57 57 58 57 58 59 58 58 -193 60 60 60 59 58 56 57 58 57 59 56 57 58 56 56 58 53 52 53 56 56 57 58 62 60 66 69 70 70 75 74 75 74 75 77 78 80 81 79 82 80 83 83 84 83 84 86 90 91 92 94 94 95 94 95 93 103 -193 110 111 108 108 107 -193 108 -193 -193 107 -193 109 111 114 115 115 -193 116 117 117 118 119 120 121 123 122 126 126 128 127 128 127 127 128 130 128 131 130 132 131 133 132 133 132 132 132 132 132 132 131 134 0 0 0 0 0
    0 0 0 0 0 0 0 0 0 0 0 0 0 0 0 0 0 0 0 0 0 0 0 0 0 0 0 0 0 0 0 0 0 0 0 0 0 0 0 0 0 0 0 0 0 0 0 0 0 0 0 0 0 0 0 0 0 0 0 0 0 0 0 0 0 0 0 0 0 51 48 46 44 44 41 41 41 41 42 43 46 44 45 44 -193 40 40 41 38 38 40 40 41 42 44 52 51 51 54 53 52 51 50 51 50 49 49 48 48 47 49 50 48 46 52 54 55 47 48 53 52 52 54 51 52 51 53 53 50 51 50 43 46 40 33 29 32 31 -209 -209 -209 -209 -209 -209 -209 -209 -209 71 73 -193 -209 -209 -209 -209 -209 -209 -209 -193 -209 -193 284 -209 -209 -209 -209 -209 -209 -209 -209 -209 -209 -209 -193 -209 -209 -209 -209 -209 -209 -209 -209 -193 44 46 47 45 45 47 46 45 48 51 49 48 54 55 54 56 57 57 57 58 59 59 60 -209 63 63 64 62 59 56 58 59 56 58 56 57 58 56 56 58 53 52 53 56 56 57 57 62 60 66 69 70 70 75 74 76 75 75 77 79 80 82 79 82 80 83 83 83 83 84 86 90 91 92 94 95 95 94 96 93 104 104 110 111 108 108 107 108 108 -193 109 107 -193 109 111 114 116 116 118 117 117 117 118 119 120 121 123 122 126 127 128 127 128 127 127 128 129 128 131 130 132 131 133 133 134 133 133 133 133 133 133 133 137 0 0 0 0 0
    0 0 0 0 0 0 0 0 0 0 0 0 0 0 0 0 0 0 0 0 0 0 0 0 0 0 0 0 0 0 0 0 0 0 0 0 0 0 0 0 0 0 0 0 0 0 0 0 0 0 0 0 0 0 0 0 0 0 0 0 0 0 0 0 0 0 0 0 0 51 49 46 44 43 41 41 41 41 41 41 43 42 44 44 -209 38 41 40 38 38 40 40 41 42 45 52 51 51 53 53 52 50 50 51 50 49 49 48 48 47 49 50 47 45 54 55 56 47 49 53 52 52 54 52 52 51 54 53 51 52 51 43 48 41 34 30 31 -209 -209 -209 -209 -209 -209 -209 -209 -209 -209 -209 -209 -209 -209 -209 -209 -209 -209 -209 -209 -193 -209 -193 -209 -209 -209 -209 -193 -209 -209 -209 -209 -209 -209 -209 17 -193 -209 -209 -209 -209 -209 -193 -209 -193 45 48 49 47 47 48 47 45 49 52 50 48 53 54 53 54 55 57 56 57 58 58 60 -193 64 61 64 62 -193 53 58 62 57 59 58 59 60 58 58 60 53 53 54 56 56 57 57 62 61 66 70 71 71 76 75 77 75 76 78 79 80 82 79 81 80 82 83 83 82 84 86 90 92 93 94 95 95 94 95 93 104 104 110 112 108 108 108 108 108 -193 109 108 -193 110 112 114 116 116 118 117 117 117 118 119 120 122 123 122 127 127 128 128 128 127 127 128 130 129 132 131 133 133 134 135 135 135 134 134 135 136 -193 -193 146 0 0 0 0 0
    0 0 0 0 0 0 0 0 0 0 0 0 0 0 0 0 0 0 0 0 0 0 0 0 0 0 0 0 0 0 0 0 0 0 0 0 0 0 0 0 0 0 0 0 0 0 0 0 0 0 0 0 0 0 0 0 0 0 0 0 0 0 0 0 0 0 0 0 0 50 48 44 42 41 40 40 39 39 39 40 42 42 44 45 -209 39 42 40 39 39 39 39 41 42 45 50 49 50 53 52 51 50 50 51 49 49 48 48 48 48 50 50 46 46 55 55 57 48 48 53 52 52 54 52 52 51 54 54 52 52 52 44 50 42 35 31 29 -209 -209 -193 -209 -209 -209 -209 -209 -209 -209 -209 -209 -209 -209 -209 -209 -209 -209 -209 -209 -209 -209 -209 -209 -193 -209 -193 -193 -209 -209 -209 -209 -209 -209 -209 19 19 -193 -209 -209 -209 -209 -193 -209 -209 45 48 51 48 48 49 48 46 50 53 51 47 52 53 52 54 55 56 56 57 58 58 59 58 61 58 58 58 -209 50 -193 60 57 59 58 59 60 59 59 60 54 53 53 55 56 57 57 62 60 65 69 71 71 76 75 77 75 76 78 79 80 82 79 81 79 82 82 83 82 84 86 90 92 93 94 95 95 93 94 92 103 104 109 112 108 108 108 108 108 -193 109 108 -193 110 112 115 116 116 118 117 117 117 118 119 120 121 123 122 127 127 128 128 128 128 127 128 131 130 133 133 135 135 136 136 137 137 137 137 139 148 -193 -209 154 0 0 0 0 0
    0 0 0 0 0 0 0 0 0 0 0 0 0 0 0 0 0 0 0 0 0 0 0 0 0 0 0 0 0 0 0 0 0 0 0 0 0 0 0 0 0 0 0 0 0 0 0 0 0 0 0 0 0 0 0 0 0 0 0 0 0 0 0 0 0 0 0 0 0 49 46 43 41 41 40 40 39 39 39 40 42 43 44 45 45 43 46 43 42 41 41 40 41 42 45 49 48 50 52 51 50 49 50 51 49 49 48 48 48 49 51 50 47 50 55 56 57 48 48 53 52 52 54 52 52 51 54 54 52 52 53 45 51 43 29 28 -209 -193 18 20 -193 21 -209 -209 -209 -209 -209 -209 -209 -209 -209 -209 -209 -209 -209 -209 -209 -209 -209 -209 -209 -209 322 323 323 -209 -209 -209 -209 -209 -209 -209 -193 21 -209 -209 -209 -209 -209 -193 -209 -209 44 47 51 48 48 50 49 47 51 54 52 47 52 53 53 53 54 56 55 58 58 58 60 58 61 58 58 59 -209 49 -193 56 56 58 58 59 59 59 57 59 54 54 54 55 56 57 56 60 59 64 68 69 70 76 75 77 76 76 78 79 80 82 79 81 79 82 82 83 82 84 87 90 93 93 94 95 95 94 94 92 102 104 109 112 108 108 108 108 108 108 108 108 -193 110 -193 115 116 117 119 117 117 118 118 119 120 121 123 122 126 127 128 128 129 128 127 128 131 131 -193 -193 136 136 138 139 141 146 146 146 150 154 156 157 157 0 0 0 0 0
    0 0 0 0 0 0 0 0 0 0 0 0 0 0 0 0 0 0 0 0 0 0 0 0 0 0 0 0 0 0 0 0 0 0 0 0 0 0 0 0 0 0 0 0 0 0 0 0 0 0 0 0 0 0 0 0 0 0 0 0 0 0 0 0 0 0 0 0 0 47 46 42 42 41 41 41 40 39 39 39 41 42 43 44 45 43 46 46 44 43 42 42 42 43 47 50 48 51 52 51 50 49 50 50 49 49 48 48 48 50 52 50 48 53 55 56 57 48 49 52 52 52 54 52 52 51 54 54 52 52 53 45 51 43 26 25 24 -193 19 21 21 21 -193 -209 -177 72 63 65 -209 -209 -209 -209 -209 -209 -209 -209 -209 -209 -209 -209 -209 -209 -209 321 321 -209 -193 -209 -209 -209 -209 -209 -209 -209 -209 -209 -209 -209 -209 -209 -209 -193 43 46 51 49 49 50 50 48 51 54 52 47 51 52 52 52 53 55 54 58 58 58 61 59 61 58 58 -193 -209 46 55 56 55 57 57 59 58 58 56 58 55 55 55 55 55 55 56 59 58 62 66 68 69 75 75 77 76 76 78 80 80 82 79 81 80 82 82 83 82 84 86 90 93 93 94 95 95 94 94 91 101 -193 109 113 108 108 107 108 108 108 108 107 -193 109 -193 115 116 116 118 117 117 117 118 119 120 121 123 122 126 128 129 129 129 128 128 129 132 -193 -177 -193 -193 141 144 148 149 153 153 152 154 157 160 159 160 0 0 0 0 0
    0 0 0 0 0 0 0 0 0 0 0 0 0 0 0 0 0 0 0 0 0 0 0 0 0 0 0 0 0 0 0 0 0 0 0 0 0 0 0 0 0 0 0 0 0 0 0 0 0 0 0 0 0 0 0 0 0 0 0 0 0 0 0 0 0 0 0 0 0 45 44 42 41 41 41 40 39 39 39 39 40 41 42 43 43 42 44 45 45 45 43 44 43 43 48 50 49 52 52 51 50 49 51 51 49 49 48 48 49 51 52 49 48 55 56 56 58 49 49 52 52 52 54 52 52 51 53 53 52 52 53 45 49 -193 -193 25 -193 -193 20 21 -193 -209 -209 -209 70 70 60 62 -209 -209 -209 -209 -209 -209 -209 -209 -209 -209 -209 -209 -209 -209 -209 319 319 -209 316 -209 -209 -209 -209 -209 -209 -209 -209 -209 -209 -209 -193 -209 -193 -193 43 46 52 49 49 50 50 48 51 54 52 46 50 51 50 49 50 52 52 56 57 58 61 60 -209 -209 62 -209 -209 -209 56 56 54 56 56 58 56 56 56 57 55 55 55 56 56 56 56 59 58 61 65 66 68 73 74 77 75 75 78 79 79 82 79 81 79 82 82 83 82 85 87 90 93 93 94 95 95 94 95 92 102 -193 109 113 108 108 108 108 108 108 108 -193 -193 110 -193 115 116 116 118 117 117 117 118 118 120 122 124 123 127 129 130 130 130 130 129 131 134 -193 -177 -177 -209 -209 156 156 156 159 160 157 158 162 164 163 164 0 0 0 0 0
    0 0 0 0 0 0 0 0 0 0 0 0 0 0 0 0 0 0 0 0 0 0 0 0 0 0 0 0 0 0 0 0 0 0 0 0 0 0 0 0 0 0 0 0 0 0 0 0 0 0 0 0 0 0 0 0 0 0 0 0 0 0 0 0 0 0 0 0 0 44 43 41 41 41 41 40 40 39 39 39 40 41 41 41 42 41 42 43 43 44 43 42 43 44 48 49 50 52 52 51 50 50 51 51 49 49 49 48 49 51 51 48 47 54 55 55 57 47 47 52 51 51 53 52 52 51 53 53 51 52 52 45 49 44 -193 25 -209 -209 -209 -193 -193 -209 -209 -209 -209 -209 -193 59 -209 -209 51 53 53 -193 -193 -209 -209 -209 -209 -209 -209 -209 -209 -209 -193 -209 -193 -209 -209 -209 -209 571 -209 -209 -209 -209 -209 -209 687 -193 54 46 44 47 52 49 49 50 50 49 51 54 52 46 49 49 49 48 48 50 49 53 57 57 59 59 -193 -209 59 -209 -209 43 56 55 54 55 56 57 55 56 55 57 56 56 56 56 56 56 57 59 58 59 61 62 67 73 74 76 75 75 76 78 79 82 79 81 80 82 82 83 82 85 88 91 93 94 95 95 96 95 95 92 103 -193 109 112 108 108 107 107 108 107 108 -193 -193 110 -193 115 116 116 118 117 117 117 118 119 121 123 125 124 128 131 132 132 133 132 131 133 135 -177 -177 -193 181 -193 166 166 167 166 166 164 163 164 166 165 164 0 0 0 0 0
    0 0 0 0 0 0 0 0 0 0 0 0 0 0 0 0 0 0 0 0 0 0 0 0 0 0 0 0 0 0 0 0 0 0 0 0 0 0 0 0 0 0 0 0 0 0 0 0 0 0 0 0 0 0 0 0 0 0 0 0 0 0 0 0 0 0 0 0 0 44 44 41 41 41 41 40 40 40 40 40 41 42 42 42 43 42 43 43 44 45 44 44 44 48 49 49 50 52 52 50 49 50 51 51 49 49 49 49 49 51 51 48 49 54 54 53 55 47 47 52 51 50 53 51 52 50 53 53 50 52 52 46 48 44 -193 -193 -209 -209 -209 -209 105 -193 -209 -209 -209 -209 -193 57 -209 50 46 50 51 48 48 -209 -209 -209 -209 -209 -209 -209 -209 -209 -209 -209 -177 -209 -209 -209 -209 -209 -209 -209 -209 -209 -209 -209 687 -193 54 48 44 47 52 49 49 50 50 49 51 54 52 45 47 48 48 46 46 47 46 50 54 55 58 57 -193 53 57 -209 -209 45 55 54 53 54 56 58 55 56 55 58 58 57 57 57 56 57 57 59 57 58 58 59 64 70 73 74 74 74 75 77 78 81 79 80 80 81 82 82 82 85 88 91 94 94 95 96 96 95 95 92 101 -193 109 112 108 108 107 107 108 107 108 -193 -193 110 -193 117 117 117 119 118 118 119 120 121 122 126 127 127 131 134 135 135 134 134 133 136 -209 181 -193 172 172 168 169 168 169 168 168 167 165 165 166 164 162 0 0 0 0 0
    0 0 0 0 0 0 0 0 0 0 0 0 0 0 0 0 0 0 0 0 0 0 0 0 0 0 0 0 0 0 0 0 0 0 0 0 0 0 0 0 0 0 0 0 0 0 0 0 0 0 0 0 0 0 0 0 0 0 0 0 0 0 0 0 0 0 0 0 0 44 46 42 42 41 41 41 40 40 40 40 40 41 42 42 42 41 42 42 43 44 43 44 44 50 49 49 51 52 51 50 49 51 50 50 50 49 49 49 50 52 50 48 52 54 54 52 55 47 48 52 50 50 52 51 51 50 53 53 50 52 52 46 48 45 -193 -193 -193 -209 -209 -209 -193 104 -209 -209 -193 -209 -209 59 54 51 48 50 51 -193 -193 -209 -209 -209 -209 -209 -209 -209 -209 -209 -209 -209 -193 -209 -209 -209 -209 -209 -209 -209 -193 -209 -209 -209 -209 -209 53 48 44 47 52 49 50 50 50 50 51 54 52 45 47 47 47 46 46 46 46 51 54 55 58 56 56 53 55 51 43 48 56 55 54 55 56 59 56 56 56 58 58 58 58 57 56 57 57 58 57 56 56 57 61 64 70 73 72 72 74 75 76 80 78 79 79 81 81 82 81 86 -193 91 94 94 95 95 95 95 95 92 101 -193 108 112 108 108 107 107 108 108 108 -193 -193 110 -193 117 118 118 119 119 119 -193 121 122 123 126 128 130 134 136 137 136 136 136 135 -177 162 174 169 168 170 168 169 169 170 169 168 167 165 164 164 160 158 0 0 0 0 0
    0 0 0 0 0 0 0 0 0 0 0 0 0 0 0 0 0 0 0 0 0 0 0 0 0 0 0 0 0 0 0 0 0 0 0 0 0 0 0 0 0 0 0 0 0 0 0 0 0 0 0 0 0 0 0 0 0 0 0 0 0 0 0 0 0 0 0 0 0 44 48 42 42 40 40 40 40 39 39 39 39 40 41 41 41 41 42 42 42 43 42 43 43 47 48 47 50 51 50 50 49 51 50 50 50 49 50 50 51 52 50 49 54 55 54 52 55 49 49 52 50 49 51 51 51 49 52 52 48 51 51 46 47 45 -193 -193 -193 -209 -177 -209 -193 -193 -209 -209 -193 -209 59 60 54 -193 -193 52 -209 -209 -209 -209 -209 -209 -209 -209 -209 -209 -209 -209 -209 -209 -209 478 479 -209 -209 -209 -209 -209 -209 -209 -209 -209 -209 -209 52 47 43 46 52 49 49 49 50 50 51 55 52 44 47 47 47 46 45 46 46 50 54 54 57 55 56 53 55 52 42 49 56 55 55 55 56 60 56 56 56 58 59 59 58 58 57 58 58 59 57 56 56 57 59 60 67 69 69 69 71 74 75 78 77 78 78 80 81 82 82 86 90 92 94 94 95 96 95 95 95 92 99 101 108 112 108 108 107 107 108 108 108 -193 -193 110 -193 117 118 119 120 120 121 -193 123 124 126 132 132 133 136 139 143 145 142 143 145 152 164 171 168 168 168 167 168 168 169 168 167 165 163 162 161 158 157 0 0 0 0 0
    0 0 0 0 0 0 0 0 0 0 0 0 0 0 0 0 0 0 0 0 0 0 0 0 0 0 0 0 0 0 0 0 0 0 0 0 0 0 0 0 0 0 0 0 0 0 0 0 0 0 0 0 0 0 0 0 0 0 0 0 0 0 0 0 0 0 0 0 0 -193 45 39 40 40 40 40 40 39 39 39 40 41 41 41 41 42 42 42 43 0 -256 -1 -15894 47 46 47 50 51 49 49 49 51 50 50 50 49 49 50 51 52 49 50 55 55 54 52 54 49 50 52 50 49 51 50 50 48 51 51 46 49 49 45 45 44 43 42 45 -209 -209 -209 -209 -209 -209 -209 -209 59 57 57 53 -193 52 52 50 -193 -209 -209 -209 -209 -209 -209 -209 -209 -209 -209 -209 -193 -209 -193 -209 -209 -209 -209 -209 -209 -209 -209 -209 -209 -209 -193 49 46 43 46 52 48 49 49 50 50 51 55 53 45 48 47 47 47 46 46 45 50 55 54 56 56 56 53 56 57 52 53 56 54 54 54 56 60 56 56 56 58 59 59 59 58 57 59 59 60 57 57 57 57 59 58 62 64 65 67 70 73 74 77 76 77 77 78 79 81 81 86 90 92 94 94 94 95 95 95 94 91 97 100 107 111 107 107 107 107 108 108 108 -193 -193 109 113 118 119 120 -209 -209 121 123 126 129 -193 -209 -193 135 139 146 152 153 152 151 153 156 165 170 168 167 168 167 168 168 168 167 166 164 162 161 158 156 156 0 0 0 0 0
    0 0 0 0 0 0 0 0 0 0 0 0 0 0 0 0 0 0 0 0 0 0 0 0 0 0 0 0 0 0 0 0 0 0 0 0 0 0 0 0 0 0 0 0 0 0 0 0 0 0 0 0 0 0 0 0 0 0 0 0 0 0 0 0 0 0 0 0 0 -193 41 40 41 42 42 42 41 41 40 39 40 41 40 40 41 42 42 42 43 43 42 44 44 47 46 47 49 50 49 48 49 51 50 49 50 49 50 50 52 51 49 50 55 54 53 51 53 49 50 52 50 49 50 50 50 47 50 49 45 46 46 44 44 44 43 43 46 -209 -209 -209 -209 -209 -209 -209 -209 56 -209 56 53 51 50 51 49 49 48 51 -209 -209 -209 -209 -209 -209 -209 -209 51 51 -193 -209 -209 -209 -209 -193 -209 44 46 46 55 51 45 50 50 49 44 46 52 49 49 50 50 51 51 55 53 45 49 48 48 49 47 48 47 51 55 55 57 57 54 52 54 58 -193 53 56 53 54 54 56 60 55 56 56 58 59 59 59 59 58 60 61 62 59 59 59 58 59 58 60 62 61 63 68 71 73 76 75 76 76 77 78 80 79 86 90 91 93 93 94 95 94 94 94 91 96 99 106 111 107 108 107 107 108 108 108 -193 -193 111 115 -193 121 -209 -209 -209 -209 -193 -209 -209 164 160 -209 150 150 152 155 156 155 154 156 159 166 169 168 167 167 167 167 168 168 167 164 161 160 160 157 156 156 0 0 0 0 0
    0 0 0 0 0 0 0 0 0 0 0 0 0 0 0 0 0 0 0 0 0 0 0 0 0 0 0 0 0 0 0 0 0 0 0 0 0 0 0 0 0 0 0 0 0 0 0 0 0 0 0 0 0 0 0 0 0 0 0 0 0 0 0 0 0 0 0 0 0 42 42 41 44 46 45 45 45 43 40 40 41 41 41 41 41 42 42 42 43 43 43 45 45 47 46 48 49 49 49 48 49 51 50 49 50 50 50 51 52 51 49 51 54 54 52 50 53 49 50 52 49 48 48 49 49 46 48 47 43 44 44 43 43 43 43 44 46 44 -193 -209 -209 -209 -209 -209 51 52 50 52 52 49 50 51 49 50 50 51 49 49 53 -209 -209 -209 -209 -209 -193 51 -193 -209 485 -209 -209 -193 -193 44 47 47 54 52 50 53 52 52 45 47 53 50 50 51 50 51 51 55 53 46 50 49 49 50 48 50 49 50 53 53 54 53 51 50 50 -209 -193 54 56 53 54 54 56 59 55 55 55 58 58 58 59 59 58 61 63 64 61 61 62 61 60 59 60 61 59 60 65 68 71 74 74 75 75 75 76 78 77 84 88 90 92 92 93 94 93 93 93 90 93 97 105 110 107 108 108 108 108 109 109 -193 -193 114 -209 -209 -209 155 163 162 -193 -193 165 163 163 162 161 154 154 154 157 157 157 156 158 161 166 168 167 166 166 166 167 167 167 166 162 159 160 162 157 156 157 0 0 0 0 0
    0 0 0 0 0 0 0 0 0 0 0 0 0 0 0 0 0 0 0 0 0 0 0 0 0 0 0 0 0 0 0 0 0 0 0 0 0 0 0 0 0 0 0 0 0 0 0 0 0 0 0 0 0 0 0 0 0 0 0 0 0 0 0 0 0 0 0 0 0 47 45 44 45 50 50 49 50 49 42 41 43 42 43 42 43 43 42 43 44 42 42 44 45 46 45 46 47 47 48 48 49 51 49 50 51 50 52 52 53 51 49 52 53 52 51 49 52 49 49 52 49 48 48 48 48 45 46 45 42 42 43 43 43 43 44 45 47 45 50 -193 -209 -209 -209 -193 -177 -177 45 49 49 48 49 50 49 50 51 51 49 50 53 50 -209 -209 -209 51 51 -193 -193 487 485 -209 -209 481 482 -193 -193 48 52 50 49 52 51 52 45 47 53 50 50 51 50 51 50 55 54 45 50 49 49 50 49 50 51 50 52 52 52 51 49 49 48 -193 -193 54 55 52 54 53 56 59 54 54 55 57 58 58 59 59 59 63 65 66 63 64 64 64 63 61 60 61 59 58 62 64 69 72 72 73 73 74 75 77 76 83 88 90 91 91 92 93 93 93 93 90 93 97 105 111 107 108 108 108 109 109 -193 -193 -209 116 147 -193 -193 155 160 158 164 166 164 160 161 159 159 156 157 156 158 158 160 159 162 164 166 167 166 164 164 164 165 165 165 163 158 158 160 163 155 154 156 0 0 0 0 0
    0 0 0 0 0 0 0 0 0 0 0 0 0 0 0 0 0 0 0 0 0 0 0 0 0 0 0 0 0 0 0 0 0 0 0 0 0 0 0 0 0 0 0 0 0 0 0 0 0 0 0 0 0 0 0 0 0 0 0 0 0 0 0 0 0 0 0 0 0 49 45 47 47 52 53 52 54 53 46 46 48 46 46 44 44 45 44 44 45 43 42 43 44 45 45 45 47 46 46 48 48 51 48 49 51 50 51 52 52 50 48 51 52 51 50 48 51 49 49 52 49 48 47 48 48 45 45 44 42 42 44 44 44 44 44 46 48 45 51 -209 -193 46 -209 -193 -177 46 45 51 48 47 49 50 48 50 50 50 47 49 51 -193 -193 -209 -209 -209 51 -193 -193 -209 -209 -209 -209 479 479 -193 -193 48 50 49 48 50 50 53 45 47 53 50 50 51 50 51 50 56 54 46 51 51 51 51 50 51 51 50 51 51 51 48 48 48 47 42 44 53 56 52 54 53 56 59 55 55 55 57 58 58 59 59 60 63 65 66 65 65 64 64 64 61 61 61 60 59 62 64 68 71 71 71 72 72 73 75 75 83 88 89 91 91 91 92 92 92 92 90 92 97 106 113 -193 109 109 110 111 112 -209 -209 -209 -209 149 154 154 156 158 155 158 158 161 158 160 158 159 159 161 161 161 159 164 161 163 164 165 165 162 160 159 160 162 162 161 160 156 155 155 -209 140 149 -193 0 0 0 0 0
    0 0 0 0 0 0 0 0 0 0 0 0 0 0 0 0 0 0 0 0 0 0 0 0 0 0 0 0 0 0 0 0 0 0 0 0 0 0 0 0 0 0 0 0 0 0 0 0 0 0 0 0 0 0 0 0 0 0 0 0 0 0 0 0 0 0 0 0 0 50 46 51 50 53 54 52 56 55 48 49 51 49 48 46 47 46 45 46 46 44 43 44 45 46 45 45 47 46 46 48 48 50 48 50 51 50 51 52 51 50 49 51 51 51 50 48 51 49 49 52 49 48 47 48 48 44 45 45 42 42 44 45 45 44 44 46 47 44 51 -209 44 44 46 53 -177 46 46 52 49 48 50 50 49 51 51 51 46 49 51 -193 -193 -209 -209 -209 50 -193 -209 -193 -177 -193 486 479 478 -193 -193 48 49 49 48 49 50 53 46 48 53 51 51 51 51 52 51 56 55 46 52 52 52 53 51 51 51 50 50 50 50 48 47 48 47 43 43 53 54 51 54 54 56 59 55 55 55 57 57 59 59 59 61 63 64 66 65 66 65 66 66 62 64 65 64 64 68 68 69 71 71 71 71 72 73 74 74 81 88 89 91 91 91 92 91 91 91 89 91 98 107 116 -193 -193 -193 -193 114 -209 -209 -209 -209 -209 150 154 154 155 156 154 155 157 160 159 161 160 162 162 164 164 163 162 165 162 162 163 164 163 160 158 158 160 163 163 162 161 157 -193 -209 119 -209 -209 -209 0 0 0 0 0
    0 0 0 0 0 0 0 0 0 0 0 0 0 0 0 0 0 0 0 0 0 0 0 0 0 0 0 0 0 0 0 0 0 0 0 0 0 0 0 0 0 0 0 0 0 0 0 0 0 0 0 0 0 0 0 0 0 0 0 0 0 0 0 0 0 0 0 0 0 50 46 51 51 54 55 53 56 56 47 48 51 48 48 46 47 47 46 47 47 45 44 46 46 46 47 46 47 47 47 48 49 50 49 50 51 50 51 53 52 50 49 51 50 50 49 47 51 48 48 51 48 48 47 48 48 45 46 46 43 44 46 46 46 46 45 47 47 44 52 -209 43 42 45 53 46 46 48 54 50 50 51 51 50 52 52 52 49 52 53 51 -193 -193 -209 -209 53 54 -209 -193 -225 -225 487 479 -193 -193 -193 48 49 49 48 48 48 53 46 48 53 51 51 51 51 52 50 56 56 46 54 53 53 53 53 53 52 51 51 51 52 51 49 50 49 45 50 54 57 51 54 54 56 59 55 55 56 58 58 60 60 59 61 64 64 65 65 66 65 66 66 64 65 67 67 69 72 73 72 73 71 71 71 72 72 72 73 79 -193 -193 -193 90 90 91 91 91 91 89 93 101 109 118 -177 -177 -193 -193 -209 -193 157 155 -209 -209 151 155 155 155 156 154 155 156 159 158 158 159 161 162 164 165 164 162 166 162 159 160 163 163 158 157 158 162 164 163 163 162 157 -209 -209 -193 136 -209 154 0 0 0 0 0
    0 0 0 0 0 0 0 0 0 0 0 0 0 0 0 0 0 0 0 0 0 0 0 0 0 0 0 0 0 0 0 0 0 0 0 0 0 0 0 0 0 0 0 0 0 0 0 0 0 0 0 0 0 0 0 0 0 0 0 0 0 0 0 0 0 0 0 0 0 49 45 50 48 52 54 53 54 55 47 49 51 49 49 46 49 48 47 48 48 46 46 47 47 47 48 47 48 48 47 48 49 50 49 50 51 50 51 53 52 50 50 50 49 49 48 46 50 47 47 50 48 48 47 48 48 45 47 47 44 45 47 47 47 46 46 47 47 45 51 -209 -225 -225 44 54 46 46 50 53 50 50 51 51 50 51 52 51 49 52 53 52 53 55 57 -193 55 55 -193 -193 -225 -225 -225 479 -193 -193 -193 50 49 50 49 47 48 53 45 48 53 51 51 51 51 52 50 57 56 46 54 54 53 54 54 53 53 52 52 52 53 52 51 51 51 50 55 57 58 49 54 54 56 58 55 55 56 58 58 61 60 60 62 64 64 65 65 66 65 66 66 64 65 70 70 73 75 76 76 76 74 73 72 72 72 72 73 79 87 87 90 90 90 91 91 92 91 89 93 102 -209 -209 -177 -177 160 159 155 155 156 155 156 156 153 155 156 156 157 154 154 155 157 156 156 157 158 159 162 163 162 159 164 156 156 155 156 159 158 155 157 160 163 162 161 160 156 155 -209 -209 139 151 164 0 0 0 0 0
    0 0 0 0 0 0 0 0 0 0 0 0 0 0 0 0 0 0 0 0 0 0 0 0 0 0 0 0 0 0 0 0 0 0 0 0 0 0 0 0 0 0 0 0 0 0 0 0 0 0 0 0 0 0 0 0 0 0 0 0 0 0 0 0 0 0 0 0 0 49 45 49 48 52 54 53 54 55 50 52 53 51 51 48 50 49 48 49 49 47 47 48 48 48 49 49 49 49 47 49 50 50 50 50 51 50 51 52 51 49 50 49 47 48 47 45 49 46 46 49 47 47 47 48 48 44 47 48 44 46 47 48 47 47 47 48 47 47 53 -225 -225 -225 -225 53 45 44 50 52 50 50 50 50 49 51 51 51 50 52 52 52 54 55 57 57 56 55 58 60 -225 -225 -225 480 -193 -193 -193 51 50 50 49 47 49 52 45 48 53 51 51 52 51 52 50 56 56 46 53 54 53 54 54 53 53 52 52 52 53 53 53 51 52 52 57 58 58 46 53 54 56 57 55 55 56 58 58 61 61 60 62 65 64 64 65 66 65 66 66 65 64 70 71 -209 -209 -209 80 78 76 74 75 74 73 72 73 78 86 86 88 88 88 90 90 90 90 86 -177 -209 -209 147 154 164 159 158 155 154 156 155 156 156 154 156 156 157 157 155 155 155 157 156 157 157 157 158 160 161 162 157 -209 152 154 155 157 161 158 154 156 159 162 161 159 158 155 155 168 -209 -209 153 -193 0 0 0 0 0
    0 0 0 0 0 0 0 0 0 0 0 0 0 0 0 0 0 0 0 0 0 0 0 0 0 0 0 0 0 0 0 0 0 0 0 0 0 0 0 0 0 0 0 0 0 0 0 0 0 0 0 0 0 0 0 0 0 0 0 0 0 0 0 0 0 0 0 0 0 49 44 50 49 53 54 53 55 55 51 53 53 52 52 49 51 49 48 50 49 49 47 49 49 49 50 50 50 50 48 50 50 50 50 51 50 50 51 52 51 49 50 48 47 48 47 44 49 46 46 49 47 47 47 47 48 44 47 48 44 46 47 47 47 47 48 48 48 49 54 -225 -225 -225 -225 -225 45 45 51 -177 50 50 50 50 49 51 51 50 50 52 51 52 53 55 55 56 55 54 57 59 -225 -225 -225 480 -193 484 484 51 50 49 48 47 49 51 45 48 53 51 51 52 52 52 51 57 56 45 54 54 53 53 54 53 53 52 52 53 54 54 53 52 53 54 57 58 59 45 51 53 56 56 54 55 56 58 58 60 61 60 62 65 63 64 64 66 64 65 66 65 63 71 71 -193 -209 81 83 82 80 78 79 80 76 74 76 80 85 85 87 86 86 87 -193 -209 -209 -209 -177 -209 -209 150 154 164 158 159 155 155 157 156 156 156 155 156 156 157 156 154 154 155 157 156 156 156 156 158 159 161 162 -193 -209 -193 155 157 161 163 158 153 156 158 160 159 157 156 154 154 167 173 -209 161 171 0 0 0 0 0
    0 0 0 0 0 0 0 0 0 0 0 0 0 0 0 0 0 0 0 0 0 0 0 0 0 0 0 0 0 0 0 0 0 0 0 0 0 0 0 0 0 0 0 0 0 0 0 0 0 0 0 0 0 0 0 0 0 0 0 0 0 0 0 0 0 0 0 0 0 50 45 51 50 52 54 53 54 56 51 53 54 52 53 50 52 49 48 50 50 50 48 49 50 50 52 51 51 51 48 51 50 50 50 51 50 49 51 52 51 50 49 48 46 48 48 44 49 46 45 48 47 47 46 47 47 43 47 47 44 46 47 47 47 47 49 48 48 52 55 -225 -225 -225 -225 -225 -177 -177 -177 -177 50 51 51 50 50 51 51 50 50 52 51 52 53 54 55 55 55 53 57 58 -225 -225 -225 481 480 485 484 50 49 49 48 46 49 51 45 48 -193 51 51 51 52 52 51 57 57 44 54 55 53 52 54 53 53 52 52 53 54 54 54 52 55 54 57 58 59 45 47 50 56 56 54 55 56 58 58 61 61 60 62 65 63 64 64 66 64 65 66 65 62 71 72 75 79 83 85 85 85 84 85 86 83 79 81 85 -209 -193 -209 -209 -193 90 -209 -209 -209 -209 -209 -209 -209 150 153 -193 157 157 153 154 156 155 156 156 155 157 156 157 156 154 154 154 155 154 155 155 156 158 161 163 164 160 169 165 159 161 160 -209 156 151 155 156 156 155 155 154 152 153 165 172 -209 160 170 0 0 0 0 0
    0 0 0 0 0 0 0 0 0 0 0 0 0 0 0 0 0 0 0 0 0 0 0 0 0 0 0 0 0 0 0 0 0 0 0 0 0 0 0 0 0 0 0 0 0 0 0 0 0 0 0 0 0 0 0 0 0 0 0 0 0 0 0 0 0 0 0 0 0 50 45 52 51 52 54 53 54 56 51 53 53 52 52 51 52 49 48 51 50 51 49 50 51 50 52 52 51 51 48 51 51 51 51 51 50 49 52 52 51 50 49 48 46 48 48 44 49 45 45 48 46 46 46 47 47 43 47 48 44 47 48 48 47 48 49 48 48 53 -225 -225 -225 -225 -225 -225 -177 -177 -177 -177 50 51 51 50 49 51 51 50 50 52 50 52 53 55 55 55 55 53 57 58 -225 -225 -225 481 481 485 484 51 49 49 48 46 48 50 44 48 -193 51 51 51 52 52 51 57 57 42 52 54 53 52 55 52 53 52 52 53 55 55 55 53 55 55 57 58 58 47 47 48 57 57 56 57 60 61 60 64 63 61 63 65 64 63 64 65 63 64 65 65 63 73 73 77 82 85 87 86 86 86 87 -209 -193 209 -209 -209 -209 -209 -209 -209 -209 -209 -209 -209 136 138 141 147 -209 -193 155 168 157 157 154 155 156 155 156 156 154 156 156 157 155 153 153 153 154 154 155 155 157 160 162 165 166 165 169 166 161 164 162 161 -209 149 154 155 154 153 154 153 152 153 162 -209 -209 161 169 0 0 0 0 0
    0 0 0 0 0 0 0 0 0 0 0 0 0 0 0 0 0 0 0 0 0 0 0 0 0 0 0 0 0 0 0 0 0 0 0 0 0 0 0 0 0 0 0 0 0 0 0 0 0 0 0 0 0 0 0 0 0 0 0 0 0 0 0 0 0 0 0 0 0 48 44 51 52 52 -193 53 55 56 53 53 53 53 53 52 54 50 49 52 50 53 51 51 52 51 53 53 52 52 49 51 51 51 51 51 48 48 51 52 50 50 48 47 45 49 49 44 49 45 45 48 46 46 46 46 47 43 47 48 44 47 48 47 47 48 49 48 48 55 -225 -225 -225 -225 -225 -225 -177 -177 -177 -177 50 51 51 50 50 51 51 49 51 52 50 52 53 55 55 56 55 53 57 58 -225 -225 -225 482 482 486 484 -193 49 49 48 46 49 50 45 49 53 51 52 52 53 52 51 57 57 42 56 57 55 53 56 53 54 53 53 54 56 55 56 54 57 56 57 58 58 51 51 53 57 59 68 70 72 68 65 68 66 64 65 67 64 63 64 65 63 64 66 66 64 73 75 82 84 -177 -193 -177 -177 -193 -209 -209 204 211 215 216 218 218 -209 -193 140 141 140 139 138 139 142 147 154 150 155 168 162 162 162 161 161 161 162 161 156 158 158 157 155 154 154 154 155 155 158 158 159 162 164 167 168 168 169 167 163 166 165 162 -209 151 155 157 -209 -209 154 154 153 154 165 171 168 167 170 0 0 0 0 0
    0 0 0 0 0 0 0 0 0 0 0 0 0 0 0 0 0 0 0 0 0 0 0 0 0 0 0 0 0 0 0 0 0 0 0 0 0 0 0 0 0 0 0 0 0 0 0 0 0 0 0 0 0 0 0 0 0 0 0 0 0 0 0 0 0 0 0 0 0 49 44 53 -193 53 -193 -209 -209 -209 -225 -225 -225 -225 52 52 55 49 49 51 50 53 51 52 53 52 54 54 53 53 50 51 51 51 52 52 48 48 52 52 51 51 49 47 46 50 49 44 49 45 45 47 46 46 46 46 47 43 47 48 43 47 48 47 47 48 49 47 47 56 -225 -225 -225 -225 -225 -225 -177 -177 -177 -177 50 52 51 50 50 51 51 49 52 52 51 53 54 55 55 56 56 54 57 58 -225 -225 -225 482 482 486 484 -193 50 49 48 47 49 50 45 49 53 52 52 52 53 53 52 57 57 43 -193 57 -193 55 58 54 54 54 54 55 57 57 56 55 57 58 58 58 58 53 53 55 59 67 75 86 94 107 -209 70 69 -209 -193 -193 65 64 64 66 65 66 68 68 64 74 79 -209 -193 -209 -209 -209 -209 -209 -209 201 206 213 -193 215 -209 -209 -209 146 149 150 150 150 147 149 151 151 156 150 155 168 162 162 162 161 162 161 160 160 156 157 157 157 156 154 154 155 155 155 158 159 160 162 164 167 169 169 169 169 167 169 169 -209 168 -209 161 167 -209 -209 -209 159 159 160 168 174 172 168 171 0 0 0 0 0
    0 0 0 0 0 0 0 0 0 0 0 0 0 0 0 0 0 0 0 0 0 0 0 0 0 0 0 0 0 0 0 0 0 0 0 0 0 0 0 0 0 0 0 0 0 0 0 0 0 0 0 0 0 0 0 0 0 0 0 0 0 0 0 0 0 0 0 0 0 -225 -225 -225 -225 -225 -225 -225 -225 -225 -225 -225 -225 -225 -225 -225 54 47 46 48 48 54 52 53 54 53 54 54 54 53 50 52 52 52 51 51 47 47 51 52 51 50 48 48 47 51 50 44 49 45 45 47 46 46 45 46 46 42 47 47 43 47 47 47 47 48 50 47 47 56 -225 -225 -225 -225 -225 -225 -177 -177 -177 -177 50 51 50 50 49 50 51 48 52 52 50 53 54 55 55 56 55 54 57 58 -225 -225 -225 481 481 486 483 -193 50 49 48 47 50 50 44 49 52 51 52 52 53 53 53 57 57 44 -193 57 -193 55 63 55 56 56 56 56 59 58 58 55 58 59 59 58 59 54 54 56 61 71 84 -177 -193 -193 126 134 -209 151 157 -209 -209 -193 -193 -193 -193 -193 68 69 62 74 85 -209 -209 -209 -209 -193 253 -209 -209 201 205 211 213 215 214 209 210 212 -193 -209 -193 -193 -193 151 151 151 156 149 151 153 155 158 158 157 158 157 158 161 159 159 160 159 160 158 157 155 155 154 156 157 163 166 165 169 172 174 173 174 173 174 172 173 171 -209 163 -193 -209 -209 -209 162 163 164 169 173 172 170 172 0 0 0 0 0
    0 0 0 0 0 0 0 0 0 0 0 0 0 0 0 0 0 0 0 0 0 0 0 0 0 0 0 0 0 0 0 0 0 0 0 0 0 0 0 0 0 0 0 0 0 0 0 0 0 0 0 0 0 0 0 0 0 0 0 0 0 0 0 0 0 0 0 0 0 -225 -225 -225 -225 -225 -225 -225 -225 -225 -225 -225 -225 -225 -225 -225 -225 45 44 43 46 55 51 52 53 53 54 54 54 53 50 52 52 51 51 51 46 46 50 51 50 50 48 47 46 52 50 44 50 45 45 47 46 45 45 46 46 42 46 46 43 46 46 46 46 47 49 46 47 55 -225 -225 -225 -225 -225 -225 -225 -177 -193 -177 48 51 49 48 48 49 50 46 51 50 47 51 52 54 54 54 54 52 56 57 -225 -225 -225 -225 481 486 483 -193 51 50 48 48 51 50 44 49 52 51 51 52 53 53 53 57 57 45 -193 57 -193 53 60 53 54 54 54 55 59 58 57 55 58 59 59 59 58 54 54 56 64 73 -177 104 109 116 120 123 124 138 151 157 154 155 161 -193 171 177 -209 -193 -209 75 -209 -209 -209 -209 -209 238 -209 -209 -209 -209 -193 -209 -209 -193 161 165 -193 201 -193 -193 -209 -193 -193 -193 150 148 -225 -225 -225 -225 -225 -225 -225 -225 -225 -225 160 162 161 160 162 162 162 161 162 160 161 160 161 162 165 168 169 170 172 173 171 173 173 173 -193 -193 -209 -209 162 -193 165 160 -193 166 167 168 172 174 174 173 173 0 0 0 0 0
    0 0 0 0 0 0 0 0 0 0 0 0 0 0 0 0 0 0 0 0 0 0 0 0 0 0 0 0 0 0 0 0 0 0 0 0 0 0 0 0 0 0 0 0 0 0 0 0 0 0 0 0 0 0 0 0 0 0 0 0 0 0 0 0 0 0 0 0 0 -225 -225 -225 -225 -225 -225 -225 -225 -225 -225 -225 -225 -225 -225 -225 -225 -225 43 43 45 54 49 51 52 52 53 54 53 53 50 52 52 52 52 52 46 47 51 51 51 51 47 47 46 53 51 44 50 45 44 47 45 45 44 45 45 41 45 45 42 44 45 45 44 46 49 45 49 -225 -225 -225 -225 -225 -225 -225 -225 46 -193 -177 48 50 48 48 47 48 49 45 50 49 46 49 51 54 53 53 54 53 56 -225 -225 -225 -225 -225 481 486 483 483 51 50 48 47 51 48 44 48 -193 51 -193 52 -193 -193 -193 57 57 45 -193 -209 -209 47 57 52 53 53 53 54 58 57 57 54 58 59 59 59 58 55 55 58 68 75 91 103 106 109 115 119 120 130 -209 -193 149 151 156 165 170 175 -209 -209 -209 -209 -209 -209 -209 -209 220 227 -193 203 204 204 204 202 202 202 202 201 203 204 -193 -209 -209 -209 -225 -225 -225 -225 -225 -225 -225 -225 -225 -225 -225 -225 -225 -225 -225 -225 163 161 164 163 162 162 163 162 164 164 164 166 168 171 171 173 174 173 172 174 174 173 -193 -193 155 -193 157 152 -209 156 167 167 169 172 180 181 181 181 182 0 0 0 0 0
    0 0 0 0 0 0 0 0 0 0 0 0 0 0 0 0 0 0 0 0 0 0 0 0 0 0 0 0 0 0 0 0 0 0 0 0 0 0 0 0 0 0 0 0 0 0 0 0 0 0 0 0 0 0 0 0 0 0 0 0 0 0 0 0 0 0 0 0 0 -225 -225 -225 -225 -225 -225 -225 -225 -225 -225 -225 -225 -225 -225 -225 -225 -225 -225 40 44 54 50 52 53 52 54 55 54 53 50 52 51 52 52 53 46 47 52 52 52 52 48 50 47 54 53 45 51 45 43 46 45 45 44 44 43 40 44 43 -193 -193 -193 44 -193 -193 -193 44 -225 -225 -225 -225 -225 -225 -225 -225 -225 -225 984 -177 48 50 48 48 47 49 48 44 48 48 45 48 50 53 -225 -225 -225 -225 -225 -225 -225 -225 -225 -225 -225 486 483 -193 50 49 46 45 51 -193 -193 -193 -209 -193 -193 -193 -193 -209 -193 -193 58 -209 -193 -209 -209 44 56 52 53 52 52 54 57 57 56 54 58 58 58 58 58 56 56 59 68 76 91 103 106 108 114 119 120 127 -209 143 141 148 154 162 169 173 178 -209 -209 -209 -209 -209 -209 -209 -193 -193 -193 203 207 206 206 203 202 202 202 -209 -209 -193 -225 -225 -225 -225 -225 -225 -225 -225 -225 -225 -225 -225 -225 -225 -225 -225 -225 -225 -225 -225 -225 -225 -225 163 162 163 162 162 163 164 166 167 169 173 172 174 175 172 172 172 172 -193 -193 -193 154 153 155 154 -209 154 166 167 168 172 181 184 186 185 191 0 0 0 0 0
    0 0 0 0 0 0 0 0 0 0 0 0 0 0 0 0 0 0 0 0 0 0 0 0 0 0 0 0 0 0 0 0 0 0 0 0 0 0 0 0 0 0 0 0 0 0 0 0 0 0 0 0 0 0 0 0 0 0 0 0 0 0 0 0 0 0 0 0 0 -225 -225 -225 -225 -225 -225 -225 -225 -225 -225 -225 -225 -225 -225 -225 -225 -225 -225 -225 45 56 52 -177 54 53 54 56 55 53 51 51 51 52 52 52 46 46 53 53 53 53 47 50 47 55 -225 -225 -225 -225 40 43 42 42 42 43 41 39 44 -193 655 661 -209 43 -193 46 -225 -225 -225 -225 -225 -225 -225 -225 -225 -225 -225 -225 -225 -225 -225 -193 -193 -193 47 50 -225 -225 -225 -225 -225 -225 -225 -225 -225 -225 -225 -225 -225 -225 -225 -225 -225 -225 -225 -225 -225 -225 -225 -209 -209 -209 -209 -209 -193 -209 -209 -209 -209 -209 -209 -209 -209 -209 -209 -209 -193 -209 -177 46 58 53 53 53 53 55 58 58 57 54 57 57 57 57 57 56 56 59 68 76 91 103 106 108 115 119 121 128 -209 -209 140 147 153 161 168 171 172 -209 -209 -209 156 161 -209 -209 -193 217 198 203 207 206 206 203 202 202 -225 -225 -225 -225 -225 -225 -225 -225 -225 -225 -225 -225 -225 -225 -225 -225 -225 -225 -225 -225 -225 -225 -225 -225 -225 -225 -225 -225 -225 -225 163 162 164 164 165 160 165 170 169 171 171 169 166 169 170 -193 152 -193 154 154 155 152 149 153 163 166 167 171 180 184 188 186 197 0 0 0 0 0
    0 0 0 0 0 0 0 0 0 0 0 0 0 0 0 0 0 0 0 0 0 0 0 0 0 0 0 0 0 0 0 0 0 0 0 0 0 0 0 0 0 0 0 0 0 0 0 0 0 0 0 0 0 0 0 0 0 0 0 0 0 0 0 0 0 0 0 0 0 -225 -225 -225 -225 -225 -225 -225 -225 -225 -225 -225 -225 -225 -225 -225 -225 -225 -225 -225 -225 -225 -225 -225 -225 -225 53 55 55 54 51 51 52 54 55 55 51 50 55 -225 -225 -225 -225 -225 -225 -225 -225 -225 -225 -225 -225 -225 -225 -225 -225 -225 -225 -225 -225 -225 -225 -225 -225 -225 -225 -225 -225 -225 -225 -225 -225 -225 -225 -225 -225 -225 -225 -225 -225 -225 -225 -225 -225 -225 -225 -225 -225 -225 -225 -225 -225 -225 -225 -225 -225 -225 -225 -225 -225 -225 -225 -225 -225 -225 -225 -225 -225 -225 -225 -225 -225 -225 -225 -225 -225 -225 -225 -225 -225 -225 -225 -225 -225 -225 -225 -225 -225 -225 -225 -225 -225 -225 -225 -225 -225 -225 -225 -225 -225 -225 -225 56 57 57 56 56 56 59 69 77 91 103 106 108 115 119 122 129 -209 -209 143 150 154 162 168 171 178 181 185 -193 -209 203 217 215 218 220 221 205 207 206 -225 -225 -225 -225 -225 -225 -225 -225 -225 -225 -225 -225 -225 -225 -225 -225 -225 -225 -225 -225 -225 -225 -225 -225 -225 -225 -225 -225 -225 -225 -225 -225 -225 -225 -225 -225 166 166 164 161 160 160 153 159 165 152 152 157 152 151 153 153 153 154 155 153 151 154 166 165 167 170 178 183 186 183 194 0 0 0 0 0
    0 0 0 0 0 0 0 0 0 0 0 0 0 0 0 0 0 0 0 0 0 0 0 0 0 0 0 0 0 0 0 0 0 0 0 0 0 0 0 0 0 0 0 0 0 0 0 0 0 0 0 0 0 0 0 0 0 0 0 0 0 0 0 0 0 0 0 0 0 -225 -225 -225 -225 -225 -225 -225 -225 -225 -225 -225 -225 -225 -225 -225 -225 -225 -225 -225 -225 -225 -225 -225 -225 -225 -225 -225 -225 -225 -225 -225 -225 -225 -225 -225 -225 -225 -225 -225 -225 -225 -225 -225 -225 -225 -225 -225 -225 -225 -225 -225 -225 -225 -225 -225 -225 -225 -225 -225 -225 -225 -225 -225 -225 -225 -225 -225 -225 -225 -225 -225 -225 -225 -225 -225 -225 -225 -225 -225 -225 -225 -225 -225 -225 -225 -225 -225 -225 -225 -225 -225 -225 -225 -225 -225 -225 -225 -225 -225 -225 -225 -225 -225 -225 -225 -225 -225 -225 -225 -225 -225 -225 -225 -225 -225 -225 -225 -225 -225 -225 -225 -225 -225 -225 -225 -225 -225 -225 -225 -225 -225 -225 -225 -225 -225 -225 -225 -225 -225 -225 -225 -225 58 57 57 57 61 70 79 93 104 106 109 115 119 -193 125 132 -209 137 148 154 162 169 174 185 188 193 200 -193 214 218 217 219 220 221 -225 -225 -225 -225 -225 -225 -225 -225 -225 -225 -225 -225 -225 -225 -225 -225 -225 -225 -225 -225 -225 -225 -225 -225 -225 -225 -225 -225 -225 -225 -225 -225 -225 -225 -225 -225 -225 -225 -225 -225 -225 -225 164 163 158 153 155 152 150 150 153 150 150 152 152 152 154 157 155 152 156 166 165 167 170 178 183 185 182 194 0 0 0 0 0
    0 0 0 0 0 0 0 0 0 0 0 0 0 0 0 0 0 0 0 0 0 0 0 0 0 0 0 0 0 0 0 0 0 0 0 0 0 0 0 0 0 0 0 0 0 0 0 0 0 0 0 0 0 0 0 0 0 0 0 0 0 0 0 0 0 0 0 0 0 -225 -225 -225 -225 -225 -225 -225 -225 -225 -225 -225 -225 -225 -225 -225 -225 -225 -225 -225 -225 -225 -225 -225 -225 -225 -225 -225 -225 -225 -225 -225 -225 -225 -225 -225 -225 -225 -225 -225 -225 -225 -225 -225 -225 -225 -225 -225 -225 -225 -225 -225 -225 -225 -225 -225 -225 -225 -225 -225 -225 -225 -225 -225 -225 -225 -225 -225 -225 -225 -225 -225 -225 -225 -225 -225 -225 -225 -225 -225 -225 -225 -225 -225 -225 -225 -225 -225 -225 -225 -225 -225 -225 -225 -225 -225 -225 -225 -225 -225 -225 -225 -225 -225 -225 -225 -225 -225 -225 -225 -225 -225 -225 -225 -225 -225 -225 -225 -225 -225 -225 -225 -225 -225 -225 -225 -225 -225 -225 -225 -225 -225 -225 -225 -225 -225 -225 -225 -225 -225 -225 -225 -225 -225 -225 58 58 62 71 84 -177 105 107 110 114 117 119 123 125 130 134 139 151 -177 172 185 188 193 196 200 200 206 -225 -225 -225 -225 -225 -225 -225 -225 -225 -225 -225 -225 -225 -225 -225 -225 -225 -225 -225 -225 -225 -225 -225 -225 -225 -225 -225 -225 -225 -225 -225 -225 -225 -225 -225 -225 -225 -225 -225 -225 -225 -225 -225 -225 -225 -225 -225 -225 -225 -225 153 155 152 150 149 151 147 146 150 150 150 152 154 152 152 157 166 166 167 170 178 184 187 184 197 0 0 0 0 0
    0 0 0 0 0 0 0 0 0 0 0 0 0 0 0 0 0 0 0 0 0 0 0 0 0 0 0 0 0 0 0 0 0 0 0 0 0 0 0 0 0 0 0 0 0 0 0 0 0 0 0 0 0 0 0 0 0 0 0 0 0 0 0 0 0 0 0 0 0 -225 -225 -225 -225 -225 -225 -225 -225 -225 -225 -225 -225 -225 -225 -225 -225 -225 -225 -225 -225 -225 -225 -225 -225 -225 -225 -225 -225 -225 -225 -225 -225 -225 -225 -225 -225 -225 -225 -225 -225 -225 -225 -225 -225 -225 -225 -225 -225 -225 -225 -225 -225 -225 -225 -225 -225 -225 -225 -225 -225 -225 -225 -225 -225 -225 -225 -225 -225 -225 -225 -225 -225 -225 -225 -225 -225 -225 -225 -225 -225 -225 -225 -225 -225 -225 -225 -225 -225 -225 -225 -225 -225 -225 -225 -225 -225 -225 -225 -225 -225 -225 -225 -225 -225 -225 -225 -225 -225 -225 -225 -225 -225 -225 -225 -225 -225 -225 -225 -225 -225 -225 -225 -225 -225 -225 -225 -225 -225 -225 -225 -225 -225 -225 -225 -225 -225 -225 -225 -225 -225 -225 -225 -225 -225 -225 58 64 72 87 102 107 107 107 110 114 118 121 122 125 132 138 151 -177 178 187 190 190 -225 -225 -225 -225 -225 -225 -225 -225 -225 -225 -225 -225 -225 -225 -225 -225 -225 -225 -225 -225 -225 -225 -225 -225 -225 -225 -225 -225 -225 -225 -225 -225 -225 -225 -225 -225 -225 -225 -225 -225 -225 -225 -225 -225 -225 -225 -225 -225 -225 -225 -225 -225 -225 -225 -225 -225 -225 -225 150 151 147 145 148 147 147 149 151 149 149 152 158 161 166 170 178 184 188 -209 199 0 0 0 0 0
    0 0 0 0 0 0 0 0 0 0 0 0 0 0 0 0 0 0 0 0 0 0 0 0 0 0 0 0 0 0 0 0 0 0 0 0 0 0 0 0 0 0 0 0 0 0 0 0 0 0 0 0 0 0 0 0 0 0 0 0 0 0 0 0 0 0 0 0 0 -225 -225 -225 -225 -225 -225 -225 -225 -225 -225 -225 -225 -225 -225 -225 -225 -225 -225 -225 -225 -225 -225 -225 -225 -225 -225 -225 -225 -225 -225 -225 -225 -225 -225 -225 -225 -225 -225 -225 -225 -225 -225 -225 -225 -225 -225 -225 -225 -225 -225 -225 -225 -225 -225 -225 -225 -225 -225 -225 -225 -225 -225 -225 -225 -225 -225 -225 -225 -225 -225 -225 -225 -225 -225 -225 -225 -225 -225 -225 -225 -225 -225 -225 -225 -225 -225 -225 -225 -225 -225 -225 -225 -225 -225 -225 -225 -225 -225 -225 -225 -225 -225 -225 -225 -225 -225 -225 -225 -225 -225 -225 -225 -225 -225 -225 -225 -225 -225 -225 -225 -225 -225 -225 -225 -225 -225 -225 -225 -225 -225 -225 -225 -225 -225 -225 -225 -225 -225 -225 -225 -225 -225 -225 -225 -225 -225 67 74 89 -209 -193 -193 106 107 108 114 118 -193 -209 -209 -177 154 169 179 186 -225 -225 -225 -225 -225 -225 -225 -225 -225 -225 -225 -225 -225 -225 -225 -225 -225 -225 -225 -225 -225 -225 -225 -225 -225 -225 -225 -225 -225 -225 -225 -225 -225 -225 -225 -225 -225 -225 -225 -225 -225 -225 -225 -225 -225 -225 -225 -225 -225 -225 -225 -225 -225 -225 -225 -225 -225 -225 -225 -225 -225 -225 -225 147 149 147 146 147 149 148 148 152 155 157 163 169 179 186 193 193 201 0 0 0 0 0
    0 0 0 0 0 0 0 0 0 0 0 0 0 0 0 0 0 0 0 0 0 0 0 0 0 0 0 0 0 0 0 0 0 0 0 0 0 0 0 0 0 0 0 0 0 0 0 0 0 0 0 0 0 0 0 0 0 0 0 0 0 0 0 0 0 0 0 0 0 -225 -225 -225 -225 -225 -225 -225 -225 -225 -225 -225 -225 -225 -225 -225 -225 -225 -225 -225 -225 -225 -225 -225 -225 -225 -225 -225 -225 -225 -225 -225 -225 -225 -225 -225 -225 -225 -225 -225 -225 -225 -225 -225 -225 -225 -225 -225 -225 -225 -225 -225 -225 -225 -225 -225 -225 -225 -225 -225 -225 -225 -225 -225 -225 -225 -225 -225 -225 -225 -225 -225 -225 -225 -225 -225 -225 -225 -225 -225 -225 -225 -225 -225 -225 -225 -225 -225 -225 -225 -225 -225 -225 -225 -225 -225 -225 -225 -225 -225 -225 -225 -225 -225 -225 -225 -225 -225 -225 -225 -225 -225 -225 -225 -225 -225 -225 -225 -225 -225 -225 -225 -225 -225 -225 -225 -225 -225 -225 -225 -225 -225 -225 -225 -225 -225 -225 -225 -225 -225 -225 -225 -225 -225 -225 -225 -225 69 76 -209 -209 -209 102 -209 -209 -209 110 114 -209 -209 -209 -209 156 170 -225 -225 -225 -225 -225 -225 -225 -225 -225 -225 -225 -225 -225 -225 -225 -225 -225 -225 -225 -225 -225 -225 -225 -225 -225 -225 -225 -225 -225 -225 -225 -225 -225 -225 -225 -225 -225 -225 -225 -225 -225 -225 -225 -225 -225 -225 -225 -225 -225 -225 -225 -225 -225 -225 -225 -225 -225 -225 -225 -225 -225 -225 -225 -225 -225 -225 -225 -225 148 149 149 148 146 151 151 151 154 165 177 188 197 202 203 0 0 0 0 0
    0 0 0 0 0 0 0 0 0 0 0 0 0 0 0 0 0 0 0 0 0 0 0 0 0 0 0 0 0 0 0 0 0 0 0 0 0 0 0 0 0 0 0 0 0 0 0 0 0 0 0 0 0 0 0 0 0 0 0 0 0 0 0 0 0 0 0 0 0 -225 -225 -225 -225 -225 -225 -225 -225 -225 -225 -225 -225 -225 -225 -225 -225 -225 -225 -225 -225 -225 -225 -225 -225 -225 -225 -225 -225 -225 -225 -225 -225 -225 -225 -225 -225 -225 -225 -225 -225 -225 -225 -225 -225 -225 -225 -225 -225 -225 -225 -225 -225 -225 -225 -225 -225 -225 -225 -225 -225 -225 -225 -225 -225 -225 -225 -225 -225 -225 -225 -225 -225 -225 -225 -225 -225 -225 -225 -225 -225 -225 -225 -225 -225 -225 -225 -225 -225 -225 -225 -225 -225 -225 -225 -225 -225 -225 -225 -225 -225 -225 -225 -225 -225 -225 -225 -225 -225 -225 -225 -225 -225 -225 -225 -225 -225 -225 -225 -225 -225 -225 -225 -225 -225 -225 -225 -225 -225 -225 -225 -225 -225 -225 -225 -225 -225 -225 -225 -225 -225 -225 -225 -225 -225 -225 -225 150 151 152 153 153 -209 -209 -209 -209 -209 -209 -209 -209 -209 -209 -225 -225 -225 -225 -225 -225 -225 -225 -225 -225 -225 -225 -225 -225 -225 -225 -225 -225 -225 -225 -225 -225 -225 -225 -225 -225 -225 -225 -225 -225 -225 -225 -225 -225 -225 -225 -225 -225 -225 -225 -225 -225 -225 -225 -225 -225 -225 -225 -225 -225 -225 -225 -225 -225 -225 -225 -225 -225 -225 -225 -225 -225 -225 -225 -225 -225 -225 -225 -225 -225 -225 -225 -225 -225 150 151 150 149 151 154 165 172 -209 151 -193 0 0 0 0 0
    0 0 0 0 0 0 0 0 0 0 0 0 0 0 0 0 0 0 0 0 0 0 0 0 0 0 0 0 0 0 0 0 0 0 0 0 0 0 0 0 0 0 0 0 0 0 0 0 0 0 0 0 0 0 0 0 0 0 0 0 0 0 0 0 0 0 0 0 0 -225 -225 -225 -225 -225 -225 -225 -225 -225 -225 -225 -225 -225 -225 -225 -225 -225 -225 -225 -225 -225 -225 -225 -225 -225 -225 -225 -225 -225 -225 -225 -225 -225 -225 -225 -225 -225 -225 -225 -225 -225 -225 -225 -225 -225 -225 -225 -225 -225 -225 -225 -225 -225 -225 -225 -225 -225 -225 -225 -225 -225 -225 -225 -225 -225 -225 -225 -225 -225 -225 -225 -225 -225 -225 -225 -225 -225 -225 -225 -225 -225 -225 -225 -225 -225 -225 -225 -225 -225 -225 -225 -225 -225 -225 -225 -225 -225 -225 -225 -225 -225 -225 -225 -225 -225 -225 -225 -225 -225 -225 -225 -225 -225 -225 -225 -225 -225 -225 -225 -225 -225 -225 -225 -225 -225 -225 -225 -225 -225 -225 -225 -225 -225 -225 -225 -225 -225 -225 -225 -225 -225 -225 -225 -225 -225 -225 171 155 156 159 162 158 154 155 -193 158 170 173 -209 -225 -225 -225 -225 -225 -225 -225 -225 -225 -225 -225 -225 -225 -225 -225 -225 -225 -225 -225 -225 -225 -225 -225 -225 -225 -225 -225 -225 -225 -225 -225 -225 -225 -225 -225 -225 -225 -225 -225 -225 -225 -225 -225 -225 -225 -225 -225 -225 -225 -225 -225 -225 -225 -225 -225 -225 -225 -225 -225 -225 -225 -225 -225 -225 -225 -225 -225 -225 -225 -225 -225 -225 -225 -225 -225 -225 -225 -225 -225 150 150 151 154 148 150 151 149 0 0 0 0 0
    0 0 0 0 0 0 0 0 0 0 0 0 0 0 0 0 0 0 0 0 0 0 0 0 0 0 0 0 0 0 0 0 0 0 0 0 0 0 0 0 0 0 0 0 0 0 0 0 0 0 0 0 0 0 0 0 0 0 0 0 0 0 0 0 0 0 0 0 0 -225 -225 -225 -225 -225 -225 -225 -225 -225 -225 -225 -225 -225 -225 -225 -225 -225 -225 -225 -225 -225 -225 -225 -225 -225 -225 -225 -225 -225 -225 -225 -225 -225 -225 -225 -225 -225 -225 -225 -225 -225 -225 -225 -225 -225 -225 -225 -225 -225 -225 -225 -225 -225 -225 -225 -225 -225 -225 -225 -225 -225 -225 -225 -225 -225 -225 -225 -225 -225 -225 -225 -225 -225 -225 -225 -225 -225 -225 -225 -225 -225 -225 -225 -225 -225 -225 -225 -225 -225 -225 -225 -225 -225 -225 -225 -225 -225 -225 -225 -225 -225 -225 -225 -225 -225 -225 -225 -225 -225 -225 -225 -225 -225 -225 -225 -225 -225 -225 -225 -225 -225 -225 -225 -225 -225 -225 -225 -225 -225 -225 -225 -225 -225 -225 -225 -225 -225 -225 -225 -225 -225 -225 -225 -225 -225 173 172 159 160 163 166 164 159 160 160 159 170 176 -225 -225 -225 -225 -225 -225 -225 -225 -225 -225 -225 -225 -225 -225 -225 -225 -225 -225 -225 -225 -225 -225 -225 -225 -225 -225 -225 -225 -225 -225 -225 -225 -225 -225 -225 -225 -225 -225 -225 -225 -225 -225 -225 -225 -225 -225 -225 -225 -225 -225 -225 -225 -225 -225 -225 -225 -225 -225 -225 -225 -225 -225 -225 -225 -225 -225 -225 -225 -225 -225 -225 -225 -225 -225 -225 -225 -225 -225 -225 -225 -225 -225 -225 -225 150 150 151 149 0 0 0 0 0
    0 0 0 0 0 0 0 0 0 0 0 0 0 0 0 0 0 0 0 0 0 0 0 0 0 0 0 0 0 0 0 0 0 0 0 0 0 0 0 0 0 0 0 0 0 0 0 0 0 0 0 0 0 0 0 0 0 0 0 0 0 0 0 0 0 0 0 0 0 -225 -225 -225 -225 -225 -225 -225 -225 -225 -225 -225 -225 -225 -225 -225 -225 -225 -225 -225 -225 -225 -225 -225 -225 -225 -225 -225 -225 -225 -225 -225 -225 -225 -225 -225 -225 -225 -225 -225 -225 -225 -225 -225 -225 -225 -225 -225 -225 -225 -225 -225 -225 -225 -225 -225 -225 -225 -225 -225 -225 -225 -225 -225 -225 -225 -225 -225 -225 -225 -225 -225 -225 -225 -225 -225 -225 -225 -225 -225 -225 -225 -225 -225 -225 -225 -225 -225 -225 -225 -225 -225 -225 -225 -225 -225 -225 -225 -225 -225 -225 -225 -225 -225 -225 -225 -225 -225 -225 -225 -225 -225 -225 -225 -225 -225 -225 -225 -225 -225 -225 -225 -225 -225 -225 -225 -225 -225 -225 -225 -225 -225 -225 -225 -225 -225 -225 -225 -225 -225 -225 -225 -225 -225 -225 -225 173 173 165 165 166 169 169 165 166 166 164 171 181 -225 -225 -225 -225 -225 -225 -225 -225 -225 -225 -225 -225 -225 -225 -225 -225 -225 -225 -225 -225 -225 -225 -225 -225 -225 -225 -225 -225 -225 -225 -225 -225 -225 -225 -225 -225 -225 -225 -225 -225 -225 -225 -225 -225 -225 -225 -225 -225 -225 -225 -225 -225 -225 -225 -225 -225 -225 -225 -225 -225 -225 -225 -225 -225 -225 -225 -225 -225 -225 -225 -225 -225 -225 -225 -225 -225 -225 -225 -225 -225 -225 -225 -225 -225 -225 -225 -225 -225 0 0 0 0 0
    0 0 0 0 0 0 0 0 0 0 0 0 0 0 0 0 0 0 0 0 0 0 0 0 0 0 0 0 0 0 0 0 0 0 0 0 0 0 0 0 0 0 0 0 0 0 0 0 0 0 0 0 0 0 0 0 0 0 0 0 0 0 0 0 0 0 0 0 0 -225 -225 -225 -225 -225 -225 -225 -225 -225 -225 -225 -225 -225 -225 -225 -225 -225 -225 -225 -225 -225 -225 -225 -225 -225 -225 -225 -225 -225 -225 -225 -225 -225 -225 -225 -225 -225 -225 -225 -225 -225 -225 -225 -225 -225 -225 -225 -225 -225 -225 -225 -225 -225 -225 -225 -225 -225 -225 -225 -225 -225 -225 -225 -225 -225 -225 -225 -225 -225 -225 -225 -225 -225 -225 -225 -225 -225 -225 -225 -225 -225 -225 -225 -225 -225 -225 -225 -225 -225 -225 -225 -225 -225 -225 -225 -225 -225 -225 -225 -225 -225 -225 -225 -225 -225 -225 -225 -225 -225 -225 -225 -225 -225 -225 -225 -225 -225 -225 -225 -225 -225 -225 -225 -225 -225 -225 -225 -225 -225 -225 -225 -225 -225 -225 -225 -225 -225 -225 -225 -225 -225 -225 -225 -225 -225 174 174 167 167 168 169 170 167 168 168 168 171 180 180 -225 -225 -225 -225 -225 -225 -225 -225 -225 -225 -225 -225 -225 -225 -225 -225 -225 -225 -225 -225 -225 -225 -225 -225 -225 -225 -225 -225 -225 -225 -225 -225 -225 -225 -225 -225 -225 -225 -225 -225 -225 -225 -225 -225 -225 -225 -225 -225 -225 -225 -225 -225 -225 -225 -225 -225 -225 -225 -225 -225 -225 -225 -225 -225 -225 -225 -225 -225 -225 -225 -225 -225 -225 -225 -225 -225 -225 -225 -225 -225 -225 -225 -225 -225 -225 -225 -225 0 0 0 0 0
    0 0 0 0 0 0 0 0 0 0 0 0 0 0 0 0 0 0 0 0 0 0 0 0 0 0 0 0 0 0 0 0 0 0 0 0 0 0 0 0 0 0 0 0 0 0 0 0 0 0 0 0 0 0 0 0 0 0 0 0 0 0 0 0 0 0 0 0 0 -225 -225 -225 -225 -225 -225 -225 -225 -225 -225 -225 -225 -225 -225 -225 -225 -225 -225 -225 -225 -225 -225 -225 -225 -225 -225 -225 -225 -225 -225 -225 -225 -225 -225 -225 -225 -225 -225 -225 -225 -225 -225 -225 -225 -225 -225 -225 -225 -225 -225 -225 -225 -225 -225 -225 -225 -225 -225 -225 -225 -225 -225 -225 -225 -225 -225 -225 -225 -225 -225 -225 -225 -225 -225 -225 -225 -225 -225 -225 -225 -225 -225 -225 -225 -225 -225 -225 -225 -225 -225 -225 -225 -225 -225 -225 -225 -225 -225 -225 -225 -225 -225 -225 -225 -225 -225 -225 -225 -225 -225 -225 -225 -225 -225 -225 -225 -225 -225 -225 -225 -225 -225 -225 -225 -225 -225 -225 -225 -225 -225 -225 -225 -225 -225 -225 -225 -225 -225 -225 -225 -225 -225 -225 -225 175 174 177 172 169 169 171 171 169 170 170 169 170 176 179 -225 -225 -225 -225 -225 -225 -225 -225 -225 -225 -225 -225 -225 -225 -225 -225 -225 -225 -225 -225 -225 -225 -225 -225 -225 -225 -225 -225 -225 -225 -225 -225 -225 -225 -225 -225 -225 -225 -225 -225 -225 -225 -225 -225 -225 -225 -225 -225 -225 -225 -225 -225 -225 -225 -225 -225 -225 -225 -225 -225 -225 -225 -225 -225 -225 -225 -225 -225 -225 -225 -225 -225 -225 -225 -225 -225 -225 -225 -225 -225 -225 -225 -225 -225 -225 -225 -225 0 0 0 0 0
    0 0 0 0 0 0 0 0 0 0 0 0 0 0 0 0 0 0 0 0 0 0 0 0 0 0 0 0 0 0 0 0 0 0 0 0 0 0 0 0 0 0 0 0 0 0 0 0 0 0 0 0 0 0 0 0 0 0 0 0 0 0 0 0 0 0 0 0 0 -225 -225 -225 -225 -225 -225 -225 -225 -225 -225 -225 -225 -225 -225 -225 -225 -225 -225 -225 -225 -225 -225 -225 -225 -225 -225 -225 -225 -225 -225 -225 -225 -225 -225 -225 -225 -225 -225 -225 -225 -225 -225 -225 -225 -225 -225 -225 -225 -225 -225 -225 -225 -225 -225 -225 -225 -225 -225 -225 -225 -225 -225 -225 -225 -225 -225 -225 -225 -225 -225 -225 -225 -225 -225 -225 -225 -225 -225 -225 -225 -225 -225 -225 -225 -225 -225 -225 -225 -225 -225 -225 -225 -225 -225 -225 -225 -225 -225 -225 -225 -225 -225 -225 -225 -225 -225 -225 -225 -225 -225 -225 -225 -225 -225 -225 -225 -225 -225 -225 -225 -225 -225 -225 -225 -225 -225 -225 -225 -225 -225 -225 -225 -225 -225 -225 -225 -225 -225 -225 -225 -225 -225 -225 -225 175 175 178 175 172 172 173 173 171 173 173 171 172 178 178 178 -225 -225 -225 -225 -225 -225 -225 -225 -225 -225 -225 -225 -225 -225 -225 -225 -225 -225 -225 -225 -225 -225 -225 -225 -225 -225 -225 -225 -225 -225 -225 -225 -225 -225 -225 -225 -225 -225 -225 -225 -225 -225 -225 -225 -225 -225 -225 -225 -225 -225 -225 -225 -225 -225 -225 -225 -225 -225 -225 -225 -225 -225 -225 -225 -225 -225 -225 -225 -225 -225 -225 -225 -225 -225 -225 -225 -225 -225 -225 -225 -225 -225 -225 -225 -225 -225 0 0 0 0 0
    0 0 0 0 0 0 0 0 0 0 0 0 0 0 0 0 0 0 0 0 0 0 0 0 0 0 0 0 0 0 0 0 0 0 0 0 0 0 0 0 0 0 0 0 0 0 0 0 0 0 0 0 0 0 0 0 0 0 0 0 0 0 0 0 0 0 0 0 0 -225 -225 -225 -225 -225 -225 -225 -225 -225 -225 -225 -225 -225 -225 -225 -225 -225 -225 -225 -225 -225 -225 -225 -225 -225 -225 -225 -225 -225 -225 -225 -225 -225 -225 -225 -225 -225 -225 -225 -225 -225 -225 -225 -225 -225 -225 -225 -225 -225 -225 -225 -225 -225 -225 -225 -225 -225 -225 -225 -225 -225 -225 -225 -225 -225 -225 -225 -225 -225 -225 -225 -225 -225 -225 -225 -225 -225 -225 -225 -225 -225 -225 -225 -225 -225 -225 -225 -225 -225 -225 -225 -225 -225 -225 -225 -225 -225 -225 -225 -225 -225 -225 -225 -225 -225 -225 -225 -225 -225 -225 -225 -225 -225 -225 -225 -225 -225 -225 -225 -225 -225 -225 -225 -225 -225 -225 -225 -225 -225 -225 -225 -225 -225 -225 -225 -225 -225 -225 -225 -225 -225 -225 -225 -225 175 175 178 175 172 173 174 174 172 174 175 173 175 182 182 182 183 -225 -225 -225 -225 -225 -225 -225 -225 -225 -225 -225 -225 -225 -225 -225 -225 -225 -225 -225 -225 -225 -225 -225 -225 -225 -225 -225 -225 -225 -225 -225 -225 -225 -225 -225 -225 -225 -225 -225 -225 -225 -225 -225 -225 -225 -225 -225 -225 -225 -225 -225 -225 -225 -225 -225 -225 -225 -225 -225 -225 -225 -225 -225 -225 -225 -225 -225 -225 -225 -225 -225 -225 -225 -225 -225 -225 -225 -225 -225 -225 -225 -225 -225 -225 -225 0 0 0 0 0
    0 0 0 0 0 0 0 0 0 0 0 0 0 0 0 0 0 0 0 0 0 0 0 0 0 0 0 0 0 0 0 0 0 0 0 0 0 0 0 0 0 0 0 0 0 0 0 0 0 0 0 0 0 0 0 0 0 0 0 0 0 0 0 0 0 0 0 0 0 -225 -225 -225 -225 -225 -225 -225 -225 -225 -225 -225 -225 -225 -225 -225 -225 -225 -225 -225 -225 -225 -225 -225 -225 -225 -225 -225 -225 -225 -225 -225 -225 -225 -225 -225 -225 -225 -225 -225 -225 -225 -225 -225 -225 -225 -225 -225 -225 -225 -225 -225 -225 -225 -225 -225 -225 -225 -225 -225 -225 -225 -225 -225 -225 -225 -225 -225 -225 -225 -225 -225 -225 -225 -225 -225 -225 -225 -225 -225 -225 -225 -225 -225 -225 -225 -225 -225 -225 -225 -225 -225 -225 -225 -225 -225 -225 -225 -225 -225 -225 -225 -225 -225 -225 -225 -225 -225 -225 -225 -225 -225 -225 -225 -225 -225 -225 -225 -225 -225 -225 -225 -225 -225 -225 -225 -225 -225 -225 -225 -225 -225 -225 -225 -225 -225 -225 -225 -225 -225 -225 -225 -225 -225 -225 175 175 178 175 172 173 175 174 172 174 175 174 176 181 181 177 181 182 -225 -225 -225 -225 -225 -225 -225 -225 -225 -225 -225 -225 -225 -225 -225 -225 -225 -225 -225 -225 -225 -225 -225 -225 -225 -225 -225 -225 -225 -225 -225 -225 -225 -225 -225 -225 -225 -225 -225 -225 -225 -225 -225 -225 -225 -225 -225 -225 -225 -225 -225 -225 -225 -225 -225 -225 -225 -225 -225 -225 -225 -225 -225 -225 -225 -225 -225 -225 -225 -225 -225 -225 -225 -225 -225 -225 -225 -225 -225 -225 -225 -225 -225 -225 0 0 0 0 0
    0 0 0 0 0 0 0 0 0 0 0 0 0 0 0 0 0 0 0 0 0 0 0 0 0 0 0 0 0 0 0 0 0 0 0 0 0 0 0 0 0 0 0 0 0 0 0 0 0 0 0 0 0 0 0 0 0 0 0 0 0 0 0 0 0 0 0 0 0 -225 -225 -225 -225 -225 -225 -225 -225 -225 -225 -225 -225 -225 -225 -225 -225 -225 -225 -225 -225 -225 -225 -225 -225 -225 -225 -225 -225 -225 -225 -225 -225 -225 -225 -225 -225 -225 -225 -225 -225 -225 -225 -225 -225 -225 -225 -225 -225 -225 -225 -225 -225 -225 -225 -225 -225 -225 -225 -225 -225 -225 -225 -225 -225 -225 -225 -225 -225 -225 -225 -225 -225 -225 -225 -225 -225 -225 -225 -225 -225 -225 -225 -225 -225 -225 -225 -225 -225 -225 -225 -225 -225 -225 -225 -225 -225 -225 -225 -225 -225 -225 -225 -225 -225 -225 -225 -225 -225 -225 -225 -225 -225 -225 -225 -225 -225 -225 -225 -225 -225 -225 -225 -225 -225 -225 -225 -225 -225 -225 -225 -225 -225 -225 -225 -225 -225 -225 -225 -225 -225 -225 -225 168 180 173 173 175 174 173 174 177 178 175 179 180 179 181 183 183 182 185 184 186 186 -225 -225 -225 -225 -225 -225 -225 -225 -225 -225 -225 -225 -225 -225 -225 -225 -225 -225 -225 -225 -225 -225 -225 -225 -225 -225 -225 -225 -225 -225 -225 -225 -225 -225 -225 -225 -225 -225 -225 -225 -225 -225 -225 -225 -225 -225 -225 -225 -225 -225 -225 -225 -225 -225 -225 -225 -225 -225 -225 -225 -225 -225 -225 -225 -225 -225 -225 -225 -225 -225 -225 -225 -225 -225 -225 -225 -225 -225 -225 -225 -225 -225 0 0 0 0 0
    0 0 0 0 0 0 0 0 0 0 0 0 0 0 0 0 0 0 0 0 0 0 0 0 0 0 0 0 0 0 0 0 0 0 0 0 0 0 0 0 0 0 0 0 0 0 0 0 0 0 0 0 0 0 0 0 0 0 0 0 0 0 0 0 0 0 0 0 0 -225 -225 -225 -225 -225 -225 -225 -225 -225 -225 -225 -225 -225 -225 -225 -225 -225 -225 -225 -225 -225 -225 -225 -225 -225 -225 -225 -225 -225 -225 -225 -225 -225 -225 -225 -225 -225 -225 -225 -225 -225 -225 -225 -225 -225 -225 -225 -225 -225 -225 -225 -225 -225 -225 -225 -225 -225 -225 -225 -225 -225 -225 -225 -225 -225 -225 -225 -225 -225 -225 -225 -225 -225 -225 -225 -225 -225 -225 -225 -225 -225 -225 -225 -225 -225 -225 -225 -225 -225 -225 -225 -225 -225 -225 -225 -225 -225 -225 -225 -225 -225 -225 -225 -225 -225 -225 -225 -225 -225 -225 -225 -225 -225 -225 -225 -225 -225 -225 -225 -225 -225 -225 -225 -225 -225 -225 -225 -225 -225 -225 -225 -225 -225 -225 -225 -225 -225 -225 -225 -225 -225 165 167 177 172 172 173 173 174 175 178 179 178 182 182 182 183 184 185 185 186 186 187 188 187 -225 -225 -225 -225 -225 -225 -225 -225 -225 -225 -225 -209 230 -193 -177 228 -193 0 0 0 -225 -225 -225 -225 -225 -225 -225 -225 -225 -225 -225 -225 -225 -225 -225 -225 -225 -225 -225 -225 -225 -225 -225 -225 -225 -225 -225 -225 -225 -225 -225 -225 -225 -225 -225 -225 -225 -225 -225 -225 -225 -225 -225 -225 -225 -225 -225 -225 -225 -225 -225 -225 -225 -225 -225 -225 -225 -225 -225 -225 -225 0 0 0 0 0</data></disparity>
</opencv_storage>
