<?xml version="1.0"?>
<opencv_storage>
<gps_time_stamp>288608</gps_time_stamp>
<gps_x>-1.2370957374572754e+001</gps_x>
<gps_y>1.1129525184631348e+001</gps_y>
<gps_z>-2.2235293388366699e+000</gps_z>
<image_time_stamp>279457</image_time_stamp>
<disparity type_id="opencv-matrix">
  <rows>88</rows>
  <cols>320</cols>
  <dt>s</dt>
  <data>
    0 0 0 0 0 0 0 0 0 0 0 0 0 0 0 0 0 0 0 0 0 0 0 0 0 0 0 0 0 0 0 0 0 0 0 0 0 0 0 0 0 0 0 0 0 0 0 0 0 0 0 0 0 0 0 0 0 0 0 0 0 0 0 0 0 0 0 0 0 51 51 49 49 51 53 57 57 59 61 63 62 61 61 61 60 -209 -177 -209 -209 -209 -209 -193 47 47 47 46 46 46 45 46 -193 -193 53 54 54 55 56 56 55 54 55 55 55 54 54 53 53 54 56 51 50 51 53 52 53 53 53 49 55 56 55 55 58 57 56 56 55 54 53 56 56 55 54 55 55 55 55 55 56 56 57 58 58 55 56 56 56 54 54 54 53 53 57 56 -193 -193 55 -193 -193 -193 55 54 56 57 58 57 57 58 58 58 57 57 57 57 57 56 56 51 53 57 56 56 56 56 57 57 59 61 -193 57 57 56 55 54 55 55 56 56 55 54 59 69 72 69 69 67 60 61 58 57 56 51 52 51 59 56 -193 55 56 56 56 56 57 57 64 62 65 68 68 68 68 69 70 73 74 76 76 79 79 80 80 81 79 83 85 86 86 90 90 90 90 92 95 93 94 95 95 100 102 103 103 606 605 -193 -193 111 109 112 115 -193 117 117 117 117 119 121 -193 124 122 124 125 128 127 130 131 132 131 133 133 134 133 135 135 137 138 140 142 145 148 148 150 152 153 154 155 0 0 0 0 0
    0 0 0 0 0 0 0 0 0 0 0 0 0 0 0 0 0 0 0 0 0 0 0 0 0 0 0 0 0 0 0 0 0 0 0 0 0 0 0 0 0 0 0 0 0 0 0 0 0 0 0 0 0 0 0 0 0 0 0 0 0 0 0 0 0 0 0 0 0 51 51 49 51 54 53 56 57 58 60 61 60 60 59 59 58 -209 -209 -209 -193 -209 -193 48 49 50 50 49 49 48 47 47 52 52 52 53 53 55 55 55 54 54 55 55 55 54 55 54 54 55 56 51 51 53 53 52 53 53 53 50 55 56 55 56 58 58 56 56 55 55 53 56 56 55 54 55 56 55 55 55 56 56 58 59 58 56 57 57 56 55 55 54 53 54 56 55 -193 -193 -193 55 -193 -193 54 54 56 57 58 58 58 58 58 58 57 56 56 57 57 56 56 51 53 56 56 56 56 56 57 57 59 61 -193 58 58 56 55 54 55 55 55 56 54 53 60 71 72 69 68 66 60 59 57 56 54 51 52 52 57 55 55 55 56 56 56 56 57 57 64 61 66 68 68 68 68 69 70 73 74 76 76 79 78 80 80 81 79 83 85 86 87 90 91 90 91 93 95 93 95 95 95 100 102 102 103 607 607 -193 -193 -193 109 111 115 -193 117 117 117 117 119 121 -193 124 -193 125 125 128 128 130 131 132 131 133 133 133 133 135 135 137 137 139 142 145 149 149 150 152 153 154 155 0 0 0 0 0
    0 0 0 0 0 0 0 0 0 0 0 0 0 0 0 0 0 0 0 0 0 0 0 0 0 0 0 0 0 0 0 0 0 0 0 0 0 0 0 0 0 0 0 0 0 0 0 0 0 0 0 0 0 0 0 0 0 0 0 0 0 0 0 0 0 0 0 0 0 51 50 47 50 51 51 54 55 56 56 59 58 58 57 57 57 -209 -209 -209 51 51 -193 49 51 51 51 51 50 50 48 48 53 52 50 52 52 54 53 53 54 54 55 55 54 55 55 54 55 55 55 52 51 53 52 51 53 53 52 50 54 55 54 55 57 57 55 56 55 56 54 56 56 54 54 -193 56 55 55 55 56 57 58 60 58 57 57 58 57 56 55 55 54 55 56 -193 -193 -193 -193 55 -193 -193 54 54 57 58 58 59 60 61 60 61 58 57 57 57 57 55 56 51 53 56 56 56 56 56 57 57 60 61 -193 58 58 55 55 55 55 55 56 56 54 52 60 70 71 69 67 67 61 60 58 57 55 50 53 52 57 55 54 54 55 55 57 57 57 57 64 62 66 68 68 68 68 69 70 73 75 77 76 80 79 80 80 81 79 83 85 86 87 91 91 90 91 93 96 94 95 95 95 100 102 103 104 -177 607 -193 -193 -193 109 111 115 -193 117 117 117 117 -193 121 -193 124 123 125 125 129 129 131 131 132 132 133 133 -193 133 135 134 137 137 139 142 145 149 149 150 152 153 154 155 0 0 0 0 0
    0 0 0 0 0 0 0 0 0 0 0 0 0 0 0 0 0 0 0 0 0 0 0 0 0 0 0 0 0 0 0 0 0 0 0 0 0 0 0 0 0 0 0 0 0 0 0 0 0 0 0 0 0 0 0 0 0 0 0 0 0 0 0 0 0 0 0 0 0 50 50 46 48 47 48 50 52 53 54 57 56 57 55 56 55 -209 -209 -209 52 -193 51 50 51 52 52 51 50 50 48 48 53 52 50 52 52 54 53 53 54 54 55 55 54 55 55 54 54 55 55 51 52 53 52 51 53 53 52 50 54 54 54 55 56 57 55 55 54 55 54 56 56 54 54 -193 56 55 55 55 56 57 58 60 58 57 58 57 57 55 55 55 54 56 56 -193 -193 -193 -193 55 55 -193 54 54 57 59 59 60 62 63 61 62 59 59 57 57 57 54 56 50 53 56 56 56 57 57 57 57 60 61 -193 59 58 55 55 56 56 56 56 57 53 53 63 73 73 71 69 71 63 61 60 58 57 53 55 55 59 56 54 54 55 55 57 58 58 58 64 62 67 69 69 68 68 70 71 73 75 77 76 80 79 80 80 81 79 83 84 86 87 91 91 90 91 93 96 94 95 95 95 100 102 103 -193 -193 -177 -209 -193 -193 109 112 115 -193 117 117 117 117 -193 121 123 125 123 126 126 129 129 131 132 132 132 133 -193 -193 -193 -193 -193 137 137 139 142 144 149 149 151 152 153 154 155 0 0 0 0 0
    0 0 0 0 0 0 0 0 0 0 0 0 0 0 0 0 0 0 0 0 0 0 0 0 0 0 0 0 0 0 0 0 0 0 0 0 0 0 0 0 0 0 0 0 0 0 0 0 0 0 0 0 0 0 0 0 0 0 0 0 0 0 0 0 0 0 0 0 0 51 50 45 48 45 45 44 47 46 50 52 52 54 53 54 54 -209 -209 -209 -209 -193 -193 51 51 52 52 52 51 51 49 51 54 53 51 53 53 54 53 54 54 55 55 55 54 55 56 54 54 55 54 51 52 53 52 51 53 53 51 51 53 54 53 54 56 57 55 56 55 57 55 56 56 54 54 -193 -193 55 55 55 57 57 58 59 57 57 57 57 56 55 54 54 53 55 56 -193 -193 -193 -193 55 55 55 53 54 57 59 59 60 63 64 62 63 61 61 59 58 58 54 56 50 53 56 56 56 57 57 57 57 60 62 58 59 59 55 55 57 57 57 57 58 57 58 67 71 72 70 68 70 62 60 59 58 57 56 57 57 60 60 56 56 56 56 57 59 59 59 65 63 68 69 69 69 69 71 72 74 75 78 76 79 78 79 79 80 78 83 84 86 87 91 91 90 91 93 96 94 95 95 95 100 102 103 -193 -193 -177 -209 -193 -193 110 112 116 -193 118 117 117 117 119 121 123 124 124 126 126 129 129 131 132 132 132 134 -193 -193 -193 -193 134 136 -193 139 141 145 149 149 151 153 153 154 155 0 0 0 0 0
    0 0 0 0 0 0 0 0 0 0 0 0 0 0 0 0 0 0 0 0 0 0 0 0 0 0 0 0 0 0 0 0 0 0 0 0 0 0 0 0 0 0 0 0 0 0 0 0 0 0 0 0 0 0 0 0 0 0 0 0 0 0 0 0 0 0 0 0 0 49 48 44 46 44 43 43 45 45 50 50 47 52 52 55 55 -209 -209 -209 -193 -193 52 52 52 53 53 53 52 52 51 52 54 52 51 53 53 54 53 53 54 55 55 55 54 55 56 54 54 55 53 51 52 53 -193 51 53 53 51 51 54 54 54 55 57 57 56 56 56 57 56 56 55 54 54 527 -193 55 55 55 57 58 59 59 57 57 57 56 56 55 54 54 54 56 55 -193 -193 -193 -193 55 55 55 53 54 56 58 58 61 64 67 64 66 65 65 62 59 57 53 55 50 53 -193 56 56 57 57 58 58 60 62 58 60 59 56 56 57 57 57 58 58 58 60 66 68 70 67 66 69 62 60 60 61 60 59 62 61 62 62 57 57 57 57 58 60 59 59 65 64 68 70 69 69 69 71 72 74 76 78 76 79 78 79 79 79 77 83 84 87 88 92 92 91 91 93 96 94 96 96 96 101 103 103 -193 -193 -177 -193 -193 -193 110 112 115 115 117 117 117 117 118 121 123 124 124 126 126 130 130 132 132 133 132 133 133 -193 133 135 134 136 -193 139 141 144 149 149 151 152 153 154 155 0 0 0 0 0
    0 0 0 0 0 0 0 0 0 0 0 0 0 0 0 0 0 0 0 0 0 0 0 0 0 0 0 0 0 0 0 0 0 0 0 0 0 0 0 0 0 0 0 0 0 0 0 0 0 0 0 0 0 0 0 0 0 0 0 0 0 0 0 0 0 0 0 0 0 48 47 43 44 44 43 44 46 47 51 53 53 54 54 55 55 -193 -193 53 54 54 53 53 53 54 55 54 54 53 53 53 54 52 52 53 53 53 52 53 54 55 55 54 54 54 56 54 54 54 52 51 52 53 -193 50 53 53 50 52 53 54 54 56 57 58 57 57 57 57 57 56 55 54 54 527 -193 55 55 55 57 59 60 59 57 57 57 56 55 55 54 53 54 56 55 -193 411 -193 -193 55 55 54 53 54 56 57 58 60 65 69 66 68 66 67 66 61 56 51 55 49 52 -193 55 56 58 57 58 58 61 63 59 61 60 55 56 56 56 57 57 57 57 61 67 67 69 67 67 70 66 64 65 67 66 65 68 65 64 64 58 57 57 57 58 60 58 60 66 64 68 70 69 69 70 72 73 75 76 78 76 79 78 79 78 79 77 83 85 87 88 93 92 91 92 94 96 94 96 97 96 101 103 103 105 103 -193 107 110 111 110 112 115 115 117 117 117 117 118 121 123 124 124 126 126 130 130 132 132 133 133 133 133 134 133 135 -193 136 -193 138 140 143 149 149 151 153 153 154 155 0 0 0 0 0
    0 0 0 0 0 0 0 0 0 0 0 0 0 0 0 0 0 0 0 0 0 0 0 0 0 0 0 0 0 0 0 0 0 0 0 0 0 0 0 0 0 0 0 0 0 0 0 0 0 0 0 0 0 0 0 0 0 0 0 0 0 0 0 0 0 0 0 0 0 46 46 42 43 44 43 46 49 50 53 55 55 55 55 56 57 54 -193 55 55 55 55 55 54 54 55 55 55 54 54 54 54 53 53 53 54 53 53 53 54 54 55 54 53 54 56 53 53 54 51 51 52 53 996 50 53 53 49 53 53 54 54 57 58 58 57 57 58 58 57 56 55 -177 -177 528 55 55 55 55 57 59 61 59 57 57 57 56 56 55 55 53 55 56 55 411 411 412 411 56 56 55 54 56 57 58 59 61 65 69 67 68 67 68 68 66 58 51 55 49 52 -193 55 56 58 57 58 58 61 63 59 61 60 54 57 57 57 57 57 57 58 64 69 68 70 68 69 70 68 67 68 69 68 67 68 65 65 63 58 57 57 57 58 59 58 60 66 65 69 70 69 69 70 73 73 75 76 78 76 78 78 79 78 79 76 83 86 88 89 95 92 91 92 93 96 94 96 97 96 101 103 104 105 103 105 107 110 110 110 112 115 114 117 117 117 116 118 120 122 123 124 126 126 131 130 132 132 133 133 133 133 133 133 134 -193 135 -193 138 140 142 149 148 151 153 153 154 155 0 0 0 0 0
    0 0 0 0 0 0 0 0 0 0 0 0 0 0 0 0 0 0 0 0 0 0 0 0 0 0 0 0 0 0 0 0 0 0 0 0 0 0 0 0 0 0 0 0 0 0 0 0 0 0 0 0 0 0 0 0 0 0 0 0 0 0 0 0 0 0 0 0 0 45 45 41 42 44 43 46 50 51 54 54 54 55 54 55 57 54 54 54 55 56 55 57 -193 56 58 57 57 56 56 56 55 54 54 54 54 54 53 53 54 54 54 54 54 54 56 53 53 54 50 51 51 52 995 49 52 52 47 53 53 54 54 57 58 59 58 58 59 59 58 56 54 -177 -177 528 55 54 54 55 57 58 61 59 58 58 58 57 56 56 56 54 56 57 55 411 411 411 -193 -193 57 55 55 58 59 60 60 63 66 68 67 67 66 67 66 66 62 53 56 49 52 -193 55 56 -193 58 58 58 61 63 59 61 60 54 56 56 56 56 56 56 57 62 66 64 67 67 69 70 68 66 68 68 68 66 67 65 65 63 59 58 57 57 59 60 58 62 67 66 69 70 70 69 70 73 73 75 76 77 76 77 77 78 77 78 75 83 86 89 90 96 93 92 92 94 97 95 98 98 97 102 103 104 105 103 105 107 110 110 110 112 114 114 116 116 116 116 118 120 122 123 124 126 126 131 130 133 132 133 133 133 133 133 133 134 133 135 135 137 139 142 149 148 150 153 153 154 155 0 0 0 0 0
    0 0 0 0 0 0 0 0 0 0 0 0 0 0 0 0 0 0 0 0 0 0 0 0 0 0 0 0 0 0 0 0 0 0 0 0 0 0 0 0 0 0 0 0 0 0 0 0 0 0 0 0 0 0 0 0 0 0 0 0 0 0 0 0 0 0 0 0 0 46 45 41 42 42 43 46 49 51 -209 -193 54 55 54 55 56 54 54 54 56 57 56 59 58 59 60 60 58 58 59 57 56 55 55 55 55 54 54 54 55 54 54 54 54 55 56 53 53 54 50 51 51 52 995 -193 52 52 46 53 53 54 54 57 60 60 59 59 60 61 58 55 54 54 -193 528 55 54 54 56 58 58 60 58 58 59 59 58 57 56 56 56 57 57 -193 410 -193 411 -193 57 57 56 56 59 60 60 60 63 66 67 65 64 63 65 63 63 58 53 56 49 52 -209 55 56 -193 57 58 58 61 63 59 61 60 55 56 56 56 56 56 56 57 62 63 61 63 63 67 68 66 63 67 68 68 67 67 66 66 64 60 58 58 57 60 61 59 64 68 68 70 71 70 70 70 73 73 75 76 77 76 77 77 78 76 77 75 83 -193 89 90 97 93 92 93 94 98 96 99 99 98 102 104 104 105 104 105 107 110 110 109 111 114 113 115 116 116 115 117 119 122 123 125 127 127 132 130 133 133 133 133 133 133 133 133 134 -193 135 135 137 139 141 148 148 150 153 153 154 154 0 0 0 0 0
    0 0 0 0 0 0 0 0 0 0 0 0 0 0 0 0 0 0 0 0 0 0 0 0 0 0 0 0 0 0 0 0 0 0 0 0 0 0 0 0 0 0 0 0 0 0 0 0 0 0 0 0 0 0 0 0 0 0 0 0 0 0 0 0 0 0 0 0 0 46 46 42 43 43 45 50 53 55 -209 -193 57 56 55 57 -193 56 55 55 55 57 57 59 56 57 58 58 57 58 60 57 56 56 56 56 55 55 54 54 55 54 54 53 53 55 55 53 52 54 50 51 51 52 -193 -193 -193 52 45 54 54 55 56 58 61 62 60 59 61 64 59 55 54 -177 -193 528 55 54 54 57 58 59 60 57 58 59 59 57 56 56 56 56 58 57 -193 411 412 412 -193 58 57 57 57 60 60 60 60 63 65 66 65 63 63 64 62 62 58 53 55 49 52 -209 55 56 57 57 58 58 61 63 59 60 59 56 56 56 56 56 55 56 58 61 63 60 62 61 66 67 66 64 67 68 69 68 67 65 65 64 61 59 59 58 62 62 59 66 69 69 70 71 70 70 71 74 74 76 77 77 76 78 78 78 77 78 75 83 -193 89 89 97 93 92 93 94 98 96 99 99 99 103 104 104 105 104 106 107 110 111 110 111 114 113 115 116 116 115 117 119 121 122 124 127 127 132 130 133 133 134 133 133 133 134 133 134 -193 135 -193 137 139 141 148 147 150 153 153 154 154 0 0 0 0 0
    0 0 0 0 0 0 0 0 0 0 0 0 0 0 0 0 0 0 0 0 0 0 0 0 0 0 0 0 0 0 0 0 0 0 0 0 0 0 0 0 0 0 0 0 0 0 0 0 0 0 0 0 0 0 0 0 0 0 0 0 0 0 0 0 0 0 0 0 0 47 47 42 43 44 49 55 56 58 -193 -193 59 -193 57 59 -193 -193 -193 55 54 57 56 57 55 55 57 57 57 57 60 58 56 57 57 56 55 55 55 54 54 54 54 53 53 -177 55 53 52 54 50 51 51 52 -193 -193 -193 52 46 56 56 56 58 59 61 62 60 59 61 63 59 55 55 -177 524 528 55 54 54 57 58 60 60 57 57 58 58 57 56 56 55 56 58 57 -193 412 413 413 -193 59 58 57 58 60 61 61 60 63 64 66 65 63 63 63 62 62 59 54 56 50 53 -209 56 56 57 57 57 57 60 62 58 59 58 56 56 56 56 56 55 55 57 60 61 59 60 59 63 64 64 60 65 63 68 66 -193 65 64 63 61 60 60 60 63 61 59 67 70 69 70 72 71 71 72 74 74 76 77 77 76 78 78 78 77 77 75 82 85 88 88 96 92 92 93 94 98 96 100 99 100 103 104 104 106 105 106 107 111 111 110 112 114 113 115 115 115 114 116 118 119 121 123 125 126 133 130 133 133 134 133 133 133 134 133 135 -193 -193 -193 137 139 141 147 147 150 153 153 154 154 0 0 0 0 0
    0 0 0 0 0 0 0 0 0 0 0 0 0 0 0 0 0 0 0 0 0 0 0 0 0 0 0 0 0 0 0 0 0 0 0 0 0 0 0 0 0 0 0 0 0 0 0 0 0 0 0 0 0 0 0 0 0 0 0 0 0 0 0 0 0 0 0 0 0 46 46 42 42 46 51 56 57 59 61 60 59 -193 -193 59 -209 -193 -209 54 53 55 53 55 53 53 55 56 56 57 58 57 56 56 56 56 55 55 55 54 54 54 53 53 52 54 55 53 52 54 51 51 51 52 -193 -193 -193 52 46 56 57 56 58 59 60 62 59 59 62 63 59 56 -177 -177 524 -177 55 54 54 57 59 61 60 57 58 59 59 57 57 57 56 56 59 57 412 412 413 414 -193 -193 58 57 59 60 61 60 60 62 63 64 63 61 61 61 61 61 59 56 56 50 53 -209 56 56 56 57 57 57 60 62 -193 -193 -193 56 56 56 56 56 55 55 58 59 60 58 58 58 61 61 60 58 61 60 66 64 -193 65 63 62 61 60 61 61 63 61 58 67 70 70 70 72 71 71 73 75 75 76 77 78 76 78 78 78 77 78 75 82 -193 88 88 97 92 92 93 94 98 97 101 100 100 103 104 105 106 105 106 107 110 111 110 111 113 112 114 115 115 114 115 118 119 120 122 124 125 133 130 133 133 134 134 134 134 134 133 135 -193 -193 -193 137 139 141 147 147 150 153 153 154 154 0 0 0 0 0
    0 0 0 0 0 0 0 0 0 0 0 0 0 0 0 0 0 0 0 0 0 0 0 0 0 0 0 0 0 0 0 0 0 0 0 0 0 0 0 0 0 0 0 0 0 0 0 0 0 0 0 0 0 0 0 0 0 0 0 0 0 0 0 0 0 0 0 0 0 46 46 42 42 47 53 57 56 57 60 -193 -193 -209 -209 -193 -193 -209 -209 54 54 56 53 55 53 54 55 56 56 56 57 57 55 56 56 56 55 54 55 54 54 54 53 53 52 54 55 53 51 54 51 51 51 51 -193 -193 -193 52 47 57 57 56 58 58 59 60 58 58 62 61 58 56 -177 -177 525 529 56 55 55 58 59 61 60 58 58 59 59 58 57 57 56 57 59 57 412 413 414 414 -193 -193 58 57 59 60 60 59 59 60 61 62 60 58 58 58 59 59 58 56 56 50 53 -209 56 57 56 56 57 57 59 61 -193 -193 -209 56 56 56 56 56 55 55 57 57 58 56 56 56 58 59 59 57 60 58 61 -193 -193 62 61 60 -193 59 60 61 63 60 58 67 70 70 70 72 71 71 73 75 75 76 77 78 77 78 79 79 77 78 75 81 -209 -209 88 98 93 93 94 94 99 98 102 101 101 104 105 105 106 105 106 107 110 111 110 111 113 112 114 114 115 112 115 118 118 120 122 124 125 133 130 134 133 134 134 134 134 134 134 135 -177 -193 -177 137 140 141 147 147 150 152 153 153 154 0 0 0 0 0
    0 0 0 0 0 0 0 0 0 0 0 0 0 0 0 0 0 0 0 0 0 0 0 0 0 0 0 0 0 0 0 0 0 0 0 0 0 0 0 0 0 0 0 0 0 0 0 0 0 0 0 0 0 0 0 0 0 0 0 0 0 0 0 0 0 0 0 0 0 46 47 41 40 47 55 58 56 57 59 -193 -209 -193 129 -209 206 -209 -209 -209 -209 -209 -193 56 54 54 55 55 56 56 57 58 56 57 57 57 56 56 56 55 54 54 54 53 53 55 55 52 51 54 51 51 51 51 -193 -193 52 52 47 56 57 56 57 58 58 58 57 58 62 60 57 56 -177 -193 525 530 56 55 56 59 60 60 59 58 58 58 58 57 57 57 57 57 58 57 413 413 414 414 -193 -193 58 58 59 60 60 58 58 59 59 61 58 57 57 58 58 59 58 57 56 51 53 -209 56 57 56 56 56 56 59 60 -193 -209 53 56 57 57 57 56 55 56 56 56 56 54 54 54 55 56 56 56 57 57 59 -193 -193 60 60 60 60 59 60 62 63 60 57 68 70 70 70 72 71 71 73 75 75 76 78 78 76 79 80 79 78 79 76 81 -209 -209 88 98 93 94 95 95 100 99 102 101 101 104 104 105 106 105 106 107 110 111 110 111 113 112 114 114 114 112 115 117 117 118 120 -193 -193 132 129 133 133 134 134 134 134 134 134 136 -177 -193 -177 138 141 141 147 147 149 151 152 -193 -193 0 0 0 0 0
    0 0 0 0 0 0 0 0 0 0 0 0 0 0 0 0 0 0 0 0 0 0 0 0 0 0 0 0 0 0 0 0 0 0 0 0 0 0 0 0 0 0 0 0 0 0 0 0 0 0 0 0 0 0 0 0 0 0 0 0 0 0 0 0 0 0 0 0 0 47 47 -193 -209 41 54 55 54 56 -193 -193 -193 -177 131 -209 -209 -209 -209 -209 -209 -209 -193 55 53 54 55 54 55 56 57 59 57 58 59 58 57 57 57 56 55 54 54 53 53 55 55 52 51 54 51 51 51 52 -193 -193 53 53 48 57 58 58 58 58 58 57 57 58 63 59 56 56 -177 524 526 531 -177 55 57 60 61 61 58 57 58 58 58 57 57 57 57 58 58 -193 413 413 414 -193 414 411 58 58 59 60 60 59 58 58 58 59 58 56 57 57 57 58 58 57 56 52 54 -193 57 58 56 56 56 56 59 60 -193 -193 51 56 57 57 57 57 56 57 57 56 55 52 52 51 52 54 53 54 55 55 57 -193 58 60 59 59 59 59 60 62 63 60 58 68 70 70 70 72 70 71 73 74 75 76 77 77 76 78 80 80 78 79 -193 79 -193 -193 88 97 93 95 97 96 100 100 102 101 101 104 104 104 105 104 106 106 110 111 110 111 113 112 114 113 114 112 114 117 116 117 119 121 123 131 128 133 133 134 134 134 134 134 135 -193 -177 -193 -193 138 141 141 147 146 149 151 151 -193 -193 0 0 0 0 0
    0 0 0 0 0 0 0 0 0 0 0 0 0 0 0 0 0 0 0 0 0 0 0 0 0 0 0 0 0 0 0 0 0 0 0 0 0 0 0 0 0 0 0 0 0 0 0 0 0 0 0 0 0 0 0 0 0 0 0 0 0 0 0 0 0 0 0 0 0 48 48 -193 -209 42 51 50 51 54 -193 -209 -209 -177 -209 -209 -209 -209 -209 -209 -193 -209 -193 55 54 53 55 55 56 57 58 60 57 58 59 58 58 57 58 56 54 55 54 53 53 55 55 51 51 55 51 51 51 52 -193 -193 53 53 48 57 59 59 59 58 57 57 56 59 65 58 56 55 -177 524 526 530 56 55 58 61 62 61 57 57 57 58 58 57 56 56 57 57 -193 -193 413 413 414 -193 413 -193 -193 58 59 58 59 58 57 56 57 58 56 55 55 56 56 56 56 56 56 53 54 59 57 58 56 56 56 56 58 59 54 54 50 57 58 58 58 57 57 59 57 56 54 51 50 48 49 51 50 52 51 52 55 -193 -193 59 58 59 59 59 61 62 63 61 59 69 69 69 70 72 70 71 73 74 74 75 77 77 76 78 80 80 79 79 -193 -193 81 84 87 93 94 95 97 97 101 101 102 101 101 103 103 104 105 104 106 106 110 111 110 112 113 112 114 113 114 112 113 116 115 118 119 122 124 131 129 133 133 134 134 134 134 135 135 -193 -177 -193 -193 139 143 142 148 147 149 150 151 -209 -193 0 0 0 0 0
    0 0 0 0 0 0 0 0 0 0 0 0 0 0 0 0 0 0 0 0 0 0 0 0 0 0 0 0 0 0 0 0 0 0 0 0 0 0 0 0 0 0 0 0 0 0 0 0 0 0 0 0 0 0 0 0 0 0 0 0 0 0 0 0 0 0 0 0 0 50 50 -193 -209 47 54 54 53 -193 -209 -209 -209 -209 -209 -209 -209 -193 -209 -209 -193 -209 -193 55 53 53 54 54 -193 56 56 59 56 57 58 58 57 57 57 56 54 55 54 53 53 55 55 51 51 55 51 51 51 51 50 -193 53 53 49 57 59 60 59 58 58 57 57 60 67 57 56 56 56 -177 -177 -177 -193 56 59 61 62 61 57 56 57 57 57 56 56 55 56 56 -193 56 -193 -193 -193 -193 -193 -193 -193 58 58 57 57 57 54 54 55 57 54 54 54 55 55 56 56 56 56 54 55 59 57 58 56 56 56 56 58 58 54 54 50 57 59 59 59 58 58 60 59 58 55 52 51 49 50 51 50 52 51 52 55 56 57 58 58 58 58 59 61 61 62 60 59 69 69 69 70 71 70 71 72 73 74 75 77 77 76 79 81 81 81 82 -193 -193 81 83 86 91 93 -193 96 97 101 101 102 101 102 103 103 104 104 103 106 106 110 112 110 112 113 113 114 113 114 112 113 117 116 118 120 122 125 132 129 133 133 134 134 134 134 135 135 136 -177 -193 -193 139 144 144 149 148 150 150 151 -193 -209 0 0 0 0 0
    0 0 0 0 0 0 0 0 0 0 0 0 0 0 0 0 0 0 0 0 0 0 0 0 0 0 0 0 0 0 0 0 0 0 0 0 0 0 0 0 0 0 0 0 0 0 0 0 0 0 0 0 0 0 0 0 0 0 0 0 0 0 0 0 0 0 0 0 0 51 50 45 -209 56 56 57 54 -193 -209 -209 -209 -209 -209 -209 -193 225 -209 -209 -193 -193 -193 55 53 52 54 53 -209 55 55 58 55 56 57 57 57 56 57 56 54 55 54 53 53 55 55 50 51 54 51 51 51 51 50 49 52 53 48 57 59 59 60 59 58 58 59 62 67 56 56 56 56 -193 -177 -193 -193 56 60 62 63 61 57 57 57 57 57 56 56 55 56 56 55 55 55 55 -193 -193 414 -193 -193 57 56 55 56 56 52 52 54 57 54 54 55 56 56 58 58 58 57 55 56 59 58 58 56 56 56 56 57 57 55 55 51 57 59 59 60 59 59 63 60 59 55 52 51 49 50 51 50 51 50 52 55 56 57 58 57 57 58 58 60 61 61 60 59 68 68 68 69 70 69 70 71 72 73 75 77 78 77 79 81 81 82 82 80 79 79 80 84 88 -209 -193 -193 -193 101 101 103 101 102 103 103 103 104 103 105 106 110 112 111 113 114 113 115 114 114 113 114 117 117 119 120 122 125 131 129 133 133 134 134 134 135 -193 135 137 -193 138 139 140 145 145 149 148 150 150 150 151 -193 0 0 0 0 0
    0 0 0 0 0 0 0 0 0 0 0 0 0 0 0 0 0 0 0 0 0 0 0 0 0 0 0 0 0 0 0 0 0 0 0 0 0 0 0 0 0 0 0 0 0 0 0 0 0 0 0 0 0 0 0 0 0 0 0 0 0 0 0 0 0 0 0 0 0 51 50 45 55 57 -177 57 55 54 -193 56 58 -209 -193 -193 225 226 -209 -209 -209 -193 -209 55 54 54 -193 54 -209 54 55 58 55 56 57 56 56 56 57 56 54 55 54 54 54 55 55 50 51 54 51 50 51 50 49 48 52 52 47 56 57 57 60 59 58 59 60 63 67 56 55 56 56 57 58 58 57 56 60 62 64 61 57 57 57 57 57 56 55 54 56 55 54 54 55 55 55 -193 -193 -209 -193 56 56 55 57 58 56 54 55 58 56 55 57 56 57 59 59 60 60 56 56 59 58 58 57 57 57 57 58 58 56 56 54 57 58 58 59 58 60 65 59 59 55 52 51 50 50 51 49 51 49 52 56 57 58 58 58 57 58 59 61 60 60 59 59 68 67 67 68 70 68 70 70 71 -193 75 77 77 77 79 81 81 82 81 80 78 78 79 83 87 89 -193 -193 -193 -193 101 103 101 102 102 102 103 103 102 104 105 110 112 112 113 114 114 115 114 115 114 115 117 -193 120 121 123 125 131 129 133 133 134 135 135 -193 -193 135 137 -193 138 139 140 145 145 149 148 149 149 150 151 -193 0 0 0 0 0
    0 0 0 0 0 0 0 0 0 0 0 0 0 0 0 0 0 0 0 0 0 0 0 0 0 0 0 0 0 0 0 0 0 0 0 0 0 0 0 0 0 0 0 0 0 0 0 0 0 0 0 0 0 0 0 0 0 0 0 0 0 0 0 0 0 0 0 0 0 50 50 45 52 55 -177 55 54 54 -193 54 56 55 55 -193 225 225 -209 -209 -193 58 57 57 56 -209 -193 -209 -209 54 54 58 55 56 56 56 56 56 57 56 54 56 55 54 54 55 55 49 51 54 50 50 51 49 49 47 51 51 46 54 55 55 59 61 59 60 61 66 67 56 55 56 56 57 58 57 56 56 61 62 64 60 57 57 57 56 56 55 54 53 56 54 53 53 54 54 55 55 -193 -193 -193 56 56 55 58 60 59 56 55 58 56 55 56 55 55 56 58 59 60 56 56 59 58 59 58 58 58 58 58 58 57 57 56 57 58 58 58 59 62 68 61 60 57 54 53 51 51 52 50 52 49 53 57 58 59 58 58 57 58 59 61 60 59 59 60 68 67 67 68 69 68 69 70 70 -193 74 77 77 77 79 80 81 81 80 80 77 77 77 82 86 88 -193 -193 -193 -193 102 103 101 102 102 102 103 103 101 -193 -193 110 113 112 113 114 114 115 114 115 114 115 117 118 119 121 122 124 131 128 133 133 134 135 135 -193 -193 135 137 -193 138 140 140 145 145 148 148 149 -193 -193 -193 -193 0 0 0 0 0
    0 0 0 0 0 0 0 0 0 0 0 0 0 0 0 0 0 0 0 0 0 0 0 0 0 0 0 0 0 0 0 0 0 0 0 0 0 0 0 0 0 0 0 0 0 0 0 0 0 0 0 0 0 0 0 0 0 0 0 0 0 0 0 0 0 0 0 0 0 50 50 45 53 55 -177 55 54 53 -193 53 -193 53 55 -193 223 224 -193 -193 59 61 60 59 58 58 -193 -209 -193 56 55 58 55 56 57 57 57 56 57 55 54 56 55 55 55 55 55 50 51 54 50 50 51 49 48 47 51 51 46 54 54 52 59 67 62 63 62 69 66 56 55 55 56 57 57 57 56 56 62 62 65 57 55 55 55 55 54 53 53 50 55 53 51 52 53 54 54 54 -193 -193 -193 -209 55 56 60 63 65 61 58 61 59 56 57 55 55 56 56 57 59 56 56 59 58 59 59 58 58 58 59 59 57 58 57 57 58 59 59 60 65 69 63 61 59 56 55 53 53 54 51 53 51 54 57 58 59 58 57 57 58 59 60 59 59 59 60 68 66 66 67 69 67 68 69 70 -193 74 77 77 77 78 80 80 81 79 79 76 75 75 78 84 88 -193 -193 -193 102 102 103 101 102 102 102 102 102 101 -209 -193 110 113 112 114 115 115 116 114 115 114 115 117 118 118 120 121 124 130 128 132 133 134 -193 134 -193 -193 135 137 -193 138 140 140 145 145 149 148 149 -193 -193 -193 -209 0 0 0 0 0
    0 0 0 0 0 0 0 0 0 0 0 0 0 0 0 0 0 0 0 0 0 0 0 0 0 0 0 0 0 0 0 0 0 0 0 0 0 0 0 0 0 0 0 0 0 0 0 0 0 0 0 0 0 0 0 0 0 0 0 0 0 0 0 0 0 0 0 0 0 50 49 44 52 54 56 55 55 54 54 53 54 52 55 -193 -193 -193 -193 -193 59 61 61 59 -193 -209 -209 -209 -193 56 55 58 56 57 57 57 57 56 57 56 54 56 55 55 55 55 55 50 52 54 50 50 51 49 49 47 51 51 46 53 53 46 59 73 -193 -209 72 73 65 57 55 56 56 58 57 57 56 57 63 63 66 56 55 55 55 55 53 52 52 49 55 52 50 51 52 53 53 53 53 -193 -209 -209 -209 -209 65 68 71 69 61 66 67 58 58 56 56 57 57 57 59 56 57 60 58 58 59 58 59 58 59 59 58 59 58 57 58 58 59 61 67 69 64 61 60 57 56 55 54 55 54 55 54 56 58 59 59 58 58 57 58 59 60 59 59 59 60 68 66 66 66 69 67 68 69 69 -193 74 77 77 77 78 80 80 80 78 79 76 75 75 76 82 87 89 -193 -193 102 101 103 101 101 101 101 102 101 100 -193 -193 110 114 113 115 115 115 116 114 115 114 115 117 118 118 121 122 124 130 128 132 133 134 -193 134 -193 -193 -193 -193 137 138 140 140 145 146 149 149 -193 -193 -193 -193 -209 0 0 0 0 0
    0 0 0 0 0 0 0 0 0 0 0 0 0 0 0 0 0 0 0 0 0 0 0 0 0 0 0 0 0 0 0 0 0 0 0 0 0 0 0 0 0 0 0 0 0 0 0 0 0 0 0 0 0 0 0 0 0 0 0 0 0 0 0 0 0 0 0 0 0 49 48 44 50 53 55 55 55 55 53 52 54 52 56 -193 -193 -193 -193 -193 60 61 61 -193 -209 -209 -193 -209 -209 55 55 57 55 56 56 56 56 55 56 55 54 55 55 55 56 55 56 51 52 54 50 50 52 49 48 47 50 50 46 52 52 -177 58 74 80 -209 -209 76 -209 58 57 57 58 58 58 57 55 57 61 61 70 55 54 55 55 55 53 52 52 49 54 51 50 49 51 52 52 52 -193 -193 -193 -193 -209 -209 -209 69 72 71 61 67 69 59 59 56 56 57 58 57 59 56 57 60 58 58 60 59 59 59 59 60 58 60 59 57 58 58 60 63 69 70 65 62 62 59 58 58 57 57 57 58 58 58 60 60 58 58 57 56 57 58 59 57 58 59 60 68 65 65 66 68 67 68 68 69 -193 74 77 77 77 78 79 79 79 78 79 76 76 75 76 81 86 88 90 -193 101 101 103 101 101 101 101 101 101 100 -193 -193 109 113 112 115 115 115 116 114 115 115 115 117 118 119 121 122 125 130 128 132 133 134 -193 -193 -193 -193 -193 -209 -193 138 139 140 146 146 149 149 -193 -193 -193 -193 -209 0 0 0 0 0
    0 0 0 0 0 0 0 0 0 0 0 0 0 0 0 0 0 0 0 0 0 0 0 0 0 0 0 0 0 0 0 0 0 0 0 0 0 0 0 0 0 0 0 0 0 0 0 0 0 0 0 0 0 0 0 0 0 0 0 0 0 0 0 0 0 0 0 0 0 48 47 44 48 54 56 56 55 54 53 52 53 52 56 56 -193 -193 -193 60 60 62 62 -193 -209 -209 -177 -209 -209 54 55 55 54 54 55 55 55 54 54 54 53 55 55 55 55 55 55 52 52 54 50 50 52 49 48 47 49 50 45 51 51 42 57 73 -193 -209 -209 -209 -209 59 60 59 60 59 59 59 56 -209 -209 -209 -209 -209 -209 -209 -209 53 -193 48 48 46 51 49 47 46 49 52 52 -193 -209 -209 -209 -209 -209 -209 -209 -209 73 73 61 68 70 63 59 56 57 58 58 57 59 55 56 59 58 58 60 59 59 59 59 60 59 61 61 57 59 58 59 63 69 70 63 61 62 60 59 59 59 59 59 61 60 61 62 61 58 57 57 55 56 57 56 56 57 58 59 67 64 64 65 68 67 67 68 69 71 73 77 77 76 78 79 79 78 77 79 76 76 75 76 79 84 86 -193 -193 100 100 103 101 102 101 101 102 101 101 -193 -209 108 -193 112 114 115 115 116 114 115 114 115 117 118 119 122 123 125 131 128 133 133 134 -193 -193 -193 -193 -193 -209 -209 138 139 139 145 146 150 149 -193 -193 -193 -193 -193 0 0 0 0 0
    0 0 0 0 0 0 0 0 0 0 0 0 0 0 0 0 0 0 0 0 0 0 0 0 0 0 0 0 0 0 0 0 0 0 0 0 0 0 0 0 0 0 0 0 0 0 0 0 0 0 0 0 0 0 0 0 0 0 0 0 0 0 0 0 0 0 0 0 0 47 46 43 47 54 -193 56 55 53 51 50 50 50 55 54 -193 -209 57 59 59 62 62 -193 -209 -209 -209 -193 -193 55 56 55 54 54 54 54 54 54 54 53 53 55 55 55 56 55 56 52 53 54 50 50 52 49 48 47 49 49 45 51 50 41 55 -209 -209 -209 46 -209 -209 59 64 -193 62 -209 -193 -209 -209 -209 -209 -209 -193 91 -209 -209 -209 -209 -209 -193 45 44 48 47 45 44 46 49 -193 230 -193 -209 -209 -209 -209 -193 -209 -209 73 -209 -209 69 71 63 -193 55 -193 57 58 56 59 54 56 58 57 57 60 59 60 59 60 61 59 61 61 57 58 55 58 62 66 68 59 60 61 60 60 60 60 60 60 62 62 63 63 62 59 58 57 55 55 56 55 54 57 58 58 68 64 64 64 69 67 68 67 69 70 73 77 76 76 78 79 78 78 76 79 76 76 75 76 78 82 83 -193 -193 -193 101 103 101 102 101 101 102 101 101 -193 -209 109 -193 112 114 115 115 116 114 115 114 115 117 118 119 121 123 125 131 128 132 133 133 -193 -193 -193 -193 -193 -209 -209 137 139 139 144 145 149 149 -193 -193 -193 -193 -209 0 0 0 0 0
    0 0 0 0 0 0 0 0 0 0 0 0 0 0 0 0 0 0 0 0 0 0 0 0 0 0 0 0 0 0 0 0 0 0 0 0 0 0 0 0 0 0 0 0 0 0 0 0 0 0 0 0 0 0 0 0 0 0 0 0 0 0 0 0 0 0 0 0 0 47 46 42 44 51 53 50 47 47 43 45 46 48 52 51 -193 -209 -193 59 59 62 -193 58 -193 -209 -209 -193 60 57 57 56 56 55 55 55 55 54 54 53 54 55 56 56 56 55 56 53 53 54 51 50 52 49 48 47 49 49 45 50 49 41 51 48 47 -193 43 -209 52 58 62 -193 61 -193 -193 -209 -209 -209 -193 -193 -209 -193 -209 -193 -209 -209 -209 -193 43 -193 -193 -193 42 40 -209 -209 232 231 231 -209 -209 -209 -209 -193 -209 -209 73 -209 -209 70 72 62 -193 54 54 55 56 55 59 53 55 59 58 58 61 60 60 60 61 62 60 62 62 57 57 52 57 63 64 65 58 59 60 60 60 60 60 60 60 62 61 63 63 61 59 58 57 56 56 56 55 54 57 58 59 68 64 64 65 69 67 68 68 69 70 73 77 76 76 78 79 78 77 76 79 76 78 76 77 79 83 85 -193 -193 -193 101 103 101 102 101 101 102 101 101 -193 -193 109 114 112 114 115 115 115 114 114 114 115 117 118 119 122 123 125 131 128 132 132 133 -193 -193 -193 -193 -193 -209 -209 137 138 139 144 144 148 148 149 -193 -193 -209 -193 0 0 0 0 0
    0 0 0 0 0 0 0 0 0 0 0 0 0 0 0 0 0 0 0 0 0 0 0 0 0 0 0 0 0 0 0 0 0 0 0 0 0 0 0 0 0 0 0 0 0 0 0 0 0 0 0 0 0 0 0 0 0 0 0 0 0 0 0 0 0 0 0 0 0 47 46 42 43 48 -209 42 43 44 42 44 45 48 52 52 -209 -209 -209 -209 60 63 -193 -193 -193 -209 -193 -193 61 58 58 56 56 56 56 56 55 54 54 53 54 55 56 56 56 56 57 54 54 55 51 51 52 49 48 47 49 49 45 50 49 41 55 52 45 -193 42 -209 53 59 64 -193 61 -193 -193 -209 -209 -209 -193 -193 -209 -193 -209 -193 -209 -209 -209 -193 -193 -193 -209 -209 -193 -193 -209 -209 234 232 232 -209 -209 -209 -209 -209 -209 -209 73 -209 -209 69 71 -209 -209 46 47 49 53 53 57 52 55 60 58 58 62 61 61 61 62 63 60 63 63 57 57 46 -209 -209 61 63 57 59 60 61 61 61 61 62 62 63 63 64 64 61 60 59 58 56 56 56 54 55 57 59 60 69 64 64 65 69 67 68 68 69 70 73 77 76 76 78 79 78 77 76 79 77 79 78 79 82 85 87 90 -193 101 101 103 101 102 101 101 102 101 101 -177 -193 110 114 112 114 114 114 115 114 114 114 114 117 118 119 122 123 126 132 129 133 -193 133 -193 134 -193 -193 134 -209 -209 137 138 138 144 144 148 148 150 -193 -193 -193 -193 0 0 0 0 0
    0 0 0 0 0 0 0 0 0 0 0 0 0 0 0 0 0 0 0 0 0 0 0 0 0 0 0 0 0 0 0 0 0 0 0 0 0 0 0 0 0 0 0 0 0 0 0 0 0 0 0 0 0 0 0 0 0 0 0 0 0 0 0 0 0 0 0 0 0 47 46 42 42 44 28 35 38 40 -209 -209 -209 45 -209 -209 -209 -209 -209 -209 61 64 -193 -209 -209 -209 -209 -209 62 59 58 56 56 55 56 56 55 54 54 53 54 55 56 56 56 56 58 55 55 55 52 51 53 49 49 47 49 49 45 50 49 41 52 48 -209 35 -193 -209 -209 59 65 -193 63 -193 -193 -209 -209 15 20 -193 -209 -209 -209 -209 -209 -209 -209 -209 -193 -193 -209 -209 -209 -209 -209 -209 235 -193 232 -209 -209 -209 -209 -209 -209 -209 -209 -209 -209 -209 -209 -209 -209 -193 41 45 51 52 56 52 55 60 59 59 63 61 62 61 62 63 60 63 63 57 56 -209 -209 -209 62 62 58 59 60 61 62 62 61 63 63 65 65 66 66 62 60 59 57 56 56 56 54 55 58 61 62 69 65 64 65 69 67 68 67 68 69 73 76 76 76 78 79 78 77 77 80 77 81 81 81 84 86 -193 90 -193 101 101 103 101 102 101 101 102 101 101 -177 -193 110 -193 112 114 114 114 115 113 113 113 113 117 117 119 122 123 126 132 130 133 -193 134 -193 134 -193 -193 134 -193 -209 137 -193 138 144 144 148 149 -193 -193 -193 154 154 0 0 0 0 0
    0 0 0 0 0 0 0 0 0 0 0 0 0 0 0 0 0 0 0 0 0 0 0 0 0 0 0 0 0 0 0 0 0 0 0 0 0 0 0 0 0 0 0 0 0 0 0 0 0 0 0 0 0 0 0 0 0 0 0 0 0 0 0 0 0 0 0 0 0 48 46 43 43 44 -209 36 39 -193 -209 -209 -209 -193 -209 -209 -209 -209 -209 -209 -193 -209 -209 -209 -209 -209 -209 -209 61 59 58 56 55 55 55 56 55 54 53 53 54 55 56 56 56 56 59 57 57 56 52 52 53 50 49 48 49 49 45 50 49 41 50 48 -209 37 -193 -209 -209 58 -193 -193 65 -193 -193 -193 -209 -209 -209 -209 -209 -193 -209 -209 -209 -193 -209 -209 -209 -209 -209 -209 -209 -209 -209 -209 233 -209 -209 -209 -209 -209 -209 -209 -209 -209 -209 -209 -209 -209 -209 -209 -209 -209 -209 -209 55 54 -193 53 55 61 59 59 63 61 62 61 62 63 60 63 63 58 56 -209 -209 -193 61 60 57 58 58 60 61 61 61 64 64 66 66 67 66 62 60 59 57 56 56 57 55 56 59 63 65 70 65 64 66 69 67 67 67 68 67 73 75 75 75 77 79 78 77 77 80 79 83 84 84 86 -193 -193 -193 -193 100 100 103 101 101 101 101 102 101 101 -177 -193 111 -193 112 115 114 114 115 113 113 113 112 116 116 119 122 123 126 132 129 133 -193 133 -193 134 134 134 134 136 -209 137 -193 138 144 144 148 148 149 -193 -193 -209 154 0 0 0 0 0
    0 0 0 0 0 0 0 0 0 0 0 0 0 0 0 0 0 0 0 0 0 0 0 0 0 0 0 0 0 0 0 0 0 0 0 0 0 0 0 0 0 0 0 0 0 0 0 0 0 0 0 0 0 0 0 0 0 0 0 0 0 0 0 0 0 0 0 0 0 51 48 45 46 46 -209 37 39 41 -209 -209 -209 -209 -209 -209 -209 -209 -209 -209 -209 -209 318 -209 313 -193 -209 -209 58 57 56 55 54 54 55 55 54 54 53 53 54 55 56 56 55 57 61 58 58 57 53 53 54 50 49 48 49 49 45 50 49 41 47 47 41 -193 36 -209 -209 58 -209 -193 -193 -193 -193 -193 -209 -209 -209 -209 -209 -209 -193 -209 -209 -193 93 -209 -209 -209 -209 -209 -209 -209 -209 -209 -209 -209 -209 -193 -209 -209 -209 -193 -209 -209 -209 -209 -193 -209 -209 -209 -209 -209 -209 -209 -209 -209 -209 55 56 62 59 59 63 62 62 61 63 64 60 62 62 58 56 48 54 -193 57 58 56 57 57 59 60 60 61 64 66 67 67 67 66 61 61 58 57 55 57 58 57 57 61 65 67 70 65 64 66 69 67 67 67 67 67 73 75 75 75 77 78 79 78 78 81 80 85 86 86 88 -193 -193 -193 -193 100 100 103 101 101 101 100 101 101 101 -177 -193 112 115 112 114 114 113 114 112 112 112 112 116 116 119 122 124 125 131 128 133 -193 133 134 133 134 134 134 136 -209 137 -193 138 144 144 148 148 149 150 -193 -209 -209 0 0 0 0 0
    0 0 0 0 0 0 0 0 0 0 0 0 0 0 0 0 0 0 0 0 0 0 0 0 0 0 0 0 0 0 0 0 0 0 0 0 0 0 0 0 0 0 0 0 0 0 0 0 0 0 0 0 0 0 0 0 0 0 0 0 0 0 0 0 0 0 0 0 0 52 49 51 50 50 54 -209 -209 -209 -209 -209 -209 -209 -209 -209 -209 -209 -209 -209 -209 -209 -177 -193 -193 313 -209 -209 58 56 55 55 54 54 54 55 54 54 53 53 54 55 56 56 55 57 63 59 58 58 53 53 54 51 50 48 49 49 45 49 48 41 47 47 42 -209 -209 -209 -209 -209 -209 95 -209 94 94 95 -209 -209 -209 -209 -209 -209 -193 -209 -209 -209 -209 -209 -209 -209 -209 -209 -209 174 -193 -193 -209 -209 -209 -209 -209 -209 -209 -209 -209 -193 -193 -209 463 -193 -209 -209 -209 -209 -209 -209 -193 -209 -209 -209 56 62 59 60 63 62 63 61 63 64 60 62 62 58 56 50 52 58 57 58 56 55 55 56 58 58 59 62 63 66 65 65 64 60 60 58 56 56 57 59 58 58 63 67 68 71 66 65 66 69 67 67 66 66 66 73 75 74 74 76 78 78 78 78 81 81 85 86 87 88 88 -193 92 96 101 101 104 102 102 101 101 102 101 101 -177 -193 112 115 112 113 113 113 114 112 112 112 111 116 116 120 122 124 126 132 129 133 132 133 134 133 134 134 134 136 -209 137 -209 138 144 144 148 148 149 150 -193 -193 -209 0 0 0 0 0
    0 0 0 0 0 0 0 0 0 0 0 0 0 0 0 0 0 0 0 0 0 0 0 0 0 0 0 0 0 0 0 0 0 0 0 0 0 0 0 0 0 0 0 0 0 0 0 0 0 0 0 0 0 0 0 0 0 0 0 0 0 0 0 0 0 0 0 0 0 51 48 52 51 51 51 -209 -209 -209 -209 -209 -209 -193 -209 -209 -209 161 -193 -193 -209 -209 -193 -193 -209 -193 -193 61 58 56 55 55 54 54 54 55 54 53 53 53 54 55 56 55 55 56 64 59 58 58 53 53 54 51 50 48 49 49 45 49 49 42 51 51 -209 -209 -209 -209 -209 -209 -209 -193 -209 94 94 -193 -209 -209 -209 -209 -209 -209 -193 -209 -209 -209 -209 -209 -209 -209 -209 -209 -193 172 170 173 -209 -209 -209 -209 -209 -209 -209 -209 -209 -209 -209 -193 464 -193 -209 -209 -209 -209 -209 -209 157 -209 -193 -209 56 62 60 60 63 62 63 61 63 63 59 61 61 57 55 50 50 56 54 56 54 53 53 55 56 55 56 59 61 63 62 63 62 59 60 58 56 56 58 60 59 59 64 67 69 71 66 65 67 69 66 67 66 66 65 73 74 74 74 76 77 78 78 78 81 82 85 86 87 88 -193 -193 -193 96 -193 101 104 102 102 102 102 103 102 102 -177 -193 113 115 112 113 112 112 113 111 111 111 110 116 116 120 122 124 125 132 129 133 132 133 134 134 134 134 134 136 -209 137 -193 138 144 143 147 147 149 -193 -193 -193 -209 0 0 0 0 0
    0 0 0 0 0 0 0 0 0 0 0 0 0 0 0 0 0 0 0 0 0 0 0 0 0 0 0 0 0 0 0 0 0 0 0 0 0 0 0 0 0 0 0 0 0 0 0 0 0 0 0 0 0 0 0 0 0 0 0 0 0 0 0 0 0 0 0 0 0 51 47 53 52 52 48 -209 -209 -209 -209 -193 -209 -193 -209 -209 -209 -209 -193 -209 -209 -209 -193 -193 -209 -193 -209 59 59 57 56 55 54 55 55 55 54 54 54 54 54 56 56 55 55 57 66 59 59 58 54 53 54 51 50 49 49 49 45 49 49 42 54 54 -209 -209 -209 -209 -209 -209 -209 -193 -193 93 93 -193 -209 -209 -209 -209 -209 -209 -209 -209 -209 -193 -209 -209 -209 -209 -209 -209 -193 -193 -193 171 -209 -209 -209 -209 -209 -209 -209 -209 -209 -209 -209 -193 465 -193 -209 -209 -209 -209 -193 -209 -209 -209 130 -193 57 63 60 60 62 62 63 61 63 63 59 61 61 57 54 49 50 56 54 56 53 53 53 54 55 54 56 58 60 63 61 62 62 59 60 58 55 56 58 60 61 61 66 67 69 71 66 65 67 68 66 66 66 65 65 73 74 74 74 76 78 79 79 80 83 84 87 88 89 90 -193 -193 93 96 103 101 103 102 102 102 101 102 -193 101 -193 -209 114 115 112 113 112 112 113 112 112 111 110 116 117 120 122 125 126 132 129 133 132 133 134 134 134 134 134 136 -209 137 -193 138 143 143 147 147 148 -193 -193 -193 -193 0 0 0 0 0
    0 0 0 0 0 0 0 0 0 0 0 0 0 0 0 0 0 0 0 0 0 0 0 0 0 0 0 0 0 0 0 0 0 0 0 0 0 0 0 0 0 0 0 0 0 0 0 0 0 0 0 0 0 0 0 0 0 0 0 0 0 0 0 0 0 0 0 0 0 52 46 57 53 -193 -209 -209 -209 -209 -209 -193 -209 -209 -209 -209 -209 -209 -209 -209 -209 -209 -193 -193 -193 -193 -193 57 57 56 56 55 55 55 56 56 55 54 55 54 55 56 56 54 55 58 68 59 59 58 54 53 54 51 50 49 50 49 45 50 49 42 55 56 -209 -209 -209 -209 -209 -209 -225 -209 -209 -193 -209 -209 -209 -209 -209 -209 -209 -209 -209 -209 -209 -193 -209 -209 287 287 287 -209 -193 -209 -209 -209 -209 -209 -209 -209 -209 -193 -209 -209 -209 -209 -209 -177 468 -193 -209 -209 -193 580 579 -209 -209 -193 131 -193 58 63 60 60 62 62 63 61 63 63 59 61 61 57 55 52 53 57 56 56 54 53 53 54 54 54 55 57 59 61 60 60 60 59 59 57 54 56 57 59 61 61 65 66 68 70 65 65 67 68 65 66 65 65 64 73 74 74 74 76 77 79 79 80 83 85 88 88 89 91 90 92 94 96 102 100 103 102 101 101 101 102 -193 100 -193 -209 -193 116 112 113 112 112 113 112 112 112 111 117 118 121 123 -193 126 132 129 133 133 133 134 134 134 134 134 136 -209 137 -193 -193 143 -193 -193 -193 -193 -193 -193 -193 150 0 0 0 0 0
    0 0 0 0 0 0 0 0 0 0 0 0 0 0 0 0 0 0 0 0 0 0 0 0 0 0 0 0 0 0 0 0 0 0 0 0 0 0 0 0 0 0 0 0 0 0 0 0 0 0 0 0 0 0 0 0 0 0 0 0 0 0 0 0 0 0 0 0 0 53 45 58 52 -209 -209 -209 -209 -209 -193 -209 -209 -209 -209 111 -209 -209 -209 -209 -193 -193 -193 318 -193 -193 -193 55 55 55 55 54 54 54 55 55 55 54 55 54 55 56 56 54 55 59 69 59 59 59 54 53 54 51 49 49 50 49 45 50 50 -193 -193 58 -209 -209 -209 -209 -209 -193 -225 -225 -209 -209 -209 -209 -209 -209 -209 -209 -209 -209 -209 -209 -209 -209 -209 -209 -209 -209 -193 -209 -209 -193 -209 -209 -209 -209 -209 -209 -193 -193 -209 -209 -209 -209 -209 -209 -209 -209 -209 -209 576 578 578 -209 -209 -193 130 -193 58 64 60 61 62 62 63 61 63 63 58 60 60 57 57 57 56 58 57 57 56 54 54 53 54 54 55 56 57 60 58 59 59 58 58 57 55 56 57 59 62 63 66 67 68 70 65 65 67 68 65 65 66 65 65 73 74 74 74 76 77 79 79 81 83 86 88 89 90 91 91 92 94 96 101 100 102 101 101 101 -193 101 -193 99 -193 -209 -193 116 113 113 113 113 114 112 112 112 111 -193 119 121 -193 -193 -193 132 129 133 -193 134 134 134 134 134 134 136 -209 137 -209 -193 -193 -193 -193 -193 -193 -193 -193 -193 -193 0 0 0 0 0
    0 0 0 0 0 0 0 0 0 0 0 0 0 0 0 0 0 0 0 0 0 0 0 0 0 0 0 0 0 0 0 0 0 0 0 0 0 0 0 0 0 0 0 0 0 0 0 0 0 0 0 0 0 0 0 0 0 0 0 0 0 0 0 0 0 0 0 0 0 53 45 -193 48 -209 44 -209 -209 -209 -193 -209 -209 -209 -209 113 -209 -209 -193 -209 -193 -193 -193 -193 -193 -193 -193 55 55 54 54 54 54 54 55 55 54 54 55 55 56 56 56 54 56 59 68 58 58 58 53 53 54 51 49 49 49 49 45 50 50 42 57 57 -209 -209 -209 -209 -209 -225 -225 -209 -209 -209 -209 -209 -209 -209 -209 -209 -209 -209 -193 -193 -193 -209 -209 -209 -209 -209 -209 208 207 206 210 -193 -209 326 -209 -209 -209 -209 -209 -209 -209 -209 -209 -209 -209 -193 -193 -209 573 -193 -177 -193 -209 -209 -193 -193 58 64 61 61 62 61 62 61 63 63 58 59 60 58 58 59 58 59 59 58 57 55 54 53 53 53 54 54 55 58 55 56 57 56 56 54 55 57 57 60 63 64 66 66 68 70 65 65 67 67 65 65 66 65 66 73 74 74 74 76 78 79 80 82 84 87 89 89 90 91 91 93 94 97 101 100 102 101 101 101 -193 101 100 100 -193 -209 -193 116 113 114 113 113 114 112 112 112 112 -193 120 121 -193 -193 -193 132 129 133 -193 134 -193 134 134 134 134 136 -193 137 -193 -193 -193 -193 -193 -193 -193 -193 -193 -193 -193 0 0 0 0 0
    0 0 0 0 0 0 0 0 0 0 0 0 0 0 0 0 0 0 0 0 0 0 0 0 0 0 0 0 0 0 0 0 0 0 0 0 0 0 0 0 0 0 0 0 0 0 0 0 0 0 0 0 0 0 0 0 0 0 0 0 0 0 0 0 0 0 0 0 0 53 48 54 47 43 45 46 -209 -209 -193 -209 -209 -209 -209 -209 -209 -209 -193 -209 -193 -193 -193 -209 -193 -193 57 56 55 54 54 54 54 54 55 55 54 55 55 55 56 56 56 55 56 59 62 57 57 57 53 53 54 51 49 49 49 49 45 50 50 42 57 58 -209 -209 -209 -209 -209 -209 -209 -209 -209 -193 36 -209 31 30 -209 -209 -209 -209 -193 -193 -193 -209 -193 -193 -209 -209 -209 209 208 208 212 210 -209 -209 -209 -209 -209 -209 -209 -209 -209 -209 -209 -209 -209 -193 -209 -209 -209 -193 -193 -209 -177 -209 -209 -209 58 64 61 61 61 61 62 61 63 63 57 59 60 59 59 60 60 60 60 59 57 56 55 54 53 52 52 53 54 56 54 55 56 55 55 56 57 58 57 60 64 64 65 65 68 70 64 65 66 67 65 65 66 65 66 73 74 75 74 76 78 80 80 82 84 88 89 89 90 91 91 93 94 97 101 100 101 101 101 101 -193 101 100 101 -209 -193 114 115 113 114 113 114 114 112 113 113 113 -193 120 121 122 -193 -193 132 129 133 -193 134 -193 134 134 135 134 136 -193 137 -193 -193 143 -193 -193 -193 -193 -193 -193 -193 -209 0 0 0 0 0
    0 0 0 0 0 0 0 0 0 0 0 0 0 0 0 0 0 0 0 0 0 0 0 0 0 0 0 0 0 0 0 0 0 0 0 0 0 0 0 0 0 0 0 0 0 0 0 0 0 0 0 0 0 0 0 0 0 0 0 0 0 0 0 0 0 0 0 0 0 53 49 53 47 45 44 47 -209 -209 -209 -209 -209 -209 -209 -209 -209 -209 -209 -209 -209 -193 60 -193 -193 58 56 56 55 54 55 54 54 55 55 55 54 55 56 56 56 56 56 55 57 59 -209 56 56 56 53 52 54 50 49 50 50 49 45 50 50 42 57 59 -209 -209 -209 -209 -209 -209 -209 -209 -209 30 37 -209 31 29 34 -209 -209 -209 -209 -209 -193 -193 -209 -209 -209 -209 -193 209 209 209 212 210 -209 -209 -193 -193 -193 -209 -209 -209 -209 -209 -209 -209 -209 -193 -209 -209 -209 -193 -209 -209 -209 -209 -209 -209 57 64 60 60 61 61 62 60 63 62 57 59 59 59 60 62 61 61 60 59 58 57 55 54 53 53 52 52 55 56 55 56 56 56 55 57 59 60 58 60 64 65 66 65 69 70 64 65 66 67 65 65 66 65 67 74 75 75 75 77 79 80 80 82 83 87 88 89 89 90 90 92 93 97 101 100 101 101 101 101 -193 101 101 102 -209 -193 114 115 113 114 114 114 114 112 113 113 113 118 -209 121 122 125 127 132 130 133 -193 134 -193 134 135 135 135 136 -193 137 -193 -193 142 -193 -193 -193 -193 -193 -193 -193 -209 0 0 0 0 0
    0 0 0 0 0 0 0 0 0 0 0 0 0 0 0 0 0 0 0 0 0 0 0 0 0 0 0 0 0 0 0 0 0 0 0 0 0 0 0 0 0 0 0 0 0 0 0 0 0 0 0 0 0 0 0 0 0 0 0 0 0 0 0 0 0 0 0 0 0 52 48 -209 46 -209 43 48 -193 -209 -209 -209 -209 -209 -209 -209 -209 51 -193 58 58 59 59 -193 -193 57 57 56 55 55 55 55 55 55 56 55 55 56 56 56 57 57 55 55 57 58 -209 54 54 56 52 52 54 50 48 50 50 50 46 50 51 43 57 60 -193 -209 -193 -209 -209 -209 -209 -193 -193 32 38 -209 30 29 32 -209 -209 -209 -209 -193 -193 134 -209 -209 -193 -193 -193 209 209 209 212 211 -209 -209 -209 -193 -193 -193 -209 -193 -209 -209 -209 -209 -209 -209 -209 -209 -209 -209 -209 -209 -209 -193 -209 -209 57 64 60 60 60 60 62 60 63 62 57 59 60 60 61 63 62 62 61 60 59 57 55 54 53 52 52 52 54 57 56 57 57 57 57 58 61 61 58 60 63 64 64 63 68 69 64 65 67 67 65 65 66 65 67 74 75 76 76 78 79 81 80 82 83 87 88 89 89 90 89 91 93 97 100 99 101 101 100 -193 -193 101 100 101 -209 111 115 116 113 114 114 114 114 112 113 113 113 118 -209 -193 123 126 128 133 130 133 -193 134 -193 134 135 135 135 136 -193 137 -193 -193 141 -193 -193 -193 -193 36 -193 35 -209 0 0 0 0 0
    0 0 0 0 0 0 0 0 0 0 0 0 0 0 0 0 0 0 0 0 0 0 0 0 0 0 0 0 0 0 0 0 0 0 0 0 0 0 0 0 0 0 0 0 0 0 0 0 0 0 0 0 0 0 0 0 0 0 0 0 0 0 0 0 0 0 0 0 0 51 -193 -209 -193 -209 38 46 -209 -209 -209 -209 -209 -209 -209 -209 -209 51 -193 -193 57 58 -193 -193 -193 57 57 55 55 55 55 55 55 55 56 55 55 56 57 56 57 57 55 55 56 57 -193 52 53 55 52 52 53 50 48 51 51 51 47 51 52 43 58 62 62 -193 -193 -209 -209 -209 -209 -209 -209 -209 -209 -209 -209 -209 29 -209 -177 -209 -209 138 -193 -177 -193 -209 -193 -193 206 208 209 209 212 -209 -193 -209 -209 -193 -177 -209 -209 -209 -209 -209 -209 -209 -209 -209 -209 -209 -209 -209 -209 -209 -209 54 -209 -209 58 64 61 61 61 60 62 60 63 63 57 60 61 62 62 65 64 64 63 61 59 58 56 55 54 53 53 52 55 58 57 58 58 58 58 60 63 63 59 60 62 63 63 62 67 69 63 65 67 67 65 65 67 66 68 75 76 76 77 78 80 81 80 82 84 89 89 90 91 91 91 92 93 96 100 99 100 100 100 -193 -193 100 99 100 -193 -193 116 116 114 115 114 114 114 113 113 112 111 118 119 120 122 126 128 133 131 133 -193 134 -193 135 135 135 135 136 -193 137 -193 -193 141 -193 -193 -193 -193 36 34 34 -193 0 0 0 0 0
    0 0 0 0 0 0 0 0 0 0 0 0 0 0 0 0 0 0 0 0 0 0 0 0 0 0 0 0 0 0 0 0 0 0 0 0 0 0 0 0 0 0 0 0 0 0 0 0 0 0 0 0 0 0 0 0 0 0 0 0 0 0 0 0 0 0 0 0 0 52 -209 -209 38 26 35 43 -209 -209 -209 -193 66 -193 -209 -209 -209 52 56 55 55 57 -193 -193 -193 57 57 56 55 55 55 55 55 55 55 55 55 56 57 57 57 57 56 56 56 56 52 52 52 55 51 52 53 50 48 51 51 51 48 52 52 44 57 60 60 -193 -209 -209 -209 -209 -209 -209 -209 -209 -209 -209 -209 -177 -177 -177 -177 -209 -209 142 143 136 142 -193 -177 -193 -193 210 211 210 -193 -193 321 328 -193 -193 -177 -209 -209 -209 -209 -209 -209 -209 -209 -193 -193 -209 -209 -209 -209 -209 -209 55 -209 58 58 65 61 61 61 61 62 60 63 63 58 61 63 64 64 66 66 66 65 62 61 59 57 57 55 55 55 55 57 60 59 59 60 59 59 61 64 63 59 60 61 62 63 63 67 70 64 65 67 67 66 65 67 66 69 75 76 77 77 79 81 82 81 83 86 90 90 91 91 91 91 92 93 95 98 98 100 99 99 -193 99 99 98 99 -177 -193 -193 117 114 115 114 114 114 113 113 112 111 117 118 120 122 126 128 133 131 133 -193 134 -193 135 135 135 -193 -193 -193 137 -193 -193 140 141 -193 -193 -193 36 34 35 -193 0 0 0 0 0
    0 0 0 0 0 0 0 0 0 0 0 0 0 0 0 0 0 0 0 0 0 0 0 0 0 0 0 0 0 0 0 0 0 0 0 0 0 0 0 0 0 0 0 0 0 0 0 0 0 0 0 0 0 0 0 0 0 0 0 0 0 0 0 0 0 0 0 0 0 53 -209 -209 35 29 36 44 -209 -209 -209 -193 62 60 -209 -209 -209 49 51 53 54 56 56 -193 57 57 58 56 55 55 55 55 55 55 55 54 55 56 57 57 57 57 55 56 56 56 52 51 52 54 51 52 53 50 48 51 51 51 48 51 52 44 57 57 58 -193 -209 -209 -209 -209 -209 -209 -209 -209 -209 17 19 19 21 21 -177 -209 -209 149 152 -177 -177 -193 -193 -193 -193 211 211 209 -193 -193 -193 -193 -193 -193 -177 -193 -209 -209 -193 -209 -209 -209 -193 -193 -177 -209 -209 -209 -209 -209 -209 -193 -209 58 59 65 61 61 61 61 62 60 63 62 58 60 62 63 64 66 66 67 66 65 63 61 59 57 57 57 56 57 59 61 59 60 60 59 59 61 64 63 60 60 62 62 63 64 67 70 64 65 68 67 66 65 67 66 69 75 77 77 78 80 82 83 82 84 -209 91 91 91 92 92 91 92 92 95 97 97 99 99 99 99 98 99 97 98 -177 -193 -193 117 114 115 114 114 114 113 113 112 111 117 118 120 122 126 127 133 130 133 -193 134 135 135 135 135 -193 -193 -193 137 -193 -193 140 140 -193 -193 36 36 35 36 -193 0 0 0 0 0
    0 0 0 0 0 0 0 0 0 0 0 0 0 0 0 0 0 0 0 0 0 0 0 0 0 0 0 0 0 0 0 0 0 0 0 0 0 0 0 0 0 0 0 0 0 0 0 0 0 0 0 0 0 0 0 0 0 0 0 0 0 0 0 0 0 0 0 0 0 50 48 -209 -193 -209 39 46 55 53 55 59 60 60 60 60 -209 49 51 51 52 53 55 -193 57 57 58 56 55 55 55 55 55 55 54 54 55 56 56 57 57 56 55 56 56 55 51 51 52 53 51 52 53 50 49 51 51 51 48 51 51 45 56 56 57 -193 -193 -209 -209 -209 -209 -209 -209 -193 -209 -193 -193 15 17 19 -209 -209 157 152 -193 -209 -209 -209 -209 -209 -193 211 211 210 -193 -209 -193 -193 -193 -193 -177 -209 -209 -209 -209 -209 -209 -209 -209 -209 572 -209 -209 -209 -209 -209 -209 -193 -209 58 59 66 61 61 61 60 61 60 62 62 57 60 61 62 63 66 67 68 67 67 66 63 60 58 58 57 56 57 61 63 60 61 61 60 60 62 65 63 61 62 63 63 64 64 67 71 65 65 68 67 66 65 67 66 69 75 77 78 79 81 82 83 82 85 -209 92 91 92 92 92 91 92 92 94 96 96 99 98 98 98 98 98 96 97 -177 -193 115 117 114 115 114 114 114 112 112 112 110 116 117 119 121 125 127 132 130 133 133 134 135 134 135 135 -193 -193 -193 137 -193 -193 140 140 -193 -193 -193 36 35 -193 154 0 0 0 0 0
    0 0 0 0 0 0 0 0 0 0 0 0 0 0 0 0 0 0 0 0 0 0 0 0 0 0 0 0 0 0 0 0 0 0 0 0 0 0 0 0 0 0 0 0 0 0 0 0 0 0 0 0 0 0 0 0 0 0 0 0 0 0 0 0 0 0 0 0 0 48 49 50 51 51 44 52 58 56 57 58 59 58 57 57 48 47 47 48 51 52 54 -193 56 57 58 56 55 55 55 55 55 54 54 53 55 56 56 57 57 56 55 56 55 54 51 50 51 53 51 52 53 50 49 51 51 51 48 51 51 44 54 54 55 -193 -193 -193 51 51 -209 -209 -209 -209 -209 -209 -209 -209 -209 18 -209 -209 157 153 -193 -209 -209 -209 -209 -209 -209 -193 -177 211 -193 -193 275 -193 -209 -193 -193 -209 -209 -209 -209 -209 -209 -209 -209 -209 -209 -209 -193 -209 -209 -209 -209 -193 -209 58 58 66 61 61 61 60 61 59 61 61 57 59 61 62 63 67 67 69 69 69 68 67 61 60 60 59 58 59 64 64 61 62 63 61 62 64 65 63 61 63 62 62 62 62 66 71 64 66 68 67 66 65 67 66 68 75 77 78 79 81 83 83 82 85 -193 92 92 92 92 92 91 -193 92 94 95 96 98 97 98 98 97 98 96 96 -177 -193 114 -193 114 115 114 114 114 112 112 112 110 116 116 119 121 126 127 132 130 133 133 134 135 134 135 135 -193 -193 -193 137 -193 -193 139 139 -193 -193 -193 35 34 -193 154 0 0 0 0 0
    0 0 0 0 0 0 0 0 0 0 0 0 0 0 0 0 0 0 0 0 0 0 0 0 0 0 0 0 0 0 0 0 0 0 0 0 0 0 0 0 0 0 0 0 0 0 0 0 0 0 0 0 0 0 0 0 0 0 0 0 0 0 0 0 0 0 0 0 0 46 47 47 50 53 51 53 58 59 58 57 57 56 54 55 47 46 45 47 49 51 54 55 55 56 57 55 55 55 55 54 55 54 54 53 55 56 56 57 57 56 54 56 55 54 50 50 51 53 51 52 53 50 49 51 51 50 48 51 50 44 54 53 54 50 -193 -193 49 49 54 -209 -209 -209 -193 49 -209 -209 -209 -209 -209 -209 -209 157 -209 -209 -209 -209 -209 -209 -209 -209 -209 -209 -209 -193 -193 -193 -209 -193 -209 -209 -209 -209 -209 -209 -209 -209 -209 -209 -209 -193 116 -209 -209 -209 -209 -193 -209 58 58 65 61 60 61 60 61 59 61 61 57 58 60 61 62 67 68 70 70 71 70 71 66 63 63 63 60 62 67 65 62 64 64 62 63 65 65 63 61 62 61 60 60 59 62 71 64 65 68 66 65 65 67 66 68 76 77 78 80 82 83 83 82 85 -177 93 92 92 92 92 91 -193 92 94 95 95 98 97 97 97 97 97 96 95 -177 -193 114 -193 114 115 114 114 114 112 112 112 110 115 115 118 121 125 128 132 130 133 133 134 135 134 135 135 -193 -193 -193 137 -193 -193 139 139 -193 -193 -193 34 34 -193 153 0 0 0 0 0
    0 0 0 0 0 0 0 0 0 0 0 0 0 0 0 0 0 0 0 0 0 0 0 0 0 0 0 0 0 0 0 0 0 0 0 0 0 0 0 0 0 0 0 0 0 0 0 0 0 0 0 0 0 0 0 0 0 0 0 0 0 0 0 0 0 0 0 0 0 45 46 46 49 51 51 54 57 60 59 57 56 56 53 54 46 45 44 46 48 51 54 55 55 56 57 55 55 55 55 54 54 54 54 53 54 56 56 56 56 56 55 56 55 54 50 49 51 52 51 51 53 50 49 51 52 50 49 51 51 45 55 55 57 -193 -209 -209 51 50 54 -193 56 -209 50 49 -193 -209 -209 -209 -209 -209 -209 161 -209 -209 -209 -209 -209 -209 -209 -209 -209 -209 -209 -209 -209 -209 -209 -209 -209 -209 -209 -209 -209 -209 -209 -209 -209 -209 -209 -193 -209 -209 -209 -209 -209 -193 -209 58 58 65 61 60 60 60 61 59 61 61 56 58 60 60 62 66 69 70 70 72 72 73 69 69 69 69 66 69 69 67 63 67 66 63 66 65 64 62 60 61 60 58 59 56 -193 -193 64 65 68 66 65 65 67 67 69 76 78 79 80 83 83 83 82 -193 -193 93 92 92 92 91 91 -193 92 94 95 95 98 97 97 98 97 97 95 94 -177 66 -193 -193 114 115 114 113 114 111 112 112 110 115 115 118 120 125 127 132 130 133 133 134 134 134 135 135 -193 -193 -193 137 -193 137 139 139 -193 -193 35 34 33 36 153 0 0 0 0 0
    0 0 0 0 0 0 0 0 0 0 0 0 0 0 0 0 0 0 0 0 0 0 0 0 0 0 0 0 0 0 0 0 0 0 0 0 0 0 0 0 0 0 0 0 0 0 0 0 0 0 0 0 0 0 0 0 0 0 0 0 0 0 0 0 0 0 0 0 0 44 45 45 47 48 46 52 56 60 59 57 58 57 53 55 47 45 45 48 50 52 55 56 56 57 57 56 55 55 55 55 55 54 53 53 54 55 56 56 55 55 55 56 55 54 50 50 51 52 51 51 53 50 49 51 52 51 50 52 52 46 57 56 58 -209 -209 -209 54 54 -193 -193 -209 -209 53 -193 -209 -209 -209 -209 -209 -209 -209 -193 -209 -209 -209 -209 -209 -209 -209 -209 -209 -209 -193 -209 -193 -209 -209 -209 -209 -209 -209 -209 -209 -209 -209 -209 -209 -209 -209 -209 -209 -209 -209 -209 -209 -193 -209 58 58 65 61 60 60 60 60 59 60 60 56 57 59 60 61 67 69 70 70 71 72 73 70 70 71 71 69 70 70 68 64 67 66 62 66 63 63 62 61 60 59 57 58 54 -193 -193 63 65 69 66 65 65 67 67 70 77 78 79 80 83 83 83 82 85 -193 93 92 92 92 91 -193 -193 -193 94 95 96 98 98 98 98 98 97 96 93 -177 66 -193 -193 114 114 113 113 113 111 111 112 109 114 115 119 121 125 127 132 130 133 132 133 134 134 135 135 -193 -193 -193 137 -193 137 140 139 -193 -193 34 33 32 35 -209 0 0 0 0 0
    0 0 0 0 0 0 0 0 0 0 0 0 0 0 0 0 0 0 0 0 0 0 0 0 0 0 0 0 0 0 0 0 0 0 0 0 0 0 0 0 0 0 0 0 0 0 0 0 0 0 0 0 0 0 0 0 0 0 0 0 0 0 0 0 0 0 0 0 0 43 44 44 45 44 44 45 50 57 56 54 54 52 48 52 45 44 45 48 50 53 56 56 56 57 57 56 55 55 55 55 55 54 54 53 54 55 55 56 54 54 55 55 54 54 51 50 52 52 51 51 53 50 49 51 52 51 51 52 52 47 57 57 58 -193 -209 -193 58 59 -193 -193 -193 68 -209 -209 -209 -209 -209 -209 -209 -209 -209 -209 -209 -209 -209 -209 -193 -209 -209 -209 -209 -209 -209 -209 -209 -209 -209 -209 -209 -209 -209 -209 -209 -209 -193 62 68 -193 18 -209 -209 -193 -209 -209 -209 -193 -209 57 57 65 60 60 60 59 60 59 60 60 55 56 58 58 60 68 69 70 70 72 73 74 72 72 70 72 71 70 69 67 62 65 63 60 64 62 63 62 61 60 58 57 57 52 -193 -193 63 64 69 66 65 65 67 67 69 76 77 78 80 82 83 83 82 85 -193 94 93 92 92 92 -193 -193 -193 94 95 96 99 98 99 99 98 98 97 94 -177 -193 113 -193 -193 -193 113 113 113 111 111 112 109 114 115 119 121 125 127 132 130 133 132 133 134 134 135 135 -193 -209 -193 138 -193 138 140 139 -193 -193 34 33 32 35 -209 0 0 0 0 0
    0 0 0 0 0 0 0 0 0 0 0 0 0 0 0 0 0 0 0 0 0 0 0 0 0 0 0 0 0 0 0 0 0 0 0 0 0 0 0 0 0 0 0 0 0 0 0 0 0 0 0 0 0 0 0 0 0 0 0 0 0 0 0 0 0 0 0 0 0 44 44 44 44 44 44 44 46 51 51 51 51 49 47 49 46 46 46 49 52 54 56 56 56 56 57 56 55 55 56 55 55 54 54 54 54 55 55 55 53 53 55 55 55 54 51 51 52 52 51 51 53 50 49 51 51 50 51 52 52 48 57 57 58 -209 -209 -209 -193 -193 -193 -209 -193 70 -209 -209 -209 -209 -209 -209 -209 -209 -209 -209 -209 63 -193 -193 66 66 -193 -209 -209 -209 -209 -209 -209 -209 -209 -209 -209 -209 -209 -209 -209 -209 61 61 66 -193 17 -193 -209 -209 -209 -209 -209 55 -209 56 56 64 60 59 59 59 60 59 60 60 54 56 57 58 59 69 70 70 70 72 73 74 72 72 71 73 73 71 68 65 60 62 61 58 64 60 62 62 62 60 59 58 58 51 -193 -177 63 64 69 65 65 65 67 67 69 76 77 77 79 82 83 83 82 85 374 94 93 93 92 92 92 92 93 95 95 97 99 99 99 99 99 99 98 95 -177 -193 111 -193 -193 -193 113 112 112 111 111 -177 109 114 115 119 122 125 128 132 130 133 132 133 134 134 135 135 -193 -209 -193 138 449 138 140 139 -193 -193 34 33 32 35 -193 0 0 0 0 0
    0 0 0 0 0 0 0 0 0 0 0 0 0 0 0 0 0 0 0 0 0 0 0 0 0 0 0 0 0 0 0 0 0 0 0 0 0 0 0 0 0 0 0 0 0 0 0 0 0 0 0 0 0 0 0 0 0 0 0 0 0 0 0 0 0 0 0 0 0 44 44 44 44 44 44 45 46 48 47 47 48 48 47 48 47 47 48 51 53 55 56 56 56 56 56 56 55 55 55 55 55 54 54 54 55 56 55 55 53 54 54 55 55 54 51 51 52 52 51 51 53 50 49 51 51 50 51 52 52 47 57 58 59 -193 -193 -209 -193 -193 -193 -209 -209 -193 -209 -209 -209 -193 -193 -209 -209 -209 -209 -209 -209 62 -193 62 67 66 67 -209 -209 -209 -209 -209 -209 -209 -209 -209 -209 -193 -209 -209 -209 -209 -209 59 63 -209 -209 -209 -209 -209 -209 -209 -209 54 -209 55 55 62 59 58 59 59 59 59 61 60 55 56 57 58 59 67 68 69 69 70 73 73 71 72 71 73 73 70 67 61 57 59 58 58 65 60 62 64 64 61 60 58 58 49 -193 -193 63 64 68 65 64 64 67 67 69 76 77 77 79 81 82 82 81 85 -193 94 93 93 92 92 92 93 -193 96 96 98 100 100 100 100 99 99 98 96 -177 -193 -193 -193 -193 -193 113 112 112 111 111 112 108 113 114 118 121 125 128 132 130 133 132 133 134 134 134 134 -193 -209 -177 138 -193 138 140 139 143 -193 33 33 31 -193 -193 0 0 0 0 0
    0 0 0 0 0 0 0 0 0 0 0 0 0 0 0 0 0 0 0 0 0 0 0 0 0 0 0 0 0 0 0 0 0 0 0 0 0 0 0 0 0 0 0 0 0 0 0 0 0 0 0 0 0 0 0 0 0 0 0 0 0 0 0 0 0 0 0 0 0 44 44 44 44 43 44 44 45 45 45 45 46 48 49 50 49 50 51 52 54 55 56 56 56 56 56 56 55 55 55 55 54 54 54 54 54 56 55 54 51 55 54 55 56 -193 51 52 53 52 51 52 53 50 49 51 51 51 51 52 52 47 57 59 -193 -193 -209 -209 -193 -193 -193 -193 -209 -209 -209 -193 -193 130 131 -209 -209 -209 -209 -209 -193 65 64 65 67 67 67 -209 -209 -209 -209 -209 -209 -209 -209 -209 -193 -209 -209 -209 -209 -209 -209 -209 64 -209 -209 -193 -209 -193 -193 -209 -209 53 -193 54 55 61 58 58 58 58 59 59 61 60 55 57 57 58 59 67 67 67 68 69 72 72 71 71 67 70 71 60 59 58 55 57 57 59 65 60 63 65 66 62 61 59 -193 47 56 -193 65 65 68 65 65 65 67 67 69 76 77 77 79 81 82 82 80 84 -193 94 93 93 92 92 92 93 94 96 97 98 100 100 100 100 100 100 99 98 -177 -193 -193 -193 -193 -193 113 112 113 111 111 113 108 113 113 117 120 123 126 131 129 132 132 133 134 134 134 134 -193 -209 -177 138 -193 138 140 139 143 -193 33 32 30 -193 152 0 0 0 0 0
    0 0 0 0 0 0 0 0 0 0 0 0 0 0 0 0 0 0 0 0 0 0 0 0 0 0 0 0 0 0 0 0 0 0 0 0 0 0 0 0 0 0 0 0 0 0 0 0 0 0 0 0 0 0 0 0 0 0 0 0 0 0 0 0 0 0 0 0 0 44 44 44 44 44 43 44 44 44 44 45 46 47 48 51 50 50 51 53 54 -193 57 -193 56 56 55 55 54 55 55 55 54 54 54 55 54 56 55 54 51 56 56 56 58 -193 52 52 53 52 52 52 53 50 48 51 51 51 52 52 52 47 58 61 -193 -193 -209 -193 -193 -193 22 -177 29 -193 -193 -193 -193 130 131 -209 -209 -209 -209 -209 63 62 63 64 66 66 -193 -209 -193 -209 -209 -209 -209 -193 -209 -209 50 -209 -209 -209 -209 -209 -209 -209 -193 -209 -193 -193 -193 -209 -193 -209 -209 54 -193 53 54 60 58 57 57 58 59 59 62 61 56 58 58 59 59 65 65 66 67 67 71 71 69 69 64 67 68 60 58 58 55 57 57 59 64 60 63 66 67 63 63 61 -193 48 -209 -209 66 66 68 65 64 65 67 67 69 75 76 77 79 81 81 81 80 84 -193 94 93 93 93 92 93 94 94 97 97 99 101 101 101 101 100 100 100 99 -177 -177 111 -193 -193 -193 114 113 113 112 111 113 108 113 112 117 120 124 126 131 129 132 131 133 134 134 134 134 -193 -209 -177 138 -193 138 141 139 143 144 -193 33 31 -193 -193 0 0 0 0 0
    0 0 0 0 0 0 0 0 0 0 0 0 0 0 0 0 0 0 0 0 0 0 0 0 0 0 0 0 0 0 0 0 0 0 0 0 0 0 0 0 0 0 0 0 0 0 0 0 0 0 0 0 0 0 0 0 0 0 0 0 0 0 0 0 0 0 0 0 0 44 44 43 43 43 43 43 44 43 43 44 46 46 48 50 52 52 53 54 56 -193 58 -193 -193 56 55 55 54 54 55 54 54 54 55 56 55 56 55 53 51 56 56 56 57 58 52 52 53 52 51 51 53 50 48 51 52 51 52 52 52 47 58 61 -193 -193 -209 -193 -193 -193 21 25 29 -193 -193 -193 -193 -209 -209 -209 -209 -209 -209 -209 -193 61 62 64 65 66 -193 -193 -209 -209 -209 -209 437 -193 -193 -209 -209 -209 -209 -193 -193 -193 -193 -193 -193 -193 -193 -193 14 18 -209 -209 -209 54 52 53 54 59 57 57 57 58 59 60 62 62 57 58 58 60 59 63 64 64 64 64 69 70 68 69 61 63 66 59 58 57 55 57 57 59 64 60 64 67 68 65 67 67 -209 54 -209 73 68 67 68 64 63 64 66 65 68 74 75 76 77 80 80 80 80 84 86 94 93 94 93 93 93 94 94 97 97 99 101 101 101 101 101 101 101 99 -193 -193 112 -193 114 115 114 113 113 112 111 113 108 112 111 117 120 123 126 131 -193 132 131 133 134 134 134 134 -193 -209 -177 138 -193 138 141 139 144 145 -193 34 31 34 -193 0 0 0 0 0
    0 0 0 0 0 0 0 0 0 0 0 0 0 0 0 0 0 0 0 0 0 0 0 0 0 0 0 0 0 0 0 0 0 0 0 0 0 0 0 0 0 0 0 0 0 0 0 0 0 0 0 0 0 0 0 0 0 0 0 0 0 0 0 0 0 0 0 0 0 43 43 43 43 42 42 42 43 43 43 44 45 45 46 49 51 53 55 56 58 58 58 58 56 55 55 55 54 54 54 54 54 54 55 56 55 56 55 54 54 58 57 57 58 59 52 52 53 52 51 51 53 50 48 51 52 51 52 52 52 47 58 61 -193 -193 -193 15 -193 -193 19 -193 -193 -209 -209 -209 -193 -193 -209 -209 -209 -209 -209 -209 -209 59 60 -193 -193 63 63 -193 -209 -209 -209 -209 -193 -193 -209 -193 -209 -209 -193 -193 -193 -193 -193 -193 -193 -193 -193 -193 -209 -193 636 -209 -209 54 51 51 54 58 57 57 57 58 59 60 62 62 57 58 58 60 59 62 63 63 63 63 67 68 64 65 58 58 61 59 58 58 56 58 57 60 64 60 64 67 68 66 69 68 67 65 69 71 68 67 68 64 63 64 65 63 66 73 74 74 76 77 78 79 79 83 85 94 93 93 93 93 93 94 94 97 97 99 101 101 101 -193 100 101 101 99 106 -193 111 118 114 115 113 113 113 112 111 113 108 112 112 116 119 123 125 131 128 132 131 132 133 133 134 134 -177 -193 644 138 -193 138 141 139 143 144 -193 -193 32 34 -193 0 0 0 0 0
    0 0 0 0 0 0 0 0 0 0 0 0 0 0 0 0 0 0 0 0 0 0 0 0 0 0 0 0 0 0 0 0 0 0 0 0 0 0 0 0 0 0 0 0 0 0 0 0 0 0 0 0 0 0 0 0 0 0 0 0 0 0 0 0 0 0 0 0 0 44 44 43 42 42 42 42 42 43 43 43 44 45 46 49 51 53 54 56 57 0 -256 -1 31228 55 54 54 54 54 54 54 54 55 56 57 56 57 56 55 57 59 58 57 58 58 52 53 54 52 52 52 53 50 48 52 52 51 52 52 52 47 57 61 -193 -193 -193 15 14 -177 -177 -209 -209 -209 -209 -209 -193 -177 -209 -209 -209 -209 -209 -209 -209 59 60 -193 -193 -193 -193 -193 -209 -209 -193 -209 -209 500 -209 -209 -209 -193 -193 -193 -193 -193 -193 -193 -193 650 651 -209 -209 -209 -193 -209 -209 54 51 51 53 58 57 56 57 58 59 60 63 62 57 58 58 60 59 61 64 64 64 63 67 69 64 64 57 56 57 57 57 56 55 56 57 60 63 60 65 67 68 67 70 69 68 69 69 70 68 67 68 64 64 64 64 63 65 71 72 73 74 75 76 76 76 82 85 94 93 93 93 93 93 95 94 97 97 99 100 101 101 -193 100 101 101 100 105 -209 111 118 114 115 113 113 112 112 112 113 107 113 112 118 121 123 125 131 128 132 131 132 133 133 134 134 -177 -193 643 138 -193 139 141 139 143 144 -193 -193 -193 -193 149 0 0 0 0 0
    0 0 0 0 0 0 0 0 0 0 0 0 0 0 0 0 0 0 0 0 0 0 0 0 0 0 0 0 0 0 0 0 0 0 0 0 0 0 0 0 0 0 0 0 0 0 0 0 0 0 0 0 0 0 0 0 0 0 0 0 0 0 0 0 0 0 0 0 0 45 44 43 42 42 43 42 42 43 43 44 45 46 47 48 50 52 53 54 56 56 56 56 55 54 54 54 54 54 54 54 53 54 56 57 57 57 57 56 57 60 58 58 59 58 53 53 54 53 52 52 53 50 48 52 52 51 52 52 52 46 54 -193 -193 -193 -193 14 14 -177 -177 -209 -209 -209 -209 -209 -209 -193 -209 -209 -209 -209 -209 -209 -209 -193 -209 -193 -193 -209 -209 -209 -209 -209 -209 -209 -209 -209 -209 -209 -209 -209 -193 -193 -193 -193 -193 -193 481 650 651 -209 -209 -209 -209 -209 -209 54 51 51 53 58 57 56 57 57 59 60 63 62 57 58 58 60 59 60 62 62 62 62 67 69 62 61 -193 54 55 56 56 55 54 56 57 60 62 60 64 66 67 67 69 68 67 69 69 70 68 67 67 64 64 64 64 63 64 69 69 69 71 72 73 73 74 78 85 94 93 93 93 93 93 95 94 97 96 98 100 100 100 100 100 100 100 100 105 -209 112 118 115 115 113 113 113 113 112 113 107 112 112 118 121 124 126 131 128 132 131 132 133 133 134 134 -177 -193 -177 138 -193 139 142 139 144 146 -193 -193 -193 -193 150 0 0 0 0 0
    0 0 0 0 0 0 0 0 0 0 0 0 0 0 0 0 0 0 0 0 0 0 0 0 0 0 0 0 0 0 0 0 0 0 0 0 0 0 0 0 0 0 0 0 0 0 0 0 0 0 0 0 0 0 0 0 0 0 0 0 0 0 0 0 0 0 0 0 0 46 45 43 42 42 43 42 42 43 43 44 45 46 47 48 51 52 53 54 56 56 56 56 55 54 53 53 54 53 53 53 53 54 55 56 56 56 56 55 56 59 58 59 60 60 53 53 54 53 52 52 53 50 48 52 52 51 52 51 52 46 49 57 -209 -209 -209 -209 16 19 21 -209 29 -209 -209 -209 -209 -209 -209 -209 -193 -209 -209 -209 -209 -209 -209 -209 -193 -209 -209 -209 -209 -193 -209 -209 59 59 60 59 -209 -193 59 59 59 58 -193 -209 -193 -193 651 -209 -209 -209 -209 -209 -209 54 50 51 53 58 57 57 57 57 59 60 63 62 57 58 58 59 59 58 60 59 60 60 62 65 57 -193 53 53 55 56 56 56 55 56 59 61 62 60 64 65 66 66 69 67 67 69 69 69 68 68 67 64 65 64 64 62 63 67 67 67 69 69 69 70 72 75 81 93 91 92 92 92 92 94 94 96 96 98 99 100 100 100 99 100 100 98 105 -193 113 119 115 116 114 114 113 113 112 113 107 111 110 118 121 124 126 131 129 132 131 133 133 133 134 134 -177 -193 -177 -193 -193 139 142 140 146 147 -193 -193 -193 -193 150 0 0 0 0 0
    0 0 0 0 0 0 0 0 0 0 0 0 0 0 0 0 0 0 0 0 0 0 0 0 0 0 0 0 0 0 0 0 0 0 0 0 0 0 0 0 0 0 0 0 0 0 0 0 0 0 0 0 0 0 0 0 0 0 0 0 0 0 0 0 0 0 0 0 0 47 46 44 42 41 42 42 42 43 44 44 44 46 47 48 51 53 53 53 55 56 56 56 55 54 53 53 54 53 53 53 53 54 55 56 56 55 55 55 56 58 58 59 60 60 54 54 55 53 53 52 53 50 48 52 52 51 52 51 52 46 48 56 55 53 51 -209 -209 32 -209 28 31 36 -209 -209 -209 -193 -193 -209 49 -193 54 -193 54 54 54 -209 -193 -209 -209 -209 47 55 55 56 57 58 59 59 59 62 60 60 61 60 -193 -209 -209 -209 -193 -209 -209 -209 -193 -209 -209 54 50 51 53 57 57 56 57 57 58 60 63 62 57 58 57 58 58 57 59 58 59 59 59 62 -193 54 54 54 56 57 57 57 56 58 62 63 62 61 63 64 64 65 69 66 66 69 69 69 68 68 67 64 65 65 64 62 62 65 65 66 67 67 67 68 71 72 76 91 90 91 91 91 91 93 93 95 95 97 98 99 100 100 99 100 100 99 105 -193 113 119 116 116 115 114 114 114 113 114 108 113 112 118 121 124 126 131 129 133 131 133 133 133 134 -193 -177 -193 -177 -193 -193 139 142 139 146 147 149 149 150 -193 150 0 0 0 0 0
    0 0 0 0 0 0 0 0 0 0 0 0 0 0 0 0 0 0 0 0 0 0 0 0 0 0 0 0 0 0 0 0 0 0 0 0 0 0 0 0 0 0 0 0 0 0 0 0 0 0 0 0 0 0 0 0 0 0 0 0 0 0 0 0 0 0 0 0 0 49 46 45 42 43 44 44 44 45 45 46 46 47 48 48 50 53 51 52 53 54 55 54 54 53 52 53 54 53 53 53 54 55 56 56 56 55 55 56 56 57 58 59 59 60 54 54 55 53 53 51 52 50 48 51 51 50 52 52 52 47 49 56 55 53 52 45 41 39 41 35 36 -193 -209 -209 -209 -193 -193 -193 51 53 54 54 53 53 50 49 50 49 48 46 47 50 51 53 54 56 57 58 -193 -193 60 60 63 63 63 63 68 -209 -209 -209 -209 -209 -209 -209 -209 54 50 51 53 57 57 57 57 57 58 60 63 62 57 58 57 58 58 57 58 58 58 58 57 60 57 56 56 55 56 58 58 59 58 58 65 64 62 61 62 63 63 65 69 65 66 68 69 68 68 68 67 64 66 65 63 62 62 63 62 62 64 64 64 66 69 70 74 89 89 90 89 90 90 92 92 95 95 96 98 99 99 100 99 100 100 99 103 -193 113 119 116 116 115 115 115 115 115 115 109 115 115 119 121 124 125 131 129 133 131 133 133 133 134 134 -177 -193 -177 -193 -193 138 141 138 144 146 148 148 149 -193 150 0 0 0 0 0
    0 0 0 0 0 0 0 0 0 0 0 0 0 0 0 0 0 0 0 0 0 0 0 0 0 0 0 0 0 0 0 0 0 0 0 0 0 0 0 0 0 0 0 0 0 0 0 0 0 0 0 0 0 0 0 0 0 0 0 0 0 0 0 0 0 0 0 0 0 50 47 46 45 47 46 47 46 48 48 49 48 49 49 49 50 53 51 52 53 53 54 53 54 53 51 53 53 53 53 53 54 55 56 57 57 56 57 57 57 56 57 57 58 59 54 54 55 53 53 51 52 50 48 51 51 50 52 52 52 49 51 57 56 55 55 52 51 46 50 -193 38 -193 -193 -193 -193 50 52 52 53 53 54 54 54 54 51 50 50 48 49 48 49 51 52 54 55 56 57 57 57 60 -209 -209 64 64 64 63 66 -209 -209 -209 -209 -193 -209 -209 -209 54 50 51 53 58 57 57 57 58 58 60 62 62 57 57 57 57 57 56 58 57 57 57 58 60 58 58 59 56 58 60 60 60 58 59 69 64 62 61 63 63 62 65 69 65 66 68 68 68 67 68 67 64 66 66 63 62 62 64 62 62 64 64 63 65 68 69 72 83 83 87 88 88 88 90 91 94 94 96 98 98 99 99 99 100 99 99 102 -193 113 120 116 117 115 115 115 115 115 115 108 115 115 120 122 125 126 132 130 133 131 133 133 133 134 134 -193 -193 -193 -193 -193 138 141 138 143 145 147 147 148 149 149 0 0 0 0 0
    0 0 0 0 0 0 0 0 0 0 0 0 0 0 0 0 0 0 0 0 0 0 0 0 0 0 0 0 0 0 0 0 0 0 0 0 0 0 0 0 0 0 0 0 0 0 0 0 0 0 0 0 0 0 0 0 0 0 0 0 0 0 0 0 0 0 0 0 0 51 50 48 47 49 48 49 48 50 50 50 50 51 50 50 50 53 51 52 53 52 53 53 53 52 51 53 53 53 53 54 54 56 57 57 57 57 57 57 56 56 56 57 58 58 54 54 55 53 53 51 52 50 48 51 51 49 53 52 53 51 52 57 56 55 55 54 56 55 57 47 41 -209 -193 -193 50 49 51 52 53 53 53 54 55 55 52 52 51 50 52 51 51 52 52 54 55 55 55 53 55 -193 -209 -209 63 64 62 60 -209 -209 -209 51 41 42 -193 47 -193 54 50 51 53 58 57 57 57 58 58 60 62 62 56 57 56 57 56 56 58 58 56 57 58 59 59 59 60 57 57 60 60 60 58 61 70 66 63 63 64 64 62 66 69 64 65 68 68 67 67 67 67 64 67 67 65 65 65 67 65 64 64 64 63 65 66 68 72 76 77 82 83 84 86 88 89 92 93 94 96 97 98 99 98 99 98 98 101 -193 113 119 116 116 115 115 115 116 115 115 108 114 114 119 122 124 126 131 130 133 131 133 133 133 134 134 133 135 447 -193 -193 138 141 139 143 144 147 147 148 148 148 0 0 0 0 0
    0 0 0 0 0 0 0 0 0 0 0 0 0 0 0 0 0 0 0 0 0 0 0 0 0 0 0 0 0 0 0 0 0 0 0 0 0 0 0 0 0 0 0 0 0 0 0 0 0 0 0 0 0 0 0 0 0 0 0 0 0 0 0 0 0 0 0 0 0 52 51 49 48 49 49 49 48 50 50 51 51 52 51 51 50 53 50 51 52 51 51 52 52 52 51 53 53 53 53 53 54 55 57 57 56 55 56 56 56 55 56 56 58 59 54 54 55 53 53 52 52 51 47 51 51 49 53 52 53 51 52 56 56 55 55 54 57 57 58 -193 44 -209 -193 50 49 48 50 52 53 53 53 54 55 55 53 53 52 51 53 51 51 51 52 53 53 54 53 48 52 51 45 -209 -209 59 57 55 57 55 53 54 49 47 -193 52 52 55 51 51 53 58 57 57 57 58 58 60 62 62 56 56 56 56 56 56 58 58 57 57 57 59 58 58 58 56 56 58 58 58 56 66 72 67 63 64 64 64 62 66 68 62 63 67 67 66 66 67 67 65 69 70 68 69 70 71 70 69 69 68 67 67 68 69 72 74 75 77 77 78 83 85 87 90 91 93 94 95 96 97 97 98 97 97 100 -193 111 119 116 116 115 115 115 116 116 115 108 115 115 119 121 124 126 131 130 133 131 133 133 133 134 134 133 135 447 -193 -193 138 141 139 143 144 147 147 148 149 148 0 0 0 0 0
    0 0 0 0 0 0 0 0 0 0 0 0 0 0 0 0 0 0 0 0 0 0 0 0 0 0 0 0 0 0 0 0 0 0 0 0 0 0 0 0 0 0 0 0 0 0 0 0 0 0 0 0 0 0 0 0 0 0 0 0 0 0 0 0 0 0 0 0 0 52 52 50 48 49 48 48 48 51 51 51 52 53 52 52 51 53 50 51 51 52 51 52 53 52 51 54 54 54 54 54 55 56 58 57 57 56 56 55 55 54 55 56 58 59 55 55 56 53 53 52 52 51 47 51 51 49 54 53 53 52 52 56 55 55 54 52 57 57 57 55 42 49 -193 48 47 47 48 52 53 53 53 54 56 56 54 54 53 52 54 52 52 51 52 54 54 54 53 48 53 52 48 -209 -209 -193 55 53 55 55 54 55 53 52 -193 -193 55 56 51 51 54 58 57 57 57 57 58 60 63 62 57 56 56 56 56 56 57 57 56 56 57 57 57 57 57 55 55 56 56 56 56 72 72 68 63 64 64 64 62 66 67 62 63 66 67 66 66 67 67 66 70 71 71 73 74 74 73 73 72 71 69 68 69 70 71 73 73 75 75 75 79 82 84 89 90 92 93 94 95 96 96 97 97 97 99 -193 109 -193 115 116 115 115 115 117 116 116 109 117 117 121 122 125 127 131 130 133 131 133 133 133 134 134 134 135 447 -193 -193 138 141 139 143 145 147 147 148 149 148 0 0 0 0 0
    0 0 0 0 0 0 0 0 0 0 0 0 0 0 0 0 0 0 0 0 0 0 0 0 0 0 0 0 0 0 0 0 0 0 0 0 0 0 0 0 0 0 0 0 0 0 0 0 0 0 0 0 0 0 0 0 0 0 0 0 0 0 0 0 0 0 0 0 0 52 52 50 48 49 48 49 48 50 51 51 52 53 52 52 51 54 51 51 52 52 52 53 53 52 51 54 54 54 54 54 55 57 58 57 57 56 56 55 55 54 55 55 58 59 55 55 56 54 54 52 52 52 47 51 51 49 54 53 53 52 53 56 55 55 54 53 57 57 57 40 39 -209 -193 47 47 46 47 52 54 53 54 54 57 56 55 55 54 54 55 53 53 52 53 54 54 55 54 49 55 55 52 -193 -193 -193 -193 -193 -193 -193 54 55 54 53 55 55 56 56 52 52 54 58 57 57 57 57 58 60 63 62 56 56 55 55 55 55 56 56 55 56 56 56 56 55 55 55 55 55 51 56 58 70 72 69 65 64 64 64 63 66 67 62 63 66 66 66 66 67 67 67 72 73 73 75 77 77 76 76 74 74 72 71 71 71 71 72 72 74 73 74 76 78 80 87 89 90 92 92 93 94 94 95 95 94 95 86 109 118 115 116 115 116 116 116 116 116 109 116 115 120 122 124 126 131 130 133 131 133 133 133 134 134 134 135 448 -193 -193 138 140 138 143 144 147 147 148 149 148 0 0 0 0 0
    0 0 0 0 0 0 0 0 0 0 0 0 0 0 0 0 0 0 0 0 0 0 0 0 0 0 0 0 0 0 0 0 0 0 0 0 0 0 0 0 0 0 0 0 0 0 0 0 0 0 0 0 0 0 0 0 0 0 0 0 0 0 0 0 0 0 0 0 0 52 52 50 47 49 49 50 50 51 51 53 53 54 54 53 52 54 52 52 52 53 52 53 52 52 51 54 54 54 55 55 55 57 58 58 57 57 56 55 55 54 55 55 58 60 55 56 56 54 54 53 52 52 47 50 50 49 54 52 53 53 53 55 55 55 54 54 57 58 57 40 39 -209 -193 48 48 47 48 53 54 53 54 54 57 56 55 55 54 55 56 54 54 53 53 55 55 55 54 51 57 56 56 -193 -193 -193 -193 -193 -193 55 55 55 55 54 56 56 56 56 51 51 54 58 57 57 57 57 57 60 63 62 56 55 55 55 55 55 57 57 56 57 57 57 57 57 57 56 56 56 55 54 56 63 71 70 66 65 65 65 64 67 67 61 62 66 66 66 66 68 68 69 73 76 75 77 79 80 79 78 77 76 74 73 73 73 72 72 72 73 73 73 75 76 78 85 86 88 90 90 91 92 92 93 92 92 92 86 109 117 115 116 115 115 116 116 116 116 109 116 115 119 121 124 127 132 131 133 132 133 133 133 134 134 134 134 447 -193 -193 138 140 138 142 143 146 147 147 148 147 0 0 0 0 0
    0 0 0 0 0 0 0 0 0 0 0 0 0 0 0 0 0 0 0 0 0 0 0 0 0 0 0 0 0 0 0 0 0 0 0 0 0 0 0 0 0 0 0 0 0 0 0 0 0 0 0 0 0 0 0 0 0 0 0 0 0 0 0 0 0 0 0 0 0 52 52 50 48 50 50 51 51 52 52 53 55 55 54 54 53 55 53 53 54 53 53 54 53 52 52 54 54 54 54 55 55 57 58 58 57 57 56 55 55 55 55 54 57 59 54 55 56 53 53 52 52 52 46 50 50 50 54 53 53 54 53 56 56 55 55 55 58 59 58 57 45 -193 -193 49 50 49 50 54 54 54 54 55 -193 -193 55 55 55 56 56 55 54 53 54 55 55 55 54 51 57 57 57 -209 -193 -193 -193 -193 56 57 56 56 56 56 56 56 56 56 51 51 53 57 57 57 57 57 57 60 62 62 57 56 55 56 55 56 58 56 55 56 56 57 57 57 57 56 57 57 57 58 57 62 68 71 67 67 67 68 66 68 67 62 63 67 66 66 66 68 69 71 74 76 76 77 78 79 79 78 78 77 76 76 75 75 74 73 73 74 73 73 75 76 78 84 85 86 88 89 89 90 91 91 91 91 90 86 107 116 113 114 114 114 115 115 115 115 109 116 115 119 121 124 127 132 131 133 132 133 133 133 134 134 133 134 -193 -193 -193 138 139 138 142 142 146 146 147 147 147 0 0 0 0 0
    0 0 0 0 0 0 0 0 0 0 0 0 0 0 0 0 0 0 0 0 0 0 0 0 0 0 0 0 0 0 0 0 0 0 0 0 0 0 0 0 0 0 0 0 0 0 0 0 0 0 0 0 0 0 0 0 0 0 0 0 0 0 0 0 0 0 0 0 0 52 52 50 50 51 52 53 52 53 52 53 55 55 54 54 52 55 53 54 54 54 53 54 53 53 52 54 54 54 54 55 55 57 58 57 56 57 56 55 54 54 54 53 56 58 54 54 55 53 53 52 51 52 46 50 51 51 55 53 53 54 54 56 56 56 55 56 58 60 58 58 -225 54 55 49 49 48 51 54 54 54 54 55 403 -193 55 55 55 56 56 55 55 54 54 56 56 55 54 52 57 56 57 56 59 -193 -193 -193 56 57 57 56 56 56 56 56 56 56 51 51 53 -193 57 57 57 57 57 60 63 63 57 56 55 56 55 56 57 57 56 56 57 57 58 58 58 57 58 58 59 59 60 61 66 71 68 68 69 70 69 69 68 63 64 67 67 66 67 69 70 71 74 76 76 77 79 79 79 78 78 78 77 78 78 78 77 75 75 77 74 74 75 76 77 82 83 84 86 86 86 88 89 89 89 89 89 86 105 114 111 112 112 113 113 114 114 113 108 114 114 119 121 124 126 132 131 133 132 133 133 133 134 133 133 134 133 137 137 138 140 138 142 142 145 146 146 147 146 0 0 0 0 0
    0 0 0 0 0 0 0 0 0 0 0 0 0 0 0 0 0 0 0 0 0 0 0 0 0 0 0 0 0 0 0 0 0 0 0 0 0 0 0 0 0 0 0 0 0 0 0 0 0 0 0 0 0 0 0 0 0 0 0 0 0 0 0 0 0 0 0 0 0 52 54 52 51 53 54 55 53 54 55 55 56 57 55 55 53 56 55 55 55 55 54 55 54 53 53 54 54 54 54 55 55 56 58 57 56 56 56 55 54 54 54 52 55 57 54 54 55 53 53 52 52 52 46 50 51 52 55 54 54 55 55 57 57 57 55 57 59 61 58 -225 -225 47 53 47 47 46 51 54 53 53 54 54 -193 56 55 55 55 56 57 55 55 54 55 56 56 56 55 54 57 58 58 57 59 -193 -193 -193 55 56 57 56 56 56 56 56 57 57 51 51 53 -209 57 57 57 57 57 60 63 63 57 56 56 56 55 55 57 58 57 57 57 58 58 59 59 58 58 59 59 60 62 62 62 72 69 69 70 71 70 69 68 63 64 67 67 66 67 69 71 72 74 76 76 77 79 79 79 78 78 78 77 79 79 79 79 76 80 81 76 76 76 77 80 83 83 83 84 85 85 86 86 87 87 87 87 86 -177 110 109 110 110 111 111 112 111 110 107 110 110 116 119 122 126 132 131 133 132 133 133 133 134 134 133 134 133 137 137 138 140 139 143 143 146 147 147 147 147 0 0 0 0 0
    0 0 0 0 0 0 0 0 0 0 0 0 0 0 0 0 0 0 0 0 0 0 0 0 0 0 0 0 0 0 0 0 0 0 0 0 0 0 0 0 0 0 0 0 0 0 0 0 0 0 0 0 0 0 0 0 0 0 0 0 0 0 0 0 0 0 0 0 0 53 -193 55 55 55 58 59 58 58 59 58 58 58 57 56 55 57 56 56 56 56 55 56 55 54 54 55 55 55 54 55 55 56 58 56 55 55 55 55 53 55 54 52 55 58 54 55 55 53 53 53 52 53 47 50 52 52 55 54 54 55 55 57 57 57 55 57 59 61 58 -225 -225 46 52 47 47 47 52 53 53 52 54 53 -193 55 54 54 55 56 56 55 55 55 55 56 56 56 55 55 59 60 60 59 59 57 -193 -193 55 56 -193 56 56 56 57 57 57 57 52 51 53 -193 57 57 57 57 -193 61 64 63 57 58 57 57 56 57 58 59 58 57 58 58 58 59 59 59 58 60 60 61 62 62 60 70 68 68 69 70 69 68 67 62 64 67 67 67 67 70 72 73 74 76 76 77 78 79 79 78 78 79 77 78 80 80 80 78 84 86 83 84 83 83 84 84 83 82 83 83 83 84 84 85 86 86 87 86 94 107 107 108 108 109 110 110 109 108 106 109 109 114 117 121 124 130 130 133 131 133 133 133 133 133 133 134 133 137 137 138 140 138 142 142 146 147 148 148 148 0 0 0 0 0
    0 0 0 0 0 0 0 0 0 0 0 0 0 0 0 0 0 0 0 0 0 0 0 0 0 0 0 0 0 0 0 0 0 0 0 0 0 0 0 0 0 0 0 0 0 0 0 0 0 0 0 0 0 0 0 0 0 0 0 0 0 0 0 0 0 0 0 0 0 53 58 58 57 58 64 64 61 59 61 59 59 59 58 55 55 58 57 56 56 57 56 57 56 56 55 56 56 55 55 55 54 56 57 56 55 55 54 54 54 55 55 52 55 58 55 56 56 54 54 53 53 54 48 50 52 52 55 54 54 55 55 57 57 57 55 57 60 61 -193 -225 52 48 53 48 48 49 53 53 53 53 54 53 55 55 54 54 55 56 56 54 54 54 54 56 56 56 55 56 60 63 64 62 61 57 -193 -193 55 56 -193 57 56 56 56 56 56 56 52 51 53 -177 57 57 57 57 -193 61 64 63 57 59 58 58 57 57 58 60 58 58 58 58 58 59 60 59 59 60 60 62 63 62 60 64 63 66 67 68 68 66 66 63 65 68 67 67 68 70 72 73 74 76 76 77 78 78 79 77 78 79 78 78 80 80 81 80 86 89 88 90 89 88 88 88 87 86 86 86 84 85 85 85 86 87 87 85 92 105 105 106 107 107 108 108 108 107 106 108 108 111 115 120 123 130 130 133 131 133 133 133 133 133 133 134 132 136 136 138 140 138 141 142 146 147 148 148 148 0 0 0 0 0
    0 0 0 0 0 0 0 0 0 0 0 0 0 0 0 0 0 0 0 0 0 0 0 0 0 0 0 0 0 0 0 0 0 0 0 0 0 0 0 0 0 0 0 0 0 0 0 0 0 0 0 0 0 0 0 0 0 0 0 0 0 0 0 0 0 0 0 0 0 -225 -225 -225 66 70 69 68 64 60 62 60 59 58 57 55 55 58 57 57 57 58 58 57 57 57 55 56 56 56 55 56 55 56 58 56 56 55 55 55 53 55 55 52 55 57 55 55 56 54 53 53 53 54 48 50 52 53 55 55 55 56 55 57 57 57 56 58 60 60 -225 -225 52 48 53 48 48 49 54 53 52 53 54 53 54 54 54 53 55 56 55 53 53 53 54 55 56 56 56 57 59 63 64 63 61 57 54 53 55 55 56 56 56 56 56 56 56 56 52 51 53 -193 57 57 57 57 57 60 63 63 57 57 57 57 56 55 57 60 58 58 58 58 59 60 60 60 59 61 61 62 63 62 61 63 59 65 66 68 68 66 66 63 65 67 67 67 67 70 72 73 74 75 76 76 77 78 78 77 78 78 77 78 79 80 81 81 86 90 91 95 95 93 92 91 90 90 89 88 87 86 86 86 86 87 87 86 90 104 103 105 105 105 106 106 106 106 104 106 107 109 112 118 122 129 129 133 131 133 132 133 133 133 133 133 132 136 136 138 140 138 141 141 144 145 146 147 147 0 0 0 0 0
    0 0 0 0 0 0 0 0 0 0 0 0 0 0 0 0 0 0 0 0 0 0 0 0 0 0 0 0 0 0 0 0 0 0 0 0 0 0 0 0 0 0 0 0 0 0 0 0 0 0 0 0 0 0 0 0 0 0 0 0 0 0 0 0 0 0 0 0 0 -225 -225 -225 68 70 70 69 67 61 63 61 60 59 59 55 56 58 58 58 58 59 58 57 57 57 56 56 56 55 55 56 55 56 57 56 55 55 55 55 53 55 55 52 55 56 55 55 56 54 53 53 53 54 48 50 53 53 55 55 55 57 56 57 58 58 57 59 61 61 -225 -225 52 49 53 49 49 50 54 53 52 53 54 53 54 53 53 52 54 55 55 52 53 53 54 55 56 56 56 57 60 64 65 64 62 57 53 52 55 55 55 56 55 55 55 55 55 55 52 51 53 -193 57 57 57 57 57 60 63 62 56 57 56 54 54 51 56 61 58 59 59 59 60 60 61 61 60 63 62 62 62 62 61 64 60 63 66 69 69 67 67 64 66 68 68 67 67 70 73 73 74 75 76 76 77 78 78 77 78 78 77 77 78 80 81 81 85 91 93 97 98 97 96 95 94 93 91 91 89 88 87 87 86 86 86 84 89 100 99 102 102 102 104 104 103 103 102 105 105 107 109 116 121 128 128 132 130 132 132 132 133 133 132 133 132 136 135 138 140 138 140 141 143 144 145 147 147 0 0 0 0 0
    0 0 0 0 0 0 0 0 0 0 0 0 0 0 0 0 0 0 0 0 0 0 0 0 0 0 0 0 0 0 0 0 0 0 0 0 0 0 0 0 0 0 0 0 0 0 0 0 0 0 0 0 0 0 0 0 0 0 0 0 0 0 0 0 0 0 0 0 0 -225 -225 -225 68 70 70 69 67 61 63 61 60 59 58 55 55 58 58 57 57 59 58 57 57 57 56 56 56 55 55 56 55 56 56 56 55 54 55 55 53 55 55 52 54 56 54 55 55 53 53 52 53 54 48 50 53 54 55 56 56 57 57 58 58 58 57 60 62 61 -225 -225 52 49 52 49 49 50 55 53 52 52 54 53 53 53 53 52 54 55 54 51 52 52 54 55 56 55 56 57 60 65 67 66 63 59 55 53 56 56 56 57 55 55 55 55 55 55 52 51 52 -193 -193 57 57 57 57 60 62 61 55 56 56 51 47 43 57 63 59 59 61 61 61 62 61 62 61 64 63 62 63 62 61 65 59 61 61 68 69 66 67 65 67 68 68 67 68 70 73 73 74 75 76 76 76 77 78 76 77 77 77 76 77 80 80 80 83 90 93 99 99 99 98 98 97 97 95 94 91 90 88 88 88 88 89 88 91 99 97 100 100 100 101 101 101 102 101 103 104 105 108 113 119 127 127 132 130 132 132 132 133 133 132 133 131 136 134 138 139 138 140 141 143 143 144 146 146 0 0 0 0 0
    0 0 0 0 0 0 0 0 0 0 0 0 0 0 0 0 0 0 0 0 0 0 0 0 0 0 0 0 0 0 0 0 0 0 0 0 0 0 0 0 0 0 0 0 0 0 0 0 0 0 0 0 0 0 0 0 0 0 0 0 0 0 0 0 0 0 0 0 0 -225 -225 -225 68 70 70 69 67 61 63 61 60 58 58 54 55 58 58 57 57 58 58 57 58 58 56 56 56 55 53 55 55 55 56 55 55 54 54 55 53 54 54 51 53 55 54 54 55 53 53 52 53 54 49 50 53 54 56 56 56 58 -193 59 59 59 58 62 62 61 -225 -225 51 49 51 49 49 50 55 52 52 52 54 53 52 52 52 50 53 54 53 48 49 51 52 53 54 54 55 57 60 65 68 66 65 60 57 56 56 56 56 57 55 55 55 55 55 55 52 51 52 -193 -193 -193 58 58 57 60 62 61 54 55 55 49 45 40 55 64 58 59 60 60 61 62 61 62 61 65 64 64 64 63 62 65 60 62 62 65 69 67 68 66 67 68 68 67 68 70 73 73 73 74 75 76 76 77 77 77 77 77 77 77 76 80 81 80 83 91 97 100 100 100 99 99 99 99 98 97 94 92 90 90 89 89 89 89 89 93 92 94 94 95 96 97 98 99 98 101 102 104 106 109 116 125 126 132 129 132 131 132 132 132 132 133 131 135 133 137 138 137 140 140 142 143 144 146 148 0 0 0 0 0
    0 0 0 0 0 0 0 0 0 0 0 0 0 0 0 0 0 0 0 0 0 0 0 0 0 0 0 0 0 0 0 0 0 0 0 0 0 0 0 0 0 0 0 0 0 0 0 0 0 0 0 0 0 0 0 0 0 0 0 0 0 0 0 0 0 0 0 0 0 -225 -225 -225 68 70 70 70 68 62 64 62 61 59 59 55 55 58 58 57 57 58 58 57 58 58 56 56 58 55 54 55 55 55 56 55 55 53 54 55 53 54 54 51 53 55 55 55 56 54 54 53 54 54 50 50 53 -193 -193 57 57 58 58 59 60 59 58 65 64 61 -225 -225 -225 47 48 47 46 48 55 51 50 51 54 52 51 51 51 48 52 52 51 44 47 49 50 51 53 55 56 58 61 67 70 69 67 60 56 52 56 55 55 56 55 55 55 55 55 55 52 52 52 -193 -193 -193 58 58 58 60 62 61 54 55 55 46 -193 40 55 67 60 60 61 61 62 63 62 63 61 65 64 64 64 63 62 64 60 61 61 64 66 68 67 64 67 68 68 67 67 70 72 73 73 74 75 76 77 77 78 77 78 78 78 77 77 81 82 81 83 92 99 100 100 100 99 99 99 100 99 98 96 94 91 92 91 91 90 91 90 91 92 93 93 94 95 96 97 98 99 100 101 103 106 107 113 123 124 131 128 132 131 132 132 132 131 132 130 134 130 135 137 136 139 140 142 143 144 146 148 0 0 0 0 0
    0 0 0 0 0 0 0 0 0 0 0 0 0 0 0 0 0 0 0 0 0 0 0 0 0 0 0 0 0 0 0 0 0 0 0 0 0 0 0 0 0 0 0 0 0 0 0 0 0 0 0 0 0 0 0 0 0 0 0 0 0 0 0 0 0 0 0 0 0 -225 -225 -225 -225 69 69 67 66 62 64 62 61 59 59 -193 -209 -193 -193 -193 56 58 58 57 58 58 56 57 59 55 54 54 54 55 56 55 55 53 55 55 54 55 55 51 53 56 57 57 57 55 55 54 55 55 52 50 53 -193 55 56 56 -209 -193 59 59 59 59 -193 67 -225 -225 -225 -225 47 48 47 47 49 55 50 49 50 54 51 50 50 50 46 50 50 48 42 45 46 48 49 51 55 57 59 65 69 72 -193 -209 -209 -209 44 56 54 55 56 55 55 55 55 55 55 53 52 52 58 57 57 58 58 58 60 61 60 54 55 55 49 45 40 55 67 59 60 61 61 61 62 62 63 61 65 64 63 64 63 62 64 60 61 61 62 64 64 66 63 65 66 67 66 66 69 72 73 73 73 75 77 77 77 78 78 78 79 79 78 77 81 83 83 83 91 98 99 99 99 99 99 99 100 99 98 96 96 92 93 93 96 94 95 96 98 94 95 95 95 96 97 97 98 99 100 101 102 104 105 111 122 123 130 127 131 131 131 132 132 130 131 128 132 128 133 135 134 138 140 142 144 148 150 152 0 0 0 0 0
    0 0 0 0 0 0 0 0 0 0 0 0 0 0 0 0 0 0 0 0 0 0 0 0 0 0 0 0 0 0 0 0 0 0 0 0 0 0 0 0 0 0 0 0 0 0 0 0 0 0 0 0 0 0 0 0 0 0 0 0 0 0 0 0 0 0 0 0 0 -225 -225 -225 -225 -225 -225 -225 -225 63 65 62 62 60 59 58 -193 -193 59 57 58 59 60 58 59 58 57 -177 60 56 56 54 54 55 56 55 -193 -193 -193 54 55 56 56 52 53 56 60 58 59 56 -193 55 56 56 53 49 53 51 54 55 55 610 606 58 -193 -193 60 -225 -225 -225 -225 -225 -225 -225 -225 51 50 52 55 51 50 51 -193 50 49 49 49 44 47 47 45 41 43 44 45 47 50 54 56 59 64 70 74 -193 -209 -209 -209 45 56 54 54 57 55 55 55 54 55 55 53 53 52 58 57 57 59 58 58 60 61 59 51 53 52 43 40 40 55 65 59 60 61 60 61 61 61 63 61 64 64 63 64 63 63 63 60 60 60 62 63 64 64 63 66 66 65 65 63 68 72 73 73 73 75 77 77 77 77 78 78 79 79 78 77 82 84 84 83 90 94 96 98 99 98 98 99 100 99 98 97 96 93 95 96 101 100 99 102 102 97 96 95 95 95 96 96 96 97 99 100 101 104 104 110 121 122 128 126 130 130 130 131 131 130 131 127 131 126 131 133 134 138 140 -193 146 150 152 -209 0 0 0 0 0
    0 0 0 0 0 0 0 0 0 0 0 0 0 0 0 0 0 0 0 0 0 0 0 0 0 0 0 0 0 0 0 0 0 0 0 0 0 0 0 0 0 0 0 0 0 0 0 0 0 0 0 0 0 0 0 0 0 0 0 0 0 0 0 0 0 0 0 0 0 -225 -225 -225 -225 -225 -225 -225 -225 -225 -225 -225 -225 -225 -225 -225 -225 -225 -225 59 60 61 63 63 61 60 59 61 65 61 60 58 55 58 58 57 -193 256 -193 53 -225 -225 -225 -225 -225 -225 -225 61 61 58 -193 -193 -225 -225 -225 -225 -225 -225 -225 -225 -209 -209 -209 -225 -225 -225 -225 -225 -225 -225 -225 -225 -225 -225 -225 -225 -225 52 -193 52 52 53 -209 52 50 48 48 42 43 42 40 38 40 42 43 45 50 54 56 57 58 66 73 78 -225 -209 56 54 56 55 55 57 55 54 54 54 54 54 53 53 52 58 57 57 59 58 58 60 60 58 45 48 44 36 33 39 54 -177 59 61 62 60 61 60 61 63 61 65 64 63 64 63 64 64 60 61 61 62 64 65 66 66 67 67 67 66 63 67 71 72 72 72 74 76 76 76 77 77 77 78 79 78 77 81 84 84 83 90 92 93 97 99 98 99 99 100 100 99 98 97 93 97 99 105 104 102 105 106 101 98 96 95 95 95 96 97 98 99 101 101 104 105 111 120 122 127 126 130 130 130 131 131 130 130 126 130 125 128 129 134 138 139 142 148 152 -209 -209 0 0 0 0 0
    0 0 0 0 0 0 0 0 0 0 0 0 0 0 0 0 0 0 0 0 0 0 0 0 0 0 0 0 0 0 0 0 0 0 0 0 0 0 0 0 0 0 0 0 0 0 0 0 0 0 0 0 0 0 0 0 0 0 0 0 0 0 0 0 0 0 0 0 0 -225 -225 -225 -225 -225 -225 -225 -225 -225 -225 -225 -225 -225 -225 -225 -225 -225 -225 -225 -225 -225 -225 -225 -225 -225 -225 -225 -225 -225 -225 -225 -225 -225 -225 -225 -225 -225 -225 -225 -225 -225 -225 -225 -225 -225 -225 -225 -225 -225 -225 -225 -225 -225 -225 -225 -225 -225 -225 -225 -225 -225 -225 -225 -225 -225 -225 -225 -225 -225 -225 -225 -225 -225 -225 -225 -225 -225 -225 -225 -225 -225 -225 -225 -209 37 -225 -225 -225 -225 -225 -225 -225 -225 -225 -225 -225 -225 -225 -225 -225 -225 -225 -225 -225 -225 -225 -225 55 55 54 56 54 54 54 54 54 53 52 53 52 57 56 56 59 58 58 59 58 52 42 44 39 34 31 38 53 61 59 61 62 60 61 60 60 63 62 65 64 63 64 63 65 66 61 61 61 62 63 65 66 66 67 66 69 67 66 67 72 73 73 73 75 77 76 76 77 78 77 78 79 79 78 82 84 83 84 89 91 91 96 99 98 99 99 101 100 99 99 97 94 98 103 106 106 105 107 108 105 99 99 95 95 95 95 96 96 98 101 101 104 104 112 121 123 129 127 131 130 130 131 131 129 129 126 128 125 127 129 134 138 140 145 150 -209 -209 -209 0 0 0 0 0
    0 0 0 0 0 0 0 0 0 0 0 0 0 0 0 0 0 0 0 0 0 0 0 0 0 0 0 0 0 0 0 0 0 0 0 0 0 0 0 0 0 0 0 0 0 0 0 0 0 0 0 0 0 0 0 0 0 0 0 0 0 0 0 0 0 0 0 0 0 -225 -225 -225 -225 -225 -225 -225 -225 -225 -225 -225 -225 -225 -225 -225 -225 -225 -225 -225 -225 -225 -225 -225 -225 -225 -225 -225 -225 -225 -225 -225 -225 -225 -225 -225 -225 -225 -225 -225 -225 -225 -225 -225 -225 -225 -225 -225 -225 -225 -225 -225 -225 -225 -225 -225 -225 -225 -225 -225 -225 -225 -225 -225 -225 -225 -225 -225 -225 -225 -225 -225 -225 -225 -225 -225 -225 -225 -225 -225 -225 -225 -225 -225 -225 -225 -225 -225 -225 -225 -225 -225 -225 -225 -225 -225 -225 -225 -225 -225 -225 -225 -225 -225 -225 -225 -225 -225 -225 -225 -225 -225 -225 -225 52 -225 -225 -225 -225 -225 -225 -225 -225 -225 -225 -225 -225 -225 59 40 38 37 30 29 29 37 52 57 58 61 63 60 61 60 59 62 62 65 64 62 63 63 65 66 63 62 62 62 64 65 67 68 69 70 74 75 74 74 74 76 74 74 75 77 77 76 77 78 77 78 79 79 78 82 83 83 83 89 90 89 95 99 98 98 99 101 100 99 99 98 93 98 -193 107 107 106 109 110 106 102 101 99 101 99 99 99 99 100 102 102 104 104 112 -209 -209 -209 -209 131 130 130 130 131 128 129 125 127 125 126 131 135 139 140 -209 -209 -209 -209 -209 0 0 0 0 0
    0 0 0 0 0 0 0 0 0 0 0 0 0 0 0 0 0 0 0 0 0 0 0 0 0 0 0 0 0 0 0 0 0 0 0 0 0 0 0 0 0 0 0 0 0 0 0 0 0 0 0 0 0 0 0 0 0 0 0 0 0 0 0 0 0 0 0 0 0 -225 -225 -225 -225 -225 -225 -225 -225 -225 -225 -225 -225 -225 -225 -225 -225 -225 -225 -225 -225 -225 -225 -225 -225 -225 -225 -225 -225 -225 -225 -225 -225 -225 -225 -225 -225 -225 -225 -225 -225 -225 -225 -225 -225 -225 -225 -225 -225 -225 -225 -225 -225 -225 -225 -225 -225 -225 -225 -225 -225 -225 -225 -225 -225 -225 -225 -225 -225 -225 -225 -225 -225 -225 -225 -225 -225 -225 -225 -225 -225 -225 -225 -225 -225 -225 -225 -225 -225 -225 -225 -225 -225 -225 -225 -225 -225 -225 -225 -225 -225 -225 -225 -225 -225 -225 -225 -225 -225 -225 -225 -225 -225 -225 -225 -225 -225 -225 -225 -225 -225 -225 -225 -225 -225 -225 -225 -225 -225 -225 -225 -225 -225 -225 -225 -225 -225 -225 -225 -225 -225 -225 64 61 61 63 63 66 65 64 65 62 63 65 63 64 63 63 65 67 68 70 72 73 76 78 82 78 77 77 75 75 75 78 77 76 77 79 78 79 80 81 80 82 84 83 83 88 89 88 92 98 97 98 99 100 100 99 99 99 94 -193 -193 108 108 108 111 113 109 -209 -193 -209 -209 -209 -209 -193 101 101 102 -193 -209 -209 -209 -209 -209 -209 128 131 132 131 131 132 129 128 125 127 127 127 133 -209 139 -209 -209 -209 -209 -209 -209 0 0 0 0 0
    0 0 0 0 0 0 0 0 0 0 0 0 0 0 0 0 0 0 0 0 0 0 0 0 0 0 0 0 0 0 0 0 0 0 0 0 0 0 0 0 0 0 0 0 0 0 0 0 0 0 0 0 0 0 0 0 0 0 0 0 0 0 0 0 0 0 0 0 0 -225 -225 -225 -225 -225 -225 -225 -225 -225 -225 -225 -225 -225 -225 -225 -225 -225 -225 -225 -225 -225 -225 -225 -225 -225 -225 -225 -225 -225 -225 -225 -225 -225 -225 -225 -225 -225 -225 -225 -225 -225 -225 -225 -225 -225 -225 -225 -225 -225 -225 -225 -225 -225 -225 -225 -225 -225 -225 -225 -225 -225 -225 -225 -225 -225 -225 -225 -225 -225 -225 -225 -225 -225 -225 -225 -225 -225 -225 -225 -225 -225 -225 -225 -225 -225 -225 -225 -225 -225 -225 -225 -225 -225 -225 -225 -225 -225 -225 -225 -225 -225 -225 -225 -225 -225 -225 -225 -225 -225 -225 -225 -225 -225 -225 -225 -225 -225 -225 -225 -225 -225 -225 -225 -225 -225 -225 -225 -225 -225 -225 -225 -225 -225 -225 -225 -225 -225 -225 -225 -225 -225 -225 -225 -225 -225 -225 -225 -225 -225 -225 66 63 63 64 65 66 65 65 67 69 70 72 73 75 76 79 78 76 76 76 75 76 77 78 77 77 80 79 80 81 81 81 81 84 84 83 87 88 88 91 98 98 98 99 100 100 99 99 100 95 -193 -193 108 109 -209 -209 965 -177 -177 -177 -177 -177 -193 -209 -209 -209 -209 -193 -193 108 108 115 -193 125 132 132 133 134 132 133 135 132 126 124 125 128 127 135 -209 -209 -209 -209 -209 -209 -209 -209 0 0 0 0 0
    0 0 0 0 0 0 0 0 0 0 0 0 0 0 0 0 0 0 0 0 0 0 0 0 0 0 0 0 0 0 0 0 0 0 0 0 0 0 0 0 0 0 0 0 0 0 0 0 0 0 0 0 0 0 0 0 0 0 0 0 0 0 0 0 0 0 0 0 0 -225 -225 -225 -225 -225 -225 -225 -225 -225 -225 -225 -225 -225 -225 -225 -225 -225 -225 -225 -225 -225 -225 -225 -225 -225 -225 -225 -225 -225 -225 -225 -225 -225 -225 -225 -225 -225 -225 -225 -225 -225 -225 -225 -225 -225 -225 -225 -225 -225 -225 -225 -225 -225 -225 -225 -225 -225 -225 -225 -225 -225 -225 -225 -225 -225 -225 -225 -225 -225 -225 -225 -225 -225 -225 -225 -225 -225 -225 -225 -225 -225 -225 -225 -225 -225 -225 -225 -225 -225 -225 -225 -225 -225 -225 -225 -225 -225 -225 -225 -225 -225 -225 -225 -225 -225 -225 -225 -225 -225 -225 -225 -225 -225 -225 -225 -225 -225 -225 -225 -225 -225 -225 -225 -225 -225 -225 -225 -225 -225 -225 -225 -225 -225 -225 -225 -225 -225 -225 -225 -225 -225 -225 -225 -225 -225 -225 -225 -225 -225 -225 -225 -225 63 64 65 66 67 67 68 69 70 72 73 74 75 77 78 77 77 76 76 77 78 80 77 78 81 80 81 82 81 82 80 83 83 82 86 87 87 90 96 97 98 99 100 100 99 99 101 98 -193 -193 -209 -209 -209 -209 -209 966 965 -177 -209 -209 -177 -209 -209 -209 -209 -209 -209 -209 -209 -209 -209 -209 -209 -209 -209 -209 -209 -209 -209 -209 -209 121 122 127 -209 -209 -209 -209 -209 -209 -209 327 335 -209 0 0 0 0 0
    0 0 0 0 0 0 0 0 0 0 0 0 0 0 0 0 0 0 0 0 0 0 0 0 0 0 0 0 0 0 0 0 0 0 0 0 0 0 0 0 0 0 0 0 0 0 0 0 0 0 0 0 0 0 0 0 0 0 0 0 0 0 0 0 0 0 0 0 0 -225 -225 -225 -225 -225 -225 -225 -225 -225 -225 -225 -225 -225 -225 -225 -225 -225 -225 -225 -225 -225 -225 -225 -225 -225 -225 -225 -225 -225 -225 -225 -225 -225 -225 -225 -225 -225 -225 -225 -225 -225 -225 -225 -225 -225 -225 -225 -225 -225 -225 -225 -225 -225 -225 -225 -225 -225 -225 -225 -225 -225 -225 -225 -225 -225 -225 -225 -225 -225 -225 -225 -225 -225 -225 -225 -225 -225 -225 -225 -225 -225 -225 -225 -225 -225 -225 -225 -225 -225 -225 -225 -225 -225 -225 -225 -225 -225 -225 -225 -225 -225 -225 -225 -225 -225 -225 -225 -225 -225 -225 -225 -225 -225 -225 -225 -225 -225 -225 -225 -225 -225 -225 -225 -225 -225 -225 -225 -225 -225 -225 -225 -225 -225 -225 -225 -225 -225 -225 -225 -225 -225 -225 -225 -225 -225 -225 -225 -225 -225 -225 -225 -225 -225 64 66 67 67 68 69 70 71 72 73 74 75 77 78 77 77 77 77 79 78 80 78 78 80 80 81 81 79 81 80 82 83 82 85 86 87 89 96 98 99 100 101 101 101 101 102 102 -209 -193 -209 -209 -209 -209 -209 -209 964 -209 -209 -209 -209 -209 -209 -209 -209 -209 -209 -209 -209 -209 -209 -209 -209 -209 -209 -209 -209 -209 -209 -209 -209 -209 -209 -209 -209 -209 274 -209 -209 -209 -209 327 334 343 0 0 0 0 0
    0 0 0 0 0 0 0 0 0 0 0 0 0 0 0 0 0 0 0 0 0 0 0 0 0 0 0 0 0 0 0 0 0 0 0 0 0 0 0 0 0 0 0 0 0 0 0 0 0 0 0 0 0 0 0 0 0 0 0 0 0 0 0 0 0 0 0 0 0 -225 -225 -225 -225 -225 -225 -225 -225 -225 -225 -225 -225 -225 -225 -225 -225 -225 -225 -225 -225 -225 -225 -225 -225 -225 -225 -225 -225 -225 -225 -225 -225 -225 -225 -225 -225 -225 -225 -225 -225 -225 -225 -225 -225 -225 -225 -225 -225 -225 -225 -225 -225 -225 -225 -225 -225 -225 -225 -225 -225 -225 -225 -225 -225 -225 -225 -225 -225 -225 -225 -225 -225 -225 -225 -225 -225 -225 -225 -225 -225 -225 -225 -225 -225 -225 -225 -225 -225 -225 -225 -225 -225 -225 -225 -225 -225 -225 -225 -225 -225 -225 -225 -225 -225 -225 -225 -225 -225 -225 -225 -225 -225 -225 -225 -225 -225 -225 -225 -225 -225 -225 -225 -225 -225 -225 -225 -225 -225 -225 -225 -225 -225 -225 -225 -225 -225 -225 -225 -225 -225 -225 -225 -225 -225 -225 -225 -225 -225 -225 -225 -225 -225 -225 -225 66 68 69 70 71 71 72 73 74 75 76 77 77 76 76 77 78 79 78 80 78 78 80 80 80 79 77 79 78 82 83 84 85 86 88 91 98 99 100 100 102 102 101 102 103 103 -209 -193 -193 -209 -209 -209 -209 -209 -209 -209 -209 210 215 -209 -193 260 263 -209 -209 -209 -209 268 272 -209 -209 -209 -209 -209 -209 -209 -209 -209 -209 195 -177 -209 -209 263 271 276 278 -209 -209 268 262 262 0 0 0 0 0
    0 0 0 0 0 0 0 0 0 0 0 0 0 0 0 0 0 0 0 0 0 0 0 0 0 0 0 0 0 0 0 0 0 0 0 0 0 0 0 0 0 0 0 0 0 0 0 0 0 0 0 0 0 0 0 0 0 0 0 0 0 0 0 0 0 0 0 0 0 -225 -225 -225 -225 -225 -225 -225 -225 -225 -225 -225 -225 -225 -225 -225 -225 -225 -225 -225 -225 -225 -225 -225 -225 -225 -225 -225 -225 -225 -225 -225 -225 -225 -225 -225 -225 -225 -225 -225 -225 -225 -225 -225 -225 -225 -225 -225 -225 -225 -225 -225 -225 -225 -225 -225 -225 -225 -225 -225 -225 -225 -225 -225 -225 -225 -225 -225 -225 -225 -225 -225 -225 -225 -225 -225 -225 -225 -225 -225 -225 -225 -225 -225 -225 -225 -225 -225 -225 -225 -225 -225 -225 -225 -225 -225 -225 -225 -225 -225 -225 -225 -225 -225 -225 -225 -225 -225 -225 -225 -225 -225 -225 -225 -225 -225 -225 -225 -225 -225 -225 -225 -225 -225 -225 -225 -225 -225 -225 -225 -225 -225 -225 -225 -225 -225 -225 -225 -225 -225 -225 -225 -225 -225 -225 -225 -225 -225 -225 -225 -225 -225 -225 -225 -225 66 69 71 71 72 74 74 75 77 79 80 80 81 78 77 78 78 79 78 80 78 79 81 81 81 80 79 81 81 83 85 -209 -209 -209 -209 -209 -209 -209 -209 101 102 102 102 103 104 -193 -209 -193 -209 -209 -209 -209 341 346 -209 -209 210 215 -209 -193 253 261 263 266 -209 262 264 267 272 276 270 -209 -209 269 -209 -209 -209 -209 -209 205 -193 -177 -177 263 269 270 273 264 261 264 260 260 0 0 0 0 0
    0 0 0 0 0 0 0 0 0 0 0 0 0 0 0 0 0 0 0 0 0 0 0 0 0 0 0 0 0 0 0 0 0 0 0 0 0 0 0 0 0 0 0 0 0 0 0 0 0 0 0 0 0 0 0 0 0 0 0 0 0 0 0 0 0 0 0 0 0 -225 -225 -225 -225 -225 -225 -225 -225 -225 -225 -225 -225 -225 -225 -225 -225 -225 -225 -225 -225 -225 -225 -225 -225 -225 -225 -225 -225 -225 -225 -225 -225 -225 -225 -225 -225 -225 -225 -225 -225 -225 -225 -225 -225 -225 -225 -225 -225 -225 -225 -225 -225 -225 -225 -225 -225 -225 -225 -225 -225 -225 -225 -225 -225 -225 -225 -225 -225 -225 -225 -225 -225 -225 -225 -225 -225 -225 -225 -225 -225 -225 -225 -225 -225 -225 -225 -225 -225 -225 -225 -225 -225 -225 -225 -225 -225 -225 -225 -225 -225 -225 -225 -225 -225 -225 -225 -225 -225 -225 -225 -225 -225 -225 -225 -225 -225 -225 -225 -225 -225 -225 -225 -225 -225 -225 -225 -225 -225 -225 -225 -225 -225 -225 -225 -225 -225 -225 -225 -225 -225 -225 -225 -225 -225 -225 -225 -225 -225 -225 -225 -225 -225 -225 56 66 71 72 72 74 75 75 75 76 80 79 78 81 78 76 78 79 82 80 82 82 83 84 85 85 84 84 85 86 86 -209 -209 -209 -209 -209 -209 -209 -209 -209 -177 102 102 103 105 106 107 -193 111 -209 289 -177 -209 341 346 344 348 -209 -209 -209 256 260 263 264 266 266 264 266 269 274 278 275 271 271 269 270 -209 256 266 268 270 268 267 271 278 280 279 279 -193 260 264 259 260 0 0 0 0 0</data></disparity>
</opencv_storage>
