<?xml version="1.0"?>
<opencv_storage>
<gps_time_stamp>309411</gps_time_stamp>
<gps_x>-1.2407922744750977e+001</gps_x>
<gps_y>1.0966171264648437e+001</gps_y>
<gps_z>-2.0228703022003174e+000</gps_z>
<image_time_stamp>300259</image_time_stamp>
<disparity type_id="opencv-matrix">
  <rows>88</rows>
  <cols>320</cols>
  <dt>s</dt>
  <data>
    0 0 0 0 0 0 0 0 0 0 0 0 0 0 0 0 0 0 0 0 0 0 0 0 0 0 0 0 0 0 0 0 0 0 0 0 0 0 0 0 0 0 0 0 0 0 0 0 0 0 0 0 0 0 0 0 0 0 0 0 0 0 0 0 0 0 0 0 0 32 30 30 31 30 31 31 29 32 31 34 34 35 35 36 35 35 34 35 34 35 32 32 33 31 31 31 30 33 30 30 32 29 30 30 30 28 26 -193 27 23 23 23 20 17 22 22 22 -225 -225 -225 -225 -225 -225 -225 -225 -225 -225 -225 -225 -225 -225 -225 -225 -225 -225 -225 -225 -225 -225 9 8 9 0 0 9 10 10 10 10 12 11 11 11 11 10 11 10 11 9 9 9 9 9 12 14 15 19 24 25 27 28 28 29 29 31 32 31 31 30 35 38 39 41 41 43 44 46 48 49 48 50 52 50 52 53 55 55 55 54 57 58 60 61 61 65 63 66 67 70 71 71 72 77 76 78 82 82 83 -193 87 88 -177 90 90 89 90 92 87 88 86 86 87 93 94 99 102 106 107 106 108 110 113 113 114 115 114 115 115 -193 -193 -193 -193 128 132 133 132 133 133 134 135 -177 -209 -193 140 141 145 143 144 145 145 148 147 150 148 146 153 154 154 154 154 154 151 154 161 160 162 163 165 169 171 173 178 178 179 179 179 178 179 179 181 184 186 186 187 191 -193 201 201 203 208 206 208 211 212 212 0 0 0 0 0
    0 0 0 0 0 0 0 0 0 0 0 0 0 0 0 0 0 0 0 0 0 0 0 0 0 0 0 0 0 0 0 0 0 0 0 0 0 0 0 0 0 0 0 0 0 0 0 0 0 0 0 0 0 0 0 0 0 0 0 0 0 0 0 0 0 0 0 0 0 29 27 28 29 29 29 30 29 32 32 34 35 36 35 36 35 35 34 35 34 35 32 32 33 31 31 31 30 33 30 30 32 29 29 30 30 28 -193 -177 -193 23 23 22 20 16 22 22 22 -225 -225 -225 -225 -225 -225 -225 -225 -225 -225 -225 -225 -225 -225 -225 -225 -225 -225 -225 -225 0 0 0 0 0 9 10 9 11 11 11 10 12 11 10 10 11 10 11 10 11 9 9 10 10 9 12 14 15 20 24 25 27 27 28 29 29 30 32 31 31 30 35 38 39 41 41 42 44 46 48 49 49 49 52 50 52 54 55 55 55 -193 58 59 61 62 62 65 63 65 66 69 70 70 72 77 76 78 82 82 84 -177 88 88 -177 91 91 91 91 93 88 89 88 88 89 93 96 99 103 106 106 106 108 110 114 114 114 114 113 113 114 -193 -193 -177 -177 -193 132 132 133 133 133 133 134 -177 -209 -193 -193 141 144 143 144 145 145 148 147 150 149 148 154 155 155 155 153 154 153 154 159 158 160 163 165 168 171 172 175 176 177 177 178 177 178 179 181 184 187 188 189 195 -193 200 201 203 208 208 209 211 212 212 0 0 0 0 0
    0 0 0 0 0 0 0 0 0 0 0 0 0 0 0 0 0 0 0 0 0 0 0 0 0 0 0 0 0 0 0 0 0 0 0 0 0 0 0 0 0 0 0 0 0 0 0 0 0 0 0 0 0 0 0 0 0 0 0 0 0 0 0 0 0 0 0 0 0 24 24 25 -225 -225 28 29 29 34 33 34 35 36 35 36 34 35 34 35 33 35 32 32 33 32 31 31 29 33 29 30 31 28 28 30 29 28 -193 -177 -177 22 23 22 19 15 22 22 22 -225 -225 -225 -225 -225 -225 -225 -225 -225 -225 -225 -225 -225 -225 -225 -225 8 8 9 0 0 0 0 0 0 0 10 0 10 10 11 10 11 10 10 10 10 10 10 10 11 9 9 10 10 10 11 13 15 19 23 24 26 26 28 29 29 30 32 31 32 31 36 38 40 41 41 42 45 47 48 48 48 49 51 50 52 53 55 55 55 -193 58 59 61 61 62 65 63 65 65 68 69 70 72 76 76 78 82 83 84 -177 89 89 -177 92 93 92 92 94 89 91 90 89 90 93 96 99 101 104 105 105 107 109 113 114 114 114 112 111 -193 -193 -193 -177 -177 -193 133 132 133 133 133 133 134 -177 -209 -193 -193 141 144 -193 145 145 146 148 147 150 149 151 154 155 155 155 154 155 154 153 160 160 162 164 166 168 171 -193 175 175 176 177 179 -193 180 180 182 184 188 189 189 193 -193 197 200 204 209 210 211 212 213 213 0 0 0 0 0
    0 0 0 0 0 0 0 0 0 0 0 0 0 0 0 0 0 0 0 0 0 0 0 0 0 0 0 0 0 0 0 0 0 0 0 0 0 0 0 0 0 0 0 0 0 0 0 0 0 0 0 0 0 0 0 0 0 0 0 0 0 0 0 0 0 0 0 0 0 19 19 22 25 26 27 33 37 39 37 37 37 37 37 36 35 35 34 36 33 35 32 32 33 32 31 31 29 33 29 30 31 28 28 29 29 28 -177 -177 -177 22 23 22 19 16 23 23 24 21 25 -225 -225 -225 -225 -225 -225 -225 -225 -225 -225 -225 -225 -225 22 18 12 12 9 9 0 8 9 0 9 10 9 10 10 11 10 11 10 9 9 9 9 10 9 10 9 10 11 11 11 12 14 16 19 23 24 27 27 29 29 30 31 33 33 33 32 36 38 39 40 41 42 44 46 48 48 48 49 51 50 52 54 55 56 56 -193 59 61 61 61 64 65 63 64 65 67 68 69 71 76 76 78 82 -193 85 -177 89 89 -177 93 94 93 92 94 90 92 92 90 91 92 95 98 99 102 102 103 105 108 112 114 114 114 -193 112 -193 -209 -193 -193 -193 -209 133 132 133 132 133 132 133 -177 -193 -177 -193 -193 144 -193 145 145 146 148 147 -193 151 153 154 156 156 156 154 156 155 153 157 158 159 161 164 167 170 -193 174 175 175 176 177 177 178 178 181 183 185 186 186 189 -193 195 199 203 208 210 212 214 216 215 0 0 0 0 0
    0 0 0 0 0 0 0 0 0 0 0 0 0 0 0 0 0 0 0 0 0 0 0 0 0 0 0 0 0 0 0 0 0 0 0 0 0 0 0 0 0 0 0 0 0 0 0 0 0 0 0 0 0 0 0 0 0 0 0 0 0 0 0 0 0 0 0 0 0 22 22 23 24 27 28 40 43 44 42 41 41 41 40 38 36 36 35 36 33 36 32 32 33 33 31 31 30 33 29 30 31 28 27 29 29 27 -177 -177 -177 -193 23 23 20 20 25 27 27 26 27 28 28 28 26 -225 -225 -225 -225 -225 -225 -225 -225 20 21 18 11 11 0 0 0 9 9 9 9 11 11 12 12 13 11 12 11 10 10 9 9 9 9 9 10 10 12 12 12 13 15 17 19 22 23 25 26 28 28 30 31 32 33 34 33 36 39 40 41 41 43 44 46 48 49 49 49 51 51 53 55 56 57 57 -193 60 62 61 61 64 64 63 64 64 66 67 68 71 75 75 78 82 -193 86 -177 89 -193 -177 93 95 93 92 94 91 93 93 91 92 92 -193 -193 98 100 100 102 104 106 110 113 113 112 -209 111 -209 -209 -209 -193 -193 -209 133 132 133 132 133 131 133 -177 -193 -177 -193 -193 -193 -193 146 146 146 149 148 -193 -193 154 155 156 156 156 155 157 155 153 158 160 160 162 164 166 -193 -193 172 174 175 176 178 177 179 179 181 183 184 185 186 188 -193 195 198 200 204 204 208 212 215 215 0 0 0 0 0
    0 0 0 0 0 0 0 0 0 0 0 0 0 0 0 0 0 0 0 0 0 0 0 0 0 0 0 0 0 0 0 0 0 0 0 0 0 0 0 0 0 0 0 0 0 0 0 0 0 0 0 0 0 0 0 0 0 0 0 0 0 0 0 0 0 0 0 0 0 40 40 42 41 43 43 44 46 45 46 44 43 43 42 40 38 37 36 37 33 36 32 32 33 34 32 31 30 33 28 30 31 28 27 29 28 27 -177 -177 -177 -193 24 24 21 22 26 30 29 28 28 29 29 29 27 27 21 20 -225 -225 -225 -225 21 19 20 18 12 12 0 0 0 10 9 10 10 12 11 12 12 13 11 12 12 11 10 11 11 11 10 11 11 11 13 13 12 12 14 17 17 21 21 24 25 27 27 29 31 32 34 34 34 37 40 41 41 41 43 44 46 49 48 49 49 51 51 54 55 57 57 57 58 61 62 61 61 65 64 62 63 63 -193 66 68 70 75 75 77 82 -193 86 -177 -209 -209 -177 93 95 93 -193 93 91 94 94 92 93 91 94 -193 97 99 99 101 103 105 109 112 111 109 -209 108 -209 -209 -209 -209 -209 132 133 132 133 132 132 131 133 -177 -193 -177 -193 -193 143 -193 146 146 147 149 148 -177 -193 154 155 156 156 156 155 158 156 154 159 161 161 163 164 165 168 -193 -193 171 172 174 176 176 179 179 182 183 184 185 186 189 191 193 195 197 -193 -209 -193 212 214 213 0 0 0 0 0
    0 0 0 0 0 0 0 0 0 0 0 0 0 0 0 0 0 0 0 0 0 0 0 0 0 0 0 0 0 0 0 0 0 0 0 0 0 0 0 0 0 0 0 0 0 0 0 0 0 0 0 0 0 0 0 0 0 0 0 0 0 0 0 0 0 0 0 0 0 42 43 44 44 46 46 46 46 45 46 44 44 44 43 41 40 38 38 37 34 36 33 33 33 34 32 31 30 33 28 30 31 28 27 29 28 27 -193 -177 -193 -193 25 24 22 25 27 32 30 29 29 29 29 29 26 27 20 20 20 -225 -225 -225 20 19 19 18 13 12 0 0 0 9 9 10 10 12 11 13 13 14 13 13 13 12 11 13 12 12 12 12 13 12 14 14 12 13 14 16 16 19 20 23 25 26 27 30 31 32 35 35 35 37 40 41 41 42 43 44 45 49 48 49 49 52 53 56 57 57 58 59 59 61 63 61 60 65 64 62 62 63 -193 65 66 70 75 75 78 82 -193 86 -177 -193 -193 -177 92 94 93 -193 93 91 94 95 92 94 91 92 95 95 97 96 98 -193 -209 108 111 110 109 -209 108 -193 -209 -209 -193 -193 132 133 131 133 131 132 131 133 -177 -193 -177 -193 -193 143 -193 146 146 147 149 -193 -177 -193 155 154 156 156 156 155 158 156 154 157 160 159 161 163 164 167 168 -193 171 173 175 176 177 178 179 182 182 183 184 185 188 189 191 194 195 198 -209 -209 -193 211 208 0 0 0 0 0
    0 0 0 0 0 0 0 0 0 0 0 0 0 0 0 0 0 0 0 0 0 0 0 0 0 0 0 0 0 0 0 0 0 0 0 0 0 0 0 0 0 0 0 0 0 0 0 0 0 0 0 0 0 0 0 0 0 0 0 0 0 0 0 0 0 0 0 0 0 45 45 46 45 47 46 46 47 44 45 43 42 43 42 41 41 39 38 38 34 37 33 33 33 34 32 31 30 32 28 30 30 29 27 28 28 27 -193 -193 -193 25 25 25 23 27 28 33 32 31 30 30 30 30 27 27 25 21 21 23 19 19 18 18 18 17 12 12 0 0 0 9 9 9 10 12 11 13 13 13 12 13 13 11 11 13 12 12 12 13 13 13 14 14 12 13 15 16 16 19 20 23 25 27 27 30 31 31 35 35 36 38 40 42 42 42 44 44 45 49 48 48 50 52 54 57 58 58 59 60 61 63 64 62 61 65 63 61 62 62 -193 -193 66 70 -193 -193 78 82 -177 86 -177 -193 -193 -177 91 752 92 172 92 91 94 94 92 94 90 91 92 93 94 92 94 -209 -209 106 110 111 110 -209 108 111 -209 -209 129 131 133 133 131 133 131 132 131 133 -193 -193 -177 -193 -193 143 -193 146 146 147 149 -193 -177 -193 155 154 155 155 155 155 158 157 155 157 159 159 160 162 165 168 169 -193 173 176 178 178 179 178 179 181 182 183 184 185 187 189 192 194 195 -209 -209 -209 -209 -193 211 0 0 0 0 0
    0 0 0 0 0 0 0 0 0 0 0 0 0 0 0 0 0 0 0 0 0 0 0 0 0 0 0 0 0 0 0 0 0 0 0 0 0 0 0 0 0 0 0 0 0 0 0 0 0 0 0 0 0 0 0 0 0 0 0 0 0 0 0 0 0 0 0 0 0 46 46 47 46 47 46 47 47 44 46 43 41 42 42 41 40 39 38 38 35 37 34 33 34 34 32 31 30 33 29 30 30 29 27 29 28 27 25 -193 -193 25 26 25 24 29 29 34 33 32 30 30 30 30 27 27 25 24 21 23 20 19 16 15 16 15 11 11 0 0 0 9 9 9 10 12 11 13 12 12 12 12 13 11 11 13 13 13 13 14 14 13 15 15 13 13 14 16 15 18 19 21 24 26 26 29 30 31 34 35 36 38 40 41 41 42 44 44 45 49 48 49 51 53 -193 59 59 59 60 61 62 63 65 62 61 64 63 61 62 62 -177 -193 -193 -193 -177 -177 78 82 -193 86 -193 86 87 -177 -193 752 91 171 -193 90 93 94 92 93 88 89 90 -193 -193 -209 92 -209 -209 -193 109 112 111 108 108 112 -209 -193 128 130 133 133 131 132 131 132 131 133 -193 -193 -177 -193 140 142 -193 146 146 147 149 -193 -177 -193 154 154 155 155 155 -193 157 157 155 155 156 156 157 160 164 169 170 -193 173 175 176 177 177 175 176 179 179 182 184 185 188 189 192 194 195 197 -193 -193 -193 209 211 0 0 0 0 0
    0 0 0 0 0 0 0 0 0 0 0 0 0 0 0 0 0 0 0 0 0 0 0 0 0 0 0 0 0 0 0 0 0 0 0 0 0 0 0 0 0 0 0 0 0 0 0 0 0 0 0 0 0 0 0 0 0 0 0 0 0 0 0 0 0 0 0 0 0 47 47 48 47 48 46 47 47 45 46 44 41 42 40 39 39 38 37 37 35 37 34 33 34 35 32 31 30 33 29 30 30 30 27 29 28 27 25 25 26 25 26 25 24 31 30 35 33 33 31 30 30 30 28 28 26 26 23 24 21 21 17 15 16 13 10 10 0 0 0 9 9 9 10 12 11 13 12 12 12 12 13 11 11 13 12 13 13 13 14 12 15 14 12 12 13 15 14 17 18 20 23 26 26 28 29 30 34 35 36 38 40 41 41 41 43 44 44 49 48 49 52 54 -193 59 59 60 60 62 62 63 65 62 60 64 64 61 61 62 -193 63 64 69 -193 -193 78 83 -193 85 87 86 86 -177 -193 751 -193 -177 -193 -193 92 92 90 92 86 87 -209 -209 -209 -209 -209 -209 -209 -209 108 115 113 113 110 114 118 129 126 130 133 133 130 132 130 132 131 132 -193 -193 -177 -193 140 142 -193 146 146 147 149 148 1008 -193 154 153 154 154 154 -193 157 157 155 154 157 156 157 160 162 168 170 -193 172 174 175 176 176 174 175 176 177 181 183 185 188 189 192 194 195 197 195 197 202 207 -209 0 0 0 0 0
    0 0 0 0 0 0 0 0 0 0 0 0 0 0 0 0 0 0 0 0 0 0 0 0 0 0 0 0 0 0 0 0 0 0 0 0 0 0 0 0 0 0 0 0 0 0 0 0 0 0 0 0 0 0 0 0 0 0 0 0 0 0 0 0 0 0 0 0 0 47 47 49 47 48 46 47 47 45 46 44 41 42 39 39 38 37 37 36 34 36 34 33 34 35 32 31 31 33 29 30 31 31 27 29 29 28 26 26 26 26 26 26 25 33 30 36 33 33 31 30 31 30 28 28 26 26 22 22 20 19 14 12 12 11 9 9 0 0 0 9 9 10 10 12 11 13 13 13 13 13 14 12 12 14 13 12 13 13 13 12 15 14 12 13 14 16 15 17 17 20 23 26 26 27 29 30 33 35 36 38 40 41 41 41 43 44 44 48 48 49 52 54 57 59 59 60 61 62 63 63 64 62 60 64 64 61 62 62 -193 -193 63 69 -193 -193 79 83 87 85 87 85 85 -193 87 -177 -193 -209 -209 -177 91 90 89 90 85 86 -193 -209 -209 -193 -209 -209 -193 -209 108 115 114 116 111 114 117 125 125 128 133 132 130 132 130 132 130 132 -193 -193 -177 -193 140 141 -193 145 146 147 149 148 1008 -177 154 153 154 154 154 -193 157 157 156 154 156 156 156 158 158 167 171 172 173 175 176 176 177 174 175 175 176 180 182 184 187 188 192 193 194 196 194 194 -209 -209 -209 0 0 0 0 0
    0 0 0 0 0 0 0 0 0 0 0 0 0 0 0 0 0 0 0 0 0 0 0 0 0 0 0 0 0 0 0 0 0 0 0 0 0 0 0 0 0 0 0 0 0 0 0 0 0 0 0 0 0 0 0 0 0 0 0 0 0 0 0 0 0 0 0 0 0 47 47 49 47 49 47 47 47 45 46 44 41 42 39 39 37 35 36 35 34 36 34 33 33 35 33 32 31 33 30 31 32 33 29 31 30 30 27 27 28 27 27 28 28 35 32 36 33 34 32 31 31 31 29 29 26 26 22 22 18 16 13 11 9 11 9 9 0 0 9 11 11 11 11 12 12 14 14 13 14 13 14 13 12 14 12 12 13 12 13 12 13 13 12 13 13 14 14 17 17 20 23 26 26 27 29 29 32 35 35 37 39 40 40 40 43 43 43 47 47 48 53 55 57 59 59 59 60 62 62 62 64 62 60 63 64 62 62 62 -193 63 63 69 75 76 79 83 86 84 86 84 84 -193 85 -177 87 -193 87 -193 90 89 87 89 84 85 86 -193 -209 -193 -209 -193 222 -193 108 116 115 116 110 113 114 120 121 124 133 131 129 131 130 132 130 132 132 -209 -193 -193 140 141 -209 145 145 147 149 148 -177 -177 154 153 154 154 155 -193 157 157 156 153 155 154 155 157 157 168 172 173 174 176 176 176 176 173 175 174 175 179 182 184 186 188 192 193 194 196 194 195 199 -209 -193 0 0 0 0 0
    0 0 0 0 0 0 0 0 0 0 0 0 0 0 0 0 0 0 0 0 0 0 0 0 0 0 0 0 0 0 0 0 0 0 0 0 0 0 0 0 0 0 0 0 0 0 0 0 0 0 0 0 0 0 0 0 0 0 0 0 0 0 0 0 0 0 0 0 0 48 48 49 48 49 47 47 47 44 46 44 41 41 38 37 36 33 35 34 33 35 34 32 33 34 33 32 31 33 31 31 33 34 30 31 31 32 28 29 30 29 28 33 32 36 33 37 34 35 33 32 32 32 30 30 26 26 22 21 17 14 12 10 0 0 0 0 0 0 9 11 11 12 12 12 12 15 15 13 13 12 14 13 13 14 13 12 13 13 14 11 13 13 11 12 13 14 13 16 17 20 23 26 26 27 29 29 31 35 34 37 37 40 39 39 42 42 42 46 46 48 53 54 57 58 58 58 59 61 61 61 63 61 59 62 64 62 62 62 -193 -193 62 69 75 77 79 83 86 83 85 83 83 84 84 -193 86 -193 87 -193 89 88 86 88 83 84 85 86 -209 -193 -193 -193 221 227 108 115 115 115 110 111 111 116 117 121 131 128 126 130 129 132 130 131 132 -193 -209 -193 139 140 -209 144 144 146 148 148 -193 -193 154 153 155 155 155 -193 157 158 157 153 155 154 156 161 165 170 174 175 176 177 177 177 177 174 177 175 176 179 182 184 187 190 194 194 195 198 195 197 200 203 206 0 0 0 0 0
    0 0 0 0 0 0 0 0 0 0 0 0 0 0 0 0 0 0 0 0 0 0 0 0 0 0 0 0 0 0 0 0 0 0 0 0 0 0 0 0 0 0 0 0 0 0 0 0 0 0 0 0 0 0 0 0 0 0 0 0 0 0 0 0 0 0 0 0 0 48 48 49 48 49 47 47 47 44 46 44 41 41 36 36 34 32 34 33 32 35 34 32 33 34 33 32 32 33 31 31 33 35 31 32 32 34 29 32 33 32 31 37 36 36 35 37 34 36 34 33 33 32 31 30 26 26 21 20 17 14 12 10 0 0 0 0 0 0 10 10 12 13 13 12 11 14 14 12 14 13 14 13 13 14 13 12 13 13 13 11 13 13 11 12 13 14 13 16 18 21 23 27 27 28 29 29 31 34 33 36 36 39 39 38 41 42 42 45 46 47 54 54 56 57 57 57 58 60 60 60 61 60 59 62 63 62 62 63 61 64 63 69 -193 79 79 83 86 83 84 83 83 84 82 85 85 -193 86 -193 88 86 85 88 83 83 84 85 -193 -193 -177 -193 -193 225 108 115 114 114 109 111 110 114 115 120 127 125 123 130 129 132 130 131 132 133 135 -193 139 139 -193 143 143 145 148 147 -193 -193 154 154 155 155 155 155 157 158 158 153 157 155 159 166 170 173 175 177 176 177 176 176 176 174 177 175 177 180 183 184 187 190 194 195 195 199 196 197 199 202 203 0 0 0 0 0
    0 0 0 0 0 0 0 0 0 0 0 0 0 0 0 0 0 0 0 0 0 0 0 0 0 0 0 0 0 0 0 0 0 0 0 0 0 0 0 0 0 0 0 0 0 0 0 0 0 0 0 0 0 0 0 0 0 0 0 0 0 0 0 0 0 0 0 0 0 48 48 49 48 49 47 47 47 44 46 44 42 41 35 34 32 31 33 32 32 34 34 32 33 34 33 33 32 34 33 31 34 35 32 33 33 35 30 36 37 35 36 39 37 36 36 37 35 36 34 33 33 33 32 30 26 25 20 19 17 15 13 10 0 0 0 0 0 9 10 9 11 11 12 10 9 12 13 11 13 12 13 12 13 13 12 11 12 11 12 11 12 13 11 12 13 15 14 16 18 21 23 27 27 28 29 29 30 34 32 36 36 39 39 39 41 42 42 45 46 47 54 54 56 57 56 56 57 58 59 58 60 59 58 61 63 62 62 63 61 65 64 70 -193 -193 79 82 85 82 84 83 83 84 82 85 85 -193 -193 86 88 86 84 88 83 82 84 85 -193 -193 -177 -193 -193 -177 108 115 115 114 109 111 110 113 115 119 -209 124 122 130 130 133 131 132 132 133 135 137 138 139 -193 142 143 145 147 147 -193 -193 -193 154 155 156 156 156 157 158 158 153 159 -193 158 -193 174 175 178 180 178 178 176 176 175 174 176 174 175 178 182 183 186 189 195 196 198 200 198 200 201 202 202 0 0 0 0 0
    0 0 0 0 0 0 0 0 0 0 0 0 0 0 0 0 0 0 0 0 0 0 0 0 0 0 0 0 0 0 0 0 0 0 0 0 0 0 0 0 0 0 0 0 0 0 0 0 0 0 0 0 0 0 0 0 0 0 0 0 0 0 0 0 0 0 0 0 0 48 47 49 48 49 47 47 47 44 46 44 42 42 36 35 32 31 32 32 33 34 34 33 34 35 33 34 33 35 34 32 33 34 33 33 32 35 29 40 40 38 38 38 37 36 37 36 35 36 34 34 33 33 33 31 27 26 20 17 15 14 11 10 0 0 0 0 0 0 9 9 10 10 11 10 9 11 12 11 13 11 12 12 12 12 12 11 11 10 11 10 11 12 11 11 12 15 14 16 18 21 23 27 27 28 29 29 30 34 32 36 35 38 38 38 41 42 42 44 45 46 54 54 55 55 54 54 55 56 56 -193 59 -193 58 61 64 64 64 64 62 68 66 71 75 81 79 82 85 82 84 84 84 85 81 85 85 -193 -193 -193 87 85 84 88 83 82 83 84 -193 -209 -193 -193 -193 -177 -193 -193 114 114 108 111 111 112 116 120 -209 126 123 132 132 134 131 132 131 133 135 136 -193 139 -193 142 143 144 147 147 149 -193 -193 154 156 156 156 156 157 159 158 154 162 157 162 -193 172 174 178 180 178 178 175 176 176 174 176 172 175 178 182 184 188 191 198 198 200 201 200 201 202 202 203 0 0 0 0 0
    0 0 0 0 0 0 0 0 0 0 0 0 0 0 0 0 0 0 0 0 0 0 0 0 0 0 0 0 0 0 0 0 0 0 0 0 0 0 0 0 0 0 0 0 0 0 0 0 0 0 0 0 0 0 0 0 0 0 0 0 0 0 0 0 0 0 0 0 0 48 47 49 48 49 47 47 48 45 46 44 42 42 37 36 33 31 32 32 33 34 33 33 35 36 34 35 33 35 34 32 33 33 32 31 30 35 29 41 38 36 37 37 36 35 37 36 34 36 34 33 33 33 34 30 27 26 21 15 15 14 11 10 0 0 0 0 0 0 0 0 9 9 10 10 9 10 12 10 13 11 12 12 12 12 12 11 11 10 10 10 11 12 11 11 12 15 13 15 18 21 23 27 27 28 29 29 30 34 31 35 34 37 37 37 40 41 42 43 44 45 53 52 54 54 53 52 54 54 54 54 58 -193 58 61 65 65 65 66 64 70 70 73 75 82 79 81 85 81 84 84 -193 -193 82 85 86 -209 -209 -177 -193 86 84 88 83 82 83 84 -193 -209 -193 -193 -193 -177 -193 -193 -193 113 108 112 112 111 116 120 -209 126 124 132 132 134 131 131 131 132 134 136 -193 138 -193 141 143 143 147 147 149 -193 -193 155 156 157 157 157 157 159 158 154 164 159 164 -193 170 172 177 180 177 176 175 176 176 174 175 171 174 178 182 184 188 191 198 198 200 201 200 200 202 202 202 0 0 0 0 0
    0 0 0 0 0 0 0 0 0 0 0 0 0 0 0 0 0 0 0 0 0 0 0 0 0 0 0 0 0 0 0 0 0 0 0 0 0 0 0 0 0 0 0 0 0 0 0 0 0 0 0 0 0 0 0 0 0 0 0 0 0 0 0 0 0 0 0 0 0 47 47 49 47 49 47 47 48 45 46 45 43 42 38 37 35 32 32 33 33 33 32 32 34 35 34 34 32 35 33 31 32 31 31 29 30 34 29 37 34 34 35 35 35 34 36 35 33 36 34 33 32 32 33 30 26 26 22 14 13 12 11 10 0 0 0 0 0 0 8 0 9 9 10 10 9 11 12 11 13 11 12 12 12 12 12 11 11 10 11 10 10 12 11 11 13 14 13 15 18 22 23 28 27 29 29 30 30 34 31 34 34 36 36 36 39 40 41 42 43 43 52 51 53 53 51 51 53 53 53 53 57 -193 58 61 65 66 66 67 66 71 72 73 75 82 79 80 84 81 83 -193 -193 -193 83 86 -193 170 -193 -177 -193 -193 -193 -193 84 82 83 84 -193 -209 -193 -193 -193 222 -193 -193 -193 -193 109 112 113 111 116 120 -209 -193 123 131 132 134 131 132 131 132 134 136 -193 138 -193 141 142 143 146 147 149 -209 -193 155 156 157 157 157 157 159 157 154 164 157 165 -193 170 -193 176 180 178 176 175 176 175 174 174 171 174 177 180 182 -209 -209 194 195 199 201 199 201 201 201 202 0 0 0 0 0
    0 0 0 0 0 0 0 0 0 0 0 0 0 0 0 0 0 0 0 0 0 0 0 0 0 0 0 0 0 0 0 0 0 0 0 0 0 0 0 0 0 0 0 0 0 0 0 0 0 0 0 0 0 0 0 0 0 0 0 0 0 0 0 0 0 0 0 0 0 48 47 49 48 49 47 47 48 45 46 45 42 42 38 37 35 32 31 33 32 33 32 32 34 35 34 35 33 34 31 31 31 30 29 28 30 32 28 36 32 32 34 34 34 33 35 35 32 35 34 33 32 31 32 29 26 25 22 16 16 14 13 11 0 0 0 0 0 0 0 0 0 9 10 9 9 11 11 11 12 10 11 11 12 11 12 11 11 10 11 11 11 12 11 11 13 14 13 15 18 22 24 29 28 30 30 30 31 34 31 34 33 35 35 36 39 39 40 41 42 42 50 49 52 52 50 50 52 52 53 53 57 58 59 61 66 67 67 68 68 72 73 74 76 82 78 79 83 81 83 86 -193 -193 -193 87 -177 171 -193 -193 -193 -193 -193 -193 85 82 83 84 -193 -177 -193 -209 -193 223 -193 -193 -193 -193 109 112 -193 -193 116 119 -209 -209 122 130 132 134 131 132 131 133 134 136 -193 138 -193 141 142 142 146 147 -193 -193 -177 155 156 157 157 158 157 159 157 154 164 157 164 -193 169 171 173 177 175 175 172 174 173 172 172 -193 172 173 177 181 -209 -193 186 194 199 200 200 202 202 201 202 0 0 0 0 0
    0 0 0 0 0 0 0 0 0 0 0 0 0 0 0 0 0 0 0 0 0 0 0 0 0 0 0 0 0 0 0 0 0 0 0 0 0 0 0 0 0 0 0 0 0 0 0 0 0 0 0 0 0 0 0 0 0 0 0 0 0 0 0 0 0 0 0 0 0 48 47 49 48 49 47 47 48 45 46 45 42 42 38 37 36 32 31 33 33 34 33 33 35 36 34 35 33 34 30 29 30 28 27 26 28 30 28 36 32 32 34 34 34 33 34 34 32 34 33 32 31 31 31 29 26 25 23 19 19 18 16 14 0 0 0 0 0 0 0 0 0 9 10 9 9 11 10 10 10 9 10 10 11 11 11 11 11 11 11 10 10 11 10 10 12 13 12 13 18 23 25 30 30 32 31 31 31 34 31 33 33 34 34 35 38 39 39 41 41 41 49 48 51 50 50 50 52 52 52 52 58 59 60 61 66 67 68 69 69 73 74 75 76 82 78 79 83 81 83 86 -193 -193 -177 -193 -193 172 -193 -193 90 -193 -177 -193 -193 83 83 84 -193 -177 -193 -193 -193 224 -193 -193 -193 -193 108 110 -193 -193 116 -193 -209 -209 122 130 132 134 132 132 132 133 134 -193 -209 -193 -193 141 142 142 145 147 149 -193 -177 155 156 157 157 158 157 159 158 154 164 159 162 163 167 -209 -193 -193 173 174 171 173 172 171 171 -193 171 173 178 181 -193 -193 187 195 198 198 198 200 200 200 201 0 0 0 0 0
    0 0 0 0 0 0 0 0 0 0 0 0 0 0 0 0 0 0 0 0 0 0 0 0 0 0 0 0 0 0 0 0 0 0 0 0 0 0 0 0 0 0 0 0 0 0 0 0 0 0 0 0 0 0 0 0 0 0 0 0 0 0 0 0 0 0 0 0 0 48 47 50 48 49 47 47 48 46 46 45 42 42 38 37 36 32 31 32 33 34 33 34 36 36 35 35 33 33 29 28 28 27 27 26 27 28 27 36 32 32 34 34 34 33 33 33 31 33 32 31 30 29 29 28 25 24 23 20 22 22 21 19 0 0 0 0 0 0 0 0 0 9 9 9 9 10 9 9 9 9 10 10 11 11 11 11 10 11 11 10 10 10 10 10 12 13 12 13 18 23 26 31 31 32 31 32 32 35 32 32 34 34 33 35 38 38 38 40 40 40 48 47 50 50 50 50 52 52 52 52 58 60 61 61 66 67 68 69 69 73 74 75 76 82 78 78 82 82 84 -193 -193 -193 -177 90 -193 174 -193 -193 91 -193 -193 739 -193 83 83 84 -193 -177 212 658 -193 225 -193 -193 -193 -193 108 110 -193 -193 -193 -209 -209 -209 123 131 133 135 133 133 132 134 135 -193 -193 -193 -193 -193 143 142 145 148 149 -193 -177 155 156 157 157 157 156 159 158 154 163 159 160 158 163 -209 -209 -209 -193 173 171 172 172 172 172 -193 172 176 180 182 184 185 188 194 197 197 198 199 201 200 201 0 0 0 0 0
    0 0 0 0 0 0 0 0 0 0 0 0 0 0 0 0 0 0 0 0 0 0 0 0 0 0 0 0 0 0 0 0 0 0 0 0 0 0 0 0 0 0 0 0 0 0 0 0 0 0 0 0 0 0 0 0 0 0 0 0 0 0 0 0 0 0 0 0 0 48 47 50 48 49 48 47 48 46 46 45 42 42 39 38 37 33 31 32 32 34 33 34 35 36 35 35 34 34 29 29 28 27 27 26 28 28 27 35 31 31 33 32 32 31 31 31 30 31 31 30 29 29 28 27 25 24 24 22 24 24 24 24 10 0 0 9 0 0 0 0 0 0 9 0 0 9 9 9 9 0 9 9 10 10 11 11 10 10 11 10 10 10 10 10 12 12 12 13 19 23 26 30 31 33 32 32 32 35 32 32 35 33 33 36 37 38 38 40 40 40 48 47 50 50 51 -193 -193 -193 -193 54 60 61 61 60 66 67 68 69 69 73 74 75 76 82 78 78 82 82 84 -177 -209 -209 -177 91 94 174 -193 -193 92 -193 -193 739 -177 83 83 84 -193 706 -193 657 -193 226 -193 -193 -193 -193 107 109 112 -193 116 -209 -209 -209 127 133 134 136 134 133 133 134 -193 -193 137 -193 -193 -193 143 142 145 148 148 -193 -177 155 156 157 157 157 156 159 157 154 158 155 156 154 157 -209 -209 -209 170 172 171 172 172 171 170 -193 171 173 177 181 -193 -193 187 191 -193 195 198 199 201 200 201 0 0 0 0 0
    0 0 0 0 0 0 0 0 0 0 0 0 0 0 0 0 0 0 0 0 0 0 0 0 0 0 0 0 0 0 0 0 0 0 0 0 0 0 0 0 0 0 0 0 0 0 0 0 0 0 0 0 0 0 0 0 0 0 0 0 0 0 0 0 0 0 0 0 0 48 48 50 48 49 49 48 48 46 46 45 42 42 40 38 37 33 31 32 31 33 33 34 35 36 35 35 35 34 29 29 28 28 28 28 29 28 27 33 30 29 31 29 30 29 30 30 29 30 30 29 29 28 27 26 25 24 24 22 25 25 25 25 22 9 0 9 0 0 0 0 0 0 9 0 0 9 9 9 9 0 9 9 10 10 10 10 10 9 10 9 9 9 10 9 11 11 11 12 17 22 24 29 30 32 32 32 32 35 33 33 35 34 33 35 37 38 37 -177 39 39 47 47 50 50 -193 -177 -177 -193 -193 55 61 62 61 60 65 67 68 69 69 72 74 75 76 82 78 78 82 83 85 555 -209 -209 -177 92 95 -193 175 178 92 -193 -193 737 -177 83 -193 -193 -193 706 -209 657 660 227 106 109 109 109 107 108 112 111 -193 -209 135 133 132 133 134 135 134 133 133 134 -209 -209 138 -193 -193 -193 143 143 146 148 -193 -177 -177 154 155 156 156 156 155 158 157 154 155 153 154 153 155 -209 -209 -209 -209 -209 -209 171 173 171 169 -193 168 172 176 181 -209 -209 -193 -193 -209 -193 197 199 200 199 200 0 0 0 0 0
    0 0 0 0 0 0 0 0 0 0 0 0 0 0 0 0 0 0 0 0 0 0 0 0 0 0 0 0 0 0 0 0 0 0 0 0 0 0 0 0 0 0 0 0 0 0 0 0 0 0 0 0 0 0 0 0 0 0 0 0 0 0 0 0 0 0 0 0 0 48 48 50 49 49 49 48 49 47 46 46 42 42 41 37 36 33 31 31 30 32 33 34 35 35 34 34 35 34 29 28 29 28 28 28 29 27 26 31 29 28 29 28 28 28 28 29 27 29 28 28 28 27 27 26 25 25 24 22 25 25 25 25 -193 0 0 9 0 0 0 0 0 9 10 0 0 10 9 10 10 0 9 0 10 10 9 9 9 9 10 9 9 9 9 9 10 10 10 10 16 22 25 29 29 32 32 32 32 35 32 32 34 32 32 33 35 36 35 -177 38 38 47 47 51 51 -177 -177 -177 -177 -177 57 61 62 61 60 64 66 68 69 69 -193 74 75 76 82 78 78 81 83 85 555 89 -209 -177 92 96 94 175 177 92 -193 -193 736 -177 -193 -177 -193 85 -193 -209 657 660 -193 106 108 108 109 108 108 112 112 116 -193 132 132 132 132 134 135 134 133 134 134 -209 137 138 -193 -193 -193 143 143 146 148 -193 -177 -177 154 154 155 155 155 154 158 157 154 154 153 154 153 154 -209 -209 -209 -209 -209 -209 173 176 174 171 175 172 175 178 182 -209 -193 -193 189 -209 192 196 198 198 198 199 0 0 0 0 0
    0 0 0 0 0 0 0 0 0 0 0 0 0 0 0 0 0 0 0 0 0 0 0 0 0 0 0 0 0 0 0 0 0 0 0 0 0 0 0 0 0 0 0 0 0 0 0 0 0 0 0 0 0 0 0 0 0 0 0 0 0 0 0 0 0 0 0 0 0 49 49 50 49 50 50 48 49 47 46 46 42 42 41 37 36 33 31 31 29 32 33 34 34 35 34 34 35 34 28 28 29 28 28 28 29 27 26 29 28 27 27 27 27 26 27 28 27 27 27 27 26 26 26 25 24 24 23 22 24 25 25 25 -193 0 0 0 0 0 0 0 0 9 10 9 0 10 9 10 10 0 9 0 9 10 9 9 9 0 9 0 9 9 9 0 9 9 9 9 15 22 24 27 27 30 -177 31 31 34 31 31 34 32 31 32 35 35 34 38 38 38 46 48 51 52 -177 366 366 -177 -177 59 62 63 61 59 63 65 67 69 69 -209 74 75 76 82 78 77 81 83 85 -177 88 -209 -177 92 95 94 175 177 92 92 91 735 -177 83 -177 -193 85 -193 -193 657 661 -193 -193 -193 -193 108 108 108 111 111 116 -193 129 132 132 132 133 134 133 132 134 135 -209 137 139 -193 -193 -193 -193 143 146 148 -193 -177 -177 -193 153 154 154 154 -193 157 156 154 153 152 153 152 154 -209 -209 -209 170 174 173 175 177 175 173 178 175 176 179 182 183 182 183 186 -209 -193 191 194 194 194 195 0 0 0 0 0
    0 0 0 0 0 0 0 0 0 0 0 0 0 0 0 0 0 0 0 0 0 0 0 0 0 0 0 0 0 0 0 0 0 0 0 0 0 0 0 0 0 0 0 0 0 0 0 0 0 0 0 0 0 0 0 0 0 0 0 0 0 0 0 0 0 0 0 0 0 50 49 50 50 50 50 48 49 48 46 46 43 42 41 37 36 33 31 31 29 32 34 34 34 34 34 34 35 34 28 28 29 29 28 28 29 26 25 27 27 26 26 26 27 25 26 27 26 27 26 26 25 25 25 24 22 21 20 21 22 24 23 25 -193 0 0 0 0 0 0 0 0 9 10 9 0 10 9 10 10 9 9 0 9 10 9 9 9 9 9 0 9 9 0 0 10 9 10 10 13 20 23 25 26 29 30 30 30 34 31 30 34 32 32 32 34 35 34 38 38 38 47 49 52 -193 -177 -177 -193 -193 -193 60 63 63 62 59 62 65 67 69 68 -193 73 74 75 81 78 77 81 83 84 -177 88 -193 -177 91 94 93 174 176 91 -193 -193 735 -177 82 -177 -193 84 85 -193 658 662 -193 -193 -193 -193 108 107 107 110 111 115 -209 128 132 132 132 133 134 133 132 134 135 -209 137 139 -193 -193 -193 -193 143 146 148 -193 -177 -177 -193 152 153 153 153 -193 157 156 155 152 151 153 153 154 -209 -209 -193 170 172 172 174 176 174 173 177 174 176 178 182 183 182 184 187 -209 186 190 192 194 193 192 0 0 0 0 0
    0 0 0 0 0 0 0 0 0 0 0 0 0 0 0 0 0 0 0 0 0 0 0 0 0 0 0 0 0 0 0 0 0 0 0 0 0 0 0 0 0 0 0 0 0 0 0 0 0 0 0 0 0 0 0 0 0 0 0 0 0 0 0 0 0 0 0 0 0 50 50 50 50 50 51 48 49 48 47 47 43 42 41 36 35 32 31 31 29 31 33 34 33 33 33 32 34 33 28 28 29 28 28 28 28 25 24 25 25 25 25 25 26 24 25 26 26 26 25 25 23 22 23 22 19 19 17 20 21 23 22 25 -193 0 -193 0 0 0 0 0 0 9 10 9 0 9 9 9 9 9 9 0 9 10 9 9 9 9 9 0 9 9 0 9 10 9 10 10 13 19 23 24 26 28 31 31 31 34 31 31 34 32 32 32 35 36 34 -177 39 39 47 50 53 -177 -177 -193 -193 60 61 61 63 64 62 59 63 65 67 69 68 -193 73 74 75 80 77 77 80 83 84 555 87 -177 -177 90 -177 92 173 175 -193 -193 -193 734 -177 81 -193 -193 84 85 -193 -177 -193 -193 235 -193 -193 -193 107 106 110 110 -193 -209 129 133 133 133 134 134 133 132 -193 135 -209 138 139 140 -193 -193 144 143 146 -193 -193 -177 -193 -193 150 152 152 152 -193 156 156 156 152 152 153 154 154 -209 -209 -193 168 171 171 174 177 176 175 180 179 180 180 183 186 185 -193 -193 -209 -193 191 193 195 194 191 0 0 0 0 0
    0 0 0 0 0 0 0 0 0 0 0 0 0 0 0 0 0 0 0 0 0 0 0 0 0 0 0 0 0 0 0 0 0 0 0 0 0 0 0 0 0 0 0 0 0 0 0 0 0 0 0 0 0 0 0 0 0 0 0 0 0 0 0 0 0 0 0 0 0 50 50 50 50 49 51 48 49 48 47 47 44 42 42 36 35 31 31 31 29 32 32 33 32 32 32 32 34 33 28 29 29 29 29 28 28 25 24 24 25 24 25 24 24 23 24 25 -193 -193 22 23 21 20 20 19 17 17 15 18 18 21 19 23 -193 0 0 9 0 0 9 9 9 10 11 9 9 9 9 9 9 0 9 0 9 9 9 9 9 0 9 9 9 9 9 9 10 10 10 10 13 19 22 24 -177 28 31 31 31 34 31 31 34 32 33 32 35 36 35 -177 40 40 47 52 54 371 369 -193 -193 61 61 62 63 64 62 59 63 66 67 69 68 -209 72 -193 74 80 77 77 79 83 83 556 86 86 -177 -193 -177 -193 -177 174 -177 -177 -193 734 -193 80 -193 -193 83 85 -193 -177 -193 -193 235 -193 -193 107 107 106 109 110 -209 -209 128 133 133 133 134 134 133 132 -193 135 -209 138 139 140 141 -193 144 -193 146 -193 -177 1008 -193 -193 150 151 151 151 -193 156 156 156 152 152 154 155 154 -209 -209 -209 -193 174 174 176 179 180 180 182 183 184 184 184 187 187 187 -193 -193 -193 190 191 194 194 -209 0 0 0 0 0
    0 0 0 0 0 0 0 0 0 0 0 0 0 0 0 0 0 0 0 0 0 0 0 0 0 0 0 0 0 0 0 0 0 0 0 0 0 0 0 0 0 0 0 0 0 0 0 0 0 0 0 0 0 0 0 0 0 0 0 0 0 0 0 0 0 0 0 0 0 50 50 50 50 49 51 48 49 48 47 47 44 43 43 36 35 31 31 31 29 32 32 32 31 31 32 32 34 33 28 29 30 29 29 28 28 25 24 24 24 24 24 23 23 20 23 23 -193 -193 19 21 18 16 18 17 15 16 14 17 14 19 16 16 10 0 0 9 0 9 10 10 10 10 11 10 10 9 9 9 9 9 9 0 9 9 9 9 9 0 9 0 9 9 0 9 10 10 11 10 13 19 22 23 -177 27 31 31 31 34 31 31 34 32 34 32 36 37 36 -177 41 41 47 53 54 371 369 -193 61 62 62 62 63 64 62 59 63 66 -193 69 68 -193 -193 -193 74 80 77 77 79 83 83 556 85 85 -177 -193 -177 -177 -193 -193 -193 -193 -193 733 -193 78 -193 -193 82 84 -209 -193 -193 -193 -193 -193 -193 107 107 106 109 110 -193 -209 127 133 133 133 134 134 133 131 -193 135 -209 -193 140 140 141 -209 144 -193 146 -193 -193 1008 -193 -193 149 151 151 151 -193 156 156 157 153 153 157 157 158 -193 -209 -209 -193 175 175 178 180 181 181 182 182 184 181 183 -193 186 -209 -209 -209 -209 189 -193 -193 -209 -209 0 0 0 0 0
    0 0 0 0 0 0 0 0 0 0 0 0 0 0 0 0 0 0 0 0 0 0 0 0 0 0 0 0 0 0 0 0 0 0 0 0 0 0 0 0 0 0 0 0 0 0 0 0 0 0 0 0 0 0 0 0 0 0 0 0 0 0 0 0 0 0 0 0 0 51 50 49 50 49 51 48 49 49 47 47 45 44 43 35 34 31 30 31 30 32 32 31 31 31 32 32 33 33 29 30 30 29 30 28 28 25 24 24 24 23 23 22 23 19 22 22 -193 -209 -193 -193 16 14 16 15 13 14 13 15 11 12 10 9 0 0 0 0 0 9 10 10 10 10 11 10 10 9 10 10 10 10 9 9 9 10 10 9 9 0 9 0 9 0 0 0 10 10 11 11 13 18 21 23 -177 27 31 31 31 33 31 31 34 33 35 33 37 38 38 42 42 42 47 54 55 371 369 -193 61 62 62 63 63 64 63 60 64 66 -177 -193 -193 -193 -193 -193 74 80 77 77 79 83 82 -193 84 85 -193 86 -177 -193 -193 -193 -193 -193 -193 734 -193 77 -193 78 81 83 -209 -193 -193 -209 -193 -193 -193 107 107 106 109 110 -193 -209 126 133 133 133 133 133 133 131 -193 135 -209 -193 140 140 141 -193 143 143 145 -193 -193 1008 -193 -193 150 152 -193 -193 -193 156 157 157 153 155 158 158 160 164 -209 -209 -193 174 174 176 179 181 180 182 182 182 175 -209 -209 -209 -209 -209 -209 -209 -193 -193 -193 -209 -209 0 0 0 0 0
    0 0 0 0 0 0 0 0 0 0 0 0 0 0 0 0 0 0 0 0 0 0 0 0 0 0 0 0 0 0 0 0 0 0 0 0 0 0 0 0 0 0 0 0 0 0 0 0 0 0 0 0 0 0 0 0 0 0 0 0 0 0 0 0 0 0 0 0 0 51 50 49 50 48 51 48 49 49 47 47 46 44 44 35 33 30 30 31 30 33 32 30 30 31 31 32 33 33 29 30 30 29 30 28 28 25 24 24 24 24 24 22 23 19 21 21 -193 -193 -193 -193 13 12 13 13 12 13 12 13 9 9 0 0 0 0 0 0 0 9 10 10 10 10 11 10 11 10 10 10 11 10 10 9 9 10 9 9 9 0 0 0 0 0 0 0 10 10 11 11 12 17 21 23 -177 26 31 31 31 34 31 31 34 34 36 33 38 39 39 42 43 43 47 55 56 370 368 60 62 62 63 63 63 64 63 60 64 -193 -177 -193 -193 -177 -193 -209 74 80 78 77 79 83 82 85 83 84 84 84 752 85 83 85 84 -193 83 -177 -193 77 78 78 79 82 -209 -193 -177 -209 -209 -193 -193 107 107 106 109 109 -193 -209 124 132 132 132 133 133 132 130 -193 135 -209 -193 140 140 140 142 143 143 144 -193 -193 1008 -193 -193 150 153 -193 -193 -193 156 158 158 154 158 159 160 162 165 166 -209 170 173 173 175 178 180 180 182 183 184 178 -209 -209 -209 -209 -209 -209 -209 191 195 196 -193 -193 0 0 0 0 0
    0 0 0 0 0 0 0 0 0 0 0 0 0 0 0 0 0 0 0 0 0 0 0 0 0 0 0 0 0 0 0 0 0 0 0 0 0 0 0 0 0 0 0 0 0 0 0 0 0 0 0 0 0 0 0 0 0 0 0 0 0 0 0 0 0 0 0 0 0 51 49 48 50 48 51 48 49 49 47 47 46 44 44 35 33 30 30 31 30 33 32 30 30 31 31 32 32 33 29 29 30 29 30 28 27 26 24 24 24 24 24 22 22 18 18 18 -193 -193 -193 -193 12 11 12 12 12 12 12 12 9 0 0 0 0 0 0 0 0 9 9 10 10 10 11 10 11 10 10 10 10 10 10 9 9 9 9 0 0 0 0 0 0 0 0 0 10 10 11 10 11 18 22 23 -177 27 32 31 31 34 32 30 34 34 36 34 38 39 40 43 44 44 47 56 56 370 368 61 62 63 63 64 63 64 62 59 63 -193 -177 -177 -193 -177 -193 -193 73 79 78 77 79 83 81 85 82 83 83 82 751 83 81 83 82 84 81 -177 -193 76 77 77 79 81 -193 -193 672 -193 -193 -193 -193 107 107 105 108 108 -193 112 123 132 132 132 132 132 132 130 -193 134 -209 83 140 -193 -193 142 142 143 143 -193 -193 1008 -193 -193 151 153 -193 -193 -193 156 158 158 154 163 161 162 164 167 168 -209 171 174 173 175 178 179 180 181 182 183 176 -193 -209 -209 -209 -209 -209 -209 195 197 198 197 -193 0 0 0 0 0
    0 0 0 0 0 0 0 0 0 0 0 0 0 0 0 0 0 0 0 0 0 0 0 0 0 0 0 0 0 0 0 0 0 0 0 0 0 0 0 0 0 0 0 0 0 0 0 0 0 0 0 0 0 0 0 0 0 0 0 0 0 0 0 0 0 0 0 0 0 50 49 48 49 48 51 47 49 49 47 47 47 44 44 36 33 30 30 30 30 33 32 30 30 31 31 32 32 33 29 29 30 29 30 28 27 26 25 24 25 25 24 22 22 18 16 16 -193 -193 10 11 11 10 11 12 11 12 12 12 10 10 10 0 0 0 0 0 0 0 9 9 9 10 10 10 11 10 10 10 10 10 10 10 9 9 9 9 0 0 0 0 0 0 0 0 10 10 11 10 11 17 22 23 -177 27 32 31 31 34 32 30 34 34 36 34 39 40 40 43 44 44 47 56 57 370 368 61 62 63 63 64 63 64 62 59 62 -177 -177 -177 -177 -193 -193 -193 73 79 79 77 79 83 80 84 82 82 83 81 751 82 80 83 81 83 80 -177 -193 76 77 77 78 81 -193 -193 671 -193 -193 -193 -193 107 106 105 107 107 109 110 122 131 132 131 132 132 132 130 -193 134 -193 83 140 -193 -193 142 142 142 143 -193 146 1008 -193 -209 151 153 -193 -193 -193 156 158 158 154 165 163 163 165 167 168 -209 170 173 173 174 176 178 178 180 180 181 173 -209 -209 -209 -209 -209 -209 -209 -209 194 198 197 -209 0 0 0 0 0
    0 0 0 0 0 0 0 0 0 0 0 0 0 0 0 0 0 0 0 0 0 0 0 0 0 0 0 0 0 0 0 0 0 0 0 0 0 0 0 0 0 0 0 0 0 0 0 0 0 0 0 0 0 0 0 0 0 0 0 0 0 0 0 0 0 0 0 0 0 49 48 48 49 47 50 47 48 49 47 47 46 45 45 36 34 30 30 30 30 33 32 30 30 32 30 32 32 32 29 29 30 29 30 28 27 27 25 25 25 25 25 22 22 19 16 16 -193 -193 10 11 11 11 11 12 12 12 12 12 10 10 11 9 0 0 0 0 9 9 9 9 9 10 10 10 11 10 10 10 10 10 9 10 10 9 9 9 0 0 0 0 0 0 0 0 10 10 11 11 11 18 23 24 -177 28 33 32 32 34 33 31 35 35 37 35 39 40 41 43 43 43 46 55 56 370 368 -193 61 62 62 63 62 63 61 -193 62 -177 -177 -177 -193 -193 -193 -193 73 78 79 77 78 83 80 84 82 82 83 81 751 82 80 83 81 83 80 -177 -193 76 77 77 78 81 85 90 671 -193 101 105 -193 106 106 105 106 107 109 110 121 129 132 130 131 132 132 130 -193 135 -193 83 140 140 -193 142 142 142 142 -193 -193 1008 -193 -209 152 154 154 154 154 156 159 158 155 165 164 164 165 167 167 168 169 172 171 173 175 177 177 180 179 180 176 -209 -209 -209 -209 -209 -209 -209 -209 -209 -193 -193 -209 0 0 0 0 0
    0 0 0 0 0 0 0 0 0 0 0 0 0 0 0 0 0 0 0 0 0 0 0 0 0 0 0 0 0 0 0 0 0 0 0 0 0 0 0 0 0 0 0 0 0 0 0 0 0 0 0 0 0 0 0 0 0 0 0 0 0 0 0 0 0 0 0 0 0 48 47 47 48 47 50 47 48 49 47 47 46 45 45 36 34 31 29 30 30 33 32 30 30 32 30 32 32 32 29 29 31 30 30 28 28 28 26 25 25 25 25 22 22 20 15 16 11 10 10 11 11 11 12 12 12 12 13 13 11 11 11 9 9 9 9 9 9 10 10 10 10 10 10 10 11 10 10 10 9 9 9 10 9 9 9 0 0 0 0 0 0 0 0 0 10 11 11 11 11 18 24 25 -177 29 33 32 32 34 34 -177 35 35 37 35 40 41 41 43 43 43 45 54 56 370 368 -177 -193 61 61 62 61 62 61 59 61 -177 -177 -193 -193 -193 -193 -193 73 78 81 77 78 83 80 83 83 83 83 81 751 83 81 84 82 84 81 -193 -193 77 77 77 78 81 84 90 670 -193 101 -193 -193 106 106 105 107 108 111 112 120 126 132 129 130 131 132 130 132 135 137 -193 140 139 -193 142 142 142 142 144 -193 -193 -193 -209 153 154 155 155 155 156 159 158 155 166 165 164 165 166 167 168 169 172 171 173 174 176 177 179 178 178 176 179 -209 -209 -209 -209 -209 -209 -209 -209 -193 -193 -193 0 0 0 0 0
    0 0 0 0 0 0 0 0 0 0 0 0 0 0 0 0 0 0 0 0 0 0 0 0 0 0 0 0 0 0 0 0 0 0 0 0 0 0 0 0 0 0 0 0 0 0 0 0 0 0 0 0 0 0 0 0 0 0 0 0 0 0 0 0 0 0 0 0 0 48 47 47 48 47 50 47 48 48 47 47 46 45 44 36 35 32 30 30 30 34 33 30 31 33 31 32 32 32 30 30 32 30 30 29 28 29 26 25 26 25 25 22 22 20 15 16 12 10 10 11 12 12 12 12 13 12 13 12 11 11 11 9 10 9 10 10 10 11 10 10 10 10 10 10 11 10 10 10 9 9 0 9 9 0 0 0 0 0 0 0 0 0 0 0 10 11 11 11 11 18 24 25 -177 29 33 32 32 34 34 32 35 36 37 36 40 42 42 42 43 43 44 53 55 370 368 -177 -177 -193 -193 61 60 61 60 59 60 -177 -193 -193 -193 -193 -193 -193 72 78 82 78 -193 83 80 83 83 83 84 81 -193 83 82 84 83 85 81 -193 -193 78 78 78 78 81 84 89 -193 -193 100 -193 -193 106 106 -193 107 110 114 114 119 125 132 129 129 130 131 130 132 135 137 -193 139 139 140 142 142 143 142 145 -193 -193 -193 -209 153 154 155 155 155 156 159 159 156 166 165 165 165 166 166 168 169 171 171 172 174 176 176 179 177 175 174 177 181 -193 -209 -209 -209 -209 -209 -193 -209 -193 -209 0 0 0 0 0
    0 0 0 0 0 0 0 0 0 0 0 0 0 0 0 0 0 0 0 0 0 0 0 0 0 0 0 0 0 0 0 0 0 0 0 0 0 0 0 0 0 0 0 0 0 0 0 0 0 0 0 0 0 0 0 0 0 0 0 0 0 0 0 0 0 0 0 0 0 48 47 47 48 46 49 47 48 48 46 46 45 44 43 36 35 33 30 30 30 34 33 30 31 33 31 32 32 32 30 30 32 30 29 29 28 29 27 25 26 25 25 22 22 21 16 17 14 11 11 12 12 13 12 12 13 12 13 12 11 11 12 10 10 9 10 10 10 11 10 10 10 10 10 10 11 11 9 11 9 9 0 9 0 0 0 0 0 0 0 0 0 0 0 0 10 11 12 12 12 18 24 25 -177 29 33 32 32 34 34 32 36 36 37 36 40 42 42 42 42 42 43 52 54 370 367 -177 -177 -177 -177 59 59 60 -193 59 60 -177 -193 -193 -193 -193 -177 -193 72 77 83 78 -193 83 80 83 84 0 0 81 -193 -193 -193 -193 84 86 82 -193 -193 79 78 78 79 81 83 89 -193 -193 100 -193 -193 -193 -193 -193 -193 111 115 116 119 125 132 129 129 130 131 130 132 135 136 136 139 139 140 142 142 143 142 145 146 -193 1008 -193 153 154 155 155 155 156 159 159 156 165 165 164 165 165 165 167 167 170 170 171 174 175 176 179 177 174 172 174 176 180 -209 -209 -209 -209 -209 -193 202 201 -193 0 0 0 0 0
    0 0 0 0 0 0 0 0 0 0 0 0 0 0 0 0 0 0 0 0 0 0 0 0 0 0 0 0 0 0 0 0 0 0 0 0 0 0 0 0 0 0 0 0 0 0 0 0 0 0 0 0 0 0 0 0 0 0 0 0 0 0 0 0 0 0 0 0 0 47 46 46 48 46 49 46 47 47 46 45 44 43 42 36 35 34 30 30 30 34 33 30 31 34 30 32 32 32 31 29 32 31 29 29 28 29 27 26 26 25 25 22 22 22 17 18 16 12 12 12 13 13 13 13 13 12 13 12 11 11 11 10 10 9 9 9 10 10 10 10 10 10 10 10 11 11 9 10 0 9 0 0 0 0 0 0 0 0 0 0 0 0 0 0 10 11 11 12 12 18 24 25 -177 29 33 32 32 34 35 33 36 36 37 36 40 41 42 41 40 40 41 50 53 370 368 -177 -177 -177 -177 58 -193 59 -193 59 59 -193 -193 65 -193 -193 -177 -177 -193 76 84 78 -193 84 81 83 85 0 0 82 -193 -177 -193 -193 86 87 84 -193 -193 80 79 79 79 81 82 88 -193 -193 99 -193 -193 -193 -193 -193 -193 111 116 116 -193 125 133 130 129 131 132 131 132 136 137 136 139 139 140 142 142 144 143 145 147 -193 1008 -193 153 154 155 155 155 155 158 159 156 165 164 164 165 165 164 167 166 169 169 170 173 174 176 179 177 175 174 175 182 -209 -209 -209 -209 207 206 -193 202 201 201 0 0 0 0 0
    0 0 0 0 0 0 0 0 0 0 0 0 0 0 0 0 0 0 0 0 0 0 0 0 0 0 0 0 0 0 0 0 0 0 0 0 0 0 0 0 0 0 0 0 0 0 0 0 0 0 0 0 0 0 0 0 0 0 0 0 0 0 0 0 0 0 0 0 0 46 46 46 48 45 48 45 46 46 45 44 43 41 41 36 35 34 31 30 30 34 33 31 31 34 30 32 32 32 31 30 33 31 29 29 29 30 28 26 26 25 -193 23 23 22 18 18 17 14 14 13 14 14 13 13 14 13 13 12 11 11 11 10 10 9 9 10 10 11 10 10 9 9 10 10 10 10 9 10 0 9 0 0 0 0 0 0 0 0 0 0 0 0 0 9 10 11 12 12 12 17 24 25 30 28 32 31 32 34 35 33 36 36 37 35 39 41 41 40 39 39 40 48 52 -177 367 -177 -177 -177 -177 -209 -209 59 -193 59 59 -193 -193 65 -193 -193 -177 -177 -193 76 84 78 78 83 81 83 85 -193 -193 83 -193 -177 -193 -193 -193 88 85 -193 -193 82 80 80 80 82 82 89 88 -193 99 -193 -193 -193 -193 -193 -193 111 116 116 -193 126 134 131 131 132 133 132 133 137 137 137 140 140 141 143 143 144 143 146 -193 -193 -177 -177 154 154 154 154 154 -193 158 159 157 165 164 164 164 164 164 167 166 169 169 170 173 176 178 181 179 179 179 179 184 -193 -193 -209 -193 203 204 203 202 202 201 0 0 0 0 0
    0 0 0 0 0 0 0 0 0 0 0 0 0 0 0 0 0 0 0 0 0 0 0 0 0 0 0 0 0 0 0 0 0 0 0 0 0 0 0 0 0 0 0 0 0 0 0 0 0 0 0 0 0 0 0 0 0 0 0 0 0 0 0 0 0 0 0 0 0 46 46 46 48 45 46 44 44 44 43 42 41 40 39 35 35 35 31 30 30 34 34 31 31 35 31 32 32 32 32 30 33 31 28 29 29 30 28 26 27 -193 -193 23 23 22 18 19 18 15 16 14 15 15 14 13 14 13 13 12 12 11 11 10 11 10 10 11 11 12 11 10 10 10 9 10 10 10 0 10 0 0 0 0 0 0 0 0 0 0 0 0 0 0 0 9 10 11 12 12 12 17 24 24 29 28 32 31 31 33 35 33 35 36 36 34 39 40 40 39 38 38 39 47 50 -177 367 -177 -177 -177 -177 -193 -193 -193 -193 60 59 62 -193 65 -193 -193 -177 -177 -177 75 84 78 78 83 81 83 86 -193 -193 336 -193 -177 171 -193 -193 89 87 -193 -193 84 80 80 80 82 83 89 88 -193 99 237 -193 -193 -193 -193 -193 111 116 116 -193 126 134 131 132 133 134 133 134 137 138 138 140 140 141 143 143 145 144 146 -193 -193 -177 -177 153 153 154 154 154 -193 158 159 157 164 164 163 164 164 164 166 165 168 169 170 174 178 179 181 180 182 182 182 185 188 -193 -193 198 202 204 204 205 204 205 0 0 0 0 0
    0 0 0 0 0 0 0 0 0 0 0 0 0 0 0 0 0 0 0 0 0 0 0 0 0 0 0 0 0 0 0 0 0 0 0 0 0 0 0 0 0 0 0 0 0 0 0 0 0 0 0 0 0 0 0 0 0 0 0 0 0 0 0 0 0 0 0 0 0 46 46 46 48 44 45 42 41 41 40 39 39 37 37 34 35 35 31 30 31 35 34 31 32 35 31 32 32 32 32 30 33 31 28 29 29 30 28 26 27 -209 -209 23 23 22 19 19 18 16 17 15 16 16 14 14 14 13 13 12 12 11 11 11 11 10 10 11 11 13 11 10 10 10 10 10 10 10 9 10 0 9 9 9 9 0 0 0 0 0 0 0 0 0 0 9 10 11 12 12 12 17 24 24 28 27 31 30 31 33 34 32 35 36 36 33 38 39 39 37 37 37 38 46 49 -193 366 -177 -177 -177 -177 -193 116 -193 -193 61 59 62 -193 66 66 -193 -177 -177 -177 75 83 78 77 82 82 83 -193 -193 -193 338 -193 -193 172 -193 -193 90 88 -209 -177 -193 80 80 81 83 83 89 -193 -193 99 237 -177 -177 -193 -193 -193 110 115 116 -193 125 133 131 132 134 134 134 134 137 137 138 140 140 141 143 144 145 145 147 -193 -193 -177 -177 -193 153 153 153 153 -193 157 159 157 163 164 162 163 163 162 164 163 167 167 -193 173 178 179 181 179 181 182 182 184 -193 -193 -193 -193 202 205 206 207 206 207 0 0 0 0 0
    0 0 0 0 0 0 0 0 0 0 0 0 0 0 0 0 0 0 0 0 0 0 0 0 0 0 0 0 0 0 0 0 0 0 0 0 0 0 0 0 0 0 0 0 0 0 0 0 0 0 0 0 0 0 0 0 0 0 0 0 0 0 0 0 0 0 0 0 0 46 46 46 47 44 43 40 39 39 39 37 37 35 36 34 34 35 31 30 31 35 34 31 32 35 31 32 32 32 33 30 34 32 29 29 29 30 28 26 -193 -193 -193 23 22 22 19 19 19 17 19 16 16 17 14 14 14 13 12 12 11 11 10 10 10 9 10 11 12 13 11 10 10 10 10 10 11 10 9 10 9 9 9 9 9 9 0 0 0 0 0 0 0 0 0 9 10 11 12 13 13 16 24 23 27 27 31 30 30 32 34 32 34 35 35 33 38 39 39 37 37 37 38 46 47 51 -193 -177 -177 -177 -177 -193 115 -193 -193 62 60 63 -193 66 67 -193 -177 -177 -177 75 83 78 78 82 82 84 -193 -193 -193 339 -193 93 -193 -193 93 91 -193 -177 -177 -177 81 81 81 83 83 -193 -193 -193 99 237 -177 -177 -193 -193 -193 110 115 116 -193 124 133 131 132 134 135 135 135 137 137 138 140 140 141 142 144 145 145 147 -193 -193 -177 -177 -193 152 152 152 152 911 157 159 158 162 163 162 163 162 162 164 163 167 168 170 176 181 180 181 180 181 182 183 184 187 187 191 198 201 205 205 206 206 207 0 0 0 0 0
    0 0 0 0 0 0 0 0 0 0 0 0 0 0 0 0 0 0 0 0 0 0 0 0 0 0 0 0 0 0 0 0 0 0 0 0 0 0 0 0 0 0 0 0 0 0 0 0 0 0 0 0 0 0 0 0 0 0 0 0 0 0 0 0 0 0 0 0 0 47 46 46 48 43 42 39 38 38 37 36 36 34 35 33 33 34 31 30 31 35 34 32 32 36 31 32 32 32 33 30 34 32 29 29 29 30 29 26 27 -193 -193 23 22 22 20 19 19 18 19 17 16 17 14 13 13 13 11 11 10 10 9 9 9 0 9 10 11 13 11 10 10 10 10 10 10 10 10 11 10 10 10 10 11 10 9 8 0 0 0 0 0 0 0 9 10 11 12 13 13 16 23 22 27 26 30 29 29 31 33 31 34 35 35 32 37 39 39 37 38 38 38 46 47 51 49 -177 -177 -177 -177 -193 115 -193 -193 63 60 63 66 67 67 -193 -177 -177 -177 75 83 78 78 82 83 84 -193 -177 -177 340 90 94 92 -193 94 92 90 -177 -177 -177 81 81 82 83 83 -193 -193 676 -193 237 -177 -177 -193 -193 -193 110 115 116 117 123 132 131 132 134 135 135 135 136 -193 -193 139 139 141 142 144 145 145 146 148 147 -177 -193 -193 150 151 151 151 912 156 158 158 160 162 161 162 161 161 162 163 167 169 171 178 182 182 182 181 182 182 183 184 187 187 190 198 200 203 203 205 206 207 0 0 0 0 0
    0 0 0 0 0 0 0 0 0 0 0 0 0 0 0 0 0 0 0 0 0 0 0 0 0 0 0 0 0 0 0 0 0 0 0 0 0 0 0 0 0 0 0 0 0 0 0 0 0 0 0 0 0 0 0 0 0 0 0 0 0 0 0 0 0 0 0 0 0 47 46 45 47 43 41 38 37 37 37 36 36 34 35 34 33 34 31 30 31 35 35 31 32 36 31 32 32 32 33 30 34 32 29 29 29 30 29 -193 -193 -193 -193 22 22 22 20 19 19 18 20 17 15 16 14 12 12 12 11 10 9 10 9 9 9 0 0 9 10 11 10 10 10 10 10 10 10 10 10 12 11 12 12 12 12 11 10 9 0 9 0 0 0 0 0 9 10 11 11 13 13 15 23 21 25 25 29 28 28 29 32 30 32 34 34 32 36 38 38 36 38 38 38 47 48 51 50 -177 -177 -177 -177 -209 -193 60 -193 63 60 64 66 67 68 -193 -177 -177 -177 75 83 78 78 82 83 84 -177 -193 -193 340 91 94 93 -193 94 92 91 -193 -177 -177 81 82 82 84 84 709 -193 676 -193 236 -177 -177 -177 -177 -193 109 114 115 117 123 131 131 132 135 135 135 135 136 -193 -193 139 139 140 141 143 144 145 146 147 146 -177 -193 -193 150 151 151 151 912 156 157 157 158 162 161 161 161 160 161 162 166 169 171 179 183 -193 183 182 183 182 183 185 187 186 190 198 200 203 203 205 206 207 0 0 0 0 0
    0 0 0 0 0 0 0 0 0 0 0 0 0 0 0 0 0 0 0 0 0 0 0 0 0 0 0 0 0 0 0 0 0 0 0 0 0 0 0 0 0 0 0 0 0 0 0 0 0 0 0 0 0 0 0 0 0 0 0 0 0 0 0 0 0 0 0 0 0 46 45 44 46 42 40 37 37 37 37 35 36 34 35 34 33 34 32 30 32 35 35 31 31 36 31 32 32 32 33 30 34 32 29 29 30 30 29 -193 -193 -193 22 22 21 22 20 19 19 17 20 17 15 16 14 12 12 13 11 10 9 9 9 9 0 0 0 8 9 10 10 9 9 10 10 10 11 10 11 12 12 13 13 13 14 12 12 10 9 9 9 0 0 0 0 9 10 11 11 12 12 13 22 20 24 24 -177 -177 27 28 30 29 31 34 34 31 36 38 38 36 38 38 38 46 48 52 -193 370 366 367 -177 -193 -193 61 62 -177 60 64 66 67 68 -193 -177 -177 -177 75 83 79 78 82 84 83 -177 87 -193 341 91 94 92 -193 93 92 92 -193 -193 -177 82 82 83 84 85 -193 -193 676 677 236 -177 -177 -177 -177 -193 108 112 114 115 122 131 131 133 135 135 135 134 135 -193 -177 138 -193 140 140 -193 143 144 145 147 145 -177 -177 -177 149 150 150 151 -193 156 157 157 157 161 160 160 160 160 160 161 166 168 171 180 183 183 183 183 183 183 185 186 189 -193 191 198 200 202 203 205 206 207 0 0 0 0 0
    0 0 0 0 0 0 0 0 0 0 0 0 0 0 0 0 0 0 0 0 0 0 0 0 0 0 0 0 0 0 0 0 0 0 0 0 0 0 0 0 0 0 0 0 0 0 0 0 0 0 0 0 0 0 0 0 0 0 0 0 0 0 0 0 0 0 0 0 0 45 44 44 45 41 39 37 36 36 36 35 36 34 34 34 33 34 32 30 32 34 35 31 31 36 31 31 32 32 33 30 34 32 29 30 30 30 29 -193 27 22 21 22 21 21 20 18 19 17 20 17 15 16 14 12 13 13 12 10 9 9 9 9 9 0 0 0 9 10 9 9 9 10 9 10 11 11 12 12 13 13 14 14 15 13 13 10 10 10 9 0 0 0 9 9 10 10 10 11 11 12 21 19 24 24 27 27 27 28 30 29 30 33 33 31 35 37 37 35 38 38 38 46 49 52 -193 -177 367 367 -193 -193 60 62 63 -177 61 65 66 67 68 68 -193 -193 -193 75 83 79 78 81 84 83 -177 86 -193 341 90 93 92 172 93 92 92 -177 -177 -177 82 83 83 85 86 -193 -193 675 677 236 -177 -177 -177 -177 -193 107 111 113 114 122 132 131 133 135 135 135 134 134 -193 -177 -193 -193 140 140 -209 143 144 144 146 144 -177 -193 -177 149 150 150 150 -193 156 156 158 156 160 160 160 160 161 160 163 167 169 173 181 183 183 184 183 184 184 186 187 189 187 190 197 198 201 201 -193 205 206 0 0 0 0 0
    0 0 0 0 0 0 0 0 0 0 0 0 0 0 0 0 0 0 0 0 0 0 0 0 0 0 0 0 0 0 0 0 0 0 0 0 0 0 0 0 0 0 0 0 0 0 0 0 0 0 0 0 0 0 0 0 0 0 0 0 0 0 0 0 0 0 0 0 0 45 44 44 44 41 39 37 36 36 36 35 35 34 35 34 33 34 32 30 32 34 35 31 31 36 31 31 31 31 33 30 34 32 29 30 30 30 29 -193 27 22 21 22 21 21 19 18 18 16 20 17 14 15 14 12 13 13 13 11 10 10 10 9 9 9 9 0 9 10 10 9 9 10 10 10 12 11 12 13 13 13 14 14 15 12 14 11 10 10 9 9 9 0 9 9 10 11 10 11 11 11 19 17 22 23 27 26 26 26 29 28 30 32 32 30 35 37 37 35 38 38 38 46 50 52 52 -177 -193 -193 59 60 61 63 64 -177 61 65 66 67 68 68 -193 -193 -193 75 83 79 78 81 84 82 -193 85 86 341 -193 92 91 -177 92 91 92 -177 -177 -177 -177 -177 84 85 86 -193 -209 674 677 236 237 238 -177 238 235 107 110 112 113 121 131 131 133 135 135 135 134 134 -193 -177 -209 -193 140 139 -209 142 143 144 146 144 -193 -193 -177 149 151 151 151 -193 155 156 158 156 161 161 160 160 160 160 163 167 171 176 182 184 183 184 183 183 184 185 186 188 186 189 195 196 198 199 -209 203 205 0 0 0 0 0
    0 0 0 0 0 0 0 0 0 0 0 0 0 0 0 0 0 0 0 0 0 0 0 0 0 0 0 0 0 0 0 0 0 0 0 0 0 0 0 0 0 0 0 0 0 0 0 0 0 0 0 0 0 0 0 0 0 0 0 0 0 0 0 0 0 0 0 0 0 45 44 44 44 40 38 37 35 36 36 34 35 34 34 34 33 34 32 31 32 34 36 32 31 36 31 31 31 31 34 30 34 32 29 30 30 30 29 26 26 22 21 21 21 21 19 18 18 16 20 16 14 15 15 13 14 15 16 12 12 11 12 10 10 9 9 0 9 10 9 9 9 10 9 10 13 12 13 14 14 14 14 14 16 13 14 11 11 11 10 10 10 9 10 9 11 11 11 12 11 12 19 16 22 22 26 26 26 26 29 28 29 32 32 30 34 36 36 35 38 38 38 46 49 52 53 -193 58 58 59 60 60 63 64 63 60 64 65 67 67 68 -193 -209 -193 75 83 79 78 81 83 81 86 84 85 -193 -193 90 89 -177 90 -193 -193 -177 -177 -193 -177 -177 84 85 87 -193 -209 672 -193 236 237 238 -177 239 236 106 109 111 112 121 131 129 132 134 135 135 134 133 134 -177 -193 -193 139 139 -209 141 143 143 145 143 -193 -193 -177 149 151 151 151 912 155 157 158 156 162 162 162 162 161 160 165 168 172 177 183 183 183 184 183 184 184 -193 186 187 185 187 188 190 190 195 198 202 204 0 0 0 0 0
    0 0 0 0 0 0 0 0 0 0 0 0 0 0 0 0 0 0 0 0 0 0 0 0 0 0 0 0 0 0 0 0 0 0 0 0 0 0 0 0 0 0 0 0 0 0 0 0 0 0 0 0 0 0 0 0 0 0 0 0 0 0 0 0 0 0 0 0 0 45 44 44 43 40 37 37 35 36 36 35 35 34 35 35 33 35 33 31 32 34 36 32 31 36 31 31 31 31 34 29 33 32 29 30 30 30 29 26 26 22 21 21 21 21 19 19 18 16 20 17 15 15 16 15 17 17 18 14 15 12 13 10 9 9 0 0 0 9 9 0 9 10 10 10 13 12 13 14 14 14 14 14 16 13 15 12 12 12 11 11 11 10 11 9 11 12 11 11 11 11 17 15 22 22 26 27 27 27 30 29 29 31 32 30 33 36 36 34 38 38 38 46 48 52 54 58 59 59 60 60 61 63 65 63 60 63 65 66 67 68 -193 73 73 75 84 80 79 80 83 80 85 83 84 -193 87 -193 88 -193 -193 -193 -193 -177 -193 -193 -177 -177 -177 85 87 -193 -193 -177 -193 236 237 238 238 239 236 106 109 110 112 121 130 129 132 133 134 134 134 133 133 -177 136 -193 -193 138 141 141 142 142 145 143 -193 -193 -177 148 151 -193 -193 912 155 157 158 156 162 163 163 163 162 162 166 169 172 174 179 180 181 182 182 183 -209 -209 -193 -193 -209 186 -193 -209 -209 -193 191 197 200 0 0 0 0 0
    0 0 0 0 0 0 0 0 0 0 0 0 0 0 0 0 0 0 0 0 0 0 0 0 0 0 0 0 0 0 0 0 0 0 0 0 0 0 0 0 0 0 0 0 0 0 0 0 0 0 0 0 0 0 0 0 0 0 0 0 0 0 0 0 0 0 0 0 0 44 43 44 44 -193 37 37 36 36 36 36 36 35 35 35 34 35 34 31 33 34 36 32 31 36 31 31 31 31 33 29 32 31 28 30 30 30 29 26 26 22 21 22 21 22 20 20 19 17 20 18 15 16 17 15 18 18 18 14 15 13 13 11 10 9 0 0 0 0 9 0 0 9 9 10 13 12 13 13 13 14 14 14 16 13 17 12 12 13 13 12 12 11 12 10 11 12 11 11 11 11 16 15 22 22 26 27 27 27 29 28 29 31 31 31 33 37 36 35 38 39 39 46 47 52 55 58 59 59 60 60 61 63 64 62 60 61 64 66 67 68 71 74 74 76 84 80 80 81 84 80 84 82 83 84 86 -193 86 -193 88 88 -177 -193 87 -193 -177 -177 -177 -177 88 93 -193 -209 -193 236 238 238 239 240 -193 107 109 110 113 121 129 128 131 133 134 134 133 132 133 -193 135 -193 -193 137 141 140 141 142 145 143 144 -193 -177 149 151 -193 -193 -193 155 157 158 156 161 162 162 162 162 162 166 169 171 173 176 179 181 182 182 183 -209 -209 186 -193 -193 -193 -193 -209 -193 -193 -193 189 188 0 0 0 0 0
    0 0 0 0 0 0 0 0 0 0 0 0 0 0 0 0 0 0 0 0 0 0 0 0 0 0 0 0 0 0 0 0 0 0 0 0 0 0 0 0 0 0 0 0 0 0 0 0 0 0 0 0 0 0 0 0 0 0 0 0 0 0 0 0 0 0 0 0 0 44 43 44 44 -193 38 38 36 37 37 36 37 36 36 36 35 36 34 32 33 34 36 32 31 35 31 30 31 31 33 29 32 31 28 30 30 30 29 26 26 22 21 22 21 22 21 21 20 18 21 19 17 17 18 17 19 20 21 17 19 15 17 14 13 10 9 0 9 9 9 0 0 9 9 10 13 12 13 13 13 15 15 14 16 14 17 14 14 14 14 13 14 12 13 10 12 12 11 11 11 10 16 14 22 22 25 27 27 27 29 29 29 31 32 32 34 37 37 37 39 40 40 46 48 53 -193 59 60 60 60 61 61 62 64 61 59 60 62 65 65 67 71 74 75 77 85 81 81 81 84 79 84 82 83 83 85 87 86 -193 87 87 -193 -209 87 -193 84 86 86 -193 90 96 102 -193 -193 -193 -193 240 -193 -193 106 108 110 110 113 119 124 125 129 132 133 133 133 132 132 132 133 135 -193 136 140 139 141 141 145 144 145 -193 -193 149 152 -193 -193 -193 155 157 157 155 158 160 160 159 160 160 164 168 170 171 173 176 179 182 183 184 -193 -209 -209 -209 -209 -209 -209 -209 -209 -209 -193 190 189 0 0 0 0 0
    0 0 0 0 0 0 0 0 0 0 0 0 0 0 0 0 0 0 0 0 0 0 0 0 0 0 0 0 0 0 0 0 0 0 0 0 0 0 0 0 0 0 0 0 0 0 0 0 0 0 0 0 0 0 0 0 0 0 0 0 0 0 0 0 0 0 0 0 0 44 44 44 45 41 39 39 37 38 38 37 37 36 37 36 35 36 35 32 33 34 36 31 31 35 31 30 30 30 32 28 32 31 28 29 30 30 29 26 26 23 22 22 22 22 22 22 21 20 22 20 19 19 20 19 21 22 22 20 22 19 21 18 17 13 11 9 9 10 10 0 0 9 9 10 13 13 13 13 13 15 14 14 15 14 17 14 14 15 14 14 15 13 14 11 12 12 12 11 11 10 15 14 21 22 26 27 27 27 29 29 29 30 32 32 34 38 38 38 40 40 41 47 48 53 -193 58 60 60 60 61 61 61 63 60 59 59 61 62 62 66 71 74 75 77 85 82 81 82 84 79 83 82 83 83 85 86 85 -193 -193 -193 -193 88 86 -193 85 -193 -209 -193 92 -193 103 -193 -193 107 109 109 110 110 107 109 110 110 111 117 121 123 126 129 131 132 132 132 132 131 132 134 135 135 138 138 140 141 146 145 147 -193 -193 151 153 -193 -193 -193 155 157 157 155 158 159 160 158 160 160 165 168 170 171 173 175 178 182 184 186 185 -209 -209 -209 -193 -209 -209 -193 -209 -193 -209 -209 195 0 0 0 0 0
    0 0 0 0 0 0 0 0 0 0 0 0 0 0 0 0 0 0 0 0 0 0 0 0 0 0 0 0 0 0 0 0 0 0 0 0 0 0 0 0 0 0 0 0 0 0 0 0 0 0 0 0 0 0 0 0 0 0 0 0 0 0 0 0 0 0 0 0 0 47 48 49 50 45 42 41 40 39 38 38 38 36 37 36 35 36 35 33 33 34 37 31 31 34 31 30 30 30 32 28 31 31 28 29 30 30 29 26 26 23 22 23 22 23 22 23 22 21 23 22 21 21 21 22 23 24 24 23 24 22 23 21 20 14 12 10 10 11 11 9 9 9 9 10 13 12 13 13 13 14 14 14 15 14 17 15 15 16 15 16 16 14 14 11 13 13 12 11 11 10 15 14 22 23 27 28 28 28 30 29 30 31 33 34 36 39 39 39 41 41 42 47 48 53 56 57 59 59 59 60 60 60 62 59 59 59 60 61 60 66 72 75 75 78 85 82 81 82 84 79 83 83 83 84 84 86 85 84 -193 -193 87 87 86 -193 -193 -177 -193 -193 95 -193 104 106 106 108 110 110 110 111 108 110 110 109 110 115 119 121 124 126 129 131 132 132 132 131 131 133 133 133 136 136 138 139 147 147 148 -193 -193 153 154 -193 154 154 155 157 157 155 158 159 159 158 160 161 165 168 170 171 173 176 179 182 184 187 188 -209 -209 -209 -193 -209 -209 -209 -209 -209 -209 -209 -193 0 0 0 0 0
    0 0 0 0 0 0 0 0 0 0 0 0 0 0 0 0 0 0 0 0 0 0 0 0 0 0 0 0 0 0 0 0 0 0 0 0 0 0 0 0 0 0 0 0 0 0 0 0 0 0 0 0 0 0 0 0 0 0 0 0 0 0 0 0 0 0 0 0 0 51 53 54 54 51 46 46 43 41 39 39 39 37 38 36 35 36 35 32 32 33 37 31 31 34 31 30 30 30 31 27 30 30 28 28 29 29 28 25 26 23 23 23 23 23 22 24 23 22 24 23 23 23 23 23 25 25 26 25 25 24 25 23 23 17 14 11 11 12 11 9 9 9 9 9 12 12 12 13 13 15 14 14 15 15 17 15 16 16 15 16 17 15 14 12 14 13 12 12 12 11 17 17 24 24 28 29 28 28 30 29 30 31 34 34 36 39 39 39 41 41 42 47 47 53 56 56 58 58 58 59 59 59 60 58 58 58 59 59 58 64 73 76 76 78 85 83 82 82 85 80 83 83 83 83 84 85 85 83 87 -193 86 86 86 -193 -193 -177 -193 -209 97 -193 105 106 107 109 110 111 111 112 109 110 111 109 110 114 118 120 122 123 126 128 130 131 131 130 130 132 132 133 135 135 136 137 146 147 149 -193 -193 154 155 155 155 155 155 158 157 155 159 160 160 159 161 162 165 168 170 171 173 176 177 180 182 183 183 -193 -209 -209 -209 -209 -209 -209 -209 -209 -209 -193 -193 0 0 0 0 0
    0 0 0 0 0 0 0 0 0 0 0 0 0 0 0 0 0 0 0 0 0 0 0 0 0 0 0 0 0 0 0 0 0 0 0 0 0 0 0 0 0 0 0 0 0 0 0 0 0 0 0 0 0 0 0 0 0 0 0 0 0 0 0 0 0 0 0 0 0 54 55 56 57 54 51 52 48 43 41 40 40 37 38 36 34 35 34 32 31 32 37 32 31 33 31 30 30 30 31 27 29 29 27 28 28 28 27 25 26 24 23 23 23 24 23 25 24 24 25 25 26 27 26 27 28 28 27 27 27 26 27 26 25 20 15 13 12 12 10 9 9 0 0 9 10 11 12 13 14 15 15 15 16 17 18 17 17 18 17 18 19 16 15 13 14 13 12 12 12 11 17 16 21 23 26 27 27 26 28 27 29 29 32 33 34 38 39 39 41 41 42 48 47 53 56 55 57 57 57 58 58 58 58 56 57 57 57 58 56 62 73 76 76 77 84 82 82 82 85 80 83 83 83 83 83 85 85 83 87 -193 85 86 85 89 -193 -177 -193 -193 99 -209 105 107 108 109 111 112 111 112 110 111 111 110 111 113 117 120 122 122 124 125 128 130 130 129 128 131 131 132 134 134 135 136 146 148 149 -193 154 154 155 156 156 156 155 158 157 156 159 160 160 159 160 161 164 167 170 170 172 174 174 178 180 181 -193 -193 -193 -193 -209 -209 -209 -209 -209 -193 -193 -193 -193 0 0 0 0 0
    0 0 0 0 0 0 0 0 0 0 0 0 0 0 0 0 0 0 0 0 0 0 0 0 0 0 0 0 0 0 0 0 0 0 0 0 0 0 0 0 0 0 0 0 0 0 0 0 0 0 0 0 0 0 0 0 0 0 0 0 0 0 0 0 0 0 0 0 0 56 56 57 58 56 53 53 49 44 42 41 40 37 37 36 34 34 34 31 31 32 36 32 31 33 31 30 30 30 30 26 28 28 27 27 27 27 27 25 26 25 24 24 24 25 25 26 25 25 25 27 29 29 29 30 31 30 28 28 28 27 29 27 26 22 17 15 14 13 9 0 0 0 0 0 0 10 11 13 14 15 15 16 17 18 18 17 18 18 18 18 19 17 15 13 14 12 11 12 12 11 18 17 21 23 25 26 26 25 27 27 28 28 31 31 33 38 38 39 41 42 43 48 49 53 56 55 56 56 57 58 58 57 57 55 58 56 57 57 55 61 72 74 75 76 83 82 81 82 84 80 83 84 84 84 84 85 85 84 88 87 86 86 87 90 89 -193 -193 -193 -193 -209 106 107 109 110 111 112 112 113 111 112 112 111 112 113 117 119 121 121 122 123 126 127 128 127 126 130 130 132 133 133 134 135 145 149 149 151 154 154 155 155 155 155 154 158 157 156 160 160 161 160 161 162 164 167 170 169 170 172 172 175 177 -193 -193 64 69 68 70 -209 -209 -209 -193 -193 -193 -193 -193 0 0 0 0 0
    0 0 0 0 0 0 0 0 0 0 0 0 0 0 0 0 0 0 0 0 0 0 0 0 0 0 0 0 0 0 0 0 0 0 0 0 0 0 0 0 0 0 0 0 0 0 0 0 0 0 0 0 0 0 0 0 0 0 0 0 0 0 0 0 0 0 0 0 0 56 56 57 57 56 54 53 50 45 44 42 41 38 37 36 34 34 34 32 31 31 36 32 31 32 31 30 30 29 30 26 27 27 26 26 26 26 26 26 26 26 25 25 25 25 25 26 25 26 26 27 29 30 31 31 31 32 29 28 28 28 30 27 27 23 18 18 15 15 10 9 9 0 0 0 0 9 10 13 14 14 15 16 16 18 18 17 17 18 18 17 17 16 14 13 14 12 11 12 12 12 19 19 21 23 25 25 25 25 25 26 27 27 30 31 33 38 38 39 41 43 44 49 50 54 56 55 57 57 57 59 58 57 57 56 59 57 57 58 56 61 71 73 74 74 81 81 80 81 84 80 82 84 84 84 84 86 85 84 89 89 88 88 89 91 92 97 100 -193 103 -193 106 108 109 110 111 113 113 114 112 113 113 111 113 112 116 118 120 118 121 121 124 124 126 125 125 129 129 131 133 132 133 135 144 150 149 151 154 154 155 155 155 155 153 157 157 156 160 160 161 160 161 162 163 166 169 167 168 170 170 174 175 176 -193 -193 69 67 70 -209 -209 -209 -209 -193 -193 -193 -193 0 0 0 0 0
    0 0 0 0 0 0 0 0 0 0 0 0 0 0 0 0 0 0 0 0 0 0 0 0 0 0 0 0 0 0 0 0 0 0 0 0 0 0 0 0 0 0 0 0 0 0 0 0 0 0 0 0 0 0 0 0 0 0 0 0 0 0 0 0 0 0 0 0 0 55 56 56 57 55 53 53 50 47 46 43 42 40 39 38 35 34 35 32 31 32 36 32 30 31 31 30 30 29 29 26 26 27 26 26 26 26 26 26 27 27 26 26 26 26 26 26 26 26 26 27 30 30 31 31 31 32 29 28 28 28 30 28 27 25 20 20 17 16 11 10 10 9 9 9 9 11 12 15 15 15 15 16 16 18 18 17 17 17 17 17 16 17 15 13 14 12 11 14 13 13 18 19 21 22 24 23 23 24 25 25 27 27 30 30 34 38 39 40 42 44 44 50 52 55 -193 55 57 57 57 59 58 56 57 55 59 57 57 58 56 60 68 71 72 73 78 79 79 79 84 80 81 84 84 85 85 86 86 85 89 90 89 90 91 93 95 100 102 103 103 -193 106 107 108 110 111 112 112 114 113 113 114 112 113 111 115 117 119 117 120 120 123 124 126 125 124 128 129 131 132 131 133 134 142 151 149 150 154 154 155 155 155 154 153 157 158 156 159 159 160 159 159 160 162 164 168 166 166 168 168 173 175 -193 -193 -193 -193 67 69 -193 -193 -209 -209 -193 -193 -193 -193 0 0 0 0 0
    0 0 0 0 0 0 0 0 0 0 0 0 0 0 0 0 0 0 0 0 0 0 0 0 0 0 0 0 0 0 0 0 0 0 0 0 0 0 0 0 0 0 0 0 0 0 0 0 0 0 0 0 0 0 0 0 0 0 0 0 0 0 0 0 0 0 0 0 0 56 57 57 57 55 54 53 50 48 48 45 43 42 41 39 36 35 35 32 31 32 35 32 30 31 31 30 30 30 29 26 26 27 26 25 26 25 26 26 27 27 26 26 26 26 26 26 26 25 26 27 30 29 32 30 30 33 29 29 29 28 30 28 27 25 20 20 17 17 11 10 11 10 9 10 11 13 14 16 15 15 15 17 16 18 17 16 17 17 17 17 15 17 14 14 14 11 11 15 14 15 17 19 20 22 24 23 23 24 25 25 27 27 30 30 34 38 38 41 42 44 44 50 53 56 57 55 57 57 58 59 59 56 57 56 59 57 57 58 55 59 64 65 69 71 74 76 77 77 83 79 81 84 84 85 86 86 86 85 90 90 89 90 91 92 96 101 102 -193 -193 -193 106 107 108 109 110 110 110 112 111 111 112 112 112 111 115 117 119 117 120 120 123 123 125 125 125 129 130 132 133 132 133 134 141 150 148 149 153 154 154 154 154 154 149 157 159 157 161 160 161 160 160 161 161 164 167 165 165 167 167 171 173 174 -193 -193 -193 -193 -193 -193 -193 -193 -209 -193 -193 -193 -193 0 0 0 0 0
    0 0 0 0 0 0 0 0 0 0 0 0 0 0 0 0 0 0 0 0 0 0 0 0 0 0 0 0 0 0 0 0 0 0 0 0 0 0 0 0 0 0 0 0 0 0 0 0 0 0 0 0 0 0 0 0 0 0 0 0 0 0 0 0 0 0 0 0 0 57 58 57 57 56 55 53 51 50 50 46 45 43 42 40 37 36 36 33 31 32 35 33 31 30 31 30 31 30 29 26 26 27 26 25 26 26 26 27 29 27 26 27 27 26 26 26 26 25 26 27 30 29 32 30 31 33 29 29 28 27 29 27 27 25 20 20 17 19 12 11 13 12 11 12 13 16 17 18 16 15 15 17 16 18 17 16 17 16 17 17 15 17 14 14 14 11 11 16 14 15 16 19 20 22 24 23 23 24 26 25 27 27 29 30 32 37 37 40 42 44 44 49 52 55 56 55 57 -193 57 58 58 55 56 55 58 54 56 56 52 59 62 63 66 69 73 74 75 75 82 79 80 83 84 84 86 86 86 85 90 90 89 89 91 91 96 102 102 -193 -193 -193 105 106 107 108 108 109 108 111 111 110 112 113 113 113 117 119 120 118 120 121 123 123 125 125 125 129 131 133 134 134 135 135 140 149 146 147 151 152 153 153 153 153 143 156 160 159 163 163 163 163 163 164 -193 -193 -209 165 166 167 168 170 172 -209 -193 -193 62 -193 -193 -193 -193 -193 -193 194 -193 196 198 0 0 0 0 0
    0 0 0 0 0 0 0 0 0 0 0 0 0 0 0 0 0 0 0 0 0 0 0 0 0 0 0 0 0 0 0 0 0 0 0 0 0 0 0 0 0 0 0 0 0 0 0 0 0 0 0 0 0 0 0 0 0 0 0 0 0 0 0 0 0 0 0 0 0 57 58 57 57 56 55 54 51 50 50 47 46 45 44 42 38 36 36 33 32 32 34 33 31 30 31 30 32 31 29 27 26 27 26 25 26 26 26 28 30 28 27 28 29 27 27 27 26 25 26 27 31 29 32 30 31 33 30 30 29 27 29 27 27 26 21 21 18 21 13 12 16 16 14 15 17 19 19 19 17 14 15 18 16 18 18 17 17 17 17 17 15 18 14 13 13 11 10 16 15 15 16 19 20 22 24 23 23 25 26 26 27 27 29 29 31 36 35 39 41 43 43 48 51 54 55 55 56 57 57 58 58 55 56 55 57 52 55 56 54 60 64 62 67 70 73 74 75 74 81 78 79 82 82 83 85 85 85 83 89 89 89 89 91 91 95 101 101 103 103 104 104 105 106 107 106 108 107 109 110 110 114 117 117 118 120 121 121 119 121 122 124 123 125 126 126 132 133 135 136 136 137 137 141 148 145 146 149 150 151 151 151 150 140 156 162 162 166 165 165 165 165 166 -193 -193 -193 165 166 168 168 169 171 172 -193 -193 -193 182 185 -193 187 188 189 190 189 192 195 0 0 0 0 0
    0 0 0 0 0 0 0 0 0 0 0 0 0 0 0 0 0 0 0 0 0 0 0 0 0 0 0 0 0 0 0 0 0 0 0 0 0 0 0 0 0 0 0 0 0 0 0 0 0 0 0 0 0 0 0 0 0 0 0 0 0 0 0 0 0 0 0 0 0 56 57 56 56 55 54 53 50 49 50 48 47 45 44 43 39 37 36 33 32 32 34 34 31 30 31 30 32 31 29 27 25 27 26 25 27 26 26 28 29 28 27 28 29 28 28 28 26 26 27 27 31 29 31 30 30 33 30 30 29 27 28 27 27 26 22 22 17 22 15 14 21 21 20 19 21 21 21 20 18 15 15 18 16 18 18 17 17 17 18 18 15 19 14 12 12 11 11 16 15 15 15 18 19 21 23 22 23 24 26 26 26 27 28 29 30 34 34 38 40 42 42 46 51 52 55 55 57 57 57 58 57 55 56 55 57 47 52 52 52 59 62 60 68 72 74 75 75 75 81 78 79 80 80 82 84 84 84 82 88 89 91 90 93 92 96 101 102 103 102 102 102 100 103 104 101 100 97 104 107 109 116 119 122 122 122 123 122 121 122 123 124 123 -193 126 128 133 134 137 138 138 139 139 141 148 145 145 148 149 149 149 149 149 139 155 164 165 167 167 167 167 166 167 167 167 167 164 165 168 168 169 169 171 174 178 178 181 184 185 186 188 190 190 191 193 195 0 0 0 0 0
    0 0 0 0 0 0 0 0 0 0 0 0 0 0 0 0 0 0 0 0 0 0 0 0 0 0 0 0 0 0 0 0 0 0 0 0 0 0 0 0 0 0 0 0 0 0 0 0 0 0 0 0 0 0 0 0 0 0 0 0 0 0 0 0 0 0 0 0 0 55 55 55 54 53 53 53 50 50 51 49 48 46 45 43 39 37 36 33 32 32 33 34 31 30 31 30 33 31 30 28 26 27 26 25 27 26 26 28 29 28 27 28 29 28 28 28 27 26 27 27 30 28 31 30 30 33 30 30 29 27 28 27 27 27 23 22 16 22 20 19 23 23 23 21 23 22 21 20 18 14 14 18 16 17 19 17 17 17 19 19 15 20 15 12 12 11 11 15 14 14 14 17 19 21 23 22 23 25 27 27 27 28 28 30 31 34 34 38 41 42 42 46 51 51 54 55 57 57 57 58 58 56 57 57 57 47 54 54 57 60 61 59 68 72 75 74 75 75 81 78 79 80 80 81 85 84 85 83 89 90 93 92 95 93 96 101 102 102 101 99 99 95 98 -193 89 86 87 90 93 -193 111 119 123 125 125 125 123 123 122 124 -193 123 -193 127 130 134 135 138 138 138 140 140 142 148 144 145 146 148 147 148 148 148 139 155 165 165 167 168 167 167 167 167 167 167 168 165 165 167 167 168 168 170 171 172 174 178 182 184 186 188 191 192 193 194 197 0 0 0 0 0
    0 0 0 0 0 0 0 0 0 0 0 0 0 0 0 0 0 0 0 0 0 0 0 0 0 0 0 0 0 0 0 0 0 0 0 0 0 0 0 0 0 0 0 0 0 0 0 0 0 0 0 0 0 0 0 0 0 0 0 0 0 0 0 0 0 0 0 0 0 54 54 53 53 51 52 53 50 50 52 51 50 47 47 44 40 38 37 34 32 33 33 34 31 30 31 31 33 32 30 28 26 28 26 25 27 26 26 28 29 28 28 28 29 28 28 28 27 26 27 27 30 28 31 29 30 34 30 31 29 27 28 27 27 27 23 22 17 24 22 22 26 26 26 23 24 23 21 19 17 13 13 18 15 15 17 15 15 15 17 16 13 18 15 12 13 12 12 16 14 15 14 18 20 22 24 23 25 27 28 28 29 29 30 32 32 35 35 38 40 42 42 45 49 50 54 55 57 57 57 58 58 57 58 58 58 55 58 58 60 62 62 61 68 71 76 74 74 75 81 78 79 79 79 79 84 84 84 82 88 89 93 93 95 93 95 100 101 101 100 98 99 93 96 86 87 86 86 85 86 82 -193 -193 -209 124 125 125 124 124 122 124 127 123 126 127 132 135 135 138 138 138 140 140 142 148 145 145 146 147 147 147 148 147 138 154 167 166 167 168 167 167 167 167 168 167 167 165 165 167 167 168 168 169 169 171 172 174 179 183 -193 187 190 191 194 194 196 0 0 0 0 0
    0 0 0 0 0 0 0 0 0 0 0 0 0 0 0 0 0 0 0 0 0 0 0 0 0 0 0 0 0 0 0 0 0 0 0 0 0 0 0 0 0 0 0 0 0 0 0 0 0 0 0 0 0 0 0 0 0 0 0 0 0 0 0 0 0 0 0 0 0 53 53 52 52 52 52 53 51 52 53 52 52 49 50 45 41 38 37 34 33 33 34 35 32 30 31 31 33 33 31 29 26 28 26 26 28 26 26 28 29 28 28 29 30 28 28 28 27 27 28 27 29 27 30 29 29 34 31 32 30 28 29 27 28 27 23 22 17 25 24 24 29 29 30 25 28 25 22 20 17 13 13 17 14 15 17 15 15 15 16 16 13 18 15 13 13 12 12 17 16 16 15 19 21 24 26 25 27 29 30 30 30 30 31 34 34 35 35 38 40 41 41 43 -193 47 53 55 57 57 57 58 58 57 59 59 58 57 59 59 60 62 62 61 67 70 75 75 75 76 81 79 79 79 79 79 83 84 84 81 88 90 92 94 95 92 94 99 100 100 100 99 100 95 98 88 89 87 86 85 87 84 -193 -193 -209 -193 123 123 122 123 122 125 130 125 129 132 136 136 136 139 139 138 140 140 143 149 146 146 147 148 148 148 149 148 138 154 167 167 166 166 165 166 166 166 167 165 164 164 165 167 166 166 167 167 168 171 172 172 178 183 -209 -209 -209 190 195 194 196 0 0 0 0 0
    0 0 0 0 0 0 0 0 0 0 0 0 0 0 0 0 0 0 0 0 0 0 0 0 0 0 0 0 0 0 0 0 0 0 0 0 0 0 0 0 0 0 0 0 0 0 0 0 0 0 0 0 0 0 0 0 0 0 0 0 0 0 0 0 0 0 0 0 0 52 53 53 53 53 53 54 52 53 54 53 53 51 51 47 43 38 37 35 33 34 34 35 32 31 32 32 34 33 31 30 27 30 27 26 28 26 26 28 29 28 28 29 31 29 29 30 29 28 29 28 30 27 30 28 29 35 31 32 29 28 28 27 28 27 23 22 19 27 27 28 32 32 33 29 29 26 24 22 19 15 13 18 15 16 17 15 15 15 16 16 13 19 14 13 12 12 12 -193 16 16 14 19 22 25 27 27 29 31 31 31 31 31 32 34 34 35 36 39 40 41 40 42 -193 46 52 55 57 57 57 58 57 57 59 60 58 57 59 59 60 62 61 61 67 70 75 75 76 77 82 79 80 80 79 79 83 84 84 81 88 89 92 93 94 92 92 95 96 97 96 92 94 91 91 86 88 87 87 85 87 85 -193 -193 -209 122 123 124 124 126 125 128 132 129 131 134 137 137 137 139 140 139 141 141 144 150 147 148 148 149 149 150 150 150 139 154 166 166 164 165 163 164 165 166 167 164 162 163 164 167 166 166 167 167 168 171 172 172 177 -209 -209 -209 -193 191 195 194 196 0 0 0 0 0
    0 0 0 0 0 0 0 0 0 0 0 0 0 0 0 0 0 0 0 0 0 0 0 0 0 0 0 0 0 0 0 0 0 0 0 0 0 0 0 0 0 0 0 0 0 0 0 0 0 0 0 0 0 0 0 0 0 0 0 0 0 0 0 0 0 0 0 0 0 52 53 53 53 53 54 54 54 54 55 55 54 53 53 50 44 39 37 35 33 34 34 36 33 31 32 32 34 34 32 30 27 32 28 27 29 27 27 29 30 28 28 29 31 29 30 30 29 29 30 29 30 28 30 28 30 35 31 33 29 27 27 26 27 26 23 22 18 27 33 31 33 33 34 31 31 28 26 26 23 13 10 18 12 15 15 14 -177 -177 16 16 13 19 12 14 13 12 174 175 -193 16 16 20 23 26 29 30 31 32 32 32 32 32 32 34 34 34 36 38 40 40 40 42 46 46 51 55 56 56 57 57 57 57 59 60 57 57 59 59 59 62 61 61 67 70 76 76 76 78 82 79 81 80 79 78 82 84 83 80 88 89 92 94 94 92 91 94 96 95 -193 -193 91 68 -193 78 84 84 86 84 86 85 -193 -193 -209 123 123 124 124 126 125 128 132 129 130 134 137 137 137 139 140 139 141 142 144 150 148 149 149 150 150 149 150 149 139 151 156 155 154 153 156 162 163 163 165 163 162 163 165 168 168 167 169 170 171 173 174 175 179 -209 -209 -209 -209 191 194 193 195 0 0 0 0 0
    0 0 0 0 0 0 0 0 0 0 0 0 0 0 0 0 0 0 0 0 0 0 0 0 0 0 0 0 0 0 0 0 0 0 0 0 0 0 0 0 0 0 0 0 0 0 0 0 0 0 0 0 0 0 0 0 0 0 0 0 0 0 0 0 0 0 0 0 0 52 52 53 52 53 54 55 54 55 55 55 55 54 55 52 47 39 37 35 33 34 35 36 33 31 33 33 34 34 32 30 28 32 30 28 31 28 28 30 30 29 29 30 32 30 31 32 30 30 31 29 30 29 30 29 30 35 31 33 30 28 28 27 27 27 25 25 22 30 37 35 35 34 34 32 31 29 28 27 -193 14 14 -193 -193 13 -193 -193 12 14 12 11 13 15 -225 -225 -225 -225 -225 -225 -225 -225 22 22 24 32 32 31 34 33 32 32 32 33 32 34 34 34 35 38 39 40 40 42 47 46 50 54 55 54 55 56 56 56 59 60 57 58 59 59 59 63 62 62 68 71 75 76 76 78 80 79 80 80 79 78 81 83 83 80 88 89 93 97 97 94 92 94 96 95 -193 -209 -209 64 69 73 -209 82 85 84 -193 -193 -193 115 118 121 121 122 121 124 123 127 132 130 132 135 138 138 137 138 139 138 140 140 143 150 148 149 149 149 150 150 150 150 143 151 153 152 152 151 154 156 156 157 161 160 162 162 165 167 167 167 168 169 170 172 173 174 -193 -209 -193 -209 -209 -209 -193 193 195 0 0 0 0 0
    0 0 0 0 0 0 0 0 0 0 0 0 0 0 0 0 0 0 0 0 0 0 0 0 0 0 0 0 0 0 0 0 0 0 0 0 0 0 0 0 0 0 0 0 0 0 0 0 0 0 0 0 0 0 0 0 0 0 0 0 0 0 0 0 0 0 0 0 0 51 52 53 52 53 54 55 55 56 56 56 55 55 55 53 48 39 36 35 34 35 35 36 33 31 33 33 34 34 32 31 28 33 31 29 32 29 30 31 31 30 30 31 32 31 33 33 32 32 32 30 32 30 30 29 30 34 30 33 30 29 28 29 30 29 29 35 30 39 41 39 37 35 33 32 30 29 -225 -225 -225 -225 -225 -225 -225 -225 -225 -225 -225 -225 -225 -225 -225 -225 -225 -225 -225 -225 -225 -225 -225 -225 -225 -225 38 38 36 33 37 34 33 33 33 33 33 34 34 33 36 37 39 41 41 42 48 46 50 53 53 53 55 56 56 55 59 60 57 59 60 60 60 65 64 64 69 71 75 75 76 77 79 78 80 79 78 77 80 82 83 81 88 90 95 100 99 96 92 95 97 97 96 -193 -193 67 -193 -209 -209 76 80 83 88 -193 -209 -209 119 -193 117 -209 118 122 122 125 131 131 134 135 137 137 137 138 139 138 140 139 144 150 150 150 151 151 151 151 152 152 148 151 153 152 152 151 153 153 154 155 158 157 159 159 164 167 166 167 169 170 170 172 173 174 176 -209 -209 -209 -209 -193 196 196 196 0 0 0 0 0
    0 0 0 0 0 0 0 0 0 0 0 0 0 0 0 0 0 0 0 0 0 0 0 0 0 0 0 0 0 0 0 0 0 0 0 0 0 0 0 0 0 0 0 0 0 0 0 0 0 0 0 0 0 0 0 0 0 0 0 0 0 0 0 0 0 0 0 0 0 52 53 54 53 54 55 56 56 56 57 56 56 55 56 54 51 40 37 35 34 35 36 36 33 32 33 34 35 34 32 31 29 34 33 32 32 30 31 33 32 30 32 31 33 32 34 34 33 34 34 32 33 32 31 29 30 31 28 33 31 31 31 34 36 36 37 41 41 43 43 39 37 35 33 31 29 -225 -225 -225 -225 -225 -225 -225 -225 -225 -225 -225 -225 -225 -225 -225 -225 -225 -225 -225 -225 -225 -225 -225 -225 -225 -225 -225 -225 40 38 37 39 35 34 34 33 34 34 35 35 32 37 37 39 41 42 42 49 46 50 53 53 53 54 55 55 54 58 60 58 61 62 62 62 66 67 67 69 71 74 75 75 77 78 78 80 80 79 78 80 82 83 82 87 90 94 100 100 97 93 98 100 100 100 -193 93 -193 -209 -209 -209 76 80 82 86 85 -209 -209 119 -209 -209 -193 120 123 122 125 126 128 129 131 134 135 134 137 137 134 138 137 143 151 150 151 152 152 153 152 154 153 151 153 154 153 152 151 153 153 154 154 157 157 158 160 164 167 166 167 169 170 169 171 172 171 172 -209 -209 -209 -209 -209 -209 -193 197 0 0 0 0 0
    0 0 0 0 0 0 0 0 0 0 0 0 0 0 0 0 0 0 0 0 0 0 0 0 0 0 0 0 0 0 0 0 0 0 0 0 0 0 0 0 0 0 0 0 0 0 0 0 0 0 0 0 0 0 0 0 0 0 0 0 0 0 0 0 0 0 0 0 0 53 54 54 54 55 56 56 57 57 57 57 56 56 56 55 54 42 37 36 35 36 37 37 34 33 34 35 36 35 34 32 31 35 35 36 34 33 35 36 36 34 36 33 35 34 36 36 34 35 35 33 34 34 32 31 32 31 29 34 35 37 37 40 41 42 43 46 46 47 43 39 39 37 35 34 31 -225 -225 -225 -225 -225 -225 -225 -225 -225 -225 -225 -225 -225 -225 -225 -225 -225 -225 -225 -225 -225 -225 -225 -225 -225 -225 -225 -225 -225 39 38 40 36 36 35 34 35 35 36 36 34 38 38 40 42 42 43 48 46 49 53 52 52 53 54 54 54 58 59 58 61 63 63 63 67 68 68 69 71 72 74 75 76 78 77 80 80 79 79 81 83 82 82 86 88 92 97 97 92 91 96 99 100 100 96 99 -209 98 100 -193 -209 82 82 86 85 -209 -209 121 -193 -209 121 121 121 121 123 120 123 123 124 128 132 129 131 122 127 131 134 142 151 150 150 153 153 154 153 155 153 153 153 154 153 152 151 153 153 154 153 156 156 158 161 165 167 165 166 168 170 169 170 170 169 169 169 -209 -209 -209 -209 -193 -209 194 0 0 0 0 0
    0 0 0 0 0 0 0 0 0 0 0 0 0 0 0 0 0 0 0 0 0 0 0 0 0 0 0 0 0 0 0 0 0 0 0 0 0 0 0 0 0 0 0 0 0 0 0 0 0 0 0 0 0 0 0 0 0 0 0 0 0 0 0 0 0 0 0 0 0 54 55 55 55 56 57 57 57 57 57 57 56 56 56 55 55 47 39 37 37 38 38 38 35 35 36 36 37 36 35 33 33 35 36 38 36 36 38 38 39 40 41 39 38 37 37 37 35 35 35 34 35 35 35 34 31 38 28 36 41 42 43 47 51 52 51 51 51 48 43 41 40 39 37 35 -225 -225 -225 -225 -225 -225 -225 -225 -225 -225 -225 -225 -225 -225 -225 -225 -225 -225 -225 -225 -225 -225 -225 -225 -225 -225 -225 -225 -225 -225 -225 37 39 36 36 34 34 36 37 38 38 36 39 40 41 43 44 43 48 46 49 53 51 51 52 54 54 53 57 58 57 61 64 64 64 68 69 68 69 70 72 73 74 76 77 77 79 80 79 80 81 84 84 85 87 89 92 93 93 90 89 93 95 97 100 95 100 94 101 102 106 -193 -193 -193 -209 -209 118 122 122 122 -193 121 121 121 121 123 120 122 122 123 125 128 128 129 123 128 135 136 142 151 150 150 153 153 154 153 155 154 153 153 155 153 152 152 153 152 154 153 156 156 158 160 164 165 164 164 168 169 170 172 174 175 174 176 -209 -209 -209 -193 -193 -193 190 0 0 0 0 0
    0 0 0 0 0 0 0 0 0 0 0 0 0 0 0 0 0 0 0 0 0 0 0 0 0 0 0 0 0 0 0 0 0 0 0 0 0 0 0 0 0 0 0 0 0 0 0 0 0 0 0 0 0 0 0 0 0 0 0 0 0 0 0 0 0 0 0 0 0 55 55 56 55 57 58 57 57 57 57 57 56 56 55 54 55 50 43 40 40 41 42 41 38 38 38 38 38 36 35 33 35 35 35 38 37 37 39 39 39 40 41 40 40 38 38 37 36 36 35 36 37 37 36 36 34 -193 -193 43 43 44 45 49 53 53 53 52 51 47 44 42 42 41 39 -225 -225 -225 -225 -225 -225 -225 -225 -225 -225 -225 -225 -225 -225 -225 -225 -225 -225 -225 -225 -225 -225 -225 -225 -225 -225 -225 -225 -225 -225 -225 -225 -225 -225 -225 -225 33 36 39 40 41 41 40 42 42 44 45 45 45 48 47 49 53 52 52 52 54 54 54 57 58 57 62 66 66 67 70 70 70 71 72 72 74 75 76 77 77 80 81 81 82 83 85 85 88 89 90 92 93 92 90 90 92 97 99 102 99 99 94 100 102 105 105 -193 -209 105 118 120 123 122 122 121 121 122 122 122 123 121 123 123 123 126 130 130 132 132 134 137 138 143 150 149 149 153 154 154 153 156 154 154 154 155 153 152 152 153 152 154 154 156 156 -193 -193 -177 -193 -193 -209 169 171 174 176 179 180 180 181 182 -209 -209 185 186 189 190 0 0 0 0 0
    0 0 0 0 0 0 0 0 0 0 0 0 0 0 0 0 0 0 0 0 0 0 0 0 0 0 0 0 0 0 0 0 0 0 0 0 0 0 0 0 0 0 0 0 0 0 0 0 0 0 0 0 0 0 0 0 0 0 0 0 0 0 0 0 0 0 0 0 0 56 56 57 56 57 59 57 58 57 57 56 55 55 55 54 55 52 47 44 45 45 46 46 43 41 40 39 39 35 33 33 35 34 35 38 37 37 39 39 38 39 40 40 39 38 38 37 36 36 36 36 38 38 37 36 37 45 55 50 47 47 48 51 53 53 53 51 50 48 46 45 44 43 -225 -225 -225 -225 -225 -225 -225 -225 -225 -225 -225 -225 -225 -225 -225 -225 -225 -225 -225 -225 -225 -225 -225 -225 -225 -225 -225 -225 -225 -225 -225 -225 -225 -225 -225 -225 -225 -225 -225 -225 43 44 43 45 45 45 45 47 46 46 49 47 49 53 51 52 52 54 55 55 57 58 58 63 66 67 68 71 71 72 72 73 72 74 75 76 76 77 78 79 80 82 83 84 85 88 89 90 92 93 93 92 91 94 101 101 102 101 99 92 96 101 103 103 -209 -209 -193 112 118 122 122 122 120 121 122 124 123 127 126 127 127 126 128 132 132 134 134 135 137 138 141 146 147 148 153 154 155 154 157 154 155 154 155 153 153 153 154 152 155 155 158 -209 -193 -209 -209 -209 -193 -209 -209 175 179 180 181 182 181 180 181 -209 -209 -209 -209 -209 189 0 0 0 0 0
    0 0 0 0 0 0 0 0 0 0 0 0 0 0 0 0 0 0 0 0 0 0 0 0 0 0 0 0 0 0 0 0 0 0 0 0 0 0 0 0 0 0 0 0 0 0 0 0 0 0 0 0 0 0 0 0 0 0 0 0 0 0 0 0 0 0 0 0 0 57 57 58 57 58 59 57 58 57 57 56 55 55 55 54 56 54 51 48 50 49 49 48 46 42 41 40 40 33 31 34 36 33 35 38 37 37 38 38 38 38 39 40 39 39 40 39 38 38 38 39 40 40 38 36 38 49 54 50 47 47 49 51 53 53 52 51 50 49 48 47 46 -225 -225 -225 -225 -225 -225 -225 -225 -225 -225 -225 -225 -225 -225 -225 -225 -225 -225 -225 -225 -225 -225 -225 -225 -225 -225 -225 -225 -225 -225 -225 -225 -225 -225 -225 -225 -225 -225 -225 -225 -225 47 46 44 48 45 45 46 47 46 46 49 48 49 53 52 52 52 54 55 55 57 58 58 63 66 67 68 70 71 71 71 72 72 73 74 74 74 75 76 77 78 81 82 83 85 88 90 90 93 93 93 92 92 95 103 101 102 98 97 90 93 96 90 97 -209 101 -193 -209 114 122 121 122 118 119 121 122 123 126 126 127 128 126 129 134 135 137 137 137 138 139 142 143 143 147 152 153 154 153 158 154 155 155 155 153 153 153 154 153 156 155 -193 -209 -209 -209 -209 -209 -209 -209 -209 -193 -193 -193 181 182 181 180 181 184 182 181 183 -209 -193 0 0 0 0 0
    0 0 0 0 0 0 0 0 0 0 0 0 0 0 0 0 0 0 0 0 0 0 0 0 0 0 0 0 0 0 0 0 0 0 0 0 0 0 0 0 0 0 0 0 0 0 0 0 0 0 0 0 0 0 0 0 0 0 0 0 0 0 0 0 0 0 0 0 0 58 58 58 58 58 59 57 56 56 56 55 54 53 54 52 53 52 49 48 50 49 49 48 47 42 41 40 41 37 37 38 38 35 38 40 39 38 39 39 38 39 40 42 41 43 43 43 41 41 41 42 43 42 38 39 40 48 51 49 47 48 50 51 52 53 51 51 51 51 51 -225 -225 -225 -225 -225 -225 -225 -225 -225 -225 -225 -225 -225 -225 -225 -225 -225 -225 -225 -225 -225 -225 -225 -225 -225 -225 -225 -225 -225 -225 -225 -225 -225 -225 -225 -225 -225 -225 -225 -225 -225 -225 -225 -225 48 46 48 45 44 45 47 46 46 48 48 49 53 52 52 52 54 55 56 57 58 59 63 66 67 68 70 70 71 71 71 72 72 73 74 74 74 75 76 78 80 81 83 84 88 89 90 92 92 92 92 91 95 103 101 102 101 100 93 98 103 103 103 107 106 107 107 111 118 118 120 117 117 120 121 122 125 124 126 127 127 130 135 138 140 142 141 142 143 145 145 144 147 151 152 153 154 159 155 156 155 156 154 155 155 155 153 157 156 161 -209 -209 -177 -177 -177 -177 -193 -209 -209 179 -193 181 -193 180 -193 -193 -193 -209 182 -209 -209 189 0 0 0 0 0
    0 0 0 0 0 0 0 0 0 0 0 0 0 0 0 0 0 0 0 0 0 0 0 0 0 0 0 0 0 0 0 0 0 0 0 0 0 0 0 0 0 0 0 0 0 0 0 0 0 0 0 0 0 0 0 0 0 0 0 0 0 0 0 0 0 0 0 0 0 58 58 58 58 58 58 56 55 55 55 54 53 52 53 50 52 52 49 49 51 50 50 49 49 43 43 41 43 39 41 -193 -193 38 43 44 44 40 42 41 40 41 43 47 46 51 47 44 42 42 42 43 42 42 40 41 43 48 50 50 49 49 50 50 52 52 51 52 51 51 -225 -225 -225 -225 -225 -225 -225 -225 -225 -225 -225 -225 -225 -225 -225 -225 -225 -225 -225 -225 -225 -225 -225 -225 -225 -225 -225 -225 -225 -225 -225 -225 -225 -225 -225 -225 -225 -225 -225 -225 -225 -225 -225 -225 -225 51 48 50 46 45 46 48 47 47 49 49 50 53 53 54 54 54 55 57 58 59 61 64 66 67 68 70 70 71 70 70 72 73 74 74 74 75 76 76 78 81 82 84 84 87 88 89 90 91 91 91 91 97 105 105 106 105 105 104 103 105 105 105 107 105 108 108 113 119 121 121 121 120 121 122 123 124 123 122 122 123 125 132 136 139 140 140 143 146 147 148 147 150 153 153 153 154 160 156 156 156 156 155 156 157 157 155 161 161 164 -209 -209 -193 -177 -177 -177 -177 -177 -177 -193 -193 182 183 182 -193 -193 -177 -209 -209 -209 -209 -193 0 0 0 0 0
    0 0 0 0 0 0 0 0 0 0 0 0 0 0 0 0 0 0 0 0 0 0 0 0 0 0 0 0 0 0 0 0 0 0 0 0 0 0 0 0 0 0 0 0 0 0 0 0 0 0 0 0 0 0 0 0 0 0 0 0 0 0 0 0 0 0 0 0 0 58 57 58 57 56 57 54 54 54 53 52 52 51 52 49 51 52 50 51 52 52 52 51 52 45 45 43 45 -193 45 42 46 43 58 58 57 -209 49 -209 47 48 50 53 53 -193 -209 -209 -209 -209 40 40 39 38 37 40 42 45 47 47 49 49 51 51 52 53 52 53 52 -225 -225 -225 -225 -225 -225 -225 -225 -225 -225 -225 -225 -225 -225 -225 -225 -225 -225 -225 -225 -225 -225 -225 -225 -225 -225 -225 -225 -225 -225 -225 -225 -225 -225 -225 -225 -225 -225 -225 -225 -225 -225 -225 -225 -225 -225 52 50 51 47 46 47 48 48 49 50 50 51 54 54 56 56 56 57 58 60 60 63 64 65 66 67 68 69 70 70 69 71 72 73 73 74 74 76 76 79 82 83 85 86 87 88 89 90 91 90 90 90 94 105 104 105 105 105 104 102 105 103 103 105 104 106 107 112 118 121 120 120 120 121 122 123 122 122 119 120 121 122 129 134 138 138 139 142 147 148 148 147 150 152 152 153 154 158 155 156 156 156 155 157 158 158 156 162 162 164 -193 -209 -193 -193 -177 -177 -177 -177 -177 -193 -193 182 182 182 181 -193 -193 -209 -209 184 187 190 0 0 0 0 0
    0 0 0 0 0 0 0 0 0 0 0 0 0 0 0 0 0 0 0 0 0 0 0 0 0 0 0 0 0 0 0 0 0 0 0 0 0 0 0 0 0 0 0 0 0 0 0 0 0 0 0 0 0 0 0 0 0 0 0 0 0 0 0 0 0 0 0 0 0 57 57 57 57 56 56 53 53 54 53 52 51 50 52 49 52 52 49 51 52 51 51 50 51 45 45 43 45 -193 46 46 53 -209 64 63 60 60 -193 -193 -193 -193 -209 -193 -209 62 -209 -209 -209 -209 37 39 37 37 37 40 42 46 47 48 49 50 51 51 52 52 51 51 -225 -225 -225 -225 -225 -225 -225 -225 -225 -225 -225 -225 -225 -225 -225 -225 -225 -225 -225 -225 -225 -225 -225 -225 -225 -225 -225 -225 -225 -225 -225 -225 -225 -225 -225 -225 -225 -225 -225 -225 -225 -225 -225 -225 -225 -225 -225 52 49 51 47 47 47 49 48 50 51 51 52 55 56 57 57 58 58 60 61 62 64 64 65 66 67 67 68 68 69 67 70 71 71 72 72 73 74 75 79 82 83 86 86 88 89 89 90 91 90 90 90 93 100 100 100 102 102 101 101 104 101 102 103 105 106 107 111 116 119 118 117 116 118 118 119 119 119 117 119 120 122 127 132 136 137 138 140 145 145 146 146 149 151 152 152 153 157 155 156 156 156 155 158 158 159 157 163 163 164 164 -209 166 -193 -193 -209 -193 -193 -177 -193 -193 182 182 183 182 182 -193 -193 -193 186 188 191 0 0 0 0 0
    0 0 0 0 0 0 0 0 0 0 0 0 0 0 0 0 0 0 0 0 0 0 0 0 0 0 0 0 0 0 0 0 0 0 0 0 0 0 0 0 0 0 0 0 0 0 0 0 0 0 0 0 0 0 0 0 0 0 0 0 0 0 0 0 0 0 0 0 0 56 56 56 56 55 55 52 53 54 53 53 52 51 52 50 53 52 49 51 52 52 51 51 51 46 46 44 46 42 46 51 55 57 60 58 59 60 -193 57 58 -209 -209 -209 -209 -209 -209 -209 -209 -209 38 39 37 36 38 41 43 47 48 49 50 49 51 51 51 52 50 -225 -225 -225 -225 -225 -225 -225 -225 -225 -225 -225 -225 -225 -225 -225 -225 -225 -225 -225 -225 -225 -225 -225 -225 -225 -225 -225 -225 -225 -225 -225 -225 -225 -225 -225 -225 -225 -225 -225 -225 -225 -225 -225 -225 -225 -225 -225 -225 50 48 52 49 48 48 51 48 52 52 53 54 56 58 59 59 61 61 61 64 63 66 65 65 66 67 67 68 68 69 67 70 71 71 71 71 73 74 74 78 81 82 86 86 88 89 89 90 91 90 91 91 94 98 98 99 100 101 100 99 101 98 100 103 104 105 106 110 116 119 118 117 117 119 120 121 120 121 118 120 120 122 125 129 134 137 137 139 142 143 143 144 148 151 151 152 153 157 155 156 156 156 156 158 159 159 157 162 163 164 164 -193 166 167 -193 -193 -193 -193 -193 -193 -193 182 183 184 183 184 187 188 186 187 189 191 0 0 0 0 0
    0 0 0 0 0 0 0 0 0 0 0 0 0 0 0 0 0 0 0 0 0 0 0 0 0 0 0 0 0 0 0 0 0 0 0 0 0 0 0 0 0 0 0 0 0 0 0 0 0 0 0 0 0 0 0 0 0 0 0 0 0 0 0 0 0 0 0 0 0 55 55 55 55 55 55 53 54 55 55 54 53 53 54 53 55 54 51 52 53 0 -256 -1 -26335 46 46 45 47 44 53 -193 56 59 60 60 60 62 62 63 63 -209 -209 -209 -193 75 -209 -209 -209 -209 -209 41 37 37 38 41 44 49 49 50 50 50 51 51 51 -225 -225 -225 -225 -225 -225 -225 -225 -225 -225 -225 -225 -225 -225 -225 -225 -225 -225 -225 -225 -225 -225 -225 -225 -225 -225 -225 -225 -225 -225 -225 -225 -225 -225 -225 -225 -225 -225 -225 -225 -225 -225 -225 -225 -225 -225 -225 -225 -225 -225 45 46 53 47 47 48 52 50 53 54 55 56 58 60 62 61 62 64 64 66 64 67 65 66 67 67 67 68 68 69 66 71 71 71 71 71 73 74 74 77 80 82 85 86 88 88 89 90 90 90 92 92 97 102 102 102 103 102 102 100 102 100 101 102 104 105 106 110 116 119 118 117 118 119 120 121 120 119 116 118 118 119 121 123 124 133 -193 138 141 142 143 144 149 151 151 152 153 156 155 155 155 156 156 158 159 159 157 161 163 164 164 167 167 168 -193 -193 -193 179 180 181 180 182 183 184 184 185 187 189 187 188 188 190 0 0 0 0 0
    0 0 0 0 0 0 0 0 0 0 0 0 0 0 0 0 0 0 0 0 0 0 0 0 0 0 0 0 0 0 0 0 0 0 0 0 0 0 0 0 0 0 0 0 0 0 0 0 0 0 0 0 0 0 0 0 0 0 0 0 0 0 0 0 0 0 0 0 0 55 55 55 55 55 55 54 55 56 56 56 55 54 56 55 55 55 51 53 54 54 54 53 53 48 48 48 50 52 54 56 57 58 59 59 60 62 62 62 63 -209 -209 -209 -193 75 -209 -209 42 -193 -209 -193 34 35 37 40 43 49 48 47 49 49 50 50 -225 -225 -225 -225 -225 -225 -225 -225 -225 -225 -225 -225 -225 -225 -225 -225 -225 -225 -225 -225 -225 -225 -225 -225 -225 -225 -225 -225 -225 -225 -225 -225 -225 -225 -225 -225 -225 -225 -225 -225 -225 -225 -225 -225 -225 -225 -225 -225 -225 -225 -225 -225 44 51 44 45 46 51 51 54 55 57 58 58 62 63 63 63 66 65 66 65 68 65 65 66 66 66 67 67 69 64 70 70 70 70 71 72 73 74 76 79 81 85 86 88 89 89 90 91 91 93 -193 100 -209 -209 -193 105 103 103 101 103 101 101 102 104 106 106 112 117 120 118 117 118 119 119 121 120 120 119 121 121 121 123 124 123 126 -209 137 141 142 143 144 149 151 151 151 152 155 155 155 155 156 156 158 158 158 156 160 161 162 162 166 167 167 170 173 -193 178 180 180 180 182 183 184 183 184 187 189 188 188 189 190 0 0 0 0 0
    0 0 0 0 0 0 0 0 0 0 0 0 0 0 0 0 0 0 0 0 0 0 0 0 0 0 0 0 0 0 0 0 0 0 0 0 0 0 0 0 0 0 0 0 0 0 0 0 0 0 0 0 0 0 0 0 0 0 0 0 0 0 0 0 0 0 0 0 0 55 55 55 56 55 55 54 55 55 56 56 55 53 55 54 55 55 52 54 55 56 56 57 58 -193 55 55 -193 58 57 59 58 59 59 60 60 60 60 60 59 62 60 60 -209 72 -209 -209 -193 -209 -209 -209 33 35 36 40 43 45 44 45 47 47 48 -225 -225 -225 -225 -225 -225 -225 -225 -225 -225 -225 -225 -225 -225 -225 -225 -225 -225 -225 -225 -225 -225 -225 -225 -225 -225 -225 -225 -225 -225 -225 -225 -225 -225 -225 -225 -225 -225 -225 -225 -225 -225 -225 -225 -225 -225 -225 -225 -225 -225 -225 -225 -225 -225 45 40 42 44 52 54 56 57 60 60 61 65 65 65 65 67 66 67 66 68 65 66 66 66 66 67 66 68 63 70 70 70 71 71 73 74 74 76 79 81 85 86 88 89 90 91 92 92 93 -193 98 -209 -209 -209 105 105 105 103 105 104 103 104 105 107 106 112 116 120 117 117 119 119 120 121 121 121 121 122 123 123 124 124 123 124 -193 135 140 142 142 142 148 150 150 151 152 154 154 155 155 155 155 157 157 157 156 159 159 161 160 164 165 166 168 171 175 177 180 180 180 182 183 185 184 185 187 189 188 189 190 192 0 0 0 0 0
    0 0 0 0 0 0 0 0 0 0 0 0 0 0 0 0 0 0 0 0 0 0 0 0 0 0 0 0 0 0 0 0 0 0 0 0 0 0 0 0 0 0 0 0 0 0 0 0 0 0 0 0 0 0 0 0 0 0 0 0 0 0 0 0 0 0 0 0 0 54 54 54 55 55 55 54 55 55 55 55 54 52 53 53 54 54 51 55 56 58 60 64 64 71 65 68 68 66 61 61 60 60 60 59 59 60 59 59 59 61 63 63 70 73 -209 -209 -209 -209 -209 -209 27 31 35 40 42 42 41 43 46 -225 -225 -225 -225 -225 -225 -225 -225 -225 -225 -225 -225 -225 -225 -225 -225 -225 -225 -225 -225 -225 -225 -225 -225 -225 -225 -225 -225 -225 -225 -225 -225 -225 -225 -225 -225 -225 -225 -225 -225 -225 -225 -225 -225 -225 -225 -225 -225 -225 -225 -225 -225 -225 -225 -225 -225 -225 -225 -225 45 54 57 58 59 62 62 62 66 65 66 66 67 66 67 67 69 66 67 67 67 67 68 67 69 66 70 71 72 72 73 73 74 75 76 79 82 85 87 88 89 90 91 92 92 92 93 96 -209 -209 -209 105 106 106 104 105 105 104 105 105 107 106 111 116 119 117 118 120 120 121 122 123 122 122 123 123 123 123 124 123 124 127 132 139 141 142 142 148 150 150 151 152 153 154 154 154 155 155 157 157 156 156 158 158 160 159 164 166 166 169 172 175 177 180 180 180 182 183 186 185 186 188 189 189 189 191 192 0 0 0 0 0
    0 0 0 0 0 0 0 0 0 0 0 0 0 0 0 0 0 0 0 0 0 0 0 0 0 0 0 0 0 0 0 0 0 0 0 0 0 0 0 0 0 0 0 0 0 0 0 0 0 0 0 0 0 0 0 0 0 0 0 0 0 0 0 0 0 0 0 0 0 54 54 54 55 55 55 55 56 56 55 55 55 53 53 53 54 56 53 57 59 62 64 69 68 73 71 70 71 69 67 67 64 65 61 61 60 60 60 60 59 60 60 59 68 75 -209 18 -209 -209 -193 11 26 29 34 37 39 37 38 -225 -225 -225 -225 -225 -225 -225 -225 -225 -225 -225 -225 -225 -225 -225 -225 -225 -225 -225 -225 -225 -225 -225 -225 -225 -225 -225 -225 -225 -225 -225 -225 -225 -225 -225 -225 -225 -225 -225 -225 -225 -225 -225 -225 -225 -225 -225 -225 -225 -225 -225 -225 -225 -225 -225 -225 -225 -225 -225 -225 -225 -225 -225 -209 60 62 65 65 64 67 67 68 68 69 68 69 68 70 68 68 68 68 68 69 68 70 68 71 72 73 72 73 74 74 75 76 79 81 85 87 88 90 90 91 92 92 92 93 95 99 99 101 102 104 104 103 104 104 104 104 105 106 106 112 117 121 118 119 121 121 123 124 124 123 123 124 124 123 124 124 124 125 126 128 137 138 140 140 149 150 150 151 152 153 153 154 154 155 155 156 156 156 156 158 158 161 160 168 170 170 171 172 173 175 178 179 179 181 183 185 185 186 188 189 189 189 192 193 0 0 0 0 0
    0 0 0 0 0 0 0 0 0 0 0 0 0 0 0 0 0 0 0 0 0 0 0 0 0 0 0 0 0 0 0 0 0 0 0 0 0 0 0 0 0 0 0 0 0 0 0 0 0 0 0 0 0 0 0 0 0 0 0 0 0 0 0 0 0 0 0 0 0 54 55 55 55 56 56 57 57 57 55 55 54 54 54 54 55 57 56 60 64 69 67 71 71 74 73 72 72 70 70 69 66 66 61 60 59 58 58 58 57 57 -225 -225 -225 -225 -225 -225 -225 -225 -225 -225 -225 -225 -225 -225 -225 -225 -225 -225 -225 -225 -225 -225 -225 -225 -225 -225 -225 -225 -225 -225 -225 -225 -225 -225 -225 -225 -225 -225 -225 -225 -225 -225 -225 -225 -225 -225 -225 -225 -225 -225 -225 -225 -225 -225 -225 -225 -225 -225 -225 -225 -225 -225 -225 -225 -225 -225 -225 -225 -225 -225 -225 -225 -225 -225 -225 -225 -225 -225 -225 -225 -225 61 64 66 66 66 69 68 69 69 70 69 69 69 70 68 68 68 69 68 69 69 70 70 72 73 73 72 73 74 74 75 75 78 81 85 87 89 90 91 92 93 92 93 94 94 97 96 97 98 101 102 101 102 102 103 104 105 106 107 113 117 120 117 118 120 121 123 123 124 124 124 126 126 125 125 125 125 127 126 127 132 134 136 138 148 150 150 151 153 153 153 154 154 155 154 155 155 155 156 157 157 160 159 169 172 171 172 173 173 174 176 177 177 179 182 185 185 186 189 189 190 190 192 193 0 0 0 0 0
    0 0 0 0 0 0 0 0 0 0 0 0 0 0 0 0 0 0 0 0 0 0 0 0 0 0 0 0 0 0 0 0 0 0 0 0 0 0 0 0 0 0 0 0 0 0 0 0 0 0 0 0 0 0 0 0 0 0 0 0 0 0 0 0 0 0 0 0 0 56 56 56 58 59 59 60 58 59 57 55 56 55 55 55 57 59 59 66 70 73 70 72 72 74 73 72 73 71 70 69 66 65 61 59 59 57 57 57 -225 -225 -225 -225 -225 -225 -225 -225 -225 -225 -225 -225 -225 -225 -225 -225 -225 -225 -225 -225 -225 -225 -225 -225 -225 -225 -225 -225 -225 -225 -225 -225 -225 -225 -225 -225 -225 -225 -225 -225 -225 -225 -225 -225 -225 -225 -225 -225 -225 -225 -225 -225 -225 -225 -225 -225 -225 -225 -225 -225 -225 -225 -225 -225 -225 -225 -225 -225 -225 -225 -225 -225 -225 -225 -225 -225 -225 -225 -225 -225 -225 -225 -225 65 69 70 69 69 71 69 71 71 72 71 71 71 71 70 71 69 70 70 71 71 72 73 74 75 75 74 74 75 75 75 75 78 80 85 87 89 91 92 93 93 93 95 96 96 99 98 100 101 103 103 101 103 103 104 105 106 106 107 113 117 119 117 119 120 121 123 124 124 125 125 127 128 127 127 127 126 127 127 127 128 130 135 136 145 149 150 151 152 153 153 154 154 155 155 155 155 155 155 157 157 160 158 169 172 171 173 172 172 172 175 175 176 177 181 183 185 186 188 188 190 190 192 192 0 0 0 0 0
    0 0 0 0 0 0 0 0 0 0 0 0 0 0 0 0 0 0 0 0 0 0 0 0 0 0 0 0 0 0 0 0 0 0 0 0 0 0 0 0 0 0 0 0 0 0 0 0 0 0 0 0 0 0 0 0 0 0 0 0 0 0 0 0 0 0 0 0 0 58 61 60 63 68 67 69 61 59 57 56 56 56 56 56 57 61 62 70 74 75 73 74 74 75 74 73 73 71 70 69 65 64 60 60 60 58 -225 -225 -225 -225 -225 -225 -225 -225 -225 -225 -225 -225 -225 -225 -225 -225 -225 -225 -225 -225 -225 -225 -225 -225 -225 -225 -225 -225 -225 -225 -225 -225 -225 -225 -225 -225 -225 -225 -225 -225 -225 -225 -225 -225 -225 -225 -225 -225 -225 -225 -225 -225 -225 -225 -225 -225 -225 -225 -225 -225 -225 -225 -225 -225 -225 -225 -225 -225 -225 -225 -225 -225 -225 -225 -225 -225 -225 -225 -225 -225 -225 -225 -225 -225 -225 -225 70 71 71 70 71 70 72 72 73 72 72 72 73 72 73 72 72 72 73 74 75 77 78 78 77 75 76 76 76 76 75 78 79 85 88 89 91 93 94 94 95 97 98 98 100 100 101 102 103 104 102 105 104 105 106 106 106 108 113 116 118 117 119 120 122 123 124 125 126 125 127 129 128 127 127 127 128 127 128 129 131 136 138 145 148 149 150 152 153 153 153 154 154 154 155 155 155 155 157 156 160 158 169 172 171 173 173 172 172 175 174 177 176 180 181 183 185 187 187 189 189 192 192 0 0 0 0 0</data></disparity>
</opencv_storage>
