<?xml version="1.0"?>
<opencv_storage>
<gps_time_stamp>275521</gps_time_stamp>
<gps_x>-1.4077104568481445e+001</gps_x>
<gps_y>1.1303458213806152e+001</gps_y>
<gps_z>-2.2116837501525879e+000</gps_z>
<image_time_stamp>266358</image_time_stamp>
<disparity type_id="opencv-matrix">
  <rows>93</rows>
  <cols>320</cols>
  <dt>s</dt>
  <data>
    0 0 0 0 0 0 0 0 0 0 0 0 0 0 0 0 0 0 0 0 0 0 0 0 0 0 0 0 0 0 0 0 0 0 0 0 0 0 0 0 0 0 0 0 0 0 0 0 0 0 0 0 0 0 0 0 0 0 0 0 0 0 0 0 0 0 0 0 0 37 38 38 37 38 37 35 36 36 35 34 34 35 33 32 33 30 26 23 22 20 17 16 16 15 16 14 16 15 14 16 17 15 14 15 16 16 13 14 16 13 14 17 15 15 15 17 15 15 17 16 16 17 15 18 15 18 15 15 16 16 15 16 14 15 14 15 16 16 15 16 16 18 16 16 18 17 18 18 17 20 17 18 18 18 19 17 16 18 16 17 17 17 18 16 17 19 16 16 18 18 17 19 16 19 16 19 18 17 18 20 18 19 17 21 21 21 23 21 20 19 21 19 19 18 19 17 18 18 20 17 20 19 21 18 21 19 20 19 -193 18 19 18 20 18 21 19 21 18 -193 19 20 20 -193 20 21 20 22 23 22 23 22 23 22 22 22 22 21 22 21 22 20 22 22 21 23 22 22 21 22 23 23 22 24 23 23 22 23 24 24 27 27 27 27 29 29 29 28 31 29 31 30 32 32 33 34 35 35 36 34 37 38 39 40 40 41 41 42 43 44 41 42 42 42 42 43 43 43 42 47 44 44 48 47 49 49 50 50 48 50 50 49 51 50 51 51 0 0 0 0 0
    0 0 0 0 0 0 0 0 0 0 0 0 0 0 0 0 0 0 0 0 0 0 0 0 0 0 0 0 0 0 0 0 0 0 0 0 0 0 0 0 0 0 0 0 0 0 0 0 0 0 0 0 0 0 0 0 0 0 0 0 0 0 0 0 0 0 0 0 0 37 38 38 37 38 37 36 37 37 35 34 34 35 33 31 33 30 27 24 23 21 17 16 16 15 15 14 16 16 14 16 17 16 14 15 16 16 14 15 16 13 14 17 15 15 15 17 15 15 17 16 16 17 16 17 16 18 15 16 16 16 15 16 14 15 15 15 16 16 15 16 16 18 16 16 18 17 18 18 17 20 17 18 18 17 19 16 16 17 16 17 17 16 18 16 17 19 16 16 18 18 17 19 16 19 15 19 18 17 18 20 17 19 17 21 21 21 23 21 20 20 21 19 19 18 19 17 18 18 20 17 20 19 21 18 21 19 19 19 -193 18 19 18 20 18 -193 19 21 18 20 18 20 20 -193 20 21 20 22 23 22 23 22 22 21 21 22 22 21 23 21 22 20 22 22 21 23 22 22 22 22 23 23 22 24 22 23 22 23 24 24 27 26 27 27 29 29 29 28 31 28 31 30 32 31 32 34 35 35 36 34 37 38 39 40 40 41 41 42 43 44 42 42 42 42 42 43 43 42 42 47 44 44 48 48 50 49 50 50 48 51 50 50 51 51 51 51 0 0 0 0 0
    0 0 0 0 0 0 0 0 0 0 0 0 0 0 0 0 0 0 0 0 0 0 0 0 0 0 0 0 0 0 0 0 0 0 0 0 0 0 0 0 0 0 0 0 0 0 0 0 0 0 0 0 0 0 0 0 0 0 0 0 0 0 0 0 0 0 0 0 0 38 38 38 37 37 37 35 37 37 35 34 34 35 33 32 33 30 27 25 24 22 18 17 17 16 16 14 16 16 15 16 18 16 15 15 16 16 14 15 17 14 14 17 15 15 15 17 15 15 17 16 16 16 16 17 16 18 15 16 17 16 16 16 15 16 15 16 16 17 15 16 16 18 16 16 18 17 18 18 17 20 17 18 18 18 19 17 17 18 16 17 17 16 17 16 16 19 16 16 19 18 18 20 17 20 16 19 18 17 18 20 17 19 17 21 20 20 22 21 19 20 21 19 20 18 19 17 19 18 20 17 20 19 21 19 21 19 19 18 -193 18 19 18 20 18 -193 19 21 19 20 18 20 20 -193 20 21 20 21 23 22 23 22 22 20 21 22 22 22 23 21 22 20 23 23 21 22 22 21 21 22 23 23 22 24 22 22 22 23 23 24 -193 26 27 27 29 29 29 28 30 28 30 29 32 31 32 34 35 35 35 33 36 37 38 39 40 41 41 42 43 44 42 42 42 42 42 42 43 42 42 47 45 45 48 49 50 50 51 50 49 51 51 51 52 52 51 51 0 0 0 0 0
    0 0 0 0 0 0 0 0 0 0 0 0 0 0 0 0 0 0 0 0 0 0 0 0 0 0 0 0 0 0 0 0 0 0 0 0 0 0 0 0 0 0 0 0 0 0 0 0 0 0 0 0 0 0 0 0 0 0 0 0 0 0 0 0 0 0 0 0 0 38 39 38 37 37 36 35 37 37 35 34 33 35 33 32 33 30 27 25 24 22 19 18 17 16 16 14 16 16 15 16 18 16 15 16 16 16 14 16 17 14 15 17 15 15 15 17 14 16 16 15 16 16 16 17 16 18 15 16 16 16 16 15 15 15 15 16 16 17 15 16 17 17 16 17 18 16 18 17 18 19 17 18 18 18 19 16 17 17 16 17 17 17 17 15 16 19 16 17 18 18 18 20 18 20 16 20 18 17 19 20 17 19 17 21 20 20 22 21 19 20 21 19 20 18 19 17 19 18 19 18 20 18 20 18 21 18 19 18 20 18 19 18 20 18 -193 19 21 19 19 17 20 20 -193 21 21 20 21 23 22 23 22 22 20 22 23 22 22 23 22 23 21 23 23 20 22 21 21 21 22 23 23 23 24 22 23 22 23 23 24 -193 26 26 27 29 28 28 28 30 28 30 29 31 30 32 34 34 34 35 33 36 37 38 39 40 40 41 41 43 43 42 42 42 42 42 42 43 41 42 47 45 45 49 49 50 50 51 51 50 52 51 51 52 52 51 51 0 0 0 0 0
    0 0 0 0 0 0 0 0 0 0 0 0 0 0 0 0 0 0 0 0 0 0 0 0 0 0 0 0 0 0 0 0 0 0 0 0 0 0 0 0 0 0 0 0 0 0 0 0 0 0 0 0 0 0 0 0 0 0 0 0 0 0 0 0 0 0 0 0 0 39 39 38 37 37 36 35 37 37 35 33 34 35 33 32 34 30 28 26 25 23 20 19 18 16 16 15 16 16 15 16 19 17 15 16 16 16 15 17 17 14 15 17 15 15 15 17 14 16 16 15 17 16 17 17 16 18 15 16 16 16 16 15 15 15 15 16 16 17 15 16 17 17 16 17 18 16 19 17 18 19 17 18 17 17 19 16 17 16 16 17 16 16 17 15 15 19 16 17 18 18 18 20 18 20 17 20 19 17 19 20 17 19 17 20 19 19 22 20 19 20 21 19 20 19 19 17 19 18 19 18 19 18 19 18 20 17 19 17 19 17 19 18 19 18 20 18 21 19 19 18 20 20 -193 21 21 20 21 23 22 22 22 22 20 22 23 23 23 23 23 23 22 24 23 20 21 19 20 21 23 24 23 23 25 23 23 23 24 23 24 -193 26 26 27 29 28 28 29 30 29 30 30 32 30 32 34 34 34 35 33 36 36 38 39 39 40 41 41 43 43 42 42 42 42 42 42 43 41 42 47 45 45 49 50 51 50 51 51 50 52 52 52 52 52 51 51 0 0 0 0 0
    0 0 0 0 0 0 0 0 0 0 0 0 0 0 0 0 0 0 0 0 0 0 0 0 0 0 0 0 0 0 0 0 0 0 0 0 0 0 0 0 0 0 0 0 0 0 0 0 0 0 0 0 0 0 0 0 0 0 0 0 0 0 0 0 0 0 0 0 0 39 39 38 37 37 35 35 37 37 35 33 34 35 33 33 35 31 28 27 26 23 21 20 19 15 16 15 17 17 16 17 19 17 15 17 17 16 15 18 16 14 15 17 15 14 15 16 13 16 16 15 17 16 18 17 16 18 15 16 16 16 16 15 16 16 15 16 16 17 15 17 18 17 16 18 18 16 19 17 18 18 17 18 17 17 18 16 17 16 16 17 16 16 17 15 15 19 16 17 18 18 18 20 19 20 17 20 19 17 19 20 17 19 16 20 19 19 22 20 18 20 21 19 20 19 19 18 20 19 19 18 19 18 19 18 20 17 19 18 18 17 19 18 19 19 20 19 21 20 19 18 20 21 20 21 21 21 21 22 22 22 21 22 20 22 23 23 23 23 23 23 23 24 23 20 21 19 20 21 24 24 23 24 26 23 23 23 24 23 24 26 27 26 27 29 28 28 29 30 29 30 30 32 31 33 34 35 34 35 34 37 36 38 39 39 40 41 41 43 42 42 42 43 43 43 43 43 41 42 47 45 45 49 50 51 50 51 51 50 52 52 52 52 52 51 51 0 0 0 0 0
    0 0 0 0 0 0 0 0 0 0 0 0 0 0 0 0 0 0 0 0 0 0 0 0 0 0 0 0 0 0 0 0 0 0 0 0 0 0 0 0 0 0 0 0 0 0 0 0 0 0 0 0 0 0 0 0 0 0 0 0 0 0 0 0 0 0 0 0 0 38 39 37 37 37 35 34 36 37 35 33 34 34 33 33 35 31 28 27 26 24 22 21 20 15 16 16 17 18 16 18 19 18 16 17 17 16 15 18 16 14 15 17 15 14 15 16 13 17 16 15 17 16 19 17 17 17 15 16 16 16 16 14 16 16 16 17 17 18 15 17 18 17 16 19 17 17 19 16 18 18 17 18 16 17 18 16 17 15 16 17 16 15 16 15 14 19 16 17 18 17 19 20 19 20 17 20 19 17 19 19 16 18 16 20 18 18 21 19 17 20 21 19 20 20 19 18 20 19 19 19 19 18 18 19 20 16 19 18 18 17 20 19 20 19 21 19 21 20 19 18 20 21 20 21 21 20 21 22 22 21 21 21 20 22 23 23 24 24 23 24 24 25 25 21 21 19 21 23 25 25 24 24 27 24 24 24 24 24 24 26 27 26 27 29 28 28 29 30 30 30 31 32 31 34 34 35 34 35 35 37 36 38 39 39 39 41 41 43 42 42 42 42 43 43 43 43 42 43 48 45 46 50 50 51 51 51 51 51 52 51 52 52 52 51 51 0 0 0 0 0
    0 0 0 0 0 0 0 0 0 0 0 0 0 0 0 0 0 0 0 0 0 0 0 0 0 0 0 0 0 0 0 0 0 0 0 0 0 0 0 0 0 0 0 0 0 0 0 0 0 0 0 0 0 0 0 0 0 0 0 0 0 0 0 0 0 0 0 0 0 38 38 37 36 37 34 34 35 37 35 33 33 34 32 33 35 31 28 27 26 25 23 23 21 15 16 15 17 19 16 18 18 18 16 17 16 16 15 18 15 15 15 17 15 14 15 16 12 18 16 15 17 16 19 17 17 17 15 16 16 16 16 13 16 16 16 16 16 17 14 17 18 16 16 20 16 17 20 17 19 18 17 18 16 18 18 17 17 15 16 18 16 16 17 16 13 19 16 17 17 17 19 19 19 20 17 19 19 17 19 19 16 18 16 20 18 17 20 19 16 20 21 19 20 21 19 19 21 19 19 20 19 18 18 19 20 16 19 19 17 19 21 20 20 20 21 19 21 21 19 18 20 21 20 21 21 21 20 22 22 21 21 21 20 22 23 23 24 24 24 25 25 26 26 22 22 19 22 24 26 26 25 25 27 24 24 24 24 24 25 26 27 26 27 28 28 28 29 30 30 30 31 32 31 33 34 35 33 35 35 37 36 38 38 38 39 41 41 42 41 42 42 42 42 42 42 43 42 44 48 46 47 50 51 51 51 52 51 51 52 52 52 51 52 51 51 0 0 0 0 0
    0 0 0 0 0 0 0 0 0 0 0 0 0 0 0 0 0 0 0 0 0 0 0 0 0 0 0 0 0 0 0 0 0 0 0 0 0 0 0 0 0 0 0 0 0 0 0 0 0 0 0 0 0 0 0 0 0 0 0 0 0 0 0 0 0 0 0 0 0 38 38 37 36 36 34 34 35 36 35 33 32 33 31 33 35 31 29 28 27 26 25 24 22 14 16 14 18 20 17 19 18 18 16 17 16 15 15 18 15 15 15 16 14 14 16 16 12 18 16 15 18 17 20 17 17 18 16 16 16 16 16 13 16 16 16 17 16 17 14 17 18 16 15 20 16 17 20 18 20 19 18 19 16 19 19 17 18 15 17 18 16 16 17 16 13 19 17 17 17 16 19 19 18 20 17 19 19 18 19 19 16 18 16 19 18 17 18 18 15 19 20 19 20 22 19 19 21 19 19 20 19 18 17 19 20 15 19 19 15 19 21 22 21 21 22 20 21 22 20 19 20 21 21 21 21 21 20 22 22 21 20 21 20 22 23 23 24 24 24 25 25 26 26 22 22 18 20 22 24 25 24 24 28 24 24 24 24 24 25 26 27 26 27 28 28 28 29 30 30 30 31 32 31 33 34 35 33 34 35 37 37 38 38 38 39 41 41 42 40 41 41 41 42 42 42 42 41 45 47 45 48 50 51 51 51 52 51 52 53 52 52 51 52 51 51 0 0 0 0 0
    0 0 0 0 0 0 0 0 0 0 0 0 0 0 0 0 0 0 0 0 0 0 0 0 0 0 0 0 0 0 0 0 0 0 0 0 0 0 0 0 0 0 0 0 0 0 0 0 0 0 0 0 0 0 0 0 0 0 0 0 0 0 0 0 0 0 0 0 0 38 38 37 36 36 34 34 35 36 34 33 32 32 31 34 35 31 29 28 27 25 25 23 19 14 16 14 16 18 16 19 17 18 16 17 16 15 15 18 14 15 15 16 15 15 16 16 13 18 17 15 18 17 20 17 17 18 16 16 16 16 16 12 17 16 16 17 16 17 15 18 18 16 16 21 16 18 20 18 20 19 18 19 17 19 19 18 18 15 17 19 16 16 18 16 13 18 17 18 16 16 19 18 19 20 18 19 18 19 19 18 17 18 16 19 18 17 18 18 14 18 18 17 18 22 18 18 21 18 18 20 18 18 16 19 19 14 20 19 13 19 21 22 21 21 22 20 21 22 20 20 21 21 21 21 21 21 21 22 21 21 20 21 19 22 23 23 24 24 24 25 25 26 26 21 21 17 17 19 23 24 23 24 27 24 24 24 24 24 25 26 27 26 27 28 28 29 29 31 30 30 31 32 31 32 34 35 32 34 35 37 37 38 39 38 39 41 41 42 40 41 41 41 42 42 42 42 41 45 47 45 47 50 50 51 51 51 51 52 53 52 52 51 52 51 52 0 0 0 0 0
    0 0 0 0 0 0 0 0 0 0 0 0 0 0 0 0 0 0 0 0 0 0 0 0 0 0 0 0 0 0 0 0 0 0 0 0 0 0 0 0 0 0 0 0 0 0 0 0 0 0 0 0 0 0 0 0 0 0 0 0 0 0 0 0 0 0 0 0 0 38 38 38 36 37 34 34 35 35 34 33 33 33 30 35 36 32 29 28 26 24 22 21 17 14 16 15 16 17 15 19 17 17 16 16 16 15 15 18 14 16 16 17 16 16 17 17 15 18 17 16 17 17 20 17 18 18 17 17 16 16 16 13 17 16 16 16 16 16 15 17 17 16 16 20 16 18 20 18 20 18 18 19 17 19 18 18 18 16 18 19 17 16 18 17 14 18 16 18 16 16 19 18 18 20 18 19 18 19 19 18 18 19 17 20 18 18 18 18 15 17 17 16 16 21 17 17 20 17 18 19 18 18 16 19 19 14 20 19 13 18 20 21 20 21 21 20 21 22 21 20 21 21 21 21 21 21 21 21 21 21 20 21 19 22 23 22 24 24 24 25 25 26 26 22 21 18 19 19 23 23 23 24 27 24 24 24 25 25 25 26 27 26 27 28 28 29 29 31 31 30 31 32 31 32 34 35 31 34 36 37 37 38 38 38 39 41 41 41 40 41 41 41 41 41 41 42 41 46 47 45 48 49 49 50 50 50 50 51 53 52 52 51 52 51 52 0 0 0 0 0
    0 0 0 0 0 0 0 0 0 0 0 0 0 0 0 0 0 0 0 0 0 0 0 0 0 0 0 0 0 0 0 0 0 0 0 0 0 0 0 0 0 0 0 0 0 0 0 0 0 0 0 0 0 0 0 0 0 0 0 0 0 0 0 0 0 0 0 0 0 38 38 38 37 37 34 35 35 36 35 34 33 34 30 36 35 31 27 27 24 22 20 19 16 13 16 15 15 17 16 19 16 17 16 16 17 15 16 17 14 16 15 17 16 16 17 17 16 18 17 17 17 18 20 17 18 17 18 17 17 17 15 14 17 15 17 16 16 17 16 17 16 16 16 19 16 18 19 18 20 18 18 19 17 19 18 18 18 16 18 18 17 16 18 17 14 17 16 18 15 15 19 17 17 19 18 18 17 20 19 17 19 19 17 20 19 19 18 19 17 17 17 17 16 20 16 17 20 17 18 19 18 18 15 19 19 14 20 19 13 18 20 21 20 21 21 21 21 22 21 21 21 21 21 21 21 21 21 21 21 20 20 21 20 22 22 22 24 24 24 25 25 25 25 22 22 19 21 21 24 23 23 24 27 24 25 25 25 25 26 26 27 26 28 28 28 29 29 31 31 31 32 32 32 32 35 35 31 34 36 38 37 38 39 38 40 41 41 41 40 41 41 41 41 42 42 43 43 47 47 46 48 49 49 50 50 49 50 50 52 52 52 51 52 51 52 0 0 0 0 0
    0 0 0 0 0 0 0 0 0 0 0 0 0 0 0 0 0 0 0 0 0 0 0 0 0 0 0 0 0 0 0 0 0 0 0 0 0 0 0 0 0 0 0 0 0 0 0 0 0 0 0 0 0 0 0 0 0 0 0 0 0 0 0 0 0 0 0 0 0 37 37 37 36 37 35 35 36 36 35 34 34 34 29 36 34 29 26 25 23 22 19 18 16 13 17 15 15 17 16 18 16 17 16 16 17 15 16 16 14 17 15 17 16 15 17 16 17 17 17 17 16 18 19 17 18 16 18 17 17 18 16 15 17 16 18 16 16 17 16 18 16 17 17 19 17 18 18 18 20 18 18 19 18 19 18 19 19 17 19 18 18 17 18 18 15 17 17 18 16 16 19 17 17 19 18 18 17 20 19 16 19 19 18 20 19 19 18 19 18 18 18 19 16 20 17 17 20 17 18 19 18 18 16 19 19 15 20 19 15 19 19 20 18 20 20 21 20 21 21 21 21 22 21 21 20 21 21 20 21 20 20 20 20 22 21 21 23 23 23 23 23 23 24 23 23 21 21 22 24 23 23 24 27 25 25 25 25 25 26 26 27 26 27 28 28 29 29 32 31 31 32 32 32 32 35 35 31 34 37 38 37 38 39 38 40 41 41 41 40 42 42 41 41 42 42 44 44 48 48 46 48 49 49 49 49 49 50 50 52 51 51 51 52 51 52 0 0 0 0 0
    0 0 0 0 0 0 0 0 0 0 0 0 0 0 0 0 0 0 0 0 0 0 0 0 0 0 0 0 0 0 0 0 0 0 0 0 0 0 0 0 0 0 0 0 0 0 0 0 0 0 0 0 0 0 0 0 0 0 0 0 0 0 0 0 0 0 0 0 0 36 37 37 36 37 34 35 35 35 35 34 34 34 29 36 33 27 25 24 21 21 18 16 16 13 17 15 15 17 15 18 16 17 17 16 18 16 17 16 15 17 15 17 16 15 17 15 17 17 17 16 15 18 19 17 18 16 18 17 18 18 16 17 17 17 19 17 16 18 16 18 16 18 17 18 17 19 18 19 19 19 19 19 19 20 18 20 19 18 19 18 18 17 18 18 15 17 18 18 17 17 19 17 17 19 18 18 17 19 18 16 19 18 18 20 18 19 17 19 19 18 19 19 16 20 18 18 21 18 19 20 18 19 17 20 19 16 20 18 16 19 18 19 17 19 19 21 20 21 21 20 21 21 21 21 20 21 21 20 21 20 20 20 20 21 20 20 21 21 22 21 22 22 22 22 22 21 21 22 24 23 23 24 26 25 25 25 24 25 26 26 27 26 27 27 29 29 29 32 31 31 32 32 32 32 34 35 31 35 37 38 37 38 39 39 40 41 41 41 40 42 42 41 41 42 42 45 45 48 48 46 48 48 49 49 48 49 49 50 51 51 51 51 52 51 52 0 0 0 0 0
    0 0 0 0 0 0 0 0 0 0 0 0 0 0 0 0 0 0 0 0 0 0 0 0 0 0 0 0 0 0 0 0 0 0 0 0 0 0 0 0 0 0 0 0 0 0 0 0 0 0 0 0 0 0 0 0 0 0 0 0 0 0 0 0 0 0 0 0 0 36 37 37 36 36 34 35 35 35 35 34 34 34 29 35 30 25 24 23 20 20 17 16 16 13 17 15 15 17 15 18 16 16 17 15 18 16 17 16 15 17 15 17 16 15 17 15 17 16 17 16 15 17 18 16 18 15 18 17 18 18 17 18 17 17 19 17 17 18 17 19 16 18 18 18 17 19 18 19 19 19 19 19 19 20 19 20 19 18 20 18 18 17 18 19 15 18 18 18 18 17 19 18 17 19 18 18 17 20 18 17 19 18 18 20 18 19 17 19 19 19 20 20 17 20 18 19 21 19 19 20 19 20 18 20 19 18 20 18 16 19 18 19 17 19 18 21 20 20 20 20 20 21 21 21 19 21 20 20 21 20 21 20 20 21 20 20 20 21 21 20 22 22 23 23 22 22 21 22 23 22 23 23 24 24 24 24 24 25 25 26 27 26 27 27 29 29 28 33 31 31 32 32 32 31 34 34 30 35 37 37 37 38 39 39 40 40 40 40 40 41 42 41 41 42 43 45 46 48 48 46 48 48 48 49 48 49 49 49 51 51 51 51 52 51 52 0 0 0 0 0
    0 0 0 0 0 0 0 0 0 0 0 0 0 0 0 0 0 0 0 0 0 0 0 0 0 0 0 0 0 0 0 0 0 0 0 0 0 0 0 0 0 0 0 0 0 0 0 0 0 0 0 0 0 0 0 0 0 0 0 0 0 0 0 0 0 0 0 0 0 36 36 36 36 36 34 35 35 35 35 34 34 33 30 35 30 24 23 23 19 20 17 15 15 13 16 15 15 16 15 17 16 16 16 15 17 16 17 15 16 17 15 17 16 15 17 14 18 15 16 16 14 18 17 16 18 15 18 17 18 18 16 18 17 17 20 17 17 18 17 19 16 18 18 17 18 19 17 19 18 19 19 19 19 19 18 20 18 18 20 18 19 18 18 19 15 18 18 18 18 18 18 18 18 19 18 19 18 20 18 18 20 18 19 20 18 20 18 19 19 20 20 21 18 21 19 19 21 20 20 20 19 20 19 21 20 19 20 18 18 19 18 19 18 19 18 21 20 20 20 20 20 21 21 21 19 21 20 20 21 21 21 21 21 21 20 20 20 21 21 20 22 21 23 23 23 22 22 22 23 22 22 23 23 24 24 24 24 24 25 25 26 26 26 27 29 29 28 33 31 31 32 32 32 31 34 34 30 34 37 36 37 38 39 38 39 40 40 40 40 41 41 41 41 42 43 45 46 48 47 46 48 48 48 48 48 49 49 49 51 51 51 51 52 51 52 0 0 0 0 0
    0 0 0 0 0 0 0 0 0 0 0 0 0 0 0 0 0 0 0 0 0 0 0 0 0 0 0 0 0 0 0 0 0 0 0 0 0 0 0 0 0 0 0 0 0 0 0 0 0 0 0 0 0 0 0 0 0 0 0 0 0 0 0 0 0 0 0 0 0 36 37 36 36 36 34 35 35 35 35 34 34 33 32 34 30 24 23 22 19 19 16 15 15 14 16 15 14 16 15 16 16 16 16 15 17 16 17 14 16 17 15 18 16 15 17 15 18 15 17 16 14 18 17 16 18 15 17 17 18 18 16 19 17 17 20 17 17 19 17 19 16 19 18 17 18 19 17 19 18 19 19 18 19 19 17 20 17 18 19 17 18 17 17 19 16 18 18 18 18 18 18 18 18 20 19 19 18 20 18 18 20 18 19 20 18 20 18 19 20 20 21 21 18 20 19 19 21 20 20 20 20 21 19 21 20 19 20 19 18 20 19 20 18 19 19 21 20 21 20 21 21 21 21 21 19 21 20 20 21 21 22 21 21 21 20 21 21 21 21 20 21 21 22 23 23 22 22 22 22 22 22 22 22 23 23 23 23 24 25 25 26 26 26 27 29 29 28 34 32 31 32 32 33 30 34 34 30 34 37 36 36 37 39 38 39 39 40 39 40 41 41 41 41 43 43 45 45 48 47 46 48 48 47 48 48 49 48 49 50 51 51 51 52 51 52 0 0 0 0 0
    0 0 0 0 0 0 0 0 0 0 0 0 0 0 0 0 0 0 0 0 0 0 0 0 0 0 0 0 0 0 0 0 0 0 0 0 0 0 0 0 0 0 0 0 0 0 0 0 0 0 0 0 0 0 0 0 0 0 0 0 0 0 0 0 0 0 0 0 0 36 37 36 37 36 35 35 36 35 35 35 35 33 32 33 29 23 22 21 18 18 16 15 16 14 16 16 14 16 16 16 16 17 16 15 17 16 17 14 17 17 15 18 17 15 18 15 18 15 17 16 14 17 16 16 18 14 17 16 18 18 16 19 17 16 20 17 17 18 17 19 16 19 18 17 18 19 16 19 17 18 18 17 19 18 16 19 17 18 19 17 18 17 17 19 15 18 18 18 18 19 18 19 18 20 19 19 18 20 18 19 20 17 19 20 18 20 18 19 20 20 21 20 18 20 19 19 21 20 21 21 21 21 20 21 20 19 19 18 18 19 19 19 18 19 19 21 20 21 20 21 20 21 21 21 19 21 20 20 21 21 22 22 22 21 21 21 21 22 21 20 21 21 22 23 22 22 22 22 23 22 22 23 22 23 23 23 23 24 25 25 25 25 25 26 29 29 28 34 32 32 32 33 33 31 34 34 30 34 36 35 35 36 38 38 38 39 39 39 40 41 41 41 42 43 43 44 45 47 47 46 47 47 47 48 48 48 48 49 51 51 51 51 52 51 52 0 0 0 0 0
    0 0 0 0 0 0 0 0 0 0 0 0 0 0 0 0 0 0 0 0 0 0 0 0 0 0 0 0 0 0 0 0 0 0 0 0 0 0 0 0 0 0 0 0 0 0 0 0 0 0 0 0 0 0 0 0 0 0 0 0 0 0 0 0 0 0 0 0 0 36 37 36 37 35 35 35 36 35 36 35 35 33 33 32 28 22 21 21 18 18 16 15 16 14 16 16 15 16 16 15 15 17 16 15 17 17 17 14 18 17 14 18 17 15 18 15 18 15 17 17 15 17 16 15 18 14 17 16 18 18 15 19 17 16 20 17 17 18 17 19 16 19 19 17 18 19 16 19 17 18 18 17 19 18 16 19 16 18 18 16 18 17 17 19 15 18 18 18 18 19 18 19 18 20 19 19 18 20 18 19 20 17 19 20 18 20 19 19 19 20 21 20 19 20 19 20 21 21 21 21 21 -193 20 21 20 20 20 18 19 20 19 20 19 20 19 22 21 21 20 20 20 21 21 20 19 21 20 21 22 21 22 22 22 21 21 21 21 21 21 20 21 21 22 23 22 21 22 22 23 22 22 23 22 23 23 23 24 24 25 25 25 26 26 27 29 28 28 34 32 32 32 33 33 31 34 34 30 34 36 35 34 35 38 37 38 39 39 39 40 41 41 41 42 44 43 44 45 48 47 46 48 47 47 48 48 48 48 49 51 51 51 52 52 51 52 0 0 0 0 0
    0 0 0 0 0 0 0 0 0 0 0 0 0 0 0 0 0 0 0 0 0 0 0 0 0 0 0 0 0 0 0 0 0 0 0 0 0 0 0 0 0 0 0 0 0 0 0 0 0 0 0 0 0 0 0 0 0 0 0 0 0 0 0 0 0 0 0 0 0 35 37 35 37 35 35 35 36 35 36 35 35 33 34 30 27 22 21 20 18 17 16 16 16 15 16 16 15 16 16 15 15 17 15 15 16 16 16 14 18 16 14 18 17 15 18 15 18 15 18 17 15 18 16 15 17 14 17 15 18 18 15 19 17 16 20 18 17 19 18 20 17 19 19 17 19 20 17 20 18 18 19 17 19 18 16 19 16 17 18 16 18 17 17 19 15 18 18 18 19 19 17 19 18 20 19 19 18 20 17 19 19 17 19 19 18 20 19 19 20 20 21 20 19 20 19 20 21 21 21 21 21 21 21 21 20 20 19 18 19 20 19 20 19 20 20 22 21 21 20 20 20 21 21 20 19 21 20 21 22 21 21 21 21 20 21 20 21 21 21 20 21 21 22 22 22 21 22 22 23 21 22 23 22 23 23 23 23 24 25 25 25 26 26 27 29 28 28 33 31 31 31 33 33 31 34 34 30 35 36 35 34 35 37 37 37 38 39 39 40 41 41 42 42 44 42 44 44 47 46 46 47 47 46 48 48 49 48 50 51 51 51 51 53 51 52 0 0 0 0 0
    0 0 0 0 0 0 0 0 0 0 0 0 0 0 0 0 0 0 0 0 0 0 0 0 0 0 0 0 0 0 0 0 0 0 0 0 0 0 0 0 0 0 0 0 0 0 0 0 0 0 0 0 0 0 0 0 0 0 0 0 0 0 0 0 0 0 0 0 0 35 37 35 37 34 34 35 36 35 35 35 35 32 35 30 27 22 21 20 18 17 16 16 16 16 16 16 15 16 16 15 15 18 15 16 16 16 15 15 18 16 14 17 17 16 18 16 18 16 18 17 15 18 16 16 17 15 16 15 18 18 15 20 17 17 20 18 18 19 18 20 18 20 20 18 20 21 18 21 18 18 19 17 19 17 16 19 15 17 18 16 17 17 17 19 15 19 18 18 18 20 17 19 18 19 19 19 18 19 17 19 19 16 19 19 18 20 19 19 20 20 21 21 20 20 20 20 21 21 21 21 22 21 21 21 20 20 19 18 19 19 19 19 19 20 20 22 21 21 20 20 20 21 21 20 19 21 20 21 22 22 21 21 21 20 20 20 20 21 20 20 21 20 22 22 22 21 22 22 22 21 22 23 22 23 23 23 23 24 25 25 25 26 26 26 28 28 28 32 31 31 31 33 33 31 34 34 30 35 36 34 33 35 37 37 37 38 39 39 40 41 41 42 42 43 42 43 43 46 45 45 46 46 46 48 49 49 48 50 51 51 50 51 52 51 52 0 0 0 0 0
    0 0 0 0 0 0 0 0 0 0 0 0 0 0 0 0 0 0 0 0 0 0 0 0 0 0 0 0 0 0 0 0 0 0 0 0 0 0 0 0 0 0 0 0 0 0 0 0 0 0 0 0 0 0 0 0 0 0 0 0 0 0 0 0 0 0 0 0 0 35 37 35 37 34 34 34 35 35 34 34 35 32 35 31 28 23 21 20 18 17 17 17 16 16 15 17 15 16 16 15 15 18 15 16 15 16 15 15 18 16 13 17 17 16 18 17 18 16 19 17 16 18 16 16 17 15 16 15 17 17 14 19 17 17 19 18 17 19 19 20 18 20 19 19 20 21 19 21 19 18 19 17 19 17 16 18 15 16 17 16 17 17 17 19 15 18 18 18 18 20 17 18 17 19 18 18 18 19 16 20 19 17 19 19 19 20 20 20 20 20 22 21 20 20 20 20 21 21 21 21 22 20 21 21 19 20 19 18 19 19 19 19 20 20 21 22 21 21 20 21 21 21 21 20 19 20 20 22 21 21 21 21 21 20 20 20 20 20 20 20 21 20 22 22 22 21 22 21 22 21 22 23 22 23 23 24 24 24 25 26 25 26 26 27 28 28 28 32 31 31 31 34 33 31 34 34 30 35 36 34 32 36 37 37 37 39 39 39 40 41 41 42 43 44 43 43 43 46 45 45 46 46 46 47 49 49 48 50 51 51 50 51 52 51 52 0 0 0 0 0
    0 0 0 0 0 0 0 0 0 0 0 0 0 0 0 0 0 0 0 0 0 0 0 0 0 0 0 0 0 0 0 0 0 0 0 0 0 0 0 0 0 0 0 0 0 0 0 0 0 0 0 0 0 0 0 0 0 0 0 0 0 0 0 0 0 0 0 0 0 36 37 35 37 35 34 34 36 35 35 35 35 32 36 31 29 23 21 20 18 18 17 17 16 16 15 17 15 16 16 15 15 18 15 16 14 16 14 15 18 15 14 17 17 16 18 18 18 16 19 17 16 18 16 16 17 15 16 14 17 17 14 19 16 16 18 18 17 19 19 20 18 20 19 19 20 21 19 21 19 18 19 17 19 17 16 18 15 16 17 16 17 17 17 18 16 18 18 18 18 20 17 18 17 19 18 18 18 19 16 20 19 17 20 19 19 20 20 20 20 20 21 20 21 20 19 20 20 20 21 20 21 19 21 20 19 20 19 18 20 18 20 19 20 20 21 22 22 22 21 21 21 21 22 20 20 21 20 22 21 21 21 20 21 20 20 20 20 20 20 20 21 20 22 21 21 21 22 21 22 21 22 23 22 23 23 24 24 24 25 26 25 26 26 27 28 28 29 31 31 31 31 34 33 31 34 34 31 35 36 35 33 36 37 37 37 39 39 39 40 41 41 43 43 44 43 43 43 47 45 45 46 46 45 47 49 49 48 50 51 51 50 51 53 51 52 0 0 0 0 0
    0 0 0 0 0 0 0 0 0 0 0 0 0 0 0 0 0 0 0 0 0 0 0 0 0 0 0 0 0 0 0 0 0 0 0 0 0 0 0 0 0 0 0 0 0 0 0 0 0 0 0 0 0 0 0 0 0 0 0 0 0 0 0 0 0 0 0 0 0 37 38 37 37 35 34 35 36 35 35 35 34 32 36 32 31 25 22 20 19 18 17 17 16 17 15 17 15 16 16 15 14 17 14 16 14 16 14 15 19 16 14 17 18 18 19 19 18 17 20 17 17 19 17 17 17 16 16 14 17 17 13 18 17 16 18 18 18 19 19 21 19 20 19 19 20 21 19 20 19 18 19 17 18 16 17 17 15 15 16 16 17 17 18 18 16 18 18 19 17 20 17 17 17 18 18 17 18 19 16 20 19 18 20 19 19 20 19 19 20 19 21 19 21 19 19 20 20 20 20 20 21 18 20 19 18 19 18 17 20 18 20 19 20 21 21 22 22 22 22 21 22 21 22 21 20 21 20 22 21 21 20 20 21 20 20 20 20 20 20 21 21 20 21 20 21 20 21 20 22 20 22 22 23 23 23 24 24 24 25 26 26 26 27 27 28 28 29 31 31 31 32 34 33 32 34 35 31 35 36 35 33 37 37 37 37 39 39 39 40 41 41 43 43 44 43 43 43 47 45 45 46 47 46 48 50 49 48 51 52 51 50 51 53 51 52 0 0 0 0 0
    0 0 0 0 0 0 0 0 0 0 0 0 0 0 0 0 0 0 0 0 0 0 0 0 0 0 0 0 0 0 0 0 0 0 0 0 0 0 0 0 0 0 0 0 0 0 0 0 0 0 0 0 0 0 0 0 0 0 0 0 0 0 0 0 0 0 0 0 0 38 39 37 37 35 35 34 36 35 35 35 34 32 35 31 31 25 23 20 19 17 18 17 16 17 15 17 15 16 16 14 14 17 14 16 14 16 13 16 19 16 15 17 18 18 19 19 19 17 20 18 17 19 17 17 18 16 16 14 17 17 14 18 17 16 18 18 18 19 19 21 20 21 20 20 21 21 20 20 20 18 19 17 19 16 17 17 16 15 16 16 17 17 18 18 16 18 18 19 17 20 17 16 17 18 18 17 18 19 16 20 20 18 20 19 19 19 19 18 19 18 19 17 21 19 18 20 20 19 20 19 21 18 20 19 18 18 18 17 20 17 20 18 20 21 21 22 22 21 21 21 21 21 22 21 20 21 20 22 21 21 20 20 21 20 20 20 20 21 21 21 22 20 21 20 20 20 21 20 22 20 22 23 23 23 23 24 24 24 25 26 26 26 27 28 28 28 29 31 31 32 32 34 33 32 35 35 32 35 37 35 34 37 37 37 38 39 39 40 41 41 41 44 43 45 43 43 43 47 45 45 46 47 46 48 50 50 48 51 52 52 50 52 53 52 53 0 0 0 0 0
    0 0 0 0 0 0 0 0 0 0 0 0 0 0 0 0 0 0 0 0 0 0 0 0 0 0 0 0 0 0 0 0 0 0 0 0 0 0 0 0 0 0 0 0 0 0 0 0 0 0 0 0 0 0 0 0 0 0 0 0 0 0 0 0 0 0 0 0 0 38 39 38 37 35 35 34 36 35 35 35 34 33 35 32 31 26 23 20 19 17 18 18 16 17 15 17 16 17 16 15 14 17 15 16 14 16 13 17 19 15 14 17 18 18 19 20 19 18 21 19 18 19 18 17 18 17 17 15 17 18 14 18 18 17 18 18 18 19 19 21 20 21 20 20 21 21 20 20 20 18 19 18 19 17 18 17 16 15 16 16 17 17 18 18 16 18 18 18 17 20 17 16 16 18 18 17 19 19 16 20 20 19 20 18 19 19 18 18 20 18 18 16 21 18 17 20 20 19 20 19 20 18 20 19 18 18 19 17 20 17 20 19 21 21 21 21 21 20 21 20 21 21 21 21 20 21 20 21 20 20 19 19 20 20 20 20 20 21 21 21 22 19 21 20 20 -193 -193 20 22 20 22 22 23 23 23 24 24 24 26 26 26 26 27 28 28 28 29 30 31 32 33 34 33 33 35 35 32 35 37 36 35 38 38 37 38 40 40 40 41 42 41 44 44 44 43 44 44 47 45 46 46 47 46 48 50 50 48 52 53 51 50 52 53 52 53 0 0 0 0 0
    0 0 0 0 0 0 0 0 0 0 0 0 0 0 0 0 0 0 0 0 0 0 0 0 0 0 0 0 0 0 0 0 0 0 0 0 0 0 0 0 0 0 0 0 0 0 0 0 0 0 0 0 0 0 0 0 0 0 0 0 0 0 0 0 0 0 0 0 0 38 39 38 37 36 35 34 35 35 35 34 34 34 36 34 34 28 24 20 19 18 18 18 16 18 15 17 16 17 16 15 14 17 15 17 15 16 13 18 19 16 14 17 18 19 20 21 19 19 21 19 18 20 18 17 17 17 16 15 17 17 14 18 18 18 18 19 18 20 20 21 20 21 20 20 21 22 21 21 21 19 20 19 19 17 18 17 16 15 16 16 17 17 18 18 17 18 19 19 17 20 17 16 17 18 18 18 19 20 16 20 20 19 20 18 19 19 18 19 20 19 18 18 22 19 18 21 20 18 20 19 20 17 20 19 17 18 19 17 20 17 21 19 21 21 21 21 21 20 21 20 21 21 21 21 20 21 20 21 20 20 19 19 20 20 20 20 20 21 21 21 -193 20 21 20 20 20 -193 20 22 20 22 22 23 23 22 24 24 24 26 26 26 26 27 28 28 28 29 30 32 32 33 33 33 33 35 35 33 35 37 36 36 39 38 38 39 40 40 40 41 42 41 44 44 44 43 44 44 48 45 46 46 47 47 48 50 50 47 51 53 51 50 52 53 52 53 0 0 0 0 0
    0 0 0 0 0 0 0 0 0 0 0 0 0 0 0 0 0 0 0 0 0 0 0 0 0 0 0 0 0 0 0 0 0 0 0 0 0 0 0 0 0 0 0 0 0 0 0 0 0 0 0 0 0 0 0 0 0 0 0 0 0 0 0 0 0 0 0 0 0 39 40 38 37 36 35 34 35 35 35 34 34 35 36 35 35 31 27 22 20 20 19 18 16 18 16 17 16 18 16 15 15 17 15 17 14 16 13 18 19 16 15 17 18 19 20 22 20 20 22 20 19 20 19 18 17 17 16 15 17 18 15 19 19 19 20 20 19 20 20 21 20 21 20 21 22 22 22 23 22 20 21 20 20 17 19 17 17 15 16 16 18 18 19 19 17 18 19 18 17 20 17 16 17 18 19 18 20 20 17 21 20 20 20 19 19 19 17 19 20 19 18 18 22 19 18 21 20 18 20 19 20 17 20 18 17 18 19 18 21 17 21 20 22 22 21 21 20 20 21 20 21 21 21 21 20 21 21 22 20 20 19 19 20 20 20 20 20 21 21 21 22 20 22 20 -193 -193 -193 -193 22 20 22 23 23 23 23 24 24 24 25 26 26 26 27 28 28 29 30 30 32 32 33 33 32 33 34 34 33 35 38 37 37 40 39 39 40 40 40 40 41 42 42 44 44 44 44 44 44 48 45 46 46 48 47 48 50 51 47 51 53 51 49 52 53 52 53 0 0 0 0 0
    0 0 0 0 0 0 0 0 0 0 0 0 0 0 0 0 0 0 0 0 0 0 0 0 0 0 0 0 0 0 0 0 0 0 0 0 0 0 0 0 0 0 0 0 0 0 0 0 0 0 0 0 0 0 0 0 0 0 0 0 0 0 0 0 0 0 0 0 0 40 40 39 37 36 35 34 35 35 36 34 34 35 37 36 36 34 32 26 23 23 22 19 17 19 16 18 17 18 17 16 16 17 15 17 14 16 13 18 19 16 15 17 18 21 22 23 21 22 23 22 21 21 20 19 18 18 17 15 17 18 16 20 20 20 21 20 20 21 21 21 20 21 20 21 23 22 23 23 23 21 22 21 21 18 20 17 18 15 17 16 18 17 20 19 18 18 20 18 18 20 18 17 18 18 19 19 21 21 18 21 20 20 21 19 19 19 17 18 20 19 19 19 22 19 19 21 20 18 20 19 20 18 20 19 18 18 20 19 22 19 22 21 23 23 22 20 20 19 21 20 21 21 21 21 20 21 21 -193 20 20 19 19 20 21 20 21 21 21 21 22 -209 20 22 -193 -193 -209 -193 -193 22 20 23 23 24 23 23 25 24 24 26 26 26 26 28 28 27 29 30 30 32 33 33 33 33 33 35 34 35 36 39 38 38 41 40 40 40 41 40 41 42 43 42 44 44 44 44 45 44 48 45 47 47 48 47 48 49 51 47 51 53 51 49 52 53 52 53 0 0 0 0 0
    0 0 0 0 0 0 0 0 0 0 0 0 0 0 0 0 0 0 0 0 0 0 0 0 0 0 0 0 0 0 0 0 0 0 0 0 0 0 0 0 0 0 0 0 0 0 0 0 0 0 0 0 0 0 0 0 0 0 0 0 0 0 0 0 0 0 0 0 0 41 41 40 38 37 36 34 36 36 36 35 34 34 36 35 35 34 33 30 28 27 26 20 18 19 16 19 18 19 18 17 17 18 16 19 15 17 15 20 20 16 18 18 20 23 24 25 23 24 25 23 23 23 21 21 20 19 19 17 18 19 18 20 21 21 22 21 21 21 21 21 20 21 20 21 23 22 24 23 24 23 23 22 22 20 22 18 20 17 19 16 18 17 21 18 19 19 21 19 19 21 19 17 19 18 20 19 21 21 18 21 21 20 21 19 19 19 17 18 20 19 19 19 22 20 20 22 21 19 20 19 20 18 20 19 18 19 21 20 23 20 23 23 23 23 22 20 20 19 20 20 21 21 20 21 20 21 20 -193 20 20 19 19 20 21 20 21 22 22 22 -193 -193 21 -193 -193 -193 -193 22 20 22 21 23 23 24 23 23 24 24 24 26 26 26 27 28 28 28 29 30 30 33 33 34 33 34 34 35 36 36 36 39 38 39 41 40 40 40 41 40 41 42 43 42 44 44 45 44 45 44 48 46 47 47 48 47 48 49 51 47 52 53 51 50 52 53 52 53 0 0 0 0 0
    0 0 0 0 0 0 0 0 0 0 0 0 0 0 0 0 0 0 0 0 0 0 0 0 0 0 0 0 0 0 0 0 0 0 0 0 0 0 0 0 0 0 0 0 0 0 0 0 0 0 0 0 0 0 0 0 0 0 0 0 0 0 0 0 0 0 0 0 0 41 42 41 40 38 38 37 37 38 36 35 35 35 36 36 35 34 31 29 28 28 26 21 20 20 18 20 20 21 19 20 19 19 18 21 18 19 19 22 21 18 20 20 22 25 26 27 26 26 26 26 25 24 24 23 22 21 21 20 20 21 21 21 23 23 24 23 22 23 23 23 22 22 22 22 25 24 25 24 25 24 24 23 24 21 23 19 21 19 20 17 19 18 22 19 21 19 22 20 20 21 19 17 19 19 20 20 21 22 19 22 21 21 21 20 19 19 18 19 20 20 20 21 23 21 21 23 22 19 21 20 21 19 20 20 19 20 22 21 24 22 25 24 23 23 22 20 20 19 20 20 21 22 21 22 21 22 21 -193 20 20 19 19 20 21 21 22 22 -193 23 -193 -193 22 23 22 22 21 22 21 22 21 23 23 24 23 23 24 23 24 25 26 26 26 28 28 28 30 30 31 33 34 34 33 34 35 36 36 36 36 39 38 39 40 40 40 40 41 40 40 42 44 42 44 44 45 44 45 44 49 46 47 47 48 47 48 49 51 48 52 53 51 51 53 53 53 53 0 0 0 0 0
    0 0 0 0 0 0 0 0 0 0 0 0 0 0 0 0 0 0 0 0 0 0 0 0 0 0 0 0 0 0 0 0 0 0 0 0 0 0 0 0 0 0 0 0 0 0 0 0 0 0 0 0 0 0 0 0 0 0 0 0 0 0 0 0 0 0 0 0 0 42 43 42 42 41 41 39 39 39 37 35 35 35 36 35 35 33 30 30 30 30 28 -193 24 23 21 23 24 25 24 24 24 23 22 23 23 21 23 24 23 21 21 22 24 26 28 29 28 27 27 27 27 26 26 25 24 23 23 23 23 23 24 23 25 25 26 25 25 26 26 27 27 27 27 25 29 27 27 26 26 25 26 25 25 23 24 21 23 21 21 18 20 19 22 20 22 20 22 20 21 21 19 18 20 20 21 21 23 23 21 24 23 23 22 21 20 21 20 21 22 21 21 22 24 23 23 24 23 20 22 21 21 20 21 21 21 21 23 23 25 25 27 26 26 25 22 20 19 18 19 20 21 22 21 24 23 23 22 -193 21 21 20 20 21 22 22 23 24 -193 24 -193 25 23 24 23 23 22 23 22 23 22 24 24 24 24 23 24 23 24 25 26 26 26 28 28 28 30 30 31 33 34 34 32 34 34 36 37 36 36 39 38 39 40 40 40 39 40 40 40 42 43 42 43 43 44 44 45 44 48 45 47 47 48 47 48 48 51 48 53 53 51 51 53 53 53 53 0 0 0 0 0
    0 0 0 0 0 0 0 0 0 0 0 0 0 0 0 0 0 0 0 0 0 0 0 0 0 0 0 0 0 0 0 0 0 0 0 0 0 0 0 0 0 0 0 0 0 0 0 0 0 0 0 0 0 0 0 0 0 0 0 0 0 0 0 0 0 0 0 0 0 42 44 43 43 42 42 40 40 40 37 35 35 35 35 35 35 33 28 31 31 32 30 -193 26 25 24 25 25 27 26 25 26 24 -193 25 24 22 23 25 22 20 19 21 23 25 26 28 27 27 26 27 28 27 27 -193 -193 -193 -193 25 25 24 25 25 26 26 27 26 26 27 27 27 29 -193 -209 -209 31 30 29 29 28 27 28 27 27 26 26 24 25 24 24 21 23 21 24 22 23 22 23 22 22 22 21 20 21 22 23 24 25 26 24 26 25 25 24 22 21 22 21 22 23 23 23 23 25 24 -193 24 23 21 22 21 22 21 22 22 22 23 25 25 27 27 28 28 28 27 -193 21 19 18 18 20 21 22 22 24 24 24 23 -193 22 22 22 21 22 23 23 -193 25 26 25 26 26 24 25 25 25 24 25 24 24 24 25 25 24 24 23 24 23 24 25 26 26 26 28 28 28 30 30 31 34 34 34 32 35 34 36 37 36 36 40 38 39 40 40 39 39 40 39 39 41 43 42 43 43 44 43 45 44 48 45 47 47 47 47 48 48 51 48 53 53 51 51 53 53 53 53 0 0 0 0 0
    0 0 0 0 0 0 0 0 0 0 0 0 0 0 0 0 0 0 0 0 0 0 0 0 0 0 0 0 0 0 0 0 0 0 0 0 0 0 0 0 0 0 0 0 0 0 0 0 0 0 0 0 0 0 0 0 0 0 0 0 0 0 0 0 0 0 0 0 0 42 44 43 43 41 41 39 39 39 36 35 35 35 35 34 35 33 27 31 30 31 28 23 26 26 25 26 26 28 26 26 26 24 -209 25 23 22 23 24 23 20 21 21 23 26 26 27 27 27 26 27 28 27 27 26 -193 -193 25 26 25 25 27 26 28 28 28 28 27 28 28 28 28 -209 -209 -209 31 31 30 30 29 29 30 29 29 28 28 26 27 26 26 24 25 23 25 25 26 24 25 23 25 23 23 23 23 23 25 25 26 27 26 26 25 25 24 23 23 23 22 24 24 24 24 24 25 25 -193 26 25 23 24 23 24 23 23 23 24 25 26 27 28 28 30 30 29 28 -193 25 23 22 20 21 22 23 23 26 27 26 25 -193 23 24 23 22 22 23 24 25 26 27 27 28 28 27 28 28 28 27 27 27 28 28 29 27 25 25 24 25 23 25 25 26 26 26 28 28 28 29 30 32 34 34 34 33 35 35 36 37 36 37 40 38 39 40 39 39 39 40 39 39 41 43 41 42 43 43 43 45 44 48 45 47 47 47 47 48 48 51 48 52 53 51 52 53 53 53 53 0 0 0 0 0
    0 0 0 0 0 0 0 0 0 0 0 0 0 0 0 0 0 0 0 0 0 0 0 0 0 0 0 0 0 0 0 0 0 0 0 0 0 0 0 0 0 0 0 0 0 0 0 0 0 0 0 0 0 0 0 0 0 0 0 0 0 0 0 0 0 0 0 0 0 43 43 42 42 41 40 38 38 39 35 35 35 35 34 34 35 33 27 33 31 31 27 23 27 27 26 27 27 29 27 26 27 24 24 25 23 21 22 23 22 21 21 21 23 26 27 27 27 26 26 27 28 27 27 27 26 27 26 28 27 27 29 28 31 30 29 29 27 29 28 28 28 -193 -209 -193 30 31 30 30 30 30 31 29 31 29 30 28 28 27 27 25 27 -193 26 26 28 26 27 25 26 24 25 25 24 23 25 26 27 29 29 30 28 29 28 27 26 25 23 24 24 25 25 25 26 26 27 27 27 26 26 26 27 26 26 26 28 27 27 28 29 28 30 30 30 29 31 29 28 27 26 24 24 25 26 29 32 31 32 34 31 35 32 26 24 25 27 27 28 30 28 30 30 31 32 34 33 33 33 37 37 36 36 32 28 30 26 27 24 26 25 26 27 27 27 28 28 29 30 32 34 34 33 34 35 35 36 37 36 37 40 38 39 39 40 39 39 40 39 38 41 43 41 42 42 43 43 45 44 47 45 47 47 47 47 48 47 51 48 53 53 52 52 53 53 53 53 0 0 0 0 0
    0 0 0 0 0 0 0 0 0 0 0 0 0 0 0 0 0 0 0 0 0 0 0 0 0 0 0 0 0 0 0 0 0 0 0 0 0 0 0 0 0 0 0 0 0 0 0 0 0 0 0 0 0 0 0 0 0 0 0 0 0 0 0 0 0 0 0 0 0 44 44 43 43 42 40 39 38 38 35 35 34 34 34 33 33 33 27 36 35 36 29 23 28 28 27 28 28 29 28 27 28 25 24 24 22 19 21 21 18 18 20 21 23 25 26 27 27 26 26 27 28 27 27 27 27 27 27 29 29 28 31 30 32 31 30 31 28 30 30 29 30 -193 -209 -193 31 31 31 31 31 30 31 30 32 31 31 30 30 29 29 27 28 -193 27 26 28 25 27 -193 -193 -193 -209 -193 -193 -209 27 27 29 31 30 31 30 30 29 29 27 25 24 25 25 25 24 25 26 -193 27 27 27 28 28 29 30 30 30 29 31 29 28 29 29 28 29 29 29 28 31 30 30 30 -193 -193 27 27 31 32 34 34 34 37 36 39 38 35 33 31 31 32 32 33 31 33 33 34 35 36 35 36 36 39 38 37 37 35 33 38 32 32 26 28 27 27 28 27 26 27 26 26 28 33 33 34 34 35 35 35 36 37 36 37 40 38 39 39 40 40 39 40 40 -193 41 42 41 42 42 43 43 45 44 47 45 47 48 47 47 49 48 51 49 53 53 52 53 54 53 53 53 0 0 0 0 0
    0 0 0 0 0 0 0 0 0 0 0 0 0 0 0 0 0 0 0 0 0 0 0 0 0 0 0 0 0 0 0 0 0 0 0 0 0 0 0 0 0 0 0 0 0 0 0 0 0 0 0 0 0 0 0 0 0 0 0 0 0 0 0 0 0 0 0 0 0 45 44 43 44 43 41 39 39 39 35 35 34 34 34 32 33 34 27 37 37 38 31 25 28 29 27 28 28 28 27 27 27 25 24 24 21 19 21 22 21 20 21 21 23 24 25 26 26 25 25 26 27 26 27 27 25 27 27 29 29 28 30 29 31 31 30 31 28 30 31 30 31 -193 -209 -193 31 32 30 30 29 29 30 29 31 31 32 30 30 29 29 27 28 -193 26 25 27 25 27 -193 -193 -209 -209 -209 -209 -209 29 29 31 32 31 31 30 30 29 29 28 26 24 26 25 25 25 25 26 26 27 28 28 28 29 30 31 30 30 29 29 27 27 27 27 27 27 27 -193 26 29 29 28 29 30 29 28 28 32 33 35 35 34 36 35 38 37 35 34 32 31 31 32 34 31 32 33 34 35 36 35 35 35 39 38 37 37 34 36 39 35 35 28 31 29 29 33 28 23 -209 14 18 -209 -193 31 34 36 37 36 36 37 37 36 38 40 38 39 39 40 39 39 40 40 -193 41 -193 41 41 42 43 42 44 44 47 45 48 48 48 47 49 48 51 49 53 53 52 53 54 54 53 53 0 0 0 0 0
    0 0 0 0 0 0 0 0 0 0 0 0 0 0 0 0 0 0 0 0 0 0 0 0 0 0 0 0 0 0 0 0 0 0 0 0 0 0 0 0 0 0 0 0 0 0 0 0 0 0 0 0 0 0 0 0 0 0 0 0 0 0 0 0 0 0 0 0 0 46 45 44 44 44 42 40 39 39 35 35 35 34 33 31 33 34 28 36 36 35 29 26 28 28 27 27 28 28 27 26 27 24 24 22 21 19 21 21 22 21 22 22 23 24 24 26 25 25 24 24 25 25 26 26 24 26 26 29 29 28 30 29 30 31 30 31 28 29 30 -193 31 -193 -193 32 31 -193 -193 28 28 27 28 28 30 30 33 31 32 30 30 28 28 26 27 25 27 26 27 -193 -193 -209 -193 -209 -193 30 30 32 33 35 36 35 33 32 30 31 29 27 25 27 26 26 26 25 26 -193 28 29 29 30 32 31 32 31 30 29 28 27 26 26 25 25 25 26 -193 26 27 28 28 29 30 30 31 31 34 34 35 35 35 36 34 36 36 33 33 31 29 30 31 32 30 31 32 34 35 36 36 36 35 39 39 37 36 28 31 33 28 26 25 26 27 29 37 35 -193 -209 -209 -209 -209 -209 30 34 37 37 36 35 37 37 36 38 40 38 39 39 40 39 39 40 40 -193 41 -209 41 41 42 44 43 44 45 47 45 48 48 48 47 49 48 50 49 53 53 52 53 54 54 53 53 0 0 0 0 0
    0 0 0 0 0 0 0 0 0 0 0 0 0 0 0 0 0 0 0 0 0 0 0 0 0 0 0 0 0 0 0 0 0 0 0 0 0 0 0 0 0 0 0 0 0 0 0 0 0 0 0 0 0 0 0 0 0 0 0 0 0 0 0 0 0 0 0 0 0 47 46 44 44 44 43 40 39 39 34 35 34 35 33 30 32 34 28 34 33 32 27 27 28 29 27 28 29 28 28 27 27 24 23 20 18 17 20 21 21 21 23 23 23 24 24 26 25 25 25 24 25 25 25 25 23 25 24 27 27 27 28 28 29 32 31 31 28 29 30 -193 30 -193 -209 30 30 29 29 28 27 27 28 28 29 29 33 32 33 31 31 29 29 27 27 26 27 -193 -193 -193 -193 -193 -209 -209 26 30 30 31 33 35 35 34 33 33 31 32 30 28 25 26 25 25 25 25 26 26 27 30 31 31 34 31 32 32 29 28 26 25 25 25 25 25 25 26 26 26 28 29 30 32 34 35 36 36 38 36 37 37 36 37 35 36 35 33 32 31 29 29 30 32 30 31 32 34 36 37 37 37 37 40 39 38 36 26 30 30 26 25 25 25 29 29 36 36 32 -193 -209 -209 -209 -193 29 30 36 35 34 34 36 37 36 38 40 38 39 39 40 40 39 41 41 -193 41 -209 41 41 41 44 43 44 45 47 46 49 49 49 47 49 48 50 48 52 52 51 53 53 54 53 52 0 0 0 0 0
    0 0 0 0 0 0 0 0 0 0 0 0 0 0 0 0 0 0 0 0 0 0 0 0 0 0 0 0 0 0 0 0 0 0 0 0 0 0 0 0 0 0 0 0 0 0 0 0 0 0 0 0 0 0 0 0 0 0 0 0 0 0 0 0 0 0 0 0 0 49 46 44 44 44 43 40 40 40 34 35 35 35 33 29 31 33 27 30 29 28 23 25 27 27 26 27 28 28 29 29 30 27 25 21 19 19 20 21 20 21 23 23 23 23 24 26 25 26 25 24 25 26 26 26 23 25 25 27 28 27 28 29 30 32 32 33 29 29 30 -193 29 -193 -193 29 30 29 29 28 27 27 28 28 29 29 31 31 31 31 31 29 29 27 27 27 27 -193 -209 -209 -193 -209 -209 -209 29 34 33 34 34 35 35 33 33 32 31 32 31 28 25 26 25 25 24 24 25 26 27 29 30 31 32 30 30 30 27 25 24 24 23 24 24 25 25 26 26 26 29 29 30 32 34 36 39 39 41 39 40 40 38 38 36 37 35 33 31 30 28 29 29 31 29 30 32 34 35 37 37 38 38 40 40 39 37 27 31 29 26 25 25 25 27 -193 30 31 28 38 -209 -193 -209 -193 29 29 35 34 33 33 36 36 36 38 40 39 39 39 40 40 40 41 41 -193 42 -209 41 41 41 44 43 44 45 46 46 49 49 49 48 49 48 49 48 52 51 51 52 52 54 53 51 0 0 0 0 0
    0 0 0 0 0 0 0 0 0 0 0 0 0 0 0 0 0 0 0 0 0 0 0 0 0 0 0 0 0 0 0 0 0 0 0 0 0 0 0 0 0 0 0 0 0 0 0 0 0 0 0 0 0 0 0 0 0 0 0 0 0 0 0 0 0 0 0 0 0 50 45 44 44 44 43 40 40 40 34 35 35 36 33 29 31 32 28 29 28 28 21 22 25 26 25 26 27 27 27 29 30 27 24 22 20 22 22 23 22 22 24 24 23 23 24 25 25 25 25 24 24 25 26 26 23 25 24 26 27 28 29 30 31 33 34 35 31 31 31 30 28 -193 -193 28 29 28 29 28 28 28 28 28 29 28 31 31 31 31 32 30 30 28 27 27 26 -193 -209 -193 25 25 -193 -209 -209 34 33 34 35 35 34 32 32 32 30 31 31 27 24 26 24 24 24 23 -209 -193 27 30 31 32 32 31 30 30 27 26 24 23 22 23 24 24 24 26 26 27 29 29 30 32 34 35 38 38 40 39 40 40 38 38 36 36 34 31 30 29 27 29 28 30 29 30 32 33 35 36 36 38 37 40 40 39 37 -193 32 30 26 26 26 26 29 -193 -193 33 30 39 -209 -209 -209 37 31 30 35 34 33 34 35 35 35 38 40 39 39 39 40 40 40 41 42 -209 42 41 42 41 41 44 43 44 45 46 46 49 49 49 48 49 48 49 48 52 50 51 51 52 53 52 50 0 0 0 0 0
    0 0 0 0 0 0 0 0 0 0 0 0 0 0 0 0 0 0 0 0 0 0 0 0 0 0 0 0 0 0 0 0 0 0 0 0 0 0 0 0 0 0 0 0 0 0 0 0 0 0 0 0 0 0 0 0 0 0 0 0 0 0 0 0 0 0 0 0 0 50 44 44 44 44 43 40 40 40 35 36 36 36 32 28 29 30 27 26 27 26 23 24 24 25 25 26 27 26 27 29 30 27 24 21 19 21 23 23 23 23 24 24 24 24 24 25 25 26 25 24 25 25 26 26 23 24 24 26 27 28 29 30 30 32 34 35 31 30 30 29 27 28 28 28 29 28 29 28 28 29 29 29 30 28 31 30 30 31 31 30 30 28 27 27 26 25 24 23 25 25 27 29 -193 32 32 33 33 31 29 29 29 30 28 28 29 26 24 26 24 23 23 23 -193 26 28 32 31 32 32 32 31 31 28 28 24 24 23 -193 -193 25 25 27 27 27 29 29 30 32 33 34 36 36 39 38 38 38 37 37 34 32 32 29 28 27 25 28 29 30 30 30 33 34 35 36 35 37 37 40 39 38 36 -193 32 31 27 27 27 29 34 -209 31 35 31 38 -193 -209 -193 36 31 31 35 34 34 34 35 35 35 38 40 38 39 39 40 40 40 41 42 -209 42 41 42 42 41 44 43 44 46 46 46 49 49 49 48 49 49 48 49 51 50 50 51 51 53 52 52 0 0 0 0 0
    0 0 0 0 0 0 0 0 0 0 0 0 0 0 0 0 0 0 0 0 0 0 0 0 0 0 0 0 0 0 0 0 0 0 0 0 0 0 0 0 0 0 0 0 0 0 0 0 0 0 0 0 0 0 0 0 0 0 0 0 0 0 0 0 0 0 0 0 0 50 44 44 44 44 44 42 41 41 36 37 37 37 32 28 29 29 27 26 27 25 22 23 23 25 24 25 26 25 27 30 34 32 25 22 20 22 23 22 21 22 23 23 23 23 24 25 25 26 26 25 25 26 28 27 24 25 24 27 27 28 28 28 28 31 32 31 30 30 30 29 28 29 29 28 30 28 29 29 28 29 29 29 30 29 31 30 30 31 31 30 30 28 27 27 26 26 26 24 26 26 28 29 28 33 34 34 34 30 28 27 26 28 25 24 24 23 23 25 24 24 24 24 25 27 29 34 33 34 34 33 31 31 29 29 24 24 23 25 25 26 26 28 27 28 29 30 30 32 32 33 34 35 37 37 37 36 35 36 33 31 31 30 29 28 26 28 28 29 29 30 32 34 34 35 34 37 37 39 37 36 34 -193 -209 27 24 24 26 27 34 26 31 36 34 38 42 -209 40 35 31 31 35 34 34 33 35 34 35 38 39 38 39 38 39 39 40 41 42 -209 43 41 42 42 42 44 43 44 46 46 47 49 49 50 48 49 49 48 49 51 50 50 50 51 53 51 51 0 0 0 0 0
    0 0 0 0 0 0 0 0 0 0 0 0 0 0 0 0 0 0 0 0 0 0 0 0 0 0 0 0 0 0 0 0 0 0 0 0 0 0 0 0 0 0 0 0 0 0 0 0 0 0 0 0 0 0 0 0 0 0 0 0 0 0 0 0 0 0 0 0 0 50 45 45 45 45 46 43 42 42 37 38 38 37 32 28 29 29 28 27 27 25 23 24 24 25 24 25 26 25 27 30 35 36 24 -193 -209 21 -193 22 21 22 24 23 23 23 24 25 25 26 26 25 25 27 29 27 25 25 25 27 27 28 28 27 27 29 30 29 30 30 30 30 29 30 31 28 30 29 29 29 28 29 29 28 29 28 29 29 30 30 30 29 29 27 27 26 26 26 26 26 27 27 28 29 29 34 34 34 33 30 28 28 26 27 24 23 24 22 23 25 25 25 25 26 27 29 31 35 34 35 35 33 32 32 29 30 26 26 25 29 27 28 28 30 28 29 30 30 29 32 31 32 33 34 35 36 36 34 33 34 32 29 30 29 29 28 29 30 29 30 31 32 34 34 35 34 35 39 38 39 36 31 31 -209 -209 -193 21 21 23 -209 -209 -209 -209 -209 -209 40 44 45 41 35 31 31 36 34 33 33 35 34 35 38 38 37 38 38 39 39 39 40 42 41 44 42 42 42 42 44 43 44 46 45 47 49 49 50 48 49 49 48 50 51 49 50 48 50 51 47 47 0 0 0 0 0
    0 0 0 0 0 0 0 0 0 0 0 0 0 0 0 0 0 0 0 0 0 0 0 0 0 0 0 0 0 0 0 0 0 0 0 0 0 0 0 0 0 0 0 0 0 0 0 0 0 0 0 0 0 0 0 0 0 0 0 0 0 0 0 0 0 0 0 0 0 49 44 44 44 44 44 41 41 41 37 38 39 37 32 28 30 28 28 27 28 25 23 25 23 25 24 25 26 25 27 29 32 34 23 20 18 21 24 23 23 23 25 24 24 24 24 25 25 26 25 24 25 26 27 27 25 26 24 27 26 27 27 26 26 27 29 28 29 29 29 28 28 29 31 28 29 28 28 28 28 28 29 28 29 27 28 29 28 28 29 27 27 26 27 26 26 27 27 27 27 27 28 28 28 32 32 31 30 27 26 26 25 26 23 23 24 23 24 27 26 27 28 29 28 30 31 36 35 35 35 33 31 31 28 30 27 27 26 32 29 30 30 32 30 31 31 31 29 32 32 32 32 33 33 35 35 33 33 34 32 30 30 30 29 28 30 29 28 29 30 31 32 33 34 31 34 38 38 38 35 26 32 -209 -209 25 20 20 -209 -209 -209 -209 -209 -209 -209 41 45 45 41 36 32 32 36 34 33 33 34 34 34 38 37 36 37 37 38 38 39 40 41 41 44 42 43 43 42 44 44 44 47 45 47 49 49 50 48 48 49 47 49 50 49 49 47 49 50 46 47 0 0 0 0 0
    0 0 0 0 0 0 0 0 0 0 0 0 0 0 0 0 0 0 0 0 0 0 0 0 0 0 0 0 0 0 0 0 0 0 0 0 0 0 0 0 0 0 0 0 0 0 0 0 0 0 0 0 0 0 0 0 0 0 0 0 0 0 0 0 0 0 0 0 0 47 44 44 44 44 44 42 41 41 38 38 39 37 31 29 30 28 28 27 27 25 23 24 22 22 22 23 24 23 24 27 28 28 23 22 23 23 24 25 24 24 26 26 25 24 24 25 25 26 24 23 24 25 26 27 26 26 24 26 26 27 27 26 26 27 28 27 27 27 26 26 26 26 28 25 27 26 27 27 27 28 28 27 29 28 29 29 28 28 28 27 26 25 27 27 26 27 27 27 27 27 27 27 26 29 29 28 28 26 24 25 24 25 23 23 24 23 24 27 27 28 29 31 30 32 33 36 35 35 35 33 30 30 28 30 27 28 27 35 30 31 31 33 31 32 31 32 30 33 33 32 32 33 33 35 35 32 32 34 32 30 30 30 28 28 31 30 29 29 31 31 32 33 33 29 33 38 37 36 37 -193 34 -193 -209 -209 -209 -209 -209 -209 -209 -209 -209 -209 -209 41 44 -193 -193 36 33 33 37 34 34 34 35 33 34 38 36 35 37 36 37 37 38 39 -209 41 44 42 43 43 43 44 44 43 47 45 47 49 49 50 48 48 49 47 49 50 48 48 47 48 49 45 46 0 0 0 0 0
    0 0 0 0 0 0 0 0 0 0 0 0 0 0 0 0 0 0 0 0 0 0 0 0 0 0 0 0 0 0 0 0 0 0 0 0 0 0 0 0 0 0 0 0 0 0 0 0 0 0 0 0 0 0 0 0 0 0 0 0 0 0 0 0 0 0 0 0 0 44 43 43 43 43 43 42 41 41 40 39 40 36 31 29 30 28 28 27 27 24 22 23 21 20 21 21 21 22 22 24 25 25 24 24 25 25 26 27 25 26 27 26 25 25 25 25 24 25 24 23 23 25 25 26 26 25 24 26 26 26 26 25 25 25 25 25 25 25 24 23 23 23 25 23 24 24 25 26 26 27 27 27 29 28 29 29 28 28 28 27 26 25 26 25 26 26 27 26 27 27 27 27 27 29 30 29 28 26 24 25 24 25 23 23 24 23 24 26 27 28 29 30 29 31 33 34 33 33 33 31 29 29 27 29 27 27 27 35 32 31 32 34 31 32 31 31 30 31 31 31 30 31 30 33 35 30 32 34 32 30 29 30 29 29 33 30 29 30 31 32 32 31 33 28 32 37 37 32 34 -193 34 -193 -209 -209 -209 -209 -209 -209 -209 -209 -209 -209 -209 -209 45 -209 -209 36 34 34 37 34 34 34 35 33 34 38 35 34 36 36 36 36 38 38 -209 42 45 42 43 43 43 44 44 43 47 45 47 49 49 50 48 48 49 47 49 50 48 48 47 49 50 45 -193 0 0 0 0 0
    0 0 0 0 0 0 0 0 0 0 0 0 0 0 0 0 0 0 0 0 0 0 0 0 0 0 0 0 0 0 0 0 0 0 0 0 0 0 0 0 0 0 0 0 0 0 0 0 0 0 0 0 0 0 0 0 0 0 0 0 0 0 0 0 0 0 0 0 0 43 43 43 43 42 43 42 42 41 41 40 40 36 31 30 30 28 28 27 27 24 22 22 21 19 20 19 19 20 19 23 23 24 24 24 25 26 26 26 25 26 26 26 25 26 25 25 25 26 24 23 23 25 25 25 25 24 23 25 25 25 25 25 24 25 25 24 24 24 23 22 22 23 24 22 23 23 24 25 25 26 27 26 28 28 29 29 28 28 28 26 25 24 26 24 25 26 27 27 28 28 29 29 29 31 32 31 31 27 24 24 23 24 22 22 24 22 25 29 28 31 30 32 28 31 33 33 31 31 32 30 29 29 27 29 28 29 29 35 32 31 32 32 30 31 30 29 28 28 29 28 28 29 28 31 32 29 31 34 32 30 29 31 31 30 34 31 30 31 32 32 32 31 32 27 31 35 34 28 -193 20 30 -193 -209 -209 -209 -209 -209 -209 -209 -209 -209 -209 0 -193 -209 -209 -209 35 34 34 37 35 34 34 35 33 33 37 34 34 36 35 35 36 37 38 -193 42 45 42 43 43 43 44 44 43 47 44 46 49 49 50 48 48 49 47 49 50 48 48 46 50 50 45 -193 0 0 0 0 0
    0 0 0 0 0 0 0 0 0 0 0 0 0 0 0 0 0 0 0 0 0 0 0 0 0 0 0 0 0 0 0 0 0 0 0 0 0 0 0 0 0 0 0 0 0 0 0 0 0 0 0 0 0 0 0 0 0 0 0 0 0 0 0 0 0 0 0 0 0 43 43 43 43 43 43 42 42 41 41 40 40 35 29 30 30 29 29 28 28 25 24 24 21 18 19 19 19 20 17 21 21 21 23 23 25 26 27 27 26 27 27 27 26 27 26 26 25 26 24 23 23 24 23 24 23 23 21 24 24 24 25 25 25 26 26 25 24 24 23 22 22 22 24 23 23 23 23 24 25 26 26 25 28 28 29 30 29 28 29 28 27 26 27 26 27 27 28 27 28 28 29 29 29 29 30 29 29 25 24 23 21 22 18 19 21 21 24 26 26 30 30 30 27 30 32 32 30 30 31 29 29 29 27 29 28 29 29 33 31 31 32 33 30 31 30 29 28 29 29 28 28 29 28 30 30 29 31 33 32 31 31 32 34 31 35 31 31 31 33 32 32 31 32 27 33 35 32 26 23 19 27 31 -209 -209 29 -209 -209 -193 51 -209 -209 -209 -209 -193 -209 -209 -209 35 35 35 37 35 35 35 35 33 34 37 34 34 35 35 35 35 37 37 37 41 44 42 43 43 43 44 44 43 48 44 46 49 49 50 48 48 49 47 49 49 47 48 46 50 49 44 -209 0 0 0 0 0
    0 0 0 0 0 0 0 0 0 0 0 0 0 0 0 0 0 0 0 0 0 0 0 0 0 0 0 0 0 0 0 0 0 0 0 0 0 0 0 0 0 0 0 0 0 0 0 0 0 0 0 0 0 0 0 0 0 0 0 0 0 0 0 0 0 0 0 0 0 43 44 43 43 43 42 42 41 41 41 40 40 31 28 29 30 29 28 28 28 26 26 25 23 20 20 20 20 20 17 21 21 20 23 23 24 25 26 27 26 27 27 27 26 28 27 26 26 27 24 23 24 25 22 23 22 22 21 24 24 24 25 25 25 26 25 25 25 24 -193 22 22 22 25 24 -193 24 24 25 26 26 27 25 28 28 30 31 31 29 30 29 29 28 29 28 29 28 29 27 29 27 29 29 28 29 29 28 28 25 25 23 21 22 15 18 20 20 23 26 26 31 32 28 24 27 30 29 28 27 29 28 29 29 28 30 31 32 31 33 31 31 32 33 31 31 29 30 29 29 30 29 28 29 28 30 29 29 31 32 32 31 32 32 35 31 35 32 31 32 33 32 32 30 33 27 34 35 32 27 24 21 26 28 23 -193 24 -209 -209 -209 -209 -209 -209 -209 -209 -193 -209 -209 -209 34 34 35 37 35 35 35 35 33 34 38 34 34 35 35 35 35 37 37 35 41 44 42 43 43 43 43 44 43 48 44 46 50 49 50 48 48 49 47 49 49 47 47 45 49 48 43 -209 0 0 0 0 0
    0 0 0 0 0 0 0 0 0 0 0 0 0 0 0 0 0 0 0 0 0 0 0 0 0 0 0 0 0 0 0 0 0 0 0 0 0 0 0 0 0 0 0 0 0 0 0 0 0 0 0 0 0 0 0 0 0 0 0 0 0 0 0 0 0 0 0 0 0 43 44 42 43 43 41 41 40 39 40 39 40 32 31 31 33 33 32 31 30 28 28 26 25 21 21 21 21 21 19 22 22 22 24 24 24 25 27 28 27 27 27 27 26 28 27 26 26 27 24 23 24 25 23 24 23 23 22 24 25 25 25 25 25 26 25 25 25 24 -193 -193 22 22 26 -193 -193 -193 -193 26 27 27 28 25 29 29 31 33 32 30 30 29 29 28 29 29 30 29 31 27 30 28 30 29 29 30 29 28 28 26 25 22 21 21 14 18 19 21 24 26 25 30 29 28 24 26 30 28 28 28 30 29 29 30 30 31 32 32 31 32 31 31 31 32 30 30 29 30 29 29 30 30 28 30 29 30 29 29 30 32 31 31 31 31 35 32 35 32 32 32 33 32 32 30 33 27 35 35 32 27 26 23 26 26 23 23 23 -209 20 -209 -209 -209 -209 -209 -193 -193 -209 79 84 32 33 36 36 35 35 35 35 33 35 38 33 34 35 35 35 35 37 37 35 41 43 41 43 43 43 43 44 44 49 44 47 50 50 50 48 48 49 47 49 49 47 47 45 49 48 43 -193 0 0 0 0 0
    0 0 0 0 0 0 0 0 0 0 0 0 0 0 0 0 0 0 0 0 0 0 0 0 0 0 0 0 0 0 0 0 0 0 0 0 0 0 0 0 0 0 0 0 0 0 0 0 0 0 0 0 0 0 0 0 0 0 0 0 0 0 0 0 0 0 0 0 0 44 44 42 43 43 41 41 40 38 39 38 38 32 32 31 33 34 34 32 31 30 30 27 26 21 22 22 22 22 20 22 22 22 25 25 25 26 27 29 28 28 28 27 27 29 28 26 25 26 24 23 24 25 22 24 23 24 23 25 26 25 26 26 26 26 26 26 25 -193 -177 -193 22 22 -193 -177 -177 -193 -193 25 26 27 27 26 29 30 32 33 32 29 30 29 28 29 29 30 29 30 33 28 32 28 31 29 29 30 29 28 28 26 26 22 21 21 16 20 21 22 25 26 26 28 26 26 24 25 29 25 26 27 28 29 29 30 30 31 32 32 32 32 31 31 31 32 30 30 29 29 29 29 30 30 28 30 30 31 29 29 29 31 30 31 31 31 36 32 35 32 32 32 33 32 32 31 33 28 35 35 33 28 28 26 26 26 23 24 23 -209 19 -209 -209 -209 -209 -209 -193 -193 -209 74 78 32 35 37 37 36 35 35 35 34 36 38 34 34 36 36 36 36 37 37 35 41 42 41 42 43 43 43 44 45 49 45 47 50 49 50 48 48 49 47 49 49 46 47 45 49 48 43 -209 0 0 0 0 0
    0 0 0 0 0 0 0 0 0 0 0 0 0 0 0 0 0 0 0 0 0 0 0 0 0 0 0 0 0 0 0 0 0 0 0 0 0 0 0 0 0 0 0 0 0 0 0 0 0 0 0 0 0 0 0 0 0 0 0 0 0 0 0 0 0 0 0 0 0 43 44 42 43 42 41 -193 39 38 39 38 38 34 33 32 34 36 35 33 32 31 30 28 27 22 22 22 22 23 21 23 23 23 25 25 25 26 28 29 28 28 28 27 27 30 28 26 25 26 23 23 24 25 22 24 23 24 23 25 26 26 26 26 26 26 26 26 25 -193 -193 22 22 21 -193 -193 -177 -193 -193 -193 -193 26 26 26 30 30 33 35 32 29 30 29 28 29 28 29 28 30 34 27 35 27 31 29 28 29 29 28 27 26 26 21 21 21 20 21 22 24 26 27 27 27 25 24 24 24 25 23 24 25 26 28 28 29 29 30 31 31 32 31 30 30 30 31 29 29 29 28 29 28 30 30 28 30 31 32 30 31 30 31 31 32 31 31 36 33 34 32 32 33 33 32 32 30 32 28 35 33 32 27 28 27 26 25 22 22 21 -193 18 -193 -193 -209 -209 -209 -193 -209 -209 75 78 33 37 37 37 37 36 36 36 35 36 38 34 35 36 36 36 36 37 37 35 40 41 40 41 42 42 42 43 45 49 45 47 51 50 50 48 48 48 47 49 48 46 47 45 49 48 -193 -193 0 0 0 0 0
    0 0 0 0 0 0 0 0 0 0 0 0 0 0 0 0 0 0 0 0 0 0 0 0 0 0 0 0 0 0 0 0 0 0 0 0 0 0 0 0 0 0 0 0 0 0 0 0 0 0 0 0 0 0 0 0 0 0 0 0 0 0 0 0 0 0 0 0 0 43 44 42 43 42 42 41 40 39 40 39 39 35 35 33 35 36 35 33 32 32 30 28 27 22 22 22 22 23 22 23 23 24 26 26 25 26 28 29 28 28 28 26 26 30 28 26 -193 -193 24 23 24 25 22 24 23 23 23 25 26 26 26 26 26 26 26 26 25 24 -193 22 21 21 22 21 -193 -193 -193 -193 -193 26 26 26 31 31 35 37 35 31 31 29 28 29 28 28 28 29 29 25 38 26 31 28 28 29 28 28 27 26 26 22 22 22 22 22 23 24 26 26 26 25 24 21 22 24 25 24 24 25 26 28 27 28 27 29 29 30 32 30 30 30 29 30 29 29 28 27 28 28 29 29 28 30 31 32 30 32 31 32 31 33 33 32 37 34 34 32 33 33 33 32 32 30 31 28 34 31 30 25 25 25 24 23 20 19 19 18 17 -193 -193 -209 -209 -209 -209 -209 71 74 77 35 37 37 37 36 35 36 36 35 36 38 34 35 36 37 37 37 37 37 35 40 40 39 40 41 41 42 43 47 49 46 48 51 50 50 48 48 48 47 48 48 46 47 45 49 49 -193 -209 0 0 0 0 0
    0 0 0 0 0 0 0 0 0 0 0 0 0 0 0 0 0 0 0 0 0 0 0 0 0 0 0 0 0 0 0 0 0 0 0 0 0 0 0 0 0 0 0 0 0 0 0 0 0 0 0 0 0 0 0 0 0 0 0 0 0 0 0 0 0 0 0 0 0 42 43 42 42 41 41 40 39 38 40 38 38 35 35 33 35 36 35 34 34 33 31 30 29 23 22 22 22 24 22 23 24 24 26 26 26 26 28 28 28 27 27 25 26 29 28 26 26 -193 -193 -193 25 26 23 24 24 24 24 25 26 26 26 26 26 26 26 26 25 24 -193 22 21 21 22 21 -193 -193 -193 -193 -193 26 26 27 31 29 36 38 36 30 31 30 28 30 28 28 28 29 29 24 40 26 31 28 28 29 28 28 28 26 27 23 23 23 24 24 25 25 26 27 27 25 24 20 22 24 24 24 24 24 25 28 27 28 27 28 29 29 32 30 29 30 29 30 29 29 28 26 28 27 28 28 28 29 30 31 30 32 32 32 32 34 34 32 38 34 34 32 33 33 33 32 33 30 31 29 33 30 30 25 24 24 23 21 19 18 19 17 17 -193 -193 -193 -209 -209 -209 -209 -209 -193 77 35 35 37 37 36 34 35 35 35 35 38 35 35 37 37 37 37 37 38 36 40 40 38 40 41 41 42 44 49 50 47 48 52 50 50 48 48 48 48 49 48 46 47 45 50 49 -193 -193 0 0 0 0 0
    0 0 0 0 0 0 0 0 0 0 0 0 0 0 0 0 0 0 0 0 0 0 0 0 0 0 0 0 0 0 0 0 0 0 0 0 0 0 0 0 0 0 0 0 0 0 0 0 0 0 0 0 0 0 0 0 0 0 0 0 0 0 0 0 0 0 0 0 0 43 43 41 42 41 40 39 38 37 38 38 37 35 34 33 34 36 35 34 34 34 31 31 31 24 23 23 23 25 23 24 24 25 26 26 26 27 28 28 28 27 27 25 25 30 28 26 27 -193 26 25 27 27 23 25 24 24 24 25 26 26 26 27 26 26 26 26 25 24 -193 -193 22 22 22 22 23 23 -193 -193 25 25 26 27 32 28 38 41 41 33 34 31 29 30 28 28 28 29 28 24 40 27 32 29 29 29 28 28 28 26 27 23 24 24 25 25 26 26 27 27 27 25 24 20 23 25 25 25 24 25 26 28 27 28 26 27 28 28 31 29 29 29 29 29 28 29 28 26 28 27 29 29 28 29 31 30 28 31 30 31 31 32 33 31 38 35 34 32 33 32 32 32 32 29 29 29 32 29 30 27 25 25 22 18 17 15 16 14 14 -193 -193 -193 -209 -209 -209 -209 -209 -209 78 35 35 36 37 35 34 35 35 35 35 38 35 35 37 37 37 37 37 38 36 39 39 37 38 40 38 41 43 50 48 46 47 51 49 50 48 48 48 48 48 48 46 47 45 50 49 -193 -193 0 0 0 0 0
    0 0 0 0 0 0 0 0 0 0 0 0 0 0 0 0 0 0 0 0 0 0 0 0 0 0 0 0 0 0 0 0 0 0 0 0 0 0 0 0 0 0 0 0 0 0 0 0 0 0 0 0 0 0 0 0 0 0 0 0 0 0 0 0 0 0 0 0 0 43 42 41 41 40 39 38 37 36 38 37 36 35 34 32 34 36 35 34 35 36 33 34 34 27 25 25 24 26 24 25 25 25 27 26 26 27 29 29 30 28 27 25 26 30 28 26 27 -193 26 26 27 28 24 27 26 25 25 26 27 26 26 27 26 26 26 26 25 24 -193 22 22 22 22 22 23 23 -193 25 26 26 25 27 33 28 41 44 45 39 38 35 32 31 29 28 27 29 28 25 40 28 34 30 29 30 28 28 28 26 27 23 24 24 26 26 26 27 27 27 27 25 25 20 23 26 25 26 25 25 26 28 27 27 26 27 27 28 31 29 28 29 29 29 29 29 29 26 28 28 29 30 28 29 30 30 28 30 29 30 30 31 32 30 38 35 33 32 33 32 32 32 32 29 29 29 30 29 29 26 23 23 15 12 13 12 13 12 13 14 14 14 14 -209 -209 -209 -209 -209 -209 37 35 36 37 35 34 35 35 35 34 37 35 35 37 38 37 38 37 38 36 39 38 36 37 38 37 40 42 48 47 45 47 50 49 50 48 48 47 48 48 48 46 47 45 50 49 -193 -209 0 0 0 0 0
    0 0 0 0 0 0 0 0 0 0 0 0 0 0 0 0 0 0 0 0 0 0 0 0 0 0 0 0 0 0 0 0 0 0 0 0 0 0 0 0 0 0 0 0 0 0 0 0 0 0 0 0 0 0 0 0 0 0 0 0 0 0 0 0 0 0 0 0 0 43 41 40 40 39 38 37 36 35 37 36 35 35 34 32 34 36 35 33 35 36 33 34 35 29 26 27 26 28 25 25 26 26 27 27 26 28 28 29 30 28 27 25 27 30 27 26 26 149 -193 26 28 28 25 28 26 26 26 26 27 27 27 27 25 25 26 25 25 24 -193 22 22 23 22 22 23 23 -193 25 26 26 25 27 33 29 41 46 49 -193 39 34 31 30 29 28 26 28 28 26 -209 30 35 31 31 32 29 28 28 26 26 23 24 24 26 26 27 27 27 27 27 26 26 21 24 27 26 27 26 26 27 28 27 27 26 27 27 28 32 29 29 30 29 29 29 29 29 26 28 27 28 29 27 27 28 29 26 28 27 29 30 31 32 31 38 35 33 33 33 32 32 32 32 29 28 29 29 28 28 25 15 15 10 10 11 10 12 11 13 14 15 14 15 -209 -209 -209 -209 -193 -209 -193 36 37 37 35 34 35 35 36 34 37 35 35 37 38 37 38 37 38 36 39 38 36 37 38 37 41 42 49 47 46 47 50 49 50 48 48 47 48 48 48 46 47 46 50 49 48 55 0 0 0 0 0
    0 0 0 0 0 0 0 0 0 0 0 0 0 0 0 0 0 0 0 0 0 0 0 0 0 0 0 0 0 0 0 0 0 0 0 0 0 0 0 0 0 0 0 0 0 0 0 0 0 0 0 0 0 0 0 0 0 0 0 0 0 0 0 0 0 0 0 0 0 42 40 39 39 38 37 36 35 35 37 36 34 35 34 33 34 36 35 32 35 36 31 33 34 29 26 27 26 29 27 26 27 27 28 27 26 29 28 29 30 28 27 26 27 29 27 26 26 148 -193 26 28 27 25 28 27 26 26 27 27 27 27 27 25 25 25 25 25 24 23 22 22 23 21 21 22 23 -193 -193 25 25 25 28 34 32 41 44 47 -193 39 30 28 27 26 26 26 28 29 29 -193 34 37 33 33 34 31 29 29 27 25 24 24 24 27 26 27 27 28 27 27 26 26 21 24 28 26 27 27 27 27 29 27 28 26 27 26 26 32 29 28 30 29 29 29 30 30 25 27 27 27 27 26 25 25 26 24 25 25 29 29 30 31 33 38 36 33 33 33 32 32 32 32 29 27 29 28 28 27 24 11 11 0 10 11 9 11 10 13 -193 15 14 -209 -209 -209 -209 -193 54 -209 -209 37 37 38 35 34 35 35 36 34 37 36 35 38 38 37 38 37 39 37 39 38 37 37 38 37 41 42 50 47 46 48 50 49 50 48 48 47 48 49 48 47 48 47 51 51 50 56 0 0 0 0 0
    0 0 0 0 0 0 0 0 0 0 0 0 0 0 0 0 0 0 0 0 0 0 0 0 0 0 0 0 0 0 0 0 0 0 0 0 0 0 0 0 0 0 0 0 0 0 0 0 0 0 0 0 0 0 0 0 0 0 0 0 0 0 0 0 0 0 0 0 0 42 40 39 39 38 37 36 35 35 37 34 32 34 32 31 32 33 32 30 33 35 30 32 32 28 26 27 26 30 27 27 27 27 29 28 27 30 28 28 30 28 27 -193 27 29 27 26 26 -193 26 26 28 27 25 27 27 26 26 27 27 27 27 27 25 25 25 25 24 24 22 21 21 22 20 20 21 22 21 -193 24 24 22 27 31 31 41 43 45 -193 -193 32 28 28 26 26 26 28 28 29 -209 35 37 34 34 35 32 30 29 27 25 24 24 24 28 26 28 28 28 28 27 26 26 21 24 29 26 28 27 27 27 28 27 27 25 26 24 25 31 28 28 29 29 28 29 30 29 25 27 26 26 25 25 24 24 25 24 27 -193 -209 29 32 30 35 38 36 32 33 32 32 32 32 32 29 27 30 27 28 27 -193 10 9 -193 -193 12 10 12 10 13 -193 -193 16 -209 -209 -209 55 56 54 -193 -209 37 36 38 35 34 35 35 36 34 37 36 36 38 38 38 38 37 39 37 39 38 37 38 39 37 41 42 51 47 46 48 50 49 49 48 48 47 48 49 48 47 49 48 52 52 52 57 0 0 0 0 0
    0 0 0 0 0 0 0 0 0 0 0 0 0 0 0 0 0 0 0 0 0 0 0 0 0 0 0 0 0 0 0 0 0 0 0 0 0 0 0 0 0 0 0 0 0 0 0 0 0 0 0 0 0 0 0 0 0 0 0 0 0 0 0 0 0 0 0 0 0 43 40 40 39 38 36 36 35 36 37 -193 -193 -193 30 29 -193 31 30 29 32 35 29 31 32 29 26 27 26 31 27 27 27 27 29 27 26 29 27 27 29 28 26 -193 27 28 27 26 27 -193 26 27 28 27 25 27 27 26 26 27 27 27 27 27 25 25 25 25 24 24 22 21 22 22 21 21 21 21 21 23 23 23 22 26 27 29 41 43 44 40 37 33 29 27 27 26 26 27 28 29 -209 35 36 34 34 35 32 30 30 27 23 24 24 24 28 27 28 28 28 28 27 26 26 22 24 28 27 28 27 27 28 29 28 28 25 26 24 25 29 27 27 28 28 27 28 29 28 25 27 26 26 24 25 24 24 25 23 26 24 28 -193 28 27 35 37 36 32 33 32 32 32 32 31 29 27 30 27 28 26 -193 9 0 -209 -193 -193 9 12 9 13 -193 -193 -209 -209 52 54 54 55 54 -193 -209 36 36 38 34 34 35 35 36 34 37 36 -193 -193 -193 38 38 37 39 38 39 38 38 39 39 38 41 42 52 47 46 49 50 49 49 48 48 47 49 49 49 48 49 49 53 53 54 57 0 0 0 0 0
    0 0 0 0 0 0 0 0 0 0 0 0 0 0 0 0 0 0 0 0 0 0 0 0 0 0 0 0 0 0 0 0 0 0 0 0 0 0 0 0 0 0 0 0 0 0 0 0 0 0 0 0 0 0 0 0 0 0 0 0 0 0 0 0 0 0 0 0 0 43 39 39 39 38 36 35 35 35 36 31 29 31 28 28 28 29 29 28 31 35 29 31 33 31 26 27 26 32 27 27 26 26 27 27 26 28 26 26 28 27 -193 -193 27 28 27 27 27 -193 26 27 29 26 25 28 27 27 27 26 27 27 27 27 24 23 24 24 23 23 21 21 22 22 21 21 21 21 21 23 23 22 23 26 25 27 36 38 38 28 33 31 29 28 27 26 26 27 28 29 35 35 35 34 34 35 32 30 29 27 23 24 24 24 28 27 29 28 28 28 27 26 26 22 23 27 26 27 27 27 27 28 28 28 26 26 24 25 27 26 26 27 27 26 27 27 27 25 27 26 25 24 25 23 23 24 23 24 24 -193 -193 24 25 35 37 36 32 33 32 32 32 32 31 29 27 30 26 29 27 26 10 0 -193 -193 -193 0 10 0 -209 -209 -209 -209 -209 51 53 53 53 -193 -193 179 36 35 38 34 34 34 34 36 35 37 37 -193 -193 -193 38 39 38 40 38 39 38 38 39 39 39 41 42 53 47 46 49 50 49 49 48 49 47 49 50 49 49 50 51 54 53 54 57 0 0 0 0 0
    0 0 0 0 0 0 0 0 0 0 0 0 0 0 0 0 0 0 0 0 0 0 0 0 0 0 0 0 0 0 0 0 0 0 0 0 0 0 0 0 0 0 0 0 0 0 0 0 0 0 0 0 0 0 0 0 0 0 0 0 0 0 0 0 0 0 0 0 0 43 39 40 39 38 36 34 34 34 35 29 28 29 27 27 27 28 28 27 31 35 29 32 35 34 27 29 27 33 28 27 25 26 26 26 25 27 24 25 27 26 -193 -193 -193 27 26 28 28 26 27 28 30 27 27 29 28 28 27 27 28 27 27 27 23 21 23 23 23 23 21 21 22 22 21 22 21 21 21 23 23 22 23 25 24 26 30 31 30 26 32 31 31 29 28 27 26 27 29 30 33 35 35 35 35 35 32 30 30 28 23 23 24 24 27 27 29 28 29 29 27 26 25 22 23 26 25 26 26 26 27 28 27 28 26 26 25 25 26 25 26 27 27 25 26 26 26 26 27 26 22 23 23 22 22 22 21 23 22 24 -193 24 25 35 36 35 32 34 32 32 32 32 31 29 27 29 26 30 28 27 20 -193 -209 -193 -209 -193 -209 0 -209 -209 -209 -209 -209 -193 -209 -209 -209 -209 -193 -209 36 36 38 34 34 35 35 36 35 37 37 -193 -193 -193 39 39 38 40 39 39 38 38 39 39 38 41 42 53 46 46 49 49 49 49 48 49 48 50 50 49 50 51 52 55 54 55 57 0 0 0 0 0
    0 0 0 0 0 0 0 0 0 0 0 0 0 0 0 0 0 0 0 0 0 0 0 0 0 0 0 0 0 0 0 0 0 0 0 0 0 0 0 0 0 0 0 0 0 0 0 0 0 0 0 0 0 0 0 0 0 0 0 0 0 0 0 0 0 0 0 0 0 43 40 40 39 38 36 34 34 34 35 29 27 29 26 27 27 27 27 25 29 34 28 28 30 30 26 29 30 33 29 29 27 27 26 25 25 25 24 25 27 26 -193 -193 -193 27 27 28 28 27 28 29 30 27 28 30 28 28 28 27 28 28 28 28 24 23 24 24 24 24 21 21 23 22 22 22 22 22 21 23 24 22 25 25 24 27 30 30 30 28 34 31 32 29 28 27 27 28 28 30 32 36 35 35 35 36 33 31 30 28 22 23 23 23 27 27 29 28 28 29 27 26 25 22 22 25 24 26 25 26 27 27 26 28 27 27 25 26 25 25 26 27 27 25 25 25 25 26 28 25 17 21 21 21 20 20 19 20 20 21 22 22 24 36 36 35 32 34 32 32 32 33 31 29 28 30 26 31 29 29 -193 -209 -193 -209 -193 -209 -209 0 -209 -209 -209 -209 -209 -209 -209 -209 -209 56 -209 -209 37 37 39 35 35 35 36 37 36 37 37 -193 -193 -193 39 39 38 39 39 39 38 37 39 39 37 41 42 54 47 47 50 49 49 49 48 49 48 50 51 50 51 52 53 56 55 56 57 0 0 0 0 0
    0 0 0 0 0 0 0 0 0 0 0 0 0 0 0 0 0 0 0 0 0 0 0 0 0 0 0 0 0 0 0 0 0 0 0 0 0 0 0 0 0 0 0 0 0 0 0 0 0 0 0 0 0 0 0 0 0 0 0 0 0 0 0 0 0 0 0 0 0 43 40 40 38 38 35 34 34 34 34 29 27 29 26 26 26 27 27 25 29 33 27 28 29 29 26 27 28 31 27 28 25 27 25 25 26 26 25 25 27 27 -193 -193 -193 27 27 29 28 27 28 29 30 26 29 29 27 27 27 27 28 28 28 28 26 25 26 26 25 26 21 21 23 22 22 23 22 23 22 24 25 23 26 26 25 27 30 30 29 28 33 31 33 32 30 30 30 30 30 -193 -193 37 34 35 35 35 33 31 29 29 21 22 22 23 26 26 28 28 28 29 27 25 24 22 21 24 23 25 24 25 26 27 26 29 29 29 27 28 25 25 26 27 26 24 24 24 23 26 30 26 16 20 20 20 20 20 20 20 20 22 22 22 24 38 36 35 32 34 32 32 33 33 31 29 29 31 26 33 31 30 -209 -209 -209 -209 56 -209 -209 -193 -209 -209 -209 -209 -209 -209 -209 -209 -209 57 -209 -209 38 38 39 35 36 36 37 37 36 37 37 -193 -193 -193 39 39 38 38 39 39 37 37 39 39 36 41 43 55 47 47 51 50 50 49 48 50 48 51 51 50 51 52 53 55 55 56 57 0 0 0 0 0
    0 0 0 0 0 0 0 0 0 0 0 0 0 0 0 0 0 0 0 0 0 0 0 0 0 0 0 0 0 0 0 0 0 0 0 0 0 0 0 0 0 0 0 0 0 0 0 0 0 0 0 0 0 0 0 0 0 0 0 0 0 0 0 0 0 0 0 0 0 42 40 39 38 38 35 34 34 34 34 30 27 29 26 26 27 27 27 25 28 30 26 27 28 28 25 26 26 28 27 28 -193 29 27 26 28 26 25 26 27 27 -209 -193 -193 27 27 29 28 27 28 29 30 26 29 28 -193 -193 -193 -193 26 28 30 -193 27 27 26 27 27 29 22 22 25 23 23 24 23 23 23 25 26 23 26 27 25 27 29 29 28 28 33 32 34 34 32 32 33 32 32 -193 -193 37 33 34 34 34 32 31 29 29 20 22 21 22 25 26 28 28 28 29 26 25 23 22 22 24 23 24 24 25 26 27 26 29 32 30 29 31 27 26 27 27 27 24 24 25 22 27 32 26 15 19 19 19 19 20 20 21 21 -193 -193 -193 24 38 36 34 32 34 32 33 33 33 30 29 29 31 26 33 31 29 27 33 -209 -209 43 -209 -209 -209 -209 -209 -209 -209 -193 -193 -209 -209 -209 56 -193 -209 38 38 39 36 36 36 37 37 37 37 37 -193 -193 -193 38 38 38 38 39 39 37 37 40 39 37 42 45 55 47 47 50 49 49 49 48 49 47 50 51 50 51 51 54 55 55 56 57 0 0 0 0 0
    0 0 0 0 0 0 0 0 0 0 0 0 0 0 0 0 0 0 0 0 0 0 0 0 0 0 0 0 0 0 0 0 0 0 0 0 0 0 0 0 0 0 0 0 0 0 0 0 0 0 0 0 0 0 0 0 0 0 0 0 0 0 0 0 0 0 0 0 0 42 40 39 38 37 34 34 34 34 34 30 28 29 25 26 26 26 26 24 26 27 25 26 28 28 26 27 28 29 27 28 26 29 27 26 28 25 25 26 26 26 -193 -193 -193 26 27 29 28 28 28 30 30 26 29 29 -193 -193 13 -193 -193 -193 31 34 30 29 27 29 29 31 25 23 27 24 24 24 23 -193 -193 25 26 22 26 27 25 27 28 27 27 27 32 32 34 35 33 33 34 33 31 -193 30 36 32 33 32 33 32 31 28 29 20 21 20 22 24 25 27 27 27 28 26 24 22 23 22 24 24 25 25 25 26 28 26 30 34 30 30 32 27 26 27 28 27 24 24 25 20 27 34 -193 16 19 20 19 20 21 19 20 21 -209 -193 22 24 39 36 33 32 34 32 32 32 33 30 29 29 31 26 31 30 28 25 32 -209 -209 42 -193 -209 -209 -193 -193 -209 -193 40 -209 -209 -209 -209 54 53 -209 38 38 39 36 36 37 37 37 37 37 37 37 -193 39 38 38 38 37 39 39 38 38 41 41 40 44 47 54 47 47 49 48 49 48 48 49 47 50 51 50 51 51 54 55 56 57 58 0 0 0 0 0
    0 0 0 0 0 0 0 0 0 0 0 0 0 0 0 0 0 0 0 0 0 0 0 0 0 0 0 0 0 0 0 0 0 0 0 0 0 0 0 0 0 0 0 0 0 0 0 0 0 0 0 0 0 0 0 0 0 0 0 0 0 0 0 0 0 0 0 0 0 41 40 39 37 37 34 34 33 34 33 29 28 29 25 25 25 25 25 23 25 25 24 25 27 28 27 27 27 27 27 -193 -193 31 26 26 28 24 24 25 25 25 -193 -193 -193 26 27 29 28 28 29 30 30 26 29 29 -193 19 -209 -209 -209 -209 -193 -209 -193 27 27 29 29 31 25 24 27 25 25 -193 -193 -193 -193 26 26 22 26 26 24 25 25 24 24 26 30 32 34 35 33 34 36 35 31 -193 30 35 31 32 32 32 31 31 28 29 20 21 20 22 23 24 26 26 26 28 26 24 22 23 22 23 23 24 24 25 26 27 25 28 34 29 29 32 26 26 27 27 27 24 24 24 16 27 32 20 17 20 21 21 20 21 20 21 21 -209 22 23 27 39 36 34 33 34 32 32 32 32 29 28 29 30 26 30 30 28 26 34 -193 -193 43 45 45 40 39 38 -209 40 39 -193 23 27 -209 -209 51 -209 38 38 39 36 36 37 38 37 38 37 37 38 -193 38 38 38 38 37 40 40 39 39 42 42 42 46 47 53 48 47 49 47 48 47 48 49 47 50 51 50 52 52 55 55 56 57 58 0 0 0 0 0
    0 0 0 0 0 0 0 0 0 0 0 0 0 0 0 0 0 0 0 0 0 0 0 0 0 0 0 0 0 0 0 0 0 0 0 0 0 0 0 0 0 0 0 0 0 0 0 0 0 0 0 0 0 0 0 0 0 0 0 0 0 0 0 0 0 0 0 0 0 40 39 38 37 36 34 34 33 34 33 29 28 29 25 25 25 25 25 23 24 24 22 24 25 26 26 24 -193 -193 -193 -193 -193 31 26 26 28 23 24 24 25 -193 23 24 -193 -193 27 28 27 -193 28 29 29 26 28 27 -193 14 -209 -209 -209 -209 -193 -209 -193 26 27 29 29 32 25 25 28 25 25 -193 -193 -193 -193 26 27 23 27 26 25 23 23 23 23 25 28 30 33 34 33 34 36 35 32 -193 31 36 32 32 32 32 32 31 29 30 21 21 20 22 23 24 25 25 26 27 25 23 21 23 21 22 22 22 22 23 25 26 21 28 35 29 30 33 27 26 28 28 28 25 25 25 17 27 32 12 -193 19 20 20 20 21 20 20 21 -209 22 23 30 38 36 33 32 33 32 32 32 32 29 27 28 29 26 29 31 28 25 34 -209 42 44 46 47 43 42 41 44 -193 43 -193 21 25 -209 -209 48 -209 38 39 39 36 37 37 38 38 38 37 37 37 39 38 38 38 38 37 40 40 39 40 42 43 44 48 48 53 48 47 49 47 48 47 48 49 47 50 52 50 53 53 55 56 57 58 59 0 0 0 0 0
    0 0 0 0 0 0 0 0 0 0 0 0 0 0 0 0 0 0 0 0 0 0 0 0 0 0 0 0 0 0 0 0 0 0 0 0 0 0 0 0 0 0 0 0 0 0 0 0 0 0 0 0 0 0 0 0 0 0 0 0 0 0 0 0 0 0 0 0 0 39 38 38 36 35 33 33 32 33 32 29 28 29 26 26 26 26 26 25 25 24 21 24 24 25 24 23 -193 -193 -193 -193 -193 28 25 25 25 23 23 24 24 -193 23 24 -193 25 26 28 27 -193 -193 28 28 -193 -193 -193 -209 21 23 -209 -209 -209 29 -209 -193 26 27 29 30 31 25 25 28 25 26 -193 -193 -193 477 27 27 25 27 27 26 24 24 23 23 25 28 30 34 36 34 36 38 37 34 -193 32 36 33 33 33 33 32 32 29 31 22 23 22 24 24 25 25 25 26 26 25 23 21 23 21 22 21 21 21 21 24 25 16 26 33 28 29 33 28 27 28 29 29 26 26 26 19 27 33 10 -193 18 19 19 18 20 19 19 -193 -209 21 23 35 38 37 33 33 33 31 32 32 31 29 26 28 28 26 29 32 29 24 34 -193 42 44 47 48 45 43 43 45 45 45 -193 24 25 38 -209 44 42 38 39 39 36 37 38 38 38 38 37 37 37 38 38 37 38 37 36 39 40 39 40 43 43 45 49 49 53 49 47 49 48 48 47 48 50 47 50 52 50 53 54 56 57 58 59 60 0 0 0 0 0
    0 0 0 0 0 0 0 0 0 0 0 0 0 0 0 0 0 0 0 0 0 0 0 0 0 0 0 0 0 0 0 0 0 0 0 0 0 0 0 0 0 0 0 0 0 0 0 0 0 0 0 0 0 0 0 0 0 0 0 0 0 0 0 0 0 0 0 0 0 37 37 37 35 35 32 33 32 34 32 29 29 29 26 27 27 28 27 27 29 25 23 24 -193 -209 -209 -193 -209 -209 -193 -193 -193 -193 25 25 -193 23 23 24 24 23 23 24 25 25 26 27 26 -177 -193 28 27 -193 26 25 25 24 25 -193 -193 -209 30 34 31 28 29 31 32 -193 25 25 28 26 26 -193 -193 -193 -193 27 27 25 28 26 26 -193 24 23 24 26 29 34 36 38 36 37 39 38 34 -209 33 37 33 34 34 33 33 33 30 32 23 24 25 25 25 25 26 26 25 26 25 23 21 23 22 23 22 22 23 22 25 26 19 26 31 28 28 31 27 27 28 28 29 26 27 27 22 28 34 12 -193 18 20 19 18 20 -193 19 -193 -209 21 23 36 37 37 32 33 33 31 31 32 30 29 26 27 27 26 30 35 33 30 36 39 41 43 44 46 45 44 43 46 45 45 45 27 29 38 44 41 40 38 38 38 36 37 38 38 37 38 36 36 37 38 37 37 37 37 35 39 39 39 41 43 44 46 49 49 53 49 47 49 48 48 47 48 49 46 50 52 50 53 54 57 57 60 62 62 0 0 0 0 0
    0 0 0 0 0 0 0 0 0 0 0 0 0 0 0 0 0 0 0 0 0 0 0 0 0 0 0 0 0 0 0 0 0 0 0 0 0 0 0 0 0 0 0 0 0 0 0 0 0 0 0 0 0 0 0 0 0 0 0 0 0 0 0 0 0 0 0 0 0 37 37 37 35 35 32 33 31 33 31 29 29 28 26 26 26 27 27 28 28 24 24 25 -209 -209 -209 -193 -209 -193 107 108 110 115 25 26 -193 -193 23 24 24 23 23 24 24 25 26 26 25 -193 27 27 25 25 24 23 24 24 25 26 26 28 30 35 35 33 31 34 35 -193 25 25 27 -193 -193 -193 -193 -193 -193 -193 27 25 27 26 -193 -209 25 24 24 26 29 34 35 37 35 36 37 37 35 -209 35 38 34 35 35 34 34 34 31 32 23 24 25 25 25 25 26 26 25 25 24 23 21 23 22 23 23 24 24 25 26 27 24 27 33 28 29 31 27 27 28 28 28 26 27 27 24 30 37 18 -193 -193 -193 20 19 21 -193 21 -193 -193 22 23 36 36 36 32 33 32 31 31 31 30 29 26 27 26 27 31 37 36 33 38 40 42 42 43 45 45 44 44 46 45 45 44 36 26 38 40 40 39 38 37 37 36 37 37 38 37 38 36 36 37 37 37 36 36 37 34 39 39 40 41 43 44 47 49 49 53 49 47 49 47 48 46 48 48 45 49 51 49 53 53 56 56 61 62 64 0 0 0 0 0
    0 0 0 0 0 0 0 0 0 0 0 0 0 0 0 0 0 0 0 0 0 0 0 0 0 0 0 0 0 0 0 0 0 0 0 0 0 0 0 0 0 0 0 0 0 0 0 0 0 0 0 0 0 0 0 0 0 0 0 0 0 0 0 0 0 0 0 0 0 37 37 37 35 35 32 33 32 33 30 29 29 28 25 26 26 26 26 27 26 23 25 27 -209 -209 -177 -193 -193 105 107 109 110 115 -193 28 -209 -193 24 25 25 23 23 25 24 25 25 25 24 -193 26 26 23 23 23 21 24 24 26 25 -193 -193 31 35 34 34 33 35 37 193 24 25 25 -193 -193 -193 -193 -193 -193 -193 -193 25 25 -209 -209 -209 -193 21 23 -193 27 33 34 37 33 34 34 32 33 37 35 38 34 35 35 34 34 34 31 32 24 25 26 25 25 25 26 25 25 25 25 23 22 24 24 25 25 26 26 27 28 30 27 29 34 29 30 31 27 27 28 29 29 26 27 27 25 32 38 25 -193 -209 -209 23 22 23 -193 22 -209 22 21 23 36 34 36 32 33 32 31 31 31 29 29 25 26 25 27 30 37 36 33 38 -193 41 40 41 43 43 44 42 43 42 42 41 35 26 36 37 38 38 37 37 36 35 36 37 37 37 39 35 36 37 37 36 36 36 36 33 39 39 40 42 44 45 49 49 49 53 48 47 48 47 47 46 48 49 46 49 52 50 53 54 56 56 61 63 64 0 0 0 0 0
    0 0 0 0 0 0 0 0 0 0 0 0 0 0 0 0 0 0 0 0 0 0 0 0 0 0 0 0 0 0 0 0 0 0 0 0 0 0 0 0 0 0 0 0 0 0 0 0 0 0 0 0 0 0 0 0 0 0 0 0 0 0 0 0 0 0 0 0 0 37 38 37 35 35 33 33 32 34 30 29 29 28 25 25 26 25 25 26 24 22 23 25 37 -209 -209 -193 -209 -209 109 108 110 116 23 29 24 23 24 24 25 23 23 25 23 25 25 25 24 -193 26 26 21 23 22 20 24 25 26 25 -193 -193 30 34 31 27 -193 -193 -193 -209 22 24 24 -193 -193 -193 24 23 -193 25 24 24 23 -193 -209 -209 16 19 21 -209 -209 34 -209 -193 31 31 30 27 31 35 33 37 33 34 35 34 34 34 32 31 25 27 27 26 26 26 26 26 26 26 26 25 24 26 26 27 27 27 28 29 29 31 28 30 35 29 31 31 28 28 29 29 29 27 28 27 26 34 36 26 33 -193 28 -193 24 26 22 23 23 21 21 23 36 33 36 32 32 32 31 31 31 29 29 25 25 19 26 27 34 32 29 35 -193 -193 38 39 40 40 41 38 39 39 38 37 36 30 35 34 35 35 36 35 34 34 36 36 37 37 39 35 36 37 37 36 36 36 37 33 39 40 41 42 44 46 50 49 49 53 48 47 48 47 47 46 49 49 46 51 53 53 56 57 59 59 63 64 65 0 0 0 0 0
    0 0 0 0 0 0 0 0 0 0 0 0 0 0 0 0 0 0 0 0 0 0 0 0 0 0 0 0 0 0 0 0 0 0 0 0 0 0 0 0 0 0 0 0 0 0 0 0 0 0 0 0 0 0 0 0 0 0 0 0 0 0 0 0 0 0 0 0 0 37 38 36 36 36 34 34 33 34 30 28 29 27 25 25 25 25 24 26 23 21 24 -193 -209 -209 -209 21 24 -209 -209 -209 -209 19 22 29 24 23 23 24 24 23 23 25 23 24 25 24 24 -193 26 25 20 21 21 18 23 25 26 25 -193 -193 30 35 33 31 -209 -209 -209 -177 22 24 22 23 -193 23 23 22 24 25 22 24 23 10 12 13 14 18 21 -193 -209 31 -193 -193 32 28 28 24 32 33 33 36 32 34 35 34 34 33 31 30 26 28 28 27 28 27 27 27 27 27 26 27 25 27 28 28 29 28 29 30 30 31 28 29 34 29 31 30 28 28 28 29 29 27 28 26 26 33 36 30 34 37 34 33 29 30 -193 23 23 21 21 24 36 32 36 32 33 32 31 31 31 28 29 25 25 16 26 26 32 31 29 35 -193 -193 39 40 40 38 39 38 37 37 37 35 35 31 35 33 33 34 35 34 33 33 35 36 36 37 39 35 36 36 37 36 36 36 37 33 39 40 42 43 44 46 50 49 49 53 49 48 49 48 48 47 49 49 47 53 55 55 58 59 61 61 65 65 64 0 0 0 0 0
    0 0 0 0 0 0 0 0 0 0 0 0 0 0 0 0 0 0 0 0 0 0 0 0 0 0 0 0 0 0 0 0 0 0 0 0 0 0 0 0 0 0 0 0 0 0 0 0 0 0 0 0 0 0 0 0 0 0 0 0 0 0 0 0 0 0 0 0 0 37 38 36 36 36 34 35 33 34 30 28 29 27 25 25 25 25 25 26 24 22 22 22 22 21 17 19 22 -209 -209 -209 -193 19 22 31 -193 -193 24 25 25 23 24 25 23 24 24 24 23 22 25 24 18 18 17 14 19 24 25 24 25 28 31 36 -193 -209 -209 -209 -209 123 -193 23 21 22 23 23 23 22 23 24 21 24 23 11 12 13 14 17 20 21 24 -193 -193 -193 33 29 28 26 33 32 33 35 32 33 34 33 34 31 31 30 27 31 29 29 30 29 29 28 28 28 27 29 27 29 29 30 29 29 29 30 29 30 26 28 33 29 32 30 27 27 28 29 29 27 28 26 27 35 36 35 35 38 38 38 35 34 27 23 23 20 21 24 35 31 36 32 33 32 32 31 31 29 30 25 26 18 27 29 36 33 31 34 -193 -193 38 39 40 38 38 37 37 37 36 35 35 31 35 33 32 33 35 33 33 33 35 35 35 37 39 34 36 36 36 36 36 36 36 33 39 40 41 42 44 45 50 49 49 53 49 48 49 48 48 47 50 49 48 54 56 57 59 61 62 62 66 66 64 0 0 0 0 0
    0 0 0 0 0 0 0 0 0 0 0 0 0 0 0 0 0 0 0 0 0 0 0 0 0 0 0 0 0 0 0 0 0 0 0 0 0 0 0 0 0 0 0 0 0 0 0 0 0 0 0 0 0 0 0 0 0 0 0 0 0 0 0 0 0 0 0 0 0 37 38 37 36 37 35 36 35 34 31 30 31 28 27 27 27 26 27 27 25 23 21 22 21 20 16 18 20 20 -193 -193 -193 17 21 29 25 24 24 26 26 24 24 26 23 24 24 23 22 22 24 24 19 20 18 19 22 24 24 22 24 25 27 33 -209 -209 -209 -209 -209 -193 -193 -193 19 21 23 23 22 21 23 24 20 25 23 12 13 12 14 17 20 20 22 -193 -193 -209 35 29 29 27 33 31 33 34 31 31 33 32 33 29 31 29 27 33 30 31 31 30 30 30 29 29 28 30 28 30 30 31 30 30 31 31 30 32 28 33 34 31 35 30 28 28 28 29 29 27 28 26 28 35 36 35 33 37 37 39 37 37 33 27 26 21 23 28 35 31 35 32 33 32 32 32 31 29 31 25 28 22 32 36 40 38 33 35 -193 -193 37 38 39 37 38 36 36 36 36 34 35 31 35 33 32 32 35 33 33 32 35 34 34 36 39 34 36 36 36 36 36 36 36 32 39 39 41 43 44 45 50 48 50 53 48 48 49 48 48 48 50 49 48 54 56 57 60 61 63 63 66 66 64 0 0 0 0 0
    0 0 0 0 0 0 0 0 0 0 0 0 0 0 0 0 0 0 0 0 0 0 0 0 0 0 0 0 0 0 0 0 0 0 0 0 0 0 0 0 0 0 0 0 0 0 0 0 0 0 0 0 0 0 0 0 0 0 0 0 0 0 0 0 0 0 0 0 0 38 38 37 37 37 36 36 36 35 32 32 33 30 28 28 28 27 29 27 25 23 21 22 20 19 16 17 19 20 15 -193 -193 -193 22 -193 25 25 25 27 27 26 25 26 23 24 24 23 22 22 23 24 21 21 20 23 25 26 26 23 25 25 26 32 -193 -209 -209 -209 -209 -193 20 24 18 20 22 22 23 22 23 24 19 24 22 14 14 13 15 17 20 20 23 -193 -193 -193 35 27 29 26 32 30 31 32 30 30 31 30 31 28 30 28 27 33 30 32 32 31 31 31 30 30 29 31 29 31 31 32 30 31 32 32 31 32 28 34 33 31 36 30 29 29 29 30 29 28 29 27 29 32 32 32 30 34 34 38 37 37 33 29 28 24 27 35 35 33 36 33 34 33 33 33 32 31 33 26 31 25 38 39 41 41 34 36 -193 -193 37 38 39 36 37 36 35 36 35 34 35 31 35 33 32 33 35 33 32 31 34 33 33 36 39 34 36 36 36 37 37 37 36 32 38 39 42 43 43 45 51 48 50 52 48 48 49 48 48 48 50 49 48 54 55 57 59 60 62 62 66 66 64 0 0 0 0 0
    0 0 0 0 0 0 0 0 0 0 0 0 0 0 0 0 0 0 0 0 0 0 0 0 0 0 0 0 0 0 0 0 0 0 0 0 0 0 0 0 0 0 0 0 0 0 0 0 0 0 0 0 0 0 0 0 0 0 0 0 0 0 0 0 0 0 0 0 0 39 38 37 37 38 37 37 37 35 32 33 34 30 28 28 29 27 29 26 24 23 21 21 19 19 16 17 19 19 15 -193 -193 -193 22 -193 26 25 25 27 28 27 26 26 23 24 23 22 22 21 23 24 23 23 23 24 26 26 26 -209 -193 -193 25 28 28 -209 -209 -209 -193 -193 19 23 17 20 21 22 23 22 24 24 19 24 22 14 14 12 13 15 18 19 23 -193 -193 35 31 27 29 28 32 29 31 31 30 30 30 30 30 27 28 27 26 32 30 32 31 31 31 32 30 30 29 31 29 32 32 33 30 32 32 31 31 32 29 35 33 32 37 30 30 30 30 31 29 29 30 27 30 31 30 31 28 32 33 37 38 39 36 32 30 27 32 37 36 34 37 35 35 35 35 34 33 33 35 27 36 27 41 41 42 41 36 37 38 -193 38 39 39 36 37 35 35 36 35 34 34 31 34 33 32 32 34 32 31 30 33 32 33 36 39 34 37 37 37 37 37 37 37 33 39 39 42 43 43 46 51 48 50 52 47 48 49 48 48 48 50 49 49 54 55 56 59 60 61 62 65 65 64 0 0 0 0 0
    0 0 0 0 0 0 0 0 0 0 0 0 0 0 0 0 0 0 0 0 0 0 0 0 0 0 0 0 0 0 0 0 0 0 0 0 0 0 0 0 0 0 0 0 0 0 0 0 0 0 0 0 0 0 0 0 0 0 0 0 0 0 0 0 0 0 0 0 0 40 39 37 37 39 38 38 38 36 33 34 35 30 28 28 28 25 27 25 24 23 20 21 19 19 16 17 19 19 14 -193 -193 -193 22 -193 28 27 27 28 28 27 26 27 23 24 23 22 21 21 22 24 24 25 25 25 26 26 25 -209 25 24 25 26 -193 -193 -193 -209 25 14 19 23 17 20 21 23 24 23 24 25 20 25 23 16 15 13 12 14 16 18 22 -193 -193 28 29 27 29 28 31 29 31 30 29 29 30 29 29 27 28 26 26 32 30 32 31 31 31 32 30 30 30 31 29 32 32 33 30 32 32 31 31 32 29 35 31 32 37 31 31 32 31 32 30 30 31 28 31 31 31 32 29 34 34 36 39 40 37 34 32 29 35 39 37 36 38 36 37 36 36 36 35 36 36 29 39 35 42 42 43 42 37 37 38 32 37 38 39 36 36 35 35 36 35 33 34 31 34 32 31 31 33 31 31 30 33 32 32 36 39 34 37 37 37 37 37 37 37 33 39 39 41 42 43 45 50 48 51 52 47 48 49 48 49 48 50 49 50 55 55 56 59 59 61 62 65 65 63 0 0 0 0 0
    0 0 0 0 0 0 0 0 0 0 0 0 0 0 0 0 0 0 0 0 0 0 0 0 0 0 0 0 0 0 0 0 0 0 0 0 0 0 0 0 0 0 0 0 0 0 0 0 0 0 0 0 0 0 0 0 0 0 0 0 0 0 0 0 0 0 0 0 0 44 40 38 38 40 39 39 39 36 34 35 36 32 29 29 29 26 26 25 24 23 21 21 20 19 17 18 18 18 14 18 15 17 22 31 28 27 28 29 29 29 28 28 24 25 24 22 22 22 22 24 25 25 25 25 26 25 24 -209 25 23 24 25 -193 -193 -193 -193 24 16 20 23 19 21 -193 24 25 25 26 26 22 25 23 18 14 12 11 13 15 16 21 22 23 24 27 27 29 28 30 28 31 29 29 29 29 28 28 27 28 26 26 34 30 33 32 32 32 33 31 31 30 32 30 33 32 33 30 32 32 31 31 31 29 35 30 33 37 31 32 33 32 33 31 31 32 29 32 31 31 33 29 34 34 36 40 41 38 34 32 30 38 41 38 38 40 38 39 38 38 38 37 38 38 32 41 39 42 43 43 42 38 37 -193 28 36 38 38 35 36 35 34 35 34 33 34 31 34 32 32 32 33 31 31 29 32 32 32 36 38 34 37 37 37 37 37 37 36 34 38 38 41 42 43 45 50 49 52 52 48 49 49 49 49 49 50 50 50 55 55 56 58 59 61 62 64 64 62 0 0 0 0 0
    0 0 0 0 0 0 0 0 0 0 0 0 0 0 0 0 0 0 0 0 0 0 0 0 0 0 0 0 0 0 0 0 0 0 0 0 0 0 0 0 0 0 0 0 0 0 0 0 0 0 0 0 0 0 0 0 0 0 0 0 0 0 0 0 0 0 0 0 0 46 40 38 39 40 40 40 40 37 35 36 37 -193 30 30 30 26 27 25 25 24 21 22 20 20 18 18 19 18 15 18 15 17 21 -193 27 27 29 29 29 30 29 28 25 26 25 23 23 23 22 24 26 25 -193 25 25 -193 23 -209 25 23 24 24 26 -193 -193 -193 24 17 20 22 20 22 -193 25 26 26 26 27 24 26 25 22 17 12 12 13 15 16 22 22 22 24 26 26 30 29 31 29 32 30 29 29 29 28 28 27 28 25 26 34 30 33 32 32 32 34 31 31 30 32 31 33 32 33 30 32 32 31 31 31 28 36 29 33 36 32 33 33 32 34 31 32 32 30 33 32 32 33 29 34 32 36 40 40 38 34 33 35 40 45 39 41 42 40 41 41 40 40 39 41 40 36 42 41 42 44 44 43 -193 -209 -193 26 36 38 38 34 35 34 34 35 34 33 34 31 34 33 32 32 33 31 31 29 32 32 32 36 39 35 37 37 37 37 37 37 37 35 39 38 40 42 42 45 49 49 53 52 47 49 49 49 50 49 50 49 50 54 54 56 58 59 60 62 63 64 61 0 0 0 0 0
    0 0 0 0 0 0 0 0 0 0 0 0 0 0 0 0 0 0 0 0 0 0 0 0 0 0 0 0 0 0 0 0 0 0 0 0 0 0 0 0 0 0 0 0 0 0 0 0 0 0 0 0 0 0 0 0 0 0 0 0 0 0 0 0 0 0 0 0 0 46 41 39 40 40 40 40 -193 37 35 35 37 -193 31 30 31 27 29 27 27 25 22 22 20 20 19 19 19 19 15 18 15 18 21 -193 26 26 28 29 28 29 28 27 25 26 24 22 22 22 21 23 26 25 25 25 25 -193 22 -193 -193 23 24 -209 -193 -193 -193 -193 23 17 21 21 19 21 -193 25 27 27 27 27 25 28 27 25 22 18 17 16 17 18 22 22 23 24 26 27 31 29 30 29 33 30 30 29 29 28 28 27 27 24 25 33 29 32 31 32 32 35 31 31 30 32 31 33 32 33 30 32 32 31 31 29 28 35 28 33 35 31 33 33 32 34 31 33 32 30 33 31 32 33 29 34 30 37 40 39 37 32 35 38 41 44 40 43 43 42 42 42 42 42 41 42 41 39 42 42 42 44 44 43 42 -193 -193 26 39 40 -193 34 35 33 33 35 34 33 34 31 34 33 32 32 33 31 31 29 32 32 32 37 39 35 38 38 38 38 38 38 38 37 40 39 41 42 43 44 47 48 53 51 46 49 49 49 49 48 49 48 50 53 53 54 56 57 59 60 62 63 60 0 0 0 0 0
    0 0 0 0 0 0 0 0 0 0 0 0 0 0 0 0 0 0 0 0 0 0 0 0 0 0 0 0 0 0 0 0 0 0 0 0 0 0 0 0 0 0 0 0 0 0 0 0 0 0 0 0 0 0 0 0 0 0 0 0 0 0 0 0 0 0 0 0 0 44 41 39 40 -193 -193 40 -193 37 35 36 37 -193 32 32 32 27 30 28 28 26 22 22 19 19 19 18 19 19 16 19 16 20 22 -193 26 26 28 28 -193 29 27 26 24 25 24 21 21 21 21 23 26 25 25 25 25 25 23 22 25 22 23 23 -193 -193 -193 -193 21 16 20 19 18 21 22 25 26 26 26 26 25 27 26 24 22 18 17 16 17 19 21 22 23 23 25 27 30 29 30 29 33 30 30 30 29 28 29 27 28 24 26 32 28 31 31 31 32 35 31 31 30 32 32 33 32 33 30 32 32 31 31 29 28 35 28 33 34 31 34 33 32 34 31 33 32 31 33 31 31 33 29 32 29 31 33 35 32 33 36 38 40 43 41 43 44 43 43 43 43 43 42 44 42 41 43 43 43 45 46 44 43 42 44 35 41 42 -193 35 34 33 34 35 35 33 35 32 35 34 32 32 32 30 30 28 31 31 31 37 39 36 38 38 38 38 38 39 38 38 41 40 42 43 43 44 45 45 52 49 46 49 48 48 49 48 49 48 49 52 51 52 53 54 57 57 59 61 59 0 0 0 0 0
    0 0 0 0 0 0 0 0 0 0 0 0 0 0 0 0 0 0 0 0 0 0 0 0 0 0 0 0 0 0 0 0 0 0 0 0 0 0 0 0 0 0 0 0 0 0 0 0 0 0 0 0 0 0 0 0 0 0 0 0 0 0 0 0 0 0 0 0 0 42 39 38 39 40 39 39 40 37 35 37 37 -193 34 33 34 28 30 28 28 26 23 24 21 21 21 20 20 20 18 20 17 21 23 26 26 27 28 -193 -193 -193 27 26 24 25 24 21 22 22 22 24 27 26 25 25 26 25 23 23 25 23 23 23 24 -193 22 22 21 16 20 18 18 20 21 24 25 25 25 26 25 27 26 25 23 18 17 15 17 20 21 21 21 22 24 27 30 29 29 29 33 30 30 30 29 28 28 28 28 25 27 31 28 31 31 31 32 35 32 31 30 32 32 32 32 33 30 32 33 31 31 28 29 36 28 33 32 30 34 33 32 33 31 33 31 31 33 30 31 32 28 30 27 26 27 32 30 35 35 37 39 42 41 44 44 44 44 44 44 44 43 44 43 42 43 43 42 46 46 45 43 44 45 42 43 43 44 41 38 36 38 37 38 35 37 34 36 34 32 31 31 29 29 26 30 30 30 37 39 37 39 39 39 39 39 39 39 39 41 41 42 42 43 43 43 44 48 47 45 49 48 48 49 48 49 48 48 50 48 50 50 49 54 48 52 -209 52 0 0 0 0 0
    0 0 0 0 0 0 0 0 0 0 0 0 0 0 0 0 0 0 0 0 0 0 0 0 0 0 0 0 0 0 0 0 0 0 0 0 0 0 0 0 0 0 0 0 0 0 0 0 0 0 0 0 0 0 0 0 0 0 0 0 0 0 0 0 0 0 0 0 0 41 38 37 39 39 -177 -177 40 37 36 38 38 -177 35 34 34 28 29 28 28 26 24 25 24 24 23 23 22 22 21 21 19 22 24 27 27 28 29 578 578 577 -193 25 23 -193 23 -193 22 22 23 25 27 26 25 24 26 25 24 24 26 24 24 23 25 24 23 22 21 16 20 18 18 20 -193 23 25 25 25 25 25 28 26 27 24 21 19 16 18 21 22 22 21 22 23 27 29 29 28 29 33 30 30 30 28 28 28 28 28 25 28 31 29 31 31 31 32 34 32 31 31 32 32 32 32 32 30 31 33 31 31 28 30 36 28 33 32 30 33 32 32 33 30 33 31 31 32 30 31 32 28 30 27 25 26 30 28 36 34 36 39 41 42 44 44 44 44 45 45 44 44 44 43 43 43 43 43 46 48 46 46 46 46 45 45 46 48 45 46 46 53 55 52 43 43 40 40 36 31 29 29 26 25 24 27 30 30 38 40 39 40 40 40 40 40 40 40 40 41 41 42 43 43 43 43 44 46 46 45 49 48 48 49 48 49 48 48 50 47 48 48 46 50 43 44 45 -225 0 0 0 0 0
    0 0 0 0 0 0 0 0 0 0 0 0 0 0 0 0 0 0 0 0 0 0 0 0 0 0 0 0 0 0 0 0 0 0 0 0 0 0 0 0 0 0 0 0 0 0 0 0 0 0 0 0 0 0 0 0 0 0 0 0 0 0 0 0 0 0 0 0 0 40 39 37 40 39 -177 39 39 37 36 38 38 -193 35 34 33 28 29 28 28 26 25 26 26 25 25 24 24 23 23 22 20 22 25 27 27 28 30 577 577 -193 -193 25 23 -193 23 -193 22 22 23 24 26 25 24 23 25 25 23 23 25 24 23 23 24 22 22 21 20 16 20 17 18 20 -193 22 24 24 25 25 26 30 27 28 26 22 19 15 19 22 22 22 22 23 25 29 30 29 28 29 33 30 30 30 28 28 28 28 27 25 29 30 28 30 30 30 32 33 32 30 30 32 32 31 32 32 30 31 33 32 31 28 30 37 28 34 31 31 33 31 32 32 30 33 30 31 32 30 32 33 30 30 27 26 27 28 26 35 33 35 38 40 42 44 44 45 44 45 45 45 45 44 43 44 43 44 44 47 48 47 47 46 47 46 46 46 49 46 48 50 53 54 54 53 50 48 -193 -209 -209 16 15 15 16 21 25 31 36 40 44 41 42 41 41 41 40 40 40 40 41 41 41 42 42 43 42 43 44 45 45 49 48 49 49 48 49 48 48 49 46 48 47 45 49 43 45 -225 -225 0 0 0 0 0
    0 0 0 0 0 0 0 0 0 0 0 0 0 0 0 0 0 0 0 0 0 0 0 0 0 0 0 0 0 0 0 0 0 0 0 0 0 0 0 0 0 0 0 0 0 0 0 0 0 0 0 0 0 0 0 0 0 0 0 0 0 0 0 0 0 0 0 0 0 40 39 37 40 39 -177 39 39 36 37 38 38 34 35 33 31 28 28 28 28 26 26 27 26 26 25 24 24 23 23 22 21 22 26 27 28 29 31 578 578 -193 -193 24 24 -193 -193 -193 22 21 23 23 24 24 23 22 25 24 23 23 26 24 24 23 24 22 22 21 20 17 20 18 19 20 -193 22 24 24 24 24 26 30 28 29 28 -209 21 -193 21 -193 23 23 23 23 26 29 30 29 28 30 32 30 30 30 28 28 29 29 28 27 32 31 28 -193 30 29 32 32 31 30 30 31 31 30 31 31 30 31 33 32 30 28 31 37 29 35 31 31 32 31 32 32 30 33 30 32 31 30 34 34 31 31 28 27 26 28 26 34 31 34 38 40 43 45 44 45 45 45 45 45 45 44 43 45 43 45 45 47 48 48 47 47 47 47 46 45 50 47 47 50 52 52 53 51 51 48 -193 -209 -209 -193 0 0 0 -177 -209 -209 -209 44 51 43 43 43 41 41 41 41 41 40 41 41 41 42 42 43 42 42 43 44 45 49 48 49 50 48 49 48 47 49 46 47 46 45 47 43 44 -225 -225 0 0 0 0 0
    0 0 0 0 0 0 0 0 0 0 0 0 0 0 0 0 0 0 0 0 0 0 0 0 0 0 0 0 0 0 0 0 0 0 0 0 0 0 0 0 0 0 0 0 0 0 0 0 0 0 0 0 0 0 0 0 0 0 0 0 0 0 0 0 0 0 0 0 0 40 -193 39 42 -193 40 40 40 37 37 38 37 34 35 33 30 27 27 27 27 25 25 26 26 26 25 24 24 23 23 22 21 22 26 27 28 29 30 579 -193 814 -193 24 -193 -193 -193 21 22 21 24 23 23 23 22 22 25 24 23 23 26 25 24 24 24 22 22 22 21 19 22 20 19 21 -193 -193 23 24 23 22 26 31 28 30 30 -209 -209 -209 -209 -193 23 23 22 23 27 29 30 29 28 31 32 30 30 30 29 28 30 29 28 28 33 31 29 -193 30 29 31 32 31 29 30 32 31 31 31 31 30 31 33 32 30 28 32 38 30 36 31 32 33 31 32 32 30 33 29 32 31 30 35 34 32 32 27 28 26 28 27 33 31 35 38 40 44 45 44 46 45 46 46 45 46 44 44 45 43 46 46 47 48 48 47 47 47 47 46 45 50 47 47 49 50 50 51 49 50 46 57 -209 -209 -209 -209 -193 -209 -209 -209 -209 -209 49 53 46 45 45 43 42 42 41 41 41 41 41 41 42 42 42 42 42 42 44 45 49 48 49 50 49 49 48 47 48 45 46 45 45 46 42 -225 -225 -225 0 0 0 0 0
    0 0 0 0 0 0 0 0 0 0 0 0 0 0 0 0 0 0 0 0 0 0 0 0 0 0 0 0 0 0 0 0 0 0 0 0 0 0 0 0 0 0 0 0 0 0 0 0 0 0 0 0 0 0 0 0 0 0 0 0 0 0 0 0 0 0 0 0 0 40 -193 39 43 -193 -193 40 39 37 37 38 37 33 34 33 -193 -193 27 -193 26 25 25 26 25 26 24 24 24 23 24 22 22 23 28 27 28 29 30 -193 -177 814 816 23 -193 -193 23 21 22 20 23 23 23 22 22 21 26 25 24 24 27 25 -193 25 -193 22 23 23 22 21 23 21 20 22 -193 -193 23 23 23 21 27 31 28 32 34 -209 -209 -209 -209 -209 25 23 23 24 27 29 29 29 28 32 32 30 30 30 29 29 30 30 27 28 31 30 28 30 29 29 31 31 30 29 31 31 31 31 31 30 30 30 32 31 30 27 29 37 31 35 31 33 33 31 32 32 30 32 29 32 29 29 35 33 32 32 29 30 28 30 30 35 32 36 38 39 43 44 43 45 44 45 46 45 46 44 45 46 43 46 46 46 47 47 46 46 47 47 46 45 49 47 46 47 48 48 49 47 48 45 57 -193 62 -209 -209 -209 -209 -209 -209 -209 -209 51 54 47 46 46 43 43 42 42 42 40 41 41 41 42 42 42 42 42 42 44 45 49 48 49 49 49 49 48 47 48 45 46 45 44 45 42 -225 -225 -225 0 0 0 0 0
    0 0 0 0 0 0 0 0 0 0 0 0 0 0 0 0 0 0 0 0 0 0 0 0 0 0 0 0 0 0 0 0 0 0 0 0 0 0 0 0 0 0 0 0 0 0 0 0 0 0 0 0 0 0 0 0 0 0 0 0 0 0 0 0 0 0 0 0 0 40 -193 39 42 -193 40 40 39 36 37 37 37 33 34 33 -193 -193 27 -193 27 25 25 26 25 26 24 24 24 23 24 22 22 23 28 27 28 28 29 -193 -177 -193 -193 22 -193 23 23 20 21 20 23 22 22 21 21 21 26 26 25 -193 27 26 -193 26 -193 22 24 23 23 22 24 22 21 23 606 607 24 24 24 21 27 29 27 32 34 -209 -209 -209 -209 29 28 27 26 28 29 30 29 29 29 32 31 30 29 29 29 30 30 30 27 29 32 29 29 30 29 30 31 31 30 29 31 31 31 31 30 30 30 30 32 29 29 27 28 37 32 35 31 33 32 31 31 32 30 31 28 31 28 29 34 33 32 33 34 31 30 31 33 35 33 36 37 38 42 42 42 44 44 45 45 45 46 44 45 46 43 46 46 46 47 47 46 46 47 47 46 45 48 46 46 46 48 47 48 47 48 46 56 58 62 65 63 60 61 -209 -209 -209 56 51 54 47 46 46 44 43 42 41 41 40 40 41 41 42 42 42 42 42 42 44 45 48 47 49 49 48 49 47 47 48 45 46 45 45 45 42 -225 -225 -225 0 0 0 0 0
    0 0 0 0 0 0 0 0 0 0 0 0 0 0 0 0 0 0 0 0 0 0 0 0 0 0 0 0 0 0 0 0 0 0 0 0 0 0 0 0 0 0 0 0 0 0 0 0 0 0 0 0 0 0 0 0 0 0 0 0 0 0 0 0 0 0 0 0 0 39 -193 38 40 39 39 39 38 36 38 38 37 34 34 34 -193 28 27 27 27 25 26 26 25 26 24 24 24 23 24 23 23 24 29 28 29 29 29 -193 -177 -209 25 22 23 22 23 20 21 19 22 21 21 21 21 21 26 26 25 -193 27 -193 386 26 -209 -193 -209 24 23 23 25 23 23 -193 607 608 24 24 24 22 26 28 26 30 -193 -209 -209 -209 29 32 31 29 27 30 30 31 29 30 30 33 30 30 29 29 28 30 30 29 27 30 32 30 30 30 30 31 32 30 30 30 31 31 31 31 30 30 30 30 31 29 29 29 30 38 35 36 32 33 32 31 31 32 29 30 28 30 28 29 35 33 33 34 36 30 30 33 34 36 33 35 36 38 41 41 41 43 43 45 46 45 47 44 47 46 43 47 47 46 47 47 46 46 46 46 45 45 47 46 45 46 47 47 47 47 48 47 56 59 62 66 66 62 62 -209 56 -193 56 51 54 47 46 45 44 43 42 41 41 39 40 40 40 41 42 42 42 42 42 43 45 48 47 48 49 48 49 47 47 48 46 46 45 45 45 42 -225 -225 -225 0 0 0 0 0
    0 0 0 0 0 0 0 0 0 0 0 0 0 0 0 0 0 0 0 0 0 0 0 0 0 0 0 0 0 0 0 0 0 0 0 0 0 0 0 0 0 0 0 0 0 0 0 0 0 0 0 0 0 0 0 0 0 0 0 0 0 0 0 0 0 0 0 0 0 39 38 38 39 39 39 40 38 37 39 39 38 36 36 35 27 29 27 27 27 26 26 26 26 26 24 23 24 23 24 22 23 24 28 28 30 29 29 -193 -177 -209 -193 22 -193 22 22 20 20 18 21 20 20 20 21 21 26 25 25 -193 -193 -193 387 -193 -193 -177 -193 25 25 25 25 24 23 -193 -177 609 24 24 24 23 26 28 26 31 33 -193 35 39 31 32 32 31 29 31 30 30 29 30 29 33 30 29 28 29 28 29 29 29 26 30 31 30 30 31 30 31 32 30 30 30 31 31 30 31 30 29 30 30 30 29 28 30 30 39 36 36 34 34 32 31 31 32 29 29 28 29 27 30 35 33 33 36 37 32 31 35 34 36 33 36 36 37 40 40 40 43 43 45 46 46 47 45 47 47 43 48 47 46 46 46 46 46 46 46 45 45 47 46 46 46 47 47 47 48 48 47 54 58 60 64 65 62 62 59 58 -193 56 51 54 47 46 46 44 43 42 41 41 39 40 40 40 42 42 43 42 43 42 43 45 48 47 48 49 49 49 47 48 48 46 46 45 46 45 43 -225 -225 -225 0 0 0 0 0</data></disparity>
</opencv_storage>
