<?xml version="1.0"?>
<opencv_storage>
<gps_time_stamp>296722</gps_time_stamp>
<gps_x>-1.2374100685119629e+001</gps_x>
<gps_y>1.1002556800842285e+001</gps_y>
<gps_z>-2.0452723503112793e+000</gps_z>
<image_time_stamp>287560</image_time_stamp>
<disparity type_id="opencv-matrix">
  <rows>84</rows>
  <cols>320</cols>
  <dt>s</dt>
  <data>
    0 0 0 0 0 0 0 0 0 0 0 0 0 0 0 0 0 0 0 0 0 0 0 0 0 0 0 0 0 0 0 0 0 0 0 0 0 0 0 0 0 0 0 0 0 0 0 0 0 0 0 0 0 0 0 0 0 0 0 0 0 0 0 0 0 0 0 0 0 75 75 74 74 74 72 73 71 -193 65 -193 -193 57 57 58 61 59 59 59 60 59 61 60 57 55 54 54 52 51 49 50 48 48 45 45 45 45 46 46 43 42 41 41 41 36 35 35 33 34 31 32 31 26 33 30 30 29 29 33 -193 -193 24 23 22 22 21 20 19 19 16 18 15 17 15 17 13 14 11 13 13 11 11 12 12 11 11 11 10 10 10 10 10 10 10 10 9 10 0 0 0 0 0 0 0 0 0 0 0 12 13 15 19 19 21 22 23 23 -177 -177 -193 -193 26 25 26 -177 -177 27 27 26 29 30 32 31 35 35 35 35 36 35 35 33 35 34 35 32 38 39 39 39 40 45 44 44 45 44 45 47 48 52 45 54 51 52 51 51 51 51 49 52 53 55 54 57 -193 62 60 60 64 61 64 898 -193 -193 894 992 994 994 -193 -193 -193 -193 -193 -177 -177 70 68 67 222 222 225 -193 -193 -193 -193 72 76 77 79 81 84 83 -193 -193 -193 -193 -193 91 91 93 92 93 92 93 93 92 93 94 93 95 95 97 98 99 100 100 100 103 103 104 104 104 104 105 104 104 102 0 0 0 0 0
    0 0 0 0 0 0 0 0 0 0 0 0 0 0 0 0 0 0 0 0 0 0 0 0 0 0 0 0 0 0 0 0 0 0 0 0 0 0 0 0 0 0 0 0 0 0 0 0 0 0 0 0 0 0 0 0 0 0 0 0 0 0 0 0 0 0 0 0 0 75 74 74 74 74 73 73 72 71 68 -209 -209 58 57 58 61 58 59 59 59 59 60 59 57 55 54 54 52 51 49 50 47 47 44 45 45 44 45 45 42 42 41 40 41 36 35 35 33 34 31 32 31 26 32 30 29 28 29 -193 -193 28 24 23 22 22 21 21 19 19 17 18 16 17 16 16 13 14 12 15 14 12 11 11 11 11 11 11 9 9 10 11 10 9 10 10 9 10 0 0 0 0 0 0 0 0 0 0 0 11 12 16 19 19 21 22 23 23 -193 -193 -193 -193 26 25 26 25 26 27 28 27 29 30 32 31 34 35 35 35 36 35 36 34 35 34 34 32 37 39 39 40 40 46 44 44 45 45 45 47 48 52 45 54 50 52 50 51 51 51 49 52 53 55 54 57 57 63 60 60 64 61 64 68 67 67 -177 67 68 -177 -177 -177 -193 -193 70 -177 -177 70 68 67 222 -193 -193 68 -193 67 -193 71 75 77 77 79 83 81 82 -193 -193 -193 -193 92 92 94 93 93 93 93 93 93 93 95 93 95 96 98 99 100 100 100 100 104 105 105 105 105 105 106 106 106 105 0 0 0 0 0
    0 0 0 0 0 0 0 0 0 0 0 0 0 0 0 0 0 0 0 0 0 0 0 0 0 0 0 0 0 0 0 0 0 0 0 0 0 0 0 0 0 0 0 0 0 0 0 0 0 0 0 0 0 0 0 0 0 0 0 0 0 0 0 0 0 0 0 0 0 76 75 75 75 75 74 74 73 73 71 -209 -209 -193 58 58 60 58 58 58 59 58 60 59 56 54 53 53 52 51 48 50 47 46 44 44 44 44 45 45 42 42 41 40 41 36 35 35 34 34 32 32 32 27 32 30 29 28 30 34 -193 27 24 23 23 23 22 21 20 20 17 19 17 17 16 16 13 15 14 16 16 12 13 12 12 12 12 12 10 10 11 10 10 9 9 9 0 9 0 0 0 0 0 0 0 0 0 0 0 11 12 17 19 19 21 22 23 23 23 24 25 25 26 25 27 26 26 28 29 27 30 30 31 30 33 34 34 34 35 35 36 34 35 35 35 33 38 39 39 40 40 46 44 45 46 45 46 47 48 51 45 53 49 51 50 50 50 51 49 52 53 55 55 57 57 63 60 60 64 61 63 68 66 66 66 66 68 -177 -177 -177 -193 70 70 -177 -177 71 68 68 -193 -193 68 68 68 67 71 71 74 76 76 78 80 78 79 -193 -193 -209 -193 92 92 95 93 94 93 94 94 93 94 96 94 96 98 99 100 100 101 101 101 104 107 106 106 107 107 107 108 107 107 0 0 0 0 0
    0 0 0 0 0 0 0 0 0 0 0 0 0 0 0 0 0 0 0 0 0 0 0 0 0 0 0 0 0 0 0 0 0 0 0 0 0 0 0 0 0 0 0 0 0 0 0 0 0 0 0 0 0 0 0 0 0 0 0 0 0 0 0 0 0 0 0 0 0 77 76 76 75 75 74 74 73 73 72 -209 -193 -193 58 59 60 58 58 58 59 58 59 58 55 54 53 53 52 51 48 49 47 45 43 43 44 43 44 44 42 -193 41 41 41 36 35 35 34 34 32 32 32 27 32 30 30 29 31 35 27 27 24 23 23 23 22 22 21 21 18 20 18 18 17 16 14 15 15 17 16 13 13 12 13 13 13 12 11 11 12 11 10 10 9 9 0 0 0 0 0 0 0 0 0 0 0 9 9 13 12 19 20 19 22 22 22 23 22 23 25 25 26 25 26 26 27 28 30 27 30 30 31 30 33 34 34 34 36 35 36 35 35 35 35 34 38 38 39 40 40 46 44 45 45 45 45 46 47 50 45 51 48 50 49 50 50 51 49 52 54 56 55 57 57 63 61 60 65 62 63 68 66 66 66 66 67 -177 -177 -177 -193 70 70 -177 -177 71 69 68 -193 -193 68 68 68 66 71 70 73 75 74 75 77 75 75 73 -193 -209 -209 91 93 96 94 94 94 95 95 95 96 98 95 98 99 99 100 100 101 101 101 104 109 107 107 108 108 108 109 109 108 0 0 0 0 0
    0 0 0 0 0 0 0 0 0 0 0 0 0 0 0 0 0 0 0 0 0 0 0 0 0 0 0 0 0 0 0 0 0 0 0 0 0 0 0 0 0 0 0 0 0 0 0 0 0 0 0 0 0 0 0 0 0 0 0 0 0 0 0 0 0 0 0 0 0 77 76 76 76 75 75 74 74 74 73 -193 -209 -209 59 60 61 59 58 58 59 58 58 58 54 54 52 53 52 51 48 49 47 45 43 43 44 43 44 44 42 -193 42 41 41 37 35 36 34 34 32 32 32 27 32 30 30 29 31 35 28 28 24 23 23 23 23 23 22 22 20 22 21 19 19 16 14 15 15 16 16 13 14 11 12 13 12 12 11 11 12 11 11 10 10 9 9 9 0 0 0 0 0 0 0 9 10 10 10 14 12 20 19 19 21 21 22 22 21 22 24 24 25 25 26 26 27 28 30 28 30 30 31 30 33 34 34 34 35 35 36 36 35 34 35 34 36 38 38 39 40 46 44 45 45 45 45 46 47 50 45 51 47 50 49 50 50 51 49 52 54 56 55 57 57 63 60 60 64 62 62 67 65 65 65 65 67 -177 -177 -177 -177 -193 71 -177 -193 -193 69 69 -193 -193 68 68 68 65 71 69 73 74 74 75 76 74 74 73 -209 -209 -193 89 92 -193 93 94 94 95 95 96 97 99 96 100 100 99 100 100 102 101 101 104 110 107 108 109 109 109 111 110 110 0 0 0 0 0
    0 0 0 0 0 0 0 0 0 0 0 0 0 0 0 0 0 0 0 0 0 0 0 0 0 0 0 0 0 0 0 0 0 0 0 0 0 0 0 0 0 0 0 0 0 0 0 0 0 0 0 0 0 0 0 0 0 0 0 0 0 0 0 0 0 0 0 0 0 77 76 76 76 75 74 74 74 74 73 -209 -193 -193 -193 62 61 59 59 59 59 58 58 58 54 53 52 52 51 50 47 48 47 45 43 43 44 43 43 43 42 -193 41 41 41 36 35 36 34 34 32 32 32 27 32 30 31 29 32 34 28 28 24 23 24 23 23 23 22 22 21 23 22 19 19 15 14 16 15 16 17 13 14 11 13 13 13 12 12 12 13 12 12 11 10 11 11 11 0 0 0 0 0 0 9 10 11 11 11 16 14 20 18 18 20 20 21 21 20 21 23 24 25 24 25 25 26 28 29 27 30 29 30 30 33 34 34 35 35 35 36 36 35 34 34 35 34 37 37 38 39 44 43 45 45 46 46 47 49 51 47 53 50 52 51 52 51 52 52 54 54 56 56 56 57 63 60 60 64 61 62 67 65 65 65 65 67 -177 -177 -177 -177 -177 71 -193 74 -193 70 69 -193 -193 68 68 68 65 71 70 73 76 75 76 77 76 76 75 76 -209 -193 85 89 -193 91 92 93 93 94 96 97 99 97 101 101 100 100 101 103 103 103 105 114 108 109 110 110 110 112 112 111 0 0 0 0 0
    0 0 0 0 0 0 0 0 0 0 0 0 0 0 0 0 0 0 0 0 0 0 0 0 0 0 0 0 0 0 0 0 0 0 0 0 0 0 0 0 0 0 0 0 0 0 0 0 0 0 0 0 0 0 0 0 0 0 0 0 0 0 0 0 0 0 0 0 0 76 75 76 75 75 74 73 74 73 -193 -209 -193 -193 -193 64 61 60 59 59 59 58 58 58 53 53 51 52 51 50 47 48 47 45 43 43 44 43 43 43 42 -193 41 40 40 36 35 36 34 34 32 32 32 27 32 31 32 29 32 35 29 28 25 24 24 24 23 24 23 23 22 24 23 20 20 16 14 16 16 16 17 13 14 11 12 14 13 13 12 13 13 12 13 12 11 12 11 11 0 8 0 9 0 9 9 11 12 12 13 18 15 20 18 18 19 19 20 20 18 21 22 23 24 24 25 25 26 28 29 27 30 28 29 29 32 34 33 35 35 34 35 36 35 34 34 35 32 36 37 38 39 44 43 45 46 46 46 47 48 50 47 53 49 52 51 52 51 53 53 54 54 56 56 56 57 64 61 60 65 62 63 67 65 65 65 64 66 -177 -177 -177 -177 -177 71 71 74 73 70 69 -193 -193 67 68 68 65 72 72 75 80 79 80 81 80 79 78 -193 -193 -193 85 88 -193 -193 91 -193 91 93 96 98 101 99 103 102 101 101 101 -193 103 103 106 116 109 111 113 112 112 114 114 112 0 0 0 0 0
    0 0 0 0 0 0 0 0 0 0 0 0 0 0 0 0 0 0 0 0 0 0 0 0 0 0 0 0 0 0 0 0 0 0 0 0 0 0 0 0 0 0 0 0 0 0 0 0 0 0 0 0 0 0 0 0 0 0 0 0 0 0 0 0 0 0 0 0 0 75 75 76 75 75 74 73 74 73 -209 780 -209 -193 -193 66 62 61 60 60 59 59 58 58 53 53 51 51 50 50 47 48 47 45 43 43 44 43 42 43 41 -193 41 40 40 36 35 36 35 34 32 33 31 28 32 31 32 30 32 35 30 28 26 24 25 24 24 24 23 24 23 24 24 21 21 17 15 17 17 17 18 14 15 11 12 13 13 12 13 14 14 13 15 14 13 14 12 11 0 0 0 0 0 9 9 11 13 13 13 18 15 20 17 19 19 19 20 21 19 21 22 24 25 25 25 25 26 27 29 27 30 28 28 28 31 33 32 33 34 33 35 36 35 34 34 35 31 36 36 38 39 43 43 46 46 47 47 47 48 49 47 52 48 51 50 52 50 52 53 54 54 56 56 56 58 65 61 61 66 62 63 67 65 64 65 64 66 -177 -177 -177 -177 -177 71 71 74 73 70 70 -193 -193 68 69 69 67 74 76 78 85 83 83 83 82 81 80 -193 84 85 85 -193 -209 -209 -193 -193 -209 -209 -209 -209 -209 -193 -209 -209 -209 -209 -193 -193 -209 103 106 -193 109 112 115 114 114 117 117 116 0 0 0 0 0
    0 0 0 0 0 0 0 0 0 0 0 0 0 0 0 0 0 0 0 0 0 0 0 0 0 0 0 0 0 0 0 0 0 0 0 0 0 0 0 0 0 0 0 0 0 0 0 0 0 0 0 0 0 0 0 0 0 0 0 0 0 0 0 0 0 0 0 0 0 76 75 76 75 75 74 74 74 73 -209 -209 -193 -193 66 68 64 62 61 60 60 59 59 58 53 53 51 51 50 50 47 48 47 45 43 43 44 43 42 42 41 40 40 40 39 36 35 35 35 34 32 33 31 28 33 31 33 30 33 34 31 28 27 25 26 24 23 24 24 24 24 24 24 21 21 18 16 18 18 18 18 15 16 11 12 13 13 12 13 15 14 13 15 14 14 15 14 12 0 0 0 0 0 9 10 12 14 14 15 19 16 20 16 18 18 18 19 21 19 22 23 25 27 26 26 26 26 27 29 27 29 27 27 28 31 32 31 32 33 32 33 35 34 33 33 35 31 35 36 39 39 43 43 46 46 47 47 47 48 48 48 51 47 50 50 51 49 52 52 53 54 56 56 56 59 64 61 61 66 63 63 67 65 64 65 65 66 -177 -177 -177 -177 -177 71 71 75 74 71 72 -193 -209 70 70 70 70 81 -209 82 89 85 84 84 83 83 81 82 84 -193 -193 -193 -209 135 140 137 139 -193 -193 -193 -209 -193 -193 -193 -209 -209 -209 -209 -193 -209 -209 -209 109 112 117 116 116 119 118 -193 0 0 0 0 0
    0 0 0 0 0 0 0 0 0 0 0 0 0 0 0 0 0 0 0 0 0 0 0 0 0 0 0 0 0 0 0 0 0 0 0 0 0 0 0 0 0 0 0 0 0 0 0 0 0 0 0 0 0 0 0 0 0 0 0 0 0 0 0 0 0 0 0 0 0 76 76 76 76 75 74 74 74 73 -209 -209 71 64 67 68 64 63 61 61 60 60 60 58 53 53 51 51 51 51 47 49 47 46 43 44 45 43 42 42 41 -193 -193 40 -193 36 35 35 35 34 33 33 31 29 33 32 33 31 33 33 31 29 26 24 25 24 23 24 23 23 23 24 24 21 22 20 18 18 19 19 19 16 17 11 12 13 13 12 14 17 15 14 16 16 16 17 16 13 8 9 0 9 8 12 11 14 17 18 18 21 18 20 15 18 18 18 19 21 20 22 24 26 27 27 27 26 27 28 29 27 29 27 27 28 30 31 31 33 33 34 34 36 35 34 34 35 31 36 36 39 39 42 43 47 46 47 47 48 47 48 48 50 46 50 50 51 47 52 53 52 53 55 55 55 58 63 61 60 66 63 63 67 65 64 66 65 66 -193 -193 -193 -193 -193 71 70 74 74 72 -193 -209 -209 72 -193 -209 -209 -209 -193 -209 91 88 86 85 86 86 85 84 86 -193 -193 -209 -209 135 139 136 138 137 138 138 138 139 -193 138 149 159 155 154 153 155 -193 149 -193 113 118 118 118 119 -193 -209 0 0 0 0 0
    0 0 0 0 0 0 0 0 0 0 0 0 0 0 0 0 0 0 0 0 0 0 0 0 0 0 0 0 0 0 0 0 0 0 0 0 0 0 0 0 0 0 0 0 0 0 0 0 0 0 0 0 0 0 0 0 0 0 0 0 0 0 0 0 0 0 0 0 0 77 76 77 76 75 74 74 74 73 -209 71 70 64 67 68 65 64 62 62 61 61 60 58 53 53 51 52 51 51 48 49 48 47 44 44 45 44 42 43 41 -193 -193 40 -193 36 35 36 36 35 33 33 31 29 33 32 33 31 32 32 30 28 26 25 25 23 22 23 23 23 23 24 24 21 23 22 19 19 21 21 20 19 20 14 15 16 15 14 16 19 16 15 17 16 17 18 17 14 9 9 9 10 9 14 13 16 19 19 19 21 18 20 16 19 19 18 20 21 20 23 24 26 27 27 27 27 27 28 29 28 28 27 26 27 30 30 31 34 34 35 36 37 36 35 35 36 32 36 35 37 38 40 41 47 46 47 46 48 47 47 48 50 45 49 49 51 -193 -193 -209 51 52 55 53 54 57 62 60 60 65 62 62 67 65 64 66 65 66 66 68 68 67 71 71 69 74 74 73 -209 -209 -209 -209 -209 -209 -209 123 124 125 -193 89 87 86 86 87 87 -193 86 87 -193 -209 -209 134 138 135 137 137 138 139 139 139 141 140 150 160 157 156 155 156 155 153 153 114 -193 -193 -193 -193 -193 -209 0 0 0 0 0
    0 0 0 0 0 0 0 0 0 0 0 0 0 0 0 0 0 0 0 0 0 0 0 0 0 0 0 0 0 0 0 0 0 0 0 0 0 0 0 0 0 0 0 0 0 0 0 0 0 0 0 0 0 0 0 0 0 0 0 0 0 0 0 0 0 0 0 0 0 76 76 76 76 75 74 73 74 -193 -193 70 69 63 67 67 65 64 63 63 62 62 61 58 54 53 52 52 51 50 49 49 48 47 44 45 45 44 42 42 41 40 39 40 -193 37 35 36 36 35 33 34 30 30 33 32 32 30 31 31 30 29 27 25 26 23 22 23 23 23 23 23 24 22 25 24 22 22 24 23 23 23 22 17 17 16 15 12 16 19 16 16 17 17 18 19 19 15 9 10 9 10 10 16 13 16 20 19 19 21 18 19 15 19 20 18 20 21 20 23 24 26 27 27 27 27 27 28 28 28 28 27 26 28 33 33 34 36 36 37 37 38 37 35 35 35 32 34 34 35 37 38 39 45 44 46 46 47 46 46 48 50 45 51 49 51 -193 -193 -209 -193 49 52 48 52 57 61 59 60 65 62 63 67 65 64 66 65 66 67 68 69 67 71 71 69 74 74 73 -209 -177 -177 -209 -209 -209 123 123 125 126 -193 94 89 87 87 88 88 86 87 88 -193 -209 -209 136 139 137 138 139 141 142 141 139 141 142 150 161 157 157 155 155 156 154 155 -193 142 139 139 -209 141 -209 0 0 0 0 0
    0 0 0 0 0 0 0 0 0 0 0 0 0 0 0 0 0 0 0 0 0 0 0 0 0 0 0 0 0 0 0 0 0 0 0 0 0 0 0 0 0 0 0 0 0 0 0 0 0 0 0 0 0 0 0 0 0 0 0 0 0 0 0 0 0 0 0 0 0 76 75 76 75 74 73 72 -193 -209 70 70 69 64 67 67 65 65 64 64 62 62 62 58 54 53 52 52 51 50 49 49 48 47 44 45 45 43 42 42 41 40 39 40 -193 36 35 36 36 35 33 33 30 30 32 32 32 30 31 31 30 29 28 26 26 24 23 23 23 22 23 23 23 21 24 24 23 24 26 25 25 25 25 23 20 15 12 0 12 20 16 16 17 17 20 20 20 17 9 13 12 13 12 19 14 17 20 18 16 18 17 17 14 18 20 17 19 22 20 23 24 26 27 27 27 27 27 28 28 27 27 26 25 27 32 35 36 37 37 38 38 38 38 37 36 36 33 36 35 37 38 38 39 44 44 46 46 48 47 47 50 51 47 53 51 50 -193 -193 -193 -193 -193 48 43 50 57 61 59 60 65 62 63 68 65 64 67 65 66 67 68 68 67 70 70 68 73 73 73 -193 -209 -209 -209 -209 118 121 123 125 126 126 -193 -193 89 89 89 89 87 87 89 -193 -209 -209 137 140 138 139 139 141 143 142 140 142 142 149 155 154 154 153 153 154 153 154 153 147 147 143 149 149 156 0 0 0 0 0
    0 0 0 0 0 0 0 0 0 0 0 0 0 0 0 0 0 0 0 0 0 0 0 0 0 0 0 0 0 0 0 0 0 0 0 0 0 0 0 0 0 0 0 0 0 0 0 0 0 0 0 0 0 0 0 0 0 0 0 0 0 0 0 0 0 0 0 0 0 76 74 75 73 72 72 71 -193 -193 69 69 68 65 68 67 66 65 64 65 62 61 62 58 55 53 52 52 51 50 49 49 48 47 44 45 45 43 42 42 -193 40 39 39 -209 36 35 35 36 35 32 33 30 31 32 32 32 31 32 31 31 30 29 27 27 24 23 23 23 21 22 22 21 20 22 23 24 24 27 27 26 26 25 25 23 18 15 0 14 21 18 19 19 20 22 22 21 17 -225 -225 13 14 13 20 15 17 21 18 13 13 16 15 14 19 21 18 21 23 22 23 25 26 27 28 27 27 27 28 28 27 27 27 25 28 31 35 36 38 38 38 39 39 39 38 37 37 36 38 37 38 39 39 40 45 44 45 46 48 47 46 50 51 46 53 51 49 -193 -193 -193 -193 -209 -193 40 49 58 61 59 60 66 63 64 68 65 63 67 66 67 67 68 68 67 70 70 67 71 70 71 -193 -209 -209 -209 -209 117 121 123 124 125 125 -193 -209 90 90 91 91 88 88 90 -209 -209 -209 139 141 138 139 139 142 144 142 140 142 141 149 153 153 153 152 152 153 153 154 153 150 150 147 151 151 157 0 0 0 0 0
    0 0 0 0 0 0 0 0 0 0 0 0 0 0 0 0 0 0 0 0 0 0 0 0 0 0 0 0 0 0 0 0 0 0 0 0 0 0 0 0 0 0 0 0 0 0 0 0 0 0 0 0 0 0 0 0 0 0 0 0 0 0 0 0 0 0 0 0 0 77 74 74 72 71 71 71 -193 70 68 69 68 66 68 67 66 66 64 65 62 61 61 57 55 53 52 52 51 50 49 49 48 46 44 45 44 43 42 -193 -193 40 39 -193 -209 37 35 36 36 35 33 33 30 32 33 32 32 31 32 32 31 31 30 28 29 26 24 24 24 23 23 23 23 22 24 25 27 26 29 30 28 28 27 27 25 19 16 0 14 19 17 20 21 21 24 24 24 -225 -225 -225 -225 -225 -225 -225 -225 -225 -225 -225 -225 9 0 0 11 15 23 19 23 26 23 24 26 27 27 28 27 27 27 28 28 28 27 27 26 29 32 35 36 37 38 39 39 40 40 39 38 38 37 38 39 39 40 41 41 45 44 45 45 46 45 45 47 47 43 45 43 43 -209 -209 19 21 23 25 36 45 60 61 60 61 67 64 64 69 65 63 67 67 68 68 68 68 67 70 69 66 69 69 70 -209 -209 -209 -209 106 117 122 124 125 126 126 126 131 -193 -193 -209 -209 -209 -209 93 -209 -209 -209 136 -193 -193 137 139 142 145 144 140 141 142 149 154 153 154 153 153 153 154 154 154 152 152 149 151 152 156 0 0 0 0 0
    0 0 0 0 0 0 0 0 0 0 0 0 0 0 0 0 0 0 0 0 0 0 0 0 0 0 0 0 0 0 0 0 0 0 0 0 0 0 0 0 0 0 0 0 0 0 0 0 0 0 0 0 0 0 0 0 0 0 0 0 0 0 0 0 0 0 0 0 0 79 74 74 72 70 70 70 71 69 67 68 67 66 68 67 66 66 64 65 60 0 -256 -1 -11433 53 52 52 50 50 49 48 47 46 44 45 44 42 42 -193 -193 40 39 -193 -209 37 35 36 37 35 33 34 31 32 33 32 32 31 32 32 31 31 30 29 29 27 24 24 25 24 24 24 24 23 26 28 30 27 30 31 29 29 28 28 26 21 20 9 16 18 18 20 22 23 26 27 -225 -225 -225 -225 -225 -225 -225 -225 -225 -225 -225 -225 -225 -225 -225 0 10 9 27 20 23 28 25 26 26 28 27 28 27 27 27 28 28 28 27 28 27 30 34 36 38 39 40 41 41 41 40 40 39 38 39 39 40 40 42 42 42 45 45 45 46 46 45 45 47 47 43 45 44 43 41 41 28 26 27 27 36 42 57 58 58 59 62 61 61 68 64 63 67 67 68 68 69 69 67 70 70 67 68 68 72 -209 -209 -209 -209 108 118 123 126 126 128 127 127 131 130 128 126 -209 -209 -209 -209 -193 129 135 135 -209 -209 -209 138 143 146 143 139 140 141 149 152 153 154 153 153 154 154 155 154 153 153 149 152 152 159 0 0 0 0 0
    0 0 0 0 0 0 0 0 0 0 0 0 0 0 0 0 0 0 0 0 0 0 0 0 0 0 0 0 0 0 0 0 0 0 0 0 0 0 0 0 0 0 0 0 0 0 0 0 0 0 0 0 0 0 0 0 0 0 0 0 0 0 0 0 0 0 0 0 0 82 75 74 72 70 70 70 70 68 66 68 66 65 67 66 65 64 63 64 59 58 59 55 55 53 52 52 50 50 50 48 48 46 44 45 44 42 42 -193 40 40 39 -193 -209 37 35 36 37 35 34 34 31 32 33 32 32 31 33 32 32 33 32 30 32 28 26 26 26 25 25 25 25 25 28 32 32 29 31 32 30 30 30 29 27 24 23 12 18 17 18 19 20 22 26 -225 -225 -225 -225 -225 -225 -225 -225 -225 -225 -225 -225 -225 -225 -225 -225 -225 -225 -225 -225 21 23 29 25 26 27 29 27 28 28 28 27 28 27 28 26 29 27 32 35 37 39 41 41 42 41 41 41 40 39 38 38 39 40 41 42 42 42 45 45 45 45 45 45 44 47 47 43 45 44 44 42 42 41 36 37 34 38 41 54 58 58 59 60 60 60 68 63 63 67 68 69 69 69 69 68 71 70 68 69 69 73 -209 -209 -209 104 106 118 123 126 127 129 128 128 132 130 129 127 129 130 -193 -193 -193 124 130 130 -209 -209 -209 -209 -209 -209 -209 133 -193 137 147 150 152 153 153 153 153 154 155 155 154 154 149 -193 153 162 0 0 0 0 0
    0 0 0 0 0 0 0 0 0 0 0 0 0 0 0 0 0 0 0 0 0 0 0 0 0 0 0 0 0 0 0 0 0 0 0 0 0 0 0 0 0 0 0 0 0 0 0 0 0 0 0 0 0 0 0 0 0 0 0 0 0 0 0 0 0 0 0 0 0 77 72 72 70 69 68 68 69 67 64 67 66 65 66 65 64 63 62 63 58 57 58 54 54 53 52 52 50 50 50 48 48 46 44 45 43 42 42 41 40 39 39 39 -209 38 36 36 37 35 34 34 32 32 33 32 31 31 33 32 33 35 34 34 36 34 30 29 32 29 27 28 28 27 32 34 34 30 32 32 31 31 30 29 27 25 25 21 22 20 21 23 -225 -225 -225 -225 -225 -225 -225 -225 -225 -225 -225 -225 -225 -225 -225 -225 -225 -225 -225 -225 -225 -225 -225 -225 -225 34 27 25 26 29 28 30 29 29 28 29 29 29 27 30 28 34 35 38 39 41 40 41 41 40 40 40 39 38 38 39 40 41 43 43 42 44 45 45 45 44 44 43 46 46 43 44 45 44 43 44 43 41 41 40 40 41 53 60 59 59 60 60 61 69 64 63 67 68 69 69 69 69 68 71 70 68 69 68 72 -209 -209 -209 95 -193 118 123 126 128 130 129 130 133 131 130 129 130 128 -193 113 117 -193 125 -209 -209 -209 -209 -209 -209 -209 -209 127 135 136 145 148 150 152 153 152 153 154 155 155 154 154 150 -193 154 161 0 0 0 0 0
    0 0 0 0 0 0 0 0 0 0 0 0 0 0 0 0 0 0 0 0 0 0 0 0 0 0 0 0 0 0 0 0 0 0 0 0 0 0 0 0 0 0 0 0 0 0 0 0 0 0 0 0 0 0 0 0 0 0 0 0 0 0 0 0 0 0 0 0 0 72 68 69 66 65 64 66 68 66 63 67 65 65 65 65 64 62 62 63 57 57 57 54 54 53 52 52 50 50 50 48 48 46 45 45 43 42 42 41 40 39 39 39 37 38 36 37 37 35 35 34 32 33 33 33 31 31 34 33 35 37 36 37 39 39 36 33 36 32 29 31 30 31 35 36 36 33 34 33 31 31 31 28 27 25 -225 -225 -225 -225 -225 -225 -225 -225 -225 -225 -225 -225 -225 -225 -225 -225 -225 -225 -225 -225 -225 -225 -225 -225 -225 -225 -225 -225 -225 -225 -225 -225 -225 23 26 29 28 30 29 29 28 29 30 29 28 31 30 35 35 38 39 41 39 40 40 39 39 39 38 38 37 39 40 41 42 42 42 43 44 44 45 44 44 43 45 46 45 45 46 45 45 46 45 43 43 43 44 44 54 60 59 59 60 60 60 68 63 63 66 68 69 70 70 70 69 72 71 70 69 68 72 -193 -209 -209 -193 103 116 123 126 129 131 130 131 133 133 132 131 133 134 125 -209 -193 -209 -209 -209 -209 -209 -209 123 138 146 -209 -193 138 138 146 148 151 153 152 151 152 153 154 154 154 154 150 -193 155 159 0 0 0 0 0
    0 0 0 0 0 0 0 0 0 0 0 0 0 0 0 0 0 0 0 0 0 0 0 0 0 0 0 0 0 0 0 0 0 0 0 0 0 0 0 0 0 0 0 0 0 0 0 0 0 0 0 0 0 0 0 0 0 0 0 0 0 0 0 0 0 0 0 0 0 68 65 67 62 62 60 64 68 64 63 67 65 66 64 65 63 62 61 62 57 56 57 54 54 53 52 52 50 50 50 47 48 46 45 46 43 42 42 41 40 40 39 40 38 39 38 39 38 36 36 35 34 34 34 34 33 34 36 36 38 39 38 40 41 41 39 37 38 36 32 35 33 35 37 37 37 35 35 34 34 33 32 29 28 -225 -225 -225 -225 -225 -225 -225 -225 -225 -225 -225 -225 -225 -225 -225 -225 -225 -225 -225 -225 -225 -225 -225 -225 -225 -225 -225 -225 -225 -225 -225 -225 -225 -225 -225 -225 -225 26 27 27 27 27 29 29 30 30 33 34 36 36 38 39 41 39 39 38 39 38 39 37 37 36 39 41 41 42 42 42 43 43 43 44 43 43 43 46 47 47 47 48 47 47 48 47 45 44 44 46 46 55 61 59 60 62 61 61 68 64 63 66 69 70 70 70 70 69 72 71 70 69 68 70 72 -193 -209 89 104 116 123 127 129 131 131 131 133 133 132 131 133 133 128 -193 -209 -209 -209 -209 86 93 -209 -177 138 146 -209 -209 138 138 145 145 148 150 147 146 145 149 151 153 153 152 148 -193 154 156 0 0 0 0 0
    0 0 0 0 0 0 0 0 0 0 0 0 0 0 0 0 0 0 0 0 0 0 0 0 0 0 0 0 0 0 0 0 0 0 0 0 0 0 0 0 0 0 0 0 0 0 0 0 0 0 0 0 0 0 0 0 0 0 0 0 0 0 0 0 0 0 0 0 0 66 65 67 61 61 59 63 67 64 62 68 65 66 64 65 63 61 61 62 56 56 56 54 54 53 52 52 49 50 50 47 48 46 45 46 43 42 42 42 40 40 39 40 38 39 39 39 38 37 37 36 36 37 35 36 36 37 39 39 40 40 39 41 42 42 41 39 39 37 35 37 36 37 39 38 38 36 36 36 36 35 32 29 -225 -225 -225 -225 -225 -225 -225 -225 -225 -225 -225 -225 -225 -225 -225 -225 -225 -225 -225 -225 -225 -225 -225 -225 -225 -225 -225 -225 -225 -225 -225 -225 -225 -225 -225 -225 -225 -225 -225 -225 -225 30 30 30 29 32 30 35 36 36 36 38 39 41 38 38 37 37 37 38 37 37 36 39 41 42 43 43 43 43 43 44 45 43 44 44 47 48 48 48 48 48 47 48 47 45 44 45 46 45 53 60 59 60 63 61 61 68 64 64 67 70 70 70 70 70 69 71 71 70 68 67 71 76 -209 -209 103 104 116 123 127 128 130 131 131 133 133 132 131 132 131 126 121 -193 107 -209 -209 98 103 114 118 130 -193 134 140 140 137 143 141 142 146 142 140 139 142 144 143 147 146 144 145 -193 154 0 0 0 0 0
    0 0 0 0 0 0 0 0 0 0 0 0 0 0 0 0 0 0 0 0 0 0 0 0 0 0 0 0 0 0 0 0 0 0 0 0 0 0 0 0 0 0 0 0 0 0 0 0 0 0 0 0 0 0 0 0 0 0 0 0 0 0 0 0 0 0 0 0 0 66 66 67 60 -193 -209 -193 67 62 61 68 64 66 63 65 62 61 61 62 56 56 56 54 54 53 52 52 49 50 50 47 48 46 45 45 43 42 42 42 41 40 40 40 39 40 40 40 38 37 38 38 39 40 37 38 38 39 41 40 41 41 40 42 43 43 42 40 41 39 38 39 38 38 39 39 39 37 37 38 37 35 32 -225 -225 -225 -225 -225 -225 -225 -225 -225 -225 -225 -225 -225 -225 -225 -225 -225 -225 -225 -225 -225 -225 -225 -225 -225 -225 -225 -225 -225 -225 -225 -225 -225 -225 -225 -225 -225 -225 -225 -225 -225 -225 -225 -225 -225 29 34 31 35 36 36 36 38 38 40 37 37 36 35 35 36 36 36 35 39 42 42 43 43 43 43 44 44 45 44 44 44 47 48 48 48 48 48 48 49 48 46 46 46 48 46 53 60 59 60 63 61 61 67 65 65 67 70 70 70 71 71 70 71 71 70 67 68 73 -209 -209 -209 108 109 118 124 127 128 130 131 131 133 133 133 131 132 132 128 121 123 119 122 -193 108 111 118 118 125 122 124 -209 -209 -193 -193 140 -209 -209 -209 134 135 137 138 140 141 141 144 142 150 -193 0 0 0 0 0
    0 0 0 0 0 0 0 0 0 0 0 0 0 0 0 0 0 0 0 0 0 0 0 0 0 0 0 0 0 0 0 0 0 0 0 0 0 0 0 0 0 0 0 0 0 0 0 0 0 0 0 0 0 0 0 0 0 0 0 0 0 0 0 0 0 0 0 0 0 67 68 69 61 -209 -209 -209 67 61 60 67 64 65 63 64 61 60 60 61 56 56 56 54 54 53 52 52 49 50 50 47 48 46 45 46 43 42 42 43 41 42 41 41 40 41 41 41 39 39 39 40 41 42 39 39 39 40 41 40 41 40 40 41 42 43 43 41 42 40 41 41 41 40 40 40 39 38 39 39 39 37 35 -225 -225 -225 -225 -225 -225 -225 -225 -225 -225 -225 -225 -225 -225 -225 -225 -225 -225 -225 -225 -225 -225 -225 -225 -225 -225 -225 -225 -225 -225 -225 -225 -225 -225 -225 -225 -225 -225 -225 -225 -225 -225 -225 -225 -225 -225 -225 35 37 39 39 37 39 39 41 37 38 35 33 31 34 34 35 33 39 42 42 43 43 42 42 43 44 45 43 44 44 47 48 48 48 49 49 48 49 49 48 47 48 49 48 54 60 59 60 64 61 61 67 66 66 68 70 70 70 71 71 70 71 71 70 67 70 74 -209 -193 -193 116 118 120 126 128 129 131 132 131 134 134 134 132 133 133 130 123 124 -209 -193 -193 110 112 114 116 123 119 120 -209 -209 -209 -209 -209 -209 -209 -209 -209 128 128 133 -209 -209 140 148 149 -193 -193 0 0 0 0 0
    0 0 0 0 0 0 0 0 0 0 0 0 0 0 0 0 0 0 0 0 0 0 0 0 0 0 0 0 0 0 0 0 0 0 0 0 0 0 0 0 0 0 0 0 0 0 0 0 0 0 0 0 0 0 0 0 0 0 0 0 0 0 0 0 0 0 0 0 0 67 67 69 62 -209 -209 -193 68 62 60 67 64 65 62 63 61 60 60 61 55 55 56 53 53 53 52 52 49 51 50 47 48 46 45 46 44 43 43 43 42 43 42 43 41 42 42 42 40 40 40 40 41 42 40 40 39 40 42 40 41 40 40 41 42 43 43 42 42 42 42 43 43 42 41 41 40 40 41 41 39 38 -225 -225 -225 -225 -225 -225 -225 -225 -225 -225 -225 -225 -225 -225 -225 -225 -225 -225 -225 -225 -225 -225 -225 -225 -225 -225 -225 -225 -225 -225 -225 -225 -225 -225 -225 -225 -225 -225 -225 -225 -225 -225 -225 -225 -225 -225 -225 -225 -225 -225 40 38 37 39 39 41 37 38 36 32 31 33 32 34 33 39 42 43 43 43 42 42 43 44 44 43 43 43 46 47 48 48 49 49 49 50 50 49 49 50 51 49 54 60 59 60 65 62 62 67 67 67 68 71 70 70 71 71 70 70 70 69 66 70 74 -209 -177 -209 119 121 122 128 130 131 132 133 132 135 135 135 134 134 133 132 126 128 -209 -209 120 113 112 114 117 124 -193 121 -209 -209 -209 -209 -209 -209 -209 -209 -209 134 -193 -209 -209 -209 148 -209 -209 159 -193 0 0 0 0 0
    0 0 0 0 0 0 0 0 0 0 0 0 0 0 0 0 0 0 0 0 0 0 0 0 0 0 0 0 0 0 0 0 0 0 0 0 0 0 0 0 0 0 0 0 0 0 0 0 0 0 0 0 0 0 0 0 0 0 0 0 0 0 0 0 0 0 0 0 0 69 70 70 64 -209 -209 -193 68 62 61 68 64 65 62 63 61 59 60 61 55 55 55 53 53 52 52 52 49 51 50 47 48 46 46 47 45 44 44 44 43 44 43 44 43 43 42 43 40 41 40 41 41 42 41 42 41 42 43 43 42 42 42 43 43 44 44 43 43 43 44 45 45 43 42 42 42 42 42 42 41 40 -225 -225 -225 -225 -225 -225 -225 -225 -225 -225 -225 -225 -225 -225 -225 -225 -225 -225 -225 -225 -225 -225 -225 -225 -225 -225 -225 -225 -225 -225 -225 -225 -225 -225 -225 -225 -225 -225 -225 -225 -225 -225 -225 -225 -225 -225 -225 -225 -225 -225 -225 -225 32 38 38 40 36 37 34 33 32 33 32 33 33 39 42 43 43 43 43 43 44 44 43 43 42 43 45 47 48 49 50 50 50 51 51 51 50 51 51 49 54 59 59 60 66 62 62 67 68 68 68 71 70 70 72 71 70 69 69 68 65 70 74 -209 -177 -209 -209 122 123 130 131 132 133 134 133 135 135 136 135 136 135 135 134 137 138 -209 128 -209 114 117 118 123 120 120 118 -209 -209 -209 -209 -209 -209 -209 -209 137 139 142 152 -193 155 155 -193 165 -193 0 0 0 0 0
    0 0 0 0 0 0 0 0 0 0 0 0 0 0 0 0 0 0 0 0 0 0 0 0 0 0 0 0 0 0 0 0 0 0 0 0 0 0 0 0 0 0 0 0 0 0 0 0 0 0 0 0 0 0 0 0 0 0 0 0 0 0 0 0 0 0 0 0 0 70 70 69 65 -209 -209 62 69 62 61 67 64 65 62 63 61 60 60 61 55 55 55 53 53 52 52 52 49 52 50 48 49 47 47 48 46 46 45 46 45 47 45 45 44 43 43 43 41 42 41 42 42 43 42 43 42 43 44 44 43 43 43 43 45 46 47 45 44 45 46 47 47 44 43 42 43 43 43 42 41 -225 -225 -225 -225 -225 -225 -225 -225 -225 -225 -225 -225 -225 -225 -225 -225 -225 -225 -225 -225 -225 -225 -225 -225 -225 -225 -225 -225 -225 -225 -225 -225 -225 -225 -225 -225 -225 -225 -225 -225 -225 -225 -225 -225 -225 -225 -225 -225 -225 -225 -225 -225 -225 -225 -225 -225 38 33 34 31 30 29 30 31 32 33 39 42 43 44 43 44 43 44 45 44 43 43 43 45 47 49 50 50 51 51 52 52 52 50 51 51 50 53 58 58 59 67 62 62 67 69 69 69 71 70 70 72 72 71 69 69 68 64 70 73 -209 -209 -209 -209 123 124 132 132 133 134 134 134 135 135 136 135 136 137 136 137 138 141 140 138 138 136 126 123 127 124 124 125 -209 -209 -193 -193 152 -209 -209 139 138 139 141 148 149 152 -193 -193 165 -193 0 0 0 0 0
    0 0 0 0 0 0 0 0 0 0 0 0 0 0 0 0 0 0 0 0 0 0 0 0 0 0 0 0 0 0 0 0 0 0 0 0 0 0 0 0 0 0 0 0 0 0 0 0 0 0 0 0 0 0 0 0 0 0 0 0 0 0 0 0 0 0 0 0 0 69 70 68 64 -209 -209 62 69 62 61 67 64 64 62 63 61 60 60 61 55 55 55 53 53 53 52 52 49 52 50 48 49 47 48 49 48 49 47 49 47 48 47 47 45 44 43 43 41 43 42 44 44 44 43 44 43 43 44 44 43 43 44 44 46 48 49 47 45 47 49 49 48 46 44 44 44 45 44 43 42 -225 -225 -225 -225 -225 -225 -225 -225 -225 -225 -225 -225 -225 -225 -225 -225 -225 -225 -225 -225 -225 -225 -225 -225 -225 -225 -225 -225 -225 -225 -225 -225 -225 -225 -225 -225 -225 -225 -225 -225 -225 -225 -225 -225 -225 -225 -225 -225 -225 -225 -225 -225 -225 -225 -225 -225 -225 30 33 28 27 27 28 30 32 34 39 42 44 45 44 45 44 45 46 45 44 44 44 47 47 51 52 51 52 51 52 52 52 50 51 52 51 53 57 58 59 67 62 62 67 70 70 70 72 70 70 72 72 -193 69 69 68 64 70 74 -209 -209 -209 122 124 125 133 133 133 134 135 134 135 135 136 135 137 137 137 138 139 142 142 140 141 140 138 138 136 133 131 -209 -209 153 154 -193 -193 -209 140 143 140 140 139 142 143 148 152 -209 -209 -209 0 0 0 0 0
    0 0 0 0 0 0 0 0 0 0 0 0 0 0 0 0 0 0 0 0 0 0 0 0 0 0 0 0 0 0 0 0 0 0 0 0 0 0 0 0 0 0 0 0 0 0 0 0 0 0 0 0 0 0 0 0 0 0 0 0 0 0 0 0 0 0 0 0 0 69 -209 -209 -209 -209 -209 64 -193 63 62 67 64 64 62 62 61 60 60 60 55 55 55 53 53 53 52 52 49 52 50 48 49 47 48 49 49 50 48 50 48 49 47 47 45 44 43 43 42 44 43 47 47 48 47 47 45 44 44 45 43 43 44 45 46 48 50 47 46 50 50 49 49 47 45 45 45 46 44 43 -225 -225 -225 -225 -225 -225 -225 -225 -225 -225 -225 -225 -225 -225 -225 -225 -225 -225 -225 -225 -225 -225 -225 -225 -225 -225 -225 -225 -225 -225 -225 -225 -225 -225 -225 -225 -225 -225 -225 -225 -225 -225 -225 -225 -225 -225 -225 -225 -225 -225 -225 -225 -225 -225 -225 -225 -225 -225 -225 -225 23 22 24 26 30 31 36 40 43 45 47 45 47 46 46 47 46 45 44 44 48 47 50 51 50 52 51 52 51 50 49 51 51 52 53 -209 58 59 68 63 63 67 71 70 71 72 70 70 72 71 -193 68 68 68 63 70 74 -193 -177 -209 -209 125 126 134 133 133 134 135 134 134 135 135 134 137 137 137 138 139 143 143 142 143 142 141 145 141 -209 -209 -209 -209 -193 -209 -209 -209 142 141 143 141 140 138 140 143 146 148 -209 -209 -209 0 0 0 0 0
    0 0 0 0 0 0 0 0 0 0 0 0 0 0 0 0 0 0 0 0 0 0 0 0 0 0 0 0 0 0 0 0 0 0 0 0 0 0 0 0 0 0 0 0 0 0 0 0 0 0 0 0 0 0 0 0 0 0 0 0 0 0 0 0 0 0 0 0 0 -209 -209 -209 -209 -209 -209 -193 70 64 63 68 64 64 62 62 61 60 59 60 55 55 55 53 53 53 52 52 49 52 51 49 50 49 50 51 51 52 50 51 48 50 47 48 45 44 43 45 44 48 50 53 52 52 51 50 47 45 46 45 43 43 45 45 46 48 49 48 49 52 52 51 50 49 47 47 48 47 45 43 -225 -225 -225 -225 -225 -225 -225 -225 -225 -225 -225 -225 -225 -225 -225 -225 -225 -225 -225 -225 -225 -225 -225 -225 -225 -225 -225 -225 -225 -225 -225 -225 -225 -225 -225 -225 -225 -225 -225 -225 -225 -225 -225 -225 -225 -225 -225 -225 -225 -225 -225 -225 -225 -225 -225 -225 -225 -225 -225 -225 -225 23 26 27 34 33 37 40 43 45 48 45 47 46 47 47 46 46 45 44 48 46 50 50 49 50 50 51 51 50 49 51 52 52 53 55 -193 58 67 63 63 67 71 70 71 72 70 69 72 71 -193 67 68 68 64 71 74 -177 -209 -209 -209 127 128 135 133 133 133 134 134 133 134 135 134 137 139 138 139 141 144 145 144 145 144 144 148 147 -209 148 150 152 -193 -193 152 151 146 146 148 147 147 143 148 150 150 150 149 152 -193 0 0 0 0 0
    0 0 0 0 0 0 0 0 0 0 0 0 0 0 0 0 0 0 0 0 0 0 0 0 0 0 0 0 0 0 0 0 0 0 0 0 0 0 0 0 0 0 0 0 0 0 0 0 0 0 0 0 0 0 0 0 0 0 0 0 0 0 0 0 0 0 0 0 0 72 -193 -209 -209 -209 -193 68 70 66 64 68 65 64 63 63 62 60 59 60 55 55 54 53 53 52 53 52 50 53 52 51 52 51 51 51 51 52 49 50 48 49 47 50 48 48 47 52 53 55 56 57 55 55 53 51 47 46 46 45 44 44 45 47 49 51 52 51 53 54 53 52 51 50 49 50 50 47 45 -225 -225 -225 -225 -225 -225 -225 -225 -225 -225 -225 -225 -225 -225 -225 -225 -225 -225 -225 -225 -225 -225 -225 -225 -225 -225 -225 -225 -225 -225 -225 -225 -225 -225 -225 -225 -225 -225 -225 -225 -225 -225 -225 -225 -225 -225 -225 -225 -225 -225 -225 -225 -225 -225 -225 -225 -225 -225 -225 -225 -225 -225 -225 24 27 33 32 37 41 44 45 47 45 48 46 46 47 46 45 44 44 47 45 50 52 53 54 53 53 52 53 52 54 54 53 53 55 57 58 66 63 63 67 71 70 70 72 69 69 71 70 69 67 68 68 64 71 74 -177 -177 -209 -209 130 131 135 133 133 133 134 134 133 134 135 134 138 140 140 141 142 145 147 147 147 147 147 149 150 151 152 152 152 153 154 154 154 151 151 152 152 153 154 154 155 155 -193 150 -193 -193 0 0 0 0 0
    0 0 0 0 0 0 0 0 0 0 0 0 0 0 0 0 0 0 0 0 0 0 0 0 0 0 0 0 0 0 0 0 0 0 0 0 0 0 0 0 0 0 0 0 0 0 0 0 0 0 0 0 0 0 0 0 0 0 0 0 0 0 0 0 0 0 0 0 0 71 -193 69 70 71 70 69 70 66 64 67 65 64 63 63 62 60 60 60 56 55 54 53 53 52 53 52 51 54 53 53 53 52 53 53 52 53 51 52 50 51 51 53 51 54 54 56 56 57 58 58 56 55 53 51 48 47 47 45 45 46 48 51 53 54 54 54 55 55 54 53 52 51 51 52 51 48 45 -225 -225 -225 -225 -225 -225 -225 -225 -225 -225 -225 -225 -225 -225 -225 -225 -225 -225 -225 -225 -225 -225 -225 -225 -225 -225 -225 -225 -225 -225 -225 -225 -225 -225 -225 -225 -225 -225 -225 -225 -225 -225 -225 -225 -225 -225 -225 -225 -225 -225 -225 -225 -225 -225 -225 -225 -225 -225 -225 -225 -225 -225 -225 -225 26 28 29 35 41 45 47 49 46 48 46 46 46 45 44 44 44 47 45 49 52 53 53 53 52 51 52 52 53 53 51 52 54 56 57 66 63 63 67 71 70 70 71 69 68 70 70 69 66 68 68 64 71 74 -177 -177 -177 -177 -209 133 136 133 133 133 134 135 133 134 135 134 138 141 141 143 143 146 148 149 149 149 149 150 151 152 152 151 151 152 153 153 155 153 154 155 155 156 158 157 157 156 -209 147 150 -193 0 0 0 0 0
    0 0 0 0 0 0 0 0 0 0 0 0 0 0 0 0 0 0 0 0 0 0 0 0 0 0 0 0 0 0 0 0 0 0 0 0 0 0 0 0 0 0 0 0 0 0 0 0 0 0 0 0 0 0 0 0 0 0 0 0 0 0 0 0 0 0 0 0 0 71 -193 69 70 70 70 69 69 67 65 67 64 64 64 63 62 61 60 60 57 56 55 53 54 52 53 53 54 56 54 55 54 54 55 55 53 54 53 53 51 53 53 55 55 59 60 60 60 61 62 59 57 56 54 52 49 49 48 47 48 51 53 55 55 56 56 57 57 57 55 54 53 53 54 54 52 50 -225 -225 -225 -225 -225 -225 -225 -225 -225 -225 -225 -225 -225 -225 -225 -225 -225 -225 -225 -225 -225 -225 -225 -225 -225 -225 -225 -225 -225 -225 -225 -225 -225 -225 -225 -225 -225 -225 -225 -225 -225 -225 -225 -225 -225 -225 -225 -225 -225 -225 -225 -225 -225 -225 -225 -225 -225 -225 -225 -225 -225 -225 -225 -225 -225 -225 -225 26 36 47 47 47 50 47 49 47 46 46 45 44 45 43 46 44 49 52 54 54 53 52 52 53 52 54 53 52 52 54 56 57 65 64 63 67 71 69 70 71 68 68 69 69 68 66 68 68 65 71 74 -177 -177 -177 -177 -193 135 136 134 133 134 134 135 132 134 135 135 139 142 142 144 144 147 149 150 150 150 150 151 151 152 152 151 151 152 152 153 156 154 156 158 157 159 162 162 161 160 -209 147 153 155 0 0 0 0 0
    0 0 0 0 0 0 0 0 0 0 0 0 0 0 0 0 0 0 0 0 0 0 0 0 0 0 0 0 0 0 0 0 0 0 0 0 0 0 0 0 0 0 0 0 0 0 0 0 0 0 0 0 0 0 0 0 0 0 0 0 0 0 0 0 0 0 0 0 0 72 -193 -193 -193 71 70 69 69 67 64 67 64 63 64 63 63 62 61 61 58 58 57 55 56 53 54 54 55 56 55 56 55 55 55 55 54 54 54 53 52 52 54 55 58 62 67 65 64 64 65 62 60 57 55 54 51 51 50 48 51 54 55 57 56 57 57 59 59 58 56 55 55 55 56 55 53 51 -225 -225 -225 -225 -225 -225 -225 -225 -225 -225 -225 -225 -225 -225 -225 -225 -225 -225 -225 -225 -225 -225 -225 -225 -225 -225 -225 -225 -225 -225 -225 -225 -225 -225 -225 -225 -225 -225 -225 -225 -225 -225 -225 -225 -225 -225 -225 -225 -225 -225 -225 -225 -225 -225 -225 -225 -225 -225 -225 -225 -225 -225 -225 -225 -225 -225 -225 -225 36 48 48 48 51 48 50 47 47 47 45 45 46 44 46 44 50 54 55 57 55 55 54 56 56 57 55 53 51 53 55 56 66 65 64 67 71 69 69 70 68 67 68 68 67 66 68 68 65 71 73 -209 -209 -209 -209 -209 137 136 134 134 134 134 135 132 134 134 134 139 144 143 145 146 148 150 151 151 150 150 151 151 152 153 153 152 152 153 154 158 157 161 163 161 163 165 166 165 164 -209 138 151 -193 0 0 0 0 0
    0 0 0 0 0 0 0 0 0 0 0 0 0 0 0 0 0 0 0 0 0 0 0 0 0 0 0 0 0 0 0 0 0 0 0 0 0 0 0 0 0 0 0 0 0 0 0 0 0 0 0 0 0 0 0 0 0 0 0 0 0 0 0 0 0 0 0 0 0 71 -193 -193 -193 71 71 69 69 68 65 66 64 63 65 63 63 62 62 62 59 60 59 57 58 55 54 53 54 55 55 55 55 54 56 55 54 54 53 51 48 49 51 53 56 61 66 63 64 64 65 62 60 58 56 55 52 52 51 50 54 58 58 61 59 59 60 61 61 60 57 56 56 57 57 56 54 -225 -225 -225 -225 -225 -225 -225 -225 -225 -225 -225 -225 -225 -225 -225 -225 -225 -225 -225 -225 -225 -225 -225 -225 -225 -225 -225 -225 -225 -225 -225 -225 -225 -225 -225 -225 -225 -225 -225 -225 -225 -225 -225 -225 -225 -225 -225 -225 -225 -225 -225 -225 -225 -225 -225 -225 -225 -225 -225 -225 -225 -225 -225 -225 -225 -225 -225 -225 -225 -225 -225 -225 47 53 48 51 47 46 46 45 44 46 43 45 43 49 54 55 58 57 56 56 57 58 58 57 57 54 54 57 57 64 65 63 66 70 67 68 70 67 66 67 68 67 65 68 68 65 71 73 -209 -209 -209 -209 -209 136 135 134 134 134 134 134 132 134 134 134 139 145 144 146 147 148 150 151 152 151 150 151 151 153 153 154 153 153 154 156 161 161 165 167 165 166 168 169 169 169 -193 135 148 -193 0 0 0 0 0
    0 0 0 0 0 0 0 0 0 0 0 0 0 0 0 0 0 0 0 0 0 0 0 0 0 0 0 0 0 0 0 0 0 0 0 0 0 0 0 0 0 0 0 0 0 0 0 0 0 0 0 0 0 0 0 0 0 0 0 0 0 0 0 0 0 0 0 0 0 71 -193 -209 -193 71 71 -193 -193 -193 65 66 64 64 66 63 63 63 63 63 61 62 62 59 62 57 55 54 55 55 55 56 55 55 57 56 54 54 53 50 47 49 52 54 58 62 66 63 63 64 64 61 61 59 56 56 53 53 53 52 57 63 61 64 62 62 64 63 63 61 58 58 58 59 59 57 55 -225 -225 -225 -225 -225 -225 -225 -225 -225 -225 -225 -225 -225 -225 -225 -225 -225 -225 -225 -225 -225 -225 -225 -225 -225 -225 -225 -225 -225 -225 -225 -225 -225 -225 -225 -225 -225 -225 -225 -225 -225 -225 -225 -225 -225 -225 -225 -225 -225 -225 -225 -225 -225 -225 -225 -225 -225 -225 -225 -225 -225 -225 -225 -225 -225 -225 -225 -225 -225 -225 -225 -225 -225 -225 48 51 47 46 45 45 43 46 43 46 43 48 54 56 59 57 57 56 58 59 59 58 58 56 56 58 59 64 66 64 65 69 66 66 69 66 66 66 67 67 65 68 68 65 71 73 -209 -209 -209 -209 -209 133 135 133 134 134 134 134 133 134 135 135 139 145 145 147 147 148 150 152 152 151 150 151 152 153 154 155 154 154 155 157 162 162 166 168 167 167 169 169 170 169 -193 -209 -193 138 0 0 0 0 0
    0 0 0 0 0 0 0 0 0 0 0 0 0 0 0 0 0 0 0 0 0 0 0 0 0 0 0 0 0 0 0 0 0 0 0 0 0 0 0 0 0 0 0 0 0 0 0 0 0 0 0 0 0 0 0 0 0 0 0 0 0 0 0 0 0 0 0 0 0 71 -193 -209 -193 71 -193 -193 70 69 67 67 66 66 67 64 64 64 64 64 63 63 64 60 65 59 -193 57 58 58 59 58 58 57 59 58 57 56 56 51 50 54 57 57 61 63 65 64 64 64 65 63 62 59 57 56 55 54 54 54 62 67 64 66 65 67 67 65 64 62 59 59 60 60 59 58 -225 -225 -225 -225 -225 -225 -225 -225 -225 -225 -225 -225 -225 -225 -225 -225 -225 -225 -225 -225 -225 -225 -225 -225 -225 -225 -225 -225 -225 -225 -225 -225 -225 -225 -225 -225 -225 -225 -225 -225 -225 -225 -225 -225 -225 -225 -225 -225 -225 -225 -225 -225 -225 -225 -225 -225 -225 -225 -225 -225 -225 -225 -225 -225 -225 -225 -225 -225 -225 -225 -225 -225 -225 -225 -225 -225 50 44 43 42 42 40 44 43 44 43 47 53 55 58 57 57 56 58 59 59 59 59 57 60 60 61 66 68 66 65 69 66 66 69 66 65 65 67 66 64 68 68 65 71 73 -209 -209 -209 -209 -209 132 134 134 134 134 134 134 134 135 135 135 139 146 146 148 148 148 150 152 152 151 150 151 152 153 155 156 156 155 157 159 163 163 167 168 167 167 168 169 170 170 171 -209 157 157 0 0 0 0 0
    0 0 0 0 0 0 0 0 0 0 0 0 0 0 0 0 0 0 0 0 0 0 0 0 0 0 0 0 0 0 0 0 0 0 0 0 0 0 0 0 0 0 0 0 0 0 0 0 0 0 0 0 0 0 0 0 0 0 0 0 0 0 0 0 0 0 0 0 0 71 -193 -193 71 -193 -193 71 70 69 68 68 67 67 68 66 65 65 65 66 64 65 66 62 67 63 64 61 62 63 63 60 60 58 60 59 58 56 56 54 55 57 60 60 63 64 66 65 65 65 66 65 63 61 59 58 56 56 -193 -193 69 70 66 67 68 69 69 67 66 63 61 63 63 63 60 59 -225 -225 -225 -225 -225 -225 -225 -225 -225 -225 -225 -225 -225 -225 -225 -225 -225 -225 -225 -225 -225 -225 -225 -225 -225 -225 -225 -225 -225 -225 -225 -225 -225 -225 -225 -225 -225 -225 -225 -225 -225 -225 -225 -225 -225 -225 -225 -225 -225 -225 -225 -225 -225 -225 -225 -225 -225 -225 -225 -225 -225 -225 -225 -225 -225 -225 -225 -225 -225 -225 -225 -225 -225 -225 -225 -225 -225 -225 28 29 31 36 41 40 41 41 45 54 56 59 57 57 57 58 59 60 60 61 59 62 62 63 67 68 66 66 69 66 66 69 66 65 65 66 66 64 67 68 64 71 73 -209 -209 -209 -209 -209 130 134 134 135 134 135 134 135 136 136 137 139 146 147 148 148 148 151 153 153 152 150 151 151 153 154 155 156 156 159 163 165 165 167 168 168 168 168 168 169 170 171 168 164 165 0 0 0 0 0
    0 0 0 0 0 0 0 0 0 0 0 0 0 0 0 0 0 0 0 0 0 0 0 0 0 0 0 0 0 0 0 0 0 0 0 0 0 0 0 0 0 0 0 0 0 0 0 0 0 0 0 0 0 0 0 0 0 0 0 0 0 0 0 0 0 0 0 0 0 71 71 -193 70 70 70 70 69 69 68 68 68 68 69 66 66 66 66 67 66 67 68 64 70 68 71 -209 65 67 67 61 62 60 62 61 59 58 -193 -193 58 60 63 65 66 67 68 67 67 68 68 68 67 67 67 66 67 68 71 72 73 71 68 69 70 70 69 68 66 64 63 64 65 63 60 -225 -225 -225 -225 -225 -225 -225 -225 -225 -225 -225 -225 -225 -225 -225 -225 -225 -225 -225 -225 -225 -225 -225 -225 -225 -225 -225 -225 -225 -225 -225 -225 -225 -225 -225 -225 -225 -225 -225 -225 -225 -225 -225 -225 -225 -225 -225 -225 -225 -225 -225 -225 -225 -225 -225 -225 -225 -225 -225 -225 -225 -225 -225 -225 -225 -225 -225 -225 -225 -225 -225 -225 -225 -225 -225 -225 -225 -225 -225 -225 28 31 36 42 40 41 41 45 54 56 59 57 57 57 58 59 60 60 61 60 64 64 66 68 70 66 66 69 66 66 69 66 65 65 67 66 64 67 67 64 70 73 -209 -209 -209 -209 -209 127 133 134 135 135 135 135 136 136 137 137 138 144 146 147 147 147 151 153 153 151 149 150 150 151 152 153 154 154 157 162 164 165 167 168 168 168 168 169 170 171 171 169 166 167 0 0 0 0 0
    0 0 0 0 0 0 0 0 0 0 0 0 0 0 0 0 0 0 0 0 0 0 0 0 0 0 0 0 0 0 0 0 0 0 0 0 0 0 0 0 0 0 0 0 0 0 0 0 0 0 0 0 0 0 0 0 0 0 0 0 0 0 0 0 0 0 0 0 0 70 70 -193 69 69 70 70 69 69 69 69 69 69 70 68 67 67 67 68 67 68 68 63 69 69 -209 -209 62 65 64 61 62 60 63 63 62 63 65 65 68 67 68 69 69 69 69 68 69 70 70 70 70 72 73 73 75 73 75 75 75 72 69 70 71 70 70 68 67 65 65 67 66 63 61 -225 -225 -225 -225 -225 -225 -225 -225 -225 -225 -225 -225 -225 -225 -225 -225 -225 -225 -225 -225 -225 -225 -225 -225 -225 -225 -225 -225 -225 -225 -225 -225 -225 -225 -225 -225 -225 -225 -225 -225 -225 -225 -225 -225 -225 -225 -225 -225 -225 -225 -225 -225 -225 -225 -225 -225 -225 -225 -225 -225 -225 -225 -225 -225 -225 -225 -225 -225 -225 -225 -225 -225 -225 -225 -225 -225 -225 -225 -225 -225 -225 -225 35 41 39 41 40 44 52 55 58 57 57 56 57 58 60 59 62 60 64 63 66 69 70 67 67 68 66 66 69 66 64 64 66 66 64 67 67 63 70 72 -209 -209 -209 -209 -209 -209 133 135 135 135 136 136 136 137 137 138 137 141 144 145 145 145 150 153 153 150 148 149 149 150 150 151 152 154 157 162 163 164 167 167 168 168 169 170 171 172 173 170 170 169 0 0 0 0 0
    0 0 0 0 0 0 0 0 0 0 0 0 0 0 0 0 0 0 0 0 0 0 0 0 0 0 0 0 0 0 0 0 0 0 0 0 0 0 0 0 0 0 0 0 0 0 0 0 0 0 0 0 0 0 0 0 0 0 0 0 0 0 0 0 0 0 0 0 0 71 71 70 70 70 70 70 69 69 69 70 70 71 72 69 68 69 69 71 70 70 70 65 71 73 -209 -209 -193 66 67 63 65 62 64 65 64 67 68 68 70 70 70 70 70 70 70 69 70 70 70 71 72 73 74 74 75 75 75 75 74 71 69 70 71 71 70 69 67 66 67 68 67 64 -225 -225 -225 -225 -225 -225 -225 -225 -225 -225 -225 -225 -225 -225 -225 -225 -225 -225 -225 -225 -225 -225 -225 -225 -225 -225 -225 -225 -225 -225 -225 -225 -225 -225 -225 -225 -225 -225 -225 -225 -225 -225 -225 -225 -225 -225 -225 -225 -225 -225 -225 -225 -225 -225 -225 -225 -225 -225 -225 -225 -225 -225 -225 -225 -225 -225 -225 -225 -225 -225 -225 -225 -225 -225 -225 -225 -225 -225 -225 -225 -225 -225 -225 -225 -225 34 35 38 43 55 57 60 59 59 59 59 60 61 61 64 62 66 64 67 69 70 68 67 68 66 66 69 66 64 64 66 66 64 67 66 63 69 72 -209 -209 -209 -209 -209 -209 131 135 135 135 135 135 136 137 137 137 136 140 142 142 142 142 148 152 152 149 146 147 148 149 149 151 153 155 159 163 163 164 166 166 167 168 168 169 171 173 175 172 172 172 0 0 0 0 0
    0 0 0 0 0 0 0 0 0 0 0 0 0 0 0 0 0 0 0 0 0 0 0 0 0 0 0 0 0 0 0 0 0 0 0 0 0 0 0 0 0 0 0 0 0 0 0 0 0 0 0 0 0 0 0 0 0 0 0 0 0 0 0 0 0 0 0 0 0 72 72 71 70 70 71 71 71 70 71 71 72 72 73 71 69 70 71 73 72 73 73 70 74 87 90 92 -209 -193 -209 66 67 64 66 67 67 69 70 70 72 71 71 71 70 70 70 70 70 70 71 72 72 74 75 74 75 75 73 73 72 70 70 71 72 71 71 70 69 68 69 69 67 65 -225 -225 -225 -225 -225 -225 -225 -225 -225 -225 -225 -225 -225 -225 -225 -225 -225 -225 -225 -225 -225 -225 -225 -225 -225 -225 -225 -225 -225 -225 -225 -225 -225 -225 -225 -225 -225 -225 -225 -225 -225 -225 -225 -225 -225 -225 -225 -225 -225 -225 -225 -225 -225 -225 -225 -225 -225 -225 -225 -225 -225 -225 -225 -225 -225 -225 -225 -225 -225 -225 -225 -225 -225 -225 -225 -225 -225 -225 -225 -225 -225 -225 -225 -225 -225 -225 36 39 45 56 57 61 59 59 58 59 60 61 60 63 61 65 63 66 69 70 68 67 68 66 66 69 66 64 64 66 67 65 67 67 64 69 72 73 -209 -209 -209 -209 -209 129 135 134 134 134 135 136 137 137 137 135 139 140 140 141 140 143 150 150 146 144 145 147 149 149 151 154 157 159 162 162 162 164 164 165 166 165 167 170 172 174 171 172 172 0 0 0 0 0
    0 0 0 0 0 0 0 0 0 0 0 0 0 0 0 0 0 0 0 0 0 0 0 0 0 0 0 0 0 0 0 0 0 0 0 0 0 0 0 0 0 0 0 0 0 0 0 0 0 0 0 0 0 0 0 0 0 0 0 0 0 0 0 0 0 0 0 0 0 -193 72 -193 71 71 71 71 71 71 71 72 72 73 74 73 71 72 73 77 76 76 76 78 78 88 91 93 -193 -193 -193 67 68 67 68 69 69 71 72 72 73 73 72 73 71 72 71 71 71 71 72 73 73 75 77 74 76 77 74 74 74 71 72 73 74 73 72 71 70 70 71 70 68 -225 -225 -225 -225 -225 -225 -225 -225 -225 -225 -225 -225 -225 -225 -225 -225 -225 -225 -225 -225 -225 -225 -225 -225 -225 -225 -225 -225 -225 -225 -225 -225 -225 -225 -225 -225 -225 -225 -225 -225 -225 -225 -225 -225 -225 -225 -225 -225 -225 -225 -225 -225 -225 -225 -225 -225 -225 -225 -225 -225 -225 -225 -225 -225 -225 -225 -225 -225 -225 -225 -225 -225 -225 -225 -225 -225 -225 -225 -225 -225 -225 -225 -225 -225 -225 -225 -225 -225 -225 43 53 56 59 57 57 56 57 58 59 59 63 61 63 62 65 69 69 67 66 67 66 66 68 66 64 65 67 67 67 69 68 66 70 73 75 -209 -209 -209 -209 120 127 134 132 133 133 133 135 136 136 136 134 138 139 139 139 138 140 145 145 143 142 142 145 146 147 151 155 159 160 162 162 162 162 162 163 164 162 164 169 172 173 171 172 172 0 0 0 0 0
    0 0 0 0 0 0 0 0 0 0 0 0 0 0 0 0 0 0 0 0 0 0 0 0 0 0 0 0 0 0 0 0 0 0 0 0 0 0 0 0 0 0 0 0 0 0 0 0 0 0 0 0 0 0 0 0 0 0 0 0 0 0 0 0 0 0 0 0 0 -209 -193 -209 -193 71 71 71 71 71 71 72 72 73 73 74 73 75 74 79 79 78 77 81 76 84 -193 -209 -193 70 69 68 68 -193 69 70 71 72 74 73 75 74 73 73 72 72 72 71 71 71 72 73 73 75 77 73 76 76 74 74 75 72 74 75 76 74 73 73 72 72 73 71 69 -225 -225 -225 -225 -225 -225 -225 -225 -225 -225 -225 -225 -225 -225 -225 -225 -225 -225 -225 -225 -225 -225 -225 -225 -225 -225 -225 -225 -225 -225 -225 -225 -225 -225 -225 -225 -225 -225 -225 -225 -225 -225 -225 -225 -225 -225 -225 -225 -225 -225 -225 -225 -225 -225 -225 -225 -225 -225 -225 -225 -225 -225 -225 -225 -225 -225 -225 -225 -225 -225 -225 -225 -225 -225 -225 -225 -225 -225 -225 -225 -225 -225 -225 -225 -225 -225 -225 -225 -225 -225 -225 39 43 42 45 46 44 50 57 59 60 60 62 61 65 69 69 68 66 67 66 66 68 66 65 66 67 68 68 70 69 68 71 73 77 79 -209 -209 110 120 124 134 131 131 131 132 134 135 135 135 132 137 138 138 138 138 139 142 142 141 141 142 147 148 148 152 156 160 160 162 162 162 161 161 162 162 159 161 167 171 172 171 172 172 0 0 0 0 0
    0 0 0 0 0 0 0 0 0 0 0 0 0 0 0 0 0 0 0 0 0 0 0 0 0 0 0 0 0 0 0 0 0 0 0 0 0 0 0 0 0 0 0 0 0 0 0 0 0 0 0 0 0 0 0 0 0 0 0 0 0 0 0 0 0 0 0 0 0 -209 71 -193 71 71 72 71 71 71 72 73 73 74 74 75 75 78 78 84 85 82 81 86 83 -209 -193 -209 70 71 70 70 70 -193 71 73 73 74 75 75 75 75 74 74 73 73 73 72 73 72 73 74 74 79 80 -193 76 74 74 74 74 74 76 77 78 76 74 74 74 74 73 71 69 -225 -225 -225 -225 -225 -225 -225 -225 -225 -225 -225 -225 -225 -225 -225 -225 -225 -225 -225 -225 -225 -225 -225 -225 -225 -225 -225 -225 -225 -225 -225 -225 -225 -225 -225 -225 -225 -225 -225 -225 -225 -225 -225 -225 -225 -225 -225 -225 -225 -225 -225 -225 -225 -225 -225 -225 -225 -225 -225 -225 -225 -225 -225 -225 -225 -225 -225 -225 -225 -225 -225 -225 -225 -225 -225 -225 -225 -225 -225 -225 -225 -225 -225 -225 -225 -225 -225 -225 -225 -225 -225 -225 -225 39 41 42 43 45 53 54 58 58 60 60 64 69 69 68 67 68 66 66 68 67 66 67 68 69 70 71 71 70 73 74 78 80 -209 -209 116 121 122 132 129 129 129 131 133 134 135 135 131 137 138 138 138 137 139 141 141 141 -193 144 149 151 150 153 157 160 161 162 162 163 161 161 162 162 158 159 167 171 172 172 173 173 0 0 0 0 0
    0 0 0 0 0 0 0 0 0 0 0 0 0 0 0 0 0 0 0 0 0 0 0 0 0 0 0 0 0 0 0 0 0 0 0 0 0 0 0 0 0 0 0 0 0 0 0 0 0 0 0 0 0 0 0 0 0 0 0 0 0 0 0 0 0 0 0 0 0 -193 72 71 71 72 72 71 72 72 72 74 74 75 74 76 77 79 81 85 84 82 81 88 80 81 -193 80 -193 -193 -209 72 72 72 74 76 75 76 77 76 76 76 75 75 74 75 74 74 75 74 75 76 77 85 84 -193 79 74 73 74 73 77 78 79 79 76 75 75 75 76 74 73 -225 -225 -225 -225 -225 -225 -225 -225 -225 -225 -225 -225 -225 -225 -225 -225 -225 -225 -225 -225 -225 -225 -225 -225 -225 -225 -225 -225 -225 -225 -225 -225 -225 -225 -225 -225 -225 -225 -225 -225 -225 -225 -225 -225 -225 -225 -225 -225 -225 -225 -225 -225 -225 -225 -225 -225 -225 -225 -225 -225 -225 -225 -225 -225 -225 -225 -225 -225 -225 -225 -225 -225 -225 -225 -225 -225 -225 -225 -225 -225 -225 -225 -225 -225 -225 -225 -225 -225 -225 -225 -225 -225 -225 -225 -225 -225 46 47 50 53 52 55 56 56 56 61 67 65 66 65 66 65 66 67 66 66 67 69 70 71 72 72 72 73 74 78 80 -209 -209 -209 122 123 133 128 128 127 130 132 133 134 134 131 137 138 138 138 -209 139 -209 141 141 -209 -193 150 -193 151 155 157 160 160 162 163 163 162 162 162 164 160 162 169 172 173 173 173 174 0 0 0 0 0
    0 0 0 0 0 0 0 0 0 0 0 0 0 0 0 0 0 0 0 0 0 0 0 0 0 0 0 0 0 0 0 0 0 0 0 0 0 0 0 0 0 0 0 0 0 0 0 0 0 0 0 0 0 0 0 0 0 0 0 0 0 0 0 0 0 0 0 0 0 75 72 72 72 73 73 72 73 73 73 74 73 74 74 75 76 76 74 80 78 77 76 80 74 75 76 82 79 -209 -209 74 74 76 77 78 75 76 77 76 77 77 76 76 74 76 76 76 77 78 78 79 85 90 -193 -193 -193 -193 -193 72 76 81 81 81 80 77 76 76 77 76 74 72 -225 -225 -225 -225 -225 -225 -225 -225 -225 -225 -225 -225 -225 -225 -225 -225 -225 -225 -225 -225 -225 -225 -225 -225 -225 -225 -225 -225 -225 -225 -225 -225 -225 -225 -225 -225 -225 -225 -225 -225 -225 -225 -225 -225 -225 -225 -225 -225 -225 -225 -225 -225 -225 -225 -225 -225 -225 -225 -225 -225 -225 -225 -225 -225 -225 -225 -225 -225 -225 -225 -225 -225 -225 -225 -225 -225 -225 -225 -225 -225 -225 -225 -225 -225 -225 -225 -225 -225 -225 -225 -225 -225 -225 -225 -225 -225 -225 50 49 47 47 48 48 48 53 58 66 64 66 64 65 64 65 66 66 66 68 70 71 72 74 73 74 75 75 79 81 -209 -209 -209 -209 124 135 129 128 127 129 131 133 133 133 130 137 137 137 137 -209 140 142 141 143 -209 147 -193 -209 153 156 157 160 161 162 163 164 163 163 164 166 163 165 169 172 173 173 174 175 0 0 0 0 0
    0 0 0 0 0 0 0 0 0 0 0 0 0 0 0 0 0 0 0 0 0 0 0 0 0 0 0 0 0 0 0 0 0 0 0 0 0 0 0 0 0 0 0 0 0 0 0 0 0 0 0 0 0 0 0 0 0 0 0 0 0 0 0 0 0 0 0 0 0 77 75 74 74 74 74 73 74 74 73 74 74 73 73 74 75 74 72 77 77 76 76 77 76 77 80 85 87 -209 -209 76 77 78 78 78 75 76 77 76 77 76 76 75 74 76 76 75 78 78 78 81 89 92 -193 -193 -193 -193 -193 -193 83 82 82 82 80 78 78 78 79 77 75 -225 -225 -225 -225 -225 -225 -225 -225 -225 -225 -225 -225 -225 -225 -225 -225 -225 -225 -225 -225 -225 -225 -225 -225 -225 -225 -225 -225 -225 -225 -225 -225 -225 -225 -225 -225 -225 -225 -225 -225 -225 -225 -225 -225 -225 -225 -225 -225 -225 -225 -225 -225 -225 -225 -225 -225 -225 -225 -225 -225 -225 -225 -225 -225 -225 -225 -225 -225 -225 -225 -225 -225 -225 -225 -225 -225 -225 -225 -225 -225 -225 -225 -225 -225 -225 -225 -225 -225 -225 -225 -225 -225 -225 -225 -225 -225 -225 -225 -225 -225 44 45 46 47 47 51 56 62 60 66 63 64 63 64 64 66 66 68 69 72 73 75 74 75 76 76 79 81 -193 -209 -193 -193 -209 -193 129 129 127 128 130 132 133 133 130 137 137 138 138 -209 141 144 143 146 -209 -209 153 -209 154 157 158 160 161 162 163 164 164 164 164 166 165 166 169 172 172 173 173 174 0 0 0 0 0
    0 0 0 0 0 0 0 0 0 0 0 0 0 0 0 0 0 0 0 0 0 0 0 0 0 0 0 0 0 0 0 0 0 0 0 0 0 0 0 0 0 0 0 0 0 0 0 0 0 0 0 0 0 0 0 0 0 0 0 0 0 0 0 0 0 0 0 0 0 78 76 74 74 74 74 74 74 74 73 74 73 72 73 73 73 73 72 77 76 77 78 81 81 81 82 84 83 85 -209 78 78 79 80 80 76 77 78 77 78 77 76 75 74 77 76 76 78 78 79 83 91 95 -193 -193 -193 -193 -193 75 88 84 83 83 81 80 79 80 80 77 75 -225 -225 -225 -225 -225 -225 -225 -225 -225 -225 -225 -225 -225 -225 -225 -225 -225 -225 -225 -225 -225 -225 -225 -225 -225 -225 -225 -225 -225 -225 -225 -225 -225 -225 -225 -225 -225 -225 -225 -225 -225 -225 -225 -225 -225 -225 -225 -225 -225 -225 -225 -225 -225 -225 -225 -225 -225 -225 -225 -225 -225 -225 -225 -225 -225 -225 -225 -225 -225 -225 -225 -225 -225 -225 -225 -225 -225 -225 -225 -225 -225 -225 -225 -225 -225 -225 -225 -225 -225 -225 -225 -225 -225 -225 -225 -225 -225 -225 -225 -225 -225 -225 46 48 47 52 55 58 58 64 63 63 62 62 62 65 66 68 70 72 74 77 76 77 78 77 80 83 -209 -209 -193 -193 -209 -193 130 129 126 127 130 131 132 133 130 137 138 139 139 140 142 146 145 147 148 -209 154 155 155 158 160 161 162 162 163 164 164 165 165 166 166 167 -193 171 171 172 172 173 0 0 0 0 0
    0 0 0 0 0 0 0 0 0 0 0 0 0 0 0 0 0 0 0 0 0 0 0 0 0 0 0 0 0 0 0 0 0 0 0 0 0 0 0 0 0 0 0 0 0 0 0 0 0 0 0 0 0 0 0 0 0 0 0 0 0 0 0 0 0 0 0 0 0 79 76 75 75 74 74 74 75 74 73 75 74 73 73 73 73 72 73 78 76 78 80 82 84 84 85 86 85 87 88 84 83 83 83 83 79 79 80 79 81 80 79 77 76 81 81 81 84 84 85 84 89 91 87 84 87 85 86 86 89 86 85 84 83 83 83 83 82 78 -225 -225 -225 -225 -225 -225 -225 -225 -225 -225 -225 -225 -225 -225 -225 -225 -225 -225 -225 -225 -225 -225 -225 -225 -225 -225 -225 -225 -225 -225 -225 -225 -225 -225 -225 -225 -225 -225 -225 -225 -225 -225 -225 -225 -225 -225 -225 -225 -225 -225 -225 -225 -225 -225 -225 -225 -225 -225 -225 -225 -225 -225 -225 -225 -225 -225 -225 -225 -225 -225 -225 -225 -225 -225 -225 -225 -225 -225 -225 -225 -225 -225 -225 -225 -225 -225 -225 -225 -225 -225 -225 -225 -225 -225 -225 -225 -225 -225 -225 -225 -225 -225 -225 -225 -225 45 49 53 55 56 60 61 62 61 61 61 63 67 68 71 73 75 78 77 78 80 78 81 84 85 -209 -209 -209 -209 -193 130 129 126 127 129 131 132 133 131 138 139 139 139 140 142 145 144 146 148 150 154 155 156 160 162 162 163 163 164 165 165 166 165 167 167 -209 -193 171 171 171 171 172 0 0 0 0 0
    0 0 0 0 0 0 0 0 0 0 0 0 0 0 0 0 0 0 0 0 0 0 0 0 0 0 0 0 0 0 0 0 0 0 0 0 0 0 0 0 0 0 0 0 0 0 0 0 0 0 0 0 0 0 0 0 0 0 0 0 0 0 0 0 0 0 0 0 0 80 76 75 74 74 74 75 76 75 74 75 74 74 74 74 75 73 75 79 78 80 81 84 85 85 86 87 87 89 90 89 88 87 86 85 82 82 82 81 83 82 83 82 81 85 86 85 86 85 86 84 88 88 85 83 87 86 88 89 90 88 87 86 86 85 85 85 82 78 -225 -225 -225 -225 -225 -225 -225 -225 -225 -225 -225 -225 -225 -225 -225 -225 -225 -225 -225 -225 -225 -225 -225 -225 -225 -225 -225 -225 -225 -225 -225 -225 -225 -225 -225 -225 -225 -225 -225 -225 -225 -225 -225 -225 -225 -225 -225 -225 -225 -225 -225 -225 -225 -225 -225 -225 -225 -225 -225 -225 -225 -225 -225 -225 -225 -225 -225 -225 -225 -225 -225 -225 -225 -225 -225 -225 -225 -225 -225 -225 -225 -225 -225 -225 -225 -225 -225 -225 -225 -225 -225 -225 -225 -225 -225 -225 -225 -225 -225 -225 -225 -225 -225 -225 -225 -225 -225 52 54 55 57 59 59 59 59 59 61 66 67 70 72 74 78 77 79 80 79 81 84 86 -209 -209 -193 -209 155 130 129 125 126 128 130 132 133 131 138 139 140 140 140 142 145 144 144 146 149 154 -209 -193 161 163 164 164 165 165 166 166 -193 166 -193 -193 -177 -177 -193 170 170 170 171 0 0 0 0 0
    0 0 0 0 0 0 0 0 0 0 0 0 0 0 0 0 0 0 0 0 0 0 0 0 0 0 0 0 0 0 0 0 0 0 0 0 0 0 0 0 0 0 0 0 0 0 0 0 0 0 0 0 0 0 0 0 0 0 0 0 0 0 0 0 0 0 0 0 0 81 77 -209 -193 -209 -209 75 78 77 76 77 76 76 76 75 78 76 78 82 80 82 82 84 85 85 85 86 87 88 89 89 89 87 87 86 83 84 84 83 85 83 84 85 87 89 89 88 -193 83 86 80 83 87 84 83 86 87 89 91 91 89 87 87 87 87 87 86 83 -225 -225 -225 -225 -225 -225 -225 -225 -225 -225 -225 -225 -225 -225 -225 -225 -225 -225 -225 -225 -225 -225 -225 -225 -225 -225 -225 -225 -225 -225 -225 -225 -225 -225 -225 -225 -225 -225 -225 -225 -225 -225 -225 -225 -225 -225 -225 -225 -225 -225 -225 -225 -225 -225 -225 -225 -225 -225 -225 -225 -225 -225 -225 -225 -225 -225 -225 -225 -225 -225 -225 -225 -225 -225 -225 -225 -225 -225 -225 -225 -225 -225 -225 -225 -225 -225 -225 -225 -225 -225 -225 -225 -225 -225 -225 -225 -225 -225 -225 -225 -225 -225 -225 -225 -225 -225 -225 -225 -225 52 54 57 57 59 58 58 57 59 65 67 69 72 73 77 76 79 79 79 80 83 86 -209 -209 -209 -193 156 -193 130 124 126 128 130 132 133 132 138 140 140 140 140 142 145 143 143 146 148 153 -209 -209 160 164 165 165 165 166 166 167 -193 -193 -193 -193 -177 -177 -193 -193 170 169 170 0 0 0 0 0
    0 0 0 0 0 0 0 0 0 0 0 0 0 0 0 0 0 0 0 0 0 0 0 0 0 0 0 0 0 0 0 0 0 0 0 0 0 0 0 0 0 0 0 0 0 0 0 0 0 0 0 0 0 0 0 0 0 0 0 0 0 0 0 0 0 0 0 0 0 81 79 -209 -209 -193 -193 78 82 82 81 83 80 81 79 77 81 79 81 84 83 83 84 85 86 85 86 87 87 88 89 89 89 88 88 86 85 86 86 85 87 86 87 88 90 91 90 90 -193 -193 -193 -193 -193 -209 85 85 86 88 91 92 92 90 88 89 89 89 89 87 84 -225 -225 -225 -225 -225 -225 -225 -225 -225 -225 -225 -225 -225 -225 -225 -225 -225 -225 -225 -225 -225 -225 -225 -225 -225 -225 -225 -225 -225 -225 -225 -225 -225 -225 -225 -225 -225 -225 -225 -225 -225 -225 -225 -225 -225 -225 -225 -225 -225 -225 -225 -225 -225 -225 -225 -225 -225 -225 -225 -225 -225 -225 -225 -225 -225 -225 -225 -225 -225 -225 -225 -225 -225 -225 -225 -225 -225 -225 -225 -225 -225 -225 -225 -225 -225 -225 -225 -225 -225 -225 -225 -225 -225 -225 -225 -225 -225 -225 -225 -225 -225 -225 -225 -225 -225 -225 -225 -225 -225 55 55 55 55 54 54 52 50 54 60 65 69 72 73 77 76 79 79 79 80 83 85 -209 -193 -193 -193 155 -193 131 125 127 129 129 133 133 132 138 140 140 141 141 143 145 144 144 147 148 153 -209 -209 159 163 164 165 165 166 166 -193 -193 -193 -193 -177 -177 -177 -209 170 169 168 169 0 0 0 0 0
    0 0 0 0 0 0 0 0 0 0 0 0 0 0 0 0 0 0 0 0 0 0 0 0 0 0 0 0 0 0 0 0 0 0 0 0 0 0 0 0 0 0 0 0 0 0 0 0 0 0 0 0 0 0 0 0 0 0 0 0 0 0 0 0 0 0 0 0 0 82 82 -193 -193 -209 -209 84 86 87 86 87 85 85 82 78 82 79 81 84 83 84 85 86 87 87 87 88 88 89 91 90 89 88 88 87 86 87 87 86 87 87 87 89 90 91 90 90 -193 -193 -209 -209 -193 -193 85 86 85 89 92 93 93 90 89 90 90 90 90 88 -225 -225 -225 -225 -225 -225 -225 -225 -225 -225 -225 -225 -225 -225 -225 -225 -225 -225 -225 -225 -225 -225 -225 -225 -225 -225 -225 -225 -225 -225 -225 -225 -225 -225 -225 -225 -225 -225 -225 -225 -225 -225 -225 -225 -225 -225 -225 -225 -225 -225 -225 -225 -225 -225 -225 -225 -225 -225 -225 -225 -225 -225 -225 -225 -225 -225 -225 -225 -225 -225 -225 -225 -225 -225 -225 -225 -225 -225 -225 -225 -225 -225 -225 -225 -225 -225 -225 -225 -225 -225 -225 -225 -225 -225 -225 -225 -225 -225 -225 -225 -225 -225 -225 -225 -225 -225 -225 -225 -225 -225 -209 -209 -193 -209 -209 53 52 51 53 56 60 65 70 72 77 76 79 80 80 81 84 86 -209 -177 -193 -193 154 -193 132 127 127 129 129 133 134 133 138 141 141 141 141 143 145 144 143 146 147 152 -209 -209 -209 162 164 164 165 165 165 -193 309 -193 -193 -193 -177 -177 -193 171 170 169 169 0 0 0 0 0
    0 0 0 0 0 0 0 0 0 0 0 0 0 0 0 0 0 0 0 0 0 0 0 0 0 0 0 0 0 0 0 0 0 0 0 0 0 0 0 0 0 0 0 0 0 0 0 0 0 0 0 0 0 0 0 0 0 0 0 0 0 0 0 0 0 0 0 0 0 84 85 88 87 -193 -209 -193 88 89 89 90 88 87 84 81 83 81 83 85 84 85 85 86 87 87 88 88 88 90 90 90 89 88 88 88 87 88 88 88 88 88 88 89 90 90 90 91 90 90 -193 -193 -193 87 85 86 86 89 92 92 93 90 90 91 92 92 91 89 -225 -225 -225 -225 -225 -225 -225 -225 -225 -225 -225 -225 -225 -225 -225 -225 -225 -225 -225 -225 -225 -225 -225 -225 -225 -225 -225 -225 -225 -225 -225 -225 -225 -225 -225 -225 -225 -225 -225 -225 -225 -225 -225 -225 -225 -225 -225 -225 -225 -225 -225 -225 -225 -225 -225 -225 -225 -225 -225 -225 -225 -225 -225 -225 -225 -225 -225 -225 -225 -225 -225 -225 -225 -225 -225 -225 -225 -225 -225 -225 -225 -225 -225 -225 -225 -225 -225 -225 -225 -225 -225 -225 -225 -225 -225 -225 -225 -225 -225 -225 -225 -225 -225 -225 -225 -225 -225 -225 -225 -225 -209 -209 -209 -209 -209 -209 -209 49 50 54 59 66 70 73 77 76 79 81 81 82 84 87 -193 -193 -193 -193 -193 -193 -193 127 127 130 129 133 134 134 138 141 141 141 141 142 145 143 143 146 146 151 -209 -209 -209 161 163 163 164 164 164 -193 -193 -193 -193 -209 -177 -193 -193 172 171 170 170 0 0 0 0 0
    0 0 0 0 0 0 0 0 0 0 0 0 0 0 0 0 0 0 0 0 0 0 0 0 0 0 0 0 0 0 0 0 0 0 0 0 0 0 0 0 0 0 0 0 0 0 0 0 0 0 0 0 0 0 0 0 0 0 0 0 0 0 0 0 0 0 0 0 0 -209 -193 -209 -193 94 -209 89 90 91 90 92 90 90 87 84 85 84 84 86 85 85 85 86 87 88 88 88 88 90 91 91 91 91 90 90 89 91 91 89 88 88 89 90 91 91 91 91 90 90 -193 -193 89 86 85 86 86 89 92 93 93 91 90 92 93 93 92 90 -225 -225 -225 -225 -225 -225 -225 -225 -225 -225 -225 -225 -225 -225 -225 -225 -225 -225 -225 -225 -225 -225 -225 -225 -225 -225 -225 -225 -225 -225 -225 -225 -225 -225 -225 -225 -225 -225 -225 -225 -225 -225 -225 -225 -225 -225 -225 -225 -225 -225 -225 -225 -225 -225 -225 -225 -225 -225 -225 -225 -225 -225 -225 -225 -225 -225 -225 -225 -225 -225 -225 -225 -225 -225 -225 -225 -225 -225 -225 -225 -225 -225 -225 -225 -225 -225 -225 -225 -225 -225 -225 -225 -225 -225 -225 -225 -225 -225 -225 -225 -225 -225 -225 -225 -225 -225 -225 -225 -225 -225 -209 -209 -209 -209 -209 -209 -209 -209 43 51 57 62 67 73 76 75 79 81 82 83 85 88 89 -193 98 -177 -209 -193 -193 125 127 130 129 133 135 134 139 141 141 141 141 142 145 143 143 146 145 150 152 -209 -209 160 161 161 162 163 163 -193 -193 -193 -193 -193 -193 -193 -193 -193 -193 170 170 0 0 0 0 0
    0 0 0 0 0 0 0 0 0 0 0 0 0 0 0 0 0 0 0 0 0 0 0 0 0 0 0 0 0 0 0 0 0 0 0 0 0 0 0 0 0 0 0 0 0 0 0 0 0 0 0 0 0 0 0 0 0 0 0 0 0 0 0 0 0 0 0 0 0 -209 -209 -209 -209 96 -193 90 91 92 91 93 92 92 89 87 87 86 85 87 85 85 86 86 87 88 88 89 89 90 93 94 95 95 94 93 90 92 92 90 88 89 89 90 91 91 91 92 91 91 91 90 89 86 85 85 85 89 91 92 92 91 91 93 96 95 93 -225 -225 -225 -225 -225 -225 -225 -225 -225 -225 -225 -225 -225 -225 -225 -225 -225 -225 -225 -225 -225 -225 -225 -225 -225 -225 -225 -225 -225 -225 -225 -225 -225 -225 -225 -225 -225 -225 -225 -225 -225 -225 -225 -225 -225 -225 -225 -225 -225 -225 -225 -225 -225 -225 -225 -225 -225 -225 -225 -225 -225 -225 -225 -225 -225 -225 -225 -225 -225 -225 -225 -225 -225 -225 -225 -225 -225 -225 -225 -225 -225 -225 -225 -225 -225 -225 -225 -225 -225 -225 -225 -225 -225 -225 -225 -225 -225 -225 -225 -225 -225 -225 -225 -225 -225 -225 -225 -225 -225 -225 -225 -209 -209 -209 -209 -209 -209 -209 -209 -209 48 -209 -209 68 74 75 75 81 81 84 85 86 89 90 90 99 -193 -209 -193 -193 123 126 130 129 133 135 135 139 141 141 141 140 142 144 142 143 146 144 150 152 -209 -209 159 160 160 161 162 163 166 -193 -193 -193 -193 -193 -193 -193 -193 -193 171 171 0 0 0 0 0
    0 0 0 0 0 0 0 0 0 0 0 0 0 0 0 0 0 0 0 0 0 0 0 0 0 0 0 0 0 0 0 0 0 0 0 0 0 0 0 0 0 0 0 0 0 0 0 0 0 0 0 0 0 0 0 0 0 0 0 0 0 0 0 0 0 0 0 0 0 98 -193 -209 -209 94 91 90 92 94 93 95 94 96 93 91 89 87 86 88 87 86 86 88 88 89 90 92 90 92 96 97 98 99 -193 -193 92 93 94 91 89 89 90 91 92 92 92 93 91 91 91 91 89 86 85 85 85 89 92 94 92 92 91 94 97 96 94 -225 -225 -225 -225 -225 -225 -225 -225 -225 -225 -225 -225 -225 -225 -225 -225 -225 -225 -225 -225 -225 -225 -225 -225 -225 -225 -225 -225 -225 -225 -225 -225 -225 -225 -225 -225 -225 -225 -225 -225 -225 -225 -225 -225 -225 -225 -225 -225 -225 -225 -225 -225 -225 -225 -225 -225 -225 -225 -225 -225 -225 -225 -225 -225 -225 -225 -225 -225 -225 -225 -225 -225 -225 -225 -225 -225 -225 -225 -225 -225 -225 -225 -225 -225 -225 -225 -225 -225 -225 -225 -225 -225 -225 -225 -225 -225 -225 -225 -225 -225 -225 -225 -225 -225 -225 -225 -225 -225 -225 -225 -225 -225 -209 -209 -209 -209 -209 -209 -209 -209 -209 -209 -209 -209 74 76 75 80 79 83 85 86 90 91 90 99 -193 -209 -209 -209 122 125 129 129 134 136 136 139 141 140 141 140 142 144 142 143 146 144 150 151 -209 -209 157 159 159 160 161 162 166 -193 -193 -193 -193 -193 -193 171 173 -193 171 171 0 0 0 0 0
    0 0 0 0 0 0 0 0 0 0 0 0 0 0 0 0 0 0 0 0 0 0 0 0 0 0 0 0 0 0 0 0 0 0 0 0 0 0 0 0 0 0 0 0 0 0 0 0 0 0 0 0 0 0 0 0 0 0 0 0 0 0 0 0 0 0 0 0 0 105 -209 -209 -209 93 -193 -193 92 93 94 96 96 100 97 99 97 93 89 89 88 88 88 89 89 89 -193 94 93 94 100 98 100 -193 142 -193 -193 94 94 91 89 89 89 90 91 92 92 93 91 92 91 91 90 87 86 86 86 90 94 95 93 93 92 96 99 98 -225 -225 -225 -225 -225 -225 -225 -225 -225 -225 -225 -225 -225 -225 -225 -225 -225 -225 -225 -225 -225 -225 -225 -225 -225 -225 -225 -225 -225 -225 -225 -225 -225 -225 -225 -225 -225 -225 -225 -225 -225 -225 -225 -225 -225 -225 -225 -225 -225 -225 -225 -225 -225 -225 -225 -225 -225 -225 -225 -225 -225 -225 -225 -225 -225 -225 -225 -225 -225 -225 -225 -225 -225 -225 -225 -225 -225 -225 -225 -225 -225 -225 -225 -225 -225 -225 -225 -225 -225 -225 -225 -225 -225 -225 -225 -225 -225 -225 -225 -225 -225 -225 -225 -225 -225 -225 -225 -225 -225 -225 -225 -225 -225 -209 -209 -209 -209 -209 -209 -209 -209 -209 -209 -209 -209 75 78 77 80 77 82 84 86 90 92 93 102 -193 -209 -193 -193 -193 125 130 129 134 136 136 139 141 140 140 140 142 144 141 143 145 144 150 151 -209 -209 156 157 157 158 159 161 165 -193 168 169 170 -193 172 172 173 172 171 172 0 0 0 0 0
    0 0 0 0 0 0 0 0 0 0 0 0 0 0 0 0 0 0 0 0 0 0 0 0 0 0 0 0 0 0 0 0 0 0 0 0 0 0 0 0 0 0 0 0 0 0 0 0 0 0 0 0 0 0 0 0 0 0 0 0 0 0 0 0 0 0 0 0 0 106 103 101 93 95 92 92 93 94 95 96 96 101 102 106 104 103 93 92 91 91 91 91 90 90 -193 96 99 100 105 -193 -177 127 140 145 152 94 94 91 89 89 89 90 91 91 91 93 91 92 92 92 91 88 86 87 85 90 95 94 93 93 92 98 101 99 -225 -225 -225 -225 -225 -225 -225 -225 -225 -225 -225 -225 -225 -225 -225 -225 -225 -225 -225 -225 -225 -225 -225 -225 -225 -225 -225 -225 -225 -225 -225 -225 -225 -225 -225 -225 -225 -225 -225 -225 -225 -225 -225 -225 -225 -225 -225 -225 -225 -225 -225 -225 -225 -225 -225 -225 -225 -225 -225 -225 -225 -225 -225 -225 -225 -225 -225 -225 -225 -225 -225 -225 -225 -225 -225 -225 -225 -225 -225 -225 -225 -225 -225 -225 -225 -225 -225 -225 -225 -225 -225 -225 -225 -225 -225 -225 -225 -225 -225 -225 -225 -225 -225 -225 -225 -225 -225 -225 -225 -225 -225 -225 -225 -209 -209 -209 -209 -209 -209 -209 -209 -209 -209 -209 -209 -209 80 79 79 78 81 84 85 91 -193 -209 107 118 125 -193 -193 -193 124 130 129 134 136 136 138 141 139 140 139 142 143 141 143 146 144 150 151 -193 -193 155 156 156 156 157 159 164 168 169 169 170 171 173 172 174 173 172 172 0 0 0 0 0
    0 0 0 0 0 0 0 0 0 0 0 0 0 0 0 0 0 0 0 0 0 0 0 0 0 0 0 0 0 0 0 0 0 0 0 0 0 0 0 0 0 0 0 0 0 0 0 0 0 0 0 0 0 0 0 0 0 0 0 0 0 0 0 0 0 0 0 0 0 -193 101 102 94 97 93 93 94 96 96 98 99 103 103 111 109 107 101 96 95 95 97 97 94 96 97 100 106 108 112 116 115 125 137 138 140 96 95 91 88 89 89 90 90 90 90 92 90 93 93 93 92 88 86 87 85 91 95 93 93 92 92 100 102 -225 -225 -225 -225 -225 -225 -225 -225 -225 -225 -225 -225 -225 -225 -225 -225 -225 -225 -225 -225 -225 -225 -225 -225 -225 -225 -225 -225 -225 -225 -225 -225 -225 -225 -225 -225 -225 -225 -225 -225 -225 -225 -225 -225 -225 -225 -225 -225 -225 -225 -225 -225 -225 -225 -225 -225 -225 -225 -225 -225 -225 -225 -225 -225 -225 -225 -225 -225 -225 -225 -225 -225 -225 -225 -225 -225 -225 -225 -225 -225 -225 -225 -225 -225 -225 -225 -225 -225 -225 -225 -225 -225 -225 -225 -225 -225 -225 -225 -225 -225 -225 -225 -225 -225 -225 -225 -225 -225 -225 -225 -225 -225 -225 -225 -209 -209 -209 -209 -209 -209 -209 -209 -209 -209 -209 -209 -209 -209 -209 -209 80 83 86 86 91 98 -209 109 120 125 -193 -177 -177 124 131 129 134 136 136 138 140 138 140 139 141 143 141 143 146 145 150 152 153 154 156 156 156 156 157 158 163 -193 -193 -193 171 172 173 173 175 174 172 172 0 0 0 0 0
    0 0 0 0 0 0 0 0 0 0 0 0 0 0 0 0 0 0 0 0 0 0 0 0 0 0 0 0 0 0 0 0 0 0 0 0 0 0 0 0 0 0 0 0 0 0 0 0 0 0 0 0 0 0 0 0 0 0 0 0 0 0 0 0 0 0 0 0 0 -193 97 101 100 100 97 97 98 100 100 100 100 -193 -193 113 111 107 102 97 98 99 101 100 99 102 -209 -193 111 118 115 114 116 122 133 135 -209 98 97 91 88 89 89 90 90 89 90 92 91 94 93 93 92 88 86 86 86 90 91 91 91 90 92 101 -225 -225 -225 -225 -225 -225 -225 -225 -225 -225 -225 -225 -225 -225 -225 -225 -225 -225 -225 -225 -225 -225 -225 -225 -225 -225 -225 -225 -225 -225 -225 -225 -225 -225 -225 -225 -225 -225 -225 -225 -225 -225 -225 -225 -225 -225 -225 -225 -225 -225 -225 -225 -225 -225 -225 -225 -225 -225 -225 -225 -225 -225 -225 -225 -225 -225 -225 -225 -225 -225 -225 -225 -225 -225 -225 -225 -225 -225 -225 -225 -225 -225 -225 -225 -225 -225 -225 -225 -225 -225 -225 -225 -225 -225 -225 -225 -225 -225 -225 -225 -225 -225 -225 -225 -225 -225 -225 -225 -225 -225 -225 -225 -225 -225 -225 -209 -209 -209 -209 -209 -209 -209 -209 -209 -209 -209 -209 -209 -209 -209 -209 -209 84 87 87 91 -193 -209 106 114 120 -209 -177 -177 -193 130 129 134 136 136 137 138 137 138 138 141 142 139 141 144 143 149 151 -193 154 156 156 156 155 156 157 162 -193 -193 -193 -193 171 173 172 174 173 171 171 0 0 0 0 0
    0 0 0 0 0 0 0 0 0 0 0 0 0 0 0 0 0 0 0 0 0 0 0 0 0 0 0 0 0 0 0 0 0 0 0 0 0 0 0 0 0 0 0 0 0 0 0 0 0 0 0 0 0 0 0 0 0 0 0 0 0 0 0 0 0 0 0 0 0 105 101 101 104 104 -193 101 101 101 101 102 104 108 112 115 115 108 103 98 98 100 101 102 101 103 -209 107 114 118 115 112 115 116 120 120 113 104 104 -209 91 91 -225 -225 -225 -225 -225 -225 -225 -225 -225 -225 -225 -225 -225 -225 -225 89 -225 -225 -225 -225 -225 -225 -225 -225 -225 -225 -225 -225 -225 -225 -225 -225 -225 -225 -225 -225 -225 -225 -225 -225 -225 -225 -225 -225 -225 -225 -225 -225 -225 -225 -225 -225 -225 -225 -225 -225 -225 -225 -225 -225 -225 -225 -225 -225 -225 -225 -225 -225 -225 -225 -225 -225 -225 -225 -225 -225 -225 -225 -225 -225 -225 -225 -225 -225 -225 -225 -225 -225 -225 -225 -225 -225 -225 -225 -225 -225 -225 -225 -225 -225 -225 -225 -225 -225 -225 -225 -225 -225 -225 -225 -225 -225 -225 -225 -225 -225 -225 -225 -225 -225 -225 -225 -225 -225 -225 -225 -225 -225 -225 -225 -225 -225 -225 -225 -225 -225 -225 -209 -209 -209 -209 -209 -209 -209 -209 -209 -209 -209 -209 -209 -209 -209 -209 -209 -209 -209 -193 -209 -193 -209 104 106 107 114 -177 -193 121 127 128 132 135 135 135 135 135 136 137 139 140 138 139 141 141 148 151 -209 154 155 156 155 155 156 157 162 -193 -193 -193 -193 170 172 172 173 172 170 170 0 0 0 0 0
    0 0 0 0 0 0 0 0 0 0 0 0 0 0 0 0 0 0 0 0 0 0 0 0 0 0 0 0 0 0 0 0 0 0 0 0 0 0 0 0 0 0 0 0 0 0 0 0 0 0 0 0 0 0 0 0 0 0 0 0 0 0 0 0 0 0 0 0 0 106 105 104 106 107 106 -193 -193 102 102 -193 -193 108 112 115 115 111 106 101 100 101 104 103 103 105 106 109 115 118 116 111 113 114 118 117 114 110 -225 -225 -225 -225 -225 -225 -225 -225 -225 -225 -225 -225 -225 -225 -225 -225 -225 -225 -225 -225 -225 -225 -225 -225 -225 -225 -225 -225 -225 -225 -225 -225 -225 -225 -225 -225 -225 -225 -225 -225 -225 -225 -225 -225 -225 -225 -225 -225 -225 -225 -225 -225 -225 -225 -225 -225 -225 -225 -225 -225 -225 -225 -225 -225 -225 -225 -225 -225 -225 -225 -225 -225 -225 -225 -225 -225 -225 -225 -225 -225 -225 -225 -225 -225 -225 -225 -225 -225 -225 -225 -225 -225 -225 -225 -225 -225 -225 -225 -225 -225 -225 -225 -225 -225 -225 -225 -225 -225 -225 -225 -225 -225 -225 -225 -225 -225 -225 -225 -225 -225 -225 -225 -225 -225 -225 -225 -225 -225 -225 -225 -225 -225 -225 -225 -225 -225 -225 -225 -225 -225 -225 -225 -193 -193 -209 -209 -209 -209 -209 -209 -209 -209 -209 -209 -209 -209 -209 -209 -209 -209 -209 -209 -209 -193 98 100 103 112 -209 119 122 127 127 131 132 132 132 130 132 133 134 137 137 134 137 139 141 147 150 -209 -209 155 156 156 156 156 157 163 168 169 -193 -193 169 171 170 172 171 169 169 0 0 0 0 0
    0 0 0 0 0 0 0 0 0 0 0 0 0 0 0 0 0 0 0 0 0 0 0 0 0 0 0 0 0 0 0 0 0 0 0 0 0 0 0 0 0 0 0 0 0 0 0 0 0 0 0 0 0 0 0 0 0 0 0 0 0 0 0 0 0 0 0 0 0 106 106 106 108 111 105 104 104 102 102 -193 -193 107 109 114 115 111 107 104 102 103 106 105 104 106 108 113 117 118 116 111 112 112 114 113 -225 -225 -225 -225 -225 -225 -225 -225 -225 -225 -225 -225 -225 -225 -225 -225 -225 -225 -225 -225 -225 -225 -225 -225 -225 -225 -225 -225 -225 -225 -225 -225 -225 -225 -225 -225 -225 -225 -225 -225 -225 -225 -225 -225 -225 -225 -225 -225 -225 -225 -225 -225 -225 -225 -225 -225 -225 -225 -225 -225 -225 -225 -225 -225 -225 -225 -225 -225 -225 -225 -225 -225 -225 -225 -225 -225 -225 -225 -225 -225 -225 -225 -225 -225 -225 -225 -225 -225 -225 -225 -225 -225 -225 -225 -225 -225 -225 -225 -225 -225 -225 -225 -225 -225 -225 -225 -225 -225 -225 -225 -225 -225 -225 -225 -225 -225 -225 -225 -225 -225 -225 -225 -225 -225 -225 -225 -225 -225 -225 -225 -225 -225 -225 -225 -225 -225 -225 -225 -225 -225 -225 -225 -225 -225 0 -193 -209 -209 -209 -209 -209 -209 -209 -209 -209 -209 -209 -209 -209 -209 -209 -209 95 95 95 97 100 101 104 113 121 122 124 126 127 130 130 129 130 125 127 127 128 131 127 129 133 -193 138 143 147 -209 -209 155 155 155 155 156 157 163 168 169 170 169 169 170 170 170 170 168 168 0 0 0 0 0
    0 0 0 0 0 0 0 0 0 0 0 0 0 0 0 0 0 0 0 0 0 0 0 0 0 0 0 0 0 0 0 0 0 0 0 0 0 0 0 0 0 0 0 0 0 0 0 0 0 0 0 0 0 0 0 0 0 0 0 0 0 0 0 0 0 0 0 0 0 108 107 110 113 119 -209 104 106 104 103 -193 106 106 108 112 113 109 107 105 103 103 106 105 105 107 109 112 116 118 116 111 112 110 110 109 -225 -225 -225 -225 -225 -225 -225 -225 -225 -225 -225 -225 -225 -225 -225 -225 -225 -225 -225 -225 -225 -225 -225 -225 -225 -225 -225 -225 -225 -225 -225 -225 -225 -225 -225 -225 -225 -225 -225 -225 -225 -225 -225 -225 -225 -225 -225 -225 -225 -225 -225 -225 -225 -225 -225 -225 -225 -225 -225 -225 -225 -225 -225 -225 -225 -225 -225 -225 -225 -225 -225 -225 -225 -225 -225 -225 -225 -225 -225 -225 -225 -225 -225 -225 -225 -225 -225 -225 -225 -225 -225 -225 -225 -225 -225 -225 -225 -225 -225 -225 -225 -225 -225 -225 -225 -225 -225 -225 -225 -225 -225 -225 -225 -225 -225 -225 -225 -225 -225 -225 -225 -225 -225 -225 -225 -225 -225 -225 -225 -225 -225 -225 -225 -225 -225 -225 -225 -225 -225 -225 -225 -225 -225 -225 0 0 -209 -209 -209 -209 -209 -209 -209 -209 -209 -209 -209 -209 -209 -209 -209 -209 100 99 100 101 104 105 105 116 123 125 126 127 127 129 129 128 129 124 125 125 126 126 124 127 130 129 132 137 140 148 -209 154 155 154 155 155 157 164 170 171 171 170 169 170 170 170 170 168 168 0 0 0 0 0
    0 0 0 0 0 0 0 0 0 0 0 0 0 0 0 0 0 0 0 0 0 0 0 0 0 0 0 0 0 0 0 0 0 0 0 0 0 0 0 0 0 0 0 0 0 0 0 0 0 0 0 0 0 0 0 0 0 0 0 0 0 0 0 0 0 0 0 0 0 110 110 114 116 -193 -209 104 106 103 103 -193 -193 106 108 112 113 108 107 104 102 103 106 105 104 106 108 -209 -193 117 115 110 110 109 110 109 -225 -225 -225 -225 -225 -225 -225 -225 -225 -225 -225 -225 -225 -225 -225 -225 -225 -225 -225 -225 -225 -225 -225 -225 -225 -225 -225 -225 -225 -225 -225 -225 -225 -225 -225 -225 -225 -225 -225 -225 -225 -225 -225 -225 -225 -225 -225 -225 -225 -225 -225 -225 -225 -225 -225 -225 -225 -225 -225 -225 -225 -225 -225 -225 -225 -225 -225 -225 -225 -225 -225 -225 -225 -225 -225 -225 -225 -225 -225 -225 -225 -225 -225 -225 -225 -225 -225 -225 -225 -225 -225 -225 -225 -225 -225 -225 -225 -225 -225 -225 -225 -225 -225 -225 -225 -225 -225 -225 -225 -225 -225 -225 -225 -225 -225 -225 -225 -225 -225 -225 -225 -225 -225 -225 -225 -225 -225 -225 -225 -225 -225 -225 -225 -225 -225 -225 -225 -225 -225 -225 -225 -225 -225 -225 0 0 10 -209 -209 -209 -209 -209 -209 -209 -209 -209 -209 -209 -209 -209 -209 -209 -209 98 101 102 104 105 106 117 125 126 127 126 127 129 129 128 129 125 125 124 126 125 125 128 128 126 126 129 134 137 150 153 154 -193 -209 -193 156 165 171 172 172 171 170 170 170 171 170 168 167 0 0 0 0 0
    0 0 0 0 0 0 0 0 0 0 0 0 0 0 0 0 0 0 0 0 0 0 0 0 0 0 0 0 0 0 0 0 0 0 0 0 0 0 0 0 0 0 0 0 0 0 0 0 0 0 0 0 0 0 0 0 0 0 0 0 0 0 0 0 0 0 0 0 0 -193 109 -209 116 -193 -209 103 105 103 103 -193 -209 106 108 112 113 109 108 106 104 104 107 106 105 107 110 -209 -209 116 113 109 110 109 110 109 -225 -225 -225 -225 -225 -225 -225 -225 -225 -225 -225 -225 -225 -225 -225 -225 -225 -225 -225 -225 -225 -225 -225 -225 -225 -225 -225 -225 -225 -225 -225 -225 -225 -225 -225 -225 -225 -225 -225 -225 -225 -225 -225 -225 -225 -225 -225 -225 -225 -225 -225 -225 -225 -225 -225 -225 -225 -225 -225 -225 -225 -225 -225 -225 -225 -225 -225 -225 -225 -225 -225 -225 -225 -225 -225 -225 -225 -225 -225 -225 -225 -225 -225 -225 -225 -225 -225 -225 -225 -225 -225 -225 -225 -225 -225 -225 -225 -225 -225 -225 -225 -225 -225 -225 -225 -225 -225 -225 -225 -225 -225 -225 -225 -225 -225 -225 -225 -225 -225 -225 -225 -225 -225 -225 -225 -225 -225 -225 -225 -225 -225 -225 -225 -225 -225 -225 -225 -225 -225 -225 -225 -225 -225 -225 0 0 16 -209 -209 -209 -209 -209 -209 -209 -209 -209 -209 -209 -209 -209 -209 -209 -209 102 104 105 106 107 108 117 124 125 126 125 127 130 129 128 129 126 126 125 128 127 126 129 130 127 125 124 129 133 -209 150 154 153 -193 -193 154 165 170 171 171 170 169 170 170 170 169 168 167 0 0 0 0 0
    0 0 0 0 0 0 0 0 0 0 0 0 0 0 0 0 0 0 0 0 0 0 0 0 0 0 0 0 0 0 0 0 0 0 0 0 0 0 0 0 0 0 0 0 0 0 0 0 0 0 0 0 0 0 0 0 0 0 0 0 0 0 0 0 0 0 0 0 0 -209 109 -209 116 122 -209 105 108 105 104 -193 -209 107 108 111 112 108 107 107 104 105 109 107 108 110 114 -209 -209 116 113 109 110 109 110 109 -225 -225 -225 -225 -225 -225 -225 -225 -225 -225 -225 -225 -225 -225 -225 -225 -225 -225 -225 -225 -225 -225 -225 -225 -225 -225 -225 -225 -225 -225 -225 -225 -225 -225 -225 -225 -225 -225 -225 -225 -225 -225 -225 -225 -225 -225 -225 -225 -225 -225 -225 -225 -225 -225 -225 -225 -225 -225 -225 -225 -225 -225 -225 -225 -225 -225 -225 -225 -225 -225 -225 -225 -225 -225 -225 -225 -225 -225 -225 -225 -225 -225 -225 -225 -225 -225 -225 -225 -225 -225 -225 -225 -225 -225 -225 -225 -225 -225 -225 -225 -225 -225 -225 -225 -225 -225 -225 -225 -225 -225 -225 -225 -225 -225 -225 -225 -225 -225 -225 -225 -225 -225 -225 -225 -225 -225 -225 -225 -225 -225 -225 -225 -225 -225 -225 -225 -225 -225 -225 -225 -225 -225 -225 -225 0 11 20 26 -209 -209 -209 -209 -209 -209 -209 -209 -193 107 107 108 109 -193 -193 106 109 108 108 109 113 118 125 125 125 125 127 130 129 129 129 126 128 127 128 128 127 129 130 128 126 123 126 129 132 -193 149 151 153 152 153 163 168 169 169 168 168 169 169 169 168 167 167 0 0 0 0 0
    0 0 0 0 0 0 0 0 0 0 0 0 0 0 0 0 0 0 0 0 0 0 0 0 0 0 0 0 0 0 0 0 0 0 0 0 0 0 0 0 0 0 0 0 0 0 0 0 0 0 0 0 0 0 0 0 0 0 0 0 0 0 0 0 0 0 0 0 0 -209 -209 -209 117 123 -209 -209 -209 -209 107 -193 -193 -193 -193 110 111 107 106 109 106 -209 -209 -209 -209 -209 -193 -209 -177 -193 113 110 110 109 110 109 -225 -225 -225 -225 -225 -225 -225 -225 -225 -225 -225 -225 -225 -225 -225 -225 -225 -225 -225 -225 -225 -225 -225 -225 -225 -225 -225 -225 -225 -225 -225 -225 -225 -225 -225 -225 -225 -225 -225 -225 -225 -225 -225 -225 -225 -225 -225 -225 -225 -225 -225 -225 -225 -225 -225 -225 -225 -225 -225 -225 -225 -225 -225 -225 -225 -225 -225 -225 -225 -225 -225 -225 -225 -225 -225 -225 -225 -225 -225 -225 -225 -225 -225 -225 -225 -225 -225 -225 -225 -225 -225 -225 -225 -225 -225 -225 -225 -225 -225 -225 -225 -225 -225 -225 -225 -225 -225 -225 -225 -225 -225 -225 -225 -225 -225 -225 -225 -225 -225 -225 -225 -225 -225 -225 -225 -225 -225 -225 -225 -225 -225 -225 -225 -225 -225 -225 -225 -225 -225 -225 -225 -225 -225 25 12 13 22 27 -209 -209 -209 -209 -209 -209 -209 -209 108 109 110 111 111 111 110 108 112 110 110 111 115 120 124 125 126 125 127 130 129 129 128 126 127 127 129 127 125 129 131 129 127 124 125 128 131 137 141 144 149 149 152 159 166 168 168 168 167 169 169 169 169 168 167 0 0 0 0 0
    0 0 0 0 0 0 0 0 0 0 0 0 0 0 0 0 0 0 0 0 0 0 0 0 0 0 0 0 0 0 0 0 0 0 0 0 0 0 0 0 0 0 0 0 0 0 0 0 0 0 0 0 0 0 0 0 0 0 0 0 0 0 0 0 0 0 0 0 0 -209 -209 -209 -209 -209 -209 -209 -209 -209 104 110 107 107 108 110 111 107 107 110 107 115 -209 -209 -209 -193 118 -209 -209 117 115 113 113 111 113 112 -225 -225 -225 -225 -225 -225 -225 -225 -225 -225 -225 -225 -225 -225 -225 -225 -225 -225 -225 -225 -225 -225 -225 -225 -225 -225 -225 -225 -225 -225 -225 -225 -225 -225 -225 -225 -225 -225 -225 -225 -225 -225 -225 -225 -225 -225 -225 -225 -225 -225 -225 -225 -225 -225 -225 -225 -225 -225 -225 -225 -225 -225 -225 -225 -225 -225 -225 -225 -225 -225 -225 -225 -225 -225 -225 -225 -225 -225 -225 -225 -225 -225 -225 -225 -225 -225 -225 -225 -225 -225 -225 -225 -225 -225 -225 -225 -225 -225 -225 -225 -225 -225 -225 -225 -225 -225 -225 -225 -225 -225 -225 -225 -225 -225 -225 -225 -225 -225 -225 -225 -225 -225 -225 -225 -225 -225 -225 -225 -225 -225 -225 -225 -225 -225 -225 -225 -225 -225 -225 -225 -225 -225 -225 35 25 20 24 30 -209 -209 -209 -209 -209 -209 -209 -193 112 112 112 113 113 113 113 111 115 115 115 116 118 122 126 126 127 126 128 130 130 130 128 127 128 128 130 130 127 131 133 133 131 129 130 133 133 137 139 140 146 147 151 158 166 168 167 167 167 168 169 170 169 168 167 0 0 0 0 0
    0 0 0 0 0 0 0 0 0 0 0 0 0 0 0 0 0 0 0 0 0 0 0 0 0 0 0 0 0 0 0 0 0 0 0 0 0 0 0 0 0 0 0 0 0 0 0 0 0 0 0 0 0 0 0 0 0 0 0 0 0 0 0 0 0 0 0 0 0 -209 -209 -209 -209 -209 -209 -209 -209 -209 -193 -193 106 -193 107 110 111 107 108 110 109 117 -193 -209 -193 -209 121 128 -209 -209 -209 119 119 119 116 -225 -225 -225 -225 -225 -225 -225 -225 -225 -225 -225 -225 -225 -225 -225 -225 -225 -225 -225 -225 -225 -225 -225 -225 -225 -225 -225 -225 -225 -225 -225 -225 -225 -225 -225 -225 -225 -225 -225 -225 -225 -225 -225 -225 -225 -225 -225 -225 -225 -225 -225 -225 -225 -225 -225 -225 -225 -225 -225 -225 -225 -225 -225 -225 -225 -225 -225 -225 -225 -225 -225 -225 -225 -225 -225 -225 -225 -225 -225 -225 -225 -225 -225 -225 -225 -225 -225 -225 -225 -225 -225 -225 -225 -225 -225 -225 -225 -225 -225 -225 -225 -225 -225 -225 -225 -225 -225 -225 -225 -225 -225 -225 -225 -225 -225 -225 -225 -225 -225 -225 -225 -225 -225 -225 -225 -225 -225 -225 -225 -225 -225 -225 -225 -225 -225 -225 -225 -225 -225 -225 -225 -225 -225 33 37 40 -193 25 31 39 -209 -209 -209 -209 -209 -209 115 113 112 112 114 114 114 114 114 117 117 118 119 120 123 127 127 127 126 128 131 130 130 129 128 129 129 131 130 128 132 134 135 135 135 135 137 137 138 139 140 143 143 150 157 166 167 166 167 167 168 169 169 169 168 167 0 0 0 0 0
    0 0 0 0 0 0 0 0 0 0 0 0 0 0 0 0 0 0 0 0 0 0 0 0 0 0 0 0 0 0 0 0 0 0 0 0 0 0 0 0 0 0 0 0 0 0 0 0 0 0 0 0 0 0 0 0 0 0 0 0 0 0 0 0 0 0 0 0 0 -209 -209 -209 -209 -209 -209 -209 -209 -209 -209 -209 -193 -209 -193 110 111 107 108 110 -193 -193 -193 -193 562 564 564 -209 -177 -193 -193 -209 138 138 -225 -225 -225 -225 -225 -225 -225 -225 -225 -225 -225 -225 -225 -225 -225 -225 -225 -225 -225 -225 -225 -225 -225 -225 -225 -225 -225 -225 -225 -225 -225 -225 -225 -225 -225 -225 -225 -225 -225 -225 -225 -225 -225 -225 -225 -225 -225 -225 -225 -225 -225 -225 -225 -225 -225 -225 -225 -225 -225 -225 -225 -225 -225 -225 -225 -225 -225 -225 -225 -225 -225 -225 -225 -225 -225 -225 -225 -225 -225 -225 -225 -225 -225 -225 -225 -225 -225 -225 -225 -225 -225 -225 -225 -225 -225 -225 -225 -225 -225 -225 -225 -225 -225 -225 -225 -225 -225 -225 -225 -225 -225 -225 -225 -225 -225 -225 -225 -225 -225 -225 -225 -225 -225 -225 -225 -225 -225 -225 -225 -225 -225 -225 -225 -225 -225 -225 -225 -225 -225 -225 -225 -225 -209 32 28 37 40 -209 26 30 38 -209 -209 -209 -209 -209 114 117 116 115 114 115 117 117 117 117 119 119 119 121 121 124 126 127 127 126 127 130 130 130 129 129 129 130 131 131 130 132 134 136 137 137 137 138 138 139 139 139 141 140 148 155 164 166 165 166 167 167 168 168 168 167 167 0 0 0 0 0
    0 0 0 0 0 0 0 0 0 0 0 0 0 0 0 0 0 0 0 0 0 0 0 0 0 0 0 0 0 0 0 0 0 0 0 0 0 0 0 0 0 0 0 0 0 0 0 0 0 0 0 0 0 0 0 0 0 0 0 0 0 0 0 0 0 0 0 0 0 -209 -209 -209 -209 -209 -209 -209 -177 -177 -177 -209 -209 -209 -209 108 108 105 105 106 -209 -209 -209 -209 555 555 556 -177 -177 -177 -193 -177 -225 -225 -225 -225 -225 -225 -225 -225 -225 -225 -225 -225 -225 -225 -225 -225 -225 -225 -225 -225 -225 -225 -225 -225 -225 -225 -225 -225 -225 -225 -225 -225 -225 -225 -225 -225 -225 -225 -225 -225 -225 -225 -225 -225 -225 -225 -225 -225 -225 -225 -225 -225 -225 -225 -225 -225 -225 -225 -225 -225 -225 -225 -209 -209 -209 -225 -225 -225 -225 -225 -225 -225 -225 -225 -225 -225 -225 -225 -225 -225 -225 -225 -225 -225 -225 -225 -225 -225 -225 -225 -225 -225 -225 -225 -225 -225 -225 -225 -225 -225 -225 -225 -225 -225 -225 -225 -225 -225 -225 -225 -225 -225 -225 -225 -225 -225 -225 -225 -225 -225 -225 -225 -225 -225 -225 -225 -225 -225 -225 -225 -225 -225 -225 -225 -225 -225 -225 -225 -225 -225 -225 -209 -209 -209 28 30 30 38 41 -209 28 32 37 -209 -209 -209 -193 -177 117 119 118 117 115 116 118 119 119 120 120 121 121 122 123 125 126 127 127 126 127 129 130 130 129 129 130 130 132 132 132 133 135 136 137 137 138 140 140 141 141 141 142 141 146 153 159 154 161 164 165 167 167 168 168 167 166 0 0 0 0 0
    0 0 0 0 0 0 0 0 0 0 0 0 0 0 0 0 0 0 0 0 0 0 0 0 0 0 0 0 0 0 0 0 0 0 0 0 0 0 0 0 0 0 0 0 0 0 0 0 0 0 0 0 0 0 0 0 0 0 0 0 0 0 0 0 0 0 0 0 0 -209 -209 -209 -209 -209 -209 -209 -209 610 613 -177 -177 -209 -193 -209 -209 -209 -209 -209 -209 -209 -209 -193 550 550 549 549 -209 -225 -225 -225 -225 -225 -225 -225 -225 -225 -225 -225 -225 -225 -225 -225 -225 -225 -225 -225 -225 -225 -225 -225 -225 -225 -225 -225 -225 -225 -225 -225 -225 -225 -225 -225 -225 -225 -225 -225 -225 -225 -225 -225 -225 -225 -225 -225 -225 -225 -225 -225 -225 -225 -225 -225 -225 -225 -225 -225 -225 -225 -225 -225 -225 -225 -209 -209 -209 -225 -225 -225 -225 -225 -225 -225 -225 -225 -225 -225 -225 -225 -225 -225 -225 -225 -225 -225 -225 -225 -225 -225 -225 -225 -225 -225 -225 -225 -225 -225 -225 -225 -225 -225 -225 -225 -225 -225 -225 -225 -225 -225 -225 -225 -225 -225 -225 -225 -225 -225 -225 -225 -225 -225 -225 -225 -225 -225 -225 -225 -225 -225 -225 -225 -225 -225 -225 -225 -225 -225 -225 -209 -209 -209 -209 -209 -209 -209 29 30 31 38 41 38 29 31 35 -193 -209 -209 -177 114 119 120 119 118 117 117 118 119 121 121 122 121 122 123 123 126 126 126 126 125 127 128 129 129 128 129 130 130 131 131 131 133 134 136 137 138 140 143 146 146 147 148 149 148 150 152 155 151 155 159 161 164 166 166 166 166 166 0 0 0 0 0
    0 0 0 0 0 0 0 0 0 0 0 0 0 0 0 0 0 0 0 0 0 0 0 0 0 0 0 0 0 0 0 0 0 0 0 0 0 0 0 0 0 0 0 0 0 0 0 0 0 0 0 0 0 0 0 0 0 0 0 0 0 0 0 0 0 0 0 0 0 -209 -209 -209 -209 -209 -209 -209 -209 -225 -225 -225 -225 -225 -225 -225 -225 -225 -225 -225 -225 -225 -225 -225 -225 -225 -225 -225 -225 -225 -225 -225 -225 -225 -225 -225 -225 -225 -225 -225 -225 -225 -225 -225 -225 -225 -225 -225 -225 -225 -225 -225 -225 -225 -225 -225 -225 -225 -225 -225 -225 -225 -225 -225 -225 -225 -225 -225 -225 -225 -225 -225 -225 -225 -225 -225 -225 -225 -225 -225 -225 -225 -225 -225 -225 -225 -225 -225 -225 -225 -225 -225 -225 -225 -209 -209 -225 -225 -225 -225 -225 -225 -225 -225 -225 -225 -225 -225 -225 -225 -225 -225 -225 -225 -225 -225 -225 -225 -225 -225 -225 -225 -225 -225 -225 -225 -225 -225 -225 -225 -225 -225 -225 -225 -225 -225 -225 -225 -225 -225 -225 -225 -225 -225 -225 -225 -225 -225 -225 -225 -225 -225 -225 -225 -225 -225 -225 -225 -225 -225 -225 -225 -225 -225 -225 -225 -225 -209 -209 -209 -209 -209 -209 -209 -209 -209 30 31 32 38 40 38 28 29 -177 30 -209 -177 -177 115 119 120 119 119 117 117 118 119 121 121 121 121 122 123 123 125 125 125 126 125 126 128 128 128 127 127 128 129 130 130 129 131 133 135 137 138 140 144 149 149 150 150 151 150 151 152 153 150 152 155 156 158 161 163 163 164 164 0 0 0 0 0
    0 0 0 0 0 0 0 0 0 0 0 0 0 0 0 0 0 0 0 0 0 0 0 0 0 0 0 0 0 0 0 0 0 0 0 0 0 0 0 0 0 0 0 0 0 0 0 0 0 0 0 0 0 0 0 0 0 0 0 0 0 0 0 0 0 0 0 0 0 -209 -209 -209 -209 -209 -209 -209 -209 -225 -225 -225 -225 -225 -225 -225 -225 -225 -225 -225 -225 -225 -225 -225 -225 -225 -225 -225 -225 -225 -225 -225 -225 -225 -225 -225 -225 -225 -225 -225 -225 -225 -225 -225 -225 -225 -225 -225 -225 -225 -225 -225 -225 -225 -225 -225 -225 -225 -225 -225 -225 -225 -225 -225 -225 -225 -225 -225 -225 -225 -225 -225 -225 -225 -225 -225 -225 -225 -225 -225 -225 -225 -225 -225 -225 -225 -225 -225 -225 -225 -225 -225 -225 -225 -225 -225 -225 -225 -225 -225 -225 -225 -225 -225 -225 -225 -225 -225 -225 -225 -225 -225 -225 -225 -225 -225 -225 -225 -225 -225 -225 -225 -225 -225 -225 -225 -225 -225 -225 -225 -225 -225 -225 -225 -209 -209 -209 -209 -209 -209 -209 -225 -209 -209 -209 -209 -209 -209 -209 -209 -209 -209 -225 -225 -225 -225 -225 -225 -225 -225 -225 -225 -225 -225 -225 -209 -209 -209 -209 -209 -209 -209 -209 -209 -209 -209 31 32 32 38 40 39 29 -177 -177 -177 -209 -177 117 116 120 121 120 120 118 118 119 120 122 122 122 122 122 123 124 126 125 125 125 125 126 126 126 127 126 126 128 129 129 130 130 131 133 136 137 139 141 145 149 150 150 150 152 151 151 151 152 149 151 153 154 155 159 160 160 161 162 0 0 0 0 0
    0 0 0 0 0 0 0 0 0 0 0 0 0 0 0 0 0 0 0 0 0 0 0 0 0 0 0 0 0 0 0 0 0 0 0 0 0 0 0 0 0 0 0 0 0 0 0 0 0 0 0 0 0 0 0 0 0 0 0 0 0 0 0 0 0 0 0 0 0 -209 -209 -209 -209 -209 -209 -209 -209 -209 -225 -209 -209 -209 -209 -225 -225 -225 -225 -225 -225 -225 -225 -225 -225 -225 -225 -225 -225 -225 -225 -225 -225 -225 -225 -225 -225 -225 -225 -225 -225 -225 -225 -225 -225 -225 -225 -225 -225 -225 -225 -225 -225 -225 -225 -225 -225 -225 -225 -225 -225 -225 -225 -225 -225 -225 -225 -225 -225 -225 -225 -225 -225 -225 -225 -225 -225 -225 -225 -225 -225 -225 -225 -225 -225 -225 -225 -225 -225 -225 -225 -225 -225 -225 -225 -225 -225 -225 -225 -225 -225 -225 -225 -225 -225 -225 -225 -225 -225 -225 -225 -225 -225 -225 -225 -225 -225 -225 -225 -225 -225 -225 -225 -225 -225 -225 -225 -225 -225 -225 -225 -225 -209 -209 -209 -209 -209 -209 -209 -209 -209 -209 -209 -209 -209 -209 -209 -209 -209 -209 -209 -209 -209 -209 -225 -225 -225 -225 -225 -225 -225 -225 -225 -209 -209 -209 -209 -209 -209 -209 -209 -209 -209 -209 -209 -209 30 31 33 38 40 -193 -177 -177 -177 -177 117 117 118 117 121 122 121 121 119 119 119 121 123 123 123 124 123 124 124 126 125 126 125 125 125 126 126 126 126 127 127 128 130 130 131 133 135 137 139 141 144 146 149 149 150 150 151 151 151 152 153 149 151 152 153 154 156 158 159 159 161 0 0 0 0 0
    0 0 0 0 0 0 0 0 0 0 0 0 0 0 0 0 0 0 0 0 0 0 0 0 0 0 0 0 0 0 0 0 0 0 0 0 0 0 0 0 0 0 0 0 0 0 0 0 0 0 0 0 0 0 0 0 0 0 0 0 0 0 0 0 0 0 0 0 0 -209 -209 -209 -209 -209 -209 -209 -209 -209 -209 -209 -209 -209 -209 -209 -209 -209 -225 -225 -225 -225 -225 -225 -225 -225 -225 -225 -225 -225 -225 -225 -225 -225 -225 -225 -225 -225 -225 -225 -225 -225 -225 -225 -225 -225 -225 -225 -225 -225 -225 -225 -225 -225 -225 -225 -225 -225 -225 -225 -225 -225 -225 -225 -225 -225 -225 -225 -225 -225 -225 -225 -225 -225 -225 -225 -225 -225 -225 -225 -225 -225 -225 -225 -225 -225 -225 -225 -225 -225 -225 -225 -225 -225 -225 -225 -225 -225 -225 -225 -225 -225 -225 -225 -225 -225 -225 -225 -225 -225 -225 -225 -225 -225 -225 -225 -225 -225 -225 -225 -225 -225 -225 -225 -225 -225 -225 -225 -225 -225 -225 -225 -209 -209 -209 -209 -209 -209 -209 -209 -209 -209 -209 -209 -209 -209 -209 -209 -209 -209 -209 -209 -209 -209 -193 -225 -225 -225 -225 -225 -225 -225 -209 -209 -209 -209 -209 -209 -209 -209 -209 -209 -209 -209 -209 -209 -209 30 34 39 41 42 -177 -177 -177 -209 118 118 119 119 121 122 122 121 120 119 120 122 124 124 125 125 125 125 126 126 127 126 126 125 125 125 126 126 127 127 128 128 130 131 132 133 134 136 138 140 142 145 148 148 149 149 151 151 151 152 153 149 151 152 153 153 155 156 157 159 160 0 0 0 0 0
    0 0 0 0 0 0 0 0 0 0 0 0 0 0 0 0 0 0 0 0 0 0 0 0 0 0 0 0 0 0 0 0 0 0 0 0 0 0 0 0 0 0 0 0 0 0 0 0 0 0 0 0 0 0 0 0 0 0 0 0 0 0 0 0 0 0 0 0 0 -209 -209 -209 -209 -209 -209 -209 -209 -209 -209 -209 -209 -209 -209 -209 -209 -209 -209 -209 -209 -209 -209 -209 -209 -225 -225 -225 -225 -225 -225 -225 -225 -225 -225 -225 -225 -225 -225 -225 -225 -225 -225 -225 -225 -225 -225 -225 -225 -225 -225 -225 -225 -225 -225 -225 -225 -225 -225 -225 -225 -225 -225 -225 -225 -225 -225 -225 -225 -225 -225 -225 -225 -225 -225 -225 -225 -225 -225 -225 -225 -225 -225 -225 -225 -225 -225 -225 -225 -225 -225 -225 -225 -225 -225 -225 -225 -225 -225 -225 -225 -225 -225 -225 134 131 134 137 137 -177 -177 -177 139 -225 -225 -225 -225 -225 -225 -225 -225 -225 -225 -225 -225 -225 -225 -225 -225 -225 -225 -225 -209 -209 -209 -209 -209 -209 -209 -209 -209 -209 -209 -209 -209 -209 -209 -209 -209 -209 -209 -209 -209 -209 861 860 861 862 -225 861 -209 -209 -209 -209 -209 -209 -209 -209 -209 -209 -209 -209 -209 -209 -209 -209 -209 29 31 38 40 37 -177 -177 -177 -209 119 119 120 120 122 122 121 120 119 121 120 123 126 126 126 126 127 127 127 126 126 125 125 125 125 124 124 125 126 127 127 128 129 130 132 132 134 136 137 139 142 144 148 148 149 149 150 150 151 152 153 150 151 153 153 154 155 156 157 158 160 0 0 0 0 0
    0 0 0 0 0 0 0 0 0 0 0 0 0 0 0 0 0 0 0 0 0 0 0 0 0 0 0 0 0 0 0 0 0 0 0 0 0 0 0 0 0 0 0 0 0 0 0 0 0 0 0 0 0 0 0 0 0 0 0 0 0 0 0 0 0 0 0 0 0 -209 -209 -209 -209 -209 -209 -209 -209 -209 -209 -209 -209 -209 -209 -209 -209 -209 -209 -209 -209 -209 -209 -209 -209 -209 -209 -209 -209 -225 -225 -225 -225 -225 -225 -225 -225 -225 -225 -225 -225 -225 -225 -225 -225 -225 -225 -225 -225 -225 -225 -225 -225 -225 -225 -225 -225 -225 -225 -225 -225 -225 -225 -225 -225 -225 -225 -225 -225 -225 -225 -225 -225 -225 -225 -225 -225 -225 -225 -225 -225 -225 -225 -225 -225 -225 -225 -225 -225 -225 -225 -225 -225 -225 -225 -225 -225 -225 -225 -225 -225 -225 -225 -193 -209 131 133 -209 -193 -193 -177 -177 139 138 -225 -225 -225 -225 -225 -225 -225 -225 -225 -225 -225 -225 -225 -225 -225 -225 -225 -225 -209 -209 -209 -209 -209 -209 -209 -209 -209 -209 -209 -209 -209 -209 -209 -209 -209 -209 -209 -209 -209 -209 861 860 861 862 -209 -193 -209 -209 -209 -209 -209 -209 -209 -209 -209 -209 -209 -209 -209 -209 -209 -209 -209 30 30 36 37 -177 -177 -177 -193 -193 120 120 121 121 123 123 122 121 120 122 121 132 130 130 127 127 129 129 129 128 126 126 125 126 125 123 122 122 124 125 126 127 127 130 132 132 134 135 137 139 141 143 146 147 148 148 149 149 150 151 153 150 151 153 154 154 156 157 157 158 159 0 0 0 0 0
    0 0 0 0 0 0 0 0 0 0 0 0 0 0 0 0 0 0 0 0 0 0 0 0 0 0 0 0 0 0 0 0 0 0 0 0 0 0 0 0 0 0 0 0 0 0 0 0 0 0 0 0 0 0 0 0 0 0 0 0 0 0 0 0 0 0 0 0 0 -209 -209 -209 -209 -209 -209 -209 -209 -209 -209 -209 -209 -209 -209 -209 -209 -209 -209 -209 -209 -209 -209 -209 -209 -209 -209 -209 -209 -209 -225 -225 -225 -225 -225 -225 -225 -225 -225 -225 -225 -225 -225 -225 -225 -225 -225 -225 -225 -225 -225 -225 -225 -225 -225 -225 -225 -225 -225 -225 -225 -225 -225 -225 -225 -225 -225 -225 -225 -225 -225 -225 -225 -225 -225 -225 -225 -225 -225 -225 -225 -225 -225 -225 -225 -225 -225 -225 -225 -225 -225 -225 -225 -225 -225 -225 -225 -225 -225 -225 -225 -225 -225 -193 -209 131 133 -209 -193 -193 -177 138 139 138 140 -225 -225 -225 -225 -225 -225 -225 -225 -225 -225 -225 -225 -225 -225 -225 -225 -225 -209 -209 -209 -209 -209 -209 -209 -209 -209 -209 -209 -209 -209 -209 -209 -209 -209 -209 -209 -209 -209 -209 861 860 861 -177 -209 -209 -209 -209 -209 -209 -209 -209 -209 -209 -209 -209 -209 -209 -209 -209 -209 -209 -209 -209 32 36 37 -177 -177 -177 -193 -193 120 121 121 121 123 123 122 121 121 123 121 133 134 133 129 128 131 131 130 130 128 127 127 128 127 124 124 124 125 126 126 127 127 130 132 132 133 135 137 138 141 143 146 147 148 149 149 150 150 151 152 150 150 153 154 154 156 157 157 158 159 0 0 0 0 0
    0 0 0 0 0 0 0 0 0 0 0 0 0 0 0 0 0 0 0 0 0 0 0 0 0 0 0 0 0 0 0 0 0 0 0 0 0 0 0 0 0 0 0 0 0 0 0 0 0 0 0 0 0 0 0 0 0 0 0 0 0 0 0 0 0 0 0 0 0 -209 -209 -209 -209 -209 -209 -209 -209 -209 -209 -209 -209 -209 -209 -209 -209 -209 -209 -209 -209 -209 -209 -209 -209 -209 -209 -209 -209 -209 -209 -209 -209 -209 -209 -209 -225 -225 -225 -225 -225 -225 -225 -225 -225 -225 -225 -225 857 857 858 -225 -225 -225 -225 -225 -225 -225 -225 -225 -225 -225 -225 -225 -225 -225 -225 -225 -225 -225 -225 -225 -225 -225 -225 -225 -225 -225 -225 -225 -225 -225 -225 -225 -225 -225 -225 -225 -225 -225 -225 -225 -225 -225 -225 -225 -225 -225 -225 -225 -225 -225 -225 -193 -209 131 133 -209 -193 -193 -177 138 139 138 140 -225 -225 -225 -225 -225 -225 -225 -225 -225 -225 -225 -225 -225 -225 -225 -225 -225 -209 -209 -209 -209 -209 -209 -209 -209 -209 -209 -209 -209 -209 -209 -209 -209 -209 -209 -209 -209 -209 -209 861 860 861 -177 -209 -209 -209 -209 -209 -209 -209 -209 -209 -209 -209 -209 -209 -209 -209 -209 -209 -209 -209 -209 -209 36 -193 -193 -193 -177 -193 -193 121 121 121 121 122 121 120 119 119 121 109 120 135 134 130 128 130 132 131 131 129 128 128 130 129 127 124 125 126 127 126 127 127 130 132 132 133 134 136 138 140 142 145 146 148 149 150 151 151 152 153 151 151 152 153 154 156 157 156 157 158 0 0 0 0 0
    0 0 0 0 0 0 0 0 0 0 0 0 0 0 0 0 0 0 0 0 0 0 0 0 0 0 0 0 0 0 0 0 0 0 0 0 0 0 0 0 0 0 0 0 0 0 0 0 0 0 0 0 0 0 0 0 0 0 0 0 0 0 0 0 0 0 0 0 0 -209 -209 -209 -209 -209 -209 -209 -209 -209 -209 -209 -209 -209 -209 -209 -209 -209 -209 -209 -209 -209 -209 -209 -209 -209 -209 -209 -209 -209 -209 -209 -209 -209 -209 -209 -209 -225 -225 -225 -225 -225 -225 -225 -225 -225 860 859 860 860 859 860 -225 -225 -225 -225 -225 -225 -225 -225 -225 -225 -225 -225 -225 -225 -225 -225 -225 -225 -225 -225 -225 -225 -225 -225 -225 -225 -225 -225 -225 -225 -225 -225 -225 -225 -225 -225 -225 -225 -225 -225 -225 -225 -225 -225 -225 -225 -225 -225 -225 -225 -225 -193 -209 131 133 -209 -193 -193 -177 138 139 138 140 -225 -225 -225 -225 -225 -225 -225 -225 -225 -225 -225 -225 -225 -225 -225 -225 -225 -209 -209 -209 -209 -209 -209 -209 -209 -209 -209 -209 -209 -209 -209 -209 -209 -209 -209 -209 -209 -209 -209 -193 860 861 -177 -209 -209 -209 -209 -209 -209 -209 -209 -209 -209 -209 -209 -209 -209 -209 -209 -209 -209 -209 -209 -209 -193 -209 -209 -193 -209 -209 124 121 122 121 121 120 118 117 116 116 116 108 111 123 134 130 128 130 132 132 131 129 129 127 129 129 127 125 125 126 128 127 127 127 130 131 132 133 134 136 138 139 141 142 143 145 146 148 149 150 151 152 151 150 153 154 154 156 157 157 157 159 0 0 0 0 0
    0 0 0 0 0 0 0 0 0 0 0 0 0 0 0 0 0 0 0 0 0 0 0 0 0 0 0 0 0 0 0 0 0 0 0 0 0 0 0 0 0 0 0 0 0 0 0 0 0 0 0 0 0 0 0 0 0 0 0 0 0 0 0 0 0 0 0 0 0 -209 167 166 -209 -209 -209 -209 -209 -209 -209 -209 -209 -209 -209 -209 -209 -209 -209 -209 -209 -209 -209 -209 -209 -209 -209 -209 -209 -209 -209 -209 -209 -209 -209 -209 -209 -225 -225 -225 -225 -225 -225 -225 -225 -225 -209 -209 -209 -209 -209 -209 -225 -225 -225 -225 -225 -225 892 892 891 890 890 890 890 -225 -225 -225 -225 -225 -225 -225 -225 -225 -225 -225 -225 -225 -225 -225 -225 -225 -225 -225 -225 -225 -225 -225 -225 -225 -225 -225 -225 -225 -225 -225 -225 -225 -225 -225 -225 -225 -225 -193 -209 131 133 -209 -193 -193 -177 138 139 138 140 -225 -225 -225 -225 -225 -225 -225 -225 -225 -225 -225 -225 -225 -225 -225 -225 -225 -225 -209 -209 -209 606 -209 -209 -209 -209 -209 -209 -209 -209 -209 -209 -209 -209 -209 -209 -209 -209 -209 861 860 861 -177 -209 -209 -209 -209 -209 -209 -209 -209 -209 -209 -209 -209 -209 -209 -209 -209 -209 -209 -209 -209 -209 -209 -209 -209 -209 -209 -209 125 122 122 122 121 121 118 117 116 115 116 111 113 120 132 132 133 133 133 133 133 131 131 129 130 130 127 125 127 127 130 128 128 129 131 132 132 133 134 136 138 139 141 141 142 143 144 145 147 148 150 152 152 151 153 155 155 157 157 157 157 158 0 0 0 0 0</data></disparity>
</opencv_storage>
