<?xml version="1.0"?>
<opencv_storage>
<gps_time_stamp>322420</gps_time_stamp>
<gps_x>-1.2455581665039063e+001</gps_x>
<gps_y>1.0713982582092285e+001</gps_y>
<gps_z>-1.9925762414932251e+000</gps_z>
<image_time_stamp>313259</image_time_stamp>
<disparity type_id="opencv-matrix">
  <rows>84</rows>
  <cols>320</cols>
  <dt>s</dt>
  <data>
    0 0 0 0 0 0 0 0 0 0 0 0 0 0 0 0 0 0 0 0 0 0 0 0 0 0 0 0 0 0 0 0 0 0 0 0 0 0 0 0 0 0 0 0 0 0 0 0 0 0 0 0 0 0 0 0 0 0 0 0 0 0 0 0 0 0 0 0 0 86 89 91 95 101 102 101 100 101 98 96 96 95 91 90 86 74 71 69 70 70 72 72 71 71 68 71 74 -177 -177 -209 0 11 12 12 13 12 12 13 -193 -209 -177 -177 52 56 57 56 56 56 54 55 53 52 -193 -193 405 404 -193 10 11 9 11 12 12 12 12 11 12 11 12 12 11 11 11 11 10 10 10 10 10 10 9 11 10 13 13 16 19 19 21 21 21 23 23 24 25 24 23 23 21 20 17 15 14 14 13 13 12 12 12 12 12 12 11 12 11 12 13 12 13 14 12 13 12 13 13 14 12 14 13 17 19 21 21 21 21 22 24 28 -193 -193 74 52 56 56 57 58 62 67 63 64 66 66 69 69 69 70 73 77 77 80 81 81 83 84 85 84 85 87 86 84 85 88 92 97 99 100 102 103 105 109 109 113 114 114 115 115 116 116 116 119 118 122 126 126 126 129 130 129 130 132 134 134 136 137 138 146 143 144 144 142 143 148 149 149 147 152 160 159 159 160 160 159 167 168 168 167 168 168 168 168 168 167 162 162 155 -209 -209 -209 -193 178 182 183 186 189 190 0 0 0 0 0
    0 0 0 0 0 0 0 0 0 0 0 0 0 0 0 0 0 0 0 0 0 0 0 0 0 0 0 0 0 0 0 0 0 0 0 0 0 0 0 0 0 0 0 0 0 0 0 0 0 0 0 0 0 0 0 0 0 0 0 0 0 0 0 0 0 0 0 0 0 90 91 93 98 102 102 101 100 101 98 96 96 95 91 89 81 72 70 69 70 70 73 74 74 73 71 72 74 -209 -177 -177 0 11 12 12 13 11 11 12 -209 -209 -193 -177 54 57 57 57 57 57 55 55 54 53 52 52 -209 -209 -193 10 11 10 12 12 12 13 12 12 13 11 13 12 12 12 12 12 11 11 11 11 10 10 9 10 10 11 11 14 15 16 19 20 20 23 23 24 24 23 23 22 20 18 16 14 13 13 12 13 12 12 12 12 12 12 11 12 10 11 13 12 13 14 12 13 12 13 14 18 15 17 15 19 21 22 22 22 22 23 -177 27 -193 76 74 52 55 54 55 56 60 64 61 63 65 66 68 67 68 69 72 75 76 78 80 80 83 84 84 84 85 88 87 84 85 88 92 96 98 100 102 103 104 108 108 113 114 114 115 115 116 116 116 119 117 122 126 125 126 129 129 129 130 132 134 134 136 136 138 146 144 145 144 142 144 148 149 148 147 152 160 160 160 160 160 160 167 169 168 168 168 169 168 168 168 167 162 162 155 -209 -193 -193 -209 181 184 184 187 191 193 0 0 0 0 0
    0 0 0 0 0 0 0 0 0 0 0 0 0 0 0 0 0 0 0 0 0 0 0 0 0 0 0 0 0 0 0 0 0 0 0 0 0 0 0 0 0 0 0 0 0 0 0 0 0 0 0 0 0 0 0 0 0 0 0 0 0 0 0 0 0 0 0 0 0 90 92 93 99 104 103 102 101 101 99 98 97 96 90 -193 75 71 70 68 69 69 72 74 74 73 73 73 74 75 -209 -209 -209 13 13 13 16 12 11 -193 -177 -209 -177 -177 -193 57 58 57 57 56 56 55 53 53 53 53 -209 -209 -209 10 12 10 12 12 12 13 13 12 12 11 13 12 12 13 13 12 11 11 12 12 11 11 9 11 10 10 10 12 13 14 18 18 19 21 22 23 23 22 23 21 18 16 15 13 13 13 12 13 12 12 13 12 12 12 11 12 10 11 12 11 13 13 12 13 13 14 16 20 19 19 19 21 23 23 23 23 23 25 26 30 -193 -209 60 50 52 52 52 54 58 61 60 62 65 66 68 66 67 68 72 74 75 76 77 77 82 83 83 81 84 86 85 83 85 87 91 94 97 99 101 102 103 108 108 112 113 113 114 115 115 116 115 118 116 121 125 125 125 128 129 129 130 131 134 133 135 136 138 145 144 146 145 143 145 148 149 149 147 152 159 161 161 161 162 161 167 170 169 169 168 169 169 169 169 168 163 164 159 -193 -193 -193 -193 178 182 183 186 189 191 0 0 0 0 0
    0 0 0 0 0 0 0 0 0 0 0 0 0 0 0 0 0 0 0 0 0 0 0 0 0 0 0 0 0 0 0 0 0 0 0 0 0 0 0 0 0 0 0 0 0 0 0 0 0 0 0 0 0 0 0 0 0 0 0 0 0 0 0 0 0 0 0 0 0 91 93 93 100 103 103 102 101 102 100 99 98 96 90 -193 80 72 71 70 71 70 73 75 76 75 74 74 75 75 74 -209 -209 -209 15 15 19 13 12 -193 -177 -209 -177 -177 -193 56 57 57 57 56 57 56 54 54 54 54 -193 -209 -193 -193 12 10 12 12 12 13 13 13 13 12 13 12 12 13 13 12 12 12 12 12 11 12 10 12 11 11 12 12 13 14 18 18 19 21 21 22 22 21 22 20 18 16 15 13 13 13 12 13 12 12 12 11 12 11 11 11 10 10 12 10 12 11 11 12 14 15 17 22 20 21 20 22 23 23 23 23 24 27 28 32 38 -193 57 48 50 51 51 53 59 62 61 63 65 67 69 67 67 69 73 74 75 76 77 77 81 84 83 79 84 85 84 82 84 86 90 93 96 99 101 102 103 107 107 111 112 112 113 114 115 115 114 117 115 121 124 123 124 127 128 128 129 131 134 133 136 136 138 146 145 147 146 144 146 148 150 149 148 152 159 162 162 163 163 162 167 171 169 169 168 169 169 169 169 169 162 164 159 -193 -193 -193 -209 177 182 183 186 189 191 0 0 0 0 0
    0 0 0 0 0 0 0 0 0 0 0 0 0 0 0 0 0 0 0 0 0 0 0 0 0 0 0 0 0 0 0 0 0 0 0 0 0 0 0 0 0 0 0 0 0 0 0 0 0 0 0 0 0 0 0 0 0 0 0 0 0 0 0 0 0 0 0 0 0 92 94 94 100 102 102 101 101 102 101 99 99 96 91 89 86 82 72 72 72 71 75 77 78 76 75 76 77 77 76 75 -209 -209 -209 18 23 -209 -209 -177 -177 -209 -193 -193 -193 56 56 56 56 56 57 56 54 55 55 54 -209 -209 -193 -193 13 11 13 12 13 14 14 13 13 13 14 13 13 14 13 13 13 12 13 13 12 12 11 12 12 12 13 13 14 15 20 19 21 22 22 23 23 22 23 20 20 16 15 13 13 12 12 13 12 11 12 11 12 10 11 11 10 10 13 11 12 11 11 11 14 14 18 22 21 21 20 23 23 23 23 23 24 27 28 32 -193 -193 59 48 50 51 50 54 59 63 61 63 65 67 69 68 68 70 73 74 75 75 76 76 80 82 82 77 81 81 81 81 83 80 87 90 92 97 102 102 103 108 107 111 111 111 112 112 114 115 114 117 114 121 122 122 122 125 126 125 127 129 132 133 136 136 140 146 145 148 146 145 146 148 150 149 149 152 159 164 163 164 164 163 167 171 169 169 167 169 169 169 168 168 161 164 158 163 165 -193 -209 176 182 183 186 188 191 0 0 0 0 0
    0 0 0 0 0 0 0 0 0 0 0 0 0 0 0 0 0 0 0 0 0 0 0 0 0 0 0 0 0 0 0 0 0 0 0 0 0 0 0 0 0 0 0 0 0 0 0 0 0 0 0 0 0 0 0 0 0 0 0 0 0 0 0 0 0 0 0 0 0 93 94 96 102 103 102 101 102 103 102 101 101 99 92 90 89 -193 76 76 72 72 76 80 80 78 77 76 77 77 76 75 72 70 -193 22 27 -193 -193 -193 -193 51 53 55 55 55 55 55 55 56 57 56 53 54 54 -193 -209 -193 -193 13 14 12 14 13 13 14 14 13 13 13 14 13 14 14 14 13 13 13 13 14 13 13 12 12 13 13 14 15 17 17 22 21 22 23 23 23 23 22 24 20 21 18 16 14 13 13 12 13 12 12 12 11 12 11 12 13 12 11 15 13 14 12 12 12 13 14 19 23 21 22 20 23 23 23 23 23 24 27 28 31 36 -193 58 47 48 49 48 52 58 61 60 63 65 67 69 69 69 70 74 75 75 75 75 76 79 81 80 75 78 79 82 81 81 77 83 85 87 89 92 93 99 -193 107 112 109 110 110 111 114 116 116 117 115 122 122 122 122 123 126 124 125 128 130 133 138 137 144 147 146 149 147 146 147 148 150 149 148 151 157 164 164 164 165 164 167 171 168 169 166 168 168 168 168 167 159 163 157 163 165 167 173 174 179 182 186 187 191 0 0 0 0 0
    0 0 0 0 0 0 0 0 0 0 0 0 0 0 0 0 0 0 0 0 0 0 0 0 0 0 0 0 0 0 0 0 0 0 0 0 0 0 0 0 0 0 0 0 0 0 0 0 0 0 0 0 0 0 0 0 0 0 0 0 0 0 0 0 0 0 0 0 0 93 94 98 103 103 103 103 104 105 104 103 102 99 94 92 90 90 88 89 -193 74 80 85 85 82 78 77 78 76 76 74 73 71 67 -209 40 47 51 54 53 52 54 55 55 55 55 55 54 56 57 56 51 53 -193 -193 -193 10 15 15 15 13 14 13 13 14 15 13 12 13 14 13 14 14 14 13 13 13 14 15 13 14 13 13 14 14 15 16 19 19 23 22 23 24 23 24 24 23 24 20 22 20 17 16 14 14 13 14 13 13 12 11 12 11 13 14 13 13 15 15 16 14 15 15 16 15 22 25 21 23 22 24 24 23 23 23 24 28 29 32 -193 -193 56 47 49 50 48 51 57 59 60 63 65 67 69 69 70 71 74 74 74 75 76 76 79 82 82 76 82 84 85 85 84 80 85 87 88 91 -193 -193 -193 -177 -209 -193 107 108 109 109 113 116 115 113 109 -193 117 118 116 115 120 119 121 123 -193 124 -209 -193 147 147 146 150 146 146 146 148 148 147 147 150 155 165 164 165 165 165 167 171 168 168 165 168 167 167 167 166 159 165 163 167 -193 172 179 177 180 182 185 187 189 0 0 0 0 0
    0 0 0 0 0 0 0 0 0 0 0 0 0 0 0 0 0 0 0 0 0 0 0 0 0 0 0 0 0 0 0 0 0 0 0 0 0 0 0 0 0 0 0 0 0 0 0 0 0 0 0 0 0 0 0 0 0 0 0 0 0 0 0 0 0 0 0 0 0 93 94 98 102 103 103 104 105 105 104 104 104 101 98 96 91 92 91 92 92 84 86 88 88 88 82 78 78 76 76 74 72 71 68 62 53 53 54 55 54 53 54 55 55 55 55 55 54 56 58 56 48 51 -193 19 15 13 17 18 16 15 15 14 14 15 16 13 12 13 14 14 14 14 14 14 15 14 15 16 15 15 14 14 15 16 16 17 18 19 23 21 22 23 23 24 24 23 24 20 22 21 18 17 15 14 14 15 14 14 12 12 13 13 14 16 14 14 15 17 17 15 17 18 19 20 23 26 22 23 23 25 25 24 -193 24 25 30 32 34 -193 -193 55 47 49 51 50 52 57 59 60 63 66 67 69 69 70 71 74 74 74 75 76 77 79 82 82 78 83 84 85 84 84 81 84 86 88 92 -209 -193 -193 -209 -209 108 106 107 108 -193 107 108 107 106 106 -193 108 109 -193 -193 -209 -209 -209 -209 110 112 -209 -209 148 145 145 150 145 145 145 146 146 145 146 149 154 166 165 165 166 166 167 170 167 167 164 167 166 166 166 165 158 165 165 -209 -209 -209 -209 -209 -193 -209 185 187 189 0 0 0 0 0
    0 0 0 0 0 0 0 0 0 0 0 0 0 0 0 0 0 0 0 0 0 0 0 0 0 0 0 0 0 0 0 0 0 0 0 0 0 0 0 0 0 0 0 0 0 0 0 0 0 0 0 0 0 0 0 0 0 0 0 0 0 0 0 0 0 0 0 0 0 94 94 99 102 102 102 103 104 105 104 104 104 101 101 101 95 97 96 97 96 91 91 92 91 91 86 82 80 77 76 73 72 71 69 64 56 55 55 56 55 54 54 55 55 55 55 54 54 56 58 57 46 -193 22 19 18 15 19 19 17 16 17 15 16 16 17 14 13 14 14 14 14 15 15 14 16 16 17 18 16 16 15 15 16 17 16 18 18 19 22 21 22 23 22 23 23 23 23 18 23 22 18 18 16 14 14 16 15 16 13 13 13 13 16 17 15 15 15 17 18 16 17 18 18 19 21 24 21 23 23 25 24 23 -193 24 25 32 35 37 -193 47 54 47 49 52 51 53 58 60 61 63 66 68 69 70 71 71 73 74 74 74 76 77 79 81 82 79 83 84 85 84 84 83 85 87 88 91 -209 -193 -193 -209 -193 -209 105 106 107 105 106 106 105 104 106 -193 -193 -209 -209 -193 -209 67 -193 67 -209 -209 -209 -209 147 140 144 150 144 145 145 144 144 143 144 148 153 167 166 166 166 166 167 169 166 166 162 166 165 165 165 164 158 166 167 -209 -209 -209 -209 -209 -209 -209 -209 186 187 0 0 0 0 0
    0 0 0 0 0 0 0 0 0 0 0 0 0 0 0 0 0 0 0 0 0 0 0 0 0 0 0 0 0 0 0 0 0 0 0 0 0 0 0 0 0 0 0 0 0 0 0 0 0 0 0 0 0 0 0 0 0 0 0 0 0 0 0 0 0 0 0 0 0 94 97 101 103 103 103 105 106 106 106 106 105 104 104 105 100 100 100 100 99 94 97 -193 94 92 88 87 86 80 80 75 74 73 72 70 58 56 56 56 55 54 54 55 55 55 55 55 54 57 59 58 46 49 -193 21 20 18 20 20 18 17 18 15 17 18 19 17 15 16 16 17 17 18 18 16 17 17 18 19 16 17 16 16 17 18 17 19 18 19 22 20 21 22 22 23 22 23 23 18 24 24 20 20 18 16 14 17 15 16 13 13 12 13 14 16 14 15 14 16 17 16 16 18 18 19 21 23 21 22 23 25 23 23 -193 24 26 36 -193 41 46 50 52 48 49 52 52 53 57 59 61 63 67 68 69 71 71 72 73 73 74 74 75 77 79 82 82 80 83 84 85 85 85 85 86 88 89 91 -193 92 94 -193 -193 -209 103 106 108 106 107 108 107 106 108 108 -193 -209 -209 -209 -209 -193 -209 -209 -209 -209 -209 -209 -209 -209 -209 -209 143 143 143 143 143 143 143 148 152 168 166 166 166 166 167 169 166 165 161 165 165 165 165 165 161 169 170 171 -193 -209 -209 -193 -193 -209 -209 186 186 0 0 0 0 0
    0 0 0 0 0 0 0 0 0 0 0 0 0 0 0 0 0 0 0 0 0 0 0 0 0 0 0 0 0 0 0 0 0 0 0 0 0 0 0 0 0 0 0 0 0 0 0 0 0 0 0 0 0 0 0 0 0 0 0 0 0 0 0 0 0 0 0 0 0 96 98 102 104 104 104 107 107 108 108 108 107 106 106 107 104 103 103 103 103 100 103 -193 99 98 93 91 91 84 84 78 76 75 74 74 71 59 56 56 54 54 54 55 54 54 54 54 52 56 57 56 46 48 43 -193 23 21 21 20 19 18 19 16 18 19 20 19 18 19 20 21 22 21 21 20 20 19 19 20 18 18 18 18 18 19 18 20 19 20 22 20 21 22 22 23 23 23 24 20 25 25 22 22 20 18 16 18 17 17 14 13 14 15 16 17 14 14 13 14 16 13 14 16 16 19 21 22 22 23 24 28 22 22 -209 -193 31 -193 44 45 48 50 52 48 49 53 53 53 58 59 62 63 67 68 69 71 71 72 72 73 73 74 75 77 79 82 83 82 84 85 85 86 85 86 87 87 89 90 90 91 93 91 97 90 98 104 107 106 107 109 108 107 108 108 -193 -209 -209 -193 -209 63 58 -209 -209 -209 -209 -193 131 131 -209 -209 144 144 144 144 144 144 144 148 152 168 166 166 166 166 166 168 165 165 160 164 165 165 165 165 163 170 172 174 176 177 179 181 182 183 -193 185 186 0 0 0 0 0
    0 0 0 0 0 0 0 0 0 0 0 0 0 0 0 0 0 0 0 0 0 0 0 0 0 0 0 0 0 0 0 0 0 0 0 0 0 0 0 0 0 0 0 0 0 0 0 0 0 0 0 0 0 0 0 0 0 0 0 0 0 0 0 0 0 0 0 0 0 99 101 103 105 104 105 108 107 108 108 107 107 106 107 107 105 105 104 105 105 102 104 102 99 98 96 93 91 86 86 79 79 77 76 77 75 68 56 56 53 53 52 53 52 52 52 53 50 54 55 54 44 45 42 33 25 23 22 21 20 19 20 18 19 20 21 21 20 20 21 22 23 23 23 23 22 22 21 21 20 20 20 20 19 20 20 21 20 21 23 21 22 23 23 23 23 24 24 22 26 26 23 23 22 20 17 19 19 18 16 15 18 17 18 19 16 16 15 15 16 13 15 17 17 18 18 20 20 21 20 -225 -225 21 29 -193 42 44 47 47 49 50 52 49 48 53 54 54 57 60 64 63 67 68 69 71 71 71 72 72 73 74 75 78 79 82 83 84 84 85 85 86 85 86 87 87 89 90 90 91 93 91 98 90 96 102 105 106 107 108 108 108 109 108 108 -209 -209 -209 -209 -209 -209 -209 -209 -209 -209 -209 -209 -193 -209 -209 145 146 145 145 145 145 146 148 152 168 166 166 166 166 166 168 164 164 159 163 164 165 165 166 164 171 173 175 176 178 179 181 182 183 184 185 186 0 0 0 0 0
    0 0 0 0 0 0 0 0 0 0 0 0 0 0 0 0 0 0 0 0 0 0 0 0 0 0 0 0 0 0 0 0 0 0 0 0 0 0 0 0 0 0 0 0 0 0 0 0 0 0 0 0 0 0 0 0 0 0 0 0 0 0 0 0 0 0 0 0 0 101 103 104 106 105 106 110 108 108 108 108 108 107 108 108 106 106 106 106 106 103 105 103 100 99 95 91 90 85 85 78 78 77 75 77 76 68 57 56 52 50 50 51 51 51 52 52 49 53 54 53 44 44 41 36 29 28 26 22 22 21 22 20 20 21 22 22 21 20 21 22 23 24 24 24 23 23 23 23 22 23 21 22 22 22 22 23 21 22 23 21 22 23 23 23 23 25 25 24 26 27 23 22 22 21 17 20 21 20 19 18 19 19 19 20 18 17 18 16 18 14 15 17 18 17 17 17 20 20 20 -225 -225 -225 33 55 45 45 49 49 50 51 52 50 49 54 54 54 56 59 63 62 67 69 69 70 71 71 71 71 72 73 74 77 78 81 83 84 85 85 85 86 86 86 87 87 89 89 90 90 93 92 96 92 97 101 105 106 107 108 108 109 109 109 109 -209 -193 -209 -209 -209 -209 -209 -193 -209 -209 -193 -209 -193 -209 -209 146 147 147 147 147 146 147 148 152 167 165 165 165 165 165 167 163 163 158 162 164 165 165 166 165 171 173 176 176 177 178 181 181 182 184 185 185 0 0 0 0 0
    0 0 0 0 0 0 0 0 0 0 0 0 0 0 0 0 0 0 0 0 0 0 0 0 0 0 0 0 0 0 0 0 0 0 0 0 0 0 0 0 0 0 0 0 0 0 0 0 0 0 0 0 0 0 0 0 0 0 0 0 0 0 0 0 0 0 0 0 0 103 105 106 108 107 108 113 110 109 109 108 109 107 107 107 105 106 106 106 106 103 104 102 100 99 95 92 91 85 85 77 78 77 75 77 76 69 57 55 50 48 47 48 49 49 51 51 48 53 53 51 44 43 41 37 34 33 30 23 23 23 23 22 21 22 22 22 21 20 21 21 23 24 25 25 24 24 23 24 23 25 23 24 24 24 23 24 22 22 22 21 22 22 23 23 23 25 25 25 26 27 22 22 22 21 17 19 21 21 20 19 21 21 21 22 20 19 20 19 20 16 16 17 18 18 17 17 18 18 19 21 -225 -225 -225 53 47 47 50 51 51 51 52 50 49 53 53 53 54 57 63 61 67 69 69 71 71 71 71 71 72 73 74 77 78 81 82 84 84 85 85 86 86 87 87 88 89 89 90 91 93 92 95 94 98 101 104 105 107 108 109 109 109 108 108 108 107 -193 -193 85 -209 -209 111 -209 -209 -193 127 133 141 151 146 147 147 147 147 147 148 149 152 167 164 164 164 164 164 166 163 162 157 161 163 165 165 165 -193 171 173 175 175 176 177 180 181 182 184 185 185 0 0 0 0 0
    0 0 0 0 0 0 0 0 0 0 0 0 0 0 0 0 0 0 0 0 0 0 0 0 0 0 0 0 0 0 0 0 0 0 0 0 0 0 0 0 0 0 0 0 0 0 0 0 0 0 0 0 0 0 0 0 0 0 0 0 0 0 0 0 0 0 0 0 0 105 108 108 109 109 110 115 110 109 109 108 109 107 108 107 105 106 105 105 105 102 103 102 100 98 93 92 91 85 85 77 77 76 75 78 77 72 61 56 50 47 45 46 47 48 51 51 49 52 53 51 44 44 41 38 35 35 32 24 24 24 24 23 22 22 22 23 22 21 21 22 24 25 25 26 25 25 24 25 24 26 25 25 25 25 24 24 22 22 22 21 21 22 22 23 23 25 26 26 26 27 22 22 23 22 16 19 22 21 21 20 21 22 22 22 21 20 21 20 21 17 16 17 19 18 18 17 18 18 19 21 -225 -225 -225 -225 48 48 51 52 52 52 52 51 49 54 54 54 56 59 65 63 68 69 69 70 71 71 71 71 72 73 74 77 77 79 81 83 84 85 84 86 86 87 87 87 89 88 90 91 94 92 96 94 99 101 104 105 106 108 109 109 109 108 107 108 106 103 -193 85 89 101 115 119 -209 -193 126 132 139 151 145 146 147 147 148 148 149 149 152 167 163 163 163 163 164 166 162 161 157 161 163 165 165 166 -193 171 173 176 175 177 176 180 181 182 183 185 185 0 0 0 0 0
    0 0 0 0 0 0 0 0 0 0 0 0 0 0 0 0 0 0 0 0 0 0 0 0 0 0 0 0 0 0 0 0 0 0 0 0 0 0 0 0 0 0 0 0 0 0 0 0 0 0 0 0 0 0 0 0 0 0 0 0 0 0 0 0 0 0 0 0 0 108 111 110 109 110 112 115 110 109 109 108 109 108 109 108 105 106 105 105 105 101 102 101 98 94 91 90 89 84 82 76 76 75 75 77 77 74 72 71 51 47 44 45 47 49 51 51 50 52 54 52 46 45 41 38 35 35 31 24 24 24 24 23 22 22 23 23 22 22 22 22 24 25 26 26 25 25 24 25 25 28 26 27 27 26 25 25 22 23 22 21 21 22 22 23 23 25 26 26 26 26 22 22 23 20 13 18 22 21 22 21 22 22 22 23 22 21 22 20 21 17 15 17 19 19 18 18 19 19 19 22 -225 -225 -225 -225 49 49 51 52 52 52 52 51 48 54 55 56 57 61 66 64 68 69 69 71 71 71 71 71 72 74 74 76 76 77 79 82 82 83 81 84 85 86 86 86 87 87 88 90 92 92 93 93 97 100 104 105 106 108 110 111 110 108 109 109 107 -193 -209 -177 -209 -209 120 122 122 123 127 132 137 149 144 146 147 148 149 149 150 150 152 166 162 162 162 162 163 166 162 161 157 161 164 166 165 166 -177 171 173 176 175 176 175 179 180 181 182 184 184 0 0 0 0 0
    0 0 0 0 0 0 0 0 0 0 0 0 0 0 0 0 0 0 0 0 0 0 0 0 0 0 0 0 0 0 0 0 0 0 0 0 0 0 0 0 0 0 0 0 0 0 0 0 0 0 0 0 0 0 0 0 0 0 0 0 0 0 0 0 0 0 0 0 0 112 114 112 110 111 114 116 111 110 109 108 108 109 109 108 105 105 105 106 105 101 102 100 96 92 90 89 87 84 82 76 77 76 76 78 77 74 74 74 -193 50 43 43 47 50 51 51 51 52 54 52 47 45 41 38 35 35 31 24 24 24 25 24 23 23 23 24 23 22 23 22 24 25 25 25 24 25 25 25 26 29 27 29 30 29 28 28 24 24 23 22 22 23 23 24 23 26 27 27 26 25 21 21 22 20 11 16 22 21 22 22 23 23 23 23 23 21 22 20 21 17 15 17 19 19 18 18 19 19 19 22 -225 -225 -225 -225 51 51 52 53 53 53 53 52 49 54 55 56 56 61 65 63 68 69 70 71 71 72 71 72 73 74 74 76 75 77 78 81 81 82 80 83 84 85 85 85 86 85 87 88 91 91 92 93 95 99 104 106 106 108 111 112 111 108 110 110 108 107 110 -209 -193 122 124 126 125 125 130 133 138 147 144 146 147 148 150 150 150 151 152 166 161 161 162 161 163 165 162 161 157 161 164 166 166 166 -177 172 174 177 176 176 175 179 180 180 182 183 183 0 0 0 0 0
    0 0 0 0 0 0 0 0 0 0 0 0 0 0 0 0 0 0 0 0 0 0 0 0 0 0 0 0 0 0 0 0 0 0 0 0 0 0 0 0 0 0 0 0 0 0 0 0 0 0 0 0 0 0 0 0 0 0 0 0 0 0 0 0 0 0 0 0 0 113 115 112 110 112 114 116 111 110 109 107 108 108 108 107 105 105 105 105 105 101 101 98 94 91 90 89 86 82 80 76 76 75 75 77 76 74 74 73 -193 52 -209 43 47 51 51 51 51 52 54 51 47 45 41 39 36 36 31 24 25 25 26 25 23 23 23 24 23 22 23 23 24 25 26 26 24 25 25 25 25 29 27 29 30 30 31 31 27 27 24 24 24 24 25 25 25 27 28 29 27 26 23 23 24 25 12 18 23 21 23 22 23 23 23 24 23 21 23 21 22 17 15 16 19 19 18 18 19 19 19 22 -225 -225 -225 -225 53 53 53 54 54 54 54 54 51 54 55 56 57 61 64 62 67 68 69 70 71 71 71 72 73 74 74 76 76 77 78 81 81 81 79 81 82 83 82 81 82 82 86 87 91 90 91 93 94 100 104 107 107 109 112 113 113 110 111 112 110 110 114 -193 -193 122 123 125 124 124 128 133 137 148 144 146 148 150 152 151 152 153 153 166 161 161 161 161 162 165 161 161 157 161 164 167 167 167 -177 172 175 178 176 177 174 179 180 180 182 183 183 0 0 0 0 0
    0 0 0 0 0 0 0 0 0 0 0 0 0 0 0 0 0 0 0 0 0 0 0 0 0 0 0 0 0 0 0 0 0 0 0 0 0 0 0 0 0 0 0 0 0 0 0 0 0 0 0 0 0 0 0 0 0 0 0 0 0 0 0 0 0 0 0 0 0 115 116 112 110 112 114 115 110 110 108 106 107 108 108 107 105 105 105 105 105 101 100 97 93 90 88 87 84 80 78 76 75 74 74 76 75 73 73 73 -193 -193 -209 42 47 51 51 51 50 51 53 50 47 45 41 39 37 37 33 25 27 26 27 27 24 24 24 24 23 21 23 23 24 26 27 27 26 27 27 28 27 31 28 31 31 31 32 32 30 29 25 26 26 26 27 26 26 28 29 30 27 25 21 20 21 21 11 18 23 22 23 23 24 24 24 24 24 22 23 21 22 17 15 16 19 19 18 18 19 19 20 22 -225 -225 -225 -225 55 55 55 55 55 55 55 55 53 55 56 58 58 62 65 63 67 68 69 70 70 71 71 72 73 74 74 76 76 77 78 80 80 81 80 81 81 82 81 77 78 78 83 85 89 88 89 93 93 99 104 106 107 109 112 113 112 110 111 113 111 110 113 116 120 119 122 124 123 124 127 132 138 146 143 145 149 150 153 152 152 153 154 166 160 160 160 160 161 165 161 161 157 161 164 168 167 167 -177 172 175 178 176 177 174 179 179 180 181 183 183 0 0 0 0 0
    0 0 0 0 0 0 0 0 0 0 0 0 0 0 0 0 0 0 0 0 0 0 0 0 0 0 0 0 0 0 0 0 0 0 0 0 0 0 0 0 0 0 0 0 0 0 0 0 0 0 0 0 0 0 0 0 0 0 0 0 0 0 0 0 0 0 0 0 0 116 116 112 111 112 114 115 110 109 108 106 107 107 107 106 104 104 104 104 104 97 95 93 91 89 87 86 82 80 78 76 74 73 73 74 74 72 72 71 -193 54 47 43 49 51 50 50 50 50 52 49 47 44 41 40 38 38 35 27 32 29 29 29 25 24 23 24 23 20 22 22 23 26 27 27 27 28 29 29 30 34 29 32 33 32 31 32 29 29 25 27 26 26 27 26 26 28 29 30 25 24 14 13 16 9 10 15 24 22 24 24 24 24 24 25 25 23 24 23 23 20 17 18 20 19 17 17 19 18 20 22 -225 -225 -225 -225 -225 56 56 57 56 56 57 57 56 57 57 60 60 64 66 64 67 68 69 70 71 71 71 72 73 74 75 77 76 77 79 81 81 82 82 83 83 83 82 76 77 77 82 85 -209 87 88 94 93 101 105 107 107 109 111 113 113 111 113 115 115 115 119 122 123 122 123 124 124 124 127 133 138 142 141 143 148 150 153 153 153 154 155 166 161 161 161 161 162 165 162 162 157 162 165 168 167 168 -177 172 174 178 176 176 174 178 179 179 181 182 182 0 0 0 0 0
    0 0 0 0 0 0 0 0 0 0 0 0 0 0 0 0 0 0 0 0 0 0 0 0 0 0 0 0 0 0 0 0 0 0 0 0 0 0 0 0 0 0 0 0 0 0 0 0 0 0 0 0 0 0 0 0 0 0 0 0 0 0 0 0 0 0 0 0 0 117 117 113 112 112 114 115 111 110 108 106 107 107 107 105 102 103 101 99 99 94 93 92 90 88 87 85 81 79 78 76 74 73 72 73 73 72 71 71 -193 54 52 47 51 52 50 51 49 51 52 50 48 45 42 42 40 40 38 30 37 34 32 31 27 26 24 25 24 21 23 23 24 28 28 29 29 31 31 32 32 35 30 32 33 32 31 32 30 31 27 31 29 27 28 29 28 31 30 33 25 -193 0 9 9 0 9 14 22 22 24 23 24 26 25 26 26 25 26 25 25 23 17 18 20 19 18 16 18 18 20 22 -225 -225 -225 -225 -225 58 58 58 57 57 58 58 58 57 59 62 61 65 67 65 68 68 70 71 71 72 72 73 73 74 75 76 77 78 80 82 82 83 83 83 84 84 82 76 76 75 76 83 -209 -209 88 97 97 101 105 107 107 108 111 112 113 112 115 117 119 119 122 125 127 126 126 127 125 124 126 132 136 139 139 141 147 150 153 153 153 154 157 166 161 161 161 161 163 166 163 163 158 163 165 168 167 167 -177 172 174 177 175 176 174 177 178 178 180 181 181 0 0 0 0 0
    0 0 0 0 0 0 0 0 0 0 0 0 0 0 0 0 0 0 0 0 0 0 0 0 0 0 0 0 0 0 0 0 0 0 0 0 0 0 0 0 0 0 0 0 0 0 0 0 0 0 0 0 0 0 0 0 0 0 0 0 0 0 0 0 0 0 0 0 0 119 117 115 114 114 116 116 112 111 108 107 106 106 106 104 101 100 95 94 94 91 91 91 90 88 87 86 82 82 80 79 74 72 72 73 73 72 71 71 69 57 57 53 54 53 51 51 49 50 52 50 49 46 44 47 47 46 43 38 41 39 36 34 28 32 27 30 31 27 34 36 34 36 33 34 34 34 35 34 33 35 32 33 33 31 30 30 29 30 26 30 28 28 29 30 31 32 -225 -225 -225 -225 -225 -225 -225 -225 -225 13 20 19 23 23 24 27 26 27 27 26 28 28 28 26 17 18 21 20 19 18 18 19 23 -225 -225 -225 -225 -225 62 58 58 58 57 56 58 58 58 57 59 63 61 66 68 66 68 69 70 71 71 72 72 73 74 74 76 77 77 78 80 81 82 83 83 83 83 83 80 74 74 72 72 76 -193 83 -193 96 98 101 104 106 106 107 109 110 112 111 113 116 119 121 122 125 128 127 128 127 125 123 125 130 135 136 137 137 143 149 153 153 153 154 157 166 161 161 161 161 163 166 163 163 158 163 165 168 167 167 -177 171 174 177 176 176 174 177 178 178 179 180 179 0 0 0 0 0
    0 0 0 0 0 0 0 0 0 0 0 0 0 0 0 0 0 0 0 0 0 0 0 0 0 0 0 0 0 0 0 0 0 0 0 0 0 0 0 0 0 0 0 0 0 0 0 0 0 0 0 0 0 0 0 0 0 0 0 0 0 0 0 0 0 0 0 0 0 119 118 116 115 114 116 116 113 113 110 108 107 107 107 105 101 99 93 91 90 89 90 89 88 86 86 84 81 82 81 80 74 72 72 73 73 72 71 71 69 61 62 55 56 53 51 51 49 50 52 50 50 47 44 50 52 53 48 43 48 48 -209 -193 -209 39 36 -193 55 40 42 42 40 41 37 37 37 36 37 36 36 37 35 37 35 33 -225 -225 -225 -225 -225 -225 -225 -225 -225 -225 -225 -225 -225 -225 -225 -225 -225 -225 -225 -225 -225 -225 -225 -225 -225 -225 -225 -225 -209 27 27 27 29 29 28 27 16 18 20 21 21 -225 -225 -225 -225 -225 -225 -225 62 58 62 58 58 58 57 56 58 57 58 57 60 64 62 66 68 66 68 69 70 71 71 72 72 73 74 75 76 76 77 78 80 82 82 83 83 83 84 83 82 75 74 72 69 72 71 80 88 94 96 101 104 106 107 107 109 110 112 111 114 116 119 120 122 123 125 124 126 125 123 123 124 129 133 135 136 136 141 148 153 153 153 154 158 166 162 162 162 161 164 166 164 163 159 163 165 167 167 167 -193 171 175 178 176 177 175 178 178 178 179 180 178 0 0 0 0 0
    0 0 0 0 0 0 0 0 0 0 0 0 0 0 0 0 0 0 0 0 0 0 0 0 0 0 0 0 0 0 0 0 0 0 0 0 0 0 0 0 0 0 0 0 0 0 0 0 0 0 0 0 0 0 0 0 0 0 0 0 0 0 0 0 0 0 0 0 0 119 118 116 114 114 115 115 113 113 111 108 108 107 107 105 102 99 91 90 87 87 88 87 86 84 85 84 81 83 82 82 75 73 72 73 73 72 71 71 70 61 62 57 56 54 51 51 49 50 51 50 50 47 44 50 52 53 48 44 48 48 43 -193 -193 42 37 44 59 42 44 45 43 43 38 39 37 36 37 37 37 37 37 41 41 -225 -225 -225 -225 -225 -225 -225 -225 -225 -225 -225 -225 -225 -225 -225 -225 -225 -225 -225 -225 -225 -225 -225 -225 -225 -225 -225 -225 -225 -225 -225 -225 -225 -225 -225 -225 -225 -225 -225 -225 -225 -225 -225 -225 -225 -225 -225 -225 62 66 60 61 58 58 57 57 56 57 56 57 56 60 63 62 67 68 66 68 69 70 71 71 72 71 72 73 74 76 76 77 79 81 82 83 84 84 84 84 84 83 80 77 77 71 74 72 79 84 90 94 101 106 107 109 108 110 111 114 114 115 117 120 121 123 125 127 127 128 126 124 123 124 130 133 134 136 136 142 150 -209 154 154 155 161 166 162 163 162 162 164 166 164 163 159 163 165 167 167 167 -193 172 175 178 176 177 175 178 179 178 180 180 179 0 0 0 0 0
    0 0 0 0 0 0 0 0 0 0 0 0 0 0 0 0 0 0 0 0 0 0 0 0 0 0 0 0 0 0 0 0 0 0 0 0 0 0 0 0 0 0 0 0 0 0 0 0 0 0 0 0 0 0 0 0 0 0 0 0 0 0 0 0 0 0 0 0 0 119 118 116 114 114 114 116 113 113 112 109 108 108 107 106 103 100 91 88 85 85 86 85 86 84 85 83 82 83 84 84 76 73 73 73 73 72 72 71 71 63 63 59 56 54 52 52 50 51 52 51 50 47 43 48 50 51 47 45 48 47 43 47 -193 42 40 54 59 45 46 48 45 45 40 39 38 36 37 37 37 37 37 41 41 -225 -225 -225 -225 -225 -225 -225 -225 -225 -225 -225 -225 -225 -225 -225 -225 -225 -225 -225 -225 -225 -225 -225 -225 -225 -225 -225 -225 -225 -225 -225 -225 -225 -225 -225 -225 -225 -225 -225 -225 -225 -225 -225 -225 -225 -225 -225 -225 62 66 60 60 58 58 57 56 56 57 56 57 56 60 62 62 67 68 67 69 69 70 71 71 72 71 72 73 73 76 77 78 79 82 83 83 84 84 84 85 85 84 82 80 81 74 76 74 80 83 90 -209 102 106 106 110 108 110 110 114 114 117 118 120 122 123 125 127 128 129 126 125 124 124 131 133 134 136 136 144 -209 -209 156 156 157 162 167 163 163 163 162 164 166 164 163 159 163 165 167 167 167 -193 172 176 178 177 177 176 178 179 179 180 181 180 0 0 0 0 0
    0 0 0 0 0 0 0 0 0 0 0 0 0 0 0 0 0 0 0 0 0 0 0 0 0 0 0 0 0 0 0 0 0 0 0 0 0 0 0 0 0 0 0 0 0 0 0 0 0 0 0 0 0 0 0 0 0 0 0 0 0 0 0 0 0 0 0 0 0 120 119 116 115 115 115 116 113 114 113 111 109 109 107 106 105 102 92 87 83 83 82 84 84 83 83 82 81 82 85 86 76 74 73 73 74 73 73 71 72 67 62 59 57 55 53 53 51 52 52 52 51 46 42 47 48 50 46 45 48 47 43 47 42 43 43 56 58 47 49 51 47 47 40 39 37 35 37 37 37 38 37 41 41 -225 -225 -225 -225 -225 -225 -225 -225 -225 -225 -225 -225 -225 -225 -225 -225 -225 -225 -225 -225 -225 -225 -225 -225 -225 -225 -225 -225 -225 -225 -225 -225 -225 -225 -225 -225 -225 -225 -225 -225 -225 -225 -225 -225 -225 -225 -225 -225 62 65 60 61 59 59 59 59 58 59 58 60 58 61 62 62 66 69 68 69 70 71 72 71 72 72 72 73 73 76 77 79 81 83 84 85 86 86 86 86 86 85 82 82 86 76 81 -209 -209 -209 92 98 102 106 104 110 108 110 109 114 115 117 119 120 123 124 126 128 129 129 126 126 125 124 128 130 131 133 134 -209 -209 -209 157 158 157 163 167 163 163 163 162 164 166 164 163 159 163 165 167 166 167 -193 171 176 178 176 177 176 178 179 179 181 181 180 0 0 0 0 0
    0 0 0 0 0 0 0 0 0 0 0 0 0 0 0 0 0 0 0 0 0 0 0 0 0 0 0 0 0 0 0 0 0 0 0 0 0 0 0 0 0 0 0 0 0 0 0 0 0 0 0 0 0 0 0 0 0 0 0 0 0 0 0 0 0 0 0 0 0 121 120 117 116 115 115 116 114 114 114 113 111 110 108 107 105 104 93 89 84 84 82 83 84 81 83 81 80 81 85 86 78 76 75 74 75 75 75 73 73 70 60 59 57 55 53 53 52 53 53 53 52 46 42 47 48 50 46 46 48 47 44 48 43 45 49 57 59 51 51 53 50 47 40 39 35 34 36 36 37 39 39 41 -225 -225 -225 -225 -225 -225 -225 -225 -225 -225 -225 -225 -225 -225 -225 -225 -225 -225 -225 -225 -225 -225 -225 -225 -225 -225 -225 -225 -225 -225 -225 -225 -225 -225 -225 -225 -225 -225 -225 -225 -225 -225 -225 -225 -225 -225 -225 -225 -225 61 64 60 60 59 59 58 59 58 59 58 59 58 60 61 61 64 69 68 70 71 72 72 72 72 72 72 73 74 77 78 82 84 85 86 86 88 88 88 88 88 87 86 86 89 87 87 -209 -209 -209 94 98 102 104 104 109 106 108 108 112 114 117 118 121 123 125 125 127 128 128 125 126 125 125 130 131 132 133 134 -209 -209 -209 156 157 157 162 166 162 162 162 161 164 166 164 163 159 163 165 167 166 167 -193 171 175 177 176 176 175 178 178 179 180 181 180 0 0 0 0 0
    0 0 0 0 0 0 0 0 0 0 0 0 0 0 0 0 0 0 0 0 0 0 0 0 0 0 0 0 0 0 0 0 0 0 0 0 0 0 0 0 0 0 0 0 0 0 0 0 0 0 0 0 0 0 0 0 0 0 0 0 0 0 0 0 0 0 0 0 0 123 120 118 116 115 115 115 114 114 114 113 112 111 108 107 105 101 90 89 84 83 81 83 84 80 82 81 80 82 86 86 79 78 76 75 77 76 76 73 74 -193 58 58 57 55 54 54 53 54 55 55 54 47 42 47 49 51 47 47 48 47 44 48 46 51 54 58 60 53 53 55 55 53 45 41 36 31 35 35 37 38 -225 -225 -225 -225 -225 -225 -225 -225 -225 -225 -225 -225 -225 -225 -225 -225 -225 -225 -225 -225 -225 -225 -225 -225 -225 -225 -225 -225 -225 -225 -225 -225 -225 -225 -225 -225 -225 -225 -225 -225 -225 -225 -225 -225 -225 -225 -225 -225 -225 -225 -225 61 64 59 60 59 59 58 59 58 59 57 58 58 59 59 60 62 68 68 69 71 72 73 72 73 74 74 75 76 79 80 83 85 86 86 87 87 88 88 87 87 86 86 86 89 88 89 87 -209 -209 94 99 101 105 104 110 107 109 108 112 114 117 119 122 124 125 126 126 127 127 124 125 124 125 130 131 133 133 135 143 -209 -209 157 159 158 162 166 162 163 163 161 164 166 164 163 159 163 164 166 166 167 168 171 174 176 175 176 175 177 177 179 180 180 180 0 0 0 0 0
    0 0 0 0 0 0 0 0 0 0 0 0 0 0 0 0 0 0 0 0 0 0 0 0 0 0 0 0 0 0 0 0 0 0 0 0 0 0 0 0 0 0 0 0 0 0 0 0 0 0 0 0 0 0 0 0 0 0 0 0 0 0 0 0 0 0 0 0 0 125 121 119 118 116 116 116 114 115 113 113 112 112 108 105 101 94 89 89 86 86 86 86 84 80 82 81 80 83 86 86 80 80 76 76 77 76 76 74 74 -209 58 58 56 55 54 54 53 54 56 56 55 48 43 50 52 53 49 48 49 48 44 51 52 55 57 59 61 55 55 56 56 55 50 45 -225 -225 -225 -225 -225 -225 -225 -225 -225 -225 -225 -225 -225 -225 -225 -225 -225 -225 -225 -225 -225 -225 -225 -225 -225 -225 -225 -225 -225 -225 -225 -225 -225 -225 -225 -225 -225 -225 -225 -225 -225 -225 -225 -225 -225 -225 -225 -225 -225 -225 -225 -225 -225 -225 -225 -225 -225 61 64 60 60 59 59 58 59 58 59 57 58 58 59 59 60 61 67 67 68 70 71 72 72 73 74 74 75 77 79 81 82 84 84 84 85 86 85 86 85 85 84 85 85 87 88 89 -209 -209 -209 -193 -209 101 -209 103 -193 107 109 108 111 112 116 -193 120 122 124 124 125 126 127 124 124 124 126 131 131 132 133 134 -193 -209 -209 158 159 158 162 165 162 162 162 160 164 166 163 162 158 162 164 166 166 167 167 171 174 175 175 176 174 176 176 179 179 179 179 0 0 0 0 0
    0 0 0 0 0 0 0 0 0 0 0 0 0 0 0 0 0 0 0 0 0 0 0 0 0 0 0 0 0 0 0 0 0 0 0 0 0 0 0 0 0 0 0 0 0 0 0 0 0 0 0 0 0 0 0 0 0 0 0 0 0 0 0 0 0 0 0 0 0 126 122 120 118 116 116 116 114 114 111 111 110 111 107 102 97 93 90 90 89 88 89 88 84 79 80 80 79 83 86 85 80 81 77 76 78 77 76 74 74 -193 60 60 56 55 54 54 54 55 56 56 56 50 44 52 53 54 50 49 50 48 47 54 56 58 58 61 62 58 57 58 57 56 53 49 -225 -225 -225 -225 -225 -225 -225 -225 -225 -225 -225 -225 -225 -225 -225 -225 -225 -225 -225 -225 -225 -225 -225 -225 -225 -225 -225 -225 -225 -225 -225 -225 -225 -225 -225 -225 -225 -225 -225 -225 -225 -225 -225 -225 -225 -225 -225 -225 -225 -225 -225 -225 -225 -225 -225 -225 -225 60 63 60 60 60 60 59 60 59 60 57 58 58 59 59 60 60 65 66 67 69 70 72 72 73 74 74 76 77 80 81 83 84 83 83 84 84 84 85 83 84 83 85 85 88 89 90 -209 94 -209 -209 -209 -209 -209 -193 111 111 112 110 111 112 114 116 119 120 121 -193 122 123 124 123 124 124 126 133 132 132 134 135 143 151 -209 157 158 157 160 165 161 161 161 159 163 165 161 161 157 161 163 166 165 167 167 171 174 175 174 175 174 176 175 179 178 179 178 0 0 0 0 0
    0 0 0 0 0 0 0 0 0 0 0 0 0 0 0 0 0 0 0 0 0 0 0 0 0 0 0 0 0 0 0 0 0 0 0 0 0 0 0 0 0 0 0 0 0 0 0 0 0 0 0 0 0 0 0 0 0 0 0 0 0 0 0 0 0 0 0 0 0 127 122 120 117 115 115 115 113 114 110 111 111 112 107 102 93 91 89 90 89 0 -256 -1 3523 80 81 80 79 85 86 85 80 81 77 77 78 77 76 74 75 75 67 66 58 56 55 55 55 55 57 57 57 52 45 53 52 53 49 48 49 49 52 57 59 61 62 63 64 60 60 59 58 57 55 -225 -225 -225 -225 -225 -225 -225 -225 -225 -225 -225 -225 -225 -225 -225 -225 -225 -225 -225 -225 -225 -225 -225 -225 -225 -225 -225 -225 -225 -225 -225 -225 -225 -225 -225 -225 -225 -225 -225 -225 -225 -225 -225 -225 -225 -225 -225 -225 -225 -225 -225 -225 -225 -225 -225 -225 -225 -225 59 62 60 61 61 61 61 62 61 63 61 63 62 63 62 63 65 69 69 68 69 69 71 71 72 73 75 77 77 81 84 84 85 85 85 85 85 85 86 84 85 85 86 86 89 90 92 93 97 -209 -209 -209 -209 -209 -193 115 117 115 114 113 113 115 115 118 119 120 120 121 122 124 123 123 124 126 132 131 132 133 136 148 152 -209 157 158 157 160 165 160 161 161 159 162 165 161 161 157 161 163 166 166 -193 167 171 173 174 174 175 173 175 175 179 179 180 179 0 0 0 0 0
    0 0 0 0 0 0 0 0 0 0 0 0 0 0 0 0 0 0 0 0 0 0 0 0 0 0 0 0 0 0 0 0 0 0 0 0 0 0 0 0 0 0 0 0 0 0 0 0 0 0 0 0 0 0 0 0 0 0 0 0 0 0 0 0 0 0 0 0 0 128 123 121 117 115 115 115 114 114 110 113 112 114 109 102 92 92 90 90 90 89 90 89 89 88 86 83 82 86 86 85 81 81 78 77 78 78 76 74 75 75 69 68 61 57 57 57 57 57 58 59 59 55 50 54 52 52 48 49 51 53 55 60 65 67 67 67 66 63 62 61 60 59 57 -225 -225 -225 -225 -225 -225 -225 -225 -225 -225 -225 -225 -225 -225 -225 -225 -225 -225 -225 -225 -225 -225 -225 -225 -225 -225 -225 -225 -225 -225 -225 -225 -225 -225 -225 -225 -225 -225 -225 -225 -225 -225 -225 -225 -225 -225 -225 -225 -225 -225 -225 -225 -225 -225 -225 -225 -225 -225 58 61 61 62 63 64 65 64 63 66 66 68 68 67 67 67 69 72 71 70 69 69 70 70 71 73 74 77 77 82 84 84 85 85 85 85 85 84 85 84 85 85 86 86 89 90 93 94 98 -209 -209 -209 -209 -209 -209 115 117 116 114 112 113 115 115 120 121 122 122 123 124 125 125 125 125 126 130 129 130 128 132 150 153 -193 157 158 158 159 165 160 160 160 158 162 165 162 161 157 162 164 167 166 -193 -193 171 173 174 174 174 173 175 175 179 179 180 180 0 0 0 0 0
    0 0 0 0 0 0 0 0 0 0 0 0 0 0 0 0 0 0 0 0 0 0 0 0 0 0 0 0 0 0 0 0 0 0 0 0 0 0 0 0 0 0 0 0 0 0 0 0 0 0 0 0 0 0 0 0 0 0 0 0 0 0 0 0 0 0 0 0 0 130 123 121 118 115 115 115 114 115 109 113 113 113 109 102 94 93 92 91 90 90 90 90 90 90 88 86 85 87 86 84 81 80 77 77 78 77 76 74 74 75 71 70 68 58 58 58 58 58 60 61 61 58 57 58 56 54 49 52 56 57 63 69 71 70 70 69 68 65 63 62 61 59 -225 -225 -225 -225 -225 -225 -225 -225 -225 -225 -225 -225 -225 -225 -225 -225 -225 -225 -225 -225 -225 -225 -225 -225 -225 -225 -225 -225 -225 -225 -225 -225 -225 -225 -225 -225 -225 -225 -225 -225 -225 -225 -225 -225 -225 -225 -225 -225 -225 -225 -225 -225 -225 -225 -225 -225 -225 -225 -225 -225 60 61 67 68 67 68 66 66 67 68 69 69 68 69 69 71 73 73 73 71 71 73 71 71 73 74 76 76 82 85 84 86 85 86 86 85 85 86 84 86 85 86 86 89 90 93 94 98 102 -209 -209 -209 -209 -209 110 110 110 107 108 110 112 113 120 121 122 122 123 124 125 124 124 124 126 127 128 128 127 128 142 151 -209 156 157 157 157 164 159 160 160 158 161 165 162 162 158 163 164 167 167 -193 -193 171 173 174 173 174 173 174 174 178 178 179 179 0 0 0 0 0
    0 0 0 0 0 0 0 0 0 0 0 0 0 0 0 0 0 0 0 0 0 0 0 0 0 0 0 0 0 0 0 0 0 0 0 0 0 0 0 0 0 0 0 0 0 0 0 0 0 0 0 0 0 0 0 0 0 0 0 0 0 0 0 0 0 0 0 0 0 130 124 120 117 115 114 114 114 114 109 111 113 112 110 105 100 94 93 91 91 90 90 90 92 92 90 87 87 87 86 84 81 79 77 77 77 77 75 74 74 75 72 72 71 60 59 59 60 60 62 64 64 59 61 64 62 58 54 57 64 71 72 73 73 72 71 70 69 67 65 63 62 -225 -225 -225 -225 -225 -225 -225 -225 -225 -225 -225 -225 -225 -225 -225 -225 -225 -225 -225 -225 -225 -225 -225 -225 -225 -225 -225 -225 -225 -225 -225 -225 -225 -225 -225 -225 -225 -225 -225 -225 -225 -225 -225 -225 -225 -225 -225 -225 -225 -225 -225 -225 -225 -225 -225 -225 -225 -225 -225 -225 -225 59 63 70 69 67 69 66 67 67 68 69 69 69 70 70 72 74 74 74 72 72 73 73 72 74 74 76 76 82 86 85 86 86 86 86 86 85 86 85 86 85 87 87 89 91 94 95 98 101 102 103 -209 -209 106 108 109 109 107 109 112 114 116 121 121 122 122 123 123 124 124 124 124 125 126 127 127 127 -209 138 150 -193 155 156 156 157 164 159 160 160 158 161 165 162 162 158 164 165 167 167 -193 168 171 173 173 173 174 173 174 174 178 178 179 180 0 0 0 0 0
    0 0 0 0 0 0 0 0 0 0 0 0 0 0 0 0 0 0 0 0 0 0 0 0 0 0 0 0 0 0 0 0 0 0 0 0 0 0 0 0 0 0 0 0 0 0 0 0 0 0 0 0 0 0 0 0 0 0 0 0 0 0 0 0 0 0 0 0 0 129 123 120 117 115 114 113 113 114 109 111 112 113 111 107 103 95 93 93 92 93 92 93 95 96 94 89 88 87 85 83 81 78 77 76 77 76 74 73 72 74 73 72 71 61 60 60 62 63 65 66 67 61 66 68 68 62 59 65 71 74 74 74 74 73 72 71 70 69 66 64 -225 -225 -225 -225 -225 -225 -225 -225 -225 -225 -225 -225 -225 -225 -225 -225 -225 -225 -225 -225 -225 -225 -225 -225 -225 -225 -225 -225 -225 -225 -225 -225 -225 -225 -225 -225 -225 -225 -225 -225 -225 -225 -225 -225 -225 -225 -225 -225 -225 -225 -225 -225 -225 -225 -225 -225 -225 -225 -225 -225 -225 -225 -225 64 70 69 67 69 66 68 68 69 71 71 70 71 72 73 74 74 75 73 73 74 74 74 76 74 78 78 82 87 85 86 86 86 87 86 85 86 85 87 85 86 86 88 91 94 96 98 101 102 103 104 105 106 107 108 107 107 109 110 113 115 119 119 120 121 122 122 123 123 123 123 125 125 126 125 125 123 -193 150 -177 156 156 157 158 164 160 160 160 158 161 165 163 163 158 165 165 167 167 168 168 171 172 173 173 174 173 175 176 179 179 180 182 0 0 0 0 0
    0 0 0 0 0 0 0 0 0 0 0 0 0 0 0 0 0 0 0 0 0 0 0 0 0 0 0 0 0 0 0 0 0 0 0 0 0 0 0 0 0 0 0 0 0 0 0 0 0 0 0 0 0 0 0 0 0 0 0 0 0 0 0 0 0 0 0 0 0 130 124 121 118 116 115 114 114 114 110 113 115 116 114 110 106 97 95 95 95 97 95 97 99 99 99 95 90 87 85 83 81 78 76 76 76 75 73 72 72 74 74 74 73 67 64 64 69 68 68 69 69 67 69 70 70 64 63 71 75 76 76 76 75 74 73 73 71 70 68 66 -225 -225 -225 -225 -225 -225 -225 -225 -225 -225 -225 -225 -225 -225 -225 -225 -225 -225 -225 -225 -225 -225 -225 -225 -225 -225 -225 -225 -225 -225 -225 -225 -225 -225 -225 -225 -225 -225 -225 -225 -225 -225 -225 -225 -225 -225 -225 -225 -225 -225 -225 -225 -225 -225 -225 -225 -225 -225 -225 -225 -225 -225 -225 -225 -225 71 70 71 68 70 70 71 73 73 72 73 74 74 75 75 76 74 74 75 75 75 76 74 77 77 79 85 84 85 85 86 86 85 84 85 85 86 85 86 86 87 90 94 95 98 101 102 103 105 105 106 106 107 107 107 109 110 112 114 118 119 121 122 123 124 124 124 124 124 125 126 127 128 128 130 139 149 -193 155 155 156 157 164 160 160 160 158 161 165 163 163 159 165 166 167 167 168 168 170 172 173 172 173 173 175 176 179 179 179 181 0 0 0 0 0
    0 0 0 0 0 0 0 0 0 0 0 0 0 0 0 0 0 0 0 0 0 0 0 0 0 0 0 0 0 0 0 0 0 0 0 0 0 0 0 0 0 0 0 0 0 0 0 0 0 0 0 0 0 0 0 0 0 0 0 0 0 0 0 0 0 0 0 0 0 129 125 121 118 117 115 114 115 114 111 113 115 116 114 112 108 101 99 99 98 100 98 98 99 99 100 93 89 87 85 83 82 78 76 76 76 74 71 70 71 73 76 77 77 76 75 74 76 75 74 73 73 73 72 72 71 69 70 74 77 77 77 77 76 75 74 73 72 71 68 -225 -225 -225 -225 -225 -225 -225 -225 -225 -225 -225 -225 -225 -225 -225 -225 -225 -225 -225 -225 -225 -225 -225 -225 -225 -225 -225 -225 -225 -225 -225 -225 -225 -225 -225 -225 -225 -225 -225 -225 -225 -225 -225 -225 -225 -225 -225 -225 -225 -225 -225 -225 -225 -225 -225 -225 -225 -225 -225 -225 -225 -225 -225 -225 -225 -225 -225 71 71 68 71 70 71 73 74 73 74 74 75 76 76 77 75 75 76 76 75 76 74 76 76 76 81 81 84 85 86 86 86 85 86 87 88 87 88 88 89 91 94 95 99 100 102 104 105 105 106 106 106 106 106 108 109 111 112 118 120 121 123 124 124 125 125 124 125 125 126 127 128 129 130 137 148 -177 154 155 156 157 164 160 160 160 158 161 165 164 164 160 166 167 168 167 168 168 169 171 172 172 173 173 174 176 177 178 178 179 0 0 0 0 0
    0 0 0 0 0 0 0 0 0 0 0 0 0 0 0 0 0 0 0 0 0 0 0 0 0 0 0 0 0 0 0 0 0 0 0 0 0 0 0 0 0 0 0 0 0 0 0 0 0 0 0 0 0 0 0 0 0 0 0 0 0 0 0 0 0 0 0 0 0 128 125 121 118 116 114 113 114 114 111 113 114 116 115 114 110 105 103 103 102 103 103 101 102 102 100 94 90 87 85 84 83 78 77 76 76 74 71 70 71 74 81 80 79 80 80 78 81 78 77 75 75 75 73 72 73 73 74 77 79 79 78 78 77 76 75 74 73 72 -225 -225 -225 -225 -225 -225 -225 -225 -225 -225 -225 -225 -225 -225 -225 -225 -225 -225 -225 -225 -225 -225 -225 -225 -225 -225 -225 -225 -225 -225 -225 -225 -225 -225 -225 -225 -225 -225 -225 -225 -225 -225 -225 -225 -225 -225 -225 -225 -225 -225 -225 -225 -225 -225 -225 -225 -225 -225 -225 -225 -225 -225 -225 -225 -225 -225 -225 -225 71 71 68 70 70 71 74 75 74 75 75 76 77 77 78 77 76 77 77 77 78 75 77 76 77 79 82 85 87 88 88 87 87 88 88 90 89 90 90 90 92 96 95 99 99 102 103 105 105 105 104 105 104 105 107 108 109 110 117 120 122 123 124 124 125 124 124 124 124 125 125 126 127 127 136 148 -193 154 155 155 157 164 159 159 160 157 161 165 164 164 160 167 167 168 168 168 168 169 170 171 172 173 173 174 176 177 179 179 179 0 0 0 0 0
    0 0 0 0 0 0 0 0 0 0 0 0 0 0 0 0 0 0 0 0 0 0 0 0 0 0 0 0 0 0 0 0 0 0 0 0 0 0 0 0 0 0 0 0 0 0 0 0 0 0 0 0 0 0 0 0 0 0 0 0 0 0 0 0 0 0 0 0 0 127 125 122 118 114 112 112 114 112 111 112 113 116 116 115 112 106 104 104 103 105 104 102 102 101 100 95 92 88 86 84 84 78 77 76 75 73 71 69 71 75 83 81 80 82 81 79 81 79 78 76 76 75 74 73 76 76 77 80 81 81 80 79 78 77 76 75 74 -225 -225 -225 -225 -225 -225 -225 -225 -225 -225 -225 -225 -225 -225 -225 -225 -225 -225 -225 -225 -225 -225 -225 -225 -225 -225 -225 -225 -225 -225 -225 -225 -225 -225 -225 -225 -225 -225 -225 -225 -225 -225 -225 -225 -225 -225 -225 -225 -225 -225 -225 -225 -225 -225 -225 -225 -225 -225 -225 -225 -225 -225 -225 -225 -225 -225 -225 -225 -225 -225 70 66 69 69 71 73 74 74 75 75 76 78 77 79 77 78 78 78 77 78 75 77 75 76 75 79 84 87 89 89 88 88 89 89 91 91 91 91 91 93 96 95 98 97 100 102 104 103 103 103 103 103 104 106 106 107 109 115 120 122 123 125 125 126 125 125 125 124 125 125 125 126 126 136 148 -193 155 155 156 157 164 160 160 160 157 160 164 165 165 162 168 168 169 168 168 169 169 170 172 172 173 173 174 176 177 178 179 177 0 0 0 0 0
    0 0 0 0 0 0 0 0 0 0 0 0 0 0 0 0 0 0 0 0 0 0 0 0 0 0 0 0 0 0 0 0 0 0 0 0 0 0 0 0 0 0 0 0 0 0 0 0 0 0 0 0 0 0 0 0 0 0 0 0 0 0 0 0 0 0 0 0 0 126 124 122 117 114 110 111 113 111 112 112 112 115 116 115 113 106 104 104 104 105 104 102 101 101 100 96 93 88 86 85 84 79 78 76 76 73 72 70 72 76 84 82 82 83 82 80 82 79 79 77 77 76 75 75 79 79 81 83 83 83 81 80 79 78 77 76 -225 -225 -225 -225 -225 -225 -225 -225 -225 -225 -225 -225 -225 -225 -225 -225 -225 -225 -225 -225 -225 -225 -225 -225 -225 -225 -225 -225 -225 -225 -225 -225 -225 -225 -225 -225 -225 -225 -225 -225 -225 -225 -225 -225 -225 -225 -225 -225 -225 -225 -225 -225 -225 -225 -225 -225 -225 -225 -225 -225 -225 -225 -225 -225 -225 -225 -225 -225 -225 -225 -225 70 66 70 69 70 72 74 73 75 76 76 78 78 80 78 79 79 79 78 78 76 78 76 76 74 77 82 86 87 90 89 88 90 90 92 92 92 92 92 93 96 95 97 96 98 101 104 102 102 101 102 102 103 105 105 106 109 116 121 123 125 126 126 127 126 126 126 125 125 127 127 127 128 135 -193 -193 155 156 157 158 165 160 160 160 157 160 164 165 165 162 169 169 169 169 169 169 169 170 171 172 172 173 173 175 176 176 177 173 0 0 0 0 0
    0 0 0 0 0 0 0 0 0 0 0 0 0 0 0 0 0 0 0 0 0 0 0 0 0 0 0 0 0 0 0 0 0 0 0 0 0 0 0 0 0 0 0 0 0 0 0 0 0 0 0 0 0 0 0 0 0 0 0 0 0 0 0 0 0 0 0 0 0 125 123 122 118 114 111 110 113 111 112 112 111 113 116 115 113 106 105 105 105 105 104 102 101 101 100 97 94 88 86 85 85 80 78 77 76 73 74 72 76 79 87 85 85 85 84 83 84 81 80 78 78 78 79 80 83 83 85 85 85 84 82 81 80 79 78 77 -225 -225 -225 -225 -225 -225 -225 -225 -225 -225 -225 -225 -225 -225 -225 -225 -225 -225 -225 -225 -225 -225 -225 -225 -225 -225 -225 -225 -225 -225 -225 -225 -225 -225 -225 -225 -225 -225 -225 -225 -225 -225 -225 -225 -225 -225 -225 -225 -225 -225 -225 -225 -225 -225 -225 -225 -225 -225 -225 -225 -225 -225 -225 -225 -225 -225 -225 -225 -225 -225 -225 -225 -225 71 69 71 73 76 74 76 76 77 79 79 81 79 80 80 80 80 79 77 80 78 78 77 80 82 85 87 89 89 88 90 91 92 93 92 93 92 94 97 96 98 98 99 102 104 104 103 103 104 104 104 105 106 106 111 117 121 124 125 126 127 127 126 126 126 126 126 128 128 130 132 136 148 -193 154 155 156 157 165 160 160 160 157 160 164 165 165 163 169 169 169 169 168 169 168 169 171 172 172 173 173 175 176 176 178 174 0 0 0 0 0
    0 0 0 0 0 0 0 0 0 0 0 0 0 0 0 0 0 0 0 0 0 0 0 0 0 0 0 0 0 0 0 0 0 0 0 0 0 0 0 0 0 0 0 0 0 0 0 0 0 0 0 0 0 0 0 0 0 0 0 0 0 0 0 0 0 0 0 0 0 124 123 121 118 114 112 110 113 111 111 111 111 112 115 115 113 106 106 106 106 106 105 103 102 101 101 98 94 88 87 86 85 81 79 78 77 74 79 74 82 83 88 86 86 85 85 84 86 83 82 81 82 83 84 85 86 85 86 87 86 85 83 82 80 79 77 -225 -225 -225 -225 -225 -225 -225 -225 -225 -225 -225 -225 -225 -225 -225 -225 -225 -225 -225 -225 -225 -225 -225 -225 -225 -225 -225 -225 -225 -225 -225 -225 -225 -225 -225 -225 -225 -225 -225 -225 -225 -225 -225 -225 -225 -225 -225 -225 -225 -225 -225 -225 -225 -225 -225 -225 -225 -225 -225 -225 -225 -225 -225 -225 -225 -225 -225 -225 -225 -225 -225 -225 -225 -225 -225 72 74 78 80 77 78 78 80 81 80 82 81 81 82 81 81 81 79 82 80 80 80 83 84 86 87 89 90 89 90 91 92 93 93 94 94 95 98 98 99 99 100 102 104 104 104 104 105 106 106 106 108 108 110 115 119 123 124 126 127 127 126 126 126 125 125 127 126 130 134 137 148 -209 154 155 156 157 164 159 159 159 157 160 164 165 165 163 169 169 169 169 169 169 168 168 170 172 172 173 173 175 177 176 180 -193 0 0 0 0 0
    0 0 0 0 0 0 0 0 0 0 0 0 0 0 0 0 0 0 0 0 0 0 0 0 0 0 0 0 0 0 0 0 0 0 0 0 0 0 0 0 0 0 0 0 0 0 0 0 0 0 0 0 0 0 0 0 0 0 0 0 0 0 0 0 0 0 0 0 0 124 123 121 119 115 113 111 114 112 111 112 111 111 115 114 113 106 105 106 105 105 104 103 102 101 101 98 93 89 88 86 85 83 81 78 78 76 84 77 86 87 88 86 86 85 85 84 85 83 82 81 83 84 86 86 87 86 87 87 86 85 84 83 81 80 -225 -225 -225 -225 -225 -225 -225 -225 -225 -225 -225 -225 -225 -225 -225 -225 -225 -225 -225 -225 -225 -225 -225 -225 -225 -225 -225 -225 -225 -225 -225 -225 -225 -225 -225 -225 -225 -225 -225 -225 -225 -225 -225 -225 -225 -225 -225 -225 -225 -225 -225 -225 -225 -225 -225 -225 -225 -225 -225 -225 -225 -225 -225 -225 -225 -225 -225 -225 -225 -225 -225 -225 -225 -225 -225 -225 -225 79 79 83 79 80 79 81 82 81 83 83 82 83 83 83 82 80 83 82 81 81 84 84 86 87 89 89 88 90 90 91 93 94 94 94 96 98 98 99 99 100 102 104 104 104 105 105 106 106 106 107 107 109 114 119 122 124 126 127 127 126 126 126 125 126 126 126 129 133 136 148 -209 154 154 155 156 164 159 159 159 157 160 164 165 165 163 169 169 169 169 169 169 168 169 171 172 173 174 173 174 176 175 178 172 0 0 0 0 0
    0 0 0 0 0 0 0 0 0 0 0 0 0 0 0 0 0 0 0 0 0 0 0 0 0 0 0 0 0 0 0 0 0 0 0 0 0 0 0 0 0 0 0 0 0 0 0 0 0 0 0 0 0 0 0 0 0 0 0 0 0 0 0 0 0 0 0 0 0 124 123 121 120 116 114 112 115 112 111 112 111 110 115 114 113 106 105 106 105 105 104 103 102 101 100 97 93 90 89 88 87 86 84 79 79 83 88 88 91 91 88 87 87 86 85 84 85 82 82 81 84 84 86 87 87 87 88 87 86 86 85 84 83 -225 -225 -225 -225 -225 -225 -225 -225 -225 -225 -225 -225 -225 -225 -225 -225 -225 -225 -225 -225 -225 -225 -225 -225 -225 -225 -225 -225 -225 -225 -225 -225 -225 -225 -225 -225 -225 -225 -225 -225 -225 -225 -225 -225 -225 -225 -225 -225 -225 -225 -225 -225 -225 -225 -225 -225 -225 -225 -225 -225 -225 -225 -225 -225 -225 -225 -225 -225 -225 -225 -225 -225 -225 -225 -225 -225 -225 -225 -225 75 84 79 80 79 82 82 81 83 83 83 83 83 84 83 82 84 83 83 84 86 86 88 88 90 91 90 90 91 92 93 94 94 95 96 97 97 99 100 100 103 105 105 105 105 106 106 106 107 107 107 109 115 120 123 125 126 127 127 126 126 126 125 126 127 126 130 134 136 148 -209 153 154 154 155 163 158 159 159 157 160 164 165 165 163 169 169 168 169 169 169 168 169 171 172 173 173 173 173 174 174 175 171 0 0 0 0 0
    0 0 0 0 0 0 0 0 0 0 0 0 0 0 0 0 0 0 0 0 0 0 0 0 0 0 0 0 0 0 0 0 0 0 0 0 0 0 0 0 0 0 0 0 0 0 0 0 0 0 0 0 0 0 0 0 0 0 0 0 0 0 0 0 0 0 0 0 0 124 122 121 119 116 114 112 115 112 111 112 111 110 115 114 113 106 106 106 106 105 104 103 101 100 100 96 93 91 90 90 89 88 86 84 85 87 89 90 92 93 90 88 88 86 86 85 85 83 83 83 85 85 88 88 88 88 88 88 87 86 86 85 83 -225 -225 -225 -225 -225 -225 -225 -225 -225 -225 -225 -225 -225 -225 -225 -225 -225 -225 -225 -225 -225 -225 -225 -225 -225 -225 -225 -225 -225 -225 -225 -225 -225 -225 -225 -225 -225 -225 -225 -225 -225 -225 -225 -225 -225 -225 -225 -225 -225 -225 -225 -225 -225 -225 -225 -225 -225 -225 -225 -225 -225 -225 -225 -225 -225 -225 -225 -225 -225 -225 -225 -225 -225 -225 -225 -225 -225 -225 -225 -225 85 80 80 79 83 82 82 83 83 84 84 85 85 84 84 85 85 86 86 88 88 89 88 90 91 90 90 90 92 93 94 95 96 97 98 98 99 100 101 103 105 105 105 106 106 107 107 107 108 108 110 116 121 123 125 127 127 128 127 127 126 125 126 127 126 131 133 136 148 -209 152 153 153 154 163 158 158 158 157 160 164 166 165 163 169 169 168 169 169 168 167 168 171 172 173 173 172 173 174 174 176 171 0 0 0 0 0
    0 0 0 0 0 0 0 0 0 0 0 0 0 0 0 0 0 0 0 0 0 0 0 0 0 0 0 0 0 0 0 0 0 0 0 0 0 0 0 0 0 0 0 0 0 0 0 0 0 0 0 0 0 0 0 0 0 0 0 0 0 0 0 0 0 0 0 0 0 123 121 120 119 115 113 113 114 112 111 113 112 110 115 114 112 106 106 106 106 106 105 103 101 101 100 97 94 93 92 91 90 89 87 87 87 89 88 89 92 93 92 90 90 88 86 86 86 84 84 85 87 87 89 90 90 89 89 89 88 87 86 86 -225 -225 -225 -225 -225 -225 -225 -225 -225 -225 -225 -225 -225 -225 -225 -225 -225 -225 -225 -225 -225 -225 -225 -225 -225 -225 -225 -225 -225 -225 -225 -225 -225 -225 -225 -225 -225 -225 -225 -225 -225 -225 -225 -225 -225 -225 -225 -225 -225 -225 -225 -225 -225 -225 -225 -225 -225 -225 -225 -225 -225 -225 -225 -225 -225 -225 -225 -225 -225 -225 -225 -225 -225 -225 -225 -225 -225 -225 -225 -225 -225 -225 80 79 80 85 83 82 84 84 85 85 86 85 86 86 86 87 88 88 89 88 90 89 91 91 90 90 90 92 93 95 95 97 98 99 99 100 100 101 103 105 105 105 105 106 106 107 107 108 108 111 116 120 124 125 128 128 128 128 128 127 126 126 127 125 130 132 135 148 -209 152 153 153 154 163 158 158 158 157 160 164 166 165 163 169 169 169 169 169 169 168 169 172 173 173 173 173 173 175 175 177 172 0 0 0 0 0
    0 0 0 0 0 0 0 0 0 0 0 0 0 0 0 0 0 0 0 0 0 0 0 0 0 0 0 0 0 0 0 0 0 0 0 0 0 0 0 0 0 0 0 0 0 0 0 0 0 0 0 0 0 0 0 0 0 0 0 0 0 0 0 0 0 0 0 0 0 123 121 119 119 115 113 113 114 112 111 113 113 110 115 114 111 106 106 107 106 105 104 102 100 100 101 97 94 94 94 93 92 92 91 89 87 88 87 88 91 92 90 89 89 88 87 88 87 86 87 88 89 89 91 91 91 90 90 89 88 87 87 -225 -225 -225 -225 -225 -225 -225 -225 -225 -225 -225 -225 -225 -225 -225 -225 -225 -225 -225 -225 -225 -225 -225 -225 -225 -225 -225 -225 -225 -225 -225 -225 -225 -225 -225 -225 -225 -225 -225 -225 -225 -225 -225 -225 -225 -225 -225 -225 -225 -225 -225 -225 -225 -225 -225 -225 -225 -225 -225 -225 -225 -225 -225 -225 -225 -225 -225 -225 -225 -225 -225 -225 -225 -225 -225 -225 -225 -225 -225 -225 -225 -225 -225 80 77 80 87 83 84 85 85 87 86 87 87 87 87 88 89 89 89 90 90 90 90 91 90 89 89 89 90 92 94 93 96 98 99 99 99 101 102 103 105 105 105 105 106 107 107 107 109 109 113 117 121 124 126 128 128 128 128 128 128 128 127 128 127 131 134 136 148 -209 151 152 152 153 162 157 158 158 157 160 164 166 165 163 169 168 168 169 169 169 167 169 171 172 173 174 173 173 174 174 176 172 0 0 0 0 0
    0 0 0 0 0 0 0 0 0 0 0 0 0 0 0 0 0 0 0 0 0 0 0 0 0 0 0 0 0 0 0 0 0 0 0 0 0 0 0 0 0 0 0 0 0 0 0 0 0 0 0 0 0 0 0 0 0 0 0 0 0 0 0 0 0 0 0 0 0 123 120 119 119 115 114 113 114 112 111 114 113 110 115 114 110 107 108 107 107 106 104 102 101 101 101 96 94 93 93 94 95 95 97 92 87 -193 88 88 92 92 90 89 89 89 88 89 88 87 88 90 90 90 92 92 91 91 90 90 89 88 -225 -225 -225 -225 -225 -225 -225 -225 -225 -225 -225 -225 -225 -225 -225 -225 -225 -225 -225 -225 -225 -225 -225 -225 -225 -225 -225 -225 -225 -225 -225 -225 -225 -225 -225 -225 -225 -225 -225 -225 -225 -225 -225 -225 -225 -225 -225 -225 -225 -225 -225 -225 -225 -225 -225 -225 -225 -225 -225 -225 -225 -225 -225 -225 -225 -225 -225 -225 -225 -225 -225 -225 -225 -225 -225 -225 -225 -225 -225 -225 -225 -225 -225 -225 -225 75 81 87 83 84 85 85 87 87 88 88 89 89 89 91 91 91 92 91 92 91 92 92 90 90 89 89 91 92 91 94 96 98 98 99 100 101 103 105 105 105 105 106 107 107 107 109 109 115 119 122 125 127 128 127 127 127 127 127 128 127 129 128 132 134 136 147 -193 150 151 152 153 162 157 158 158 157 160 164 166 165 163 169 168 168 168 168 168 165 168 171 172 173 174 174 174 174 175 176 173 0 0 0 0 0
    0 0 0 0 0 0 0 0 0 0 0 0 0 0 0 0 0 0 0 0 0 0 0 0 0 0 0 0 0 0 0 0 0 0 0 0 0 0 0 0 0 0 0 0 0 0 0 0 0 0 0 0 0 0 0 0 0 0 0 0 0 0 0 0 0 0 0 0 0 124 120 118 119 116 115 114 114 113 111 113 113 109 114 113 110 108 108 108 107 106 105 103 101 100 101 95 92 92 94 94 89 93 100 93 -193 90 88 88 92 93 90 89 89 89 88 89 89 89 89 91 91 91 93 93 92 91 91 90 89 -225 -225 -225 -225 -225 -225 -225 -225 -225 -225 -225 -225 -225 -225 -225 -225 -225 -225 -225 -225 -225 -225 -225 -225 -225 -225 -225 -225 -225 -225 -225 -225 -225 -225 -225 -225 -225 -225 -225 -225 -225 -225 -225 -225 -225 -225 -225 -225 -225 -225 -225 -225 -225 -225 -225 -225 -225 -225 -225 -225 -225 -225 -225 -225 -225 -225 -225 -225 -225 -225 -225 -225 -225 -225 -225 -225 -225 -225 -225 -225 -225 -225 -225 -225 -225 -225 -225 81 87 83 84 84 85 87 87 89 89 90 90 90 92 93 93 94 93 94 93 94 93 92 91 90 90 91 92 92 95 97 97 99 99 100 101 102 104 105 105 106 106 107 108 108 110 111 115 118 121 123 126 126 126 125 126 126 126 127 127 129 129 134 135 136 147 150 150 151 151 152 162 157 158 158 157 160 164 166 165 163 169 168 168 168 168 169 164 168 170 172 173 174 174 174 174 176 177 174 0 0 0 0 0
    0 0 0 0 0 0 0 0 0 0 0 0 0 0 0 0 0 0 0 0 0 0 0 0 0 0 0 0 0 0 0 0 0 0 0 0 0 0 0 0 0 0 0 0 0 0 0 0 0 0 0 0 0 0 0 0 0 0 0 0 0 0 0 0 0 0 0 0 0 124 120 118 119 116 115 114 113 113 111 113 113 109 113 112 110 108 108 108 107 106 105 103 101 100 101 93 92 92 95 96 -193 95 -209 96 89 90 88 87 91 93 90 89 88 88 88 89 90 90 90 92 92 93 94 93 93 92 91 91 -225 -225 -225 -225 -225 -225 -225 -225 -225 -225 -225 -225 -225 -225 -225 -225 -225 -225 -225 -225 -225 -225 -225 -225 -225 -225 -225 -225 -225 -225 -225 -225 -225 -225 -225 -225 -225 -225 -225 -225 -225 -225 -225 -225 -225 -225 -225 -225 -225 -225 -225 -225 -225 -225 -225 -225 -225 -225 -225 -225 -225 -225 -225 -225 -225 -225 -225 -225 -225 -225 -225 -225 -225 -225 -225 -225 -225 -225 -225 -225 -225 -225 -225 -225 -225 -225 -225 -225 -225 86 83 84 83 85 88 87 88 88 90 90 91 93 94 94 95 94 96 95 96 95 94 92 91 91 92 93 92 95 98 98 99 98 100 102 102 104 105 105 105 106 107 108 108 109 111 114 117 120 122 124 125 125 125 126 127 127 129 129 132 132 135 137 137 147 149 150 151 151 152 162 157 158 158 157 160 164 166 165 162 169 168 168 168 168 168 163 168 170 172 174 175 175 174 174 175 175 172 0 0 0 0 0
    0 0 0 0 0 0 0 0 0 0 0 0 0 0 0 0 0 0 0 0 0 0 0 0 0 0 0 0 0 0 0 0 0 0 0 0 0 0 0 0 0 0 0 0 0 0 0 0 0 0 0 0 0 0 0 0 0 0 0 0 0 0 0 0 0 0 0 0 0 124 120 118 119 116 115 114 113 112 111 113 113 109 113 112 110 108 108 107 106 106 104 103 99 96 99 92 92 92 96 98 -193 95 101 98 94 -193 88 88 92 93 91 90 89 89 89 91 91 91 91 92 93 93 94 94 93 92 91 -225 -225 -225 -225 -225 -225 -225 -225 -225 -225 -225 -225 -225 -225 -225 -225 -225 -225 -225 -225 -225 -225 -225 -225 -225 -225 -225 -225 -225 -225 -225 -225 -225 -225 -225 -225 -225 -225 -225 -225 -225 -225 -225 -225 -225 -225 -225 -225 -225 -225 -225 -225 -225 -225 -225 -225 -225 -225 -225 -225 -225 -225 -225 -225 -225 -225 -225 -225 -225 -225 -225 -225 -225 -225 -225 -225 -225 -225 -225 -225 -225 -225 -225 -225 -225 -225 -225 -225 -225 -225 -225 -225 78 78 84 87 87 89 89 91 91 92 94 96 96 98 96 97 97 97 97 95 93 93 92 93 95 95 98 100 99 99 98 100 102 102 104 105 104 105 105 106 108 108 109 110 114 118 121 123 125 127 126 126 128 130 130 132 133 135 134 136 138 137 146 149 150 151 151 153 163 158 158 158 157 160 164 166 165 162 168 168 167 167 167 167 160 167 169 171 173 174 174 174 173 173 173 171 0 0 0 0 0
    0 0 0 0 0 0 0 0 0 0 0 0 0 0 0 0 0 0 0 0 0 0 0 0 0 0 0 0 0 0 0 0 0 0 0 0 0 0 0 0 0 0 0 0 0 0 0 0 0 0 0 0 0 0 0 0 0 0 0 0 0 0 0 0 0 0 0 0 0 123 119 118 119 116 115 114 113 112 112 114 114 110 114 112 110 109 109 108 107 106 105 102 95 94 100 92 92 93 98 101 -193 -209 -209 -193 -193 -209 91 91 95 94 93 91 90 91 92 93 93 92 92 93 94 94 95 94 93 92 92 -225 -225 -225 -225 -225 -225 -225 -225 -225 -225 -225 -225 -225 -225 -225 -225 -225 -225 -225 -225 -225 -225 -225 -225 -225 -225 -225 -225 -225 -225 -225 -225 -225 -225 -225 -225 -225 -225 -225 -225 -225 -225 -225 -225 -225 -225 -225 -225 -225 -225 -225 -225 -225 -225 -225 -225 -225 -225 -225 -225 -225 -225 -225 -225 -225 -225 -225 -225 -225 -225 -225 -225 -225 -225 -225 -225 -225 -225 -225 -225 -225 -225 -225 -225 -225 -225 -225 -225 -225 -225 -225 -225 78 78 83 87 86 89 89 92 92 93 95 97 98 99 98 99 99 100 99 98 95 95 93 95 96 96 98 99 98 99 97 100 102 103 105 105 104 106 106 107 109 110 111 112 116 119 122 124 126 127 127 127 129 131 131 132 133 135 135 136 137 136 145 149 149 151 152 153 163 158 158 159 157 160 163 166 164 161 168 167 167 167 167 166 159 167 168 169 171 172 173 173 172 173 173 172 0 0 0 0 0
    0 0 0 0 0 0 0 0 0 0 0 0 0 0 0 0 0 0 0 0 0 0 0 0 0 0 0 0 0 0 0 0 0 0 0 0 0 0 0 0 0 0 0 0 0 0 0 0 0 0 0 0 0 0 0 0 0 0 0 0 0 0 0 0 0 0 0 0 0 121 118 117 118 115 114 114 112 111 112 114 114 110 113 111 109 109 109 108 107 106 102 99 96 97 104 95 99 -209 101 106 113 119 119 -209 110 111 -193 -209 100 98 97 93 90 93 94 95 95 94 94 95 95 96 96 95 94 93 -225 -225 -225 -225 -225 -225 -225 -225 -225 -225 -225 -225 -225 -225 -225 -225 -225 -225 -225 -225 -225 -225 -225 -225 -225 -225 -225 -225 -225 -225 -225 -225 -225 -225 -225 -225 -225 -225 -225 -225 -225 -225 -225 -225 -225 -225 -225 -225 -225 -225 -225 -225 -225 -225 -225 -225 -225 -225 -225 -225 -225 -225 -225 -225 -225 -225 -225 -225 -225 -225 -225 -225 -225 -225 -225 -225 -225 -225 -225 -225 -225 -225 -225 -225 -225 -225 -225 -225 -225 -225 -225 -225 -225 -225 81 84 87 87 90 90 92 92 94 96 99 100 101 99 100 101 101 101 101 98 98 95 98 98 98 98 99 99 99 96 101 103 103 106 106 105 106 107 109 112 111 113 114 117 119 121 123 125 125 125 125 127 129 130 132 132 134 135 136 137 136 145 149 150 151 152 153 163 158 159 159 157 161 163 166 164 161 167 166 166 166 166 166 158 166 166 168 170 172 173 173 172 174 174 174 0 0 0 0 0
    0 0 0 0 0 0 0 0 0 0 0 0 0 0 0 0 0 0 0 0 0 0 0 0 0 0 0 0 0 0 0 0 0 0 0 0 0 0 0 0 0 0 0 0 0 0 0 0 0 0 0 0 0 0 0 0 0 0 0 0 0 0 0 0 0 0 0 0 0 122 118 118 118 115 115 114 112 111 112 114 114 109 112 110 108 109 109 108 106 104 92 98 97 99 105 -193 -209 -209 -209 -209 116 -193 120 119 113 116 110 -193 -193 101 101 95 92 95 96 97 97 96 96 96 97 98 97 96 94 -225 -225 -225 -225 -225 -225 -225 -225 -225 -225 -225 -225 -225 -225 -225 -225 -225 -225 -225 -225 -225 -225 -225 -225 -225 -225 -225 -225 -225 -225 -225 -225 -225 -225 -225 -225 -225 -225 -225 -225 -225 -225 -225 -225 -225 -225 -225 -225 -225 -225 -225 -225 -225 -225 -225 -225 -225 -225 -225 -225 -225 -225 -225 -225 -225 -225 -225 -225 -225 -225 -225 -225 -225 -225 -225 -225 -225 -225 -225 -225 -225 -225 -225 -225 -225 -225 -225 -225 -225 -225 -225 -225 -225 -225 -225 -225 83 86 87 90 90 93 92 95 97 100 101 102 100 101 102 103 103 104 102 102 98 101 102 102 101 101 100 100 98 102 104 105 107 108 108 109 110 110 113 112 113 114 116 118 120 121 123 123 123 123 123 124 126 128 128 131 132 134 136 136 144 -193 151 152 153 154 164 159 159 160 157 161 163 166 164 161 166 166 165 165 166 165 158 165 165 167 170 172 174 173 172 175 175 176 0 0 0 0 0
    0 0 0 0 0 0 0 0 0 0 0 0 0 0 0 0 0 0 0 0 0 0 0 0 0 0 0 0 0 0 0 0 0 0 0 0 0 0 0 0 0 0 0 0 0 0 0 0 0 0 0 0 0 0 0 0 0 0 0 0 0 0 0 0 0 0 0 0 0 121 119 118 118 115 115 114 112 111 113 115 113 109 112 109 108 109 109 108 105 103 90 99 100 102 107 -193 -209 -209 -209 -209 118 -193 122 122 117 120 116 116 109 106 105 102 98 99 99 100 100 99 98 98 99 98 97 96 -225 -225 -225 -225 -225 -225 -225 -225 -225 -225 -225 -225 -225 -225 -225 -225 -225 -225 -225 -225 -225 -225 -225 -225 -225 -225 -225 -225 -225 -225 -225 -225 -225 -225 -225 -225 -225 -225 -225 -225 -225 -225 -225 -225 -225 -225 -225 -225 -225 -225 -225 -225 -225 -225 -225 -225 -225 -225 -225 -225 -225 -225 -225 -225 -225 -225 -225 -225 -225 -225 -225 -225 -225 -225 -225 -225 -225 -225 -225 -225 -225 -225 -225 -225 -225 -225 -225 -225 -225 -225 -225 -225 -225 -225 -225 -225 -225 -225 84 87 91 92 94 94 96 99 101 102 103 102 103 103 104 105 105 104 104 102 104 105 105 104 104 104 103 103 105 108 109 111 110 110 111 111 111 114 113 112 115 116 117 119 120 122 122 122 122 122 123 124 127 127 130 132 134 136 136 145 -209 151 153 154 154 164 159 160 160 158 161 163 166 163 160 165 165 164 164 164 164 157 163 162 165 167 170 171 172 171 174 175 177 0 0 0 0 0
    0 0 0 0 0 0 0 0 0 0 0 0 0 0 0 0 0 0 0 0 0 0 0 0 0 0 0 0 0 0 0 0 0 0 0 0 0 0 0 0 0 0 0 0 0 0 0 0 0 0 0 0 0 0 0 0 0 0 0 0 0 0 0 0 0 0 0 0 0 120 119 118 118 116 115 115 112 111 114 115 113 109 111 108 108 109 109 107 106 104 92 102 -193 103 106 -193 -209 -209 -209 -209 120 121 122 123 118 120 116 116 113 111 107 106 104 102 101 102 102 100 100 100 99 99 97 95 -225 -225 -225 -225 -225 -225 -225 -225 -225 -225 -225 -225 -225 -225 -225 -225 -225 -225 -225 -225 -225 -225 -225 -225 -225 -225 -225 -225 -225 -225 -225 -225 -225 -225 -225 -225 -225 -225 -225 -225 -225 -225 -225 -225 -225 -225 -225 -225 -225 -225 -225 -225 -225 -225 -225 -225 -225 -225 -225 -225 -225 -225 -225 -225 -225 -225 -225 -225 -225 -225 -225 -225 -225 -225 -225 -225 -225 -225 -225 -225 -225 -225 -225 -225 -225 -225 -225 -225 -225 -225 -225 -225 -225 -225 -225 -225 -225 -225 -225 87 94 94 95 95 97 100 102 103 103 102 104 104 105 106 106 105 106 104 106 106 107 105 105 105 104 106 108 111 114 114 113 113 114 113 112 115 114 112 114 116 117 118 120 121 121 121 121 121 123 124 126 127 130 132 133 135 135 144 -209 152 153 155 155 164 160 161 161 158 162 163 166 163 160 164 164 163 163 163 163 156 161 159 162 165 168 170 172 172 177 179 180 0 0 0 0 0
    0 0 0 0 0 0 0 0 0 0 0 0 0 0 0 0 0 0 0 0 0 0 0 0 0 0 0 0 0 0 0 0 0 0 0 0 0 0 0 0 0 0 0 0 0 0 0 0 0 0 0 0 0 0 0 0 0 0 0 0 0 0 0 0 0 0 0 0 0 120 119 119 118 116 115 115 113 112 116 116 114 109 110 106 107 108 108 106 104 102 95 102 -209 103 106 106 115 -209 -209 -209 118 120 123 127 117 120 114 114 110 108 107 107 106 104 103 104 103 102 102 102 100 99 98 -225 -225 -225 -225 -225 -225 -225 -225 -225 -225 -225 -225 -225 -225 -225 -225 -225 -225 -225 -225 -225 -225 -225 -225 -225 -225 -225 -225 -225 -225 -225 -225 -225 -225 -225 -225 -225 -225 -225 -225 -225 -225 -225 -225 -225 -225 -225 -225 -225 -225 -225 -225 -225 -225 -225 -225 -225 -225 -225 -225 -225 -225 -225 -225 -225 -225 -225 -225 -225 -225 -225 -225 -225 -225 -225 -225 -225 -225 -225 -225 -225 -225 -225 -225 -225 -225 -225 -225 -225 -225 -225 -225 -225 -225 -225 -225 -225 -225 -225 -225 -225 94 95 95 95 97 100 102 102 103 102 103 103 105 106 106 106 107 106 108 108 109 107 108 109 106 108 109 111 114 114 113 113 114 115 113 115 115 113 115 116 117 118 120 121 122 121 121 122 123 123 125 127 129 131 132 134 135 142 -209 153 154 155 156 164 161 161 161 159 162 163 166 163 159 163 163 163 163 163 162 155 160 158 160 162 165 167 170 172 180 182 182 0 0 0 0 0
    0 0 0 0 0 0 0 0 0 0 0 0 0 0 0 0 0 0 0 0 0 0 0 0 0 0 0 0 0 0 0 0 0 0 0 0 0 0 0 0 0 0 0 0 0 0 0 0 0 0 0 0 0 0 0 0 0 0 0 0 0 0 0 0 0 0 0 0 0 120 120 119 118 117 116 116 115 113 118 117 114 108 108 105 106 107 107 103 102 100 98 102 -209 103 108 109 117 -193 119 119 119 119 123 126 117 120 113 113 109 108 108 108 107 106 105 105 105 104 104 104 101 100 -225 -225 -225 -225 -225 -225 -225 -225 -225 -225 -225 -225 -225 -225 -225 -225 -225 -225 -225 -225 -225 -225 -225 -225 -225 -225 -225 -225 -225 -225 -225 -225 -225 -225 -225 -225 -225 -225 -225 -225 -225 -225 -225 -225 -225 -225 -225 -225 -225 -225 -225 -225 -225 -225 -225 -225 -225 -225 -225 -225 -225 -225 -225 -225 -225 -225 -225 -225 -225 -225 -225 -225 -225 -225 -225 -225 -225 -225 -225 -225 -225 -225 -225 -225 -225 -225 -225 -225 -225 -225 -225 -225 -225 -225 -225 -225 -225 -225 -225 -225 -225 -225 -225 -225 94 96 99 101 102 102 102 102 103 104 106 107 107 108 110 109 110 110 110 109 110 112 108 109 110 113 115 115 115 115 114 115 114 117 116 116 118 118 119 121 121 122 122 122 121 121 123 123 124 126 128 131 132 134 135 143 -209 153 154 155 156 164 161 161 162 159 163 164 166 163 159 163 162 162 162 162 161 155 159 157 157 159 164 165 -209 -209 -193 -193 -193 0 0 0 0 0
    0 0 0 0 0 0 0 0 0 0 0 0 0 0 0 0 0 0 0 0 0 0 0 0 0 0 0 0 0 0 0 0 0 0 0 0 0 0 0 0 0 0 0 0 0 0 0 0 0 0 0 0 0 0 0 0 0 0 0 0 0 0 0 0 0 0 0 0 0 120 120 119 118 117 116 117 116 115 120 119 116 106 103 102 104 105 103 101 100 100 100 102 103 103 109 111 117 119 117 118 118 118 122 121 114 117 110 111 109 110 109 109 109 108 107 107 107 106 106 105 103 102 -225 -225 -225 -225 -225 -225 -225 -225 -225 -225 -225 -225 -225 -225 -225 -225 -225 -225 -225 -225 -225 -225 -225 -225 -225 -225 -225 -225 -225 -225 -225 -225 -225 -225 -225 -225 -225 -225 -225 -225 -225 -225 -225 -225 -225 -225 -225 -225 -225 -225 -225 -225 -225 -225 -225 -225 -225 -225 -225 -225 -225 -225 -225 -225 -225 -225 -225 -225 -225 -225 -225 -225 -225 -225 -225 -225 -225 -225 -225 -225 -225 -225 -225 -225 -225 -225 -225 -225 -225 -225 -225 -225 -225 -225 -225 -225 -225 -225 -225 -225 -225 -225 -225 -225 -225 98 102 103 103 103 103 103 104 105 107 108 107 109 111 110 112 112 112 111 112 115 110 111 113 116 116 116 116 116 116 117 116 117 118 119 121 120 121 121 122 123 122 121 120 121 122 122 123 124 126 128 130 133 135 143 -209 153 154 156 157 165 162 162 163 160 164 164 166 162 159 162 161 161 161 161 160 155 158 157 157 159 165 -209 -209 -209 -193 -193 183 0 0 0 0 0
    0 0 0 0 0 0 0 0 0 0 0 0 0 0 0 0 0 0 0 0 0 0 0 0 0 0 0 0 0 0 0 0 0 0 0 0 0 0 0 0 0 0 0 0 0 0 0 0 0 0 0 0 0 0 0 0 0 0 0 0 0 0 0 0 0 0 0 0 0 120 120 119 118 117 116 117 116 116 120 119 116 103 102 101 102 102 101 99 99 100 100 102 104 104 111 113 117 118 117 118 117 118 121 119 113 116 110 112 113 112 111 111 110 110 108 108 108 107 106 105 104 -225 -225 -225 -225 -225 -225 -225 -225 -225 -225 -225 -225 -225 -225 -225 -225 -225 -225 -225 -225 -225 -225 -225 -225 -225 -225 -225 -225 -225 -225 -225 -225 -225 -225 -225 -225 -225 -225 -225 -225 -225 -225 -225 -225 -225 -225 -225 -225 -225 -225 -225 -225 -225 -225 -225 -225 -225 -225 -225 -225 -225 -225 -225 -225 -225 -225 -225 -225 -225 -225 -225 -225 -225 -225 -225 -225 -225 -225 -225 -225 -225 -225 -225 -225 -225 -225 -225 -225 -225 -225 -225 -225 -225 -225 -225 -225 -225 -225 -225 -225 -225 -225 -225 -225 -225 -225 91 101 102 102 102 102 102 104 104 107 108 107 109 112 112 114 114 115 115 116 118 115 114 116 117 116 116 116 117 116 118 116 118 118 121 122 121 121 121 122 123 123 121 120 121 122 122 122 123 124 126 127 131 133 141 -209 -193 154 156 157 165 163 163 163 161 164 164 166 162 158 161 161 160 160 160 160 155 158 158 158 161 166 169 177 179 181 182 182 0 0 0 0 0
    0 0 0 0 0 0 0 0 0 0 0 0 0 0 0 0 0 0 0 0 0 0 0 0 0 0 0 0 0 0 0 0 0 0 0 0 0 0 0 0 0 0 0 0 0 0 0 0 0 0 0 0 0 0 0 0 0 0 0 0 0 0 0 0 0 0 0 0 0 121 121 120 119 118 117 118 117 117 120 118 111 103 101 100 101 102 100 99 99 100 102 103 109 106 114 115 118 118 117 117 116 116 118 116 112 114 111 113 115 114 112 112 112 112 109 109 108 107 106 105 -225 -225 -225 -225 -225 -225 -225 -225 -225 -225 -225 -225 -225 -225 -225 -225 -225 -225 -225 -225 -225 -225 -225 -225 -225 -225 -225 -225 -225 -225 -225 -225 -225 -225 -225 -225 -225 -225 -225 -225 -225 -225 -225 -225 -225 -225 -225 -225 -225 -225 -225 -225 -225 -225 -225 -225 -225 -225 -225 -225 -225 -225 -225 -225 -225 -225 -225 -225 -225 -225 -225 -225 -225 -225 -225 -225 -225 -225 -225 -225 -225 -225 -225 -225 -225 -225 -225 -225 -225 -225 -225 -225 -225 -225 -225 -225 -225 -225 -225 -225 -225 -225 -225 -225 -225 -225 -225 -225 101 100 101 100 99 100 102 103 106 106 106 109 112 112 114 115 115 117 117 118 116 115 117 118 117 118 117 118 118 119 117 118 119 120 120 119 119 119 121 121 121 120 119 120 121 121 121 122 123 125 127 131 133 141 -209 -209 154 155 157 165 163 163 164 162 164 164 166 162 159 161 160 160 160 160 160 154 158 158 158 160 165 167 176 180 182 -193 -193 0 0 0 0 0
    0 0 0 0 0 0 0 0 0 0 0 0 0 0 0 0 0 0 0 0 0 0 0 0 0 0 0 0 0 0 0 0 0 0 0 0 0 0 0 0 0 0 0 0 0 0 0 0 0 0 0 0 0 0 0 0 0 0 0 0 0 0 0 0 0 0 0 0 0 121 121 120 119 118 118 119 119 118 120 118 113 104 103 101 103 103 100 99 99 100 -193 -193 117 109 117 117 119 119 117 116 116 115 117 114 112 114 112 115 116 115 114 114 114 113 111 111 109 108 107 -225 -225 -225 -225 -225 -225 -225 -225 -225 -225 -225 -225 -225 -225 -225 -225 -225 -225 -225 -225 -225 -225 -225 -225 -225 -225 -225 -225 -225 -225 -225 -225 -225 -225 -225 -225 -225 -225 -225 -225 -225 -225 -225 -225 -225 -225 -225 -225 -225 -225 -225 -225 -225 -225 -225 -225 -225 -225 -225 -225 -225 -225 -225 -225 -225 -225 -225 -225 -225 -225 -225 -225 -225 -225 -225 -225 -225 -225 -225 -225 -225 -225 -225 -225 -225 -225 -225 -225 -225 -225 -225 -225 -225 -225 -225 -225 -225 -225 -225 -225 -225 -225 -225 -225 -225 -225 -225 -225 -225 -225 102 102 98 98 100 103 103 106 106 106 108 112 112 115 115 116 118 118 119 117 117 118 118 118 119 118 119 119 120 119 119 119 121 119 118 117 118 119 120 120 119 118 119 121 121 121 122 123 125 126 131 133 140 -209 -209 153 154 155 165 163 164 165 162 164 164 166 162 159 160 160 160 160 160 160 154 158 157 158 161 164 166 172 179 182 183 -209 0 0 0 0 0
    0 0 0 0 0 0 0 0 0 0 0 0 0 0 0 0 0 0 0 0 0 0 0 0 0 0 0 0 0 0 0 0 0 0 0 0 0 0 0 0 0 0 0 0 0 0 0 0 0 0 0 0 0 0 0 0 0 0 0 0 0 0 0 0 0 0 0 0 0 122 121 121 120 120 119 120 120 120 121 120 117 118 -193 102 -193 103 101 100 100 102 -193 108 117 112 118 116 120 119 118 117 117 117 118 115 113 114 114 116 117 115 115 114 114 114 113 112 110 108 108 -225 -225 -225 -225 -225 -225 -225 -225 -225 -225 -225 -225 -225 -225 -225 -225 -225 -225 -225 -225 -225 -225 -225 -225 -225 -225 -225 -225 -225 -225 -225 -225 -225 -225 -225 -225 -225 -225 -225 -225 -225 -225 -225 -225 -225 -225 -225 -225 -225 -225 -225 -225 -225 -225 -225 -225 -225 -225 -225 -225 -225 -225 -225 -225 -225 -225 -225 -225 -225 -225 -225 -225 -225 -225 -225 -225 -225 -225 -225 -225 -225 -225 -225 -225 -225 -225 -225 -225 -225 -225 -225 -225 -225 -225 -225 -225 -225 -225 -225 -225 -225 -225 -225 -225 -225 -225 -225 -225 -225 -225 -225 102 95 95 99 103 104 106 106 105 107 111 111 114 114 115 118 118 119 117 117 119 119 119 119 119 119 119 120 119 120 120 121 121 120 120 120 121 122 122 121 120 121 122 122 122 124 125 126 129 132 133 138 -209 -209 150 153 153 165 164 164 165 163 164 164 166 162 159 160 160 160 160 160 160 155 158 157 158 161 164 163 168 170 177 182 -193 0 0 0 0 0
    0 0 0 0 0 0 0 0 0 0 0 0 0 0 0 0 0 0 0 0 0 0 0 0 0 0 0 0 0 0 0 0 0 0 0 0 0 0 0 0 0 0 0 0 0 0 0 0 0 0 0 0 0 0 0 0 0 0 0 0 0 0 0 0 0 0 0 0 0 122 122 121 121 121 121 122 121 121 121 120 118 111 111 103 104 105 102 101 102 -193 -193 116 118 117 121 117 122 119 119 118 118 117 118 115 114 114 116 117 118 117 116 116 116 116 115 113 110 109 -225 -225 -225 -225 -225 -225 -225 -225 -225 -225 -225 -225 -225 -225 -225 -225 -225 -225 -225 -225 -225 -225 -225 -225 -225 -225 -225 -225 -225 -225 -225 -225 -225 -225 -225 -225 -225 -225 -225 -225 -225 -225 -225 -225 -225 -225 -225 -225 -225 -225 -225 -225 -225 -225 -225 -225 -225 -225 -225 -225 -225 -225 -225 -225 -225 -225 -225 -225 -225 -225 -225 -225 -225 -225 -225 -225 -225 -225 -225 -225 -225 -225 -225 -225 -225 -225 -225 -225 -225 -225 -225 -225 -225 -225 -225 -225 -225 -225 -225 -225 -225 -225 -225 -225 -225 -225 -225 -225 -225 -225 -225 -225 -225 84 87 93 103 103 105 106 106 106 111 110 114 114 115 118 118 119 117 116 118 119 119 120 120 120 121 123 122 123 124 123 122 123 122 122 123 124 124 122 122 123 123 124 125 126 126 127 130 132 134 137 -209 -209 147 150 152 165 163 164 164 163 164 164 166 162 159 160 160 160 160 160 160 155 159 158 158 161 163 162 166 167 173 181 180 0 0 0 0 0
    0 0 0 0 0 0 0 0 0 0 0 0 0 0 0 0 0 0 0 0 0 0 0 0 0 0 0 0 0 0 0 0 0 0 0 0 0 0 0 0 0 0 0 0 0 0 0 0 0 0 0 0 0 0 0 0 0 0 0 0 0 0 0 0 0 0 0 0 0 123 123 122 122 122 122 122 122 122 120 119 118 113 116 109 107 109 -193 -193 -209 -193 123 -193 121 121 122 118 122 119 119 118 118 118 118 116 116 116 118 119 120 119 118 117 118 118 117 114 111 -225 -225 -225 -225 -225 -225 -225 -225 -225 -225 -225 -225 -225 -225 -225 -225 -225 -225 -225 -225 -225 -225 -225 -225 -225 -225 -225 -225 -225 -225 -225 -225 -225 -225 -225 -225 -225 -225 -225 -225 -225 -225 -225 -225 -225 -225 -225 -225 -225 -225 -225 -225 -225 -225 -225 -225 -225 -225 -225 -225 -225 -225 -225 -225 -225 -225 -225 -225 -225 -225 -225 -225 -225 -225 -225 -225 -225 -225 -225 -225 -225 -225 -225 -225 -225 -225 -225 -225 -225 -225 -225 -225 -225 -225 -225 -225 -225 -225 -225 -225 -225 -225 -225 -225 -225 -225 -225 -225 -225 -225 -225 -225 -225 -225 -225 -225 90 101 102 104 106 105 106 110 109 113 114 115 118 118 119 116 116 119 120 118 119 120 121 122 124 124 124 125 125 124 125 123 123 124 126 126 124 124 124 125 126 127 127 127 126 131 133 134 137 -209 -209 147 149 152 164 163 163 164 163 164 164 166 162 159 160 160 160 160 161 161 155 160 159 158 162 164 162 166 166 171 178 178 0 0 0 0 0
    0 0 0 0 0 0 0 0 0 0 0 0 0 0 0 0 0 0 0 0 0 0 0 0 0 0 0 0 0 0 0 0 0 0 0 0 0 0 0 0 0 0 0 0 0 0 0 0 0 0 0 0 0 0 0 0 0 0 0 0 0 0 0 0 0 0 0 0 0 123 123 123 123 123 123 123 123 122 121 120 120 116 119 119 118 -209 -193 -193 131 126 126 123 122 122 123 120 123 120 120 119 119 119 119 117 117 118 119 120 121 120 119 118 119 119 118 114 -225 -225 -225 -225 -225 -225 -225 -225 -225 -225 -225 -225 -225 -225 -225 -225 -225 -225 -225 -225 -225 -225 -225 -225 -225 -225 -225 -225 -225 -225 -225 -225 -225 -225 -225 -225 -225 -225 -225 -225 -225 -225 -225 -225 -225 -225 -225 -225 -225 -225 -225 -225 -225 -225 -225 -225 -225 -225 -225 -225 -225 -225 -225 -225 -225 -225 -225 -225 -225 -225 -225 -225 -225 -225 -225 -225 -225 -225 -225 -225 -225 -225 -225 -225 -225 -225 -225 -225 -225 -225 -225 -225 -225 -225 -225 -225 -225 -225 -225 -225 -225 -225 -225 -225 -225 -225 -225 -225 -225 -225 -225 -225 -225 -225 -225 -225 -225 -225 101 104 105 107 106 106 110 109 113 116 115 118 118 119 117 117 120 121 119 121 121 122 124 125 125 125 126 126 125 125 123 123 125 128 128 125 125 125 126 127 127 126 125 124 129 133 134 137 -209 -209 148 149 152 164 163 163 164 163 163 164 166 162 159 160 161 160 161 161 161 155 161 160 159 162 165 164 166 167 170 174 -193 0 0 0 0 0
    0 0 0 0 0 0 0 0 0 0 0 0 0 0 0 0 0 0 0 0 0 0 0 0 0 0 0 0 0 0 0 0 0 0 0 0 0 0 0 0 0 0 0 0 0 0 0 0 0 0 0 0 0 0 0 0 0 0 0 0 0 0 0 0 0 0 0 0 0 124 123 123 124 123 123 123 123 122 120 120 120 117 120 120 122 125 128 130 132 127 126 124 123 123 124 122 126 123 124 120 120 119 119 117 118 119 121 121 122 121 121 121 121 121 119 114 -225 -225 -225 -225 -225 -225 -225 -225 -225 -225 -225 -225 -225 -225 -225 -225 -225 -225 -225 -225 -225 -225 -225 -225 -225 -225 -225 -225 -225 -225 -225 -225 -225 -225 -225 -225 -225 -225 -225 -225 -225 -225 -225 -225 -225 -225 -225 -225 -225 -225 -225 -225 -225 -225 -225 -225 -225 -225 -225 -225 -225 -225 -225 -225 -225 -225 -225 -225 -225 -225 -225 -225 -225 -225 -225 -225 -225 -225 -225 -225 -225 -225 -225 -225 -225 -225 -225 -225 -225 -225 -225 -225 -225 -225 -225 -225 -225 -225 -225 -225 -225 -225 -225 -225 -225 -225 -225 -225 -225 -225 -225 -225 -225 -225 -225 -225 -225 -225 -225 102 104 105 105 105 110 107 113 118 119 120 119 119 118 118 121 122 120 121 122 124 126 128 127 126 128 127 126 125 123 123 125 129 128 125 126 126 126 128 127 126 125 124 127 131 134 136 -209 -209 148 149 152 165 163 164 165 164 163 164 166 162 159 161 161 160 161 161 161 155 161 160 159 162 164 163 166 165 169 173 174 0 0 0 0 0
    0 0 0 0 0 0 0 0 0 0 0 0 0 0 0 0 0 0 0 0 0 0 0 0 0 0 0 0 0 0 0 0 0 0 0 0 0 0 0 0 0 0 0 0 0 0 0 0 0 0 0 0 0 0 0 0 0 0 0 0 0 0 0 0 0 0 0 0 0 124 123 123 124 123 123 124 123 122 120 122 121 119 122 122 123 125 127 130 131 127 126 124 123 123 125 133 -209 126 130 123 121 120 120 118 119 120 123 123 123 122 123 123 123 123 121 -225 -225 -225 -225 -225 -225 -225 -225 -225 -225 -225 -225 -225 -225 -225 -225 -225 -225 -225 -225 -225 -225 -225 -225 -225 -225 -225 -225 -225 -225 -225 -225 -225 -225 -225 -225 -225 -225 -225 -225 -225 -225 -225 -225 -225 -225 -225 -225 -225 -225 -225 -225 -225 -225 -225 -225 -225 -225 -225 -225 -225 -225 -225 -225 -225 -225 -225 -225 -225 -225 -225 -225 -225 -225 -225 -225 -225 -225 -225 -225 -225 -225 -225 -225 -225 -225 -225 -225 -225 -225 -225 -225 -225 -225 -225 -225 -225 -225 -225 -225 -225 -225 -225 -225 -225 -225 -225 -225 -225 -225 -225 -225 -225 -225 -225 -225 -225 -225 -225 -225 -225 103 104 104 104 109 107 113 119 120 120 119 119 118 118 120 121 120 121 123 125 129 130 128 128 129 128 127 126 124 124 125 130 131 127 129 127 127 128 128 126 125 124 128 129 133 136 -209 -209 146 147 152 165 163 163 164 163 163 164 166 162 159 160 161 161 161 161 161 155 162 161 159 162 164 161 164 164 168 172 172 0 0 0 0 0
    0 0 0 0 0 0 0 0 0 0 0 0 0 0 0 0 0 0 0 0 0 0 0 0 0 0 0 0 0 0 0 0 0 0 0 0 0 0 0 0 0 0 0 0 0 0 0 0 0 0 0 0 0 0 0 0 0 0 0 0 0 0 0 0 0 0 0 0 0 123 123 123 123 123 124 125 124 123 123 124 124 121 123 123 123 124 125 128 128 125 125 123 124 124 127 132 133 131 134 132 126 122 122 120 121 123 126 124 125 124 125 124 124 123 122 119 -225 -225 -225 -225 -225 -225 -225 -225 -225 -225 -225 -225 -225 -225 -225 -225 -225 -225 -225 -225 -225 -225 -225 -225 -225 -225 -225 -225 -225 -225 -225 -225 -225 -225 -225 -225 -225 -225 -225 -225 -225 -225 -225 -225 -225 -225 -225 -225 -225 -225 -225 -225 -225 -225 -225 -225 -225 -225 -225 -225 -225 -225 -225 -225 -225 -225 -225 -225 -225 -225 -225 -225 -225 -225 -225 -225 -225 -225 -225 -225 -225 -225 -225 -225 -225 -225 -225 -225 -225 -225 -225 -225 -225 -225 -225 -225 -225 -225 -225 -225 -225 -225 -225 -225 -225 -225 -225 -225 -225 -225 -225 -225 -225 -225 -225 -225 -225 -225 -225 -225 -225 106 106 106 109 108 112 117 119 119 120 119 118 118 121 122 122 123 125 127 130 132 131 130 130 129 128 128 125 125 125 131 131 128 130 128 127 129 128 127 126 124 126 128 133 136 139 -209 148 149 152 163 162 162 163 162 163 164 166 162 159 160 161 161 161 161 161 155 161 160 159 163 163 158 161 162 168 171 172 0 0 0 0 0
    0 0 0 0 0 0 0 0 0 0 0 0 0 0 0 0 0 0 0 0 0 0 0 0 0 0 0 0 0 0 0 0 0 0 0 0 0 0 0 0 0 0 0 0 0 0 0 0 0 0 0 0 0 0 0 0 0 0 0 0 0 0 0 0 0 0 0 0 0 123 123 124 125 124 125 127 126 125 127 127 126 123 124 -209 123 123 124 126 126 124 124 123 123 124 126 130 133 131 134 133 131 128 130 129 128 131 131 128 128 126 127 125 124 124 123 121 -225 -225 -225 -225 -225 -225 -225 -225 -225 -225 -225 -225 -225 -225 -225 -225 -225 -225 -225 -225 -225 -225 -225 -225 -225 -225 -225 -225 -225 -225 -225 -225 -225 -225 -225 -225 -225 -225 -225 -225 -225 -225 -225 -225 -225 -225 -225 -225 -225 -225 -225 -225 -225 -225 -225 -225 -225 -225 -225 -225 -225 -225 -225 -225 -225 -225 -225 -225 -225 -225 -225 -225 -225 -225 -225 -225 -225 -225 -225 -225 -225 -225 -225 -225 -225 -225 -225 -225 -225 -225 -225 -225 -225 -225 -225 -225 -225 -225 -225 -225 -225 -225 -225 -225 -225 -225 -225 -225 -225 -225 -225 -225 -225 -225 -225 -225 -225 -225 -225 -225 -225 -225 109 108 112 112 116 119 120 120 122 121 120 120 123 124 124 125 127 128 131 132 132 131 132 131 130 131 128 128 129 132 131 129 130 128 127 129 127 127 126 125 126 128 134 136 140 147 151 152 153 163 162 161 163 162 162 164 166 162 159 160 160 160 161 161 161 155 160 158 157 162 162 157 159 160 168 171 173 0 0 0 0 0
    0 0 0 0 0 0 0 0 0 0 0 0 0 0 0 0 0 0 0 0 0 0 0 0 0 0 0 0 0 0 0 0 0 0 0 0 0 0 0 0 0 0 0 0 0 0 0 0 0 0 0 0 0 0 0 0 0 0 0 0 0 0 0 0 0 0 0 0 0 124 124 125 126 125 126 128 126 129 129 129 128 125 -193 -193 126 125 126 127 127 125 125 123 123 123 124 124 127 125 130 130 131 132 135 137 135 136 134 132 131 129 128 125 124 124 123 121 -225 -225 -225 -225 -225 -225 -225 -225 -225 -225 -225 -225 -225 -225 -225 -225 -225 -225 -225 -225 -225 -225 -225 -225 -225 -225 -225 -225 -225 -225 -225 -225 -225 -225 -225 -225 -225 -225 -225 -225 -225 -225 -225 -225 -225 -225 -225 -225 -225 -225 -225 -225 -225 -225 -225 -225 -225 -225 -225 -225 -225 -225 -225 -225 -225 -225 -225 -225 -225 -225 -225 -225 -225 -225 -225 -225 -225 -225 -225 -225 -225 -225 -225 -225 -225 -225 -225 -225 -225 -225 -225 -225 -225 -225 -225 -225 -225 -225 -225 -225 -225 -225 -225 -225 -225 -225 -225 -225 -225 -225 -225 -225 -225 -225 -225 -225 -225 -225 -225 -225 -225 -225 -225 111 114 114 117 120 120 119 122 122 121 121 124 124 125 125 128 130 132 134 134 133 133 133 133 133 131 132 131 133 133 132 132 130 128 131 129 128 127 126 128 128 134 137 141 149 153 154 155 164 163 162 163 161 162 163 166 162 159 160 160 161 161 161 161 155 160 159 157 161 160 155 157 158 167 170 173 0 0 0 0 0
    0 0 0 0 0 0 0 0 0 0 0 0 0 0 0 0 0 0 0 0 0 0 0 0 0 0 0 0 0 0 0 0 0 0 0 0 0 0 0 0 0 0 0 0 0 0 0 0 0 0 0 0 0 0 0 0 0 0 0 0 0 0 0 0 0 0 0 0 0 129 129 129 129 129 130 129 132 131 129 128 126 123 -193 -193 126 125 126 127 128 126 128 126 127 125 127 129 129 126 130 130 133 134 137 138 137 137 136 133 134 130 129 126 125 125 123 -225 -225 -225 -225 -225 -225 -225 -225 -225 -225 -225 -225 -225 -225 -225 -225 -225 -225 -225 -225 -225 -225 -225 -225 -225 -225 -225 -225 -225 -225 -225 -225 -225 -225 -225 -225 -225 -225 -225 -225 -225 -225 -225 -225 -225 -225 -225 -225 -225 -225 -225 -225 -225 -225 -225 -225 -225 -225 -225 -225 -225 -225 -225 -225 -225 -225 -225 -225 -225 -225 -225 -225 -225 -225 -225 -225 -225 -225 -225 -225 -225 -225 -225 -225 -225 -225 -225 -225 -225 -225 -225 -225 -225 -225 -225 -225 -225 -225 -225 -225 -225 -225 -225 -225 -225 -225 -225 -225 -225 -225 -225 -225 -225 -225 -225 -225 -225 -225 -225 -225 -225 -225 -225 -225 -225 117 116 119 121 121 120 122 122 121 121 124 124 125 125 129 131 132 134 133 133 133 133 133 133 131 132 132 134 133 133 132 131 130 132 131 129 128 127 129 129 134 139 145 151 154 154 156 165 164 162 163 162 162 163 166 162 159 160 161 161 162 161 161 155 161 159 157 159 157 153 154 156 166 169 172 0 0 0 0 0
    0 0 0 0 0 0 0 0 0 0 0 0 0 0 0 0 0 0 0 0 0 0 0 0 0 0 0 0 0 0 0 0 0 0 0 0 0 0 0 0 0 0 0 0 0 0 0 0 0 0 0 0 0 0 0 0 0 0 0 0 0 0 0 0 0 0 0 0 0 136 136 134 133 133 133 133 135 133 133 132 132 125 127 127 128 126 128 129 130 129 132 131 133 132 132 136 134 131 133 134 137 137 140 142 141 141 138 136 135 131 129 126 125 125 122 -225 -225 -225 -225 -225 -225 -225 -225 -225 -225 -225 -225 -225 -225 -225 -225 -225 -225 -225 -225 -225 -225 -225 -225 -225 -225 -225 -225 -225 -225 -225 -225 -225 -225 -225 -225 -225 -225 -225 -225 -225 -225 -225 -225 -225 -225 -225 -225 -225 -225 -225 -225 -225 -225 -225 -225 -225 -225 -225 -225 -225 -225 -225 -225 -225 -225 -225 -225 -225 -225 -225 -225 -225 -225 -225 -225 -225 -225 -225 -225 -225 -225 -225 -225 -225 -225 -225 -225 -225 -225 -225 -225 -225 -225 -225 -225 -225 -225 -225 -225 -225 -225 -225 -225 -225 -225 -225 -225 -225 -225 -225 -225 -225 -225 -225 -225 -225 -225 -225 -225 -225 -225 -225 -225 -225 -225 119 123 124 124 122 123 124 123 122 125 125 126 127 130 132 132 134 134 133 133 133 133 133 132 132 132 134 133 133 133 132 131 132 131 130 128 129 131 133 136 140 146 150 153 153 155 164 164 162 163 162 162 163 166 162 159 160 161 161 162 161 161 155 161 159 157 158 157 154 157 158 165 167 170 0 0 0 0 0
    0 0 0 0 0 0 0 0 0 0 0 0 0 0 0 0 0 0 0 0 0 0 0 0 0 0 0 0 0 0 0 0 0 0 0 0 0 0 0 0 0 0 0 0 0 0 0 0 0 0 0 0 0 0 0 0 0 0 0 0 0 0 0 0 0 0 0 0 0 139 139 137 134 135 134 134 137 135 137 136 138 133 133 133 133 130 131 132 132 133 135 134 137 135 135 137 137 137 136 138 144 143 146 148 147 147 143 138 137 131 130 126 124 124 123 -225 -225 -225 -225 -225 -225 -225 -225 -225 -225 -225 -225 -225 -225 -225 -225 -225 -225 -225 -225 -225 -225 -225 -225 -225 -225 -225 -225 -225 -225 -225 -225 -225 -225 -225 -225 -225 -225 -225 -225 -225 -225 -225 -225 -225 -225 -225 -225 -225 -225 -225 -225 -225 -225 -225 -225 -225 -225 -225 -225 -225 -225 -225 -225 -225 -225 -225 -225 -225 -225 -225 -225 -225 -225 -225 -225 -225 -225 -225 -225 -225 -225 -225 -225 -225 -225 -225 -225 -225 -225 -225 -225 -225 -225 -225 -225 -225 -225 -225 -225 -225 -225 -225 -225 -225 -225 -225 -225 -225 -225 -225 -225 -225 -225 -225 -225 -225 -225 -225 -225 -225 -225 -225 -225 -225 -225 -225 130 127 131 125 126 125 125 123 128 126 127 127 130 131 132 134 133 133 133 133 133 134 133 133 133 135 134 134 134 132 131 132 132 131 129 130 132 134 137 141 147 150 153 153 155 164 164 162 163 162 162 163 166 162 160 160 162 162 162 162 162 155 161 159 157 158 157 156 158 160 164 166 168 0 0 0 0 0
    0 0 0 0 0 0 0 0 0 0 0 0 0 0 0 0 0 0 0 0 0 0 0 0 0 0 0 0 0 0 0 0 0 0 0 0 0 0 0 0 0 0 0 0 0 0 0 0 0 0 0 0 0 0 0 0 0 0 0 0 0 0 0 0 0 0 0 0 0 144 144 139 135 136 135 135 137 136 138 138 139 137 136 136 136 134 134 134 135 135 136 136 137 135 135 137 137 137 136 140 148 148 149 150 149 148 145 140 138 132 131 126 124 124 123 -225 -225 -225 -225 -225 -225 -225 -225 -225 -225 -225 -225 -225 -225 -225 -225 -225 -225 -225 -225 -225 -225 -225 -225 -225 -225 -225 -225 -225 -225 -225 -225 -225 -225 -225 -225 -225 -225 -225 -225 -225 -225 -225 -225 -225 -225 -225 -225 -225 -225 -225 -225 -225 -225 -225 -225 -225 -225 -225 -225 -225 -225 -225 -225 -225 -225 -225 -225 -225 -225 -225 -225 -225 -225 -225 -225 -225 -225 -225 -225 -225 -225 -225 -225 -225 -225 -225 -225 -225 -225 -225 -225 -225 -225 -225 -225 -225 -225 -225 -225 -225 -225 -225 -225 -225 -225 -225 -225 -225 -225 -225 -225 -225 -225 -225 -225 -225 -225 -225 -225 -225 -225 -225 -225 -225 -225 -225 134 136 137 134 134 133 130 127 132 128 128 127 130 130 130 133 132 132 133 132 133 133 132 133 132 134 133 133 134 132 132 133 133 132 132 133 134 135 138 144 151 153 157 158 161 165 166 163 164 163 163 163 165 162 160 159 162 162 162 162 162 155 161 159 157 158 157 156 158 160 163 165 168 0 0 0 0 0
    0 0 0 0 0 0 0 0 0 0 0 0 0 0 0 0 0 0 0 0 0 0 0 0 0 0 0 0 0 0 0 0 0 0 0 0 0 0 0 0 0 0 0 0 0 0 0 0 0 0 0 0 0 0 0 0 0 0 0 0 0 0 0 0 0 0 0 0 0 145 144 138 136 136 135 135 137 137 139 140 140 138 137 138 137 136 136 136 136 137 139 138 138 136 137 138 138 139 139 144 150 150 150 151 149 149 146 142 140 133 131 125 124 124 123 -225 -225 -225 -225 -225 -225 -225 -225 -225 -225 -225 -225 -225 -225 -225 -225 -225 -225 -225 -225 -225 -225 -225 -225 -225 -225 -225 -225 -225 -225 -225 -225 -225 -225 -225 -225 -225 -225 -225 -225 -225 -225 -225 -225 -225 -225 -225 -225 -225 -225 -225 -225 -225 -225 -225 -225 -225 -225 -225 -225 -225 -225 -225 -225 -225 -225 -225 -225 -225 -225 -225 -225 -225 -225 -225 -225 -225 -225 -225 -225 -225 -225 -225 -225 -225 -225 -225 -225 -225 -225 -225 -225 -225 -225 -225 -225 -225 -225 -225 -225 -225 -225 -225 -225 -225 -225 -225 -225 -225 -225 -225 -225 -225 -225 -225 -225 -225 -225 -225 -225 -225 -225 -225 -225 -225 -225 -225 135 142 139 138 137 137 136 134 135 132 131 130 131 130 130 133 133 132 133 133 133 134 134 134 134 135 135 135 135 135 133 135 134 134 134 135 136 138 141 147 152 153 157 157 158 161 163 162 162 162 162 161 165 161 160 159 161 162 162 161 161 155 160 159 158 159 158 158 160 162 165 166 169 0 0 0 0 0
    0 0 0 0 0 0 0 0 0 0 0 0 0 0 0 0 0 0 0 0 0 0 0 0 0 0 0 0 0 0 0 0 0 0 0 0 0 0 0 0 0 0 0 0 0 0 0 0 0 0 0 0 0 0 0 0 0 0 0 0 0 0 0 0 0 0 0 0 0 144 145 145 140 139 139 138 140 140 143 142 143 143 141 143 142 137 -193 -193 -209 -209 137 137 137 136 139 139 139 140 142 147 151 150 151 151 150 149 147 145 143 137 133 125 123 123 -225 -225 -225 -225 -225 -225 -225 -225 -225 -225 -225 -225 -225 -225 -225 -225 -225 -225 -225 -225 -225 -225 -225 -225 -225 -225 -225 -225 -225 -225 -225 -225 -225 -225 -225 -225 -225 -225 -225 -225 -225 -225 -225 -225 -225 -225 -225 -225 -225 -225 -225 -225 -225 -225 -225 -225 -225 -225 -225 -225 -225 -225 -225 -225 -225 -225 -225 -225 -225 -225 -225 -225 -225 -225 -225 -225 -225 -225 -225 -225 -225 -225 -225 -225 -225 -225 -225 -225 -225 -225 -225 -225 -225 -225 -225 -225 -225 -225 -225 -225 -225 -225 -225 -225 -225 -225 -225 -225 -225 -225 -225 -225 -225 -225 -225 -225 -225 -225 -225 -225 -225 -225 -225 -225 -225 -225 -225 -225 137 146 141 139 139 139 138 137 137 136 134 132 132 132 132 134 134 133 134 134 134 135 135 135 135 135 135 136 137 136 135 137 135 135 136 137 137 140 144 149 153 154 158 158 158 160 163 162 162 162 162 159 165 161 160 159 161 161 161 161 161 154 158 158 157 157 157 157 158 162 165 167 171 0 0 0 0 0
    0 0 0 0 0 0 0 0 0 0 0 0 0 0 0 0 0 0 0 0 0 0 0 0 0 0 0 0 0 0 0 0 0 0 0 0 0 0 0 0 0 0 0 0 0 0 0 0 0 0 0 0 0 0 0 0 0 0 0 0 0 0 0 0 0 0 0 0 0 149 149 150 146 143 144 143 144 143 147 146 147 147 145 148 147 146 -209 -209 -209 -209 138 139 138 136 139 141 143 146 149 151 153 152 152 151 151 150 148 147 144 140 -225 -225 -225 -225 -225 -225 -225 -225 -225 -225 -225 -225 -225 -225 -225 -225 -225 -225 -225 -225 -225 -225 -225 -225 -225 -225 -225 -225 -225 -225 -225 -225 -225 -225 -225 -225 -225 -225 -225 -225 -225 -225 -225 -225 -225 -225 -225 -225 -225 -225 -225 -225 -225 -225 -225 -225 -225 -225 -225 -225 -225 -225 -225 -225 -225 -225 -225 -225 -225 -225 -225 -225 -225 -225 -225 -225 -225 -225 -225 -225 -225 -225 -225 -225 -225 -225 -225 -225 -225 -225 -225 -225 -225 -225 -225 -225 -225 -225 -225 -225 -225 -225 -225 -225 -225 -225 -225 -225 -225 -225 -225 -225 -225 -225 -225 -225 -225 -225 -225 -225 -225 -225 -225 -225 -225 -225 -225 -225 -225 -225 -225 -225 139 147 144 141 140 140 140 139 139 139 137 135 135 134 134 136 136 135 134 135 135 136 136 137 136 136 136 137 137 137 136 137 136 135 136 138 139 141 147 151 154 155 159 159 159 160 163 162 161 162 162 158 165 161 160 159 161 162 162 161 161 155 158 158 156 156 157 157 158 162 166 167 172 0 0 0 0 0
    0 0 0 0 0 0 0 0 0 0 0 0 0 0 0 0 0 0 0 0 0 0 0 0 0 0 0 0 0 0 0 0 0 0 0 0 0 0 0 0 0 0 0 0 0 0 0 0 0 0 0 0 0 0 0 0 0 0 0 0 0 0 0 0 0 0 0 0 0 149 149 150 148 146 148 147 147 145 148 147 147 146 145 148 147 144 144 140 140 140 140 141 140 139 142 143 148 150 152 153 155 152 152 152 151 151 149 147 -225 -225 -225 -225 -225 -225 -225 -225 -225 -225 -225 -225 -225 -225 -225 -225 -225 -225 -225 -225 -225 -225 -225 -225 -225 -225 -225 -225 -225 -225 -225 -225 -225 -225 -225 -225 -225 -225 -225 -225 -225 -225 -225 -225 -225 -225 -225 -225 -225 -225 -225 -225 -225 -225 -225 -225 -225 -225 -225 -225 -225 -225 -225 -225 -225 -225 -225 -225 -225 -225 -225 -225 -225 -225 -225 -225 -225 -225 -225 -225 -225 -225 -225 -225 -225 -225 -225 -225 -225 -225 -225 -225 -225 -225 -225 -225 -225 -225 -225 -225 -225 -225 -225 -225 -225 -225 -225 -225 -225 -225 -225 -225 -225 -225 -225 -225 -225 -225 -225 -225 -225 -225 -225 -225 -225 -225 -225 -225 -225 -225 -225 -225 -225 -225 139 147 144 141 141 141 141 141 140 140 138 136 137 135 135 138 137 136 136 136 136 138 138 138 136 137 137 138 138 138 137 138 138 138 138 140 142 145 149 153 155 156 161 159 159 160 162 162 161 162 162 158 166 162 161 161 162 162 163 162 162 155 159 159 157 157 158 158 159 162 165 166 170 0 0 0 0 0
    0 0 0 0 0 0 0 0 0 0 0 0 0 0 0 0 0 0 0 0 0 0 0 0 0 0 0 0 0 0 0 0 0 0 0 0 0 0 0 0 0 0 0 0 0 0 0 0 0 0 0 0 0 0 0 0 0 0 0 0 0 0 0 0 0 0 0 0 0 147 149 151 150 149 150 150 149 147 148 147 147 145 144 146 146 145 144 141 141 141 141 143 142 140 144 146 150 151 153 153 154 153 154 153 153 153 150 -225 -225 -225 -225 -225 -225 -225 -225 -225 -225 -225 -225 -225 -225 -225 -225 -225 -225 -225 -225 -225 -225 -225 -225 -225 -225 -225 -225 -225 -225 -225 -225 -225 -225 -225 -225 -225 -225 -225 -225 -225 -225 -225 -225 -225 -225 -225 -225 -225 -225 -225 -225 -225 -225 -225 -225 -225 -225 -225 -225 -225 -225 -225 -225 -225 -225 -225 -225 -225 -225 -225 -225 -225 -225 -225 -225 -225 -225 -225 -225 -225 -225 -225 -225 -225 -225 -225 -225 -225 -225 -225 -225 -225 -225 -225 -225 -225 -225 -225 -225 -225 -225 -225 -225 -225 -225 -225 -225 -225 -225 -225 -225 -225 -225 -225 -225 -225 -225 -225 -225 -225 -225 -225 -225 -225 -225 -225 -225 -225 -225 -225 -225 -225 -225 -225 139 146 145 141 141 141 141 142 141 142 139 137 137 136 136 137 137 136 138 138 138 141 140 139 139 139 138 138 139 139 138 139 139 139 140 143 146 149 152 155 156 157 161 159 159 160 162 161 160 162 162 157 166 162 162 162 163 163 163 163 161 155 159 158 157 157 159 159 159 162 164 166 168 0 0 0 0 0
    0 0 0 0 0 0 0 0 0 0 0 0 0 0 0 0 0 0 0 0 0 0 0 0 0 0 0 0 0 0 0 0 0 0 0 0 0 0 0 0 0 0 0 0 0 0 0 0 0 0 0 0 0 0 0 0 0 0 0 0 0 0 0 0 0 0 0 0 0 141 144 149 150 149 151 151 149 149 150 149 148 146 146 147 147 146 146 142 142 142 143 146 143 142 147 148 152 153 155 155 155 155 156 155 155 156 -225 -225 -225 -225 -225 -225 -225 -225 -225 -225 -225 -225 -225 -225 -225 -225 -225 -225 -225 -225 -225 -225 -225 -225 -225 -225 -225 -225 -225 -225 -225 -225 -225 -225 -225 -225 -225 -225 -225 -225 -225 -225 -225 -225 -225 -225 -225 -225 -225 -225 -225 -225 -225 -225 -225 -225 -225 -225 -225 -225 -225 -225 -225 -225 -225 -225 -225 -225 -225 -225 -225 -225 -225 -225 -225 -225 -225 -225 -225 -225 -225 -225 -225 -225 -225 -225 -225 -225 -225 -225 -225 -225 -225 -225 -225 -225 -225 -225 -225 -225 -225 -225 -225 -225 -225 -225 -225 -225 -225 -225 -225 -225 -225 -225 -225 -225 -225 -225 -225 -225 -225 -225 -225 -225 -225 -225 -225 -225 -225 -225 -225 -225 -225 -225 -225 -225 139 145 144 141 141 141 141 142 142 143 141 139 141 141 145 144 142 140 142 142 141 145 143 142 141 140 139 138 139 139 138 139 139 139 141 145 149 151 155 158 157 158 162 160 159 160 162 161 160 163 162 158 167 163 163 162 163 162 162 162 160 155 157 157 156 157 159 159 159 163 165 167 169 0 0 0 0 0
    0 0 0 0 0 0 0 0 0 0 0 0 0 0 0 0 0 0 0 0 0 0 0 0 0 0 0 0 0 0 0 0 0 0 0 0 0 0 0 0 0 0 0 0 0 0 0 0 0 0 0 0 0 0 0 0 0 0 0 0 0 0 0 0 0 0 0 0 0 137 139 146 148 149 151 152 150 150 151 150 149 148 148 149 149 148 147 142 142 142 145 146 145 143 148 150 154 156 157 155 155 157 157 156 -225 -225 -225 -225 -225 -225 -225 -225 -225 -225 -225 -225 -225 -225 -225 -225 -225 -225 -225 -225 -225 -225 -225 -225 -225 -225 -225 -225 -225 -225 -225 -225 -225 -225 -225 -225 -225 -225 -225 -225 -225 -225 -225 -225 -225 -225 -225 -225 -225 -225 -225 -225 -225 -225 -225 -225 -225 -225 -225 -225 -225 -225 -225 -225 -225 -225 -225 -225 -225 -225 -225 -225 -225 -225 -225 -225 -225 -225 -225 -225 -225 -225 -225 -225 -225 -225 -225 -225 -225 -225 -225 -225 -225 -225 -225 -225 -225 -225 -225 -225 -225 -225 -225 -225 -225 -225 -225 -225 -225 -225 -225 -225 -225 -225 -225 -225 -225 -225 -225 -225 -225 -225 -225 -225 -225 -225 -225 -225 -225 -225 -225 -225 -225 -225 -225 -225 -225 -225 139 145 144 141 141 141 141 142 142 144 141 140 143 146 152 147 146 144 145 147 146 148 146 146 145 143 142 141 140 141 140 142 142 144 147 150 152 154 158 160 159 159 163 161 160 161 162 161 160 162 163 160 167 164 164 164 163 163 163 163 159 155 157 157 156 157 159 159 159 164 166 167 169 0 0 0 0 0
    0 0 0 0 0 0 0 0 0 0 0 0 0 0 0 0 0 0 0 0 0 0 0 0 0 0 0 0 0 0 0 0 0 0 0 0 0 0 0 0 0 0 0 0 0 0 0 0 0 0 0 0 0 0 0 0 0 0 0 0 0 0 0 0 0 0 0 0 0 137 139 146 149 -193 152 153 151 151 151 151 150 149 149 150 149 149 148 143 143 144 147 149 148 147 150 152 156 159 158 155 155 155 156 -225 -225 -225 -225 -225 -225 -225 -225 -225 -225 -225 -225 -225 -225 -225 -225 -225 -225 -225 -225 -225 -225 -225 -225 -225 -225 -225 -225 -225 -225 -225 -225 -225 -225 -225 -225 -225 -225 -225 -225 -225 -225 -225 -225 -225 -225 -225 -225 -225 -225 -225 -225 -225 -225 -225 -225 -225 -225 -225 -225 -225 -225 -225 -225 -225 -225 -225 -225 -225 -225 -225 -225 -225 -225 -225 -225 -225 -225 -225 -225 -225 -225 -225 -225 -225 -225 -225 -225 -225 -225 -225 -225 -225 -225 -225 -225 -225 -225 -225 -225 -225 -225 -225 -225 -225 -225 -225 -225 -225 -225 -225 -225 -225 -225 -225 -225 -225 -225 -225 -225 -225 -225 -225 -225 -225 -225 -225 -225 -225 -225 -225 -225 -225 -225 -225 -225 -225 -225 -225 -225 145 143 141 140 140 141 141 141 143 141 141 144 149 154 151 150 148 148 150 150 150 149 149 148 147 146 145 143 144 144 147 147 150 151 152 154 155 160 161 161 160 163 161 161 161 162 160 160 162 165 162 168 165 165 165 164 163 163 162 159 155 157 157 155 157 158 157 157 163 165 167 170 0 0 0 0 0
    0 0 0 0 0 0 0 0 0 0 0 0 0 0 0 0 0 0 0 0 0 0 0 0 0 0 0 0 0 0 0 0 0 0 0 0 0 0 0 0 0 0 0 0 0 0 0 0 0 0 0 0 0 0 0 0 0 0 0 0 0 0 0 0 0 0 0 0 0 142 146 150 151 152 152 153 151 150 152 151 150 149 149 150 149 150 149 143 144 147 149 151 151 151 152 153 157 159 158 156 154 154 -225 -225 -225 -225 -225 -225 -225 -225 -225 -225 -225 -225 -225 -225 -225 -225 -225 -225 -225 -225 -225 -225 -225 -225 -225 -225 -225 -225 -225 -225 -225 -225 -225 -225 -225 -225 -225 -225 -225 -225 -225 -225 -225 -225 -225 -225 -225 -225 -225 -225 -225 -225 -225 -225 -225 -225 -225 -225 -225 -225 -225 -225 -225 -225 -225 -225 -225 -225 -225 -225 -225 -225 -225 -225 -225 -225 -225 -225 -225 -225 -225 -225 -225 -225 -225 -225 -225 -225 -225 -225 -225 -225 -225 -225 -225 -225 -225 -225 -225 -225 -225 -225 -225 -225 -225 -225 -225 -225 -225 -225 -225 -225 -225 -225 -225 -225 -225 -225 -225 -225 -225 -225 -225 -225 -225 -225 -225 -225 -225 -225 -225 -225 -225 -225 -225 -225 -225 -225 -225 -225 -225 145 144 142 141 140 141 142 142 144 143 142 144 148 154 154 152 152 151 152 152 152 151 150 150 149 149 147 147 147 148 150 150 152 153 155 155 155 161 161 161 160 162 160 159 160 161 159 159 161 165 163 170 166 166 166 165 165 164 163 159 156 158 158 156 157 158 156 156 161 165 167 170 0 0 0 0 0</data></disparity>
</opencv_storage>
