<?xml version="1.0"?>
<opencv_storage>
<gps_time_stamp>305586</gps_time_stamp>
<gps_x>-1.2408880233764648e+001</gps_x>
<gps_y>1.0965244293212891e+001</gps_y>
<gps_z>-2.0320582389831543e+000</gps_z>
<image_time_stamp>296458</image_time_stamp>
<disparity type_id="opencv-matrix">
  <rows>89</rows>
  <cols>320</cols>
  <dt>s</dt>
  <data>
    0 0 0 0 0 0 0 0 0 0 0 0 0 0 0 0 0 0 0 0 0 0 0 0 0 0 0 0 0 0 0 0 0 0 0 0 0 0 0 0 0 0 0 0 0 0 0 0 0 0 0 0 0 0 0 0 0 0 0 0 0 0 0 0 0 0 0 0 0 56 54 53 53 51 49 48 45 44 44 47 45 45 45 48 47 48 46 46 43 44 42 42 42 42 41 41 39 39 39 37 37 35 37 36 34 36 36 -193 -193 35 37 31 32 -193 26 30 29 30 30 26 25 25 25 25 23 22 23 22 21 21 21 21 21 21 22 22 22 22 22 21 21 21 21 20 17 17 10 11 10 10 0 0 0 0 0 0 0 0 0 0 9 9 9 10 10 10 11 10 11 10 10 10 9 10 10 10 10 10 11 16 16 20 21 22 23 25 24 25 27 28 28 31 29 31 32 33 33 33 35 36 34 39 39 36 42 43 48 44 42 43 43 43 43 44 50 45 52 54 56 -193 -209 -193 -209 -193 64 -193 69 73 70 71 -193 70 -177 -193 72 75 -193 80 -177 90 90 -193 89 90 91 91 92 -193 89 -209 93 97 95 93 94 94 94 94 90 92 89 91 92 92 94 95 96 98 -193 -209 -209 877 -209 -209 122 123 124 124 126 132 133 134 136 138 138 139 138 138 139 139 142 -193 140 140 141 148 150 151 153 153 154 154 154 154 154 155 156 155 157 155 164 164 164 165 165 0 0 0 0 0
    0 0 0 0 0 0 0 0 0 0 0 0 0 0 0 0 0 0 0 0 0 0 0 0 0 0 0 0 0 0 0 0 0 0 0 0 0 0 0 0 0 0 0 0 0 0 0 0 0 0 0 0 0 0 0 0 0 0 0 0 0 0 0 0 0 0 0 0 0 56 54 53 53 52 49 48 44 43 44 48 45 45 46 48 47 49 47 46 44 44 42 42 42 42 41 -193 39 39 39 37 37 35 37 36 34 36 37 -177 -193 35 37 32 32 -177 27 30 29 30 30 26 25 25 25 24 23 22 23 22 21 21 21 21 20 19 20 20 20 20 20 20 19 20 19 19 16 17 10 12 11 11 0 0 0 0 0 0 0 0 0 0 9 9 9 10 10 11 11 11 11 10 10 10 10 9 9 10 10 10 11 16 16 20 20 22 23 25 24 25 26 27 28 31 29 30 32 32 33 32 35 36 34 38 39 36 42 43 47 44 42 43 43 43 43 44 50 46 52 54 55 -193 -209 -193 -209 -193 64 -209 70 73 71 72 -177 70 -177 -177 -209 75 74 80 -177 89 89 245 90 90 91 92 92 89 90 93 92 95 94 92 92 93 93 93 90 91 88 89 91 91 93 93 94 96 -193 -209 -193 -193 -209 -209 122 123 124 124 126 131 133 133 135 137 138 138 138 138 138 139 141 -193 139 139 140 146 150 151 153 153 155 155 155 155 155 156 157 156 158 155 163 164 164 164 164 0 0 0 0 0
    0 0 0 0 0 0 0 0 0 0 0 0 0 0 0 0 0 0 0 0 0 0 0 0 0 0 0 0 0 0 0 0 0 0 0 0 0 0 0 0 0 0 0 0 0 0 0 0 0 0 0 0 0 0 0 0 0 0 0 0 0 0 0 0 0 0 0 0 0 56 54 53 53 52 49 48 44 43 43 47 45 45 46 47 47 49 46 46 44 44 42 42 42 42 41 -193 39 39 38 37 37 35 37 36 34 36 37 -193 -193 35 37 32 32 -177 28 31 29 30 29 26 25 24 25 24 23 22 22 21 21 21 21 20 19 18 18 19 18 19 18 18 17 18 18 19 16 19 12 14 12 12 10 10 9 9 0 9 0 0 0 0 9 9 9 10 10 11 11 11 11 10 11 11 10 10 9 11 10 10 11 16 17 20 20 22 23 25 24 24 26 26 27 30 29 30 32 32 33 32 35 36 34 39 39 38 42 44 47 45 43 43 43 44 43 43 50 46 51 54 55 58 -209 -193 -209 -209 65 -209 70 73 73 73 -193 -193 -177 -177 -193 76 76 80 -177 88 88 245 90 90 91 92 91 89 90 92 91 93 93 90 91 92 92 92 -193 90 87 89 90 91 92 92 93 95 -193 -193 -193 -209 -209 -209 121 123 123 124 125 131 133 133 135 137 137 138 138 137 138 138 139 -193 139 138 139 144 149 150 153 154 156 155 155 155 155 156 157 157 159 155 164 164 164 165 164 0 0 0 0 0
    0 0 0 0 0 0 0 0 0 0 0 0 0 0 0 0 0 0 0 0 0 0 0 0 0 0 0 0 0 0 0 0 0 0 0 0 0 0 0 0 0 0 0 0 0 0 0 0 0 0 0 0 0 0 0 0 0 0 0 0 0 0 0 0 0 0 0 0 0 57 55 54 53 52 50 48 44 43 44 47 45 45 46 48 47 49 46 47 43 44 42 42 42 42 41 41 39 39 38 37 37 35 37 36 34 36 36 35 34 34 37 32 32 -193 29 31 29 30 29 26 25 24 25 24 22 21 22 21 20 20 20 19 18 17 17 17 17 17 16 16 15 17 16 19 15 19 13 14 13 13 11 11 10 10 9 9 0 0 0 0 9 9 9 10 10 11 11 11 11 10 11 11 10 10 9 11 11 11 12 15 17 20 20 21 22 25 23 24 26 26 26 30 28 29 31 32 34 31 35 36 35 39 40 40 42 45 46 47 43 43 43 44 43 43 49 46 50 54 56 -193 -193 -193 -209 -193 -193 -193 -193 74 74 74 -193 -193 -177 -193 75 78 77 79 -193 88 88 245 -193 -193 91 91 -193 -193 90 92 91 92 92 -193 -193 -193 91 91 -193 90 87 88 90 90 92 91 92 94 -193 -193 -177 -209 -209 -209 121 123 123 124 125 130 133 132 135 136 137 137 137 136 137 137 138 -193 138 137 138 142 149 150 153 154 156 156 156 156 156 156 158 157 159 155 165 165 165 166 165 0 0 0 0 0
    0 0 0 0 0 0 0 0 0 0 0 0 0 0 0 0 0 0 0 0 0 0 0 0 0 0 0 0 0 0 0 0 0 0 0 0 0 0 0 0 0 0 0 0 0 0 0 0 0 0 0 0 0 0 0 0 0 0 0 0 0 0 0 0 0 0 0 0 0 57 55 54 53 53 51 48 44 44 45 48 46 46 47 47 48 49 46 47 43 44 42 42 42 42 41 41 39 39 38 37 37 36 37 36 34 36 36 35 34 33 36 32 32 33 30 32 29 29 29 26 25 24 25 24 22 21 21 20 19 20 20 19 17 17 15 17 16 17 15 15 14 15 14 17 13 17 12 15 12 12 12 11 11 11 9 9 0 0 0 0 9 9 9 10 10 11 11 11 11 10 11 11 10 10 9 12 11 12 12 15 17 20 19 21 22 -193 23 24 -193 25 26 30 28 29 31 33 35 32 36 37 35 41 41 41 42 46 46 49 44 44 44 44 43 44 50 47 50 55 56 59 -193 -193 -209 -193 -193 -209 -193 74 76 75 -193 74 -177 -193 76 79 78 79 -209 87 88 244 -193 -193 91 91 -177 -193 90 92 91 92 92 -193 -193 -177 -193 90 -209 -193 88 88 90 90 91 90 92 93 -193 -193 -177 -209 -209 -209 122 123 123 124 124 129 133 132 135 135 136 137 136 136 136 136 137 -193 137 137 137 141 149 150 153 154 157 156 157 157 157 156 158 157 159 155 165 166 166 166 166 0 0 0 0 0
    0 0 0 0 0 0 0 0 0 0 0 0 0 0 0 0 0 0 0 0 0 0 0 0 0 0 0 0 0 0 0 0 0 0 0 0 0 0 0 0 0 0 0 0 0 0 0 0 0 0 0 0 0 0 0 0 0 0 0 0 0 0 0 0 0 0 0 0 0 58 56 55 54 53 52 49 45 45 46 48 46 46 47 47 48 49 46 47 43 44 42 42 42 42 41 41 39 39 38 37 37 35 37 36 34 35 36 35 34 33 36 33 32 33 31 32 29 29 29 27 25 24 25 24 21 21 21 20 19 20 20 18 16 16 14 16 16 16 14 14 13 14 13 16 12 15 11 14 12 12 12 11 11 11 9 10 0 0 0 0 9 9 9 10 10 11 11 11 11 10 11 12 10 11 9 12 11 12 12 15 17 20 19 21 22 -193 23 23 -209 25 25 29 28 29 31 33 35 32 36 37 36 41 42 43 42 46 46 52 45 45 45 45 44 45 50 48 50 55 56 59 -177 -209 -209 -193 -193 -193 -177 74 -193 76 -193 -193 383 382 77 80 80 79 -209 86 87 -193 -193 -193 91 91 -177 -193 91 92 -193 92 92 -193 -193 -177 -193 -193 -193 -193 -193 87 -193 89 91 90 91 92 -193 -193 -177 -209 -209 -193 122 123 124 125 124 129 133 132 134 135 136 136 136 135 136 135 137 -193 137 137 137 141 149 149 153 155 157 157 157 157 157 156 158 157 159 155 165 167 167 167 167 0 0 0 0 0
    0 0 0 0 0 0 0 0 0 0 0 0 0 0 0 0 0 0 0 0 0 0 0 0 0 0 0 0 0 0 0 0 0 0 0 0 0 0 0 0 0 0 0 0 0 0 0 0 0 0 0 0 0 0 0 0 0 0 0 0 0 0 0 0 0 0 0 0 0 58 56 56 54 54 53 49 45 46 47 48 47 46 47 47 48 49 46 47 43 44 43 42 42 41 41 41 39 39 38 37 37 35 36 36 34 35 36 35 34 33 36 33 31 33 31 32 29 29 29 27 25 25 25 24 21 21 21 21 19 20 20 18 15 15 13 15 14 15 14 13 12 14 13 15 12 14 10 13 12 11 11 11 11 10 9 9 0 0 0 0 9 9 9 11 10 11 11 11 10 10 10 11 9 10 9 12 11 12 12 15 17 20 19 21 21 23 22 22 -193 24 24 29 27 28 31 34 36 33 37 38 37 42 44 44 42 47 47 53 46 46 46 46 46 46 51 49 50 55 56 59 -177 -209 -209 -209 -209 -193 -177 75 -193 77 -193 -193 -177 384 77 81 81 78 -193 86 87 -193 -193 -193 91 90 -177 -193 91 92 -193 91 92 -193 -193 -177 -193 -193 -193 -193 -209 87 -193 89 90 89 90 91 -193 -193 -177 -193 -209 -193 122 123 124 125 124 129 133 132 134 134 135 135 136 135 135 135 136 -193 137 137 137 140 148 149 153 155 157 157 157 157 157 156 158 158 158 155 163 166 166 166 166 0 0 0 0 0
    0 0 0 0 0 0 0 0 0 0 0 0 0 0 0 0 0 0 0 0 0 0 0 0 0 0 0 0 0 0 0 0 0 0 0 0 0 0 0 0 0 0 0 0 0 0 0 0 0 0 0 0 0 0 0 0 0 0 0 0 0 0 0 0 0 0 0 0 0 58 57 56 55 55 53 50 45 47 48 48 47 46 46 46 48 48 46 46 43 44 43 42 42 41 41 40 38 39 38 36 37 35 36 35 33 35 35 35 34 33 36 33 31 32 31 33 29 29 29 27 25 25 25 24 21 21 21 20 19 20 20 18 15 15 12 14 14 14 13 13 12 14 13 16 12 13 10 12 11 11 11 10 10 10 9 9 0 0 0 9 10 9 9 11 11 12 11 11 10 10 10 11 9 10 0 12 11 12 12 15 18 20 19 21 20 23 22 22 -193 23 24 28 27 28 31 34 36 34 38 39 38 43 45 45 42 47 47 54 47 47 47 48 47 48 51 50 50 55 56 59 -177 -209 -193 -209 -209 -193 -177 75 -193 77 -193 -193 -177 384 77 81 81 77 88 86 87 -193 -193 -193 91 91 -177 -193 92 93 91 91 92 -193 -193 957 -193 -193 -193 -193 -209 87 -193 89 90 89 90 90 88 90 -209 -209 -209 -193 122 123 124 125 124 129 134 131 134 133 134 134 135 134 135 134 136 -193 137 137 138 140 148 149 152 155 157 157 157 157 157 155 158 157 157 155 160 166 165 165 166 0 0 0 0 0
    0 0 0 0 0 0 0 0 0 0 0 0 0 0 0 0 0 0 0 0 0 0 0 0 0 0 0 0 0 0 0 0 0 0 0 0 0 0 0 0 0 0 0 0 0 0 0 0 0 0 0 0 0 0 0 0 0 0 0 0 0 0 0 0 0 0 0 0 0 58 57 56 55 -193 53 49 45 46 48 47 46 46 46 46 47 48 46 45 44 44 43 42 42 41 41 40 38 38 37 36 36 34 36 35 33 35 35 35 34 33 36 33 31 32 31 33 29 29 29 27 26 26 26 24 21 21 20 20 19 20 20 17 15 15 12 14 14 14 13 13 12 13 12 15 12 12 10 11 10 10 10 10 10 10 9 9 0 0 9 9 10 9 9 11 11 12 11 11 11 10 11 11 9 10 0 12 11 12 12 14 19 20 19 21 20 22 21 22 -193 23 24 28 27 28 31 34 37 35 39 39 39 44 46 47 42 47 47 54 48 48 48 48 48 48 51 51 50 55 56 59 -177 -209 -193 -209 -209 -193 -177 75 -177 77 -193 -193 -177 -177 -193 80 81 76 87 85 87 244 90 -193 92 91 910 91 92 94 91 91 92 90 -193 958 -193 -193 91 -193 -209 87 -193 89 90 88 90 89 87 89 -193 -209 -209 -193 123 123 124 126 126 130 134 131 134 133 134 134 134 134 134 133 135 -193 137 137 138 140 148 148 152 154 157 156 156 156 156 155 158 157 157 154 158 166 165 165 165 0 0 0 0 0
    0 0 0 0 0 0 0 0 0 0 0 0 0 0 0 0 0 0 0 0 0 0 0 0 0 0 0 0 0 0 0 0 0 0 0 0 0 0 0 0 0 0 0 0 0 0 0 0 0 0 0 0 0 0 0 0 0 0 0 0 0 0 0 0 0 0 0 0 0 59 57 56 -193 -193 53 48 44 46 48 47 46 46 46 45 47 47 46 45 44 44 44 43 42 41 41 40 38 38 37 36 36 34 36 35 33 34 34 35 34 32 35 33 31 31 31 33 29 29 29 27 25 26 26 24 21 22 20 20 20 20 19 17 15 16 12 14 14 13 13 13 12 13 12 15 12 11 10 10 9 9 9 9 9 9 0 0 0 9 9 9 10 9 10 11 11 11 11 11 11 10 11 11 10 10 9 12 11 12 12 13 20 20 19 21 20 22 21 22 24 23 24 28 27 29 32 35 37 36 40 40 40 44 48 48 42 46 46 54 48 48 48 48 48 49 51 51 49 56 56 60 -177 -193 -177 -209 -193 -193 -177 74 -193 76 -193 -177 -177 -177 -193 79 80 75 86 85 87 244 90 -193 91 91 911 91 92 94 91 92 92 91 -193 958 -193 92 91 91 -193 88 -193 89 89 88 89 88 86 88 82 81 -209 -193 123 123 124 126 126 130 134 132 134 133 134 133 134 133 133 133 135 136 137 137 138 140 148 148 151 154 156 156 156 156 156 155 157 158 156 155 157 166 165 165 166 0 0 0 0 0
    0 0 0 0 0 0 0 0 0 0 0 0 0 0 0 0 0 0 0 0 0 0 0 0 0 0 0 0 0 0 0 0 0 0 0 0 0 0 0 0 0 0 0 0 0 0 0 0 0 0 0 0 0 0 0 0 0 0 0 0 0 0 0 0 0 0 0 0 0 59 57 56 53 54 52 48 44 46 49 47 46 46 46 45 47 47 46 44 45 44 45 43 43 41 42 41 38 38 37 35 36 34 35 34 32 34 33 34 33 32 35 32 30 30 30 32 28 28 28 26 25 25 25 24 21 22 20 20 20 20 19 17 15 16 12 14 13 13 12 13 12 13 13 15 12 11 10 10 9 0 9 9 9 9 0 9 9 9 10 9 10 9 10 11 11 11 10 11 10 10 10 10 9 9 9 12 11 12 12 13 19 20 18 20 19 21 21 22 23 23 24 28 27 29 33 35 38 37 41 41 40 45 48 48 42 45 45 54 47 48 48 48 48 49 51 51 49 56 57 60 -177 61 -177 -193 -177 69 -177 74 -193 75 -193 -177 -177 -177 -177 79 -193 75 85 86 87 -193 89 -193 91 91 911 92 92 94 92 93 93 92 92 -193 -193 92 91 91 -193 87 -193 88 88 87 88 87 85 86 81 78 -193 -193 -193 123 124 126 127 130 134 132 134 133 134 133 134 133 133 132 134 135 137 136 138 140 148 148 151 154 155 156 156 156 156 155 157 158 156 156 156 166 165 165 166 0 0 0 0 0
    0 0 0 0 0 0 0 0 0 0 0 0 0 0 0 0 0 0 0 0 0 0 0 0 0 0 0 0 0 0 0 0 0 0 0 0 0 0 0 0 0 0 0 0 0 0 0 0 0 0 0 0 0 0 0 0 0 0 0 0 0 0 0 0 0 0 0 0 0 59 57 56 54 54 53 48 45 46 50 47 46 47 46 45 48 47 47 44 46 44 45 43 43 41 42 40 38 38 37 35 36 34 35 34 32 34 33 34 33 31 34 31 29 29 29 31 28 28 27 26 25 25 25 24 21 22 19 20 19 20 18 18 15 16 12 15 14 14 13 14 13 13 13 15 12 12 10 10 0 0 9 0 0 9 0 9 9 10 10 9 10 10 10 11 11 11 10 11 10 10 10 10 9 9 0 11 11 12 12 13 19 19 18 20 18 20 21 22 23 23 25 28 28 29 33 35 38 37 41 41 40 44 47 47 42 44 44 53 47 48 48 48 48 49 51 52 49 57 57 60 -177 61 -177 -177 -177 68 -177 74 78 74 -177 -177 -177 -177 -177 -193 -193 -193 85 -193 87 -193 89 -193 91 91 912 92 92 95 -193 94 93 93 93 -193 -193 92 92 91 91 87 88 87 87 87 87 86 85 86 82 80 -193 -209 -193 122 123 125 126 130 134 132 134 133 133 133 134 133 133 131 134 135 136 136 138 139 148 148 151 154 155 156 156 156 156 155 157 158 156 156 155 165 164 164 165 0 0 0 0 0
    0 0 0 0 0 0 0 0 0 0 0 0 0 0 0 0 0 0 0 0 0 0 0 0 0 0 0 0 0 0 0 0 0 0 0 0 0 0 0 0 0 0 0 0 0 0 0 0 0 0 0 0 0 0 0 0 0 0 0 0 0 0 0 0 0 0 0 0 0 59 57 56 54 55 53 49 45 46 50 47 46 47 46 45 47 47 48 44 47 44 46 43 43 41 42 40 38 38 37 35 36 34 35 34 31 34 33 33 33 31 33 31 29 28 28 30 27 27 26 25 25 25 24 24 21 22 19 20 20 20 18 18 16 17 13 16 15 15 13 15 13 13 14 14 12 12 10 10 0 0 9 0 9 9 0 9 10 10 10 10 11 10 11 11 11 11 10 11 10 10 10 9 9 9 0 11 11 11 12 12 18 19 19 20 18 20 21 22 23 23 25 28 28 30 34 35 38 37 41 41 40 44 46 47 41 43 43 53 47 48 48 49 48 48 50 52 49 57 57 60 -193 -193 -177 -177 -177 68 -193 73 77 73 -177 -177 -177 -177 -177 -193 -193 -193 84 -193 88 -193 89 -193 91 -193 912 92 91 93 -177 93 94 94 94 94 94 93 92 91 91 87 88 88 88 88 88 87 86 86 83 82 -193 -209 -193 122 123 125 126 130 134 132 134 133 133 132 134 133 133 131 134 135 136 136 138 139 148 149 151 154 155 156 156 156 156 155 157 158 156 156 155 164 164 163 164 0 0 0 0 0
    0 0 0 0 0 0 0 0 0 0 0 0 0 0 0 0 0 0 0 0 0 0 0 0 0 0 0 0 0 0 0 0 0 0 0 0 0 0 0 0 0 0 0 0 0 0 0 0 0 0 0 0 0 0 0 0 0 0 0 0 0 0 0 0 0 0 0 0 0 59 57 57 55 56 53 49 45 46 50 47 46 47 46 45 47 47 48 43 47 44 46 43 43 -193 -193 -193 38 38 37 35 36 34 35 33 31 34 32 33 32 31 32 30 28 28 28 29 27 27 26 25 24 25 24 23 21 22 19 20 20 20 17 18 17 17 13 16 15 15 13 15 13 14 14 14 13 12 10 11 9 0 10 9 9 9 0 9 10 10 10 10 11 11 11 12 11 11 11 11 10 10 9 9 0 0 0 10 10 11 11 11 18 19 19 21 18 20 21 22 24 23 26 28 28 30 34 36 38 37 41 41 40 44 46 46 41 43 43 53 47 48 48 49 49 49 50 52 49 57 57 60 -177 -193 -177 -177 -177 68 -193 73 76 -193 -177 -177 -193 -177 -177 -177 -193 -193 84 -177 89 91 89 91 -193 -193 912 -193 90 92 -177 92 94 94 95 95 94 93 93 92 92 88 88 88 88 88 88 86 86 86 83 -193 -193 -209 -209 121 122 124 126 129 134 132 133 133 133 132 134 133 133 131 134 135 136 136 138 139 148 150 151 154 155 156 156 156 156 155 157 159 156 157 155 164 164 163 164 0 0 0 0 0
    0 0 0 0 0 0 0 0 0 0 0 0 0 0 0 0 0 0 0 0 0 0 0 0 0 0 0 0 0 0 0 0 0 0 0 0 0 0 0 0 0 0 0 0 0 0 0 0 0 0 0 0 0 0 0 0 0 0 0 0 0 0 0 0 0 0 0 0 0 59 57 57 54 56 53 49 45 45 51 47 47 47 46 45 47 47 48 43 46 44 45 43 43 -193 -193 -193 39 38 37 36 36 34 35 33 31 34 31 33 31 30 31 29 27 27 27 28 27 27 25 25 24 25 23 22 20 21 18 20 19 20 17 18 17 17 14 16 15 15 12 15 13 13 13 13 13 12 11 11 9 9 11 9 9 10 9 10 10 11 11 10 11 12 12 12 12 11 11 11 11 10 9 9 0 0 0 10 10 10 11 11 19 19 20 21 19 20 22 23 24 24 26 28 29 31 35 36 39 38 41 41 40 43 45 46 41 43 43 53 47 48 49 50 49 49 50 53 49 57 57 60 -177 -193 -177 -177 -177 68 -193 73 75 72 -177 -177 -193 -177 -177 -177 -193 -193 83 -177 89 91 89 90 -193 -193 912 -193 -193 -193 -177 92 93 94 95 95 94 93 93 91 92 88 87 87 87 87 87 85 85 84 82 -193 -193 -193 -209 120 122 124 126 129 134 132 133 133 133 132 134 133 133 131 134 135 136 136 138 139 148 150 151 154 155 157 156 156 156 156 157 159 157 158 155 164 165 164 165 0 0 0 0 0
    0 0 0 0 0 0 0 0 0 0 0 0 0 0 0 0 0 0 0 0 0 0 0 0 0 0 0 0 0 0 0 0 0 0 0 0 0 0 0 0 0 0 0 0 0 0 0 0 0 0 0 0 0 0 0 0 0 0 0 0 0 0 0 0 0 0 0 0 0 60 58 57 54 56 53 49 45 45 51 47 47 47 46 45 47 47 48 43 46 43 45 43 43 41 -193 40 39 38 37 36 36 34 35 33 31 33 31 32 30 30 30 28 27 26 26 28 27 27 24 24 23 24 23 21 20 21 17 20 19 20 17 19 18 18 14 16 15 16 12 14 12 13 12 12 12 11 10 11 9 10 12 11 10 11 10 11 11 12 11 10 12 13 12 13 13 12 11 11 11 10 9 9 9 0 0 10 10 10 11 12 20 19 21 22 19 21 23 23 25 -193 27 -177 29 31 35 36 39 38 40 40 39 43 44 45 41 42 43 53 47 48 49 51 49 -177 49 53 49 57 57 59 -193 -193 -177 -177 -177 68 69 73 75 72 -193 -177 -193 -177 386 385 -193 -193 83 587 90 91 88 90 -193 -193 912 916 -193 -209 -177 91 93 94 95 95 94 93 93 91 93 87 87 86 86 87 86 84 84 83 -193 -193 -193 -193 -209 -193 121 123 126 128 133 132 133 133 134 133 134 133 133 131 134 135 136 136 138 139 148 151 151 154 155 157 156 156 156 156 157 160 157 158 155 165 165 165 165 0 0 0 0 0
    0 0 0 0 0 0 0 0 0 0 0 0 0 0 0 0 0 0 0 0 0 0 0 0 0 0 0 0 0 0 0 0 0 0 0 0 0 0 0 0 0 0 0 0 0 0 0 0 0 0 0 0 0 0 0 0 0 0 0 0 0 0 0 0 0 0 0 0 0 60 58 57 54 55 54 49 45 45 51 47 47 47 46 45 48 47 49 43 45 44 45 43 43 41 42 40 39 38 37 36 36 35 35 33 32 33 31 32 30 30 29 28 27 26 26 27 26 26 24 23 23 24 22 20 19 20 16 20 18 20 16 19 18 18 14 15 14 16 12 13 12 12 11 11 12 11 9 11 9 10 12 11 10 11 10 11 11 12 11 11 12 13 13 13 13 12 12 12 12 11 10 9 9 0 8 10 10 10 10 11 20 19 22 23 20 21 23 24 25 26 -177 -177 29 31 35 36 38 37 39 40 38 41 43 44 40 42 42 52 47 47 49 51 50 -177 49 53 50 56 57 59 -193 -177 -177 -177 -177 68 69 73 74 -193 -193 -177 -193 -177 386 386 -193 -193 83 585 90 91 89 90 -193 911 913 917 -193 -193 -177 90 93 93 94 95 -193 93 93 92 93 87 86 85 84 86 85 83 84 81 81 -193 -193 -209 -209 -193 -193 123 126 127 133 132 132 133 134 133 134 133 133 132 134 135 -193 136 138 139 147 152 151 154 155 157 157 157 157 157 157 160 158 159 155 167 167 166 166 0 0 0 0 0
    0 0 0 0 0 0 0 0 0 0 0 0 0 0 0 0 0 0 0 0 0 0 0 0 0 0 0 0 0 0 0 0 0 0 0 0 0 0 0 0 0 0 0 0 0 0 0 0 0 0 0 0 0 0 0 0 0 0 0 0 0 0 0 0 0 0 0 0 0 60 58 57 55 56 54 50 46 45 51 48 47 48 47 46 48 47 49 42 45 44 44 43 43 41 42 40 39 38 38 37 37 36 36 33 32 32 31 31 29 30 28 28 26 26 26 -193 26 26 23 23 22 23 21 19 19 20 15 20 18 19 15 19 17 18 14 15 13 16 12 13 11 12 11 11 12 11 9 10 9 10 12 10 10 10 10 11 11 12 11 11 13 13 14 13 14 13 13 12 12 11 10 9 9 0 0 9 10 9 10 11 20 19 23 23 21 22 25 25 26 27 -177 -177 30 31 35 36 38 37 37 39 38 40 41 43 38 41 42 51 47 47 48 50 50 -177 49 52 50 -193 56 58 -193 -177 -177 -177 -177 69 70 73 75 -193 -193 -193 -193 -177 385 386 -193 -193 83 -193 90 91 89 90 -193 911 913 917 87 87 -177 90 92 -193 94 95 -193 93 93 92 94 86 86 84 83 85 84 82 83 80 81 -193 -193 -193 -209 -209 -193 122 125 126 133 132 132 133 134 133 134 133 134 132 134 135 136 136 138 140 147 153 151 154 155 157 157 157 157 157 156 160 159 159 156 167 167 166 166 0 0 0 0 0
    0 0 0 0 0 0 0 0 0 0 0 0 0 0 0 0 0 0 0 0 0 0 0 0 0 0 0 0 0 0 0 0 0 0 0 0 0 0 0 0 0 0 0 0 0 0 0 0 0 0 0 0 0 0 0 0 0 0 0 0 0 0 0 0 0 0 0 0 0 60 59 57 56 57 55 51 47 46 52 48 47 48 47 46 49 47 49 42 44 43 44 42 42 40 41 39 39 39 38 37 37 36 36 34 33 32 31 31 29 29 28 28 26 26 26 -193 26 26 23 22 22 23 21 19 18 19 15 19 17 19 15 20 17 18 14 14 13 15 11 12 11 11 10 11 11 10 0 10 9 10 11 10 10 10 11 11 11 12 11 12 13 14 14 14 14 14 13 12 12 11 10 9 9 0 0 9 9 9 9 10 18 19 -193 24 22 23 26 26 27 28 28 -177 30 31 35 35 37 36 36 38 37 38 40 41 38 41 42 50 48 46 48 50 50 -177 49 52 50 -193 56 58 -193 -193 -177 -177 -193 69 70 73 74 74 75 -193 -193 -177 385 386 80 -193 82 -193 90 90 89 -193 89 -177 913 917 86 87 -177 -193 -193 -193 94 96 -193 -193 -193 92 96 86 86 84 83 85 85 82 83 81 83 -193 -193 79 -209 -193 118 121 124 125 133 132 132 134 134 134 134 134 134 132 134 135 -193 137 138 140 147 153 151 154 155 157 156 157 157 157 156 160 160 159 156 166 167 166 166 0 0 0 0 0
    0 0 0 0 0 0 0 0 0 0 0 0 0 0 0 0 0 0 0 0 0 0 0 0 0 0 0 0 0 0 0 0 0 0 0 0 0 0 0 0 0 0 0 0 0 0 0 0 0 0 0 0 0 0 0 0 0 0 0 0 0 0 0 0 0 0 0 0 0 61 59 58 57 58 56 52 48 46 52 48 48 48 48 46 49 48 49 42 44 43 43 41 42 40 41 39 40 39 38 38 38 37 37 35 34 32 32 31 29 30 28 28 27 26 26 -193 26 27 23 22 22 23 21 19 18 19 14 20 17 18 14 20 18 18 14 15 13 16 12 12 11 11 10 10 11 10 0 10 9 10 11 10 10 10 11 11 10 12 11 12 13 13 14 14 14 15 14 13 12 11 10 9 9 9 0 0 9 9 9 10 18 18 24 25 23 24 27 26 27 28 29 -177 30 31 35 35 37 36 35 38 37 38 40 41 38 42 43 49 49 47 48 50 50 47 49 52 50 -193 56 58 -193 -193 -177 -177 -193 69 70 73 74 74 75 -193 -193 -177 384 -193 80 -193 82 -193 90 90 -193 -193 -193 -177 914 918 86 87 -177 89 92 -193 95 97 -193 -193 -193 93 98 90 88 86 85 87 88 84 85 82 84 -209 -193 -193 -209 -193 118 120 123 126 133 132 132 134 134 134 134 134 134 132 135 135 -193 137 139 141 147 154 151 153 154 156 156 156 156 156 155 159 161 159 157 167 167 166 166 0 0 0 0 0
    0 0 0 0 0 0 0 0 0 0 0 0 0 0 0 0 0 0 0 0 0 0 0 0 0 0 0 0 0 0 0 0 0 0 0 0 0 0 0 0 0 0 0 0 0 0 0 0 0 0 0 0 0 0 0 0 0 0 0 0 0 0 0 0 0 0 0 0 0 61 59 58 56 58 56 52 49 46 52 48 48 48 48 46 49 48 49 42 43 43 43 41 41 40 41 39 40 39 39 39 38 38 38 36 36 33 34 32 30 31 29 29 27 26 26 29 27 27 23 23 22 23 21 19 17 19 14 20 17 18 14 20 18 18 14 15 13 16 12 12 12 11 11 11 11 10 9 10 10 10 10 9 9 10 10 10 10 12 11 12 13 13 14 14 14 15 14 13 12 12 11 10 9 9 0 0 9 0 0 9 16 17 23 24 23 24 28 27 28 29 29 -177 31 31 35 36 37 37 35 38 37 37 40 41 39 43 44 49 51 47 49 50 50 47 49 52 51 -193 56 58 -193 -193 -193 -193 -193 -193 70 -193 73 74 75 -193 -193 -177 384 -193 81 -193 82 -193 89 89 -193 90 -193 -177 915 918 -193 -193 -193 89 93 -193 95 98 -193 96 97 94 100 92 89 87 87 88 89 85 86 83 84 -193 -209 -193 -209 -193 118 120 124 126 133 -193 132 134 134 134 134 134 134 133 135 135 -209 138 140 142 147 155 151 153 153 155 155 156 156 156 154 159 162 160 158 168 168 167 167 0 0 0 0 0
    0 0 0 0 0 0 0 0 0 0 0 0 0 0 0 0 0 0 0 0 0 0 0 0 0 0 0 0 0 0 0 0 0 0 0 0 0 0 0 0 0 0 0 0 0 0 0 0 0 0 0 0 0 0 0 0 0 0 0 0 0 0 0 0 0 0 0 0 0 61 59 58 57 59 56 52 50 47 52 48 48 48 48 46 49 48 49 42 43 44 42 41 41 40 41 39 41 40 39 39 39 39 39 37 37 34 35 33 31 31 29 29 27 26 26 29 27 27 24 23 23 24 21 19 17 19 15 20 18 19 15 20 19 19 15 15 14 16 13 13 12 12 11 11 11 10 10 11 10 10 10 9 9 10 11 10 10 12 11 12 13 13 14 14 14 15 14 13 12 12 11 10 9 9 0 0 0 0 0 0 13 15 22 24 24 25 28 28 28 30 30 30 32 31 35 36 37 38 37 39 39 39 41 42 41 45 45 48 52 48 50 51 51 -177 49 52 51 53 56 58 61 60 62 65 -193 69 69 -193 -193 74 74 -193 -177 -177 383 -193 82 -193 81 -193 89 89 -193 90 90 -177 915 -193 -193 89 -209 89 93 311 95 98 98 -193 97 94 100 93 89 86 86 87 87 84 85 82 83 -193 78 -193 -209 -193 120 120 125 128 134 -193 133 135 135 134 134 134 134 133 134 135 -209 139 140 144 148 156 150 152 153 154 155 155 155 155 154 158 162 160 158 168 167 167 166 0 0 0 0 0
    0 0 0 0 0 0 0 0 0 0 0 0 0 0 0 0 0 0 0 0 0 0 0 0 0 0 0 0 0 0 0 0 0 0 0 0 0 0 0 0 0 0 0 0 0 0 0 0 0 0 0 0 0 0 0 0 0 0 0 0 0 0 0 0 0 0 0 0 0 61 59 58 57 58 56 53 50 47 52 49 48 48 48 46 48 47 49 42 43 44 43 42 42 40 42 40 42 40 40 40 40 39 39 38 38 35 36 35 32 32 30 29 27 26 26 30 27 28 24 24 23 24 22 20 18 20 16 20 18 19 16 21 20 20 16 17 14 17 14 13 13 12 12 12 12 10 10 11 10 10 10 9 9 10 11 10 10 12 11 12 13 13 13 13 14 14 13 13 12 12 11 10 9 9 0 0 0 0 0 0 12 14 21 24 25 25 29 28 28 30 30 30 32 31 35 35 36 37 36 38 39 38 41 42 42 45 46 47 52 47 50 50 51 -177 49 52 51 52 56 58 61 61 63 65 65 69 69 -193 -193 -193 74 -193 -193 -177 384 76 81 82 80 89 88 88 -193 89 -193 -193 -177 -193 87 89 -193 -193 92 310 95 98 97 97 96 -193 100 93 89 86 86 86 86 84 85 83 83 81 78 78 -177 -193 121 121 126 130 134 -193 133 135 135 134 134 134 134 133 134 135 -209 139 142 146 149 156 151 152 152 154 154 154 154 154 153 157 162 159 158 167 165 166 165 0 0 0 0 0
    0 0 0 0 0 0 0 0 0 0 0 0 0 0 0 0 0 0 0 0 0 0 0 0 0 0 0 0 0 0 0 0 0 0 0 0 0 0 0 0 0 0 0 0 0 0 0 0 0 0 0 0 0 0 0 0 0 0 0 0 0 0 0 0 0 0 0 0 0 61 60 58 57 58 -209 53 50 46 52 48 48 48 48 46 48 48 50 43 44 45 43 42 42 40 43 40 43 41 40 40 40 40 40 38 39 35 37 35 34 34 32 30 28 27 27 32 28 28 25 24 24 24 22 21 19 20 17 21 19 19 18 21 20 20 17 17 15 18 15 14 13 13 13 12 13 12 12 12 11 11 10 9 9 9 10 10 9 11 10 12 12 12 13 12 13 14 13 13 12 12 11 10 9 9 0 0 0 0 0 0 11 12 19 23 25 25 29 28 28 30 29 29 32 30 34 35 35 35 35 37 39 38 41 41 42 45 46 46 52 46 49 49 50 47 48 51 51 51 56 57 61 61 63 65 65 70 68 71 71 73 73 74 -193 -193 382 75 81 82 79 89 88 88 -193 -193 -193 -209 -193 -209 -193 89 -193 -193 91 309 94 97 97 97 96 95 101 95 90 87 88 87 87 85 85 84 84 -193 -193 77 -193 -177 -193 122 127 130 134 135 133 135 135 134 133 134 134 133 133 135 -209 -193 144 147 150 158 151 152 152 154 154 154 154 154 153 156 162 158 158 167 165 165 165 0 0 0 0 0
    0 0 0 0 0 0 0 0 0 0 0 0 0 0 0 0 0 0 0 0 0 0 0 0 0 0 0 0 0 0 0 0 0 0 0 0 0 0 0 0 0 0 0 0 0 0 0 0 0 0 0 0 0 0 0 0 0 0 0 0 0 0 0 0 0 0 0 0 0 61 60 58 57 59 -193 53 50 46 52 48 48 48 48 46 49 48 50 44 44 46 44 42 42 41 43 40 43 41 40 41 40 40 40 38 39 35 37 36 35 36 34 32 29 27 27 33 28 28 25 25 24 25 23 22 19 21 18 21 19 20 18 21 21 21 17 17 15 18 15 14 14 14 15 14 15 14 14 14 13 12 10 0 9 9 10 9 0 10 10 12 12 11 12 12 12 14 13 13 12 12 12 11 10 9 0 0 0 0 0 0 10 10 14 23 25 25 29 29 29 30 30 29 32 30 34 35 35 35 35 37 39 37 40 40 41 44 45 45 51 45 48 50 50 48 50 52 52 53 56 57 60 61 63 65 65 70 68 70 71 73 73 73 73 73 -177 75 80 82 78 88 88 88 -193 90 91 -209 -193 -193 -193 89 -193 -193 91 -193 94 98 98 98 97 96 102 99 92 98 90 -193 88 87 85 84 84 -193 -193 76 -193 -177 -193 123 129 131 134 135 133 134 134 134 133 133 134 132 132 136 -209 -193 149 150 152 159 152 153 153 154 154 154 154 154 153 155 162 158 159 167 166 166 165 0 0 0 0 0
    0 0 0 0 0 0 0 0 0 0 0 0 0 0 0 0 0 0 0 0 0 0 0 0 0 0 0 0 0 0 0 0 0 0 0 0 0 0 0 0 0 0 0 0 0 0 0 0 0 0 0 0 0 0 0 0 0 0 0 0 0 0 0 0 0 0 0 0 0 62 60 58 57 59 -193 53 50 45 51 47 47 48 48 46 49 49 50 44 45 46 44 43 43 41 43 41 43 41 40 41 40 40 40 39 39 35 38 37 36 37 36 33 29 28 28 34 28 28 26 25 25 25 23 23 19 21 19 21 20 20 18 21 21 21 17 18 16 18 17 17 18 18 18 17 19 18 19 18 15 12 10 0 9 9 10 9 0 10 10 11 11 11 12 12 12 13 12 13 12 11 12 11 10 9 0 0 0 0 0 0 9 10 11 23 24 25 28 28 28 30 29 29 32 31 34 35 35 35 36 37 39 37 41 41 41 44 44 44 49 45 48 50 51 50 52 53 53 54 57 58 60 61 62 64 63 69 67 69 70 72 72 73 72 73 -193 75 80 82 77 87 88 88 -193 90 90 89 -193 89 89 90 91 89 91 92 94 99 98 99 99 99 104 104 102 108 99 -193 -209 -209 -209 -209 -193 32 32 -193 -193 -177 -193 -193 -177 132 134 135 133 134 133 133 132 133 133 132 131 -193 -209 -209 154 152 155 159 156 154 153 154 154 154 154 154 154 155 162 158 160 167 166 166 165 0 0 0 0 0
    0 0 0 0 0 0 0 0 0 0 0 0 0 0 0 0 0 0 0 0 0 0 0 0 0 0 0 0 0 0 0 0 0 0 0 0 0 0 0 0 0 0 0 0 0 0 0 0 0 0 0 0 0 0 0 0 0 0 0 0 0 0 0 0 0 0 0 0 0 62 60 58 57 59 -193 52 49 44 51 47 47 47 48 46 49 49 50 44 45 46 45 43 43 41 43 41 43 41 40 41 40 40 40 39 39 36 38 38 36 38 38 35 30 29 29 34 28 28 26 25 25 25 23 23 20 21 20 21 20 20 20 22 22 22 19 20 18 20 19 20 22 22 22 21 22 22 22 21 18 14 11 9 10 10 10 9 0 10 10 11 11 10 11 11 12 13 12 13 12 11 12 11 9 9 0 0 0 0 0 0 9 10 11 23 23 24 27 27 28 28 29 29 32 31 35 36 35 36 37 37 40 38 41 41 41 44 45 45 50 45 49 50 51 51 52 53 53 54 56 57 59 60 60 63 63 69 66 68 70 72 72 72 72 72 71 74 79 81 76 86 88 88 90 89 90 89 -193 89 89 90 91 89 91 93 94 99 98 100 101 101 105 105 105 109 105 107 110 -193 -193 -193 -193 31 32 31 -193 -193 -193 -209 -193 -193 133 135 132 133 132 133 132 133 133 132 -209 -193 -209 -209 155 152 155 158 159 154 154 154 154 154 154 154 154 154 163 161 163 167 167 167 166 0 0 0 0 0
    0 0 0 0 0 0 0 0 0 0 0 0 0 0 0 0 0 0 0 0 0 0 0 0 0 0 0 0 0 0 0 0 0 0 0 0 0 0 0 0 0 0 0 0 0 0 0 0 0 0 0 0 0 0 0 0 0 0 0 0 0 0 0 0 0 0 0 0 0 62 60 58 57 58 -193 52 48 44 50 46 47 47 48 46 49 49 50 45 45 46 45 44 43 42 44 41 43 41 41 41 40 40 40 39 39 36 38 38 37 38 39 37 32 30 31 35 29 28 27 25 25 25 24 24 20 22 20 21 21 21 21 23 22 23 21 22 21 22 21 23 24 25 24 24 24 25 25 24 21 18 14 10 10 11 10 0 0 9 9 10 10 10 10 11 11 12 12 13 12 12 12 12 10 10 0 0 0 0 0 0 0 11 12 21 21 22 24 25 26 27 28 29 32 31 35 37 36 37 38 39 41 40 42 42 41 45 46 46 50 46 51 50 51 52 52 53 53 53 55 55 58 60 59 62 61 68 65 68 70 72 71 72 71 72 70 74 77 79 74 85 87 87 89 88 89 88 88 89 89 89 90 89 91 93 94 99 98 100 101 102 105 106 106 109 106 108 111 -193 -193 -193 -193 31 32 31 -177 -177 -193 -193 -193 -193 131 134 131 132 132 133 132 133 134 133 -209 -193 -209 -209 -193 151 153 155 159 154 154 154 155 155 155 155 156 154 163 162 162 166 166 166 165 0 0 0 0 0
    0 0 0 0 0 0 0 0 0 0 0 0 0 0 0 0 0 0 0 0 0 0 0 0 0 0 0 0 0 0 0 0 0 0 0 0 0 0 0 0 0 0 0 0 0 0 0 0 0 0 0 0 0 0 0 0 0 0 0 0 0 0 0 0 0 0 0 0 0 62 60 58 58 58 56 53 48 44 50 46 47 47 47 46 48 49 50 44 45 46 45 44 43 42 44 41 43 41 40 41 40 40 40 39 39 36 39 38 37 38 38 36 33 32 33 36 29 29 27 26 25 25 24 24 20 22 21 21 21 22 23 23 23 23 22 23 22 23 21 23 24 25 25 25 25 25 26 25 23 21 17 11 12 12 11 9 0 0 10 10 11 10 10 10 11 12 12 13 13 11 12 12 11 10 9 0 0 0 0 9 0 13 13 21 21 21 23 24 25 26 27 28 31 31 35 37 36 38 39 39 41 41 42 42 41 45 47 48 51 46 52 51 52 52 53 52 52 53 54 53 56 58 58 60 60 67 64 66 69 71 70 71 70 71 69 73 74 76 73 83 87 87 88 88 89 88 88 89 89 89 89 89 91 92 94 99 98 101 102 103 106 106 107 109 108 109 -193 -193 -193 -193 31 31 32 32 -177 -177 -193 -193 -193 -193 130 133 130 132 132 133 133 134 136 -209 -209 145 -209 149 150 149 151 152 159 155 155 155 156 157 157 157 157 154 162 162 159 164 165 165 165 0 0 0 0 0
    0 0 0 0 0 0 0 0 0 0 0 0 0 0 0 0 0 0 0 0 0 0 0 0 0 0 0 0 0 0 0 0 0 0 0 0 0 0 0 0 0 0 0 0 0 0 0 0 0 0 0 0 0 0 0 0 0 0 0 0 0 0 0 0 0 0 0 0 0 62 60 58 58 58 56 53 47 43 49 46 47 47 47 45 48 49 50 44 44 45 44 44 43 42 44 41 43 40 40 40 40 40 40 39 39 36 39 38 37 38 39 37 34 33 34 36 30 28 28 26 25 25 24 24 20 22 21 21 21 23 23 24 24 24 23 24 23 24 22 23 24 26 27 26 26 26 26 26 24 22 19 14 14 13 13 10 9 9 11 10 11 10 11 10 11 12 12 12 12 11 12 11 10 9 0 8 0 0 9 10 10 17 16 21 21 21 22 23 24 25 26 27 30 30 35 37 36 37 40 39 41 41 42 42 41 43 45 45 46 45 52 51 51 52 52 52 51 53 53 50 55 57 56 58 58 66 63 65 68 71 69 70 70 70 69 72 73 75 73 82 87 87 89 88 89 88 88 89 88 88 88 88 90 91 93 99 98 101 103 104 107 -193 108 110 109 111 -193 -193 -193 -193 -193 31 32 32 -177 -177 -193 -193 -193 126 128 132 128 131 131 132 -193 134 136 -209 -209 144 -193 148 148 147 150 152 159 155 155 156 157 158 158 158 159 154 161 161 158 161 165 164 165 0 0 0 0 0
    0 0 0 0 0 0 0 0 0 0 0 0 0 0 0 0 0 0 0 0 0 0 0 0 0 0 0 0 0 0 0 0 0 0 0 0 0 0 0 0 0 0 0 0 0 0 0 0 0 0 0 0 0 0 0 0 0 0 0 0 0 0 0 0 0 0 0 0 0 62 59 57 57 57 55 52 46 43 48 46 46 47 47 45 47 49 50 44 44 45 44 44 43 42 44 41 42 40 40 40 40 40 39 39 39 37 40 39 38 38 39 38 36 35 36 36 30 28 28 26 25 24 24 24 20 22 22 22 22 24 25 25 25 26 25 25 25 25 23 25 25 27 28 29 27 27 27 27 25 24 22 17 16 15 14 10 9 9 11 10 11 10 11 10 11 12 12 11 12 11 11 11 10 9 9 9 0 10 14 14 15 20 20 22 21 21 22 23 24 25 26 27 29 30 35 36 35 37 39 39 40 39 41 41 38 42 44 44 44 44 52 50 51 52 53 52 51 53 53 49 55 57 55 57 58 65 63 64 67 70 68 69 70 70 69 72 72 74 73 82 88 88 89 88 89 88 88 89 88 87 86 87 89 90 91 98 96 100 103 105 107 -193 -193 111 110 112 -193 -193 35 -193 -193 31 32 31 31 -177 -193 -193 -193 -177 127 131 127 129 130 132 -193 -193 137 -193 -209 144 -193 146 146 144 148 151 159 155 156 156 158 160 160 160 160 154 160 161 158 160 164 164 165 0 0 0 0 0
    0 0 0 0 0 0 0 0 0 0 0 0 0 0 0 0 0 0 0 0 0 0 0 0 0 0 0 0 0 0 0 0 0 0 0 0 0 0 0 0 0 0 0 0 0 0 0 0 0 0 0 0 0 0 0 0 0 0 0 0 0 0 0 0 0 0 0 0 0 62 59 57 57 56 55 53 46 43 48 46 46 46 47 45 47 49 50 45 44 45 44 43 43 42 43 41 41 39 39 40 40 39 39 39 39 38 40 39 39 39 40 39 37 37 37 37 32 28 28 25 24 24 24 24 20 22 22 22 22 25 26 26 26 27 26 26 26 26 23 26 25 27 28 31 28 29 28 28 26 25 24 23 20 18 15 11 10 10 12 11 12 11 11 11 12 12 12 11 13 11 12 10 11 10 10 10 9 11 18 17 18 21 21 23 20 21 23 24 25 25 26 27 29 31 35 37 36 37 39 39 40 40 40 40 37 41 43 43 43 44 51 51 51 53 53 53 52 54 53 48 54 55 54 55 56 64 62 64 69 71 69 70 71 70 70 71 72 73 74 80 88 88 89 89 90 89 89 89 90 88 87 88 89 90 91 -193 96 -193 -209 105 -193 38 -193 112 111 113 -193 -193 -193 -193 -193 31 32 32 -177 -177 -193 -209 -193 125 127 130 127 129 129 -193 -193 -209 137 138 -193 145 -193 145 146 143 146 150 157 155 155 156 159 160 160 160 160 154 160 160 158 159 164 163 164 0 0 0 0 0
    0 0 0 0 0 0 0 0 0 0 0 0 0 0 0 0 0 0 0 0 0 0 0 0 0 0 0 0 0 0 0 0 0 0 0 0 0 0 0 0 0 0 0 0 0 0 0 0 0 0 0 0 0 0 0 0 0 0 0 0 0 0 0 0 0 0 0 0 0 62 59 57 57 56 55 53 46 44 48 46 46 46 46 45 46 49 49 44 44 45 44 43 42 42 43 40 41 39 39 40 40 40 40 39 40 39 41 39 39 39 40 39 37 38 37 37 34 28 28 26 24 24 23 23 20 22 22 22 22 26 26 27 27 27 27 26 26 26 23 26 25 27 27 31 28 29 28 28 27 26 25 25 22 20 17 13 12 11 14 12 14 12 12 11 12 13 12 12 13 11 12 11 12 11 11 12 10 14 21 19 20 23 21 23 21 22 23 24 25 26 26 27 29 31 36 37 37 39 41 41 41 41 41 41 39 42 44 43 43 45 51 51 51 53 53 53 52 54 54 50 54 55 54 56 56 62 61 64 70 71 71 72 72 71 71 71 72 73 74 80 -193 88 89 90 90 90 90 90 90 89 88 90 89 -193 91 -193 98 102 105 106 108 -193 110 111 111 113 116 118 -193 -193 -193 -193 33 34 33 -193 -193 -209 -193 126 127 129 126 128 128 -193 -193 -193 138 139 -193 146 148 145 146 143 146 149 155 154 154 156 159 160 160 160 160 155 160 161 158 158 164 163 164 0 0 0 0 0
    0 0 0 0 0 0 0 0 0 0 0 0 0 0 0 0 0 0 0 0 0 0 0 0 0 0 0 0 0 0 0 0 0 0 0 0 0 0 0 0 0 0 0 0 0 0 0 0 0 0 0 0 0 0 0 0 0 0 0 0 0 0 0 0 0 0 0 0 0 62 59 57 56 56 55 53 46 44 48 46 46 46 46 45 45 49 49 44 43 44 43 42 42 42 43 40 40 39 39 40 40 40 40 39 40 39 41 39 39 39 40 39 37 38 37 37 35 29 29 27 25 24 24 23 20 21 22 22 22 26 26 27 27 27 27 26 26 26 23 25 25 26 27 31 28 29 28 28 27 26 25 25 23 22 19 15 13 13 17 14 16 13 12 11 13 13 13 11 14 11 12 11 12 12 12 12 10 15 21 20 20 22 21 22 21 22 24 25 26 26 27 27 29 31 35 37 38 40 42 42 42 43 42 43 41 43 44 43 44 46 51 50 51 52 52 52 51 53 53 46 53 52 52 56 57 62 61 63 70 71 71 72 73 72 71 72 72 73 -193 79 -193 -193 89 89 89 89 89 89 89 85 84 86 -193 52 -193 -177 94 102 105 106 108 107 110 110 110 111 113 117 117 117 116 -193 -193 -209 -209 -209 -209 -193 -193 126 127 128 126 128 129 132 -193 -193 139 141 143 146 148 144 145 143 145 148 153 153 153 155 158 159 160 160 160 155 160 161 158 157 164 163 164 0 0 0 0 0
    0 0 0 0 0 0 0 0 0 0 0 0 0 0 0 0 0 0 0 0 0 0 0 0 0 0 0 0 0 0 0 0 0 0 0 0 0 0 0 0 0 0 0 0 0 0 0 0 0 0 0 0 0 0 0 0 0 0 0 0 0 0 0 0 0 0 0 0 0 61 58 56 56 56 55 53 47 44 48 46 47 47 46 45 45 48 48 44 43 44 43 42 42 42 43 41 40 39 39 39 39 39 39 39 39 39 40 39 39 38 39 39 38 39 37 37 36 30 30 27 26 25 24 24 -193 21 22 22 22 26 26 27 27 26 27 26 26 26 23 25 24 25 26 30 28 29 28 28 27 27 26 26 24 24 22 20 17 17 21 18 19 14 13 12 13 13 13 11 13 12 13 12 13 13 14 15 11 19 22 20 20 22 21 22 21 23 24 25 26 26 27 27 29 31 34 37 39 41 43 42 43 43 43 43 42 43 44 43 45 47 51 51 51 52 51 51 49 52 51 44 49 50 51 57 58 61 61 63 70 71 71 72 74 72 72 72 73 73 75 79 -193 84 88 89 89 89 89 88 89 82 80 77 -193 56 -193 52 -193 99 103 105 106 106 108 108 108 110 111 116 116 116 116 -193 -209 -209 -193 -193 -209 -193 126 127 127 128 127 128 130 132 134 136 139 141 143 144 146 143 144 142 143 147 151 152 153 154 158 158 159 159 159 155 160 161 157 156 162 162 164 0 0 0 0 0
    0 0 0 0 0 0 0 0 0 0 0 0 0 0 0 0 0 0 0 0 0 0 0 0 0 0 0 0 0 0 0 0 0 0 0 0 0 0 0 0 0 0 0 0 0 0 0 0 0 0 0 0 0 0 0 0 0 0 0 0 0 0 0 0 0 0 0 0 0 61 58 56 55 55 55 54 48 45 49 46 47 47 46 45 45 48 48 43 42 44 43 42 42 42 43 41 40 39 39 39 40 39 39 39 39 39 40 39 39 38 40 40 39 40 38 38 37 31 31 28 26 25 24 24 -193 22 22 21 22 25 25 26 26 26 26 26 26 26 24 25 23 22 24 29 28 29 28 28 27 27 26 27 25 24 23 22 20 19 22 19 19 14 12 11 13 13 13 11 12 11 13 12 14 13 18 21 13 22 23 19 18 22 21 22 21 23 24 26 26 27 27 28 28 30 33 36 39 41 44 42 43 43 43 43 42 42 43 42 44 47 51 51 51 52 52 52 50 52 51 45 47 49 52 56 57 60 59 61 69 71 71 72 75 73 73 73 73 74 76 78 82 80 87 88 88 88 88 86 88 82 79 76 75 64 -193 -209 87 91 92 96 99 102 105 107 107 108 109 115 116 118 117 117 -209 -209 -193 124 124 126 127 129 128 128 128 129 132 133 135 137 139 141 142 143 144 142 143 142 143 146 151 151 153 155 157 157 158 159 159 155 158 159 156 155 157 159 162 0 0 0 0 0
    0 0 0 0 0 0 0 0 0 0 0 0 0 0 0 0 0 0 0 0 0 0 0 0 0 0 0 0 0 0 0 0 0 0 0 0 0 0 0 0 0 0 0 0 0 0 0 0 0 0 0 0 0 0 0 0 0 0 0 0 0 0 0 0 0 0 0 0 0 60 58 56 55 55 55 54 48 45 49 46 47 47 46 45 45 48 48 43 43 44 42 42 42 42 43 41 40 39 39 39 40 39 39 39 39 39 40 39 39 39 40 41 39 40 39 38 37 31 31 28 26 26 25 24 21 22 22 21 21 24 24 25 26 26 26 26 26 26 25 25 23 15 22 25 26 28 27 27 26 26 27 27 25 26 24 25 23 23 24 21 20 14 13 11 13 13 13 11 12 11 13 11 13 12 12 -193 -209 -193 22 19 18 21 21 22 22 23 25 26 27 27 28 28 28 30 32 35 39 41 43 41 42 42 42 43 42 42 43 42 44 46 50 51 51 52 52 52 51 54 53 48 48 51 56 58 59 60 59 60 69 71 71 72 75 73 73 73 74 74 76 78 82 -193 88 89 89 89 89 88 89 86 82 80 79 -193 71 76 86 89 88 89 89 94 98 105 105 106 108 -193 118 120 119 119 -193 124 127 126 126 128 128 130 129 128 128 129 133 133 135 138 139 141 142 143 144 142 143 143 143 147 151 151 153 155 157 157 157 158 159 156 158 159 155 154 154 157 162 0 0 0 0 0
    0 0 0 0 0 0 0 0 0 0 0 0 0 0 0 0 0 0 0 0 0 0 0 0 0 0 0 0 0 0 0 0 0 0 0 0 0 0 0 0 0 0 0 0 0 0 0 0 0 0 0 0 0 0 0 0 0 0 0 0 0 0 0 0 0 0 0 0 0 60 58 56 55 55 55 54 49 45 49 46 47 47 47 46 45 48 49 44 43 44 43 42 42 43 43 41 39 39 39 39 40 38 38 39 39 39 40 39 40 39 41 42 40 41 39 39 38 31 31 29 27 26 25 25 22 23 23 22 22 24 24 25 26 26 26 26 26 26 25 25 22 15 22 24 26 27 26 26 26 26 27 27 26 27 26 27 26 26 26 23 22 17 14 12 13 13 12 10 12 11 13 10 11 11 0 0 0 -177 -193 18 18 21 22 23 23 24 26 27 28 28 29 28 29 31 32 36 38 40 43 41 41 42 42 43 42 42 43 41 44 46 48 50 51 52 52 53 52 55 55 53 53 54 57 59 61 62 60 60 69 71 71 72 75 73 74 74 74 74 76 78 82 -193 88 89 88 89 89 89 89 88 85 84 85 82 -209 85 89 90 90 91 91 95 99 103 103 104 107 -193 -193 -193 119 -209 -193 -193 128 126 127 128 128 130 129 129 129 129 133 133 135 138 139 141 142 142 143 141 143 143 143 147 151 151 153 155 157 157 157 158 159 156 158 159 155 154 155 159 165 0 0 0 0 0
    0 0 0 0 0 0 0 0 0 0 0 0 0 0 0 0 0 0 0 0 0 0 0 0 0 0 0 0 0 0 0 0 0 0 0 0 0 0 0 0 0 0 0 0 0 0 0 0 0 0 0 0 0 0 0 0 0 0 0 0 0 0 0 0 0 0 0 0 0 60 58 57 55 55 55 54 49 45 49 47 47 47 47 47 45 49 50 45 44 45 44 42 42 43 43 42 39 39 39 39 40 38 38 39 38 39 40 39 40 40 41 42 41 41 40 39 39 33 32 30 28 27 25 26 24 23 24 23 22 24 24 25 25 26 26 26 26 26 25 25 23 19 22 24 26 28 27 28 28 28 29 29 28 30 28 30 28 27 27 25 24 21 15 -225 -225 -225 -225 9 11 10 12 0 10 11 -193 0 0 -177 94 17 16 20 24 24 24 25 27 29 29 29 31 29 30 33 33 36 38 40 42 41 41 42 43 43 43 43 44 42 45 46 47 50 51 52 52 53 53 55 55 54 53 54 57 59 59 60 59 60 69 71 71 72 75 73 74 74 74 74 76 77 81 -193 87 88 87 88 89 89 90 89 87 86 87 89 89 89 91 91 91 92 93 97 100 103 103 104 -193 -193 -193 -193 -193 -209 -193 -193 127 126 127 128 128 130 129 129 129 128 132 133 135 138 139 141 143 143 144 142 143 144 143 147 151 151 153 154 156 157 157 158 158 156 158 159 155 154 154 159 164 0 0 0 0 0
    0 0 0 0 0 0 0 0 0 0 0 0 0 0 0 0 0 0 0 0 0 0 0 0 0 0 0 0 0 0 0 0 0 0 0 0 0 0 0 0 0 0 0 0 0 0 0 0 0 0 0 0 0 0 0 0 0 0 0 0 0 0 0 0 0 0 0 0 0 60 58 57 55 55 55 54 50 45 49 47 47 47 48 47 46 49 50 45 45 46 45 43 43 44 43 42 40 40 39 39 39 38 38 39 38 39 39 39 39 40 41 42 41 41 40 40 39 35 34 33 31 28 27 28 26 25 24 24 23 22 23 24 24 25 25 25 25 25 25 25 23 21 22 23 25 27 28 28 29 29 30 31 31 33 32 31 30 29 28 27 27 -225 -225 -225 -225 -225 -225 -225 -225 -225 -225 -225 -225 -225 -225 -225 -225 -225 -225 -225 -225 19 24 23 23 26 27 30 29 29 32 30 30 34 33 36 38 40 42 40 41 41 42 43 43 43 44 42 46 47 47 49 51 52 51 53 53 54 54 54 54 54 57 59 60 60 60 61 69 71 72 72 75 73 74 74 74 74 75 77 80 -193 85 86 86 87 89 89 90 89 89 90 90 91 91 92 94 94 94 93 93 98 101 103 103 104 -193 -193 -193 -193 -193 -209 -193 -193 126 125 126 128 128 130 129 128 129 128 132 132 134 138 139 141 143 143 144 142 143 144 143 148 151 151 152 154 156 156 156 157 158 155 158 159 155 154 154 158 163 0 0 0 0 0
    0 0 0 0 0 0 0 0 0 0 0 0 0 0 0 0 0 0 0 0 0 0 0 0 0 0 0 0 0 0 0 0 0 0 0 0 0 0 0 0 0 0 0 0 0 0 0 0 0 0 0 0 0 0 0 0 0 0 0 0 0 0 0 0 0 0 0 0 0 60 58 57 55 55 55 54 51 46 50 47 48 47 48 47 46 49 50 45 46 46 46 44 43 45 44 43 40 40 39 39 39 38 37 38 37 38 39 39 39 39 41 41 40 41 39 39 39 36 35 35 33 30 29 31 29 27 27 26 24 23 24 23 22 23 23 24 24 24 25 25 25 24 23 23 25 26 27 28 28 29 31 31 33 33 33 32 32 31 30 29 30 -225 -225 -225 -225 -225 -225 -225 -225 -225 -225 -225 -225 -225 -225 -225 -225 -225 -225 -225 -225 -225 -225 -225 21 27 25 32 29 29 33 32 32 36 34 37 39 40 42 40 41 41 43 44 44 44 44 43 47 48 49 49 52 52 51 53 53 54 54 54 53 54 56 59 59 60 60 61 69 72 72 72 75 74 74 74 75 75 75 77 80 77 83 85 85 87 89 89 91 89 91 91 91 92 93 94 98 98 98 97 97 101 103 104 104 105 -193 -193 -193 -193 -193 -209 -209 -193 126 125 126 128 128 130 129 128 128 128 132 132 133 138 138 141 142 142 144 142 143 144 143 148 151 151 152 154 155 156 156 156 157 155 156 158 154 154 152 153 159 0 0 0 0 0
    0 0 0 0 0 0 0 0 0 0 0 0 0 0 0 0 0 0 0 0 0 0 0 0 0 0 0 0 0 0 0 0 0 0 0 0 0 0 0 0 0 0 0 0 0 0 0 0 0 0 0 0 0 0 0 0 0 0 0 0 0 0 0 0 0 0 0 0 0 60 58 57 56 56 56 55 51 46 50 48 48 48 48 47 46 48 50 44 46 45 46 44 44 46 44 45 41 41 39 39 39 38 37 38 37 38 38 39 39 39 40 41 40 40 39 39 38 36 35 35 35 32 31 34 31 29 30 29 26 24 24 23 22 23 23 24 24 25 26 26 28 27 25 27 29 32 32 32 34 34 35 36 36 35 32 32 33 32 30 29 -225 -225 -225 -225 -225 -225 -225 -225 -225 -225 -225 -225 -225 -225 -225 -225 -225 -225 -225 -225 -225 -225 -225 -225 -225 32 28 35 31 30 34 34 33 37 36 37 39 40 42 41 41 42 44 44 45 45 46 44 49 50 50 49 52 52 51 52 53 53 53 53 52 53 55 58 59 60 61 61 70 73 73 72 75 74 75 75 76 76 75 77 80 77 81 81 85 87 90 90 92 91 93 93 93 93 93 95 97 96 97 96 97 101 103 102 102 -209 -209 -209 -193 -193 -209 -193 -209 -193 124 124 126 127 128 129 128 128 128 128 132 132 134 138 138 140 142 142 143 141 142 143 142 147 151 151 152 154 155 156 156 156 157 155 156 157 154 154 152 153 156 0 0 0 0 0
    0 0 0 0 0 0 0 0 0 0 0 0 0 0 0 0 0 0 0 0 0 0 0 0 0 0 0 0 0 0 0 0 0 0 0 0 0 0 0 0 0 0 0 0 0 0 0 0 0 0 0 0 0 0 0 0 0 0 0 0 0 0 0 0 0 0 0 0 0 60 58 58 56 56 56 55 52 47 51 48 48 48 47 47 47 48 49 44 46 45 46 45 45 46 44 45 41 41 40 39 39 38 37 38 37 38 38 38 39 39 40 41 40 39 40 39 39 38 36 37 37 34 35 37 34 32 32 31 29 27 25 24 23 24 25 25 25 26 27 27 30 31 28 30 33 36 35 33 34 33 35 36 36 34 32 32 32 32 29 -225 -225 -225 -225 -225 -225 -225 -225 -225 -225 -225 -225 -225 -225 -225 -225 -225 -225 -225 -225 -225 -225 -225 -225 -225 -225 -225 -225 -225 32 30 35 36 36 38 38 38 40 41 42 41 41 42 44 45 46 46 47 46 51 51 51 49 52 52 51 52 52 52 53 53 52 53 53 57 58 58 59 59 68 72 72 71 74 74 75 75 76 76 75 77 79 77 80 79 83 86 89 90 93 92 96 95 95 95 95 96 98 97 97 95 96 99 97 95 -209 -209 -209 -209 -209 -209 -193 -193 114 117 122 121 125 125 126 128 127 127 127 128 132 132 135 138 138 140 141 142 142 140 141 143 141 147 151 152 153 154 155 156 156 156 157 155 156 157 155 154 153 153 155 0 0 0 0 0
    0 0 0 0 0 0 0 0 0 0 0 0 0 0 0 0 0 0 0 0 0 0 0 0 0 0 0 0 0 0 0 0 0 0 0 0 0 0 0 0 0 0 0 0 0 0 0 0 0 0 0 0 0 0 0 0 0 0 0 0 0 0 0 0 0 0 0 0 0 61 59 58 57 57 57 56 53 48 51 48 49 48 48 48 47 48 50 44 46 45 48 47 46 46 44 45 42 41 40 39 39 38 38 38 38 38 39 39 39 39 40 41 40 40 40 40 40 40 38 38 39 37 38 39 37 34 32 33 31 29 29 25 25 26 27 27 27 26 27 27 32 34 29 32 36 38 36 34 35 34 35 36 36 33 32 33 33 32 -225 -225 -225 -225 -225 -225 -225 -225 -225 -225 -225 -225 -225 -225 -225 -225 -225 -225 -225 -225 -225 -225 -225 -225 -225 -225 -225 -225 -225 -225 -225 31 37 38 38 39 39 40 40 41 42 41 41 43 45 46 46 48 48 48 52 51 51 48 51 52 51 52 52 52 53 53 54 54 55 56 58 58 59 60 65 70 70 70 72 73 74 75 76 76 76 77 79 77 79 78 82 85 90 91 94 93 97 96 95 96 95 96 98 97 97 96 98 100 100 98 -209 -209 -209 -209 -209 -209 -209 -193 111 115 119 118 122 122 123 125 124 125 125 127 131 132 135 138 138 139 141 141 142 140 141 143 141 148 152 152 153 155 155 157 156 157 158 155 156 157 155 155 153 154 156 0 0 0 0 0
    0 0 0 0 0 0 0 0 0 0 0 0 0 0 0 0 0 0 0 0 0 0 0 0 0 0 0 0 0 0 0 0 0 0 0 0 0 0 0 0 0 0 0 0 0 0 0 0 0 0 0 0 0 0 0 0 0 0 0 0 0 0 0 0 0 0 0 0 0 61 59 59 57 57 58 57 55 49 52 49 49 49 48 48 48 48 50 44 47 45 48 47 46 45 44 44 42 40 40 39 39 38 38 38 38 38 39 38 38 39 39 40 39 38 39 38 39 39 38 39 39 38 39 40 38 37 37 39 38 38 39 38 31 36 37 36 34 30 28 29 35 38 33 34 37 37 35 34 35 35 36 36 36 34 34 34 -225 -225 -225 -225 -225 -225 -225 -225 -225 -225 -225 -225 -225 -225 -225 -225 -225 -225 -225 -225 -225 -225 -225 -225 -225 -225 -225 -225 -225 -225 -225 -225 -225 34 38 38 39 40 40 41 41 42 43 42 43 45 48 47 48 50 50 50 53 51 51 48 51 51 51 52 52 52 54 54 54 55 56 57 59 59 60 61 64 68 67 69 71 72 73 74 75 75 75 77 78 77 78 78 82 85 90 91 95 94 98 97 95 96 95 96 98 96 97 96 98 100 102 100 95 99 -209 -209 -209 -209 -209 -209 111 113 115 113 117 118 120 121 120 122 122 124 126 129 132 137 137 138 139 141 141 140 140 142 141 148 153 153 153 154 155 157 157 157 158 156 156 158 156 156 154 155 157 0 0 0 0 0
    0 0 0 0 0 0 0 0 0 0 0 0 0 0 0 0 0 0 0 0 0 0 0 0 0 0 0 0 0 0 0 0 0 0 0 0 0 0 0 0 0 0 0 0 0 0 0 0 0 0 0 0 0 0 0 0 0 0 0 0 0 0 0 0 0 0 0 0 0 61 59 59 57 58 58 57 55 50 53 50 50 49 49 49 49 50 51 45 48 0 -256 -1 -553 45 43 44 41 40 40 40 39 39 38 39 38 38 39 38 38 38 38 38 38 37 39 38 40 41 40 41 41 39 40 41 39 40 40 42 41 42 45 45 42 43 42 42 42 42 35 33 38 40 38 36 39 38 36 36 36 36 35 36 36 34 33 -225 -225 -225 -225 -225 -225 -225 -225 -225 -225 -225 -225 -225 -225 -225 -225 -225 -225 -225 -225 -225 -225 -225 -225 -225 -225 -225 -225 -225 -225 -225 -225 -225 -225 -225 39 39 39 40 40 41 41 42 43 43 43 46 50 48 49 52 51 51 53 51 51 47 52 51 51 52 52 52 54 54 54 55 56 57 60 60 61 61 63 66 67 68 71 71 73 74 75 76 76 77 79 78 80 79 84 86 91 92 95 94 99 97 95 94 95 96 98 96 96 96 97 99 101 101 102 -209 -209 -193 -193 -193 -209 -193 115 114 115 112 116 118 120 121 121 122 123 123 124 -193 -193 -209 -209 133 136 139 139 138 137 139 138 147 154 153 152 153 155 157 157 156 158 156 157 158 157 156 155 156 157 0 0 0 0 0
    0 0 0 0 0 0 0 0 0 0 0 0 0 0 0 0 0 0 0 0 0 0 0 0 0 0 0 0 0 0 0 0 0 0 0 0 0 0 0 0 0 0 0 0 0 0 0 0 0 0 0 0 0 0 0 0 0 0 0 0 0 0 0 0 0 0 0 0 0 61 59 58 57 58 58 57 55 51 53 50 50 50 50 50 50 50 51 45 48 47 48 47 45 44 42 43 41 40 40 40 39 40 39 39 39 38 39 38 37 37 36 37 38 37 39 39 41 41 41 42 41 40 40 41 40 41 41 44 44 44 48 49 48 46 45 46 45 46 -193 35 38 40 40 38 41 39 38 37 37 36 36 36 36 34 -225 -225 -225 -225 -225 -225 -225 -225 -225 -225 -225 -225 -225 -225 -225 -225 -225 -225 -225 -225 -225 -225 -225 -225 -225 -225 -225 -225 -225 -225 -225 -225 -225 -225 -225 -225 38 38 39 40 40 41 41 42 43 43 44 49 51 51 51 53 52 52 54 51 51 47 51 51 51 51 52 52 54 53 54 55 56 57 60 61 61 62 64 65 66 67 70 71 73 75 76 77 77 79 80 79 83 82 87 88 92 92 94 93 97 95 93 93 94 96 97 96 96 95 96 98 99 100 103 -209 -193 -193 -193 111 114 112 116 114 115 114 116 118 120 121 122 121 123 123 124 124 122 124 -209 -193 128 131 131 125 123 128 133 141 152 151 150 152 154 156 156 156 157 156 156 157 156 156 155 155 156 0 0 0 0 0
    0 0 0 0 0 0 0 0 0 0 0 0 0 0 0 0 0 0 0 0 0 0 0 0 0 0 0 0 0 0 0 0 0 0 0 0 0 0 0 0 0 0 0 0 0 0 0 0 0 0 0 0 0 0 0 0 0 0 0 0 0 0 0 0 0 0 0 0 0 61 59 58 57 57 58 57 55 51 53 51 51 50 49 50 50 50 50 45 48 46 48 48 45 44 43 43 43 41 40 40 40 40 39 39 40 38 39 38 37 37 36 37 37 37 39 39 41 42 41 42 42 41 42 43 42 44 45 48 47 47 50 50 48 46 45 44 44 43 35 33 38 41 40 39 42 40 39 37 37 35 34 34 -225 -225 -225 -225 -225 -225 -225 -225 -225 -225 -225 -225 -225 -225 -225 -225 -225 -225 -225 -225 -225 -225 -225 -225 -225 -225 -225 -225 -225 -225 -225 -225 -225 -225 -225 -225 -225 -225 -225 38 39 40 40 41 41 42 43 43 45 49 52 51 51 54 53 53 55 51 51 47 51 51 50 51 51 51 53 53 54 55 56 57 60 61 63 63 65 66 66 68 70 71 73 75 76 78 78 81 82 81 84 84 88 89 92 92 93 92 95 93 92 92 92 94 95 94 95 95 94 95 93 93 -209 -209 -193 -193 -193 108 111 111 116 114 115 113 115 119 121 122 123 122 124 125 126 127 125 127 -209 -193 131 133 -209 -209 113 121 123 136 150 149 148 151 153 156 156 155 158 156 156 157 156 155 155 155 156 0 0 0 0 0
    0 0 0 0 0 0 0 0 0 0 0 0 0 0 0 0 0 0 0 0 0 0 0 0 0 0 0 0 0 0 0 0 0 0 0 0 0 0 0 0 0 0 0 0 0 0 0 0 0 0 0 0 0 0 0 0 0 0 0 0 0 0 0 0 0 0 0 0 0 61 58 58 57 58 58 57 55 53 54 51 51 50 49 50 50 49 50 45 47 46 48 49 46 44 44 44 44 42 42 41 41 41 40 40 41 38 39 38 37 37 36 37 37 37 40 40 41 43 43 44 44 43 45 46 47 48 49 50 48 48 50 49 49 48 46 47 46 48 45 38 40 43 42 42 45 42 38 39 38 36 35 -225 -225 -225 -225 -225 -225 -225 -225 -225 -225 -225 -225 -225 -225 -225 -225 -225 -225 -225 -225 -225 -225 -225 -225 -225 -225 -225 -225 -225 -225 -225 -225 -225 -225 -225 -225 -225 -225 -225 -225 -225 -225 41 42 45 43 45 46 46 48 51 53 53 53 54 54 54 55 52 52 48 51 50 50 50 51 51 53 53 54 55 56 57 60 61 62 63 65 66 66 68 71 71 74 75 77 79 79 82 82 82 85 85 88 89 91 92 93 92 94 92 92 93 92 95 95 94 95 95 95 96 92 92 88 -209 -209 -209 -193 107 109 112 116 115 114 114 116 119 121 122 124 124 125 126 128 129 129 131 -209 -209 134 -209 -209 -209 113 121 121 134 144 146 144 151 154 156 156 156 159 157 156 157 156 155 155 155 156 0 0 0 0 0
    0 0 0 0 0 0 0 0 0 0 0 0 0 0 0 0 0 0 0 0 0 0 0 0 0 0 0 0 0 0 0 0 0 0 0 0 0 0 0 0 0 0 0 0 0 0 0 0 0 0 0 0 0 0 0 0 0 0 0 0 0 0 0 0 0 0 0 0 0 61 58 57 57 58 58 57 55 53 54 52 52 51 50 51 50 49 50 44 46 46 49 50 46 45 45 44 43 42 42 40 41 41 40 41 42 39 39 38 38 38 37 38 38 39 42 43 43 46 47 51 50 49 51 52 53 53 53 52 50 49 50 49 49 48 49 49 50 54 -225 -225 -225 -225 -225 -225 -225 -225 -225 -225 -225 -225 -225 -225 -225 -225 -225 -225 -225 -225 -225 -225 -225 -225 -225 -225 -225 -225 -225 -225 -225 -225 -225 -225 -225 -225 -225 -225 -225 -225 -225 -225 -225 -225 -225 -225 -225 -225 -225 -225 -225 -225 -225 -225 -225 -225 42 50 46 48 49 47 49 52 53 53 53 55 54 54 56 53 52 48 49 48 48 48 48 49 52 52 53 55 57 57 61 62 62 63 64 65 66 68 70 71 74 75 77 81 80 83 83 83 85 85 87 88 89 91 91 91 93 91 91 92 93 96 96 96 97 97 99 99 96 94 91 104 -193 105 105 105 107 110 114 114 114 115 118 120 122 123 125 -193 125 -193 128 -193 -193 132 -209 133 135 139 -193 -209 -209 122 122 133 137 139 137 149 153 156 156 157 162 159 157 157 157 156 156 157 158 0 0 0 0 0
    0 0 0 0 0 0 0 0 0 0 0 0 0 0 0 0 0 0 0 0 0 0 0 0 0 0 0 0 0 0 0 0 0 0 0 0 0 0 0 0 0 0 0 0 0 0 0 0 0 0 0 0 0 0 0 0 0 0 0 0 0 0 0 0 0 0 0 0 0 61 59 57 57 58 58 57 55 55 55 54 54 52 51 52 51 50 50 44 46 46 50 51 46 45 45 44 45 44 44 41 42 42 41 43 44 41 40 37 38 38 38 40 39 41 45 48 47 50 52 53 53 52 53 53 54 54 54 52 49 49 49 47 48 48 49 49 -225 -225 -225 -225 -225 -225 -225 -225 -225 -225 -225 -225 -225 -225 -225 -225 -225 -225 -225 -225 -225 -225 -225 -225 -225 -225 -225 -225 -225 -225 -225 -225 -225 -225 -225 -225 -225 -225 -225 -225 -225 -225 -225 -225 -225 -225 -225 -225 -225 -225 -225 -225 -225 -225 -225 -225 -225 -225 -225 52 47 50 47 46 49 51 51 52 51 53 53 54 55 52 51 49 50 47 47 47 48 49 51 52 53 54 57 57 61 61 62 62 63 64 65 67 69 70 73 75 78 81 81 83 83 83 85 85 87 88 89 90 90 90 92 91 91 92 93 97 98 99 99 100 102 102 100 100 101 105 105 106 106 105 108 110 112 113 112 116 118 121 122 123 -193 -193 125 -193 127 -193 130 131 134 -193 135 -193 138 139 138 137 137 136 137 138 136 148 -209 155 155 155 161 159 157 157 157 156 157 158 158 0 0 0 0 0
    0 0 0 0 0 0 0 0 0 0 0 0 0 0 0 0 0 0 0 0 0 0 0 0 0 0 0 0 0 0 0 0 0 0 0 0 0 0 0 0 0 0 0 0 0 0 0 0 0 0 0 0 0 0 0 0 0 0 0 0 0 0 0 0 0 0 0 0 0 61 58 57 57 58 58 57 56 56 56 56 56 54 52 53 52 51 50 44 46 46 50 51 46 45 47 45 50 -193 46 42 44 44 44 45 47 43 42 38 44 42 41 47 42 46 50 52 52 53 54 55 54 54 54 55 56 55 54 53 50 48 46 44 45 44 -225 -225 -225 -225 -225 -225 -225 -225 -225 -225 -225 -225 -225 -225 -225 -225 -225 -225 -225 -225 -225 -225 -225 -225 -225 -225 -225 -225 -225 -225 -225 -225 -225 -225 -225 -225 -225 -225 -225 -225 -225 -225 -225 -225 -225 -225 -225 -225 -225 -225 -225 -225 -225 -225 -225 -225 -225 -225 -225 -225 -225 -225 48 50 50 49 52 52 51 51 50 53 53 53 54 51 50 51 52 48 48 48 48 49 51 52 53 54 57 58 62 62 63 63 64 64 66 68 70 71 73 76 77 81 81 83 83 84 86 86 88 88 89 90 90 90 91 91 91 92 94 96 99 101 102 103 104 104 104 103 104 106 105 105 105 104 106 109 111 111 110 115 118 121 123 123 -193 -193 125 126 128 130 132 132 135 135 136 140 139 140 139 138 138 137 137 138 136 147 -193 153 154 154 159 158 157 157 157 156 157 158 158 0 0 0 0 0
    0 0 0 0 0 0 0 0 0 0 0 0 0 0 0 0 0 0 0 0 0 0 0 0 0 0 0 0 0 0 0 0 0 0 0 0 0 0 0 0 0 0 0 0 0 0 0 0 0 0 0 0 0 0 0 0 0 0 0 0 0 0 0 0 0 0 0 0 0 61 59 57 57 58 58 58 57 57 57 57 57 55 53 53 52 50 50 45 45 46 49 50 46 47 50 48 53 52 50 46 47 49 47 48 50 45 43 -193 49 47 44 55 45 50 53 55 55 55 56 56 56 56 56 57 57 55 54 52 49 48 47 45 46 -225 -225 -225 -225 -225 -225 -225 -225 -225 -225 -225 -225 -225 -225 -225 -225 -225 -225 -225 -225 -225 -225 -225 -225 -225 -225 -225 -225 -225 -225 -225 -225 -225 -225 -225 -225 -225 -225 -225 -225 -225 -225 -225 -225 -225 -225 -225 -225 -225 -225 -225 -225 -225 -225 -225 -225 -225 -225 -225 -225 -225 -225 -225 -225 -225 -225 -225 52 53 52 51 51 53 54 54 54 53 52 52 53 48 48 48 49 50 51 52 52 54 56 58 62 63 64 64 65 66 67 69 71 71 74 76 78 82 82 84 84 85 87 87 89 88 89 90 90 90 92 92 92 92 95 97 100 103 103 104 105 105 105 104 105 106 105 105 105 103 106 107 109 109 110 116 119 121 124 124 -193 -193 -193 -193 127 -193 -193 -193 136 135 137 141 139 140 139 138 138 137 138 139 137 147 -193 152 153 153 158 157 157 156 156 155 156 157 158 0 0 0 0 0
    0 0 0 0 0 0 0 0 0 0 0 0 0 0 0 0 0 0 0 0 0 0 0 0 0 0 0 0 0 0 0 0 0 0 0 0 0 0 0 0 0 0 0 0 0 0 0 0 0 0 0 0 0 0 0 0 0 0 0 0 0 0 0 0 0 0 0 0 0 61 58 57 57 58 58 57 57 57 57 58 57 55 52 53 51 49 49 45 45 46 50 52 48 51 53 52 -193 54 52 50 50 51 49 50 50 47 45 47 52 52 50 57 54 55 56 57 56 57 57 57 57 57 57 56 56 55 53 52 50 49 48 -225 -225 -225 -225 -225 -225 -225 -225 -225 -225 -225 -225 -225 -225 -225 -225 -225 -225 -225 -225 -225 -225 -225 -225 -225 -225 -225 -225 -225 -225 -225 -225 -225 -225 -225 -225 -225 -225 -225 -225 -225 -225 -225 -225 -225 -225 -225 -225 -225 -225 -225 -225 -225 -225 -225 -225 -225 -225 -225 -225 -225 -225 -225 -225 -225 -225 -225 -225 -225 -225 -225 53 47 50 -193 54 54 55 53 53 53 55 53 51 49 50 51 52 52 52 54 56 58 64 64 65 66 67 68 69 70 72 72 74 77 79 83 83 85 85 86 88 88 90 89 89 90 90 90 92 92 92 92 95 97 100 103 103 104 105 105 105 105 105 105 104 105 104 103 105 106 106 106 110 -193 120 121 123 -193 -193 -193 -193 -193 -193 -193 -193 -193 -209 135 138 139 138 140 140 139 140 139 139 140 139 148 151 152 153 153 158 157 156 156 156 155 156 157 158 0 0 0 0 0
    0 0 0 0 0 0 0 0 0 0 0 0 0 0 0 0 0 0 0 0 0 0 0 0 0 0 0 0 0 0 0 0 0 0 0 0 0 0 0 0 0 0 0 0 0 0 0 0 0 0 0 0 0 0 0 0 0 0 0 0 0 0 0 0 0 0 0 0 0 61 58 57 57 58 58 57 57 58 59 59 59 55 51 52 50 47 46 45 45 46 50 51 48 52 54 53 -193 54 53 51 51 52 50 51 51 49 48 53 53 55 53 58 58 60 62 61 60 59 59 59 59 58 57 57 56 55 54 53 51 49 -225 -225 -225 -225 -225 -225 -225 -225 -225 -225 -225 -225 -225 -225 -225 -225 -225 -225 -225 -225 -225 -225 -225 -225 -225 -225 -225 -225 -225 -225 -225 -225 -225 -225 -225 -225 -225 -225 -225 -225 -225 -225 -225 -225 -225 -225 -225 -225 -225 -225 -225 -225 -225 -225 -225 -225 -225 -225 -225 -225 -225 -225 -225 -225 -225 -225 -225 -225 -225 -225 -225 -225 -225 -225 47 -209 54 -209 -209 -193 -209 -209 -193 59 56 55 55 55 56 55 55 56 57 60 65 67 67 67 68 69 70 71 72 72 75 77 79 83 83 85 85 86 87 87 89 88 89 90 90 90 91 92 92 93 95 97 100 104 104 105 106 106 106 106 106 106 104 105 104 103 104 106 105 107 110 114 115 118 120 -193 -193 -193 -193 -193 -193 -193 -209 -193 -209 -193 138 139 138 139 140 139 140 139 139 139 138 147 151 152 153 153 158 157 157 156 156 155 157 158 158 0 0 0 0 0
    0 0 0 0 0 0 0 0 0 0 0 0 0 0 0 0 0 0 0 0 0 0 0 0 0 0 0 0 0 0 0 0 0 0 0 0 0 0 0 0 0 0 0 0 0 0 0 0 0 0 0 0 0 0 0 0 0 0 0 0 0 0 0 0 0 0 0 0 0 60 58 57 57 59 58 58 58 59 59 60 60 56 52 52 49 46 46 45 45 46 49 51 49 53 55 -193 -193 55 54 53 52 52 51 52 51 50 49 53 54 56 56 60 62 67 68 67 65 63 63 63 61 59 58 57 57 56 55 54 -225 -225 -225 -225 -225 -225 -225 -225 -225 -225 -225 -225 -225 -225 -225 -225 -225 -225 -225 -225 -225 -225 -225 -225 -225 -225 -225 -225 -225 -225 -225 -225 -225 -225 -225 -225 -225 -225 -225 -225 -225 -225 -225 -225 -225 -225 -225 -225 -225 -225 -225 -225 -225 -225 -225 -225 -225 -225 -225 -225 -225 -225 -225 -225 -225 -225 -225 -225 -225 -225 -225 -225 -225 -225 -225 -225 -225 -225 56 55 -193 -193 -209 -209 58 62 58 59 60 59 60 58 60 59 60 65 68 69 69 69 70 70 72 74 73 73 75 78 79 82 83 84 84 86 86 86 88 88 88 89 90 90 92 92 93 94 97 99 102 105 105 106 107 107 106 106 106 106 105 106 106 105 106 108 107 109 111 113 114 116 118 119 118 -193 -193 -193 -209 -209 -209 -209 -209 137 137 138 137 138 139 138 139 139 138 138 138 148 151 153 153 153 158 157 157 157 157 155 158 158 159 0 0 0 0 0
    0 0 0 0 0 0 0 0 0 0 0 0 0 0 0 0 0 0 0 0 0 0 0 0 0 0 0 0 0 0 0 0 0 0 0 0 0 0 0 0 0 0 0 0 0 0 0 0 0 0 0 0 0 0 0 0 0 0 0 0 0 0 0 0 0 0 0 0 0 60 58 57 58 59 59 59 59 59 59 60 59 57 54 53 51 48 47 46 45 46 50 52 52 54 56 -193 -209 56 55 54 52 52 51 52 50 48 48 50 52 55 57 62 66 69 70 69 69 67 66 64 63 60 59 58 57 56 55 -225 -225 -225 -225 -225 -225 -225 -225 -225 -225 -225 -225 -225 -225 -225 -225 -225 -225 -225 -225 -225 -225 -225 -225 -225 -225 -225 -225 -225 -225 -225 -225 -225 -225 -225 -225 -225 -225 -225 -225 -225 -225 -225 -225 -225 -225 -225 -225 -225 -225 -225 -225 -225 -225 -225 -225 -225 -225 -225 -225 -225 -225 -225 -225 -225 -225 -225 -225 -225 -225 -225 -225 -225 -225 -225 -225 -225 -225 -225 -225 -209 -209 -209 -209 -209 62 68 64 65 67 66 65 60 62 61 61 66 69 68 69 69 71 71 73 75 74 75 77 80 81 83 84 84 83 84 85 86 87 87 88 89 90 91 92 93 93 94 98 99 102 105 105 106 107 107 107 107 107 107 107 107 107 106 108 109 108 111 112 115 115 116 118 119 117 119 121 121 122 124 -193 125 133 133 135 134 136 138 138 138 138 139 138 139 139 148 152 153 153 153 158 157 157 157 157 156 158 158 159 0 0 0 0 0
    0 0 0 0 0 0 0 0 0 0 0 0 0 0 0 0 0 0 0 0 0 0 0 0 0 0 0 0 0 0 0 0 0 0 0 0 0 0 0 0 0 0 0 0 0 0 0 0 0 0 0 0 0 0 0 0 0 0 0 0 0 0 0 0 0 0 0 0 0 61 59 57 58 60 60 60 61 60 59 60 60 57 55 55 54 51 50 48 46 48 51 53 -193 57 59 -193 62 58 56 56 53 54 51 52 50 48 47 51 53 56 58 64 69 71 72 71 71 68 66 65 63 61 60 59 59 -225 -225 -225 -225 -225 -225 -225 -225 -225 -225 -225 -225 -225 -225 -225 -225 -225 -225 -225 -225 -225 -225 -225 -225 -225 -225 -225 -225 -225 -225 -225 -225 -225 -225 -225 -225 -225 -225 -225 -225 -225 -225 -225 -225 -225 -225 -225 -225 -225 -225 -225 -225 -225 -225 -225 -225 -225 -225 -225 -225 -225 -225 -225 -225 -225 -225 -225 -225 -225 -225 -225 -225 -225 -225 -225 -225 -225 -225 -225 -225 -225 -225 -225 -209 -209 -209 -209 67 70 68 66 68 67 67 63 66 64 65 68 70 70 70 70 71 71 74 75 76 76 78 81 81 82 83 83 83 83 85 86 87 88 88 89 90 91 92 93 93 93 97 99 102 105 105 105 106 107 107 108 107 108 107 108 108 108 109 110 109 112 114 116 116 117 118 119 118 119 121 121 122 124 125 125 131 131 134 131 135 137 137 138 138 138 138 138 138 147 151 152 152 153 158 157 157 157 158 156 158 159 159 0 0 0 0 0
    0 0 0 0 0 0 0 0 0 0 0 0 0 0 0 0 0 0 0 0 0 0 0 0 0 0 0 0 0 0 0 0 0 0 0 0 0 0 0 0 0 0 0 0 0 0 0 0 0 0 0 0 0 0 0 0 0 0 0 0 0 0 0 0 0 0 0 0 0 61 59 57 58 59 60 59 60 59 59 59 59 57 56 55 55 52 52 51 50 51 53 55 59 62 62 -193 65 61 57 57 55 55 53 53 51 49 50 55 55 59 63 68 72 73 74 73 72 69 66 64 63 62 61 60 -225 -225 -225 -225 -225 -225 -225 -225 -225 -225 -225 -225 -225 -225 -225 -225 -225 -225 -225 -225 -225 -225 -225 -225 -225 -225 -225 -225 -225 -225 -225 -225 -225 -225 -225 -225 -225 -225 -225 -225 -225 -225 -225 -225 -225 -225 -225 -225 -225 -225 -225 -225 -225 -225 -225 -225 -225 -225 -225 -225 -225 -225 -225 -225 -225 -225 -225 -225 -225 -225 -225 -225 -225 -225 -225 -225 -225 -225 -225 -225 -225 -225 -225 -225 -225 -225 -209 69 65 68 69 67 68 67 68 66 68 68 68 69 71 71 72 72 72 72 75 76 77 77 79 82 81 82 83 82 82 81 84 85 87 88 89 90 90 91 92 93 93 93 95 98 102 104 104 105 106 107 107 108 108 108 108 110 109 109 111 112 111 115 116 118 117 118 119 120 118 120 121 -193 -193 -193 -193 125 128 128 132 127 134 136 137 137 137 138 137 138 138 146 151 152 152 152 157 156 157 157 157 156 157 158 158 0 0 0 0 0
    0 0 0 0 0 0 0 0 0 0 0 0 0 0 0 0 0 0 0 0 0 0 0 0 0 0 0 0 0 0 0 0 0 0 0 0 0 0 0 0 0 0 0 0 0 0 0 0 0 0 0 0 0 0 0 0 0 0 0 0 0 0 0 0 0 0 0 0 0 61 59 57 58 59 60 59 60 59 59 58 58 56 56 55 55 53 54 54 53 54 56 57 60 63 62 62 62 60 58 58 56 56 54 54 52 52 54 58 67 69 71 71 74 75 75 74 72 70 67 66 65 63 62 -225 -225 -225 -225 -225 -225 -225 -225 -225 -225 -225 -225 -225 -225 -225 -225 -225 -225 -225 -225 -225 -225 -225 -225 -225 -225 -225 -225 -225 -225 -225 -225 -225 -225 -225 -225 -225 -225 -225 -225 -225 -225 -225 -225 -225 -225 -225 -225 -225 -225 -225 -225 -225 -225 -225 -225 -225 -225 -225 -225 -225 -225 -225 -225 -225 -225 -225 -225 -225 -225 -225 -225 -225 -225 -225 -225 -225 -225 -225 -225 -225 -225 -225 -225 -225 -225 -225 -225 67 62 67 68 67 68 68 69 67 69 69 70 70 71 72 72 72 73 73 76 76 78 78 79 81 80 81 82 80 81 80 84 85 86 87 89 90 90 91 92 93 93 92 94 96 101 103 103 104 105 106 107 108 108 108 109 110 110 110 111 112 111 115 117 119 119 120 121 122 120 122 123 124 125 127 126 127 126 125 126 123 130 131 134 135 136 137 137 137 137 145 150 151 151 152 156 156 156 157 157 156 158 158 158 0 0 0 0 0
    0 0 0 0 0 0 0 0 0 0 0 0 0 0 0 0 0 0 0 0 0 0 0 0 0 0 0 0 0 0 0 0 0 0 0 0 0 0 0 0 0 0 0 0 0 0 0 0 0 0 0 0 0 0 0 0 0 0 0 0 0 0 0 0 0 0 0 0 0 61 59 57 58 59 60 60 60 59 59 58 58 57 57 56 56 55 56 57 56 57 58 60 65 66 63 62 61 60 58 59 57 56 55 56 55 55 58 69 74 73 74 73 75 75 75 74 72 70 69 68 67 -225 -225 -225 -225 -225 -225 -225 -225 -225 -225 -225 -225 -225 -225 -225 -225 -225 -225 -225 -225 -225 -225 -225 -225 -225 -225 -225 -225 -225 -225 -225 -225 -225 -225 -225 -225 -225 -225 -225 -225 -225 -225 -225 -225 -225 -225 -225 -225 -225 -225 -225 -225 -225 -225 -225 -225 -225 -225 -225 -225 -225 -225 -225 -225 -225 -225 -225 -225 -225 -225 -225 -225 -225 -225 -225 -225 -225 -225 -225 -225 -225 -225 -225 -225 -225 -225 -225 -225 -225 -225 -225 62 67 68 67 69 68 69 68 70 69 70 71 72 72 73 72 74 73 76 77 78 78 79 81 80 81 82 80 80 79 82 84 85 87 89 90 90 91 92 93 93 93 94 96 99 101 102 102 103 105 106 108 108 108 109 111 111 112 112 113 112 116 118 120 119 120 121 123 121 123 124 124 125 126 126 127 125 125 124 123 127 127 130 129 134 136 137 138 138 146 151 151 151 152 156 156 156 157 157 156 158 159 159 0 0 0 0 0
    0 0 0 0 0 0 0 0 0 0 0 0 0 0 0 0 0 0 0 0 0 0 0 0 0 0 0 0 0 0 0 0 0 0 0 0 0 0 0 0 0 0 0 0 0 0 0 0 0 0 0 0 0 0 0 0 0 0 0 0 0 0 0 0 0 0 0 0 0 61 59 57 59 59 61 60 60 59 60 59 59 57 58 57 57 57 59 60 59 60 61 64 67 67 64 62 62 62 61 61 59 59 59 62 61 63 72 77 81 80 79 75 76 76 75 73 72 71 70 69 -225 -225 -225 -225 -225 -225 -225 -225 -225 -225 -225 -225 -225 -225 -225 -225 -225 -225 -225 -225 -225 -225 -225 -225 -225 -225 -225 -225 -225 -225 -225 -225 -225 -225 -225 -225 -225 -225 -225 -225 -225 -225 -225 -225 -225 -225 -225 -225 -225 -225 -225 -225 -225 -225 -225 -225 -225 -225 -225 -225 -225 -225 -225 -225 -225 -225 -225 -225 -225 -225 -225 -225 -225 -225 -225 -225 -225 -225 -225 -225 -225 -225 -225 -225 -225 -225 -225 -225 -225 -225 -225 -225 62 68 68 67 69 68 70 69 70 70 71 72 73 73 74 74 75 74 77 78 78 78 79 80 80 80 81 79 79 78 82 83 83 87 88 90 90 91 91 92 93 93 93 95 99 101 101 101 103 105 106 108 107 108 109 112 112 114 113 114 113 116 118 120 119 120 120 121 121 123 123 124 124 126 126 127 126 126 125 124 126 125 125 123 125 125 129 134 137 146 151 151 151 153 156 156 157 157 158 156 159 160 159 0 0 0 0 0
    0 0 0 0 0 0 0 0 0 0 0 0 0 0 0 0 0 0 0 0 0 0 0 0 0 0 0 0 0 0 0 0 0 0 0 0 0 0 0 0 0 0 0 0 0 0 0 0 0 0 0 0 0 0 0 0 0 0 0 0 0 0 0 0 0 0 0 0 0 61 60 58 60 61 63 65 66 65 64 62 61 58 59 58 58 58 62 63 62 64 64 66 68 67 65 63 63 63 62 64 63 63 68 71 71 73 78 82 84 83 81 76 76 76 75 74 73 73 71 -225 -225 -225 -225 -225 -225 -225 -225 -225 -225 -225 -225 -225 -225 -225 -225 -225 -225 -225 -225 -225 -225 -225 -225 -225 -225 -225 -225 -225 -225 -225 -225 -225 -225 -225 -225 -225 -225 -225 -225 -225 -225 -225 -225 -225 -225 -225 -225 -225 -225 -225 -225 -225 -225 -225 -225 -225 -225 -225 -225 -225 -225 -225 -225 -225 -225 -225 -225 -225 -225 -225 -225 -225 -225 -225 -225 -225 -225 -225 -225 -225 -225 -225 -225 -225 -225 -225 -225 -225 -225 -225 -225 -225 63 68 69 67 69 69 70 69 71 71 71 72 73 74 74 74 75 75 77 79 80 80 81 82 81 81 82 80 79 78 82 82 81 86 88 89 90 91 91 92 93 94 94 96 98 100 100 101 102 104 105 107 107 108 109 112 112 114 113 114 114 116 117 119 119 119 119 120 119 122 122 123 124 126 126 128 127 128 127 125 126 125 123 122 123 122 124 130 136 145 152 151 151 153 156 155 156 157 157 156 158 159 158 0 0 0 0 0
    0 0 0 0 0 0 0 0 0 0 0 0 0 0 0 0 0 0 0 0 0 0 0 0 0 0 0 0 0 0 0 0 0 0 0 0 0 0 0 0 0 0 0 0 0 0 0 0 0 0 0 0 0 0 0 0 0 0 0 0 0 0 0 0 0 0 0 0 0 62 62 60 63 63 67 70 71 72 70 66 63 60 61 59 59 59 64 65 64 66 66 67 68 67 66 65 65 65 64 68 68 69 73 77 80 83 86 87 87 86 83 79 78 77 76 75 74 -225 -225 -225 -225 -225 -225 -225 -225 -225 -225 -225 -225 -225 -225 -225 -225 -225 -225 -225 -225 -225 -225 -225 -225 -225 -225 -225 -225 -225 -225 -225 -225 -225 -225 -225 -225 -225 -225 -225 -225 -225 -225 -225 -225 -225 -225 -225 -225 -225 -225 -225 -225 -225 -225 -225 -225 -225 -225 -225 -225 -225 -225 -225 -225 -225 -225 -225 -225 -225 -225 -225 -225 -225 -225 -225 -225 -225 -225 -225 -225 -225 -225 -225 -225 -225 -225 -225 -225 -225 -225 -225 -225 -225 -225 -225 -225 67 69 67 69 69 71 70 71 72 72 73 74 75 75 75 77 76 79 80 81 80 81 83 82 82 84 82 82 81 84 84 82 88 88 90 90 90 91 92 93 94 94 97 98 100 100 101 102 103 105 106 107 108 109 111 112 114 113 114 114 116 117 118 118 118 118 119 118 121 122 122 123 125 126 129 128 129 127 126 127 125 125 123 124 125 130 137 137 147 152 152 152 153 156 155 156 157 157 156 158 159 157 0 0 0 0 0
    0 0 0 0 0 0 0 0 0 0 0 0 0 0 0 0 0 0 0 0 0 0 0 0 0 0 0 0 0 0 0 0 0 0 0 0 0 0 0 0 0 0 0 0 0 0 0 0 0 0 0 0 0 0 0 0 0 0 0 0 0 0 0 0 0 0 0 0 0 66 65 64 68 68 69 72 73 74 73 71 69 66 67 65 64 63 68 67 66 67 67 68 68 68 66 65 64 66 67 70 70 72 75 82 87 87 88 87 88 87 84 82 80 79 78 76 -225 -225 -225 -225 -225 -225 -225 -225 -225 -225 -225 -225 -225 -225 -225 -225 -225 -225 -225 -225 -225 -225 -225 -225 -225 -225 -225 -225 -225 -225 -225 -225 -225 -225 -225 -225 -225 -225 -225 -225 -225 -225 -225 -225 -225 -225 -225 -225 -225 -225 -225 -225 -225 -225 -225 -225 -225 -225 -225 -225 -225 -225 -225 -225 -225 -225 -225 -225 -225 -225 -225 -225 -225 -225 -225 -225 -225 -225 -225 -225 -225 -225 -225 -225 -225 -225 -225 -225 -225 -225 -225 -225 -225 -225 -225 -225 -225 66 71 67 69 70 72 71 72 73 74 73 74 75 76 75 78 76 79 80 82 81 81 83 82 82 84 83 83 82 85 85 84 88 88 90 89 89 90 91 92 93 93 95 96 99 99 101 101 103 104 106 106 108 109 111 112 114 113 115 114 117 117 118 118 118 117 119 118 121 122 123 123 126 126 129 128 128 128 128 128 126 127 126 128 132 136 140 139 148 152 152 152 153 155 155 156 156 157 156 157 158 157 0 0 0 0 0
    0 0 0 0 0 0 0 0 0 0 0 0 0 0 0 0 0 0 0 0 0 0 0 0 0 0 0 0 0 0 0 0 0 0 0 0 0 0 0 0 0 0 0 0 0 0 0 0 0 0 0 0 0 0 0 0 0 0 0 0 0 0 0 0 0 0 0 0 0 69 70 69 70 71 70 74 74 74 74 73 72 73 72 71 71 70 73 71 70 70 69 69 69 68 67 65 65 67 68 71 71 73 77 84 88 88 88 87 88 86 84 83 82 80 79 -225 -225 -225 -225 -225 -225 -225 -225 -225 -225 -225 -225 -225 -225 -225 -225 -225 -225 -225 -225 -225 -225 -225 -225 -225 -225 -225 -225 -225 -225 -225 -225 -225 -225 -225 -225 -225 -225 -225 -225 -225 -225 -225 -225 -225 -225 -225 -225 -225 -225 -225 -225 -225 -225 -225 -225 -225 -225 -225 -225 -225 -225 -225 -225 -225 -225 -225 -225 -225 -225 -225 -225 -225 -225 -225 -225 -225 -225 -225 -225 -225 -225 -225 -225 -225 -225 -225 -225 -225 -225 -225 -225 -225 -225 -225 -225 -225 -225 -225 69 65 67 69 72 71 73 73 74 73 74 76 76 76 78 77 79 79 81 81 80 82 81 80 84 83 84 84 84 85 85 88 88 89 88 89 89 90 91 93 93 94 95 97 98 99 100 102 103 105 106 107 109 111 112 115 114 115 114 117 117 118 118 118 117 119 119 121 122 123 123 126 127 130 129 130 130 130 130 130 131 130 132 135 136 140 140 148 152 151 151 152 154 154 156 156 156 156 158 159 158 0 0 0 0 0
    0 0 0 0 0 0 0 0 0 0 0 0 0 0 0 0 0 0 0 0 0 0 0 0 0 0 0 0 0 0 0 0 0 0 0 0 0 0 0 0 0 0 0 0 0 0 0 0 0 0 0 0 0 0 0 0 0 0 0 0 0 0 0 0 0 0 0 0 0 71 73 73 72 76 -193 80 78 77 76 75 74 75 75 74 74 73 74 73 73 71 70 70 70 69 68 68 68 68 70 72 73 76 82 87 89 88 88 87 88 86 86 86 84 83 -225 -225 -225 -225 -225 -225 -225 -225 -225 -225 -225 -225 -225 -225 -225 -225 -225 -225 -225 -225 -225 -225 -225 -225 -225 -225 -225 -225 -225 -225 -225 -225 -225 -225 -225 -225 -225 -225 -225 -225 -225 -225 -225 -225 -225 -225 -225 -225 -225 -225 -225 -225 -225 -225 -225 -225 -225 -225 -225 -225 -225 -225 -225 -225 -225 -225 -225 -225 -225 -225 -225 -225 -225 -225 -225 -225 -225 -225 -225 -225 -225 -225 -225 -225 -225 -225 -225 -225 -225 -225 -225 -225 -225 -225 -225 -225 -225 -225 -225 -225 -225 -225 69 70 73 71 73 73 74 73 74 76 77 76 79 77 79 80 81 81 81 81 81 80 84 83 84 84 85 86 85 88 88 89 89 89 89 90 91 93 92 93 93 94 96 96 98 101 102 104 105 107 108 110 111 113 112 114 113 116 117 117 118 117 117 119 118 121 122 123 124 127 128 132 131 131 131 132 132 132 134 134 135 137 138 141 141 147 150 150 150 153 154 154 155 157 157 157 159 160 160 0 0 0 0 0
    0 0 0 0 0 0 0 0 0 0 0 0 0 0 0 0 0 0 0 0 0 0 0 0 0 0 0 0 0 0 0 0 0 0 0 0 0 0 0 0 0 0 0 0 0 0 0 0 0 0 0 0 0 0 0 0 0 0 0 0 0 0 0 0 0 0 0 0 0 72 76 79 78 81 80 84 84 81 80 78 76 77 77 76 76 75 76 74 74 72 71 71 71 70 70 69 70 70 71 74 76 79 84 87 89 89 89 88 89 88 88 88 -225 -225 -225 -225 -225 -225 -225 -225 -225 -225 -225 -225 -225 -225 -225 -225 -225 -225 -225 -225 -225 -225 -225 -225 -225 -225 -225 -225 -225 -225 -225 -225 -225 -225 -225 -225 -225 -225 -225 -225 -225 -225 -225 -225 -225 -225 -225 -225 -225 -225 -225 -225 -225 -225 -225 -225 -225 -225 -225 -225 -225 -225 -225 -225 -225 -225 -225 -225 -225 -225 -225 -225 -225 -225 -225 -225 -225 -225 -225 -225 -225 -225 -225 -225 -225 -225 -225 -225 -225 -225 -225 -225 -225 -225 -225 -225 -225 -225 -225 -225 -225 -225 -225 -225 -225 70 75 72 72 72 73 73 74 76 77 76 80 78 79 81 81 82 81 82 82 81 85 84 84 85 85 86 86 89 89 89 89 90 89 90 91 92 92 92 92 94 94 95 95 99 101 103 105 106 107 109 110 112 112 113 113 115 116 116 116 116 116 117 118 121 121 123 124 128 129 132 131 132 131 133 133 134 135 136 137 139 140 143 142 147 149 150 151 153 155 154 155 157 158 158 160 160 159 0 0 0 0 0
    0 0 0 0 0 0 0 0 0 0 0 0 0 0 0 0 0 0 0 0 0 0 0 0 0 0 0 0 0 0 0 0 0 0 0 0 0 0 0 0 0 0 0 0 0 0 0 0 0 0 0 0 0 0 0 0 0 0 0 0 0 0 0 0 0 0 0 0 0 73 79 84 82 83 83 84 84 83 82 80 77 79 79 78 78 76 77 75 75 73 72 72 71 71 71 71 72 72 74 78 83 84 86 88 90 90 89 89 89 89 88 -225 -225 -225 -225 -225 -225 -225 -225 -225 -225 -225 -225 -225 -225 -225 -225 -225 -225 -225 -225 -225 -225 -225 -225 -225 -225 -225 -225 -225 -225 -225 -225 -225 -225 -225 -225 -225 -225 -225 -225 -225 -225 -225 -225 -225 -225 -225 -225 -225 -225 -225 -225 -225 -225 -225 -225 -225 -225 -225 -225 -225 -225 -225 -225 -225 -225 -225 -225 -225 -225 -225 -225 -225 -225 -225 -225 -225 -225 -225 -225 -225 -225 -225 -225 -225 -225 -225 -225 -225 -225 -225 -225 -225 -225 -225 -225 -225 -225 -225 -225 -225 -225 -225 -225 -225 -225 -225 -225 76 73 75 74 73 74 78 78 78 81 80 80 82 83 83 82 84 84 83 86 86 86 87 88 89 90 91 90 91 91 92 90 91 92 93 91 92 92 94 94 95 95 98 100 102 104 105 107 109 110 113 113 114 115 116 117 116 116 115 115 116 116 119 119 121 123 127 128 132 132 133 133 134 134 135 134 136 136 139 139 142 142 146 148 148 150 152 153 153 155 158 158 158 158 158 157 0 0 0 0 0
    0 0 0 0 0 0 0 0 0 0 0 0 0 0 0 0 0 0 0 0 0 0 0 0 0 0 0 0 0 0 0 0 0 0 0 0 0 0 0 0 0 0 0 0 0 0 0 0 0 0 0 0 0 0 0 0 0 0 0 0 0 0 0 0 0 0 0 0 0 74 79 84 -193 -193 -209 -193 83 83 82 83 79 82 82 82 81 79 79 76 75 74 72 72 72 72 73 72 74 75 78 82 85 85 87 89 90 90 89 90 90 -225 -225 -225 -225 -225 -225 -225 -225 -225 -225 -225 -225 -225 -225 -225 -225 -225 -225 -225 -225 -225 -225 -225 -225 -225 -225 -225 -225 -225 -225 -225 -225 -225 -225 -225 -225 -225 -225 -225 -225 -225 -225 -225 -225 -225 -225 -225 -225 -225 -225 -225 -225 -225 -225 -225 -225 -225 -225 -225 -225 -225 -225 -225 -225 -225 -225 -225 -225 -225 -225 -225 -225 -225 -225 -225 -225 -225 -225 -225 -225 -225 -225 -225 -225 -225 -225 -225 -225 -225 -225 -225 -225 -225 -225 -225 -225 -225 -225 -225 -225 -225 -225 -225 -225 -225 -225 -225 -225 -225 -225 -225 71 74 74 73 75 79 79 80 83 81 82 83 85 85 84 86 85 85 88 88 87 88 89 89 90 90 90 91 90 92 90 92 92 93 91 92 91 93 94 95 95 98 100 102 104 105 107 108 109 113 114 116 116 117 117 117 117 116 115 116 116 117 118 119 121 126 127 133 134 135 136 136 135 136 134 136 137 140 139 142 141 144 147 148 149 151 152 152 153 158 158 158 157 157 156 0 0 0 0 0
    0 0 0 0 0 0 0 0 0 0 0 0 0 0 0 0 0 0 0 0 0 0 0 0 0 0 0 0 0 0 0 0 0 0 0 0 0 0 0 0 0 0 0 0 0 0 0 0 0 0 0 0 0 0 0 0 0 0 0 0 0 0 0 0 0 0 0 0 0 -193 80 84 -193 -193 -209 -209 -193 -193 -193 -193 81 84 86 84 84 83 82 79 76 75 74 74 74 74 76 75 78 80 84 84 87 87 87 88 89 89 88 88 -225 -225 -225 -225 -225 -225 -225 -225 -225 -225 -225 -225 -225 -225 -225 -225 -225 -225 -225 -225 -225 -225 -225 -225 -225 -225 -225 -225 -225 -225 -225 -225 -225 -225 -225 -225 -225 -225 -225 -225 -225 -225 -225 -225 -225 -225 -225 -225 -225 -225 -225 -225 -225 -225 -225 -225 -225 -225 -225 -225 -225 -225 -225 -225 -225 -225 -225 -225 -225 -225 -225 -225 -225 -225 -225 -225 -225 -225 -225 -225 -225 -225 -225 -225 -225 -225 -225 -225 -225 -225 -225 -225 -225 -225 -225 -225 -225 -225 -225 -225 -225 -225 -225 -225 -225 -225 -225 -225 -225 -225 -225 -225 -225 70 69 70 72 79 78 79 82 80 81 83 85 86 85 86 86 86 88 88 87 88 89 89 90 91 91 92 92 95 93 94 97 96 95 94 92 94 95 97 97 99 102 103 104 105 107 107 107 110 112 115 115 116 117 117 117 116 116 116 116 118 119 120 122 128 129 133 134 136 137 136 136 136 135 135 137 140 139 141 141 142 144 146 148 149 149 150 151 156 158 158 156 156 156 0 0 0 0 0
    0 0 0 0 0 0 0 0 0 0 0 0 0 0 0 0 0 0 0 0 0 0 0 0 0 0 0 0 0 0 0 0 0 0 0 0 0 0 0 0 0 0 0 0 0 0 0 0 0 0 0 0 0 0 0 0 0 0 0 0 0 0 0 0 0 0 0 0 0 -193 80 84 -193 -209 -209 -209 -209 -193 -193 -209 -193 85 88 86 85 86 85 83 81 82 81 79 80 80 82 83 85 85 86 86 88 88 88 89 90 89 -225 -225 -225 -225 -225 -225 -225 -225 -225 -225 -225 -225 -225 -225 -225 -225 -225 -225 -225 -225 -225 -225 -225 -225 -225 -225 -225 -225 -225 -225 -225 -225 -225 -225 -225 -225 -225 -225 -225 -225 -225 -225 -225 -225 -225 -225 -225 -225 -225 -225 -225 -225 -225 -225 -225 -225 -225 -225 -225 -225 -225 -225 -225 -225 -225 -225 -225 -225 -225 -225 -225 -225 -225 -225 -225 -225 -225 -225 -225 -225 -225 -225 -225 -225 -225 -225 -225 -225 -225 -225 -225 -225 -225 -225 -225 -225 -225 -225 -225 -225 -225 -225 -225 -225 -225 -225 -225 -225 -225 -225 -225 -225 -225 -225 -225 -225 -193 58 71 81 79 80 83 80 81 83 85 86 86 87 87 87 89 89 89 88 89 89 90 90 91 92 92 94 93 95 97 96 95 93 93 93 94 98 96 99 103 103 104 106 107 107 108 111 113 115 115 115 117 117 117 116 117 117 117 119 120 121 123 130 131 133 133 135 136 136 136 136 135 136 137 140 139 141 141 142 143 146 148 150 149 151 152 157 159 159 157 157 156 0 0 0 0 0
    0 0 0 0 0 0 0 0 0 0 0 0 0 0 0 0 0 0 0 0 0 0 0 0 0 0 0 0 0 0 0 0 0 0 0 0 0 0 0 0 0 0 0 0 0 0 0 0 0 0 0 0 0 0 0 0 0 0 0 0 0 0 0 0 0 0 0 0 0 -193 81 85 -193 -209 -209 -209 -209 -209 -209 -209 -209 89 92 91 88 88 87 87 86 86 86 85 85 86 86 87 88 87 88 87 87 88 87 87 89 -225 -225 -225 -225 -225 -225 -225 -225 -225 -225 -225 -225 -225 -225 -225 -225 -225 -225 -225 -225 -225 -225 -225 -225 -225 -225 -225 -225 -225 -225 -225 -225 -225 -225 -225 -225 -225 -225 -225 -225 -225 -225 -225 -225 -225 -225 -225 -225 -225 -225 -225 -225 -225 -225 -225 -225 -225 -225 -225 -225 -225 -225 -225 -225 -225 -225 -225 -225 -225 -225 -225 -225 -225 -225 -225 -225 -225 -225 -225 -225 -225 -225 -225 -225 -225 -225 -225 -225 -225 -225 -225 -225 -225 -225 -225 -225 -225 -225 -225 -225 -225 -225 -225 -225 -225 -225 -225 -225 -225 -225 -225 -225 -225 -225 -225 -225 -225 -225 56 67 76 77 79 82 79 81 84 87 88 87 88 89 88 90 90 90 89 89 90 90 90 92 93 93 95 93 96 97 97 96 95 93 94 94 98 95 97 100 103 103 105 106 106 107 110 112 114 115 115 116 117 118 117 118 119 119 121 121 123 125 -193 -193 132 132 134 135 135 135 136 135 135 137 140 139 140 140 141 142 144 147 150 151 152 153 157 159 159 158 158 158 0 0 0 0 0
    0 0 0 0 0 0 0 0 0 0 0 0 0 0 0 0 0 0 0 0 0 0 0 0 0 0 0 0 0 0 0 0 0 0 0 0 0 0 0 0 0 0 0 0 0 0 0 0 0 0 0 0 0 0 0 0 0 0 0 0 0 0 0 0 0 0 0 0 0 78 81 85 -193 -209 -209 -209 -209 -193 -209 100 93 98 99 94 93 93 92 89 87 87 87 86 86 87 87 87 88 87 88 87 88 88 87 -225 -225 -225 -225 -225 -225 -225 -225 -225 -225 -225 -225 -225 -225 -225 -225 -225 -225 -225 -225 -225 -225 -225 -225 -225 -225 -225 -225 -225 -225 -225 -225 -225 -225 -225 -225 -225 -225 -225 -225 -225 -225 -225 -225 -225 -225 -225 -225 -225 -225 -225 -225 -225 -225 -225 -225 -225 -225 -225 -225 -225 -225 -225 -225 -225 -225 -225 -225 -225 -225 -225 -225 -225 -225 -225 -225 -225 -225 -225 -225 -225 -225 -225 -225 -225 -225 -225 -225 -225 -225 -225 -225 -225 -225 -225 -225 -225 -225 -225 -225 -225 -225 -225 -225 -225 -225 -225 -225 -225 -225 -225 -225 -225 -225 -225 -225 -225 -225 -225 -225 -225 -225 74 78 81 82 80 81 84 88 89 89 89 90 90 91 90 90 90 89 90 91 90 92 92 93 95 93 96 96 97 97 96 95 96 96 99 97 99 100 102 103 104 105 104 106 107 109 111 112 112 115 116 117 117 118 119 119 121 122 124 125 129 130 132 131 134 134 134 135 135 135 136 137 140 139 140 140 140 141 142 147 150 151 152 154 158 160 160 158 159 159 0 0 0 0 0
    0 0 0 0 0 0 0 0 0 0 0 0 0 0 0 0 0 0 0 0 0 0 0 0 0 0 0 0 0 0 0 0 0 0 0 0 0 0 0 0 0 0 0 0 0 0 0 0 0 0 0 0 0 0 0 0 0 0 0 0 0 0 0 0 0 0 0 0 0 78 81 85 84 -193 -209 -209 -209 -209 -193 101 98 100 101 98 99 100 98 94 91 91 90 89 89 89 88 87 88 87 87 87 87 87 -225 -225 -225 -225 -225 -225 -225 -225 -225 -225 -225 -225 -225 -225 -225 -225 -225 -225 -225 -225 -225 -225 -225 -225 -225 -225 -225 -225 -225 -225 -225 -225 -225 -225 -225 -225 -225 -225 -225 -225 -225 -225 -225 -225 -225 -225 -225 -225 -225 -225 -225 -225 -225 -225 -225 -225 -225 -225 -225 -225 -225 -225 -225 -225 -225 -225 -225 -225 -225 -225 -225 -225 -225 -225 -225 -225 -225 -225 -225 -225 -225 -225 -225 -225 -225 -225 -225 -225 -225 -225 -225 -225 -225 -225 -225 -225 -225 -225 -225 -225 -225 -225 -225 -225 -225 -225 -225 -225 -225 -225 -225 -225 -225 -225 -225 -225 -225 -225 -225 -225 -225 -225 -225 -225 75 80 78 79 82 85 89 90 91 91 92 91 92 92 92 91 91 91 92 92 93 93 93 94 93 96 95 96 96 96 97 99 100 101 99 101 102 103 103 103 103 102 105 106 108 109 110 110 113 115 116 116 118 119 119 122 122 124 125 128 128 130 130 133 134 134 135 135 135 136 137 140 139 140 140 140 141 143 147 150 151 152 154 157 159 160 158 158 158 0 0 0 0 0
    0 0 0 0 0 0 0 0 0 0 0 0 0 0 0 0 0 0 0 0 0 0 0 0 0 0 0 0 0 0 0 0 0 0 0 0 0 0 0 0 0 0 0 0 0 0 0 0 0 0 0 0 0 0 0 0 0 0 0 0 0 0 0 0 0 0 0 0 0 77 81 83 83 -209 -209 -209 -209 -209 96 104 103 103 104 101 100 99 98 96 92 94 93 91 90 90 89 88 87 87 86 85 -225 -225 -225 -225 -225 -225 -225 -225 -225 -225 -225 -225 -225 -225 -225 -225 -225 -225 -225 -225 -225 -225 -225 -225 -225 -225 -225 -225 -225 -225 -225 -225 -225 -225 -225 -225 -225 -225 -225 -225 -225 -225 -225 -225 -225 -225 -225 -225 -225 -225 -225 -225 -225 -225 -225 -225 -225 -225 -225 -225 -225 -225 -225 -225 -225 -225 -225 -225 -225 -225 -225 -225 -225 -225 -225 -225 -225 -225 -225 -225 -225 -225 -225 -225 -225 -225 -225 -225 -225 -225 -225 -225 -225 -225 -225 -225 -225 -225 -225 -225 -225 -225 -225 -225 -225 -225 -225 -225 -225 -225 -225 -225 -225 -225 -225 -225 -225 -225 -225 -225 -225 -225 -225 -225 -225 -225 -225 82 79 81 84 87 93 91 93 93 94 92 93 95 94 93 92 92 93 93 94 95 93 94 93 96 95 96 96 98 99 100 102 103 102 103 104 104 103 103 103 102 105 107 108 109 109 110 112 114 116 116 117 119 119 122 122 124 124 125 125 127 128 132 133 133 134 135 135 136 137 141 139 141 140 141 142 144 148 150 151 151 153 156 158 158 157 157 156 0 0 0 0 0
    0 0 0 0 0 0 0 0 0 0 0 0 0 0 0 0 0 0 0 0 0 0 0 0 0 0 0 0 0 0 0 0 0 0 0 0 0 0 0 0 0 0 0 0 0 0 0 0 0 0 0 0 0 0 0 0 0 0 0 0 0 0 0 0 0 0 0 0 0 77 80 81 81 84 -209 -209 -209 88 93 105 103 103 105 102 101 100 100 98 95 98 95 92 91 91 89 89 89 89 87 -225 -225 -225 -225 -225 -225 -225 -225 -225 -225 -225 -225 -225 -225 -225 -225 -225 -225 -225 -225 -225 -225 -225 -225 -225 -225 -225 -225 -225 -225 -225 -225 -225 -225 -225 -225 -225 -225 -225 -225 -225 -225 -225 -225 -225 -225 -225 -225 -225 -225 -225 -225 -225 -225 -225 -225 -225 -225 -225 -225 -225 -225 -225 -225 -225 -225 -225 -225 -225 -225 -225 -225 -225 -225 -225 -225 -225 -225 -225 -225 -225 -225 -225 -225 -225 -225 -225 -225 -225 -225 -225 -225 -225 -225 -225 -225 -225 -225 -225 -225 -225 -225 -225 -225 -225 -225 -225 -225 -225 -225 -225 -225 -225 -225 -225 -225 -225 -225 -225 -225 -225 -225 -225 -225 -225 -225 -225 -225 -225 -225 81 82 88 100 95 96 95 96 94 95 98 97 97 95 95 95 95 96 96 94 95 93 95 95 97 97 100 101 102 103 105 105 105 105 105 104 102 102 102 105 106 107 109 109 110 113 115 117 117 117 119 119 121 122 123 124 124 125 126 127 131 132 133 133 133 134 135 -193 -193 -209 -193 -193 140 142 143 147 148 149 151 153 154 156 156 155 156 156 0 0 0 0 0
    0 0 0 0 0 0 0 0 0 0 0 0 0 0 0 0 0 0 0 0 0 0 0 0 0 0 0 0 0 0 0 0 0 0 0 0 0 0 0 0 0 0 0 0 0 0 0 0 0 0 0 0 0 0 0 0 0 0 0 0 0 0 0 0 0 0 0 0 0 77 80 80 80 83 83 84 86 88 95 105 103 102 104 102 101 100 100 98 96 96 95 92 91 90 89 88 89 88 -225 -225 -225 -225 -225 -225 -225 -225 -225 -225 -225 -225 -225 -225 -225 -225 -225 -225 -225 -225 -225 -225 -225 -225 -225 -225 -225 -225 -225 -225 -225 -225 -225 -225 -225 -225 -225 -225 -225 -225 -225 -225 -225 -225 -225 -225 -225 -225 -225 -225 -225 -225 -225 -225 -225 -225 -225 -225 -225 -225 -225 -225 -225 -225 -225 -225 -225 -225 -225 -225 -225 -225 -225 -225 -225 -225 -225 -225 -225 -225 -225 -225 -225 -225 -225 -225 -225 -225 -225 -225 -225 -225 -225 -225 -225 -225 -225 -225 -225 -225 -225 -225 -225 -225 -225 -225 -225 -225 -225 -225 -225 -225 -225 -225 -225 -225 -225 -225 -225 -225 -225 -225 -225 -225 -225 -225 -225 -225 -225 -225 -225 -225 81 86 96 92 94 94 93 92 94 99 98 97 97 96 96 98 98 97 94 95 93 95 96 98 98 101 102 104 105 108 107 107 106 107 105 102 102 101 103 105 106 107 107 108 111 114 117 116 117 119 119 121 122 123 123 123 124 125 126 130 131 132 133 133 134 -193 -209 -193 -209 -193 -193 139 141 142 146 149 150 151 155 155 157 157 155 156 157 0 0 0 0 0
    0 0 0 0 0 0 0 0 0 0 0 0 0 0 0 0 0 0 0 0 0 0 0 0 0 0 0 0 0 0 0 0 0 0 0 0 0 0 0 0 0 0 0 0 0 0 0 0 0 0 0 0 0 0 0 0 0 0 0 0 0 0 0 0 0 0 0 0 0 79 81 82 82 86 86 87 90 91 99 106 103 103 104 102 102 101 101 99 96 96 94 92 91 91 90 89 -225 -225 -225 -225 -225 -225 -225 -225 -225 -225 -225 -225 -225 -225 -225 -225 -225 -225 -225 -225 -225 -225 -225 -225 -225 -225 -225 -225 -225 -225 -225 -225 -225 -225 -225 -225 -225 -225 -225 -225 -225 -225 -225 -225 -225 -225 -225 -225 -225 -225 -225 -225 -225 -225 -225 -225 -225 -225 -225 -225 -225 -225 -225 -225 -225 -225 -225 -225 -225 -225 -225 -225 -225 -225 -225 -225 -225 -225 -225 -225 -225 -225 -225 -225 -225 -225 -225 -225 -225 -225 -225 -225 -225 -225 -225 -225 -225 -225 -225 -225 -225 -225 -225 -225 -225 -225 -225 -225 -225 -225 -225 -225 -225 -225 -225 -225 -225 -225 -225 -225 -225 -225 -225 -225 -225 -225 -225 -225 -225 -225 -225 -225 -225 -225 -225 86 95 92 93 93 92 92 93 98 99 99 98 99 98 99 99 97 95 95 94 95 95 97 98 101 103 104 105 109 108 109 107 108 106 104 103 104 104 106 106 107 106 106 108 112 114 114 115 119 120 122 122 123 122 123 123 125 126 128 129 131 132 132 133 133 -193 -209 -209 -209 -193 138 140 142 146 150 153 153 156 156 157 158 156 156 157 0 0 0 0 0
    0 0 0 0 0 0 0 0 0 0 0 0 0 0 0 0 0 0 0 0 0 0 0 0 0 0 0 0 0 0 0 0 0 0 0 0 0 0 0 0 0 0 0 0 0 0 0 0 0 0 0 0 0 0 0 0 0 0 0 0 0 0 0 0 0 0 0 0 0 -193 82 -193 83 88 -193 -193 93 96 103 106 104 104 105 103 103 102 102 99 96 96 94 92 91 92 91 -225 -225 -225 -225 -225 -225 -225 -225 -225 -225 -225 -225 -225 -225 -225 -225 -225 -225 -225 -225 -225 -225 -225 -225 -225 -225 -225 -225 -225 -225 -225 -225 -225 -225 -225 -225 -225 -225 -225 -225 -225 -225 -225 -225 -225 -225 -225 -225 -225 -225 -225 -225 -225 -225 -225 -225 -225 -225 -225 -225 -225 -225 -225 -225 -225 -225 -225 -225 -225 -225 -225 -225 -225 -225 -225 -225 -225 -225 -225 -225 -225 -225 -225 -225 -225 -225 -225 -225 -225 -225 -225 -225 -225 -225 -225 -225 -225 -225 -225 -225 -225 -225 -225 -225 -225 -225 -225 -225 -225 -225 -225 -225 -225 -225 -225 -225 -225 -225 -225 -225 -225 -225 -225 -225 -225 -225 -225 -225 -225 -225 -225 -225 -225 -225 -225 -225 -225 94 93 93 94 94 93 95 100 100 101 99 101 100 100 99 97 94 96 93 96 95 96 98 101 104 105 105 108 108 109 108 108 107 105 105 105 105 106 106 107 106 106 107 110 112 112 114 120 121 123 123 123 123 124 124 125 126 126 128 130 131 132 133 134 135 138 137 138 -193 139 142 145 149 152 154 153 156 157 157 157 156 157 157 0 0 0 0 0
    0 0 0 0 0 0 0 0 0 0 0 0 0 0 0 0 0 0 0 0 0 0 0 0 0 0 0 0 0 0 0 0 0 0 0 0 0 0 0 0 0 0 0 0 0 0 0 0 0 0 0 0 0 0 0 0 0 0 0 0 0 0 0 0 0 0 0 0 0 -193 -193 -193 83 88 -193 -193 104 104 105 107 106 105 106 104 104 103 102 99 96 94 93 92 91 -225 -225 -225 -225 -225 -225 -225 -225 -225 -225 -225 -225 -225 -225 -225 -225 -225 -225 -225 -225 -225 -225 -225 -225 -225 -225 -225 -225 -225 -225 -225 -225 -225 -225 -225 -225 -225 -225 -225 -225 -225 -225 -225 -225 -225 -225 -225 -225 -225 -225 -225 -225 -225 -225 -225 -225 -225 -225 -225 -225 -225 -225 -225 -225 -225 -225 -225 -225 -225 -225 -225 -225 -225 -225 -225 -225 -225 -225 -225 -225 -225 -225 -225 -225 -225 -225 -225 -225 -225 -225 -225 -225 -225 -225 -225 -225 -225 -225 -225 -225 -225 -225 -225 -225 -225 -225 -225 -225 -225 -225 -225 -225 -225 -225 -225 -225 -225 -225 -225 -225 -225 -225 -225 -225 -225 -225 -225 -225 -225 -225 -225 -225 -225 -225 -225 -225 -225 -225 -225 -225 -225 93 97 95 95 98 102 101 102 101 102 102 101 101 100 97 99 95 98 97 99 101 103 105 105 105 109 108 110 108 108 107 105 105 105 105 105 105 105 106 105 107 109 112 113 116 121 123 124 125 124 124 124 124 126 126 127 127 129 130 131 132 133 135 -193 135 137 137 139 141 145 149 152 153 153 156 155 156 156 155 155 -193 0 0 0 0 0
    0 0 0 0 0 0 0 0 0 0 0 0 0 0 0 0 0 0 0 0 0 0 0 0 0 0 0 0 0 0 0 0 0 0 0 0 0 0 0 0 0 0 0 0 0 0 0 0 0 0 0 0 0 0 0 0 0 0 0 0 0 0 0 0 0 0 0 0 0 -209 -193 -193 84 88 -193 109 110 108 107 109 108 107 108 107 105 103 102 98 96 95 94 92 -225 -225 -225 -225 -225 -225 -225 -225 -225 -225 -225 -225 -225 -225 -225 -225 -225 -225 -225 -225 -225 -225 -225 -225 -225 -225 -225 -225 -225 -225 -225 -225 -225 -225 -225 -225 -225 -225 -225 -225 -225 -225 -225 -225 -225 -225 -225 -225 -225 -225 -225 -225 -225 -225 -225 -225 -225 -225 -225 -225 -225 -225 -225 -225 -225 -225 -225 -225 -225 -225 -225 -225 -225 -225 -225 -225 -225 -225 -225 -225 -225 -225 -225 -225 -225 -225 -225 -225 -225 -225 -225 -225 -225 -225 -225 -225 -225 -225 -225 -225 -225 -225 -225 -225 -225 -225 -225 -225 -225 -225 -225 -225 -225 -225 -225 -225 -225 -225 -225 -225 -225 -225 -225 -225 -225 -225 -225 -225 -225 -225 -225 -225 -225 -225 -225 -225 -225 -225 -225 -225 -225 -225 -225 -225 93 94 100 104 102 103 101 102 102 102 102 101 100 101 99 101 100 103 105 105 107 107 107 110 109 111 110 109 109 107 107 107 106 108 105 106 106 105 107 108 110 112 115 120 122 124 125 125 125 126 125 127 128 129 129 131 131 132 132 133 134 135 133 134 135 137 139 141 145 149 150 152 154 154 153 154 154 -193 -209 0 0 0 0 0
    0 0 0 0 0 0 0 0 0 0 0 0 0 0 0 0 0 0 0 0 0 0 0 0 0 0 0 0 0 0 0 0 0 0 0 0 0 0 0 0 0 0 0 0 0 0 0 0 0 0 0 0 0 0 0 0 0 0 0 0 0 0 0 0 0 0 0 0 0 -209 -209 82 86 96 108 110 111 110 109 110 109 108 109 107 105 103 101 99 97 97 96 -225 -225 -225 -225 -225 -225 -225 -225 -225 -225 -225 -225 -225 -225 -225 -225 -225 -225 -225 -225 -225 -225 -225 -225 -225 -225 -225 -225 -225 -225 -225 -225 -225 -225 -225 -225 -225 -225 -225 -225 -225 -225 -225 -225 -225 -225 -225 -225 -225 -225 -225 -225 -225 -225 -225 -225 -225 -225 -225 -225 -225 -225 -225 -225 -225 -225 -225 -225 -225 -225 -225 -225 -225 -225 -225 -225 -225 -225 -225 -225 -225 -225 -225 -225 -225 -225 -225 -225 -225 -225 -225 -225 -225 -225 -225 -225 -225 -225 -225 -225 -225 -225 -225 -225 -225 -225 -225 -225 -225 -225 -225 -225 -225 -225 -225 -225 -225 -225 -225 -225 -225 -225 -225 -225 -225 -225 -225 -225 -225 -225 -225 -225 -225 -225 -225 -225 -225 -225 -225 -225 -225 -225 -225 -225 -225 90 92 99 103 101 103 101 102 102 102 103 102 102 102 100 102 102 105 105 106 108 107 108 112 110 112 110 111 111 109 109 110 109 113 109 109 109 107 107 109 107 110 113 121 123 -209 126 125 125 126 125 127 129 129 130 132 132 132 132 133 133 133 132 131 132 135 137 139 142 146 148 151 154 154 152 153 154 153 -193 0 0 0 0 0
    0 0 0 0 0 0 0 0 0 0 0 0 0 0 0 0 0 0 0 0 0 0 0 0 0 0 0 0 0 0 0 0 0 0 0 0 0 0 0 0 0 0 0 0 0 0 0 0 0 0 0 0 0 0 0 0 0 0 0 0 0 0 0 0 0 0 0 0 0 -209 -209 -193 -193 107 114 117 117 116 114 115 114 111 111 108 106 104 102 100 98 -225 -225 -225 -225 -225 -225 -225 -225 -225 -225 -225 -225 -225 -225 -225 -225 -225 -225 -225 -225 -225 -225 -225 -225 -225 -225 -225 -225 -225 -225 -225 -225 -225 -225 -225 -225 -225 -225 -225 -225 -225 -225 -225 -225 -225 -225 -225 -225 -225 -225 -225 -225 -225 -225 -225 -225 -225 -225 -225 -225 -225 -225 -225 -225 -225 -225 -225 -225 -225 -225 -225 -225 -225 -225 -225 -225 -225 -225 -225 -225 -225 -225 -225 -225 -225 -225 -225 -225 -225 -225 -225 -225 -225 -225 -225 -225 -225 -225 -225 -225 -225 -225 -225 -225 -225 -225 -225 -225 -225 -225 -225 -225 -225 -225 -225 -225 -225 -225 -225 -225 -225 -225 -225 -225 -225 -225 -225 -225 -225 -225 -225 -225 -225 -225 -225 -225 -225 -225 -225 -225 -225 -225 -225 -225 -225 -225 -225 -225 94 100 103 102 104 103 103 103 104 104 103 105 105 103 104 104 106 107 107 110 108 109 112 110 113 111 112 113 113 114 115 114 118 115 114 112 110 109 112 112 118 117 120 122 124 125 124 124 124 124 126 126 128 129 131 131 132 131 132 132 131 131 129 130 134 136 138 141 144 147 150 153 153 152 153 154 154 -193 0 0 0 0 0
    0 0 0 0 0 0 0 0 0 0 0 0 0 0 0 0 0 0 0 0 0 0 0 0 0 0 0 0 0 0 0 0 0 0 0 0 0 0 0 0 0 0 0 0 0 0 0 0 0 0 0 0 0 0 0 0 0 0 0 0 0 0 0 0 0 0 0 0 0 -193 107 -193 110 111 116 117 117 117 116 116 114 111 110 107 106 106 104 102 -225 -225 -225 -225 -225 -225 -225 -225 -225 -225 -225 -225 -225 -225 -225 -225 -225 -225 -225 -225 -225 -225 -225 -225 -225 -225 -225 -225 -225 -225 -225 -225 -225 -225 -225 -225 -225 -225 -225 -225 -225 -225 -225 -225 -225 -225 -225 -225 -225 -225 -225 -225 -225 -225 -225 -225 -225 -225 -225 -225 -225 -225 -225 -225 -225 -225 -225 -225 -225 -225 -225 -225 -225 -225 -225 -225 -225 -225 -225 -225 -225 -225 -225 -225 -225 -225 -225 -225 -225 -225 -225 -225 -225 -225 -225 -225 -225 -225 -225 -225 -225 -225 -225 -225 -225 -225 -225 -225 -225 -225 -225 -225 -225 -225 -225 -225 -225 -225 -225 -225 -225 -225 -225 -225 -225 -225 -225 -225 -225 -225 -225 -225 -225 -225 -225 -225 -225 -225 -225 -225 -225 -225 -225 -225 -225 -225 -225 -225 -225 -225 101 104 104 105 105 105 105 104 106 105 106 107 105 106 106 109 111 110 113 111 111 115 112 114 114 115 116 116 116 117 116 119 117 116 114 112 111 113 115 117 116 120 121 123 125 123 123 124 124 127 125 126 127 129 131 132 129 130 130 130 129 127 127 130 133 137 139 142 147 151 153 154 152 153 153 154 154 0 0 0 0 0
    0 0 0 0 0 0 0 0 0 0 0 0 0 0 0 0 0 0 0 0 0 0 0 0 0 0 0 0 0 0 0 0 0 0 0 0 0 0 0 0 0 0 0 0 0 0 0 0 0 0 0 0 0 0 0 0 0 0 0 0 0 0 0 0 0 0 0 0 0 112 114 114 116 115 118 118 119 118 118 116 114 111 109 108 107 106 105 -225 -225 -225 -225 -225 -225 -225 -225 -225 -225 -225 -225 -225 -225 -225 -225 -225 -225 -225 -225 -225 -225 -225 -225 -225 -225 -225 -225 -225 -225 -225 -225 -225 -225 -225 -225 -225 -225 -225 -225 -225 -225 -225 -225 -225 -225 -225 -225 -225 -225 -225 -225 -225 -225 -225 -225 -225 -225 -225 -225 -225 -225 -225 -225 -225 -225 -225 -225 -225 -225 -225 -225 -225 -225 -225 -225 -225 -225 -225 -225 -225 -225 -225 -225 -225 -225 -225 -225 -225 -225 -225 -225 -225 -225 -225 -225 -225 -225 -225 -225 -225 -225 -225 -225 -225 -225 -225 -225 -225 -225 -225 -225 -225 -225 -225 -225 -225 -225 -225 -225 -225 -225 -225 -225 -225 -225 -225 -225 -225 -225 -225 -225 -225 -225 -225 -225 -225 -225 -225 -225 -225 -225 -225 -225 -225 -225 -225 -225 -225 -225 -225 -225 102 102 102 101 103 103 103 104 104 106 107 107 107 108 110 111 111 113 111 111 113 112 114 115 117 117 117 118 118 118 120 119 117 115 114 113 115 116 117 115 119 120 122 124 123 123 124 125 128 126 127 128 130 131 133 131 131 131 130 130 128 126 128 132 137 139 144 148 151 153 154 152 153 153 153 153 0 0 0 0 0
    0 0 0 0 0 0 0 0 0 0 0 0 0 0 0 0 0 0 0 0 0 0 0 0 0 0 0 0 0 0 0 0 0 0 0 0 0 0 0 0 0 0 0 0 0 0 0 0 0 0 0 0 0 0 0 0 0 0 0 0 0 0 0 0 0 0 0 0 0 118 118 119 120 119 121 121 121 120 119 117 114 113 111 110 109 -225 -225 -225 -225 -225 -225 -225 -225 -225 -225 -225 -225 -225 -225 -225 -225 -225 -225 -225 -225 -225 -225 -225 -225 -225 -225 -225 -225 -225 -225 -225 -225 -225 -225 -225 -225 -225 -225 -225 -225 -225 -225 -225 -225 -225 -225 -225 -225 -225 -225 -225 -225 -225 -225 -225 -225 -225 -225 -225 -225 -225 -225 -225 -225 -225 -225 -225 -225 -225 -225 -225 -225 -225 -225 -225 -225 -225 -225 -225 -225 -225 -225 -225 -225 -225 -225 -225 -225 -225 -225 -225 -225 -225 -225 -225 -225 -225 -225 -225 -225 -225 -225 -225 -225 -225 -225 -225 -225 -225 -225 -225 -225 -225 -225 -225 -225 -225 -225 -225 -225 -225 -225 -225 -225 -225 -225 -225 -225 -225 -225 -225 -225 -225 -225 -225 -225 -225 -225 -225 -225 -225 -225 -225 -225 -225 -225 -225 -225 -225 -225 -225 -225 -225 -225 -225 -225 100 98 101 101 100 102 102 106 107 107 108 110 111 113 112 114 111 113 114 113 115 117 118 118 118 119 118 119 120 119 118 116 116 117 117 118 118 117 120 121 122 124 124 124 124 125 128 126 128 128 130 131 133 131 132 132 131 129 128 127 128 131 137 139 143 148 150 153 153 152 152 153 154 154 0 0 0 0 0
    0 0 0 0 0 0 0 0 0 0 0 0 0 0 0 0 0 0 0 0 0 0 0 0 0 0 0 0 0 0 0 0 0 0 0 0 0 0 0 0 0 0 0 0 0 0 0 0 0 0 0 0 0 0 0 0 0 0 0 0 0 0 0 0 0 0 0 0 0 120 120 121 123 123 124 124 122 122 119 117 116 116 113 111 -225 -225 -225 -225 -225 -225 -225 -225 -225 -225 -225 -225 -225 -225 -225 -225 -225 -225 -225 -225 -225 -225 -225 -225 -225 -225 -225 -225 -225 -225 -225 -225 -225 -225 -225 -225 -225 -225 -225 -225 -225 -225 -225 -225 -225 -225 -225 -225 -225 -225 -225 -225 -225 -225 -225 -225 -225 -225 -225 -225 -225 -225 -225 -225 -225 -225 -225 -225 -225 -225 -225 -225 -225 -225 -225 -225 -225 -225 -225 -225 -225 -225 -225 -225 -225 -225 -225 -225 -225 -225 -225 -225 -225 -225 -225 -225 -225 -225 -225 -225 -225 -225 -225 -225 -225 -225 -225 -225 -225 -225 -225 -225 -225 -225 -225 -225 -225 -225 -225 -225 -225 -225 -225 -225 -225 -225 -225 -225 -225 -225 -225 -225 -225 -225 -225 -225 -225 -225 -225 -225 -225 -225 -225 -225 -225 -225 -225 -225 -225 -225 -225 -225 -225 -225 -225 -225 -225 -225 98 100 103 101 104 103 107 107 108 110 112 112 114 111 115 112 116 116 114 117 117 118 118 118 119 119 119 120 118 118 117 117 117 117 117 117 117 120 121 122 123 124 124 125 125 128 125 127 127 129 130 132 131 132 133 131 128 127 126 128 128 134 138 141 145 148 151 152 151 152 152 154 155 0 0 0 0 0
    0 0 0 0 0 0 0 0 0 0 0 0 0 0 0 0 0 0 0 0 0 0 0 0 0 0 0 0 0 0 0 0 0 0 0 0 0 0 0 0 0 0 0 0 0 0 0 0 0 0 0 0 0 0 0 0 0 0 0 0 0 0 0 0 0 0 0 0 0 122 122 123 125 128 127 126 123 122 120 119 118 117 115 -225 -225 -225 -225 -225 -225 -225 -225 -225 -225 -225 -225 -225 -225 -225 -225 -225 -225 -225 -225 -225 -225 -225 -225 -225 -225 -225 -225 -225 -225 -225 -225 -225 -225 -225 -225 -225 -225 -225 -225 -225 -225 -225 -225 -225 -225 -225 -225 -225 -225 -225 -225 -225 -225 -225 -225 -225 -225 -225 -225 -225 -225 -225 -225 -225 -225 -225 -225 -225 -225 -225 -225 -225 -225 -225 -225 -225 -225 -225 -225 -225 -225 -225 -225 -225 -225 -225 -225 -225 -225 -225 -225 -225 -225 -225 -225 -225 -225 -225 -225 -225 -225 -225 -225 -225 -225 -225 -225 -225 -225 -225 -225 -225 -225 -225 -225 -225 -225 -225 -225 -225 -225 -225 -225 -225 -225 -225 -225 -225 -225 -225 -225 -225 -225 -225 -225 -225 -225 -225 -225 -225 -225 -225 -225 -225 -225 -225 -225 -225 -225 -225 -225 -225 -225 -225 -225 -225 -225 -225 -225 99 101 102 106 104 107 107 108 110 114 115 116 114 117 117 120 121 120 121 121 120 120 120 121 120 120 121 120 119 118 118 119 118 119 119 119 121 122 123 123 123 124 123 125 127 124 126 126 128 129 131 130 130 132 130 127 126 125 126 128 134 138 140 142 146 150 151 150 151 152 154 156 0 0 0 0 0</data></disparity>
</opencv_storage>
