<?xml version="1.0"?>
<opencv_storage>
<gps_time_stamp>292422</gps_time_stamp>
<gps_x>-1.2352207183837891e+001</gps_x>
<gps_y>1.1113489151000977e+001</gps_y>
<gps_z>-2.1867623329162598e+000</gps_z>
<image_time_stamp>283260</image_time_stamp>
<disparity type_id="opencv-matrix">
  <rows>91</rows>
  <cols>320</cols>
  <dt>s</dt>
  <data>
    0 0 0 0 0 0 0 0 0 0 0 0 0 0 0 0 0 0 0 0 0 0 0 0 0 0 0 0 0 0 0 0 0 0 0 0 0 0 0 0 0 0 0 0 0 0 0 0 0 0 0 0 0 0 0 0 0 0 0 0 0 0 0 0 0 0 0 0 0 982 -209 -209 -209 -209 -209 -209 94 93 94 99 100 101 100 100 100 100 100 100 99 99 99 98 98 98 98 96 95 95 96 93 92 92 90 90 88 87 87 88 86 86 86 87 87 89 90 90 87 91 93 93 93 93 96 96 96 94 96 96 97 96 95 95 96 101 102 103 104 105 106 106 105 107 106 106 106 106 103 103 101 100 99 98 97 96 93 96 91 91 86 86 86 88 90 89 88 88 88 88 89 90 90 90 91 94 97 102 107 106 106 106 106 106 106 106 107 104 103 103 102 103 102 103 103 100 101 99 89 -193 -193 90 90 92 95 98 97 98 98 97 96 95 98 -193 90 95 -193 94 93 100 94 94 94 98 94 94 94 95 93 95 96 97 94 100 100 100 101 102 104 106 106 108 109 110 113 112 110 109 106 105 104 101 98 95 97 98 99 99 99 101 -193 100 -193 -193 -193 -209 -193 -209 -193 -193 -193 -193 -193 -193 -193 -193 100 100 101 102 102 -193 101 101 -193 100 -193 -193 -193 -209 -193 -193 91 94 92 94 93 94 99 102 102 103 105 106 107 107 107 106 105 111 121 121 125 108 108 114 109 0 0 0 0 0
    0 0 0 0 0 0 0 0 0 0 0 0 0 0 0 0 0 0 0 0 0 0 0 0 0 0 0 0 0 0 0 0 0 0 0 0 0 0 0 0 0 0 0 0 0 0 0 0 0 0 0 0 0 0 0 0 0 0 0 0 0 0 0 0 0 0 0 0 0 -209 -209 -209 -209 -209 -209 -209 -193 90 90 95 99 101 99 99 99 100 100 100 98 98 98 98 98 98 98 96 96 95 96 94 93 92 91 90 88 87 87 89 87 88 88 89 89 91 91 91 88 92 93 94 92 93 94 95 95 93 94 94 95 95 94 94 95 100 102 102 103 104 105 104 104 105 104 104 105 104 102 102 100 100 98 98 97 96 92 95 90 90 85 86 85 88 90 89 89 88 88 89 89 90 90 89 90 92 94 101 104 104 105 105 105 106 105 105 106 103 103 102 101 102 101 102 102 99 98 95 87 84 85 85 86 89 91 95 95 96 96 95 95 93 95 -193 90 93 -209 94 94 99 94 94 94 98 94 94 94 94 93 95 95 97 93 99 99 99 100 102 104 106 106 108 109 110 112 111 109 108 105 104 103 99 96 94 97 98 99 99 99 100 -193 -193 -193 -193 -209 -193 99 99 -193 -193 -193 -193 -193 -193 -193 98 99 99 101 102 102 102 101 101 -193 100 -193 -193 -193 -193 -193 92 90 93 92 93 92 94 100 102 101 103 105 106 107 108 107 107 106 117 123 124 126 -193 114 114 109 0 0 0 0 0
    0 0 0 0 0 0 0 0 0 0 0 0 0 0 0 0 0 0 0 0 0 0 0 0 0 0 0 0 0 0 0 0 0 0 0 0 0 0 0 0 0 0 0 0 0 0 0 0 0 0 0 0 0 0 0 0 0 0 0 0 0 0 0 0 0 0 0 0 0 -209 -209 -209 -209 -209 -209 -209 -209 88 88 90 93 95 95 96 98 98 100 99 98 98 97 97 97 98 98 96 95 95 96 94 93 92 91 90 88 87 87 90 89 89 89 90 90 92 93 93 89 92 94 93 92 93 93 94 -193 93 93 93 94 94 93 93 95 99 101 102 102 102 103 103 103 103 102 102 103 103 101 101 99 99 98 98 96 95 92 93 89 -209 84 86 86 88 91 90 90 89 89 90 90 90 90 89 89 89 92 99 102 102 102 103 103 105 103 105 105 102 102 102 101 101 100 101 102 99 98 95 89 86 87 87 88 89 91 93 94 94 96 95 94 93 94 94 92 96 93 96 96 98 94 94 94 98 94 94 94 94 93 95 95 96 93 98 98 99 100 102 104 105 106 108 108 108 109 107 106 105 103 100 99 96 93 92 95 96 97 99 100 100 100 -193 -193 100 -209 -193 100 100 -193 -193 -193 -193 -209 -193 -193 -193 -193 99 101 102 101 101 101 102 -193 100 -193 97 94 89 91 95 92 93 92 93 92 94 100 101 100 103 104 105 107 108 107 108 109 119 124 128 127 125 124 119 117 0 0 0 0 0
    0 0 0 0 0 0 0 0 0 0 0 0 0 0 0 0 0 0 0 0 0 0 0 0 0 0 0 0 0 0 0 0 0 0 0 0 0 0 0 0 0 0 0 0 0 0 0 0 0 0 0 0 0 0 0 0 0 0 0 0 0 0 0 0 0 0 0 0 0 -193 -209 -209 -209 -193 -193 -193 -209 85 85 87 89 90 92 95 98 97 99 98 96 96 96 95 95 95 96 95 95 94 95 93 93 92 90 90 88 87 87 90 90 89 90 91 91 93 94 94 89 92 93 93 92 94 93 93 -193 -193 94 94 95 94 93 93 94 97 99 100 100 101 101 102 102 102 102 102 103 103 101 101 99 99 98 97 96 95 92 93 90 -193 85 -193 86 88 92 90 90 90 90 90 90 91 91 89 89 89 91 96 98 99 100 101 102 104 102 103 103 102 102 102 100 101 99 101 101 100 95 94 91 90 91 90 91 91 92 94 94 95 96 96 95 95 95 96 93 97 95 97 96 97 93 94 94 98 94 94 93 94 93 95 96 96 93 98 98 99 100 102 104 105 106 108 107 107 108 106 105 104 101 98 95 93 91 91 93 94 94 96 97 97 97 98 100 99 99 100 99 100 -193 -193 101 -193 -209 -193 -193 -193 -193 -193 -193 -209 101 101 101 102 -209 102 98 99 96 91 94 98 93 94 93 94 93 96 100 101 100 103 105 105 106 108 107 109 113 121 127 131 129 127 127 122 123 0 0 0 0 0
    0 0 0 0 0 0 0 0 0 0 0 0 0 0 0 0 0 0 0 0 0 0 0 0 0 0 0 0 0 0 0 0 0 0 0 0 0 0 0 0 0 0 0 0 0 0 0 0 0 0 0 0 0 0 0 0 0 0 0 0 0 0 0 0 0 0 0 0 0 -209 -209 -209 -209 -209 -209 -193 78 81 83 84 87 87 89 93 97 96 97 97 95 95 96 95 95 94 95 95 94 94 95 93 92 92 90 90 87 87 87 91 90 90 90 92 92 94 95 95 90 92 93 93 92 94 93 93 -193 95 93 93 94 93 93 94 94 95 98 99 100 100 100 101 101 101 100 100 101 102 100 100 98 97 96 97 95 94 92 92 90 89 87 -193 88 89 93 91 91 90 91 91 90 91 91 89 89 90 91 95 96 97 97 100 100 103 101 102 101 103 102 102 100 101 99 102 102 100 94 93 91 90 91 91 92 91 93 95 94 96 97 98 96 96 97 97 95 98 96 97 96 96 93 93 93 98 93 94 93 93 93 95 96 96 93 98 98 100 100 102 103 105 106 107 106 106 106 104 103 102 99 96 95 93 90 91 92 93 94 94 95 94 95 96 98 98 98 -193 98 99 -193 -193 -193 -193 -193 -209 -209 -193 -193 -209 -209 -209 -193 102 102 -209 -209 103 101 100 98 93 96 100 95 95 94 96 95 98 101 101 101 104 105 105 107 108 107 109 115 122 128 131 130 127 126 121 121 0 0 0 0 0
    0 0 0 0 0 0 0 0 0 0 0 0 0 0 0 0 0 0 0 0 0 0 0 0 0 0 0 0 0 0 0 0 0 0 0 0 0 0 0 0 0 0 0 0 0 0 0 0 0 0 0 0 0 0 0 0 0 0 0 0 0 0 0 0 0 0 0 0 0 -209 -209 -209 -209 -209 -193 79 78 81 83 -193 -193 87 87 91 95 95 96 95 94 92 93 94 94 92 93 93 93 93 93 92 92 90 90 89 87 86 87 91 90 90 91 94 93 94 96 95 90 93 92 92 91 93 92 -193 -193 95 93 93 94 94 93 95 95 94 97 99 99 99 98 99 100 100 99 98 98 100 99 98 96 95 94 95 94 93 91 91 91 89 89 -193 89 90 94 92 92 91 91 91 91 91 91 90 90 90 91 94 94 94 95 98 98 102 100 101 99 102 101 101 100 100 98 101 101 100 92 93 92 91 92 92 93 92 93 94 94 95 97 98 96 96 97 97 95 97 97 96 96 95 92 93 93 97 93 93 93 93 93 96 97 96 93 98 99 99 99 101 102 103 105 105 104 105 104 103 102 100 98 94 94 92 -193 90 92 93 93 93 93 92 94 96 97 97 98 98 98 -193 -193 -193 -193 -193 -193 -193 -209 -193 -193 -209 -209 -209 -209 102 -193 -193 -209 103 102 100 99 95 98 100 95 95 95 96 96 100 101 102 101 105 105 105 107 109 108 110 118 123 131 133 132 127 122 120 118 0 0 0 0 0
    0 0 0 0 0 0 0 0 0 0 0 0 0 0 0 0 0 0 0 0 0 0 0 0 0 0 0 0 0 0 0 0 0 0 0 0 0 0 0 0 0 0 0 0 0 0 0 0 0 0 0 0 0 0 0 0 0 0 0 0 0 0 0 0 0 0 0 0 0 -209 -209 -209 -209 -209 -209 -193 76 77 81 -193 -209 -193 85 90 93 95 96 94 92 91 92 93 93 92 92 92 92 92 92 92 91 89 88 88 87 86 87 92 91 91 92 95 94 95 95 95 90 93 92 92 -193 93 92 -193 -193 -193 92 93 94 94 93 95 94 93 95 98 98 98 96 98 99 99 98 96 97 99 98 98 96 94 93 94 94 93 91 91 91 89 89 90 89 90 94 92 92 91 91 91 91 91 91 90 90 90 91 94 93 94 94 97 96 100 99 100 98 102 100 100 99 99 97 99 99 99 92 94 93 92 93 92 94 92 93 93 93 94 96 97 96 96 97 97 95 97 97 96 96 95 92 92 92 97 93 93 93 93 93 96 98 96 93 98 98 98 98 100 100 101 104 104 103 104 103 102 100 99 97 94 94 92 89 90 92 93 93 92 93 92 94 96 97 97 98 98 98 99 -193 -193 -193 -193 0 -193 -193 0 -193 -209 -209 -209 -209 -209 -209 -193 -209 106 105 103 101 98 100 101 97 97 97 98 98 101 102 102 101 104 105 105 107 109 107 110 119 124 133 133 134 124 115 118 117 0 0 0 0 0
    0 0 0 0 0 0 0 0 0 0 0 0 0 0 0 0 0 0 0 0 0 0 0 0 0 0 0 0 0 0 0 0 0 0 0 0 0 0 0 0 0 0 0 0 0 0 0 0 0 0 0 0 0 0 0 0 0 0 0 0 0 0 0 0 0 0 0 0 0 -209 -209 -209 -209 -209 -209 -209 74 76 79 -193 -209 -209 -193 90 93 94 96 92 90 90 89 90 90 90 90 90 91 91 90 90 90 88 87 87 85 84 86 93 91 91 92 96 94 95 95 95 90 93 92 92 -209 92 91 92 94 -193 -193 93 94 93 93 95 94 91 94 96 96 96 94 95 96 97 97 95 95 95 96 96 94 93 92 92 93 93 92 91 91 90 90 91 89 89 95 92 93 91 92 91 91 91 92 90 90 90 91 94 94 95 95 98 96 100 98 99 97 101 100 99 97 98 96 99 99 97 92 93 93 93 94 93 94 93 94 94 94 95 97 98 97 97 98 98 97 98 99 97 97 96 92 93 93 97 94 93 93 93 93 97 98 96 93 97 98 98 98 99 99 101 103 103 102 103 102 101 99 98 96 94 93 92 90 91 92 93 93 93 93 92 94 96 96 97 97 98 98 99 -193 -193 -193 -193 -193 -193 -209 -193 -209 -209 -209 -193 -209 -209 -193 -193 -193 109 108 107 105 103 103 102 99 99 98 99 100 102 103 102 102 104 104 104 106 108 105 108 121 125 134 133 136 -209 111 118 117 0 0 0 0 0
    0 0 0 0 0 0 0 0 0 0 0 0 0 0 0 0 0 0 0 0 0 0 0 0 0 0 0 0 0 0 0 0 0 0 0 0 0 0 0 0 0 0 0 0 0 0 0 0 0 0 0 0 0 0 0 0 0 0 0 0 0 0 0 0 0 0 0 0 0 -177 -209 -209 -209 -209 -209 -209 -193 75 -193 -209 -209 543 -209 -209 94 94 92 89 88 88 88 88 88 88 89 89 89 89 89 89 90 87 86 86 85 85 86 92 90 90 92 97 95 95 95 95 90 92 93 92 -209 -193 -209 -193 92 -209 -193 -193 92 91 92 94 94 91 93 97 97 97 94 94 95 96 96 94 93 94 94 95 93 92 91 91 92 92 91 90 90 90 90 92 90 89 96 92 93 92 92 92 91 92 92 90 90 90 91 93 95 95 94 98 95 99 97 98 97 100 99 98 96 98 96 98 98 96 92 93 93 93 94 93 94 94 94 95 94 96 97 99 97 98 98 99 98 99 100 97 97 97 93 93 93 98 94 93 94 94 93 98 98 96 93 97 98 98 98 99 98 100 102 102 101 101 101 99 98 97 95 94 94 93 90 91 92 93 94 93 93 92 94 96 97 96 97 98 98 100 -193 -193 -193 -209 -193 -209 -193 -209 -209 -209 -193 -193 -193 -193 -193 -193 -193 109 108 107 105 104 103 102 100 100 100 100 101 103 103 102 102 103 103 103 105 106 103 107 121 125 133 130 136 -209 108 117 117 0 0 0 0 0
    0 0 0 0 0 0 0 0 0 0 0 0 0 0 0 0 0 0 0 0 0 0 0 0 0 0 0 0 0 0 0 0 0 0 0 0 0 0 0 0 0 0 0 0 0 0 0 0 0 0 0 0 0 0 0 0 0 0 0 0 0 0 0 0 0 0 0 0 0 -177 -209 -209 -209 -209 -209 -209 74 75 76 -193 -209 -209 -209 -209 -209 92 88 87 88 88 88 88 88 88 88 89 89 89 87 88 88 87 85 85 84 83 86 91 90 89 91 97 95 95 95 95 90 93 93 92 -209 -193 -209 -209 91 91 90 89 90 89 89 91 91 90 90 94 94 95 93 93 93 94 94 94 92 92 92 93 92 91 91 91 91 92 91 90 90 90 90 92 90 90 98 93 95 93 93 92 91 92 93 90 91 90 91 93 95 95 94 97 95 98 96 98 97 99 98 97 95 97 95 97 97 95 91 92 93 93 93 93 93 94 94 95 94 96 98 100 97 98 98 98 98 99 100 97 97 97 93 93 93 98 94 93 94 94 94 98 98 97 93 98 98 98 97 98 98 99 101 101 101 101 100 99 98 97 96 95 94 94 91 92 93 -193 94 93 93 92 95 96 96 96 96 97 98 98 -193 -193 -193 -209 -209 -209 -193 -209 -209 -209 -209 206 -193 -193 -193 -193 -193 -193 -193 -193 105 105 104 103 101 101 101 101 102 104 103 102 102 103 103 103 105 105 101 107 122 125 133 124 136 104 108 115 117 0 0 0 0 0
    0 0 0 0 0 0 0 0 0 0 0 0 0 0 0 0 0 0 0 0 0 0 0 0 0 0 0 0 0 0 0 0 0 0 0 0 0 0 0 0 0 0 0 0 0 0 0 0 0 0 0 0 0 0 0 0 0 0 0 0 0 0 0 0 0 0 0 0 0 406 -209 -209 -209 -209 -209 -209 73 74 76 75 -209 -209 -209 -209 -209 -209 -193 86 87 88 87 88 88 87 87 88 88 88 86 87 87 86 85 84 83 83 85 89 89 89 90 95 94 94 94 94 90 93 94 92 -209 92 -193 -193 92 92 91 89 90 89 89 90 90 89 89 91 92 93 91 91 92 92 93 93 91 91 91 91 91 90 90 90 90 91 91 90 90 90 90 91 90 89 97 93 94 93 93 92 92 93 93 90 91 91 91 93 95 94 94 96 94 97 95 97 97 98 98 97 96 97 96 97 96 94 91 92 92 92 92 93 94 94 94 95 94 95 97 100 96 97 96 97 97 99 100 97 96 98 93 94 94 98 94 93 94 94 93 98 98 97 93 98 99 98 97 98 97 98 99 100 99 99 99 98 97 97 95 95 95 94 91 92 93 -193 93 93 93 92 94 95 94 95 95 97 97 98 99 -193 100 -193 -209 -209 -209 -209 -209 -209 -193 -193 -193 -193 -193 -193 -193 -193 -193 -193 106 106 104 103 103 102 102 102 103 105 104 103 103 104 103 104 105 105 100 -209 122 130 136 125 138 103 108 113 117 0 0 0 0 0
    0 0 0 0 0 0 0 0 0 0 0 0 0 0 0 0 0 0 0 0 0 0 0 0 0 0 0 0 0 0 0 0 0 0 0 0 0 0 0 0 0 0 0 0 0 0 0 0 0 0 0 0 0 0 0 0 0 0 0 0 0 0 0 0 0 0 0 0 0 405 -209 393 396 -209 -209 -209 73 75 76 77 -193 -193 -209 -209 -209 -209 -193 85 87 87 86 87 87 87 87 87 88 87 86 87 87 85 85 84 84 84 86 88 89 88 90 93 93 93 93 93 90 92 93 92 -209 92 -209 -193 -193 92 91 89 90 89 89 90 90 90 90 91 91 92 91 90 91 91 92 91 90 89 89 90 90 90 90 89 90 91 91 90 90 90 90 91 90 89 96 93 94 93 93 92 92 93 93 90 91 91 91 93 95 94 94 95 93 96 94 96 96 96 97 96 95 97 95 96 95 93 91 91 92 92 92 94 94 94 95 96 94 96 97 99 95 96 95 96 96 98 101 97 96 99 94 94 94 98 95 93 94 95 93 99 98 97 93 99 99 98 98 97 97 97 99 98 99 99 99 98 98 97 96 96 97 94 91 93 93 94 93 93 93 92 94 95 94 95 95 97 97 97 99 -193 99 101 -193 -193 -209 -193 -209 -193 -193 -193 -193 -193 -209 -193 -193 -193 -193 -193 104 104 103 103 102 102 102 102 103 105 104 104 104 104 104 104 105 105 100 -209 -193 134 -193 -209 139 103 106 109 116 0 0 0 0 0
    0 0 0 0 0 0 0 0 0 0 0 0 0 0 0 0 0 0 0 0 0 0 0 0 0 0 0 0 0 0 0 0 0 0 0 0 0 0 0 0 0 0 0 0 0 0 0 0 0 0 0 0 0 0 0 0 0 0 0 0 0 0 0 0 0 0 0 0 0 406 402 -193 400 -209 -209 -209 74 75 77 77 82 81 -193 -193 -209 -209 85 84 86 86 86 86 87 86 86 87 87 86 85 86 87 85 85 84 84 84 86 88 88 88 90 92 92 92 92 92 89 91 92 92 -193 -193 -209 -193 -193 91 91 90 90 90 89 90 90 90 90 91 91 92 90 90 90 90 90 91 90 89 89 89 90 89 89 89 89 90 91 90 90 90 91 91 90 89 95 92 93 92 93 92 92 93 93 90 91 91 91 93 95 94 94 95 93 95 93 95 95 95 96 95 94 96 95 96 95 93 91 92 92 92 92 94 95 95 96 97 95 96 96 97 95 95 95 95 95 97 101 96 95 99 94 94 94 98 95 94 95 95 93 99 98 97 93 99 99 98 98 97 96 97 98 97 98 98 98 97 97 96 96 96 98 95 93 95 94 96 95 95 95 94 96 97 96 97 97 98 99 99 100 98 99 101 -209 -193 -209 104 104 105 107 -193 106 -193 -209 -209 -193 -209 -209 105 103 103 101 101 101 101 101 101 103 105 104 105 105 105 104 105 106 104 98 -209 -209 138 141 -209 145 102 105 106 115 0 0 0 0 0
    0 0 0 0 0 0 0 0 0 0 0 0 0 0 0 0 0 0 0 0 0 0 0 0 0 0 0 0 0 0 0 0 0 0 0 0 0 0 0 0 0 0 0 0 0 0 0 0 0 0 0 0 0 0 0 0 0 0 0 0 0 0 0 0 0 0 0 0 0 -193 -209 -209 -209 -209 -209 -209 -193 78 80 81 84 84 84 -193 -209 -209 86 85 87 87 86 87 87 86 86 86 86 85 84 85 86 85 85 84 84 84 86 88 88 87 89 91 92 92 91 91 89 90 91 91 90 -209 -193 -193 -193 91 91 90 90 91 90 91 90 90 91 91 90 92 90 89 89 89 90 90 89 89 88 89 89 89 89 89 89 90 91 90 90 90 90 90 89 88 95 92 93 92 92 91 91 93 93 90 91 91 91 92 95 93 93 94 93 94 93 94 95 94 95 94 93 95 95 95 94 92 91 92 92 92 92 94 95 95 96 97 95 95 97 97 95 95 94 94 94 96 100 95 95 99 94 95 95 99 95 94 95 95 93 99 98 97 93 99 99 98 98 97 97 97 97 96 97 97 98 97 97 95 96 97 97 95 93 95 95 97 97 97 97 96 98 99 98 99 100 100 100 100 101 98 100 100 -193 101 -193 102 101 104 107 -193 106 107 -209 -209 -193 -193 -209 -193 103 102 100 99 99 99 100 100 102 104 104 104 106 106 105 105 105 104 -193 -209 -209 138 141 -209 144 102 105 104 115 0 0 0 0 0
    0 0 0 0 0 0 0 0 0 0 0 0 0 0 0 0 0 0 0 0 0 0 0 0 0 0 0 0 0 0 0 0 0 0 0 0 0 0 0 0 0 0 0 0 0 0 0 0 0 0 0 0 0 0 0 0 0 0 0 0 0 0 0 0 0 0 0 0 0 -209 -209 -209 -209 -209 -209 -209 -193 79 81 81 84 84 -193 85 -209 -209 85 85 87 87 87 87 86 86 86 87 87 85 84 84 85 84 84 83 83 84 86 87 88 87 89 90 91 91 90 90 89 90 92 91 90 -209 -193 -193 -193 91 91 89 89 90 89 90 90 91 91 91 91 92 90 90 89 89 89 90 89 88 87 89 89 89 89 89 89 89 91 91 90 89 90 90 88 88 93 91 92 92 92 91 91 92 92 90 91 91 91 92 95 93 93 95 93 94 93 94 95 93 94 93 92 94 94 94 94 92 91 91 91 91 91 92 94 94 95 97 95 95 97 96 95 95 94 94 94 96 101 96 96 100 95 95 96 99 96 94 96 96 93 99 97 98 94 99 98 98 98 97 97 97 96 96 97 97 97 96 97 95 95 97 96 95 95 97 97 98 97 97 98 97 98 99 98 99 100 101 102 102 102 99 100 100 102 101 101 101 100 103 107 109 107 108 -193 -209 -193 -209 -209 -209 103 101 100 98 99 99 99 101 102 103 103 104 105 105 104 105 105 103 -193 -209 -209 -209 136 -209 -193 102 104 102 -209 0 0 0 0 0
    0 0 0 0 0 0 0 0 0 0 0 0 0 0 0 0 0 0 0 0 0 0 0 0 0 0 0 0 0 0 0 0 0 0 0 0 0 0 0 0 0 0 0 0 0 0 0 0 0 0 0 0 0 0 0 0 0 0 0 0 0 0 0 0 0 0 0 0 0 -209 -209 -209 -209 -209 -209 -209 -193 81 83 84 86 -193 -209 -209 -209 -193 84 85 87 87 86 86 86 85 85 86 85 84 84 84 84 84 84 83 83 83 86 87 87 87 88 90 91 90 90 90 89 90 92 92 91 -209 -193 -193 92 91 91 89 89 90 89 90 90 91 92 92 91 92 90 90 89 89 89 90 89 88 87 88 88 88 89 89 89 89 90 90 90 90 90 90 89 89 93 91 92 92 92 91 91 92 92 90 90 91 90 91 95 93 93 94 93 93 92 93 94 92 93 93 92 93 94 94 93 91 90 91 91 91 90 92 94 94 96 98 96 96 97 96 95 95 94 94 94 95 101 95 95 100 95 96 96 99 96 94 96 96 93 98 97 98 94 98 98 97 98 96 97 97 96 96 97 97 97 95 96 94 95 96 96 95 96 99 98 98 98 98 99 99 99 99 99 99 100 101 102 102 102 99 101 100 102 102 102 102 99 103 107 110 107 108 -193 -209 -209 -193 -209 -193 103 101 99 98 98 98 99 101 102 101 103 104 105 105 104 104 104 105 -193 -209 -209 132 133 123 133 101 103 101 -209 0 0 0 0 0
    0 0 0 0 0 0 0 0 0 0 0 0 0 0 0 0 0 0 0 0 0 0 0 0 0 0 0 0 0 0 0 0 0 0 0 0 0 0 0 0 0 0 0 0 0 0 0 0 0 0 0 0 0 0 0 0 0 0 0 0 0 0 0 0 0 0 0 0 0 -193 -209 -209 -209 -209 -209 522 -193 -193 84 86 -209 -193 -209 86 -193 87 84 85 87 87 87 87 86 86 86 87 86 85 85 84 83 84 85 83 83 84 86 87 88 88 88 89 91 90 90 89 89 89 91 91 90 -209 -193 -193 -193 91 91 89 88 89 88 90 90 92 92 92 91 91 90 90 89 89 88 89 88 87 87 87 88 88 88 88 88 88 89 89 90 89 89 90 89 90 93 92 93 92 92 91 91 92 91 89 90 89 89 90 93 92 92 93 92 92 91 92 94 92 93 93 92 93 94 93 93 91 90 91 91 90 89 92 92 92 93 96 94 94 96 96 94 95 93 93 93 94 99 94 94 100 95 95 96 99 96 95 96 96 93 98 97 98 93 98 97 97 98 96 98 97 95 96 97 96 96 95 96 93 95 96 96 95 96 98 98 98 98 98 99 99 99 99 99 99 100 100 101 102 101 98 100 99 101 101 101 102 100 103 108 110 107 107 105 -209 -193 102 102 102 102 100 98 98 99 99 100 101 101 101 103 104 105 104 104 104 104 105 -193 -209 -209 134 133 125 132 101 103 99 87 0 0 0 0 0
    0 0 0 0 0 0 0 0 0 0 0 0 0 0 0 0 0 0 0 0 0 0 0 0 0 0 0 0 0 0 0 0 0 0 0 0 0 0 0 0 0 0 0 0 0 0 0 0 0 0 0 0 0 0 0 0 0 0 0 0 0 0 0 0 0 0 0 0 0 412 -209 -209 -209 -209 -209 -209 -209 -209 84 87 -209 -193 -209 -193 87 87 85 86 87 87 88 88 87 86 87 87 87 86 85 84 82 84 85 84 84 84 86 87 88 88 88 88 91 90 89 89 88 89 90 90 90 -209 -193 -193 91 91 90 89 88 89 88 90 90 91 92 92 90 91 89 89 88 88 87 88 88 87 87 87 88 89 89 89 89 89 90 90 91 89 89 89 89 90 93 92 93 93 92 91 92 92 91 89 89 89 89 90 92 91 90 92 92 91 91 91 93 92 92 92 92 93 93 93 93 91 91 91 91 91 90 92 93 92 92 93 93 93 95 95 93 94 93 92 92 94 98 94 94 100 95 95 96 99 96 95 96 96 93 97 97 98 93 97 97 97 98 96 97 96 95 95 97 96 96 95 95 93 96 95 95 94 96 97 98 98 99 99 99 99 99 100 100 99 100 100 100 101 99 97 99 98 100 100 100 101 100 103 107 108 106 106 103 101 102 101 100 101 101 98 98 98 98 98 99 101 101 100 103 103 104 104 104 104 103 105 106 118 -209 136 133 126 131 101 102 99 87 0 0 0 0 0
    0 0 0 0 0 0 0 0 0 0 0 0 0 0 0 0 0 0 0 0 0 0 0 0 0 0 0 0 0 0 0 0 0 0 0 0 0 0 0 0 0 0 0 0 0 0 0 0 0 0 0 0 0 0 0 0 0 0 0 0 0 0 0 0 0 0 0 0 0 411 -209 -209 -209 -209 -193 -209 -209 -209 -193 90 95 -193 91 90 88 87 86 87 88 87 88 89 87 87 87 88 86 87 86 84 83 85 86 84 84 85 86 87 88 88 88 88 91 90 90 88 87 88 89 89 89 -209 89 90 91 90 90 90 89 91 90 91 90 91 92 92 91 90 89 88 88 88 87 88 88 87 87 88 88 89 88 89 89 88 90 89 90 90 90 89 89 90 93 92 93 93 92 91 92 92 91 89 89 89 88 89 91 89 89 91 91 91 90 91 91 92 92 92 91 93 93 92 92 91 90 92 91 91 90 92 93 93 93 93 93 92 94 94 93 94 93 93 93 94 97 94 93 100 95 95 96 99 96 95 96 96 92 97 97 98 93 97 96 97 98 97 97 96 95 95 96 96 95 94 94 93 96 94 94 94 95 96 97 97 98 98 99 99 99 100 99 99 101 100 100 101 99 97 98 98 100 101 101 105 104 105 108 109 106 106 103 101 102 101 101 102 101 98 97 97 98 97 99 100 99 99 102 102 103 103 103 103 101 103 -193 110 -209 -209 130 125 129 100 101 98 87 0 0 0 0 0
    0 0 0 0 0 0 0 0 0 0 0 0 0 0 0 0 0 0 0 0 0 0 0 0 0 0 0 0 0 0 0 0 0 0 0 0 0 0 0 0 0 0 0 0 0 0 0 0 0 0 0 0 0 0 0 0 0 0 0 0 0 0 0 0 0 0 0 0 0 412 -193 -193 -209 -209 -193 -209 -193 -209 -209 94 99 95 94 94 89 88 87 88 88 87 88 88 87 87 88 87 86 87 86 85 83 85 86 84 84 85 86 87 88 88 88 88 91 91 90 89 88 89 89 89 89 -193 89 90 90 90 90 89 89 91 90 91 90 91 91 92 91 90 89 88 88 88 88 89 89 88 88 89 89 89 89 89 89 89 90 90 90 90 90 89 89 90 92 91 92 92 92 91 91 92 90 90 89 89 88 87 90 88 88 92 91 90 90 -193 91 92 91 91 91 92 92 91 92 91 90 92 92 91 90 91 92 91 91 91 92 91 92 93 93 95 94 94 93 94 97 94 94 100 95 95 95 99 96 95 96 96 93 97 97 98 93 97 96 97 97 97 97 95 95 95 96 96 95 94 94 94 96 94 94 94 96 96 98 97 98 98 99 100 100 100 100 100 102 101 101 102 100 99 101 101 -193 104 -193 108 -193 107 110 110 108 107 104 101 101 100 100 101 100 97 97 97 98 97 100 101 99 99 101 102 103 102 102 102 99 -193 -193 105 -209 -209 -209 123 127 100 100 97 87 0 0 0 0 0
    0 0 0 0 0 0 0 0 0 0 0 0 0 0 0 0 0 0 0 0 0 0 0 0 0 0 0 0 0 0 0 0 0 0 0 0 0 0 0 0 0 0 0 0 0 0 0 0 0 0 0 0 0 0 0 0 0 0 0 0 0 0 0 0 0 0 0 0 0 -193 410 -193 -209 -209 -209 -209 -209 -193 -193 -193 -193 -193 93 92 88 88 88 88 88 88 88 88 87 87 88 87 86 87 86 84 83 85 86 83 83 84 86 87 88 88 88 89 92 92 91 89 89 89 89 89 89 88 89 91 91 89 90 89 89 90 89 90 89 89 90 90 90 90 89 88 88 89 89 91 90 89 -193 -193 90 90 90 90 89 89 90 90 90 90 90 90 90 92 92 92 92 93 93 92 92 92 90 90 90 89 89 85 89 88 88 93 92 91 91 91 91 92 91 91 90 92 92 92 91 91 90 92 93 91 90 91 91 90 90 90 90 -193 91 93 92 94 94 93 93 94 96 93 93 99 94 95 95 99 96 95 96 96 93 97 97 99 93 96 96 97 97 97 97 95 95 96 96 95 95 95 94 94 95 93 94 95 97 97 99 98 99 99 100 101 -193 -193 -193 100 -193 -193 -193 -193 -209 101 -193 -209 106 106 107 110 110 109 111 112 111 110 106 103 102 101 102 102 101 99 98 97 99 98 100 101 99 99 102 102 102 102 102 101 98 105 111 -209 -209 -209 -209 124 127 99 99 97 87 0 0 0 0 0
    0 0 0 0 0 0 0 0 0 0 0 0 0 0 0 0 0 0 0 0 0 0 0 0 0 0 0 0 0 0 0 0 0 0 0 0 0 0 0 0 0 0 0 0 0 0 0 0 0 0 0 0 0 0 0 0 0 0 0 0 0 0 0 0 0 0 0 0 0 -209 -193 -209 -209 -209 -209 -193 -209 -193 -193 -193 -193 -193 91 90 88 87 87 87 87 87 88 88 87 88 88 87 87 88 87 85 83 -177 86 83 84 84 85 87 88 88 88 89 92 93 92 90 89 90 89 89 89 86 88 89 89 87 88 87 88 89 89 89 89 89 91 90 90 90 89 89 89 89 90 91 90 89 814 821 90 90 90 90 89 89 91 91 90 91 90 90 90 95 93 93 93 94 94 93 93 93 90 91 90 90 89 85 89 88 89 94 92 -193 -193 92 92 93 91 91 90 91 92 91 91 91 89 92 93 91 90 91 91 90 89 90 90 89 90 92 93 94 93 94 93 94 96 94 93 100 95 95 95 99 96 95 96 96 93 97 98 99 93 96 97 97 97 97 96 95 95 96 96 95 95 95 94 95 96 94 95 97 98 98 100 99 100 100 99 100 -193 -193 -193 99 101 -193 -193 -193 -193 -193 -209 -209 -193 107 107 111 111 110 112 112 111 111 109 105 105 104 104 104 103 101 101 100 101 100 102 102 99 100 102 102 102 102 102 101 -193 106 116 118 117 -209 113 120 123 99 98 96 87 0 0 0 0 0
    0 0 0 0 0 0 0 0 0 0 0 0 0 0 0 0 0 0 0 0 0 0 0 0 0 0 0 0 0 0 0 0 0 0 0 0 0 0 0 0 0 0 0 0 0 0 0 0 0 0 0 0 0 0 0 0 0 0 0 0 0 0 0 0 0 0 0 0 0 -209 -209 -209 -209 -209 -209 -209 -193 -193 -193 -193 -193 -209 90 88 87 86 87 87 86 86 87 87 87 87 88 87 87 88 87 86 85 87 86 83 84 84 86 87 88 88 87 89 93 93 93 90 89 90 90 89 -193 85 86 86 87 85 85 85 86 87 88 89 88 89 91 90 90 90 89 89 89 90 91 91 90 90 816 -193 90 90 90 90 90 90 91 92 90 91 91 90 90 95 92 92 92 93 94 92 93 93 90 91 91 90 90 87 90 89 92 95 92 92 92 92 93 93 92 91 90 92 92 91 91 91 90 92 93 93 91 91 92 91 90 90 90 89 89 91 92 94 93 93 93 95 96 94 93 100 95 95 95 99 96 95 96 97 93 97 98 99 93 96 97 97 96 97 96 95 95 96 96 95 95 96 95 97 96 94 96 99 99 98 99 100 99 100 99 100 -193 -193 -193 -193 100 -193 -193 -193 -193 -193 -209 -209 106 107 108 110 111 110 112 111 112 112 111 108 107 106 106 106 103 102 102 101 102 101 102 102 99 100 102 102 102 102 102 100 95 106 117 114 112 106 106 113 -193 99 97 96 87 0 0 0 0 0
    0 0 0 0 0 0 0 0 0 0 0 0 0 0 0 0 0 0 0 0 0 0 0 0 0 0 0 0 0 0 0 0 0 0 0 0 0 0 0 0 0 0 0 0 0 0 0 0 0 0 0 0 0 0 0 0 0 0 0 0 0 0 0 0 0 0 0 0 0 -209 -209 78 -209 -209 -209 -209 -193 -193 -193 -193 -193 -209 88 86 86 86 86 86 85 85 86 86 86 87 88 86 87 89 88 87 86 88 87 84 84 84 86 88 88 88 87 89 93 94 94 91 89 90 90 89 -193 85 86 87 87 86 -193 87 89 89 90 89 89 89 90 90 89 89 89 88 89 90 91 90 90 90 -193 -193 90 90 90 90 90 90 91 91 90 91 91 90 91 94 92 93 93 94 94 93 94 93 91 92 91 91 90 88 90 90 93 94 92 92 92 93 93 94 92 91 91 93 92 92 91 91 91 93 94 94 92 93 93 93 91 91 91 90 90 92 92 94 93 93 93 94 96 93 93 100 95 95 95 99 96 95 96 97 93 97 98 98 92 97 98 97 96 97 95 95 95 95 96 95 96 96 95 97 97 95 98 99 99 98 100 101 101 101 101 -193 -193 -193 -193 -193 -193 -193 -193 -193 -193 -193 -209 -209 -209 -209 -193 110 110 110 111 111 113 111 111 107 106 105 106 106 103 102 102 101 102 101 102 102 99 101 102 102 102 102 102 98 -193 -193 -209 -209 -209 92 102 107 -193 98 96 95 87 0 0 0 0 0
    0 0 0 0 0 0 0 0 0 0 0 0 0 0 0 0 0 0 0 0 0 0 0 0 0 0 0 0 0 0 0 0 0 0 0 0 0 0 0 0 0 0 0 0 0 0 0 0 0 0 0 0 0 0 0 0 0 0 0 0 0 0 0 0 0 0 0 0 0 -193 -193 81 -193 -193 -193 -193 79 -193 84 86 87 86 87 86 86 86 86 86 85 85 86 86 87 87 87 86 87 89 88 87 87 88 87 83 84 84 86 88 88 88 87 88 93 95 94 91 90 90 90 89 -193 86 87 87 88 87 -193 89 90 90 90 89 88 88 90 89 88 87 87 87 89 89 90 89 89 90 -193 91 90 90 90 89 90 90 91 91 90 91 90 90 91 94 92 93 93 94 95 94 94 93 92 93 92 91 91 89 91 91 94 94 93 93 93 94 94 94 93 91 91 93 92 91 90 91 91 93 94 94 93 93 93 93 92 92 91 91 90 92 91 93 92 93 92 94 96 93 93 100 95 95 95 99 96 95 96 97 93 98 99 98 92 97 98 97 96 97 95 95 95 95 96 95 96 96 95 98 97 95 99 99 99 98 100 101 102 -193 -193 -209 -209 -193 -193 -193 -193 -193 -193 -193 -193 -193 -193 -177 -209 -209 -209 109 109 108 109 108 110 109 109 106 104 104 106 105 102 101 101 100 101 101 101 101 99 101 102 102 102 102 101 94 87 -193 -193 86 86 88 97 103 104 98 96 95 87 0 0 0 0 0
    0 0 0 0 0 0 0 0 0 0 0 0 0 0 0 0 0 0 0 0 0 0 0 0 0 0 0 0 0 0 0 0 0 0 0 0 0 0 0 0 0 0 0 0 0 0 0 0 0 0 0 0 0 0 0 0 0 0 0 0 0 0 0 0 0 0 0 0 0 -193 -193 82 83 83 82 80 81 81 84 85 84 85 86 85 85 86 87 86 86 86 86 87 87 88 88 86 88 88 88 87 87 88 87 84 84 84 86 87 87 87 86 88 93 95 94 91 90 91 90 89 -193 -193 87 89 89 87 88 89 90 90 90 88 86 87 88 88 87 86 86 86 89 89 91 89 89 90 -193 91 90 89 89 89 89 90 90 90 89 90 90 90 92 93 91 93 92 94 94 93 94 93 92 93 92 93 92 90 92 92 95 95 93 93 94 94 93 94 92 90 91 92 92 91 90 91 90 93 94 95 93 93 93 94 92 93 92 91 90 91 91 93 92 94 92 96 98 94 93 101 95 96 95 99 96 95 96 97 93 98 98 98 92 98 99 98 97 97 95 95 96 96 96 94 96 96 95 98 96 94 97 98 99 98 99 101 102 -209 -209 -209 -209 -209 -193 -209 -193 -193 101 -193 -193 -193 -209 -209 -209 -209 -209 106 107 106 107 106 107 107 107 105 104 104 105 104 102 101 101 100 101 101 101 101 99 101 102 102 102 101 99 92 86 85 84 85 86 87 94 99 104 98 96 96 87 0 0 0 0 0
    0 0 0 0 0 0 0 0 0 0 0 0 0 0 0 0 0 0 0 0 0 0 0 0 0 0 0 0 0 0 0 0 0 0 0 0 0 0 0 0 0 0 0 0 0 0 0 0 0 0 0 0 0 0 0 0 0 0 0 0 0 0 0 0 0 0 0 0 0 83 83 84 85 84 84 82 82 83 85 84 83 84 85 83 84 86 86 85 86 86 85 86 87 88 87 86 88 88 88 88 88 89 87 84 84 84 86 87 87 87 86 88 93 95 95 92 90 91 90 90 90 88 88 89 89 88 89 90 91 91 90 88 86 87 88 87 86 85 85 86 89 90 91 90 89 90 91 91 89 89 89 88 89 90 90 91 89 90 90 90 91 91 90 91 91 92 93 92 93 92 92 93 92 92 92 90 91 92 94 94 93 93 94 94 93 94 93 91 91 93 92 91 90 91 90 92 93 94 93 93 93 93 92 93 92 91 90 91 -193 92 91 93 91 94 98 94 93 101 95 96 96 99 96 95 96 97 93 98 98 97 93 98 99 98 97 97 95 96 97 96 96 95 96 96 96 97 95 93 96 97 98 97 98 100 101 -193 -193 -209 -209 -193 -193 -209 -193 -193 101 -193 -193 -193 -209 -193 -209 -209 -209 -209 106 105 107 105 107 107 109 106 105 105 106 104 102 102 101 100 102 102 102 101 100 102 102 102 102 101 97 90 83 84 83 84 84 86 89 92 -193 98 96 96 87 0 0 0 0 0
    0 0 0 0 0 0 0 0 0 0 0 0 0 0 0 0 0 0 0 0 0 0 0 0 0 0 0 0 0 0 0 0 0 0 0 0 0 0 0 0 0 0 0 0 0 0 0 0 0 0 0 0 0 0 0 0 0 0 0 0 0 0 0 0 0 0 0 0 0 83 83 84 86 85 85 84 83 84 85 84 83 -193 84 82 84 86 86 84 85 85 84 85 87 87 86 85 88 88 88 88 88 89 87 84 84 84 86 87 87 87 86 89 93 96 95 92 90 92 91 90 90 89 89 90 90 89 89 90 91 91 89 87 87 87 87 87 85 85 85 87 90 90 91 89 89 90 90 91 89 89 89 89 90 91 91 91 90 91 90 90 90 91 90 90 90 91 92 92 92 92 92 93 92 92 92 90 90 92 94 94 93 93 94 94 93 94 93 91 92 94 93 92 91 92 91 92 92 94 92 93 93 93 92 93 92 92 91 -193 -193 91 90 92 89 93 99 94 93 101 96 96 96 99 96 95 96 97 93 97 98 96 93 98 99 98 97 97 96 97 97 97 96 95 96 96 96 98 95 94 96 97 98 97 98 -193 -193 -193 -209 -209 -209 -209 -193 -209 -193 -193 102 -193 -209 -209 -209 -209 -193 -193 -209 101 103 101 104 103 105 107 108 106 105 105 106 104 102 102 101 100 102 103 102 101 101 102 103 102 102 101 96 89 84 85 85 85 85 87 88 92 104 98 96 96 87 0 0 0 0 0
    0 0 0 0 0 0 0 0 0 0 0 0 0 0 0 0 0 0 0 0 0 0 0 0 0 0 0 0 0 0 0 0 0 0 0 0 0 0 0 0 0 0 0 0 0 0 0 0 0 0 0 0 0 0 0 0 0 0 0 0 0 0 0 0 0 0 0 0 0 -193 -193 85 86 85 85 84 83 83 85 83 -193 -209 84 83 85 86 86 85 85 85 84 85 87 86 86 85 87 87 87 87 88 89 87 84 84 84 86 87 87 87 86 89 93 95 94 91 90 91 90 90 89 89 88 89 89 88 88 89 89 90 87 86 86 87 87 86 84 84 84 88 91 91 90 89 89 90 90 90 89 88 88 89 91 91 91 92 91 92 91 92 92 91 91 92 91 92 93 92 92 92 92 93 92 92 92 90 90 92 93 93 93 93 94 94 93 94 93 92 93 94 93 92 91 92 92 93 93 94 93 94 95 95 93 95 94 94 92 94 -193 91 90 -193 81 -209 -193 93 93 102 96 96 97 98 95 95 96 96 92 97 97 95 93 98 99 98 97 97 96 98 98 98 97 96 97 97 97 98 95 95 98 99 99 98 99 -193 -193 -209 -209 -193 -193 -209 -193 -209 -193 -193 102 -193 -193 -193 -193 -193 100 -193 -193 97 97 96 101 101 103 105 106 105 105 106 107 105 103 102 102 100 102 103 102 101 101 102 102 102 102 101 93 88 83 85 84 84 84 87 88 91 103 98 95 95 87 0 0 0 0 0
    0 0 0 0 0 0 0 0 0 0 0 0 0 0 0 0 0 0 0 0 0 0 0 0 0 0 0 0 0 0 0 0 0 0 0 0 0 0 0 0 0 0 0 0 0 0 0 0 0 0 0 0 0 0 0 0 0 0 0 0 0 0 0 0 0 0 0 0 0 -209 -193 83 85 84 84 83 83 83 84 83 84 -193 84 83 85 86 86 85 86 85 85 86 88 86 85 85 87 86 87 87 88 89 88 84 84 84 86 87 87 87 86 88 92 94 94 91 89 91 90 90 89 89 89 89 89 89 89 90 90 91 87 87 87 87 87 86 84 84 84 88 91 91 90 89 89 89 89 89 88 88 88 89 91 91 91 91 91 91 90 92 92 91 91 91 91 92 93 92 92 92 92 93 92 92 92 90 90 92 93 93 93 93 94 94 93 94 93 92 94 94 93 92 90 92 91 92 92 94 93 94 95 96 95 96 95 95 94 95 -193 92 90 -209 -209 -209 -209 94 93 102 96 96 98 98 95 95 96 96 92 97 96 94 -193 97 98 98 97 97 97 98 98 98 97 96 97 98 99 98 95 96 98 100 100 98 99 -193 -193 -209 -209 -193 -209 -209 103 -209 102 102 102 102 103 -193 101 98 98 98 95 95 94 95 99 100 102 104 106 105 106 107 107 104 102 102 101 100 102 103 101 100 100 101 102 101 102 99 91 87 83 84 84 84 84 86 87 89 103 98 95 95 87 0 0 0 0 0
    0 0 0 0 0 0 0 0 0 0 0 0 0 0 0 0 0 0 0 0 0 0 0 0 0 0 0 0 0 0 0 0 0 0 0 0 0 0 0 0 0 0 0 0 0 0 0 0 0 0 0 0 0 0 0 0 0 0 0 0 0 0 0 0 0 0 0 0 0 -209 -193 81 82 83 83 80 81 82 84 83 -193 86 84 84 86 87 87 86 86 85 85 86 87 85 84 85 86 86 86 87 88 88 88 84 84 85 87 87 87 87 86 88 92 93 93 90 89 91 90 90 89 89 89 90 90 90 90 91 92 93 90 89 89 88 87 85 82 82 83 88 91 90 89 88 89 89 89 88 87 87 87 88 90 91 90 90 90 90 89 91 91 89 90 90 90 91 92 92 91 91 92 92 92 92 92 90 90 92 92 92 92 93 93 93 93 93 93 93 94 94 92 91 90 91 91 90 90 93 92 94 95 95 95 96 95 95 94 96 93 92 92 93 -193 94 -193 94 94 102 96 96 98 97 95 95 96 96 92 96 96 93 -193 97 98 97 97 97 97 99 98 98 98 97 97 98 99 98 95 96 96 98 98 98 98 -193 101 -209 -193 -209 104 104 104 104 104 103 103 102 102 101 101 98 98 98 95 96 95 95 99 99 -193 -193 105 104 105 -193 105 103 101 100 99 98 101 102 100 99 100 101 101 101 101 97 89 85 84 84 84 83 84 86 87 88 103 98 95 95 87 0 0 0 0 0
    0 0 0 0 0 0 0 0 0 0 0 0 0 0 0 0 0 0 0 0 0 0 0 0 0 0 0 0 0 0 0 0 0 0 0 0 0 0 0 0 0 0 0 0 0 0 0 0 0 0 0 0 0 0 0 0 0 0 0 0 0 0 0 0 0 0 0 0 0 -193 -193 82 83 84 84 82 83 84 86 85 87 86 84 85 86 87 87 86 86 85 84 86 86 84 83 85 85 85 86 86 87 88 88 84 84 85 87 87 87 87 86 88 91 93 92 90 89 90 90 89 89 90 89 90 92 92 92 93 94 95 92 90 90 88 86 84 82 82 83 88 91 89 89 89 89 89 89 88 87 87 87 88 90 90 90 90 90 91 89 90 90 89 89 90 90 90 91 91 91 91 92 92 92 92 92 91 91 92 92 92 92 93 93 93 92 92 93 94 94 93 91 91 90 91 91 90 90 92 92 94 95 95 95 97 96 96 95 96 94 92 93 93 -193 96 101 94 95 102 96 96 99 97 95 95 96 96 92 96 95 92 -193 96 97 97 96 97 97 99 98 98 98 97 97 98 99 98 94 95 95 96 98 98 98 99 101 -193 104 104 104 104 103 103 103 102 103 101 103 -193 101 -193 97 98 95 96 95 95 98 97 -193 -193 104 104 -193 -209 104 102 101 100 99 97 102 102 99 99 100 101 101 101 101 96 88 87 86 -209 -193 84 84 86 88 90 103 98 95 96 88 0 0 0 0 0
    0 0 0 0 0 0 0 0 0 0 0 0 0 0 0 0 0 0 0 0 0 0 0 0 0 0 0 0 0 0 0 0 0 0 0 0 0 0 0 0 0 0 0 0 0 0 0 0 0 0 0 0 0 0 0 0 0 0 0 0 0 0 0 0 0 0 0 0 0 354 -193 81 82 84 85 83 84 84 87 87 89 87 85 86 87 88 87 87 87 85 85 87 86 84 83 84 84 84 85 86 87 88 88 85 84 85 87 87 87 87 86 87 91 92 91 89 89 90 89 89 88 89 90 90 91 91 91 93 94 94 92 90 89 88 86 84 83 82 84 88 90 89 89 89 89 89 89 -193 88 88 89 90 91 91 91 92 91 91 91 91 90 89 90 90 90 90 91 91 91 91 92 91 91 92 92 91 91 -193 92 92 92 93 93 92 92 92 93 94 93 93 91 91 91 91 91 89 90 92 92 93 95 95 95 96 96 95 95 96 94 92 94 93 92 96 100 95 95 102 96 96 99 96 95 95 96 96 92 96 95 92 -193 96 97 97 96 97 97 99 98 98 98 97 97 99 99 98 95 96 95 97 99 98 -193 98 100 102 103 103 103 102 102 101 102 101 103 102 102 -209 -193 -209 -193 99 98 97 95 95 98 97 101 103 104 -193 -193 108 105 103 103 102 101 99 102 102 98 99 100 100 101 101 100 94 -193 -193 -209 -209 -209 -209 -209 -209 -193 93 104 99 96 96 88 0 0 0 0 0
    0 0 0 0 0 0 0 0 0 0 0 0 0 0 0 0 0 0 0 0 0 0 0 0 0 0 0 0 0 0 0 0 0 0 0 0 0 0 0 0 0 0 0 0 0 0 0 0 0 0 0 0 0 0 0 0 0 0 0 0 0 0 0 0 0 0 0 0 0 354 -193 79 80 82 83 81 82 83 85 87 -209 88 86 88 88 89 88 88 88 86 86 88 86 84 84 84 83 84 85 86 87 88 88 85 85 85 88 87 87 87 86 87 90 91 91 89 89 90 89 89 88 89 90 90 91 91 91 92 93 93 91 90 89 87 86 85 84 84 86 89 91 90 89 90 90 90 90 89 89 88 89 91 92 92 92 92 91 91 92 92 90 90 90 90 90 90 91 90 90 91 91 90 91 91 92 91 91 -193 92 92 92 94 92 92 92 92 92 93 93 93 91 91 92 92 93 90 90 93 92 93 95 94 94 96 95 95 95 96 95 93 95 94 94 96 100 96 96 102 96 96 99 96 96 95 96 96 92 95 94 -193 -193 95 96 96 95 97 97 99 98 98 98 97 97 99 99 98 95 -193 -193 98 100 100 -193 97 100 101 102 102 102 101 101 100 102 101 -209 -193 103 -209 -209 -209 -209 102 101 99 97 97 100 -193 -193 -193 106 -209 -193 111 107 105 104 104 102 102 103 102 99 100 100 101 101 101 101 94 -193 -193 -209 -209 -209 -209 -209 -209 -209 93 104 99 96 96 88 0 0 0 0 0
    0 0 0 0 0 0 0 0 0 0 0 0 0 0 0 0 0 0 0 0 0 0 0 0 0 0 0 0 0 0 0 0 0 0 0 0 0 0 0 0 0 0 0 0 0 0 0 0 0 0 0 0 0 0 0 0 0 0 0 0 0 0 0 0 0 0 0 0 0 -193 -209 77 79 81 82 80 81 82 84 87 -193 88 87 89 89 89 89 88 87 85 86 87 85 83 84 84 83 84 86 86 87 88 89 85 85 86 88 87 87 86 86 87 90 90 90 88 89 90 90 90 88 89 89 90 90 91 91 92 92 92 90 90 90 88 86 85 85 86 87 90 91 90 90 90 90 90 90 89 89 89 90 92 93 93 92 92 92 92 94 92 90 90 91 90 90 90 91 90 90 91 90 90 91 92 92 92 92 91 92 92 92 94 92 92 92 92 92 94 93 93 91 92 93 93 93 91 90 93 92 94 95 95 94 96 95 95 95 96 95 93 95 95 94 96 98 96 95 101 96 96 99 96 96 95 96 96 92 95 94 -193 94 94 96 95 94 97 98 99 98 97 97 96 97 99 98 98 97 -193 -193 -193 -193 101 -193 98 100 100 101 102 102 101 101 99 102 101 -209 -209 -193 -209 -209 -209 -209 -209 -193 100 98 98 101 -193 -193 -193 107 -193 -193 112 107 106 105 104 103 103 104 103 100 101 101 101 101 102 101 94 -209 -209 -209 -209 -209 -209 -209 -193 -209 99 104 100 97 97 88 0 0 0 0 0
    0 0 0 0 0 0 0 0 0 0 0 0 0 0 0 0 0 0 0 0 0 0 0 0 0 0 0 0 0 0 0 0 0 0 0 0 0 0 0 0 0 0 0 0 0 0 0 0 0 0 0 0 0 0 0 0 0 0 0 0 0 0 0 0 0 0 0 0 0 -209 -209 76 77 80 81 78 79 81 83 87 -193 87 87 89 89 89 89 88 87 85 86 87 84 83 84 84 82 84 86 87 86 88 89 85 85 86 88 87 86 86 86 87 89 89 89 87 89 90 89 89 88 89 89 89 90 90 89 91 91 91 90 90 90 88 86 86 85 87 87 90 90 89 89 90 90 90 90 89 89 89 90 92 93 92 92 92 91 91 93 92 90 90 91 90 90 91 91 90 90 92 91 90 91 93 93 93 93 92 92 93 93 94 92 92 92 91 92 93 92 92 91 91 92 93 94 93 93 95 94 95 96 95 94 97 95 96 95 96 95 94 96 95 94 96 98 96 96 101 96 96 100 96 96 95 96 96 92 95 94 -193 94 94 95 95 94 98 98 98 97 97 97 96 98 100 98 98 98 100 -193 102 102 101 100 98 99 100 101 102 102 101 100 99 102 101 -209 -193 103 -193 104 -209 -209 -193 -193 103 -193 -193 -193 -193 -193 109 107 -193 -193 110 106 105 105 104 103 103 103 102 100 101 101 101 102 102 102 -193 -209 -209 -209 -209 -209 -193 -209 -193 -193 -209 104 100 97 97 89 0 0 0 0 0
    0 0 0 0 0 0 0 0 0 0 0 0 0 0 0 0 0 0 0 0 0 0 0 0 0 0 0 0 0 0 0 0 0 0 0 0 0 0 0 0 0 0 0 0 0 0 0 0 0 0 0 0 0 0 0 0 0 0 0 0 0 0 0 0 0 0 0 0 0 -209 -177 -209 76 80 81 77 78 79 83 87 89 87 87 88 89 89 88 88 87 84 86 86 84 83 84 84 82 85 86 86 86 87 89 86 86 87 88 86 86 85 85 86 88 88 87 86 89 89 89 89 87 88 88 89 89 89 89 90 90 90 90 89 89 87 86 85 84 86 87 89 89 89 89 89 89 89 89 89 88 89 90 91 92 91 92 91 91 91 92 91 90 91 91 91 91 91 91 91 92 92 91 90 91 94 93 94 93 92 93 93 93 94 92 92 92 91 92 92 91 91 90 90 91 91 93 93 94 96 95 95 95 95 95 97 96 96 95 97 96 96 97 96 95 96 98 96 96 101 96 96 100 96 96 95 97 97 92 95 94 91 94 95 95 94 94 97 97 97 96 96 96 95 97 98 97 97 97 99 -193 -193 102 100 99 97 98 99 101 103 102 102 100 100 103 102 -209 -193 103 101 -193 -193 -193 -193 -193 -193 -193 -209 -193 -209 107 112 -193 -193 -193 109 105 105 104 104 102 102 103 102 100 102 101 101 102 102 101 -209 -209 -209 -209 -209 -209 -193 -209 182 183 -209 104 101 97 97 89 0 0 0 0 0
    0 0 0 0 0 0 0 0 0 0 0 0 0 0 0 0 0 0 0 0 0 0 0 0 0 0 0 0 0 0 0 0 0 0 0 0 0 0 0 0 0 0 0 0 0 0 0 0 0 0 0 0 0 0 0 0 0 0 0 0 0 0 0 0 0 0 0 0 0 -177 -177 -193 -193 82 81 79 81 81 84 87 88 86 87 88 88 88 87 87 86 84 86 86 84 84 84 84 83 85 86 86 86 88 91 87 88 88 88 87 86 86 86 86 87 87 87 85 89 89 89 89 87 88 88 89 89 89 90 91 90 90 90 89 89 86 86 85 84 87 87 88 88 88 89 89 88 88 88 88 88 88 89 90 90 91 92 91 90 91 92 90 90 90 90 90 90 91 90 90 92 91 91 90 91 94 93 94 93 92 93 93 94 94 92 92 92 91 92 92 91 91 91 91 91 92 94 93 93 96 95 95 95 95 94 96 96 96 95 97 97 97 98 96 95 95 98 96 95 101 96 95 100 96 96 96 97 97 92 95 94 91 95 95 95 94 94 97 96 97 95 95 95 94 96 97 95 97 96 97 97 100 100 99 97 96 95 97 99 -193 101 101 100 100 103 -193 -193 -193 102 102 -193 -193 -193 -193 -193 -193 -193 -209 -193 -209 -193 110 109 -193 107 107 104 104 104 103 102 102 103 102 100 102 102 102 103 103 102 -209 42 -209 -209 -193 -193 -193 -209 183 -209 -209 104 101 98 97 90 0 0 0 0 0
    0 0 0 0 0 0 0 0 0 0 0 0 0 0 0 0 0 0 0 0 0 0 0 0 0 0 0 0 0 0 0 0 0 0 0 0 0 0 0 0 0 0 0 0 0 0 0 0 0 0 0 0 0 0 0 0 0 0 0 0 0 0 0 0 0 0 0 0 0 -193 -177 -193 -193 -193 -193 83 84 84 86 87 87 87 88 88 88 88 87 87 85 85 86 85 84 85 85 85 84 87 87 87 87 90 92 90 90 90 90 87 87 86 86 86 87 87 86 86 90 90 89 89 87 87 88 87 88 87 89 90 89 89 90 89 89 86 87 85 85 87 87 88 88 88 89 89 88 87 88 88 87 88 89 90 90 91 92 91 90 92 93 90 90 90 90 90 90 91 89 89 91 91 90 90 90 93 93 95 94 92 93 94 93 94 92 92 92 91 92 92 91 91 91 92 92 93 95 94 95 96 95 95 95 95 94 96 96 96 95 97 97 97 98 96 94 95 97 95 95 100 95 95 100 96 96 96 97 97 93 95 95 92 95 95 95 94 94 97 96 96 95 94 94 93 95 95 94 97 96 97 97 100 100 99 96 96 96 97 -193 -193 -193 -209 101 101 103 -209 -193 -209 103 103 -209 -209 -209 -193 107 106 -209 -209 105 -209 -193 -209 110 -193 107 106 104 104 104 104 103 103 103 102 101 103 102 103 103 103 102 -209 -209 -209 123 120 -209 -193 -209 -209 -209 -209 104 101 98 98 90 0 0 0 0 0
    0 0 0 0 0 0 0 0 0 0 0 0 0 0 0 0 0 0 0 0 0 0 0 0 0 0 0 0 0 0 0 0 0 0 0 0 0 0 0 0 0 0 0 0 0 0 0 0 0 0 0 0 0 0 0 0 0 0 0 0 0 0 0 0 0 0 0 0 0 -209 -193 -193 82 85 85 85 86 86 87 87 88 87 88 89 88 88 87 86 85 85 86 85 84 85 85 85 85 87 87 87 87 90 93 91 91 92 91 88 87 87 87 85 86 86 85 86 89 89 89 89 87 87 88 87 87 87 87 89 87 88 88 87 87 84 84 84 85 87 88 88 88 88 89 -193 -193 87 88 88 88 88 89 90 90 91 92 91 90 93 93 91 91 91 91 91 91 92 90 90 92 91 91 91 90 92 93 95 93 93 94 94 94 94 92 93 92 91 92 92 91 92 92 93 93 94 95 95 96 97 96 95 95 95 95 96 96 96 96 97 97 98 97 96 94 94 97 95 94 100 95 95 100 96 96 96 97 97 93 95 95 92 95 96 95 94 94 97 96 96 94 94 94 93 95 95 94 96 96 97 98 101 101 99 97 96 97 98 98 102 -209 -193 -193 102 103 -209 -209 -209 103 103 -209 -209 -209 107 107 106 -209 -209 105 103 105 106 105 -193 105 105 104 104 105 104 103 103 103 102 101 102 102 102 103 102 -209 -209 -209 -209 -209 -209 -209 -193 -209 -193 -209 -209 105 101 98 98 90 0 0 0 0 0
    0 0 0 0 0 0 0 0 0 0 0 0 0 0 0 0 0 0 0 0 0 0 0 0 0 0 0 0 0 0 0 0 0 0 0 0 0 0 0 0 0 0 0 0 0 0 0 0 0 0 0 0 0 0 0 0 0 0 0 0 0 0 0 0 0 0 0 0 0 -209 -193 -209 -209 -193 -209 85 87 86 87 87 87 87 88 89 88 87 87 86 86 86 86 86 85 86 86 85 86 87 87 87 87 89 94 92 93 93 91 88 88 88 88 85 86 86 85 86 89 89 89 89 88 88 88 87 87 87 88 88 87 87 87 87 86 83 82 83 84 86 87 87 87 88 89 -193 88 87 88 88 89 89 89 90 90 90 93 90 90 92 92 91 91 91 92 92 92 92 91 92 93 92 92 92 90 92 93 95 93 93 94 94 94 93 92 93 92 91 91 91 90 91 92 93 92 93 95 95 96 96 96 95 95 95 95 96 97 97 97 97 98 98 97 95 94 94 96 94 94 101 95 96 100 96 96 96 97 97 93 95 95 92 95 96 95 94 94 97 96 95 94 94 93 93 94 94 93 96 97 97 99 -193 101 99 97 96 96 -193 98 -209 -209 -209 -209 -209 103 -209 -209 -209 103 103 -193 -193 -193 -193 107 107 -193 -209 107 -193 106 107 104 -209 104 104 103 103 104 103 103 103 102 102 101 102 101 101 102 100 -193 69 65 -209 -209 -209 -209 -193 -209 -209 -209 108 106 102 98 98 90 0 0 0 0 0
    0 0 0 0 0 0 0 0 0 0 0 0 0 0 0 0 0 0 0 0 0 0 0 0 0 0 0 0 0 0 0 0 0 0 0 0 0 0 0 0 0 0 0 0 0 0 0 0 0 0 0 0 0 0 0 0 0 0 0 0 0 0 0 0 0 0 0 0 0 -209 -209 -209 -193 -193 -193 -193 86 86 86 86 86 86 87 88 87 87 86 86 86 86 86 86 85 86 86 86 87 88 87 88 88 89 95 92 93 93 91 89 89 89 89 86 86 86 85 86 89 89 89 89 89 89 88 87 87 87 87 88 86 86 86 85 84 81 81 83 84 86 87 87 86 88 88 -193 87 87 88 88 88 89 89 90 90 90 93 90 90 91 91 90 90 91 91 92 92 92 91 92 94 92 92 92 89 92 93 94 93 93 94 95 94 93 92 92 91 91 90 -193 -193 90 93 93 92 94 96 95 96 96 96 95 95 96 95 96 98 97 98 98 98 98 96 95 94 94 95 93 93 100 95 96 100 96 96 95 98 97 93 95 95 92 95 96 95 94 94 97 96 95 94 94 93 93 94 94 93 96 97 98 99 -193 100 99 97 97 96 97 97 -209 -209 -209 -209 -193 102 -209 -193 -193 102 103 103 -193 -193 -193 -193 -193 -209 -209 106 -209 -209 -193 109 107 104 104 103 103 103 102 103 102 101 101 101 102 101 101 101 99 66 68 62 -209 -209 -209 -209 -193 118 -193 -209 107 105 102 98 98 90 0 0 0 0 0
    0 0 0 0 0 0 0 0 0 0 0 0 0 0 0 0 0 0 0 0 0 0 0 0 0 0 0 0 0 0 0 0 0 0 0 0 0 0 0 0 0 0 0 0 0 0 0 0 0 0 0 0 0 0 0 0 0 0 0 0 0 0 0 0 0 0 0 0 0 -209 -209 -209 -209 -193 -209 85 86 86 86 85 84 85 86 86 86 86 85 84 84 85 85 85 85 86 86 86 87 88 88 88 88 90 95 93 93 93 91 89 89 89 89 86 86 86 84 86 89 89 89 89 89 89 89 88 88 88 88 88 86 87 86 85 84 82 82 83 84 85 86 86 85 87 87 -193 86 86 87 87 88 88 89 90 89 90 92 90 91 92 90 90 91 91 91 92 92 92 91 93 93 92 92 92 89 92 93 94 93 93 94 94 93 92 92 92 91 91 90 -193 -193 90 94 94 91 93 95 95 95 96 96 96 96 97 96 96 98 98 98 98 98 97 95 94 93 93 95 92 92 100 95 95 99 96 96 95 98 97 93 95 95 93 96 96 95 94 95 97 96 95 94 94 93 94 94 94 94 97 97 97 -193 -193 100 99 97 97 97 99 98 -193 -193 -209 -193 -193 -193 -209 -193 -193 102 104 103 102 -193 -193 -193 -209 -209 -209 -209 -209 -209 -209 113 -209 102 103 102 101 101 100 102 101 100 101 101 101 101 101 101 97 63 65 59 -209 -209 -209 -193 -193 117 115 112 109 107 102 99 98 90 0 0 0 0 0
    0 0 0 0 0 0 0 0 0 0 0 0 0 0 0 0 0 0 0 0 0 0 0 0 0 0 0 0 0 0 0 0 0 0 0 0 0 0 0 0 0 0 0 0 0 0 0 0 0 0 0 0 0 0 0 0 0 0 0 0 0 0 0 0 0 0 0 0 0 -209 -209 -209 -209 -209 -209 86 87 86 85 84 84 85 86 86 86 85 85 84 85 86 85 85 85 86 85 86 87 88 87 87 89 89 95 92 93 93 92 90 90 90 90 86 87 87 86 87 89 89 89 89 90 90 90 89 89 89 89 89 88 88 87 86 85 82 82 84 85 86 86 85 85 87 87 87 85 85 86 86 87 88 88 89 88 90 92 89 91 92 90 90 91 91 91 92 92 91 91 93 93 92 93 92 89 92 92 93 93 93 94 94 93 92 92 92 92 91 90 -193 89 91 94 94 92 93 96 95 95 96 96 96 97 97 97 96 99 98 99 99 99 97 95 93 93 93 95 92 92 100 95 95 99 96 96 95 98 97 93 95 96 93 96 96 95 94 95 96 95 94 94 93 93 93 93 93 95 96 97 96 -193 -193 99 98 97 97 98 99 99 -193 -193 -193 -193 -193 -193 -193 -193 -193 103 104 103 102 103 -193 -209 -209 -209 -209 -209 -209 -209 -209 111 -193 102 102 102 101 100 98 101 99 99 100 100 100 100 100 100 95 66 68 62 -209 -209 -209 -209 -193 -209 -209 -209 -209 106 102 98 98 90 0 0 0 0 0
    0 0 0 0 0 0 0 0 0 0 0 0 0 0 0 0 0 0 0 0 0 0 0 0 0 0 0 0 0 0 0 0 0 0 0 0 0 0 0 0 0 0 0 0 0 0 0 0 0 0 0 0 0 0 0 0 0 0 0 0 0 0 0 0 0 0 0 0 0 -209 -209 -209 -209 -209 87 87 88 86 85 84 84 86 86 86 86 86 85 85 86 86 85 85 85 85 85 85 87 87 86 86 89 89 95 92 92 93 92 91 91 90 91 87 88 88 87 88 89 90 90 90 91 91 91 90 91 90 90 89 88 88 86 86 85 82 83 85 86 86 86 85 85 87 -193 87 85 85 87 88 89 89 89 90 89 90 92 89 92 92 90 91 91 91 91 92 92 91 91 93 92 92 93 92 89 92 92 93 93 93 94 94 93 92 92 92 92 92 91 91 90 92 95 95 94 94 96 94 95 96 96 96 97 97 98 96 99 98 99 99 99 96 96 93 94 93 95 91 91 100 95 95 99 96 96 95 98 96 93 95 96 93 96 96 95 94 95 95 95 93 94 93 93 93 92 93 94 95 96 95 -193 -193 -193 -193 -193 -193 100 101 100 -193 96 -193 -193 101 -193 -193 -193 -193 102 -193 103 102 102 -193 -193 -193 97 -193 97 97 -209 -209 108 102 100 100 101 100 99 99 101 99 99 100 100 100 100 100 100 -193 69 70 -209 -209 -209 -209 -209 119 121 121 -193 109 106 102 98 98 89 0 0 0 0 0
    0 0 0 0 0 0 0 0 0 0 0 0 0 0 0 0 0 0 0 0 0 0 0 0 0 0 0 0 0 0 0 0 0 0 0 0 0 0 0 0 0 0 0 0 0 0 0 0 0 0 0 0 0 0 0 0 0 0 0 0 0 0 0 0 0 0 0 0 0 -209 -193 85 88 87 87 87 87 86 85 84 85 86 86 86 86 86 86 85 86 86 85 85 85 85 85 85 86 86 86 86 89 89 95 92 92 93 93 92 91 91 91 88 89 89 88 88 89 90 90 91 91 91 92 91 91 91 90 89 88 88 86 86 85 82 84 85 87 87 87 86 86 -193 -193 88 87 86 88 89 90 90 90 91 90 91 92 90 92 91 91 91 91 91 91 92 92 92 92 93 92 92 94 92 89 91 92 92 93 93 94 93 93 92 91 91 91 91 91 91 91 93 95 96 95 96 97 95 95 96 96 96 97 97 96 95 98 97 98 97 98 96 96 94 95 93 95 91 91 100 95 95 99 96 96 95 98 96 93 95 96 93 96 96 96 94 95 95 95 94 94 93 93 93 93 -193 95 96 97 96 -193 -193 -193 101 -193 -193 101 101 101 100 98 100 100 101 101 -193 -193 104 103 104 103 102 102 101 -193 99 97 96 97 96 98 101 103 99 99 99 100 99 99 99 101 98 99 100 100 100 100 99 99 -193 70 72 -193 -209 -209 -209 -209 119 -193 120 113 107 105 102 98 98 90 0 0 0 0 0
    0 0 0 0 0 0 0 0 0 0 0 0 0 0 0 0 0 0 0 0 0 0 0 0 0 0 0 0 0 0 0 0 0 0 0 0 0 0 0 0 0 0 0 0 0 0 0 0 0 0 0 0 0 0 0 0 0 0 0 0 0 0 0 0 0 0 0 0 0 -193 -193 84 87 86 86 87 87 86 85 84 85 86 86 86 86 86 86 86 87 86 85 85 85 85 85 86 86 86 86 86 89 88 95 92 92 93 93 92 92 91 92 89 90 89 89 87 89 89 90 90 90 91 91 90 90 90 90 88 87 87 86 86 85 83 85 86 87 87 87 87 87 -209 -177 -193 87 87 89 90 91 91 91 91 91 91 92 90 91 90 90 91 91 91 91 92 92 92 93 93 93 93 94 92 89 91 92 92 93 93 94 93 93 92 90 90 90 91 90 90 91 93 96 95 95 96 97 95 96 96 96 95 97 96 95 94 97 96 97 96 97 95 95 93 94 92 94 90 90 100 95 95 99 96 96 95 98 96 93 96 96 93 97 96 96 94 95 96 95 94 95 94 95 94 94 -193 97 97 -193 -193 -193 -193 -193 -193 -193 -193 102 102 102 100 99 100 100 101 102 103 104 104 103 104 103 103 103 102 -193 100 98 -193 97 96 -193 100 102 98 98 98 99 98 98 99 101 98 99 99 99 99 99 99 97 -193 70 -193 -193 -209 -209 -209 -209 -193 -209 -209 -209 -209 104 102 98 98 91 0 0 0 0 0
    0 0 0 0 0 0 0 0 0 0 0 0 0 0 0 0 0 0 0 0 0 0 0 0 0 0 0 0 0 0 0 0 0 0 0 0 0 0 0 0 0 0 0 0 0 0 0 0 0 0 0 0 0 0 0 0 0 0 0 0 0 0 0 0 0 0 0 0 0 -209 -209 85 86 85 85 85 86 85 84 84 85 86 86 86 87 86 86 86 87 86 85 86 86 85 85 86 86 85 86 86 89 88 95 92 92 93 93 92 92 91 93 90 91 90 89 87 88 89 90 89 90 90 91 90 90 90 89 88 87 87 86 86 84 84 85 87 87 88 88 88 -193 -193 -193 -193 88 87 90 90 91 91 91 91 91 91 92 91 91 90 90 90 90 91 91 92 92 92 93 93 93 94 95 92 90 92 92 92 93 93 94 93 94 93 91 90 91 91 90 91 91 93 95 95 96 96 98 96 96 97 96 96 98 96 95 94 96 95 96 96 96 94 94 93 94 92 94 90 90 100 95 95 99 96 95 95 98 96 93 96 97 93 97 96 97 94 95 96 95 94 95 94 95 93 94 96 98 96 -193 -193 -193 -193 -193 -193 -193 -193 101 101 101 100 99 99 99 100 101 -193 -193 -193 102 103 103 104 104 -193 -193 100 99 -193 96 95 -193 98 101 96 96 95 96 96 97 99 100 97 99 99 99 99 99 99 95 -193 69 -193 -193 -209 -209 -209 -193 -193 -209 -209 -209 -193 104 102 98 98 92 0 0 0 0 0
    0 0 0 0 0 0 0 0 0 0 0 0 0 0 0 0 0 0 0 0 0 0 0 0 0 0 0 0 0 0 0 0 0 0 0 0 0 0 0 0 0 0 0 0 0 0 0 0 0 0 0 0 0 0 0 0 0 0 0 0 0 0 0 0 0 0 0 0 0 -209 -209 87 87 85 85 85 85 84 83 84 85 86 85 86 87 86 86 87 87 86 85 86 86 85 85 87 86 84 86 86 89 87 94 91 91 93 93 92 92 92 93 91 92 91 90 87 88 89 90 89 90 90 91 90 91 90 90 89 88 88 86 86 85 85 86 88 88 88 88 88 -193 -193 -193 88 87 87 90 91 92 92 91 91 92 92 92 91 92 90 90 90 90 90 91 91 91 91 93 93 93 94 94 92 91 92 92 92 93 94 94 93 94 92 91 90 90 91 89 90 91 93 95 95 96 97 98 96 96 98 96 97 97 95 94 93 96 94 96 96 95 94 94 93 94 92 94 90 90 100 94 95 99 96 95 95 98 96 93 96 96 94 97 96 98 94 96 96 95 94 95 94 96 94 94 97 98 97 -193 -193 -193 -193 -193 -193 -193 99 99 100 101 100 98 98 97 99 99 102 -193 101 100 101 102 103 103 100 100 98 98 97 94 94 -209 -193 101 94 95 93 94 94 95 98 99 96 99 100 100 100 100 100 96 -193 69 -209 -209 -209 -193 -209 -209 -209 -209 -209 -209 -193 104 102 98 98 93 0 0 0 0 0
    0 0 0 0 0 0 0 0 0 0 0 0 0 0 0 0 0 0 0 0 0 0 0 0 0 0 0 0 0 0 0 0 0 0 0 0 0 0 0 0 0 0 0 0 0 0 0 0 0 0 0 0 0 0 0 0 0 0 0 0 0 0 0 0 0 0 0 0 0 -209 -209 86 87 85 85 84 85 84 83 84 85 85 85 85 87 86 85 87 87 86 86 86 86 84 85 87 86 84 85 85 89 87 93 91 91 93 93 92 92 92 93 91 93 92 90 87 88 89 90 90 90 90 91 91 91 90 89 88 87 87 86 86 85 85 88 89 89 88 88 88 88 -193 -193 88 86 87 90 92 93 93 91 91 91 92 92 91 91 90 89 90 90 90 91 91 91 91 93 93 93 93 94 92 91 92 92 92 93 94 93 92 94 92 90 90 90 91 89 91 91 93 95 95 95 97 97 96 97 98 96 98 97 96 94 94 95 94 95 96 95 94 94 94 95 92 93 90 90 100 94 95 99 96 95 95 98 96 93 96 97 94 97 97 98 94 96 95 96 94 95 95 97 94 95 98 99 98 99 96 -193 -193 98 99 98 98 98 99 100 99 98 98 97 98 98 100 101 100 99 100 100 101 101 99 98 96 96 96 94 95 -193 -209 102 96 96 95 95 96 97 99 99 97 100 101 101 102 102 101 98 -209 -193 -209 -209 -209 -193 -209 -209 -209 -209 -209 -209 -209 103 102 98 98 93 0 0 0 0 0
    0 0 0 0 0 0 0 0 0 0 0 0 0 0 0 0 0 0 0 0 0 0 0 0 0 0 0 0 0 0 0 0 0 0 0 0 0 0 0 0 0 0 0 0 0 0 0 0 0 0 0 0 0 0 0 0 0 0 0 0 0 0 0 0 0 0 0 0 0 -209 -209 -193 87 86 86 85 86 86 84 86 87 86 85 86 87 86 85 87 87 85 86 86 86 85 86 86 85 83 86 85 89 87 92 90 90 93 93 92 92 92 94 91 93 92 90 87 88 89 89 90 90 90 90 90 90 89 89 88 87 87 86 86 85 86 89 90 91 90 89 90 90 -193 -193 -193 88 87 90 91 92 91 90 90 91 91 91 90 90 89 89 90 90 90 90 91 91 91 92 92 92 93 94 92 92 92 92 92 93 94 93 92 94 92 90 90 91 91 90 91 92 92 94 95 95 97 96 96 97 98 96 97 96 95 94 94 95 94 95 96 95 94 94 95 96 93 94 91 90 100 94 95 98 96 95 95 99 96 94 96 97 94 96 97 98 94 97 96 96 95 96 95 96 94 95 97 97 94 96 93 -193 -193 96 97 98 98 99 99 100 98 99 98 98 98 98 100 -193 100 100 99 100 101 102 101 100 99 100 100 98 99 100 -193 102 97 98 95 97 97 99 101 99 97 100 101 101 102 102 102 99 -209 108 116 115 -209 -209 -209 -209 -209 -209 -209 -209 -209 103 102 97 98 94 0 0 0 0 0
    0 0 0 0 0 0 0 0 0 0 0 0 0 0 0 0 0 0 0 0 0 0 0 0 0 0 0 0 0 0 0 0 0 0 0 0 0 0 0 0 0 0 0 0 0 0 0 0 0 0 0 0 0 0 0 0 0 0 0 0 0 0 0 0 0 0 0 0 0 -209 -209 -209 -209 87 86 86 87 87 86 87 88 87 87 87 88 87 86 87 87 85 86 86 85 85 86 86 85 83 86 85 88 87 91 90 90 92 93 92 92 92 93 91 94 92 90 87 87 88 89 89 89 89 90 89 89 88 88 87 86 86 85 86 85 87 91 92 92 91 90 90 -193 -193 -193 -193 -193 87 90 91 92 91 90 91 91 91 92 91 90 89 90 90 89 89 90 90 90 91 92 92 92 93 94 92 92 92 91 92 92 93 92 92 94 92 91 91 91 92 91 92 93 92 95 95 95 97 97 96 98 98 96 96 95 95 93 94 95 93 95 96 95 95 94 95 95 93 94 91 90 101 95 96 98 96 95 95 99 96 94 96 97 95 96 97 98 94 97 96 97 95 96 96 96 94 96 96 96 93 94 91 -193 -193 95 -193 98 98 100 99 100 99 100 99 98 97 98 99 -193 99 99 99 99 102 103 103 102 100 102 102 101 101 100 101 101 97 98 95 97 96 99 101 99 98 100 101 101 102 102 102 100 -193 109 114 112 114 -193 -209 -209 -209 -209 -209 -209 -209 -193 102 97 97 95 0 0 0 0 0
    0 0 0 0 0 0 0 0 0 0 0 0 0 0 0 0 0 0 0 0 0 0 0 0 0 0 0 0 0 0 0 0 0 0 0 0 0 0 0 0 0 0 0 0 0 0 0 0 0 0 0 0 0 0 0 0 0 0 0 0 0 0 0 0 0 0 0 0 0 -209 -209 -209 -209 87 86 86 86 88 87 88 88 87 87 88 88 87 85 87 87 84 86 86 85 84 85 86 85 83 87 85 88 87 90 89 89 92 92 92 92 91 93 91 94 92 90 87 87 88 88 89 89 87 89 88 87 86 86 85 85 85 84 85 83 87 94 93 92 91 90 91 -193 -193 -193 -193 -193 -209 90 91 93 91 90 92 92 91 93 92 90 90 90 90 89 89 89 89 89 91 91 91 92 93 94 92 93 92 91 92 92 93 92 91 93 91 91 91 91 91 91 92 92 93 95 96 96 97 97 96 98 98 96 97 95 95 93 93 95 93 94 96 94 94 93 94 94 92 93 91 90 101 94 95 98 96 95 95 98 96 94 96 97 95 96 98 99 94 97 96 97 96 97 97 97 94 97 98 96 93 94 92 92 -193 93 95 96 96 96 96 98 98 99 97 95 96 97 99 101 99 98 99 100 -193 -193 104 102 101 102 103 100 100 99 100 99 96 97 95 95 96 100 101 100 99 101 101 102 103 103 103 -193 -193 111 114 112 113 112 -193 -193 -209 -209 -209 -209 -209 103 -193 97 97 96 0 0 0 0 0
    0 0 0 0 0 0 0 0 0 0 0 0 0 0 0 0 0 0 0 0 0 0 0 0 0 0 0 0 0 0 0 0 0 0 0 0 0 0 0 0 0 0 0 0 0 0 0 0 0 0 0 0 0 0 0 0 0 0 0 0 0 0 0 0 0 0 0 0 0 -209 -209 -209 -209 87 85 85 86 88 86 87 88 87 87 88 88 87 85 87 86 84 85 85 84 84 85 86 85 84 88 86 89 87 89 88 88 91 92 91 91 91 93 91 94 92 90 86 87 87 87 88 88 87 88 87 86 86 86 85 85 85 84 84 83 88 96 93 92 91 90 90 -193 -193 -193 -193 -193 88 90 90 91 90 89 91 91 92 94 93 91 90 91 91 90 89 90 88 89 91 91 91 92 93 94 92 93 92 91 92 93 93 92 91 93 91 91 91 91 91 91 92 92 93 95 96 96 98 97 97 98 98 96 97 95 95 93 93 94 93 94 95 94 94 92 93 93 92 92 90 90 101 95 95 98 97 95 95 99 96 94 96 97 96 96 98 98 94 98 97 98 96 97 98 97 95 98 98 95 94 94 93 92 91 92 94 94 94 93 94 96 97 98 -193 94 95 97 98 101 99 97 99 100 -193 -209 105 102 101 103 104 102 100 -193 100 99 97 97 95 96 96 100 101 100 100 102 102 103 103 104 103 -209 -193 114 115 113 113 112 -193 -193 -209 -209 -209 -209 -209 102 -193 97 97 97 0 0 0 0 0
    0 0 0 0 0 0 0 0 0 0 0 0 0 0 0 0 0 0 0 0 0 0 0 0 0 0 0 0 0 0 0 0 0 0 0 0 0 0 0 0 0 0 0 0 0 0 0 0 0 0 0 0 0 0 0 0 0 0 0 0 0 0 0 0 0 0 0 0 0 -209 -209 -209 -209 -193 84 83 85 87 85 86 87 86 86 88 88 86 84 86 86 84 85 85 84 84 86 86 85 84 88 87 90 87 88 88 88 91 91 91 91 90 92 91 94 93 90 87 87 87 88 89 89 87 89 87 86 86 86 86 85 85 84 84 83 89 97 93 92 91 90 90 91 91 90 88 87 87 89 89 90 88 88 91 91 92 94 93 91 91 91 91 90 90 90 89 89 91 91 90 92 92 93 92 93 92 92 93 94 93 92 92 94 91 92 92 92 91 91 92 93 93 96 96 96 98 98 97 99 99 96 97 95 96 94 94 95 93 94 96 93 93 91 93 93 91 92 91 91 101 95 96 98 97 95 95 99 96 95 96 97 96 95 98 98 94 98 97 98 97 97 99 97 96 99 99 96 94 95 93 92 91 92 92 93 92 91 92 93 94 94 -193 93 94 95 95 96 95 95 97 98 102 103 103 101 104 106 105 101 101 -209 100 99 98 98 96 96 98 101 102 101 101 102 102 102 103 104 103 -209 -193 117 117 115 114 115 -193 -209 -209 -209 -209 -209 -209 -193 -209 97 97 97 0 0 0 0 0
    0 0 0 0 0 0 0 0 0 0 0 0 0 0 0 0 0 0 0 0 0 0 0 0 0 0 0 0 0 0 0 0 0 0 0 0 0 0 0 0 0 0 0 0 0 0 0 0 0 0 0 0 0 0 0 0 0 0 0 0 0 0 0 0 0 0 0 0 0 -193 -193 -209 -193 86 84 83 84 87 85 86 86 85 86 87 87 86 84 87 86 85 86 85 85 85 86 86 85 84 88 87 89 86 87 87 87 90 90 90 90 90 92 91 93 92 89 87 88 88 88 89 89 89 90 89 87 87 87 86 85 84 83 84 81 90 99 94 93 90 90 90 91 91 89 87 86 86 89 89 90 88 88 92 91 92 94 93 91 91 92 91 90 90 90 88 89 90 90 90 91 92 93 92 93 92 92 93 94 93 92 91 93 91 92 92 92 91 91 91 92 92 95 96 95 97 97 96 99 99 96 98 95 97 94 95 95 93 95 97 93 94 91 94 93 93 94 93 94 100 97 97 98 97 96 95 99 96 95 96 97 96 96 98 98 94 98 97 98 97 97 98 97 97 99 98 94 94 95 94 93 91 91 92 92 92 91 92 92 93 94 93 93 93 94 95 95 94 94 96 97 101 103 -193 104 106 107 107 -193 -193 -193 -193 99 97 96 95 94 99 101 101 100 100 101 101 102 103 104 -193 -209 -209 -193 -209 116 116 -193 -209 -209 -209 -209 -209 -209 -209 -193 -209 97 97 98 0 0 0 0 0
    0 0 0 0 0 0 0 0 0 0 0 0 0 0 0 0 0 0 0 0 0 0 0 0 0 0 0 0 0 0 0 0 0 0 0 0 0 0 0 0 0 0 0 0 0 0 0 0 0 0 0 0 0 0 0 0 0 0 0 0 0 0 0 0 0 0 0 0 0 -193 -193 -193 -209 86 83 82 84 87 84 86 86 85 85 87 87 86 83 87 86 85 86 85 85 86 86 85 85 84 87 86 88 86 85 86 86 89 89 89 89 89 90 91 92 91 89 88 88 88 88 90 90 90 91 90 87 87 88 87 85 84 83 84 82 91 100 95 95 91 90 90 91 91 89 87 86 86 89 89 90 89 88 92 91 91 95 92 91 91 91 91 90 90 90 87 88 90 89 89 90 91 91 91 93 92 91 92 93 93 92 91 93 90 91 92 92 91 91 92 93 91 95 97 94 96 96 94 98 97 95 97 95 96 94 95 95 93 95 97 94 94 92 95 94 94 96 95 95 100 97 97 97 97 95 95 98 96 95 96 97 96 95 98 98 94 98 96 97 97 98 98 96 98 98 98 94 95 96 96 94 93 92 93 95 94 92 92 93 94 94 94 94 93 94 95 95 96 95 97 96 99 102 102 102 103 104 105 -193 -193 -193 100 99 97 98 96 96 99 101 100 100 100 101 101 102 102 103 -193 -209 113 117 117 -193 -193 -209 -209 -209 -209 -209 -209 -209 -209 -209 -209 97 98 98 0 0 0 0 0
    0 0 0 0 0 0 0 0 0 0 0 0 0 0 0 0 0 0 0 0 0 0 0 0 0 0 0 0 0 0 0 0 0 0 0 0 0 0 0 0 0 0 0 0 0 0 0 0 0 0 0 0 0 0 0 0 0 0 0 0 0 0 0 0 0 0 0 0 0 82 80 78 84 85 82 81 83 87 84 85 86 85 85 86 86 86 83 86 86 85 86 85 85 86 86 85 84 84 86 86 88 86 85 85 86 88 88 88 88 88 89 91 92 91 88 88 88 88 88 89 90 90 91 89 86 86 88 87 85 84 83 83 83 92 100 96 98 92 91 90 92 91 89 87 86 87 89 90 89 88 88 93 90 91 95 92 91 91 92 92 90 90 90 86 88 89 89 87 89 90 90 90 92 92 91 92 93 92 91 90 92 89 90 91 91 91 92 93 95 93 96 99 95 96 96 93 98 95 94 95 93 95 93 94 93 92 94 96 94 94 92 96 95 95 98 97 98 100 96 96 97 97 95 94 98 95 95 96 97 95 95 97 97 94 97 96 96 96 98 97 96 98 -193 -193 93 95 96 96 94 94 93 94 98 98 96 95 96 96 96 95 94 93 94 95 96 96 95 96 97 99 101 101 101 101 101 104 -193 -193 -193 100 100 99 100 98 98 101 101 99 99 99 100 100 101 101 101 -193 -193 115 117 -193 -193 -193 -209 -193 -209 -193 -209 -209 -209 -209 -209 -209 98 98 99 0 0 0 0 0
    0 0 0 0 0 0 0 0 0 0 0 0 0 0 0 0 0 0 0 0 0 0 0 0 0 0 0 0 0 0 0 0 0 0 0 0 0 0 0 0 0 0 0 0 0 0 0 0 0 0 0 0 0 0 0 0 0 0 0 0 0 0 0 0 0 0 0 0 0 -193 82 77 -193 85 82 80 83 87 84 85 86 85 85 86 87 86 84 87 87 85 86 85 85 87 85 85 84 84 86 87 89 87 84 85 86 88 88 88 88 87 88 91 92 91 88 88 88 88 88 88 89 -193 -209 87 82 85 87 87 84 84 79 82 83 96 100 98 99 93 93 92 93 93 90 88 87 88 90 90 90 87 88 93 91 91 97 93 93 93 94 94 91 91 90 85 87 88 83 82 85 88 89 88 91 90 90 91 92 91 90 90 92 88 90 91 91 -193 93 95 97 95 98 101 98 99 98 94 98 94 93 92 91 92 90 91 90 89 91 94 94 94 93 97 96 96 99 98 99 99 96 96 97 97 95 94 98 95 95 96 96 95 95 97 97 95 97 97 96 97 98 97 96 -193 -193 -209 92 -193 95 -193 93 93 93 95 98 99 99 97 97 97 97 94 93 92 94 95 97 97 97 98 99 100 102 101 102 101 -193 -193 -193 -193 101 98 98 96 97 95 95 99 100 98 99 98 99 99 100 100 98 -209 -209 -209 117 -209 -193 -209 -193 -193 -209 -193 -209 -209 -209 -209 -209 -209 99 99 100 0 0 0 0 0
    0 0 0 0 0 0 0 0 0 0 0 0 0 0 0 0 0 0 0 0 0 0 0 0 0 0 0 0 0 0 0 0 0 0 0 0 0 0 0 0 0 0 0 0 0 0 0 0 0 0 0 0 0 0 0 0 0 0 0 0 0 0 0 0 0 0 0 0 0 -209 84 79 -193 85 82 80 83 86 84 85 85 85 85 86 86 86 84 87 87 86 86 85 86 87 85 84 84 84 85 87 89 87 84 84 85 88 87 87 87 87 88 91 92 91 87 89 89 89 89 -193 -193 -193 -209 -209 79 86 -193 -193 84 86 82 85 85 98 100 98 98 94 95 93 94 95 91 88 87 89 92 91 92 89 89 92 92 92 98 94 95 95 98 98 94 94 93 89 88 89 -193 78 84 88 89 88 90 90 90 91 92 91 90 89 90 87 90 91 -209 -209 -193 95 96 95 98 101 -193 -193 99 95 95 92 91 90 89 90 87 87 84 86 89 91 92 92 92 95 95 96 99 98 100 97 95 95 96 97 95 94 97 95 95 96 96 95 95 97 97 95 97 97 96 97 97 97 -193 -193 -209 -209 92 -193 95 -193 93 93 93 95 98 98 -209 96 95 98 96 94 93 92 94 96 97 99 97 98 100 101 102 101 103 -193 -193 -193 -209 100 100 97 96 95 96 95 95 98 99 97 98 98 99 99 99 99 94 -209 -209 -209 -209 -209 -209 -209 -193 -193 -209 -209 -209 -209 -193 -209 -209 -209 99 99 100 0 0 0 0 0
    0 0 0 0 0 0 0 0 0 0 0 0 0 0 0 0 0 0 0 0 0 0 0 0 0 0 0 0 0 0 0 0 0 0 0 0 0 0 0 0 0 0 0 0 0 0 0 0 0 0 0 0 0 0 0 0 0 0 0 0 0 0 0 0 0 0 0 0 0 85 84 80 -193 85 82 80 82 85 83 84 85 85 84 85 86 86 85 87 87 86 86 86 87 87 86 85 85 84 85 87 89 88 84 84 85 88 87 88 88 87 88 91 91 91 88 89 90 90 90 90 89 -193 -209 -209 -209 89 92 -209 -209 87 -193 90 92 98 98 97 98 94 98 93 95 96 92 90 87 91 96 -193 97 90 -193 -193 -193 -193 99 95 96 96 99 100 99 96 95 -209 85 -209 69 78 86 89 90 90 92 92 91 92 94 92 90 90 88 86 -209 -209 -209 -193 -209 -209 -209 -209 -193 -209 -209 -193 -193 93 90 89 88 88 87 87 83 81 78 83 85 87 90 90 91 95 96 96 99 98 100 95 94 93 95 96 94 93 96 94 96 96 96 95 95 97 97 95 96 97 95 97 96 97 -193 -193 -209 -193 92 96 97 97 94 96 94 96 99 97 -209 91 91 -209 94 92 93 92 94 97 98 100 98 98 100 101 102 100 103 -193 -209 -209 -209 -193 100 98 98 96 98 96 97 100 99 98 99 99 99 99 99 98 91 -209 -209 -209 -209 -193 -209 -209 -209 -193 -193 -209 -209 -209 -193 -209 -209 -209 98 98 100 0 0 0 0 0
    0 0 0 0 0 0 0 0 0 0 0 0 0 0 0 0 0 0 0 0 0 0 0 0 0 0 0 0 0 0 0 0 0 0 0 0 0 0 0 0 0 0 0 0 0 0 0 0 0 0 0 0 0 0 0 0 0 0 0 0 0 0 0 0 0 0 0 0 0 85 84 82 -193 86 83 81 83 85 83 84 84 84 83 84 85 86 85 87 88 87 86 87 88 88 87 85 86 85 85 86 88 88 84 84 85 88 87 88 88 87 88 91 91 91 87 89 89 89 89 89 89 -193 -209 -209 -209 -209 -209 -209 -209 -193 -193 95 101 98 96 97 99 96 102 96 95 95 -193 -209 -209 -193 -193 34 -193 -209 -209 -209 -209 -209 -209 94 93 -193 -209 -209 -209 -209 -209 -209 -209 -209 61 -209 83 88 90 91 93 94 93 94 95 95 89 89 87 85 -209 -209 -209 50 -209 -209 -209 -209 -209 -209 -209 -209 -209 91 87 87 87 86 85 85 80 79 77 80 82 84 88 89 92 97 97 97 99 98 100 94 94 93 95 96 94 93 96 94 96 96 96 95 95 97 97 95 96 96 95 97 95 97 -193 -193 -209 -193 92 96 98 97 95 98 96 98 101 101 97 98 98 101 -209 95 96 94 97 99 100 101 100 99 101 101 101 99 101 100 -209 -209 -209 -209 101 100 101 99 100 99 100 101 100 99 99 99 99 99 99 96 90 -209 -193 -193 -193 -209 -209 -209 -193 -209 -193 -209 -209 -209 -193 -209 -209 -209 98 98 100 0 0 0 0 0
    0 0 0 0 0 0 0 0 0 0 0 0 0 0 0 0 0 0 0 0 0 0 0 0 0 0 0 0 0 0 0 0 0 0 0 0 0 0 0 0 0 0 0 0 0 0 0 0 0 0 0 0 0 0 0 0 0 0 0 0 0 0 0 0 0 0 0 0 0 84 83 82 82 86 84 82 84 85 84 84 84 84 83 84 85 85 85 87 87 87 86 87 88 88 88 86 87 86 86 86 88 88 83 84 85 88 87 88 88 87 87 91 90 90 86 88 89 89 89 -209 89 -193 -209 -209 -209 -209 -209 -209 -193 -193 -209 94 -209 94 93 -209 -209 -193 -193 -209 -209 -209 -209 -209 -209 -193 33 35 34 -209 -209 -209 -209 -209 -209 -209 -209 -209 -209 339 -209 -209 -209 -209 -209 -209 -209 -209 -209 -209 -209 -209 94 -209 -209 92 91 92 87 87 85 83 -209 -209 -209 49 -193 -209 -209 -209 -209 -209 -209 218 -209 91 87 86 87 86 85 84 79 78 77 79 78 82 88 89 95 98 98 97 100 98 101 94 93 92 94 95 93 92 94 93 95 96 95 96 95 96 97 96 96 97 96 98 95 97 -209 -193 -209 -193 94 98 100 99 99 100 98 99 101 101 98 98 98 98 -193 95 94 92 95 98 -193 101 100 99 100 101 101 100 102 101 -193 -193 -209 101 100 101 101 99 100 99 100 100 99 99 99 99 99 99 99 95 90 -209 -193 0 -193 -209 -193 -209 -209 -209 -209 -209 -209 -209 269 -193 -209 -209 97 98 99 0 0 0 0 0
    0 0 0 0 0 0 0 0 0 0 0 0 0 0 0 0 0 0 0 0 0 0 0 0 0 0 0 0 0 0 0 0 0 0 0 0 0 0 0 0 0 0 0 0 0 0 0 0 0 0 0 0 0 0 0 0 0 0 0 0 0 0 0 0 0 0 0 0 0 84 84 83 84 87 84 83 85 86 85 86 85 85 84 85 86 86 85 87 87 86 86 88 89 88 88 87 88 88 87 87 89 89 84 84 86 89 88 88 88 88 87 90 90 90 86 88 88 89 89 -209 89 105 -209 -209 -209 -209 -193 -193 70 -193 -209 -193 -209 -193 -209 -209 -209 -209 -209 -209 -209 -209 -209 -209 -209 34 31 34 33 -209 -209 -209 -209 -209 -209 -209 -209 -209 -209 -209 -209 -209 -209 -209 -209 -209 -209 -209 -209 -209 -209 -209 -209 -209 -209 -193 -193 90 84 84 -193 80 -193 -209 -209 -209 -209 -209 -209 -193 -209 -209 -209 -193 -209 92 87 86 85 85 85 83 78 77 76 78 77 80 -193 91 97 98 98 98 99 97 100 93 92 92 93 94 93 92 93 92 95 95 95 95 94 96 97 97 96 97 96 97 94 -209 -209 -209 -209 -209 -193 98 100 99 100 101 101 101 103 102 99 98 -193 -209 -193 -209 93 91 94 98 -193 101 99 98 100 100 101 100 103 99 96 101 -209 101 100 100 100 98 100 100 101 99 98 99 98 99 100 100 99 95 -193 -209 -193 -193 -209 -209 151 -193 -209 -193 -209 -209 -209 -193 -193 -209 -209 -209 98 98 100 0 0 0 0 0
    0 0 0 0 0 0 0 0 0 0 0 0 0 0 0 0 0 0 0 0 0 0 0 0 0 0 0 0 0 0 0 0 0 0 0 0 0 0 0 0 0 0 0 0 0 0 0 0 0 0 0 0 0 0 0 0 0 0 0 0 0 0 0 0 0 0 0 0 0 86 85 84 86 88 85 85 86 86 86 86 86 86 85 86 87 86 86 87 87 86 86 88 89 88 89 88 89 88 88 88 90 91 85 85 86 89 88 89 89 88 87 90 90 90 86 88 88 88 88 -209 89 101 -209 -209 -209 -209 -193 -193 -193 -209 -193 -193 -209 -209 -209 -209 -209 -209 -209 -209 -209 -209 -209 -209 31 34 32 34 34 -193 -193 -209 -209 -209 -209 -209 -209 -209 -209 -209 -209 -209 -209 -209 -209 -209 -209 -209 -209 -209 32 -209 -209 -209 89 91 91 90 84 84 81 80 -193 -193 -209 -209 -209 -209 -209 360 -209 -209 -209 -193 -209 -193 -193 85 85 84 84 82 78 77 76 78 75 78 88 91 97 97 98 98 99 96 101 93 92 91 92 94 92 91 92 92 94 95 94 95 94 95 97 97 96 97 97 98 94 -209 -209 98 -209 -209 -193 97 99 97 98 100 101 102 102 101 99 97 -193 -209 -193 90 91 90 92 95 -193 100 99 98 101 101 102 101 105 101 -209 -193 -209 -193 103 103 103 101 103 103 103 99 98 98 98 99 100 100 99 94 -193 -193 -193 -209 143 -209 -193 -209 -209 -209 -209 -193 -193 -193 -193 -209 -209 -209 98 98 100 0 0 0 0 0
    0 0 0 0 0 0 0 0 0 0 0 0 0 0 0 0 0 0 0 0 0 0 0 0 0 0 0 0 0 0 0 0 0 0 0 0 0 0 0 0 0 0 0 0 0 0 0 0 0 0 0 0 0 0 0 0 0 0 0 0 0 0 0 0 0 0 0 0 0 87 85 85 86 87 85 85 86 86 86 86 87 86 85 86 87 87 87 87 86 86 86 88 88 88 88 88 89 89 88 88 90 91 86 85 86 89 88 88 89 88 87 89 89 89 85 87 87 88 87 -209 89 96 -209 -209 -209 -209 -209 -193 -193 -193 55 -193 -193 -209 -209 54 -209 -209 -209 -209 -209 -209 -209 -209 29 33 33 35 34 35 36 -193 -209 -209 -209 -209 -209 -209 -209 -209 -209 -209 -209 -209 -209 -193 -193 -209 -209 -209 -209 -209 -209 92 92 93 94 92 88 87 -193 -209 -193 -193 -209 -209 -209 -209 -209 -209 -209 -209 -209 -193 -209 92 -193 86 85 84 85 83 79 78 77 78 76 78 85 -209 96 96 100 100 99 95 102 93 92 91 92 94 92 91 91 91 93 94 94 95 93 95 98 98 95 98 99 98 95 -193 -193 98 -209 -209 -193 93 97 95 97 99 101 102 101 100 99 99 99 98 97 90 91 91 94 96 -209 101 100 100 102 -193 105 -209 114 -209 -209 108 -209 105 104 104 104 102 104 103 103 100 99 99 99 99 100 100 99 95 -193 -193 49 -209 -209 -193 -193 -209 -209 -193 -193 -193 -193 -193 -209 -209 -209 -209 98 98 100 0 0 0 0 0
    0 0 0 0 0 0 0 0 0 0 0 0 0 0 0 0 0 0 0 0 0 0 0 0 0 0 0 0 0 0 0 0 0 0 0 0 0 0 0 0 0 0 0 0 0 0 0 0 0 0 0 0 0 0 0 0 0 0 0 0 0 0 0 0 0 0 0 0 0 86 85 85 86 87 85 86 86 86 86 87 87 86 86 87 87 86 87 87 86 85 85 87 88 87 88 87 89 89 88 87 89 91 86 86 87 89 88 88 89 88 87 88 88 88 84 86 87 87 87 77 89 96 -209 -209 -193 -209 -209 -193 -193 -193 54 -193 54 54 -209 53 -209 -193 -209 -209 -209 -209 -209 -209 -177 30 32 35 33 34 35 -193 -193 -193 -209 -209 -209 -209 -209 -209 -209 -209 -209 -209 345 352 -193 -209 -209 -209 -209 -193 -193 -193 -193 96 98 96 -193 -193 -209 -209 -209 -209 -209 -209 -209 -209 -209 -209 -209 -193 -209 -209 -209 92 89 87 85 85 85 83 80 79 -193 79 76 78 83 88 93 93 97 98 98 93 101 93 92 91 92 94 91 91 91 91 93 93 94 95 93 95 98 97 95 97 99 97 94 98 98 97 -193 -193 -209 92 97 96 100 100 101 102 101 99 98 99 97 95 95 89 91 92 97 97 -209 -193 104 103 105 109 109 112 118 -193 -209 111 -209 106 104 104 103 102 103 103 101 99 98 99 99 99 100 100 99 94 -193 -193 -193 -209 -209 -193 -193 -193 -193 -193 -193 -193 -193 256 -209 -193 -209 -209 98 98 100 0 0 0 0 0
    0 0 0 0 0 0 0 0 0 0 0 0 0 0 0 0 0 0 0 0 0 0 0 0 0 0 0 0 0 0 0 0 0 0 0 0 0 0 0 0 0 0 0 0 0 0 0 0 0 0 0 0 0 0 0 0 0 0 0 0 0 0 0 0 0 0 0 0 0 86 84 85 86 86 85 86 86 86 86 87 87 86 86 87 87 86 87 86 85 85 85 87 88 87 88 87 89 89 88 87 90 91 87 86 87 89 87 88 88 87 86 87 87 86 83 86 86 86 86 77 89 94 -209 -193 -193 -193 -209 -193 -193 -209 -193 -193 -193 -193 -209 -209 -209 -209 -209 150 -209 -209 -209 -209 -209 -209 -193 -193 30 -209 -209 -209 -209 -209 -209 -209 -209 -209 -209 -209 -209 -209 -209 -209 -209 -193 -209 -209 -209 -209 -209 -209 -209 -193 98 99 -193 99 96 -193 89 -193 -209 -209 -209 -209 -209 -209 -193 -209 -193 -193 -209 -209 -193 90 88 86 84 84 84 81 81 80 -193 81 75 76 81 -193 90 89 92 92 94 91 101 92 92 92 92 95 92 91 91 91 93 93 94 96 93 95 98 97 94 97 98 96 94 96 97 97 -193 -193 -209 93 100 99 102 100 102 103 101 99 97 97 96 93 -209 -209 -193 -193 95 97 -209 -193 -209 101 104 -193 108 112 118 119 117 114 114 107 105 104 104 102 103 103 101 98 98 99 99 99 100 100 98 94 -193 -209 -193 0 -193 -193 -193 -209 -209 -177 -193 -193 -193 -193 -193 -209 -209 -209 99 99 101 0 0 0 0 0
    0 0 0 0 0 0 0 0 0 0 0 0 0 0 0 0 0 0 0 0 0 0 0 0 0 0 0 0 0 0 0 0 0 0 0 0 0 0 0 0 0 0 0 0 0 0 0 0 0 0 0 0 0 0 0 0 0 0 0 0 0 0 0 0 0 0 0 0 0 86 84 85 86 86 85 86 86 86 86 87 86 86 86 87 86 86 86 86 85 85 85 87 87 87 87 88 89 89 88 88 89 91 87 87 88 89 87 88 88 87 86 86 86 85 82 85 85 86 86 -193 89 94 -209 -193 -193 -209 -209 -209 -209 -193 -193 -209 -193 -193 -209 -209 -209 -209 -209 -209 -209 -193 -193 -209 -209 -209 -209 -209 -209 -209 -209 -209 -209 -209 -209 -209 -193 -209 -209 135 -209 -209 -209 -209 -209 -209 -209 -209 -209 -209 -209 -209 -193 -209 98 100 100 99 96 87 87 -193 -209 -209 -209 -209 -209 -209 -209 -209 -193 -209 -209 -209 -193 87 84 81 81 82 82 79 81 82 81 83 77 -209 87 89 91 90 92 91 94 91 101 93 92 92 92 95 92 91 91 92 93 94 94 96 93 96 98 98 94 98 99 97 94 97 98 99 100 99 -209 95 101 100 101 101 101 102 101 99 98 97 96 -193 -193 -209 92 91 95 95 -193 -193 100 99 102 -193 -193 107 113 115 112 112 110 107 105 105 104 103 104 104 101 99 99 99 99 100 100 100 99 96 -209 -209 0 -193 -193 -193 -193 -193 -209 -193 -193 -193 -193 -193 -193 252 -209 -209 100 100 101 0 0 0 0 0
    0 0 0 0 0 0 0 0 0 0 0 0 0 0 0 0 0 0 0 0 0 0 0 0 0 0 0 0 0 0 0 0 0 0 0 0 0 0 0 0 0 0 0 0 0 0 0 0 0 0 0 0 0 0 0 0 0 0 0 0 0 0 0 0 0 0 0 0 0 87 85 86 86 86 85 87 87 86 86 87 86 86 86 87 86 86 86 85 84 85 86 87 86 86 86 87 88 88 87 87 -193 91 86 86 88 88 87 87 87 86 85 85 85 84 81 84 85 85 85 -193 89 97 -209 -209 -209 -209 -209 -193 -193 59 57 -209 -193 55 -209 -209 -209 -209 -209 -209 -193 -193 146 -193 -209 -209 -209 -209 -209 117 -193 -209 -193 -209 -209 -209 -209 -209 -209 -209 -209 -209 -209 -209 -193 -209 -209 -209 -209 -209 -209 -209 -209 -193 -193 -193 100 100 99 -193 -209 -209 -193 -209 -209 88 -209 -209 -209 -193 341 -209 -209 -209 -209 -209 -209 -209 80 82 82 80 81 83 -193 -193 -193 -193 -209 -209 93 95 97 98 98 92 101 93 92 92 92 95 92 91 91 92 93 94 95 96 93 96 98 98 94 99 99 97 95 98 99 100 101 100 -193 97 101 101 102 102 102 102 101 99 98 98 98 96 -193 -209 -193 90 94 92 93 93 95 95 98 101 102 -193 109 -209 112 114 107 105 104 103 103 103 103 104 101 99 100 100 100 101 101 101 100 -209 -209 0 0 0 -193 -193 -193 0 -209 -193 -193 -209 -193 -209 -209 -209 -209 -209 101 101 102 0 0 0 0 0
    0 0 0 0 0 0 0 0 0 0 0 0 0 0 0 0 0 0 0 0 0 0 0 0 0 0 0 0 0 0 0 0 0 0 0 0 0 0 0 0 0 0 0 0 0 0 0 0 0 0 0 0 0 0 0 0 0 0 0 0 0 0 0 0 0 0 0 0 0 86 84 86 86 85 85 87 87 87 87 87 86 86 87 88 87 86 86 85 84 85 86 86 86 85 86 86 87 88 87 87 -193 -193 86 86 88 88 87 87 86 86 85 85 84 82 80 83 84 84 84 -193 89 103 -209 -209 -209 -209 -209 -209 -209 -209 58 -209 -209 56 -193 -209 -209 -209 -209 -209 -209 -209 -193 -209 -209 -209 -209 -209 -209 117 -193 -193 -193 -193 -193 -193 -193 -193 -209 134 134 -209 -193 -209 -193 -209 -209 -209 -209 -209 -209 -209 -209 -209 -193 -209 -193 -209 -209 -209 -193 -209 -193 -209 -193 -193 -209 -209 -209 -209 -193 -209 -209 -209 -209 -209 -209 -209 78 82 83 -193 -193 -193 -209 -209 -209 -209 -209 -209 -209 -209 -209 -209 -209 94 101 94 93 93 92 95 92 91 91 92 93 94 95 96 94 96 98 98 94 99 99 98 97 98 99 100 101 100 -193 -209 -209 -209 -209 -193 101 -193 101 100 99 99 99 -193 -193 -209 -193 90 93 92 92 91 93 93 95 98 101 -193 109 115 116 116 108 106 105 104 103 103 103 103 100 99 100 101 101 102 102 102 102 -209 -209 -193 0 -209 -209 150 -209 -209 -209 100 101 102 101 -209 -209 -209 -209 -209 103 103 103 0 0 0 0 0
    0 0 0 0 0 0 0 0 0 0 0 0 0 0 0 0 0 0 0 0 0 0 0 0 0 0 0 0 0 0 0 0 0 0 0 0 0 0 0 0 0 0 0 0 0 0 0 0 0 0 0 0 0 0 0 0 0 0 0 0 0 0 0 0 0 0 0 0 0 87 84 86 86 84 86 87 87 87 87 87 86 86 87 87 87 87 86 85 85 86 86 86 85 85 85 85 87 87 86 87 -193 -193 86 86 88 88 87 87 86 86 85 84 84 81 79 82 84 84 84 75 89 100 -209 96 95 99 -209 -209 -209 -209 -209 -209 -209 -209 -209 -209 -209 -209 -209 -209 -209 -209 -209 -209 -209 -209 -209 -209 119 122 126 -193 130 130 128 -193 -193 -193 -209 135 -193 -193 -193 -193 -193 -209 -193 -209 -209 -209 -193 -209 -209 -209 -209 -209 -209 -209 -209 -193 224 229 -193 229 -193 -193 -209 -209 -193 -209 -193 -209 -209 -193 -193 -209 -209 -209 77 82 82 -193 -193 -193 -193 -177 -177 -209 -209 -209 -209 -209 -209 -209 -209 95 101 94 93 93 93 96 92 91 92 93 94 95 96 96 94 96 98 98 94 100 99 98 98 99 100 100 102 101 -193 -193 -209 -209 -209 -209 102 -209 -209 -193 -193 -193 -193 -193 -209 -209 -209 91 93 92 93 91 93 93 94 96 99 100 107 113 114 116 109 107 106 106 105 104 104 103 100 100 101 102 102 103 103 102 102 -209 -209 -209 -193 -209 -209 151 -209 -209 -209 100 101 101 100 -209 -209 -209 -209 -209 103 103 104 0 0 0 0 0
    0 0 0 0 0 0 0 0 0 0 0 0 0 0 0 0 0 0 0 0 0 0 0 0 0 0 0 0 0 0 0 0 0 0 0 0 0 0 0 0 0 0 0 0 0 0 0 0 0 0 0 0 0 0 0 0 0 0 0 0 0 0 0 0 0 0 0 0 0 84 84 85 85 84 86 87 86 86 87 86 86 86 87 87 86 87 86 84 86 87 87 87 85 85 85 85 87 87 85 -193 86 -193 86 86 88 88 86 86 85 86 85 84 83 80 78 81 83 83 83 75 89 94 90 94 91 98 -209 -209 -209 -209 -209 -209 -209 -209 -209 -209 -209 -209 -209 -209 -209 -209 -209 -193 -209 -193 -209 -209 118 122 126 -193 -193 -193 -193 -193 -193 -193 -209 -193 -209 -209 -209 -209 -209 -209 -193 -193 -209 -209 -209 -209 -209 -209 -209 -209 -209 -209 -209 221 223 227 224 228 -193 -193 -209 -209 -193 -193 -209 -209 -209 -193 -193 -209 -209 -209 -193 84 84 -193 -193 -193 -193 -193 -177 -209 -209 -209 -209 -209 -209 -209 -209 95 101 94 93 93 92 96 93 92 93 93 94 96 96 96 94 97 98 98 95 100 98 98 99 99 100 100 102 101 -193 -209 -209 -209 -209 -209 102 -209 -209 -193 -193 -193 -193 -193 -209 -209 -209 93 96 94 95 94 96 96 98 100 102 103 107 111 114 115 108 107 107 106 106 104 104 103 100 101 102 102 102 103 103 102 102 -209 -209 -209 -193 -209 -209 151 -209 -209 -209 100 -193 -193 -193 -209 -209 -209 -209 -209 104 104 104 0 0 0 0 0
    0 0 0 0 0 0 0 0 0 0 0 0 0 0 0 0 0 0 0 0 0 0 0 0 0 0 0 0 0 0 0 0 0 0 0 0 0 0 0 0 0 0 0 0 0 0 0 0 0 0 0 0 0 0 0 0 0 0 0 0 0 0 0 0 0 0 0 0 0 79 83 84 84 84 85 86 86 86 87 85 85 85 86 87 86 87 86 84 86 87 87 87 85 85 85 85 87 87 86 -193 86 -193 85 86 88 87 86 85 85 85 84 83 82 79 78 80 82 83 83 75 89 96 -193 89 -193 -209 -209 -209 79 -209 -209 -209 -209 -209 -209 -209 -209 -209 -209 -193 -209 -209 -209 -193 -209 -209 -209 -193 117 120 -193 -193 -193 129 -193 -193 -193 -193 -209 133 -209 -209 -209 -209 -209 -209 -193 286 284 283 -209 -209 -209 -209 -209 -209 -209 -209 220 221 222 226 224 227 -193 -193 -209 -209 -209 -209 -209 184 -209 -193 -193 -209 -209 -209 -193 -209 -209 -209 -209 -209 -193 -209 -209 -209 -193 -209 -209 -209 -209 -209 -209 94 101 93 93 92 92 96 93 92 94 94 95 97 97 96 94 97 98 97 95 99 97 98 99 98 100 100 102 101 -193 -193 -209 -209 -209 -209 102 -193 -193 -193 -193 -193 -193 -193 -193 -193 -193 94 99 98 97 96 97 98 100 100 102 101 106 -193 113 -209 105 104 104 104 104 103 103 101 100 101 102 103 103 103 103 102 -209 -209 -193 -193 0 -209 -209 -209 -209 -209 -209 -209 -209 -193 -193 124 -193 121 -193 -209 104 104 104 0 0 0 0 0
    0 0 0 0 0 0 0 0 0 0 0 0 0 0 0 0 0 0 0 0 0 0 0 0 0 0 0 0 0 0 0 0 0 0 0 0 0 0 0 0 0 0 0 0 0 0 0 0 0 0 0 0 0 0 0 0 0 0 0 0 0 0 0 0 0 0 0 0 0 76 83 84 83 84 86 86 86 86 86 85 85 85 86 86 86 86 85 84 86 88 87 87 85 85 86 86 88 88 86 -193 87 91 85 86 88 88 87 86 85 85 84 83 82 79 78 80 82 82 82 75 88 -193 -193 -193 82 -209 -209 -209 -209 -209 -209 -209 -209 -209 -209 -209 -209 -209 -193 158 -209 -209 -209 -209 -209 -209 -209 123 116 120 -209 -209 -193 -209 -209 -209 -193 -193 -209 133 -193 -209 -193 -209 -209 -209 286 289 289 286 -209 -209 -209 -209 -209 -209 -209 -209 220 221 222 225 -193 -193 -193 -209 -209 -209 -193 -193 -209 -193 -209 -209 -193 -193 -209 -209 -209 97 -209 -193 -193 -209 179 182 -193 -209 -209 -209 -209 -209 -209 -209 -193 93 101 93 92 92 92 97 94 93 96 94 96 99 98 97 95 97 98 97 96 99 97 98 99 98 100 100 102 101 -193 103 -209 -209 -193 -193 101 -193 -193 -193 -193 98 96 -193 -193 -209 -193 92 98 97 97 96 97 98 99 101 101 101 103 105 108 -193 104 104 103 103 103 103 103 100 100 102 103 103 103 104 103 101 -193 -209 -209 -193 0 -209 -209 -209 -209 -209 -193 -209 -193 125 -193 125 -193 120 119 -209 105 105 105 0 0 0 0 0
    0 0 0 0 0 0 0 0 0 0 0 0 0 0 0 0 0 0 0 0 0 0 0 0 0 0 0 0 0 0 0 0 0 0 0 0 0 0 0 0 0 0 0 0 0 0 0 0 0 0 0 0 0 0 0 0 0 0 0 0 0 0 0 0 0 0 0 0 0 76 83 84 83 85 86 86 86 86 87 85 85 85 85 86 86 86 85 84 86 88 87 87 85 84 86 86 88 89 -193 -193 88 93 86 86 89 88 87 86 85 85 85 83 82 79 78 79 81 81 82 74 86 -193 82 81 77 -193 71 -209 -209 -209 55 -193 -177 -209 -209 -193 -193 -209 -193 158 -209 -193 -209 -209 252 -193 -209 -209 -209 -209 -209 -209 -209 -209 -209 -209 -193 -193 -209 133 -193 -209 -209 -209 -209 -193 287 290 291 -209 -209 -209 -209 -209 -209 -209 -209 -209 -209 221 221 -193 -193 -209 -193 -193 -209 -209 336 -193 -209 -209 -209 -209 -193 14 -209 -209 -193 99 99 -193 -193 -193 -193 -209 -209 -209 -209 -209 -209 -209 -209 -209 -209 92 100 93 92 92 92 97 94 94 97 95 97 99 98 98 95 98 98 97 97 99 98 99 100 99 101 101 103 102 -193 -193 -209 -209 -209 -193 -193 -193 -193 99 96 97 95 99 99 94 94 92 96 95 95 95 96 97 98 99 101 100 103 105 109 107 105 104 104 104 104 104 103 99 100 102 103 104 103 104 103 102 104 -209 -209 10 9 -209 -209 -209 -209 -209 -209 -209 -209 -193 -209 119 109 113 110 -193 105 104 104 0 0 0 0 0
    0 0 0 0 0 0 0 0 0 0 0 0 0 0 0 0 0 0 0 0 0 0 0 0 0 0 0 0 0 0 0 0 0 0 0 0 0 0 0 0 0 0 0 0 0 0 0 0 0 0 0 0 0 0 0 0 0 0 0 0 0 0 0 0 0 0 0 0 0 77 84 83 84 86 87 86 86 86 86 85 85 85 85 85 86 86 85 85 87 88 87 87 85 85 87 87 88 88 -193 -193 88 92 86 86 89 88 88 86 85 86 85 84 82 79 78 79 81 81 81 74 85 85 80 80 75 71 -193 -209 -193 -209 53 52 47 49 -209 -209 -209 -193 -209 -193 -209 -209 -209 -209 -193 -209 60 -209 -209 -209 -209 -209 -209 -209 -209 -209 -193 -209 -209 -193 -209 -209 -209 -209 -209 -193 290 292 293 -209 -209 -209 -209 -209 -209 -209 -209 -209 -209 -193 -193 -193 -209 -209 218 -193 -193 -209 -193 335 -209 -209 -209 -209 -209 13 -193 -209 93 95 95 -193 -209 -209 -193 -209 -209 -209 -209 -209 -209 -209 -209 -209 -209 92 101 93 92 92 93 97 94 94 98 94 98 99 98 97 95 98 98 96 97 99 98 100 101 100 101 101 -193 102 100 -209 -209 -209 -193 193 -193 99 101 98 97 97 96 100 99 96 96 94 97 97 96 96 97 98 100 100 103 102 103 105 108 -193 105 105 105 104 104 104 103 98 101 102 103 104 103 104 103 102 105 -209 -209 -209 9 -209 -209 -209 -209 -209 -209 -209 107 -209 110 -209 107 -209 106 -209 104 104 104 0 0 0 0 0
    0 0 0 0 0 0 0 0 0 0 0 0 0 0 0 0 0 0 0 0 0 0 0 0 0 0 0 0 0 0 0 0 0 0 0 0 0 0 0 0 0 0 0 0 0 0 0 0 0 0 0 0 0 0 0 0 0 0 0 0 0 0 0 0 0 0 0 0 0 78 83 83 84 86 87 86 86 87 86 85 85 86 85 86 87 86 85 85 87 88 87 88 86 86 87 87 88 -193 -193 -193 88 92 86 86 89 89 88 86 86 86 85 84 82 79 79 79 81 81 81 74 82 83 79 78 75 72 -193 -193 -193 -209 52 50 43 -209 37 -209 -193 -193 -193 -193 -193 -209 -209 -209 -209 55 59 58 -209 -209 -209 -193 -177 -209 -209 -209 -193 -209 -193 -209 -209 -209 -209 -209 -209 291 292 294 -193 -209 -209 -209 -209 -193 -193 -209 -209 -209 -209 -209 -209 -209 -209 -209 -209 -193 225 -193 -193 -193 -209 -209 -209 -209 -209 -193 -209 -209 -209 -193 93 97 94 -193 -209 -209 -209 -209 -209 -193 -209 -209 -209 -209 -209 92 101 93 92 92 93 97 94 94 98 94 98 99 98 97 96 98 99 96 98 99 98 100 100 99 100 100 -193 -193 -193 -209 -209 -209 -209 -193 -193 100 102 99 98 98 98 101 99 98 97 95 99 99 98 97 98 99 100 101 103 103 104 106 109 106 105 105 105 105 105 104 102 96 100 101 102 103 103 103 102 101 105 107 -209 -209 -193 -209 -209 -209 -209 -209 -209 -193 105 106 -209 -193 107 -209 -193 -209 104 104 104 0 0 0 0 0
    0 0 0 0 0 0 0 0 0 0 0 0 0 0 0 0 0 0 0 0 0 0 0 0 0 0 0 0 0 0 0 0 0 0 0 0 0 0 0 0 0 0 0 0 0 0 0 0 0 0 0 0 0 0 0 0 0 0 0 0 0 0 0 0 0 0 0 0 0 81 84 83 85 86 87 86 86 87 86 85 86 86 86 86 87 86 85 86 88 88 87 88 86 87 88 88 89 -193 -193 -209 87 -193 85 86 89 88 88 86 86 86 85 84 83 80 79 78 81 81 81 74 79 80 76 76 74 72 72 70 66 -209 50 47 43 -209 -193 -209 -193 -209 -209 -193 -209 -209 -209 -209 -193 55 59 58 58 -209 -209 -209 -209 89 -209 -209 -209 -193 -193 -209 -209 -209 -209 -209 -209 -209 295 -209 -209 -209 -209 -209 -209 -209 -209 -209 -209 -209 -209 -209 -209 -209 -209 -209 -209 -193 -193 -209 -193 -193 -193 -193 -209 -209 -209 -209 -209 -209 -209 -209 -193 98 97 -193 -193 -193 -209 -209 -209 -193 -193 -209 -209 -209 -209 92 102 93 92 92 94 98 95 94 99 94 98 99 98 97 96 98 99 96 99 98 98 100 100 99 100 99 -193 -193 -193 -209 -209 -193 -193 -193 -193 100 101 99 98 98 97 100 99 98 97 95 98 100 100 99 100 100 102 103 105 105 106 106 109 106 106 106 106 106 106 104 102 96 99 100 101 101 101 102 99 99 106 107 -209 -209 -209 -209 84 86 -209 -209 -209 -193 103 -209 -209 -209 -209 -209 -209 -193 103 103 103 0 0 0 0 0
    0 0 0 0 0 0 0 0 0 0 0 0 0 0 0 0 0 0 0 0 0 0 0 0 0 0 0 0 0 0 0 0 0 0 0 0 0 0 0 0 0 0 0 0 0 0 0 0 0 0 0 0 0 0 0 0 0 0 0 0 0 0 0 0 0 0 0 0 0 84 85 84 85 87 87 86 87 87 87 86 87 86 86 86 87 86 85 86 87 88 87 87 86 87 89 88 89 -209 -209 -209 87 -193 85 85 88 88 88 86 86 86 86 85 83 80 80 78 81 81 81 74 78 77 75 75 74 72 71 69 64 -193 -193 49 44 45 -209 -209 -209 -209 -209 165 -209 -209 -193 -193 -193 56 57 58 -209 -209 -209 -209 -209 92 -193 -209 -209 -193 -177 -209 -209 -209 -209 -209 -209 -209 -209 -209 315 318 -209 -209 -209 -209 -209 -209 -209 -209 -209 -209 -209 -209 -209 -209 -193 -193 -193 -209 -193 335 338 -193 -209 -209 -209 -209 -209 -209 -209 -209 -193 99 -193 -193 100 101 101 92 -209 -209 -209 -209 -209 -209 -209 92 102 93 92 92 95 98 95 95 99 94 99 99 98 97 96 98 99 95 99 97 98 99 100 98 99 99 -193 -193 -193 -209 -193 105 -193 -193 -193 101 101 99 97 98 97 100 99 98 97 96 99 101 102 101 101 101 103 105 105 106 106 106 107 105 105 105 105 105 105 103 101 96 99 100 100 100 100 99 96 94 -209 -209 -209 -209 -209 -209 85 85 -209 -209 -209 103 -209 -209 -209 -209 -193 -209 -193 242 103 103 103 0 0 0 0 0
    0 0 0 0 0 0 0 0 0 0 0 0 0 0 0 0 0 0 0 0 0 0 0 0 0 0 0 0 0 0 0 0 0 0 0 0 0 0 0 0 0 0 0 0 0 0 0 0 0 0 0 0 0 0 0 0 0 0 0 0 0 0 0 0 0 0 0 0 0 84 85 84 85 86 87 86 87 87 86 85 86 86 86 86 87 85 85 86 87 87 87 88 87 89 91 90 90 -193 -209 -209 87 89 85 85 88 88 88 86 86 86 86 85 84 81 81 79 81 81 81 74 79 78 75 76 75 73 72 70 66 62 -209 -209 -209 -209 -209 -193 -193 -193 -193 -209 -209 -209 -209 -193 -193 -193 58 60 -209 -209 -209 -209 -209 -193 -209 -209 -193 -209 -209 -209 -209 -209 -209 -209 -209 -193 -209 -209 -193 -209 -209 -209 -209 47 -209 -209 -209 -209 -209 -209 -209 -193 -209 -209 -209 -193 -193 -209 -209 -209 -209 -193 -209 -193 -209 -209 -209 -209 -209 -209 -209 100 99 -193 100 100 100 94 93 -209 -209 -209 -209 -209 -209 92 102 93 92 92 95 97 95 95 99 94 99 99 99 97 96 98 99 95 99 96 98 98 99 97 98 97 100 99 100 102 103 104 103 102 102 100 101 99 98 98 98 100 100 99 97 96 98 100 101 100 101 100 103 105 107 108 107 106 107 104 105 104 104 104 103 102 100 96 99 99 99 99 99 98 94 92 98 102 -209 -209 -209 -209 -209 86 -193 -209 -193 -209 -209 -209 -209 -209 -193 -209 239 242 -193 103 104 0 0 0 0 0
    0 0 0 0 0 0 0 0 0 0 0 0 0 0 0 0 0 0 0 0 0 0 0 0 0 0 0 0 0 0 0 0 0 0 0 0 0 0 0 0 0 0 0 0 0 0 0 0 0 0 0 0 0 0 0 0 0 0 0 0 0 0 0 0 0 0 0 0 0 84 85 85 86 86 86 86 86 86 86 85 86 86 85 86 86 85 85 86 87 87 87 88 88 91 93 92 91 90 88 89 88 90 86 86 88 88 88 87 86 87 86 85 84 82 82 79 82 82 82 74 82 82 77 77 76 73 72 70 66 61 -193 -193 -193 -193 -209 -193 -193 -193 -193 -209 -209 -209 -209 -209 -193 -209 -209 -209 -209 -209 -209 -209 -209 -209 -209 -209 52 -209 -209 -209 -209 -209 -209 -209 -209 -193 -209 -209 -193 -209 -209 46 41 45 -209 -209 -209 -209 -209 -193 -209 -209 -209 -209 -209 -209 -209 -209 -209 -209 -209 -209 -209 -193 -193 -193 -209 -209 -209 -209 -209 100 99 99 99 99 98 94 93 96 93 -209 -209 -193 -209 90 102 93 92 92 95 97 95 95 99 94 99 99 99 97 97 98 99 95 99 96 99 99 99 96 97 96 99 97 97 99 100 101 100 101 101 100 101 100 99 99 99 101 101 99 98 97 98 99 100 98 99 97 100 101 103 104 104 103 105 103 104 104 104 104 103 101 100 96 98 99 99 99 99 98 95 93 98 104 -209 -209 -209 -209 -209 -193 -193 -193 -193 -209 119 121 -193 -193 -193 177 -193 239 -193 103 104 0 0 0 0 0
    0 0 0 0 0 0 0 0 0 0 0 0 0 0 0 0 0 0 0 0 0 0 0 0 0 0 0 0 0 0 0 0 0 0 0 0 0 0 0 0 0 0 0 0 0 0 0 0 0 0 0 0 0 0 0 0 0 0 0 0 0 0 0 0 0 0 0 0 0 85 85 86 86 87 87 86 87 86 85 85 85 86 85 85 86 84 85 86 87 87 87 88 89 91 93 91 91 89 87 88 87 90 86 86 89 89 89 87 87 87 86 86 85 82 82 79 83 83 83 74 84 85 80 81 78 75 72 69 65 60 56 53 -193 -209 -209 -193 -193 109 -193 -193 -193 -193 -193 -209 -209 -209 -209 -209 -209 -209 -209 -209 -209 -209 -209 -209 -209 -209 -209 -209 -209 -209 -209 -209 -209 -209 -209 -209 -193 -209 -209 -193 -209 47 -209 -209 -193 -209 -209 -209 -209 -209 -209 -209 -209 -193 -209 242 -209 -209 -209 -209 -209 347 -193 -193 -193 -209 -209 -209 -193 100 98 98 98 99 99 95 94 97 94 -193 -209 -177 -209 89 102 93 92 92 95 97 94 95 98 94 99 99 99 97 96 99 99 95 99 96 100 99 100 97 98 97 99 97 96 96 97 99 99 100 100 100 100 100 100 100 100 101 100 99 98 97 97 98 99 98 97 95 95 97 100 100 103 102 104 103 104 105 105 105 104 101 100 97 98 98 98 98 98 96 94 92 97 -193 -209 -209 -209 -209 -209 -209 -193 -193 -193 -193 120 121 -209 -209 -177 177 -193 -193 -209 103 103 0 0 0 0 0
    0 0 0 0 0 0 0 0 0 0 0 0 0 0 0 0 0 0 0 0 0 0 0 0 0 0 0 0 0 0 0 0 0 0 0 0 0 0 0 0 0 0 0 0 0 0 0 0 0 0 0 0 0 0 0 0 0 0 0 0 0 0 0 0 0 0 0 0 0 85 85 87 86 87 87 86 87 86 85 85 85 86 86 85 85 84 85 86 87 86 86 87 89 91 92 90 89 88 86 88 87 89 86 86 88 89 89 87 87 87 87 86 86 83 83 80 84 84 84 74 86 86 83 84 82 76 72 70 67 -209 -209 -193 -209 -209 -209 -209 -193 108 107 -193 105 -209 -209 -209 -209 -209 -209 -209 -209 -209 -209 -209 -209 -209 -209 -209 -209 -209 -209 -209 -209 -209 -209 -209 -209 -193 -209 -209 -209 -209 -209 47 43 48 -209 -209 -193 -193 -177 -209 -209 -209 -209 -209 -209 -193 232 239 -209 -209 -209 -209 -209 -177 -193 345 343 -209 -209 -209 -193 -193 98 97 98 99 99 95 94 97 94 -209 -209 -193 -209 89 101 93 92 92 95 96 94 94 98 94 99 98 98 97 96 98 99 96 98 96 100 99 100 99 98 98 99 98 97 97 98 99 99 101 100 100 100 100 100 100 100 101 100 99 98 97 97 98 100 98 97 95 95 96 99 100 103 102 103 103 104 105 105 105 105 101 100 98 98 98 98 98 97 96 94 93 100 -193 -209 -209 -209 -209 -209 -209 -193 -193 -193 -193 119 120 -209 -209 -193 -193 -209 -209 -209 103 103 0 0 0 0 0
    0 0 0 0 0 0 0 0 0 0 0 0 0 0 0 0 0 0 0 0 0 0 0 0 0 0 0 0 0 0 0 0 0 0 0 0 0 0 0 0 0 0 0 0 0 0 0 0 0 0 0 0 0 0 0 0 0 0 0 0 0 0 0 0 0 0 0 0 0 86 86 87 86 87 86 86 86 86 85 86 85 86 86 85 85 84 85 86 86 86 85 86 89 92 92 90 89 88 86 87 86 88 85 86 88 88 88 87 87 87 87 87 87 84 84 82 86 86 85 74 86 86 83 84 -209 75 71 70 68 -209 -209 -209 -209 -209 -209 -209 -209 -209 -193 -209 -193 -209 -209 -209 -209 -209 -209 -209 -209 -209 -209 -209 -209 -209 -209 -209 -209 -209 -209 -209 -209 -209 -193 -209 -209 -193 -209 -209 -209 -209 -209 43 43 -193 -209 -209 -209 -209 90 -209 85 -209 -209 -209 -209 231 -209 -209 -209 -209 -209 -193 -209 -193 -193 -193 340 -193 -209 -209 -193 -193 97 96 97 99 99 95 94 97 95 -193 -209 -209 -209 90 101 93 92 91 94 96 94 94 97 94 99 98 98 96 96 98 99 96 98 96 99 98 99 98 97 97 98 97 97 97 98 99 100 101 101 101 101 101 100 100 100 101 100 98 97 97 96 98 100 98 97 94 94 96 100 100 103 102 103 104 105 106 105 106 105 100 100 98 98 98 98 98 97 95 -193 -209 -193 -193 -209 -209 -193 -193 -209 -209 -193 122 122 122 121 122 -209 -209 -193 -193 -209 -209 -209 103 103 0 0 0 0 0
    0 0 0 0 0 0 0 0 0 0 0 0 0 0 0 0 0 0 0 0 0 0 0 0 0 0 0 0 0 0 0 0 0 0 0 0 0 0 0 0 0 0 0 0 0 0 0 0 0 0 0 0 0 0 0 0 0 0 0 0 0 0 0 0 0 0 0 0 0 85 86 87 86 86 86 86 86 85 85 86 85 86 86 85 85 84 86 86 86 86 85 85 89 91 91 88 88 87 85 86 85 87 85 85 88 88 88 87 87 88 88 88 87 85 85 83 87 87 87 74 88 88 86 87 89 79 -193 70 -209 -209 -209 -209 -209 -209 -209 -209 -209 -209 -209 -209 -193 -209 -209 -209 -209 -209 -209 -209 -209 -209 -209 -209 -193 -193 -193 -209 -209 -209 -209 -209 -209 -209 -209 -209 -209 -209 -209 -193 -193 -193 43 44 44 -193 -209 -209 -193 -209 92 94 -209 -209 -209 -209 -209 -209 -209 -209 -209 -193 -209 -193 -209 -209 -209 341 339 -209 -209 -209 -193 98 97 96 97 99 99 96 95 97 -193 -193 -209 -209 -209 91 100 92 92 91 94 96 94 94 97 94 99 98 98 96 95 98 99 97 97 95 99 98 98 97 97 97 98 97 97 96 98 99 100 101 101 102 101 102 102 101 101 102 101 99 95 97 96 98 99 96 94 92 91 94 97 98 -193 101 102 103 104 105 105 106 104 99 99 98 98 98 98 98 96 93 12 -193 -193 110 -209 113 -193 -193 -193 115 116 120 -193 121 121 122 -193 -193 -193 -193 173 -209 -209 103 103 0 0 0 0 0
    0 0 0 0 0 0 0 0 0 0 0 0 0 0 0 0 0 0 0 0 0 0 0 0 0 0 0 0 0 0 0 0 0 0 0 0 0 0 0 0 0 0 0 0 0 0 0 0 0 0 0 0 0 0 0 0 0 0 0 0 0 0 0 0 0 0 0 0 0 85 86 86 85 86 86 86 85 85 85 85 85 86 86 85 84 85 87 86 86 86 85 85 88 90 90 88 88 87 85 86 85 87 85 85 88 88 88 87 87 88 89 88 88 86 86 84 88 88 88 75 88 88 89 89 92 -193 -209 -209 -209 -209 -209 -209 -209 -209 -209 -209 -209 -209 -209 -209 -209 -209 -209 -209 -209 -193 -209 -209 -209 -209 -209 -209 206 208 -193 -209 -209 -209 -209 -209 -209 -209 -209 -209 -209 -209 -209 -193 -193 50 43 44 44 44 -209 -209 -193 -193 94 96 -209 -209 -209 -209 -193 -209 -209 -209 -209 -209 -209 -193 -209 -209 -209 -209 -193 -209 -209 -209 -209 99 98 96 98 99 99 98 96 98 -193 -193 -193 -209 -193 91 100 92 92 91 94 96 94 94 96 93 99 99 98 96 94 98 98 96 96 94 98 97 98 97 97 97 97 97 97 96 98 99 99 100 100 101 101 102 101 100 100 102 99 98 95 97 96 98 99 96 93 91 91 95 98 99 -193 100 101 103 104 105 104 105 103 98 99 99 98 98 98 98 96 94 -193 -193 108 111 112 113 -193 -193 -193 118 117 -209 -209 122 122 123 -193 -209 -193 -193 -193 -193 -193 103 104 0 0 0 0 0
    0 0 0 0 0 0 0 0 0 0 0 0 0 0 0 0 0 0 0 0 0 0 0 0 0 0 0 0 0 0 0 0 0 0 0 0 0 0 0 0 0 0 0 0 0 0 0 0 0 0 0 0 0 0 0 0 0 0 0 0 0 0 0 0 0 0 0 0 0 84 86 86 85 85 85 85 84 84 84 84 84 85 85 84 83 85 87 86 86 85 84 84 88 89 90 87 88 87 85 86 86 87 86 86 88 89 89 87 87 88 89 89 89 86 86 85 89 89 89 75 89 89 90 91 94 96 -193 -193 -193 -209 -209 -209 -209 -209 -209 -209 -209 -209 -209 -209 -209 -209 -209 -209 -209 -209 -209 -209 -209 -209 -209 -209 205 206 -193 -209 -209 -209 -209 -209 -193 -209 -209 -209 -209 -209 -193 -193 49 50 43 44 44 43 44 -209 -209 -209 99 100 -209 -209 -209 -209 -193 -209 -209 -209 -193 -209 -193 99 99 -193 -193 -209 -209 -209 -209 -209 -209 -193 -193 95 96 99 99 98 96 -193 -193 -193 -209 -193 -193 90 100 92 92 91 94 96 94 94 96 93 99 99 98 96 93 97 98 96 95 94 96 96 96 97 96 97 97 97 97 97 97 98 98 99 99 100 100 101 101 100 99 101 99 98 96 97 96 97 98 95 -193 91 92 94 96 99 102 100 101 103 104 105 104 105 102 98 100 99 99 99 99 99 96 96 -193 -209 109 113 112 113 114 116 117 118 118 121 122 123 124 123 -193 -193 -193 -193 -209 -209 -209 104 104 0 0 0 0 0
    0 0 0 0 0 0 0 0 0 0 0 0 0 0 0 0 0 0 0 0 0 0 0 0 0 0 0 0 0 0 0 0 0 0 0 0 0 0 0 0 0 0 0 0 0 0 0 0 0 0 0 0 0 0 0 0 0 0 0 0 0 0 0 0 0 0 0 0 0 84 86 86 85 85 84 85 83 83 83 83 83 85 85 83 82 85 87 86 86 85 84 84 88 88 88 86 87 87 86 87 86 87 86 86 89 89 89 87 87 88 90 89 89 87 87 86 90 90 90 76 89 90 91 92 95 98 -193 -193 -209 -209 -209 -209 -209 -209 -209 -209 -209 -209 -209 -209 -209 -209 -209 -209 -209 -209 -209 -209 -209 -209 -209 -209 205 206 -209 -209 -209 -209 -209 -209 49 -209 -193 -209 -209 -209 -193 -193 52 52 44 45 46 44 44 -209 -209 -177 -193 -193 -209 -209 -209 -209 -193 -209 -209 -209 -193 -193 -209 -193 -193 -193 -209 -209 -193 -209 -209 -209 -209 93 -193 92 94 97 98 96 94 95 95 -209 -209 -209 -193 89 99 92 92 91 94 96 94 95 96 93 99 99 98 96 93 96 97 95 94 93 95 95 95 96 96 97 97 96 97 96 97 98 98 99 98 99 100 100 100 99 98 100 98 -193 96 96 95 97 97 94 93 92 92 94 97 99 101 99 101 102 103 105 104 104 102 98 100 100 99 99 100 99 96 -193 -209 -193 110 114 112 111 113 -193 -209 118 119 -193 -193 123 124 -193 -193 -193 -193 -193 -209 -193 -193 105 105 0 0 0 0 0
    0 0 0 0 0 0 0 0 0 0 0 0 0 0 0 0 0 0 0 0 0 0 0 0 0 0 0 0 0 0 0 0 0 0 0 0 0 0 0 0 0 0 0 0 0 0 0 0 0 0 0 0 0 0 0 0 0 0 0 0 0 0 0 0 0 0 0 0 0 85 86 86 85 84 84 85 83 83 83 83 83 84 85 83 82 85 87 86 85 84 83 84 88 88 88 86 87 87 86 87 86 87 86 87 89 89 89 87 87 88 91 90 90 88 88 87 90 91 91 77 89 90 92 93 97 101 -193 -193 -193 -209 -193 -209 -209 -209 -209 79 -209 -209 -209 -209 -209 -209 -209 -209 -209 -209 -209 -209 -209 -209 -209 -209 -209 -193 -209 -209 -209 -209 -209 -209 -193 -209 -209 -209 -209 -209 -193 -193 53 53 47 48 47 45 -193 -209 -209 96 -193 -193 -209 -209 -193 -193 -209 -209 -209 -209 -209 -193 -193 -193 -209 -193 -193 -209 -209 -209 -209 -209 -193 89 -193 -209 91 -193 96 95 94 94 94 -209 -209 -209 90 89 99 92 92 92 94 97 95 95 96 93 99 99 98 95 92 95 96 95 94 93 95 96 95 96 95 97 96 96 96 96 97 97 98 99 97 99 100 100 99 99 98 99 97 97 97 97 98 98 98 95 94 94 93 96 97 99 101 99 101 102 103 104 104 104 101 98 99 99 98 99 99 99 95 -209 -209 -193 111 113 111 109 110 -193 -209 117 -193 -209 -209 -209 -209 -209 -193 -193 -193 86 -209 -193 -209 105 105 0 0 0 0 0
    0 0 0 0 0 0 0 0 0 0 0 0 0 0 0 0 0 0 0 0 0 0 0 0 0 0 0 0 0 0 0 0 0 0 0 0 0 0 0 0 0 0 0 0 0 0 0 0 0 0 0 0 0 0 0 0 0 0 0 0 0 0 0 0 0 0 0 0 0 85 86 85 85 84 84 84 83 83 83 83 83 84 84 83 82 85 86 85 85 83 83 84 87 88 -193 85 87 88 87 88 86 86 85 86 89 88 88 87 86 88 91 91 90 88 88 88 91 92 91 78 88 90 92 95 99 104 106 -193 -193 -209 -193 -209 -209 -193 -209 -209 -209 -209 -209 -209 -209 -209 -209 -209 -209 -193 -209 -209 -193 -209 -209 96 -209 -193 -209 -209 -209 -209 -209 -209 -193 -209 -193 -209 -209 -209 -193 -193 54 54 48 50 49 45 44 -209 -209 -209 -209 -193 -209 -209 -209 -177 -209 -209 -209 -209 -209 219 222 -193 -209 -209 -209 -209 84 -193 82 -209 83 85 -193 -209 -209 -209 -193 -209 -209 92 -209 -209 -209 -209 90 89 99 92 92 92 95 97 95 95 96 93 99 99 98 95 92 95 96 95 93 93 95 96 95 97 95 97 97 97 97 97 98 98 98 99 97 99 99 98 98 98 97 100 99 99 99 98 99 100 100 99 98 97 95 99 100 101 101 100 102 103 104 105 105 104 100 98 98 98 98 98 99 97 93 -209 -193 -193 114 114 111 109 109 111 -193 116 114 -209 -209 -209 -209 -209 -193 -209 -209 85 -209 -209 -209 106 106 0 0 0 0 0</data></disparity>
</opencv_storage>
