<?xml version="1.0"?>
<opencv_storage>
<gps_time_stamp>310709</gps_time_stamp>
<gps_x>-1.2407915115356445e+001</gps_x>
<gps_y>1.0955374717712402e+001</gps_y>
<gps_z>-2.0157964229583740e+000</gps_z>
<image_time_stamp>301560</image_time_stamp>
<disparity type_id="opencv-matrix">
  <rows>87</rows>
  <cols>320</cols>
  <dt>s</dt>
  <data>
    0 0 0 0 0 0 0 0 0 0 0 0 0 0 0 0 0 0 0 0 0 0 0 0 0 0 0 0 0 0 0 0 0 0 0 0 0 0 0 0 0 0 0 0 0 0 0 0 0 0 0 0 0 0 0 0 0 0 0 0 0 0 0 0 0 0 0 0 0 55 54 54 53 52 51 49 49 42 42 40 38 37 36 36 35 35 34 32 37 36 34 34 33 35 35 35 34 33 30 31 32 30 29 31 29 28 28 26 26 25 25 25 22 21 19 12 14 11 9 10 9 10 0 11 10 10 10 10 9 10 9 10 9 9 10 9 12 11 13 12 12 12 11 11 11 10 10 0 9 9 9 0 0 9 0 9 0 0 9 9 10 10 10 11 11 12 13 11 11 11 12 12 11 10 -177 -177 -193 -177 30 29 34 33 33 33 35 33 35 32 38 -193 42 43 43 44 46 52 51 51 43 51 54 60 433 437 62 61 64 63 63 65 63 66 -177 -193 -177 -193 -193 -193 -177 76 222 223 224 222 224 222 225 223 221 -209 88 88 88 954 953 -209 -193 92 98 103 104 106 105 107 114 113 113 116 113 115 -193 -193 -193 115 -193 -193 -193 -193 -193 -193 -177 -177 -177 540 541 -177 -177 -193 -193 139 -193 143 142 142 -193 -177 -209 119 -193 -193 -193 389 -193 -193 286 289 290 -193 154 -193 157 -193 165 -193 170 170 171 173 172 178 180 179 181 181 181 182 183 184 -193 -193 186 187 188 194 -193 0 0 0 0 0
    0 0 0 0 0 0 0 0 0 0 0 0 0 0 0 0 0 0 0 0 0 0 0 0 0 0 0 0 0 0 0 0 0 0 0 0 0 0 0 0 0 0 0 0 0 0 0 0 0 0 0 0 0 0 0 0 0 0 0 0 0 0 0 0 0 0 0 0 0 55 55 54 53 53 51 49 49 42 42 41 38 37 37 36 36 36 36 34 38 37 34 34 33 35 35 35 34 33 30 31 32 30 29 31 29 28 28 27 26 25 25 25 23 21 19 14 13 11 9 9 0 9 0 10 9 9 9 9 9 9 0 9 0 0 9 0 11 10 12 12 12 12 11 11 11 9 10 0 9 9 9 0 0 9 0 9 0 0 9 9 10 10 10 11 11 12 13 11 11 12 12 12 11 11 -177 -177 -193 -193 -193 29 33 34 33 33 35 33 36 33 38 -193 42 43 43 44 46 52 51 52 44 54 55 61 431 436 62 61 64 62 63 65 63 66 -177 -193 -177 -193 -193 -193 -177 77 222 223 225 223 225 222 225 224 221 -209 -193 88 87 952 952 -193 -193 91 97 102 104 107 105 108 114 112 112 115 112 114 114 116 116 114 119 117 -193 -193 -193 117 -177 -177 -177 540 -193 -177 -177 -193 -193 139 -193 143 143 142 -193 -177 -209 119 -193 -193 -209 -193 -209 -193 286 289 290 -193 155 -193 159 -193 166 -193 169 170 171 174 173 179 181 180 181 181 181 183 184 184 184 185 187 188 189 196 198 0 0 0 0 0
    0 0 0 0 0 0 0 0 0 0 0 0 0 0 0 0 0 0 0 0 0 0 0 0 0 0 0 0 0 0 0 0 0 0 0 0 0 0 0 0 0 0 0 0 0 0 0 0 0 0 0 0 0 0 0 0 0 0 0 0 0 0 0 0 0 0 0 0 0 56 55 54 54 53 52 50 50 42 42 41 39 38 37 37 36 37 36 35 37 37 34 34 34 36 35 35 34 34 30 31 33 31 29 32 29 29 28 28 27 25 25 25 23 21 20 14 13 12 10 9 9 10 9 11 10 10 10 10 10 10 10 10 9 9 10 9 10 10 12 12 11 12 11 11 11 10 10 9 9 10 9 9 0 9 0 9 0 0 9 9 9 9 9 10 10 11 12 10 11 12 12 11 11 11 11 18 -193 -193 -193 29 34 35 34 34 36 34 36 34 39 42 42 43 44 45 46 52 52 52 44 56 56 61 430 435 61 60 64 62 62 64 63 66 -177 -193 -177 -177 -193 -193 -177 76 223 224 225 223 226 223 226 225 221 -209 -209 -209 -193 952 -177 -193 -193 91 96 102 104 107 106 108 114 112 112 115 112 114 114 116 116 -193 119 118 -177 122 -193 117 -177 -177 -177 -193 -193 -177 -177 -209 139 139 -193 143 144 142 140 -177 -209 120 -193 -193 -209 -193 -209 -193 287 289 291 -193 -193 -193 160 -193 -193 -177 -193 170 171 175 173 179 182 181 182 182 181 182 184 184 184 185 187 188 189 196 199 0 0 0 0 0
    0 0 0 0 0 0 0 0 0 0 0 0 0 0 0 0 0 0 0 0 0 0 0 0 0 0 0 0 0 0 0 0 0 0 0 0 0 0 0 0 0 0 0 0 0 0 0 0 0 0 0 0 0 0 0 0 0 0 0 0 0 0 0 0 0 0 0 0 0 56 55 54 54 53 52 51 50 43 43 42 40 39 38 38 37 36 36 35 37 38 34 35 35 36 35 35 34 34 30 32 33 31 29 32 30 29 29 28 27 26 26 26 24 22 21 17 15 14 11 11 10 10 10 11 10 10 10 11 10 10 10 10 9 9 10 9 10 9 11 11 10 11 11 10 10 10 10 9 9 10 9 9 0 9 0 0 0 0 0 0 9 9 9 10 10 11 12 10 11 11 12 11 11 11 -177 -177 -193 -193 -193 30 34 35 34 34 36 34 37 35 39 43 42 43 44 45 46 52 52 52 45 57 57 61 430 436 61 60 63 61 62 64 63 66 -177 -193 -177 -177 -193 -193 -177 76 -193 224 225 223 226 223 226 225 -193 -177 -177 -193 -193 952 952 -193 -193 90 96 103 104 107 106 108 114 112 112 115 112 114 115 117 -193 -177 -193 119 -177 124 -193 118 -177 -177 -177 540 542 -177 -177 -209 139 140 141 143 144 143 141 139 140 -209 -193 -193 -193 -193 -193 -177 287 290 -193 -209 -193 -193 163 -193 -193 -177 169 170 171 175 173 179 182 181 182 182 181 182 183 184 184 185 187 188 189 196 199 0 0 0 0 0
    0 0 0 0 0 0 0 0 0 0 0 0 0 0 0 0 0 0 0 0 0 0 0 0 0 0 0 0 0 0 0 0 0 0 0 0 0 0 0 0 0 0 0 0 0 0 0 0 0 0 0 0 0 0 0 0 0 0 0 0 0 0 0 0 0 0 0 0 0 55 55 54 54 53 52 51 50 43 44 43 41 40 39 38 37 36 36 35 37 38 35 35 36 36 35 36 35 34 30 33 34 31 30 32 30 29 29 29 27 26 26 26 25 23 22 20 19 17 14 13 12 11 10 12 11 11 11 11 11 11 11 11 9 10 10 9 10 9 10 10 10 11 10 10 10 9 9 9 9 10 9 0 0 9 0 0 0 0 0 0 9 9 9 10 10 10 11 10 10 10 11 10 10 10 -177 -177 -193 -177 -193 30 33 35 34 34 36 34 37 35 39 43 42 44 44 45 46 52 52 53 45 58 59 61 431 436 60 59 62 61 61 63 63 66 -177 -177 -177 -177 -193 -177 -177 76 -193 223 225 224 227 223 227 226 -193 -177 -177 -177 951 952 952 -193 -193 90 96 103 104 107 106 108 113 111 111 115 112 115 -193 118 609 -177 121 121 -177 125 365 117 -177 -177 -177 541 543 -177 -177 -193 139 140 141 143 144 143 141 140 140 -209 -209 121 -193 -177 -177 -177 -177 -193 -209 -209 -193 -209 163 -193 -193 -193 169 170 171 174 173 178 182 181 181 181 181 182 183 183 184 185 186 188 188 196 199 0 0 0 0 0
    0 0 0 0 0 0 0 0 0 0 0 0 0 0 0 0 0 0 0 0 0 0 0 0 0 0 0 0 0 0 0 0 0 0 0 0 0 0 0 0 0 0 0 0 0 0 0 0 0 0 0 0 0 0 0 0 0 0 0 0 0 0 0 0 0 0 0 0 0 55 54 54 53 53 51 50 49 43 43 43 42 40 39 38 37 36 35 35 37 38 35 35 36 36 35 36 35 34 30 33 34 31 30 32 30 30 29 29 28 26 26 26 25 24 23 22 20 19 14 13 12 11 10 12 11 11 11 11 12 11 12 12 10 11 10 10 10 9 9 10 9 11 10 10 10 9 9 9 9 10 9 9 0 9 0 0 0 0 0 9 9 9 9 10 10 10 10 10 10 10 11 10 10 10 -177 -177 -193 -177 31 30 33 36 34 34 36 35 37 35 40 44 42 44 45 46 46 52 52 53 46 58 59 61 431 436 60 59 62 60 61 63 63 66 -177 67 -193 -177 -193 -177 -177 75 74 223 225 -177 227 223 228 -193 -209 -177 -177 -193 948 951 951 -193 -193 90 96 104 104 108 106 108 113 111 111 115 113 115 384 119 610 -177 122 123 -177 125 365 117 -177 -177 -177 541 543 543 -177 -193 140 140 142 142 144 143 142 141 141 -209 -209 -209 -177 -177 -177 -177 -193 -193 -209 -209 -193 -209 163 -193 -193 -177 -193 169 170 173 172 177 181 181 181 181 181 182 183 183 184 184 186 187 188 196 -193 0 0 0 0 0
    0 0 0 0 0 0 0 0 0 0 0 0 0 0 0 0 0 0 0 0 0 0 0 0 0 0 0 0 0 0 0 0 0 0 0 0 0 0 0 0 0 0 0 0 0 0 0 0 0 0 0 0 0 0 0 0 0 0 0 0 0 0 0 0 0 0 0 0 0 54 53 54 53 52 51 49 48 43 43 42 42 40 38 38 37 35 35 35 37 38 35 35 36 36 35 35 35 34 31 32 34 31 30 32 30 30 29 29 28 26 27 26 26 25 24 23 20 19 15 14 12 11 10 12 10 12 11 12 12 12 12 12 11 12 11 11 10 9 9 9 9 11 10 9 9 9 9 9 9 10 0 8 0 9 9 0 9 0 8 9 9 10 10 10 10 10 10 9 9 10 11 11 10 10 12 20 -177 -177 -177 30 32 36 34 34 36 35 37 36 40 44 42 44 45 46 45 51 52 52 46 58 59 60 -193 -193 61 60 62 60 61 64 63 66 67 67 -193 -177 -193 -177 -193 75 74 -177 -177 -177 227 223 228 -193 -209 -177 -177 -193 943 949 949 949 -193 89 96 104 104 108 107 109 113 111 111 115 114 116 384 120 610 -177 123 124 -193 125 365 116 -177 -177 -193 541 543 543 -177 -177 140 141 142 142 145 143 142 141 141 -193 -209 -209 -177 -177 -177 -193 -193 -193 -209 -209 -193 -193 162 -193 -193 -193 -193 168 169 171 171 176 181 181 181 181 181 181 182 183 184 184 186 186 188 196 -193 0 0 0 0 0
    0 0 0 0 0 0 0 0 0 0 0 0 0 0 0 0 0 0 0 0 0 0 0 0 0 0 0 0 0 0 0 0 0 0 0 0 0 0 0 0 0 0 0 0 0 0 0 0 0 0 0 0 0 0 0 0 0 0 0 0 0 0 0 0 0 0 0 0 0 53 52 53 53 51 50 48 46 42 42 42 41 39 38 37 37 35 35 35 37 38 35 35 36 36 35 35 35 34 31 33 34 32 31 32 31 31 30 30 28 27 27 26 26 25 24 24 21 20 16 14 13 11 11 12 11 12 11 12 13 12 13 12 11 12 11 11 10 9 0 9 9 11 10 9 9 9 9 9 10 10 0 9 0 9 9 9 9 0 0 9 9 9 9 10 10 10 9 9 9 9 11 11 11 11 13 21 -177 27 32 30 32 36 34 34 35 35 37 36 40 44 42 44 45 46 45 51 52 52 47 58 60 60 -193 -193 61 60 62 60 61 64 64 66 -177 -193 -177 -177 -193 -177 -193 75 74 222 224 223 227 223 -193 -193 -209 -177 -177 535 -193 948 948 949 -209 89 95 103 104 107 107 108 113 111 111 115 114 116 -193 120 610 -177 123 125 124 125 -177 115 -177 -193 -193 541 543 543 -177 -177 140 142 143 143 145 143 143 141 141 -193 -209 -209 -209 -177 -193 -193 -193 -193 -209 -209 -193 -177 -193 -193 -193 -177 -193 167 168 171 170 175 181 181 181 181 180 181 182 183 184 185 186 186 188 195 -193 0 0 0 0 0
    0 0 0 0 0 0 0 0 0 0 0 0 0 0 0 0 0 0 0 0 0 0 0 0 0 0 0 0 0 0 0 0 0 0 0 0 0 0 0 0 0 0 0 0 0 0 0 0 0 0 0 0 0 0 0 0 0 0 0 0 0 0 0 0 0 0 0 0 0 52 52 53 52 50 49 47 45 41 41 41 41 40 38 38 38 36 35 35 37 38 35 35 36 36 35 35 35 34 32 33 35 32 32 33 32 31 31 30 29 27 28 26 26 26 25 25 23 21 17 15 13 12 12 12 12 13 12 13 13 13 13 13 12 12 11 11 10 9 0 9 9 11 10 10 10 10 10 10 10 11 9 9 0 9 9 9 9 9 9 9 9 9 9 9 9 10 9 9 9 10 11 12 12 12 13 22 31 28 33 31 32 36 34 34 35 35 37 36 40 44 42 44 46 47 45 51 52 52 48 58 60 60 59 59 61 60 -193 -193 -193 -193 -177 -177 -177 140 142 142 -193 -177 -177 74 74 222 224 223 227 224 -193 -193 -177 -177 -177 535 -193 -177 948 949 -193 88 94 102 103 106 106 108 113 111 111 115 115 117 -193 120 610 -177 123 125 124 124 -193 113 -177 -193 540 542 543 544 -177 -177 140 142 143 142 145 144 143 142 141 -193 -209 -193 -209 -193 -193 -193 -193 -193 -209 -193 -209 -177 -193 -193 -177 -177 -193 167 167 -193 170 174 180 180 181 181 180 181 182 182 184 185 185 186 187 192 195 0 0 0 0 0
    0 0 0 0 0 0 0 0 0 0 0 0 0 0 0 0 0 0 0 0 0 0 0 0 0 0 0 0 0 0 0 0 0 0 0 0 0 0 0 0 0 0 0 0 0 0 0 0 0 0 0 0 0 0 0 0 0 0 0 0 0 0 0 0 0 0 0 0 0 51 52 52 52 50 48 46 44 41 40 40 40 40 38 38 38 35 35 34 37 38 35 35 36 36 35 35 35 34 33 33 35 32 32 33 32 32 31 30 30 28 29 26 27 26 25 25 24 22 18 16 14 13 13 13 13 13 12 13 14 14 14 13 12 13 11 12 11 10 9 10 9 11 11 11 10 10 11 11 12 11 10 9 9 10 10 9 9 9 9 9 9 9 9 9 9 9 9 9 9 10 11 11 12 12 12 22 33 28 34 31 32 36 33 33 35 35 37 35 40 43 42 44 46 47 45 50 52 52 48 58 60 60 60 59 61 60 -193 -177 -177 -177 -177 -193 68 140 143 143 -193 147 147 74 73 -193 -193 224 228 226 -193 -193 -177 -177 -177 534 -193 -177 -177 -177 -193 87 93 101 103 105 106 107 112 111 112 115 -193 117 -193 120 611 -177 123 126 125 123 -193 112 -193 -177 540 542 543 544 -177 -177 140 142 143 142 145 143 143 141 141 140 -209 -193 -209 -209 -209 -193 -193 -193 -209 -209 -209 -177 -193 -193 -177 -177 -193 167 167 -193 169 172 179 179 180 181 179 181 181 182 184 184 185 -193 186 190 191 0 0 0 0 0
    0 0 0 0 0 0 0 0 0 0 0 0 0 0 0 0 0 0 0 0 0 0 0 0 0 0 0 0 0 0 0 0 0 0 0 0 0 0 0 0 0 0 0 0 0 0 0 0 0 0 0 0 0 0 0 0 0 0 0 0 0 0 0 0 0 0 0 0 0 51 51 52 51 48 47 45 42 40 40 39 40 39 38 38 37 35 34 34 36 38 34 35 36 36 35 35 35 34 33 33 35 32 33 33 33 32 32 31 30 28 29 27 27 26 26 25 24 23 19 17 15 14 14 14 13 14 13 14 14 14 14 14 13 13 11 13 12 11 10 10 10 12 12 11 11 11 11 12 12 12 11 9 10 10 11 10 10 10 9 9 10 9 9 0 9 9 0 9 9 9 11 12 12 12 13 23 34 29 33 31 31 35 32 32 34 34 36 34 39 42 41 44 45 46 44 49 51 52 47 58 59 59 61 60 61 60 -193 -177 -177 -177 -177 -193 -193 141 143 143 -193 147 -193 75 74 75 76 -193 229 229 -193 -193 -177 -177 -177 534 -193 -177 -177 -177 -193 86 92 100 102 104 105 106 111 111 112 115 -177 118 -209 121 -193 -177 123 126 125 122 767 111 -193 -177 541 542 543 544 -177 -177 140 142 143 141 145 143 142 141 141 140 -209 -193 -209 -193 -193 -193 -193 -209 -209 -209 -193 -177 -193 -193 -177 -193 -193 167 166 169 168 171 178 178 179 180 179 180 181 182 184 184 184 -193 -193 188 189 0 0 0 0 0
    0 0 0 0 0 0 0 0 0 0 0 0 0 0 0 0 0 0 0 0 0 0 0 0 0 0 0 0 0 0 0 0 0 0 0 0 0 0 0 0 0 0 0 0 0 0 0 0 0 0 0 0 0 0 0 0 0 0 0 0 0 0 0 0 0 0 0 0 0 50 50 51 50 47 45 44 41 39 39 39 39 38 37 37 37 34 33 33 36 38 34 35 36 36 34 35 35 33 34 33 35 32 33 33 33 32 32 31 31 28 30 27 27 26 26 26 25 23 20 18 17 15 14 15 14 14 13 14 14 14 13 13 12 13 11 12 11 10 9 10 10 12 12 11 11 12 12 12 13 12 11 10 11 11 11 10 11 10 10 9 10 9 9 9 9 9 9 9 9 9 11 12 13 13 13 23 31 27 32 29 29 33 31 31 32 32 34 32 38 41 41 44 45 46 44 48 51 51 46 58 58 58 61 60 61 61 62 -177 -177 -177 -177 -193 -193 141 143 143 -193 -193 -193 75 74 75 76 -193 229 -193 -193 -193 -177 -177 -177 534 -193 -177 948 949 -193 86 91 98 101 103 104 106 111 112 113 116 -177 -193 -209 -193 121 -177 123 126 125 121 767 110 -193 -177 541 541 543 544 -177 -177 140 142 143 -193 144 143 142 141 141 141 138 -193 -209 -193 -193 -193 -193 -193 -209 -209 150 -193 153 -193 -193 -193 -193 167 165 167 167 169 175 176 178 180 178 180 181 182 183 183 184 -193 -193 188 188 0 0 0 0 0
    0 0 0 0 0 0 0 0 0 0 0 0 0 0 0 0 0 0 0 0 0 0 0 0 0 0 0 0 0 0 0 0 0 0 0 0 0 0 0 0 0 0 0 0 0 0 0 0 0 0 0 0 0 0 0 0 0 0 0 0 0 0 0 0 0 0 0 0 0 48 47 48 47 44 43 42 40 38 38 38 37 37 36 36 36 33 32 32 36 37 33 35 36 36 34 34 34 33 34 33 35 32 32 33 33 32 32 31 31 28 30 27 27 27 26 26 25 23 21 19 18 17 14 15 14 14 13 14 14 14 13 13 11 12 11 11 10 10 9 10 11 13 12 11 11 12 12 12 13 12 12 11 12 11 11 11 11 10 10 9 9 9 9 9 9 9 9 9 9 10 11 12 14 15 15 23 31 27 30 29 27 -177 30 30 31 31 33 32 37 41 41 43 45 45 43 47 50 50 45 57 58 -177 62 60 61 62 63 447 445 -177 -193 -193 -193 141 142 142 -193 75 -193 75 75 76 77 76 -193 -193 -193 -193 -177 -177 528 534 -193 -177 946 948 -193 85 91 95 100 103 104 105 111 113 114 117 -177 -193 121 -193 121 -193 123 126 124 120 -193 110 -177 -177 541 541 543 544 -177 -177 139 142 142 -193 144 143 142 141 -193 -193 -193 -193 -209 -209 -209 -193 -193 -193 -193 -209 147 143 142 -209 -177 -193 -193 164 161 165 165 167 173 174 176 179 178 180 181 181 183 183 184 184 184 187 187 0 0 0 0 0
    0 0 0 0 0 0 0 0 0 0 0 0 0 0 0 0 0 0 0 0 0 0 0 0 0 0 0 0 0 0 0 0 0 0 0 0 0 0 0 0 0 0 0 0 0 0 0 0 0 0 0 0 0 0 0 0 0 0 0 0 0 0 0 0 0 0 0 0 0 48 47 47 45 42 41 40 39 38 37 37 37 36 36 35 36 33 33 33 36 37 33 34 35 36 34 34 34 33 34 33 35 32 32 33 33 32 32 31 31 29 31 27 27 27 27 27 25 24 22 19 18 18 15 15 14 14 14 14 14 15 13 12 11 12 10 11 10 10 9 10 11 13 12 11 11 12 12 12 13 12 12 12 13 12 12 12 12 12 11 11 10 10 10 9 9 9 9 9 10 10 11 12 14 15 15 23 31 26 29 28 27 -177 -177 29 30 31 32 32 36 40 40 43 44 44 42 46 49 49 45 56 57 -177 62 60 61 62 63 448 445 445 -193 -177 -193 141 142 142 -193 75 74 75 75 76 76 76 -193 -193 -193 -193 -177 -177 528 534 -193 -177 946 948 -193 85 90 94 99 102 103 104 110 113 116 117 -177 -177 -193 -209 -209 -177 122 124 -193 118 -193 110 -193 -177 541 541 542 543 -177 -177 138 141 142 -193 143 143 142 -193 -193 -209 -193 -193 -209 -209 -209 -209 -193 288 -193 -209 145 140 138 -209 -193 -209 -209 160 158 164 164 166 -193 173 175 179 177 180 181 181 183 183 183 183 184 187 187 0 0 0 0 0
    0 0 0 0 0 0 0 0 0 0 0 0 0 0 0 0 0 0 0 0 0 0 0 0 0 0 0 0 0 0 0 0 0 0 0 0 0 0 0 0 0 0 0 0 0 0 0 0 0 0 0 0 0 0 0 0 0 0 0 0 0 0 0 0 0 0 0 0 0 47 46 46 44 41 40 40 39 37 37 37 37 37 36 36 36 33 33 33 36 38 33 34 35 36 34 34 34 33 34 33 35 32 32 33 33 32 32 31 32 29 31 27 27 27 27 27 25 24 22 19 19 18 17 15 15 14 14 14 14 14 13 12 11 12 11 11 10 10 9 10 11 12 12 11 11 12 12 12 13 13 12 12 13 13 14 13 13 13 12 12 11 11 11 10 10 10 9 10 10 10 11 12 14 16 15 23 28 25 27 28 26 -177 -177 28 29 30 32 32 36 40 39 42 43 43 42 46 49 50 47 55 57 -177 62 60 61 63 62 448 446 446 -193 -177 -193 141 142 142 -193 75 75 75 74 76 76 76 229 -193 -193 -209 -177 -177 529 534 -193 -193 948 950 -193 85 90 93 99 101 102 104 109 114 116 117 -177 -177 -193 754 756 -193 120 123 -193 116 116 110 -193 -193 540 540 541 543 -177 -177 -193 140 141 -193 143 143 142 -193 -193 -209 -193 -193 -209 -209 -209 -209 -193 288 -193 -209 145 141 138 -209 -193 -209 -209 159 158 163 163 166 -209 172 174 178 177 179 180 180 182 182 183 183 183 186 187 0 0 0 0 0
    0 0 0 0 0 0 0 0 0 0 0 0 0 0 0 0 0 0 0 0 0 0 0 0 0 0 0 0 0 0 0 0 0 0 0 0 0 0 0 0 0 0 0 0 0 0 0 0 0 0 0 0 0 0 0 0 0 0 0 0 0 0 0 0 0 0 0 0 0 47 46 45 44 41 40 40 39 38 37 37 37 37 37 36 36 34 34 34 36 38 33 34 35 36 34 34 34 33 34 33 35 32 32 33 33 32 32 31 32 29 31 27 27 27 27 27 25 24 23 19 20 20 19 16 15 14 14 14 14 14 13 11 11 11 11 11 10 10 10 10 11 11 12 11 11 12 12 12 13 13 13 13 14 13 14 13 14 14 13 13 11 11 11 10 10 10 9 10 9 11 11 12 13 15 15 21 25 23 25 27 25 -177 -177 28 28 30 31 32 35 39 39 42 43 43 42 45 49 50 49 54 57 57 62 60 61 63 62 447 445 445 -193 -193 -193 141 142 141 -193 76 75 75 74 76 76 76 228 232 -193 -209 -177 -177 -177 -177 -209 -193 -193 952 -193 86 90 93 98 101 101 103 108 114 -193 -193 -177 751 755 753 755 -193 118 -193 758 115 116 110 -177 -177 540 540 541 542 -177 -177 -209 139 140 -193 141 142 141 -193 -193 -193 -193 -193 -209 -209 -209 -209 -193 289 -193 -209 148 146 145 -193 -193 -193 -193 160 159 161 162 165 -209 -193 173 178 176 179 180 180 182 182 182 182 183 186 186 0 0 0 0 0
    0 0 0 0 0 0 0 0 0 0 0 0 0 0 0 0 0 0 0 0 0 0 0 0 0 0 0 0 0 0 0 0 0 0 0 0 0 0 0 0 0 0 0 0 0 0 0 0 0 0 0 0 0 0 0 0 0 0 0 0 0 0 0 0 0 0 0 0 0 47 46 45 44 41 40 39 38 37 37 37 37 37 37 37 36 34 34 34 36 38 33 34 34 37 34 34 34 33 34 33 35 33 32 33 33 32 32 31 32 29 31 27 27 26 27 27 25 24 23 19 21 21 19 16 15 14 14 14 14 15 13 11 11 11 11 11 11 10 10 10 11 11 12 11 11 12 12 12 13 13 13 13 14 13 14 14 14 15 13 13 11 11 12 10 10 10 9 10 9 11 11 11 13 14 14 20 24 23 24 26 25 29 28 28 28 30 31 32 34 38 38 42 42 43 42 45 48 50 49 52 55 56 61 59 60 64 62 -193 64 66 67 -193 68 -193 -177 141 -193 75 -193 -193 74 75 76 -193 227 232 -193 -209 -209 -177 -177 -193 -193 -193 -193 -193 -193 86 89 93 98 101 102 103 107 114 -193 -193 -177 751 755 753 -177 -193 117 756 757 114 117 110 -177 -177 -193 539 541 542 -177 -177 -193 138 139 -193 140 141 141 -193 -193 -193 136 805 -209 -209 -209 -209 -209 290 293 -209 151 -193 153 156 -193 158 160 160 160 161 161 164 167 -193 171 176 176 178 179 179 181 181 182 182 182 185 186 0 0 0 0 0
    0 0 0 0 0 0 0 0 0 0 0 0 0 0 0 0 0 0 0 0 0 0 0 0 0 0 0 0 0 0 0 0 0 0 0 0 0 0 0 0 0 0 0 0 0 0 0 0 0 0 0 0 0 0 0 0 0 0 0 0 0 0 0 0 0 0 0 0 0 47 46 44 43 40 40 39 38 37 37 37 37 37 37 37 36 34 34 33 35 38 33 34 35 37 34 34 34 33 34 32 35 33 32 33 33 32 32 31 32 29 30 27 27 26 27 27 25 24 23 19 21 21 19 16 16 15 15 15 15 16 14 12 13 12 11 11 11 11 10 10 10 11 12 11 11 12 12 11 13 13 13 14 14 13 14 14 14 14 13 14 11 12 12 10 10 10 9 10 9 11 10 10 12 14 14 18 21 21 22 24 24 27 26 27 27 29 31 32 33 38 37 41 42 42 42 44 46 49 47 48 54 55 60 59 60 64 62 66 64 66 66 65 67 -177 -177 -177 -193 74 -193 -193 73 75 75 -193 227 231 -193 -209 -209 -209 -177 -193 -193 78 82 -193 -177 86 89 93 98 101 101 102 106 114 -193 -193 933 -177 -177 -177 -177 -177 117 756 757 -193 -193 112 -177 -177 -193 539 541 542 -177 -177 134 137 138 -209 140 141 141 139 -193 -193 -193 -177 -209 -209 -209 -209 -209 290 -193 -209 153 153 154 157 158 159 160 160 161 161 162 163 166 -193 -193 175 175 177 179 179 181 181 181 182 182 185 186 0 0 0 0 0
    0 0 0 0 0 0 0 0 0 0 0 0 0 0 0 0 0 0 0 0 0 0 0 0 0 0 0 0 0 0 0 0 0 0 0 0 0 0 0 0 0 0 0 0 0 0 0 0 0 0 0 0 0 0 0 0 0 0 0 0 0 0 0 0 0 0 0 0 0 47 46 43 43 40 40 39 38 37 37 37 38 37 37 37 37 34 35 34 36 38 34 34 35 37 34 34 34 33 33 32 35 33 32 33 33 32 32 31 31 29 30 27 27 26 27 27 25 24 23 19 21 21 19 16 16 16 18 17 18 20 18 15 17 14 13 12 12 11 10 9 10 10 11 10 11 11 12 11 13 13 13 14 14 14 14 14 14 14 13 13 11 12 12 11 10 10 9 10 10 11 11 11 12 15 15 20 20 20 21 23 23 27 26 26 26 29 31 32 32 37 37 40 40 41 41 43 45 48 47 48 54 55 61 59 60 65 63 66 64 66 66 64 67 -177 -177 -177 70 74 73 -193 73 75 75 -193 225 -193 -193 -193 -193 -209 -193 -193 75 77 83 87 87 87 90 93 99 100 101 102 105 114 -193 -193 932 -177 -177 -177 -177 -177 117 756 757 -177 -193 -193 366 375 -193 -193 541 -193 -193 -193 133 137 137 -209 140 141 141 140 -193 -193 -209 -193 -193 379 -193 -193 -209 291 -193 -193 155 154 154 157 159 159 160 161 162 161 162 163 165 -193 -209 175 175 176 179 179 181 181 181 182 182 185 186 0 0 0 0 0
    0 0 0 0 0 0 0 0 0 0 0 0 0 0 0 0 0 0 0 0 0 0 0 0 0 0 0 0 0 0 0 0 0 0 0 0 0 0 0 0 0 0 0 0 0 0 0 0 0 0 0 0 0 0 0 0 0 0 0 0 0 0 0 0 0 0 0 0 0 46 45 42 42 40 39 39 38 37 37 37 38 37 37 37 37 35 35 35 36 38 34 35 35 37 34 34 34 33 33 32 35 33 31 33 33 32 31 31 31 30 30 27 27 26 27 27 25 25 23 19 21 22 20 16 17 17 19 18 19 21 20 16 18 15 14 12 12 10 9 9 10 10 10 10 10 11 11 11 13 12 12 14 14 14 14 14 15 14 13 13 12 12 12 11 10 11 10 11 10 11 11 11 12 14 13 17 18 19 21 24 24 27 26 27 27 29 31 32 32 37 36 40 40 40 41 43 46 48 48 48 53 55 61 59 60 66 63 66 64 66 66 64 67 67 -193 -193 70 74 73 -193 73 74 75 -193 224 -193 -193 84 87 84 -193 -193 76 78 83 87 88 88 90 94 99 100 101 102 105 113 -193 -193 -193 -177 -177 -177 -177 -177 116 -177 -177 -177 -193 -193 366 374 381 381 541 124 127 -193 132 136 136 -209 140 141 141 140 -193 -193 -193 380 380 -177 -193 -209 -193 -209 -193 -193 -193 155 155 157 159 159 161 161 162 162 163 163 165 -193 -193 174 175 176 178 178 180 181 181 182 182 185 187 0 0 0 0 0
    0 0 0 0 0 0 0 0 0 0 0 0 0 0 0 0 0 0 0 0 0 0 0 0 0 0 0 0 0 0 0 0 0 0 0 0 0 0 0 0 0 0 0 0 0 0 0 0 0 0 0 0 0 0 0 0 0 0 0 0 0 0 0 0 0 0 0 0 0 45 -193 41 41 39 39 39 38 37 37 37 38 38 38 37 38 36 37 37 37 39 35 35 35 37 33 33 33 33 33 32 35 33 31 33 33 33 31 31 31 29 30 27 27 26 27 27 25 26 24 20 22 22 21 17 18 19 20 21 21 23 22 19 21 17 16 13 13 10 9 9 9 9 10 9 10 10 11 10 12 11 12 13 13 13 14 14 14 14 13 14 12 12 12 11 11 11 10 11 10 11 11 10 11 14 12 16 16 19 21 25 25 28 27 27 28 30 32 33 31 36 35 40 40 41 42 43 46 48 49 49 52 55 60 59 60 66 63 66 64 65 66 64 66 67 66 70 69 73 72 72 72 74 74 74 -193 -193 -193 83 87 85 -193 82 78 80 85 -193 89 89 90 94 99 100 101 101 104 111 111 111 -193 -177 -177 -177 -177 -177 -193 -177 -177 -177 -193 -177 365 374 381 -177 -193 125 128 -193 132 136 136 -209 139 141 141 140 -193 -193 -193 -193 -193 -177 -177 -209 -177 -177 -209 -209 156 156 156 157 160 159 161 161 163 162 163 164 165 -193 -193 174 175 175 178 178 180 181 181 182 182 -193 187 0 0 0 0 0
    0 0 0 0 0 0 0 0 0 0 0 0 0 0 0 0 0 0 0 0 0 0 0 0 0 0 0 0 0 0 0 0 0 0 0 0 0 0 0 0 0 0 0 0 0 0 0 0 0 0 0 0 0 0 0 0 0 0 0 0 0 0 0 0 0 0 0 0 0 45 -193 41 42 40 40 39 39 38 38 38 39 39 38 38 38 37 37 37 37 39 35 35 35 37 33 33 33 33 33 32 34 33 31 33 33 33 31 30 30 29 29 27 27 26 27 27 26 26 24 21 23 24 23 19 20 21 22 23 23 26 23 21 23 19 18 14 13 10 9 9 9 9 10 9 9 9 10 10 11 10 11 13 13 13 14 14 14 14 14 14 13 12 12 11 11 12 10 11 10 11 11 10 11 13 11 16 15 18 21 26 25 29 27 28 28 30 32 33 31 36 35 40 40 41 43 43 46 48 49 48 51 55 60 59 60 67 63 66 65 65 66 64 66 66 66 70 69 72 71 71 72 73 74 74 74 76 77 81 87 -193 83 84 81 82 87 -193 90 91 91 95 100 100 101 101 103 111 109 109 114 -193 -193 -177 -177 -177 -193 -177 -177 -177 -193 -177 -177 -177 -177 -177 -193 126 129 -193 133 -209 136 -209 140 140 142 140 -193 -193 -193 -193 -193 -193 -193 -209 -177 -177 -209 -193 157 156 156 158 160 160 162 161 163 163 164 -193 166 -193 -193 174 175 175 178 179 180 181 181 182 182 -193 187 0 0 0 0 0
    0 0 0 0 0 0 0 0 0 0 0 0 0 0 0 0 0 0 0 0 0 0 0 0 0 0 0 0 0 0 0 0 0 0 0 0 0 0 0 0 0 0 0 0 0 0 0 0 0 0 0 0 0 0 0 0 0 0 0 0 0 0 0 0 0 0 0 0 0 45 43 42 43 42 41 -193 -193 39 39 40 40 39 38 38 38 37 37 37 37 39 35 35 35 37 33 32 32 32 32 32 34 32 31 33 33 33 31 30 30 29 30 27 27 26 27 27 26 27 25 23 24 25 25 22 22 23 24 26 26 29 26 24 25 22 22 15 14 10 10 9 9 9 9 9 9 9 9 9 10 10 11 12 12 13 13 13 14 14 13 14 12 12 12 11 10 11 10 11 10 11 11 11 12 13 11 16 15 18 21 25 25 29 27 28 28 31 32 33 31 36 35 41 41 42 43 44 46 47 49 48 49 54 59 59 60 66 63 66 65 66 66 64 66 67 66 70 69 72 71 71 72 74 74 73 73 75 76 80 86 86 85 85 83 84 88 91 91 92 92 95 100 100 102 101 103 110 109 109 113 111 114 -177 -177 -193 -177 -193 -177 -177 -193 -177 -177 -177 -177 -177 -177 128 130 130 133 -193 -193 -209 139 139 141 139 -193 -193 -193 -177 -177 -177 -209 -193 -193 -177 -193 -193 158 157 157 159 161 160 162 162 164 164 165 -193 -193 -193 -193 174 -193 175 178 179 180 182 181 182 182 184 188 0 0 0 0 0
    0 0 0 0 0 0 0 0 0 0 0 0 0 0 0 0 0 0 0 0 0 0 0 0 0 0 0 0 0 0 0 0 0 0 0 0 0 0 0 0 0 0 0 0 0 0 0 0 0 0 0 0 0 0 0 0 0 0 0 0 0 0 0 0 0 0 0 0 0 44 43 42 43 43 42 41 41 39 39 40 41 39 38 37 37 37 37 37 37 39 35 35 35 36 33 32 32 32 31 31 33 32 31 32 33 33 31 30 30 30 30 28 28 27 27 28 26 28 26 25 25 27 27 26 25 26 26 29 28 32 29 26 26 25 24 20 16 10 10 10 10 9 9 0 0 0 0 0 9 9 10 11 12 12 13 13 13 13 13 13 12 11 11 10 10 11 10 11 11 11 11 11 12 13 11 16 15 19 21 25 25 29 28 28 29 31 32 33 32 35 35 41 41 42 43 43 45 46 48 48 46 54 58 59 60 66 63 65 65 66 66 64 65 67 66 70 69 71 70 71 72 74 74 74 73 76 77 81 86 86 86 87 86 -193 90 92 92 93 94 96 100 101 103 102 104 111 109 109 113 111 114 -193 -193 -193 -177 122 -193 -177 -193 -193 -193 -177 -193 -193 -177 128 129 130 132 -193 -193 -193 138 138 140 139 -193 -193 -193 -177 -177 -177 -177 626 628 -193 160 -193 159 158 158 159 161 161 163 162 165 165 166 -193 -193 -193 -193 174 -193 175 178 179 180 182 181 182 182 184 187 0 0 0 0 0
    0 0 0 0 0 0 0 0 0 0 0 0 0 0 0 0 0 0 0 0 0 0 0 0 0 0 0 0 0 0 0 0 0 0 0 0 0 0 0 0 0 0 0 0 0 0 0 0 0 0 0 0 0 0 0 0 0 0 0 0 0 0 0 0 0 0 0 0 0 46 44 43 44 43 42 42 41 39 39 40 40 39 37 36 37 37 37 37 37 39 35 35 35 36 33 32 32 31 30 30 32 32 30 32 33 33 31 30 30 30 30 28 28 27 27 28 27 29 27 26 26 30 30 30 29 30 29 32 29 33 31 27 27 26 26 22 18 11 10 10 10 9 9 0 0 0 0 0 0 0 0 11 12 12 12 13 14 13 14 13 12 11 11 10 10 11 10 11 11 11 11 12 13 14 12 16 15 18 22 25 25 30 28 29 29 31 32 33 33 35 35 41 41 42 43 43 45 45 46 47 44 53 57 59 60 66 63 65 65 65 66 64 65 66 65 69 68 70 70 70 71 74 74 75 74 77 78 83 87 86 87 89 88 -193 92 93 93 94 96 98 101 102 104 103 105 111 109 109 112 111 114 -193 -193 -193 -177 122 124 -177 -193 -193 124 -193 -193 -193 -193 127 128 128 131 30 30 -193 -193 -193 140 138 -193 -193 -177 -177 -177 -177 -177 627 629 -193 160 -193 159 158 158 159 161 161 163 163 165 167 167 169 169 -193 172 174 176 175 177 179 180 181 181 182 181 183 186 0 0 0 0 0
    0 0 0 0 0 0 0 0 0 0 0 0 0 0 0 0 0 0 0 0 0 0 0 0 0 0 0 0 0 0 0 0 0 0 0 0 0 0 0 0 0 0 0 0 0 0 0 0 0 0 0 0 0 0 0 0 0 0 0 0 0 0 0 0 0 0 0 0 0 48 46 43 43 42 42 42 41 40 39 40 40 39 37 36 37 37 37 37 37 39 36 35 35 36 32 32 31 31 30 30 32 31 30 32 32 32 31 30 30 30 30 29 28 28 28 29 28 29 27 27 27 31 32 34 34 33 32 34 29 33 -193 28 27 27 27 25 21 11 11 11 11 0 0 0 0 0 0 0 0 0 9 11 13 13 13 13 14 13 14 13 13 11 10 10 9 11 10 11 12 11 11 12 12 13 11 14 12 14 19 23 23 28 27 29 29 31 32 33 34 36 35 42 42 42 43 43 45 45 46 48 44 53 57 60 60 65 62 64 64 65 65 64 64 66 63 68 67 69 69 70 71 74 75 76 75 79 82 85 88 87 89 90 89 90 93 95 95 96 98 99 101 103 104 104 105 111 109 109 112 111 114 116 118 118 -193 123 125 -193 128 130 125 128 131 127 -193 -193 -193 -193 -193 30 31 30 33 -209 140 139 -193 -193 -177 -177 -177 -177 -177 -177 -193 -193 160 -193 159 158 159 160 161 161 164 163 166 168 168 170 170 -193 172 174 176 175 177 179 180 181 180 182 181 182 186 0 0 0 0 0
    0 0 0 0 0 0 0 0 0 0 0 0 0 0 0 0 0 0 0 0 0 0 0 0 0 0 0 0 0 0 0 0 0 0 0 0 0 0 0 0 0 0 0 0 0 0 0 0 0 0 0 0 0 0 0 0 0 0 0 0 0 0 0 0 0 0 0 0 0 48 46 44 44 43 42 42 42 40 40 39 40 39 37 36 37 37 37 37 37 39 36 35 35 35 32 32 31 30 29 29 30 31 29 31 31 32 31 29 30 31 30 30 29 28 28 29 29 30 27 28 28 32 35 35 34 34 33 35 31 34 33 29 28 29 28 26 23 11 11 12 12 0 0 0 0 0 0 0 0 0 9 11 13 13 13 13 14 14 14 13 13 10 10 9 9 11 10 11 12 11 11 12 13 13 11 14 12 13 18 23 24 29 28 30 30 32 33 34 35 36 36 42 43 43 44 44 45 45 47 49 45 54 57 61 61 65 62 64 64 64 64 63 62 65 62 68 67 69 70 71 72 74 75 76 75 78 82 86 88 88 90 91 90 91 94 96 97 98 99 100 102 103 105 104 105 111 110 110 112 112 114 117 119 119 118 123 126 126 129 131 126 130 131 128 -193 33 34 34 31 30 32 31 33 -193 -193 -193 -193 -193 -177 -177 -177 -177 -177 -177 -193 -193 -193 -193 159 159 159 160 161 161 164 163 166 -193 169 170 170 -193 173 174 177 175 176 179 179 181 180 182 181 182 185 0 0 0 0 0
    0 0 0 0 0 0 0 0 0 0 0 0 0 0 0 0 0 0 0 0 0 0 0 0 0 0 0 0 0 0 0 0 0 0 0 0 0 0 0 0 0 0 0 0 0 0 0 0 0 0 0 0 0 0 0 0 0 0 0 0 0 0 0 0 0 0 0 0 0 46 45 44 44 42 42 42 42 40 40 39 40 39 37 36 37 37 37 37 37 39 36 35 35 35 32 31 31 30 28 28 29 30 28 31 31 31 30 29 30 31 31 30 29 29 28 30 29 29 27 28 29 31 35 35 35 35 33 35 32 33 33 29 29 30 29 27 25 12 12 14 13 9 9 0 0 0 0 0 0 0 9 10 13 12 13 13 14 14 14 13 13 10 9 9 0 10 9 9 11 11 11 12 13 12 11 13 12 12 15 21 23 29 28 31 31 33 34 35 35 36 36 43 43 44 44 45 46 46 47 50 45 54 57 62 61 65 62 63 63 63 63 63 61 64 62 67 67 69 71 72 73 74 75 75 75 77 79 85 87 88 90 92 91 92 95 98 99 99 100 100 102 103 105 105 105 110 110 110 112 112 114 116 119 119 118 122 126 128 130 132 127 131 131 -193 34 33 34 34 31 31 32 31 -193 -177 -193 -193 -193 -193 -193 -177 -177 -177 -209 -193 -193 -193 161 -193 160 160 160 161 162 162 164 163 167 -193 169 171 171 173 173 174 177 175 176 179 179 181 180 182 181 181 185 0 0 0 0 0
    0 0 0 0 0 0 0 0 0 0 0 0 0 0 0 0 0 0 0 0 0 0 0 0 0 0 0 0 0 0 0 0 0 0 0 0 0 0 0 0 0 0 0 0 0 0 0 0 0 0 0 0 0 0 0 0 0 0 0 0 0 0 0 0 0 0 0 0 0 47 46 45 45 42 42 42 41 40 40 39 39 39 37 36 37 37 37 37 38 39 36 35 35 34 32 31 31 30 28 28 28 29 28 30 30 30 30 29 31 32 32 31 30 30 29 30 30 28 27 28 29 30 35 35 35 35 33 35 33 33 33 30 31 32 31 29 25 15 14 17 14 10 9 9 0 9 9 9 0 9 10 11 14 13 14 13 14 14 14 13 13 9 9 0 0 9 9 9 10 12 11 13 14 13 13 13 13 13 14 18 21 27 28 31 30 33 34 35 36 37 36 43 43 44 44 44 45 45 46 50 47 54 56 62 61 65 62 63 63 63 63 63 61 64 62 66 66 69 71 71 72 74 75 75 75 77 77 85 86 88 90 92 91 93 96 98 100 100 101 100 101 103 105 105 106 109 110 110 112 113 114 115 118 118 117 122 125 128 129 132 127 131 -193 -193 35 34 34 34 31 31 32 31 -193 -177 -177 -193 -193 -177 -193 -193 -177 -209 -193 -193 -193 159 162 159 161 161 161 162 163 163 165 164 -193 -193 169 171 172 174 174 175 178 176 177 179 179 181 180 182 181 181 185 0 0 0 0 0
    0 0 0 0 0 0 0 0 0 0 0 0 0 0 0 0 0 0 0 0 0 0 0 0 0 0 0 0 0 0 0 0 0 0 0 0 0 0 0 0 0 0 0 0 0 0 0 0 0 0 0 0 0 0 0 0 0 0 0 0 0 0 0 0 0 0 0 0 0 51 50 49 48 45 44 43 42 41 41 39 40 39 38 37 38 38 37 37 37 39 36 35 34 33 32 31 31 30 27 27 27 28 29 30 29 29 30 30 33 33 33 31 30 32 30 30 30 28 27 28 29 31 34 35 36 35 33 35 33 33 33 30 32 32 31 30 26 22 17 19 16 12 10 10 10 11 11 11 10 11 12 12 15 14 15 14 14 14 14 13 13 10 10 0 9 9 9 10 12 15 12 14 16 14 15 14 14 14 14 18 21 -193 27 31 30 33 34 35 36 37 36 42 43 44 44 44 45 45 46 50 49 55 56 62 61 64 61 63 62 62 63 63 61 63 62 66 66 70 71 71 72 74 74 75 74 77 76 85 85 87 89 91 91 93 96 98 100 101 102 100 101 104 106 106 106 109 110 110 112 114 114 115 117 118 117 121 124 127 127 131 127 131 -193 35 35 34 33 34 31 31 32 -177 -177 -193 -193 -177 -177 -177 149 148 151 152 -193 -193 -193 159 162 159 161 162 161 163 163 163 165 164 -193 170 170 172 173 175 175 176 179 176 177 179 179 181 180 182 181 182 185 0 0 0 0 0
    0 0 0 0 0 0 0 0 0 0 0 0 0 0 0 0 0 0 0 0 0 0 0 0 0 0 0 0 0 0 0 0 0 0 0 0 0 0 0 0 0 0 0 0 0 0 0 0 0 0 0 0 0 0 0 0 0 0 0 0 0 0 0 0 0 0 0 0 0 55 54 54 52 50 47 46 42 42 43 40 40 39 39 38 38 38 37 37 37 39 37 35 34 33 32 31 31 30 27 26 27 28 29 29 29 29 30 30 33 34 33 31 30 33 30 30 30 28 26 28 30 30 34 34 36 35 34 35 32 32 33 30 31 32 31 30 27 25 23 22 20 14 11 11 11 12 12 12 13 12 14 13 16 15 15 14 15 14 14 13 13 10 10 9 10 9 11 11 13 18 13 16 17 15 16 14 14 14 14 18 21 -193 28 31 31 33 34 34 36 37 36 42 43 44 44 45 46 46 47 51 51 55 56 63 61 63 61 63 62 61 62 63 60 63 61 66 65 70 70 71 71 74 74 76 75 78 78 85 85 85 88 90 90 91 94 96 100 100 103 101 101 104 106 106 106 108 110 110 111 114 114 113 115 116 112 117 121 124 124 128 125 128 -193 -193 -193 33 32 33 31 31 33 -177 -193 -193 -193 -177 140 146 149 148 151 152 154 -193 158 160 162 160 162 162 161 163 162 163 165 164 -193 170 170 172 173 176 175 176 179 177 177 179 180 181 180 182 181 182 185 0 0 0 0 0
    0 0 0 0 0 0 0 0 0 0 0 0 0 0 0 0 0 0 0 0 0 0 0 0 0 0 0 0 0 0 0 0 0 0 0 0 0 0 0 0 0 0 0 0 0 0 0 0 0 0 0 0 0 0 0 0 0 0 0 0 0 0 0 0 0 0 0 0 0 56 55 56 54 54 52 50 44 43 46 43 40 39 39 38 38 38 37 37 37 38 37 34 34 32 32 32 32 31 28 27 27 29 30 30 29 30 30 30 34 35 34 32 32 34 31 31 32 28 27 29 31 30 35 34 36 34 33 35 32 32 33 30 31 31 31 31 28 27 28 23 23 19 14 13 12 14 15 13 15 14 14 13 16 15 16 14 15 13 14 13 14 11 11 9 10 10 11 11 14 18 13 15 16 15 16 14 14 14 15 19 22 27 28 32 31 34 34 34 36 37 36 42 43 44 44 45 46 47 47 51 52 56 57 63 61 63 61 62 62 61 62 62 60 62 60 64 62 66 68 68 68 72 74 77 76 80 81 86 85 85 87 89 89 91 94 97 101 101 103 102 101 104 106 106 106 107 109 109 110 112 112 111 111 114 108 111 118 121 123 125 124 127 126 125 128 -209 30 31 29 -177 -177 -193 -193 -193 -193 141 142 146 148 148 151 152 153 154 158 160 163 160 162 163 162 163 162 164 166 165 169 171 171 173 173 176 175 176 179 177 178 179 180 182 181 182 182 182 185 0 0 0 0 0
    0 0 0 0 0 0 0 0 0 0 0 0 0 0 0 0 0 0 0 0 0 0 0 0 0 0 0 0 0 0 0 0 0 0 0 0 0 0 0 0 0 0 0 0 0 0 0 0 0 0 0 0 0 0 0 0 0 0 0 0 0 0 0 0 0 0 0 0 0 56 56 56 55 56 54 54 49 46 50 47 40 39 40 38 39 38 37 36 36 38 37 34 33 32 32 32 33 32 29 27 27 29 30 29 30 30 31 30 34 35 34 32 33 34 32 31 33 29 27 29 30 30 35 34 35 34 33 35 32 32 33 30 31 31 31 31 28 28 29 23 23 20 17 14 14 17 19 17 18 16 16 13 17 15 16 14 15 13 14 13 14 11 11 10 11 10 12 12 14 19 14 16 16 15 17 14 14 15 15 20 22 27 28 32 31 34 34 34 35 37 36 42 43 44 45 46 47 48 48 51 52 54 56 62 61 62 61 62 62 61 62 62 60 61 60 63 61 63 68 68 67 69 73 75 75 78 78 85 84 84 86 87 88 90 93 98 101 101 104 102 101 103 104 105 105 106 108 108 109 112 111 110 110 112 108 108 114 118 121 122 123 127 127 124 -193 -193 -193 -209 -193 -193 -177 -193 -193 -193 140 142 143 146 147 147 150 152 -193 154 157 159 163 161 163 163 162 163 162 164 166 165 169 171 171 173 173 176 176 177 180 178 179 180 181 183 182 183 183 184 186 0 0 0 0 0
    0 0 0 0 0 0 0 0 0 0 0 0 0 0 0 0 0 0 0 0 0 0 0 0 0 0 0 0 0 0 0 0 0 0 0 0 0 0 0 0 0 0 0 0 0 0 0 0 0 0 0 0 0 0 0 0 0 0 0 0 0 0 0 0 0 0 0 0 0 56 56 56 56 56 55 55 53 49 53 51 41 39 40 39 38 38 36 36 36 37 36 34 33 32 32 32 33 32 29 28 28 29 31 29 30 30 31 30 35 34 33 32 34 34 32 31 33 29 28 30 30 30 35 34 35 34 33 35 33 32 34 30 32 32 32 32 29 29 30 24 23 22 21 18 18 19 21 19 20 17 16 13 17 15 16 14 15 13 14 13 14 11 12 10 11 10 13 13 13 20 14 15 16 14 17 14 14 15 15 21 23 -193 28 33 32 34 34 35 35 37 36 42 42 44 46 47 48 49 49 50 52 53 56 61 61 62 62 62 62 61 62 62 60 62 61 62 62 62 69 69 69 70 73 75 74 77 78 83 83 84 85 85 86 88 93 98 101 101 103 101 100 102 102 104 103 105 106 107 108 112 111 110 109 111 108 107 110 115 116 120 122 127 133 132 138 -209 -193 129 132 -209 -209 -193 138 139 140 142 144 146 147 146 151 153 153 154 157 159 161 160 162 163 161 163 162 164 166 165 169 170 171 173 174 177 176 178 180 179 179 181 182 183 183 184 184 185 187 0 0 0 0 0
    0 0 0 0 0 0 0 0 0 0 0 0 0 0 0 0 0 0 0 0 0 0 0 0 0 0 0 0 0 0 0 0 0 0 0 0 0 0 0 0 0 0 0 0 0 0 0 0 0 0 0 0 0 0 0 0 0 0 0 0 0 0 0 0 0 0 0 0 0 56 56 56 56 56 56 56 54 51 53 52 43 39 41 39 39 38 36 36 36 37 37 34 32 32 32 33 34 33 30 28 28 29 32 29 30 30 31 30 35 34 33 32 34 34 32 32 33 29 28 30 30 30 35 33 34 33 33 35 33 33 34 31 33 33 33 33 29 30 31 25 24 24 23 22 21 21 23 21 21 18 16 13 16 15 16 14 15 12 13 13 14 11 12 11 12 11 14 13 13 21 15 16 18 16 19 17 16 17 18 22 23 27 28 32 31 34 34 34 35 37 35 41 42 44 46 47 49 50 50 51 52 53 55 61 61 62 62 62 63 62 63 63 60 62 62 62 62 62 68 68 69 72 73 76 74 77 77 82 82 83 83 84 84 87 94 99 101 101 103 101 99 101 101 103 102 103 105 105 107 112 112 110 108 110 108 107 108 110 107 113 121 128 135 136 141 140 137 135 136 139 140 138 139 140 140 142 145 146 147 146 152 155 -193 157 159 160 162 162 163 164 162 164 163 165 166 166 169 170 171 173 174 177 177 179 180 179 180 181 182 184 184 184 184 185 187 0 0 0 0 0
    0 0 0 0 0 0 0 0 0 0 0 0 0 0 0 0 0 0 0 0 0 0 0 0 0 0 0 0 0 0 0 0 0 0 0 0 0 0 0 0 0 0 0 0 0 0 0 0 0 0 0 0 0 0 0 0 0 0 0 0 0 0 0 0 0 0 0 0 0 58 57 57 57 57 56 56 55 52 53 52 44 39 41 39 39 39 37 36 36 37 37 34 33 33 32 33 34 33 31 28 28 30 32 29 30 30 30 30 34 33 33 32 34 34 32 32 33 29 29 31 29 29 34 33 34 32 33 35 33 33 35 31 33 33 34 33 29 32 32 25 26 25 25 24 23 23 24 22 23 19 17 13 16 15 16 14 15 12 13 13 13 11 12 11 12 11 15 15 16 21 16 17 18 17 20 18 18 19 20 24 24 28 28 32 31 33 33 34 35 36 35 40 41 44 46 47 49 50 50 51 52 53 55 61 61 62 63 63 63 62 63 64 61 63 62 62 63 62 67 68 68 72 74 78 76 79 80 84 83 83 84 84 84 87 94 99 101 101 103 101 99 100 101 102 101 102 103 103 106 110 110 109 107 108 107 107 107 108 105 107 118 123 131 133 137 137 135 135 136 139 139 138 139 140 140 141 144 144 146 147 152 156 -193 158 158 160 160 161 162 164 162 164 163 167 168 169 171 171 173 174 174 178 178 180 182 181 182 182 183 185 185 185 185 185 187 0 0 0 0 0
    0 0 0 0 0 0 0 0 0 0 0 0 0 0 0 0 0 0 0 0 0 0 0 0 0 0 0 0 0 0 0 0 0 0 0 0 0 0 0 0 0 0 0 0 0 0 0 0 0 0 0 0 0 0 0 0 0 0 0 0 0 0 0 0 0 0 0 0 0 59 59 59 59 58 57 57 57 53 54 52 46 40 42 40 40 39 38 37 36 37 38 34 34 34 34 34 35 34 31 28 28 30 32 29 30 30 30 30 34 33 32 32 34 34 32 32 34 30 30 32 29 28 33 33 34 32 33 36 33 34 35 32 33 33 34 33 29 34 33 25 34 28 28 25 24 24 25 23 23 20 17 14 16 17 17 15 16 11 13 12 13 12 12 13 13 14 19 19 21 23 19 19 19 18 21 19 19 20 21 25 25 28 28 31 30 32 32 33 33 36 34 39 -193 43 46 47 48 50 50 51 52 52 55 60 60 62 64 63 64 63 64 64 61 64 63 62 65 63 67 68 67 71 74 77 75 78 81 85 84 84 86 86 85 88 96 100 100 102 104 101 99 100 101 101 100 101 101 101 105 110 110 108 106 107 107 107 107 108 106 107 118 123 130 133 136 137 135 134 136 138 138 137 137 139 138 140 143 143 145 147 151 -193 -193 157 157 158 158 159 159 161 158 161 158 164 166 169 171 172 174 174 176 179 180 182 183 183 184 185 185 187 186 187 187 186 188 0 0 0 0 0
    0 0 0 0 0 0 0 0 0 0 0 0 0 0 0 0 0 0 0 0 0 0 0 0 0 0 0 0 0 0 0 0 0 0 0 0 0 0 0 0 0 0 0 0 0 0 0 0 0 0 0 0 0 0 0 0 0 0 0 0 0 0 0 0 0 0 0 0 0 61 60 61 60 59 59 58 57 55 54 52 46 41 43 40 40 39 38 37 36 37 38 34 34 35 34 35 35 35 32 28 29 29 31 28 29 29 30 30 33 32 32 31 33 34 33 32 34 31 31 33 30 29 33 33 33 32 33 36 33 34 35 32 33 33 34 33 29 33 32 25 31 31 30 27 26 26 26 25 24 21 18 14 16 18 18 17 17 11 12 12 12 13 12 12 13 14 19 19 22 -193 -193 20 19 19 -193 21 22 22 23 26 26 29 29 32 30 32 32 32 32 35 34 39 41 43 45 47 48 50 50 50 51 51 55 60 60 61 64 63 64 63 64 65 61 64 64 62 67 64 69 69 69 72 74 75 73 75 77 81 81 84 85 87 87 88 99 102 102 103 104 102 99 100 100 100 100 101 101 99 103 109 110 108 107 107 107 108 108 109 107 108 118 122 126 128 134 135 134 133 136 138 138 137 137 138 137 139 141 140 142 143 150 -193 -193 156 157 157 157 157 157 159 155 157 156 158 164 168 170 171 172 172 173 177 179 182 184 185 186 187 187 189 188 189 189 188 189 0 0 0 0 0
    0 0 0 0 0 0 0 0 0 0 0 0 0 0 0 0 0 0 0 0 0 0 0 0 0 0 0 0 0 0 0 0 0 0 0 0 0 0 0 0 0 0 0 0 0 0 0 0 0 0 0 0 0 0 0 0 0 0 0 0 0 0 0 0 0 0 0 0 0 62 61 62 61 60 60 59 57 56 55 52 45 41 43 41 40 40 38 37 36 37 38 34 34 35 35 35 36 35 33 28 30 31 31 29 29 30 30 30 33 32 31 31 33 34 33 33 35 32 32 34 30 30 33 33 32 31 33 35 33 34 35 32 32 33 34 32 29 32 32 26 36 34 33 29 28 28 28 26 25 22 19 14 16 18 18 16 17 -225 -225 -225 -225 -225 -225 -225 -225 18 17 -193 -193 -209 218 -193 -193 219 -193 -209 25 25 25 29 27 30 29 32 30 32 32 32 32 35 33 39 40 42 45 46 48 50 50 50 50 50 54 60 60 61 65 63 65 64 64 65 61 64 64 62 67 64 69 71 70 74 75 76 75 76 78 80 77 80 81 85 86 88 100 104 101 102 103 101 99 100 100 99 98 100 100 99 102 108 109 108 107 107 106 108 108 109 108 110 118 122 124 124 129 132 131 131 135 136 137 137 137 138 138 139 141 140 141 140 147 -193 -193 155 156 156 156 156 157 158 155 157 156 158 164 168 169 171 171 171 171 173 176 181 183 186 186 188 189 190 190 191 190 190 190 0 0 0 0 0
    0 0 0 0 0 0 0 0 0 0 0 0 0 0 0 0 0 0 0 0 0 0 0 0 0 0 0 0 0 0 0 0 0 0 0 0 0 0 0 0 0 0 0 0 0 0 0 0 0 0 0 0 0 0 0 0 0 0 0 0 0 0 0 0 0 0 0 0 0 62 62 62 61 60 60 59 58 57 56 52 44 41 43 41 41 40 38 37 36 37 38 35 35 36 35 36 36 36 33 29 31 32 32 30 30 31 31 30 33 31 32 32 33 34 33 34 36 33 35 35 31 30 34 33 32 31 33 35 33 34 35 32 32 33 33 32 29 34 33 28 40 38 37 33 31 30 29 28 27 25 -225 -225 -225 -225 -225 -225 -225 -225 -225 -225 -225 -225 -225 -225 -225 -225 -225 -225 -225 -225 -225 -225 -225 -225 -225 -225 32 30 27 32 29 31 29 33 30 31 31 32 31 35 33 38 39 42 45 46 48 50 50 50 50 50 54 59 59 61 66 63 65 64 65 66 62 65 65 62 68 65 70 71 71 74 76 77 76 76 78 79 76 78 79 81 83 87 98 103 99 100 102 101 98 99 99 98 97 100 100 98 102 108 109 108 109 110 109 111 111 112 111 115 120 122 122 121 123 127 129 130 134 136 137 138 138 139 138 138 141 139 140 139 146 -193 -193 154 155 155 155 155 156 158 154 157 156 159 164 168 170 171 171 170 170 171 174 180 183 186 187 189 189 191 192 193 193 192 192 0 0 0 0 0
    0 0 0 0 0 0 0 0 0 0 0 0 0 0 0 0 0 0 0 0 0 0 0 0 0 0 0 0 0 0 0 0 0 0 0 0 0 0 0 0 0 0 0 0 0 0 0 0 0 0 0 0 0 0 0 0 0 0 0 0 0 0 0 0 0 0 0 0 0 62 61 62 61 61 61 59 59 57 56 53 46 43 44 41 41 40 38 38 37 38 39 35 35 36 36 36 37 36 33 29 32 33 33 32 31 31 31 31 33 31 31 32 33 34 33 35 35 33 36 35 30 30 32 33 31 30 32 35 32 34 35 32 32 33 34 34 31 37 37 36 43 41 39 37 35 33 31 30 29 -225 -225 -225 -225 -225 -225 -225 -225 -225 -225 -225 -225 -225 -225 -225 -225 -225 -225 -225 -225 -225 -225 -225 -225 -225 -225 -225 -225 32 28 31 28 30 29 33 29 30 30 31 31 34 32 37 38 42 44 45 47 49 50 50 50 50 54 60 59 60 66 63 65 65 65 66 62 65 65 63 69 67 70 72 71 74 76 77 76 77 79 79 76 78 79 83 85 87 97 102 99 99 102 100 98 99 99 99 98 101 101 99 103 109 110 109 109 109 108 111 111 110 108 109 118 120 121 118 120 122 124 128 133 135 136 137 138 139 137 138 140 137 141 139 148 -193 -193 155 155 155 155 155 155 157 153 156 156 158 163 167 169 170 170 170 170 171 173 180 183 186 187 190 190 192 194 194 194 194 193 0 0 0 0 0
    0 0 0 0 0 0 0 0 0 0 0 0 0 0 0 0 0 0 0 0 0 0 0 0 0 0 0 0 0 0 0 0 0 0 0 0 0 0 0 0 0 0 0 0 0 0 0 0 0 0 0 0 0 0 0 0 0 0 0 0 0 0 0 0 0 0 0 0 0 63 62 62 61 61 61 60 59 58 57 53 46 43 44 42 42 41 39 39 38 39 39 36 36 37 37 37 37 36 34 30 34 34 34 34 32 32 32 32 33 31 31 32 31 35 34 36 36 34 37 37 31 31 30 32 29 29 32 34 32 35 35 32 33 35 36 36 36 40 40 42 44 43 40 38 36 35 33 31 30 -225 -225 -225 -225 -225 -225 -225 -225 -225 -225 -225 -225 -225 -225 -225 -225 -225 -225 -225 -225 -225 -225 -225 -225 -225 -225 -225 -225 -225 30 30 28 28 28 32 28 29 29 30 30 33 32 36 37 41 43 45 46 49 50 51 51 50 54 60 59 61 65 63 64 65 65 66 62 66 66 63 69 69 71 72 72 74 77 77 76 77 80 80 76 78 79 83 87 89 96 101 99 99 102 100 99 99 100 100 99 102 102 100 104 108 110 108 109 109 108 110 111 111 109 109 118 119 120 117 117 118 120 125 128 130 131 133 135 136 135 136 139 133 147 138 151 -193 -193 155 155 155 155 155 155 157 153 157 156 158 163 167 169 170 170 170 170 171 173 179 183 186 187 190 191 192 194 195 195 195 195 0 0 0 0 0
    0 0 0 0 0 0 0 0 0 0 0 0 0 0 0 0 0 0 0 0 0 0 0 0 0 0 0 0 0 0 0 0 0 0 0 0 0 0 0 0 0 0 0 0 0 0 0 0 0 0 0 0 0 0 0 0 0 0 0 0 0 0 0 0 0 0 0 0 0 65 64 63 62 62 62 61 60 58 57 52 47 45 46 44 44 42 40 39 39 39 39 36 37 37 37 38 38 38 36 32 37 36 36 36 34 32 32 32 32 31 31 32 31 36 36 38 37 36 38 37 32 31 28 28 26 24 26 28 28 35 33 33 35 38 39 40 42 44 45 47 49 43 40 39 38 36 34 32 -225 -225 -225 -225 -225 -225 -225 -225 -225 -225 -225 -225 -225 -225 -225 -225 -225 -225 -225 -225 -225 -225 -225 -225 -225 -225 -225 -225 -225 -225 -225 30 27 27 27 29 27 28 27 28 29 31 32 35 36 40 41 43 45 48 50 51 51 51 54 61 59 60 65 62 63 64 65 66 62 66 66 64 70 69 71 72 72 75 77 77 77 77 81 81 78 81 81 85 88 90 94 100 98 99 101 100 99 99 100 100 100 102 103 102 105 108 110 109 110 110 109 111 112 112 111 110 118 119 119 115 116 114 116 123 -193 125 125 128 135 -209 138 138 139 -193 153 151 152 -193 153 155 155 154 154 154 155 157 154 158 157 158 163 167 168 169 170 170 170 170 173 179 183 186 186 189 190 191 194 195 195 195 195 0 0 0 0 0
    0 0 0 0 0 0 0 0 0 0 0 0 0 0 0 0 0 0 0 0 0 0 0 0 0 0 0 0 0 0 0 0 0 0 0 0 0 0 0 0 0 0 0 0 0 0 0 0 0 0 0 0 0 0 0 0 0 0 0 0 0 0 0 0 0 0 0 0 0 66 65 65 64 63 64 62 60 59 57 52 47 46 47 46 46 44 41 40 39 39 40 36 37 38 38 39 39 39 37 35 39 37 38 37 36 35 34 34 33 32 32 33 31 38 37 39 38 37 38 37 31 30 26 25 23 21 21 23 24 26 28 38 42 46 47 49 51 51 52 51 48 43 41 40 39 38 35 -225 -225 -225 -225 -225 -225 -225 -225 -225 -225 -225 -225 -225 -225 -225 -225 -225 -225 -225 -225 -225 -225 -225 -225 -225 -225 -225 -225 -225 -225 -225 -225 -225 28 27 27 28 27 27 27 27 27 30 31 34 36 39 40 42 44 46 48 50 51 50 54 60 59 60 65 62 63 64 65 66 63 66 66 64 70 70 72 73 73 75 77 78 78 78 82 82 79 83 83 86 87 89 91 95 95 97 100 99 98 99 100 100 100 103 103 103 105 108 110 109 111 110 110 112 113 114 113 112 120 121 122 119 121 121 120 126 129 130 131 134 138 -209 144 145 152 150 154 -193 -193 -209 147 151 151 147 147 149 152 -193 151 156 157 158 162 167 168 169 170 170 169 170 172 180 183 186 186 189 190 190 193 195 195 195 195 0 0 0 0 0
    0 0 0 0 0 0 0 0 0 0 0 0 0 0 0 0 0 0 0 0 0 0 0 0 0 0 0 0 0 0 0 0 0 0 0 0 0 0 0 0 0 0 0 0 0 0 0 0 0 0 0 0 0 0 0 0 0 0 0 0 0 0 0 0 0 0 0 0 0 66 66 66 64 64 65 62 60 58 57 52 48 49 49 49 49 46 43 40 41 40 40 37 38 38 40 40 41 41 40 40 43 41 41 39 38 37 36 36 34 34 34 34 33 38 38 39 38 37 38 37 34 33 28 27 24 21 21 21 23 27 30 44 49 50 50 51 52 52 51 50 48 44 42 42 41 39 36 -225 -225 -225 -225 -225 -225 -225 -225 -225 -225 -225 -225 -225 -225 -225 -225 -225 -225 -225 -225 -225 -225 -225 -225 -225 -225 -225 -225 -225 -225 -225 -225 -225 -225 24 24 24 24 -193 23 24 25 29 30 34 38 39 40 43 44 46 48 49 50 50 53 59 59 60 65 62 63 64 64 66 63 65 66 64 70 70 72 73 73 76 78 78 79 79 82 82 80 82 82 85 86 87 88 92 92 95 98 98 97 98 99 100 101 103 103 104 106 108 110 110 111 111 110 113 114 115 115 114 119 121 123 121 123 125 -209 134 137 135 137 138 140 -209 147 146 150 145 -193 -209 -209 131 134 131 129 130 131 136 139 134 142 153 156 158 161 166 167 168 169 169 169 169 171 179 182 185 186 189 190 191 194 195 195 195 196 0 0 0 0 0
    0 0 0 0 0 0 0 0 0 0 0 0 0 0 0 0 0 0 0 0 0 0 0 0 0 0 0 0 0 0 0 0 0 0 0 0 0 0 0 0 0 0 0 0 0 0 0 0 0 0 0 0 0 0 0 0 0 0 0 0 0 0 0 0 0 0 0 0 0 66 66 65 63 63 64 61 59 59 57 52 51 52 51 53 53 53 51 43 43 42 39 37 38 39 41 42 43 44 46 47 49 43 42 40 39 38 37 36 35 35 35 35 35 39 38 40 39 38 39 38 36 35 29 30 24 21 21 22 25 35 -209 48 54 53 53 53 53 53 51 50 48 45 45 44 43 42 -225 -225 -225 -225 -225 -225 -225 -225 -225 -225 -225 -225 -225 -225 -225 -225 -225 -225 -225 -225 -225 -225 -225 -225 -225 -225 -225 -225 -225 -225 -225 -225 -225 -225 -225 -225 -225 -225 -225 -225 -225 24 28 34 37 40 42 44 43 46 47 49 50 51 51 51 54 59 59 60 64 62 63 64 64 66 63 65 66 64 69 70 72 73 73 76 78 79 80 81 84 84 82 84 83 86 87 87 88 91 92 95 98 98 97 99 100 101 101 103 104 104 106 108 110 110 111 111 109 112 114 115 115 113 119 -193 121 121 124 130 135 136 138 137 138 140 -209 -209 -209 150 -193 150 -193 -209 -209 -193 135 134 132 -193 137 141 144 142 145 153 157 160 161 166 166 167 168 169 167 168 170 176 180 183 185 188 189 190 194 195 195 195 196 0 0 0 0 0
    0 0 0 0 0 0 0 0 0 0 0 0 0 0 0 0 0 0 0 0 0 0 0 0 0 0 0 0 0 0 0 0 0 0 0 0 0 0 0 0 0 0 0 0 0 0 0 0 0 0 0 0 0 0 0 0 0 0 0 0 0 0 0 0 0 0 0 0 0 65 65 63 62 63 62 60 59 59 57 53 52 53 53 55 55 54 52 49 47 44 41 40 40 41 43 44 46 48 53 53 53 46 44 42 40 39 38 38 36 36 37 37 36 39 40 41 40 39 40 40 38 38 31 31 22 20 21 23 31 43 55 51 54 53 53 53 53 52 51 50 48 48 47 46 -225 -225 -225 -225 -225 -225 -225 -225 -225 -225 -225 -225 -225 -225 -225 -225 -225 -225 -225 -225 -225 -225 -225 -225 -225 -225 -225 -225 -225 -225 -225 -225 -225 -225 -225 -225 -225 -225 -225 -225 -225 -225 -225 -225 -225 41 42 45 49 50 47 50 51 51 51 52 52 53 54 58 59 59 63 61 62 63 63 66 63 64 65 63 69 69 71 72 72 76 79 80 82 83 85 86 84 85 85 86 87 87 87 90 91 95 98 98 98 99 100 101 102 104 105 105 107 109 110 110 111 111 108 110 113 114 114 112 118 119 120 121 125 133 -209 136 138 137 139 141 -209 -209 -193 150 153 154 158 -193 154 -193 141 -209 -209 139 140 144 147 145 144 151 151 156 159 166 164 165 167 167 165 165 166 171 175 173 183 186 187 188 192 194 194 195 195 0 0 0 0 0
    0 0 0 0 0 0 0 0 0 0 0 0 0 0 0 0 0 0 0 0 0 0 0 0 0 0 0 0 0 0 0 0 0 0 0 0 0 0 0 0 0 0 0 0 0 0 0 0 0 0 0 0 0 0 0 0 0 0 0 0 0 0 0 0 0 0 0 0 0 65 63 63 62 62 61 60 58 58 57 54 53 54 53 54 54 53 51 49 48 45 44 42 43 42 43 46 46 48 53 53 53 47 45 44 41 40 39 39 37 37 39 38 38 40 42 43 42 39 41 42 -193 40 35 30 23 22 -193 -209 43 51 55 52 54 54 53 53 53 52 51 50 50 49 48 -225 -225 -225 -225 -225 -225 -225 -225 -225 -225 -225 -225 -225 -225 -225 -225 -225 -225 -225 -225 -225 -225 -225 -225 -225 -225 -225 -225 -225 -225 -225 -225 -225 -225 -225 -225 -225 -225 -225 -225 -225 -225 -225 -225 -225 -225 -225 49 50 52 53 52 54 54 53 54 54 54 54 55 59 59 59 63 61 62 63 63 66 63 64 65 62 69 69 71 71 71 75 80 81 84 85 86 87 85 86 86 87 87 87 87 90 91 95 98 98 98 99 101 102 103 105 105 106 108 110 110 111 111 110 107 109 111 112 113 109 114 115 115 117 121 -209 -209 -209 -209 -193 137 139 -209 -209 -209 -209 153 154 158 156 155 157 -193 -209 151 148 147 148 149 144 144 149 150 153 155 162 161 162 167 167 159 159 162 168 -193 169 180 182 184 186 190 192 192 194 194 0 0 0 0 0
    0 0 0 0 0 0 0 0 0 0 0 0 0 0 0 0 0 0 0 0 0 0 0 0 0 0 0 0 0 0 0 0 0 0 0 0 0 0 0 0 0 0 0 0 0 0 0 0 0 0 0 0 0 0 0 0 0 0 0 0 0 0 0 0 0 0 0 0 0 64 64 63 61 61 61 60 58 57 56 54 53 54 54 54 54 53 51 49 48 46 45 45 47 46 48 52 51 53 55 55 54 51 47 46 43 42 41 41 39 39 40 39 41 41 45 47 48 -193 41 -209 -209 41 -209 29 25 26 -209 -209 47 52 55 53 55 54 54 53 53 52 52 51 51 50 -225 -225 -225 -225 -225 -225 -225 -225 -225 -225 -225 -225 -225 -225 -225 -225 -225 -225 -225 -225 -225 -225 -225 -225 -225 -225 -225 -225 -225 -225 -225 -225 -225 -225 -225 -225 -225 -225 -225 -225 -225 -225 -225 -225 -225 -225 -225 -225 -225 53 54 54 54 56 56 55 55 55 55 55 56 59 59 59 63 61 62 63 64 66 63 64 65 62 69 69 71 71 -209 76 82 83 85 86 87 87 86 86 86 87 87 87 87 89 91 95 98 98 99 100 101 103 103 105 106 106 109 110 111 112 111 110 107 108 110 111 111 108 109 109 109 112 117 -209 -209 -209 -209 -209 -209 -209 -209 -209 -209 -193 153 154 157 156 154 157 -193 -193 -193 -193 -193 151 151 152 148 151 150 -193 156 164 164 165 169 170 -193 167 -193 -193 -193 -193 176 178 181 183 186 187 186 189 193 0 0 0 0 0
    0 0 0 0 0 0 0 0 0 0 0 0 0 0 0 0 0 0 0 0 0 0 0 0 0 0 0 0 0 0 0 0 0 0 0 0 0 0 0 0 0 0 0 0 0 0 0 0 0 0 0 0 0 0 0 0 0 0 0 0 0 0 0 0 0 0 0 0 0 66 66 64 62 61 60 59 56 55 55 52 52 53 53 53 54 53 51 50 49 48 46 47 51 51 53 55 54 55 57 57 56 54 50 49 44 43 41 41 39 39 41 39 44 43 49 51 -209 -209 -193 -209 -209 -209 -209 38 -209 -193 53 58 53 55 56 55 56 55 54 53 52 52 52 51 -225 -225 -225 -225 -225 -225 -225 -225 -225 -225 -225 -225 -225 -225 -225 -225 -225 -225 -225 -225 -225 -225 -225 -225 -225 -225 -225 -225 -225 -225 -225 -225 -225 -225 -225 -225 -225 -225 -225 -225 -225 -225 -225 -225 -225 -225 -225 -225 -225 -225 -225 54 55 54 55 57 57 56 56 56 56 56 57 59 59 60 63 61 62 64 64 66 63 64 65 62 68 68 71 -193 -209 -209 -209 -193 -193 -193 87 87 86 86 86 87 87 86 86 88 90 94 97 98 98 100 101 102 103 104 105 106 109 110 111 115 113 112 110 111 112 112 111 109 108 108 108 109 112 -209 -209 108 116 -209 -209 -209 -209 -209 -209 -193 -193 152 155 155 153 155 154 154 154 -193 153 153 154 154 151 -193 154 -209 163 168 169 168 170 171 -193 -193 -193 172 173 -193 -193 171 173 178 179 180 179 182 184 0 0 0 0 0
    0 0 0 0 0 0 0 0 0 0 0 0 0 0 0 0 0 0 0 0 0 0 0 0 0 0 0 0 0 0 0 0 0 0 0 0 0 0 0 0 0 0 0 0 0 0 0 0 0 0 0 0 0 0 0 0 0 0 0 0 0 0 0 0 0 0 0 0 0 66 65 65 62 61 59 59 56 54 53 51 52 53 53 53 54 53 51 50 50 0 -256 -1 -29748 52 54 56 55 56 57 58 57 55 53 54 48 47 42 42 41 41 43 43 47 47 49 52 55 -193 49 53 52 50 -209 -193 -209 58 57 59 56 57 57 56 56 55 54 53 53 53 52 -225 -225 -225 -225 -225 -225 -225 -225 -225 -225 -225 -225 -225 -225 -225 -225 -225 -225 -225 -225 -225 -225 -225 -225 -225 -225 -225 -225 -225 -225 -225 -225 -225 -225 -225 -225 -225 -225 -225 -225 -225 -225 -225 -225 -225 -225 -225 -225 -225 -225 -225 -225 54 55 54 56 58 58 57 57 57 57 58 58 59 59 59 63 62 63 64 64 66 64 63 65 61 67 67 69 70 -209 -209 82 83 86 -193 87 87 86 86 86 86 86 85 85 86 88 93 95 97 98 100 101 102 103 104 105 106 109 111 112 116 114 113 112 113 115 115 112 112 108 111 112 113 114 111 109 114 119 123 -209 -209 -209 -209 -209 -209 -209 -209 -209 -193 -193 154 154 155 154 153 152 153 -209 -209 -209 140 -209 -209 160 166 169 168 172 172 -193 -193 -209 -209 174 -209 -193 -193 -193 174 175 176 175 177 180 0 0 0 0 0
    0 0 0 0 0 0 0 0 0 0 0 0 0 0 0 0 0 0 0 0 0 0 0 0 0 0 0 0 0 0 0 0 0 0 0 0 0 0 0 0 0 0 0 0 0 0 0 0 0 0 0 0 0 0 0 0 0 0 0 0 0 0 0 0 0 0 0 0 0 63 64 63 61 60 59 58 56 55 54 52 52 53 53 52 53 52 51 50 50 49 47 50 53 53 55 56 55 56 57 58 57 56 54 56 53 53 48 44 44 45 46 47 47 45 -193 51 -193 -193 -193 55 56 57 63 60 61 59 59 59 58 58 58 56 56 55 54 53 52 51 -225 -225 -225 -225 -225 -225 -225 -225 -225 -225 -225 -225 -225 -225 -225 -225 -225 -225 -225 -225 -225 -225 -225 -225 -225 -225 -225 -225 -225 -225 -225 -225 -225 -225 -225 -225 -225 -225 -225 -225 -225 -225 -225 -225 -225 -225 -225 -225 -225 -225 -225 -225 -225 54 55 55 56 59 58 58 57 58 58 59 59 59 59 60 64 62 64 64 64 66 65 64 65 61 67 65 69 70 72 78 81 83 85 87 87 86 86 85 86 86 86 85 85 86 88 92 94 96 97 100 101 103 104 105 107 107 110 111 112 116 115 114 114 115 117 117 115 116 111 118 119 121 119 116 113 117 120 121 -209 -209 -209 -209 -209 -209 -209 -209 -209 -209 -193 151 153 154 153 153 151 153 -209 -209 140 138 143 -209 154 164 169 167 172 173 170 173 -209 -209 -193 -209 -209 -209 -209 -193 174 177 -193 -193 181 0 0 0 0 0
    0 0 0 0 0 0 0 0 0 0 0 0 0 0 0 0 0 0 0 0 0 0 0 0 0 0 0 0 0 0 0 0 0 0 0 0 0 0 0 0 0 0 0 0 0 0 0 0 0 0 0 0 0 0 0 0 0 0 0 0 0 0 0 0 0 0 0 0 0 61 62 62 60 59 58 57 55 56 55 53 52 53 53 52 53 51 50 49 49 49 48 50 54 54 55 57 56 57 58 59 59 58 56 58 56 57 -193 48 47 47 47 49 47 44 -177 -193 57 -193 56 57 57 59 64 62 62 60 60 59 58 58 57 56 56 55 54 53 52 -225 -225 -225 -225 -225 -225 -225 -225 -225 -225 -225 -225 -225 -225 -225 -225 -225 -225 -225 -225 -225 -225 -225 -225 -225 -225 -225 -225 -225 -225 -225 -225 -225 -225 -225 -225 -225 -225 -225 -225 -225 -225 -225 -225 -225 -225 -225 -225 -225 -225 -225 -225 -225 -225 54 55 55 57 60 59 59 58 59 59 60 60 60 60 61 64 63 64 65 64 66 65 64 65 62 66 64 67 69 72 76 79 80 83 86 87 86 86 85 86 86 86 86 85 87 89 92 93 96 97 99 101 102 103 105 107 107 110 111 112 115 115 114 115 115 117 117 116 117 114 118 120 121 120 116 115 119 120 122 123 -209 -193 -209 122 124 131 136 137 138 140 146 150 151 149 150 149 151 148 144 141 140 143 147 151 158 168 165 170 172 170 175 -209 -209 -193 -209 -209 -209 -209 -209 -209 -209 -193 -209 -193 0 0 0 0 0
    0 0 0 0 0 0 0 0 0 0 0 0 0 0 0 0 0 0 0 0 0 0 0 0 0 0 0 0 0 0 0 0 0 0 0 0 0 0 0 0 0 0 0 0 0 0 0 0 0 0 0 0 0 0 0 0 0 0 0 0 0 0 0 0 0 0 0 0 0 61 61 61 60 59 57 57 55 56 56 54 53 53 54 52 53 51 49 49 48 49 48 51 54 54 55 57 56 57 59 62 61 60 60 63 63 63 65 52 48 -177 50 52 49 -193 127 -193 57 -193 -193 56 55 58 62 61 60 59 60 59 57 58 57 57 56 56 55 -225 -225 -225 -225 -225 -225 -225 -225 -225 -225 -225 -225 -225 -225 -225 -225 -225 -225 -225 -225 -225 -225 -225 -225 -225 -225 -225 -225 -225 -225 -225 -225 -225 -225 -225 -225 -225 -225 -225 -225 -225 -225 -225 -225 -225 -225 -225 -225 -225 -225 -225 -225 -225 -225 -225 -225 53 55 55 58 61 60 60 59 61 61 61 63 62 61 63 66 65 65 66 66 67 66 65 66 63 68 65 67 69 72 76 78 79 83 86 86 87 86 85 87 87 87 87 86 88 90 92 94 96 97 99 101 101 103 104 105 106 108 109 110 113 113 112 114 115 117 118 116 118 116 118 120 121 119 116 116 119 119 123 -209 -209 -209 -209 -209 123 132 -193 137 137 139 144 149 149 146 147 147 150 148 143 144 140 146 152 156 162 -193 165 170 171 169 172 173 -209 -193 -209 -209 -209 -209 -209 -209 -209 -209 -209 -209 0 0 0 0 0
    0 0 0 0 0 0 0 0 0 0 0 0 0 0 0 0 0 0 0 0 0 0 0 0 0 0 0 0 0 0 0 0 0 0 0 0 0 0 0 0 0 0 0 0 0 0 0 0 0 0 0 0 0 0 0 0 0 0 0 0 0 0 0 0 0 0 0 0 0 62 62 62 61 59 57 57 55 55 55 53 51 51 52 49 52 50 48 48 49 50 50 52 55 55 57 58 57 59 61 66 65 64 65 68 70 70 72 -193 49 51 52 54 50 -193 -177 -193 57 -193 56 55 55 58 63 62 61 61 61 60 58 58 57 57 56 56 -225 -225 -225 -225 -225 -225 -225 -225 -225 -225 -225 -225 -225 -225 -225 -225 -225 -225 -225 -225 -225 -225 -225 -225 -225 -225 -225 -225 -225 -225 -225 -225 -225 -225 -225 -225 -225 -225 -225 -225 -225 -225 -225 -225 -225 -225 -225 -225 -225 -225 -225 -225 -225 -225 -225 -225 -225 52 53 54 58 63 60 60 59 61 62 62 64 63 61 64 66 66 67 67 69 68 68 68 68 66 70 69 70 70 74 76 77 79 82 85 85 86 85 84 87 87 87 86 86 87 90 92 94 96 97 99 100 101 102 103 105 105 107 108 109 112 113 111 114 116 118 119 117 119 117 120 122 124 121 119 120 123 128 136 138 140 139 140 139 -193 138 139 138 138 -193 141 144 141 139 141 141 143 139 137 141 139 144 151 156 161 168 167 170 171 171 172 173 -209 -193 -209 -209 -209 -209 -209 -209 -209 -209 -209 -209 0 0 0 0 0
    0 0 0 0 0 0 0 0 0 0 0 0 0 0 0 0 0 0 0 0 0 0 0 0 0 0 0 0 0 0 0 0 0 0 0 0 0 0 0 0 0 0 0 0 0 0 0 0 0 0 0 0 0 0 0 0 0 0 0 0 0 0 0 0 0 0 0 0 0 63 62 63 61 60 58 57 56 56 56 54 51 51 51 47 51 48 48 49 51 52 53 55 57 58 59 61 62 63 66 69 69 69 69 71 73 71 73 -193 51 52 -193 55 51 46 128 -193 57 56 56 54 53 58 64 62 61 61 62 60 58 59 58 57 57 -225 -225 -225 -225 -225 -225 -225 -225 -225 -225 -225 -225 -225 -225 -225 -225 -225 -225 -225 -225 -225 -225 -225 -225 -225 -225 -225 -225 -225 -225 -225 -225 -225 -225 -225 -225 -225 -225 -225 -225 -225 -225 -225 -225 -225 -225 -225 -225 -225 -225 -225 -225 -225 -225 -225 -225 -225 -225 -225 51 53 57 66 61 61 60 62 63 63 65 65 63 66 67 67 68 68 69 69 68 69 69 68 70 70 72 72 77 76 77 79 81 84 83 85 85 83 86 87 86 86 86 87 89 91 93 95 96 98 99 100 101 102 105 105 106 107 109 111 113 112 114 117 118 119 118 119 119 121 124 127 124 127 133 135 136 138 139 141 140 141 140 139 138 139 138 138 138 140 140 139 137 138 138 138 136 136 138 137 140 146 152 155 163 165 169 171 170 172 173 172 -193 -209 -209 -209 -209 -209 -209 -209 -209 -209 -209 0 0 0 0 0
    0 0 0 0 0 0 0 0 0 0 0 0 0 0 0 0 0 0 0 0 0 0 0 0 0 0 0 0 0 0 0 0 0 0 0 0 0 0 0 0 0 0 0 0 0 0 0 0 0 0 0 0 0 0 0 0 0 0 0 0 0 0 0 0 0 0 0 0 0 63 62 63 62 59 57 55 56 56 56 55 53 53 55 51 52 -193 50 -209 -209 -209 -209 59 63 66 66 67 68 68 69 71 71 71 71 72 73 72 74 -193 51 -193 -193 56 52 47 130 -193 57 56 57 55 54 59 66 64 62 62 63 60 60 60 60 58 -225 -225 -225 -225 -225 -225 -225 -225 -225 -225 -225 -225 -225 -225 -225 -225 -225 -225 -225 -225 -225 -225 -225 -225 -225 -225 -225 -225 -225 -225 -225 -225 -225 -225 -225 -225 -225 -225 -225 -225 -225 -225 -225 -225 -225 -225 -225 -225 -225 -225 -225 -225 -225 -225 -225 -225 -225 -225 -225 -225 48 53 57 65 61 60 59 62 63 64 65 66 64 66 67 68 69 68 69 69 68 70 70 70 71 71 73 73 79 77 77 79 82 83 83 84 84 83 87 87 87 86 87 88 90 92 93 95 96 97 98 99 101 102 105 105 106 107 108 111 112 111 114 116 118 118 118 120 120 122 125 129 128 133 136 136 136 137 139 141 140 -193 -209 -209 137 138 138 138 138 141 141 141 139 139 139 139 137 135 136 136 137 140 148 -193 157 160 166 169 169 171 172 -209 -209 -209 -209 -209 -209 -209 -209 -209 -209 -209 -209 0 0 0 0 0
    0 0 0 0 0 0 0 0 0 0 0 0 0 0 0 0 0 0 0 0 0 0 0 0 0 0 0 0 0 0 0 0 0 0 0 0 0 0 0 0 0 0 0 0 0 0 0 0 0 0 0 0 0 0 0 0 0 0 0 0 0 0 0 0 0 0 0 0 0 64 62 63 62 58 55 54 56 56 56 56 55 54 57 -193 -193 -209 -209 -209 -209 -209 -209 71 70 73 71 72 72 72 73 74 74 73 72 73 74 73 74 -193 54 -193 58 56 51 45 -193 -193 56 56 57 55 54 59 67 65 63 62 62 60 60 60 60 -225 -225 -225 -225 -225 -225 -225 -225 -225 -225 -225 -225 -225 -225 -225 -225 -225 -225 -225 -225 -225 -225 -225 -225 -225 -225 -225 -225 -225 -225 -225 -225 -225 -225 -225 -225 -225 -225 -225 -225 -225 -225 -225 -225 -225 -225 -225 -225 -225 -225 -225 -225 -225 -225 -225 -225 -225 -225 -225 -225 -225 -225 52 58 62 60 60 59 62 63 65 65 66 65 66 67 69 70 69 70 71 70 73 72 72 72 73 74 74 79 77 76 79 81 82 82 84 84 82 88 88 87 87 88 89 90 91 92 94 94 96 97 99 101 103 105 105 106 107 108 110 112 111 114 116 117 118 119 120 121 122 124 127 127 132 135 134 135 137 139 142 140 139 138 -209 137 138 138 138 138 140 141 140 138 138 138 136 134 134 134 135 137 140 146 150 -193 -209 161 165 166 170 -209 -209 -209 -209 -209 -209 -209 -209 -209 -209 -209 -209 -209 0 0 0 0 0
    0 0 0 0 0 0 0 0 0 0 0 0 0 0 0 0 0 0 0 0 0 0 0 0 0 0 0 0 0 0 0 0 0 0 0 0 0 0 0 0 0 0 0 0 0 0 0 0 0 0 0 0 0 0 0 0 0 0 0 0 0 0 0 0 0 0 0 0 0 64 62 65 62 58 56 54 57 57 58 59 54 55 61 -193 -209 86 -209 88 89 86 78 75 75 77 75 75 75 74 75 75 74 73 72 73 73 72 73 73 63 70 69 58 50 43 -193 47 55 56 58 56 56 60 67 67 64 63 63 61 61 -225 -225 -225 -225 -225 -225 -225 -225 -225 -225 -225 -225 -225 -225 -225 -225 -225 -225 -225 -225 -225 -225 -225 -225 -225 -225 -225 -225 -225 -225 -225 -225 -225 -225 -225 -225 -225 -225 -225 -225 -225 -225 -225 -225 -225 -225 -225 -225 -225 -225 -225 -225 -225 -225 -225 -225 -225 -225 -225 -225 -225 -225 -225 -225 -225 -225 -225 60 60 58 61 63 65 65 66 66 67 69 70 71 71 72 73 74 77 75 74 73 75 75 76 81 77 77 79 81 82 82 83 84 81 88 88 88 87 88 89 90 91 92 93 93 96 96 98 101 103 105 106 107 108 108 109 111 110 112 116 118 118 120 121 121 122 123 125 125 129 134 132 135 137 139 142 141 139 137 136 137 137 137 137 137 138 139 140 138 138 138 137 134 134 134 134 137 138 144 146 -209 -209 -209 -209 -193 -193 -209 -209 -193 -209 -209 -209 -209 -209 -209 -209 -193 188 188 0 0 0 0 0
    0 0 0 0 0 0 0 0 0 0 0 0 0 0 0 0 0 0 0 0 0 0 0 0 0 0 0 0 0 0 0 0 0 0 0 0 0 0 0 0 0 0 0 0 0 0 0 0 0 0 0 0 0 0 0 0 0 0 0 0 0 0 0 0 0 0 0 0 0 64 62 64 63 58 57 55 56 57 58 -209 51 54 60 -193 -209 -193 -209 -193 85 81 79 77 79 80 77 78 76 76 77 76 75 74 72 73 73 72 73 73 67 70 70 65 -193 37 -193 -209 58 59 -225 60 -193 64 68 68 66 -225 -225 -225 -225 -225 -225 -225 -225 -225 -225 -225 -225 -225 -225 -225 -225 -225 -225 -225 -225 -225 -225 -225 -225 -225 -225 -225 -225 -225 -225 -225 -225 -225 -225 -225 -225 -225 -225 -225 -225 -225 -225 -225 -225 -225 -225 -225 -225 -225 -225 -225 -225 -225 -225 -225 -225 -225 -225 -225 -225 -225 -225 -225 -225 -225 -225 -225 -225 -225 -225 -225 -225 -225 58 62 67 67 67 68 68 69 70 71 72 72 73 75 76 79 78 76 75 77 77 77 81 78 77 79 81 82 81 83 83 80 88 88 88 88 88 89 91 92 92 93 92 94 94 96 99 102 105 105 107 107 108 108 110 110 112 115 117 118 120 121 122 123 123 125 126 129 133 132 134 136 138 141 140 139 136 136 137 137 137 137 137 137 138 139 138 139 139 139 136 134 136 135 139 141 -193 -193 -193 -209 159 164 165 169 -209 -209 -209 -209 -209 -209 -193 -209 -209 128 -193 -209 -209 0 0 0 0 0
    0 0 0 0 0 0 0 0 0 0 0 0 0 0 0 0 0 0 0 0 0 0 0 0 0 0 0 0 0 0 0 0 0 0 0 0 0 0 0 0 0 0 0 0 0 0 0 0 0 0 0 0 0 0 0 0 0 0 0 0 0 0 0 0 0 0 0 0 0 64 62 64 63 58 58 54 55 56 57 -209 -209 -209 -209 -193 83 86 85 87 84 82 79 78 81 81 79 80 78 78 78 77 76 74 73 73 73 72 72 -225 -225 -225 -225 -225 -225 -225 -225 -225 -225 -225 -225 -225 -225 -225 -225 -225 -225 -225 -225 -225 -225 -225 -225 -225 -225 -225 -225 -225 -225 -225 -225 -225 -225 -225 -225 -225 -225 -225 -225 -225 -225 -225 -225 -225 -225 -225 -225 -225 -225 -225 -225 -225 -225 -225 -225 -225 -225 -225 -225 -225 -225 -225 -225 -225 -225 -225 -225 -225 -225 -225 -225 -225 -225 -225 -225 -225 -225 -225 -225 -225 -225 -225 -225 -225 -225 -225 -225 -225 -225 -225 -225 58 66 68 67 69 69 70 71 72 72 73 74 76 79 81 80 78 78 80 78 78 82 78 79 80 82 83 81 83 84 79 88 89 88 88 89 90 91 92 93 93 93 94 93 95 97 100 101 103 106 107 108 109 110 110 111 114 115 115 118 119 120 121 122 124 126 130 133 132 134 135 137 140 139 138 137 137 138 138 138 138 138 138 139 139 138 139 140 141 140 135 137 136 146 152 156 157 158 157 160 164 164 166 164 162 -209 -209 -209 -209 139 138 139 135 137 -209 -209 0 0 0 0 0
    0 0 0 0 0 0 0 0 0 0 0 0 0 0 0 0 0 0 0 0 0 0 0 0 0 0 0 0 0 0 0 0 0 0 0 0 0 0 0 0 0 0 0 0 0 0 0 0 0 0 0 0 0 0 0 0 0 0 0 0 0 0 0 0 0 0 0 0 0 67 62 65 65 -193 -193 55 57 60 70 86 -193 -209 80 83 86 87 87 88 85 84 82 81 83 82 80 81 78 77 77 76 75 74 73 73 72 -225 -225 -225 -225 -225 -225 -225 -225 -225 -225 -225 -225 -225 -225 -225 -225 -225 -225 -225 -225 -225 -225 -225 -225 -225 -225 -225 -225 -225 -225 -225 -225 -225 -225 -225 -225 -225 -225 -225 -225 -225 -225 -225 -225 -225 -225 -225 -225 -225 -225 -225 -225 -225 -225 -225 -225 -225 -225 -225 -225 -225 -225 -225 -225 -225 -225 -225 -225 -225 -225 -225 -225 -225 -225 -225 -225 -225 -225 -225 -225 -225 -225 -225 -225 -225 -225 -225 -225 -225 -225 -225 -225 -225 -225 56 65 68 67 69 69 70 71 73 72 73 75 77 80 81 80 78 79 81 80 80 83 80 81 81 84 84 83 84 84 79 88 87 87 87 89 90 92 93 94 95 94 95 94 95 97 100 101 103 106 108 109 109 110 110 111 113 114 113 117 118 120 122 123 124 126 130 133 133 135 135 137 140 139 138 136 137 138 138 139 139 138 139 140 142 140 141 142 143 151 -193 -193 -193 -193 -193 156 158 160 -193 162 164 164 165 163 163 163 -209 -209 -209 -209 138 141 142 140 139 -209 0 0 0 0 0
    0 0 0 0 0 0 0 0 0 0 0 0 0 0 0 0 0 0 0 0 0 0 0 0 0 0 0 0 0 0 0 0 0 0 0 0 0 0 0 0 0 0 0 0 0 0 0 0 0 0 0 0 0 0 0 0 0 0 0 0 0 0 0 0 0 0 0 0 0 -193 66 67 -193 -193 -193 -209 62 69 74 86 89 -193 80 83 84 87 89 89 87 86 85 84 86 85 83 82 79 78 78 76 76 75 75 75 -225 -225 -225 -225 -225 -225 -225 -225 -225 -225 -225 -225 -225 -225 -225 -225 -225 -225 -225 -225 -225 -225 -225 -225 -225 -225 -225 -225 -225 -225 -225 -225 -225 -225 -225 -225 -225 -225 -225 -225 -225 -225 -225 -225 -225 -225 -225 -225 -225 -225 -225 -225 -225 -225 -225 -225 -225 -225 -225 -225 -225 -225 -225 -225 -225 -225 -225 -225 -225 -225 -225 -225 -225 -225 -225 -225 -225 -225 -225 -225 -225 -225 -225 -225 -225 -225 -225 -225 -225 -225 -225 -225 -225 -225 -225 -225 61 68 66 70 69 71 71 73 73 74 75 76 79 80 80 79 79 81 81 81 84 81 82 82 85 84 84 84 84 80 87 86 87 87 88 90 91 93 94 95 94 95 94 95 96 101 102 104 106 108 110 111 111 112 111 113 114 113 118 118 121 123 124 126 128 132 134 133 133 133 134 136 136 136 134 135 137 137 139 139 139 140 141 144 144 145 146 148 153 -193 -193 -193 153 -193 156 157 158 160 161 164 163 163 162 162 163 -209 -209 -209 -209 136 141 147 143 148 142 0 0 0 0 0
    0 0 0 0 0 0 0 0 0 0 0 0 0 0 0 0 0 0 0 0 0 0 0 0 0 0 0 0 0 0 0 0 0 0 0 0 0 0 0 0 0 0 0 0 0 0 0 0 0 0 0 0 0 0 0 0 0 0 0 0 0 0 0 0 0 0 0 0 0 96 -193 -193 -193 -193 -193 -209 67 72 75 83 86 85 80 84 88 89 90 90 89 89 88 87 88 86 84 83 80 79 78 77 77 76 -225 -225 -225 -225 -225 -225 -225 -225 -225 -225 -225 -225 -225 -225 -225 -225 -225 -225 -225 -225 -225 -225 -225 -225 -225 -225 -225 -225 -225 -225 -225 -225 -225 -225 -225 -225 -225 -225 -225 -225 -225 -225 -225 -225 -225 -225 -225 -225 -225 -225 -225 -225 -225 -225 -225 -225 -225 -225 -225 -225 -225 -225 -225 -225 -225 -225 -225 -225 -225 -225 -225 -225 -225 -225 -225 -225 -225 -225 -225 -225 -225 -225 -225 -225 -225 -225 -225 -225 -225 -225 -225 -225 -225 -225 -225 -225 -225 -225 -225 -225 67 69 69 71 71 72 73 74 75 76 79 80 80 79 80 81 82 82 84 82 83 83 86 86 86 85 85 83 88 87 87 87 89 90 92 93 94 95 94 95 94 94 96 101 102 104 107 109 111 111 112 113 112 114 114 114 118 118 121 123 123 124 126 130 132 131 131 131 132 134 134 134 133 135 136 137 138 139 139 140 140 143 144 147 148 149 154 154 154 -193 154 -209 155 -193 158 159 159 162 161 162 162 164 165 166 164 -193 -209 -209 -193 -209 -193 -209 -209 0 0 0 0 0
    0 0 0 0 0 0 0 0 0 0 0 0 0 0 0 0 0 0 0 0 0 0 0 0 0 0 0 0 0 0 0 0 0 0 0 0 0 0 0 0 0 0 0 0 0 0 0 0 0 0 0 0 0 0 0 0 0 0 0 0 0 0 0 0 0 0 0 0 0 96 -193 -193 -193 -193 -209 -209 71 74 78 84 84 86 84 86 89 89 90 91 90 90 89 88 89 87 85 84 80 80 78 77 77 -225 -225 -225 -225 -225 -225 -225 -225 -225 -225 -225 -225 -225 -225 -225 -225 -225 -225 -225 -225 -225 -225 -225 -225 -225 -225 -225 -225 -225 -225 -225 -225 -225 -225 -225 -225 -225 -225 -225 -225 -225 -225 -225 -225 -225 -225 -225 -225 -225 -225 -225 -225 -225 -225 -225 -225 -225 -225 -225 -225 -225 -225 -225 -225 -225 -225 -225 -225 -225 -225 -225 -225 -225 -225 -225 -225 -225 -225 -225 -225 -225 -225 -225 -225 -225 -225 -225 -225 -225 -225 -225 -225 -225 -225 -225 -225 -225 -225 -225 -225 -225 -225 71 70 74 74 75 76 77 79 80 83 82 83 82 83 82 83 83 84 83 84 84 86 87 88 87 87 86 89 89 88 88 89 90 92 93 93 94 93 94 93 94 96 101 102 104 107 109 111 111 112 113 113 114 115 114 118 118 121 123 122 123 125 128 130 129 129 130 130 132 133 133 132 134 135 136 138 138 138 139 140 143 145 148 149 150 154 155 155 155 156 157 159 159 162 -193 163 164 162 162 163 164 165 165 163 166 168 -209 -193 -193 -193 -193 -209 0 0 0 0 0
    0 0 0 0 0 0 0 0 0 0 0 0 0 0 0 0 0 0 0 0 0 0 0 0 0 0 0 0 0 0 0 0 0 0 0 0 0 0 0 0 0 0 0 0 0 0 0 0 0 0 0 0 0 0 0 0 0 0 0 0 0 0 0 0 0 0 0 0 0 -193 -193 -193 76 -193 -193 75 75 76 79 85 86 89 87 88 90 90 92 91 91 90 89 88 89 86 84 83 82 81 79 -225 -225 -225 -225 -225 -225 -225 -225 -225 -225 -225 -225 -225 -225 -225 -225 -225 -225 -225 -225 -225 -225 -225 -225 -225 -225 -225 -225 -225 -225 -225 -225 -225 -225 -225 -225 -225 -225 -225 -225 -225 -225 -225 -225 -225 -225 -225 -225 -225 -225 -225 -225 -225 -225 -225 -225 -225 -225 -225 -225 -225 -225 -225 -225 -225 -225 -225 -225 -225 -225 -225 -225 -225 -225 -225 -225 -225 -225 -225 -225 -225 -225 -225 -225 -225 -225 -225 -225 -225 -225 -225 -225 -225 -225 -225 -225 -225 -225 -225 -225 -225 -225 -225 -225 72 74 84 80 79 81 82 84 84 85 84 85 84 84 84 84 83 85 84 85 85 88 89 90 89 89 89 90 90 89 89 89 90 91 92 92 93 92 92 92 93 94 98 100 102 105 108 111 112 113 114 114 115 116 115 118 119 121 122 123 124 125 128 130 130 131 131 132 133 133 134 133 135 136 136 137 138 138 138 139 142 146 149 150 152 155 156 156 156 157 161 163 164 165 168 167 167 165 164 165 166 166 166 164 165 166 168 -193 -193 -193 -193 -193 0 0 0 0 0
    0 0 0 0 0 0 0 0 0 0 0 0 0 0 0 0 0 0 0 0 0 0 0 0 0 0 0 0 0 0 0 0 0 0 0 0 0 0 0 0 0 0 0 0 0 0 0 0 0 0 0 0 0 0 0 0 0 0 0 0 0 0 0 0 0 0 0 0 0 -193 -193 -193 76 77 74 76 77 76 82 88 89 91 90 89 91 92 93 93 91 91 89 89 89 87 86 85 83 82 -225 -225 -225 -225 -225 -225 -225 -225 -225 -225 -225 -225 -225 -225 -225 -225 -225 -225 -225 -225 -225 -225 -225 -225 -225 -225 -225 -225 -225 -225 -225 -225 -225 -225 -225 -225 -225 -225 -225 -225 -225 -225 -225 -225 -225 -225 -225 -225 -225 -225 -225 -225 -225 -225 -225 -225 -225 -225 -225 -225 -225 -225 -225 -225 -225 -225 -225 -225 -225 -225 -225 -225 -225 -225 -225 -225 -225 -225 -225 -225 -225 -225 -225 -225 -225 -225 -225 -225 -225 -225 -225 -225 -225 -225 -225 -225 -225 -225 -225 -225 -225 -225 -225 -225 -225 -225 75 85 81 78 80 80 84 83 85 84 85 84 85 84 85 84 86 85 87 87 89 90 91 91 90 90 90 90 90 90 90 90 92 92 93 93 93 92 92 92 94 97 98 101 104 107 110 112 113 115 115 116 117 116 118 120 122 124 124 126 127 130 131 132 133 133 133 134 134 136 135 137 137 137 137 138 138 139 139 143 148 151 -193 153 155 157 157 159 160 163 163 164 165 168 167 167 164 163 165 166 165 164 162 164 164 166 -193 148 -193 -193 -209 0 0 0 0 0
    0 0 0 0 0 0 0 0 0 0 0 0 0 0 0 0 0 0 0 0 0 0 0 0 0 0 0 0 0 0 0 0 0 0 0 0 0 0 0 0 0 0 0 0 0 0 0 0 0 0 0 0 0 0 0 0 0 0 0 0 0 0 0 0 0 0 0 0 0 71 72 72 74 75 74 75 77 79 84 88 89 91 90 90 92 94 94 93 92 92 90 89 90 88 88 86 -225 -225 -225 -225 -225 -225 -225 -225 -225 -225 -225 -225 -225 -225 -225 -225 -225 -225 -225 -225 -225 -225 -225 -225 -225 -225 -225 -225 -225 -225 -225 -225 -225 -225 -225 -225 -225 -225 -225 -225 -225 -225 -225 -225 -225 -225 -225 -225 -225 -225 -225 -225 -225 -225 -225 -225 -225 -225 -225 -225 -225 -225 -225 -225 -225 -225 -225 -225 -225 -225 -225 -225 -225 -225 -225 -225 -225 -225 -225 -225 -225 -225 -225 -225 -225 -225 -225 -225 -225 -225 -225 -225 -225 -225 -225 -225 -225 -225 -225 -225 -225 -225 -225 -225 -225 -225 -225 -225 75 87 78 77 80 80 84 82 85 84 85 85 86 85 86 86 87 87 89 89 91 92 93 93 92 92 92 91 92 92 92 91 92 93 93 93 93 92 92 92 93 97 98 101 103 107 110 112 113 115 114 115 116 115 116 118 121 123 124 126 129 132 132 133 133 134 133 134 134 136 136 138 138 137 137 138 138 139 139 142 147 151 153 153 156 158 158 160 161 163 162 162 164 167 166 167 164 163 165 166 165 164 162 164 164 166 -193 149 -193 156 -193 0 0 0 0 0
    0 0 0 0 0 0 0 0 0 0 0 0 0 0 0 0 0 0 0 0 0 0 0 0 0 0 0 0 0 0 0 0 0 0 0 0 0 0 0 0 0 0 0 0 0 0 0 0 0 0 0 0 0 0 0 0 0 0 0 0 0 0 0 0 0 0 0 0 0 -193 74 74 75 76 75 78 81 84 87 89 90 91 91 92 94 94 95 94 94 93 92 91 91 89 89 -225 -225 -225 -225 -225 -225 -225 -225 -225 -225 -225 -225 -225 -225 -225 -225 -225 -225 -225 -225 -225 -225 -225 -225 -225 -225 -225 -225 -225 -225 -225 -225 -225 -225 -225 -225 -225 -225 -225 -225 -225 -225 -225 -225 -225 -225 -225 -225 -225 -225 -225 -225 -225 -225 -225 -225 -225 -225 -225 -225 -225 -225 -225 -225 -225 -225 -225 -225 -225 -225 -225 -225 -225 -225 -225 -225 -225 -225 -225 -225 -225 -225 -225 -225 -225 -225 -225 -225 -225 -225 -225 -225 -225 -225 -225 -225 -225 -225 -225 -225 -225 -225 -225 -225 -225 -225 -225 -225 -225 -225 -225 80 78 82 79 84 82 85 85 86 86 87 86 87 88 89 90 91 91 93 94 95 95 94 94 93 93 94 93 93 92 93 94 94 94 93 92 92 93 93 97 98 101 102 106 109 112 113 115 114 115 116 115 116 118 121 122 123 125 128 132 132 133 134 134 133 133 133 136 136 138 138 138 138 139 139 142 142 146 149 151 153 152 155 157 157 159 160 162 160 160 162 166 166 166 163 164 164 166 166 166 164 167 166 170 -193 -209 -209 -209 173 0 0 0 0 0
    0 0 0 0 0 0 0 0 0 0 0 0 0 0 0 0 0 0 0 0 0 0 0 0 0 0 0 0 0 0 0 0 0 0 0 0 0 0 0 0 0 0 0 0 0 0 0 0 0 0 0 0 0 0 0 0 0 0 0 0 0 0 0 0 0 0 0 0 0 75 77 77 78 80 79 84 85 87 89 90 91 92 93 93 94 95 96 95 95 94 93 93 93 -225 -225 -225 -225 -225 -225 -225 -225 -225 -225 -225 -225 -225 -225 -225 -225 -225 -225 -225 -225 -225 -225 -225 -225 -225 -225 -225 -225 -225 -225 -225 -225 -225 -225 -225 -225 -225 -225 -225 -225 -225 -225 -225 -225 -225 -225 -225 -225 -225 -225 -225 -225 -225 -225 -225 -225 -225 -225 -225 -225 -225 -225 -225 -225 -225 -225 -225 -225 -225 -225 -225 -225 -225 -225 -225 -225 -225 -225 -225 -225 -225 -225 -225 -225 -225 -225 -225 -225 -225 -225 -225 -225 -225 -225 -225 -225 -225 -225 -225 -225 -225 -225 -225 -225 -225 -225 -225 -225 -225 -225 -225 -225 -225 84 82 85 81 84 83 85 86 87 87 87 87 88 89 90 91 92 92 94 94 95 95 94 94 94 94 95 94 95 94 94 95 95 95 94 93 93 93 92 96 98 100 101 105 109 111 113 115 114 114 116 116 117 119 -209 -209 122 124 126 132 132 133 134 134 132 132 133 136 136 138 138 138 139 140 141 143 143 147 149 151 152 151 153 155 154 157 161 164 163 160 163 168 167 167 164 164 165 167 167 167 166 169 169 173 181 181 182 182 180 0 0 0 0 0
    0 0 0 0 0 0 0 0 0 0 0 0 0 0 0 0 0 0 0 0 0 0 0 0 0 0 0 0 0 0 0 0 0 0 0 0 0 0 0 0 0 0 0 0 0 0 0 0 0 0 0 0 0 0 0 0 0 0 0 0 0 0 0 0 0 0 0 0 0 76 78 80 81 83 83 87 87 90 90 92 92 93 93 93 94 95 96 95 95 95 95 94 -225 -225 -225 -225 -225 -225 -225 -225 -225 -225 -225 -225 -225 -225 -225 -225 -225 -225 -225 -225 -225 -225 -225 -225 -225 -225 -225 -225 -225 -225 -225 -225 -225 -225 -225 -225 -225 -225 -225 -225 -225 -225 -225 -225 -225 -225 -225 -225 -225 -225 -225 -225 -225 -225 -225 -225 -225 -225 -225 -225 -225 -225 -225 -225 -225 -225 -225 -225 -225 -225 -225 -225 -225 -225 -225 -225 -225 -225 -225 -225 -225 -225 -225 -225 -225 -225 -225 -225 -225 -225 -225 -225 -225 -225 -225 -225 -225 -225 -225 -225 -225 -225 -225 -225 -225 -225 -225 -225 -225 -225 -225 -225 -225 -225 -225 84 87 85 86 85 86 88 89 89 89 89 90 91 91 93 93 93 95 94 96 95 94 94 94 95 96 93 95 95 95 97 97 96 94 93 93 93 92 97 99 101 101 105 108 110 113 115 114 -193 117 117 118 119 121 -209 122 123 125 131 131 132 133 134 132 132 133 135 135 138 138 138 138 139 140 143 141 145 148 150 151 151 152 155 152 155 160 165 165 161 164 169 168 168 166 167 167 168 168 168 169 171 173 176 181 181 182 183 181 0 0 0 0 0
    0 0 0 0 0 0 0 0 0 0 0 0 0 0 0 0 0 0 0 0 0 0 0 0 0 0 0 0 0 0 0 0 0 0 0 0 0 0 0 0 0 0 0 0 0 0 0 0 0 0 0 0 0 0 0 0 0 0 0 0 0 0 0 0 0 0 0 0 0 77 80 83 85 85 86 89 90 92 93 94 94 94 94 94 96 96 96 96 96 96 -225 -225 -225 -225 -225 -225 -225 -225 -225 -225 -225 -225 -225 -225 -225 -225 -225 -225 -225 -225 -225 -225 -225 -225 -225 -225 -225 -225 -225 -225 -225 -225 -225 -225 -225 -225 -225 -225 -225 -225 -225 -225 -225 -225 -225 -225 -225 -225 -225 -225 -225 -225 -225 -225 -225 -225 -225 -225 -225 -225 -225 -225 -225 -225 -225 -225 -225 -225 -225 -225 -225 -225 -225 -225 -225 -225 -225 -225 -225 -225 -225 -225 -225 -225 -225 -225 -225 -225 -225 -225 -225 -225 -225 -225 -225 -225 -225 -225 -225 -225 -225 -225 -225 -225 -225 -225 -225 -225 -225 -225 -225 -225 -225 -225 -225 -225 -225 88 88 88 89 88 88 90 90 91 91 91 91 93 94 96 95 94 97 96 97 97 96 95 95 96 98 96 98 97 98 99 99 99 97 95 95 93 93 98 100 102 103 104 108 111 113 115 113 -193 -193 116 117 119 -209 -209 121 123 124 129 130 130 132 133 132 131 132 135 135 138 138 139 139 139 140 142 141 145 147 149 150 150 152 153 148 152 155 -209 -209 -209 164 169 -193 -193 167 168 167 169 168 168 169 172 174 176 180 180 182 183 183 0 0 0 0 0
    0 0 0 0 0 0 0 0 0 0 0 0 0 0 0 0 0 0 0 0 0 0 0 0 0 0 0 0 0 0 0 0 0 0 0 0 0 0 0 0 0 0 0 0 0 0 0 0 0 0 0 0 0 0 0 0 0 0 0 0 0 0 0 0 0 0 0 0 0 82 84 -193 -193 88 88 93 96 98 97 95 95 96 96 96 96 95 95 95 -225 -225 -225 -225 -225 -225 -225 -225 -225 -225 -225 -225 -225 -225 -225 -225 -225 -225 -225 -225 -225 -225 -225 -225 -225 -225 -225 -225 -225 -225 -225 -225 -225 -225 -225 -225 -225 -225 -225 -225 -225 -225 -225 -225 -225 -225 -225 -225 -225 -225 -225 -225 -225 -225 -225 -225 -225 -225 -225 -225 -225 -225 -225 -225 -225 -225 -225 -225 -225 -225 -225 -225 -225 -225 -225 -225 -225 -225 -225 -225 -225 -225 -225 -225 -225 -225 -225 -225 -225 -225 -225 -225 -225 -225 -225 -225 -225 -225 -225 -225 -225 -225 -225 -225 -225 -225 -225 -225 -225 -225 -225 -225 -225 -225 -225 -225 -225 -225 -225 90 90 92 92 91 91 93 93 93 93 94 93 94 95 97 94 94 98 98 98 99 98 98 97 99 101 99 101 101 100 100 100 101 100 99 98 95 95 100 101 103 103 101 105 109 111 113 -209 -177 -209 -209 -209 -209 -209 -209 121 122 123 127 128 129 131 133 132 132 133 135 135 138 139 139 139 139 141 143 142 147 149 150 151 151 152 152 148 151 152 -209 -209 -209 157 -193 -209 -193 -193 -193 167 169 168 169 169 172 173 175 180 180 181 183 182 0 0 0 0 0
    0 0 0 0 0 0 0 0 0 0 0 0 0 0 0 0 0 0 0 0 0 0 0 0 0 0 0 0 0 0 0 0 0 0 0 0 0 0 0 0 0 0 0 0 0 0 0 0 0 0 0 0 0 0 0 0 0 0 0 0 0 0 0 0 0 0 0 0 0 -193 -193 -193 101 95 96 98 100 99 98 97 96 97 96 96 95 95 94 -225 -225 -225 -225 -225 -225 -225 -225 -225 -225 -225 -225 -225 -225 -225 -225 -225 -225 -225 -225 -225 -225 -225 -225 -225 -225 -225 -225 -225 -225 -225 -225 -225 -225 -225 -225 -225 -225 -225 -225 -225 -225 -225 -225 -225 -225 -225 -225 -225 -225 -225 -225 -225 -225 -225 -225 -225 -225 -225 -225 -225 -225 -225 -225 -225 -225 -225 -225 -225 -225 -225 -225 -225 -225 -225 -225 -225 -225 -225 -225 -225 -225 -225 -225 -225 -225 -225 -225 -225 -225 -225 -225 -225 -225 -225 -225 -225 -225 -225 -225 -225 -225 -225 -225 -225 -225 -225 -225 -225 -225 -225 -225 -225 -225 -225 -225 -225 -225 -225 -225 -225 88 92 92 89 90 92 91 92 92 94 93 94 95 97 95 95 99 99 99 100 100 100 99 101 102 100 102 101 100 101 100 101 101 100 99 96 97 100 101 103 103 102 106 108 111 112 112 -209 -209 -209 -209 -209 -209 -209 120 -209 121 125 127 127 130 133 132 132 132 135 135 138 140 140 139 139 140 143 141 146 147 148 148 149 150 149 145 147 145 148 148 147 -193 -193 -193 -193 -193 -193 -193 169 170 171 172 174 175 176 180 181 181 -193 183 0 0 0 0 0
    0 0 0 0 0 0 0 0 0 0 0 0 0 0 0 0 0 0 0 0 0 0 0 0 0 0 0 0 0 0 0 0 0 0 0 0 0 0 0 0 0 0 0 0 0 0 0 0 0 0 0 0 0 0 0 0 0 0 0 0 0 0 0 0 0 0 0 0 0 106 107 106 104 102 102 101 101 100 99 98 97 97 95 95 94 -225 -225 -225 -225 -225 -225 -225 -225 -225 -225 -225 -225 -225 -225 -225 -225 -225 -225 -225 -225 -225 -225 -225 -225 -225 -225 -225 -225 -225 -225 -225 -225 -225 -225 -225 -225 -225 -225 -225 -225 -225 -225 -225 -225 -225 -225 -225 -225 -225 -225 -225 -225 -225 -225 -225 -225 -225 -225 -225 -225 -225 -225 -225 -225 -225 -225 -225 -225 -225 -225 -225 -225 -225 -225 -225 -225 -225 -225 -225 -225 -225 -225 -225 -225 -225 -225 -225 -225 -225 -225 -225 -225 -225 -225 -225 -225 -225 -225 -225 -225 -225 -225 -225 -225 -225 -225 -225 -225 -225 -225 -225 -225 -225 -225 -225 -225 -225 -225 -225 -225 -225 -225 -225 -225 -225 91 89 89 90 91 91 92 94 94 95 95 96 96 97 101 101 102 102 102 102 102 103 104 101 103 102 101 101 101 101 101 100 100 97 98 103 104 105 105 104 107 108 110 110 111 111 115 115 116 117 118 118 118 119 119 122 123 124 125 128 129 128 131 134 135 137 139 139 139 139 140 142 141 144 145 146 146 147 148 147 144 146 144 145 142 144 152 155 -193 -193 -193 -193 -193 169 172 173 174 174 176 176 180 179 181 183 181 0 0 0 0 0
    0 0 0 0 0 0 0 0 0 0 0 0 0 0 0 0 0 0 0 0 0 0 0 0 0 0 0 0 0 0 0 0 0 0 0 0 0 0 0 0 0 0 0 0 0 0 0 0 0 0 0 0 0 0 0 0 0 0 0 0 0 0 0 0 0 0 0 0 0 107 107 107 106 105 104 102 102 101 100 98 97 97 95 -225 -225 -225 -225 -225 -225 -225 -225 -225 -225 -225 -225 -225 -225 -225 -225 -225 -225 -225 -225 -225 -225 -225 -225 -225 -225 -225 -225 -225 -225 -225 -225 -225 -225 -225 -225 -225 -225 -225 -225 -225 -225 -225 -225 -225 -225 -225 -225 -225 -225 -225 -225 -225 -225 -225 -225 -225 -225 -225 -225 -225 -225 -225 -225 -225 -225 -225 -225 -225 -225 -225 -225 -225 -225 -225 -225 -225 -225 -225 -225 -225 -225 -225 -225 -225 -225 -225 -225 -225 -225 -225 -225 -225 -225 -225 -225 -225 -225 -225 -225 -225 -225 -225 -225 -225 -225 -225 -225 -225 -225 -225 -225 -225 -225 -225 -225 -225 -225 -225 -225 -225 -225 -225 -225 -225 -225 -225 -225 -225 -225 -225 98 95 94 100 99 98 99 98 98 99 103 104 104 103 104 105 104 105 106 103 105 104 104 104 104 104 104 101 101 98 -193 105 107 106 107 106 108 109 110 109 110 109 113 114 115 116 117 118 118 118 118 121 122 122 122 125 126 125 129 131 133 136 138 139 139 139 141 142 141 144 143 144 144 145 147 146 144 147 145 146 143 145 152 155 -209 -193 -193 -193 170 170 172 174 176 174 176 176 179 178 181 181 179 0 0 0 0 0
    0 0 0 0 0 0 0 0 0 0 0 0 0 0 0 0 0 0 0 0 0 0 0 0 0 0 0 0 0 0 0 0 0 0 0 0 0 0 0 0 0 0 0 0 0 0 0 0 0 0 0 0 0 0 0 0 0 0 0 0 0 0 0 0 0 0 0 0 0 107 107 107 106 105 104 103 102 101 101 99 98 98 -225 -225 -225 -225 -225 -225 -225 -225 -225 -225 -225 -225 -225 -225 -225 -225 -225 -225 -225 -225 -225 -225 -225 -225 -225 -225 -225 -225 -225 -225 -225 -225 -225 -225 -225 -225 -225 -225 -225 -225 -225 -225 -225 -225 -225 -225 -225 -225 -225 -225 -225 -225 -225 -225 -225 -225 -225 -225 -225 -225 -225 -225 -225 -225 -225 -225 -225 -225 -225 -225 -225 -225 -225 -225 -225 -225 -225 -225 -225 -225 -225 -225 -225 -225 -225 -225 -225 -225 -225 -225 -225 -225 -225 -225 -225 -225 -225 -225 -225 -225 -225 -225 -225 -225 -225 -225 -225 -225 -225 -225 -225 -225 -225 -225 -225 -225 -225 -225 -225 -225 -225 -225 -225 -225 -225 -225 -225 -225 -225 -225 -225 -225 -225 -225 90 98 95 96 95 95 93 97 103 103 103 103 103 105 105 106 107 105 107 107 107 107 108 107 108 106 105 102 -193 106 108 106 107 106 108 110 111 109 110 109 112 114 115 115 117 117 118 119 119 121 122 122 122 126 126 126 129 132 133 136 138 139 139 139 141 142 140 142 141 141 140 142 144 143 143 146 146 146 145 148 154 159 168 171 171 173 172 171 173 174 175 174 175 176 178 178 181 180 182 0 0 0 0 0
    0 0 0 0 0 0 0 0 0 0 0 0 0 0 0 0 0 0 0 0 0 0 0 0 0 0 0 0 0 0 0 0 0 0 0 0 0 0 0 0 0 0 0 0 0 0 0 0 0 0 0 0 0 0 0 0 0 0 0 0 0 0 0 0 0 0 0 0 0 108 107 107 106 105 104 104 102 102 101 99 -225 -225 -225 -225 -225 -225 -225 -225 -225 -225 -225 -225 -225 -225 -225 -225 -225 -225 -225 -225 -225 -225 -225 -225 -225 -225 -225 -225 -225 -225 -225 -225 -225 -225 -225 -225 -225 -225 -225 -225 -225 -225 -225 -225 -225 -225 -225 -225 -225 -225 -225 -225 -225 -225 -225 -225 -225 -225 -225 -225 -225 -225 -225 -225 -225 -225 -225 -225 -225 -225 -225 -225 -225 -225 -225 -225 -225 -225 -225 -225 -225 -225 -225 -225 -225 -225 -225 -225 -225 -225 -225 -225 -225 -225 -225 -225 -225 -225 -225 -225 -225 -225 -225 -225 -225 -225 -225 -225 -225 -225 -225 -225 -225 -225 -225 -225 -225 -225 -225 -225 -225 -225 -225 -225 -225 -225 -225 -225 -225 -225 -225 -225 -225 -225 -225 -225 -225 -225 94 93 93 92 91 95 102 103 105 104 106 107 107 108 108 106 109 108 108 108 108 108 108 107 106 100 -193 106 107 106 106 106 108 109 111 109 110 109 112 114 115 116 118 118 120 120 121 122 123 123 124 128 129 129 132 133 134 135 137 138 138 138 139 139 139 140 139 140 139 142 143 144 143 146 147 148 149 150 155 161 169 171 171 173 172 171 172 173 173 172 173 175 175 176 177 176 180 0 0 0 0 0
    0 0 0 0 0 0 0 0 0 0 0 0 0 0 0 0 0 0 0 0 0 0 0 0 0 0 0 0 0 0 0 0 0 0 0 0 0 0 0 0 0 0 0 0 0 0 0 0 0 0 0 0 0 0 0 0 0 0 0 0 0 0 0 0 0 0 0 0 0 108 108 107 106 106 105 105 103 103 103 -225 -225 -225 -225 -225 -225 -225 -225 -225 -225 -225 -225 -225 -225 -225 -225 -225 -225 -225 -225 -225 -225 -225 -225 -225 -225 -225 -225 -225 -225 -225 -225 -225 -225 -225 -225 -225 -225 -225 -225 -225 -225 -225 -225 -225 -225 -225 -225 -225 -225 -225 -225 -225 -225 -225 -225 -225 -225 -225 -225 -225 -225 -225 -225 -225 -225 -225 -225 -225 -225 -225 -225 -225 -225 -225 -225 -225 -225 -225 -225 -225 -225 -225 -225 -225 -225 -225 -225 -225 -225 -225 -225 -225 -225 -225 -225 -225 -225 -225 -225 -225 -225 -225 -225 -225 -225 -225 -225 -225 -225 -225 -225 -225 -225 -225 -225 -225 -225 -225 -225 -225 -225 -225 -225 -225 -225 -225 -225 -225 -225 -225 -225 -225 -225 -225 -225 -225 -225 -225 93 91 91 91 90 98 104 105 107 106 108 109 109 109 110 108 110 109 109 108 108 108 109 107 106 104 106 107 107 106 106 106 107 109 110 108 108 108 112 114 115 116 118 118 120 120 121 122 123 123 124 127 127 128 131 132 132 134 137 137 137 136 138 138 138 139 139 139 139 141 142 143 142 144 145 146 146 149 154 159 168 170 170 171 171 171 171 172 171 171 172 173 173 174 174 176 180 0 0 0 0 0
    0 0 0 0 0 0 0 0 0 0 0 0 0 0 0 0 0 0 0 0 0 0 0 0 0 0 0 0 0 0 0 0 0 0 0 0 0 0 0 0 0 0 0 0 0 0 0 0 0 0 0 0 0 0 0 0 0 0 0 0 0 0 0 0 0 0 0 0 0 108 108 107 107 106 105 105 104 -225 -225 -225 -225 -225 -225 -225 -225 -225 -225 -225 -225 -225 -225 -225 -225 -225 -225 -225 -225 -225 -225 -225 -225 -225 -225 -225 -225 -225 -225 -225 -225 -225 -225 -225 -225 -225 -225 -225 -225 -225 -225 -225 -225 -225 -225 -225 -225 -225 -225 -225 -225 -225 -225 -225 -225 -225 -225 -225 -225 -225 -225 -225 -225 -225 -225 -225 -225 -225 -225 -225 -225 -225 -225 -225 -225 -225 -225 -225 -225 -225 -225 -225 -225 -225 -225 -225 -225 -225 -225 -225 -225 -225 -225 -225 -225 -225 -225 -225 -225 -225 -225 -225 -225 -225 -225 -225 -225 -225 -225 -225 -225 -225 -225 -225 -225 -225 -225 -225 -225 -225 -225 -225 -225 -225 -225 -225 -225 -225 -225 -225 -225 -225 -225 -225 -225 -225 -225 -225 -225 -225 -225 91 91 91 91 99 103 106 108 107 111 111 111 111 113 111 114 111 111 109 109 108 110 106 107 104 107 108 108 107 107 106 107 108 109 107 106 106 109 112 115 115 117 117 119 120 120 121 122 122 122 124 124 125 128 130 131 133 136 137 137 136 138 139 139 140 140 139 139 142 143 143 142 144 144 145 145 148 153 156 164 167 168 169 169 169 170 170 170 169 170 172 173 174 175 178 -193 0 0 0 0 0
    0 0 0 0 0 0 0 0 0 0 0 0 0 0 0 0 0 0 0 0 0 0 0 0 0 0 0 0 0 0 0 0 0 0 0 0 0 0 0 0 0 0 0 0 0 0 0 0 0 0 0 0 0 0 0 0 0 0 0 0 0 0 0 0 0 0 0 0 0 108 108 107 107 107 106 106 -225 -225 -225 -225 -225 -225 -225 -225 -225 -225 -225 -225 -225 -225 -225 -225 -225 -225 -225 -225 -225 -225 -225 -225 -225 -225 -225 -225 -225 -225 -225 -225 -225 -225 -225 -225 -225 -225 -225 -225 -225 -225 -225 -225 -225 -225 -225 -225 -225 -225 -225 -225 -225 -225 -225 -225 -225 -225 -225 -225 -225 -225 -225 -225 -225 -225 -225 -225 -225 -225 -225 -225 -225 -225 -225 -225 -225 -225 -225 -225 -225 -225 -225 -225 -225 -225 -225 -225 -225 -225 -225 -225 -225 -225 -225 -225 -225 -225 -225 -225 -225 -225 -225 -225 -225 -225 -225 -225 -225 -225 -225 -225 -225 -225 -225 -225 -225 -225 -225 -225 -225 -225 -225 -225 -225 -225 -225 -225 -225 -225 -225 -225 -225 -225 -225 -225 -225 -225 -225 -225 -225 -225 -225 -225 87 88 89 99 103 106 108 107 111 111 112 112 114 113 115 113 112 110 110 108 108 106 106 104 107 108 108 108 108 107 108 108 109 107 106 106 108 110 112 114 116 116 119 119 119 121 122 122 122 124 124 125 128 130 132 134 136 137 137 137 138 141 140 141 141 141 141 143 144 145 144 146 147 147 147 149 153 156 163 166 167 168 168 169 170 170 169 169 170 172 174 178 180 181 -193 0 0 0 0 0
    0 0 0 0 0 0 0 0 0 0 0 0 0 0 0 0 0 0 0 0 0 0 0 0 0 0 0 0 0 0 0 0 0 0 0 0 0 0 0 0 0 0 0 0 0 0 0 0 0 0 0 0 0 0 0 0 0 0 0 0 0 0 0 0 0 0 0 0 0 109 108 107 107 107 -225 -225 -225 -225 -225 -225 -225 -225 -225 -225 -225 -225 -225 -225 -225 -225 -225 -225 -225 -225 -225 -225 -225 -225 -225 -225 -225 -225 -225 -225 -225 -225 -225 -225 -225 -225 -225 -225 -225 -225 -225 -225 -225 -225 -225 -225 -225 -225 -225 -225 -225 -225 -225 -225 -225 -225 -225 -225 -225 -225 -225 -225 -225 -225 -225 -225 -225 -225 -225 -225 -225 -225 -225 -225 -225 -225 -225 -225 -225 -225 -225 -225 -225 -225 -225 -225 -225 -225 -225 -225 -225 -225 -225 -225 -225 -225 -225 -225 -225 -225 -225 -225 -225 -225 -225 -225 -225 -225 -225 -225 -225 -225 -225 -225 -225 -225 -225 -225 -225 -225 -225 -225 -225 -225 -225 -225 -225 -225 -225 -225 -225 -225 -225 -225 -225 -225 -225 -225 -225 -225 -225 -225 -225 -225 -225 -225 -225 88 89 99 104 105 107 106 110 111 112 112 114 113 116 113 112 110 110 108 108 106 107 106 108 110 110 109 109 109 110 109 109 107 106 105 107 109 109 110 112 115 118 118 119 120 121 121 122 123 124 125 127 128 131 134 136 136 136 137 137 140 139 141 141 141 141 144 144 146 145 147 149 149 149 151 155 158 164 166 167 167 168 168 169 170 169 169 170 172 174 177 180 181 -209 0 0 0 0 0
    0 0 0 0 0 0 0 0 0 0 0 0 0 0 0 0 0 0 0 0 0 0 0 0 0 0 0 0 0 0 0 0 0 0 0 0 0 0 0 0 0 0 0 0 0 0 0 0 0 0 0 0 0 0 0 0 0 0 0 0 0 0 0 0 0 0 0 0 0 109 109 108 108 -225 -225 -225 -225 -225 -225 -225 -225 -225 -225 -225 -225 -225 -225 -225 -225 -225 -225 -225 -225 -225 -225 -225 -225 -225 -225 -225 -225 -225 -225 -225 -225 -225 -225 -225 -225 -225 -225 -225 -225 -225 -225 -225 -225 -225 -225 -225 -225 -225 -225 -225 -225 -225 -225 -225 -225 -225 -225 -225 -225 -225 -225 -225 -225 -225 -225 -225 -225 -225 -225 -225 -225 -225 -225 -225 -225 -225 -225 -225 -225 -225 -225 -225 -225 -225 -225 -225 -225 -225 -225 -225 -225 -225 -225 -225 -225 -225 -225 -225 -225 -225 -225 -225 -225 -225 -225 -225 -225 -225 -225 -225 -225 -225 -225 -225 -225 -225 -225 -225 -225 -225 -225 -225 -225 -225 -225 -225 -225 -225 -225 -225 -225 -225 -225 -225 -225 -225 -225 -225 -225 -225 -225 -225 -225 -225 -225 -225 -225 -225 92 100 102 104 107 106 111 111 114 114 116 115 117 115 115 114 115 112 112 108 111 108 111 112 111 110 110 110 111 109 109 107 105 105 107 108 109 110 112 115 116 118 119 120 121 121 122 123 124 125 128 129 131 134 136 -193 137 139 138 141 140 142 143 142 143 145 146 147 147 149 151 151 151 153 155 160 166 166 167 167 168 168 169 169 169 168 -193 171 173 176 180 -193 -209 0 0 0 0 0
    0 0 0 0 0 0 0 0 0 0 0 0 0 0 0 0 0 0 0 0 0 0 0 0 0 0 0 0 0 0 0 0 0 0 0 0 0 0 0 0 0 0 0 0 0 0 0 0 0 0 0 0 0 0 0 0 0 0 0 0 0 0 0 0 0 0 0 0 0 109 109 -225 -225 -225 -225 -225 -225 -225 -225 -225 -225 -225 -225 -225 -225 -225 -225 -225 -225 -225 -225 -225 -225 -225 -225 -225 -225 -225 -225 -225 -225 -225 -225 -225 -225 -225 -225 -225 -225 -225 -225 -225 -225 -225 -225 -225 -225 -225 -225 -225 -225 -225 -225 -225 -225 -225 -225 -225 -225 -225 -225 -225 -225 -225 -225 -225 -225 -225 -225 -225 -225 -225 -225 -225 -225 -225 -225 -225 -225 -225 -225 -225 -225 -225 -225 -225 -225 -225 -225 -225 -225 -225 -225 -225 -225 -225 -225 -225 -225 -225 -225 -225 -225 -225 -225 -225 -225 -225 -225 -225 -225 -225 -225 -225 -225 -225 -225 -225 -225 -225 -225 -225 -225 -225 -225 -225 -225 -225 -225 -225 -225 -225 -225 -225 -225 -225 -225 -225 -225 -225 -225 -225 -225 -225 -225 -225 -225 -225 -225 -225 -225 -225 -225 100 99 104 105 105 110 112 114 114 116 115 117 116 116 116 117 116 116 112 114 111 112 113 112 110 110 110 111 109 108 108 106 105 105 107 107 107 109 111 114 117 118 121 122 122 123 124 125 127 129 129 131 134 -209 -209 -209 -193 -193 -193 141 143 144 143 144 145 147 148 148 150 151 152 153 155 157 161 167 166 167 167 167 167 167 168 168 167 168 171 172 176 179 181 -193 0 0 0 0 0
    0 0 0 0 0 0 0 0 0 0 0 0 0 0 0 0 0 0 0 0 0 0 0 0 0 0 0 0 0 0 0 0 0 0 0 0 0 0 0 0 0 0 0 0 0 0 0 0 0 0 0 0 0 0 0 0 0 0 0 0 0 0 0 0 0 0 0 0 0 109 -225 -225 -225 -225 -225 -225 -225 -225 -225 -225 -225 -225 -225 -225 -225 -225 -225 -225 -225 -225 -225 -225 -225 -225 -225 -225 -225 -225 -225 -225 -225 -225 -225 -225 -225 -225 -225 -225 -225 -225 -225 -225 -225 -225 -225 -225 -225 -225 -225 -225 -225 -225 -225 -225 -225 -225 -225 -225 -225 -225 -225 -225 -225 -225 -225 -225 -225 -225 -225 -225 -225 -225 -225 -225 -225 -225 -225 -225 -225 -225 -225 -225 -225 -225 -225 -225 -225 -225 -225 -225 -225 -225 -225 -225 -225 -225 -225 -225 -225 -225 -225 -225 -225 -225 -225 -225 -225 -225 -225 -225 -225 -225 -225 -225 -225 -225 -225 -225 -225 -225 -225 -225 -225 -225 -225 -225 -225 -225 -225 -225 -225 -225 -225 -225 -225 -225 -225 -225 -225 -225 -225 -225 -225 -225 -225 -225 -225 -225 -225 -225 -225 -225 -225 -225 94 100 99 102 110 110 113 113 114 116 118 116 116 117 118 117 119 116 116 113 115 116 114 113 112 112 115 112 112 112 108 108 108 109 109 108 109 109 111 115 117 119 122 123 124 125 126 127 128 129 131 133 -209 -209 -209 -193 -193 143 143 144 146 145 146 147 148 149 149 150 153 153 155 157 158 162 166 165 166 166 166 165 166 166 166 167 167 170 173 176 179 181 183 0 0 0 0 0
    0 0 0 0 0 0 0 0 0 0 0 0 0 0 0 0 0 0 0 0 0 0 0 0 0 0 0 0 0 0 0 0 0 0 0 0 0 0 0 0 0 0 0 0 0 0 0 0 0 0 0 0 0 0 0 0 0 0 0 0 0 0 0 0 0 0 0 0 0 -225 -225 -225 -225 -225 -225 -225 -225 -225 -225 -225 -225 -225 -225 -225 -225 -225 -225 -225 -225 -225 -225 -225 -225 -225 -225 -225 -225 -225 -225 -225 -225 -225 -225 -225 -225 -225 -225 -225 -225 -225 -225 -225 -225 -225 -225 -225 -225 -225 -225 -225 -225 -225 -225 -225 -225 -225 -225 -225 -225 -225 -225 -225 -225 -225 -225 -225 -225 -225 -225 -225 -225 -225 -225 -225 -225 -225 -225 -225 -225 -225 -225 -225 -225 -225 -225 -225 -225 -225 -225 -225 -225 -225 -225 -225 -225 -225 -225 -225 -225 -225 -225 -225 -225 -225 -225 -225 -225 -225 -225 -225 -225 -225 -225 -225 -225 -225 -225 -225 -225 -225 -225 -225 -225 -225 -225 -225 -225 -225 -225 -225 -225 -225 -225 -225 -225 -225 -225 -225 -225 -225 -225 -225 -225 -225 -225 -225 -225 -225 -225 -225 -225 -225 -225 -225 -225 100 99 103 112 110 113 113 113 115 118 116 116 116 118 118 119 118 117 116 118 119 118 117 116 116 118 117 117 118 115 117 116 116 114 113 113 111 111 113 116 118 121 122 122 125 126 126 128 128 130 131 -209 -209 -209 -193 -193 145 145 146 148 147 148 148 149 151 151 151 153 154 156 157 159 162 165 164 165 164 164 163 164 165 165 166 166 170 173 176 180 183 185 0 0 0 0 0
    0 0 0 0 0 0 0 0 0 0 0 0 0 0 0 0 0 0 0 0 0 0 0 0 0 0 0 0 0 0 0 0 0 0 0 0 0 0 0 0 0 0 0 0 0 0 0 0 0 0 0 0 0 0 0 0 0 0 0 0 0 0 0 0 0 0 0 0 0 -225 -225 -225 -225 -225 -225 -225 -225 -225 -225 -225 -225 -225 -225 -225 -225 -225 -225 -225 -225 -225 -225 -225 -225 -225 -225 -225 -225 -225 -225 -225 -225 -225 -225 -225 -225 -225 -225 -225 -225 -225 -225 -225 -225 -225 -225 -225 -225 -225 -225 -225 -225 -225 -225 -225 -225 -225 -225 -225 -225 -225 -225 -225 -225 -225 -225 -225 -225 -225 -225 -225 -225 -225 -225 -225 -225 -225 -225 -225 -225 -225 -225 -225 -225 -225 -225 -225 -225 -225 -225 -225 -225 -225 -225 -225 -225 -225 -225 -225 -225 -225 -225 -225 -225 -225 -225 -225 -225 -225 -225 -225 -225 -225 -225 -225 -225 -225 -225 -225 -225 -225 -225 -225 -225 -225 -225 -225 -225 -225 -225 -225 -225 -225 -225 -225 -225 -225 -225 -225 -225 -225 -225 -225 -225 -225 -225 -225 -225 -225 -225 -225 -225 -225 -225 -225 -225 -225 96 102 112 109 113 113 113 114 118 117 118 117 120 119 120 120 119 119 121 121 121 120 120 119 121 -193 121 122 121 121 121 120 119 116 117 113 111 113 114 115 118 120 121 123 125 125 126 127 129 131 -209 -209 -209 -193 -193 145 144 145 148 147 147 148 149 151 151 152 153 154 157 160 162 165 166 166 166 165 165 163 164 165 166 165 166 169 172 175 179 183 184 0 0 0 0 0</data></disparity>
</opencv_storage>
