<?xml version="1.0"?>
<opencv_storage>
<gps_time_stamp>280509</gps_time_stamp>
<gps_x>-1.3988431930541992e+001</gps_x>
<gps_y>1.1300354003906250e+001</gps_y>
<gps_z>-2.3129813671112061e+000</gps_z>
<image_time_stamp>271356</image_time_stamp>
<disparity type_id="opencv-matrix">
  <rows>93</rows>
  <cols>320</cols>
  <dt>s</dt>
  <data>
    0 0 0 0 0 0 0 0 0 0 0 0 0 0 0 0 0 0 0 0 0 0 0 0 0 0 0 0 0 0 0 0 0 0 0 0 0 0 0 0 0 0 0 0 0 0 0 0 0 0 0 0 0 0 0 0 0 0 0 0 0 0 0 0 0 0 0 0 0 -193 -193 30 34 33 37 35 -209 40 41 42 -209 -193 -193 -209 -209 -209 -209 -209 -209 -209 -209 -209 -209 -209 -193 35 33 33 32 30 -193 -193 29 32 32 31 32 31 32 33 31 33 31 30 31 30 30 -209 -193 -193 -209 -209 -209 -209 -209 -209 31 31 30 31 31 30 32 36 33 36 36 -193 -209 -209 38 39 37 39 38 37 36 34 35 34 33 34 32 31 33 30 30 29 28 27 27 27 28 27 31 35 35 36 38 39 37 36 35 34 33 31 31 31 30 32 33 34 35 35 38 39 40 41 42 40 41 39 40 36 36 35 34 35 34 35 36 34 33 32 32 30 29 28 28 26 27 27 27 26 26 24 23 22 23 23 25 -209 -193 34 39 38 38 39 43 -193 -193 -209 30 35 38 35 34 37 36 36 36 36 36 35 35 35 36 40 38 38 39 39 40 40 40 41 38 42 41 41 42 42 42 43 42 43 43 45 46 45 49 49 51 53 52 52 54 54 53 54 53 53 54 55 55 54 54 55 54 56 55 50 46 47 44 42 40 44 47 -209 47 56 61 -193 -209 -193 -209 -209 -193 -193 -209 -209 54 -209 -209 0 0 0 0 0
    0 0 0 0 0 0 0 0 0 0 0 0 0 0 0 0 0 0 0 0 0 0 0 0 0 0 0 0 0 0 0 0 0 0 0 0 0 0 0 0 0 0 0 0 0 0 0 0 0 0 0 0 0 0 0 0 0 0 0 0 0 0 0 0 0 0 0 0 0 33 31 31 36 35 38 37 -209 40 41 42 -209 -193 -193 -209 -209 -209 -209 -209 -209 -209 -209 -209 -209 -209 31 33 31 31 30 29 -193 -193 28 32 32 30 31 31 32 32 31 32 31 29 30 29 29 -209 -193 -193 -209 -209 -193 -193 -209 -209 -193 31 30 30 31 30 31 35 32 36 35 36 -209 -209 37 38 36 38 38 37 35 34 35 34 33 33 31 31 33 30 30 30 30 29 29 29 30 29 32 36 36 37 38 39 37 35 34 34 33 31 30 31 29 32 34 34 35 35 37 38 39 40 40 39 39 37 37 34 35 34 34 36 34 36 35 34 34 32 33 31 29 28 27 26 27 27 27 26 27 26 26 24 -193 26 28 -209 -193 -193 -193 40 39 40 43 42 -209 -209 32 35 38 35 35 37 37 36 36 36 36 35 35 35 36 40 38 38 39 39 40 40 39 41 37 41 41 41 42 42 42 43 42 44 43 45 46 45 49 49 51 54 52 53 54 54 54 55 54 54 54 55 55 54 54 55 54 55 54 49 45 45 42 39 38 42 44 -193 -193 -193 -193 64 -193 -193 -193 -209 58 56 58 57 57 69 -209 0 0 0 0 0
    0 0 0 0 0 0 0 0 0 0 0 0 0 0 0 0 0 0 0 0 0 0 0 0 0 0 0 0 0 0 0 0 0 0 0 0 0 0 0 0 0 0 0 0 0 0 0 0 0 0 0 0 0 0 0 0 0 0 0 0 0 0 0 0 0 0 0 0 0 34 33 34 37 37 39 -209 -193 -193 41 40 -209 -193 35 -209 -209 -209 -193 -209 -209 -209 -209 -209 29 30 29 30 29 29 29 28 -193 -193 28 32 31 30 31 31 32 32 31 32 30 29 30 29 30 -193 -193 -209 -209 -193 -193 -177 -177 -209 -193 31 30 30 31 30 31 35 34 36 35 36 36 35 36 37 36 38 37 36 35 34 35 34 33 32 30 30 32 31 31 31 32 32 32 32 33 33 35 37 37 37 37 38 36 34 33 33 32 30 29 30 29 32 33 34 34 34 36 37 39 40 39 38 37 36 35 34 35 34 34 36 34 37 35 34 34 33 34 31 29 29 27 26 27 27 27 26 27 27 28 25 -193 35 -209 -193 -193 -193 -209 -209 -209 39 42 -209 -209 -209 30 33 38 36 35 37 37 36 36 36 36 35 35 35 36 39 37 38 39 39 39 39 39 40 36 41 40 40 41 42 42 43 42 44 44 45 46 45 48 49 51 55 53 53 54 54 54 55 54 54 54 55 55 54 54 55 54 55 54 49 45 44 41 38 37 40 -193 -209 -209 -193 -193 64 65 66 64 62 61 62 65 67 66 70 73 0 0 0 0 0
    0 0 0 0 0 0 0 0 0 0 0 0 0 0 0 0 0 0 0 0 0 0 0 0 0 0 0 0 0 0 0 0 0 0 0 0 0 0 0 0 0 0 0 0 0 0 0 0 0 0 0 0 0 0 0 0 0 0 0 0 0 0 0 0 0 0 0 0 0 35 34 35 36 37 39 39 -193 39 39 38 37 32 33 -193 -209 -193 -193 -209 27 27 -193 28 28 29 29 30 28 29 28 28 28 28 29 31 31 30 32 31 34 33 32 33 31 30 31 29 30 30 30 -193 -209 -193 -193 -177 -177 -209 -209 -193 30 31 31 31 33 36 36 38 36 36 36 35 36 37 36 37 36 36 34 34 35 34 33 32 30 30 32 31 31 30 31 31 33 33 33 33 35 37 37 37 36 37 35 34 33 33 32 30 30 30 28 31 33 33 33 34 36 36 39 39 38 37 36 35 34 34 35 33 34 35 34 37 35 34 34 33 34 31 30 30 26 26 27 27 27 25 27 30 35 -193 45 50 -193 -193 -193 -193 -209 -209 -209 -209 -209 -209 -209 -209 -209 33 38 36 36 37 38 37 37 36 36 35 35 35 36 39 37 37 38 38 39 39 39 39 36 41 41 41 41 42 43 43 43 44 44 45 46 46 49 51 52 55 54 54 55 55 54 55 54 54 55 55 55 54 54 55 54 55 53 48 45 43 39 37 38 41 -193 -209 -209 55 61 64 65 66 65 63 63 66 68 70 70 71 74 0 0 0 0 0
    0 0 0 0 0 0 0 0 0 0 0 0 0 0 0 0 0 0 0 0 0 0 0 0 0 0 0 0 0 0 0 0 0 0 0 0 0 0 0 0 0 0 0 0 0 0 0 0 0 0 0 0 0 0 0 0 0 0 0 0 0 0 0 0 0 0 0 0 0 36 35 35 36 37 39 39 39 38 38 38 36 31 32 -193 -209 -209 -193 -193 28 28 29 28 30 30 31 30 29 29 29 28 29 28 30 31 32 31 32 32 35 34 34 34 32 30 32 30 32 32 -193 -209 -209 -209 -177 -193 -193 -209 -193 -193 32 32 32 33 34 37 37 38 36 37 37 -193 35 37 36 37 36 36 33 33 35 34 33 32 29 31 33 33 32 31 31 32 33 32 31 32 34 36 36 37 36 36 36 35 34 34 31 30 30 30 28 30 32 32 33 34 35 35 39 39 38 37 36 36 35 36 37 35 35 37 34 38 36 35 35 34 35 33 31 32 26 26 26 26 26 23 26 -193 -193 -193 51 54 -193 -209 -193 -193 -209 -209 -209 -193 -193 -209 -209 -209 -209 33 39 37 36 37 38 37 37 36 37 35 35 35 36 39 37 37 38 38 39 39 39 39 37 41 41 41 42 42 43 44 44 45 45 45 46 46 49 51 53 55 54 54 55 56 54 55 55 55 55 55 55 54 54 55 55 54 54 49 46 43 37 34 37 -193 -193 -209 -209 57 62 64 65 65 65 63 64 67 69 70 71 71 73 0 0 0 0 0
    0 0 0 0 0 0 0 0 0 0 0 0 0 0 0 0 0 0 0 0 0 0 0 0 0 0 0 0 0 0 0 0 0 0 0 0 0 0 0 0 0 0 0 0 0 0 0 0 0 0 0 0 0 0 0 0 0 0 0 0 0 0 0 0 0 0 0 0 0 38 37 37 37 37 39 39 39 38 37 37 35 31 34 -209 -209 -193 -193 -193 30 29 31 29 31 31 32 31 30 30 30 29 29 28 30 30 32 -193 -193 32 36 34 34 34 32 30 32 30 32 32 33 35 -209 -209 -177 -193 -209 -209 -209 36 35 36 35 37 36 38 38 38 36 37 37 -193 32 35 35 36 35 35 32 32 34 34 33 32 29 31 33 34 33 32 32 32 32 32 31 32 34 36 36 37 36 37 37 35 34 33 31 30 30 29 28 29 32 31 32 34 35 35 39 39 37 36 36 37 36 37 38 37 37 37 37 38 38 37 37 36 37 35 34 34 26 25 26 25 25 21 26 -193 -209 -193 50 50 -193 -193 -193 -193 -209 -193 -209 40 42 42 43 -209 -193 40 -193 38 38 38 39 38 38 37 37 36 36 36 36 38 37 37 38 38 39 39 39 40 38 41 42 42 42 42 44 45 44 46 46 46 47 47 48 52 52 55 55 54 55 56 54 55 55 55 55 55 55 55 54 55 55 54 54 50 52 43 37 37 39 -193 -209 -209 -209 60 66 67 68 67 66 65 66 68 70 70 71 71 74 0 0 0 0 0
    0 0 0 0 0 0 0 0 0 0 0 0 0 0 0 0 0 0 0 0 0 0 0 0 0 0 0 0 0 0 0 0 0 0 0 0 0 0 0 0 0 0 0 0 0 0 0 0 0 0 0 0 0 0 0 0 0 0 0 0 0 0 0 0 0 0 0 0 0 38 37 36 36 37 38 38 38 37 36 -193 -193 31 34 -209 -209 -209 -193 -193 30 29 31 29 32 31 33 32 31 31 31 29 30 28 31 -193 -193 -193 -209 -209 35 32 33 33 32 30 32 30 32 33 -193 -193 -209 -209 -193 -193 -209 -193 -209 37 36 38 37 38 37 38 39 39 37 37 36 34 31 35 36 36 35 35 32 32 34 35 32 30 28 30 32 33 32 31 31 31 31 31 30 32 34 36 37 38 37 37 38 34 34 34 31 30 31 30 29 29 31 31 30 32 33 33 37 38 34 35 35 36 36 37 37 38 37 37 37 38 38 38 38 37 37 36 35 35 25 25 25 25 24 19 -209 44 45 -193 50 49 -193 -193 -209 -193 -209 -193 41 41 43 43 45 42 45 -193 -193 39 38 39 39 38 38 38 38 37 37 37 36 38 37 37 38 39 39 39 39 40 39 41 42 42 42 42 44 46 45 47 47 47 49 48 48 52 50 54 54 54 55 56 54 55 55 55 55 54 55 55 54 56 56 54 55 51 57 48 40 43 -209 -209 -193 61 57 61 68 68 70 68 67 66 68 69 70 71 72 72 74 0 0 0 0 0
    0 0 0 0 0 0 0 0 0 0 0 0 0 0 0 0 0 0 0 0 0 0 0 0 0 0 0 0 0 0 0 0 0 0 0 0 0 0 0 0 0 0 0 0 0 0 0 0 0 0 0 0 0 0 0 0 0 0 0 0 0 0 0 0 0 0 0 0 0 36 34 34 34 34 36 -193 37 -193 -209 -209 -209 -209 -193 -193 -193 -193 -193 32 33 32 33 31 34 32 34 33 31 31 31 29 30 27 30 -209 -193 -193 -209 -209 -209 -193 33 30 30 29 30 29 32 -193 -193 -193 -193 -209 -209 -193 -209 -209 38 38 36 38 37 38 38 38 39 39 36 36 36 34 31 34 36 35 35 35 33 32 33 34 31 29 27 28 31 32 31 30 31 31 31 32 31 32 34 37 37 38 37 37 37 34 33 34 31 32 32 31 30 30 33 32 31 33 33 32 36 36 32 33 34 35 35 36 37 38 37 37 37 38 38 38 38 37 37 36 37 36 27 26 27 26 25 -193 37 42 42 43 47 46 -193 -209 -209 -209 -193 39 39 39 42 41 44 -209 47 -209 48 39 38 39 38 38 38 38 38 37 37 37 36 38 37 37 38 39 40 39 40 40 39 41 42 42 42 42 44 46 45 47 47 47 48 48 48 51 48 54 53 53 54 56 54 55 55 55 55 54 55 55 54 56 56 54 55 53 59 -193 -209 -209 -209 -193 -193 69 69 66 68 69 70 69 68 68 69 70 71 72 72 72 73 0 0 0 0 0
    0 0 0 0 0 0 0 0 0 0 0 0 0 0 0 0 0 0 0 0 0 0 0 0 0 0 0 0 0 0 0 0 0 0 0 0 0 0 0 0 0 0 0 0 0 0 0 0 0 0 0 0 0 0 0 0 0 0 0 0 0 0 0 0 0 0 0 0 0 34 32 -193 31 32 35 -209 -193 -209 -209 -209 -209 -209 -209 -193 34 31 33 36 35 33 35 31 33 32 32 31 29 29 29 28 29 27 28 26 27 -193 -209 -209 -209 30 35 32 31 29 31 30 33 -209 -209 -209 -209 -209 -209 -209 -209 -193 38 37 35 37 37 39 38 37 39 39 37 36 36 34 31 34 36 36 36 35 33 33 32 34 -193 -193 27 28 30 31 31 31 31 32 31 33 32 35 35 38 38 38 36 36 36 33 31 32 29 30 31 30 30 30 32 31 31 33 32 31 34 35 31 32 33 34 34 35 36 36 35 35 36 37 38 38 38 38 37 37 38 37 33 27 27 27 26 -193 37 41 -193 42 44 -209 -209 -193 -193 -193 38 37 38 38 41 41 43 -209 52 -209 -193 -193 39 40 39 38 39 38 38 37 37 38 37 39 38 38 38 40 40 40 40 41 40 41 42 42 41 41 44 46 44 46 46 48 48 49 49 52 48 54 53 52 53 55 54 54 55 55 55 54 55 55 54 56 56 54 56 55 60 60 61 64 68 70 69 69 70 68 70 69 71 70 69 69 69 71 71 71 72 71 73 0 0 0 0 0
    0 0 0 0 0 0 0 0 0 0 0 0 0 0 0 0 0 0 0 0 0 0 0 0 0 0 0 0 0 0 0 0 0 0 0 0 0 0 0 0 0 0 0 0 0 0 0 0 0 0 0 0 0 0 0 0 0 0 0 0 0 0 0 0 0 0 0 0 0 32 30 -193 30 30 -193 -193 34 35 -193 -209 36 -209 -193 -193 -193 32 34 36 36 34 34 29 32 29 30 30 29 28 28 28 28 26 27 25 25 -193 -209 -209 -209 36 39 37 33 32 33 32 35 -209 -193 -209 -193 -209 -209 -209 41 39 38 37 36 38 38 40 40 38 41 40 37 37 36 34 32 35 36 35 35 36 33 33 33 34 30 -193 26 28 30 31 31 31 31 32 32 34 33 35 36 38 -193 38 35 32 34 31 30 30 28 29 30 29 30 29 31 31 31 33 32 30 34 35 32 33 34 35 35 36 36 36 35 34 36 36 38 38 38 38 37 37 38 37 -193 25 25 25 -193 -193 -209 -193 -193 -209 -209 -209 -193 -193 -209 -193 36 36 38 37 41 42 -209 -209 -209 -193 59 -193 39 39 38 38 39 38 38 38 38 38 38 39 39 39 39 40 41 40 41 41 41 41 42 42 41 40 43 45 43 45 46 48 49 49 50 52 48 54 53 52 53 55 53 54 54 54 54 54 55 55 54 56 56 54 57 57 60 61 63 64 66 69 68 69 70 68 69 69 70 70 68 68 69 70 70 71 71 70 72 0 0 0 0 0
    0 0 0 0 0 0 0 0 0 0 0 0 0 0 0 0 0 0 0 0 0 0 0 0 0 0 0 0 0 0 0 0 0 0 0 0 0 0 0 0 0 0 0 0 0 0 0 0 0 0 0 0 0 0 0 0 0 0 0 0 0 0 0 0 0 0 0 0 0 30 29 30 29 30 31 30 32 32 31 32 32 32 32 32 31 29 32 32 34 33 33 29 33 30 31 30 29 29 29 28 29 26 27 26 26 -209 -209 -209 -209 37 39 40 34 34 33 32 35 36 38 39 38 39 39 39 41 40 39 38 38 40 40 42 42 41 42 42 38 37 36 33 30 34 36 35 35 36 33 33 33 34 30 -209 24 26 27 29 29 29 29 30 30 32 32 34 35 39 -193 38 36 31 34 31 30 29 27 29 30 29 29 29 30 29 30 32 31 30 32 33 30 31 33 34 35 36 36 37 35 34 36 36 38 38 38 38 37 38 39 38 42 24 25 23 -193 -193 -209 -193 -193 -209 -209 -209 -209 -209 -209 -193 36 36 38 38 42 43 -209 -209 -193 -193 61 -193 38 39 38 38 39 39 39 38 38 39 39 40 40 40 40 41 41 41 41 41 41 41 42 42 41 40 43 44 42 44 45 46 48 -193 -193 -193 48 55 53 52 53 55 53 53 54 53 53 53 54 54 53 56 -193 55 57 58 61 62 66 65 66 69 68 69 69 68 68 69 69 69 68 68 68 69 69 70 71 70 72 0 0 0 0 0
    0 0 0 0 0 0 0 0 0 0 0 0 0 0 0 0 0 0 0 0 0 0 0 0 0 0 0 0 0 0 0 0 0 0 0 0 0 0 0 0 0 0 0 0 0 0 0 0 0 0 0 0 0 0 0 0 0 0 0 0 0 0 0 0 0 0 0 0 0 31 30 32 29 31 30 30 32 31 31 31 31 32 31 32 31 30 32 32 35 34 35 31 35 31 31 31 29 29 29 28 29 26 27 26 26 29 -209 -209 -209 32 37 38 33 32 32 31 34 35 38 40 39 40 40 40 42 41 41 39 38 39 39 41 41 38 41 39 36 36 35 32 29 32 36 35 34 35 33 32 31 33 30 -193 -193 -193 25 28 27 27 27 28 29 29 29 31 31 36 -193 -193 37 32 35 32 32 31 28 29 30 28 30 29 30 29 30 32 31 30 32 32 29 31 32 33 35 36 37 38 35 34 37 36 39 39 39 39 38 39 40 38 42 25 26 22 -193 -193 -209 -193 -193 -209 -209 -209 -209 -209 -193 -193 35 34 38 38 45 47 -209 -209 -193 61 62 -193 38 38 37 38 39 39 39 39 39 39 40 40 41 41 41 42 42 42 42 42 42 41 42 42 41 40 43 44 42 43 44 46 -193 -209 -209 -209 51 56 55 52 53 55 52 53 54 53 53 53 54 54 53 56 55 55 58 59 60 63 66 66 66 68 68 68 69 67 67 68 68 68 67 67 66 67 68 69 70 70 72 0 0 0 0 0
    0 0 0 0 0 0 0 0 0 0 0 0 0 0 0 0 0 0 0 0 0 0 0 0 0 0 0 0 0 0 0 0 0 0 0 0 0 0 0 0 0 0 0 0 0 0 0 0 0 0 0 0 0 0 0 0 0 0 0 0 0 0 0 0 0 0 0 0 0 31 30 32 29 31 30 29 32 31 31 32 31 32 32 33 33 31 33 34 36 36 36 32 36 31 31 30 30 29 29 28 28 26 27 26 26 27 -193 23 -193 27 33 32 31 31 30 31 34 36 39 41 40 41 40 41 41 41 39 38 37 37 37 39 38 36 37 38 36 36 35 33 30 32 35 34 34 35 32 32 31 32 30 27 -193 25 25 27 27 27 27 29 30 30 30 31 31 34 36 35 37 33 37 34 34 33 30 30 31 29 30 29 30 30 30 32 30 29 31 31 29 30 31 32 33 35 36 37 34 33 37 36 39 39 39 39 38 39 40 39 43 26 26 23 -193 -193 -209 -193 -193 -209 -209 -209 -209 -193 -193 -193 31 31 35 35 -209 -209 -209 -209 -193 64 65 -193 38 38 37 38 40 39 39 39 39 39 41 41 42 41 42 43 43 42 42 42 42 41 42 42 41 40 43 44 41 43 45 48 -209 -209 -193 -209 -209 56 55 52 53 55 52 53 54 53 53 53 54 54 53 55 55 55 58 59 60 63 68 67 67 68 68 68 69 67 67 67 68 67 66 66 65 65 66 67 68 68 71 0 0 0 0 0
    0 0 0 0 0 0 0 0 0 0 0 0 0 0 0 0 0 0 0 0 0 0 0 0 0 0 0 0 0 0 0 0 0 0 0 0 0 0 0 0 0 0 0 0 0 0 0 0 0 0 0 0 0 0 0 0 0 0 0 0 0 0 0 0 0 0 0 0 0 30 28 30 28 30 30 29 31 30 30 31 30 32 31 33 33 32 34 34 36 37 35 32 35 31 30 30 30 29 29 28 29 26 26 27 26 26 21 22 23 25 29 28 27 28 27 28 31 36 38 41 39 40 39 40 41 41 38 37 36 35 35 37 36 35 34 35 32 34 35 32 31 32 34 33 33 35 32 32 31 32 30 28 26 25 24 27 27 28 28 29 30 31 32 32 32 35 37 34 36 34 35 33 33 32 30 30 31 30 30 31 30 30 30 32 30 30 31 31 28 29 30 31 31 33 34 36 33 32 37 36 39 39 39 39 38 39 40 38 42 26 27 21 -193 -193 -209 -193 -193 -193 0 -209 -209 -209 93 -193 -193 -209 -193 34 -209 -209 -209 -209 -193 67 67 -193 38 38 37 38 40 39 39 39 39 40 41 41 43 41 42 43 43 43 43 42 43 41 42 42 41 40 43 44 41 42 44 48 -209 -209 -193 -209 -209 58 56 52 52 54 52 53 53 52 52 53 54 54 53 56 56 56 58 59 60 63 67 67 67 67 67 68 68 66 67 67 67 67 66 66 65 65 65 66 67 68 71 0 0 0 0 0
    0 0 0 0 0 0 0 0 0 0 0 0 0 0 0 0 0 0 0 0 0 0 0 0 0 0 0 0 0 0 0 0 0 0 0 0 0 0 0 0 0 0 0 0 0 0 0 0 0 0 0 0 0 0 0 0 0 0 0 0 0 0 0 0 0 0 0 0 0 28 27 29 28 29 29 28 31 29 30 30 30 31 30 33 33 32 33 33 35 37 34 31 33 31 29 29 30 29 28 28 29 27 26 28 26 25 20 22 22 24 27 25 26 26 26 28 31 36 39 -193 40 41 40 41 41 41 38 37 35 34 34 35 35 34 32 34 30 33 34 32 31 32 34 34 32 35 32 33 32 32 30 27 25 24 24 27 26 26 27 28 30 31 32 32 32 35 36 33 36 34 33 33 32 31 30 30 31 30 30 32 30 31 31 32 30 30 30 30 27 28 29 30 30 32 32 35 31 30 37 35 39 39 39 38 37 38 39 37 42 27 27 22 -193 31 -209 -193 -209 -193 -209 -209 -209 92 94 97 101 -193 -209 -209 -209 -209 -209 -193 66 68 68 -193 39 38 37 38 40 39 39 39 39 39 41 42 43 42 43 44 44 43 43 42 43 41 42 42 41 40 43 43 41 42 44 47 -209 -209 -177 -209 -209 60 57 52 52 54 52 52 53 52 52 53 54 54 54 56 57 57 58 59 60 63 67 67 67 67 66 67 67 66 66 65 67 66 66 66 65 65 66 66 67 67 71 0 0 0 0 0
    0 0 0 0 0 0 0 0 0 0 0 0 0 0 0 0 0 0 0 0 0 0 0 0 0 0 0 0 0 0 0 0 0 0 0 0 0 0 0 0 0 0 0 0 0 0 0 0 0 0 0 0 0 0 0 0 0 0 0 0 0 0 0 0 0 0 0 0 0 28 27 29 28 30 29 28 30 28 30 29 29 31 30 32 32 31 33 32 34 36 32 30 32 31 28 29 29 29 28 28 28 26 26 27 25 22 18 -193 21 24 27 24 26 27 26 27 29 34 37 40 39 41 39 40 40 40 37 37 34 32 33 34 33 32 30 32 28 31 32 31 31 30 33 33 32 34 32 33 32 32 31 28 26 24 24 27 25 25 26 27 30 31 32 31 31 34 35 32 35 34 31 32 31 30 30 30 31 30 29 32 30 32 34 34 33 31 30 30 27 28 30 31 31 33 34 36 31 31 37 35 39 39 39 38 37 38 39 37 42 27 28 24 26 30 26 28 -209 -177 -177 -209 -209 -193 96 98 103 -209 -209 -209 -209 -209 -209 -193 -193 69 70 68 -193 38 37 38 40 39 39 39 39 39 42 42 44 42 43 44 44 43 43 42 43 41 42 42 40 39 42 42 39 41 42 46 -209 -209 -193 -209 -209 63 62 53 53 54 52 52 53 52 52 53 54 54 54 56 57 57 58 59 59 63 67 66 66 65 64 66 66 65 65 64 66 65 66 67 66 66 67 67 68 70 72 0 0 0 0 0
    0 0 0 0 0 0 0 0 0 0 0 0 0 0 0 0 0 0 0 0 0 0 0 0 0 0 0 0 0 0 0 0 0 0 0 0 0 0 0 0 0 0 0 0 0 0 0 0 0 0 0 0 0 0 0 0 0 0 0 0 0 0 0 0 0 0 0 0 0 29 28 30 29 30 30 28 30 28 29 29 28 30 29 31 30 30 30 29 30 34 30 29 30 30 28 29 29 29 28 28 28 26 25 26 25 16 15 -193 22 24 28 27 28 29 26 27 28 31 35 38 37 38 37 38 39 40 36 36 33 31 32 33 33 31 29 31 27 30 29 29 29 28 30 31 30 34 29 31 31 29 30 -193 -193 15 -209 -193 24 24 26 26 29 30 32 31 31 34 35 31 34 35 32 32 31 30 29 29 30 29 27 30 29 30 33 33 35 34 32 31 28 30 30 32 33 35 35 37 32 32 37 35 39 39 39 38 37 38 39 36 42 27 28 21 26 28 23 -193 -209 16 13 -209 -209 -193 -193 101 106 -209 -209 -209 -209 -209 -209 -193 -193 69 -193 68 -193 -193 38 39 42 39 39 39 39 39 43 42 44 42 44 45 45 44 44 42 43 41 41 41 39 37 41 41 36 -209 -193 -209 -209 -209 -209 -209 -209 67 68 53 53 55 52 53 53 52 53 52 54 54 54 56 57 57 58 58 58 62 66 64 65 64 63 64 64 64 63 63 64 64 65 67 66 67 70 70 71 73 76 0 0 0 0 0
    0 0 0 0 0 0 0 0 0 0 0 0 0 0 0 0 0 0 0 0 0 0 0 0 0 0 0 0 0 0 0 0 0 0 0 0 0 0 0 0 0 0 0 0 0 0 0 0 0 0 0 0 0 0 0 0 0 0 0 0 0 0 0 0 0 0 0 0 0 28 28 29 29 30 30 28 30 28 29 28 27 29 28 29 29 29 29 28 28 32 29 28 29 29 28 28 29 28 27 -193 27 26 25 27 25 18 -193 -193 24 25 27 26 26 28 26 27 26 30 33 36 36 36 33 36 38 40 33 35 32 31 31 32 32 31 29 31 26 28 27 26 26 23 25 27 26 28 26 27 27 25 -193 15 11 10 -193 23 23 23 24 24 28 29 30 30 30 34 35 31 34 35 32 32 31 30 30 29 31 30 27 31 29 32 35 35 37 35 32 30 27 29 29 31 32 34 35 38 33 33 38 36 39 39 39 38 37 39 39 -193 42 28 28 19 26 31 22 -193 -209 -209 10 -209 -209 -209 -209 -209 -209 -209 -209 -209 -209 -209 -209 -209 -209 -209 -209 -209 -209 37 37 38 41 39 39 39 39 39 43 42 45 42 43 45 45 44 43 42 43 40 41 41 38 36 41 41 34 -209 -209 -209 -209 -209 -209 -209 -209 62 64 54 54 55 53 53 53 52 53 52 54 54 54 55 56 57 57 57 57 61 66 64 65 64 63 64 64 64 63 62 63 62 65 67 67 69 73 74 75 77 81 0 0 0 0 0
    0 0 0 0 0 0 0 0 0 0 0 0 0 0 0 0 0 0 0 0 0 0 0 0 0 0 0 0 0 0 0 0 0 0 0 0 0 0 0 0 0 0 0 0 0 0 0 0 0 0 0 0 0 0 0 0 0 0 0 0 0 0 0 0 0 0 0 0 0 27 27 28 28 30 29 28 29 28 28 28 27 29 28 29 29 29 28 28 27 31 28 28 29 30 28 28 29 29 -193 -193 27 27 26 28 26 -193 -193 -193 26 26 26 -193 25 27 24 25 25 -209 30 34 34 34 28 34 37 40 32 35 31 30 31 32 32 30 29 31 26 27 25 23 21 19 23 24 24 25 24 25 25 22 22 12 11 11 15 23 24 24 25 25 28 28 28 28 28 31 32 29 32 35 32 32 31 30 30 30 32 31 28 33 30 32 37 36 37 34 31 27 25 27 26 29 30 32 35 39 34 35 39 36 39 39 40 38 38 39 39 -193 42 30 31 25 30 35 27 29 -209 -209 -209 -209 -209 -209 -209 -209 -209 -209 -209 -209 -209 -209 -209 -209 -209 -209 -209 -193 -193 -209 37 38 41 39 39 39 39 39 43 42 44 42 43 45 45 43 43 42 42 39 41 41 38 36 40 40 34 -209 -193 -209 -209 -209 -193 -193 67 58 60 54 54 55 53 53 53 52 53 52 54 54 54 55 56 56 56 56 57 60 66 64 66 64 64 65 65 64 63 62 64 63 66 68 69 71 75 76 78 80 82 0 0 0 0 0
    0 0 0 0 0 0 0 0 0 0 0 0 0 0 0 0 0 0 0 0 0 0 0 0 0 0 0 0 0 0 0 0 0 0 0 0 0 0 0 0 0 0 0 0 0 0 0 0 0 0 0 0 0 0 0 0 0 0 0 0 0 0 0 0 0 0 0 0 0 27 26 27 27 29 29 28 29 27 28 27 27 30 28 29 28 29 27 27 26 30 27 28 28 29 27 28 29 29 27 -193 27 27 26 28 26 22 20 -193 26 26 26 25 25 27 25 26 25 -193 29 32 33 32 28 32 37 40 30 34 30 30 30 31 31 30 28 31 26 28 28 26 23 21 25 -193 25 26 25 26 26 22 19 14 14 13 19 26 26 26 27 27 28 28 28 28 27 29 30 28 30 35 31 32 31 30 30 30 32 32 28 34 32 34 39 38 38 34 32 28 26 27 26 29 -209 -209 -209 40 35 35 39 36 39 39 40 38 38 39 39 -193 42 31 31 26 32 35 26 29 -209 -209 -209 -209 -193 -193 -209 -209 -209 -209 -209 -209 -209 -209 -209 -209 -209 -209 -209 66 63 -209 38 38 41 38 38 38 38 39 42 42 44 41 43 45 45 44 43 41 42 39 41 41 39 37 41 41 36 -193 46 -209 -209 56 58 56 61 58 58 55 54 55 54 54 54 53 54 52 54 54 54 55 55 55 55 54 56 59 66 64 66 64 64 66 66 65 64 63 65 64 68 70 71 72 76 77 79 81 82 0 0 0 0 0
    0 0 0 0 0 0 0 0 0 0 0 0 0 0 0 0 0 0 0 0 0 0 0 0 0 0 0 0 0 0 0 0 0 0 0 0 0 0 0 0 0 0 0 0 0 0 0 0 0 0 0 0 0 0 0 0 0 0 0 0 0 0 0 0 0 0 0 0 0 25 25 25 27 28 28 28 27 26 27 26 26 29 27 28 28 28 27 27 26 29 27 27 26 28 26 27 28 28 27 -193 27 26 26 27 25 19 18 -193 26 27 27 -193 27 28 26 27 26 28 29 31 32 31 28 31 35 38 28 34 30 29 29 31 31 30 28 31 27 30 30 29 25 23 28 27 27 28 27 27 27 24 23 17 18 17 22 28 27 28 28 27 28 28 28 28 26 28 28 26 28 35 30 31 30 30 30 30 33 33 27 36 35 37 41 41 40 36 32 28 26 27 26 -193 -209 -209 -193 -193 35 35 39 36 39 39 40 38 38 39 39 -193 42 31 31 25 30 29 18 -193 -209 -209 -209 -209 -193 -193 -209 -209 -209 -209 -209 -209 -193 -209 -209 -209 -209 -209 -209 -193 63 -209 38 38 40 38 38 38 38 38 41 41 43 41 43 44 44 43 43 41 42 39 41 41 39 37 41 40 37 41 47 56 -193 56 57 56 56 56 56 55 54 54 54 54 54 53 54 52 54 54 54 55 55 55 54 53 54 57 63 62 65 63 63 65 66 65 64 64 66 66 69 71 72 74 77 77 80 82 83 0 0 0 0 0
    0 0 0 0 0 0 0 0 0 0 0 0 0 0 0 0 0 0 0 0 0 0 0 0 0 0 0 0 0 0 0 0 0 0 0 0 0 0 0 0 0 0 0 0 0 0 0 0 0 0 0 0 0 0 0 0 0 0 0 0 0 0 0 0 0 0 0 0 0 24 25 26 28 29 28 28 28 27 28 27 27 30 28 29 28 29 27 27 26 29 26 27 26 27 26 27 -193 28 -193 -193 26 26 25 27 -193 18 17 -193 26 28 27 -193 27 28 27 27 26 28 28 30 31 30 29 30 34 38 -193 33 29 28 29 30 30 29 28 31 27 31 30 31 26 25 31 28 29 29 29 29 29 26 26 20 22 20 24 31 28 29 29 28 29 28 28 27 25 27 25 25 26 34 29 29 29 29 29 29 31 32 27 36 36 38 41 41 39 36 32 29 26 27 27 29 -209 -209 -193 39 34 34 39 36 39 39 39 38 38 39 38 -193 42 30 30 24 28 20 10 -193 0 -193 -209 -209 -209 -209 -209 -209 61 -209 -209 -209 74 -209 -209 -209 -209 -209 -193 65 62 -209 38 38 40 37 37 37 37 38 40 40 42 40 42 43 43 43 42 41 42 39 41 41 39 37 40 40 38 42 47 53 54 55 56 55 55 55 56 55 54 54 54 54 54 53 54 53 54 54 54 54 55 54 53 52 53 56 60 60 63 63 63 64 66 66 65 66 69 70 71 73 75 77 80 79 82 83 83 0 0 0 0 0
    0 0 0 0 0 0 0 0 0 0 0 0 0 0 0 0 0 0 0 0 0 0 0 0 0 0 0 0 0 0 0 0 0 0 0 0 0 0 0 0 0 0 0 0 0 0 0 0 0 0 0 0 0 0 0 0 0 0 0 0 0 0 0 0 0 0 0 0 0 25 26 26 28 29 29 29 28 28 29 28 28 30 28 29 29 29 28 28 26 29 27 27 26 26 25 26 -193 27 -209 25 25 -209 25 26 -193 21 19 -193 27 30 28 -193 28 28 27 27 26 27 27 28 29 28 27 28 32 36 -209 -193 28 28 28 30 30 29 28 31 27 33 31 33 27 27 34 30 31 30 30 30 29 28 28 22 24 23 25 33 29 30 29 29 29 28 28 28 25 27 25 25 26 34 29 29 29 28 28 28 31 31 26 35 37 37 41 40 38 36 33 29 27 29 30 31 32 -209 36 39 34 34 39 36 39 39 39 38 38 38 38 -193 42 30 30 24 27 16 9 -193 9 -209 18 -209 -209 -209 -209 -209 -209 -209 -209 -209 75 79 -193 -209 -193 -193 -193 65 63 61 37 38 40 37 37 37 36 38 39 40 41 39 41 42 43 42 42 41 41 38 41 41 40 38 40 40 39 42 49 53 54 55 56 56 55 55 56 55 54 54 54 54 53 53 54 53 53 54 54 53 54 53 53 51 53 55 59 59 62 62 63 66 69 70 70 71 74 75 75 77 78 80 82 81 83 84 84 0 0 0 0 0
    0 0 0 0 0 0 0 0 0 0 0 0 0 0 0 0 0 0 0 0 0 0 0 0 0 0 0 0 0 0 0 0 0 0 0 0 0 0 0 0 0 0 0 0 0 0 0 0 0 0 0 0 0 0 0 0 0 0 0 0 0 0 0 0 0 0 0 0 0 25 27 26 28 29 29 29 28 28 29 28 28 31 28 30 29 29 28 29 27 30 27 28 27 26 25 26 -193 26 -193 24 24 -193 25 26 -193 21 21 25 29 31 28 28 28 29 28 27 26 26 27 27 26 26 24 25 29 34 -209 -193 28 28 28 30 29 29 28 31 28 34 32 34 27 28 35 30 31 31 30 30 29 28 28 22 25 23 25 35 30 31 30 30 30 29 28 28 25 26 24 24 25 34 28 28 29 28 28 28 30 31 26 34 37 36 40 39 37 34 32 29 28 30 33 34 36 39 -193 40 35 35 39 36 39 39 40 38 38 38 38 -193 41 29 29 22 26 11 0 0 0 -209 16 -209 -209 -209 -209 -209 -209 -209 -209 -209 -193 77 -193 -209 69 67 68 66 64 62 37 38 40 37 37 37 37 38 38 39 41 38 41 42 42 41 41 41 41 38 41 41 40 39 41 41 40 43 50 54 54 55 56 56 54 54 55 55 54 54 54 53 53 53 54 53 53 53 53 52 53 52 53 51 53 55 58 59 61 63 66 68 71 73 73 74 76 78 77 79 79 81 81 81 83 84 84 0 0 0 0 0
    0 0 0 0 0 0 0 0 0 0 0 0 0 0 0 0 0 0 0 0 0 0 0 0 0 0 0 0 0 0 0 0 0 0 0 0 0 0 0 0 0 0 0 0 0 0 0 0 0 0 0 0 0 0 0 0 0 0 0 0 0 0 0 0 0 0 0 0 0 26 28 27 29 30 29 29 29 28 29 28 29 31 29 30 30 30 29 29 28 31 28 29 28 26 25 26 26 26 -193 23 23 -193 25 27 25 23 22 26 29 30 28 28 27 28 28 28 27 26 26 26 25 25 24 24 29 34 23 -209 27 27 28 30 29 28 28 31 28 34 32 34 27 27 35 30 31 30 30 30 29 29 29 23 25 24 27 35 30 32 31 30 30 29 29 28 25 26 25 25 26 34 28 28 29 28 28 27 29 30 26 33 37 34 39 37 35 32 31 28 27 29 32 32 35 -209 -209 -193 36 35 39 36 39 39 40 38 38 38 38 -193 41 29 29 21 26 9 0 0 0 -209 11 -209 -209 -209 -209 -209 -209 -209 -209 -209 -209 -209 -209 -209 68 -193 -193 65 63 61 37 38 40 37 37 37 37 38 38 40 41 38 40 41 41 41 41 40 41 39 41 42 41 40 41 42 42 43 51 54 55 55 55 55 54 53 55 54 53 54 54 53 53 53 54 52 52 53 53 52 53 52 54 52 53 55 59 59 62 66 69 70 72 77 76 76 77 78 78 78 79 80 80 80 83 83 83 0 0 0 0 0
    0 0 0 0 0 0 0 0 0 0 0 0 0 0 0 0 0 0 0 0 0 0 0 0 0 0 0 0 0 0 0 0 0 0 0 0 0 0 0 0 0 0 0 0 0 0 0 0 0 0 0 0 0 0 0 0 0 0 0 0 0 0 0 0 0 0 0 0 0 28 30 27 30 30 30 30 29 29 30 29 30 31 29 31 30 30 30 30 28 31 28 29 28 26 25 26 -193 26 -177 23 23 -193 26 28 26 25 23 25 29 30 27 27 26 28 28 29 28 26 26 27 27 26 26 24 31 36 23 -209 27 27 27 29 29 28 28 31 28 34 33 35 26 26 35 30 31 30 30 30 29 29 29 24 25 24 27 34 30 32 30 31 31 30 30 29 26 27 26 25 26 33 27 27 28 28 28 26 28 28 25 31 36 31 38 34 34 30 30 27 26 27 30 29 30 34 -193 -193 34 34 39 36 39 39 39 38 37 38 38 -193 41 28 28 22 27 -193 0 0 0 0 0 -209 -209 -209 -209 163 -209 -209 -209 -209 -209 -209 -209 -209 -193 -193 -193 -193 61 -193 38 38 40 37 37 37 38 39 38 39 40 38 40 41 41 40 40 41 41 39 41 42 41 41 42 43 43 44 51 54 54 54 54 55 53 53 54 54 53 53 54 53 53 53 54 53 52 53 53 52 53 53 54 53 54 56 58 60 63 68 71 72 74 80 77 76 77 78 78 78 78 80 79 79 83 83 83 0 0 0 0 0
    0 0 0 0 0 0 0 0 0 0 0 0 0 0 0 0 0 0 0 0 0 0 0 0 0 0 0 0 0 0 0 0 0 0 0 0 0 0 0 0 0 0 0 0 0 0 0 0 0 0 0 0 0 0 0 0 0 0 0 0 0 0 0 0 0 0 0 0 0 28 31 28 30 31 31 30 30 29 31 29 31 32 30 31 31 31 30 30 29 32 29 30 29 26 25 26 26 26 -177 -193 24 -193 26 28 26 25 23 24 28 30 27 27 27 29 29 31 29 27 27 28 27 26 27 -193 33 37 23 -193 26 27 27 29 28 27 27 30 27 32 32 33 26 26 34 30 31 30 31 31 30 30 29 24 25 24 26 33 29 31 30 31 31 30 30 29 26 27 27 26 27 32 27 26 27 27 27 26 27 27 23 29 36 28 35 29 31 28 28 25 25 26 29 28 32 33 36 37 33 33 38 35 39 38 39 37 37 37 37 -193 -193 27 28 21 27 -177 0 0 0 0 -209 -209 -209 -209 156 163 -209 -193 -209 -209 -209 -209 -209 70 -193 -193 -193 -209 -193 58 38 38 40 38 38 38 38 39 38 39 40 38 40 40 40 40 40 41 41 39 42 42 42 42 43 44 43 45 51 53 53 53 53 55 53 53 54 54 53 53 54 53 52 53 54 53 52 54 54 52 54 53 55 54 54 55 57 59 62 69 72 73 75 81 78 77 77 78 78 77 77 79 77 78 82 83 83 0 0 0 0 0
    0 0 0 0 0 0 0 0 0 0 0 0 0 0 0 0 0 0 0 0 0 0 0 0 0 0 0 0 0 0 0 0 0 0 0 0 0 0 0 0 0 0 0 0 0 0 0 0 0 0 0 0 0 0 0 0 0 0 0 0 0 0 0 0 0 0 0 0 0 29 31 29 31 31 31 30 30 29 31 29 31 32 30 32 31 31 31 31 30 32 30 31 30 27 26 26 -193 -193 -177 741 -193 21 26 27 26 24 21 23 26 28 27 -193 26 29 29 29 28 26 27 27 27 26 27 24 34 37 23 -193 26 26 26 28 28 27 -193 28 26 29 30 29 25 25 33 29 31 30 30 31 30 30 29 25 24 25 26 31 28 30 30 31 30 31 31 30 27 28 28 26 27 31 26 26 27 26 27 25 26 26 22 29 36 27 36 31 33 29 28 24 23 24 27 -193 30 30 -193 34 31 31 38 35 38 37 38 37 36 36 36 -193 -193 26 27 20 27 12 -193 0 0 0 -209 -209 -209 -209 -193 164 -209 -209 -209 -209 -209 -209 -209 68 67 -193 -209 -209 -193 -193 38 39 40 38 38 38 38 39 38 39 40 38 39 40 40 40 40 41 41 40 42 43 42 42 43 44 44 45 49 51 51 52 52 54 52 52 54 54 53 53 54 53 52 53 54 53 52 54 54 52 54 54 55 54 54 54 56 58 60 67 71 72 74 81 78 77 78 79 78 77 78 79 77 78 82 83 83 0 0 0 0 0
    0 0 0 0 0 0 0 0 0 0 0 0 0 0 0 0 0 0 0 0 0 0 0 0 0 0 0 0 0 0 0 0 0 0 0 0 0 0 0 0 0 0 0 0 0 0 0 0 0 0 0 0 0 0 0 0 0 0 0 0 0 0 0 0 0 0 0 0 0 30 32 29 31 31 31 30 30 29 31 29 31 31 30 32 31 32 32 32 31 33 31 32 31 28 26 26 -193 -193 -177 740 -193 21 26 28 26 25 22 23 28 -209 -209 -209 -209 -193 30 29 28 27 28 27 28 27 28 25 35 38 23 -193 25 25 26 27 27 26 -193 27 25 27 27 25 23 24 30 28 30 30 30 30 31 30 29 25 23 24 24 29 27 29 29 30 30 30 31 31 27 29 29 27 27 30 26 25 26 26 26 24 25 25 22 28 35 29 38 36 35 34 34 24 24 25 28 -193 31 -193 -193 32 30 30 38 34 38 36 37 36 35 35 35 -193 -193 26 26 18 26 20 12 0 0 0 15 16 20 22 -193 -209 -209 -193 -193 -193 26 -209 -209 -193 -209 -209 -209 -209 39 44 38 39 40 38 38 38 38 39 38 39 40 37 39 39 39 39 39 41 40 40 41 42 42 42 43 44 43 45 48 50 50 50 51 53 51 51 53 54 52 53 53 53 52 53 54 53 52 54 54 52 54 54 56 55 55 54 56 58 58 64 71 71 73 82 78 77 78 79 79 78 79 81 78 79 82 83 83 0 0 0 0 0
    0 0 0 0 0 0 0 0 0 0 0 0 0 0 0 0 0 0 0 0 0 0 0 0 0 0 0 0 0 0 0 0 0 0 0 0 0 0 0 0 0 0 0 0 0 0 0 0 0 0 0 0 0 0 0 0 0 0 0 0 0 0 0 0 0 0 0 0 0 30 32 29 31 31 31 30 29 29 31 29 31 32 30 32 31 32 32 32 31 33 31 32 31 27 25 -193 -193 -177 -177 740 -193 21 26 29 27 26 28 34 39 40 -209 -209 28 32 30 28 28 27 28 29 29 30 29 -209 38 41 23 -193 24 24 25 26 26 25 -193 26 23 25 -193 23 22 23 29 28 29 29 29 30 31 30 29 25 23 24 24 28 26 28 28 29 29 30 30 30 27 29 29 27 27 30 25 25 26 26 26 23 24 24 21 28 33 28 35 33 33 31 32 25 26 27 29 -193 32 29 -193 30 29 29 37 34 37 36 37 35 34 34 34 -193 -193 25 26 19 27 26 -209 -209 11 14 19 19 20 21 20 -193 23 25 25 25 25 -193 -209 -209 -209 -209 -209 -209 39 41 38 39 40 39 39 39 39 39 38 39 39 37 39 39 39 39 39 40 40 39 41 42 42 42 43 44 43 44 47 49 49 50 51 53 51 51 54 55 52 52 53 52 52 53 53 52 51 54 54 53 54 55 56 56 56 55 57 58 58 65 72 72 73 83 79 78 79 80 80 79 79 81 78 80 83 83 83 0 0 0 0 0
    0 0 0 0 0 0 0 0 0 0 0 0 0 0 0 0 0 0 0 0 0 0 0 0 0 0 0 0 0 0 0 0 0 0 0 0 0 0 0 0 0 0 0 0 0 0 0 0 0 0 0 0 0 0 0 0 0 0 0 0 0 0 0 0 0 0 0 0 0 30 32 29 30 30 31 30 29 29 31 29 32 31 30 32 31 32 32 33 32 33 31 32 31 -193 -193 -193 -177 -177 -177 741 -193 20 26 29 28 26 32 39 41 41 41 40 31 33 31 28 28 27 28 28 29 27 27 -209 -193 43 22 -193 23 23 25 25 25 24 -193 25 22 25 -193 23 21 23 28 27 29 29 29 30 31 30 29 24 22 23 23 -193 25 27 28 28 28 29 29 30 28 29 30 28 28 30 25 25 26 25 26 23 23 23 19 27 31 26 32 29 30 27 28 24 25 26 -193 -193 30 29 31 30 30 29 38 33 37 35 36 34 33 33 33 -193 -193 25 25 20 28 30 37 -209 -209 -209 -209 -209 19 17 14 14 17 22 22 23 24 25 30 -209 36 37 -209 -193 38 40 38 39 40 39 39 39 39 40 38 39 40 38 39 39 39 39 39 41 40 40 41 42 42 42 43 43 43 44 46 49 48 49 50 52 51 51 54 55 52 52 54 52 52 53 53 52 51 54 54 53 55 55 56 56 56 55 56 58 58 66 73 74 74 83 79 78 79 80 80 79 79 81 78 79 83 82 82 0 0 0 0 0
    0 0 0 0 0 0 0 0 0 0 0 0 0 0 0 0 0 0 0 0 0 0 0 0 0 0 0 0 0 0 0 0 0 0 0 0 0 0 0 0 0 0 0 0 0 0 0 0 0 0 0 0 0 0 0 0 0 0 0 0 0 0 0 0 0 0 0 0 0 30 32 29 30 30 31 30 29 29 31 29 32 31 30 32 32 32 32 33 32 32 31 31 31 -193 -193 -193 -177 -177 -177 741 -193 20 26 29 28 26 34 41 43 43 43 -209 -209 -193 -193 31 30 29 28 28 29 26 26 -209 -209 43 22 -209 22 22 24 -193 24 23 22 24 20 25 -193 22 20 22 27 27 29 28 28 29 31 30 28 23 21 23 23 -193 25 27 27 28 28 29 29 30 28 29 30 28 28 30 26 25 26 26 26 23 24 23 18 26 29 26 31 28 29 26 26 23 24 25 -193 -193 -193 28 29 29 30 29 38 33 37 34 35 33 32 32 32 28 29 25 25 21 28 32 39 -209 -209 -209 -209 -209 -209 -209 -209 -209 -209 21 22 22 24 27 32 32 35 36 -193 -193 37 39 38 39 39 39 39 39 39 40 39 40 40 39 39 39 40 39 39 41 41 41 41 43 42 42 43 43 43 44 45 48 47 49 50 52 51 51 54 55 52 53 54 52 52 53 53 52 51 54 54 53 55 55 56 57 57 55 56 57 56 66 72 72 72 82 78 77 78 79 79 77 78 81 76 78 82 81 80 0 0 0 0 0
    0 0 0 0 0 0 0 0 0 0 0 0 0 0 0 0 0 0 0 0 0 0 0 0 0 0 0 0 0 0 0 0 0 0 0 0 0 0 0 0 0 0 0 0 0 0 0 0 0 0 0 0 0 0 0 0 0 0 0 0 0 0 0 0 0 0 0 0 0 30 33 30 31 30 31 30 29 30 31 29 32 32 31 33 32 32 32 33 32 32 30 30 30 -193 -193 -177 -177 -177 -177 741 -193 20 27 30 28 27 32 39 42 42 -209 -209 -209 -193 -193 33 33 31 30 30 31 29 27 -209 -209 41 22 -193 22 22 23 -193 23 22 20 23 19 25 -193 21 20 22 27 27 28 28 28 29 30 29 27 23 22 23 23 -193 -193 26 27 28 28 29 29 30 29 30 31 29 28 31 26 26 26 26 26 23 24 24 18 26 29 25 33 -209 30 25 26 23 25 24 -193 -193 27 29 28 28 29 29 37 32 36 33 34 32 31 31 31 28 29 25 25 20 28 32 41 -209 -209 -209 65 -209 -209 -209 -209 -209 -209 -209 34 33 30 34 36 37 37 38 39 39 37 38 38 39 39 39 39 39 39 40 39 39 39 40 39 39 40 40 40 41 41 41 41 43 42 42 43 43 43 43 45 47 47 48 49 51 52 52 55 55 53 53 54 53 52 53 53 52 52 54 54 53 55 56 56 56 56 54 53 54 54 62 -209 -209 71 80 75 75 76 76 77 75 77 79 75 76 82 80 80 0 0 0 0 0
    0 0 0 0 0 0 0 0 0 0 0 0 0 0 0 0 0 0 0 0 0 0 0 0 0 0 0 0 0 0 0 0 0 0 0 0 0 0 0 0 0 0 0 0 0 0 0 0 0 0 0 0 0 0 0 0 0 0 0 0 0 0 0 0 0 0 0 0 0 29 32 30 30 30 31 30 29 30 31 30 33 32 31 33 32 33 32 33 32 31 30 30 30 -193 -193 740 741 740 741 741 -193 20 27 30 28 27 31 -209 -193 -209 40 -209 -209 -193 -193 32 32 31 31 30 31 30 -193 -209 -209 39 22 24 21 21 22 22 22 21 19 21 16 24 23 21 21 23 27 27 28 28 28 29 30 29 27 23 22 24 23 -193 -193 26 27 27 27 29 29 31 30 30 32 29 28 30 26 25 26 26 26 23 24 23 17 26 29 22 -209 -209 -209 23 -209 -193 -193 -193 -193 -193 27 29 28 27 28 27 37 31 35 32 33 31 30 30 30 27 29 24 24 19 28 33 43 -209 -209 -193 62 -209 -209 -209 -209 -209 36 37 36 35 33 35 36 36 36 36 37 38 35 37 38 39 38 38 38 38 38 39 38 38 39 40 39 39 40 40 40 41 41 41 41 43 43 42 43 43 43 44 45 47 47 48 50 51 53 54 55 56 53 54 55 53 53 54 53 53 52 54 54 53 55 55 55 55 55 49 43 41 44 53 -209 -209 66 72 70 71 72 73 74 73 75 79 -209 -193 -209 -209 -209 0 0 0 0 0
    0 0 0 0 0 0 0 0 0 0 0 0 0 0 0 0 0 0 0 0 0 0 0 0 0 0 0 0 0 0 0 0 0 0 0 0 0 0 0 0 0 0 0 0 0 0 0 0 0 0 0 0 0 0 0 0 0 0 0 0 0 0 0 0 0 0 0 0 0 29 32 30 30 30 31 30 29 30 31 30 32 32 31 33 31 32 32 33 33 32 31 30 31 -193 -193 -193 -193 741 741 742 -209 19 27 29 27 26 29 35 38 35 33 -209 -193 -193 -193 31 31 31 31 30 31 30 -193 -209 -209 36 22 24 21 21 22 22 21 21 18 21 15 23 23 21 21 24 28 28 29 29 28 29 30 29 27 24 22 24 23 -193 25 26 27 27 27 29 28 30 29 30 31 29 28 30 26 25 26 26 26 23 24 23 17 26 32 23 -193 -209 -209 -209 -209 -209 -209 -209 -209 -209 27 29 28 27 27 27 36 31 35 32 32 30 30 30 30 27 28 23 23 17 28 31 43 -209 -209 -209 61 -209 -209 -209 -209 -209 36 36 35 35 33 34 35 35 35 35 36 37 34 35 37 38 38 38 38 37 37 39 38 37 39 40 39 39 40 40 40 42 42 42 41 43 43 42 43 43 43 44 45 47 47 48 50 50 53 54 56 56 54 55 56 54 53 54 53 53 52 54 54 53 55 55 54 55 53 46 42 40 41 40 38 -193 51 -209 -193 -209 -209 -209 -209 -209 -209 -209 -193 -209 -209 -209 -209 0 0 0 0 0
    0 0 0 0 0 0 0 0 0 0 0 0 0 0 0 0 0 0 0 0 0 0 0 0 0 0 0 0 0 0 0 0 0 0 0 0 0 0 0 0 0 0 0 0 0 0 0 0 0 0 0 0 0 0 0 0 0 0 0 0 0 0 0 0 0 0 0 0 0 28 32 31 30 29 30 29 28 30 30 30 32 32 31 33 32 33 32 33 33 31 31 30 30 -193 -193 -209 -193 -193 -193 -193 -193 18 27 29 27 26 28 33 38 36 34 -209 -193 -193 -193 -193 33 32 31 30 31 -193 -193 -209 -209 34 22 24 22 22 23 23 22 21 19 22 17 25 24 22 23 24 28 28 28 29 28 29 29 28 27 24 23 25 23 25 25 26 27 27 27 29 28 30 30 30 31 29 28 30 26 25 26 26 26 23 24 24 18 26 36 30 -193 -193 -209 -209 -209 -209 -209 -209 -209 -209 27 -193 27 26 27 26 37 30 35 32 32 31 30 30 30 27 29 25 25 23 29 39 45 53 55 57 59 -193 -193 -209 -209 -193 -193 37 37 36 34 35 36 36 36 35 36 37 34 36 37 39 38 38 37 37 37 39 38 37 38 39 39 39 40 40 40 41 42 42 41 43 43 42 43 43 43 43 45 47 47 49 50 50 53 55 56 58 55 55 56 54 54 54 54 53 52 54 54 53 55 55 54 55 54 48 44 44 43 42 41 -193 52 -209 42 -209 -209 -209 -209 -209 -209 -209 224 -209 -209 -209 -209 0 0 0 0 0
    0 0 0 0 0 0 0 0 0 0 0 0 0 0 0 0 0 0 0 0 0 0 0 0 0 0 0 0 0 0 0 0 0 0 0 0 0 0 0 0 0 0 0 0 0 0 0 0 0 0 0 0 0 0 0 0 0 0 0 0 0 0 0 0 0 0 0 0 0 27 31 31 31 29 30 29 28 31 30 32 36 35 33 35 33 34 33 33 33 31 31 29 30 24 23 -193 593 -193 -193 589 -193 -193 27 30 29 -193 28 32 -209 -209 -209 -209 -193 -193 -193 -193 36 35 35 34 35 -209 -193 -209 -193 34 22 -193 22 22 23 23 22 22 19 24 20 27 28 26 26 27 29 28 28 29 27 29 28 28 28 25 25 26 24 25 25 26 27 27 27 28 28 30 30 29 31 29 28 30 26 25 26 26 26 23 24 23 17 26 36 32 37 -209 -209 28 31 29 -193 19 22 21 24 -193 26 25 26 27 37 31 35 32 32 31 31 31 31 28 30 26 27 26 31 42 49 54 56 57 57 56 58 56 -193 -209 -193 -209 37 37 34 35 36 36 36 35 36 36 33 35 37 38 37 38 37 36 36 39 38 37 38 39 39 39 40 40 40 41 42 41 41 43 42 42 43 43 43 44 46 48 48 49 50 49 53 55 56 58 55 56 56 54 54 55 54 54 52 54 54 53 55 55 53 55 54 51 46 45 44 45 44 46 53 55 53 55 53 54 -209 -209 -209 -193 -209 -209 -209 -209 -209 0 0 0 0 0
    0 0 0 0 0 0 0 0 0 0 0 0 0 0 0 0 0 0 0 0 0 0 0 0 0 0 0 0 0 0 0 0 0 0 0 0 0 0 0 0 0 0 0 0 0 0 0 0 0 0 0 0 0 0 0 0 0 0 0 0 0 0 0 0 0 0 0 0 0 -209 -209 -193 -209 -209 35 33 31 35 35 36 40 -209 36 36 34 35 35 32 32 30 31 29 30 23 23 -193 594 591 -193 589 590 -193 27 31 29 -209 -209 -209 -209 -209 -209 -209 -209 -193 -193 -209 37 35 -193 35 36 -193 -193 -209 -193 32 22 -193 22 22 22 23 22 22 20 25 23 29 34 33 29 30 32 30 29 29 28 29 28 28 28 26 26 27 25 26 26 27 27 27 28 29 28 30 30 29 31 29 28 30 26 25 26 25 26 23 24 24 16 26 34 30 33 -209 -193 24 -193 23 19 14 16 16 22 24 25 24 25 27 37 31 35 32 33 32 31 31 31 29 32 27 31 28 35 44 52 54 56 57 56 56 57 55 57 -209 61 -209 38 37 34 35 35 36 35 34 34 35 32 34 36 37 37 37 36 36 36 39 37 36 38 40 39 39 40 40 40 42 42 42 41 43 43 42 43 45 44 45 49 51 50 51 51 50 52 54 56 57 56 56 56 54 54 55 54 54 53 53 54 53 55 55 52 54 53 52 51 48 46 49 51 52 57 58 56 56 56 56 57 55 -209 -209 -193 -209 -193 -209 -209 0 0 0 0 0
    0 0 0 0 0 0 0 0 0 0 0 0 0 0 0 0 0 0 0 0 0 0 0 0 0 0 0 0 0 0 0 0 0 0 0 0 0 0 0 0 0 0 0 0 0 0 0 0 0 0 0 0 0 0 0 0 0 0 0 0 0 0 0 0 0 0 0 0 0 -209 -209 -193 -193 -193 37 37 35 37 38 38 42 -209 36 36 -193 36 37 34 34 32 33 30 32 25 25 593 594 592 590 590 591 585 27 30 28 -209 -193 -209 -209 -209 -209 -209 -209 -209 -209 -209 36 35 36 35 36 36 34 36 -193 32 22 -193 22 22 22 -193 23 22 -193 26 25 31 36 36 32 33 33 31 29 30 28 29 27 27 28 26 26 28 25 27 27 28 28 28 29 30 29 32 33 30 32 29 27 30 26 26 26 25 26 24 25 25 16 25 35 30 -193 -209 -209 23 -193 20 9 13 13 14 21 23 24 24 25 28 36 31 35 32 33 32 31 32 32 30 33 28 35 30 38 47 54 54 56 57 56 56 57 55 56 55 62 73 -193 37 34 35 35 35 34 32 33 34 31 33 35 36 36 37 36 36 35 39 37 36 38 40 39 39 40 41 40 42 42 42 41 43 44 44 45 47 47 48 52 53 53 53 52 51 52 54 56 60 57 57 57 55 54 55 54 54 53 53 53 52 54 54 52 54 53 53 54 51 48 51 54 54 57 58 56 56 56 57 57 -209 -209 -193 -209 -209 -193 -209 -209 0 0 0 0 0
    0 0 0 0 0 0 0 0 0 0 0 0 0 0 0 0 0 0 0 0 0 0 0 0 0 0 0 0 0 0 0 0 0 0 0 0 0 0 0 0 0 0 0 0 0 0 0 0 0 0 0 0 0 0 0 0 0 0 0 0 0 0 0 0 0 0 0 0 0 -209 -193 -193 36 37 37 37 37 38 38 38 41 42 37 -193 -193 35 37 34 34 34 34 31 33 27 26 593 594 592 591 590 591 585 28 31 28 -209 -193 -209 -209 -209 -209 -209 -209 -209 -209 -209 -193 34 -193 -193 35 35 34 34 37 31 22 -193 22 22 23 -193 23 22 -193 27 27 31 36 36 33 34 34 31 28 29 28 28 27 26 27 26 27 29 27 29 29 30 30 30 31 33 33 35 35 33 34 31 27 31 27 26 26 26 26 24 26 26 20 25 33 29 32 -209 -209 25 -193 -209 -209 -209 -209 -193 22 -193 24 23 24 29 36 31 35 32 33 33 32 33 33 31 34 30 37 34 40 51 55 55 56 57 56 56 56 56 56 54 61 -193 38 37 35 35 35 34 33 32 32 33 30 32 33 36 36 37 37 36 36 40 38 37 38 40 39 39 40 41 40 42 42 42 41 44 45 46 48 50 51 52 55 56 55 55 54 52 53 53 56 63 61 58 58 55 55 55 54 54 53 53 53 52 54 54 52 53 54 53 53 -225 44 47 51 49 55 57 55 57 59 62 59 -209 -209 30 -193 -193 -209 -209 -209 0 0 0 0 0
    0 0 0 0 0 0 0 0 0 0 0 0 0 0 0 0 0 0 0 0 0 0 0 0 0 0 0 0 0 0 0 0 0 0 0 0 0 0 0 0 0 0 0 0 0 0 0 0 0 0 0 0 0 0 0 0 0 0 0 0 0 0 0 0 0 0 0 0 0 -193 29 34 37 37 37 37 36 38 37 38 40 40 36 35 35 35 36 34 34 34 35 32 34 28 -193 593 -193 -193 -193 589 590 -193 28 32 28 -193 -193 28 -209 -209 -209 -209 -209 -209 -209 -209 -209 -193 -209 -209 -193 37 37 37 38 30 21 -193 23 23 -193 -193 -193 23 -193 27 28 31 36 36 33 33 33 30 27 28 27 28 26 26 27 27 28 30 29 30 30 32 33 33 34 36 36 37 38 37 37 36 27 32 27 26 27 26 27 25 26 27 22 26 35 31 33 39 34 29 30 37 -209 -209 -209 -209 -193 26 25 23 24 30 36 31 35 32 34 33 33 34 33 32 36 31 40 38 43 54 56 55 56 57 56 56 56 56 54 47 -193 -209 36 36 34 35 35 34 34 32 33 34 32 33 34 37 38 39 38 38 38 41 39 38 39 40 39 39 40 41 40 42 42 42 42 45 47 49 51 53 54 54 56 56 56 55 54 51 51 52 56 63 63 58 58 55 55 56 55 54 53 52 53 52 54 54 51 52 53 51 51 -225 43 45 49 47 52 -193 55 60 67 71 66 -193 -193 -193 -193 -209 -209 -209 -209 0 0 0 0 0
    0 0 0 0 0 0 0 0 0 0 0 0 0 0 0 0 0 0 0 0 0 0 0 0 0 0 0 0 0 0 0 0 0 0 0 0 0 0 0 0 0 0 0 0 0 0 0 0 0 0 0 0 0 0 0 0 0 0 0 0 0 0 0 0 0 0 0 0 0 26 29 33 37 37 37 37 36 36 36 37 39 -193 -193 -193 36 36 37 35 34 35 36 32 34 29 27 -193 -193 -193 -193 589 590 584 28 31 27 -193 -193 32 -209 -209 -193 -209 -209 -209 -209 -209 -209 -209 -209 -193 35 37 38 36 37 30 22 23 23 23 -193 -193 -193 -193 -193 28 29 31 36 36 33 33 33 31 28 29 28 29 27 27 28 28 30 33 32 33 35 36 36 36 37 38 38 37 37 32 36 36 26 31 27 26 27 27 27 27 27 29 27 29 34 31 32 34 32 32 30 35 -209 -209 -209 -209 26 -193 23 21 23 31 35 31 36 33 35 34 34 35 35 34 37 35 41 42 45 54 55 54 55 55 55 55 56 55 52 43 -193 -193 35 35 33 34 35 33 33 32 33 33 33 34 33 36 39 41 41 40 40 44 40 40 39 40 38 39 40 40 39 42 42 43 43 47 51 53 55 55 55 55 56 55 54 52 50 46 46 47 53 60 63 57 57 55 55 55 54 54 53 52 53 52 53 53 50 52 53 51 52 -225 44 47 52 49 53 57 -193 -193 72 74 -193 -193 -193 -193 -209 -209 -193 -209 -209 0 0 0 0 0
    0 0 0 0 0 0 0 0 0 0 0 0 0 0 0 0 0 0 0 0 0 0 0 0 0 0 0 0 0 0 0 0 0 0 0 0 0 0 0 0 0 0 0 0 0 0 0 0 0 0 0 0 0 0 0 0 0 0 0 0 0 0 0 0 0 0 0 0 0 26 29 32 37 37 37 38 -193 -209 -209 38 -209 -209 -209 -209 -209 -193 -193 37 -193 36 36 32 34 29 27 -193 28 28 -193 589 589 583 28 32 28 -209 -193 43 -209 -209 35 -209 -209 -209 -209 -209 -209 -209 -193 -209 35 36 37 35 36 31 23 -193 -193 -193 -193 -193 -193 -193 -193 29 30 31 36 36 34 34 33 32 29 30 29 29 29 28 30 30 32 35 35 36 37 37 37 37 37 38 38 36 36 30 36 -209 26 31 27 27 28 29 28 28 29 31 28 31 33 32 32 34 32 34 31 36 38 -209 42 -193 31 -193 -193 23 23 33 36 31 36 34 36 35 36 37 37 37 40 40 44 46 49 55 55 54 55 53 54 55 55 55 52 46 60 -209 -209 -209 32 -193 -209 -193 31 30 32 33 35 -193 -193 37 42 47 49 49 54 52 47 44 42 40 38 39 39 39 39 42 42 45 46 52 55 55 56 55 55 55 54 53 52 49 48 45 44 47 51 56 61 56 56 55 54 55 54 54 52 52 53 52 53 53 50 52 53 50 52 -225 -225 -225 55 53 55 62 59 -193 72 76 -193 -193 -209 -209 -209 -209 -209 -209 -209 0 0 0 0 0
    0 0 0 0 0 0 0 0 0 0 0 0 0 0 0 0 0 0 0 0 0 0 0 0 0 0 0 0 0 0 0 0 0 0 0 0 0 0 0 0 0 0 0 0 0 0 0 0 0 0 0 0 0 0 0 0 0 0 0 0 0 0 0 0 0 0 0 0 0 26 28 31 38 38 38 -209 -209 -209 -209 -209 -209 -209 -209 -209 -209 -193 -209 38 -209 36 36 32 34 -193 -193 -193 -193 -193 -193 589 590 584 28 33 29 -193 41 46 -209 -209 -209 -209 -209 -209 -209 -209 -209 -209 -193 -209 35 35 35 33 35 33 24 25 25 25 -193 -193 -193 -193 -193 29 31 30 36 35 34 35 34 34 30 31 31 31 31 29 32 32 33 35 36 35 37 36 37 36 37 37 37 35 36 32 36 -209 -193 33 28 28 30 31 30 30 30 33 30 31 32 31 30 33 31 31 29 33 35 38 -193 38 30 27 -193 -193 24 33 34 31 36 35 37 37 37 38 38 39 43 43 47 50 52 56 55 55 55 52 54 54 55 54 52 46 -193 70 -193 -209 -209 -209 -209 -209 -209 -209 -209 -209 -209 -209 -209 -209 -209 -209 56 56 58 -193 -209 49 46 43 40 39 40 39 40 43 44 51 -193 57 58 56 57 56 55 54 54 52 51 48 48 45 45 48 49 55 59 55 55 54 54 54 54 53 52 51 52 51 52 53 50 50 52 46 49 -225 -225 -225 -225 -225 58 63 64 69 70 74 70 -193 -209 -209 -193 -209 -225 -209 -193 0 0 0 0 0
    0 0 0 0 0 0 0 0 0 0 0 0 0 0 0 0 0 0 0 0 0 0 0 0 0 0 0 0 0 0 0 0 0 0 0 0 0 0 0 0 0 0 0 0 0 0 0 0 0 0 0 0 0 0 0 0 0 0 0 0 0 0 0 0 0 0 0 0 0 27 29 33 40 42 42 -209 -209 -209 -209 -209 -209 -177 -209 -209 -209 -209 -209 -209 -209 -193 36 32 34 -193 -193 -193 -193 -193 -193 589 590 584 28 32 28 -193 -193 -209 -209 -209 -193 -209 -209 -209 -209 -209 -209 -209 -193 -193 36 35 35 33 34 34 26 26 27 26 26 27 27 -193 -193 29 30 29 36 35 34 35 35 35 32 33 33 33 33 30 33 33 33 35 36 35 37 36 37 36 37 37 37 34 37 35 37 -209 -193 35 30 30 31 32 30 30 31 33 30 32 32 31 30 33 31 30 30 33 34 37 -193 36 29 27 -193 25 24 32 33 32 37 36 38 38 39 40 -193 42 46 47 50 53 54 56 55 55 55 52 54 53 54 52 51 46 55 58 -209 -209 -209 -209 -193 -209 -209 -209 -209 -209 -209 -209 -209 274 -209 -209 57 -209 -193 -193 -209 -209 -193 -193 -193 -193 -209 -209 52 -193 -193 57 62 59 59 56 57 55 55 54 53 51 51 47 48 45 45 48 49 54 59 54 55 54 53 54 53 53 52 51 52 50 51 52 49 48 50 43 -225 -225 -225 -225 -225 -225 -225 63 65 66 67 70 67 65 -209 -209 -193 -209 -225 -225 -209 0 0 0 0 0
    0 0 0 0 0 0 0 0 0 0 0 0 0 0 0 0 0 0 0 0 0 0 0 0 0 0 0 0 0 0 0 0 0 0 0 0 0 0 0 0 0 0 0 0 0 0 0 0 0 0 0 0 0 0 0 0 0 0 0 0 0 0 0 0 0 0 0 0 0 -193 -209 -209 -209 -193 -193 -209 -209 -209 -209 -209 -209 -177 -193 -209 -193 -209 -209 -209 -209 -209 36 31 33 -193 -193 -193 -193 -193 -193 589 590 -193 27 30 -209 -193 -193 -193 -209 -193 -193 -209 -209 -209 -209 -209 -209 -193 -193 -193 35 36 34 33 33 35 27 27 29 27 27 28 28 27 -193 29 31 28 35 34 35 36 35 36 34 34 34 33 35 31 33 33 34 36 37 36 37 36 37 37 37 36 37 33 37 36 38 -209 -193 36 32 32 34 34 32 32 32 34 32 33 33 31 30 34 31 31 32 34 37 38 41 37 33 30 29 28 26 33 34 34 38 38 39 39 41 43 43 44 50 50 52 54 55 57 55 55 55 51 55 53 54 51 48 44 -209 54 -209 -209 -209 -209 -209 -209 -209 -209 -209 -209 -209 -209 -209 -209 -193 -209 58 -193 -193 -209 -209 -209 -209 -209 -209 -209 -209 -209 -193 68 70 62 64 59 59 56 56 54 54 53 52 50 51 47 49 45 46 48 50 54 -193 54 55 54 53 54 53 53 53 50 52 50 51 52 50 48 52 42 -225 -225 -225 -225 -225 -225 -225 -225 67 64 66 -225 65 -193 -209 -209 -209 -209 -225 -225 -209 0 0 0 0 0
    0 0 0 0 0 0 0 0 0 0 0 0 0 0 0 0 0 0 0 0 0 0 0 0 0 0 0 0 0 0 0 0 0 0 0 0 0 0 0 0 0 0 0 0 0 0 0 0 0 0 0 0 0 0 0 0 0 0 0 0 0 0 0 0 0 0 0 0 0 -209 -209 -209 -209 -193 -209 564 -209 -209 -209 -209 -209 -177 -193 -193 -193 -177 -209 -209 -209 -193 36 31 34 -193 -193 -193 -193 -193 -193 589 590 -193 26 28 -209 -193 -193 -193 -209 359 -193 -209 -209 -209 -209 -209 -193 35 33 36 35 34 33 31 31 34 28 28 30 28 29 29 29 29 27 30 32 28 35 32 35 37 37 38 35 36 36 35 36 32 34 34 34 36 37 36 37 36 37 36 36 35 36 32 36 34 36 -209 -193 36 34 34 35 35 32 33 33 34 32 33 33 31 30 34 31 32 34 35 39 39 40 38 37 35 34 32 31 36 36 36 39 39 41 41 44 46 45 48 53 52 53 54 55 57 55 55 55 51 57 55 56 54 54 54 58 60 62 61 -209 -209 -193 -209 -209 -193 -209 127 -209 -209 -193 -193 56 57 59 58 -193 -209 -193 -209 -193 -209 -209 -209 -209 67 -193 68 69 62 63 59 59 55 56 54 53 52 51 49 50 46 48 45 47 48 49 54 -209 54 55 54 53 54 53 53 53 51 52 50 51 52 50 49 52 41 -225 -225 -225 -225 -225 -225 -225 -225 -225 -193 -193 -225 -225 -225 -225 -193 -209 -209 -225 -209 -209 0 0 0 0 0
    0 0 0 0 0 0 0 0 0 0 0 0 0 0 0 0 0 0 0 0 0 0 0 0 0 0 0 0 0 0 0 0 0 0 0 0 0 0 0 0 0 0 0 0 0 0 0 0 0 0 0 0 0 0 0 0 0 0 0 0 0 0 0 0 0 0 0 0 0 -209 -209 -209 -209 -193 -209 -209 -209 -209 -209 -209 -209 -209 -209 -209 -209 -209 -209 -209 -209 -209 36 31 34 -193 -193 -193 -193 -193 -193 589 590 20 26 27 -193 -209 -193 -209 -209 358 -209 -209 -209 -209 -209 -209 -193 34 33 35 34 34 33 31 31 34 29 29 32 29 30 30 30 30 28 31 32 27 34 31 34 37 37 38 36 36 36 35 37 33 33 34 34 36 37 35 36 35 36 36 36 34 35 31 35 34 35 -193 -193 36 34 34 36 35 33 34 34 35 33 34 33 32 31 34 31 32 33 35 38 38 39 38 37 36 35 35 36 39 39 39 42 42 44 45 48 51 50 52 55 53 54 55 55 57 55 55 54 51 57 55 57 55 55 56 57 58 57 57 57 58 61 62 60 -193 -193 -193 58 -193 -193 57 56 58 59 58 58 -193 57 -193 -193 -193 -193 -209 -193 62 63 66 68 62 62 59 59 56 56 54 53 52 51 49 49 46 48 44 47 49 48 52 -209 54 55 54 53 54 53 53 53 51 52 51 51 52 50 48 50 39 -225 -225 -225 -225 -225 -225 -225 -225 -225 -225 -225 -225 -225 -225 -225 -193 -193 -193 -209 -209 -193 0 0 0 0 0
    0 0 0 0 0 0 0 0 0 0 0 0 0 0 0 0 0 0 0 0 0 0 0 0 0 0 0 0 0 0 0 0 0 0 0 0 0 0 0 0 0 0 0 0 0 0 0 0 0 0 0 0 0 0 0 0 0 0 0 0 0 0 0 0 0 0 0 0 0 -209 -209 -209 -209 -209 -209 -209 -209 651 -209 -209 -209 -209 -209 -209 -209 -209 -209 -209 -209 -209 -193 31 34 -193 -193 -193 -193 -193 -193 589 590 20 25 26 352 -209 -193 353 -193 357 -209 -209 -193 -209 -209 -193 -193 35 35 35 35 35 33 32 31 34 30 29 33 30 30 31 30 31 29 32 32 28 35 31 34 37 37 39 37 36 37 36 38 34 34 34 34 36 37 35 36 35 36 36 36 34 35 30 34 33 33 -209 -193 36 33 34 36 35 33 34 34 35 33 34 33 32 31 34 31 32 33 35 37 39 39 38 37 37 38 36 37 39 39 40 43 45 47 48 50 53 53 54 56 54 55 55 55 56 54 55 55 51 57 55 57 55 55 55 56 56 55 55 55 55 58 59 58 56 57 58 58 58 58 57 57 58 58 58 57 56 57 -193 -193 -193 -193 -209 61 61 62 65 67 61 62 59 59 56 56 54 53 51 51 48 48 45 47 44 46 48 47 51 55 54 55 55 53 54 54 53 53 51 52 50 50 52 49 45 45 37 -225 -225 -225 -225 -225 -225 -225 -225 -225 -225 -225 -225 -225 -225 -225 -193 -193 -193 -209 -209 -209 0 0 0 0 0
    0 0 0 0 0 0 0 0 0 0 0 0 0 0 0 0 0 0 0 0 0 0 0 0 0 0 0 0 0 0 0 0 0 0 0 0 0 0 0 0 0 0 0 0 0 0 0 0 0 0 0 0 0 0 0 0 0 0 0 0 0 0 0 0 0 0 0 0 0 -193 -209 -209 -209 -193 -193 -193 647 648 -193 -209 -209 -209 -209 -209 -209 -209 -209 -193 -209 -193 -193 31 35 -193 -193 -193 -193 -193 26 590 590 21 25 26 -193 -209 -209 -209 -193 358 -209 -209 -209 -193 -193 34 32 34 35 35 34 35 32 32 32 35 31 31 34 31 31 32 32 32 29 32 33 28 35 32 34 37 37 39 37 37 37 36 38 35 34 34 34 35 37 35 35 34 36 35 35 33 34 30 34 32 32 -193 26 36 33 34 36 35 33 34 34 35 33 34 33 32 31 34 31 33 33 35 38 39 39 38 38 38 39 37 37 38 39 41 43 45 48 49 51 53 53 54 56 54 55 55 55 56 54 55 54 50 57 54 57 54 54 55 55 55 55 55 55 55 57 59 58 56 57 58 58 -193 58 57 56 57 58 57 57 55 57 -193 -193 -193 -193 -209 -193 60 61 65 67 60 61 59 59 56 56 54 53 51 50 48 48 46 47 45 46 47 48 50 54 54 55 55 54 54 54 53 53 52 52 51 49 51 49 45 45 -225 -225 -225 -225 -225 -225 -225 -225 -225 -225 -225 -225 -225 -225 -225 -225 46 -193 -193 -209 -209 -209 0 0 0 0 0
    0 0 0 0 0 0 0 0 0 0 0 0 0 0 0 0 0 0 0 0 0 0 0 0 0 0 0 0 0 0 0 0 0 0 0 0 0 0 0 0 0 0 0 0 0 0 0 0 0 0 0 0 0 0 0 0 0 0 0 0 0 0 0 0 0 0 0 0 0 24 27 -209 -209 -209 -209 -193 -193 -193 -193 -193 28 -193 -193 -193 26 25 26 26 -193 31 34 31 34 -193 -193 -193 -193 -193 26 -193 -193 21 25 26 -193 -193 -193 -209 -209 -209 -193 30 30 32 32 32 32 34 35 34 34 35 32 32 32 35 32 31 34 32 32 33 32 32 30 32 32 28 34 31 33 37 36 38 36 36 37 36 38 35 33 34 34 35 36 34 35 33 35 35 35 33 34 29 34 33 33 32 27 36 34 35 36 35 33 34 34 35 33 34 33 31 31 34 31 33 33 36 38 39 40 38 38 38 39 36 37 38 39 40 42 45 46 48 50 53 53 53 56 54 55 54 55 55 54 55 54 50 56 54 57 55 54 55 55 55 55 55 55 54 57 59 58 -193 -193 58 58 58 58 57 56 57 58 56 57 55 57 -193 -193 -193 -193 -209 60 59 60 64 66 60 60 59 59 56 56 54 53 51 50 49 49 46 48 45 46 46 47 49 52 53 55 55 54 54 54 53 54 52 52 51 49 51 49 45 46 41 -225 -225 -225 -225 -225 -225 -225 -225 -225 -225 -225 -225 -225 -225 -225 -225 48 -193 -209 -209 -209 0 0 0 0 0
    0 0 0 0 0 0 0 0 0 0 0 0 0 0 0 0 0 0 0 0 0 0 0 0 0 0 0 0 0 0 0 0 0 0 0 0 0 0 0 0 0 0 0 0 0 0 0 0 0 0 0 0 0 0 0 0 0 0 0 0 0 0 0 0 0 0 0 0 0 22 25 -193 29 31 30 29 -193 28 29 24 24 21 23 23 23 23 23 24 24 28 30 30 33 -193 -193 -193 -193 -193 26 25 25 21 25 27 22 26 32 -209 -193 23 -193 29 29 31 30 30 31 33 34 32 34 34 32 32 33 35 32 32 35 32 32 33 32 32 30 32 32 28 33 30 32 36 36 37 36 36 36 36 38 34 33 34 33 34 36 33 34 32 35 34 34 32 33 29 35 34 33 36 28 36 35 36 37 35 33 34 34 35 33 34 33 31 31 34 31 32 33 35 38 38 39 37 38 39 39 36 37 38 39 40 42 44 45 47 50 52 52 53 55 53 54 54 54 55 54 55 54 50 56 54 56 55 54 55 55 55 55 55 55 54 57 58 57 56 57 58 58 58 58 57 56 57 57 56 56 53 55 -193 -193 -193 -193 -209 -193 58 59 64 65 60 60 58 58 56 56 54 53 50 50 49 49 46 48 45 46 46 47 49 51 54 55 56 54 54 54 54 54 53 52 52 49 51 48 45 46 42 -225 -225 -225 -225 -225 -225 -225 -225 -225 -225 -225 -225 -225 -225 -225 -225 -225 -225 -209 -193 -209 0 0 0 0 0
    0 0 0 0 0 0 0 0 0 0 0 0 0 0 0 0 0 0 0 0 0 0 0 0 0 0 0 0 0 0 0 0 0 0 0 0 0 0 0 0 0 0 0 0 0 0 0 0 0 0 0 0 0 0 0 0 0 0 0 0 0 0 0 0 0 0 0 0 0 22 24 23 28 29 28 28 28 28 29 24 24 21 23 23 23 23 22 23 24 27 28 29 32 -193 -193 -193 -193 -193 25 24 24 20 25 26 21 25 -209 18 20 21 24 30 32 32 31 30 30 32 33 31 32 34 31 32 33 34 32 31 35 32 32 33 32 32 30 32 33 28 34 31 32 37 35 37 35 35 36 35 38 34 32 33 32 33 36 32 33 31 34 34 34 32 33 28 35 34 33 38 29 36 35 35 37 35 33 34 33 36 33 34 33 31 33 35 32 34 33 36 38 39 39 37 38 39 39 37 37 39 39 40 42 43 45 46 50 52 52 53 55 53 54 53 54 54 54 54 54 51 56 55 57 55 54 55 55 55 55 55 55 54 56 57 57 56 57 58 58 57 58 57 56 57 57 56 57 53 54 51 -193 -209 -209 -209 -209 -193 60 64 65 60 59 58 58 56 56 54 53 49 50 49 49 47 48 46 46 46 48 48 49 54 56 57 55 55 55 54 54 53 53 53 50 51 49 46 48 44 -225 -225 -225 -225 -225 -225 -225 -225 -225 -225 -225 -225 -225 -225 -225 -225 -225 -225 -225 -193 -209 0 0 0 0 0
    0 0 0 0 0 0 0 0 0 0 0 0 0 0 0 0 0 0 0 0 0 0 0 0 0 0 0 0 0 0 0 0 0 0 0 0 0 0 0 0 0 0 0 0 0 0 0 0 0 0 0 0 0 0 0 0 0 0 0 0 0 0 0 0 0 0 0 0 0 21 23 23 28 28 27 28 28 28 28 25 26 22 25 24 24 24 24 24 25 28 28 29 31 -193 -193 -193 -193 26 25 24 24 18 25 25 21 26 -209 -209 -193 20 -193 34 36 34 33 32 30 33 33 31 31 33 31 32 32 34 31 31 35 32 32 33 32 32 31 33 34 29 35 33 33 38 36 37 35 35 36 35 38 34 32 33 32 33 35 32 32 30 33 33 34 32 33 28 35 34 33 38 29 36 35 35 37 34 33 34 33 35 32 34 33 30 33 35 32 35 32 37 39 41 41 38 39 40 40 38 38 39 39 40 41 42 44 45 50 51 52 52 54 53 53 53 53 53 54 54 54 51 56 56 58 56 55 56 56 55 55 55 55 53 54 56 56 56 57 57 58 57 58 58 57 57 57 56 57 -193 51 49 -193 -209 -209 -209 -209 -193 60 65 65 60 59 59 59 57 57 55 53 50 50 49 49 47 47 46 46 46 48 48 48 55 56 57 56 55 55 54 54 54 53 53 51 52 51 47 50 45 -225 -225 -225 -225 -225 -225 -225 -225 -225 -225 -225 -225 -225 -225 -225 -225 -225 -225 -209 -193 -209 0 0 0 0 0
    0 0 0 0 0 0 0 0 0 0 0 0 0 0 0 0 0 0 0 0 0 0 0 0 0 0 0 0 0 0 0 0 0 0 0 0 0 0 0 0 0 0 0 0 0 0 0 0 0 0 0 0 0 0 0 0 0 0 0 0 0 0 0 0 0 0 0 0 0 21 23 22 27 26 26 27 27 27 27 24 26 22 25 25 24 24 25 24 25 27 28 28 31 -193 -193 26 -193 26 24 23 24 18 25 26 24 27 32 -209 -209 21 -193 31 36 36 35 35 33 35 34 31 32 33 31 33 32 33 31 31 35 32 32 33 32 32 32 33 34 29 35 33 33 38 36 37 36 35 36 36 38 34 31 32 31 32 34 32 32 30 33 32 34 32 32 28 35 34 33 39 30 36 34 34 37 34 33 33 32 35 32 33 33 29 33 35 33 35 32 39 41 43 42 39 40 41 40 38 38 39 39 40 41 42 44 45 50 50 52 52 54 52 53 52 53 52 54 54 54 50 56 56 58 56 56 56 56 55 55 55 55 54 54 57 56 56 57 58 58 58 58 58 57 58 57 56 55 -193 48 -193 -193 -193 -193 -209 -209 -193 -193 63 64 60 59 59 60 58 58 56 54 50 51 50 49 47 47 46 46 46 48 47 48 56 57 58 56 55 55 55 55 54 54 54 52 53 53 50 51 47 -225 -225 -225 -225 -225 -225 -225 -225 -225 -225 -225 -225 -225 -225 -225 -225 -225 -225 -209 -193 -193 0 0 0 0 0
    0 0 0 0 0 0 0 0 0 0 0 0 0 0 0 0 0 0 0 0 0 0 0 0 0 0 0 0 0 0 0 0 0 0 0 0 0 0 0 0 0 0 0 0 0 0 0 0 0 0 0 0 0 0 0 0 0 0 0 0 0 0 0 0 0 0 0 0 0 21 22 21 26 25 25 26 25 25 25 23 26 23 25 25 25 25 25 25 25 27 27 28 30 25 25 26 -193 26 23 23 23 19 26 28 26 28 35 34 30 27 32 34 36 36 37 38 37 37 36 33 33 35 32 35 33 33 31 32 36 32 32 34 32 33 33 33 34 29 35 33 33 36 34 35 35 35 35 35 37 33 31 32 31 32 33 31 31 30 33 32 34 34 33 30 38 37 36 40 31 37 34 35 37 34 33 33 32 35 31 33 33 28 34 35 33 32 30 38 40 44 41 39 39 40 39 38 38 38 38 39 40 41 43 44 50 50 52 52 54 52 53 51 52 51 53 53 53 50 54 55 57 55 55 55 55 55 55 55 55 53 54 57 56 57 57 58 58 58 58 58 57 57 57 55 54 -193 50 -193 -209 -193 -209 -209 -209 -193 -193 63 64 61 59 60 60 59 59 57 55 50 51 50 49 47 47 46 45 46 48 46 47 56 57 58 56 56 56 55 55 55 54 55 53 54 54 51 52 51 -193 -225 -225 -225 -225 -225 -225 -225 -225 -225 -225 -225 -225 -225 -225 -225 -225 -225 -209 -209 -209 0 0 0 0 0
    0 0 0 0 0 0 0 0 0 0 0 0 0 0 0 0 0 0 0 0 0 0 0 0 0 0 0 0 0 0 0 0 0 0 0 0 0 0 0 0 0 0 0 0 0 0 0 0 0 0 0 0 0 0 0 0 0 0 0 0 0 0 0 0 0 0 0 0 0 20 21 21 25 24 24 25 24 24 24 22 25 23 25 25 24 25 25 24 25 27 27 27 28 24 24 -193 -193 -193 23 23 23 18 26 29 28 29 35 35 34 31 34 34 35 36 37 39 38 37 36 33 34 35 32 36 33 32 31 32 36 32 32 33 32 33 33 33 34 29 34 34 34 36 34 35 36 35 35 36 36 33 32 32 31 32 33 31 31 30 32 33 35 35 33 32 40 40 39 40 34 38 35 35 37 34 33 33 32 34 30 32 32 27 32 32 33 30 28 35 39 43 39 36 36 39 38 37 37 37 38 39 40 41 42 44 50 49 51 51 53 52 52 51 52 50 53 53 53 49 54 54 56 55 54 54 55 55 55 55 55 53 54 57 57 57 57 58 58 58 58 58 57 57 57 56 57 57 53 53 -209 -209 -209 -209 -209 -209 59 64 65 61 59 60 60 60 59 57 54 49 50 50 48 47 46 46 44 45 48 46 46 57 57 58 57 57 56 56 55 55 55 56 54 55 54 53 55 57 -209 -225 -225 -225 -225 -225 -225 -225 -225 -225 -225 -225 -225 -225 -225 -225 -225 -225 -225 -225 -225 0 0 0 0 0
    0 0 0 0 0 0 0 0 0 0 0 0 0 0 0 0 0 0 0 0 0 0 0 0 0 0 0 0 0 0 0 0 0 0 0 0 0 0 0 0 0 0 0 0 0 0 0 0 0 0 0 0 0 0 0 0 0 0 0 0 0 0 0 0 0 0 0 0 0 20 21 20 24 23 24 25 23 24 23 22 25 22 24 24 24 25 25 24 24 26 26 27 27 23 23 611 -193 -193 21 22 22 17 26 29 28 29 33 33 33 30 33 34 34 36 37 39 39 37 35 32 33 33 33 35 33 31 31 32 37 32 32 33 32 32 34 33 34 28 34 33 35 35 33 33 35 34 34 35 35 33 32 32 32 33 33 31 31 31 32 33 35 35 33 34 40 40 40 40 36 38 35 36 37 34 34 33 32 34 30 32 32 27 32 32 32 29 27 30 37 42 35 32 33 39 37 37 36 37 38 39 40 40 42 44 50 49 51 51 52 51 52 51 52 50 53 53 53 49 53 53 56 55 54 54 55 55 56 56 56 55 56 58 58 58 58 58 58 58 58 58 57 57 57 57 57 58 56 -193 -209 -209 -209 -209 -209 -193 59 63 64 62 59 60 60 59 58 57 54 50 50 50 49 47 46 46 44 46 48 46 47 56 57 58 57 57 56 56 56 56 56 57 56 56 56 56 57 60 63 -225 -225 -225 -225 -225 -225 -225 -225 -225 -225 -225 -225 -225 -225 -225 -225 -225 -225 -225 -225 0 0 0 0 0
    0 0 0 0 0 0 0 0 0 0 0 0 0 0 0 0 0 0 0 0 0 0 0 0 0 0 0 0 0 0 0 0 0 0 0 0 0 0 0 0 0 0 0 0 0 0 0 0 0 0 0 0 0 0 0 0 0 0 0 0 0 0 0 0 0 0 0 0 0 20 21 20 24 23 23 25 23 24 23 22 24 22 24 24 24 24 24 24 24 25 26 26 26 22 22 612 -193 -209 20 21 21 15 26 29 29 29 34 34 35 31 34 34 34 37 39 41 40 36 34 33 33 33 34 34 32 30 30 31 36 32 32 32 32 32 -193 33 34 28 33 34 36 35 34 34 35 35 34 36 35 33 32 32 32 33 32 32 31 32 32 33 35 35 32 36 41 41 41 39 37 39 36 36 37 34 34 34 32 33 29 32 31 27 32 31 31 28 26 27 34 40 30 29 31 38 36 37 37 37 38 39 40 41 -193 44 50 48 51 51 52 51 52 51 52 49 53 53 53 49 53 53 55 55 55 55 55 56 56 56 57 56 57 59 58 59 58 58 58 58 59 59 57 58 57 57 58 59 -193 -193 -209 -209 -193 -209 -209 -193 59 63 64 62 59 59 60 59 58 57 54 50 50 50 49 47 46 45 44 46 48 46 47 55 56 57 57 57 56 57 56 57 57 58 57 57 57 58 58 61 -193 -225 -225 -225 -225 -225 -225 -225 -225 -225 -225 -225 -225 -225 -225 -225 -225 -225 -225 -225 -225 0 0 0 0 0
    0 0 0 0 0 0 0 0 0 0 0 0 0 0 0 0 0 0 0 0 0 0 0 0 0 0 0 0 0 0 0 0 0 0 0 0 0 0 0 0 0 0 0 0 0 0 0 0 0 0 0 0 0 0 0 0 0 0 0 0 0 0 0 0 0 0 0 0 0 20 20 20 24 22 23 24 23 24 23 23 25 23 24 24 24 24 25 24 24 25 25 26 26 21 22 -193 -193 -193 20 20 21 15 26 28 28 29 33 33 33 30 33 33 -193 -209 -193 41 40 36 34 33 33 33 35 34 31 30 30 31 36 32 32 32 32 33 -193 34 34 28 35 36 37 36 34 35 36 35 35 36 34 33 32 32 32 32 32 31 31 32 32 34 36 35 33 37 41 41 41 39 38 39 35 36 36 34 34 34 33 33 29 32 31 27 32 32 31 27 25 24 30 30 27 26 30 39 36 37 37 38 39 40 -193 -193 -193 44 50 48 51 50 52 52 52 51 52 50 53 53 53 49 53 52 54 53 55 54 55 57 58 58 58 -193 58 60 59 60 58 58 58 58 59 59 57 58 57 58 58 60 59 58 -193 -209 -193 -193 -193 -193 -193 62 64 62 59 59 59 59 57 56 54 51 50 50 49 46 46 45 44 47 49 48 50 56 57 57 57 57 56 57 56 57 57 58 58 58 59 59 59 62 64 -225 -225 -225 -225 -225 -225 -225 -225 -225 -225 -225 -225 -225 -225 -225 -225 -225 -225 -225 -225 0 0 0 0 0
    0 0 0 0 0 0 0 0 0 0 0 0 0 0 0 0 0 0 0 0 0 0 0 0 0 0 0 0 0 0 0 0 0 0 0 0 0 0 0 0 0 0 0 0 0 0 0 0 0 0 0 0 0 0 0 0 0 0 0 0 0 0 0 0 0 0 0 0 0 20 20 19 23 22 23 25 24 25 25 24 28 25 26 26 25 26 26 25 25 25 25 25 25 21 21 -193 -193 22 20 20 21 15 26 28 28 29 32 34 33 31 33 32 32 -209 38 41 39 35 34 33 33 33 35 34 30 30 31 31 36 32 32 31 32 33 34 34 34 29 35 37 37 35 35 35 36 35 34 35 33 32 32 31 31 32 31 31 30 32 32 34 36 35 33 38 41 41 40 39 -193 39 36 36 36 34 34 34 33 32 29 32 30 28 33 33 31 28 27 25 30 27 27 26 32 40 37 38 38 38 39 -193 -177 -193 -193 44 49 47 51 50 51 51 52 51 52 50 53 53 53 49 53 51 53 52 54 53 54 56 -209 -209 -193 -193 59 61 59 61 59 59 58 59 59 59 58 59 57 58 58 60 59 59 60 -193 -193 -193 -193 -193 -193 62 64 63 59 59 60 59 57 56 54 52 51 51 50 47 45 45 45 48 50 49 51 56 57 57 58 58 56 57 56 58 58 59 59 58 60 60 59 65 68 -225 -225 -225 -225 -225 -225 -209 -225 -225 -225 -225 -225 -225 -225 -225 -225 -225 -225 -225 -225 0 0 0 0 0
    0 0 0 0 0 0 0 0 0 0 0 0 0 0 0 0 0 0 0 0 0 0 0 0 0 0 0 0 0 0 0 0 0 0 0 0 0 0 0 0 0 0 0 0 0 0 0 0 0 0 0 0 0 0 0 0 0 0 0 0 0 0 0 0 0 0 0 0 0 20 20 18 23 22 22 26 24 26 26 26 30 27 27 27 26 27 28 26 26 25 25 26 25 20 20 21 -193 21 20 20 20 15 26 28 28 29 32 35 35 32 34 32 31 36 36 38 37 34 34 32 33 34 36 34 31 30 31 32 36 32 32 31 32 34 34 34 34 29 35 37 36 34 35 35 36 35 34 35 33 32 32 31 32 32 31 31 31 33 32 35 36 35 34 40 41 41 41 38 -193 39 36 37 36 34 34 35 33 32 29 32 30 28 33 33 31 29 29 28 30 28 28 27 33 40 37 38 38 39 40 -193 -193 42 42 44 48 47 50 49 51 51 52 51 52 50 53 53 53 48 52 47 52 50 53 52 53 -209 -209 -193 -193 -193 -193 62 60 63 60 60 59 59 59 59 58 59 58 58 58 59 59 58 -193 -209 -209 -209 -193 -209 -209 60 62 62 59 59 60 59 57 56 55 53 52 51 51 47 46 45 45 49 50 50 53 57 57 58 59 58 57 58 56 58 58 60 60 58 61 62 61 69 -193 -225 -225 -225 -225 -209 -209 -209 -209 -225 -225 -225 -225 -225 -225 -225 -225 -225 -225 -225 -225 0 0 0 0 0
    0 0 0 0 0 0 0 0 0 0 0 0 0 0 0 0 0 0 0 0 0 0 0 0 0 0 0 0 0 0 0 0 0 0 0 0 0 0 0 0 0 0 0 0 0 0 0 0 0 0 0 0 0 0 0 0 0 0 0 0 0 0 0 0 0 0 0 0 0 20 20 18 22 21 22 26 24 26 26 26 30 27 27 27 26 28 28 27 27 25 26 26 26 21 20 21 -193 21 20 20 21 16 26 28 28 28 31 32 33 30 32 30 30 33 35 37 36 34 34 33 33 35 36 33 31 30 32 32 36 32 31 31 33 -193 34 34 34 29 36 37 36 33 34 35 36 34 34 35 32 32 32 32 32 32 31 31 31 33 33 36 37 35 35 41 42 41 41 37 39 39 36 37 36 34 34 35 34 32 29 32 30 28 32 32 30 29 30 30 31 29 28 28 34 39 36 38 38 38 40 42 42 42 42 44 48 46 49 48 50 51 52 51 52 51 53 53 53 47 51 45 48 47 50 50 -193 -209 -209 63 62 -193 -193 -193 61 64 60 60 59 59 59 59 58 59 57 58 57 59 58 57 -193 -209 -209 -209 -209 -209 -209 -193 61 -193 59 60 60 59 58 57 55 54 53 52 51 48 46 45 45 50 50 52 54 57 57 57 59 59 57 58 56 57 58 60 61 58 62 65 65 71 -193 -193 -225 -225 -225 -209 -209 -209 -209 -209 -225 -225 -225 -225 -225 -225 -225 -225 -225 -225 -225 0 0 0 0 0
    0 0 0 0 0 0 0 0 0 0 0 0 0 0 0 0 0 0 0 0 0 0 0 0 0 0 0 0 0 0 0 0 0 0 0 0 0 0 0 0 0 0 0 0 0 0 0 0 0 0 0 0 0 0 0 0 0 0 0 0 0 0 0 0 0 0 0 0 0 21 21 19 23 22 23 27 25 27 27 27 30 27 27 27 26 28 28 28 28 26 26 26 26 21 20 21 -193 -193 20 20 20 15 26 28 28 28 30 33 33 29 31 30 29 31 34 34 35 33 34 32 32 34 35 32 31 31 31 32 36 32 31 31 33 -193 34 34 34 29 36 38 35 33 34 35 36 34 35 35 32 32 32 32 33 32 32 31 31 33 34 37 37 35 36 41 42 42 41 37 39 39 36 37 36 34 34 35 33 32 29 31 29 28 31 31 29 29 29 29 29 28 28 28 35 38 36 38 37 38 40 41 42 42 -193 44 47 46 48 47 50 51 52 52 53 51 54 53 53 48 51 45 48 47 50 51 -193 -193 -193 61 61 -193 -193 -193 61 64 60 60 59 59 59 59 58 59 57 58 57 59 60 58 59 -193 -209 -209 -209 -193 -193 60 61 63 59 60 60 59 58 57 56 55 54 53 52 49 47 45 45 52 51 53 54 56 56 57 59 58 57 58 55 56 57 59 60 56 59 61 62 70 -193 -209 -225 -225 -225 -209 -209 42 -193 -225 -225 -225 -225 -225 -225 -225 -225 -225 -225 -225 -225 0 0 0 0 0
    0 0 0 0 0 0 0 0 0 0 0 0 0 0 0 0 0 0 0 0 0 0 0 0 0 0 0 0 0 0 0 0 0 0 0 0 0 0 0 0 0 0 0 0 0 0 0 0 0 0 0 0 0 0 0 0 0 0 0 0 0 0 0 0 0 0 0 0 0 22 22 22 25 25 25 28 27 28 28 28 30 28 27 28 27 28 29 28 29 26 26 27 27 21 20 21 -193 20 20 20 20 15 25 28 28 28 31 35 33 30 31 29 28 30 33 32 33 32 32 32 32 34 34 31 31 31 31 31 36 32 31 32 34 -193 34 35 34 29 38 38 35 34 35 35 36 34 35 34 32 33 32 32 33 32 32 31 32 33 34 36 36 34 36 40 40 -209 40 36 39 39 36 37 36 34 34 34 33 31 29 31 29 28 31 30 29 29 29 31 30 28 28 28 36 38 36 37 37 38 39 41 41 -193 -193 43 47 45 48 47 50 50 52 52 53 51 54 53 53 48 52 46 50 49 52 53 -193 -193 -193 61 61 -193 -193 62 60 63 60 60 59 59 59 59 58 59 57 58 58 58 60 -193 -193 58 -209 -209 -193 -209 -193 60 60 64 60 60 60 59 58 57 56 56 54 54 53 50 48 47 49 56 55 56 55 56 55 56 58 57 56 57 53 56 57 59 60 55 59 -209 -209 -193 -225 -225 -225 -225 -225 -225 -225 -225 -225 -225 -225 -225 -225 -225 -225 -225 -225 -225 -225 -225 -225 0 0 0 0 0
    0 0 0 0 0 0 0 0 0 0 0 0 0 0 0 0 0 0 0 0 0 0 0 0 0 0 0 0 0 0 0 0 0 0 0 0 0 0 0 0 0 0 0 0 0 0 0 0 0 0 0 0 0 0 0 0 0 0 0 0 0 0 0 0 0 0 0 0 0 24 24 25 26 27 26 30 29 29 28 28 30 28 28 29 28 29 30 30 31 27 27 27 27 22 21 21 -193 19 20 20 20 15 25 28 27 27 32 -209 -193 29 31 -193 -193 29 34 32 32 33 33 32 32 34 34 31 32 32 31 31 36 32 30 32 34 -193 -193 34 34 29 38 38 35 34 35 35 36 34 35 34 32 33 32 33 33 32 32 31 32 33 34 36 36 33 36 39 38 -209 35 36 39 38 35 37 36 34 35 35 33 31 29 31 29 27 30 30 29 31 31 34 32 29 30 29 37 37 36 37 37 37 39 40 40 40 41 42 46 45 47 47 51 50 52 52 52 51 53 53 53 48 52 48 52 52 54 54 -193 -193 -193 60 60 -193 -193 61 60 62 60 59 59 58 59 58 58 59 57 58 58 58 60 -193 -193 -193 53 -209 -193 -209 -193 -193 59 -193 59 60 61 60 59 58 57 57 55 55 55 52 51 52 54 58 57 57 56 56 54 55 56 56 54 55 49 53 56 58 -193 54 -209 -209 -209 -209 -225 -225 -225 -225 -225 -225 -225 -225 -225 -225 -225 -225 -225 -225 -225 -225 -225 -225 -225 -225 -225 0 0 0 0 0
    0 0 0 0 0 0 0 0 0 0 0 0 0 0 0 0 0 0 0 0 0 0 0 0 0 0 0 0 0 0 0 0 0 0 0 0 0 0 0 0 0 0 0 0 0 0 0 0 0 0 0 0 0 0 0 0 0 0 0 0 0 0 0 0 0 0 0 0 0 26 26 27 28 28 27 30 29 29 29 28 31 29 29 30 29 31 33 31 33 28 28 28 28 -193 21 21 -193 19 20 20 20 -193 26 29 29 28 -193 48 -193 34 33 30 30 30 35 32 32 34 33 32 32 35 33 31 32 32 31 32 35 31 30 31 33 -193 32 33 33 30 38 38 35 35 35 36 36 34 35 34 32 33 32 33 34 32 33 32 33 33 34 36 36 32 36 37 35 33 31 35 38 38 36 37 36 35 35 35 34 32 30 32 29 28 32 30 29 32 32 35 32 29 29 28 37 36 36 37 37 37 39 39 40 39 41 42 45 44 47 47 52 51 52 52 52 51 52 52 52 47 51 48 52 52 54 54 -193 -193 -193 60 60 -193 -193 61 60 63 59 59 59 58 59 58 58 59 57 58 58 58 60 58 -193 -193 54 -209 59 -193 -193 60 60 65 60 60 61 60 59 58 58 58 56 56 56 54 53 54 54 57 56 56 55 54 53 53 53 54 53 49 45 45 -209 -209 -209 -209 -209 -209 -209 -209 -225 -225 -225 -225 -225 -225 -225 -225 -225 -225 -225 -225 -225 -225 -225 -225 -225 -225 -225 -225 -225 0 0 0 0 0
    0 0 0 0 0 0 0 0 0 0 0 0 0 0 0 0 0 0 0 0 0 0 0 0 0 0 0 0 0 0 0 0 0 0 0 0 0 0 0 0 0 0 0 0 0 0 0 0 0 0 0 0 0 0 0 0 0 0 0 0 0 0 0 0 0 0 0 0 0 27 28 28 -193 -193 28 32 30 29 29 28 31 29 30 31 30 32 34 32 34 29 28 28 28 -193 22 21 -193 -193 20 20 20 -193 26 31 31 31 42 51 -193 -193 35 32 32 32 35 33 32 34 33 32 33 35 33 31 33 33 31 32 34 30 29 31 32 31 31 32 32 30 38 37 34 34 34 35 35 33 35 32 32 33 32 33 34 31 33 31 33 33 35 37 36 31 37 36 35 34 32 35 37 37 36 36 36 35 35 35 33 32 30 32 30 28 33 30 30 32 32 34 32 29 29 28 38 36 36 37 37 37 38 38 38 36 39 40 45 44 46 47 53 51 52 52 52 51 52 52 52 48 53 50 53 53 55 55 -193 -193 -193 60 59 -193 60 61 59 63 59 59 59 58 58 58 58 59 57 59 58 58 61 58 -193 -193 55 -193 60 61 59 61 61 66 61 61 62 61 60 59 58 59 57 58 57 56 54 55 54 55 55 55 54 53 52 52 51 53 52 46 -225 -225 -225 -225 30 -225 -225 -193 -209 -225 -225 -225 -225 -225 -225 -225 -225 -225 -225 -225 -225 -225 -225 -225 -225 -225 -225 -225 -225 -225 -225 0 0 0 0 0
    0 0 0 0 0 0 0 0 0 0 0 0 0 0 0 0 0 0 0 0 0 0 0 0 0 0 0 0 0 0 0 0 0 0 0 0 0 0 0 0 0 0 0 0 0 0 0 0 0 0 0 0 0 0 0 0 0 0 0 0 0 0 0 0 0 0 0 0 0 -193 -193 -193 -193 -193 29 32 30 29 28 28 30 29 30 30 30 31 33 32 34 29 29 29 29 -209 23 21 21 -193 20 20 20 -193 26 33 34 34 43 51 -193 -193 36 33 32 30 35 32 31 33 33 32 33 34 33 31 33 33 31 31 33 29 29 30 30 29 30 30 31 30 38 37 34 33 34 34 35 33 35 32 32 33 33 34 35 32 33 32 34 33 36 37 36 32 38 37 35 35 33 35 36 37 36 36 36 34 35 34 33 32 31 31 31 28 32 29 30 31 31 33 31 29 29 28 38 35 35 36 36 36 36 37 37 31 38 39 44 43 45 47 53 51 52 52 52 51 52 52 52 48 54 52 55 55 56 56 -193 -193 -193 60 60 60 60 61 59 64 59 59 59 58 59 58 58 59 57 59 58 57 60 -193 -193 -193 -193 -209 59 60 59 62 61 67 61 61 62 62 60 60 59 59 57 58 58 57 54 55 54 54 54 54 53 52 51 51 50 52 52 45 -225 -225 -225 -225 -225 -225 -225 -225 -209 -209 -209 -209 -209 -225 -225 -225 -225 -225 -225 -225 -225 -225 -225 -225 -225 -225 -225 -225 -225 -225 -225 0 0 0 0 0
    0 0 0 0 0 0 0 0 0 0 0 0 0 0 0 0 0 0 0 0 0 0 0 0 0 0 0 0 0 0 0 0 0 0 0 0 0 0 0 0 0 0 0 0 0 0 0 0 0 0 0 0 0 0 0 0 0 0 0 0 0 0 0 0 0 0 0 0 0 -193 -193 32 -209 -209 31 34 31 29 27 27 30 29 29 30 29 31 33 31 33 29 29 29 29 -209 23 22 -193 -193 -193 20 20 -193 -193 33 35 36 44 51 -193 48 -193 33 32 30 34 31 30 33 32 32 33 34 32 31 33 33 31 31 32 28 28 29 30 29 29 29 30 30 37 35 35 33 33 34 36 34 35 32 33 33 34 36 36 33 34 33 35 34 36 37 35 32 36 35 34 35 32 35 35 35 36 35 36 34 34 34 33 32 31 30 31 27 30 27 29 29 30 31 29 28 29 28 39 33 34 35 35 34 35 35 35 29 37 39 44 43 45 47 54 51 52 52 52 51 52 52 52 48 53 52 54 55 57 57 -193 -193 -193 59 59 60 60 61 59 63 59 59 59 58 58 58 58 58 57 58 58 57 60 -209 -209 -209 -209 -209 -193 60 59 62 61 67 61 61 62 62 61 60 59 60 57 59 59 57 53 55 53 53 54 53 53 51 51 51 49 51 52 45 46 -225 -225 -225 -225 -225 -225 44 -209 -209 -209 -209 -209 -209 -225 -225 -225 -225 -225 -225 -225 -225 -225 -225 -225 -225 -225 -225 -225 -225 -225 0 0 0 0 0
    0 0 0 0 0 0 0 0 0 0 0 0 0 0 0 0 0 0 0 0 0 0 0 0 0 0 0 0 0 0 0 0 0 0 0 0 0 0 0 0 0 0 0 0 0 0 0 0 0 0 0 0 0 0 0 0 0 0 0 0 0 0 0 0 0 0 0 0 0 31 35 35 -209 -209 -193 35 -193 29 27 27 30 28 29 30 29 31 33 31 33 29 29 29 29 -193 24 22 -193 -193 -193 20 20 -193 -193 34 36 36 44 51 -193 51 -193 31 30 29 35 31 30 34 32 32 34 34 32 31 33 33 31 31 31 27 28 29 29 28 28 29 29 30 37 33 36 32 33 34 35 34 35 31 34 34 36 37 37 35 35 35 36 35 37 37 35 31 34 33 31 33 30 34 33 34 36 34 36 34 34 33 32 32 31 30 31 26 29 26 28 27 29 30 29 28 29 28 39 32 33 34 34 33 34 34 34 28 36 38 44 43 45 47 54 51 52 51 52 50 52 52 52 48 53 53 55 56 58 58 56 58 -193 59 59 60 60 60 59 63 58 58 59 57 58 57 57 58 57 58 58 57 63 -193 -209 -209 -209 -193 -193 65 62 64 61 68 61 61 63 62 61 60 59 60 57 58 58 56 53 55 54 54 54 53 53 51 51 51 48 51 52 44 46 -225 -225 -225 -225 -225 -225 46 48 44 43 45 -209 -209 -225 -225 -225 -225 -225 -225 -225 -225 -225 -225 -225 -225 -225 -225 -225 -225 -225 0 0 0 0 0
    0 0 0 0 0 0 0 0 0 0 0 0 0 0 0 0 0 0 0 0 0 0 0 0 0 0 0 0 0 0 0 0 0 0 0 0 0 0 0 0 0 0 0 0 0 0 0 0 0 0 0 0 0 0 0 0 0 0 0 0 0 0 0 0 0 0 0 0 0 31 35 -193 -193 362 -209 -193 -193 30 28 27 30 29 29 30 29 31 32 30 33 29 29 29 29 24 23 22 -193 -193 757 20 21 -193 27 36 37 39 45 52 -193 51 -193 36 33 33 36 32 32 35 33 33 35 34 32 31 34 34 31 31 30 26 28 28 28 28 27 28 28 30 36 31 36 33 32 34 35 33 35 30 33 34 37 38 38 37 37 36 37 37 37 37 33 31 32 31 29 31 28 35 32 34 37 34 36 34 34 34 32 33 32 29 31 26 30 26 29 28 30 30 29 29 29 30 39 32 32 34 34 34 34 34 34 28 36 38 44 43 46 47 54 51 52 51 51 50 52 52 52 49 54 54 57 57 60 60 59 59 59 60 61 62 62 63 61 66 59 59 60 58 58 57 57 57 57 59 59 58 64 -193 -193 -209 70 -193 -193 66 64 65 61 68 61 61 63 62 61 60 59 59 57 57 57 52 49 53 52 53 54 53 53 51 51 51 48 51 52 45 48 47 54 -225 -225 -225 -225 47 49 46 45 -225 -193 -193 -225 -225 -225 -225 -225 -225 -225 -225 -225 -225 -225 -225 -225 -225 -225 -225 -225 0 0 0 0 0
    0 0 0 0 0 0 0 0 0 0 0 0 0 0 0 0 0 0 0 0 0 0 0 0 0 0 0 0 0 0 0 0 0 0 0 0 0 0 0 0 0 0 0 0 0 0 0 0 0 0 0 0 0 0 0 0 0 0 0 0 0 0 0 0 0 0 0 0 0 32 -209 -209 -193 362 -209 -193 -193 30 28 28 30 29 30 30 30 31 31 30 32 29 29 28 28 24 23 22 22 -193 757 -193 21 -193 27 34 36 36 45 53 55 50 44 40 37 37 37 33 33 35 33 33 35 34 32 32 34 34 31 31 29 26 28 28 28 27 -193 -193 27 30 35 29 35 31 30 32 33 32 32 27 31 35 39 40 40 39 38 39 38 38 36 37 31 30 31 30 28 29 27 35 32 34 37 34 37 34 35 34 33 33 32 29 31 27 31 28 32 31 31 31 31 31 31 33 39 33 33 34 35 35 35 34 34 28 36 39 45 43 46 48 55 51 52 51 52 50 52 52 53 50 55 56 58 59 61 61 60 59 59 63 64 63 64 64 63 66 60 60 60 58 58 57 57 58 57 59 60 58 64 62 69 70 69 71 -193 68 65 62 59 66 60 60 62 61 60 59 59 59 56 56 56 51 48 52 52 52 54 52 52 51 51 51 49 51 52 45 50 49 54 51 -225 -225 -225 48 50 46 44 -225 -193 -225 -225 -225 -225 -225 -225 -225 -225 -225 -225 -225 -225 -225 -225 -225 -225 -225 -225 0 0 0 0 0
    0 0 0 0 0 0 0 0 0 0 0 0 0 0 0 0 0 0 0 0 0 0 0 0 0 0 0 0 0 0 0 0 0 0 0 0 0 0 0 0 0 0 0 0 0 0 0 0 0 0 0 0 0 0 0 0 0 0 0 0 0 0 0 0 0 0 0 0 0 33 -193 -209 -209 -193 -209 34 31 31 29 28 31 30 30 31 30 32 31 30 32 29 29 28 28 24 23 22 22 -193 757 -193 -193 -193 26 32 34 -209 46 54 56 51 47 41 38 38 37 34 33 34 32 34 35 34 32 32 34 34 32 31 28 25 28 27 27 27 -193 27 -193 30 34 28 34 30 29 32 33 31 -209 -209 -209 -209 42 46 44 44 42 43 41 43 -209 -209 29 29 30 30 29 29 27 35 31 34 38 34 36 34 34 34 32 33 32 28 31 27 30 27 31 30 29 29 29 30 30 34 39 33 33 35 36 35 36 35 34 29 37 39 46 43 46 48 55 52 52 52 52 50 52 53 53 51 56 57 58 59 61 60 60 61 61 65 65 65 65 65 64 67 59 60 60 57 58 57 57 58 57 60 61 60 68 67 71 72 72 72 71 70 67 62 60 65 60 59 60 59 59 58 58 58 55 55 55 51 47 51 51 52 53 51 51 50 50 51 49 51 52 46 52 51 55 53 -225 -225 53 51 -225 46 42 -225 -193 -193 -225 -225 -225 -225 -225 -225 -225 -225 -225 -225 -225 -225 -225 -225 -225 -225 -225 0 0 0 0 0
    0 0 0 0 0 0 0 0 0 0 0 0 0 0 0 0 0 0 0 0 0 0 0 0 0 0 0 0 0 0 0 0 0 0 0 0 0 0 0 0 0 0 0 0 0 0 0 0 0 0 0 0 0 0 0 0 0 0 0 0 0 0 0 0 0 0 0 0 0 33 35 35 34 -209 32 35 30 31 29 28 31 30 31 32 30 32 31 30 32 29 29 28 28 24 23 22 23 21 21 21 20 -193 26 34 35 -209 47 53 55 51 47 42 38 38 36 34 33 33 31 35 36 33 32 32 34 34 32 31 27 25 29 27 27 27 26 27 27 30 34 28 34 30 29 33 35 -193 -209 -209 -193 -209 -193 -193 42 41 38 38 39 41 -209 -209 -209 28 31 32 30 29 27 35 30 32 38 34 35 34 34 33 32 33 32 28 31 27 29 27 31 29 28 28 28 29 28 35 39 34 33 36 36 36 36 35 35 29 39 40 47 44 47 49 55 52 53 52 53 51 53 54 54 54 58 58 60 60 62 61 64 62 62 66 66 66 66 66 66 66 60 61 61 58 58 57 57 58 58 60 62 61 70 70 72 73 72 72 70 68 63 59 58 63 59 59 59 59 58 58 57 57 53 54 54 51 48 50 50 51 52 50 50 49 49 50 49 51 51 47 53 53 56 55 54 56 55 53 -225 -225 44 -193 -193 -193 -225 -225 -225 -225 -225 -225 -225 -225 -225 -225 -225 -225 -225 -225 -225 -225 -225 0 0 0 0 0
    0 0 0 0 0 0 0 0 0 0 0 0 0 0 0 0 0 0 0 0 0 0 0 0 0 0 0 0 0 0 0 0 0 0 0 0 0 0 0 0 0 0 0 0 0 0 0 0 0 0 0 0 0 0 0 0 0 0 0 0 0 0 0 0 0 0 0 0 0 33 34 35 34 34 32 35 30 32 29 29 32 30 31 32 30 32 31 30 31 29 29 28 28 24 23 23 23 22 21 21 20 16 26 31 32 -209 46 53 54 51 46 41 39 37 36 34 33 32 31 36 35 32 32 32 34 34 31 31 28 25 29 28 28 28 27 28 28 30 34 28 34 30 30 35 37 -209 -209 -209 -193 37 -193 38 38 -209 -193 35 37 40 -209 52 -209 -209 35 36 -193 -193 27 35 29 31 38 32 34 33 33 32 31 33 32 27 30 27 29 28 31 31 29 30 30 30 29 36 39 34 34 36 37 37 37 36 35 30 40 40 49 44 47 49 55 52 53 52 53 52 54 55 55 -209 59 59 62 64 68 67 69 66 67 70 69 69 68 67 67 67 63 63 62 58 57 57 56 57 57 59 61 61 69 69 71 72 70 70 68 65 -209 -193 57 59 58 58 58 57 57 57 56 56 53 53 53 51 49 51 51 52 52 50 51 50 50 51 50 51 52 48 54 54 57 56 56 58 57 55 56 -225 44 -209 -193 -193 -225 -225 -225 -225 -225 -225 -225 -225 -225 -225 -225 -225 -225 -225 -225 -225 -225 0 0 0 0 0
    0 0 0 0 0 0 0 0 0 0 0 0 0 0 0 0 0 0 0 0 0 0 0 0 0 0 0 0 0 0 0 0 0 0 0 0 0 0 0 0 0 0 0 0 0 0 0 0 0 0 0 0 0 0 0 0 0 0 0 0 0 0 0 0 0 0 0 0 0 33 34 36 35 35 32 35 31 33 30 29 32 31 31 32 30 32 30 29 31 29 29 29 29 25 24 24 24 23 21 21 21 16 26 28 27 -177 -193 52 54 50 43 39 39 37 35 33 32 31 31 36 35 32 32 33 34 34 31 30 28 26 30 28 29 28 27 29 29 30 34 27 34 30 30 35 -209 -209 -209 -209 -209 38 -193 38 37 -209 -209 -209 39 43 -209 53 -209 -209 35 -193 -193 -209 24 35 29 30 38 32 33 32 32 32 31 33 31 26 28 26 27 28 30 32 29 31 31 32 30 36 38 34 34 36 38 37 37 36 35 31 41 41 49 44 47 49 54 52 53 52 53 52 55 55 56 56 60 62 67 68 70 69 71 69 70 73 71 70 70 68 69 68 67 66 63 58 57 57 56 56 56 57 60 61 65 67 69 69 68 68 -193 -209 -209 50 54 56 56 55 56 55 55 55 54 54 52 52 53 53 51 51 52 53 53 51 52 51 50 52 52 52 53 51 55 55 57 57 58 60 58 57 59 -225 -193 -209 -209 -209 -225 -225 -225 -225 -225 -225 -225 -225 -225 -225 -225 -225 -225 -225 -225 -225 -225 0 0 0 0 0
    0 0 0 0 0 0 0 0 0 0 0 0 0 0 0 0 0 0 0 0 0 0 0 0 0 0 0 0 0 0 0 0 0 0 0 0 0 0 0 0 0 0 0 0 0 0 0 0 0 0 0 0 0 0 0 0 0 0 0 0 0 0 0 0 0 0 0 0 0 34 34 35 34 34 32 35 31 33 31 30 32 32 31 32 30 32 30 30 31 30 29 29 29 26 25 25 25 24 22 22 21 17 26 28 26 19 -193 53 56 51 43 39 40 37 35 33 33 31 32 36 34 32 32 33 34 34 31 30 29 27 31 29 29 29 28 30 30 30 34 27 33 29 29 33 -193 -209 -209 -209 -209 -209 -193 37 36 -209 -209 -209 -209 -209 -209 -209 -193 -209 -209 -209 -209 -209 23 35 29 31 38 32 33 33 33 33 31 33 32 25 26 26 26 28 29 31 29 31 31 32 30 37 38 35 34 36 38 37 37 37 35 32 41 42 51 45 48 50 54 53 53 53 54 53 55 56 59 59 63 66 70 70 72 72 73 71 72 74 72 72 71 70 70 69 68 68 64 58 57 56 -193 56 57 58 62 63 67 69 69 70 69 68 66 -209 -209 -209 48 48 46 46 50 52 54 55 54 55 55 54 54 55 53 53 53 54 54 52 53 52 52 53 52 53 53 51 55 55 56 56 58 59 59 58 61 -225 -225 -225 -209 -209 -225 -225 -225 -225 -209 -225 -225 -225 -225 -225 -225 -225 -225 -225 -225 -225 -225 0 0 0 0 0
    0 0 0 0 0 0 0 0 0 0 0 0 0 0 0 0 0 0 0 0 0 0 0 0 0 0 0 0 0 0 0 0 0 0 0 0 0 0 0 0 0 0 0 0 0 0 0 0 0 0 0 0 0 0 0 0 0 0 0 0 0 0 0 0 0 0 0 0 0 33 33 34 33 33 31 34 31 34 31 31 33 33 32 33 30 33 30 30 31 31 29 29 29 26 25 25 25 25 22 22 22 17 26 28 26 24 -193 51 54 49 41 40 41 38 35 34 34 33 35 36 34 32 33 33 34 34 31 30 29 28 31 29 30 30 29 30 31 30 33 27 32 28 28 31 33 -209 -209 -209 -209 39 37 34 -209 -209 -209 -209 -209 -209 -209 -209 -209 -209 -209 -209 -209 -209 23 36 30 33 39 33 33 33 33 33 32 33 32 25 25 26 26 28 28 29 29 30 31 32 30 37 38 35 35 37 38 37 37 37 35 33 41 43 52 -193 51 53 55 54 55 55 55 56 58 61 64 64 66 69 71 72 73 72 73 72 72 75 74 73 73 70 71 70 70 71 -209 67 -209 -209 -209 61 64 64 67 67 69 70 69 70 68 65 63 58 -209 46 44 43 41 41 41 47 54 55 55 57 59 57 58 59 57 57 57 57 57 54 55 54 53 54 53 54 54 52 55 55 56 56 58 59 58 57 -225 -225 -225 -225 -225 -225 -225 -225 -225 -209 -209 -209 -209 -225 -225 -225 -225 -225 -225 -225 -225 -225 -225 0 0 0 0 0
    0 0 0 0 0 0 0 0 0 0 0 0 0 0 0 0 0 0 0 0 0 0 0 0 0 0 0 0 0 0 0 0 0 0 0 0 0 0 0 0 0 0 0 0 0 0 0 0 0 0 0 0 0 0 0 0 0 0 0 0 0 0 0 0 0 0 0 0 0 32 31 32 32 32 31 34 31 34 31 32 34 34 32 33 31 33 30 30 31 31 28 29 29 26 25 25 25 25 22 23 22 18 25 28 26 24 -193 49 52 47 41 39 40 37 35 34 34 32 35 36 33 32 33 33 34 34 31 29 30 28 32 30 31 30 29 31 32 30 34 27 32 27 28 32 34 -193 -193 -209 36 38 36 31 -209 -209 -209 -209 -209 -209 -209 -209 -209 -193 -209 -209 -209 -209 -209 37 33 35 39 33 33 33 33 33 32 32 32 25 25 26 24 26 26 27 27 28 29 31 29 37 38 35 35 37 38 38 37 37 34 35 43 50 55 52 54 56 57 56 57 57 57 59 61 67 69 68 68 71 72 73 73 73 73 72 72 75 74 72 72 70 71 69 69 72 -209 -193 -209 -209 -209 71 71 71 70 70 71 70 68 69 65 62 60 57 50 48 44 43 40 40 40 46 56 57 56 58 64 60 60 62 61 59 59 59 58 55 57 57 55 55 55 56 56 56 58 56 56 56 57 58 57 56 57 -225 -225 -225 -225 -225 -225 -225 -225 -193 -193 -193 -209 -225 -225 -225 -225 -225 -225 -225 -225 -225 -225 0 0 0 0 0
    0 0 0 0 0 0 0 0 0 0 0 0 0 0 0 0 0 0 0 0 0 0 0 0 0 0 0 0 0 0 0 0 0 0 0 0 0 0 0 0 0 0 0 0 0 0 0 0 0 0 0 0 0 0 0 0 0 0 0 0 0 0 0 0 0 0 0 0 0 32 30 31 31 32 31 34 31 34 31 33 34 35 32 33 31 33 31 31 31 31 28 29 30 26 25 26 26 25 23 23 22 18 25 27 24 24 -193 50 -209 46 41 39 39 36 34 33 33 32 36 35 32 32 32 33 33 34 31 28 30 29 32 30 31 31 30 32 33 30 34 27 32 27 29 32 33 -193 -193 -209 36 37 36 30 -209 -209 -209 -209 -209 -209 -209 -209 -209 -209 -209 -209 -209 -209 -209 -193 35 35 39 33 33 34 33 33 32 32 32 25 26 27 23 25 25 26 26 26 27 28 28 37 38 34 34 36 37 37 37 36 35 37 45 55 57 55 57 58 59 59 60 60 60 62 66 69 71 70 70 72 73 73 74 73 74 73 73 75 72 71 71 68 69 67 64 69 -209 69 -209 72 71 70 71 71 70 70 71 70 68 69 65 62 60 57 49 48 44 42 40 40 40 47 57 59 59 60 66 64 63 64 64 61 60 60 60 57 58 58 57 57 56 57 57 57 59 58 56 56 58 59 57 57 56 -209 -209 -209 -209 50 43 46 -225 51 59 -193 -209 -225 -225 -225 -225 -225 -225 -225 -225 -225 -225 0 0 0 0 0
    0 0 0 0 0 0 0 0 0 0 0 0 0 0 0 0 0 0 0 0 0 0 0 0 0 0 0 0 0 0 0 0 0 0 0 0 0 0 0 0 0 0 0 0 0 0 0 0 0 0 0 0 0 0 0 0 0 0 0 0 0 0 0 0 0 0 0 0 0 31 30 31 32 33 32 35 33 36 32 35 36 37 32 33 31 33 31 31 31 32 28 30 30 27 26 26 26 26 23 23 23 20 25 28 25 26 -193 47 -209 41 -193 37 38 34 32 32 32 33 36 34 31 32 33 33 33 34 30 27 31 30 32 31 32 32 31 33 34 31 35 27 34 27 31 35 38 -209 -193 -209 -209 40 -209 -209 -209 -209 -209 -209 -209 -209 -209 -209 -209 -209 -209 -209 -209 -209 -209 -209 36 36 39 33 33 34 33 33 31 32 32 26 28 28 24 25 26 26 26 26 27 29 29 38 38 34 34 36 38 37 36 36 36 38 48 57 60 59 59 60 62 64 63 64 66 67 69 71 73 72 71 74 73 74 75 74 75 74 72 74 72 72 72 69 70 66 62 -209 -193 -209 -193 -209 -209 70 71 71 71 71 71 71 68 68 65 61 58 57 53 52 50 46 42 42 42 51 58 62 60 61 67 66 65 66 66 64 63 63 63 59 59 60 59 57 57 58 58 58 60 59 57 57 59 61 59 58 56 61 61 62 64 58 54 57 57 60 61 -209 -209 -225 -225 -225 -225 -225 -225 -225 -225 -225 -225 0 0 0 0 0
    0 0 0 0 0 0 0 0 0 0 0 0 0 0 0 0 0 0 0 0 0 0 0 0 0 0 0 0 0 0 0 0 0 0 0 0 0 0 0 0 0 0 0 0 0 0 0 0 0 0 0 0 0 0 0 0 0 0 0 0 0 0 0 0 0 0 0 0 0 31 29 30 32 33 34 37 36 38 34 37 38 38 33 32 32 32 31 32 31 33 28 30 31 28 27 27 26 26 23 24 23 22 26 27 26 30 40 -193 -209 -193 -193 37 36 32 31 31 32 33 35 34 31 32 32 32 32 34 30 27 31 30 32 31 32 32 31 33 35 31 36 28 36 28 35 38 40 42 44 46 44 43 45 -209 -209 -209 -209 -209 -209 -209 -209 -209 -209 -209 -209 48 52 -193 -209 -209 -193 36 39 33 33 34 33 33 31 32 33 26 29 31 26 -209 -209 -193 28 27 32 39 40 41 40 36 37 38 39 39 38 38 38 41 51 57 60 60 61 62 65 67 66 68 70 70 72 73 74 74 73 75 74 74 75 74 76 75 74 75 73 74 75 69 70 -209 -209 99 -193 -209 -193 -209 -209 69 71 71 70 69 68 68 64 64 61 58 57 56 53 52 47 45 42 45 48 55 64 67 64 65 69 68 67 66 67 65 64 64 64 61 61 62 60 58 58 59 60 60 62 61 59 59 61 63 59 58 56 66 66 67 69 66 63 63 68 67 -209 -209 -225 -225 -225 -225 -225 -225 -225 -225 -225 -225 -225 0 0 0 0 0
    0 0 0 0 0 0 0 0 0 0 0 0 0 0 0 0 0 0 0 0 0 0 0 0 0 0 0 0 0 0 0 0 0 0 0 0 0 0 0 0 0 0 0 0 0 0 0 0 0 0 0 0 0 0 0 0 0 0 0 0 0 0 0 0 0 0 0 0 0 31 29 30 33 35 37 38 38 39 36 38 38 39 32 32 32 32 30 32 31 33 28 31 32 29 29 28 27 26 24 24 24 23 25 25 25 28 32 35 30 37 39 38 36 32 30 31 32 34 35 33 31 31 32 32 32 33 29 26 31 29 32 31 32 32 31 33 35 31 36 28 37 27 36 39 42 44 46 47 46 44 47 -209 -209 -209 -209 -209 -209 -209 -209 -209 -209 -193 55 51 53 47 -193 -193 -209 37 39 33 33 34 33 33 32 33 33 26 30 31 26 -209 -209 -209 29 27 36 43 43 45 45 39 39 40 40 41 39 39 39 43 53 58 61 61 62 63 67 68 68 70 72 73 74 74 75 75 75 76 74 74 75 74 77 79 78 79 75 77 85 -209 99 108 110 106 -193 -209 107 -209 -209 -193 71 71 70 69 67 68 65 65 61 60 58 57 -193 53 48 46 45 49 52 56 64 68 67 68 70 69 68 68 68 67 66 65 65 62 62 63 62 60 60 61 63 62 63 62 60 60 61 63 59 58 56 67 69 69 70 69 70 69 71 71 -209 -225 -225 -225 -225 -225 -225 -225 -225 -225 -225 -225 -225 0 0 0 0 0
    0 0 0 0 0 0 0 0 0 0 0 0 0 0 0 0 0 0 0 0 0 0 0 0 0 0 0 0 0 0 0 0 0 0 0 0 0 0 0 0 0 0 0 0 0 0 0 0 0 0 0 0 0 0 0 0 0 0 0 0 0 0 0 0 0 0 0 0 0 32 30 31 35 37 39 39 40 40 37 39 39 39 32 32 32 32 30 33 32 33 28 33 34 31 31 29 28 27 25 25 25 24 25 25 25 28 29 32 32 36 39 38 36 33 31 32 32 35 36 33 31 32 32 32 33 33 28 26 31 29 31 31 32 31 30 33 35 30 35 28 36 26 36 39 42 47 49 50 49 46 50 -209 -209 -209 -209 -209 -209 -209 -209 -209 -209 -193 56 54 56 51 54 -209 -209 39 40 34 33 35 34 33 32 33 33 27 32 32 26 24 27 -209 28 25 35 44 44 47 49 40 40 41 42 43 41 41 41 47 55 59 63 64 64 65 68 69 69 71 73 73 74 74 75 75 75 76 74 75 75 74 76 78 76 77 -209 43 46 42 42 40 46 -209 45 -209 -209 -209 -209 -209 73 -209 -193 70 69 69 66 -193 63 62 61 59 -193 -209 -193 -177 -193 166 -209 -209 -209 -209 68 69 71 70 70 69 69 68 67 67 67 64 64 64 63 61 62 63 66 64 64 63 61 65 67 70 66 62 60 69 70 69 68 67 67 68 71 71 -193 -225 -225 -225 -225 -225 -225 -225 -225 -225 -225 -225 -225 0 0 0 0 0
    0 0 0 0 0 0 0 0 0 0 0 0 0 0 0 0 0 0 0 0 0 0 0 0 0 0 0 0 0 0 0 0 0 0 0 0 0 0 0 0 0 0 0 0 0 0 0 0 0 0 0 0 0 0 0 0 0 0 0 0 0 0 0 0 0 0 0 0 0 32 30 30 35 38 39 40 41 41 38 39 39 40 32 32 32 32 30 32 32 33 27 33 34 33 33 30 28 28 26 26 26 26 26 27 27 30 30 32 30 34 38 38 35 33 32 32 33 37 36 32 32 32 32 33 33 34 28 25 31 29 31 30 31 30 29 32 34 30 35 28 34 27 36 39 42 47 51 53 53 -193 -209 -209 -209 -209 -209 -209 -209 -209 -209 -209 -209 -193 56 56 57 55 57 -209 65 39 40 34 34 35 34 33 32 33 33 28 34 33 27 25 28 -209 -209 -193 35 45 44 49 52 41 41 42 42 44 42 43 43 50 56 60 64 66 66 67 69 70 70 72 73 73 74 74 74 74 74 75 73 73 74 73 74 74 73 -209 38 38 38 37 36 38 39 38 45 62 -209 76 77 -209 -193 -193 -193 73 -193 73 -193 -209 -193 65 66 -209 -209 -209 163 167 -177 -193 -209 -209 -209 -209 -209 71 72 71 71 70 70 69 69 68 68 66 66 66 66 63 63 65 67 66 66 65 64 69 71 72 70 68 66 69 70 69 68 66 67 67 70 71 70 -225 -225 -225 -225 -225 -225 -225 -225 -225 -225 -225 -225 0 0 0 0 0
    0 0 0 0 0 0 0 0 0 0 0 0 0 0 0 0 0 0 0 0 0 0 0 0 0 0 0 0 0 0 0 0 0 0 0 0 0 0 0 0 0 0 0 0 0 0 0 0 0 0 0 0 0 0 0 0 0 0 0 0 0 0 0 0 0 0 0 0 0 31 30 30 35 38 39 41 42 42 39 40 40 40 31 31 31 31 29 32 32 32 26 32 33 33 33 30 28 27 25 26 26 26 26 27 27 29 28 30 28 31 35 36 34 33 32 33 35 37 36 32 32 33 32 33 33 33 27 25 30 28 30 30 31 30 29 31 34 29 34 28 33 28 36 39 43 48 51 -193 -209 -193 -209 -209 -209 -209 -209 -209 -209 -209 -209 -209 -209 -209 -193 57 57 56 59 -209 -193 39 40 34 34 35 34 34 33 33 34 28 35 35 28 26 -209 -209 -209 -193 36 46 45 51 54 44 43 44 44 47 45 47 46 52 57 61 66 67 68 68 70 71 71 73 73 73 74 73 73 72 72 73 71 71 72 72 73 70 68 -193 38 39 39 37 37 39 40 40 49 62 71 73 75 -209 -209 -193 -209 -193 -193 74 -209 -209 -209 66 69 -209 -209 -209 161 168 -193 -209 -209 -209 -193 -193 -209 73 73 72 71 71 71 70 69 69 69 68 68 68 67 65 67 68 68 68 67 67 66 71 73 71 69 67 66 69 70 69 68 67 69 70 71 72 73 -225 -225 -225 -225 -225 -225 -225 -225 -225 -225 -225 -225 0 0 0 0 0
    0 0 0 0 0 0 0 0 0 0 0 0 0 0 0 0 0 0 0 0 0 0 0 0 0 0 0 0 0 0 0 0 0 0 0 0 0 0 0 0 0 0 0 0 0 0 0 0 0 0 0 0 0 0 0 0 0 0 0 0 0 0 0 0 0 0 0 0 0 31 30 30 35 38 39 41 42 43 39 40 40 40 31 31 31 31 28 31 31 31 26 31 33 36 37 35 32 31 29 28 28 28 26 26 26 27 26 27 26 28 32 34 31 31 31 32 35 36 35 32 32 32 31 32 33 32 26 25 29 28 30 30 30 29 -193 31 34 29 33 29 33 30 38 40 44 51 54 53 -209 -193 -209 -209 -209 -209 -209 -209 -209 -209 -209 -209 -209 -209 -209 57 57 -209 59 -209 -193 38 39 34 34 35 34 34 33 34 34 29 36 36 29 32 -209 86 -193 -209 -193 52 48 53 55 50 45 46 47 51 48 51 50 54 58 62 66 66 68 69 71 72 72 73 74 74 74 72 72 71 71 72 70 70 71 71 73 71 70 -209 39 40 39 38 39 40 43 45 56 64 69 70 -193 -193 -209 -193 -193 -193 -193 75 80 84 -209 -209 -193 76 -209 -209 -209 -193 -209 -209 -209 -209 -193 -193 -209 73 73 72 72 71 71 70 70 70 70 70 71 71 70 68 70 70 70 69 68 66 66 71 73 71 69 67 66 69 70 69 68 67 69 70 72 73 74 -225 -225 -225 -225 -225 -225 -225 -225 -225 -225 -225 -225 0 0 0 0 0
    0 0 0 0 0 0 0 0 0 0 0 0 0 0 0 0 0 0 0 0 0 0 0 0 0 0 0 0 0 0 0 0 0 0 0 0 0 0 0 0 0 0 0 0 0 0 0 0 0 0 0 0 0 0 0 0 0 0 0 0 0 0 0 0 0 0 0 0 0 31 31 31 35 38 40 41 42 43 40 41 41 40 30 30 30 30 28 30 30 30 26 31 35 38 38 38 36 34 32 30 29 28 27 26 26 27 26 27 26 28 32 32 30 31 30 30 35 36 34 32 32 32 31 32 33 32 26 25 29 29 30 31 30 29 -193 31 34 29 31 29 32 31 38 41 45 52 54 52 -193 -193 -209 -209 -209 -209 -209 -209 -209 -209 -209 -209 -209 -209 -193 -193 57 -209 -193 -209 -209 37 39 34 33 35 33 34 32 34 34 29 37 37 -177 -193 -209 84 91 -209 -209 -193 50 54 56 55 48 51 51 53 52 55 53 55 58 61 65 66 68 69 70 71 71 73 74 74 73 71 71 70 70 70 68 69 70 69 73 70 70 -209 39 39 39 38 40 40 44 -193 59 67 71 72 72 72 73 75 75 75 74 75 -209 81 -209 -209 75 78 -209 -209 -209 -209 -209 -209 -209 -209 -209 -209 -193 75 74 75 74 73 73 72 72 72 72 72 73 73 73 71 72 71 71 70 68 67 65 71 72 69 69 68 68 69 70 70 69 68 69 71 72 73 74 -225 -225 -225 -225 -225 -225 -225 -225 -225 -225 -225 -225 0 0 0 0 0
    0 0 0 0 0 0 0 0 0 0 0 0 0 0 0 0 0 0 0 0 0 0 0 0 0 0 0 0 0 0 0 0 0 0 0 0 0 0 0 0 0 0 0 0 0 0 0 0 0 0 0 0 0 0 0 0 0 0 0 0 0 0 0 0 0 0 0 0 0 31 30 30 34 38 39 41 42 43 40 41 41 40 29 29 29 29 27 29 29 28 26 31 35 38 38 37 36 35 33 31 30 29 27 27 27 27 26 26 25 26 30 30 28 29 28 29 34 35 33 31 32 32 31 33 33 31 27 26 30 30 31 31 30 28 -193 31 33 28 28 29 31 31 38 41 45 50 51 47 43 42 -193 -193 -193 -193 30 30 34 -193 -209 -193 -193 -193 -193 -193 52 -209 -209 -209 -193 35 38 33 32 34 33 33 31 33 33 29 37 37 34 43 61 81 89 -209 -209 -193 52 55 57 56 53 54 54 55 55 57 56 56 58 61 64 65 67 69 71 72 72 74 74 74 74 72 71 70 71 71 69 70 71 70 73 71 71 -209 38 39 38 38 40 41 43 54 62 69 72 74 73 72 73 73 73 73 73 74 -209 -209 -209 -209 73 78 -209 -209 -209 -209 -209 -209 -209 -209 -209 -209 -193 77 76 76 76 74 74 74 75 73 73 74 75 75 76 75 75 73 73 72 69 67 68 70 70 68 68 68 69 70 71 70 69 68 69 71 71 73 73 -225 -225 -225 -225 -225 -225 -225 -225 -225 -225 -225 -225 0 0 0 0 0
    0 0 0 0 0 0 0 0 0 0 0 0 0 0 0 0 0 0 0 0 0 0 0 0 0 0 0 0 0 0 0 0 0 0 0 0 0 0 0 0 0 0 0 0 0 0 0 0 0 0 0 0 0 0 0 0 0 0 0 0 0 0 0 0 0 0 0 0 0 31 30 30 34 37 39 39 41 41 38 40 40 39 29 28 29 28 27 28 28 28 25 28 31 35 37 36 35 33 31 31 30 29 28 27 27 27 27 27 25 26 30 29 28 28 28 29 34 35 33 32 33 33 33 34 34 32 27 27 30 30 31 31 30 28 -193 30 32 27 26 27 29 30 38 -193 44 48 47 42 37 39 35 30 33 31 31 30 32 -193 -193 -193 -193 -209 -193 -193 46 37 34 37 35 34 37 32 31 33 31 32 30 31 32 28 36 38 33 -193 68 79 88 80 76 -193 54 56 59 59 57 56 56 57 57 58 57 56 59 61 63 63 65 68 70 71 72 73 73 73 74 72 71 70 71 71 70 70 71 70 73 72 72 -209 39 39 39 39 40 42 -193 -193 68 69 72 73 73 73 73 73 73 72 73 73 -209 -209 -209 -209 -209 78 77 -209 -209 -209 -209 -209 -209 -209 -209 -209 -193 77 76 76 76 75 75 75 76 74 74 75 76 76 77 76 76 74 74 73 70 67 69 71 70 67 67 67 68 70 71 70 68 68 69 70 70 72 73 -225 -225 -225 -225 -225 -225 -225 -225 -225 -225 -225 -225 0 0 0 0 0
    0 0 0 0 0 0 0 0 0 0 0 0 0 0 0 0 0 0 0 0 0 0 0 0 0 0 0 0 0 0 0 0 0 0 0 0 0 0 0 0 0 0 0 0 0 0 0 0 0 0 0 0 0 0 0 0 0 0 0 0 0 0 0 0 0 0 0 0 0 31 30 29 32 36 37 36 39 39 38 38 38 38 30 28 28 28 27 27 27 28 26 29 30 34 35 34 35 34 32 31 33 30 29 28 28 28 27 27 27 27 31 29 28 28 28 30 33 34 33 31 33 33 33 34 33 31 28 27 30 30 30 30 29 27 -193 30 32 27 26 27 27 29 37 -209 44 -209 43 38 32 36 32 30 32 31 32 29 31 -193 -193 -193 -209 -209 -209 -209 -209 35 32 36 35 34 36 32 30 32 30 31 29 30 31 27 34 37 -177 -209 68 77 85 82 81 83 76 71 71 -225 -225 -225 58 62 62 60 59 57 61 65 65 66 68 68 70 72 72 73 72 72 71 70 69 69 70 70 70 70 71 71 72 73 73 -193 38 39 38 39 40 43 -193 60 69 70 72 73 73 72 73 73 73 72 73 72 -209 -209 -209 -209 -209 -209 -209 -209 -209 -209 -209 -209 -209 -209 -193 -193 80 78 77 77 77 76 76 76 77 75 75 76 77 77 77 76 75 73 72 70 62 61 66 69 68 65 66 67 68 69 70 69 67 66 68 68 69 70 70 69 -225 -225 -225 -225 -225 -225 -225 -225 -225 -225 -225 0 0 0 0 0
    0 0 0 0 0 0 0 0 0 0 0 0 0 0 0 0 0 0 0 0 0 0 0 0 0 0 0 0 0 0 0 0 0 0 0 0 0 0 0 0 0 0 0 0 0 0 0 0 0 0 0 0 0 0 0 0 0 0 0 0 0 0 0 0 0 0 0 0 0 32 30 29 31 36 37 37 40 39 37 37 37 37 30 28 28 28 27 26 27 27 27 29 29 32 33 33 35 34 33 33 36 34 31 31 29 28 28 28 27 28 32 29 29 29 30 31 33 33 33 31 34 33 33 33 33 31 28 27 29 30 30 30 29 27 27 30 33 28 25 26 26 28 36 -209 -209 -209 39 33 30 33 30 29 31 31 32 29 30 34 -193 -193 -209 -209 -209 -209 -209 34 32 37 35 35 36 32 -193 33 -193 31 28 29 30 27 35 39 34 -177 64 75 83 82 84 86 -225 -225 -225 -225 -225 -225 -225 -209 72 69 65 61 64 68 66 66 67 68 69 71 72 71 69 70 70 70 68 69 70 69 70 71 72 72 72 73 -193 -193 38 39 38 39 40 45 -193 63 70 70 73 74 73 73 73 73 73 73 73 72 -209 -209 -209 -209 65 -209 -209 69 73 -209 -209 -193 -193 79 -193 78 80 79 78 79 78 77 77 76 78 76 76 76 75 76 75 74 74 71 69 65 60 59 64 67 67 65 66 67 68 69 70 69 67 66 66 66 66 67 67 67 -225 -225 -225 -225 -225 -225 -225 -225 -225 -225 -225 0 0 0 0 0</data></disparity>
</opencv_storage>
