<?xml version="1.0"?>
<opencv_storage>
<gps_time_stamp>314923</gps_time_stamp>
<gps_x>-1.2409615516662598e+001</gps_x>
<gps_y>1.0951264381408691e+001</gps_y>
<gps_z>-1.9980289936065674e+000</gps_z>
<image_time_stamp>305757</image_time_stamp>
<disparity type_id="opencv-matrix">
  <rows>88</rows>
  <cols>320</cols>
  <dt>s</dt>
  <data>
    0 0 0 0 0 0 0 0 0 0 0 0 0 0 0 0 0 0 0 0 0 0 0 0 0 0 0 0 0 0 0 0 0 0 0 0 0 0 0 0 0 0 0 0 0 0 0 0 0 0 0 0 0 0 0 0 0 0 0 0 0 0 0 0 0 0 0 0 0 48 44 43 44 43 43 43 42 42 41 40 39 39 40 41 40 41 41 41 41 41 41 41 38 38 39 35 35 35 34 34 33 32 32 28 26 25 23 19 14 11 0 9 9 9 0 9 0 0 0 0 0 0 0 0 0 0 10 10 0 9 0 9 9 0 0 0 0 0 0 0 0 0 0 0 9 0 9 10 11 11 11 11 11 11 11 10 9 11 11 11 12 12 12 12 12 14 11 12 11 11 10 12 11 13 14 14 15 20 22 23 27 27 29 34 32 33 35 35 37 36 40 44 42 45 45 45 46 49 51 52 49 56 59 63 61 61 66 70 69 71 492 -193 -177 79 78 80 77 79 80 82 80 81 79 80 81 82 83 83 -177 -193 -209 -193 -193 -193 94 96 94 91 91 91 95 -193 -177 -177 -177 115 121 123 124 124 125 125 125 126 125 123 124 124 125 124 124 134 138 139 141 147 -193 151 -193 151 151 149 152 152 -193 642 157 157 156 156 157 158 158 156 157 154 153 162 -193 -193 167 -193 170 173 175 176 176 174 181 180 177 178 -193 -193 -177 -193 -209 -193 195 200 204 202 202 203 200 0 0 0 0 0
    0 0 0 0 0 0 0 0 0 0 0 0 0 0 0 0 0 0 0 0 0 0 0 0 0 0 0 0 0 0 0 0 0 0 0 0 0 0 0 0 0 0 0 0 0 0 0 0 0 0 0 0 0 0 0 0 0 0 0 0 0 0 0 0 0 0 0 0 0 48 45 43 45 45 45 44 43 42 42 41 40 39 40 41 41 41 41 41 41 41 41 41 37 38 39 35 35 35 34 34 33 32 32 29 27 26 23 21 15 11 9 9 10 9 9 9 0 0 0 0 0 0 0 0 0 0 9 9 0 0 0 0 0 0 0 0 0 0 0 0 0 0 0 9 10 9 10 10 11 11 11 11 10 10 11 9 9 11 11 11 12 12 12 12 12 14 11 13 12 11 11 12 11 13 13 14 15 20 22 23 28 27 29 34 32 32 35 34 37 35 39 43 42 44 45 45 46 49 51 52 49 56 59 63 62 62 66 69 68 71 492 -209 -177 -193 76 79 76 78 -193 82 80 80 79 80 81 83 -193 83 -193 -193 -209 -193 -193 -193 94 97 94 91 91 90 -177 -193 -177 -177 -177 114 121 123 124 124 125 125 125 127 126 124 125 125 126 125 124 135 138 138 140 146 -193 149 149 150 150 147 150 151 646 642 156 157 155 155 157 158 158 155 156 153 152 161 -177 -193 -193 -193 170 173 175 176 176 174 180 179 175 -193 -193 -193 -193 -193 -209 -209 190 -193 204 -193 202 -193 200 0 0 0 0 0
    0 0 0 0 0 0 0 0 0 0 0 0 0 0 0 0 0 0 0 0 0 0 0 0 0 0 0 0 0 0 0 0 0 0 0 0 0 0 0 0 0 0 0 0 0 0 0 0 0 0 0 0 0 0 0 0 0 0 0 0 0 0 0 0 0 0 0 0 0 48 45 43 45 46 45 44 44 43 43 43 42 40 40 42 42 42 42 41 41 41 41 41 37 37 39 35 34 35 34 33 34 32 33 29 28 26 24 22 16 11 9 9 10 10 9 10 0 0 0 9 0 0 0 0 0 0 0 0 0 0 0 0 0 0 0 0 0 0 0 0 0 0 9 10 10 9 10 10 11 11 11 10 10 10 11 10 9 12 11 11 12 12 12 12 12 15 12 13 12 11 12 13 12 13 12 13 14 20 23 24 29 28 30 34 32 32 34 33 36 34 39 42 42 44 45 45 46 49 52 53 49 57 60 63 62 62 65 69 67 70 -177 -193 -177 -193 -193 78 75 77 -193 81 79 80 79 80 80 83 -177 -193 -193 -193 -209 -193 -193 -193 95 97 -193 91 90 90 -177 -193 -177 -177 -177 113 121 123 124 124 125 125 125 127 126 124 125 126 126 125 124 134 138 138 140 145 150 148 148 149 150 146 149 150 645 -193 -193 156 -193 154 156 158 157 154 155 152 151 160 851 -193 -193 -193 171 174 175 176 176 174 180 179 176 -193 -193 -193 -193 -209 -209 -209 -193 -193 201 -193 201 -193 199 0 0 0 0 0
    0 0 0 0 0 0 0 0 0 0 0 0 0 0 0 0 0 0 0 0 0 0 0 0 0 0 0 0 0 0 0 0 0 0 0 0 0 0 0 0 0 0 0 0 0 0 0 0 0 0 0 0 0 0 0 0 0 0 0 0 0 0 0 0 0 0 0 0 0 48 45 44 45 45 44 44 44 43 44 44 43 42 41 44 42 43 43 42 42 41 42 42 37 37 38 35 34 34 33 33 34 32 32 29 28 26 24 23 17 11 10 10 11 10 10 11 9 0 9 11 0 9 0 0 0 0 0 0 0 0 0 0 0 0 0 0 0 0 9 0 0 0 9 10 10 9 10 11 11 12 11 11 10 10 10 9 9 12 11 11 12 12 12 13 13 15 12 14 13 11 12 13 12 13 12 13 13 19 24 24 30 29 30 34 32 32 34 33 35 33 38 41 -193 44 45 45 45 49 52 53 50 57 60 63 62 62 65 68 66 68 -193 69 -193 -177 -193 -193 74 77 -177 81 78 79 78 79 80 84 -177 -193 -193 -193 -193 -193 -193 -193 95 98 -193 91 91 91 93 -193 -177 -177 -193 112 120 122 123 123 124 125 125 126 126 124 125 126 126 125 124 134 138 138 140 145 150 147 147 148 149 145 148 150 -177 -193 -193 155 -193 -193 156 157 157 154 154 151 150 160 849 -193 -209 -193 171 174 175 176 177 175 180 180 178 -193 -193 91 98 -209 -193 -193 -193 -193 -209 -193 201 -193 198 0 0 0 0 0
    0 0 0 0 0 0 0 0 0 0 0 0 0 0 0 0 0 0 0 0 0 0 0 0 0 0 0 0 0 0 0 0 0 0 0 0 0 0 0 0 0 0 0 0 0 0 0 0 0 0 0 0 0 0 0 0 0 0 0 0 0 0 0 0 0 0 0 0 0 48 45 44 45 45 44 44 44 44 44 44 44 42 42 45 43 44 43 43 43 42 43 43 38 38 38 35 34 34 33 33 35 32 32 28 27 26 24 23 18 11 11 10 11 10 11 11 10 9 10 12 9 9 9 0 0 0 9 9 0 0 0 0 9 9 0 0 0 9 9 0 0 9 10 10 11 9 10 11 11 12 11 11 10 10 10 9 9 12 11 11 12 12 12 13 12 15 12 13 13 11 12 12 12 13 11 12 13 19 24 24 30 29 30 34 32 32 34 33 35 33 38 41 -193 44 45 45 45 49 52 53 50 57 60 63 62 62 64 68 65 67 -193 67 -193 -177 -193 -193 74 76 -177 80 78 78 78 79 79 84 -177 -177 -193 -193 -193 -193 -193 -193 -193 99 -193 92 91 91 93 -193 -177 -193 -193 111 120 122 122 122 123 125 125 126 126 123 125 126 126 126 123 134 -193 138 140 144 149 146 146 147 149 144 147 149 -177 -193 -193 155 -177 -193 156 157 157 153 154 149 149 160 846 -193 -209 -193 171 175 175 177 177 175 180 180 179 -193 89 90 -193 172 172 -193 -193 -193 -193 197 200 200 198 0 0 0 0 0
    0 0 0 0 0 0 0 0 0 0 0 0 0 0 0 0 0 0 0 0 0 0 0 0 0 0 0 0 0 0 0 0 0 0 0 0 0 0 0 0 0 0 0 0 0 0 0 0 0 0 0 0 0 0 0 0 0 0 0 0 0 0 0 0 0 0 0 0 0 49 45 44 45 45 44 44 44 44 43 44 45 43 43 46 44 45 44 44 44 43 43 43 38 38 38 35 34 34 33 32 35 32 32 28 27 26 24 24 18 11 10 10 10 10 10 12 11 10 11 13 11 10 10 9 0 9 10 10 0 0 9 9 10 10 10 9 10 11 11 9 9 10 11 10 11 10 11 11 11 12 11 11 10 10 10 10 9 12 11 11 12 12 12 12 12 14 12 13 12 11 12 12 12 13 11 12 12 19 24 24 30 29 30 34 32 32 34 33 35 33 38 41 41 44 45 45 45 49 52 53 49 57 60 63 61 61 63 67 64 66 -193 66 -193 -177 -193 -193 -193 75 -177 79 77 77 -193 79 79 84 -177 -177 -193 -193 -193 -193 -193 -193 -193 100 -193 92 91 91 92 92 -177 -209 -209 109 119 121 121 121 122 124 124 125 125 123 124 125 126 126 123 133 137 137 139 143 148 145 145 146 -193 144 146 148 -193 -193 -193 -193 277 153 156 157 157 152 153 147 149 -193 844 -209 -209 -193 172 175 175 177 178 176 180 180 179 -193 -193 -193 -193 172 172 176 182 186 -193 196 199 199 197 0 0 0 0 0
    0 0 0 0 0 0 0 0 0 0 0 0 0 0 0 0 0 0 0 0 0 0 0 0 0 0 0 0 0 0 0 0 0 0 0 0 0 0 0 0 0 0 0 0 0 0 0 0 0 0 0 0 0 0 0 0 0 0 0 0 0 0 0 0 0 0 0 0 0 49 45 44 45 45 44 44 44 45 44 44 46 44 44 47 45 46 45 44 45 43 45 44 39 38 38 35 34 35 33 33 34 32 31 28 27 26 23 24 -193 11 10 10 9 9 10 11 10 10 11 15 13 12 11 10 9 11 11 11 0 9 9 10 10 11 10 10 10 11 11 10 10 10 11 11 11 10 11 11 11 12 11 10 10 9 10 10 9 12 11 11 12 12 12 12 12 13 12 12 12 11 12 12 12 12 11 11 12 19 24 24 30 29 30 34 32 32 34 33 35 33 38 41 41 43 45 45 44 49 52 54 49 58 61 63 61 61 62 67 63 65 -193 65 -193 -177 70 -177 -209 75 -177 78 76 -193 -193 78 78 83 653 -177 -193 -193 -193 -193 -193 -193 -193 100 -193 91 90 90 91 91 -177 -193 95 107 117 119 119 119 120 124 124 125 126 123 125 126 126 127 123 133 136 137 139 142 148 144 144 144 -193 143 145 148 -193 -193 -177 -193 277 -193 155 157 157 150 151 146 149 -193 843 -209 -193 -193 172 175 175 176 178 176 181 181 179 -193 -193 -193 -193 172 171 175 181 186 -193 -193 199 200 198 0 0 0 0 0
    0 0 0 0 0 0 0 0 0 0 0 0 0 0 0 0 0 0 0 0 0 0 0 0 0 0 0 0 0 0 0 0 0 0 0 0 0 0 0 0 0 0 0 0 0 0 0 0 0 0 0 0 0 0 0 0 0 0 0 0 0 0 0 0 0 0 0 0 0 50 45 45 46 45 44 44 44 45 43 44 46 44 44 48 46 46 45 45 45 44 45 45 39 39 38 35 34 35 33 33 34 31 31 28 27 27 23 -193 -193 11 10 10 9 10 11 11 11 11 13 17 15 13 12 11 11 12 12 12 10 10 10 10 11 11 11 10 10 11 11 11 11 11 11 11 12 11 11 11 11 11 11 11 11 10 11 10 10 12 11 11 12 12 12 12 12 13 12 12 12 11 12 11 12 12 11 11 12 19 24 24 30 29 30 34 32 32 34 33 35 33 38 41 41 43 45 45 44 48 52 54 49 58 61 63 61 61 62 66 62 64 -193 64 65 -177 69 -177 -193 74 -177 78 -193 -193 -177 78 78 83 -177 -193 -193 -193 -209 -193 -193 -193 95 -193 244 90 89 89 90 89 -177 88 91 105 115 117 117 117 119 124 124 126 126 124 126 127 127 128 123 133 135 136 139 141 148 143 143 144 147 143 145 147 150 -193 -193 -193 -177 -193 155 157 157 148 149 145 148 -193 -209 -209 -193 -177 172 174 174 176 178 176 181 181 180 -193 -193 -193 -193 172 171 175 179 185 -193 -193 198 200 198 0 0 0 0 0
    0 0 0 0 0 0 0 0 0 0 0 0 0 0 0 0 0 0 0 0 0 0 0 0 0 0 0 0 0 0 0 0 0 0 0 0 0 0 0 0 0 0 0 0 0 0 0 0 0 0 0 0 0 0 0 0 0 0 0 0 0 0 0 0 0 0 0 0 0 51 46 46 46 45 44 44 44 46 43 44 47 45 45 49 46 47 45 46 46 44 45 45 39 38 37 35 34 35 33 33 33 31 31 29 28 28 25 25 -193 13 11 11 11 11 12 12 12 12 14 17 16 15 14 13 12 14 13 14 12 12 11 11 12 13 12 12 11 12 11 11 11 11 12 11 12 11 11 11 11 11 11 10 11 10 11 10 10 12 11 11 11 11 11 11 11 12 12 12 12 12 12 11 12 12 11 11 11 17 23 24 29 28 29 34 32 32 34 33 35 32 38 40 40 43 44 44 44 48 52 54 49 58 61 62 61 61 61 66 62 64 -193 63 64 -177 68 -193 -193 74 -177 77 75 -193 -177 78 78 83 -177 -193 -193 -193 -209 -193 -193 -193 95 -193 244 89 88 88 89 89 -177 -193 88 104 114 116 116 116 118 124 124 125 126 125 126 127 128 128 124 132 134 135 139 141 148 143 143 144 147 143 144 147 149 148 -193 -177 -177 -193 154 156 156 145 146 -193 -193 -209 -209 -177 -193 -177 172 174 174 176 178 176 181 181 180 -177 -177 -193 95 172 171 174 178 185 -193 -193 197 200 198 0 0 0 0 0
    0 0 0 0 0 0 0 0 0 0 0 0 0 0 0 0 0 0 0 0 0 0 0 0 0 0 0 0 0 0 0 0 0 0 0 0 0 0 0 0 0 0 0 0 0 0 0 0 0 0 0 0 0 0 0 0 0 0 0 0 0 0 0 0 0 0 0 0 0 51 45 45 46 45 44 44 44 46 43 44 48 45 46 50 47 47 46 46 46 44 46 45 39 38 37 35 34 35 33 33 32 31 31 29 28 29 26 27 25 19 14 15 14 14 15 13 13 13 15 18 18 15 15 13 13 15 14 15 14 14 14 13 14 14 13 13 12 12 11 11 11 11 12 11 11 10 11 11 10 11 11 10 11 11 11 11 10 12 11 11 11 11 11 11 11 12 11 11 11 11 12 11 11 12 11 11 11 16 22 23 29 28 28 33 31 32 33 33 34 32 38 41 41 43 45 45 43 48 52 53 49 58 61 62 61 61 61 66 62 63 64 63 64 -177 68 -193 -193 74 -177 77 75 -193 -177 78 77 82 -193 -193 81 84 -209 -193 -193 -193 94 -193 244 89 87 87 87 -193 -177 -193 88 104 113 115 115 115 118 122 123 125 126 124 126 127 128 128 124 132 134 134 139 141 148 143 143 144 147 143 144 147 149 147 152 -193 -177 -193 154 155 155 142 143 -209 -193 -209 -209 -177 -177 -177 -193 175 174 176 178 176 181 182 181 -177 90 88 94 -193 170 173 177 -177 -193 -193 197 200 198 0 0 0 0 0
    0 0 0 0 0 0 0 0 0 0 0 0 0 0 0 0 0 0 0 0 0 0 0 0 0 0 0 0 0 0 0 0 0 0 0 0 0 0 0 0 0 0 0 0 0 0 0 0 0 0 0 0 0 0 0 0 0 0 0 0 0 0 0 0 0 0 0 0 0 51 45 45 45 44 43 44 44 46 43 44 48 46 46 50 47 48 46 47 47 44 46 45 39 39 37 35 34 35 33 33 32 31 31 29 28 29 27 28 26 24 22 20 18 17 18 15 15 14 16 18 19 16 17 15 15 16 16 17 15 15 15 14 15 14 14 13 13 12 11 11 11 11 11 10 11 10 10 11 11 11 11 11 11 12 11 12 11 12 11 11 11 11 11 11 11 11 11 11 11 11 11 10 11 11 11 11 11 16 22 23 28 28 28 32 31 31 33 34 34 33 38 41 41 43 45 45 43 47 52 53 49 58 61 62 60 60 61 66 62 63 64 63 64 -193 68 -193 70 73 -177 77 74 -193 -177 77 77 82 -193 -193 80 84 -209 -193 -193 -193 94 -193 243 89 87 87 87 -193 -177 -193 87 103 112 114 114 114 117 122 123 125 126 124 126 127 127 127 123 131 133 133 138 140 148 143 143 143 147 143 144 146 149 147 152 -193 -177 -193 154 156 156 143 -193 -209 -193 -209 -209 -177 -177 -177 -193 175 174 175 178 177 181 182 181 -177 90 88 93 -193 169 172 -177 -177 -193 -193 197 200 -193 0 0 0 0 0
    0 0 0 0 0 0 0 0 0 0 0 0 0 0 0 0 0 0 0 0 0 0 0 0 0 0 0 0 0 0 0 0 0 0 0 0 0 0 0 0 0 0 0 0 0 0 0 0 0 0 0 0 0 0 0 0 0 0 0 0 0 0 0 0 0 0 0 0 0 51 45 45 45 44 43 43 43 46 42 43 47 45 46 50 47 48 46 47 47 44 47 46 39 39 37 35 34 35 33 34 31 31 32 30 29 30 27 28 26 26 26 23 21 19 19 15 15 14 17 18 20 18 19 18 18 18 18 18 17 15 16 14 15 14 13 14 13 12 11 11 11 10 11 10 10 9 10 11 11 12 11 12 11 13 12 12 11 12 11 11 10 11 10 11 10 10 11 11 10 10 10 10 10 11 11 11 11 16 22 24 29 28 28 32 31 31 33 34 34 32 38 41 41 43 45 45 43 47 52 53 49 58 61 62 60 60 61 66 62 63 64 63 64 -193 68 -193 69 73 -177 76 74 -193 -177 77 77 81 82 -193 80 85 -209 -193 -193 -193 96 -193 -177 90 88 88 87 -193 -177 -193 87 103 112 114 114 114 117 122 123 125 126 124 125 127 127 127 123 131 132 132 138 139 147 142 142 143 -193 143 144 146 149 147 152 -177 277 280 155 -193 157 -209 -193 -209 -193 -209 -209 -193 -177 -177 -193 174 -193 175 178 176 181 182 181 91 90 88 93 -193 168 172 -193 -193 -193 -193 197 200 -193 0 0 0 0 0
    0 0 0 0 0 0 0 0 0 0 0 0 0 0 0 0 0 0 0 0 0 0 0 0 0 0 0 0 0 0 0 0 0 0 0 0 0 0 0 0 0 0 0 0 0 0 0 0 0 0 0 0 0 0 0 0 0 0 0 0 0 0 0 0 0 0 0 0 0 51 45 45 45 44 43 43 43 46 42 43 47 45 46 50 47 48 46 47 48 44 47 46 39 39 37 35 33 36 33 34 31 31 32 30 29 30 28 29 27 27 26 25 22 20 19 15 14 15 17 18 20 19 20 19 19 19 18 18 17 16 16 13 14 13 12 14 13 12 11 11 11 11 11 11 10 9 10 10 11 11 10 11 10 14 12 13 12 12 12 12 11 11 10 11 10 10 10 11 10 10 10 10 10 10 11 12 12 17 23 25 30 28 29 32 31 31 33 34 33 32 38 40 40 43 44 44 43 46 52 53 48 58 62 62 60 60 61 67 62 63 64 63 63 -193 67 -193 69 73 -177 75 -193 -193 -177 77 76 81 82 -193 80 -193 -209 -193 94 97 97 98 -177 91 89 88 87 -193 -177 -193 87 103 111 114 114 114 117 122 123 125 125 124 125 126 126 127 123 130 131 132 138 139 147 143 143 143 147 143 144 146 149 147 -193 -177 -177 -177 -193 -209 -193 -209 -193 -209 -193 -209 -209 -193 -177 -177 -193 174 -193 174 177 175 180 182 181 -193 -193 87 94 -209 167 172 -209 -193 -193 -193 198 200 199 0 0 0 0 0
    0 0 0 0 0 0 0 0 0 0 0 0 0 0 0 0 0 0 0 0 0 0 0 0 0 0 0 0 0 0 0 0 0 0 0 0 0 0 0 0 0 0 0 0 0 0 0 0 0 0 0 0 0 0 0 0 0 0 0 0 0 0 0 0 0 0 0 0 0 51 45 45 45 44 43 43 43 46 42 43 48 45 46 49 47 47 45 47 47 44 46 46 39 39 37 35 33 36 33 34 31 32 32 31 30 31 28 30 28 27 27 25 23 21 20 15 14 15 19 19 21 19 21 19 20 19 18 18 17 15 16 13 14 12 13 14 14 13 12 12 12 12 12 11 10 10 10 11 11 11 10 10 10 14 12 13 12 12 12 12 11 12 11 11 10 10 10 11 10 11 10 10 11 11 11 13 13 17 23 25 30 28 29 32 31 31 33 34 33 32 38 41 41 43 45 45 44 46 52 53 48 58 62 62 61 61 62 68 62 63 63 63 63 -193 67 -193 -193 73 -193 76 74 -193 -177 77 76 81 82 -193 -209 -193 -209 -193 95 98 98 98 -193 92 90 89 87 -193 -177 -177 87 103 111 114 114 114 117 122 123 125 126 124 125 126 126 127 123 130 132 133 138 140 148 143 143 143 147 143 144 146 149 147 -209 -177 -177 -193 -193 -193 -193 -209 -193 -209 144 -209 -209 -193 -193 -177 -177 -193 -193 173 175 174 179 182 180 -193 -193 -193 95 -209 -193 -209 -209 -193 -193 -209 198 201 199 0 0 0 0 0
    0 0 0 0 0 0 0 0 0 0 0 0 0 0 0 0 0 0 0 0 0 0 0 0 0 0 0 0 0 0 0 0 0 0 0 0 0 0 0 0 0 0 0 0 0 0 0 0 0 0 0 0 0 0 0 0 0 0 0 0 0 0 0 0 0 0 0 0 0 52 45 45 45 44 43 43 44 46 42 43 48 45 46 49 46 47 45 46 46 44 45 45 39 39 37 35 34 36 33 34 31 32 33 31 31 31 29 31 28 28 28 26 -193 23 21 16 14 15 19 19 21 19 20 19 19 18 18 17 16 14 15 12 12 11 12 12 13 12 12 12 13 13 13 12 11 11 11 11 12 12 11 11 10 14 11 13 12 12 12 12 11 12 11 12 10 10 11 11 10 10 10 10 10 11 11 13 13 18 23 26 30 28 29 32 31 31 33 34 33 33 38 41 41 43 45 45 44 46 51 53 48 59 63 63 61 61 62 68 63 63 63 63 63 -193 67 -193 -193 73 -193 76 74 -193 -177 76 76 81 82 -193 -209 -193 -209 -193 96 99 99 99 -193 -193 90 89 88 -193 -177 -193 87 103 111 115 115 115 118 123 124 126 126 125 125 126 127 127 123 131 132 133 138 140 148 143 143 143 147 143 144 146 149 -193 -193 -193 -177 -193 157 159 160 -193 -193 -209 -193 -209 -209 -193 -193 -177 -177 -193 -177 172 173 172 178 181 179 -193 -193 -193 97 -193 -209 -209 -209 -193 196 -193 199 201 199 0 0 0 0 0
    0 0 0 0 0 0 0 0 0 0 0 0 0 0 0 0 0 0 0 0 0 0 0 0 0 0 0 0 0 0 0 0 0 0 0 0 0 0 0 0 0 0 0 0 0 0 0 0 0 0 0 0 0 0 0 0 0 0 0 0 0 0 0 0 0 0 0 0 0 52 46 45 45 44 43 43 44 46 41 42 48 45 45 48 46 46 45 45 46 43 44 44 39 38 37 35 33 36 32 34 31 32 33 31 31 31 29 31 28 29 28 -193 -193 23 22 16 15 15 17 19 20 19 20 19 19 18 18 17 16 14 14 11 11 11 11 11 12 11 12 11 12 13 13 12 12 12 12 12 13 13 12 12 11 14 12 13 12 13 12 12 11 12 11 12 11 11 11 11 10 10 11 11 10 11 11 14 14 17 22 25 29 28 28 32 30 30 33 35 33 33 38 41 41 43 45 45 44 46 51 52 48 59 64 65 62 62 63 69 64 63 64 63 63 -193 67 -193 -193 73 -193 77 75 -193 -177 -193 -193 -193 -193 -177 -209 -193 -193 -193 -193 99 99 98 -193 -193 90 89 88 -193 -177 -193 87 103 111 116 116 116 118 124 124 126 127 125 125 127 127 128 123 131 133 134 138 141 148 143 143 143 147 143 145 147 149 -193 -193 -193 -177 -193 157 159 160 156 155 -209 -193 154 -209 -193 -193 -193 -177 -177 -177 171 172 172 176 180 178 -193 -193 -193 100 -193 -209 -193 -209 -193 -193 200 200 201 200 0 0 0 0 0
    0 0 0 0 0 0 0 0 0 0 0 0 0 0 0 0 0 0 0 0 0 0 0 0 0 0 0 0 0 0 0 0 0 0 0 0 0 0 0 0 0 0 0 0 0 0 0 0 0 0 0 0 0 0 0 0 0 0 0 0 0 0 0 0 0 0 0 0 0 51 45 45 45 44 43 43 43 46 41 42 47 45 45 48 45 46 44 45 45 43 44 43 39 38 36 35 33 36 32 35 31 32 33 32 32 32 30 32 28 29 -193 -193 -193 24 22 17 14 15 16 19 20 19 20 19 19 18 18 16 16 14 13 11 11 10 10 10 11 10 11 11 12 13 13 12 12 12 12 12 13 13 12 13 12 14 12 14 12 13 13 12 11 12 11 12 11 10 10 11 10 10 10 11 10 10 11 14 14 17 22 25 29 28 28 32 30 30 33 35 33 33 38 41 41 43 45 45 44 46 50 52 48 58 64 65 62 62 64 70 64 64 64 64 63 -193 67 -193 -193 73 75 77 -193 -193 -177 -193 -193 -193 -177 -177 -193 -193 -193 -193 -193 99 99 98 -193 -193 91 89 89 -193 -177 -193 88 103 111 117 117 117 119 125 125 126 127 125 125 127 127 127 123 131 133 133 138 140 148 143 143 143 147 143 144 147 149 -193 -193 -193 -177 -177 157 159 160 156 155 -193 -209 154 -209 -193 162 -193 -193 -177 -177 -193 171 171 175 179 177 -193 -193 -193 -209 -209 -209 103 -193 -193 -193 201 201 201 200 0 0 0 0 0
    0 0 0 0 0 0 0 0 0 0 0 0 0 0 0 0 0 0 0 0 0 0 0 0 0 0 0 0 0 0 0 0 0 0 0 0 0 0 0 0 0 0 0 0 0 0 0 0 0 0 0 0 0 0 0 0 0 0 0 0 0 0 0 0 0 0 0 0 0 51 45 45 45 44 43 43 43 46 41 42 47 45 45 47 45 46 44 45 45 43 44 43 39 38 36 35 33 36 32 35 32 32 33 32 32 32 30 32 28 29 -193 -193 -193 23 22 15 13 14 15 17 20 18 19 19 19 18 17 15 15 13 12 11 10 10 10 9 10 10 10 11 11 12 12 12 12 12 12 12 13 12 12 13 13 15 13 15 13 14 14 13 12 11 11 11 10 10 10 10 10 9 10 10 10 10 11 15 15 18 22 26 29 28 29 32 31 31 33 35 33 33 38 41 41 44 45 45 44 46 50 51 47 58 63 64 62 62 64 70 65 64 64 64 64 -193 67 -193 -193 73 75 77 -193 -193 -177 -193 -193 -193 -177 -177 -193 -193 -193 -193 -209 98 99 96 -193 -193 91 89 89 -193 -177 -193 88 103 111 118 118 118 119 126 125 127 128 126 125 126 126 127 122 129 132 132 138 139 148 143 142 143 147 143 144 147 149 -193 -193 -193 -209 -177 158 160 161 157 156 -193 -193 154 -193 160 161 -193 -193 -177 -177 -193 170 170 174 178 176 174 180 -209 -209 -209 -209 102 -193 -193 -209 203 203 202 201 0 0 0 0 0
    0 0 0 0 0 0 0 0 0 0 0 0 0 0 0 0 0 0 0 0 0 0 0 0 0 0 0 0 0 0 0 0 0 0 0 0 0 0 0 0 0 0 0 0 0 0 0 0 0 0 0 0 0 0 0 0 0 0 0 0 0 0 0 0 0 0 0 0 0 51 45 45 45 43 42 43 43 46 41 42 47 44 45 47 45 46 44 45 45 42 43 43 38 38 36 35 33 36 32 34 31 32 33 32 32 32 30 32 28 29 -193 -193 -193 22 21 15 13 14 15 17 19 18 18 18 18 17 17 14 14 12 12 11 10 9 10 9 9 9 10 10 11 12 12 12 12 13 12 12 13 13 12 14 14 15 13 16 14 15 15 13 12 12 11 11 11 10 10 10 10 9 10 10 10 10 10 15 15 18 21 -193 30 28 29 32 31 31 33 35 33 33 38 41 41 44 45 45 45 46 50 51 46 58 62 61 61 61 63 70 65 64 64 64 64 -193 67 -193 -193 73 -193 77 -193 -193 -177 -193 -193 -193 -177 -177 -193 -193 -193 -209 -209 98 99 96 -193 -193 93 90 90 -193 -177 -193 90 103 111 118 118 118 119 126 125 127 128 126 125 126 126 127 122 129 133 134 138 140 148 143 143 143 147 144 144 147 149 -193 -209 -177 -209 -193 158 160 161 157 157 -193 156 154 166 160 160 163 -193 -177 -177 -193 169 169 173 176 176 174 181 -209 190 192 196 -193 -193 198 -209 204 204 203 203 0 0 0 0 0
    0 0 0 0 0 0 0 0 0 0 0 0 0 0 0 0 0 0 0 0 0 0 0 0 0 0 0 0 0 0 0 0 0 0 0 0 0 0 0 0 0 0 0 0 0 0 0 0 0 0 0 0 0 0 0 0 0 0 0 0 0 0 0 0 0 0 0 0 0 51 45 45 45 43 42 43 43 46 41 42 47 44 45 47 45 45 44 44 45 42 43 42 38 37 36 35 33 36 32 34 31 32 33 32 32 32 30 32 28 29 -193 -193 -193 21 19 13 13 13 14 15 17 17 17 17 17 16 16 14 14 12 12 11 10 10 10 10 10 9 10 10 11 12 12 12 12 13 13 12 13 13 13 15 15 16 14 17 15 15 16 14 13 12 11 12 11 11 10 10 10 10 10 11 10 10 10 14 15 17 21 -193 30 29 29 33 31 31 34 35 34 34 39 42 41 44 46 46 45 46 49 50 45 57 60 59 59 -193 63 71 65 64 64 64 64 -193 67 -193 0 73 -193 78 76 -193 -177 546 -177 -193 -177 -193 -193 -193 -193 -209 -209 97 99 96 -193 -193 94 91 91 91 -177 92 94 104 112 119 119 119 120 127 126 127 128 126 125 126 127 127 122 130 134 136 139 141 148 144 144 144 147 144 144 147 150 -193 -209 -177 -193 -193 157 159 160 157 157 157 156 154 166 160 160 162 -193 -177 -177 -193 168 169 172 176 176 175 182 -193 192 195 197 -193 -193 198 -193 204 204 203 203 0 0 0 0 0
    0 0 0 0 0 0 0 0 0 0 0 0 0 0 0 0 0 0 0 0 0 0 0 0 0 0 0 0 0 0 0 0 0 0 0 0 0 0 0 0 0 0 0 0 0 0 0 0 0 0 0 0 0 0 0 0 0 0 0 0 0 0 0 0 0 0 0 0 0 52 45 45 45 43 42 42 43 45 41 42 47 44 45 46 44 45 44 44 45 42 42 42 38 37 36 35 32 35 32 34 31 32 33 32 32 32 30 32 28 28 -193 -193 -193 19 18 13 13 13 14 17 18 18 17 18 16 15 15 14 13 12 11 11 10 10 10 9 9 9 10 10 10 12 12 11 12 13 13 12 13 14 14 16 17 17 16 18 16 16 16 14 13 13 12 12 12 11 11 11 10 10 10 11 10 10 10 14 15 16 20 24 29 28 29 32 31 31 33 35 34 35 39 42 42 44 46 46 46 45 48 49 44 57 60 58 -193 -193 62 71 66 65 64 64 65 -193 67 -193 0 73 75 78 77 -193 -177 546 -177 -193 -177 -193 -193 -193 -193 -209 -209 -193 -193 95 -193 96 94 92 91 92 -193 94 98 105 113 120 120 120 120 127 126 127 129 127 125 126 127 128 123 130 135 138 140 142 149 145 145 145 148 145 144 147 150 -193 -193 -193 -193 -193 157 158 159 157 157 158 157 154 166 160 160 162 -193 -177 -177 -193 168 169 172 175 176 175 183 -193 193 195 196 198 198 197 199 203 204 203 203 0 0 0 0 0
    0 0 0 0 0 0 0 0 0 0 0 0 0 0 0 0 0 0 0 0 0 0 0 0 0 0 0 0 0 0 0 0 0 0 0 0 0 0 0 0 0 0 0 0 0 0 0 0 0 0 0 0 0 0 0 0 0 0 0 0 0 0 0 0 0 0 0 0 0 51 45 44 44 43 42 42 42 45 40 42 47 44 45 46 44 45 44 44 44 42 42 41 38 37 36 35 32 35 32 34 31 32 33 31 32 32 29 32 27 27 26 23 21 19 18 15 15 14 15 19 21 21 18 19 16 15 15 13 12 11 11 11 10 10 10 9 9 9 9 9 10 11 11 11 11 13 12 12 14 15 15 17 17 17 16 18 17 16 17 15 13 14 13 13 13 12 12 11 10 10 10 11 10 10 10 13 14 14 19 -193 -193 28 28 32 31 31 33 35 34 35 39 42 42 45 47 47 46 45 48 49 44 57 60 -193 -193 -193 62 72 66 65 -193 65 65 -193 68 -193 0 74 76 79 77 -193 -177 547 -193 -177 -177 -193 -193 -193 -193 -209 -209 -209 -193 94 -193 96 95 92 91 93 98 94 101 105 113 120 120 120 120 127 126 127 129 127 125 127 127 128 123 131 135 138 140 142 148 146 146 146 148 145 145 148 150 -193 152 -209 -193 -193 157 158 158 157 157 158 157 154 166 160 160 163 -177 -177 -177 -193 168 169 172 175 177 176 183 -193 193 194 196 197 198 197 199 202 203 203 204 0 0 0 0 0
    0 0 0 0 0 0 0 0 0 0 0 0 0 0 0 0 0 0 0 0 0 0 0 0 0 0 0 0 0 0 0 0 0 0 0 0 0 0 0 0 0 0 0 0 0 0 0 0 0 0 0 0 0 0 0 0 0 0 0 0 0 0 0 0 0 0 0 0 0 51 45 44 44 42 41 42 42 44 40 41 47 44 45 46 44 45 44 44 44 41 42 41 38 37 36 35 32 35 32 34 31 32 33 31 32 31 29 31 27 27 25 23 20 19 18 15 16 15 16 21 23 23 19 20 16 14 14 13 11 11 11 11 10 10 9 9 0 0 9 9 9 10 10 10 11 13 12 12 15 16 16 18 18 18 17 19 18 16 17 16 14 14 13 13 13 12 12 11 11 11 10 11 10 10 10 12 13 13 17 20 -193 27 28 32 31 31 32 35 34 35 39 43 42 44 46 47 47 45 48 49 44 57 60 -193 -209 -209 63 72 67 66 65 66 66 -193 68 -193 -193 74 75 78 77 77 -177 -193 -193 -193 -177 -209 -193 -193 -209 -209 -209 -193 -193 94 94 96 95 93 92 94 99 95 103 106 114 120 120 120 120 127 126 127 128 127 125 126 127 127 123 130 134 137 139 140 148 146 146 146 149 146 146 148 150 149 151 -209 156 155 157 157 158 157 156 158 157 154 166 161 161 163 -177 -177 -177 -193 169 169 172 176 177 177 184 -193 193 194 195 196 197 197 199 202 203 203 204 0 0 0 0 0
    0 0 0 0 0 0 0 0 0 0 0 0 0 0 0 0 0 0 0 0 0 0 0 0 0 0 0 0 0 0 0 0 0 0 0 0 0 0 0 0 0 0 0 0 0 0 0 0 0 0 0 0 0 0 0 0 0 0 0 0 0 0 0 0 0 0 0 0 0 51 45 44 44 42 41 41 41 44 39 41 46 44 45 46 45 45 44 45 45 41 42 41 38 36 35 34 32 35 32 34 31 32 33 32 32 32 29 31 26 27 25 22 20 18 18 15 17 18 19 23 26 27 22 22 19 16 14 13 11 11 11 11 10 10 9 9 9 9 0 0 9 10 10 11 11 13 12 12 16 16 16 19 18 17 18 19 18 16 17 15 14 14 13 13 13 12 12 11 11 11 10 12 11 10 10 12 12 12 14 18 -193 27 27 31 31 31 33 35 35 36 39 43 43 45 47 47 47 45 48 48 44 54 52 -193 61 -209 67 72 68 68 67 68 67 69 69 -209 -193 74 75 78 77 77 -193 78 -193 -193 -193 -177 -209 -209 -193 -209 -209 -193 97 93 93 96 95 93 92 95 100 96 105 106 114 120 120 120 120 127 125 126 127 126 124 125 126 126 122 128 134 137 138 139 147 147 147 147 149 146 146 149 150 150 151 -209 156 155 157 158 158 157 156 158 -193 153 166 161 161 164 -177 -177 -177 -193 170 170 172 176 177 178 184 -193 192 193 194 196 197 196 198 202 203 203 204 0 0 0 0 0
    0 0 0 0 0 0 0 0 0 0 0 0 0 0 0 0 0 0 0 0 0 0 0 0 0 0 0 0 0 0 0 0 0 0 0 0 0 0 0 0 0 0 0 0 0 0 0 0 0 0 0 0 0 0 0 0 0 0 0 0 0 0 0 0 0 0 0 0 0 51 44 44 44 41 41 41 41 44 39 41 47 45 46 47 45 45 44 45 45 41 42 40 37 35 35 34 32 35 32 34 31 32 33 32 32 32 29 32 27 27 26 23 21 19 19 17 19 22 23 25 34 33 26 25 23 19 14 12 10 10 10 10 9 9 9 9 9 9 9 10 10 11 12 12 13 14 13 13 16 16 17 18 18 17 18 19 18 16 17 16 14 14 13 13 13 12 12 11 11 11 10 12 11 11 10 12 11 12 13 18 -193 26 27 30 31 31 32 35 35 36 39 43 43 46 47 48 47 46 48 48 44 52 50 56 60 64 68 72 69 69 68 69 69 70 69 -193 -193 74 76 78 77 77 77 78 75 -193 -177 -177 -209 -209 -209 -209 -209 93 97 93 94 96 96 94 94 97 101 97 105 107 115 120 120 120 120 126 125 125 126 125 123 124 125 125 121 126 133 137 138 139 147 148 148 148 150 147 146 149 151 150 151 154 156 155 157 158 158 158 156 158 -193 152 166 162 -193 -193 -177 -177 -193 170 170 171 173 176 178 178 184 -193 191 192 193 195 196 196 198 201 203 203 204 0 0 0 0 0
    0 0 0 0 0 0 0 0 0 0 0 0 0 0 0 0 0 0 0 0 0 0 0 0 0 0 0 0 0 0 0 0 0 0 0 0 0 0 0 0 0 0 0 0 0 0 0 0 0 0 0 0 0 0 0 0 0 0 0 0 0 0 0 0 0 0 0 0 0 51 45 44 44 41 41 41 41 44 40 41 47 45 46 47 45 45 44 45 45 41 41 40 38 36 35 35 33 35 33 34 32 32 34 33 33 32 29 32 28 28 27 25 23 21 21 20 22 24 27 29 36 34 31 29 26 23 16 13 9 10 10 10 9 9 9 10 10 10 11 11 12 13 14 15 15 16 16 14 18 18 18 18 17 17 17 18 18 16 17 16 14 14 13 13 13 12 12 12 11 12 10 12 11 11 11 12 11 12 13 18 22 26 28 30 31 31 32 35 35 36 39 43 43 45 47 48 47 47 49 49 45 52 50 56 58 62 64 71 68 68 68 69 69 70 70 73 73 75 76 79 78 77 78 78 75 86 -193 -193 -209 -209 -193 -209 -209 94 98 93 94 97 96 95 94 98 101 98 106 108 116 120 120 120 120 125 124 124 125 124 122 123 124 124 -193 125 133 137 138 139 147 149 149 150 151 148 147 150 151 152 151 154 157 155 157 158 159 158 156 159 -193 152 -193 -209 -193 -209 -193 -193 -193 171 171 172 173 177 178 178 183 -193 189 190 191 192 194 195 197 200 202 202 203 0 0 0 0 0
    0 0 0 0 0 0 0 0 0 0 0 0 0 0 0 0 0 0 0 0 0 0 0 0 0 0 0 0 0 0 0 0 0 0 0 0 0 0 0 0 0 0 0 0 0 0 0 0 0 0 0 0 0 0 0 0 0 0 0 0 0 0 0 0 0 0 0 0 0 51 45 44 44 42 41 41 41 44 40 42 47 45 46 47 45 45 44 45 45 42 42 40 38 37 36 35 34 35 34 35 32 33 34 33 33 33 30 32 29 29 28 27 25 24 24 23 24 27 32 33 37 35 34 32 29 27 21 16 9 10 9 9 9 9 9 10 11 11 12 12 13 13 15 17 17 19 19 17 20 20 19 18 18 17 16 16 18 15 16 16 14 15 13 13 13 12 12 12 11 12 11 11 11 11 11 11 10 11 12 19 23 27 28 30 32 31 32 35 36 36 39 43 43 45 47 48 48 47 49 49 46 52 50 55 58 61 64 71 69 69 69 70 70 70 70 73 73 75 76 78 77 77 79 78 75 87 -193 -209 -209 -209 -209 -193 -209 94 99 94 95 97 97 96 95 99 102 100 106 109 116 120 120 120 120 124 123 123 124 124 122 123 123 124 -193 125 133 137 138 139 147 150 151 151 151 148 149 152 152 -193 152 156 158 156 158 159 159 159 156 159 -193 -193 166 -209 -193 -193 -209 -193 173 171 172 173 173 178 179 178 183 184 187 188 189 190 192 193 196 199 200 201 201 0 0 0 0 0
    0 0 0 0 0 0 0 0 0 0 0 0 0 0 0 0 0 0 0 0 0 0 0 0 0 0 0 0 0 0 0 0 0 0 0 0 0 0 0 0 0 0 0 0 0 0 0 0 0 0 0 0 0 0 0 0 0 0 0 0 0 0 0 0 0 0 0 0 0 51 45 44 44 42 41 42 42 43 40 41 47 45 46 47 45 45 44 45 45 42 42 41 39 38 37 36 35 36 35 35 32 33 34 33 32 34 30 32 30 31 29 29 28 28 27 26 30 33 37 36 38 36 37 36 34 32 25 19 0 9 9 9 9 9 9 10 11 12 13 14 14 14 17 18 18 20 20 17 20 20 19 17 17 16 16 15 18 15 16 16 14 15 14 13 13 12 12 13 11 12 11 11 11 11 11 11 10 11 11 19 22 26 28 30 32 31 32 35 36 36 39 43 43 46 47 48 48 47 49 49 46 51 49 54 57 59 62 70 69 69 70 71 70 70 71 73 73 75 76 78 77 77 79 78 75 89 96 -209 -209 -193 -193 150 -209 94 99 94 95 97 96 96 95 99 102 100 106 110 116 120 120 120 120 123 123 123 124 123 121 122 122 123 -193 125 133 137 138 139 147 -193 152 152 152 149 150 153 154 157 153 159 159 157 159 159 160 159 156 159 -193 153 165 -193 -193 -193 -209 171 173 172 173 174 174 178 179 178 182 183 186 187 187 188 190 191 194 197 198 199 200 0 0 0 0 0
    0 0 0 0 0 0 0 0 0 0 0 0 0 0 0 0 0 0 0 0 0 0 0 0 0 0 0 0 0 0 0 0 0 0 0 0 0 0 0 0 0 0 0 0 0 0 0 0 0 0 0 0 0 0 0 0 0 0 0 0 0 0 0 0 0 0 0 0 0 51 45 44 44 42 41 42 42 43 40 42 47 45 46 47 45 45 44 45 45 42 42 42 39 38 37 37 36 36 36 35 33 35 35 34 33 34 32 34 34 35 33 35 36 36 35 35 38 38 39 37 38 37 37 37 36 35 29 25 0 9 9 9 9 9 9 11 11 12 15 17 17 18 20 21 21 21 22 20 21 20 20 18 18 16 17 14 17 15 16 16 15 14 14 12 13 12 12 13 12 12 11 12 12 12 11 12 10 12 10 20 22 26 28 29 31 30 32 35 36 36 38 43 43 45 46 48 47 47 49 49 46 51 49 54 56 58 60 69 69 69 70 71 71 71 71 74 74 75 76 78 78 77 80 78 73 89 -193 -193 -193 -193 -193 149 -193 94 100 94 95 96 95 95 94 98 102 100 106 109 116 120 120 120 120 123 123 123 124 123 121 122 122 122 -193 124 133 136 137 139 147 153 153 153 153 150 152 155 156 160 154 160 160 158 160 160 160 160 157 159 -193 -193 -193 -177 -209 -193 -193 171 173 172 173 175 174 178 179 178 182 182 186 186 187 187 189 190 193 196 196 198 199 0 0 0 0 0
    0 0 0 0 0 0 0 0 0 0 0 0 0 0 0 0 0 0 0 0 0 0 0 0 0 0 0 0 0 0 0 0 0 0 0 0 0 0 0 0 0 0 0 0 0 0 0 0 0 0 0 0 0 0 0 0 0 0 0 0 0 0 0 0 0 0 0 0 0 50 45 44 44 43 42 42 42 43 40 42 46 45 46 46 45 45 44 44 45 42 42 42 39 38 37 37 37 36 36 36 33 36 37 36 34 36 34 35 36 36 36 38 38 38 38 38 40 39 41 38 39 37 38 37 36 36 32 28 -209 10 9 0 9 9 9 11 12 14 17 20 20 21 22 22 23 23 22 20 21 20 19 18 18 15 16 14 17 15 16 16 15 14 14 12 12 11 11 12 11 12 11 12 12 12 12 13 11 12 11 21 23 27 28 29 32 31 33 35 36 36 38 42 43 45 46 47 47 47 48 49 46 50 48 53 55 57 59 68 68 69 70 71 71 71 73 74 74 75 77 77 77 77 80 77 -193 90 99 -193 50 -193 -193 -193 -193 93 99 94 95 97 96 96 96 100 103 103 107 109 115 120 120 120 120 122 123 123 124 123 121 122 122 122 121 123 132 135 137 139 148 154 154 153 154 151 153 156 157 162 155 162 161 159 160 161 161 161 158 161 -193 -193 -193 -177 -177 -209 -193 171 173 172 173 175 174 178 179 178 182 -193 -193 -193 187 187 189 190 193 196 196 197 198 0 0 0 0 0
    0 0 0 0 0 0 0 0 0 0 0 0 0 0 0 0 0 0 0 0 0 0 0 0 0 0 0 0 0 0 0 0 0 0 0 0 0 0 0 0 0 0 0 0 0 0 0 0 0 0 0 0 0 0 0 0 0 0 0 0 0 0 0 0 0 0 0 0 0 50 45 44 44 43 42 42 42 43 40 41 45 44 45 46 44 45 44 44 44 42 42 42 39 38 37 37 37 37 37 36 33 37 38 38 36 36 36 37 38 38 38 39 40 40 40 40 41 41 44 39 40 37 38 37 36 37 34 30 -193 11 0 0 0 0 9 11 12 15 19 22 22 22 23 23 24 23 23 21 20 20 19 17 18 15 16 14 17 16 16 16 15 13 13 11 11 11 10 12 11 12 11 12 13 13 13 14 12 16 15 23 26 29 30 30 33 32 34 35 37 36 38 42 43 45 45 47 46 47 48 49 45 50 47 52 54 56 58 66 68 70 71 72 72 71 73 74 74 75 76 76 76 76 79 75 -193 90 99 -193 -193 -193 -193 -193 96 94 99 94 96 97 98 96 97 100 104 104 107 110 115 120 121 121 121 121 124 123 124 124 122 122 123 123 123 124 132 135 137 139 147 155 154 154 154 152 154 158 158 162 156 162 161 160 160 161 161 162 158 162 160 -193 -193 -177 16 -209 -209 170 -193 172 173 176 174 178 -193 178 -193 -177 -177 -193 187 187 189 190 193 195 195 197 198 0 0 0 0 0
    0 0 0 0 0 0 0 0 0 0 0 0 0 0 0 0 0 0 0 0 0 0 0 0 0 0 0 0 0 0 0 0 0 0 0 0 0 0 0 0 0 0 0 0 0 0 0 0 0 0 0 0 0 0 0 0 0 0 0 0 0 0 0 0 0 0 0 0 0 50 45 44 44 43 42 42 42 43 41 41 45 44 44 46 44 45 44 44 44 43 43 43 40 39 38 38 38 37 37 36 33 37 38 38 37 37 37 38 39 39 39 40 41 41 41 41 42 42 45 40 40 38 39 38 37 37 35 32 30 15 9 0 0 9 9 11 13 16 21 23 23 23 24 24 24 23 23 21 20 20 19 17 18 14 16 14 16 16 16 16 16 12 13 10 11 11 10 11 10 11 11 11 12 12 12 14 12 19 21 25 29 30 30 30 33 33 34 35 37 36 38 42 43 45 46 47 46 47 48 49 45 49 47 51 53 55 58 64 66 69 70 71 71 71 72 73 74 74 75 75 75 75 78 74 -193 -193 -193 -193 -193 -193 -193 -193 96 95 99 95 96 98 98 97 98 101 104 105 107 110 115 120 121 121 121 121 125 123 124 124 122 123 123 123 123 123 133 136 137 140 148 154 154 153 154 153 154 158 159 162 156 162 161 161 160 161 161 163 159 162 161 163 -193 17 15 -193 -209 170 -193 172 173 176 -193 178 -193 -193 -193 -177 -177 -177 -193 187 189 190 192 195 194 196 197 0 0 0 0 0
    0 0 0 0 0 0 0 0 0 0 0 0 0 0 0 0 0 0 0 0 0 0 0 0 0 0 0 0 0 0 0 0 0 0 0 0 0 0 0 0 0 0 0 0 0 0 0 0 0 0 0 0 0 0 0 0 0 0 0 0 0 0 0 0 0 0 0 0 0 49 44 43 43 43 42 42 42 43 41 41 44 43 43 46 44 45 44 44 44 43 43 44 41 41 39 39 38 38 37 36 32 36 37 37 35 36 36 37 39 39 39 40 41 41 41 41 43 44 45 40 40 38 39 38 37 37 35 33 32 25 11 0 9 9 9 13 14 17 21 23 23 23 23 23 23 23 22 20 20 20 19 16 18 15 16 14 16 15 16 16 17 12 14 11 11 11 10 11 10 11 11 11 11 11 11 14 13 23 27 28 31 32 31 31 33 33 33 34 36 35 37 42 42 45 45 46 46 47 49 49 45 50 47 50 51 55 58 61 64 67 69 70 70 70 71 71 73 73 73 73 73 73 75 74 -193 84 -193 -193 -193 -193 -193 -193 -193 -193 100 96 97 99 99 98 99 102 105 106 108 110 116 121 121 122 122 122 127 124 125 124 122 123 123 124 124 124 134 137 137 140 147 153 153 152 153 152 153 159 159 162 157 163 161 161 161 162 162 163 160 163 163 164 -193 -177 14 -193 -193 170 -193 171 173 177 174 179 -193 -193 -177 -177 -177 -177 -193 187 188 190 192 195 193 196 197 0 0 0 0 0
    0 0 0 0 0 0 0 0 0 0 0 0 0 0 0 0 0 0 0 0 0 0 0 0 0 0 0 0 0 0 0 0 0 0 0 0 0 0 0 0 0 0 0 0 0 0 0 0 0 0 0 0 0 0 0 0 0 0 0 0 0 0 0 0 0 0 0 0 0 48 44 43 43 43 42 42 42 42 40 41 42 42 42 45 43 44 43 43 44 43 43 44 41 41 40 40 39 38 38 36 32 36 37 37 34 36 37 38 40 40 42 44 44 45 45 44 46 46 46 42 41 39 39 39 37 37 36 34 34 27 22 11 11 11 10 14 14 18 21 23 23 23 23 23 23 22 22 20 20 20 19 17 19 15 17 15 17 16 17 17 18 13 17 11 12 12 11 11 10 10 11 11 12 12 11 13 13 24 30 30 34 34 32 32 33 33 34 34 36 35 37 41 42 44 45 47 47 47 49 50 46 51 47 48 49 53 57 60 61 64 69 69 70 69 70 71 72 72 72 71 72 73 74 74 75 83 -193 -193 90 93 -193 -193 -193 -193 100 96 96 98 99 98 99 102 107 107 108 110 116 122 122 122 122 122 129 125 125 125 123 124 124 125 125 124 134 137 137 140 146 152 151 151 152 151 152 158 158 162 157 162 161 162 161 162 162 164 161 164 -193 165 -193 -177 14 -193 15 -193 -193 171 173 177 174 179 181 -193 -193 -177 -177 -193 187 188 189 189 191 194 193 196 197 0 0 0 0 0
    0 0 0 0 0 0 0 0 0 0 0 0 0 0 0 0 0 0 0 0 0 0 0 0 0 0 0 0 0 0 0 0 0 0 0 0 0 0 0 0 0 0 0 0 0 0 0 0 0 0 0 0 0 0 0 0 0 0 0 0 0 0 0 0 0 0 0 0 0 47 44 43 44 43 43 41 41 41 39 40 40 41 40 44 43 44 44 43 44 44 43 45 42 42 41 40 40 39 39 37 31 34 33 34 31 37 41 40 44 43 47 47 47 47 48 45 47 47 47 44 43 41 41 40 39 38 38 37 37 30 26 19 14 12 11 15 15 19 21 22 23 23 23 22 22 22 22 21 21 20 19 19 20 17 18 16 17 17 18 17 19 14 18 11 12 13 11 11 11 10 10 11 12 12 10 12 15 24 31 30 32 34 31 32 32 33 34 34 36 35 37 42 43 45 46 47 48 48 49 50 45 51 47 46 47 53 58 59 61 64 69 69 69 69 70 70 71 72 71 70 71 71 74 73 -193 79 86 87 89 90 90 92 95 92 95 93 94 97 99 98 99 102 106 107 108 110 117 123 122 122 122 122 130 125 126 125 123 125 125 126 126 123 134 137 137 140 146 151 150 150 151 150 151 158 158 161 156 162 161 -193 161 162 163 165 -193 165 -193 -193 -193 -177 -177 -177 15 -193 -193 171 173 177 174 180 182 181 183 -177 -193 -193 187 188 189 190 192 195 194 196 197 0 0 0 0 0
    0 0 0 0 0 0 0 0 0 0 0 0 0 0 0 0 0 0 0 0 0 0 0 0 0 0 0 0 0 0 0 0 0 0 0 0 0 0 0 0 0 0 0 0 0 0 0 0 0 0 0 0 0 0 0 0 0 0 0 0 0 0 0 0 0 0 0 0 0 47 44 43 43 43 42 41 41 41 39 39 40 40 40 43 42 44 43 43 44 43 44 46 42 43 41 41 40 40 40 38 32 34 33 33 34 40 47 48 48 47 51 49 48 49 50 47 48 48 49 45 44 44 42 41 40 40 39 39 38 34 30 25 16 14 14 18 17 21 23 24 24 25 24 23 23 22 22 21 21 20 19 18 20 16 18 16 17 16 17 16 18 14 17 12 12 13 12 12 13 12 12 13 14 15 12 13 16 21 27 28 28 33 30 32 32 34 34 33 36 36 37 43 43 46 47 48 48 48 50 50 45 53 48 46 46 53 59 60 62 63 68 68 69 69 70 70 71 71 71 70 72 71 73 73 -193 78 86 87 89 89 91 92 95 93 95 94 94 95 97 98 99 102 106 106 108 109 116 124 122 122 122 122 130 126 126 126 123 125 126 127 127 124 134 137 137 140 145 150 149 149 149 -193 150 157 156 160 -193 162 161 98 161 162 -193 -193 -193 165 -193 -193 -193 -177 -177 -177 15 -193 -193 171 173 177 174 180 182 181 183 -177 -193 187 188 188 -193 190 192 195 194 196 197 0 0 0 0 0
    0 0 0 0 0 0 0 0 0 0 0 0 0 0 0 0 0 0 0 0 0 0 0 0 0 0 0 0 0 0 0 0 0 0 0 0 0 0 0 0 0 0 0 0 0 0 0 0 0 0 0 0 0 0 0 0 0 0 0 0 0 0 0 0 0 0 0 0 0 46 43 42 43 42 41 40 40 40 39 39 40 40 39 43 41 43 43 43 43 43 43 47 43 44 42 41 41 41 41 40 34 36 36 38 39 43 48 51 49 49 51 50 49 50 50 47 48 49 50 46 46 45 42 41 40 39 39 39 38 33 31 28 20 18 17 18 19 22 23 23 23 24 23 23 23 22 23 22 22 21 20 20 21 17 19 17 17 16 17 16 18 14 17 12 13 15 13 14 15 13 14 15 16 16 13 14 15 20 25 26 26 30 30 32 32 34 34 33 36 36 37 42 43 46 47 49 49 50 51 51 47 54 50 46 47 54 61 61 62 63 68 68 68 68 69 70 71 71 71 70 73 73 74 74 -193 81 89 88 90 90 -193 92 96 94 96 94 96 98 99 100 102 104 107 108 109 109 116 123 121 121 122 121 130 126 126 126 124 126 127 128 128 124 133 136 137 140 144 150 148 148 -193 -177 -193 155 155 158 100 160 160 98 -193 -193 98 99 -193 -209 -193 -209 306 -193 -193 -193 -193 170 171 171 173 177 174 180 182 -193 -193 -193 -193 188 188 188 -193 190 192 195 194 196 197 0 0 0 0 0
    0 0 0 0 0 0 0 0 0 0 0 0 0 0 0 0 0 0 0 0 0 0 0 0 0 0 0 0 0 0 0 0 0 0 0 0 0 0 0 0 0 0 0 0 0 0 0 0 0 0 0 0 0 0 0 0 0 0 0 0 0 0 0 0 0 0 0 0 0 46 43 42 43 42 40 40 39 39 38 38 39 39 39 42 41 43 43 43 43 43 43 48 44 45 43 43 43 42 42 41 36 36 36 38 39 41 46 49 49 50 51 50 50 50 50 48 48 50 50 48 48 46 43 42 40 40 39 39 38 34 33 30 24 20 18 18 19 21 22 22 22 23 22 22 23 22 22 21 22 21 20 20 21 18 19 17 18 16 17 16 19 15 18 13 13 15 13 14 15 13 13 14 15 15 13 13 15 19 24 25 26 28 29 31 32 35 34 34 37 36 38 43 43 47 49 50 51 51 52 52 49 56 55 50 51 56 62 63 64 65 69 68 68 68 69 69 70 71 71 68 73 73 74 74 -193 85 90 90 92 92 93 93 97 95 97 94 96 99 101 102 103 106 109 109 110 111 117 123 121 121 121 121 130 126 126 126 124 126 128 129 129 125 133 137 138 140 144 150 147 146 -193 -193 147 153 153 156 100 -193 159 98 96 98 99 100 -193 -193 -193 -209 -193 171 171 169 -193 170 171 171 173 177 174 180 183 182 -193 -209 -193 188 188 188 189 190 193 195 195 197 198 0 0 0 0 0
    0 0 0 0 0 0 0 0 0 0 0 0 0 0 0 0 0 0 0 0 0 0 0 0 0 0 0 0 0 0 0 0 0 0 0 0 0 0 0 0 0 0 0 0 0 0 0 0 0 0 0 0 0 0 0 0 0 0 0 0 0 0 0 0 0 0 0 0 0 46 44 42 43 42 40 40 39 39 38 38 38 38 39 41 41 42 43 43 43 43 44 49 44 45 43 43 43 43 42 41 36 36 36 38 40 41 44 47 48 50 51 50 50 50 50 48 49 51 50 48 48 46 43 42 40 40 39 39 37 35 34 32 27 21 20 19 20 20 22 22 22 23 22 22 23 22 22 21 22 21 21 20 21 18 19 17 17 16 17 16 19 15 19 13 15 18 13 15 17 14 13 14 15 15 13 13 14 18 24 25 25 27 29 31 32 35 34 34 37 37 38 44 44 48 51 51 52 52 53 53 51 56 57 52 54 57 64 65 66 67 70 68 69 69 69 69 70 71 70 65 73 73 73 75 -193 83 90 90 92 93 94 95 99 99 99 98 99 95 96 98 100 104 108 109 110 111 118 125 121 121 121 121 129 125 126 126 124 126 127 129 129 125 133 136 138 140 143 149 146 145 145 145 144 151 152 154 101 -193 158 98 96 98 99 101 -177 -193 -177 -193 168 171 171 169 169 170 172 171 174 178 174 181 183 183 184 186 186 188 187 188 -193 190 193 195 196 198 198 0 0 0 0 0
    0 0 0 0 0 0 0 0 0 0 0 0 0 0 0 0 0 0 0 0 0 0 0 0 0 0 0 0 0 0 0 0 0 0 0 0 0 0 0 0 0 0 0 0 0 0 0 0 0 0 0 0 0 0 0 0 0 0 0 0 0 0 0 0 0 0 0 0 0 46 43 43 44 42 40 40 38 39 38 38 39 39 39 42 42 43 43 43 44 43 44 49 45 46 44 43 43 44 43 42 38 39 38 40 41 42 44 46 47 50 51 50 50 50 50 48 49 52 50 49 49 47 43 42 41 40 39 38 37 36 35 33 31 23 22 20 21 20 21 21 21 22 21 21 22 22 23 22 22 21 21 21 21 18 19 17 17 16 17 16 19 16 20 14 18 20 15 17 18 14 13 14 15 14 12 12 13 16 22 23 23 26 28 30 31 34 34 34 37 38 39 45 44 48 52 52 53 53 53 53 52 57 57 53 54 57 63 66 66 67 69 68 68 68 68 69 70 71 70 64 73 75 75 77 75 83 89 90 90 92 92 94 98 99 100 100 102 96 93 97 98 104 108 109 111 111 118 126 120 120 121 121 129 125 126 125 123 126 127 128 128 124 132 135 137 140 142 148 145 144 144 144 142 149 150 152 102 157 158 -193 -193 99 100 -193 164 166 -177 -193 169 172 172 170 171 172 173 172 175 179 174 183 184 183 185 186 186 188 187 188 189 190 194 195 197 198 198 0 0 0 0 0
    0 0 0 0 0 0 0 0 0 0 0 0 0 0 0 0 0 0 0 0 0 0 0 0 0 0 0 0 0 0 0 0 0 0 0 0 0 0 0 0 0 0 0 0 0 0 0 0 0 0 0 0 0 0 0 0 0 0 0 0 0 0 0 0 0 0 0 0 0 45 44 43 45 43 41 41 39 40 40 40 40 40 40 43 42 44 44 44 44 44 45 49 45 46 44 43 43 44 44 43 40 40 39 40 40 41 42 44 45 48 50 49 50 50 49 48 48 51 49 48 48 46 43 41 41 40 39 38 37 36 37 35 35 26 -193 21 21 20 21 20 21 22 21 21 22 22 23 22 22 21 21 21 21 19 19 17 17 16 17 16 19 16 20 13 19 22 15 19 19 15 14 14 15 15 13 13 14 16 22 23 23 25 28 29 30 34 34 34 37 38 39 45 45 48 52 52 54 54 54 54 53 57 58 53 54 57 61 65 66 66 69 67 68 68 68 69 69 71 70 64 74 77 77 78 77 84 90 90 90 91 91 93 98 99 100 99 101 96 94 96 96 103 108 110 112 112 118 125 120 120 120 120 128 125 125 125 123 125 127 128 128 124 131 134 -193 139 141 147 144 144 143 143 141 146 148 149 148 155 157 159 160 163 -193 165 164 166 168 169 170 174 172 172 172 173 174 173 176 179 175 183 184 184 185 186 186 188 187 188 189 190 194 195 -193 199 199 0 0 0 0 0
    0 0 0 0 0 0 0 0 0 0 0 0 0 0 0 0 0 0 0 0 0 0 0 0 0 0 0 0 0 0 0 0 0 0 0 0 0 0 0 0 0 0 0 0 0 0 0 0 0 0 0 0 0 0 0 0 0 0 0 0 0 0 0 0 0 0 0 0 0 46 44 44 46 45 43 42 41 41 41 41 40 40 40 43 43 44 45 45 45 44 46 48 45 46 44 44 44 44 44 43 40 41 40 40 40 41 42 44 44 47 50 48 49 49 49 47 47 51 49 48 48 45 44 42 41 40 39 39 38 37 37 36 35 27 25 21 22 20 21 21 22 22 21 22 23 23 24 23 23 22 22 22 22 20 19 16 17 17 17 15 18 16 18 12 19 22 14 20 20 16 14 15 16 15 14 14 14 16 22 23 24 25 28 29 29 33 34 34 37 38 39 46 45 48 52 52 54 54 54 54 53 57 58 53 55 57 60 65 66 66 69 67 69 69 69 69 69 71 71 66 74 79 76 78 78 86 91 91 90 91 93 95 99 99 100 99 101 97 95 95 94 102 109 110 111 111 117 124 119 119 120 120 126 124 125 125 123 126 127 128 128 124 130 133 134 139 141 147 143 144 143 143 141 143 145 145 142 152 154 156 159 162 164 164 164 165 168 170 170 174 173 172 173 174 175 174 176 179 175 183 184 184 185 186 187 188 188 189 189 191 195 196 198 199 199 0 0 0 0 0
    0 0 0 0 0 0 0 0 0 0 0 0 0 0 0 0 0 0 0 0 0 0 0 0 0 0 0 0 0 0 0 0 0 0 0 0 0 0 0 0 0 0 0 0 0 0 0 0 0 0 0 0 0 0 0 0 0 0 0 0 0 0 0 0 0 0 0 0 0 46 45 45 47 46 44 42 41 42 41 41 40 41 41 44 43 44 45 45 46 45 46 48 45 46 45 44 45 44 44 43 41 41 40 41 41 41 42 43 44 47 49 47 48 47 47 46 47 50 48 47 48 46 45 43 42 41 39 39 38 37 38 36 36 29 36 22 24 22 22 22 23 23 22 23 25 24 26 24 24 23 23 23 23 21 21 17 17 17 17 15 18 16 17 13 19 22 14 20 21 17 15 16 16 15 14 14 15 17 22 24 24 25 28 29 30 33 34 35 39 39 40 46 45 48 52 52 53 53 54 54 53 57 57 53 55 57 60 65 66 67 68 67 69 69 69 69 69 71 71 68 74 75 73 76 76 85 91 91 91 91 93 95 99 98 100 99 101 97 95 96 95 102 110 111 113 114 118 123 119 119 119 120 125 124 125 125 123 125 127 127 127 123 129 -193 133 139 142 147 144 144 144 143 140 141 142 142 139 145 149 -193 155 159 162 162 162 164 169 171 171 176 173 174 174 175 176 174 176 179 175 183 184 185 186 187 187 189 189 190 190 192 196 197 199 200 200 0 0 0 0 0
    0 0 0 0 0 0 0 0 0 0 0 0 0 0 0 0 0 0 0 0 0 0 0 0 0 0 0 0 0 0 0 0 0 0 0 0 0 0 0 0 0 0 0 0 0 0 0 0 0 0 0 0 0 0 0 0 0 0 0 0 0 0 0 0 0 0 0 0 0 47 46 46 47 46 44 42 41 41 40 40 39 40 40 44 43 44 45 44 46 45 46 47 45 46 45 44 45 44 44 42 41 41 41 41 40 40 41 42 43 48 48 47 48 47 47 47 47 51 47 47 48 45 44 42 41 40 38 37 37 35 37 34 35 27 33 24 26 23 23 24 24 24 24 24 26 25 26 24 24 23 23 23 22 20 21 17 17 16 17 14 18 17 18 14 18 22 15 21 22 17 16 16 17 16 15 15 15 17 22 23 24 25 28 29 30 33 33 36 39 39 40 46 45 48 52 51 53 52 53 53 52 56 57 53 56 56 60 65 66 66 68 67 69 69 70 69 70 71 72 71 74 75 74 75 75 84 89 89 90 91 94 94 96 96 99 99 101 96 95 96 98 104 113 114 115 115 118 122 118 119 119 119 124 123 124 125 123 125 127 127 127 123 128 -193 -193 138 141 146 144 144 144 143 140 141 141 141 139 144 147 151 154 157 159 158 159 163 169 171 172 177 174 175 175 175 176 175 176 178 176 183 185 185 186 188 188 190 190 191 190 192 195 197 198 199 200 0 0 0 0 0
    0 0 0 0 0 0 0 0 0 0 0 0 0 0 0 0 0 0 0 0 0 0 0 0 0 0 0 0 0 0 0 0 0 0 0 0 0 0 0 0 0 0 0 0 0 0 0 0 0 0 0 0 0 0 0 0 0 0 0 0 0 0 0 0 0 0 0 0 0 47 46 46 47 46 44 42 41 41 40 39 39 40 40 43 42 43 44 43 46 44 46 46 45 46 45 44 45 44 45 43 41 41 41 40 40 39 39 40 41 49 47 47 47 46 46 46 47 50 46 47 47 45 44 42 41 39 37 36 36 34 35 31 32 27 26 22 25 22 22 23 24 23 23 24 25 24 26 24 23 22 24 24 24 22 22 19 20 22 21 20 24 22 25 23 27 31 15 24 -193 14 13 14 18 15 15 15 16 18 22 24 24 24 28 28 30 32 33 35 39 38 39 45 44 46 51 49 52 51 52 53 52 56 56 53 56 56 60 64 66 65 67 67 69 69 70 70 70 71 74 73 75 75 74 75 76 82 87 86 89 90 92 92 95 94 99 98 99 96 97 98 100 104 113 115 116 117 118 122 118 118 118 119 124 123 124 124 122 125 126 127 127 123 126 127 -193 137 141 146 146 146 146 143 139 139 140 140 139 143 145 -193 154 156 158 157 158 162 168 170 171 176 174 174 175 175 175 174 175 177 176 184 186 187 187 190 190 192 192 192 191 194 196 197 199 200 200 0 0 0 0 0
    0 0 0 0 0 0 0 0 0 0 0 0 0 0 0 0 0 0 0 0 0 0 0 0 0 0 0 0 0 0 0 0 0 0 0 0 0 0 0 0 0 0 0 0 0 0 0 0 0 0 0 0 0 0 0 0 0 0 0 0 0 0 0 0 0 0 0 0 0 47 46 46 47 46 44 43 42 41 40 39 39 40 40 43 42 43 44 43 45 44 46 46 44 45 44 44 45 44 45 42 41 41 40 39 39 38 37 33 39 48 45 46 46 45 45 45 47 50 46 48 47 46 46 44 42 40 37 37 36 35 36 31 31 27 32 30 31 27 26 28 29 26 26 27 27 25 27 25 22 21 23 23 23 22 22 19 18 26 30 -225 -225 -225 -225 -225 -225 -225 -225 -225 -209 -209 10 10 14 14 14 13 16 18 22 25 25 25 27 28 30 33 33 35 39 38 39 44 43 45 50 48 51 50 52 53 51 55 55 53 56 56 59 62 65 64 66 67 69 70 70 70 71 72 75 75 76 76 75 75 76 80 83 81 87 88 89 90 93 92 95 94 95 93 96 97 99 104 113 116 117 118 119 122 118 118 118 119 123 122 123 123 122 124 126 126 126 122 125 127 -193 136 139 143 144 147 146 144 139 140 141 141 140 143 143 143 153 154 157 156 157 162 168 170 171 175 174 174 175 175 175 174 174 177 176 185 187 189 189 191 192 195 195 194 193 197 198 199 200 201 201 0 0 0 0 0
    0 0 0 0 0 0 0 0 0 0 0 0 0 0 0 0 0 0 0 0 0 0 0 0 0 0 0 0 0 0 0 0 0 0 0 0 0 0 0 0 0 0 0 0 0 0 0 0 0 0 0 0 0 0 0 0 0 0 0 0 0 0 0 0 0 0 0 0 0 47 47 47 47 46 44 44 43 42 40 40 39 40 41 43 42 43 44 43 45 44 46 45 44 45 44 44 45 44 45 42 42 42 41 40 39 39 38 30 38 46 45 46 45 45 45 45 47 50 46 48 47 47 47 45 43 41 38 37 37 36 37 32 30 28 34 37 38 39 38 37 38 35 35 35 32 27 27 25 22 20 22 22 21 22 23 -225 -225 -225 -225 -225 -225 -225 -225 -225 -225 -225 -225 -225 -225 -225 -225 -225 -225 -225 -225 -225 -225 -225 23 26 26 28 30 31 33 36 36 37 39 38 39 44 43 45 49 48 51 50 52 52 51 54 54 52 55 54 58 60 63 63 65 66 69 69 70 70 71 71 74 75 76 75 74 75 76 80 82 81 86 87 89 90 92 92 93 93 93 92 96 97 99 103 113 118 118 119 120 122 118 119 119 120 123 122 122 123 122 124 125 126 125 122 124 126 124 132 136 139 139 144 146 144 140 141 143 143 142 144 143 142 149 153 155 156 157 162 168 169 170 175 173 174 175 176 176 174 175 178 178 185 187 189 189 191 193 196 196 195 193 197 197 199 200 200 201 0 0 0 0 0
    0 0 0 0 0 0 0 0 0 0 0 0 0 0 0 0 0 0 0 0 0 0 0 0 0 0 0 0 0 0 0 0 0 0 0 0 0 0 0 0 0 0 0 0 0 0 0 0 0 0 0 0 0 0 0 0 0 0 0 0 0 0 0 0 0 0 0 0 0 47 47 47 47 46 45 44 43 43 40 40 39 41 41 43 42 43 44 43 45 44 46 45 44 45 44 44 45 44 45 43 44 43 42 41 41 39 40 33 38 45 44 46 45 45 45 45 47 50 47 48 48 48 48 46 44 43 39 39 38 38 38 35 30 31 38 40 42 43 43 41 40 40 40 39 37 36 33 30 -225 -225 -225 -225 -225 -225 -225 -225 -225 -225 -225 -225 -225 -225 -225 -225 -225 -225 -225 -225 -225 -225 -225 -225 -225 -225 -225 -225 -225 -225 -225 -225 30 35 34 36 38 38 38 39 40 39 39 43 43 45 48 47 51 50 52 52 51 54 53 52 54 54 57 59 62 62 64 66 68 68 70 69 70 70 73 74 75 75 74 74 75 79 80 80 86 86 88 88 90 90 91 92 92 91 96 97 99 103 113 119 120 121 121 123 119 120 120 120 122 122 122 123 122 124 125 126 125 122 123 125 123 130 135 138 137 142 146 144 141 142 144 143 143 144 144 143 148 152 155 155 156 162 167 168 169 174 173 173 175 176 176 175 176 178 178 184 186 188 189 191 194 196 195 194 193 197 196 198 198 198 198 0 0 0 0 0
    0 0 0 0 0 0 0 0 0 0 0 0 0 0 0 0 0 0 0 0 0 0 0 0 0 0 0 0 0 0 0 0 0 0 0 0 0 0 0 0 0 0 0 0 0 0 0 0 0 0 0 0 0 0 0 0 0 0 0 0 0 0 0 0 0 0 0 0 0 48 48 47 47 46 45 44 43 42 40 40 39 40 41 43 42 44 44 43 45 44 46 45 44 45 44 44 46 44 46 43 43 43 42 40 38 37 39 31 38 45 44 45 45 45 45 45 47 50 47 48 48 49 50 48 46 44 41 41 40 40 41 38 29 40 45 45 45 45 44 42 41 42 41 40 39 37 -225 -225 -225 -225 -225 -225 -225 -225 -225 -225 -225 -225 -225 -225 -225 -225 -225 -225 -225 -225 -225 -225 -225 -225 -225 -225 -225 -225 -225 -225 -225 -225 -225 -225 -225 -225 38 38 41 40 40 40 41 40 40 44 43 45 48 46 50 49 52 52 52 54 53 53 55 54 57 59 61 61 64 66 67 68 69 69 69 70 73 73 74 74 74 74 74 78 80 80 85 85 87 87 89 89 90 91 91 91 96 98 100 103 113 120 119 120 120 122 119 119 119 120 122 122 122 123 122 124 126 126 126 122 124 126 122 128 134 137 135 142 146 144 142 142 143 142 141 142 141 139 141 149 153 154 155 161 166 167 168 172 172 172 174 175 175 174 176 178 179 185 187 188 189 192 193 196 195 194 192 196 195 198 198 198 198 0 0 0 0 0
    0 0 0 0 0 0 0 0 0 0 0 0 0 0 0 0 0 0 0 0 0 0 0 0 0 0 0 0 0 0 0 0 0 0 0 0 0 0 0 0 0 0 0 0 0 0 0 0 0 0 0 0 0 0 0 0 0 0 0 0 0 0 0 0 0 0 0 0 0 48 48 47 47 46 45 43 41 40 38 39 38 40 41 43 43 43 44 43 45 44 46 45 44 45 45 44 46 44 46 42 44 45 45 43 42 39 41 37 39 48 44 45 45 45 45 45 48 50 47 49 49 51 52 51 48 46 43 42 42 42 41 40 36 44 51 49 47 46 46 43 43 43 42 41 41 39 -225 -225 -225 -225 -225 -225 -225 -225 -225 -225 -225 -225 -225 -225 -225 -225 -225 -225 -225 -225 -225 -225 -225 -225 -225 -225 -225 -225 -225 -225 -225 -225 -225 -225 -225 -225 39 39 42 40 40 40 41 40 40 43 43 44 47 47 50 49 52 53 52 54 53 53 55 54 56 58 61 61 64 67 67 68 70 69 69 70 72 73 74 74 73 74 74 78 82 83 87 87 88 88 88 88 89 91 90 90 97 100 102 105 112 119 117 118 119 121 118 119 119 119 121 122 122 124 122 124 126 126 126 122 124 126 123 126 132 133 131 136 144 141 140 140 141 141 140 140 140 138 139 143 148 150 152 159 166 166 167 170 171 171 174 175 174 174 176 178 180 184 186 188 188 191 192 195 195 194 193 197 196 198 198 198 197 0 0 0 0 0
    0 0 0 0 0 0 0 0 0 0 0 0 0 0 0 0 0 0 0 0 0 0 0 0 0 0 0 0 0 0 0 0 0 0 0 0 0 0 0 0 0 0 0 0 0 0 0 0 0 0 0 0 0 0 0 0 0 0 0 0 0 0 0 0 0 0 0 0 0 49 49 48 47 47 45 43 41 39 38 38 38 39 40 42 42 42 43 42 44 43 46 44 44 45 45 44 47 44 46 43 45 46 45 45 45 39 42 37 39 50 44 46 45 45 45 46 49 50 47 50 49 52 52 50 48 46 44 44 43 43 42 44 46 55 54 52 50 48 47 44 44 44 43 42 41 -225 -225 -225 -225 -225 -225 -225 -225 -225 -225 -225 -225 -225 -225 -225 -225 -225 -225 -225 -225 -225 -225 -225 -225 -225 -225 -225 -225 -225 -225 -225 -225 -225 -225 -225 -225 -225 -225 39 43 41 40 41 42 40 40 43 43 45 47 47 50 49 52 52 52 53 52 53 55 54 56 58 60 61 64 67 67 68 70 70 70 70 72 73 73 74 74 75 76 79 83 84 87 87 89 88 89 89 89 92 92 91 96 97 100 103 108 117 113 116 118 121 118 119 119 119 121 122 122 123 122 124 126 126 126 122 124 126 123 126 131 132 131 136 144 141 140 140 141 141 140 141 140 138 140 142 143 145 148 156 164 161 165 168 172 171 173 173 173 173 176 179 181 183 185 187 187 190 192 195 195 194 193 197 197 199 198 199 199 0 0 0 0 0
    0 0 0 0 0 0 0 0 0 0 0 0 0 0 0 0 0 0 0 0 0 0 0 0 0 0 0 0 0 0 0 0 0 0 0 0 0 0 0 0 0 0 0 0 0 0 0 0 0 0 0 0 0 0 0 0 0 0 0 0 0 0 0 0 0 0 0 0 0 49 49 48 47 46 45 44 41 39 40 41 40 40 40 42 42 42 42 41 42 42 44 44 43 44 45 45 48 46 47 45 47 49 47 46 46 42 48 39 39 48 43 46 44 45 45 46 50 50 48 51 50 54 53 51 49 47 46 44 43 44 42 47 53 55 54 53 51 50 48 45 45 45 44 43 -225 -225 -225 -225 -225 -225 -225 -225 -225 -225 -225 -225 -225 -225 -225 -225 -225 -225 -225 -225 -225 -225 -225 -225 -225 -225 -225 -225 -225 -225 -225 -225 -225 -225 -225 -225 -225 -225 -225 40 45 41 41 41 43 41 41 44 44 45 47 47 50 49 52 52 52 53 53 54 55 55 56 58 60 60 63 67 67 68 69 70 69 70 72 73 73 74 76 77 78 81 84 85 88 88 89 89 89 91 91 95 93 92 97 97 99 102 106 113 110 114 118 120 118 119 119 119 121 122 122 123 122 124 126 126 126 122 124 127 123 126 131 131 130 135 141 140 139 139 141 141 140 140 140 138 139 139 138 138 138 150 -209 155 158 164 170 170 173 171 171 172 175 179 181 181 184 185 186 188 191 195 195 192 193 197 197 198 199 200 200 0 0 0 0 0
    0 0 0 0 0 0 0 0 0 0 0 0 0 0 0 0 0 0 0 0 0 0 0 0 0 0 0 0 0 0 0 0 0 0 0 0 0 0 0 0 0 0 0 0 0 0 0 0 0 0 0 0 0 0 0 0 0 0 0 0 0 0 0 0 0 0 0 0 0 49 49 47 47 46 46 45 42 41 44 45 43 43 43 43 43 43 43 41 41 42 43 44 43 45 46 47 51 49 49 48 49 50 49 48 47 44 49 41 41 45 41 45 43 44 45 46 51 49 50 52 52 54 53 52 51 50 52 49 49 50 46 53 53 55 54 53 51 49 47 47 46 46 44 -225 -225 -225 -225 -225 -225 -225 -225 -225 -225 -225 -225 -225 -225 -225 -225 -225 -225 -225 -225 -225 -225 -225 -225 -225 -225 -225 -225 -225 -225 -225 -225 -225 -225 -225 -225 -225 -225 -225 -225 40 46 42 42 42 44 42 42 45 44 46 48 48 51 50 53 53 53 54 53 55 55 55 56 58 60 60 63 67 66 67 69 70 69 70 72 72 74 75 77 78 79 82 85 86 88 88 90 90 90 92 92 98 97 95 101 101 102 104 106 111 109 112 116 119 117 118 118 119 121 122 122 124 122 124 126 126 126 122 124 127 123 126 131 132 131 135 140 139 138 139 140 140 140 140 140 137 139 139 138 139 139 -209 160 158 161 165 169 168 173 172 171 172 175 179 181 180 181 180 183 186 190 194 194 190 193 197 197 199 199 201 201 0 0 0 0 0
    0 0 0 0 0 0 0 0 0 0 0 0 0 0 0 0 0 0 0 0 0 0 0 0 0 0 0 0 0 0 0 0 0 0 0 0 0 0 0 0 0 0 0 0 0 0 0 0 0 0 0 0 0 0 0 0 0 0 0 0 0 0 0 0 0 0 0 0 0 50 49 48 47 46 47 48 46 50 52 52 52 51 49 47 47 46 45 43 43 44 45 45 46 48 49 50 53 51 51 50 51 51 50 49 48 44 51 44 46 45 43 44 45 47 51 49 54 51 54 54 55 55 55 54 54 53 55 54 54 54 53 54 53 55 54 53 51 49 48 47 47 46 44 -225 -225 -225 -225 -225 -225 -225 -225 -225 -225 -225 -225 -225 -225 -225 -225 -225 -225 -225 -225 -225 -225 -225 -225 -225 -225 -225 -225 -225 -225 -225 -225 -225 -225 -225 -225 -225 -225 -225 -225 40 46 42 43 43 44 43 43 45 45 47 49 49 52 52 54 53 54 54 53 55 55 55 56 58 60 60 63 66 66 66 68 69 69 69 71 72 73 75 78 79 80 83 85 86 87 88 90 90 90 93 93 98 98 97 101 102 104 105 107 111 109 111 115 118 117 118 118 119 121 123 123 124 123 124 126 126 126 122 125 128 125 126 130 131 130 134 140 138 138 140 140 141 141 141 141 139 141 142 140 141 140 -209 162 160 164 166 169 169 173 172 172 173 176 179 180 179 180 177 183 185 188 189 189 187 189 195 195 198 199 201 201 0 0 0 0 0
    0 0 0 0 0 0 0 0 0 0 0 0 0 0 0 0 0 0 0 0 0 0 0 0 0 0 0 0 0 0 0 0 0 0 0 0 0 0 0 0 0 0 0 0 0 0 0 0 0 0 0 0 0 0 0 0 0 0 0 0 0 0 0 0 0 0 0 0 0 51 50 48 48 47 49 50 49 53 54 54 55 55 54 51 51 50 50 46 45 46 46 47 50 51 52 51 53 51 51 50 51 51 50 50 49 45 53 51 56 51 50 50 54 53 54 51 54 53 55 55 56 56 56 55 55 55 57 56 56 55 55 55 55 56 55 53 51 50 49 48 47 46 -225 -225 -225 -225 -225 -225 -225 -225 -225 -225 -225 -225 -225 -225 -225 -225 -225 -225 -225 -225 -225 -225 -225 -225 -225 -225 -225 -225 -225 -225 -225 -225 -225 -225 -225 -225 -225 -225 -225 -225 -225 40 46 42 44 43 45 44 44 46 47 49 50 51 54 53 55 55 55 55 55 56 56 56 56 58 60 60 63 66 65 66 67 69 68 68 71 71 73 74 77 78 79 83 86 87 87 89 90 91 91 93 93 98 97 96 100 101 103 105 106 110 109 110 114 118 117 118 118 119 121 123 123 124 123 124 126 126 126 122 125 129 126 127 132 134 133 136 143 141 140 141 141 142 142 142 142 140 143 147 143 144 141 -209 -209 159 162 164 -209 -193 172 171 172 173 176 178 179 177 178 175 182 185 187 186 -193 -209 -193 -193 -209 197 -193 202 -193 0 0 0 0 0
    0 0 0 0 0 0 0 0 0 0 0 0 0 0 0 0 0 0 0 0 0 0 0 0 0 0 0 0 0 0 0 0 0 0 0 0 0 0 0 0 0 0 0 0 0 0 0 0 0 0 0 0 0 0 0 0 0 0 0 0 0 0 0 0 0 0 0 0 0 52 51 49 48 47 51 50 51 54 55 55 56 57 55 54 54 53 52 50 48 0 -256 -1 3994 54 54 53 54 51 51 51 51 51 50 50 50 47 54 55 59 60 58 56 59 56 57 57 55 50 53 54 55 55 55 54 54 55 59 59 58 57 56 56 56 56 55 53 51 50 49 48 48 -225 -225 -225 -225 -225 -225 -225 -225 -225 -225 -225 -225 -225 -225 -225 -225 -225 -225 -225 -225 -225 -225 -225 -225 -225 -225 -225 -225 -225 -225 -225 -225 -225 -225 -225 -225 -225 -225 -225 -225 -225 -225 39 46 42 44 44 47 45 45 48 49 50 51 52 54 55 57 57 57 56 56 58 58 57 57 59 60 60 63 66 65 66 67 69 68 68 71 71 73 74 77 78 79 82 85 86 87 88 90 90 90 93 93 97 97 97 99 101 103 105 106 110 109 110 113 117 116 118 117 119 121 123 123 124 123 123 125 125 125 122 124 127 125 126 133 135 135 138 146 141 140 141 140 141 141 141 141 -193 143 -209 -209 142 138 -209 -209 -209 -209 -209 -209 -193 -209 171 173 173 175 177 178 176 178 175 182 184 -193 -193 -209 -209 -209 -193 -209 -209 -209 -193 203 0 0 0 0 0
    0 0 0 0 0 0 0 0 0 0 0 0 0 0 0 0 0 0 0 0 0 0 0 0 0 0 0 0 0 0 0 0 0 0 0 0 0 0 0 0 0 0 0 0 0 0 0 0 0 0 0 0 0 0 0 0 0 0 0 0 0 0 0 0 0 0 0 0 0 52 50 49 48 48 51 50 53 55 55 56 57 57 56 55 56 54 53 52 50 52 51 54 55 57 56 55 54 52 52 51 52 52 51 50 50 47 53 56 60 60 59 58 60 58 58 58 57 54 56 56 56 56 56 55 55 55 59 58 57 56 56 56 56 57 55 53 52 51 51 50 -225 -225 -225 -225 -225 -225 -225 -225 -225 -225 -225 -225 -225 -225 -225 -225 -225 -225 -225 -225 -225 -225 -225 -225 -225 -225 -225 -225 -225 -225 -225 -225 -225 -225 -225 -225 -225 -225 -225 -225 -225 -225 -225 -225 44 41 42 43 49 45 46 50 50 52 52 54 56 56 58 58 58 58 58 59 59 57 57 59 60 60 62 65 65 66 67 69 69 69 72 72 74 75 78 79 80 81 85 85 86 88 89 90 90 93 93 98 98 98 100 102 104 105 106 109 108 109 113 116 116 118 117 119 122 123 123 124 123 123 124 124 124 121 124 126 125 124 130 133 133 137 145 139 139 139 139 141 141 142 141 -209 144 -193 -193 145 140 -209 -209 -209 -209 -209 -209 -193 -209 -193 171 172 174 174 -193 174 177 176 182 -193 -193 -193 -209 -209 -209 -209 -209 -209 -193 -193 -193 0 0 0 0 0
    0 0 0 0 0 0 0 0 0 0 0 0 0 0 0 0 0 0 0 0 0 0 0 0 0 0 0 0 0 0 0 0 0 0 0 0 0 0 0 0 0 0 0 0 0 0 0 0 0 0 0 0 0 0 0 0 0 0 0 0 0 0 0 0 0 0 0 0 0 51 47 48 47 47 50 51 54 56 56 56 57 58 57 57 57 56 54 53 52 53 52 56 57 59 58 56 55 53 52 52 52 52 51 51 51 48 53 56 60 60 59 59 59 58 58 59 58 55 57 57 58 57 60 58 56 56 59 58 58 57 56 56 56 57 55 54 53 53 52 -225 -225 -225 -225 -225 -225 -225 -225 -225 -225 -225 -225 -225 -225 -225 -225 -225 -225 -225 -225 -225 -225 -225 -225 -225 -225 -225 -225 -225 -225 -225 -225 -225 -225 -225 -225 -225 -225 -225 -225 -225 -225 -225 -225 -225 -225 37 37 40 48 44 46 51 51 52 53 55 58 57 59 59 59 59 59 59 58 57 57 58 60 59 61 64 64 66 67 69 70 70 72 73 74 75 78 79 80 82 84 85 86 88 90 90 91 93 93 98 98 98 100 103 104 105 106 109 109 110 113 116 117 118 118 120 122 123 123 124 124 123 124 124 124 121 123 126 125 124 130 133 134 136 144 138 138 138 138 140 140 140 141 -193 145 -193 148 149 144 149 -193 153 -193 -193 160 163 -209 166 -193 170 172 173 174 172 -193 -193 -193 -193 -209 -193 175 -209 -209 -209 -209 -209 -209 -193 204 0 0 0 0 0
    0 0 0 0 0 0 0 0 0 0 0 0 0 0 0 0 0 0 0 0 0 0 0 0 0 0 0 0 0 0 0 0 0 0 0 0 0 0 0 0 0 0 0 0 0 0 0 0 0 0 0 0 0 0 0 0 0 0 0 0 0 0 0 0 0 0 0 0 0 50 47 49 48 48 51 52 55 57 57 57 58 59 58 58 58 57 55 55 56 55 53 56 58 59 58 56 55 53 53 53 53 52 51 51 52 51 55 59 61 60 60 59 59 58 58 59 58 56 58 58 60 60 62 59 57 57 59 59 58 58 57 56 56 56 55 54 53 -225 -225 -225 -225 -225 -225 -225 -225 -225 -225 -225 -225 -225 -225 -225 -225 -225 -225 -225 -225 -225 -225 -225 -225 -225 -225 -225 -225 -225 -225 -225 -225 -225 -225 -225 -225 -225 -225 -225 -225 -225 -225 -225 -225 -225 -225 -225 -225 -225 -225 40 53 48 51 53 52 53 54 55 58 57 59 59 59 59 60 59 59 58 58 59 60 59 61 63 65 66 67 69 70 70 72 73 74 75 77 79 80 81 84 85 86 88 90 91 91 94 94 98 98 98 101 103 105 106 107 109 110 110 113 116 117 119 119 121 123 123 123 124 124 122 123 123 124 121 123 126 125 125 133 136 136 138 145 140 138 139 138 139 140 140 140 -209 -193 -193 -193 -193 147 -193 -193 -193 -193 -193 158 162 -193 -193 -193 169 172 172 -193 172 175 176 180 180 179 176 176 -193 -209 -209 -209 -209 -209 203 204 0 0 0 0 0
    0 0 0 0 0 0 0 0 0 0 0 0 0 0 0 0 0 0 0 0 0 0 0 0 0 0 0 0 0 0 0 0 0 0 0 0 0 0 0 0 0 0 0 0 0 0 0 0 0 0 0 0 0 0 0 0 0 0 0 0 0 0 0 0 0 0 0 0 0 50 48 49 50 49 52 54 56 58 57 58 58 60 60 59 59 58 57 57 58 58 55 57 57 59 58 57 56 54 54 55 54 54 53 54 55 56 58 62 61 60 60 59 58 58 58 59 58 57 59 61 65 65 66 63 60 61 62 62 61 58 57 56 56 56 55 54 -225 -225 -225 -225 -225 -225 -225 -225 -225 -225 -225 -225 -225 -225 -225 -225 -225 -225 -225 -225 -225 -225 -225 -225 -225 -225 -225 -225 -225 -225 -225 -225 -225 -225 -225 -225 -225 -225 -225 -225 -225 -225 -225 -225 -225 -225 -225 -225 -225 -225 -225 -225 -225 -225 51 54 52 53 55 56 60 58 60 61 61 61 61 60 61 59 60 60 61 60 61 63 65 66 66 68 69 69 72 72 74 75 77 80 81 82 85 86 87 89 91 92 93 95 96 98 99 99 101 104 105 107 107 110 111 111 114 116 118 120 120 122 124 124 124 124 124 122 123 123 123 122 122 125 125 124 134 138 139 140 147 140 138 139 139 138 138 138 138 127 -209 -209 -209 -209 -209 -193 154 155 157 158 163 -193 -193 -193 170 170 172 172 172 172 175 177 180 180 179 178 177 179 -209 -209 -209 -209 -209 -193 205 0 0 0 0 0
    0 0 0 0 0 0 0 0 0 0 0 0 0 0 0 0 0 0 0 0 0 0 0 0 0 0 0 0 0 0 0 0 0 0 0 0 0 0 0 0 0 0 0 0 0 0 0 0 0 0 0 0 0 0 0 0 0 0 0 0 0 0 0 0 0 0 0 0 0 52 51 51 52 51 53 55 57 59 59 59 60 61 62 62 61 60 59 59 60 60 58 58 58 60 59 59 60 59 58 59 58 58 55 -209 -209 -209 -209 -209 61 59 59 60 59 59 60 61 59 59 62 66 67 68 68 66 63 64 65 63 61 59 58 57 57 57 56 -225 -225 -225 -225 -225 -225 -225 -225 -225 -225 -225 -225 -225 -225 -225 -225 -225 -225 -225 -225 -225 -225 -225 -225 -225 -225 -225 -225 -225 -225 -225 -225 -225 -225 -225 -225 -225 -225 -225 -225 -225 -225 -225 -225 -225 -225 -225 -225 -225 -225 -225 -225 -225 -225 -225 -225 -225 -225 -225 60 58 66 61 63 62 62 61 61 59 60 60 61 61 61 60 61 62 65 66 65 67 67 68 71 72 74 75 76 79 80 82 84 85 87 89 90 92 93 95 97 98 99 100 101 105 106 107 108 110 112 112 114 117 118 121 121 122 124 125 125 125 125 122 123 123 123 122 122 125 125 123 134 139 140 141 146 140 139 139 139 138 138 138 138 -209 -209 -209 -209 -209 -209 -209 -209 -193 -209 -193 165 167 168 169 170 170 172 172 172 172 175 177 180 179 179 179 178 -209 -193 -209 -209 -209 -209 198 -193 0 0 0 0 0
    0 0 0 0 0 0 0 0 0 0 0 0 0 0 0 0 0 0 0 0 0 0 0 0 0 0 0 0 0 0 0 0 0 0 0 0 0 0 0 0 0 0 0 0 0 0 0 0 0 0 0 0 0 0 0 0 0 0 0 0 0 0 0 0 0 0 0 0 0 53 54 53 54 53 54 56 57 58 59 59 60 61 63 63 62 62 62 62 63 63 60 60 60 60 59 59 60 60 60 61 60 60 57 -209 -193 -193 -209 -193 -193 61 62 63 61 61 61 63 61 62 65 68 68 69 69 67 65 65 66 63 61 59 58 58 58 59 -225 -225 -225 -225 -225 -225 -225 -225 -225 -225 -225 -225 -225 -225 -225 -225 -225 -225 -225 -225 -225 -225 -225 -225 -225 -225 -225 -225 -225 -225 -225 -225 -225 -225 -225 -225 -225 -225 -225 -225 -225 -225 -225 -225 -225 -225 -225 -225 -225 -225 -225 -225 -225 -225 -225 -225 -225 -225 -225 -225 -225 -225 68 63 65 64 64 63 62 61 63 62 65 63 62 62 62 63 66 67 66 67 67 68 70 72 73 74 75 77 78 80 84 85 86 88 90 92 93 95 96 97 98 99 100 -209 106 107 107 110 113 113 115 117 119 121 122 123 125 125 125 125 126 122 123 123 124 124 123 128 128 126 137 139 140 141 144 140 140 140 140 140 140 140 140 -193 142 141 146 -209 140 147 151 -209 -209 -209 158 164 166 168 168 169 171 170 172 172 176 178 179 179 179 179 178 -193 -193 -209 -209 -193 -209 197 -209 0 0 0 0 0
    0 0 0 0 0 0 0 0 0 0 0 0 0 0 0 0 0 0 0 0 0 0 0 0 0 0 0 0 0 0 0 0 0 0 0 0 0 0 0 0 0 0 0 0 0 0 0 0 0 0 0 0 0 0 0 0 0 0 0 0 0 0 0 0 0 0 0 0 0 55 56 54 56 55 55 55 56 58 59 59 60 60 62 63 63 63 63 63 64 66 63 63 63 61 60 60 61 60 60 62 61 60 58 -193 64 -193 -209 -193 -209 -193 68 68 66 65 65 65 66 66 68 69 69 70 70 69 67 66 66 63 61 60 59 59 59 -225 -225 -225 -225 -225 -225 -225 -225 -225 -225 -225 -225 -225 -225 -225 -225 -225 -225 -225 -225 -225 -225 -225 -225 -225 -225 -225 -225 -225 -225 -225 -225 -225 -225 -225 -225 -225 -225 -225 -225 -225 -225 -225 -225 -225 -225 -225 -225 -225 -225 -225 -225 -225 -225 -225 -225 -225 -225 -225 -225 -225 -225 -225 67 62 66 66 65 65 65 64 65 65 68 68 67 68 68 68 70 71 69 69 69 69 70 71 72 73 74 76 77 79 84 85 86 88 90 92 93 94 96 97 98 99 100 105 105 107 107 110 113 114 115 117 120 122 123 124 126 126 126 126 126 122 124 124 124 125 123 129 130 128 137 139 139 140 141 139 140 140 141 141 141 141 140 136 141 138 143 148 139 144 147 149 150 144 152 -209 147 -209 -209 -209 -209 -193 171 171 175 178 178 178 177 177 -193 -209 -193 362 -209 -209 -209 -209 204 0 0 0 0 0
    0 0 0 0 0 0 0 0 0 0 0 0 0 0 0 0 0 0 0 0 0 0 0 0 0 0 0 0 0 0 0 0 0 0 0 0 0 0 0 0 0 0 0 0 0 0 0 0 0 0 0 0 0 0 0 0 0 0 0 0 0 0 0 0 0 0 0 0 0 57 58 56 59 57 56 57 58 60 60 60 61 60 64 64 65 64 64 -193 -193 69 68 66 68 65 62 64 66 65 65 66 66 63 61 -193 -193 -209 -209 -193 -209 -209 69 70 68 67 68 69 69 69 69 70 70 70 70 69 66 65 64 62 61 59 59 -225 -225 -225 -225 -225 -225 -225 -225 -225 -225 -225 -225 -225 -225 -225 -225 -225 -225 -225 -225 -225 -225 -225 -225 -225 -225 -225 -225 -225 -225 -225 -225 -225 -225 -225 -225 -225 -225 -225 -225 -225 -225 -225 -225 -225 -225 -225 -225 -225 -225 -225 -225 -225 -225 -225 -225 -225 -225 -225 -225 -225 -225 -225 -225 -225 66 61 65 66 65 66 65 66 67 68 71 70 70 71 71 72 72 72 71 70 70 70 71 71 72 72 73 75 77 78 83 85 86 88 90 92 93 94 96 96 97 99 101 105 106 107 107 110 114 115 116 118 121 123 123 124 126 127 127 127 127 123 125 125 125 126 123 129 129 127 135 137 137 137 138 137 139 138 141 142 143 145 144 140 144 142 147 149 142 146 145 146 147 144 151 148 148 149 148 149 -209 -209 -209 -209 174 178 177 177 176 175 173 -209 -193 363 -209 -209 -209 -209 -209 0 0 0 0 0
    0 0 0 0 0 0 0 0 0 0 0 0 0 0 0 0 0 0 0 0 0 0 0 0 0 0 0 0 0 0 0 0 0 0 0 0 0 0 0 0 0 0 0 0 0 0 0 0 0 0 0 0 0 0 0 0 0 0 0 0 0 0 0 0 0 0 0 0 0 59 60 58 64 60 64 64 -193 67 64 63 62 60 66 66 67 64 -193 -193 -209 69 69 68 70 69 66 68 70 69 70 70 71 68 -193 -209 -209 -209 -209 -209 -209 67 69 69 68 68 71 71 71 71 71 71 71 71 71 69 66 63 63 62 61 59 -225 -225 -225 -225 -225 -225 -225 -225 -225 -225 -225 -225 -225 -225 -225 -225 -225 -225 -225 -225 -225 -225 -225 -225 -225 -225 -225 -225 -225 -225 -225 -225 -225 -225 -225 -225 -225 -225 -225 -225 -225 -225 -225 -225 -225 -225 -225 -225 -225 -225 -225 -225 -225 -225 -225 -225 -225 -225 -225 -225 -225 -225 -225 -225 -225 -225 -225 58 61 67 66 66 67 68 70 71 72 71 71 71 73 72 73 72 71 70 70 70 71 71 72 73 74 75 77 79 83 84 86 87 89 92 93 94 96 97 98 100 101 105 106 107 108 110 115 116 116 118 122 123 124 125 127 128 127 127 128 123 126 126 126 127 123 129 130 127 134 136 137 137 137 137 139 138 141 142 143 147 148 145 147 146 149 150 144 146 144 145 147 146 151 150 150 150 150 150 151 151 157 -209 173 178 176 175 174 173 172 170 -209 -209 -209 -209 160 -209 -209 0 0 0 0 0
    0 0 0 0 0 0 0 0 0 0 0 0 0 0 0 0 0 0 0 0 0 0 0 0 0 0 0 0 0 0 0 0 0 0 0 0 0 0 0 0 0 0 0 0 0 0 0 0 0 0 0 0 0 0 0 0 0 0 0 0 0 0 0 0 0 0 0 0 0 63 66 63 68 65 71 73 77 74 73 71 70 69 70 68 68 65 -193 -193 -209 68 -193 68 70 70 68 69 70 69 71 71 72 70 -209 -209 -193 -209 -209 -209 -209 -193 71 72 72 74 75 74 73 74 74 74 73 73 72 70 67 66 64 63 62 -225 -225 -225 -225 -225 -225 -225 -225 -225 -225 -225 -225 -225 -225 -225 -225 -225 -225 -225 -225 -225 -225 -225 -225 -225 -225 -225 -225 -225 -225 -225 -225 -225 -225 -225 -225 -225 -225 -225 -225 -225 -225 -225 -225 -225 -225 -225 -225 -225 -225 -225 -225 -225 -225 -225 -225 -225 -225 -225 -225 -225 -225 -225 -225 -225 -225 -225 -225 -225 -225 -209 68 68 69 71 71 72 73 72 72 72 73 73 73 72 72 70 70 70 71 70 71 72 74 75 77 79 83 84 86 87 89 92 93 94 96 96 98 99 101 -209 106 107 108 111 116 116 116 118 122 123 124 124 126 128 127 127 128 124 126 126 126 127 123 129 130 128 135 137 138 138 138 138 141 140 143 143 144 148 148 147 147 145 146 146 144 146 145 146 147 147 150 149 150 150 150 150 150 150 153 -209 -193 174 175 175 173 171 169 166 -209 -209 -209 -209 -209 -209 -209 0 0 0 0 0
    0 0 0 0 0 0 0 0 0 0 0 0 0 0 0 0 0 0 0 0 0 0 0 0 0 0 0 0 0 0 0 0 0 0 0 0 0 0 0 0 0 0 0 0 0 0 0 0 0 0 0 0 0 0 0 0 0 0 0 0 0 0 0 0 0 0 0 0 0 66 68 67 68 69 71 74 79 79 77 76 75 76 73 71 70 67 -193 -209 -209 69 -193 -193 75 -209 -209 -193 73 70 -209 -209 -193 -209 -209 -193 -193 -193 75 76 74 75 73 74 76 78 78 77 76 77 76 76 75 74 72 70 69 68 66 64 -225 -225 -225 -225 -225 -225 -225 -225 -225 -225 -225 -225 -225 -225 -225 -225 -225 -225 -225 -225 -225 -225 -225 -225 -225 -225 -225 -225 -225 -225 -225 -225 -225 -225 -225 -225 -225 -225 -225 -225 -225 -225 -225 -225 -225 -225 -225 -225 -225 -225 -225 -225 -225 -225 -225 -225 -225 -225 -225 -225 -225 -225 -225 -225 -225 -225 -225 -225 -225 -225 -225 -225 69 68 70 72 72 73 74 73 73 73 74 74 73 73 72 71 70 70 70 69 70 72 74 75 77 79 83 85 86 87 89 91 93 94 96 96 97 99 100 -209 105 107 108 111 116 117 116 118 122 123 124 124 126 128 127 127 128 124 126 126 127 127 123 129 130 129 135 137 138 138 139 139 142 142 145 145 147 149 150 149 148 146 147 147 147 150 151 150 151 151 152 151 152 151 150 149 149 150 152 153 -193 -209 -209 171 172 170 -209 -209 -209 -209 -209 -209 -209 -209 -209 0 0 0 0 0
    0 0 0 0 0 0 0 0 0 0 0 0 0 0 0 0 0 0 0 0 0 0 0 0 0 0 0 0 0 0 0 0 0 0 0 0 0 0 0 0 0 0 0 0 0 0 0 0 0 0 0 0 0 0 0 0 0 0 0 0 0 0 0 0 0 0 0 0 0 67 69 69 70 71 74 76 81 82 82 84 83 83 84 -209 -209 -193 75 -209 -209 71 -193 -193 78 79 -209 -209 75 -209 -209 -209 -209 -209 -209 -209 -209 75 78 79 77 78 76 78 79 80 80 79 79 79 78 77 76 74 73 72 70 69 -225 -225 -225 -225 -225 -225 -225 -225 -225 -225 -225 -225 -225 -225 -225 -225 -225 -225 -225 -225 -225 -225 -225 -225 -225 -225 -225 -225 -225 -225 -225 -225 -225 -225 -225 -225 -225 -225 -225 -225 -225 -225 -225 -225 -225 -225 -225 -225 -225 -225 -225 -225 -225 -225 -225 -225 -225 -225 -225 -225 -225 -225 -225 -225 -225 -225 -225 -225 -225 -225 -225 -225 -225 -225 71 69 71 73 73 74 75 74 73 74 75 74 73 73 73 71 70 71 70 70 70 72 74 75 78 80 83 85 86 87 89 91 92 93 95 95 95 98 99 -209 104 106 107 110 -193 116 116 119 123 123 123 124 126 128 127 127 128 124 126 126 127 127 123 128 129 128 135 137 137 138 138 139 143 143 146 147 148 150 152 152 150 150 151 152 152 154 154 153 153 153 153 151 152 152 149 150 149 150 152 154 154 155 156 169 -193 166 -209 -209 -209 -209 -209 -193 -193 -209 -209 0 0 0 0 0
    0 0 0 0 0 0 0 0 0 0 0 0 0 0 0 0 0 0 0 0 0 0 0 0 0 0 0 0 0 0 0 0 0 0 0 0 0 0 0 0 0 0 0 0 0 0 0 0 0 0 0 0 0 0 0 0 0 0 0 0 0 0 0 0 0 0 0 0 0 68 70 70 71 72 75 76 80 83 83 85 84 86 86 -193 -209 -209 80 -209 -209 -193 75 76 79 80 80 77 76 -209 -209 -209 -209 -209 -193 -209 -209 76 79 79 79 81 79 80 79 81 81 81 80 80 78 77 76 74 74 73 71 -225 -225 -225 -225 -225 -225 -225 -225 -225 -225 -225 -225 -225 -225 -225 -225 -225 -225 -225 -225 -225 -225 -225 -225 -225 -225 -225 -225 -225 -225 -225 -225 -225 -225 -225 -225 -225 -225 -225 -225 -225 -225 -225 -225 -225 -225 -225 -225 -225 -225 -225 -225 -225 -225 -225 -225 -225 -225 -225 -225 -225 -225 -225 -225 -225 -225 -225 -225 -225 -225 -225 -225 -225 -225 -225 -225 70 71 74 73 74 76 75 75 75 76 76 75 75 75 73 72 72 71 71 71 72 74 75 77 79 82 84 85 86 88 90 92 92 94 94 95 97 99 -209 105 106 107 110 -193 115 115 118 122 122 123 123 125 128 127 127 128 124 126 126 127 127 123 127 129 127 134 136 137 138 138 138 142 143 146 148 149 152 153 153 151 152 153 153 153 154 153 151 152 152 151 149 150 149 147 148 148 149 152 154 156 158 161 166 -193 165 165 -209 -209 -209 -209 -193 -193 -193 -193 0 0 0 0 0
    0 0 0 0 0 0 0 0 0 0 0 0 0 0 0 0 0 0 0 0 0 0 0 0 0 0 0 0 0 0 0 0 0 0 0 0 0 0 0 0 0 0 0 0 0 0 0 0 0 0 0 0 0 0 0 0 0 0 0 0 0 0 0 0 0 0 0 0 0 69 71 72 72 73 75 76 79 82 81 84 83 85 -209 -209 -193 -193 -209 -193 -193 79 79 79 82 81 82 80 79 -193 -193 -193 -193 -193 75 77 77 76 79 78 80 83 81 82 82 83 83 83 82 81 79 77 77 76 75 74 -225 -225 -225 -225 -225 -225 -225 -225 -225 -225 -225 -225 -225 -225 -225 -225 -225 -225 -225 -225 -225 -225 -225 -225 -225 -225 -225 -225 -225 -225 -225 -225 -225 -225 -225 -225 -225 -225 -225 -225 -225 -225 -225 -225 -225 -225 -225 -225 -225 -225 -225 -225 -225 -225 -225 -225 -225 -225 -225 -225 -225 -225 -225 -225 -225 -225 -225 -225 -225 -225 -225 -225 -225 -225 -225 -225 -225 70 71 74 74 75 78 77 77 77 78 78 77 77 77 75 75 74 72 72 72 73 76 75 77 79 82 84 85 86 88 89 90 91 93 93 94 95 98 -209 104 106 108 111 -193 114 115 118 122 122 122 122 124 128 126 127 127 123 126 126 127 127 123 127 129 128 134 135 136 137 137 138 142 143 146 149 150 152 153 153 153 153 154 154 154 155 154 153 153 153 151 151 151 151 147 148 149 149 152 155 154 155 155 161 161 162 161 160 -193 -193 -193 -193 0 0 0 0 0 0 0 0
    0 0 0 0 0 0 0 0 0 0 0 0 0 0 0 0 0 0 0 0 0 0 0 0 0 0 0 0 0 0 0 0 0 0 0 0 0 0 0 0 0 0 0 0 0 0 0 0 0 0 0 0 0 0 0 0 0 0 0 0 0 0 0 0 0 0 0 0 0 72 73 73 74 75 76 76 79 82 82 85 83 -193 -209 -209 -209 -193 -209 -193 -193 -193 81 81 83 83 -193 -193 82 79 -193 -193 78 78 77 79 79 77 80 81 84 85 84 85 85 85 86 85 84 83 80 79 79 77 76 -225 -225 -225 -225 -225 -225 -225 -225 -225 -225 -225 -225 -225 -225 -225 -225 -225 -225 -225 -225 -225 -225 -225 -225 -225 -225 -225 -225 -225 -225 -225 -225 -225 -225 -225 -225 -225 -225 -225 -225 -225 -225 -225 -225 -225 -225 -225 -225 -225 -225 -225 -225 -225 -225 -225 -225 -225 -225 -225 -225 -225 -225 -225 -225 -225 -225 -225 -225 -225 -225 -225 -225 -225 -225 -225 -225 -225 -225 69 72 75 75 75 79 77 78 78 79 79 78 78 79 77 77 75 74 73 72 74 77 77 79 81 83 85 86 86 88 90 91 91 92 93 94 95 98 100 102 104 107 110 115 114 114 117 122 121 122 122 123 127 126 127 127 123 126 126 126 127 122 125 127 126 133 134 136 138 137 139 143 144 147 149 150 151 152 153 153 153 153 153 153 155 155 154 154 154 154 154 153 154 150 150 151 151 155 160 158 157 156 161 161 162 162 162 161 162 166 -193 0 0 0 0 0 0 0 0
    0 0 0 0 0 0 0 0 0 0 0 0 0 0 0 0 0 0 0 0 0 0 0 0 0 0 0 0 0 0 0 0 0 0 0 0 0 0 0 0 0 0 0 0 0 0 0 0 0 0 0 0 0 0 0 0 0 0 0 0 0 0 0 0 0 0 0 0 0 72 72 73 74 75 76 76 78 81 81 85 -193 -193 -209 -209 -209 -209 -209 -193 -193 83 83 83 84 83 84 83 84 81 84 80 79 79 78 79 78 78 81 82 86 87 86 87 87 87 87 86 84 83 82 81 80 78 -225 -225 -225 -225 -225 -225 -225 -225 -225 -225 -225 -225 -225 -225 -225 -225 -225 -225 -225 -225 -225 -225 -225 -225 -225 -225 -225 -225 -225 -225 -225 -225 -225 -225 -225 -225 -225 -225 -225 -225 -225 -225 -225 -225 -225 -225 -225 -225 -225 -225 -225 -225 -225 -225 -225 -225 -225 -225 -225 -225 -225 -225 -225 -225 -225 -225 -225 -225 -225 -225 -225 -225 -225 -225 -225 -225 -225 -225 -225 -225 71 77 76 76 79 78 79 79 79 80 79 79 80 78 79 78 77 78 79 81 82 83 85 84 85 86 87 87 89 90 91 91 92 94 94 95 97 98 99 102 106 109 114 113 114 117 121 120 121 121 123 126 125 126 126 123 125 126 126 126 122 124 126 125 133 136 138 139 139 140 145 147 148 150 151 153 154 154 154 154 154 154 154 156 156 155 155 155 155 155 155 155 153 152 153 152 158 164 161 157 155 161 163 163 164 165 165 166 170 -209 -193 -193 -209 0 0 0 0 0
    0 0 0 0 0 0 0 0 0 0 0 0 0 0 0 0 0 0 0 0 0 0 0 0 0 0 0 0 0 0 0 0 0 0 0 0 0 0 0 0 0 0 0 0 0 0 0 0 0 0 0 0 0 0 0 0 0 0 0 0 0 0 0 0 0 0 0 0 0 73 73 74 75 75 75 75 77 79 80 85 -193 -193 -209 -209 -193 -209 -209 -209 -209 85 84 85 84 84 85 84 85 84 86 82 80 81 79 79 80 80 83 83 86 88 87 89 88 88 88 86 85 84 84 83 81 -225 -225 -225 -225 -225 -225 -225 -225 -225 -225 -225 -225 -225 -225 -225 -225 -225 -225 -225 -225 -225 -225 -225 -225 -225 -225 -225 -225 -225 -225 -225 -225 -225 -225 -225 -225 -225 -225 -225 -225 -225 -225 -225 -225 -225 -225 -225 -225 -225 -225 -225 -225 -225 -225 -225 -225 -225 -225 -225 -225 -225 -225 -225 -225 -225 -225 -225 -225 -225 -225 -225 -225 -225 -225 -225 -225 -225 -225 -225 -225 -225 71 79 77 76 81 80 81 82 82 82 82 82 83 82 83 82 82 84 86 86 87 86 87 86 86 86 87 87 88 89 91 90 92 95 95 95 98 99 100 102 106 109 113 112 113 117 120 119 120 120 122 126 125 126 125 123 125 126 126 126 121 123 124 125 135 137 139 140 141 142 146 148 149 149 150 152 153 154 155 155 155 155 156 157 158 157 158 157 157 156 156 157 157 153 157 -193 159 166 165 163 164 164 166 165 166 167 -193 167 174 174 177 180 -193 0 0 0 0 0
    0 0 0 0 0 0 0 0 0 0 0 0 0 0 0 0 0 0 0 0 0 0 0 0 0 0 0 0 0 0 0 0 0 0 0 0 0 0 0 0 0 0 0 0 0 0 0 0 0 0 0 0 0 0 0 0 0 0 0 0 0 0 0 0 0 0 0 0 0 75 73 74 74 74 -193 74 77 79 81 87 -209 -177 -209 -209 -209 -209 -209 -209 -209 -209 85 87 -193 86 86 85 87 87 89 85 81 83 81 83 85 85 86 87 89 90 90 90 90 90 89 88 87 86 85 84 -225 -225 -225 -225 -225 -225 -225 -225 -225 -225 -225 -225 -225 -225 -225 -225 -225 -225 -225 -225 -225 -225 -225 -225 -225 -225 -225 -225 -225 -225 -225 -225 -225 -225 -225 -225 -225 -225 -225 -225 -225 -225 -225 -225 -225 -225 -225 -225 -225 -225 -225 -225 -225 -225 -225 -225 -225 -225 -225 -225 -225 -225 -225 -225 -225 -225 -225 -225 -225 -225 -225 -225 -225 -225 -225 -225 -225 -225 -225 -225 -225 -225 72 81 76 77 83 82 84 85 84 84 84 84 85 85 85 85 85 87 90 89 89 88 87 86 86 85 86 86 87 87 90 89 91 94 95 94 97 98 100 101 106 108 112 112 113 116 119 118 119 119 121 125 124 125 125 122 125 126 126 126 121 123 124 125 134 136 137 139 139 142 145 148 149 149 149 151 152 153 154 154 155 156 157 159 161 159 159 159 158 156 156 156 156 151 -193 -193 155 165 162 162 -193 168 168 167 167 169 -193 169 175 175 176 180 180 0 0 0 0 0
    0 0 0 0 0 0 0 0 0 0 0 0 0 0 0 0 0 0 0 0 0 0 0 0 0 0 0 0 0 0 0 0 0 0 0 0 0 0 0 0 0 0 0 0 0 0 0 0 0 0 0 0 0 0 0 0 0 0 0 0 0 0 0 0 0 0 0 0 0 78 75 76 75 -193 -209 73 75 77 79 -209 -209 -193 -209 -209 -209 -193 -193 -209 -193 84 84 86 86 86 87 86 88 89 90 89 84 85 84 87 88 88 88 89 90 91 91 91 91 90 90 90 89 88 87 -225 -225 -225 -225 -225 -225 -225 -225 -225 -225 -225 -225 -225 -225 -225 -225 -225 -225 -225 -225 -225 -225 -225 -225 -225 -225 -225 -225 -225 -225 -225 -225 -225 -225 -225 -225 -225 -225 -225 -225 -225 -225 -225 -225 -225 -225 -225 -225 -225 -225 -225 -225 -225 -225 -225 -225 -225 -225 -225 -225 -225 -225 -225 -225 -225 -225 -225 -225 -225 -225 -225 -225 -225 -225 -225 -225 -225 -225 -225 -225 -225 -225 -225 -225 81 77 79 84 84 85 86 85 85 85 86 86 87 86 87 87 89 91 91 91 91 89 89 87 87 88 88 89 89 90 90 92 94 96 95 97 96 99 101 105 107 110 111 112 115 119 117 118 118 120 125 124 124 124 122 125 126 126 126 121 124 125 126 133 134 135 137 138 142 145 148 149 149 150 151 151 153 154 154 155 156 157 159 161 159 160 159 158 157 157 159 158 155 163 157 164 168 170 169 172 170 171 170 170 172 172 171 176 175 178 180 181 0 0 0 0 0
    0 0 0 0 0 0 0 0 0 0 0 0 0 0 0 0 0 0 0 0 0 0 0 0 0 0 0 0 0 0 0 0 0 0 0 0 0 0 0 0 0 0 0 0 0 0 0 0 0 0 0 0 0 0 0 0 0 0 0 0 0 0 0 0 0 0 0 0 0 79 76 -193 -193 -193 -209 74 76 78 -193 -209 354 -209 -209 -209 -209 -193 -193 -209 -209 84 83 85 85 85 86 85 87 87 89 87 84 85 86 88 88 89 89 89 90 92 92 91 90 91 91 90 90 90 89 -225 -225 -225 -225 -225 -225 -225 -225 -225 -225 -225 -225 -225 -225 -225 -225 -225 -225 -225 -225 -225 -225 -225 -225 -225 -225 -225 -225 -225 -225 -225 -225 -225 -225 -225 -225 -225 -225 -225 -225 -225 -225 -225 -225 -225 -225 -225 -225 -225 -225 -225 -225 -225 -225 -225 -225 -225 -225 -225 -225 -225 -225 -225 -225 -225 -225 -225 -225 -225 -225 -225 -225 -225 -225 -225 -225 -225 -225 -225 -225 -225 -225 -225 -225 -225 -225 83 86 86 87 88 87 86 86 87 87 88 88 89 89 91 93 94 94 93 92 91 90 90 90 91 91 92 92 92 94 94 97 96 96 96 98 101 104 106 109 109 111 114 118 116 117 117 120 124 123 124 124 122 125 127 126 127 122 125 126 126 132 134 135 137 138 142 146 149 150 149 150 151 151 153 154 153 154 155 156 157 159 158 159 158 157 157 157 159 163 163 169 168 168 170 172 172 174 171 171 171 171 172 173 171 177 176 180 182 183 0 0 0 0 0
    0 0 0 0 0 0 0 0 0 0 0 0 0 0 0 0 0 0 0 0 0 0 0 0 0 0 0 0 0 0 0 0 0 0 0 0 0 0 0 0 0 0 0 0 0 0 0 0 0 0 0 0 0 0 0 0 0 0 0 0 0 0 0 0 0 0 0 0 0 -209 -209 -193 -193 -209 -209 -209 -193 -209 -209 346 354 -209 -209 -209 -209 -209 -209 -209 -209 86 85 86 86 86 87 85 87 87 89 87 85 86 87 90 89 90 90 90 91 92 92 91 90 91 90 90 90 91 89 85 -225 -225 -225 -225 -225 -225 -225 -225 -225 -225 -225 -225 -225 -225 -225 -225 -225 -225 -225 -225 -225 -225 -225 -225 -225 -225 -225 -225 -225 -225 -225 -225 -225 -225 -225 -225 -225 -225 -225 -225 -225 -225 -225 -225 -225 -225 -225 -225 -225 -225 -225 -225 -225 -225 -225 -225 -225 -225 -225 -225 -225 -225 -225 -225 -225 -225 -225 -225 -225 -225 -225 -225 -225 -225 -225 -225 -225 -225 -225 -225 -225 -225 -225 -225 -225 -225 88 -209 88 89 88 87 87 87 88 89 89 90 90 92 94 96 97 96 96 93 93 92 92 93 93 94 93 93 94 95 98 96 97 97 98 101 104 106 109 109 110 113 117 115 117 116 119 124 123 123 124 122 125 127 127 127 122 127 128 127 132 134 135 136 138 142 147 149 150 150 150 151 151 152 153 153 153 154 154 155 157 157 158 158 157 157 157 160 163 165 169 170 170 171 174 175 179 173 173 173 173 174 175 173 178 177 181 183 185 0 0 0 0 0
    0 0 0 0 0 0 0 0 0 0 0 0 0 0 0 0 0 0 0 0 0 0 0 0 0 0 0 0 0 0 0 0 0 0 0 0 0 0 0 0 0 0 0 0 0 0 0 0 0 0 0 0 0 0 0 0 0 0 0 0 0 0 0 0 0 0 0 0 0 180 -209 185 -193 -193 -209 -209 -209 -209 -209 351 359 -209 -209 -209 -209 -209 -209 -209 -193 87 86 87 -193 87 87 85 87 87 89 88 86 87 87 91 90 90 90 91 91 92 92 91 90 91 90 90 90 91 90 87 -225 -225 -225 -225 -225 -225 -225 -225 -225 -225 -225 -225 -225 -225 -225 -225 -225 -225 -225 -225 -225 -225 -225 -225 -225 -225 -225 -225 -225 -225 -225 -225 -225 -225 -225 -225 -225 -225 -225 -225 -225 -225 -225 -225 -225 -225 -225 -225 -225 -225 -225 -225 -225 -225 -225 -225 -225 -225 -225 -225 -225 -225 -225 -225 -225 -225 -225 -225 -225 -225 -225 -225 -225 -225 -225 -225 -225 -225 -225 -225 -225 -225 -225 -225 -225 -225 -225 -225 88 91 89 87 87 88 89 90 90 92 91 94 97 99 100 99 100 96 95 94 94 95 95 95 95 93 95 96 98 96 97 97 97 100 104 105 108 108 110 113 118 115 116 116 119 123 122 123 123 122 125 127 127 127 123 128 129 127 133 135 135 137 139 143 147 149 150 150 150 151 151 152 153 152 152 153 153 155 157 157 159 159 159 159 161 164 167 169 171 172 172 172 174 177 180 175 174 174 175 176 178 176 179 178 181 184 185 0 0 0 0 0
    0 0 0 0 0 0 0 0 0 0 0 0 0 0 0 0 0 0 0 0 0 0 0 0 0 0 0 0 0 0 0 0 0 0 0 0 0 0 0 0 0 0 0 0 0 0 0 0 0 0 0 0 0 0 0 0 0 0 0 0 0 0 0 0 0 0 0 0 0 177 -209 -193 -209 -209 -209 -209 -209 -209 -209 356 360 367 -209 -209 -209 -209 -193 91 86 87 86 87 87 87 87 85 87 89 90 90 89 89 89 93 91 91 91 92 91 91 92 91 90 91 90 90 90 92 91 87 -225 -225 -225 -225 -225 -225 -225 -225 -225 -225 -225 -225 -225 -225 -225 -225 -225 -225 -225 -225 -225 -225 -225 -225 -225 -225 -225 -225 -225 -225 -225 -225 -225 -225 -225 -225 -225 -225 -225 -225 -225 -225 -225 -225 -225 -225 -225 -225 -225 -225 -225 -225 -225 -225 -225 -225 -225 -225 -225 -225 -225 -225 -225 -225 -225 -225 -225 -225 -225 -225 -225 -225 -225 -225 -225 -225 -225 -225 -225 -225 -225 -225 -225 -225 -225 -225 -225 -225 88 96 92 89 89 89 90 92 92 93 93 98 99 101 102 101 102 98 98 96 96 96 96 97 97 95 98 97 99 97 99 98 98 101 103 104 108 108 110 113 118 114 115 116 118 123 122 122 123 122 125 127 127 127 123 127 128 126 132 134 135 137 139 143 147 148 150 149 150 151 151 152 153 152 153 153 154 155 158 158 161 161 160 159 160 164 167 169 170 171 169 170 173 177 181 179 177 177 178 179 180 179 180 178 181 183 185 0 0 0 0 0
    0 0 0 0 0 0 0 0 0 0 0 0 0 0 0 0 0 0 0 0 0 0 0 0 0 0 0 0 0 0 0 0 0 0 0 0 0 0 0 0 0 0 0 0 0 0 0 0 0 0 0 0 0 0 0 0 0 0 0 0 0 0 0 0 0 0 0 0 0 -209 -209 -193 -209 -209 -209 -209 -209 -209 -209 -209 -193 -209 -209 -209 -209 91 92 90 86 87 87 88 88 88 88 86 88 92 92 92 92 93 93 98 94 93 92 92 91 92 92 91 90 90 90 90 90 93 91 87 -225 -225 -225 -225 -225 -225 -225 -225 -225 -225 -225 -225 -225 -225 -225 -225 -225 -225 -225 -225 -225 -225 -225 -225 -225 -225 -225 -225 -225 -225 -225 -225 -225 -225 -225 -225 -225 -225 -225 -225 -225 -225 -225 -225 -225 -225 -225 -225 -225 -225 -225 -225 -225 -225 -225 -225 -225 -225 -225 -225 -225 -225 -225 -225 -225 -225 -225 -225 -225 -225 -225 -225 -225 -225 -225 -225 -225 -225 -225 -225 -225 -225 -225 -225 -225 -225 -225 -225 89 99 94 91 90 90 91 93 92 94 94 99 99 101 102 101 102 99 99 97 98 98 98 99 98 97 99 99 100 98 98 98 97 100 102 104 107 108 109 112 117 114 115 115 118 122 122 122 122 122 125 127 127 127 123 126 127 126 130 133 134 135 138 142 145 148 150 149 150 151 151 152 153 153 154 154 155 156 158 158 161 162 161 160 161 165 167 168 168 168 168 167 171 176 181 179 177 178 179 179 179 177 179 175 180 183 184 0 0 0 0 0
    0 0 0 0 0 0 0 0 0 0 0 0 0 0 0 0 0 0 0 0 0 0 0 0 0 0 0 0 0 0 0 0 0 0 0 0 0 0 0 0 0 0 0 0 0 0 0 0 0 0 0 0 0 0 0 0 0 0 0 0 0 0 0 0 0 0 0 0 0 -209 -209 -193 -193 -209 -209 -209 -209 -193 -209 -209 -209 -209 -209 -209 -209 90 90 89 86 -209 -209 89 91 90 -193 89 96 97 96 95 97 98 98 101 97 94 92 93 91 91 92 91 89 90 89 90 90 93 91 87 -225 -225 -225 -225 -225 -225 -225 -225 -225 -225 -225 -225 -225 -225 -225 -225 -225 -225 -225 -225 -225 -225 -225 -225 -225 -225 -225 -225 -225 -225 -225 -225 -225 -225 -225 -225 -225 -225 -225 -225 -225 -225 -225 -225 -225 -225 -225 -225 -225 -225 -225 -225 -225 -225 -225 -225 -225 -225 -225 -225 -225 -225 -225 -225 -225 -225 -225 -225 -225 -225 -225 -225 -225 -225 -225 -225 -225 -225 -225 -225 -225 -225 -225 -225 -225 -225 -225 -225 -225 100 95 91 90 91 92 94 93 94 95 100 101 103 103 103 103 101 101 99 99 99 99 100 99 99 101 101 102 99 100 100 98 102 102 104 106 107 108 110 117 112 114 114 117 122 121 122 122 122 125 127 127 127 123 126 127 126 130 131 132 134 136 141 144 147 150 149 150 150 151 152 153 152 153 154 155 155 157 157 160 162 160 159 160 164 165 167 166 166 166 167 170 174 179 176 175 176 177 178 177 175 177 174 179 182 183 0 0 0 0 0
    0 0 0 0 0 0 0 0 0 0 0 0 0 0 0 0 0 0 0 0 0 0 0 0 0 0 0 0 0 0 0 0 0 0 0 0 0 0 0 0 0 0 0 0 0 0 0 0 0 0 0 0 0 0 0 0 0 0 0 0 0 0 0 0 0 0 0 0 0 -193 -209 -209 395 -193 -209 -209 -209 -193 -209 -209 -209 -209 -209 -209 -209 89 -193 89 86 -193 -193 89 91 91 94 97 105 102 101 100 102 102 102 103 99 95 93 93 91 91 91 90 88 89 89 90 90 93 91 87 -225 -225 -225 -225 -225 -225 -225 -225 -225 -225 -225 -225 -225 -225 -225 -225 -225 -225 -225 -225 -225 -225 -225 -225 -225 -225 -225 -225 -225 -225 -225 -225 -225 -225 -225 -225 -225 -225 -225 -225 -225 -225 -225 -225 -225 -225 -225 -225 -225 -225 -225 -225 -225 -225 -225 -225 -225 -225 -225 -225 -225 -225 -225 -225 -225 -225 -225 -225 -225 -225 -225 -225 -225 -225 -225 -225 -225 -225 -225 -225 -225 -225 -225 -225 -225 -225 -225 -225 -225 -225 96 91 90 91 93 95 93 94 96 100 102 103 104 104 104 103 103 102 102 101 101 102 100 101 102 102 103 102 102 102 100 103 103 104 106 106 108 109 116 112 113 114 117 121 122 122 123 123 125 128 127 127 123 127 127 126 131 132 133 135 137 141 144 147 149 149 150 150 150 151 152 151 152 153 153 153 155 156 158 160 158 158 158 161 162 164 164 163 164 165 170 172 178 176 175 176 179 181 180 178 179 177 181 183 183 0 0 0 0 0
    0 0 0 0 0 0 0 0 0 0 0 0 0 0 0 0 0 0 0 0 0 0 0 0 0 0 0 0 0 0 0 0 0 0 0 0 0 0 0 0 0 0 0 0 0 0 0 0 0 0 0 0 0 0 0 0 0 0 0 0 0 0 0 0 0 0 0 0 0 -209 -209 -209 395 -209 -209 -209 -209 -209 -209 107 -209 -209 -193 -209 -209 94 92 90 -193 90 -193 89 91 95 100 103 108 105 104 103 105 105 104 104 99 95 93 92 90 90 91 89 86 89 89 90 90 93 91 86 -225 -225 -225 -225 -225 -225 -225 -225 -225 -225 -225 -225 -225 -225 -225 -225 -225 -225 -225 -225 -225 -225 -225 -225 -225 -225 -225 -225 -225 -225 -225 -225 -225 -225 -225 -225 -225 -225 -225 -225 -225 -225 -225 -225 -225 -225 -225 -225 -225 -225 -225 -225 -225 -225 -225 -225 -225 -225 -225 -225 -225 -225 -225 -225 -225 -225 -225 -225 -225 -225 -225 -225 -225 -225 -225 -225 -225 -225 -225 -225 -225 -225 -225 -225 -225 -225 -225 -225 -225 -225 -225 90 88 91 93 95 96 96 98 102 103 103 105 105 105 103 104 103 104 103 104 104 102 103 104 104 105 103 104 104 103 106 105 106 107 108 109 110 115 113 113 115 117 121 122 122 123 123 125 128 127 127 123 127 128 126 132 133 134 137 138 143 145 147 150 149 150 150 150 151 151 151 151 152 152 152 154 155 158 160 158 158 159 161 162 164 164 164 165 165 170 173 178 178 177 179 181 182 182 180 181 180 182 184 184 0 0 0 0 0
    0 0 0 0 0 0 0 0 0 0 0 0 0 0 0 0 0 0 0 0 0 0 0 0 0 0 0 0 0 0 0 0 0 0 0 0 0 0 0 0 0 0 0 0 0 0 0 0 0 0 0 0 0 0 0 0 0 0 0 0 0 0 0 0 0 0 0 0 0 -209 -209 -209 -209 -209 -209 -209 -209 -209 -209 108 109 109 110 109 107 103 102 95 96 98 98 94 98 99 103 105 109 106 106 105 106 106 106 105 100 96 94 93 89 90 90 88 85 89 89 89 90 93 92 88 -225 -225 -225 -225 -225 -225 -225 -225 -225 -225 -225 -225 -225 -225 -225 -225 -225 -225 -225 -225 -225 -225 -225 -225 -225 -225 -225 -225 -225 -225 -225 -225 -225 -225 -225 -225 -225 -225 -225 -225 -225 -225 -225 -225 -225 -225 -225 -225 -225 -225 -225 -225 -225 -225 -225 -225 -225 -225 -225 -225 -225 -225 -225 -225 -225 -225 -225 -225 -225 -225 -225 -225 -225 -225 -225 -225 -225 -225 -225 -225 -225 -225 -225 -225 -225 -225 -225 -225 -225 -225 -225 -225 85 88 94 98 102 98 101 103 104 104 107 106 106 104 105 104 105 104 105 104 103 103 105 105 105 104 105 105 105 108 107 109 112 113 115 115 118 116 116 117 118 122 121 122 123 122 124 126 126 126 123 126 128 125 131 133 -209 -193 138 142 143 146 149 149 150 149 149 150 151 152 153 153 153 153 155 155 158 160 159 158 159 162 163 165 165 165 167 167 170 173 179 180 179 181 182 184 183 181 182 181 182 185 184 0 0 0 0 0
    0 0 0 0 0 0 0 0 0 0 0 0 0 0 0 0 0 0 0 0 0 0 0 0 0 0 0 0 0 0 0 0 0 0 0 0 0 0 0 0 0 0 0 0 0 0 0 0 0 0 0 0 0 0 0 0 0 0 0 0 0 0 0 0 0 0 0 0 0 -209 -193 -209 -209 -209 -209 -193 -193 -193 -193 111 114 112 114 112 113 108 107 101 104 104 104 103 103 102 105 106 109 107 107 106 107 107 107 106 104 102 100 99 90 90 90 86 84 87 88 88 89 93 -225 -225 -225 -225 -225 -225 -225 -225 -225 -225 -225 -225 -225 -225 -225 -225 -225 -225 -225 -225 -225 -225 -225 -225 -225 -225 -225 -225 -225 -225 -225 -225 -225 -225 -225 -225 -225 -225 -225 -225 -225 -225 -225 -225 -225 -225 -225 -225 -225 -225 -225 -225 -225 -225 -225 -225 -225 -225 -225 -225 -225 -225 -225 -225 -225 -225 -225 -225 -225 -225 -225 -225 -225 -225 -225 -225 -225 -225 -225 -225 -225 -225 -225 -225 -225 -225 -225 -225 -225 -225 -225 -225 -225 -225 -225 88 89 97 101 98 101 102 103 104 107 106 107 105 106 105 106 105 106 105 104 104 105 105 105 105 105 105 106 109 109 112 114 115 115 116 118 117 117 117 118 122 121 122 123 122 124 125 125 125 122 125 128 125 132 133 -209 -209 138 140 140 142 146 145 -193 -193 146 148 150 152 152 153 154 154 157 157 159 161 161 159 160 162 163 164 165 165 167 166 170 173 -193 180 179 181 183 185 185 183 182 180 181 184 183 0 0 0 0 0
    0 0 0 0 0 0 0 0 0 0 0 0 0 0 0 0 0 0 0 0 0 0 0 0 0 0 0 0 0 0 0 0 0 0 0 0 0 0 0 0 0 0 0 0 0 0 0 0 0 0 0 0 0 0 0 0 0 0 0 0 0 0 0 0 0 0 0 0 0 -209 -193 -209 -209 -209 -209 -209 -193 -193 -193 115 117 116 117 117 117 112 111 107 106 107 108 107 106 105 106 107 109 108 107 106 107 107 107 107 106 105 105 105 103 -209 -209 -209 -209 79 -225 -225 -225 -225 -225 -225 -225 -225 -225 -225 -225 -225 -225 -225 -225 -225 -225 -225 -225 -225 -225 -225 -225 -225 -225 -225 -225 -225 -225 -225 -225 -225 -225 -225 -225 -225 -225 -225 -225 -225 -225 -225 -225 -225 -225 -225 -225 -225 -225 -225 -225 -225 -225 -225 -225 -225 -225 -225 -225 -225 -225 -225 -225 -225 -225 -225 -225 -225 -225 -225 -225 -225 -225 -225 -225 -225 -225 -225 -225 -225 -225 -225 -225 -225 -225 -225 -225 -225 -225 -225 -225 -225 -225 -225 -225 -225 -225 -225 -225 -225 89 102 102 101 103 105 105 105 111 107 108 107 107 106 107 106 107 106 105 105 106 106 107 106 107 107 107 110 110 113 115 115 115 116 118 118 118 119 119 123 122 122 124 122 123 125 124 124 122 125 128 126 133 134 -209 -209 138 140 140 141 142 141 -193 141 140 143 146 151 152 154 155 -193 158 159 161 162 163 160 162 164 164 165 165 166 167 166 169 171 174 176 176 180 181 184 185 183 180 178 179 179 181 0 0 0 0 0
    0 0 0 0 0 0 0 0 0 0 0 0 0 0 0 0 0 0 0 0 0 0 0 0 0 0 0 0 0 0 0 0 0 0 0 0 0 0 0 0 0 0 0 0 0 0 0 0 0 0 0 0 0 0 0 0 0 0 0 0 0 0 0 0 0 0 0 0 0 -193 100 102 -209 -193 -209 104 108 -209 -209 -193 -193 116 -193 117 118 114 113 110 108 111 112 110 109 106 107 108 109 108 107 106 107 107 107 107 106 -225 -225 -225 -225 -225 -225 -225 -225 -225 -225 -225 -225 -225 -225 -225 -225 -225 -225 -225 -225 -225 -225 -225 -225 -225 -225 -225 -225 -225 -225 -225 -225 -225 -225 -225 -225 -225 -225 -225 -225 -225 -225 -225 -225 -225 -225 -225 -225 -225 -225 -225 -225 -225 -225 -225 -225 -225 -225 -225 -225 -225 -225 -225 -225 -225 -225 -225 -225 -225 -225 -225 -225 -225 -225 -225 -225 -225 -225 -225 -225 -225 -225 -225 -225 -225 -225 -225 -225 -225 -225 -225 -225 -225 -225 -225 -225 -225 -225 -225 -225 -225 -225 -225 -225 -225 -225 -225 -225 -225 -225 -225 103 103 105 105 106 105 114 109 111 109 109 108 108 108 109 107 107 107 107 107 108 108 108 108 108 110 110 113 114 115 115 116 118 118 119 120 120 124 123 123 124 122 123 124 124 124 122 125 128 126 133 134 136 -209 138 141 140 141 141 141 141 141 140 143 147 152 153 155 156 -193 159 159 161 161 162 159 160 163 163 165 165 166 167 167 170 171 174 175 174 178 179 182 182 178 176 175 177 177 179 0 0 0 0 0
    0 0 0 0 0 0 0 0 0 0 0 0 0 0 0 0 0 0 0 0 0 0 0 0 0 0 0 0 0 0 0 0 0 0 0 0 0 0 0 0 0 0 0 0 0 0 0 0 0 0 0 0 0 0 0 0 0 0 0 0 0 0 0 0 0 0 0 0 0 -193 102 -209 -209 -209 106 104 -193 -209 -209 -193 -209 115 117 117 118 114 113 112 111 113 114 112 111 108 110 111 110 109 107 107 107 107 107 107 -225 -225 -225 -225 -225 -225 -225 -225 -225 -225 -225 -225 -225 -225 -225 -225 -225 -225 -225 -225 -225 -225 -225 -225 -225 -225 -225 -225 -225 -225 -225 -225 -225 -225 -225 -225 -225 -225 -225 -225 -225 -225 -225 -225 -225 -225 -225 -225 -225 -225 -225 -225 -225 -225 -225 -225 -225 -225 -225 -225 -225 -225 -225 -225 -225 -225 -225 -225 -225 -225 -225 -225 -225 -225 -225 -225 -225 -225 -225 -225 -225 -225 -225 -225 -225 -225 -225 -225 -225 -225 -225 -225 -225 -225 -225 -225 -225 -225 -225 -225 -225 -225 -225 -225 -225 -225 -225 -225 -225 -225 -225 -225 -225 103 106 104 104 104 112 109 111 109 109 108 110 110 111 109 109 108 108 109 109 110 110 109 109 112 111 114 115 115 116 117 118 119 119 121 121 125 124 123 125 123 124 125 125 125 122 126 129 127 133 134 135 -209 -209 141 140 141 141 141 142 142 140 144 148 -193 154 155 156 156 158 159 160 159 161 159 160 162 163 164 165 166 168 169 170 171 172 173 173 175 173 176 179 -209 175 177 178 -209 -193 0 0 0 0 0</data></disparity>
</opencv_storage>
