<?xml version="1.0"?>
<opencv_storage>
<gps_time_stamp>301802</gps_time_stamp>
<gps_x>-1.2418167114257813e+001</gps_x>
<gps_y>1.0981640815734863e+001</gps_y>
<gps_z>-2.0403337478637695e+000</gps_z>
<image_time_stamp>292656</image_time_stamp>
<disparity type_id="opencv-matrix">
  <rows>85</rows>
  <cols>320</cols>
  <dt>s</dt>
  <data>
    0 0 0 0 0 0 0 0 0 0 0 0 0 0 0 0 0 0 0 0 0 0 0 0 0 0 0 0 0 0 0 0 0 0 0 0 0 0 0 0 0 0 0 0 0 0 0 0 0 0 0 0 0 0 0 0 0 0 0 0 0 0 0 0 0 0 0 0 0 61 61 60 61 61 60 60 60 58 56 48 47 52 52 51 51 51 51 51 53 53 51 49 48 54 45 43 44 44 44 44 44 44 -209 42 43 43 36 37 39 38 38 38 37 37 34 38 36 33 31 31 30 30 29 28 28 27 25 24 25 22 23 22 21 22 19 20 20 18 18 15 17 17 13 15 16 13 13 12 11 11 12 12 11 10 10 9 0 9 9 0 0 9 10 11 12 13 13 13 13 13 12 11 10 9 0 0 0 0 0 9 9 9 10 17 18 16 19 18 20 20 21 21 21 -177 -177 -193 28 28 29 30 32 32 29 32 32 32 32 32 31 31 33 36 38 -177 44 57 -193 66 61 62 57 58 59 -177 515 517 514 579 -177 -193 -193 -209 -177 62 61 64 62 62 62 67 66 64 66 69 72 -209 -193 -193 -177 78 82 -193 84 84 87 87 -193 606 609 -193 86 88 -193 848 -193 90 -193 91 -193 92 90 96 -193 101 -193 103 -193 -209 -193 -193 -193 -209 106 -193 108 111 115 115 116 118 118 118 118 118 116 -193 -193 -193 -193 -209 -209 -193 -193 -193 130 130 132 133 136 136 138 138 138 139 140 0 0 0 0 0
    0 0 0 0 0 0 0 0 0 0 0 0 0 0 0 0 0 0 0 0 0 0 0 0 0 0 0 0 0 0 0 0 0 0 0 0 0 0 0 0 0 0 0 0 0 0 0 0 0 0 0 0 0 0 0 0 0 0 0 0 0 0 0 0 0 0 0 0 0 62 61 60 61 61 61 60 61 58 55 47 46 51 52 51 51 51 50 51 53 53 50 48 48 54 45 44 43 44 44 44 44 44 -209 42 42 42 36 37 39 38 37 37 36 37 34 37 35 33 31 31 30 30 29 28 28 27 24 24 25 23 24 22 22 22 20 20 21 18 18 15 17 17 13 15 16 12 12 12 11 11 11 12 11 10 10 9 9 9 9 0 0 9 10 11 12 14 14 13 13 13 12 11 11 9 0 0 0 0 0 0 0 0 9 17 18 16 19 17 19 19 21 20 20 -193 -177 -177 28 27 29 29 32 32 29 32 32 32 32 32 31 31 33 36 38 -177 45 57 -177 66 61 61 56 58 59 -193 514 517 513 579 -177 -193 -177 -209 -177 62 61 64 62 62 62 67 66 64 66 69 72 -209 -193 -193 -177 78 82 -193 83 83 87 87 -193 607 609 -193 86 -209 -193 847 -193 90 91 92 -193 93 90 96 -193 101 -193 103 -193 -209 -193 -193 -177 -209 -193 -193 108 111 115 116 116 118 118 118 118 117 116 -193 -193 -193 -193 -209 -209 -193 -193 -193 130 130 131 133 137 136 138 138 137 139 140 0 0 0 0 0
    0 0 0 0 0 0 0 0 0 0 0 0 0 0 0 0 0 0 0 0 0 0 0 0 0 0 0 0 0 0 0 0 0 0 0 0 0 0 0 0 0 0 0 0 0 0 0 0 0 0 0 0 0 0 0 0 0 0 0 0 0 0 0 0 0 0 0 0 0 62 62 61 61 61 61 60 61 58 -209 45 45 50 51 51 51 51 50 51 52 52 50 48 49 53 45 44 43 44 44 44 44 44 -209 42 42 42 36 37 38 37 37 37 36 36 34 37 35 33 31 31 30 31 29 28 28 27 25 25 26 23 24 22 22 22 20 20 21 18 18 15 17 17 13 15 16 12 12 12 12 12 11 12 12 11 10 10 9 9 9 0 0 9 10 11 12 13 13 13 13 13 12 11 10 0 0 0 0 0 0 0 0 0 9 16 17 16 19 17 19 19 21 20 20 -193 -177 -177 27 27 29 29 32 33 29 33 33 32 32 32 31 32 32 36 38 35 45 56 -177 65 60 60 56 58 58 -193 514 517 513 579 -177 -193 -177 -209 -177 62 61 63 62 62 62 67 66 64 67 69 -193 -209 -193 -193 -177 78 82 85 83 83 -193 88 -193 607 609 -193 86 -193 -193 847 -193 91 92 92 -193 93 90 96 -177 101 -193 103 -193 -193 -193 -193 772 -209 -193 -193 108 111 115 116 116 118 118 118 118 117 116 -193 -193 -193 -193 -209 -209 -193 -193 -193 130 130 131 133 137 136 138 138 137 139 140 0 0 0 0 0
    0 0 0 0 0 0 0 0 0 0 0 0 0 0 0 0 0 0 0 0 0 0 0 0 0 0 0 0 0 0 0 0 0 0 0 0 0 0 0 0 0 0 0 0 0 0 0 0 0 0 0 0 0 0 0 0 0 0 0 0 0 0 0 0 0 0 0 0 0 63 62 61 61 61 61 60 61 58 -209 -193 -193 -193 51 50 50 51 50 51 52 52 50 49 49 53 45 44 43 44 44 44 44 45 -209 42 42 42 36 37 38 37 36 37 36 36 33 36 34 33 31 31 31 31 30 29 29 28 25 25 26 23 24 22 22 22 19 20 21 18 18 16 18 18 13 16 16 13 12 12 12 12 11 12 12 11 11 10 10 9 9 9 9 10 10 11 13 14 13 13 13 13 11 11 10 0 0 0 0 0 0 0 0 0 0 16 17 15 19 17 19 19 20 19 20 -193 -177 -177 27 27 29 29 32 33 30 33 33 33 33 33 32 32 32 37 39 36 45 55 -177 63 59 59 55 -193 58 -193 514 516 513 -193 -177 -193 -193 -209 -177 62 61 63 62 62 62 66 66 64 67 69 -193 -193 492 -193 -193 78 82 84 83 83 -209 88 -193 607 610 -193 86 -193 -193 846 -193 91 92 92 -193 93 90 95 -177 100 -193 102 103 103 -193 -193 772 -193 -193 -193 108 111 115 116 116 118 118 118 118 117 116 -193 -193 -193 -193 -209 -209 -193 -193 -193 130 130 131 133 137 136 138 137 137 139 140 0 0 0 0 0
    0 0 0 0 0 0 0 0 0 0 0 0 0 0 0 0 0 0 0 0 0 0 0 0 0 0 0 0 0 0 0 0 0 0 0 0 0 0 0 0 0 0 0 0 0 0 0 0 0 0 0 0 0 0 0 0 0 0 0 0 0 0 0 0 0 0 0 0 0 62 61 61 61 61 61 60 60 58 -209 -177 -193 -193 50 50 50 50 50 51 52 52 49 48 49 53 45 44 43 44 44 45 45 45 -209 42 42 43 36 36 38 37 36 36 35 35 33 36 33 33 31 31 31 31 30 29 29 28 25 25 26 23 24 22 22 22 19 20 20 18 18 16 18 18 14 17 16 13 12 13 13 13 12 13 12 11 12 11 11 10 9 9 9 11 11 11 13 13 13 13 12 13 11 11 10 0 0 0 0 0 0 0 0 0 0 13 16 14 19 17 19 19 20 19 20 -193 -177 -177 27 27 29 29 32 34 30 34 34 34 34 34 33 33 32 37 39 35 44 53 -193 60 -193 -193 54 -177 -193 -193 514 516 512 -193 -177 -193 -193 -193 -177 61 61 63 62 61 62 66 66 64 66 69 -193 72 -193 -193 -193 78 82 84 82 82 -193 88 -193 607 610 -193 87 92 91 -193 89 91 92 92 -193 93 90 94 -193 99 103 101 102 102 -193 -193 771 -193 -193 -209 108 110 115 117 116 117 118 117 117 117 116 -193 -193 -193 -193 -209 -193 -193 -193 -193 129 130 131 133 136 136 137 137 137 139 140 0 0 0 0 0
    0 0 0 0 0 0 0 0 0 0 0 0 0 0 0 0 0 0 0 0 0 0 0 0 0 0 0 0 0 0 0 0 0 0 0 0 0 0 0 0 0 0 0 0 0 0 0 0 0 0 0 0 0 0 0 0 0 0 0 0 0 0 0 0 0 0 0 0 0 62 61 60 60 60 60 59 60 58 -209 -177 -193 -193 50 49 50 50 50 51 52 52 49 48 50 53 45 44 43 44 44 44 44 45 -193 42 42 43 36 36 38 36 35 36 35 35 32 35 33 32 31 31 31 31 30 29 29 29 26 26 27 24 24 22 22 22 20 20 20 18 18 16 18 18 14 17 16 13 12 12 12 13 13 13 13 12 13 12 12 11 10 10 10 11 11 11 12 12 12 12 12 12 11 11 10 9 0 0 0 0 0 0 0 0 0 11 15 13 19 16 19 19 20 19 20 -193 -177 -193 -177 27 28 30 31 34 31 34 34 34 34 34 33 33 32 36 38 34 44 51 -193 59 -193 -193 54 -177 -177 -177 514 515 511 513 -177 60 59 -193 -193 61 61 63 62 61 62 66 66 64 66 69 -209 72 -193 -193 -193 79 82 84 82 82 -193 87 -193 607 610 87 87 92 92 91 89 91 92 92 -193 93 -193 93 -193 97 102 101 101 101 -193 -193 -193 -193 -193 -209 107 110 114 117 116 117 117 117 117 116 115 113 -193 114 -193 -209 -193 -193 -193 -193 129 130 131 133 136 136 137 137 137 138 139 0 0 0 0 0
    0 0 0 0 0 0 0 0 0 0 0 0 0 0 0 0 0 0 0 0 0 0 0 0 0 0 0 0 0 0 0 0 0 0 0 0 0 0 0 0 0 0 0 0 0 0 0 0 0 0 0 0 0 0 0 0 0 0 0 0 0 0 0 0 0 0 0 0 0 62 60 60 60 60 60 59 59 58 -209 -193 -193 -193 50 49 50 50 50 51 52 52 48 49 50 53 46 44 43 44 44 44 44 46 -193 42 42 43 36 36 38 36 35 36 35 35 32 35 33 32 31 30 31 31 30 30 29 29 27 27 28 24 24 22 21 22 19 20 19 17 18 16 18 18 14 17 15 13 12 12 12 15 14 14 14 13 15 14 14 12 11 11 10 12 12 11 12 12 12 11 11 12 11 10 10 9 9 9 9 0 0 0 0 0 0 11 14 13 19 17 19 19 20 20 20 -177 -193 -193 -177 27 28 30 31 34 31 35 34 35 34 34 33 35 33 37 39 38 44 48 53 56 55 55 53 -177 -177 -177 514 515 511 513 -177 60 59 59 60 61 61 63 62 62 62 67 66 64 66 69 -193 72 -193 -193 -193 79 82 84 82 82 -193 87 -193 607 610 -193 87 92 92 91 90 91 92 92 -193 92 -193 -193 -177 96 102 100 101 101 100 100 -193 99 -209 -177 107 110 114 117 116 117 117 117 117 116 115 112 112 113 113 -193 -193 410 -193 -193 129 131 132 134 137 136 136 136 137 138 139 0 0 0 0 0
    0 0 0 0 0 0 0 0 0 0 0 0 0 0 0 0 0 0 0 0 0 0 0 0 0 0 0 0 0 0 0 0 0 0 0 0 0 0 0 0 0 0 0 0 0 0 0 0 0 0 0 0 0 0 0 0 0 0 0 0 0 0 0 0 0 0 0 0 0 61 60 60 60 60 59 58 59 -193 -209 -193 44 -193 50 49 49 50 50 50 52 52 48 49 50 53 46 44 43 44 44 44 44 46 -193 42 42 43 36 36 38 36 35 35 34 35 32 35 32 32 31 31 31 31 31 30 29 30 28 28 29 25 24 23 21 22 19 20 19 17 18 16 18 18 14 17 15 14 13 12 14 16 15 15 14 14 16 15 15 13 12 11 11 13 12 11 12 11 12 11 11 11 11 10 10 10 10 9 10 9 0 9 9 9 0 11 14 13 20 17 20 20 21 20 21 -193 -193 -193 27 28 29 31 31 34 30 34 33 34 34 35 35 36 36 39 40 40 44 47 52 54 53 55 53 -177 -177 -177 -193 -193 -193 -193 -193 60 58 59 60 61 61 63 -193 -193 62 67 66 64 66 68 -193 72 -193 -193 77 79 82 84 82 81 86 87 -193 607 609 -193 -193 -193 92 91 90 91 91 91 -193 92 88 -193 -177 95 101 100 101 101 100 100 100 100 -209 68 -193 -193 114 117 116 117 117 116 117 116 115 113 112 113 113 -193 -193 410 411 -193 129 131 132 134 137 135 136 136 137 138 138 0 0 0 0 0
    0 0 0 0 0 0 0 0 0 0 0 0 0 0 0 0 0 0 0 0 0 0 0 0 0 0 0 0 0 0 0 0 0 0 0 0 0 0 0 0 0 0 0 0 0 0 0 0 0 0 0 0 0 0 0 0 0 0 0 0 0 0 0 0 0 0 0 0 0 61 60 60 60 60 59 58 59 57 -209 -193 44 -193 49 48 48 49 49 49 51 51 47 47 49 53 46 44 43 44 44 43 44 45 -193 41 41 42 35 36 37 36 34 35 34 35 32 35 32 32 31 31 31 32 31 31 29 30 28 29 30 26 25 23 21 22 19 20 19 17 18 17 18 19 15 18 15 16 15 15 18 18 16 17 16 16 18 17 17 14 13 12 12 13 13 10 11 11 11 10 11 11 11 10 10 11 11 10 11 10 10 10 10 10 9 11 12 13 20 18 20 20 21 21 22 -193 25 27 28 28 29 31 32 34 30 34 32 35 35 35 36 37 37 39 41 41 44 45 51 52 52 54 52 -193 54 -177 54 -193 54 56 -209 59 58 58 60 61 61 63 -193 -193 62 68 66 64 66 69 73 73 72 73 77 79 82 84 82 81 86 86 -193 607 608 -193 -193 -193 92 91 91 90 91 91 -193 91 88 90 -193 94 101 100 101 100 100 100 100 100 -193 68 -193 -193 114 116 116 117 117 116 116 116 115 113 113 113 113 -193 -193 411 411 -193 -193 132 133 134 137 135 136 136 137 137 137 0 0 0 0 0
    0 0 0 0 0 0 0 0 0 0 0 0 0 0 0 0 0 0 0 0 0 0 0 0 0 0 0 0 0 0 0 0 0 0 0 0 0 0 0 0 0 0 0 0 0 0 0 0 0 0 0 0 0 0 0 0 0 0 0 0 0 0 0 0 0 0 0 0 0 61 60 60 60 60 59 58 59 -193 -209 44 45 51 49 47 48 48 49 48 50 50 46 46 48 52 46 44 43 43 43 43 43 45 -193 41 41 42 35 36 37 35 34 34 35 35 32 36 33 32 31 31 32 32 31 31 29 31 29 30 31 27 25 23 21 21 19 19 18 16 18 17 18 19 17 19 17 18 17 18 19 19 18 19 19 18 20 19 18 15 15 13 13 14 13 9 10 10 10 10 10 10 10 10 10 12 12 11 12 11 11 11 11 11 10 10 11 15 22 19 22 22 23 23 23 26 26 28 29 29 30 32 32 34 31 34 32 36 35 36 37 38 37 39 40 39 42 43 49 50 50 53 51 53 53 54 54 54 53 55 56 59 57 58 60 61 61 63 63 -193 63 68 67 65 67 69 74 73 73 74 77 79 82 84 82 81 86 86 86 -193 -193 87 -193 -193 92 91 91 90 91 91 91 91 88 89 -193 94 101 100 101 100 100 100 101 100 -193 68 -193 -193 113 116 115 116 116 115 116 116 115 114 113 114 114 -193 -193 411 412 -193 -193 132 133 134 137 135 136 136 136 137 137 0 0 0 0 0
    0 0 0 0 0 0 0 0 0 0 0 0 0 0 0 0 0 0 0 0 0 0 0 0 0 0 0 0 0 0 0 0 0 0 0 0 0 0 0 0 0 0 0 0 0 0 0 0 0 0 0 0 0 0 0 0 0 0 0 0 0 0 0 0 0 0 0 0 0 61 60 60 60 60 59 58 59 57 -209 45 46 51 49 48 47 48 49 47 50 50 46 46 47 52 45 43 43 43 42 42 43 44 -193 39 39 41 35 35 37 35 34 34 35 35 32 36 33 32 31 31 32 32 31 31 30 31 30 31 32 27 25 24 21 21 19 19 18 16 18 18 18 19 18 19 18 20 19 19 20 20 19 19 19 19 21 20 20 18 18 17 15 16 14 9 10 9 9 9 9 9 10 10 10 13 13 12 12 12 12 12 12 12 10 11 11 17 23 22 23 24 24 26 25 28 27 29 29 30 30 32 32 33 31 34 31 36 35 36 37 37 37 38 38 39 41 42 46 47 47 51 50 52 53 53 53 53 53 55 55 58 57 57 60 60 61 62 62 62 63 68 67 66 67 69 74 73 73 74 77 79 82 84 82 80 85 85 86 85 86 87 -193 92 92 91 92 91 92 91 91 92 89 91 92 94 100 100 100 100 100 101 101 102 -193 -193 108 111 113 115 115 116 116 115 116 116 116 115 -193 115 115 -193 413 413 -193 -193 -193 131 132 134 136 134 135 135 136 136 136 0 0 0 0 0
    0 0 0 0 0 0 0 0 0 0 0 0 0 0 0 0 0 0 0 0 0 0 0 0 0 0 0 0 0 0 0 0 0 0 0 0 0 0 0 0 0 0 0 0 0 0 0 0 0 0 0 0 0 0 0 0 0 0 0 0 0 0 0 0 0 0 0 0 0 61 59 60 59 59 59 58 58 57 -209 48 47 51 50 49 48 49 49 47 49 50 46 46 47 51 45 43 42 42 42 42 42 43 40 38 38 40 35 35 37 35 34 34 35 35 31 35 32 31 30 30 32 32 31 31 30 31 31 32 32 28 26 24 21 21 20 19 18 16 18 19 18 20 19 20 19 21 20 20 19 20 19 20 19 20 21 21 20 19 19 18 16 18 15 10 10 10 10 10 10 9 10 10 11 14 13 13 13 13 13 12 12 13 10 11 12 19 23 23 24 26 25 27 26 28 28 29 30 30 30 32 31 32 30 34 30 36 35 36 37 38 38 38 38 39 41 42 45 45 46 51 49 52 52 53 53 52 52 54 53 57 55 56 59 59 61 62 62 62 63 69 67 66 67 69 75 74 74 74 78 79 82 84 82 80 85 85 86 85 86 87 87 92 92 92 92 91 92 92 92 93 90 92 93 94 99 99 100 100 101 102 102 103 106 109 109 111 113 114 115 116 115 115 115 116 116 116 -193 -193 -209 -209 414 414 124 -209 130 130 131 133 135 134 134 135 135 136 136 0 0 0 0 0
    0 0 0 0 0 0 0 0 0 0 0 0 0 0 0 0 0 0 0 0 0 0 0 0 0 0 0 0 0 0 0 0 0 0 0 0 0 0 0 0 0 0 0 0 0 0 0 0 0 0 0 0 0 0 0 0 0 0 0 0 0 0 0 0 0 0 0 0 0 61 59 59 59 59 59 58 58 56 -209 51 49 51 50 50 48 49 49 47 48 49 46 46 46 51 44 42 42 41 41 41 41 42 40 37 37 40 35 35 37 35 34 34 35 35 31 35 33 31 30 30 31 31 30 31 30 31 31 32 32 28 26 25 21 21 20 19 17 15 17 19 18 20 20 19 19 21 20 20 20 20 19 21 20 21 22 21 21 20 20 19 17 19 16 10 11 10 11 10 10 9 11 11 11 15 14 13 13 13 13 13 13 14 11 12 14 19 23 23 25 26 25 27 27 29 29 30 30 31 30 33 31 31 30 33 29 35 34 35 36 38 38 38 38 39 40 42 45 44 45 51 49 51 51 52 52 52 51 52 49 55 52 54 57 57 60 62 61 62 63 70 68 66 67 70 76 75 74 75 78 80 82 84 82 80 85 85 86 85 86 87 87 91 92 92 93 92 92 93 93 93 91 93 93 95 98 99 100 100 101 102 103 104 107 109 109 111 112 113 114 115 115 115 114 115 116 -193 -177 -193 -209 -209 -193 -193 125 -193 129 130 130 132 134 133 133 134 134 135 135 0 0 0 0 0
    0 0 0 0 0 0 0 0 0 0 0 0 0 0 0 0 0 0 0 0 0 0 0 0 0 0 0 0 0 0 0 0 0 0 0 0 0 0 0 0 0 0 0 0 0 0 0 0 0 0 0 0 0 0 0 0 0 0 0 0 0 0 0 0 0 0 0 0 0 60 59 59 59 59 59 58 58 56 56 52 49 51 51 50 49 49 49 47 48 49 47 46 46 50 44 42 41 41 41 40 41 41 39 36 36 39 34 35 37 35 34 34 35 35 31 35 33 31 31 31 32 32 30 32 30 31 31 31 31 29 26 26 22 21 20 19 17 15 17 20 18 20 20 20 20 21 21 20 19 20 19 21 20 21 22 22 22 21 21 20 19 19 18 12 12 11 12 11 11 10 11 11 11 16 14 14 14 14 14 14 14 15 11 13 15 19 22 23 25 27 25 27 27 29 29 31 31 30 30 32 30 31 30 32 28 34 32 35 35 38 38 38 38 40 40 43 46 45 46 51 50 51 51 51 51 51 51 51 46 52 48 50 54 54 59 60 59 61 63 70 68 66 68 70 77 75 75 75 78 80 82 84 82 79 84 84 85 84 85 86 86 90 91 92 93 92 93 94 93 94 91 93 94 95 97 99 99 100 101 103 -193 -193 107 110 109 111 112 113 113 114 114 115 114 116 117 -193 -193 121 -209 -193 -193 -193 126 128 129 129 129 131 134 133 133 134 133 135 135 0 0 0 0 0
    0 0 0 0 0 0 0 0 0 0 0 0 0 0 0 0 0 0 0 0 0 0 0 0 0 0 0 0 0 0 0 0 0 0 0 0 0 0 0 0 0 0 0 0 0 0 0 0 0 0 0 0 0 0 0 0 0 0 0 0 0 0 0 0 0 0 0 0 0 60 59 59 59 59 58 58 58 56 56 53 50 51 51 51 50 50 50 47 48 49 48 46 46 49 43 42 41 41 41 40 40 41 39 34 34 39 34 35 37 35 35 34 35 36 31 35 33 31 32 31 32 32 30 32 30 30 31 31 31 29 27 27 23 22 21 19 18 16 17 20 18 21 21 20 21 21 20 20 18 19 17 20 19 20 21 21 22 21 21 21 19 20 19 13 15 13 13 13 12 11 12 11 12 17 14 14 14 14 15 14 14 15 11 14 15 20 22 23 25 26 25 27 27 28 29 31 30 30 29 31 30 30 30 31 27 34 31 35 36 38 39 38 39 41 40 43 47 44 46 51 50 51 50 50 50 50 51 50 45 49 47 49 51 50 57 59 59 57 61 70 67 66 68 71 77 75 75 75 78 80 80 83 81 78 83 82 83 82 83 86 85 89 90 91 92 92 93 94 93 94 92 94 95 95 97 99 99 100 101 103 -193 -193 108 110 109 111 112 112 113 114 114 115 114 116 118 119 -193 122 122 123 123 124 126 128 129 129 128 130 133 133 133 134 133 135 135 0 0 0 0 0
    0 0 0 0 0 0 0 0 0 0 0 0 0 0 0 0 0 0 0 0 0 0 0 0 0 0 0 0 0 0 0 0 0 0 0 0 0 0 0 0 0 0 0 0 0 0 0 0 0 0 0 0 0 0 0 0 0 0 0 0 0 0 0 0 0 0 0 0 0 60 58 59 59 59 58 58 58 -193 56 53 50 51 52 51 50 51 50 48 48 49 49 46 45 48 43 42 42 41 41 40 40 40 39 32 33 39 35 35 37 35 35 35 36 36 31 35 34 31 32 31 32 32 30 31 30 30 31 31 31 29 28 28 25 24 22 21 20 18 18 21 19 22 22 21 21 21 20 20 18 19 17 20 19 20 22 21 22 21 22 22 20 21 19 14 16 14 15 15 13 11 12 12 12 17 15 14 13 14 15 14 14 15 12 14 16 19 21 22 24 26 25 26 26 27 28 30 30 30 29 30 29 29 30 31 27 33 31 35 37 38 38 38 38 39 38 41 45 43 45 51 49 50 50 50 50 50 51 51 46 49 48 49 51 49 53 57 58 55 60 68 66 66 69 71 78 75 75 76 78 80 80 82 81 78 82 81 82 81 82 85 84 88 89 90 91 91 93 95 94 95 93 96 96 96 97 99 99 100 102 -193 -193 106 108 111 110 111 111 111 112 114 113 115 114 117 118 120 121 123 123 124 123 125 126 128 128 128 127 130 133 133 133 135 134 136 136 0 0 0 0 0
    0 0 0 0 0 0 0 0 0 0 0 0 0 0 0 0 0 0 0 0 0 0 0 0 0 0 0 0 0 0 0 0 0 0 0 0 0 0 0 0 0 0 0 0 0 0 0 0 0 0 0 0 0 0 0 0 0 0 0 0 0 0 0 0 0 0 0 0 0 60 59 59 59 59 59 58 59 57 57 54 51 51 52 52 50 50 50 48 48 49 49 46 46 48 43 42 42 41 42 41 41 41 40 32 34 39 35 36 37 36 36 35 37 37 32 35 34 31 32 31 32 31 30 31 30 30 31 30 31 29 28 28 25 25 23 22 21 20 20 22 20 22 23 21 22 21 20 20 17 19 17 20 19 21 22 22 22 22 23 23 21 22 21 18 20 18 17 17 15 12 13 12 12 18 15 14 13 13 14 14 14 15 12 14 16 19 22 22 24 26 25 26 26 27 28 31 30 30 29 31 30 30 31 32 28 34 32 36 37 37 37 36 35 37 36 40 43 42 45 51 49 49 50 50 50 50 52 51 46 49 50 49 51 49 53 57 58 55 60 67 67 67 70 72 78 76 76 76 78 79 79 81 80 78 81 81 81 81 81 85 84 86 87 88 91 92 93 96 95 96 95 98 98 97 97 99 99 101 103 105 -193 107 109 111 110 111 111 111 111 113 113 115 115 117 119 121 121 124 124 124 124 125 126 128 128 128 127 129 132 133 134 135 135 137 137 0 0 0 0 0
    0 0 0 0 0 0 0 0 0 0 0 0 0 0 0 0 0 0 0 0 0 0 0 0 0 0 0 0 0 0 0 0 0 0 0 0 0 0 0 0 0 0 0 0 0 0 0 0 0 0 0 0 0 0 0 0 0 0 0 0 0 0 0 0 0 0 0 0 0 61 59 59 59 59 59 59 59 57 57 54 51 51 53 52 50 50 50 48 48 50 50 46 46 49 44 42 42 42 42 42 42 42 41 33 35 39 36 37 37 36 36 36 37 37 32 35 34 31 32 31 32 31 30 31 30 30 30 30 30 29 28 28 26 25 23 22 21 21 21 23 21 23 23 22 22 22 21 21 17 18 16 20 19 21 22 23 23 23 24 25 23 24 23 21 22 21 18 18 15 12 12 12 12 17 15 14 13 13 14 14 13 15 11 13 18 19 21 22 24 26 25 26 26 27 28 31 30 31 29 31 31 31 32 34 29 35 33 37 37 37 38 37 35 38 36 41 43 43 44 50 49 49 50 50 50 51 52 52 46 49 50 51 51 49 53 57 58 56 60 65 67 67 71 73 79 76 76 77 78 79 78 79 79 77 80 80 79 79 79 84 82 82 84 86 89 92 94 97 96 97 96 99 98 98 97 98 99 102 104 106 107 108 109 111 110 110 110 110 111 113 113 116 115 117 119 121 122 125 124 124 124 126 127 128 127 128 126 128 132 134 134 136 136 138 138 0 0 0 0 0
    0 0 0 0 0 0 0 0 0 0 0 0 0 0 0 0 0 0 0 0 0 0 0 0 0 0 0 0 0 0 0 0 0 0 0 0 0 0 0 0 0 0 0 0 0 0 0 0 0 0 0 0 0 0 0 0 0 0 0 0 0 0 0 0 0 0 0 0 0 61 59 59 59 59 59 59 59 57 57 55 52 52 53 53 51 51 50 49 49 51 50 47 46 49 44 43 43 43 43 43 43 43 42 35 36 40 37 38 37 37 37 36 38 37 32 34 34 32 33 31 32 31 30 31 31 30 30 30 30 28 28 28 26 26 24 24 23 23 23 24 23 24 24 23 24 23 22 22 19 18 17 21 17 20 22 24 24 25 26 26 24 25 25 23 22 21 19 19 16 12 11 12 12 16 14 14 13 13 14 15 13 16 11 13 19 19 20 22 23 25 24 26 26 26 28 30 29 31 29 31 31 32 32 34 30 35 33 38 38 38 39 38 38 41 40 43 44 44 45 50 49 49 50 50 50 51 53 53 48 50 52 52 53 52 55 57 58 56 61 63 66 66 71 75 78 76 76 77 77 78 77 78 78 77 79 79 78 77 77 82 78 76 79 82 87 91 93 96 95 97 96 98 96 98 96 98 99 102 104 106 107 109 109 111 110 110 110 110 112 113 114 117 116 119 121 122 123 125 124 124 124 126 127 127 127 127 126 128 132 134 135 137 137 139 140 0 0 0 0 0
    0 0 0 0 0 0 0 0 0 0 0 0 0 0 0 0 0 0 0 0 0 0 0 0 0 0 0 0 0 0 0 0 0 0 0 0 0 0 0 0 0 0 0 0 0 0 0 0 0 0 0 0 0 0 0 0 0 0 0 0 0 0 0 0 0 0 0 0 0 61 59 59 59 59 59 58 58 57 56 55 53 53 54 53 52 52 51 50 50 51 51 48 46 50 46 44 45 44 44 44 44 44 43 36 37 40 38 38 38 37 37 37 38 37 33 35 34 33 33 31 32 31 30 31 30 30 30 29 30 29 29 29 27 27 25 25 24 24 24 24 24 24 25 25 25 25 23 23 20 19 18 22 17 20 23 25 25 25 27 27 26 26 26 24 24 23 21 21 19 13 10 15 12 18 15 14 13 13 15 16 13 16 10 13 19 18 19 21 23 25 24 25 25 26 27 30 29 31 29 31 31 32 32 34 31 35 33 38 38 38 39 39 39 41 42 44 45 44 45 50 49 48 49 49 48 50 52 52 47 51 52 53 53 51 53 57 59 56 60 60 64 68 73 79 79 77 76 78 77 78 77 77 77 77 79 78 77 77 77 79 77 74 76 76 81 89 91 94 93 95 95 97 96 98 97 98 100 103 105 107 109 110 109 110 110 110 110 111 112 113 116 119 118 120 121 122 123 125 123 124 124 125 126 127 126 127 126 128 132 135 136 138 138 140 140 0 0 0 0 0
    0 0 0 0 0 0 0 0 0 0 0 0 0 0 0 0 0 0 0 0 0 0 0 0 0 0 0 0 0 0 0 0 0 0 0 0 0 0 0 0 0 0 0 0 0 0 0 0 0 0 0 0 0 0 0 0 0 0 0 0 0 0 0 0 0 0 0 0 0 61 60 60 60 59 58 58 58 57 56 55 53 53 54 53 52 52 51 50 51 51 51 48 47 51 47 45 45 45 45 45 44 45 44 38 38 41 38 39 38 38 38 37 38 37 33 35 34 33 34 31 32 31 30 31 30 30 30 29 30 29 29 29 27 27 26 26 24 24 25 25 24 25 26 26 26 27 24 25 23 22 21 22 18 19 23 27 27 29 30 31 29 28 27 26 25 25 23 22 19 -225 -225 -225 -225 -225 -225 14 13 13 14 14 12 15 10 10 16 15 15 19 21 23 22 24 24 25 26 29 28 31 29 32 31 32 33 34 32 35 33 38 38 38 39 39 38 41 41 42 44 44 44 48 47 47 48 48 48 49 52 52 48 52 53 52 52 53 53 57 59 58 62 61 65 69 73 81 78 76 76 77 76 77 76 76 76 76 78 78 76 77 76 77 76 73 75 74 75 85 88 90 91 93 96 97 96 98 98 99 100 103 106 107 109 110 109 110 111 111 111 112 112 114 118 121 120 120 121 122 123 124 123 124 124 125 126 126 126 128 127 129 133 136 137 138 139 140 140 0 0 0 0 0
    0 0 0 0 0 0 0 0 0 0 0 0 0 0 0 0 0 0 0 0 0 0 0 0 0 0 0 0 0 0 0 0 0 0 0 0 0 0 0 0 0 0 0 0 0 0 0 0 0 0 0 0 0 0 0 0 0 0 0 0 0 0 0 0 0 0 0 0 0 62 60 60 60 59 58 58 58 57 56 55 54 54 54 54 52 52 52 51 51 51 51 48 47 51 48 46 46 46 46 46 45 46 44 39 39 42 39 39 39 38 38 38 38 38 34 35 34 33 34 32 32 32 31 32 31 31 30 29 30 29 29 29 28 28 26 27 26 26 26 26 26 27 28 29 28 30 28 28 28 25 24 23 12 16 25 29 31 33 34 35 34 30 30 28 27 26 25 -225 -225 -225 -225 -225 -225 -225 -225 -225 -225 -225 -225 -225 -225 -225 -225 0 12 12 12 18 20 23 22 24 24 25 26 29 28 31 29 32 32 33 33 35 33 36 34 38 38 37 38 38 37 39 40 40 42 43 44 46 46 47 48 48 49 49 53 54 53 53 54 53 52 54 55 58 60 57 61 61 65 68 72 80 77 75 75 76 74 75 75 75 75 75 76 77 75 76 76 76 76 74 75 74 74 81 87 89 90 92 97 98 99 100 100 100 101 104 105 106 109 109 108 109 110 111 111 113 114 116 120 122 121 121 121 122 123 124 123 124 124 125 126 126 127 128 128 131 134 138 138 139 140 141 141 0 0 0 0 0
    0 0 0 0 0 0 0 0 0 0 0 0 0 0 0 0 0 0 0 0 0 0 0 0 0 0 0 0 0 0 0 0 0 0 0 0 0 0 0 0 0 0 0 0 0 0 0 0 0 0 0 0 0 0 0 0 0 0 0 0 0 0 0 0 0 0 0 0 0 62 60 60 60 59 58 58 58 57 55 55 55 54 55 54 52 52 52 52 52 51 51 48 48 52 49 47 47 47 47 46 46 47 44 41 40 42 40 40 39 39 39 38 39 38 35 36 35 34 34 32 33 31 32 32 31 31 30 29 30 29 31 30 29 29 27 29 29 28 28 27 28 30 31 32 32 35 35 35 35 30 27 26 -193 19 27 31 32 33 34 35 33 31 32 30 28 28 -225 -225 -225 -225 -225 -225 -225 -225 -225 -225 -225 -225 -225 -225 -225 -225 -225 -225 -225 -225 10 19 20 22 21 23 24 25 26 28 28 31 29 32 33 33 34 35 34 36 35 39 38 37 38 38 36 39 40 39 42 42 43 45 46 46 48 48 50 49 53 55 54 55 55 56 55 57 58 60 62 59 61 62 65 69 72 78 76 74 74 76 74 74 75 75 74 74 76 76 75 76 77 76 75 75 75 75 74 82 87 90 92 94 99 100 100 101 101 101 101 104 105 106 108 108 107 108 110 111 111 113 114 117 121 122 121 121 122 122 123 123 123 123 125 126 126 126 126 129 129 132 135 139 139 140 141 142 141 0 0 0 0 0
    0 0 0 0 0 0 0 0 0 0 0 0 0 0 0 0 0 0 0 0 0 0 0 0 0 0 0 0 0 0 0 0 0 0 0 0 0 0 0 0 0 0 0 0 0 0 0 0 0 0 0 0 0 0 0 0 0 0 0 0 0 0 0 0 0 0 0 0 0 62 61 61 60 59 58 58 57 56 55 55 55 53 55 54 51 52 52 52 53 51 51 48 49 52 49 48 47 48 47 47 47 47 45 43 42 44 41 41 40 40 39 39 39 39 36 36 34 34 34 32 32 31 32 31 31 32 30 29 30 29 31 30 30 29 27 29 30 29 30 29 30 32 34 35 34 38 38 37 39 38 33 32 -193 25 29 34 33 33 35 36 34 34 35 33 31 -225 -225 -225 -225 -225 -225 -225 -225 -225 -225 -225 -225 -225 -225 -225 -225 -225 -225 -225 -225 -225 -225 -225 -225 22 22 24 24 27 27 29 28 33 30 33 34 34 34 36 36 37 36 39 38 36 38 38 36 39 40 40 41 43 43 44 45 46 49 49 51 51 53 55 55 55 55 56 55 57 59 61 62 61 63 65 67 70 72 77 76 75 75 77 75 75 75 76 75 75 79 80 76 78 81 79 78 78 78 77 74 83 89 91 94 94 99 100 100 101 101 100 101 104 105 106 108 108 107 108 111 111 110 112 114 116 120 122 121 120 121 121 123 123 123 123 125 126 127 125 126 129 130 133 135 139 139 140 141 141 141 0 0 0 0 0
    0 0 0 0 0 0 0 0 0 0 0 0 0 0 0 0 0 0 0 0 0 0 0 0 0 0 0 0 0 0 0 0 0 0 0 0 0 0 0 0 0 0 0 0 0 0 0 0 0 0 0 0 0 0 0 0 0 0 0 0 0 0 0 0 0 0 0 0 0 62 61 61 60 58 58 58 57 56 55 55 55 53 54 54 51 52 52 52 52 50 50 49 50 52 49 49 47 48 47 47 47 47 45 44 42 44 42 41 40 40 39 39 39 39 36 36 34 34 33 31 31 31 33 32 31 34 31 30 31 31 32 30 31 30 28 30 33 32 34 33 33 36 37 38 37 40 39 39 41 40 36 35 -193 -193 30 35 34 33 35 35 35 35 36 35 -225 -225 -225 -225 -225 -225 -225 -225 -225 -225 -225 -225 -225 -225 -225 -225 -225 -225 -225 -225 -225 -225 -225 -225 -225 -225 23 27 26 30 29 30 29 34 31 35 35 35 35 36 36 37 35 39 37 36 38 39 37 39 41 41 42 44 44 44 44 46 50 49 52 52 53 55 56 56 56 56 56 58 59 62 62 62 65 68 70 71 73 75 76 75 75 77 75 75 75 76 75 75 79 80 76 78 82 80 79 81 81 80 77 89 94 98 99 100 101 101 100 101 101 101 102 104 104 105 107 107 107 108 111 111 110 112 114 116 120 121 120 119 121 121 122 122 122 123 124 126 127 125 127 129 131 133 135 139 138 139 140 141 140 0 0 0 0 0
    0 0 0 0 0 0 0 0 0 0 0 0 0 0 0 0 0 0 0 0 0 0 0 0 0 0 0 0 0 0 0 0 0 0 0 0 0 0 0 0 0 0 0 0 0 0 0 0 0 0 0 0 0 0 0 0 0 0 0 0 0 0 0 0 0 0 0 0 0 61 60 60 60 57 57 57 56 56 55 55 55 53 54 54 51 52 51 52 52 50 49 49 50 50 48 49 47 48 46 46 46 46 45 44 42 44 42 42 41 41 39 39 39 39 37 37 35 34 33 32 32 32 34 33 32 35 32 31 33 32 34 32 32 31 28 33 37 37 38 38 37 40 39 40 39 40 39 39 40 38 34 34 -193 24 30 35 34 33 34 35 35 36 37 -225 -225 -225 -225 -225 -225 -225 -225 -225 -225 -225 -225 -225 -225 -225 -225 -225 -225 -225 -225 -225 -225 -225 -225 -225 -225 -225 -225 29 28 29 30 29 29 34 31 35 35 35 36 37 37 37 35 38 36 36 37 39 38 40 41 42 44 45 45 46 46 48 51 51 53 53 55 57 57 57 57 57 57 58 59 62 63 64 65 68 69 71 71 74 75 74 75 76 75 74 76 77 75 75 78 81 76 78 83 80 77 80 80 79 56 -209 -209 -209 -209 100 103 100 99 101 101 102 102 103 103 103 106 107 106 108 111 111 110 113 116 116 121 122 120 119 121 121 122 121 122 122 124 126 126 125 126 129 132 134 135 139 138 139 139 140 139 0 0 0 0 0
    0 0 0 0 0 0 0 0 0 0 0 0 0 0 0 0 0 0 0 0 0 0 0 0 0 0 0 0 0 0 0 0 0 0 0 0 0 0 0 0 0 0 0 0 0 0 0 0 0 0 0 0 0 0 0 0 0 0 0 0 0 0 0 0 0 0 0 0 0 61 60 60 59 57 57 57 56 56 55 55 -193 -193 54 54 51 51 51 52 52 49 49 49 50 49 48 49 47 48 46 46 46 46 45 45 43 44 42 42 42 41 40 40 40 40 38 37 36 34 33 32 33 33 36 34 34 36 34 34 35 34 36 33 34 34 33 38 40 41 41 41 41 42 41 42 40 40 39 39 40 37 34 -225 -225 -225 32 36 36 34 35 36 37 -225 -225 -225 -225 -225 -225 -225 -225 -225 -225 -225 -225 -225 -225 -225 -225 -225 -225 -225 -225 -225 -225 -225 -225 -225 -225 -225 -225 -225 -225 -225 28 29 29 28 28 33 30 35 33 34 35 36 37 36 35 37 34 35 36 38 37 40 41 42 44 46 46 48 47 49 52 53 55 54 56 57 57 58 57 58 57 59 60 63 64 65 65 68 69 70 71 73 74 74 74 76 74 75 76 77 76 76 78 82 77 80 83 80 78 80 81 80 62 -209 -209 -193 -209 100 102 101 99 101 101 101 101 101 101 101 104 105 105 108 114 114 114 115 117 117 121 122 120 119 121 121 123 121 -193 -193 124 126 126 124 125 128 132 133 135 138 138 138 139 140 139 0 0 0 0 0
    0 0 0 0 0 0 0 0 0 0 0 0 0 0 0 0 0 0 0 0 0 0 0 0 0 0 0 0 0 0 0 0 0 0 0 0 0 0 0 0 0 0 0 0 0 0 0 0 0 0 0 0 0 0 0 0 0 0 0 0 0 0 0 0 0 0 0 0 0 60 60 60 59 57 56 57 -193 -193 -193 -193 -193 192 54 54 51 51 51 52 51 48 48 49 50 49 47 49 47 48 46 46 46 45 45 45 43 45 43 43 44 43 41 42 41 42 41 39 39 36 35 35 35 37 40 37 37 37 37 36 37 36 36 34 36 37 38 40 43 43 44 44 43 44 42 42 41 40 39 39 40 37 -225 -225 -225 -225 -225 -225 -225 -225 -225 -225 -225 -225 -225 -225 -225 -225 -225 -225 -225 -225 -225 -225 -225 -225 -225 -225 -225 -225 -225 -225 -225 -225 -225 -225 -225 -225 -225 -225 -225 -225 -225 -225 -225 27 27 26 27 32 30 35 32 33 33 34 35 35 33 34 31 33 35 37 36 39 41 41 44 45 46 48 48 50 52 53 55 55 56 57 57 58 57 58 57 59 60 63 64 65 64 68 68 69 69 71 73 73 73 75 74 75 76 77 77 76 78 82 78 81 83 81 79 82 82 82 69 -209 -209 48 52 -193 50 51 -193 -193 -193 101 101 100 99 99 100 99 101 106 114 113 113 113 115 116 120 121 119 118 120 120 123 121 -193 -193 124 126 126 124 125 128 132 133 135 138 138 138 138 139 139 0 0 0 0 0
    0 0 0 0 0 0 0 0 0 0 0 0 0 0 0 0 0 0 0 0 0 0 0 0 0 0 0 0 0 0 0 0 0 0 0 0 0 0 0 0 0 0 0 0 0 0 0 0 0 0 0 0 0 0 0 0 0 0 0 0 0 0 0 0 0 0 0 0 0 60 60 60 -177 56 56 57 -193 -193 -193 -193 195 192 -193 54 50 50 50 52 51 47 48 49 50 49 47 49 46 47 46 46 46 45 45 45 43 45 44 44 45 44 43 43 43 44 43 41 41 39 38 39 40 41 43 39 38 37 38 36 36 35 35 32 35 38 40 41 43 44 45 45 45 44 43 43 42 41 41 41 42 -225 -225 -225 -225 -225 -225 -225 -225 -225 -225 -225 -225 -225 -225 -225 -225 -225 -225 -225 -225 -225 -225 -225 -225 -225 -225 -225 -225 -225 -225 -225 -225 -225 -225 -225 -225 -225 -225 -225 -225 -225 -225 -225 -225 -225 -225 -225 27 36 33 38 34 34 34 35 35 34 34 34 31 33 36 38 38 40 41 42 45 47 47 50 49 51 53 53 55 55 55 56 56 57 57 57 57 58 60 63 63 65 63 66 67 68 67 69 70 72 72 74 73 74 75 77 77 76 78 82 77 81 82 80 78 81 80 79 65 -209 45 46 48 45 48 49 48 -193 -193 -177 -193 -209 -193 91 92 92 100 108 117 113 111 112 111 116 120 121 112 115 119 120 122 121 -193 -193 124 126 126 124 125 128 132 133 135 137 137 137 138 139 139 0 0 0 0 0
    0 0 0 0 0 0 0 0 0 0 0 0 0 0 0 0 0 0 0 0 0 0 0 0 0 0 0 0 0 0 0 0 0 0 0 0 0 0 0 0 0 0 0 0 0 0 0 0 0 0 0 0 0 0 0 0 0 0 0 0 0 0 0 0 0 0 0 0 0 60 60 60 -177 56 56 -193 197 196 -177 -177 195 193 -193 54 50 50 51 52 52 48 48 50 51 49 47 49 46 48 46 46 46 45 45 45 43 45 44 45 46 45 44 45 45 46 46 43 44 41 40 41 43 44 45 39 38 37 38 37 37 35 36 35 38 40 41 42 43 44 45 45 44 44 43 43 42 41 40 -225 -225 -225 -225 -225 -225 -225 -225 -225 -225 -225 -225 -225 -225 -225 -225 -225 -225 -225 -225 -225 -225 -225 -225 -225 -225 -225 -225 -225 -225 -225 -225 -225 -225 -225 -225 -225 -225 -225 -225 -225 -225 -225 -225 -225 -225 -225 -225 -225 -225 -225 -225 -225 -225 36 34 33 34 35 36 35 33 33 37 40 41 42 44 43 48 51 51 52 52 52 54 54 55 55 55 56 56 57 57 57 57 59 60 63 63 65 64 66 67 68 68 68 70 72 72 74 73 74 75 77 77 77 80 83 79 82 82 81 78 80 79 78 61 60 52 50 52 49 52 52 50 50 -193 -193 -193 -209 -209 92 89 90 90 -209 -209 92 94 -209 94 -209 -209 -209 -209 -209 -209 119 -193 -209 -193 59 -193 -193 124 122 123 125 129 132 136 137 137 137 138 140 140 0 0 0 0 0
    0 0 0 0 0 0 0 0 0 0 0 0 0 0 0 0 0 0 0 0 0 0 0 0 0 0 0 0 0 0 0 0 0 0 0 0 0 0 0 0 0 0 0 0 0 0 0 0 0 0 0 0 0 0 0 0 0 0 0 0 0 0 0 0 0 0 0 0 0 60 59 59 58 56 56 -193 -193 196 -177 -177 -177 193 54 53 51 51 51 52 52 0 -256 -1 25074 50 47 49 46 48 46 46 47 46 46 46 44 47 46 46 48 46 45 46 46 47 47 45 47 44 42 43 45 46 46 40 39 38 39 38 38 37 38 38 40 41 42 43 44 45 45 44 44 44 44 44 43 42 -225 -225 -225 -225 -225 -225 -225 -225 -225 -225 -225 -225 -225 -225 -225 -225 -225 -225 -225 -225 -225 -225 -225 -225 -225 -225 -225 -225 -225 -225 -225 -225 -225 -225 -225 -225 -225 -225 -225 -225 -225 -225 -225 -225 -225 -225 -225 -225 -225 -225 -225 -225 -225 -225 -225 -225 -225 29 32 34 36 36 37 35 39 43 47 48 51 51 54 54 54 54 53 54 55 54 55 55 55 55 56 57 57 57 57 59 60 62 63 65 65 67 68 69 69 69 71 72 72 74 74 75 76 78 79 78 81 83 80 83 82 82 78 81 79 78 61 62 52 51 54 53 54 54 53 52 -193 -193 -193 -209 -209 -193 96 96 -193 -209 -209 -193 96 91 91 -209 -209 73 72 68 68 67 66 67 68 -193 -209 -209 -209 103 -209 -209 -193 124 136 137 136 136 137 140 140 0 0 0 0 0
    0 0 0 0 0 0 0 0 0 0 0 0 0 0 0 0 0 0 0 0 0 0 0 0 0 0 0 0 0 0 0 0 0 0 0 0 0 0 0 0 0 0 0 0 0 0 0 0 0 0 0 0 0 0 0 0 0 0 0 0 0 0 0 0 0 0 0 0 0 60 59 59 58 56 56 56 -193 -193 -193 -193 -193 53 54 53 51 51 51 52 53 51 52 53 53 51 48 50 47 48 46 47 47 46 47 48 45 49 47 48 49 48 47 48 48 49 49 48 52 51 48 45 47 48 48 42 40 39 40 40 41 40 40 40 42 44 45 46 47 46 46 45 44 44 43 43 -225 -225 -225 -225 -225 -225 -225 -225 -225 -225 -225 -225 -225 -225 -225 -225 -225 -225 -225 -225 -225 -225 -225 -225 -225 -225 -225 -225 -225 -225 -225 -225 -225 -225 -225 -225 -225 -225 -225 -225 -225 -225 -225 -225 -225 -225 -225 -225 -225 -225 -225 -225 -225 -225 -225 -225 -225 -225 -225 -225 -225 37 39 38 40 39 40 45 50 50 52 52 54 55 55 54 53 53 54 53 54 55 55 54 56 57 56 57 57 59 59 62 63 66 67 68 69 70 70 69 72 73 73 74 74 75 76 78 79 78 80 82 80 83 82 83 81 83 83 81 -193 -209 46 46 52 52 55 54 52 53 -193 -193 -193 -209 -209 101 99 99 100 -209 -193 100 98 93 90 -209 72 73 72 69 68 68 67 68 -193 -193 -193 91 87 -193 88 89 102 118 -177 136 135 134 136 140 139 0 0 0 0 0
    0 0 0 0 0 0 0 0 0 0 0 0 0 0 0 0 0 0 0 0 0 0 0 0 0 0 0 0 0 0 0 0 0 0 0 0 0 0 0 0 0 0 0 0 0 0 0 0 0 0 0 0 0 0 0 0 0 0 0 0 0 0 0 0 0 0 0 0 0 60 60 60 59 56 56 57 56 -193 56 55 55 54 55 54 52 51 52 53 53 53 53 54 53 52 50 51 47 48 46 47 48 47 48 49 47 51 50 51 51 51 51 52 51 52 51 51 54 54 51 45 47 48 48 45 42 40 41 42 44 44 44 44 45 48 50 50 49 48 46 46 45 44 44 -225 -225 -225 -225 -225 -225 -225 -225 -225 -225 -225 -225 -225 -225 -225 -225 -225 -225 -225 -225 -225 -225 -225 -225 -225 -225 -225 -225 -225 -225 -225 -225 -225 -225 -225 -225 -225 -225 -225 -225 -225 -225 -225 -225 -225 -225 -225 -225 -225 -225 -225 -225 -225 -225 -225 -225 -225 -225 -225 -225 -225 -225 -225 -225 40 41 40 41 47 52 50 52 52 53 54 54 53 53 52 53 53 54 54 54 54 55 56 57 57 58 59 60 62 64 67 68 69 70 70 70 70 72 73 72 73 74 75 75 77 78 77 80 81 81 84 83 85 83 86 86 85 85 88 -209 -209 -209 -209 60 57 55 56 -193 -193 -209 -193 97 99 98 98 -193 -209 -209 -209 101 -193 -209 -209 -209 -209 64 65 66 67 65 67 71 -193 -209 -209 78 78 81 89 103 116 -177 136 134 134 136 140 140 0 0 0 0 0
    0 0 0 0 0 0 0 0 0 0 0 0 0 0 0 0 0 0 0 0 0 0 0 0 0 0 0 0 0 0 0 0 0 0 0 0 0 0 0 0 0 0 0 0 0 0 0 0 0 0 0 0 0 0 0 0 0 0 0 0 0 0 0 0 0 0 0 0 0 60 60 60 59 57 57 57 57 57 56 56 56 54 55 54 53 52 53 54 54 53 54 55 54 53 51 52 48 49 46 47 48 48 50 51 50 52 52 52 52 52 52 53 51 52 51 51 54 55 54 47 48 49 49 48 43 41 43 45 48 49 51 51 50 53 53 52 51 48 47 46 45 45 -225 -225 -225 -225 -225 -225 -225 -225 -225 -225 -225 -225 -225 -225 -225 -225 -225 -225 -225 -225 -225 -225 -225 -225 -225 -225 -225 -225 -225 -225 -225 -225 -225 -225 -225 -225 -225 -225 -225 -225 -225 -225 -225 -225 -225 -225 -225 -225 -225 -225 -225 -225 -225 -225 -225 -225 -225 -225 -225 -225 -225 -225 -225 -225 -225 -225 46 43 44 49 54 52 53 52 53 54 53 53 53 52 52 52 53 53 52 53 55 55 56 57 57 59 60 61 63 66 67 67 69 70 69 70 71 72 71 73 73 74 75 76 78 78 80 82 82 85 84 86 85 86 86 86 88 88 86 86 -193 90 -193 -193 -209 64 -193 -193 -193 93 94 94 95 96 97 100 101 102 102 -193 -209 -193 28 -209 -209 -209 -209 -209 59 65 -193 -193 -193 -209 73 -193 75 -193 -193 114 125 136 134 134 137 142 141 0 0 0 0 0
    0 0 0 0 0 0 0 0 0 0 0 0 0 0 0 0 0 0 0 0 0 0 0 0 0 0 0 0 0 0 0 0 0 0 0 0 0 0 0 0 0 0 0 0 0 0 0 0 0 0 0 0 0 0 0 0 0 0 0 0 0 0 0 0 0 0 0 0 0 61 60 60 59 57 58 57 57 57 56 56 56 54 55 54 53 53 53 54 55 55 56 57 56 56 54 54 51 50 48 49 50 51 52 53 53 54 54 53 53 53 53 53 52 52 51 51 54 55 55 50 49 49 50 48 47 43 46 50 54 55 57 56 55 55 54 53 51 49 48 46 45 -225 -225 -225 -225 -225 -225 -225 -225 -225 -225 -225 -225 -225 -225 -225 -225 -225 -225 -225 -225 -225 -225 -225 -225 -225 -225 -225 -225 -225 -225 -225 -225 -225 -225 -225 -225 -225 -225 -225 -225 -225 -225 -225 -225 -225 -225 -225 -225 -225 -225 -225 -225 -225 -225 -225 -225 -225 -225 -225 -225 -225 -225 -225 -225 -225 -225 -225 -225 -225 49 50 55 52 53 54 53 54 53 53 53 52 52 51 51 52 51 52 53 53 55 56 57 58 60 61 62 66 67 67 68 69 69 69 71 72 71 72 73 74 74 75 78 78 81 82 82 85 85 86 86 86 87 86 89 88 88 87 89 89 88 -193 67 69 -193 -193 -193 91 92 92 93 93 94 99 100 101 101 102 103 -193 -193 -209 -193 -209 -209 -209 56 60 64 -193 -209 -193 -209 70 72 -209 -209 -209 121 136 136 135 139 144 142 0 0 0 0 0
    0 0 0 0 0 0 0 0 0 0 0 0 0 0 0 0 0 0 0 0 0 0 0 0 0 0 0 0 0 0 0 0 0 0 0 0 0 0 0 0 0 0 0 0 0 0 0 0 0 0 0 0 0 0 0 0 0 0 0 0 0 0 0 0 0 0 0 0 0 61 60 60 60 57 58 58 57 57 57 56 56 55 55 55 54 54 54 55 56 57 58 58 58 57 57 56 54 52 49 51 52 53 54 55 55 54 55 54 54 54 54 54 53 53 52 51 54 54 54 51 47 47 48 49 50 46 52 54 56 58 59 58 57 55 54 53 52 50 48 46 -225 -225 -225 -225 -225 -225 -225 -225 -225 -225 -225 -225 -225 -225 -225 -225 -225 -225 -225 -225 -225 -225 -225 -225 -225 -225 -225 -225 -225 -225 -225 -225 -225 -225 -225 -225 -225 -225 -225 -225 -225 -225 -225 -225 -225 -225 -225 -225 -225 -225 -225 -225 -225 -225 -225 -225 -225 -225 -225 -225 -225 -225 -225 -225 -225 -225 -225 -225 -225 -225 -225 53 56 52 54 54 53 55 53 52 53 51 52 50 50 51 48 49 51 50 53 55 55 58 59 60 61 65 67 67 69 70 70 70 71 72 71 72 72 73 74 75 77 78 81 81 82 84 84 85 85 86 87 86 89 89 90 89 90 90 90 90 -209 69 -193 91 91 93 93 93 94 94 94 95 99 101 100 102 103 106 106 -193 -209 -209 -209 -209 -193 63 -193 -193 -193 -193 -209 -193 -209 -209 -193 146 142 143 142 139 144 146 143 0 0 0 0 0
    0 0 0 0 0 0 0 0 0 0 0 0 0 0 0 0 0 0 0 0 0 0 0 0 0 0 0 0 0 0 0 0 0 0 0 0 0 0 0 0 0 0 0 0 0 0 0 0 0 0 0 0 0 0 0 0 0 0 0 0 0 0 0 0 0 0 0 0 0 61 61 61 60 58 59 58 58 58 57 57 56 55 56 56 55 55 55 56 57 57 58 59 58 58 58 57 57 57 52 54 54 55 56 56 56 55 56 56 55 55 55 55 55 55 55 53 56 56 55 54 47 48 52 55 57 58 59 59 59 61 62 60 58 56 55 54 53 52 49 -225 -225 -225 -225 -225 -225 -225 -225 -225 -225 -225 -225 -225 -225 -225 -225 -225 -225 -225 -225 -225 -225 -225 -225 -225 -225 -225 -225 -225 -225 -225 -225 -225 -225 -225 -225 -225 -225 -225 -225 -225 -225 -225 -225 -225 -225 -225 -225 -225 -225 -225 -225 -225 -225 -225 -225 -225 -225 -225 -225 -225 -225 -225 -225 -225 -225 -225 -225 -225 -225 -225 -225 -225 -209 54 55 55 54 55 53 52 53 51 52 51 49 50 47 48 50 49 53 54 55 57 59 60 61 65 68 67 69 70 70 70 71 72 71 71 72 73 73 74 77 77 80 81 82 83 84 84 84 85 87 86 89 89 90 90 91 92 91 90 -209 -209 -193 92 92 95 95 95 95 95 95 94 98 101 100 101 103 104 105 -193 -209 -209 -209 -209 -209 65 -209 -209 -193 -209 -209 -209 -193 -209 -193 147 146 145 142 139 147 146 143 0 0 0 0 0
    0 0 0 0 0 0 0 0 0 0 0 0 0 0 0 0 0 0 0 0 0 0 0 0 0 0 0 0 0 0 0 0 0 0 0 0 0 0 0 0 0 0 0 0 0 0 0 0 0 0 0 0 0 0 0 0 0 0 0 0 0 0 0 0 0 0 0 0 0 62 61 61 61 59 60 59 58 58 58 58 57 56 56 56 56 55 56 57 57 58 58 59 58 58 58 57 57 58 54 56 56 57 58 58 57 56 56 57 56 57 57 57 56 57 58 56 57 57 57 56 51 54 56 58 61 64 63 63 62 62 62 61 58 57 56 55 55 -225 -225 -225 -225 -225 -225 -225 -225 -225 -225 -225 -225 -225 -225 -225 -225 -225 -225 -225 -225 -225 -225 -225 -225 -225 -225 -225 -225 -225 -225 -225 -225 -225 -225 -225 -225 -225 -225 -225 -225 -225 -225 -225 -225 -225 -225 -225 -225 -225 -225 -225 -225 -225 -225 -225 -225 -225 -225 -225 -225 -225 -225 -225 -225 -225 -225 -225 -225 -225 -225 -225 -225 -225 -225 -225 -225 53 54 55 53 55 53 52 53 51 52 52 50 51 48 50 52 50 54 55 55 58 59 60 61 66 69 69 69 70 71 71 72 73 72 71 72 72 73 74 77 77 80 80 83 84 85 85 85 86 87 87 89 90 90 90 91 92 92 91 91 -209 -193 92 91 93 94 94 95 95 95 95 98 101 101 101 103 104 105 -193 -209 -209 -209 -209 -209 -193 76 -209 69 -209 -209 -193 -209 144 144 146 144 142 140 139 148 145 142 0 0 0 0 0
    0 0 0 0 0 0 0 0 0 0 0 0 0 0 0 0 0 0 0 0 0 0 0 0 0 0 0 0 0 0 0 0 0 0 0 0 0 0 0 0 0 0 0 0 0 0 0 0 0 0 0 0 0 0 0 0 0 0 0 0 0 0 0 0 0 0 0 0 0 62 61 62 61 60 61 60 59 59 58 58 57 56 57 56 57 56 57 58 58 58 58 58 57 57 58 57 57 57 52 56 56 57 59 58 57 56 58 58 58 58 58 58 57 58 58 56 56 57 56 56 54 58 60 64 63 66 66 66 64 63 63 61 60 59 58 57 -225 -225 -225 -225 -225 -225 -225 -225 -225 -225 -225 -225 -225 -225 -225 -225 -225 -225 -225 -225 -225 -225 -225 -225 -225 -225 -225 -225 -225 -225 -225 -225 -225 -225 -225 -225 -225 -225 -225 -225 -225 -225 -225 -225 -225 -225 -225 -225 -225 -225 -225 -225 -225 -225 -225 -225 -225 -225 -225 -225 -225 -225 -225 -225 -225 -225 -225 -225 -225 -225 -225 -225 -225 -225 -225 -225 -225 50 53 54 52 54 52 51 52 51 52 51 50 51 49 50 51 48 53 55 55 57 59 60 61 67 69 69 70 70 71 71 71 72 71 71 71 71 73 73 76 76 79 79 82 84 85 85 85 86 88 87 90 89 89 90 91 92 92 91 91 -209 91 93 91 94 95 95 98 98 98 100 101 102 103 104 105 105 106 106 105 104 106 -209 -209 -209 -209 -209 -209 -177 -177 -177 -209 -209 140 141 142 143 -209 140 148 144 143 0 0 0 0 0
    0 0 0 0 0 0 0 0 0 0 0 0 0 0 0 0 0 0 0 0 0 0 0 0 0 0 0 0 0 0 0 0 0 0 0 0 0 0 0 0 0 0 0 0 0 0 0 0 0 0 0 0 0 0 0 0 0 0 0 0 0 0 0 0 0 0 0 0 0 63 62 62 62 61 63 61 60 60 59 59 58 57 57 57 58 57 58 59 58 60 59 58 58 58 59 58 59 58 56 58 57 59 60 59 59 57 59 60 59 59 59 59 58 58 58 56 56 57 57 60 58 61 65 66 66 67 67 67 64 63 62 61 61 60 58 -225 -225 -225 -225 -225 -225 -225 -225 -225 -225 -225 -225 -225 -225 -225 -225 -225 -225 -225 -225 -225 -225 -225 -225 -225 -225 -225 -225 -225 -225 -225 -225 -225 -225 -225 -225 -225 -225 -225 -225 -225 -225 -225 -225 -225 -225 -225 -225 -225 -225 -225 -225 -225 -225 -225 -225 -225 -225 -225 -225 -225 -225 -225 -225 -225 -225 -225 -225 -225 -225 -225 -225 -225 -225 -225 -225 -225 -225 -225 -225 52 50 53 51 51 52 51 52 52 51 52 51 52 50 46 52 54 57 58 62 61 62 66 68 68 69 69 70 70 71 72 71 70 71 71 73 73 76 75 78 78 81 83 84 85 85 86 88 87 89 90 89 89 90 91 91 91 91 89 91 93 93 95 95 96 98 97 99 102 103 105 105 106 107 107 107 106 -193 -209 -209 -193 -209 -209 90 -209 77 -193 69 70 -209 -209 -209 -209 137 138 141 141 149 144 143 0 0 0 0 0
    0 0 0 0 0 0 0 0 0 0 0 0 0 0 0 0 0 0 0 0 0 0 0 0 0 0 0 0 0 0 0 0 0 0 0 0 0 0 0 0 0 0 0 0 0 0 0 0 0 0 0 0 0 0 0 0 0 0 0 0 0 0 0 0 0 0 0 0 0 64 64 63 64 63 66 64 63 63 62 63 60 59 59 59 60 59 61 61 60 62 62 60 59 60 61 60 61 61 60 61 61 62 63 62 62 60 61 61 59 59 59 59 58 58 58 56 57 58 61 64 62 66 69 69 68 69 69 67 65 63 63 62 61 60 -225 -225 -225 -225 -225 -225 -225 -225 -225 -225 -225 -225 -225 -225 -225 -225 -225 -225 -225 -225 -225 -225 -225 -225 -225 -225 -225 -225 -225 -225 -225 -225 -225 -225 -225 -225 -225 -225 -225 -225 -225 -225 -225 -225 -225 -225 -225 -225 -225 -225 -225 -225 -225 -225 -225 -225 -225 -225 -225 -225 -225 -225 -225 -225 -225 -225 -225 -225 -225 -225 -225 -225 -225 -225 -225 -225 -225 -225 -225 -225 -225 -225 -225 53 49 51 53 52 53 53 52 53 54 56 55 52 56 57 60 60 67 64 64 67 68 69 69 68 69 69 70 71 71 70 71 70 73 73 76 76 79 79 81 83 84 85 85 85 87 86 88 89 88 89 90 91 92 91 92 91 93 94 93 94 94 96 97 97 100 102 104 105 106 106 108 107 108 107 106 105 106 -193 100 101 99 97 85 80 75 75 78 -209 -209 -209 132 133 136 139 148 143 142 0 0 0 0 0
    0 0 0 0 0 0 0 0 0 0 0 0 0 0 0 0 0 0 0 0 0 0 0 0 0 0 0 0 0 0 0 0 0 0 0 0 0 0 0 0 0 0 0 0 0 0 0 0 0 0 0 0 0 0 0 0 0 0 0 0 0 0 0 0 0 0 0 0 0 66 66 66 66 66 69 68 68 68 67 66 62 60 62 61 61 61 63 62 62 64 66 63 63 63 64 63 65 65 64 64 66 67 67 68 66 64 65 62 60 60 59 59 57 57 58 55 58 62 68 70 68 70 72 72 71 71 69 67 65 65 64 63 -225 -225 -225 -225 -225 -225 -225 -225 -225 -225 -225 -225 -225 -225 -225 -225 -225 -225 -225 -225 -225 -225 -225 -225 -225 -225 -225 -225 -225 -225 -225 -225 -225 -225 -225 -225 -225 -225 -225 -225 -225 -225 -225 -225 -225 -225 -225 -225 -225 -225 -225 -225 -225 -225 -225 -225 -225 -225 -225 -225 -225 -225 -225 -225 -225 -225 -225 -225 -225 -225 -225 -225 -225 -225 -225 -225 -225 -225 -225 -225 -225 -225 -225 -225 -225 -225 -225 52 54 53 53 54 53 54 57 57 58 58 58 60 63 63 68 66 65 67 67 68 68 67 68 68 68 70 69 69 69 69 71 72 75 75 78 78 80 82 83 84 84 84 86 85 87 88 88 88 89 91 91 91 92 91 93 94 94 94 94 97 98 98 99 102 103 105 106 106 107 106 107 108 106 107 107 106 105 105 106 103 86 83 79 81 84 -209 -209 -209 -193 130 135 138 146 142 142 0 0 0 0 0
    0 0 0 0 0 0 0 0 0 0 0 0 0 0 0 0 0 0 0 0 0 0 0 0 0 0 0 0 0 0 0 0 0 0 0 0 0 0 0 0 0 0 0 0 0 0 0 0 0 0 0 0 0 0 0 0 0 0 0 0 0 0 0 0 0 0 0 0 0 69 68 68 69 69 71 70 71 71 69 68 64 61 66 63 63 63 66 65 64 67 70 68 68 70 70 69 71 71 70 67 69 70 69 70 69 67 68 67 64 63 61 60 58 58 58 58 61 65 70 71 70 71 73 73 71 71 69 67 67 66 66 -225 -225 -225 -225 -225 -225 -225 -225 -225 -225 -225 -225 -225 -225 -225 -225 -225 -225 -225 -225 -225 -225 -225 -225 -225 -225 -225 -225 -225 -225 -225 -225 -225 -225 -225 -225 -225 -225 -225 -225 -225 -225 -225 -225 -225 -225 -225 -225 -225 -225 -225 -225 -225 -225 -225 -225 -225 -225 -225 -225 -225 -225 -225 -225 -225 -225 -225 -225 -225 -225 -225 -225 -225 -225 -225 -225 -225 -225 -225 -225 -225 -225 -225 -225 -225 -225 -225 -225 -225 -225 53 55 56 54 55 58 57 58 59 59 61 65 64 70 69 68 68 69 69 69 68 69 67 68 69 69 69 69 69 70 71 74 74 77 77 79 81 82 83 83 84 85 84 86 87 87 88 89 90 91 90 92 92 93 95 94 96 96 100 101 101 101 102 103 105 106 106 107 106 107 109 107 109 108 107 108 109 116 -209 -209 -209 80 85 -209 -209 -209 -209 -209 123 131 136 143 140 140 0 0 0 0 0
    0 0 0 0 0 0 0 0 0 0 0 0 0 0 0 0 0 0 0 0 0 0 0 0 0 0 0 0 0 0 0 0 0 0 0 0 0 0 0 0 0 0 0 0 0 0 0 0 0 0 0 0 0 0 0 0 0 0 0 0 0 0 0 0 0 0 0 0 0 72 71 70 71 71 72 71 71 71 70 69 66 62 69 67 67 67 69 68 68 69 72 70 71 71 73 71 73 72 72 70 72 71 71 71 72 70 69 68 66 64 62 62 59 59 60 62 66 69 73 73 72 73 74 73 71 70 69 68 67 66 -225 -225 -225 -225 -225 -225 -225 -225 -225 -225 -225 -225 -225 -225 -225 -225 -225 -225 -225 -225 -225 -225 -225 -225 -225 -225 -225 -225 -225 -225 -225 -225 -225 -225 -225 -225 -225 -225 -225 -225 -225 -225 -225 -225 -225 -225 -225 -225 -225 -225 -225 -225 -225 -225 -225 -225 -225 -225 -225 -225 -225 -225 -225 -225 -225 -225 -225 -225 -225 -225 -225 -225 -225 -225 -225 -225 -225 -225 -225 -225 -225 -225 -225 -225 -225 -225 -225 -225 -225 -225 -225 -225 -209 -209 -193 55 57 57 58 62 61 64 69 68 72 72 72 71 71 73 72 70 71 71 71 71 72 71 70 69 71 72 73 74 76 77 79 81 82 84 84 84 85 85 86 87 87 89 89 91 91 91 92 93 94 97 97 99 99 102 102 102 102 102 104 106 107 108 108 107 109 114 114 113 109 -193 107 109 115 -209 -193 -209 80 85 -209 -209 -209 -209 -209 121 126 135 141 139 139 0 0 0 0 0
    0 0 0 0 0 0 0 0 0 0 0 0 0 0 0 0 0 0 0 0 0 0 0 0 0 0 0 0 0 0 0 0 0 0 0 0 0 0 0 0 0 0 0 0 0 0 0 0 0 0 0 0 0 0 0 0 0 0 0 0 0 0 0 0 0 0 0 0 0 74 72 70 71 71 72 71 71 71 70 68 68 65 69 68 67 67 69 69 69 70 72 71 72 72 75 72 75 74 73 72 73 73 73 73 73 72 71 70 68 65 63 65 62 64 67 70 71 73 76 75 74 75 74 73 72 71 70 68 67 -225 -225 -225 -225 -225 -225 -225 -225 -225 -225 -225 -225 -225 -225 -225 -225 -225 -225 -225 -225 -225 -225 -225 -225 -225 -225 -225 -225 -225 -225 -225 -225 -225 -225 -225 -225 -225 -225 -225 -225 -225 -225 -225 -225 -225 -225 -225 -225 -225 -225 -225 -225 -225 -225 -225 -225 -225 -225 -225 -225 -225 -225 -225 -225 -225 -225 -225 -225 -225 -225 -225 -225 -225 -225 -225 -225 -225 -225 -225 -225 -225 -225 -225 -225 -225 -225 -225 -225 -225 -225 -225 -225 -225 -225 56 -209 55 58 58 60 63 63 67 70 69 73 73 74 73 73 74 73 72 73 72 72 71 72 71 70 69 71 72 73 75 77 78 80 82 83 84 85 85 85 84 85 86 86 88 88 90 90 91 91 92 94 96 97 98 99 101 102 102 101 101 103 105 107 108 110 109 113 118 119 121 118 109 110 114 117 -209 -209 -209 -209 -209 -209 -209 -209 -209 110 120 124 135 139 138 139 0 0 0 0 0
    0 0 0 0 0 0 0 0 0 0 0 0 0 0 0 0 0 0 0 0 0 0 0 0 0 0 0 0 0 0 0 0 0 0 0 0 0 0 0 0 0 0 0 0 0 0 0 0 0 0 0 0 0 0 0 0 0 0 0 0 0 0 0 0 0 0 0 0 0 73 72 69 70 71 72 72 73 72 73 70 69 67 69 67 67 68 70 70 71 72 74 73 74 74 75 73 74 73 73 73 74 74 74 74 74 74 73 72 70 68 66 69 69 71 72 74 77 77 79 78 77 75 75 74 73 73 71 69 -225 -225 -225 -225 -225 -225 -225 -225 -225 -225 -225 -225 -225 -225 -225 -225 -225 -225 -225 -225 -225 -225 -225 -225 -225 -225 -225 -225 -225 -225 -225 -225 -225 -225 -225 -225 -225 -225 -225 -225 -225 -225 -225 -225 -225 -225 -225 -225 -225 -225 -225 -225 -225 -225 -225 -225 -225 -225 -225 -225 -225 -225 -225 -225 -225 -225 -225 -225 -225 -225 -225 -225 -225 -225 -225 -225 -225 -225 -225 -225 -225 -225 -225 -225 -225 -225 -225 -225 -225 -225 -225 -225 -225 -225 -225 -225 -225 55 59 59 61 65 63 67 70 70 73 73 75 74 74 75 74 73 74 73 73 72 72 72 72 71 73 73 73 74 77 78 80 83 83 85 85 85 85 84 85 85 85 87 88 89 89 90 91 92 94 96 98 98 99 101 101 100 100 101 102 104 106 108 111 110 116 119 119 121 118 115 115 116 119 120 -209 -209 -209 -209 -209 -209 -209 -209 113 120 124 135 140 138 138 0 0 0 0 0
    0 0 0 0 0 0 0 0 0 0 0 0 0 0 0 0 0 0 0 0 0 0 0 0 0 0 0 0 0 0 0 0 0 0 0 0 0 0 0 0 0 0 0 0 0 0 0 0 0 0 0 0 0 0 0 0 0 0 0 0 0 0 0 0 0 0 0 0 0 71 71 68 69 70 72 73 74 73 74 71 -193 70 70 69 69 70 71 71 73 74 76 75 75 75 76 74 74 73 73 73 74 75 74 74 74 74 74 73 73 71 71 74 74 75 76 77 80 79 80 79 77 75 75 74 74 73 71 -225 -225 -225 -225 -225 -225 -225 -225 -225 -225 -225 -225 -225 -225 -225 -225 -225 -225 -225 -225 -225 -225 -225 -225 -225 -225 -225 -225 -225 -225 -225 -225 -225 -225 -225 -225 -225 -225 -225 -225 -225 -225 -225 -225 -225 -225 -225 -225 -225 -225 -225 -225 -225 -225 -225 -225 -225 -225 -225 -225 -225 -225 -225 -225 -225 -225 -225 -225 -225 -225 -225 -225 -225 -225 -225 -225 -225 -225 -225 -225 -225 -225 -225 -225 -225 -225 -225 -225 -225 -225 -225 -225 -225 -225 -225 -225 -225 -225 55 60 59 61 66 63 67 70 70 73 74 75 75 75 75 75 75 75 74 74 73 74 74 74 73 74 74 74 74 77 79 80 83 83 84 84 84 84 83 84 84 85 87 87 89 89 90 92 93 96 98 100 100 100 101 101 101 100 101 102 104 105 108 110 109 113 117 118 119 116 114 113 116 119 121 -209 -209 -209 -193 -209 -209 -209 -209 119 122 126 135 139 138 138 0 0 0 0 0
    0 0 0 0 0 0 0 0 0 0 0 0 0 0 0 0 0 0 0 0 0 0 0 0 0 0 0 0 0 0 0 0 0 0 0 0 0 0 0 0 0 0 0 0 0 0 0 0 0 0 0 0 0 0 0 0 0 0 0 0 0 0 0 0 0 0 0 0 0 72 72 69 71 -193 -193 -193 74 75 75 74 -193 73 72 72 71 72 72 73 74 75 76 76 76 76 77 76 76 74 74 74 75 76 75 75 75 74 74 74 74 74 74 77 76 78 79 81 83 82 82 79 77 76 75 75 74 -225 -225 -225 -225 -225 -225 -225 -225 -225 -225 -225 -225 -225 -225 -225 -225 -225 -225 -225 -225 -225 -225 -225 -225 -225 -225 -225 -225 -225 -225 -225 -225 -225 -225 -225 -225 -225 -225 -225 -225 -225 -225 -225 -225 -225 -225 -225 -225 -225 -225 -225 -225 -225 -225 -225 -225 -225 -225 -225 -225 -225 -225 -225 -225 -225 -225 -225 -225 -225 -225 -225 -225 -225 -225 -225 -225 -225 -225 -225 -225 -225 -225 -225 -225 -225 -225 -225 -225 -225 -225 -225 -225 -225 -225 -225 -225 -225 -225 -225 -225 55 61 60 63 67 64 68 70 70 73 74 75 75 75 76 76 75 76 75 76 75 76 75 75 75 75 75 76 75 79 80 80 82 82 82 83 83 82 82 83 84 85 87 88 89 89 91 93 94 98 100 101 102 102 102 101 101 101 100 101 103 104 106 109 108 111 115 116 118 113 113 112 114 118 121 -193 122 122 123 123 124 -193 -209 -193 122 127 136 139 138 139 0 0 0 0 0
    0 0 0 0 0 0 0 0 0 0 0 0 0 0 0 0 0 0 0 0 0 0 0 0 0 0 0 0 0 0 0 0 0 0 0 0 0 0 0 0 0 0 0 0 0 0 0 0 0 0 0 0 0 0 0 0 0 0 0 0 0 0 0 0 0 0 0 0 0 73 73 70 71 72 73 74 75 76 77 77 76 76 75 75 74 74 74 74 74 75 76 76 75 76 77 75 76 74 73 74 75 76 76 75 75 75 75 75 76 76 76 80 79 81 82 83 85 83 82 79 78 78 77 76 -225 -225 -225 -225 -225 -225 -225 -225 -225 -225 -225 -225 -225 -225 -225 -225 -225 -225 -225 -225 -225 -225 -225 -225 -225 -225 -225 -225 -225 -225 -225 -225 -225 -225 -225 -225 -225 -225 -225 -225 -225 -225 -225 -225 -225 -225 -225 -225 -225 -225 -225 -225 -225 -225 -225 -225 -225 -225 -225 -225 -225 -225 -225 -225 -225 -225 -225 -225 -225 -225 -225 -225 -225 -225 -225 -225 -225 -225 -225 -225 -225 -225 -225 -225 -225 -225 -225 -225 -225 -225 -225 -225 -225 -225 -225 -225 -225 -225 -225 -225 -225 -225 61 60 64 68 66 69 70 71 74 76 77 76 76 77 76 77 78 77 77 76 77 77 78 78 78 76 76 75 80 80 80 81 81 80 81 82 81 80 82 83 85 87 88 90 89 91 93 95 99 101 102 102 102 103 102 102 101 100 100 103 103 105 106 106 109 113 115 116 111 111 112 116 119 122 122 123 122 124 124 125 123 -193 112 -193 125 136 139 138 138 0 0 0 0 0
    0 0 0 0 0 0 0 0 0 0 0 0 0 0 0 0 0 0 0 0 0 0 0 0 0 0 0 0 0 0 0 0 0 0 0 0 0 0 0 0 0 0 0 0 0 0 0 0 0 0 0 0 0 0 0 0 0 0 0 0 0 0 0 0 0 0 0 0 0 73 73 70 71 72 72 74 76 77 79 81 77 78 77 77 76 76 76 75 75 76 77 76 76 75 77 76 76 74 74 74 75 77 77 76 76 76 76 77 78 81 81 83 83 83 84 85 85 84 81 80 79 78 77 -225 -225 -225 -225 -225 -225 -225 -225 -225 -225 -225 -225 -225 -225 -225 -225 -225 -225 -225 -225 -225 -225 -225 -225 -225 -225 -225 -225 -225 -225 -225 -225 -225 -225 -225 -225 -225 -225 -225 -225 -225 -225 -225 -225 -225 -225 -225 -225 -225 -225 -225 -225 -225 -225 -225 -225 -225 -225 -225 -225 -225 -225 -225 -225 -225 -225 -225 -225 -225 -225 -225 -225 -225 -225 -225 -225 -225 -225 -225 -225 -225 -225 -225 -225 -225 -225 -225 -225 -225 -225 -225 -225 -225 -225 -225 -225 -225 -225 -225 -225 -225 -225 -225 59 58 63 69 67 70 70 72 75 77 78 77 77 77 77 78 79 78 79 77 80 79 80 81 80 77 76 75 79 77 78 78 78 78 80 82 81 81 83 84 85 86 87 89 89 91 -193 96 101 103 103 104 103 103 103 102 102 101 101 103 103 105 107 106 108 112 114 115 110 110 112 116 118 121 122 122 121 123 124 125 123 -193 -193 -193 124 135 138 137 138 0 0 0 0 0
    0 0 0 0 0 0 0 0 0 0 0 0 0 0 0 0 0 0 0 0 0 0 0 0 0 0 0 0 0 0 0 0 0 0 0 0 0 0 0 0 0 0 0 0 0 0 0 0 0 0 0 0 0 0 0 0 0 0 0 0 0 0 0 0 0 0 0 0 0 71 72 66 69 70 71 74 75 78 80 82 78 78 78 77 76 76 76 76 75 76 77 77 76 77 78 77 77 74 75 75 76 79 79 78 79 80 81 81 83 85 86 86 86 86 86 85 86 83 82 81 79 78 -225 -225 -225 -225 -225 -225 -225 -225 -225 -225 -225 -225 -225 -225 -225 -225 -225 -225 -225 -225 -225 -225 -225 -225 -225 -225 -225 -225 -225 -225 -225 -225 -225 -225 -225 -225 -225 -225 -225 -225 -225 -225 -225 -225 -225 -225 -225 -225 -225 -225 -225 -225 -225 -225 -225 -225 -225 -225 -225 -225 -225 -225 -225 -225 -225 -225 -225 -225 -225 -225 -225 -225 -225 -225 -225 -225 -225 -225 -225 -225 -225 -225 -225 -225 -225 -225 -225 -225 -225 -225 -225 -225 -225 -225 -225 -225 -225 -225 -225 -225 -225 -225 -225 -225 -225 54 58 69 70 -193 73 74 77 79 79 78 79 79 79 81 82 81 81 80 84 84 84 84 83 81 80 79 82 79 80 79 79 79 80 82 82 82 84 84 85 87 87 89 90 92 -209 -193 102 104 104 104 104 103 103 102 102 101 101 103 103 105 108 107 109 113 115 116 112 113 113 115 117 119 121 121 120 122 124 126 125 124 -193 -193 125 135 138 137 138 0 0 0 0 0
    0 0 0 0 0 0 0 0 0 0 0 0 0 0 0 0 0 0 0 0 0 0 0 0 0 0 0 0 0 0 0 0 0 0 0 0 0 0 0 0 0 0 0 0 0 0 0 0 0 0 0 0 0 0 0 0 0 0 0 0 0 0 0 0 0 0 0 0 0 72 -193 65 71 73 73 77 78 81 83 83 79 78 78 78 77 77 77 76 77 78 79 78 78 79 79 76 76 73 73 75 76 79 80 79 81 84 84 84 85 87 88 88 87 86 86 85 86 85 84 82 81 -225 -225 -225 -225 -225 -225 -225 -225 -225 -225 -225 -225 -225 -225 -225 -225 -225 -225 -225 -225 -225 -225 -225 -225 -225 -225 -225 -225 -225 -225 -225 -225 -225 -225 -225 -225 -225 -225 -225 -225 -225 -225 -225 -225 -225 -225 -225 -225 -225 -225 -225 -225 -225 -225 -225 -225 -225 -225 -225 -225 -225 -225 -225 -225 -225 -225 -225 -225 -225 -225 -225 -225 -225 -225 -225 -225 -225 -225 -225 -225 -225 -225 -225 -225 -225 -225 -225 -225 -225 -225 -225 -225 -225 -225 -225 -225 -225 -225 -225 -225 -225 -225 -225 -225 -225 -225 -225 58 67 62 -193 -193 73 77 79 80 79 80 80 80 83 84 83 83 83 85 85 85 85 84 82 82 81 83 81 82 80 81 79 81 82 82 81 82 83 84 86 87 89 -209 -209 -209 -193 102 104 104 104 104 103 102 101 101 101 100 102 102 104 -193 106 108 112 115 116 110 111 111 -193 114 117 118 117 116 121 124 126 128 128 127 -193 129 136 139 138 139 0 0 0 0 0
    0 0 0 0 0 0 0 0 0 0 0 0 0 0 0 0 0 0 0 0 0 0 0 0 0 0 0 0 0 0 0 0 0 0 0 0 0 0 0 0 0 0 0 0 0 0 0 0 0 0 0 0 0 0 0 0 0 0 0 0 0 0 0 0 0 0 0 0 0 72 76 -209 78 86 85 85 83 83 84 84 80 79 79 79 78 78 79 77 78 79 80 78 77 79 78 76 77 73 74 76 78 82 81 83 85 86 86 85 87 88 89 89 89 87 86 86 87 86 85 83 -225 -225 -225 -225 -225 -225 -225 -225 -225 -225 -225 -225 -225 -225 -225 -225 -225 -225 -225 -225 -225 -225 -225 -225 -225 -225 -225 -225 -225 -225 -225 -225 -225 -225 -225 -225 -225 -225 -225 -225 -225 -225 -225 -225 -225 -225 -225 -225 -225 -225 -225 -225 -225 -225 -225 -225 -225 -225 -225 -225 -225 -225 -225 -225 -225 -225 -225 -225 -225 -225 -225 -225 -225 -225 -225 -225 -225 -225 -225 -225 -225 -225 -225 -225 -225 -225 -225 -225 -225 -225 -225 -225 -225 -225 -225 -225 -225 -225 -225 -225 -225 -225 -225 -225 -225 -225 -225 -225 -225 -225 54 53 56 68 77 78 79 79 80 80 80 83 84 82 84 84 85 84 85 85 84 83 83 82 82 82 82 79 81 79 80 81 80 80 81 82 84 86 87 88 -209 -209 -209 99 102 103 103 104 103 103 102 101 101 100 100 101 100 103 104 106 108 111 114 115 109 111 111 112 115 116 117 116 116 120 123 125 128 128 129 132 133 136 140 139 139 0 0 0 0 0
    0 0 0 0 0 0 0 0 0 0 0 0 0 0 0 0 0 0 0 0 0 0 0 0 0 0 0 0 0 0 0 0 0 0 0 0 0 0 0 0 0 0 0 0 0 0 0 0 0 0 0 0 0 0 0 0 0 0 0 0 0 0 0 0 0 0 0 0 0 73 82 88 88 89 88 87 85 85 85 85 82 80 82 82 80 80 80 79 79 82 82 79 78 82 81 81 81 73 75 -209 82 85 85 87 88 88 87 87 88 90 90 90 89 88 87 88 88 87 -225 -225 -225 -225 -225 -225 -225 -225 -225 -225 -225 -225 -225 -225 -225 -225 -225 -225 -225 -225 -225 -225 -225 -225 -225 -225 -225 -225 -225 -225 -225 -225 -225 -225 -225 -225 -225 -225 -225 -225 -225 -225 -225 -225 -225 -225 -225 -225 -225 -225 -225 -225 -225 -225 -225 -225 -225 -225 -225 -225 -225 -225 -225 -225 -225 -225 -225 -225 -225 -225 -225 -225 -225 -225 -225 -225 -225 -225 -225 -225 -225 -225 -225 -225 -225 -225 -225 -225 -225 -225 -225 -225 -225 -225 -225 -225 -225 -225 -225 -225 -225 -225 -225 -225 -225 -225 -225 -225 -225 -225 -225 -225 -225 45 54 61 76 77 77 77 80 79 82 84 85 84 86 86 86 85 86 85 84 83 83 82 82 82 81 77 77 76 77 76 74 76 76 80 85 86 88 89 91 -209 -209 100 102 103 104 104 104 103 102 102 102 102 101 103 100 103 105 106 107 110 112 112 108 110 111 112 115 116 117 116 115 120 123 125 128 128 129 133 135 138 143 140 140 0 0 0 0 0
    0 0 0 0 0 0 0 0 0 0 0 0 0 0 0 0 0 0 0 0 0 0 0 0 0 0 0 0 0 0 0 0 0 0 0 0 0 0 0 0 0 0 0 0 0 0 0 0 0 0 0 0 0 0 0 0 0 0 0 0 0 0 0 0 0 0 0 0 0 87 88 91 91 91 90 90 87 87 87 86 83 82 84 84 82 82 83 82 82 84 84 80 81 86 88 90 89 -193 92 96 88 88 89 90 91 91 90 89 90 91 92 91 90 89 89 89 89 -225 -225 -225 -225 -225 -225 -225 -225 -225 -225 -225 -225 -225 -225 -225 -225 -225 -225 -225 -225 -225 -225 -225 -225 -225 -225 -225 -225 -225 -225 -225 -225 -225 -225 -225 -225 -225 -225 -225 -225 -225 -225 -225 -225 -225 -225 -225 -225 -225 -225 -225 -225 -225 -225 -225 -225 -225 -225 -225 -225 -225 -225 -225 -225 -225 -225 -225 -225 -225 -225 -225 -225 -225 -225 -225 -225 -225 -225 -225 -225 -225 -225 -225 -225 -225 -225 -225 -225 -225 -225 -225 -225 -225 -225 -225 -225 -225 -225 -225 -225 -225 -225 -225 -225 -225 -225 -225 -225 -225 -225 -225 -225 -225 -225 -225 -225 59 -193 78 75 77 81 81 84 86 87 86 87 88 87 87 87 86 85 84 84 84 83 82 82 79 79 79 81 80 75 79 80 83 86 87 89 91 93 96 -193 101 103 104 104 105 104 104 103 103 103 103 102 103 101 102 104 104 106 108 111 111 107 109 110 112 115 116 118 115 114 119 123 125 129 -209 -209 -209 135 137 141 140 140 0 0 0 0 0
    0 0 0 0 0 0 0 0 0 0 0 0 0 0 0 0 0 0 0 0 0 0 0 0 0 0 0 0 0 0 0 0 0 0 0 0 0 0 0 0 0 0 0 0 0 0 0 0 0 0 0 0 0 0 0 0 0 0 0 0 0 0 0 0 0 0 0 0 0 92 92 92 93 93 93 92 88 88 87 86 84 84 85 85 84 84 84 84 84 85 85 81 82 87 90 91 89 90 93 100 94 92 92 92 92 93 92 91 92 92 92 91 90 90 89 89 -225 -225 -225 -225 -225 -225 -225 -225 -225 -225 -225 -225 -225 -225 -225 -225 -225 -225 -225 -225 -225 -225 -225 -225 -225 -225 -225 -225 -225 -225 -225 -225 -225 -225 -225 -225 -225 -225 -225 -225 -225 -225 -225 -225 -225 -225 -225 -225 -225 -225 -225 -225 -225 -225 -225 -225 -225 -225 -225 -225 -225 -225 -225 -225 -225 -225 -225 -225 -225 -225 -225 -225 -225 -225 -225 -225 -225 -225 -225 -225 -225 -225 -225 -225 -225 -225 -225 -225 -225 -225 -225 -225 -225 -225 -225 -225 -225 -225 -225 -225 -225 -225 -225 -225 -225 -225 -225 -225 -225 -225 -225 -225 -225 -225 -225 -225 -225 -225 -225 -209 70 76 81 86 87 89 89 89 89 89 88 88 87 86 85 84 84 85 83 83 84 82 83 83 86 86 78 84 84 84 86 88 90 92 94 97 100 100 102 103 103 104 104 104 103 103 103 103 102 103 101 101 102 103 106 108 111 112 110 111 112 114 115 117 118 117 116 119 122 124 129 -209 -209 -209 -209 -209 140 140 140 0 0 0 0 0
    0 0 0 0 0 0 0 0 0 0 0 0 0 0 0 0 0 0 0 0 0 0 0 0 0 0 0 0 0 0 0 0 0 0 0 0 0 0 0 0 0 0 0 0 0 0 0 0 0 0 0 0 0 0 0 0 0 0 0 0 0 0 0 0 0 0 0 0 0 97 95 94 94 95 94 -193 -209 87 87 86 85 84 86 86 85 85 86 85 86 86 86 83 84 88 92 94 92 95 98 104 100 97 96 96 94 95 93 92 92 92 91 91 90 90 89 -225 -225 -225 -225 -225 -225 -225 -225 -225 -225 -225 -225 -225 -225 -225 -225 -225 -225 -225 -225 -225 -225 -225 -225 -225 -225 -225 -225 -225 -225 -225 -225 -225 -225 -225 -225 -225 -225 -225 -225 -225 -225 -225 -225 -225 -225 -225 -225 -225 -225 -225 -225 -225 -225 -225 -225 -225 -225 -225 -225 -225 -225 -225 -225 -225 -225 -225 -225 -225 -225 -225 -225 -225 -225 -225 -225 -225 -225 -225 -225 -225 -225 -225 -225 -225 -225 -225 -225 -225 -225 -225 -225 -225 -225 -225 -225 -225 -225 -225 -225 -225 -225 -225 -225 -225 -225 -225 -225 -225 -225 -225 -225 -225 -225 -225 -225 -225 -225 -225 -225 -225 -225 78 77 94 91 93 91 90 90 90 89 88 87 85 85 83 84 85 83 83 84 83 85 86 89 90 89 90 91 90 91 92 93 94 94 98 99 99 100 102 102 -209 103 103 102 102 102 103 102 105 102 102 102 104 106 109 111 113 109 110 112 114 116 117 118 117 116 119 122 122 126 -209 -209 -209 -209 -193 138 -193 138 0 0 0 0 0
    0 0 0 0 0 0 0 0 0 0 0 0 0 0 0 0 0 0 0 0 0 0 0 0 0 0 0 0 0 0 0 0 0 0 0 0 0 0 0 0 0 0 0 0 0 0 0 0 0 0 0 0 0 0 0 0 0 0 0 0 0 0 0 0 0 0 0 0 0 101 99 96 96 96 95 -193 -209 -193 87 86 85 85 86 87 87 87 88 88 89 89 88 86 88 90 94 97 94 99 101 103 101 100 100 99 97 98 95 93 92 92 92 91 91 90 -225 -225 -225 -225 -225 -225 -225 -225 -225 -225 -225 -225 -225 -225 -225 -225 -225 -225 -225 -225 -225 -225 -225 -225 -225 -225 -225 -225 -225 -225 -225 -225 -225 -225 -225 -225 -225 -225 -225 -225 -225 -225 -225 -225 -225 -225 -225 -225 -225 -225 -225 -225 -225 -225 -225 -225 -225 -225 -225 -225 -225 -225 -225 -225 -225 -225 -225 -225 -225 -225 -225 -225 -225 -225 -225 -225 -225 -225 -225 -225 -225 -225 -225 -225 -225 -225 -225 -225 -225 -225 -225 -225 -225 -225 -225 -225 -225 -225 -225 -225 -225 -225 -225 -225 -225 -225 -225 -225 -225 -225 -225 -225 -225 -225 -225 -225 -225 -225 -225 -225 -225 -225 -225 -225 -225 -193 93 96 92 90 89 89 88 87 87 85 85 84 84 85 84 84 85 84 86 87 89 91 90 91 92 92 92 94 95 97 95 99 100 99 100 101 100 100 99 101 100 100 101 102 103 105 104 104 -209 106 108 111 112 -193 -193 110 -193 112 115 115 117 116 115 118 120 121 125 124 -209 -209 -209 -193 138 139 139 0 0 0 0 0
    0 0 0 0 0 0 0 0 0 0 0 0 0 0 0 0 0 0 0 0 0 0 0 0 0 0 0 0 0 0 0 0 0 0 0 0 0 0 0 0 0 0 0 0 0 0 0 0 0 0 0 0 0 0 0 0 0 0 0 0 0 0 0 0 0 0 0 0 0 -193 99 95 94 94 -193 -193 -209 88 88 87 88 87 88 89 90 91 94 95 95 95 93 90 92 92 94 96 95 100 102 103 102 101 101 100 99 99 96 94 93 93 92 91 -225 -225 -225 -225 -225 -225 -225 -225 -225 -225 -225 -225 -225 -225 -225 -225 -225 -225 -225 -225 -225 -225 -225 -225 -225 -225 -225 -225 -225 -225 -225 -225 -225 -225 -225 -225 -225 -225 -225 -225 -225 -225 -225 -225 -225 -225 -225 -225 -225 -225 -225 -225 -225 -225 -225 -225 -225 -225 -225 -225 -225 -225 -225 -225 -225 -225 -225 -225 -225 -225 -225 -225 -225 -225 -225 -225 -225 -225 -225 -225 -225 -225 -225 -225 -225 -225 -225 -225 -225 -225 -225 -225 -225 -225 -225 -225 -225 -225 -225 -225 -225 -225 -225 -225 -225 -225 -225 -225 -225 -225 -225 -225 -225 -225 -225 -225 -225 -225 -225 -225 -225 -225 -225 -225 -225 -225 -225 -225 97 100 91 90 89 88 87 86 86 85 85 84 85 85 85 85 86 86 88 89 91 93 93 94 96 96 96 99 99 101 98 101 100 100 100 100 98 98 96 100 99 99 100 101 102 105 104 104 104 105 107 109 109 -209 -209 108 -193 111 115 116 116 117 116 118 119 120 125 121 124 -209 -209 139 -209 -193 -193 0 0 0 0 0
    0 0 0 0 0 0 0 0 0 0 0 0 0 0 0 0 0 0 0 0 0 0 0 0 0 0 0 0 0 0 0 0 0 0 0 0 0 0 0 0 0 0 0 0 0 0 0 0 0 0 0 0 0 0 0 0 0 0 0 0 0 0 0 0 0 0 0 0 0 102 99 -193 94 95 93 -193 -209 89 88 89 90 89 92 94 97 97 101 101 100 100 97 94 96 94 95 97 96 100 102 103 102 102 101 101 100 99 97 95 94 93 92 -225 -225 -225 -225 -225 -225 -225 -225 -225 -225 -225 -225 -225 -225 -225 -225 -225 -225 -225 -225 -225 -225 -225 -225 -225 -225 -225 -225 -225 -225 -225 -225 -225 -225 -225 -225 -225 -225 -225 -225 -225 -225 -225 -225 -225 -225 -225 -225 -225 -225 -225 -225 -225 -225 -225 -225 -225 -225 -225 -225 -225 -225 -225 -225 -225 -225 -225 -225 -225 -225 -225 -225 -225 -225 -225 -225 -225 -225 -225 -225 -225 -225 -225 -225 -225 -225 -225 -225 -225 -225 -225 -225 -225 -225 -225 -225 -225 -225 -225 -225 -225 -225 -225 -225 -225 -225 -225 -225 -225 -225 -225 -225 -225 -225 -225 -225 -225 -225 -225 -225 -225 -225 -225 -225 -225 -225 -225 -225 -225 -225 -225 86 85 84 86 84 84 84 84 84 84 84 86 85 86 87 89 90 92 93 95 94 95 97 97 96 99 98 101 98 100 100 99 99 99 98 97 95 100 100 100 101 102 103 105 105 104 103 -209 105 -209 105 -209 99 -209 -209 -209 -209 112 115 116 116 119 121 122 128 123 125 133 137 -193 -209 -209 -193 0 0 0 0 0
    0 0 0 0 0 0 0 0 0 0 0 0 0 0 0 0 0 0 0 0 0 0 0 0 0 0 0 0 0 0 0 0 0 0 0 0 0 0 0 0 0 0 0 0 0 0 0 0 0 0 0 0 0 0 0 0 0 0 0 0 0 0 0 0 0 0 0 0 0 102 100 -193 96 96 96 -193 -193 91 90 91 93 -193 -193 99 101 100 102 103 102 102 99 98 100 98 100 100 99 102 103 104 103 102 102 101 100 98 97 96 95 94 -225 -225 -225 -225 -225 -225 -225 -225 -225 -225 -225 -225 -225 -225 -225 -225 -225 -225 -225 -225 -225 -225 -225 -225 -225 -225 -225 -225 -225 -225 -225 -225 -225 -225 -225 -225 -225 -225 -225 -225 -225 -225 -225 -225 -225 -225 -225 -225 -225 -225 -225 -225 -225 -225 -225 -225 -225 -225 -225 -225 -225 -225 -225 -225 -225 -225 -225 -225 -225 -225 -225 -225 -225 -225 -225 -225 -225 -225 -225 -225 -225 -225 -225 -225 -225 -225 -225 -225 -225 -225 -225 -225 -225 -225 -225 -225 -225 -225 -225 -225 -225 -225 -225 -225 -225 -225 -225 -225 -225 -225 -225 -225 -225 -225 -225 -225 -225 -225 -225 -225 -225 -225 -225 -225 -225 -225 -225 -225 -225 -225 -225 -225 -225 82 82 85 84 83 84 83 84 84 84 86 86 87 88 90 90 94 95 97 96 96 99 99 99 101 101 103 101 103 102 101 100 99 97 97 95 99 99 99 102 103 103 -209 105 104 104 105 105 105 105 104 101 103 -209 -209 -209 -193 113 117 118 121 125 124 128 125 126 131 135 137 -193 -209 137 0 0 0 0 0
    0 0 0 0 0 0 0 0 0 0 0 0 0 0 0 0 0 0 0 0 0 0 0 0 0 0 0 0 0 0 0 0 0 0 0 0 0 0 0 0 0 0 0 0 0 0 0 0 0 0 0 0 0 0 0 0 0 0 0 0 0 0 0 0 0 0 0 0 0 102 99 -193 96 96 95 93 87 90 89 -209 -193 -209 -209 99 101 100 103 103 102 103 100 100 103 103 103 101 101 103 104 104 103 103 102 102 100 99 98 97 95 -225 -225 -225 -225 -225 -225 -225 -225 -225 -225 -225 -225 -225 -225 -225 -225 -225 -225 -225 -225 -225 -225 -225 -225 -225 -225 -225 -225 -225 -225 -225 -225 -225 -225 -225 -225 -225 -225 -225 -225 -225 -225 -225 -225 -225 -225 -225 -225 -225 -225 -225 -225 -225 -225 -225 -225 -225 -225 -225 -225 -225 -225 -225 -225 -225 -225 -225 -225 -225 -225 -225 -225 -225 -225 -225 -225 -225 -225 -225 -225 -225 -225 -225 -225 -225 -225 -225 -225 -225 -225 -225 -225 -225 -225 -225 -225 -225 -225 -225 -225 -225 -225 -225 -225 -225 -225 -225 -225 -225 -225 -225 -225 -225 -225 -225 -225 -225 -225 -225 -225 -225 -225 -225 -225 -225 -225 -225 -225 -225 -225 -225 -225 -225 -225 80 80 84 84 83 83 84 85 84 85 86 86 87 88 90 91 95 96 98 98 99 101 101 100 102 101 103 101 102 102 100 99 100 98 99 97 100 101 101 104 106 105 106 106 105 105 105 105 105 104 104 102 103 105 105 107 107 111 115 116 118 120 121 123 121 124 126 132 135 135 135 136 0 0 0 0 0
    0 0 0 0 0 0 0 0 0 0 0 0 0 0 0 0 0 0 0 0 0 0 0 0 0 0 0 0 0 0 0 0 0 0 0 0 0 0 0 0 0 0 0 0 0 0 0 0 0 0 0 0 0 0 0 0 0 0 0 0 0 0 0 0 0 0 0 0 0 102 -193 -193 95 96 95 92 83 -193 87 -209 -209 -209 -209 97 100 100 103 103 102 104 102 102 105 104 104 102 102 103 104 104 103 102 102 101 100 100 99 98 -225 -225 -225 -225 -225 -225 -225 -225 -225 -225 -225 -225 -225 -225 -225 -225 -225 -225 -225 -225 -225 -225 -225 -225 -225 -225 -225 -225 -225 -225 -225 -225 -225 -225 -225 -225 -225 -225 -225 -225 -225 -225 -225 -225 -225 -225 -225 -225 -225 -225 -225 -225 -225 -225 -225 -225 -225 -225 -225 -225 -225 -225 -225 -225 -225 -225 -225 -225 -225 -225 -225 -225 -225 -225 -225 -225 -225 -225 -225 -225 -225 -225 -225 -225 -225 -225 -225 -225 -225 -225 -225 -225 -225 -225 -225 -225 -225 -225 -225 -225 -225 -225 -225 -225 -225 -225 -225 -225 -225 -225 -225 -225 -225 -225 -225 -225 -225 -225 -225 -225 -225 -225 -225 -225 -225 -225 -225 -225 -225 -225 -225 -225 -225 -225 -225 -225 80 83 86 84 83 85 86 85 85 86 87 88 89 93 94 98 99 101 100 101 102 103 102 103 102 103 102 103 102 101 100 101 100 100 99 102 102 103 105 107 105 106 106 106 106 106 106 105 103 102 102 103 104 105 106 106 110 114 116 116 118 121 124 123 126 127 129 131 132 133 135 0 0 0 0 0
    0 0 0 0 0 0 0 0 0 0 0 0 0 0 0 0 0 0 0 0 0 0 0 0 0 0 0 0 0 0 0 0 0 0 0 0 0 0 0 0 0 0 0 0 0 0 0 0 0 0 0 0 0 0 0 0 0 0 0 0 0 0 0 0 0 0 0 0 0 103 -193 -193 99 100 98 -209 75 73 80 -209 -209 -209 -209 95 99 100 103 103 103 105 104 106 107 106 106 104 104 105 105 105 104 102 102 102 102 101 101 -225 -225 -225 -225 -225 -225 -225 -225 -225 -225 -225 -225 -225 -225 -225 -225 -225 -225 -225 -225 -225 -225 -225 -225 -225 -225 -225 -225 -225 -225 -225 -225 -225 -225 -225 -225 -225 -225 -225 -225 -225 -225 -225 -225 -225 -225 -225 -225 -225 -225 -225 -225 -225 -225 -225 -225 -225 -225 -225 -225 -225 -225 -225 -225 -225 -225 -225 -225 -225 -225 -225 -225 -225 -225 -225 -225 -225 -225 -225 -225 -225 -225 -225 -225 -225 -225 -225 -225 -225 -225 -225 -225 -225 -225 -225 -225 -225 -225 -225 -225 -225 -225 -225 -225 -225 -225 -225 -225 -225 -225 -225 -225 -225 -225 -225 -225 -225 -225 -225 -225 -225 -225 -225 -225 -225 -225 -225 -225 -225 -225 -225 -225 -225 -225 -225 -225 -225 -225 80 82 81 80 83 85 84 84 86 87 88 90 94 96 100 100 102 102 102 103 103 103 104 103 104 102 103 103 102 102 102 100 101 99 102 102 102 104 106 103 105 104 105 106 106 106 105 103 103 102 104 105 105 106 106 110 114 116 117 118 120 120 121 124 124 124 126 129 130 131 0 0 0 0 0
    0 0 0 0 0 0 0 0 0 0 0 0 0 0 0 0 0 0 0 0 0 0 0 0 0 0 0 0 0 0 0 0 0 0 0 0 0 0 0 0 0 0 0 0 0 0 0 0 0 0 0 0 0 0 0 0 0 0 0 0 0 0 0 0 0 0 0 0 0 105 106 105 105 104 102 -209 -193 72 -209 -209 -209 -209 -209 -193 101 101 103 104 104 106 107 108 108 107 107 106 105 106 107 106 104 103 103 103 102 -225 -225 -225 -225 -225 -225 -225 -225 -225 -225 -225 -225 -225 -225 -225 -225 -225 -225 -225 -225 -225 -225 -225 -225 -225 -225 -225 -225 -225 -225 -225 -225 -225 -225 -225 -225 -225 -225 -225 -225 -225 -225 -225 -225 -225 -225 -225 -225 -225 -225 -225 -225 -225 -225 -225 -225 -225 -225 -225 -225 -225 -225 -225 -225 -225 -225 -225 -225 -225 -225 -225 -225 -225 -225 -225 -225 -225 -225 -225 -225 -225 -225 -225 -225 -225 -225 -225 -225 -225 -225 -225 -225 -225 -225 -225 -225 -225 -225 -225 -225 -225 -225 -225 -225 -225 -225 -225 -225 -225 -225 -225 -225 -225 -225 -225 -225 -225 -225 -225 -225 -225 -225 -225 -225 -225 -225 -225 -225 -225 -225 -225 -225 -225 -225 -225 -225 -225 -225 -225 -225 -225 76 81 80 82 85 85 85 86 87 89 90 93 95 100 100 101 101 101 102 103 103 -193 -193 -193 -193 -193 104 104 103 104 102 102 100 102 101 100 103 105 102 104 104 106 106 107 107 106 104 104 103 103 104 105 106 106 110 -193 -193 -193 117 119 119 120 120 120 120 122 126 127 127 0 0 0 0 0
    0 0 0 0 0 0 0 0 0 0 0 0 0 0 0 0 0 0 0 0 0 0 0 0 0 0 0 0 0 0 0 0 0 0 0 0 0 0 0 0 0 0 0 0 0 0 0 0 0 0 0 0 0 0 0 0 0 0 0 0 0 0 0 0 0 0 0 0 0 105 106 106 106 104 101 -209 -193 -209 -209 -193 -209 -209 -209 -209 -193 103 105 106 105 107 108 109 109 108 108 106 106 107 106 105 104 103 103 103 -225 -225 -225 -225 -225 -225 -225 -225 -225 -225 -225 -225 -225 -225 -225 -225 -225 -225 -225 -225 -225 -225 -225 -225 -225 -225 -225 -225 -225 -225 -225 -225 -225 -225 -225 -225 -225 -225 -225 -225 -225 -225 -225 -225 -225 -225 -225 -225 -225 -225 -225 -225 -225 -225 -225 -225 -225 -225 -225 -225 -225 -225 -225 -225 -225 -225 -225 -225 -225 -225 -225 -225 -225 -225 -225 -225 -225 -225 -225 -225 -225 -225 -225 -225 -225 -225 -225 -225 -225 -225 -225 -225 -225 -225 -225 -225 -225 -225 -225 -225 -225 -225 -225 -225 -225 -225 -225 -225 -225 -225 -225 -225 -225 -225 -225 -225 -225 -225 -225 -225 -225 -225 -225 -225 -225 -225 -225 -225 -225 -225 -225 -225 -225 -225 -225 -225 -225 -225 -225 -225 -225 -225 -225 -225 83 86 87 87 87 87 89 92 93 96 97 101 101 101 101 101 102 103 104 105 106 106 105 105 105 105 104 105 104 103 102 104 103 103 104 105 103 104 105 105 106 107 108 108 106 106 106 105 106 106 107 -209 -209 -209 -209 -209 -193 -193 118 118 118 119 118 120 123 124 124 0 0 0 0 0
    0 0 0 0 0 0 0 0 0 0 0 0 0 0 0 0 0 0 0 0 0 0 0 0 0 0 0 0 0 0 0 0 0 0 0 0 0 0 0 0 0 0 0 0 0 0 0 0 0 0 0 0 0 0 0 0 0 0 0 0 0 0 0 0 0 0 0 0 0 106 106 108 108 106 -193 -193 -193 -209 -209 126 -209 -209 -209 -209 -209 -193 112 110 109 109 111 111 111 109 109 108 107 107 106 105 104 103 103 -225 -225 -225 -225 -225 -225 -225 -225 -225 -225 -225 -225 -225 -225 -225 -225 -225 -225 -225 -225 -225 -225 -225 -225 -225 -225 -225 -225 -225 -225 -225 -225 -225 -225 -225 -225 -225 -225 -225 -225 -225 -225 -225 -225 -225 -225 -225 -225 -225 -225 -225 -225 -225 -225 -225 -225 -225 -225 -225 -225 -225 -225 -225 -225 -225 -225 -225 -225 -225 -225 -225 -225 -225 -225 -225 -225 -225 -225 -225 -225 -225 -225 -225 -225 -225 -225 -225 -225 -225 -225 -225 -225 -225 -225 -225 -225 -225 -225 -225 -225 -225 -225 -225 -225 -225 -225 -225 -225 -225 -225 -225 -225 -225 -225 -225 -225 -225 -225 -225 -225 -225 -225 -225 -225 -225 -225 -225 -225 -225 -225 -225 -225 -225 -225 -225 -225 -225 -225 -225 -225 -225 -225 -225 -225 -225 -225 82 85 84 85 86 88 91 93 97 98 101 101 101 102 102 102 104 105 106 107 107 107 106 106 106 105 105 105 104 104 105 104 104 104 105 104 103 104 105 105 107 108 109 109 107 108 106 107 107 107 -209 -209 -209 -209 -193 -193 -209 -209 118 119 120 118 120 121 121 120 0 0 0 0 0
    0 0 0 0 0 0 0 0 0 0 0 0 0 0 0 0 0 0 0 0 0 0 0 0 0 0 0 0 0 0 0 0 0 0 0 0 0 0 0 0 0 0 0 0 0 0 0 0 0 0 0 0 0 0 0 0 0 0 0 0 0 0 0 0 0 0 0 0 0 107 108 109 111 109 108 110 -193 -209 118 126 134 -209 -209 -209 132 -209 122 122 117 117 117 117 116 114 113 110 108 107 106 105 104 103 -225 -225 -225 -225 -225 -225 -225 -225 -225 -225 -225 -225 -225 -225 -225 -225 -225 -225 -225 -225 -225 -225 -225 -225 -225 -225 -225 -225 -225 -225 -225 -225 -225 -225 -225 -225 -225 -225 -225 -225 -225 -225 -225 -225 -225 -225 -225 -225 -225 -225 -225 -225 -225 -225 -225 -225 -225 -225 -225 -225 -225 -225 -225 -225 -225 -225 -225 -225 -225 -225 -225 -225 -225 -225 -225 -225 -225 -225 -225 -225 -225 -225 -225 -225 -225 -225 -225 -225 -225 -225 -225 -225 -225 -225 -225 -225 -225 -225 -225 -225 -225 -225 -225 -225 -225 -225 -225 -225 -225 -225 -225 -225 -225 -225 -225 -225 -225 -225 -225 -225 -225 -225 -225 -225 -225 -225 -225 -225 -225 -225 -225 -225 -225 -225 -225 -225 -225 -225 -225 -225 -225 -225 -225 -225 -225 -225 -225 -225 -225 84 86 87 89 93 94 97 99 102 101 101 102 101 101 104 105 106 107 107 107 107 107 107 105 106 106 105 105 106 105 105 106 106 106 106 107 107 108 110 110 111 111 109 110 106 107 107 106 -209 -209 -209 -209 -209 -209 -209 -209 -193 118 119 117 119 119 120 120 0 0 0 0 0
    0 0 0 0 0 0 0 0 0 0 0 0 0 0 0 0 0 0 0 0 0 0 0 0 0 0 0 0 0 0 0 0 0 0 0 0 0 0 0 0 0 0 0 0 0 0 0 0 0 0 0 0 0 0 0 0 0 0 0 0 0 0 0 0 0 0 0 0 0 107 108 110 112 110 111 111 118 119 117 124 131 123 124 130 132 -193 127 125 120 120 120 119 118 116 115 111 109 108 107 106 105 -225 -225 -225 -225 -225 -225 -225 -225 -225 -225 -225 -225 -225 -225 -225 -225 -225 -225 -225 -225 -225 -225 -225 -225 -225 -225 -225 -225 -225 -225 -225 -225 -225 -225 -225 -225 -225 -225 -225 -225 -225 -225 -225 -225 -225 -225 -225 -225 -225 -225 -225 -225 -225 -225 -225 -225 -225 -225 -225 -225 -225 -225 -225 -225 -225 -225 -225 -225 -225 -225 -225 -225 -225 -225 -225 -225 -225 -225 -225 -225 -225 -225 -225 -225 -225 -225 -225 -225 -225 -225 -225 -225 -225 -225 -225 -225 -225 -225 -225 -225 -225 -225 -225 -225 -225 -225 -225 -225 -225 -225 -225 -225 -225 -225 -225 -225 -225 -225 -225 -225 -225 -225 -225 -225 -225 -225 -225 -225 -225 -225 -225 -225 -225 -225 -225 -225 -225 -225 -225 -225 -225 -225 -225 -225 -225 -225 -225 -225 -225 -225 -225 -225 83 86 91 93 94 98 102 103 103 103 103 102 105 106 107 109 108 109 109 110 110 107 109 109 108 108 107 106 106 106 107 107 106 107 108 108 110 112 113 113 112 113 107 107 107 106 106 108 -209 -209 -209 -209 -209 -209 -193 118 118 117 118 118 120 121 0 0 0 0 0
    0 0 0 0 0 0 0 0 0 0 0 0 0 0 0 0 0 0 0 0 0 0 0 0 0 0 0 0 0 0 0 0 0 0 0 0 0 0 0 0 0 0 0 0 0 0 0 0 0 0 0 0 0 0 0 0 0 0 0 0 0 0 0 0 0 0 0 0 0 107 107 109 112 110 -193 110 119 -193 119 124 127 124 124 127 131 134 126 125 123 122 121 121 119 118 116 112 111 109 108 107 -225 -225 -225 -225 -225 -225 -225 -225 -225 -225 -225 -225 -225 -225 -225 -225 -225 -225 -225 -225 -225 -225 -225 -225 -225 -225 -225 -225 -225 -225 -225 -225 -225 -225 -225 -225 -225 -225 -225 -225 -225 -225 -225 -225 -225 -225 -225 -225 -225 -225 -225 -225 -225 -225 -225 -225 -225 -225 -225 -225 -225 -225 -225 -225 -225 -225 -225 -225 -225 -225 -225 -225 -225 -225 -225 -225 -225 -225 -225 -225 -225 -225 -225 -225 -225 -225 -225 -225 -225 -225 -225 -225 -225 -225 -225 -225 -225 -225 -225 -225 -225 -225 -225 -225 -225 -225 -225 -225 -225 -225 -225 -225 -225 -225 -225 -225 -225 -225 -225 -225 -225 -225 -225 -225 -225 -225 -225 -225 -225 -225 -225 -225 -225 -225 -225 -225 -225 -225 -225 -225 -225 -225 -225 -225 -225 -225 -225 -225 -225 -225 -225 -225 -225 -225 86 88 90 92 95 98 102 102 102 101 101 105 106 106 109 108 108 109 110 110 109 110 112 109 109 109 107 107 107 107 107 106 107 108 109 111 114 115 116 116 118 112 109 108 -193 105 107 110 110 -209 -209 -209 -209 112 114 115 114 116 116 119 120 0 0 0 0 0
    0 0 0 0 0 0 0 0 0 0 0 0 0 0 0 0 0 0 0 0 0 0 0 0 0 0 0 0 0 0 0 0 0 0 0 0 0 0 0 0 0 0 0 0 0 0 0 0 0 0 0 0 0 0 0 0 0 0 0 0 0 0 0 0 0 0 0 0 0 107 107 109 -193 -193 112 113 120 121 120 125 128 126 126 131 132 131 127 126 125 123 123 122 120 118 117 115 113 111 109 -225 -225 -225 -225 -225 -225 -225 -225 -225 -225 -225 -225 -225 -225 -225 -225 -225 -225 -225 -225 -225 -225 -225 -225 -225 -225 -225 -225 -225 -225 -225 -225 -225 -225 -225 -225 -225 -225 -225 -225 -225 -225 -225 -225 -225 -225 -225 -225 -225 -225 -225 -225 -225 -225 -225 -225 -225 -225 -225 -225 -225 -225 -225 -225 -225 -225 -225 -225 -225 -225 -225 -225 -225 -225 -225 -225 -225 -225 -225 -225 -225 -225 -225 -225 -225 -225 -225 -225 -225 -225 -225 -225 -225 -225 -225 -225 -225 -225 -225 -225 -225 -225 -225 -225 -225 -225 -225 -225 -225 -225 -225 -225 -225 -225 -225 -225 -225 -225 -225 -225 -225 -225 -225 -225 -225 -225 -225 -225 -225 -225 -225 -225 -225 -225 -225 -225 -225 -225 -225 -225 -225 -225 -225 -225 -225 -225 -225 -225 -225 -225 -225 -225 -225 -225 -225 -225 87 89 92 93 95 101 98 100 97 98 103 106 106 111 109 109 111 113 114 113 114 115 112 114 112 109 108 108 108 108 107 109 109 111 114 116 118 119 119 120 119 117 117 113 109 109 110 112 110 -209 -209 -209 110 112 112 112 115 115 118 119 0 0 0 0 0
    0 0 0 0 0 0 0 0 0 0 0 0 0 0 0 0 0 0 0 0 0 0 0 0 0 0 0 0 0 0 0 0 0 0 0 0 0 0 0 0 0 0 0 0 0 0 0 0 0 0 0 0 0 0 0 0 0 0 0 0 0 0 0 0 0 0 0 0 0 109 -193 -209 -209 -209 -209 118 121 123 120 124 124 123 126 130 131 130 125 126 124 124 123 121 119 118 117 117 115 113 -225 -225 -225 -225 -225 -225 -225 -225 -225 -225 -225 -225 -225 -225 -225 -225 -225 -225 -225 -225 -225 -225 -225 -225 -225 -225 -225 -225 -225 -225 -225 -225 -225 -225 -225 -225 -225 -225 -225 -225 -225 -225 -225 -225 -225 -225 -225 -225 -225 -225 -225 -225 -225 -225 -225 -225 -225 -225 -225 -225 -225 -225 -225 -225 -225 -225 -225 -225 -225 -225 -225 -225 -225 -225 -225 -225 -225 -225 -225 -225 -225 -225 -225 -225 -225 -225 -225 -225 -225 -225 -225 -225 -225 -225 -225 -225 -225 -225 -225 -225 -225 -225 -225 -225 -225 -225 -225 -225 -225 -225 -225 -225 -225 -225 -225 -225 -225 -225 -225 -225 -225 -225 -225 -225 -225 -225 -225 -225 -225 -225 -225 -225 -225 -225 -225 -225 -225 -225 -225 -225 -225 -225 -225 -225 -225 -225 -225 -225 -225 -225 -225 -225 -225 -225 -225 -225 -225 -225 -225 85 86 88 89 90 90 88 93 99 102 104 110 109 110 112 114 115 115 116 117 115 117 116 112 110 109 109 109 108 110 109 111 115 117 119 120 121 121 121 121 121 118 111 109 110 111 110 109 110 110 107 110 109 111 113 114 117 119 0 0 0 0 0
    0 0 0 0 0 0 0 0 0 0 0 0 0 0 0 0 0 0 0 0 0 0 0 0 0 0 0 0 0 0 0 0 0 0 0 0 0 0 0 0 0 0 0 0 0 0 0 0 0 0 0 0 0 0 0 0 0 0 0 0 0 0 0 0 0 0 0 0 0 -209 -209 -209 -209 -209 -209 122 122 124 120 124 124 125 127 128 129 130 127 127 126 125 123 122 120 119 119 119 116 -225 -225 -225 -225 -225 -225 -225 -225 -225 -225 -225 -225 -225 -225 -225 -225 -225 -225 -225 -225 -225 -225 -225 -225 -225 -225 -225 -225 -225 -225 -225 -225 -225 -225 -225 -225 -225 -225 -225 -225 -225 -225 -225 -225 -225 -225 -225 -225 -225 -225 -225 -225 -225 -225 -225 -225 -225 -225 -225 -225 -225 -225 -225 -225 -225 -225 -225 -225 -225 -225 -225 -225 -225 -225 -225 -225 -225 -225 -225 -225 -225 -225 -225 -225 -225 -225 -225 -225 -225 -225 -225 -225 -225 -225 -225 -225 -225 -225 -225 -225 -225 -225 -225 -225 -225 -225 -225 -225 -225 -225 -225 -225 -225 -225 -225 -225 -225 -225 -225 -225 -225 -225 -225 -225 -225 -225 -225 -225 -225 -225 -225 -225 -225 -225 -225 -225 -225 -225 -225 -225 -225 -225 -225 -225 -225 -225 -225 -225 -225 -225 -225 -225 -225 -225 -225 -225 -225 -225 -225 -225 -225 86 86 86 87 88 88 92 97 98 103 108 109 109 113 116 117 116 118 118 117 119 118 116 114 112 112 112 110 112 111 113 115 118 119 121 122 123 123 122 123 121 118 114 114 112 110 108 109 108 -209 -209 -209 109 111 113 -193 -209 0 0 0 0 0
    0 0 0 0 0 0 0 0 0 0 0 0 0 0 0 0 0 0 0 0 0 0 0 0 0 0 0 0 0 0 0 0 0 0 0 0 0 0 0 0 0 0 0 0 0 0 0 0 0 0 0 0 0 0 0 0 0 0 0 0 0 0 0 0 0 0 0 0 0 -209 -209 -209 -209 -209 -209 123 123 125 119 123 128 128 128 128 130 130 128 128 127 124 123 122 121 121 121 121 -225 -225 -225 -225 -225 -225 -225 -225 -225 -225 -225 -225 -225 -225 -225 -225 -225 -225 -225 -225 -225 -225 -225 -225 -225 -225 -225 -225 -225 -225 -225 -225 -225 -225 -225 -225 -225 -225 -225 -225 -225 -225 -225 -225 -225 -225 -225 -225 -225 -225 -225 -225 -225 -225 -225 -225 -225 -225 -225 -225 -225 -225 -225 -225 -225 -225 -225 -225 -225 -225 -225 -225 -225 -225 -225 -225 -225 -225 -225 -225 -225 -225 -225 -225 -225 -225 -225 -225 -225 -225 -225 -225 -225 -225 -225 -225 -225 -225 -225 -225 -225 -225 -225 -225 -225 -225 -225 -225 -225 -225 -225 -225 -225 -225 -225 -225 -225 -225 -225 -225 -225 -225 -225 -225 -225 -225 -225 -225 -225 -225 -225 -225 -225 -225 -225 -225 -225 -225 -225 -225 -225 -225 -225 -225 -225 -225 -225 -225 -225 -225 -225 -225 -225 -225 -225 -225 -225 -225 -225 -225 -225 -225 -225 -225 86 88 89 88 93 97 97 102 106 108 108 112 116 117 116 119 119 118 119 119 117 115 114 114 113 112 113 112 115 116 118 120 121 122 123 122 122 121 120 116 113 113 113 110 111 109 109 106 109 108 111 -209 -209 -209 -209 0 0 0 0 0
    0 0 0 0 0 0 0 0 0 0 0 0 0 0 0 0 0 0 0 0 0 0 0 0 0 0 0 0 0 0 0 0 0 0 0 0 0 0 0 0 0 0 0 0 0 0 0 0 0 0 0 0 0 0 0 0 0 0 0 0 0 0 0 0 0 0 0 0 0 -209 -209 -209 -209 -209 -209 121 120 123 120 126 132 132 132 132 133 133 132 131 128 125 124 123 122 122 -225 -225 -225 -225 -225 -225 -225 -225 -225 -225 -225 -225 -225 -225 -225 -225 -225 -225 -225 -225 -225 -225 -225 -225 -225 -225 -225 -225 -225 -225 -225 -225 -225 -225 -225 -225 -225 -225 -225 -225 -225 -225 -225 -225 -225 -225 -225 -225 -225 -225 -225 -225 -225 -225 -225 -225 -225 -225 -225 -225 -225 -225 -225 -225 -225 -225 -225 -225 -225 -225 -225 -225 -225 -225 -225 -225 -225 -225 -225 -225 -225 -225 -225 -225 -225 -225 -225 -225 -225 -225 -225 -225 -225 -225 -225 -225 -225 -225 -225 -225 -225 -225 -225 -225 -225 -225 -225 -225 -225 -225 -225 -225 -225 -225 -225 -225 -225 -225 -225 -225 -225 -225 -225 -225 -225 -225 -225 -225 -225 -225 -225 -225 -225 -225 -225 -225 -225 -225 -225 -225 -225 -225 -225 -225 -225 -225 -225 -225 -225 -225 -225 -225 -225 -225 -225 -225 -225 -225 -225 -225 -225 -225 -225 -225 -225 -225 -225 90 90 90 96 98 97 101 104 107 107 111 116 116 117 120 120 119 120 119 118 116 116 115 115 114 115 114 116 117 119 120 122 122 123 123 123 122 120 117 115 115 115 112 111 109 108 106 108 108 110 -209 -209 -209 -209 0 0 0 0 0
    0 0 0 0 0 0 0 0 0 0 0 0 0 0 0 0 0 0 0 0 0 0 0 0 0 0 0 0 0 0 0 0 0 0 0 0 0 0 0 0 0 0 0 0 0 0 0 0 0 0 0 0 0 0 0 0 0 0 0 0 0 0 0 0 0 0 0 0 0 -209 -209 -209 -209 -209 125 120 120 123 124 130 134 134 134 134 134 134 133 131 128 126 125 124 123 -225 -225 -225 -225 -225 -225 -225 -225 -225 -225 -225 -225 -225 -225 -225 -225 -225 -225 -225 -225 -225 -225 -225 -225 -225 -225 -225 -225 -225 -225 -225 -225 -225 -225 -225 -225 -225 -225 -225 -225 -225 -225 -225 -225 -225 -225 -225 -225 -225 -225 -225 -225 -225 -225 -225 -225 -225 -225 -225 -225 -225 -225 -225 -225 -225 -225 -225 -225 -225 -225 -225 -225 -225 -225 -225 -225 -225 -225 -225 -225 -225 -225 -225 -225 -225 -225 -225 -225 -225 -225 -225 -225 -225 -225 -225 -225 -225 -225 -225 -225 -225 -225 -225 -225 -225 -225 -225 -225 -225 -225 -225 -225 -225 -225 -225 -225 -225 -225 -225 -225 -225 -225 -225 -225 -225 -225 -225 -225 -225 -225 -225 -225 -225 -225 -225 -225 -225 -225 -225 -225 -225 -225 -225 -225 -225 -225 -225 -225 -225 -225 -225 -225 -225 -225 -225 -225 -225 -225 -225 -225 -225 -225 -225 -225 -225 -225 -225 -225 -225 -225 89 92 93 93 97 101 104 105 110 116 117 118 120 120 120 120 120 120 118 119 117 117 116 117 116 118 118 120 121 122 123 123 124 123 122 122 119 118 119 119 117 115 114 110 107 110 107 108 -209 -209 -209 -209 0 0 0 0 0
    0 0 0 0 0 0 0 0 0 0 0 0 0 0 0 0 0 0 0 0 0 0 0 0 0 0 0 0 0 0 0 0 0 0 0 0 0 0 0 0 0 0 0 0 0 0 0 0 0 0 0 0 0 0 0 0 0 0 0 0 0 0 0 0 0 0 0 0 0 -209 -209 -209 -209 122 124 121 122 128 132 133 136 135 135 135 135 135 132 129 127 126 124 123 -225 -225 -225 -225 -225 -225 -225 -225 -225 -225 -225 -225 -225 -225 -225 -225 -225 -225 -225 -225 -225 -225 -225 -225 -225 -225 -225 -225 -225 -225 -225 -225 -225 -225 -225 -225 -225 -225 -225 -225 -225 -225 -225 -225 -225 -225 -225 -225 -225 -225 -225 -225 -225 -225 -225 -225 -225 -225 -225 -225 -225 -225 -225 -225 -225 -225 -225 -225 -225 -225 -225 -225 -225 -225 -225 -225 -225 -225 -225 -225 -225 -225 -225 -225 -225 -225 -225 -225 -225 -225 -225 -225 -225 -225 -225 -225 -225 -225 -225 -225 -225 -225 -225 -225 -225 -225 -225 -225 -225 -225 -225 -225 -225 -225 -225 -225 -225 -225 -225 -225 -225 -225 -225 -225 -225 -225 -225 -225 -225 -225 -225 -225 -225 -225 -225 -225 -225 -225 -225 -225 -225 -225 -225 -225 -225 -225 -225 -225 -225 -225 -225 -225 -225 -225 -225 -225 -225 -225 -225 -225 -225 -225 -225 -225 -225 -225 -225 -225 -225 -225 -225 -225 94 93 92 97 102 104 104 108 113 115 117 119 120 120 121 121 122 121 120 119 119 119 119 119 120 120 122 123 124 124 124 126 124 123 123 121 120 122 122 122 121 120 121 121 121 -209 -209 -209 -209 -209 -209 0 0 0 0 0
    0 0 0 0 0 0 0 0 0 0 0 0 0 0 0 0 0 0 0 0 0 0 0 0 0 0 0 0 0 0 0 0 0 0 0 0 0 0 0 0 0 0 0 0 0 0 0 0 0 0 0 0 0 0 0 0 0 0 0 0 0 0 0 0 0 0 0 0 0 -209 121 123 122 122 123 123 128 133 135 135 138 137 137 136 136 135 132 131 129 127 125 -225 -225 -225 -225 -225 -225 -225 -225 -225 -225 -225 -225 -225 -225 -225 -225 -225 -225 -225 -225 -225 -225 -225 -225 -225 -225 -225 -225 -225 -225 -225 -225 -225 -225 -225 -225 -225 -225 -225 -225 -225 -225 -225 -225 -225 -225 -225 -225 -225 -225 -225 -225 -225 -225 -225 -225 -225 -225 -225 -225 -225 -225 -225 -225 -225 -225 -225 -225 -225 -225 -225 -225 -225 -225 -225 -225 -225 -225 -225 -225 -225 -225 -225 -225 -225 -225 -225 -225 -225 -225 -225 -225 -225 -225 -225 -225 -225 -225 -225 -225 -225 -225 -225 -225 -225 -225 -225 -225 -225 -225 -225 -225 -225 -225 -225 -225 -225 -225 -225 -225 -225 -225 -225 -225 -225 -225 -225 -225 -225 -225 -225 -225 -225 -225 -225 -225 -225 -225 -225 -225 -225 -225 -225 -225 -225 -225 -225 -225 -225 -225 -225 -225 -225 -225 -225 -225 -225 -225 -225 -225 -225 -225 -225 -225 -225 -225 -225 -225 -225 -225 -225 -225 -225 -225 94 92 94 99 103 103 106 108 112 115 117 120 120 123 123 123 123 122 121 121 121 121 120 121 122 123 125 125 125 125 129 126 125 126 123 122 123 124 124 122 122 122 121 122 -209 115 118 -209 114 -209 0 0 0 0 0
    0 0 0 0 0 0 0 0 0 0 0 0 0 0 0 0 0 0 0 0 0 0 0 0 0 0 0 0 0 0 0 0 0 0 0 0 0 0 0 0 0 0 0 0 0 0 0 0 0 0 0 0 0 0 0 0 0 0 0 0 0 0 0 0 0 0 0 0 0 128 126 126 125 124 125 129 135 136 139 138 140 139 139 138 137 135 134 132 131 128 -225 -225 -225 -225 -225 -225 -225 -225 -225 -225 -225 -225 -225 -225 -225 -225 -225 -225 -225 -225 -225 -225 -225 -225 -225 -225 -225 -225 -225 -225 -225 -225 -225 -225 -225 -225 -225 -225 -225 -225 -225 -225 -225 -225 -225 -225 -225 -225 -225 -225 -225 -225 -225 -225 -225 -225 -225 -225 -225 -225 -225 -225 -225 -225 -225 -225 -225 -225 -225 -225 -225 -225 -225 -225 -225 -225 -225 -225 -225 -225 -225 -225 -225 -225 -225 -225 -225 -225 -225 -225 -225 -225 -225 -225 -225 -225 -225 -225 -225 -225 -225 -225 -225 -225 -225 -225 -225 -225 -225 -225 -225 -225 -225 -225 -225 -225 -225 -225 -225 -225 -225 -225 -225 -225 -225 -225 -225 -225 -225 -225 -225 -225 -225 -225 -225 -225 -225 -225 -225 -225 -225 -225 -225 -225 -225 -225 -225 -225 -225 -225 -225 -225 -225 -225 -225 -225 -225 -225 -225 -225 -225 -225 -225 -225 -225 -225 -225 -225 -225 -225 -225 -225 -225 -225 -225 -225 -225 92 96 98 100 102 105 107 110 114 118 120 123 124 124 126 123 125 125 125 124 123 124 124 125 128 128 128 128 132 129 129 129 125 126 126 126 125 123 122 122 121 122 119 115 115 112 114 -193 0 0 0 0 0
    0 0 0 0 0 0 0 0 0 0 0 0 0 0 0 0 0 0 0 0 0 0 0 0 0 0 0 0 0 0 0 0 0 0 0 0 0 0 0 0 0 0 0 0 0 0 0 0 0 0 0 0 0 0 0 0 0 0 0 0 0 0 0 0 0 0 0 0 0 128 127 126 126 127 129 134 137 139 141 140 141 140 139 138 137 137 136 134 132 -225 -225 -225 -225 -225 -225 -225 -225 -225 -225 -225 -225 -225 -225 -225 -225 -225 -225 -225 -225 -225 -225 -225 -225 -225 -225 -225 -225 -225 -225 -225 -225 -225 -225 -225 -225 -225 -225 -225 -225 -225 -225 -225 -225 -225 -225 -225 -225 -225 -225 -225 -225 -225 -225 -225 -225 -225 -225 -225 -225 -225 -225 -225 -225 -225 -225 -225 -225 -225 -225 -225 -225 -225 -225 -225 -225 -225 -225 -225 -225 -225 -225 -225 -225 -225 -225 -225 -225 -225 -225 -225 -225 -225 -225 -225 -225 -225 -225 -225 -225 -225 -225 -225 -225 -225 -225 -225 -225 -225 -225 -225 -225 -225 -225 -225 -225 -225 -225 -225 -225 -225 -225 -225 -225 -225 -225 -225 -225 -225 -225 -225 -225 -225 -225 -225 -225 -225 -225 -225 -225 -225 -225 -225 -225 -225 -225 -225 -225 -225 -225 -225 -225 -225 -225 -225 -225 -225 -225 -225 -225 -225 -225 -225 -225 -225 -225 -225 -225 -225 -225 -225 -225 -225 -225 -225 -225 -225 -225 -225 93 92 91 93 100 102 103 104 108 119 124 123 123 126 123 125 126 128 127 126 126 127 128 131 132 132 132 134 132 133 133 131 131 131 131 130 126 125 124 123 124 121 118 119 117 119 -193 0 0 0 0 0
    0 0 0 0 0 0 0 0 0 0 0 0 0 0 0 0 0 0 0 0 0 0 0 0 0 0 0 0 0 0 0 0 0 0 0 0 0 0 0 0 0 0 0 0 0 0 0 0 0 0 0 0 0 0 0 0 0 0 0 0 0 0 0 0 0 0 0 0 0 128 127 127 129 131 132 137 139 142 143 142 143 142 140 139 138 138 137 135 -225 -225 -225 -225 -225 -225 -225 -225 -225 -225 -225 -225 -225 -225 -225 -225 -225 -225 -225 -225 -225 -225 -225 -225 -225 -225 -225 -225 -225 -225 -225 -225 -225 -225 -225 -225 -225 -225 -225 -225 -225 -225 -225 -225 -225 -225 -225 -225 -225 -225 -225 -225 -225 -225 -225 -225 -225 -225 -225 -225 -225 -225 -225 -225 -225 -225 -225 -225 -225 -225 -225 -225 -225 -225 -225 -225 -225 -225 -225 -225 -225 -225 -225 -225 -225 -225 -225 -225 -225 -225 -225 -225 -225 -225 -225 -225 -225 -225 -225 -225 -225 -225 -225 -225 -225 -225 -225 -225 -225 -225 -225 -225 -225 -225 -225 -225 -225 -225 -225 -225 -225 -225 -225 -225 -225 -225 -225 -225 -225 -225 -225 -225 -225 -225 -225 -225 -225 -225 -225 -225 -225 -225 -225 -225 -225 -225 -225 -225 -225 -225 -225 -225 -225 -225 -225 -225 -225 -225 -225 -225 -225 -225 -225 -225 -225 -225 -225 -225 -225 -225 -225 -225 -225 -225 -225 -225 -225 -225 -225 -225 -225 90 90 94 98 99 99 102 104 110 112 114 119 122 122 124 126 129 127 129 128 129 130 132 133 132 132 134 132 134 134 133 133 133 134 133 130 129 128 125 127 125 122 122 122 122 126 0 0 0 0 0
    0 0 0 0 0 0 0 0 0 0 0 0 0 0 0 0 0 0 0 0 0 0 0 0 0 0 0 0 0 0 0 0 0 0 0 0 0 0 0 0 0 0 0 0 0 0 0 0 0 0 0 0 0 0 0 0 0 0 0 0 0 0 0 0 0 0 0 0 0 127 129 129 131 133 135 139 142 145 146 145 144 142 141 140 140 139 138 -225 -225 -225 -225 -225 -225 -225 -225 -225 -225 -225 -225 -225 -225 -225 -225 -225 -225 -225 -225 -225 -225 -225 -225 -225 -225 -225 -225 -225 -225 -225 -225 -225 -225 -225 -225 -225 -225 -225 -225 -225 -225 -225 -225 -225 -225 -225 -225 -225 -225 -225 -225 -225 -225 -225 -225 -225 -225 -225 -225 -225 -225 -225 -225 -225 -225 -225 -225 -225 -225 -225 -225 -225 -225 -225 -225 -225 -225 -225 -225 -225 -225 -225 -225 -225 -225 -225 -225 -225 -225 -225 -225 -225 -225 -225 -225 -225 -225 -225 -225 -225 -225 -225 -225 -225 -225 -225 -225 -225 -225 -225 -225 -225 -225 -225 -225 -225 -225 -225 -225 -225 -225 -225 -225 -225 -225 -225 -225 -225 -225 -225 -225 -225 -225 -225 -225 -225 -225 -225 -225 -225 -225 -225 -225 -225 -225 -225 -225 -225 -225 -225 -225 -225 -225 -225 -225 -225 -225 -225 -225 -225 -225 -225 -225 -225 -225 -225 -225 -225 -225 -225 -225 -225 -225 -225 -225 -225 -225 -225 -225 -225 -225 -225 89 90 92 93 94 96 97 99 100 103 113 117 119 123 126 130 128 130 129 131 132 134 134 133 133 135 133 136 135 134 135 135 135 134 132 133 130 128 129 128 124 124 125 127 129 0 0 0 0 0
    0 0 0 0 0 0 0 0 0 0 0 0 0 0 0 0 0 0 0 0 0 0 0 0 0 0 0 0 0 0 0 0 0 0 0 0 0 0 0 0 0 0 0 0 0 0 0 0 0 0 0 0 0 0 0 0 0 0 0 0 0 0 0 0 0 0 0 0 0 128 131 132 134 135 136 140 144 146 146 145 143 142 141 141 140 140 -225 -225 -225 -225 -225 -225 -225 -225 -225 -225 -225 -225 -225 -225 -225 -225 -225 -225 -225 -225 -225 -225 -225 -225 -225 -225 -225 -225 -225 -225 -225 -225 -225 -225 -225 -225 -225 -225 -225 -225 -225 -225 -225 -225 -225 -225 -225 -225 -225 -225 -225 -225 -225 -225 -225 -225 -225 -225 -225 -225 -225 -225 -225 -225 -225 -225 -225 -225 -225 -225 -225 -225 -225 -225 -225 -225 -225 -225 -225 -225 -225 -225 -225 -225 -225 -225 -225 -225 -225 -225 -225 -225 -225 -225 -225 -225 -225 -225 -225 -225 -225 -225 -225 -225 -225 -225 -225 -225 -225 -225 -225 -225 -225 -225 -225 -225 -225 -225 -225 -225 -225 -225 -225 -225 -225 -225 -225 -225 -225 -225 -225 -225 -225 -225 -225 -225 -225 -225 -225 -225 -225 -225 -225 -225 -225 -225 -225 -225 -225 -225 -225 -225 -225 -225 -225 -225 -225 -225 -225 -225 -225 -225 -225 -225 -225 -225 -225 -225 -225 -225 -225 -225 -225 -225 -225 -225 -225 -225 -225 -225 -225 -225 -225 -225 88 90 92 95 95 97 99 99 100 103 109 116 120 123 127 132 130 131 130 132 133 134 135 135 133 136 134 137 137 136 136 136 136 135 134 135 133 130 131 130 126 128 129 132 133 0 0 0 0 0
    0 0 0 0 0 0 0 0 0 0 0 0 0 0 0 0 0 0 0 0 0 0 0 0 0 0 0 0 0 0 0 0 0 0 0 0 0 0 0 0 0 0 0 0 0 0 0 0 0 0 0 0 0 0 0 0 0 0 0 0 0 0 0 0 0 0 0 0 0 133 134 135 136 137 138 141 146 147 147 145 144 143 142 141 140 -225 -225 -225 -225 -225 -225 -225 -225 -225 -225 -225 -225 -225 -225 -225 -225 -225 -225 -225 -225 -225 -225 -225 -225 -225 -225 -225 -225 -225 -225 -225 -225 -225 -225 -225 -225 -225 -225 -225 -225 -225 -225 -225 -225 -225 -225 -225 -225 -225 -225 -225 -225 -225 -225 -225 -225 -225 -225 -225 -225 -225 -225 -225 -225 -225 -225 -225 -225 -225 -225 -225 -225 -225 -225 -225 -225 -225 -225 -225 -225 -225 -225 -225 -225 -225 -225 -225 -225 -225 -225 -225 -225 -225 -225 -225 -225 -225 -225 -225 -225 -225 -225 -225 -225 -225 -225 -225 -225 -225 -225 -225 -225 -225 -225 -225 -225 -225 -225 -225 -225 -225 -225 -225 -225 -225 -225 -225 -225 -225 -225 -225 -225 -225 -225 -225 -225 -225 -225 -225 -225 -225 -225 -225 -225 -225 -225 -225 -225 -225 -225 -225 -225 -225 -225 -225 -225 -225 -225 -225 -225 -225 -225 -225 -225 -225 -225 -225 -225 -225 -225 -225 -209 -209 -209 -209 -209 -209 -209 -209 -225 -225 -225 -225 -225 -225 -225 90 93 97 98 99 97 97 100 102 107 113 118 123 126 132 131 133 131 133 134 135 136 136 134 136 135 138 137 137 137 137 137 137 136 137 135 134 134 134 131 132 132 135 136 0 0 0 0 0
    0 0 0 0 0 0 0 0 0 0 0 0 0 0 0 0 0 0 0 0 0 0 0 0 0 0 0 0 0 0 0 0 0 0 0 0 0 0 0 0 0 0 0 0 0 0 0 0 0 0 0 0 0 0 0 0 0 0 0 0 0 0 0 0 0 0 0 0 0 136 137 138 140 141 142 145 147 148 146 146 145 143 142 -225 -225 -225 -225 -225 -225 -225 -225 -225 -225 -225 -225 -225 -225 -225 -225 -225 -225 -225 -225 -225 -225 -225 -225 -225 -225 -225 -225 -225 -225 -225 -225 -225 -225 -225 -225 -225 -225 -225 -225 -225 -225 -225 -225 -225 -225 -225 -225 -225 -225 -225 -225 -225 -225 -225 -225 -225 -225 -225 -225 -225 -225 -225 -225 -225 -225 -225 -225 -225 -225 -225 -225 -225 -225 -225 -225 -225 -225 -225 -225 -225 -225 -225 -225 -225 -225 -225 -225 -225 -225 -225 -225 -225 -225 -225 -225 -225 -225 -225 -225 -225 -225 -225 -225 -225 -225 -225 -225 -225 -225 -225 -225 -225 -225 -225 -225 -225 -225 -225 -225 -225 -225 -225 -225 -225 -225 -225 -225 -225 -225 -225 -225 -225 -225 -225 -225 -225 -225 -225 -225 -225 -225 -225 -225 -225 -225 -225 -225 -225 -225 -225 -225 -225 -225 -225 -225 -225 -225 -225 -225 -225 -225 -225 -225 -225 -225 -225 -225 -225 -225 -225 -225 -225 -209 -209 -209 -209 -209 -209 -209 -209 -225 -225 -225 -225 -225 -225 -225 -209 -209 101 101 102 99 96 100 103 106 110 116 122 125 132 131 133 130 133 135 136 137 136 135 135 135 138 138 137 137 137 137 138 137 138 137 136 136 135 133 135 134 136 137 0 0 0 0 0</data></disparity>
</opencv_storage>
