<?xml version="1.0"?>
<opencv_storage>
<gps_time_stamp>283113</gps_time_stamp>
<gps_x>-1.3802141189575195e+001</gps_x>
<gps_y>1.1254434585571289e+001</gps_y>
<gps_z>-2.3289258480072021e+000</gps_z>
<image_time_stamp>273957</image_time_stamp>
<disparity type_id="opencv-matrix">
  <rows>90</rows>
  <cols>320</cols>
  <dt>s</dt>
  <data>
    0 0 0 0 0 0 0 0 0 0 0 0 0 0 0 0 0 0 0 0 0 0 0 0 0 0 0 0 0 0 0 0 0 0 0 0 0 0 0 0 0 0 0 0 0 0 0 0 0 0 0 0 0 0 0 0 0 0 0 0 0 0 0 0 0 0 0 0 0 33 34 34 32 36 35 36 35 36 37 36 36 37 36 36 35 35 34 33 37 37 37 -193 -193 -193 -193 -193 -193 34 35 35 35 29 36 42 -209 39 40 41 39 -209 -209 -209 -209 -193 -193 -209 -193 -209 -209 -209 -209 -209 -209 47 43 44 50 50 -193 -193 41 41 -193 -193 -193 -193 -193 -193 28 29 27 23 22 22 24 31 31 33 34 33 34 36 35 35 24 25 26 25 28 27 34 30 33 34 33 32 34 31 32 27 28 25 23 27 35 -193 35 40 35 36 37 37 36 33 34 34 28 38 37 -209 -193 -193 52 50 48 45 -193 -193 -193 -177 -193 -193 -193 34 35 35 34 36 34 35 39 49 43 38 38 39 38 38 38 37 34 29 38 38 27 41 41 44 50 49 -193 40 -193 47 51 50 -209 -209 -209 -209 -209 189 190 -193 -193 -209 -209 -209 -193 -209 -193 -209 -209 -209 -209 -209 -209 42 42 43 46 44 44 44 44 44 45 49 47 45 49 49 48 47 49 48 46 48 48 48 48 50 51 49 51 52 53 56 55 58 61 62 63 63 63 61 61 62 61 61 61 61 60 60 60 60 70 65 63 67 67 66 67 67 68 0 0 0 0 0
    0 0 0 0 0 0 0 0 0 0 0 0 0 0 0 0 0 0 0 0 0 0 0 0 0 0 0 0 0 0 0 0 0 0 0 0 0 0 0 0 0 0 0 0 0 0 0 0 0 0 0 0 0 0 0 0 0 0 0 0 0 0 0 0 0 0 0 0 0 32 33 34 32 36 35 36 36 36 37 37 37 37 37 36 35 36 35 33 37 36 36 36 37 36 -193 -193 37 30 34 34 34 27 31 42 -209 -193 43 43 41 -209 -209 -209 -209 -193 36 32 -193 -193 -193 -209 -209 -209 -209 -193 -209 45 50 49 -193 -193 39 39 -193 39 38 37 35 -193 27 28 26 23 22 22 24 30 30 32 33 32 34 36 35 34 24 24 26 25 28 27 32 30 32 34 32 32 33 30 31 27 28 25 23 26 33 -193 33 39 34 36 37 37 36 33 35 35 28 40 41 -209 -193 53 53 51 49 46 49 50 -193 -193 -209 -209 -193 36 36 37 36 37 37 37 40 46 42 38 38 38 37 37 37 36 34 29 38 37 27 41 41 44 48 -209 -209 -209 -209 -209 49 45 -209 -193 -209 31 -209 187 188 -177 -209 -193 -209 -209 -209 -209 -209 -209 -193 -193 -209 41 42 42 42 44 46 44 44 44 44 45 45 49 46 45 50 49 48 47 48 48 46 48 48 48 49 50 51 50 52 53 54 56 55 58 60 61 62 62 62 61 62 63 63 62 62 62 61 60 59 58 69 65 63 67 67 67 67 67 68 0 0 0 0 0
    0 0 0 0 0 0 0 0 0 0 0 0 0 0 0 0 0 0 0 0 0 0 0 0 0 0 0 0 0 0 0 0 0 0 0 0 0 0 0 0 0 0 0 0 0 0 0 0 0 0 0 0 0 0 0 0 0 0 0 0 0 0 0 0 0 0 0 0 0 32 34 34 32 36 35 36 36 37 37 37 37 38 38 36 36 36 35 33 37 35 35 35 36 35 34 35 35 28 32 31 32 27 29 37 29 36 39 41 41 42 41 40 41 39 38 35 -193 -209 22 -193 -209 -209 -209 -193 -209 46 50 -209 -193 -177 37 38 38 37 37 35 34 34 27 28 26 23 23 23 24 29 29 31 32 32 33 36 35 33 24 24 24 24 27 26 31 29 31 33 31 31 33 30 30 27 27 25 22 24 30 -193 30 38 33 35 37 36 36 33 35 35 28 40 -193 -209 -193 -193 53 52 49 46 48 48 46 43 40 -193 39 40 39 39 38 38 38 39 40 42 41 37 37 38 37 37 37 35 34 29 37 37 26 41 42 44 -193 -209 17 -209 -209 -209 -209 37 34 33 32 32 -193 -209 -209 -209 -209 -209 -209 -193 -209 -209 -209 -209 -193 -209 42 40 41 42 42 44 45 44 44 44 44 45 45 49 46 45 50 49 48 47 48 47 46 48 48 48 49 50 51 50 52 53 54 56 55 58 60 60 62 62 62 61 62 63 62 62 61 61 58 58 57 56 70 64 63 68 67 67 68 67 68 0 0 0 0 0
    0 0 0 0 0 0 0 0 0 0 0 0 0 0 0 0 0 0 0 0 0 0 0 0 0 0 0 0 0 0 0 0 0 0 0 0 0 0 0 0 0 0 0 0 0 0 0 0 0 0 0 0 0 0 0 0 0 0 0 0 0 0 0 0 0 0 0 0 0 32 34 34 33 36 36 35 36 37 38 38 38 38 38 37 36 36 35 34 38 34 34 34 35 34 33 34 34 28 32 31 32 28 31 35 33 37 39 41 42 42 43 41 42 41 39 38 -193 -209 -209 31 -209 -209 -209 -209 47 47 48 39 35 -193 35 36 37 36 36 34 34 33 27 28 25 23 23 23 24 29 29 30 31 30 32 35 35 32 25 25 24 24 27 26 30 28 30 32 31 31 33 30 30 26 26 24 22 24 28 -193 29 37 32 35 36 36 35 32 35 35 28 39 40 -209 -209 -209 52 51 49 46 48 47 46 43 41 -193 39 40 39 39 38 37 38 39 40 40 40 36 36 37 36 36 36 34 34 29 37 37 25 41 -193 -193 -209 15 18 21 14 -209 -209 32 34 34 36 35 38 -209 -209 -209 -209 -209 -209 -209 -193 -209 -209 -209 -209 -209 42 40 41 43 43 44 45 44 44 44 45 45 45 48 45 45 50 48 47 46 48 47 47 48 48 48 49 50 51 50 52 53 54 55 55 58 59 59 61 62 61 61 61 62 61 61 61 59 57 56 55 56 70 65 64 68 68 67 68 67 68 0 0 0 0 0
    0 0 0 0 0 0 0 0 0 0 0 0 0 0 0 0 0 0 0 0 0 0 0 0 0 0 0 0 0 0 0 0 0 0 0 0 0 0 0 0 0 0 0 0 0 0 0 0 0 0 0 0 0 0 0 0 0 0 0 0 0 0 0 0 0 0 0 0 0 33 34 34 33 35 36 35 36 36 38 37 38 38 38 36 36 35 35 33 38 33 33 33 34 33 32 33 33 27 33 32 32 28 31 35 33 37 40 42 43 43 43 41 42 41 39 38 -193 -193 -193 34 -193 -193 -209 -193 45 45 44 37 34 38 34 35 36 35 35 32 33 32 26 28 24 22 23 22 24 29 28 30 30 29 31 33 34 31 25 26 24 24 27 26 29 27 29 32 30 31 33 29 30 26 -193 24 22 23 27 -193 29 -193 32 35 36 36 36 33 36 36 29 41 41 -209 -193 52 53 52 50 47 49 47 47 43 -193 -193 38 39 38 37 37 36 37 39 41 39 40 36 36 37 36 36 36 33 34 29 37 37 25 41 -193 -193 17 18 20 22 18 -209 -209 30 34 35 39 -193 -209 -209 -209 -209 -209 -209 -209 -209 -193 -209 -209 -209 -209 -209 42 40 41 44 43 44 45 44 44 45 46 46 45 47 45 45 50 48 47 46 48 47 47 48 49 48 49 50 51 50 52 52 53 54 53 56 58 58 61 61 61 61 61 62 61 61 60 59 56 56 55 56 71 66 65 68 68 68 68 67 69 0 0 0 0 0
    0 0 0 0 0 0 0 0 0 0 0 0 0 0 0 0 0 0 0 0 0 0 0 0 0 0 0 0 0 0 0 0 0 0 0 0 0 0 0 0 0 0 0 0 0 0 0 0 0 0 0 0 0 0 0 0 0 0 0 0 0 0 0 0 0 0 0 0 0 33 34 34 33 34 35 33 34 34 36 34 36 36 37 35 36 35 35 33 38 32 32 32 34 33 33 33 33 28 34 34 34 29 33 36 36 40 42 44 45 44 45 43 43 43 40 40 38 36 33 35 37 36 37 44 43 42 41 35 32 37 33 35 35 34 33 30 32 31 26 27 24 22 23 22 24 28 28 29 29 29 30 33 33 30 25 26 24 24 27 26 -193 28 29 32 30 31 33 29 30 26 -193 24 22 23 28 -193 29 36 33 35 36 36 36 33 36 36 31 41 43 -193 45 51 53 51 49 47 48 47 48 44 -193 -193 -209 40 40 38 38 38 39 40 43 39 40 36 36 37 36 36 36 33 34 29 37 37 25 41 -193 20 17 18 21 23 -193 -209 -209 32 36 37 -193 -209 -209 -209 -209 -209 -209 -209 -209 -209 -193 -209 -209 -209 -209 -209 42 40 41 44 44 45 44 44 44 45 46 46 45 48 45 45 50 48 47 46 48 47 47 48 49 48 49 50 51 50 52 52 53 53 52 55 56 57 59 60 60 60 60 61 60 61 60 59 57 58 56 57 71 67 66 69 69 68 69 68 69 0 0 0 0 0
    0 0 0 0 0 0 0 0 0 0 0 0 0 0 0 0 0 0 0 0 0 0 0 0 0 0 0 0 0 0 0 0 0 0 0 0 0 0 0 0 0 0 0 0 0 0 0 0 0 0 0 0 0 0 0 0 0 0 0 0 0 0 0 0 0 0 0 0 0 33 33 33 33 32 33 31 34 32 34 33 36 35 37 36 36 35 35 34 38 33 33 33 34 34 33 -193 34 28 35 35 35 29 32 37 38 41 44 45 46 46 47 46 44 45 42 42 40 39 38 38 39 38 36 43 43 41 40 33 32 36 32 34 34 34 33 30 32 30 26 27 24 23 23 23 24 28 28 29 29 29 30 33 33 30 25 26 25 25 27 26 29 28 29 32 30 31 33 29 30 26 25 24 22 23 28 -193 29 36 32 35 36 36 36 33 37 37 32 42 45 40 45 51 53 50 47 46 47 45 48 44 43 42 41 42 42 40 40 39 40 41 46 40 40 36 36 37 36 36 35 32 34 29 37 37 26 41 43 -193 -193 -209 -209 -209 -209 -193 -209 -193 -193 -193 -209 -209 44 -209 -193 -193 41 -193 -209 -209 -193 -193 42 -209 -209 -209 43 40 41 45 44 45 44 44 44 46 47 47 45 47 45 46 50 48 47 46 48 47 47 48 49 48 50 50 51 50 51 51 52 52 52 53 55 57 59 59 60 60 60 61 60 62 61 60 59 58 57 58 71 68 67 70 69 69 69 68 69 0 0 0 0 0
    0 0 0 0 0 0 0 0 0 0 0 0 0 0 0 0 0 0 0 0 0 0 0 0 0 0 0 0 0 0 0 0 0 0 0 0 0 0 0 0 0 0 0 0 0 0 0 0 0 0 0 0 0 0 0 0 0 0 0 0 0 0 0 0 0 0 0 0 0 -193 35 34 34 31 34 30 32 29 31 30 33 33 35 35 35 35 36 35 38 33 33 34 35 34 34 33 33 28 35 35 34 29 31 37 -193 42 45 48 49 48 50 48 46 46 43 43 41 -209 -193 39 40 40 37 -209 -209 -193 39 33 33 35 32 34 34 33 32 29 32 30 26 27 24 23 24 24 25 30 29 31 31 31 32 34 34 31 26 27 25 25 27 26 29 27 29 32 30 31 33 29 30 26 26 24 22 23 28 26 29 35 32 34 36 36 36 34 38 38 34 43 48 42 45 49 52 48 46 45 47 45 49 45 45 43 43 43 43 40 41 39 40 41 47 40 40 36 36 37 36 36 35 32 34 30 37 37 27 41 45 56 59 63 68 70 68 68 68 64 64 64 71 69 51 -209 -193 46 43 42 -193 -193 43 39 43 51 -209 -209 43 41 41 46 44 44 44 44 44 45 47 47 44 47 46 47 50 48 47 46 48 47 48 48 49 48 50 50 51 50 51 51 52 51 52 53 54 56 59 59 59 60 60 60 60 62 61 60 60 60 58 59 70 70 69 71 70 70 70 69 70 0 0 0 0 0
    0 0 0 0 0 0 0 0 0 0 0 0 0 0 0 0 0 0 0 0 0 0 0 0 0 0 0 0 0 0 0 0 0 0 0 0 0 0 0 0 0 0 0 0 0 0 0 0 0 0 0 0 0 0 0 0 0 0 0 0 0 0 0 0 0 0 0 0 0 -209 -209 -209 -209 -209 -209 -209 -193 28 29 28 34 33 36 36 36 36 37 36 39 33 33 34 35 35 34 33 33 27 35 35 35 29 30 37 42 43 46 47 49 49 51 49 46 46 44 43 -209 -209 39 38 39 39 37 -193 -209 -193 39 33 34 35 32 34 34 34 33 30 33 31 27 32 24 24 25 26 26 32 30 32 32 31 32 35 34 31 27 28 25 25 27 26 29 27 29 32 30 31 33 30 31 27 27 25 23 24 30 27 30 36 33 34 36 36 36 35 39 38 35 43 49 42 45 48 -193 45 45 45 47 44 48 45 45 44 43 42 42 38 40 38 39 40 48 41 41 37 37 38 36 36 36 32 34 30 38 38 29 42 51 59 66 67 69 71 69 69 69 68 68 68 72 72 -193 62 -193 -193 45 43 -193 -193 42 40 44 54 66 -209 42 41 41 45 44 44 43 43 43 45 47 47 44 47 46 46 50 48 47 46 48 47 48 48 49 48 50 50 51 50 51 50 52 50 52 52 54 57 59 60 60 61 60 61 60 62 61 60 60 59 58 58 70 -193 71 73 71 71 71 69 70 0 0 0 0 0
    0 0 0 0 0 0 0 0 0 0 0 0 0 0 0 0 0 0 0 0 0 0 0 0 0 0 0 0 0 0 0 0 0 0 0 0 0 0 0 0 0 0 0 0 0 0 0 0 0 0 0 0 0 0 0 0 0 0 0 0 0 0 0 0 0 0 0 0 0 -209 -209 -209 -209 -209 -209 -209 -209 30 31 29 36 34 36 37 36 36 38 37 39 33 34 34 35 35 35 33 34 27 36 36 33 27 -193 -209 42 42 44 45 47 48 50 -193 45 46 43 -193 -209 -193 38 37 38 37 35 37 38 39 39 33 35 34 32 34 33 34 33 30 34 31 29 36 31 29 29 29 29 34 32 34 33 32 33 35 35 32 28 30 27 26 28 27 29 27 29 31 30 32 34 31 33 28 30 26 24 26 32 28 32 37 34 35 36 37 37 36 39 39 36 43 48 43 45 48 -209 -209 -193 -193 45 43 46 44 45 43 43 42 42 38 40 37 38 40 49 42 41 37 37 38 37 37 36 33 34 30 38 38 32 44 57 61 69 69 70 71 69 70 70 68 69 68 71 71 62 68 -193 -193 -209 -193 -193 -193 41 40 45 -209 -209 91 -193 39 40 45 43 43 42 42 43 44 46 46 43 46 45 46 50 48 48 46 48 47 48 48 50 48 50 50 50 49 50 49 51 49 51 52 54 57 60 61 61 62 61 62 61 64 63 62 61 60 59 59 70 76 73 76 73 72 72 70 71 0 0 0 0 0
    0 0 0 0 0 0 0 0 0 0 0 0 0 0 0 0 0 0 0 0 0 0 0 0 0 0 0 0 0 0 0 0 0 0 0 0 0 0 0 0 0 0 0 0 0 0 0 0 0 0 0 0 0 0 0 0 0 0 0 0 0 0 0 0 0 0 0 0 0 -193 -193 -209 -209 -209 -209 -209 -209 -193 30 30 36 34 37 37 36 37 39 37 39 34 34 35 35 35 35 33 34 27 36 35 31 28 -209 -193 -193 -193 44 44 46 46 -193 -193 -209 -209 42 39 38 36 37 36 37 36 35 37 37 38 39 34 35 34 32 34 33 34 32 30 34 31 31 37 35 33 32 33 33 36 34 35 35 34 35 36 35 34 30 34 28 28 29 27 29 28 30 31 30 32 35 32 36 29 35 25 24 29 35 30 35 38 35 36 37 37 37 37 39 38 35 43 46 41 -193 40 -209 38 40 -193 42 41 43 42 42 41 40 40 40 37 38 36 37 40 49 42 42 38 38 39 37 37 36 33 35 31 38 38 35 45 58 63 69 69 70 71 70 70 70 68 71 70 72 71 67 70 69 68 68 -193 -193 41 41 -193 -193 -209 78 90 -209 38 39 44 42 42 41 41 42 44 45 45 42 47 45 47 50 48 48 47 48 48 49 49 50 49 50 50 50 49 50 49 50 49 51 52 54 58 61 61 62 63 63 63 63 67 67 68 70 68 68 68 73 77 74 78 76 75 73 70 71 0 0 0 0 0
    0 0 0 0 0 0 0 0 0 0 0 0 0 0 0 0 0 0 0 0 0 0 0 0 0 0 0 0 0 0 0 0 0 0 0 0 0 0 0 0 0 0 0 0 0 0 0 0 0 0 0 0 0 0 0 0 0 0 0 0 0 0 0 0 0 0 0 0 0 -209 -209 -209 -209 -209 -209 -209 -209 -209 -209 32 37 34 36 36 37 37 -193 38 -193 34 34 35 35 35 35 33 33 27 35 35 28 -209 -209 -209 43 42 44 44 46 45 -193 -209 -209 -209 40 38 37 34 36 36 36 36 35 37 38 39 40 35 36 35 33 33 34 33 32 30 33 30 31 37 36 35 36 36 36 37 36 37 37 36 36 37 36 35 33 36 31 30 31 29 30 29 30 32 30 32 35 32 36 31 37 28 27 35 39 35 38 39 37 37 38 38 38 37 39 38 37 43 47 41 36 38 -193 38 39 39 40 40 42 42 41 40 39 37 39 35 36 35 36 39 49 43 43 38 39 39 38 38 37 34 35 31 39 39 36 48 60 64 68 69 70 70 70 70 70 67 71 71 72 71 69 71 71 72 72 -209 -209 -209 -209 -209 -209 -209 87 90 -209 38 39 43 41 41 40 40 41 43 45 45 42 52 47 48 50 49 49 47 49 48 48 49 50 49 50 50 50 49 50 49 51 49 52 53 55 58 61 61 63 63 63 64 66 70 71 72 74 73 72 73 74 76 75 78 76 78 74 70 71 0 0 0 0 0
    0 0 0 0 0 0 0 0 0 0 0 0 0 0 0 0 0 0 0 0 0 0 0 0 0 0 0 0 0 0 0 0 0 0 0 0 0 0 0 0 0 0 0 0 0 0 0 0 0 0 0 0 0 0 0 0 0 0 0 0 0 0 0 0 0 0 0 0 0 -209 -209 -209 -209 -209 -209 -177 -209 -209 -209 30 36 33 37 36 37 37 -209 -193 -193 35 35 36 35 35 35 33 33 27 35 35 -193 -209 -209 -209 43 42 44 44 45 43 45 -209 -209 -209 39 36 36 33 35 34 35 36 34 36 38 38 40 35 37 35 33 34 34 33 32 29 32 30 31 37 36 35 37 37 37 38 38 39 38 38 37 37 36 36 35 36 32 32 34 31 31 31 32 34 31 34 35 32 36 33 37 35 33 38 42 40 41 40 38 38 39 39 39 38 39 38 39 44 48 44 -193 -193 -193 39 40 41 41 40 41 42 41 41 41 37 39 36 37 36 37 40 50 43 43 38 39 39 38 38 37 34 35 32 39 39 38 51 62 64 68 68 69 70 69 69 69 66 71 70 71 71 70 71 72 73 73 -209 -193 -209 -209 -209 -209 -209 -193 90 -209 38 38 41 40 40 39 40 40 43 44 -193 44 57 50 50 51 50 50 49 50 49 49 50 51 50 51 51 51 50 50 49 51 49 52 53 55 58 61 61 62 64 64 66 70 73 73 75 76 75 74 75 76 76 75 77 76 76 74 70 71 0 0 0 0 0
    0 0 0 0 0 0 0 0 0 0 0 0 0 0 0 0 0 0 0 0 0 0 0 0 0 0 0 0 0 0 0 0 0 0 0 0 0 0 0 0 0 0 0 0 0 0 0 0 0 0 0 0 0 0 0 0 0 0 0 0 0 0 0 0 0 0 0 0 0 -209 -209 -209 -209 -209 -209 -193 -209 -209 -193 -193 38 35 37 36 37 37 -209 -193 -193 35 35 36 35 36 35 33 33 27 35 34 -209 -193 -209 -209 -193 -193 44 43 44 43 45 -193 -209 -209 39 -193 -193 33 36 35 36 37 36 37 38 39 40 35 37 35 33 33 34 33 33 30 33 30 32 37 37 36 38 38 38 38 39 40 39 40 39 39 38 38 39 39 36 36 37 35 34 36 36 36 33 36 37 35 38 37 37 39 37 40 45 42 43 40 39 39 39 39 39 37 38 35 38 43 45 43 -193 39 39 38 38 40 -193 40 41 42 42 41 42 42 41 39 40 39 40 40 51 43 44 39 39 40 38 38 37 35 36 33 40 40 39 52 63 65 68 69 70 70 69 69 69 66 71 70 71 70 70 72 73 73 73 -209 76 -209 -209 -209 -209 -209 -193 -209 -209 -209 -193 -209 -209 -209 37 38 -209 -209 -193 -193 -209 62 53 52 52 51 51 50 51 49 49 51 51 51 52 51 51 50 51 50 51 50 53 53 55 59 61 61 62 64 65 68 72 75 75 77 77 76 76 76 77 77 75 77 75 -193 -209 70 70 0 0 0 0 0
    0 0 0 0 0 0 0 0 0 0 0 0 0 0 0 0 0 0 0 0 0 0 0 0 0 0 0 0 0 0 0 0 0 0 0 0 0 0 0 0 0 0 0 0 0 0 0 0 0 0 0 0 0 0 0 0 0 0 0 0 0 0 0 0 0 0 0 0 0 -177 -209 -209 -209 -209 -209 -209 -209 -209 -193 -209 39 36 37 36 36 37 -209 -193 -193 35 35 36 35 35 34 33 33 26 33 33 -209 -193 -193 -209 -193 -193 45 44 45 45 48 -209 -209 -209 -209 -209 -209 34 37 36 37 39 38 38 40 39 40 36 37 35 33 33 34 33 33 30 33 30 32 37 37 35 37 37 38 38 38 39 39 40 40 41 40 40 40 41 38 38 38 37 36 39 37 37 36 38 -193 38 40 40 38 40 39 41 46 43 43 41 39 39 40 40 39 37 38 35 37 43 44 43 41 40 39 38 38 39 40 40 40 41 41 41 43 42 41 40 40 39 40 41 50 43 43 38 39 40 38 38 38 36 36 33 40 41 40 54 65 66 69 70 70 70 70 70 69 67 71 70 70 70 70 72 72 73 72 -209 -209 -209 -209 -209 -209 -209 -193 -209 -209 -209 -209 -209 -209 -193 -193 -209 -193 -209 -193 159 159 -193 -193 -193 53 52 52 51 52 50 50 51 52 52 53 52 51 51 51 51 -193 -193 54 55 57 60 63 63 65 67 67 70 74 77 77 79 78 77 76 76 77 76 75 77 74 -209 -209 69 70 0 0 0 0 0
    0 0 0 0 0 0 0 0 0 0 0 0 0 0 0 0 0 0 0 0 0 0 0 0 0 0 0 0 0 0 0 0 0 0 0 0 0 0 0 0 0 0 0 0 0 0 0 0 0 0 0 0 0 0 0 0 0 0 0 0 0 0 0 0 0 0 0 0 0 -177 -193 -209 -209 -209 -209 -209 -209 -209 -209 -209 -209 -193 -193 34 36 37 -209 -193 -193 35 36 36 35 35 34 33 33 27 32 32 -209 -193 -193 -209 -209 -209 -193 -193 -193 -209 -193 -209 -209 -209 -209 -193 -193 34 37 37 38 38 39 38 39 38 40 36 37 35 33 33 34 33 33 30 33 31 32 38 37 36 37 37 37 38 38 39 38 39 39 40 40 40 40 40 38 39 38 37 37 39 39 39 38 40 -193 40 42 41 40 41 39 42 47 43 44 41 39 39 40 40 39 37 38 36 40 43 44 44 43 43 43 41 41 41 41 40 39 41 39 40 42 41 40 39 39 39 40 41 49 43 43 38 39 39 38 38 37 36 36 34 41 43 44 57 67 67 69 70 70 70 70 70 69 68 71 70 70 70 70 72 71 72 71 -209 -209 -209 -209 -209 -209 -209 -209 -209 184 -193 -193 -193 -209 93 93 -193 -193 0 -193 -193 -209 -193 -193 160 159 -209 -209 -209 56 53 55 -193 -209 -193 -209 -193 -193 -209 -193 -209 -209 -209 -209 57 59 63 67 68 69 70 70 72 76 78 77 79 78 77 76 76 77 76 75 76 -209 -209 -209 69 70 0 0 0 0 0
    0 0 0 0 0 0 0 0 0 0 0 0 0 0 0 0 0 0 0 0 0 0 0 0 0 0 0 0 0 0 0 0 0 0 0 0 0 0 0 0 0 0 0 0 0 0 0 0 0 0 0 0 0 0 0 0 0 0 0 0 0 0 0 0 0 0 0 0 0 -209 -209 -209 -209 -209 -209 -209 -209 -209 -209 -209 -209 -209 -209 -209 36 -193 -209 -177 -177 35 36 36 35 35 34 33 33 27 32 32 -193 -193 -193 -209 -209 -193 -193 -193 -209 -209 -193 -209 -209 -209 -209 -193 -193 34 37 37 38 38 39 38 39 38 40 36 37 36 33 33 34 33 34 30 33 31 33 38 38 37 37 38 37 38 38 38 38 38 38 39 39 39 38 39 38 39 38 37 38 39 40 40 40 41 42 42 43 42 42 41 40 43 48 44 44 41 40 40 40 40 39 37 37 35 39 40 41 41 40 41 41 41 41 41 41 40 39 40 38 38 42 41 40 40 41 41 41 43 49 42 43 38 38 39 38 38 37 36 37 35 42 46 50 60 68 67 69 70 70 70 69 70 68 68 71 69 69 68 69 72 71 73 72 -193 -209 -209 -209 -209 -209 -209 -209 -193 182 -209 -209 -209 -209 90 91 -209 -193 0 0 -209 -209 -209 -209 -209 -193 -209 -209 -209 -209 -209 -193 -193 -209 -193 74 -193 80 -209 -209 -209 -209 -225 -209 -193 62 64 69 70 70 72 72 74 77 78 78 79 77 77 77 77 77 76 75 75 -209 -209 -193 68 70 0 0 0 0 0
    0 0 0 0 0 0 0 0 0 0 0 0 0 0 0 0 0 0 0 0 0 0 0 0 0 0 0 0 0 0 0 0 0 0 0 0 0 0 0 0 0 0 0 0 0 0 0 0 0 0 0 0 0 0 0 0 0 0 0 0 0 0 0 0 0 0 0 0 0 844 852 -209 -209 -193 926 -209 -209 -193 -209 -209 -209 -209 -209 -209 -193 -193 -209 -177 -177 36 36 37 35 35 33 32 32 27 32 31 -193 -193 -193 -193 -193 -193 -193 37 -209 -209 48 -209 -209 -209 -209 -193 -193 34 37 37 38 38 39 39 40 39 40 37 37 36 34 34 35 34 34 30 33 31 33 38 38 38 38 38 38 39 38 39 38 39 38 39 39 38 38 38 37 39 37 38 39 40 42 42 42 42 42 43 44 42 42 41 39 43 49 44 45 40 40 40 40 40 38 36 36 35 38 38 38 40 38 41 40 41 41 42 41 39 38 39 37 38 41 41 40 41 42 43 43 44 47 42 43 38 38 39 38 38 38 37 38 36 42 51 55 62 68 68 70 70 70 70 69 69 68 68 70 68 68 66 70 72 72 73 73 -209 -193 -177 -209 -209 -209 -209 -209 176 179 -209 -209 -209 85 87 88 87 -193 -193 0 9 -193 -193 -209 -209 -209 -209 -209 -193 -209 -209 -193 -193 -209 -209 -193 -209 -193 -209 -209 -209 -225 -225 -209 -209 -209 -193 71 -193 72 73 74 74 77 77 77 78 77 77 76 76 77 76 74 74 -209 -193 -193 68 69 0 0 0 0 0
    0 0 0 0 0 0 0 0 0 0 0 0 0 0 0 0 0 0 0 0 0 0 0 0 0 0 0 0 0 0 0 0 0 0 0 0 0 0 0 0 0 0 0 0 0 0 0 0 0 0 0 0 0 0 0 0 0 0 0 0 0 0 0 0 0 0 0 0 0 -193 850 -209 -209 924 -193 -209 -209 -209 990 -209 -209 -193 -193 -193 -193 -193 -209 868 -177 36 36 37 35 34 32 32 32 27 31 30 -209 21 -209 -193 -193 -193 -193 -209 -209 -209 49 -209 -209 -209 -209 -209 -193 -193 -193 -193 39 40 40 40 41 39 41 38 38 38 35 35 36 35 -193 31 34 32 32 38 39 38 38 39 38 39 39 39 39 39 38 38 37 37 37 37 36 38 37 38 39 40 -193 42 42 42 42 43 44 42 43 41 40 43 50 44 45 40 40 40 39 40 37 36 36 34 38 38 38 39 38 41 41 41 41 42 42 40 38 39 38 38 41 40 39 41 42 42 43 44 46 42 43 38 39 40 39 39 39 38 39 38 44 55 57 63 68 68 70 70 70 70 69 69 68 69 70 68 69 67 72 73 73 74 74 -209 -193 76 -193 -209 -209 72 -193 -193 177 -193 -193 -193 -193 84 84 84 83 82 -209 -209 -209 -193 -209 -209 -193 -209 -209 -193 -209 -209 -193 -209 -209 -209 -193 -209 -209 -209 -209 -209 -225 -225 -209 -225 -209 -209 -209 -209 73 74 74 74 76 76 76 77 76 77 76 76 77 76 74 74 70 66 69 68 69 0 0 0 0 0
    0 0 0 0 0 0 0 0 0 0 0 0 0 0 0 0 0 0 0 0 0 0 0 0 0 0 0 0 0 0 0 0 0 0 0 0 0 0 0 0 0 0 0 0 0 0 0 0 0 0 0 0 0 0 0 0 0 0 0 0 0 0 0 0 0 0 0 0 0 -193 -209 -209 -209 -193 -193 -209 -193 -209 -193 -193 34 33 34 -193 -193 -193 -209 -193 -177 36 36 37 36 34 32 32 32 27 31 30 -209 20 -209 -209 -193 -209 -209 -209 -209 -209 49 -209 -209 -193 -209 -209 -193 -193 -193 -193 39 41 40 40 41 39 41 39 39 38 36 36 37 36 685 33 36 33 32 39 40 39 39 41 39 39 40 40 39 39 38 39 37 37 37 35 35 37 36 37 38 39 -193 41 41 42 42 43 43 43 44 41 40 43 49 44 44 39 39 39 39 39 37 36 36 35 38 38 37 39 38 41 41 41 42 43 44 42 41 42 41 41 42 41 40 41 42 42 43 44 46 42 43 39 39 40 40 40 40 40 40 40 48 57 59 64 67 68 70 69 70 69 69 69 69 70 70 68 70 69 73 74 74 74 74 74 75 -177 76 74 73 -193 -193 174 175 -193 -193 -193 -193 82 80 82 81 81 79 -193 -193 -209 -209 -193 -193 -209 -209 -193 -209 -209 -209 -209 -209 -209 -209 -209 -209 -209 -209 -209 -209 -209 -209 -209 -209 -209 -209 -209 74 74 74 74 75 76 75 76 76 77 76 77 78 77 75 74 71 68 69 69 69 0 0 0 0 0
    0 0 0 0 0 0 0 0 0 0 0 0 0 0 0 0 0 0 0 0 0 0 0 0 0 0 0 0 0 0 0 0 0 0 0 0 0 0 0 0 0 0 0 0 0 0 0 0 0 0 0 0 0 0 0 0 0 0 0 0 0 0 0 0 0 0 0 0 0 -209 -209 -193 -209 33 34 -209 -209 -209 -209 -193 34 34 35 -193 -209 -193 -209 -193 -177 36 37 37 36 34 33 32 32 27 32 31 -209 -193 -209 -193 -209 -209 -193 48 49 -209 51 54 -193 -193 -193 -209 -193 -193 -193 -193 41 41 40 40 40 39 41 39 39 38 36 36 37 37 -193 34 36 33 33 40 40 39 39 41 38 39 39 39 38 38 38 38 37 37 36 35 36 36 35 37 37 38 41 41 41 41 42 43 43 43 45 41 41 44 48 44 44 38 38 39 38 39 36 36 36 35 38 38 38 40 39 41 42 41 42 43 45 44 45 45 -193 42 43 42 41 41 42 42 43 44 46 42 44 40 40 41 41 41 42 42 44 43 52 58 61 65 67 68 70 69 69 69 69 69 69 70 70 68 71 70 74 74 74 74 74 74 74 -177 75 73 73 -193 -193 174 175 -193 -193 -193 -193 81 80 80 80 80 79 80 78 -193 -193 -193 -193 -209 -209 -209 -209 -209 -209 -209 -209 -209 74 -193 -209 -209 -193 -193 -209 -209 -209 -209 -209 -209 74 -209 74 75 75 74 75 75 75 75 75 77 76 76 78 77 75 74 72 70 70 69 70 0 0 0 0 0
    0 0 0 0 0 0 0 0 0 0 0 0 0 0 0 0 0 0 0 0 0 0 0 0 0 0 0 0 0 0 0 0 0 0 0 0 0 0 0 0 0 0 0 0 0 0 0 0 0 0 0 0 0 0 0 0 0 0 0 0 0 0 0 0 0 0 0 0 0 -209 -209 31 33 35 35 -209 -209 -209 -209 -209 -193 -193 35 -209 -209 -193 -209 -209 -209 37 37 38 36 35 33 33 32 27 31 31 25 21 -209 -209 -193 -209 -193 45 49 -209 52 55 -193 -193 -193 -193 211 -193 -193 -193 41 42 41 41 41 40 42 40 40 39 37 37 38 37 -193 34 36 33 36 40 41 40 40 41 39 40 40 39 39 38 38 39 37 36 36 34 36 36 35 37 36 37 40 40 41 41 42 43 43 44 46 42 42 44 48 44 44 38 38 39 38 39 36 36 36 35 38 38 37 39 38 41 41 41 42 42 44 -193 45 -193 -193 -193 43 42 41 41 42 41 42 43 46 43 46 41 41 43 43 43 44 44 49 50 55 59 63 67 67 68 70 69 69 69 69 69 69 70 70 68 71 70 74 74 74 74 74 74 74 75 75 73 73 72 -193 -193 174 -193 -193 -193 -193 79 80 79 79 79 79 80 78 78 77 -193 -193 -209 -209 -193 72 -209 -209 -209 -209 -209 -209 -209 -209 -193 -193 -209 -193 -193 -193 -193 74 -209 75 -193 74 75 75 74 74 75 74 75 74 76 74 75 77 76 75 73 72 70 71 69 70 0 0 0 0 0
    0 0 0 0 0 0 0 0 0 0 0 0 0 0 0 0 0 0 0 0 0 0 0 0 0 0 0 0 0 0 0 0 0 0 0 0 0 0 0 0 0 0 0 0 0 0 0 0 0 0 0 0 0 0 0 0 0 0 0 0 0 0 0 0 0 0 0 0 0 26 27 -193 -193 33 32 -209 -209 -209 -209 -209 35 -193 -193 -209 -209 -209 -209 -209 -177 -193 -193 -193 36 35 33 33 32 -193 -193 31 25 23 -209 -209 23 27 36 42 45 -209 50 -209 205 -193 -193 -193 209 -193 -193 -193 40 41 40 40 40 40 41 40 40 38 37 37 38 38 -193 35 37 33 38 41 42 41 40 42 40 41 41 39 39 38 38 39 37 35 35 33 36 36 35 37 36 36 -193 -193 -193 -193 -193 43 43 44 46 41 43 44 48 44 44 38 38 39 38 39 37 37 37 36 39 39 38 -193 39 41 41 41 41 41 43 -193 -193 -193 -193 -193 42 41 40 39 41 40 42 42 47 45 48 44 43 45 46 46 49 49 55 57 58 62 66 68 68 68 70 68 69 69 69 69 69 70 70 68 71 71 74 74 74 74 74 74 74 74 75 73 72 71 71 72 73 72 74 73 77 79 80 79 79 79 79 80 79 79 78 77 77 79 -177 -177 75 -193 -193 -193 -193 -209 -209 -193 -177 -193 274 275 272 -193 -193 -193 75 -193 75 77 74 75 75 74 74 74 74 74 73 74 73 73 76 76 74 73 73 72 72 71 71 0 0 0 0 0
    0 0 0 0 0 0 0 0 0 0 0 0 0 0 0 0 0 0 0 0 0 0 0 0 0 0 0 0 0 0 0 0 0 0 0 0 0 0 0 0 0 0 0 0 0 0 0 0 0 0 0 0 0 0 0 0 0 0 0 0 0 0 0 0 0 0 0 0 0 27 28 28 29 30 30 31 -193 -193 -193 37 36 37 36 -209 -209 -209 -209 -209 -177 -193 -193 -193 36 34 33 33 32 27 31 31 25 -177 -209 29 24 31 36 39 41 -193 -209 -209 204 209 -193 -209 -193 -193 -193 39 40 41 40 40 40 40 42 41 41 39 38 38 39 39 -193 36 37 34 41 42 43 42 41 42 41 41 41 40 39 39 38 39 38 36 35 33 36 36 35 37 36 36 -193 -193 -193 -193 -193 43 43 44 46 41 42 43 48 43 44 38 38 39 37 39 37 37 37 36 39 39 38 40 39 41 41 41 41 42 44 -209 -209 -193 -193 -193 41 -193 40 38 41 40 42 43 48 46 50 47 46 49 51 51 53 55 57 60 60 63 67 68 67 68 70 68 68 68 69 69 69 70 70 68 72 -193 74 74 74 73 73 74 74 74 74 72 71 71 71 72 73 72 74 74 77 79 80 79 79 79 79 79 79 79 78 77 76 77 -177 -177 74 -193 -193 -193 -209 -209 -209 -193 -177 -193 273 274 272 -193 -193 -193 76 79 76 78 75 75 75 75 74 74 74 74 73 74 73 72 77 80 76 75 76 74 73 72 72 0 0 0 0 0
    0 0 0 0 0 0 0 0 0 0 0 0 0 0 0 0 0 0 0 0 0 0 0 0 0 0 0 0 0 0 0 0 0 0 0 0 0 0 0 0 0 0 0 0 0 0 0 0 0 0 0 0 0 0 0 0 0 0 0 0 0 0 0 0 0 0 0 0 0 27 27 26 27 27 29 28 31 32 35 36 37 36 37 -209 -209 -209 -209 -209 -193 -193 -177 -193 35 34 33 32 32 27 31 31 25 -193 -209 28 -193 28 34 38 39 36 37 -209 204 208 209 -193 -193 -193 -193 39 39 40 39 40 40 40 42 41 41 39 39 39 40 40 -193 37 38 36 41 43 44 43 42 42 42 41 41 39 39 38 38 38 38 35 35 33 36 35 35 37 35 35 39 39 40 40 41 42 42 43 45 41 42 43 48 43 44 38 38 39 38 39 37 37 37 36 38 38 37 40 38 40 39 39 38 41 -193 -209 -209 -193 -193 -193 42 42 41 39 42 42 43 43 48 47 51 51 50 52 54 54 56 58 59 61 61 64 67 68 67 68 70 67 68 68 69 68 69 70 70 68 72 -193 74 74 74 73 73 74 74 74 74 72 72 72 72 73 74 73 74 75 77 79 80 79 79 79 79 79 78 78 78 76 76 76 75 75 73 -193 -193 -209 -209 -209 -209 -193 -177 -193 273 -193 272 -193 -193 -193 77 80 76 78 75 75 75 75 74 75 73 74 73 75 73 73 79 84 78 77 79 74 73 73 72 0 0 0 0 0
    0 0 0 0 0 0 0 0 0 0 0 0 0 0 0 0 0 0 0 0 0 0 0 0 0 0 0 0 0 0 0 0 0 0 0 0 0 0 0 0 0 0 0 0 0 0 0 0 0 0 0 0 0 0 0 0 0 0 0 0 0 0 0 0 0 0 0 0 0 27 26 25 27 26 28 28 30 31 33 34 35 32 35 35 -209 37 -209 -193 -193 -193 -193 -193 34 33 32 32 32 27 31 31 26 -177 -209 33 26 26 35 37 38 34 34 36 204 208 -193 -209 -193 -193 -193 37 39 40 38 39 39 39 42 41 42 40 39 40 40 40 -193 38 39 37 41 43 44 42 42 43 42 40 41 39 39 38 38 38 38 35 35 32 36 35 34 37 34 34 38 39 39 -193 40 41 41 43 45 41 42 43 48 44 44 38 39 40 38 39 38 37 37 36 39 39 38 40 38 40 40 39 37 -209 -209 -193 -193 -193 -193 -193 40 40 40 39 42 42 43 43 47 48 51 52 52 54 56 57 58 59 60 62 62 64 66 66 67 67 70 67 68 68 68 68 69 70 70 68 73 -193 74 73 74 73 73 73 74 73 73 72 72 72 72 73 74 73 74 75 76 78 79 78 79 78 78 79 78 78 77 76 76 76 75 74 73 -209 -209 -209 -209 -209 -209 -193 -177 -193 274 -193 272 -209 -193 -193 77 80 76 78 75 76 75 75 74 74 73 74 72 74 73 72 78 85 83 82 83 78 75 73 72 0 0 0 0 0
    0 0 0 0 0 0 0 0 0 0 0 0 0 0 0 0 0 0 0 0 0 0 0 0 0 0 0 0 0 0 0 0 0 0 0 0 0 0 0 0 0 0 0 0 0 0 0 0 0 0 0 0 0 0 0 0 0 0 0 0 0 0 0 0 0 0 0 0 0 27 25 24 26 26 28 28 30 30 32 33 34 30 33 32 37 -193 -193 34 39 34 -193 -193 34 33 32 32 32 27 31 31 -193 -177 -209 37 36 33 37 39 39 35 35 37 203 208 -193 -209 -209 -193 -193 37 39 40 39 39 39 39 41 41 41 40 39 40 40 40 -193 39 39 38 41 43 44 42 42 43 43 40 41 39 39 38 38 39 38 34 35 32 36 34 35 37 34 33 38 38 -193 -193 40 40 39 43 46 41 41 43 48 44 44 39 39 40 39 40 39 37 38 37 40 40 39 41 40 41 41 40 38 -209 -209 18 20 -193 -193 36 35 34 37 39 41 41 42 42 46 48 50 53 53 55 58 58 60 60 61 63 62 63 65 65 66 65 70 67 67 67 68 68 69 70 69 67 72 72 74 73 73 73 73 73 73 73 73 72 72 72 72 73 74 73 74 75 76 78 79 78 78 78 78 78 77 77 77 76 76 76 74 73 -193 -209 -209 -209 -209 -209 -209 -193 -193 -193 -193 -193 271 -193 -193 79 77 79 76 78 75 75 75 75 74 74 73 73 70 74 71 -209 77 84 84 83 85 81 78 74 73 0 0 0 0 0
    0 0 0 0 0 0 0 0 0 0 0 0 0 0 0 0 0 0 0 0 0 0 0 0 0 0 0 0 0 0 0 0 0 0 0 0 0 0 0 0 0 0 0 0 0 0 0 0 0 0 0 0 0 0 0 0 0 0 0 0 0 0 0 0 0 0 0 0 0 28 25 24 27 26 28 28 29 30 31 33 33 29 31 29 33 -193 28 29 37 33 35 -193 34 32 32 32 32 27 32 32 26 -177 -177 39 -193 -193 39 39 39 37 37 38 203 209 -209 -209 -209 -209 -193 37 38 39 38 38 39 39 41 41 41 40 39 40 40 40 -193 39 40 39 42 43 44 42 42 42 44 41 42 40 39 39 40 40 40 34 34 32 36 34 35 36 34 33 38 39 39 39 40 40 39 43 45 41 40 41 49 44 45 39 40 40 39 40 39 37 37 37 40 40 39 41 40 41 41 40 36 26 26 21 22 23 26 26 27 28 37 41 40 41 42 42 46 47 49 52 52 54 58 58 60 60 60 62 61 62 63 64 65 64 69 66 67 67 68 68 69 69 69 66 72 71 73 72 72 72 71 72 73 73 73 72 72 72 72 73 74 73 75 76 77 78 80 78 78 78 78 78 77 77 77 75 76 75 74 72 -193 -209 -209 -209 -209 -209 -209 -193 -193 -193 -193 -193 -193 -209 -193 79 77 79 76 78 75 75 75 75 74 74 73 73 69 73 70 -209 77 83 84 83 85 82 78 73 72 0 0 0 0 0
    0 0 0 0 0 0 0 0 0 0 0 0 0 0 0 0 0 0 0 0 0 0 0 0 0 0 0 0 0 0 0 0 0 0 0 0 0 0 0 0 0 0 0 0 0 0 0 0 0 0 0 0 0 0 0 0 0 0 0 0 0 0 0 0 0 0 0 0 0 28 -209 24 -193 26 28 27 29 30 30 32 32 28 30 27 29 -193 25 25 36 32 34 -193 32 32 32 33 32 27 32 32 -193 31 40 37 39 38 38 38 39 37 36 37 -193 -193 -209 -209 -209 -193 37 37 38 38 37 38 39 38 40 40 40 39 39 40 40 40 -193 -193 40 40 42 43 43 41 42 41 43 40 40 39 39 39 39 39 39 35 35 33 36 35 35 36 34 33 38 39 -193 39 40 39 39 42 43 38 38 40 49 44 45 40 40 41 39 40 39 37 37 37 40 40 39 42 40 41 40 40 31 29 30 23 25 26 30 29 29 31 38 42 40 41 41 42 46 46 48 50 51 53 57 57 59 59 60 61 60 61 62 63 64 63 69 66 66 67 68 68 68 69 69 66 71 71 73 71 71 71 71 72 72 72 72 72 72 72 73 74 75 74 75 76 77 78 80 77 78 77 77 77 77 76 77 75 75 75 73 72 72 72 -209 -209 -209 -209 -209 -193 -193 -193 -193 -193 -193 -193 -193 80 78 79 76 78 75 75 75 75 74 74 73 73 67 73 69 -209 77 84 85 84 85 82 77 72 72 0 0 0 0 0
    0 0 0 0 0 0 0 0 0 0 0 0 0 0 0 0 0 0 0 0 0 0 0 0 0 0 0 0 0 0 0 0 0 0 0 0 0 0 0 0 0 0 0 0 0 0 0 0 0 0 0 0 0 0 0 0 0 0 0 0 0 0 0 0 0 0 0 0 0 27 25 24 -193 26 28 28 29 30 30 32 32 28 30 27 27 -193 23 23 33 30 32 -193 31 32 32 33 33 27 33 33 -193 28 32 30 29 28 34 35 35 34 33 34 34 34 34 -193 -209 34 35 35 35 37 36 39 38 38 39 39 40 39 39 39 40 40 41 -193 41 41 42 44 44 42 42 42 43 40 40 39 39 39 40 40 39 35 36 34 36 35 35 36 34 33 38 39 39 39 39 39 39 42 42 36 36 39 49 45 45 41 41 41 40 41 40 37 37 36 39 39 38 41 40 40 39 -193 29 33 33 -193 26 28 32 32 30 32 38 40 40 41 41 42 45 46 47 49 50 52 56 56 58 58 59 61 60 60 62 61 63 62 69 65 66 67 68 67 68 68 68 66 71 70 72 70 70 71 70 71 72 72 72 72 72 73 73 74 75 74 75 76 77 77 79 77 77 76 77 77 76 76 76 75 76 75 74 73 73 73 73 -193 -209 -209 -209 -209 -193 79 -193 -193 -193 -193 75 80 78 79 76 78 75 75 75 75 74 74 73 73 64 73 -209 -209 78 86 87 -193 85 -209 -209 72 71 0 0 0 0 0
    0 0 0 0 0 0 0 0 0 0 0 0 0 0 0 0 0 0 0 0 0 0 0 0 0 0 0 0 0 0 0 0 0 0 0 0 0 0 0 0 0 0 0 0 0 0 0 0 0 0 0 0 0 0 0 0 0 0 0 0 0 0 0 0 0 0 0 0 0 27 25 23 26 26 29 28 30 30 31 32 32 28 30 26 26 21 20 22 30 29 30 32 31 31 32 33 33 27 35 34 -193 27 31 29 31 30 34 34 34 34 33 34 34 34 34 31 -193 34 34 34 33 35 34 38 37 36 38 38 39 38 38 39 39 40 41 40 41 41 42 43 43 42 41 42 42 40 40 39 39 40 40 40 39 36 37 35 36 36 36 36 34 34 38 39 40 39 40 39 39 42 42 37 36 40 50 45 46 42 42 42 41 41 41 38 38 37 40 40 -193 42 41 41 40 -193 32 38 38 28 28 33 35 35 31 34 39 40 39 41 41 42 45 45 46 47 49 52 55 55 58 57 59 60 60 60 61 61 63 61 69 65 66 67 68 67 67 68 68 65 71 70 71 69 69 70 69 71 71 71 72 72 73 73 74 74 75 74 76 76 77 77 79 76 76 76 76 76 75 75 76 74 75 74 74 73 73 73 73 -193 -193 -193 -193 75 76 79 75 -193 -193 -193 -193 80 78 79 76 78 75 75 75 75 74 73 72 73 60 71 -209 -225 80 87 88 -209 -209 -209 -209 72 71 0 0 0 0 0
    0 0 0 0 0 0 0 0 0 0 0 0 0 0 0 0 0 0 0 0 0 0 0 0 0 0 0 0 0 0 0 0 0 0 0 0 0 0 0 0 0 0 0 0 0 0 0 0 0 0 0 0 0 0 0 0 0 0 0 0 0 0 0 0 0 0 0 0 0 26 25 23 26 26 29 28 31 31 31 31 32 28 30 26 27 22 20 22 30 29 30 32 31 31 33 33 33 27 35 35 22 -193 29 29 35 33 35 35 35 34 34 35 34 33 34 32 34 34 33 33 33 34 35 38 38 37 38 39 40 39 39 39 39 40 41 40 41 41 42 43 43 41 41 43 42 39 40 -193 -193 40 40 41 39 37 38 37 36 36 37 37 34 35 38 -193 -193 40 40 38 39 42 42 39 36 40 51 45 47 43 42 43 42 42 41 38 38 -193 40 40 38 41 39 40 41 -193 32 41 -209 -209 30 37 36 35 32 36 40 40 39 41 42 43 44 45 45 46 48 51 55 55 57 57 58 60 59 59 61 60 62 60 68 65 65 67 67 67 67 68 67 64 70 69 70 69 68 70 69 71 71 71 72 73 73 74 75 75 76 75 76 77 77 77 78 75 76 75 75 75 74 74 74 73 74 73 73 73 73 73 74 -193 -193 -193 74 76 77 79 75 75 75 -193 -193 80 78 78 75 77 75 75 75 74 73 73 72 70 58 64 -209 -225 -193 87 -209 -209 -209 -193 -193 70 70 0 0 0 0 0
    0 0 0 0 0 0 0 0 0 0 0 0 0 0 0 0 0 0 0 0 0 0 0 0 0 0 0 0 0 0 0 0 0 0 0 0 0 0 0 0 0 0 0 0 0 0 0 0 0 0 0 0 0 0 0 0 0 0 0 0 0 0 0 0 0 0 0 0 0 26 24 23 27 26 30 29 31 31 31 31 31 28 29 26 27 22 21 22 30 29 30 32 32 32 33 34 34 27 36 36 22 -193 25 26 30 30 34 35 36 35 35 35 33 34 34 33 34 33 32 32 32 33 36 38 37 36 36 37 39 38 38 38 38 39 40 40 40 41 42 42 42 41 41 43 41 39 39 -193 -193 39 40 40 38 38 38 37 37 37 38 37 35 36 -193 277 -193 -193 39 37 38 41 41 40 37 40 52 46 48 44 43 43 43 42 42 39 39 -193 40 40 39 41 41 42 41 -193 35 42 44 -209 33 39 37 36 34 37 42 40 40 41 42 43 44 46 46 45 48 51 54 55 57 57 58 59 59 59 61 60 62 59 68 64 65 66 67 66 67 67 67 64 69 68 69 68 67 69 69 70 70 71 72 73 74 75 75 75 77 76 77 77 77 76 78 75 75 74 75 74 74 74 74 73 75 74 74 73 74 74 75 -193 -193 -193 -193 76 78 78 -193 -193 -193 -193 -193 -193 78 77 75 76 74 74 74 74 73 71 70 67 57 57 -209 -225 -225 -209 -209 -209 -209 -209 -193 69 70 0 0 0 0 0
    0 0 0 0 0 0 0 0 0 0 0 0 0 0 0 0 0 0 0 0 0 0 0 0 0 0 0 0 0 0 0 0 0 0 0 0 0 0 0 0 0 0 0 0 0 0 0 0 0 0 0 0 0 0 0 0 0 0 0 0 0 0 0 0 0 0 0 0 0 26 24 23 27 26 30 29 32 31 31 31 31 28 29 26 27 22 21 22 31 29 30 32 32 32 34 34 34 27 37 37 -193 26 30 29 32 32 35 36 37 36 35 35 33 33 34 34 34 32 31 32 32 33 36 37 36 35 36 37 39 38 38 37 38 38 39 39 40 39 41 41 41 40 40 41 40 39 39 -193 -193 40 40 40 39 39 38 38 37 38 37 36 35 36 -193 277 -193 40 39 39 40 42 41 41 38 40 52 46 48 45 44 44 43 42 42 39 39 37 39 39 38 41 40 42 41 -193 -193 44 49 52 -193 43 39 38 36 38 43 41 39 41 42 43 44 46 46 45 48 51 54 54 -193 57 -193 59 59 59 60 59 62 59 68 64 64 66 67 66 66 67 67 64 68 68 68 67 67 69 68 69 70 70 71 73 74 75 75 75 77 76 77 77 77 76 77 74 75 74 74 74 74 73 73 73 74 73 74 73 75 75 75 -193 -193 -193 -193 -193 -193 -193 -193 -193 -193 -209 -193 -193 77 77 75 76 74 74 73 73 72 70 69 63 56 57 45 -225 -225 -209 -209 -209 -225 -209 -193 67 69 0 0 0 0 0
    0 0 0 0 0 0 0 0 0 0 0 0 0 0 0 0 0 0 0 0 0 0 0 0 0 0 0 0 0 0 0 0 0 0 0 0 0 0 0 0 0 0 0 0 0 0 0 0 0 0 0 0 0 0 0 0 0 0 0 0 0 0 0 0 0 0 0 0 0 27 26 24 29 27 32 30 33 31 31 31 31 28 30 26 27 23 22 23 31 29 30 32 32 32 34 34 34 27 38 38 -209 -209 35 32 36 36 38 38 38 37 37 35 34 35 35 36 35 33 33 33 34 35 37 37 36 36 37 37 39 37 37 36 37 38 38 38 39 37 41 41 41 40 41 41 40 39 39 -177 -193 40 41 40 39 39 38 38 37 38 37 36 36 37 -193 278 -193 40 40 41 42 43 42 41 39 40 52 46 49 45 44 44 43 42 42 39 39 36 38 37 36 41 39 41 40 -209 -193 44 49 52 -193 43 38 37 36 39 41 40 39 41 41 43 44 45 45 45 49 51 54 54 -193 57 -193 59 59 59 60 59 61 59 67 64 64 66 67 66 67 67 67 64 68 68 68 67 66 68 68 69 69 70 70 73 73 75 76 76 78 76 77 77 78 76 78 74 75 74 74 74 74 73 74 72 74 73 74 74 74 75 75 -193 -193 -193 -193 -193 -193 -193 -193 -193 -193 -193 -193 -193 78 77 75 76 74 73 73 73 72 69 69 62 55 57 47 -225 -225 -209 -209 -193 -225 -225 -193 62 66 0 0 0 0 0
    0 0 0 0 0 0 0 0 0 0 0 0 0 0 0 0 0 0 0 0 0 0 0 0 0 0 0 0 0 0 0 0 0 0 0 0 0 0 0 0 0 0 0 0 0 0 0 0 0 0 0 0 0 0 0 0 0 0 0 0 0 0 0 0 0 0 0 0 0 28 28 27 33 29 34 32 34 32 32 31 31 29 31 27 28 24 24 23 33 29 30 32 32 33 35 35 35 28 39 39 -209 -209 34 31 36 36 38 38 38 37 37 36 36 36 37 37 36 34 34 35 36 36 38 38 36 37 38 38 39 37 37 35 36 37 37 37 38 35 40 40 40 39 40 41 40 39 39 -193 40 40 41 40 38 39 38 38 38 38 38 36 36 38 -193 -193 40 40 39 39 42 43 41 42 42 43 53 46 50 46 45 45 43 42 42 40 39 35 37 34 34 39 38 39 37 -209 -209 40 45 48 40 42 38 37 36 39 40 39 38 40 41 -193 43 45 45 45 49 51 -193 54 -177 -193 -193 59 59 59 60 59 61 58 67 63 64 66 67 67 67 67 67 65 68 68 67 67 66 68 68 68 68 69 69 72 73 75 77 76 78 77 77 78 79 77 78 74 75 74 74 74 74 73 73 72 74 74 75 75 75 76 76 -193 -193 -193 -193 -193 -193 -193 -193 -193 -193 177 178 -193 78 77 75 76 74 73 73 73 72 69 69 62 55 57 49 -225 -225 -209 -225 -225 -225 -225 -193 60 62 0 0 0 0 0
    0 0 0 0 0 0 0 0 0 0 0 0 0 0 0 0 0 0 0 0 0 0 0 0 0 0 0 0 0 0 0 0 0 0 0 0 0 0 0 0 0 0 0 0 0 0 0 0 0 0 0 0 0 0 0 0 0 0 0 0 0 0 0 0 0 0 0 0 0 29 30 31 35 32 36 34 35 33 33 31 32 29 32 28 29 25 25 24 35 29 30 31 33 33 35 35 35 29 39 39 -209 -209 -209 30 35 36 37 38 38 37 36 36 36 37 38 38 37 35 36 36 37 37 38 37 35 36 37 37 39 36 35 34 34 36 36 36 37 33 40 39 39 39 40 40 39 39 -193 -193 40 40 40 39 38 39 39 38 38 39 38 37 37 38 -193 -193 40 40 38 39 42 42 41 43 45 45 53 47 50 47 46 45 43 43 43 41 40 35 37 32 34 37 37 37 33 29 38 39 43 47 43 43 39 39 39 40 40 39 39 40 41 -193 43 46 45 45 50 51 53 54 -193 56 -209 58 59 59 60 59 61 58 66 63 64 67 67 67 67 67 67 65 68 69 67 68 67 68 68 69 69 69 68 72 73 75 77 76 78 76 76 77 79 77 77 74 75 73 74 74 74 73 73 71 73 74 75 76 76 76 76 -193 76 -193 -193 -193 -193 -209 -193 176 176 177 178 -193 80 78 75 76 74 74 74 73 72 69 69 62 55 57 -225 -225 -225 -209 -225 -225 -225 -225 60 61 64 0 0 0 0 0
    0 0 0 0 0 0 0 0 0 0 0 0 0 0 0 0 0 0 0 0 0 0 0 0 0 0 0 0 0 0 0 0 0 0 0 0 0 0 0 0 0 0 0 0 0 0 0 0 0 0 0 0 0 0 0 0 0 0 0 0 0 0 0 0 0 0 0 0 0 30 33 34 37 34 37 35 36 34 34 32 33 31 34 30 32 27 27 26 37 30 30 -193 33 33 35 35 35 29 38 38 32 -209 31 30 35 37 37 38 38 36 37 36 36 38 38 38 37 35 36 36 37 38 37 36 35 36 37 37 38 35 34 33 34 36 35 35 36 32 39 39 39 39 39 40 39 39 -193 -193 39 39 40 39 39 40 39 39 39 39 39 37 38 38 -193 -193 39 40 39 41 42 43 42 44 49 46 53 47 51 47 47 45 44 43 43 41 41 36 37 31 36 37 37 37 31 29 38 38 40 44 42 42 39 39 40 42 40 39 39 40 41 778 43 46 45 46 50 51 53 54 -193 56 -193 58 59 59 60 59 61 58 66 63 64 67 67 67 67 67 67 65 68 69 67 68 67 69 69 69 69 69 68 71 72 74 76 75 78 76 77 77 79 76 -193 -193 -193 73 73 73 73 72 72 70 73 73 75 75 76 76 76 -193 -193 -193 -193 -193 -193 -193 174 176 176 177 178 -193 80 77 75 76 74 73 73 73 72 69 69 62 55 56 -225 -225 -225 -225 -225 -225 -225 -225 64 65 69 0 0 0 0 0
    0 0 0 0 0 0 0 0 0 0 0 0 0 0 0 0 0 0 0 0 0 0 0 0 0 0 0 0 0 0 0 0 0 0 0 0 0 0 0 0 0 0 0 0 0 0 0 0 0 0 0 0 0 0 0 0 0 0 0 0 0 0 0 0 0 0 0 0 0 32 35 36 37 35 37 36 37 35 35 32 34 31 35 32 34 28 29 28 37 31 31 -193 32 32 34 34 34 29 37 37 32 34 37 37 37 39 39 40 39 37 38 36 36 39 39 39 37 37 37 37 38 39 38 36 36 38 38 37 39 35 33 33 35 36 35 35 36 32 39 39 39 39 39 39 39 39 -193 39 39 39 40 39 39 39 39 39 39 39 39 38 38 39 -193 40 40 40 40 41 43 43 42 45 51 47 53 47 51 47 47 45 43 43 43 41 41 36 37 30 38 37 36 35 29 29 37 35 38 39 39 39 38 38 39 43 42 40 40 41 -193 779 44 47 45 46 51 51 53 54 55 56 56 58 58 59 60 59 61 58 66 63 64 67 67 67 67 67 68 65 69 69 67 68 67 69 69 69 69 69 68 70 70 72 74 73 76 76 -193 -193 -193 -193 -193 -193 -193 73 73 72 73 72 72 69 70 71 73 73 74 74 74 -193 -193 -193 -193 -193 -193 -209 -193 175 175 176 177 -193 80 77 75 76 74 73 73 73 72 68 69 62 54 -225 -225 -225 -225 -225 -225 -225 -225 -225 -193 68 71 0 0 0 0 0
    0 0 0 0 0 0 0 0 0 0 0 0 0 0 0 0 0 0 0 0 0 0 0 0 0 0 0 0 0 0 0 0 0 0 0 0 0 0 0 0 0 0 0 0 0 0 0 0 0 0 0 0 0 0 0 0 0 0 0 0 0 0 0 0 0 0 0 0 0 36 37 37 38 36 38 37 37 35 34 32 34 32 35 33 35 30 31 30 37 31 31 -193 32 32 34 34 34 29 37 37 34 39 41 41 40 42 41 42 41 39 39 37 37 39 39 39 38 38 38 38 39 40 39 37 37 38 38 38 39 35 33 33 35 36 35 35 36 32 39 39 39 40 39 39 40 40 -193 40 39 39 39 39 39 39 38 39 39 39 38 38 39 -193 -193 40 40 39 39 42 43 42 41 44 49 45 53 46 50 47 46 44 42 42 43 40 40 34 35 28 37 36 36 33 28 29 36 33 36 38 37 37 37 37 39 44 42 41 41 42 -193 781 44 47 45 47 52 52 53 54 55 56 56 57 58 58 60 58 60 58 66 63 64 67 67 68 68 68 68 65 69 70 68 69 68 69 70 69 70 69 68 69 70 71 -193 72 75 -193 -193 -193 -193 -193 -193 -193 -193 73 73 73 73 72 72 69 70 70 72 72 74 74 74 -193 -193 -193 -193 -193 -193 -209 -209 175 175 175 177 -193 80 77 75 75 73 73 73 73 72 68 70 64 57 -225 -225 -225 -225 -225 -193 -209 -209 -225 -209 68 71 0 0 0 0 0
    0 0 0 0 0 0 0 0 0 0 0 0 0 0 0 0 0 0 0 0 0 0 0 0 0 0 0 0 0 0 0 0 0 0 0 0 0 0 0 0 0 0 0 0 0 0 0 0 0 0 0 0 0 0 0 0 0 0 0 0 0 0 0 0 0 0 0 0 0 38 39 38 39 38 38 37 37 35 35 33 35 33 35 35 36 32 33 32 37 31 31 33 32 32 34 34 34 29 37 37 35 41 43 44 42 44 43 44 43 42 41 38 39 40 39 40 39 39 39 39 40 40 40 38 38 38 38 37 39 34 32 33 35 35 35 35 36 31 39 39 38 39 40 38 39 40 -193 40 39 39 39 38 39 39 38 38 39 39 38 38 39 -193 -193 40 40 38 39 42 42 42 41 43 46 44 51 45 49 46 45 42 41 41 41 39 39 33 34 28 36 36 35 32 28 29 35 33 36 38 37 37 36 37 39 46 42 42 41 43 43 -193 44 47 44 48 52 52 53 54 55 56 56 57 57 58 60 58 60 58 66 63 65 67 67 68 68 68 68 65 69 70 68 69 69 69 69 69 69 69 67 69 69 70 72 71 -193 -193 -193 -193 -193 -193 -193 -193 -193 74 74 74 74 72 72 69 70 71 72 72 73 73 -193 -193 -193 -193 -193 -193 -193 -209 -209 -193 -193 -193 177 -193 82 77 75 75 73 73 73 73 73 68 70 66 -225 -225 -225 -225 -225 -193 -193 -209 -209 -209 -209 69 70 0 0 0 0 0
    0 0 0 0 0 0 0 0 0 0 0 0 0 0 0 0 0 0 0 0 0 0 0 0 0 0 0 0 0 0 0 0 0 0 0 0 0 0 0 0 0 0 0 0 0 0 0 0 0 0 0 0 0 0 0 0 0 0 0 0 0 0 0 0 0 0 0 0 0 37 38 38 39 38 38 38 38 36 35 33 36 35 36 36 38 34 34 34 37 31 31 32 -193 31 34 34 34 29 37 38 36 41 45 46 44 46 45 46 45 44 43 41 40 40 39 40 40 40 40 39 40 40 39 39 38 38 37 37 38 34 32 34 35 35 35 35 36 31 38 38 38 39 39 38 39 40 -193 40 39 40 39 39 39 39 38 38 39 39 38 38 39 -209 -209 40 40 39 40 42 42 41 41 43 47 44 51 44 48 45 44 41 41 40 41 39 39 33 34 27 36 36 35 30 27 28 35 33 36 39 38 36 37 37 40 50 42 42 41 43 43 -193 44 46 44 48 52 52 53 54 55 56 56 57 57 57 59 58 60 58 67 64 66 68 68 68 68 69 69 66 69 70 68 69 69 70 69 69 69 68 66 68 69 69 70 70 -209 -209 -209 -193 -193 75 77 75 75 74 74 74 75 73 73 70 70 71 73 73 73 73 -193 -177 -193 -193 -193 -193 -193 -209 -209 -193 -193 -193 176 -193 82 77 75 76 73 73 73 73 73 69 71 67 -225 -225 -225 -225 -225 -209 -193 -209 -209 -209 -193 67 67 0 0 0 0 0
    0 0 0 0 0 0 0 0 0 0 0 0 0 0 0 0 0 0 0 0 0 0 0 0 0 0 0 0 0 0 0 0 0 0 0 0 0 0 0 0 0 0 0 0 0 0 0 0 0 0 0 0 0 0 0 0 0 0 0 0 0 0 0 0 0 0 0 0 0 36 37 37 38 38 38 37 38 37 35 34 37 36 37 37 38 34 34 34 37 31 31 32 -193 31 34 34 34 29 37 37 34 41 44 45 44 47 -193 47 49 48 46 44 42 40 39 40 40 40 39 39 40 39 39 39 39 38 37 37 38 34 33 35 36 35 35 35 36 30 37 36 37 38 37 38 38 40 40 40 39 40 39 39 39 38 38 38 39 39 38 38 40 -177 -209 41 41 40 41 42 42 41 41 43 48 46 52 44 48 45 44 40 40 40 40 38 38 33 34 27 37 36 34 29 26 28 32 30 34 37 36 34 34 35 40 51 42 42 41 43 43 -193 44 46 43 49 52 52 53 54 55 55 55 56 56 57 59 58 59 59 69 65 67 68 68 69 69 69 69 66 70 70 68 70 69 71 70 70 69 69 67 69 69 69 70 70 -193 -209 -209 -193 77 75 77 75 75 74 74 74 75 73 73 70 70 71 73 73 73 73 -193 -177 -193 -193 -193 -193 -193 -193 -193 -193 -193 -193 176 -193 82 77 75 76 74 73 73 73 73 70 71 69 -225 -225 -225 -225 -225 -209 -193 -209 -209 -209 -193 67 67 0 0 0 0 0
    0 0 0 0 0 0 0 0 0 0 0 0 0 0 0 0 0 0 0 0 0 0 0 0 0 0 0 0 0 0 0 0 0 0 0 0 0 0 0 0 0 0 0 0 0 0 0 0 0 0 0 0 0 0 0 0 0 0 0 0 0 0 0 0 0 0 0 0 0 34 35 35 37 36 37 37 38 37 35 34 37 36 36 37 37 34 34 34 37 31 31 32 -193 31 34 34 34 29 35 35 31 37 42 42 41 44 -193 45 48 48 46 44 42 39 38 39 40 40 39 39 40 39 39 39 39 38 37 37 38 34 33 35 35 35 35 35 36 30 36 34 35 37 35 36 37 39 39 39 39 39 39 39 39 39 38 39 39 40 39 39 -209 -193 -193 41 41 39 41 41 41 40 40 42 45 45 51 43 47 44 43 40 40 39 40 38 38 34 35 27 39 38 35 27 26 27 30 28 30 35 34 31 32 34 40 51 43 42 42 43 43 44 44 46 43 50 52 52 52 54 54 55 55 55 56 56 59 58 59 60 69 66 -193 69 69 70 69 70 69 66 70 70 69 70 70 71 70 70 70 69 67 68 69 69 70 69 70 -209 -209 -193 76 74 76 74 75 74 74 74 74 73 73 70 71 71 73 -193 -193 -193 -193 -193 -193 -193 -193 -193 -193 -193 -193 -193 -193 -193 176 -193 82 77 75 76 73 73 73 73 73 70 72 69 -225 -225 -225 -225 -225 -225 -209 -209 -209 67 74 70 69 0 0 0 0 0
    0 0 0 0 0 0 0 0 0 0 0 0 0 0 0 0 0 0 0 0 0 0 0 0 0 0 0 0 0 0 0 0 0 0 0 0 0 0 0 0 0 0 0 0 0 0 0 0 0 0 0 0 0 0 0 0 0 0 0 0 0 0 0 0 0 0 0 0 0 32 32 33 35 35 37 36 37 37 35 34 37 36 36 36 37 34 34 33 36 31 31 32 -193 30 33 34 33 28 34 34 30 34 41 -193 38 42 35 43 46 47 43 41 40 38 37 38 40 40 39 39 40 40 39 39 40 38 37 37 38 33 34 35 36 36 35 36 36 30 36 33 35 36 33 34 35 38 38 39 38 39 38 40 39 39 38 39 40 39 39 39 -209 -193 -209 41 40 37 41 41 41 40 40 41 43 43 50 43 46 43 43 39 39 39 39 38 38 34 35 28 41 41 36 25 26 26 29 26 29 35 33 30 33 36 40 51 43 43 43 44 43 44 44 46 43 51 52 52 52 54 55 55 55 55 55 57 59 58 59 62 70 67 -193 70 69 70 70 70 70 67 70 70 69 70 70 71 71 70 70 69 67 69 69 69 70 69 70 -209 -193 -193 75 74 76 74 74 74 74 74 74 73 73 70 71 71 72 -193 -193 -193 -193 -193 -193 -193 -193 -193 -193 -193 -193 -193 -193 -193 -193 -193 81 76 75 75 73 73 73 73 73 69 72 68 -225 -225 -225 -225 -225 -225 -209 -193 70 69 75 72 71 0 0 0 0 0
    0 0 0 0 0 0 0 0 0 0 0 0 0 0 0 0 0 0 0 0 0 0 0 0 0 0 0 0 0 0 0 0 0 0 0 0 0 0 0 0 0 0 0 0 0 0 0 0 0 0 0 0 0 0 0 0 0 0 0 0 0 0 0 0 0 0 0 0 0 30 28 30 -193 34 36 36 37 37 35 34 37 36 36 36 37 34 33 33 36 31 31 33 -193 30 33 33 33 28 34 33 30 33 41 39 39 41 40 46 51 49 -193 -209 -193 37 36 37 39 39 38 39 40 39 39 40 40 39 37 37 38 33 35 36 36 36 35 36 36 31 38 34 37 37 34 34 35 38 38 39 38 39 37 39 39 38 38 39 39 39 38 39 -193 -193 -193 41 40 37 41 41 41 40 40 40 41 42 50 42 45 42 42 39 39 39 39 37 37 34 36 28 41 42 -193 23 26 25 -193 23 -193 35 33 29 33 37 41 51 44 44 44 45 44 44 44 45 43 51 52 52 53 55 55 56 56 56 56 58 59 60 59 64 -193 69 -193 -193 70 71 71 71 70 67 70 70 69 70 70 71 71 71 70 69 67 69 69 69 69 69 69 71 71 -193 74 73 75 74 74 74 75 74 75 73 73 71 72 71 72 70 -193 71 -193 -209 -193 -193 -193 -193 -193 -193 -193 -193 -193 -193 -193 -193 80 75 74 74 73 73 72 72 73 69 71 65 -225 -225 -225 -225 60 60 -193 65 68 68 72 71 71 0 0 0 0 0
    0 0 0 0 0 0 0 0 0 0 0 0 0 0 0 0 0 0 0 0 0 0 0 0 0 0 0 0 0 0 0 0 0 0 0 0 0 0 0 0 0 0 0 0 0 0 0 0 0 0 0 0 0 0 0 0 0 0 0 0 0 0 0 0 0 0 0 0 0 29 27 29 -193 32 -193 35 37 37 35 34 37 36 36 36 36 34 33 33 36 30 31 32 -193 30 33 33 33 28 34 33 30 33 41 40 40 42 43 49 54 51 -209 -209 -209 -193 36 37 39 39 38 39 39 39 39 40 40 39 37 38 38 33 36 36 36 36 36 37 37 31 39 35 38 37 35 34 35 39 40 40 39 39 38 39 39 38 37 38 39 39 38 40 -209 42 -193 43 41 39 41 42 42 42 40 40 41 42 50 43 45 42 41 38 38 38 38 36 37 33 36 28 41 42 -193 22 25 24 -193 23 23 34 32 28 31 37 42 50 44 44 45 45 44 44 44 45 42 51 52 51 53 56 56 57 57 57 57 59 60 60 60 66 -209 70 -193 71 71 72 71 72 71 67 70 70 69 70 70 71 70 71 69 69 66 68 68 68 68 69 68 70 70 72 73 73 75 74 74 74 75 74 75 74 73 71 72 71 72 70 -193 71 -193 -209 -193 -193 -193 -193 -193 -193 -193 -193 -193 -193 174 -193 80 75 74 74 73 73 73 73 73 69 72 65 -225 -225 60 60 62 61 63 63 66 66 70 67 -225 0 0 0 0 0
    0 0 0 0 0 0 0 0 0 0 0 0 0 0 0 0 0 0 0 0 0 0 0 0 0 0 0 0 0 0 0 0 0 0 0 0 0 0 0 0 0 0 0 0 0 0 0 0 0 0 0 0 0 0 0 0 0 0 0 0 0 0 0 0 0 0 0 0 0 29 28 -193 -193 33 -193 35 36 37 35 34 37 36 35 35 36 33 33 33 36 30 31 32 864 30 33 33 -193 28 34 33 30 30 39 39 41 -193 -209 51 56 53 52 -193 -209 38 37 37 39 39 38 39 39 38 39 40 39 38 37 37 38 33 36 36 36 36 36 37 37 31 39 32 36 35 34 33 35 39 41 41 40 41 39 40 39 39 38 39 39 39 38 40 -193 43 43 44 42 40 42 41 41 42 40 41 41 42 50 43 45 41 40 37 38 38 38 36 36 33 36 28 41 -193 -193 -193 27 -193 -193 31 -193 39 35 29 30 37 42 48 43 44 45 45 44 44 44 44 42 50 52 51 54 56 57 58 57 58 58 61 61 61 61 67 -193 71 72 72 72 73 72 -193 72 68 69 70 69 69 69 71 70 70 69 68 65 68 68 68 67 68 68 70 70 -193 -209 73 75 74 74 74 75 74 75 74 73 72 73 72 73 71 -193 -193 -193 -177 -193 -193 -193 -193 174 174 172 174 174 -193 174 -193 80 75 74 74 -193 -193 -193 -193 73 70 72 66 60 59 61 61 62 62 62 62 64 64 67 64 -225 0 0 0 0 0
    0 0 0 0 0 0 0 0 0 0 0 0 0 0 0 0 0 0 0 0 0 0 0 0 0 0 0 0 0 0 0 0 0 0 0 0 0 0 0 0 0 0 0 0 0 0 0 0 0 0 0 0 0 0 0 0 0 0 0 0 0 0 0 0 0 0 0 0 0 29 28 30 -193 33 -193 34 36 36 36 34 37 36 35 35 36 33 32 32 35 30 31 32 864 30 32 32 32 28 33 32 28 27 32 28 36 -209 -209 51 58 54 -209 -209 -209 37 36 37 38 39 38 40 39 38 39 40 39 38 36 37 37 32 36 36 36 36 36 37 37 32 39 30 35 31 30 29 31 38 40 41 40 41 41 42 42 42 40 41 40 40 39 40 41 42 40 42 39 40 41 41 41 44 41 42 42 43 51 44 46 41 41 37 38 38 38 36 36 33 36 29 42 -193 -193 -193 -209 -193 44 -193 -193 -193 41 -209 33 39 44 47 43 44 45 44 43 43 43 43 42 48 50 49 53 56 57 58 58 58 59 62 61 62 62 68 -193 72 72 72 72 73 72 -193 -193 68 69 70 68 69 68 70 70 70 68 68 66 68 68 68 67 68 68 70 70 -193 -193 73 75 73 74 74 74 74 74 73 73 72 74 73 73 72 -193 72 -193 -193 -177 -193 -193 -193 175 175 173 174 174 -193 -193 -193 80 75 74 -193 -193 -193 -193 -193 73 70 72 65 60 59 61 61 62 61 62 61 63 63 65 62 63 0 0 0 0 0
    0 0 0 0 0 0 0 0 0 0 0 0 0 0 0 0 0 0 0 0 0 0 0 0 0 0 0 0 0 0 0 0 0 0 0 0 0 0 0 0 0 0 0 0 0 0 0 0 0 0 0 0 0 0 0 0 0 0 0 0 0 0 0 0 0 0 0 0 0 29 29 30 31 32 33 34 36 36 36 34 37 35 35 35 36 33 32 32 35 29 31 32 -193 -193 32 32 32 28 32 31 28 27 28 26 31 -209 -209 51 58 54 -209 -209 -209 38 37 36 37 38 37 39 39 37 38 39 38 38 37 36 37 32 36 36 36 36 36 37 37 32 39 29 34 29 28 27 27 32 38 40 39 40 43 44 46 46 44 44 42 42 -193 40 42 41 39 42 40 40 40 40 41 44 42 42 41 43 53 46 47 41 41 37 38 38 38 36 36 33 36 29 42 -193 -193 -193 43 45 45 -193 -193 40 -193 -209 28 38 44 45 43 44 45 43 43 43 43 42 42 46 49 47 53 56 57 58 58 59 60 64 62 63 62 69 -193 72 72 72 73 74 73 -193 -193 68 69 70 68 69 68 70 70 70 69 69 67 69 68 68 68 69 68 70 70 72 -193 73 75 73 73 73 74 74 74 73 73 72 73 73 73 71 72 72 -193 -177 -177 -177 75 -193 174 175 173 175 175 -193 -193 -193 80 75 75 75 -193 -193 73 -193 73 69 72 64 60 59 61 60 61 61 61 61 62 63 63 61 62 0 0 0 0 0
    0 0 0 0 0 0 0 0 0 0 0 0 0 0 0 0 0 0 0 0 0 0 0 0 0 0 0 0 0 0 0 0 0 0 0 0 0 0 0 0 0 0 0 0 0 0 0 0 0 0 0 0 0 0 0 0 0 0 0 0 0 0 0 0 0 0 0 0 0 30 30 30 31 32 33 33 35 35 36 34 37 35 34 34 35 32 32 32 34 29 30 31 30 29 31 31 30 27 31 30 27 27 26 26 29 -209 -209 50 58 53 -209 -209 -209 38 37 35 35 35 37 39 38 37 37 38 38 39 37 36 37 33 36 36 36 36 36 37 37 33 39 34 36 30 28 26 25 27 33 38 37 37 43 44 50 55 56 52 54 -209 -209 -209 42 40 38 41 38 36 37 38 40 42 40 41 39 42 53 46 47 40 40 37 38 38 38 35 35 32 37 30 42 43 43 45 43 45 43 41 38 37 37 -209 26 37 43 44 43 43 44 43 42 42 42 42 42 45 48 46 52 56 57 58 -193 59 60 64 62 63 63 69 -193 72 72 72 73 74 74 73 73 69 69 71 69 70 69 71 70 -193 70 70 68 69 69 69 68 70 68 70 70 -193 -193 73 75 73 73 73 74 74 74 73 73 72 73 73 73 71 71 71 -193 -193 -177 -193 75 -193 -193 -193 173 173 174 -193 175 -193 80 74 74 74 -193 -193 73 73 -193 68 71 62 59 59 60 60 61 61 61 61 62 62 63 61 63 0 0 0 0 0
    0 0 0 0 0 0 0 0 0 0 0 0 0 0 0 0 0 0 0 0 0 0 0 0 0 0 0 0 0 0 0 0 0 0 0 0 0 0 0 0 0 0 0 0 0 0 0 0 0 0 0 0 0 0 0 0 0 0 0 0 0 0 0 0 0 0 0 0 0 30 30 31 31 33 34 34 35 35 36 35 37 35 34 34 35 32 32 32 34 28 30 30 29 28 29 29 29 27 30 29 27 26 24 26 31 -193 -193 46 -193 47 -209 -209 39 38 36 35 35 35 38 39 38 37 38 38 38 39 37 36 38 34 36 36 36 36 35 37 37 -193 39 36 39 36 29 24 24 -209 -209 -209 -209 36 -209 -209 -209 59 -193 -193 -209 -209 -209 -209 -209 -209 -209 -209 -209 36 38 38 40 41 40 41 39 42 53 47 48 41 40 37 38 38 38 36 35 31 37 31 42 43 42 45 44 44 43 41 41 40 38 33 30 38 44 43 43 43 44 43 43 42 42 41 42 45 47 -193 51 -193 56 58 -193 59 61 65 62 63 63 69 -193 72 72 72 73 74 74 74 73 69 69 71 70 70 69 71 70 -193 -193 71 69 70 69 69 69 71 69 -193 -193 -193 -209 74 75 74 74 74 75 74 75 74 73 73 74 73 74 72 72 72 72 73 73 -177 75 -209 -193 -193 -193 173 174 -193 -193 -193 79 73 74 74 73 73 73 73 73 68 71 62 60 59 60 60 61 61 61 61 62 62 63 61 63 0 0 0 0 0
    0 0 0 0 0 0 0 0 0 0 0 0 0 0 0 0 0 0 0 0 0 0 0 0 0 0 0 0 0 0 0 0 0 0 0 0 0 0 0 0 0 0 0 0 0 0 0 0 0 0 0 0 0 0 0 0 0 0 0 0 0 0 0 0 0 0 0 0 0 31 31 32 32 34 34 34 36 35 36 35 37 35 34 34 35 32 32 32 34 28 29 30 29 27 28 28 28 26 29 28 26 25 22 -209 -209 -193 -193 -193 60 -209 -209 -209 39 37 36 34 33 35 39 39 38 38 38 38 38 39 37 35 38 34 36 36 36 37 36 37 37 -193 39 35 40 40 32 24 26 39 45 47 46 41 -209 -209 -193 -193 -193 -209 -209 -209 -209 36 -193 -209 -209 -209 -209 37 38 38 41 40 41 42 41 44 53 48 48 40 40 37 38 38 37 35 35 30 37 31 41 41 41 44 43 44 42 41 41 41 40 38 34 38 44 43 43 44 45 44 43 43 43 41 42 44 45 -209 -193 -193 -193 58 -209 59 62 66 63 64 64 70 -193 72 72 72 73 74 74 73 73 70 68 72 71 71 70 73 72 -193 -209 73 72 72 70 69 69 71 69 71 -193 -193 -209 75 77 75 75 75 75 75 75 74 74 73 74 74 74 72 72 71 72 73 -193 -209 -209 -209 -193 175 -193 174 -193 -209 -209 74 80 74 74 74 73 73 73 73 73 68 71 61 60 59 61 60 61 61 61 60 62 62 62 60 61 0 0 0 0 0
    0 0 0 0 0 0 0 0 0 0 0 0 0 0 0 0 0 0 0 0 0 0 0 0 0 0 0 0 0 0 0 0 0 0 0 0 0 0 0 0 0 0 0 0 0 0 0 0 0 0 0 0 0 0 0 0 0 0 0 0 0 0 0 0 0 0 0 0 0 32 33 33 33 35 35 35 36 35 37 36 38 36 34 33 36 32 32 32 33 28 29 29 29 27 28 28 28 26 29 29 27 -193 -177 -209 62 67 63 -193 -209 -209 -209 -193 -193 36 36 33 34 36 40 39 38 38 38 38 38 39 37 34 38 35 37 36 36 37 36 37 37 33 38 34 40 40 36 -209 38 42 50 52 45 -193 -209 -209 -209 -209 -209 -209 -209 -209 -209 34 -209 -209 -209 -209 37 -193 38 39 -193 -209 43 43 42 48 55 49 48 38 39 37 37 37 36 34 34 29 36 30 41 39 40 43 43 43 41 40 41 40 39 38 34 38 45 43 43 44 45 44 43 43 43 41 42 43 44 -209 -193 -193 -193 -209 -193 -193 63 66 63 64 65 70 -193 73 72 72 73 74 74 73 73 71 69 73 71 71 71 73 73 73 74 73 72 73 71 69 69 71 70 72 -193 73 76 77 79 75 76 75 75 75 75 74 74 73 74 74 74 73 72 71 72 72 -193 -209 -209 -209 -209 -209 -209 -193 -193 -193 -193 74 80 74 74 74 74 73 73 73 73 67 70 61 60 59 61 61 61 61 61 60 61 61 61 59 60 0 0 0 0 0
    0 0 0 0 0 0 0 0 0 0 0 0 0 0 0 0 0 0 0 0 0 0 0 0 0 0 0 0 0 0 0 0 0 0 0 0 0 0 0 0 0 0 0 0 0 0 0 0 0 0 0 0 0 0 0 0 0 0 0 0 0 0 0 0 0 0 0 0 0 33 34 33 33 35 36 35 36 35 37 36 38 36 34 33 36 32 32 32 33 28 29 30 29 27 28 28 27 26 28 28 26 -193 -209 -209 61 65 -209 -193 -209 -177 133 141 39 36 37 35 35 38 40 39 38 38 39 38 38 39 37 35 38 36 37 36 36 37 36 37 36 33 37 31 39 38 34 -209 33 -193 53 -209 -209 -209 -209 -209 -209 -209 -209 -209 -209 -209 -209 -193 -209 -209 -209 -209 -193 -193 -209 42 -209 -209 -209 -193 45 50 55 49 48 38 38 37 37 37 36 34 34 28 37 32 40 39 40 43 42 42 40 40 40 38 37 36 34 38 44 43 43 44 45 44 43 43 43 41 42 42 43 -209 -193 -209 -193 -209 -193 -193 64 67 63 64 65 70 -193 73 71 72 73 74 73 73 -193 71 69 73 71 71 71 72 72 72 74 73 72 73 71 69 70 72 71 72 72 74 76 77 79 76 76 75 75 75 75 74 74 73 75 74 75 73 73 73 76 74 -209 -209 -209 -209 -209 -209 -193 -209 -209 -193 76 74 79 74 74 74 74 73 74 73 73 67 70 61 60 60 61 61 61 61 61 60 61 60 61 59 59 0 0 0 0 0
    0 0 0 0 0 0 0 0 0 0 0 0 0 0 0 0 0 0 0 0 0 0 0 0 0 0 0 0 0 0 0 0 0 0 0 0 0 0 0 0 0 0 0 0 0 0 0 0 0 0 0 0 0 0 0 0 0 0 0 0 0 0 0 0 0 0 0 0 0 34 35 34 33 35 37 35 36 35 37 36 38 36 34 32 36 32 32 33 32 28 29 30 29 27 28 28 27 27 29 29 25 -193 -209 -209 62 66 -209 -209 -209 -209 -209 -193 39 37 37 36 36 38 39 38 38 38 38 38 38 39 36 36 39 36 38 36 36 37 35 36 36 32 36 29 37 34 31 25 29 -209 -209 -193 -209 -209 -209 -209 -209 -209 -209 -209 -209 -209 -209 -193 -193 -209 -209 44 -209 -193 -209 -193 -209 -209 -193 -193 -209 -193 56 48 48 37 38 36 37 37 36 34 34 28 38 36 41 42 41 43 43 42 40 40 40 38 36 36 34 38 44 43 43 44 45 44 43 43 43 41 42 42 43 -209 -193 -193 51 -209 -209 -193 64 66 63 64 65 70 71 72 71 72 72 73 73 73 -193 71 68 73 71 72 71 73 72 72 74 73 72 73 71 69 71 73 72 73 76 83 83 82 83 79 79 78 -193 76 75 75 74 74 75 74 75 74 74 73 78 -193 111 116 -209 -193 -193 -209 -209 -209 -209 -209 -193 72 77 72 73 72 72 72 73 72 72 65 69 60 60 59 61 61 61 61 61 60 61 61 61 59 59 0 0 0 0 0
    0 0 0 0 0 0 0 0 0 0 0 0 0 0 0 0 0 0 0 0 0 0 0 0 0 0 0 0 0 0 0 0 0 0 0 0 0 0 0 0 0 0 0 0 0 0 0 0 0 0 0 0 0 0 0 0 0 0 0 0 0 0 0 0 0 0 0 0 0 33 35 34 33 35 37 35 36 35 37 36 38 37 34 31 36 32 32 33 32 28 28 30 29 26 27 27 26 26 30 29 24 22 -209 -209 63 67 -209 -209 -209 -209 -209 -193 39 38 38 37 37 39 39 37 38 38 38 37 37 39 36 36 40 37 38 36 36 37 35 36 36 32 35 28 36 32 30 25 28 -209 -209 -193 -209 -193 -209 63 -193 -193 -209 -209 -209 -209 -209 -193 -193 -193 -193 45 -193 -209 -209 -209 -209 -209 -193 -193 -209 -193 56 47 47 37 37 36 36 37 36 34 34 27 39 37 41 42 41 42 42 41 39 39 40 38 36 36 35 38 45 43 44 44 45 45 43 43 43 41 43 43 43 -209 -193 46 51 -209 -209 -209 63 65 63 63 64 70 70 72 71 72 72 73 72 72 -209 71 69 73 72 73 72 74 74 74 76 75 74 75 74 73 75 77 76 78 86 89 88 86 86 83 83 83 81 77 76 76 75 75 77 76 77 76 75 75 -209 -193 108 112 -193 -209 -193 -193 -209 -209 -209 71 72 71 75 71 72 72 71 71 71 70 68 60 63 58 58 58 60 60 60 61 60 60 61 61 62 60 61 0 0 0 0 0
    0 0 0 0 0 0 0 0 0 0 0 0 0 0 0 0 0 0 0 0 0 0 0 0 0 0 0 0 0 0 0 0 0 0 0 0 0 0 0 0 0 0 0 0 0 0 0 0 0 0 0 0 0 0 0 0 0 0 0 0 0 0 0 0 0 0 0 0 0 33 37 35 34 36 38 36 37 36 37 36 38 37 34 30 35 32 32 33 32 28 28 30 29 26 26 26 24 26 28 26 21 19 -209 -209 58 -209 -209 -209 -209 -209 -209 40 39 38 39 38 39 41 39 37 38 38 37 37 37 39 35 36 40 37 39 36 36 37 35 36 36 32 35 28 36 32 30 27 29 27 -209 -193 -209 -193 -193 -193 -177 64 -209 -209 -193 -209 -193 205 205 206 -193 45 -193 -193 -209 -193 -209 -209 -193 -209 -193 -193 56 46 47 37 37 36 36 37 35 34 34 27 40 37 40 42 41 42 42 40 39 38 40 37 35 36 36 39 47 43 44 44 45 45 44 44 44 41 43 43 43 -193 -193 47 53 -209 59 -193 63 65 63 63 64 69 70 71 70 72 72 73 72 72 -209 72 71 74 73 74 73 75 76 76 78 77 76 77 76 75 78 83 88 -209 -193 94 94 90 -193 87 87 85 84 80 78 77 76 76 80 -193 82 -209 -209 -209 98 101 105 107 -209 -209 101 103 -209 -209 -209 68 -209 70 73 69 71 71 71 70 70 69 66 59 62 57 58 58 60 60 60 61 60 60 62 62 64 62 65 0 0 0 0 0
    0 0 0 0 0 0 0 0 0 0 0 0 0 0 0 0 0 0 0 0 0 0 0 0 0 0 0 0 0 0 0 0 0 0 0 0 0 0 0 0 0 0 0 0 0 0 0 0 0 0 0 0 0 0 0 0 0 0 0 0 0 0 0 0 0 0 0 0 0 34 39 36 37 38 40 37 37 36 37 36 38 37 33 29 35 32 32 33 32 28 28 30 29 26 26 26 24 25 27 24 21 18 22 -209 -177 -209 -209 -209 -209 -209 -209 40 39 38 38 38 38 40 39 37 38 38 37 37 37 38 34 36 40 38 39 36 37 37 35 37 36 32 34 28 36 31 30 28 31 -193 -209 -193 -209 -193 -209 -193 -193 -193 -209 -209 -209 -209 -209 205 206 207 -193 44 -193 -193 -193 -193 -209 -209 -209 -209 -193 -193 55 47 48 37 38 37 37 37 36 35 34 27 40 38 40 41 41 42 42 41 39 38 40 37 35 36 37 39 48 43 44 44 46 46 45 44 44 42 44 44 44 43 -193 -193 -193 -209 60 60 63 65 64 64 65 69 69 71 71 72 72 73 73 72 -193 73 73 75 74 74 74 77 79 79 82 81 81 82 84 87 99 99 103 109 105 100 101 99 97 90 90 88 89 85 82 81 82 82 -193 -209 -209 -209 -209 94 98 99 102 104 99 95 96 95 -209 -209 60 65 64 67 70 67 70 70 70 68 67 66 62 59 61 57 58 58 60 61 61 62 61 61 63 64 66 65 68 0 0 0 0 0
    0 0 0 0 0 0 0 0 0 0 0 0 0 0 0 0 0 0 0 0 0 0 0 0 0 0 0 0 0 0 0 0 0 0 0 0 0 0 0 0 0 0 0 0 0 0 0 0 0 0 0 0 0 0 0 0 0 0 0 0 0 0 0 0 0 0 0 0 0 37 43 39 39 40 42 38 38 38 38 36 38 37 34 29 35 32 32 33 32 29 29 30 29 26 26 26 24 25 26 24 21 19 23 -209 -177 -209 -209 -209 -209 -209 -209 39 38 37 37 36 38 39 38 37 38 37 37 36 37 38 34 36 40 38 39 37 37 37 36 37 37 33 35 28 36 30 29 26 31 -193 -209 -193 -209 -193 -193 -177 62 -193 -209 -209 -209 -209 -209 205 205 206 -193 44 44 -193 -193 -193 -209 -209 -209 -193 -209 -209 55 47 49 38 38 -193 38 37 36 35 34 28 39 38 39 40 41 42 42 41 40 38 41 38 36 37 38 40 50 44 44 44 46 46 45 45 45 42 45 45 45 45 -193 -209 -209 -193 61 61 64 65 64 64 65 70 69 71 71 73 73 73 73 73 73 73 73 75 75 75 76 80 82 82 85 85 86 88 91 101 105 106 105 109 107 103 104 101 101 95 96 93 93 90 -193 -209 -193 89 101 -209 114 110 110 100 100 100 101 102 100 96 96 95 -209 -209 60 65 -209 65 67 64 69 69 69 66 64 63 60 59 61 58 59 59 60 61 61 62 62 62 66 67 69 69 71 0 0 0 0 0
    0 0 0 0 0 0 0 0 0 0 0 0 0 0 0 0 0 0 0 0 0 0 0 0 0 0 0 0 0 0 0 0 0 0 0 0 0 0 0 0 0 0 0 0 0 0 0 0 0 0 0 0 0 0 0 0 0 0 0 0 0 0 0 0 0 0 0 0 0 38 44 40 40 41 44 39 39 39 38 36 38 38 35 29 35 33 32 34 32 30 29 31 30 27 28 28 26 28 29 27 25 23 27 36 44 -209 45 -193 -193 -193 -193 39 -193 -193 37 36 38 38 37 37 38 37 37 36 36 37 33 37 40 38 40 37 38 38 37 38 37 33 35 28 36 29 29 27 -193 -209 -209 -193 -193 -193 -209 -193 -177 -209 -209 -209 -209 -209 -209 203 203 203 203 -209 -209 -209 -193 -193 -193 -209 -209 -193 -209 -209 54 46 49 39 -193 -193 39 38 36 35 35 28 39 38 39 40 41 41 41 41 40 38 40 36 34 37 38 40 50 44 44 45 46 46 45 45 45 43 46 46 46 46 -193 -193 -193 -193 62 62 64 65 65 63 64 69 68 70 71 72 72 73 73 73 73 73 74 76 76 77 81 84 85 86 89 93 91 92 96 100 104 105 104 107 105 103 104 102 102 98 99 98 96 94 -193 -209 -209 -209 -209 -209 114 109 109 100 100 99 101 101 99 95 95 93 -209 -209 -209 -209 -209 -209 -209 54 62 62 60 59 58 58 57 58 59 57 59 59 62 63 63 64 63 65 68 69 71 72 73 0 0 0 0 0
    0 0 0 0 0 0 0 0 0 0 0 0 0 0 0 0 0 0 0 0 0 0 0 0 0 0 0 0 0 0 0 0 0 0 0 0 0 0 0 0 0 0 0 0 0 0 0 0 0 0 0 0 0 0 0 0 0 0 0 0 0 0 0 0 0 0 0 0 0 38 44 41 41 41 44 39 39 39 39 36 38 38 35 29 35 33 32 34 32 32 30 33 31 29 29 30 28 29 30 28 26 26 29 33 39 43 44 42 -193 42 40 39 -193 -193 37 37 39 39 37 38 38 37 37 37 36 37 33 37 40 38 40 38 38 38 37 38 38 34 35 28 36 28 29 -193 -193 -209 -209 71 72 -193 -209 -177 -177 -209 -209 -209 -209 -209 -209 202 202 203 202 -209 -209 -209 -193 268 -193 -209 -209 -209 -209 -193 52 45 49 39 -193 -193 39 38 37 37 36 29 39 39 39 41 41 41 42 41 41 38 38 34 33 37 38 40 51 44 45 45 46 46 45 45 45 43 47 47 47 48 -193 -193 59 61 61 61 63 64 66 65 66 69 69 71 72 73 73 73 73 73 74 74 76 79 80 82 -193 86 90 98 99 102 99 99 102 103 105 106 105 108 106 105 105 104 104 101 101 100 97 94 -193 -209 -209 -209 111 -209 116 110 108 100 100 98 99 99 97 94 95 92 95 -209 -209 -209 -209 -209 40 41 47 47 51 52 52 54 55 56 57 57 58 59 63 65 66 66 66 68 70 71 72 73 74 0 0 0 0 0
    0 0 0 0 0 0 0 0 0 0 0 0 0 0 0 0 0 0 0 0 0 0 0 0 0 0 0 0 0 0 0 0 0 0 0 0 0 0 0 0 0 0 0 0 0 0 0 0 0 0 0 0 0 0 0 0 0 0 0 0 0 0 0 0 0 0 0 0 0 38 44 40 40 40 43 39 39 39 39 36 38 39 36 29 36 34 33 35 33 34 31 33 32 30 29 30 28 29 29 28 26 25 28 30 36 40 41 41 40 42 40 39 39 -193 38 38 39 39 36 37 38 37 37 37 36 36 32 37 40 38 40 38 38 38 37 39 38 34 35 28 35 27 28 27 -193 -209 -209 70 71 71 67 67 66 -177 -193 -209 -209 -209 -209 -209 201 201 -177 -209 -209 -209 266 266 269 -209 -209 -209 -193 -193 50 45 49 41 -193 41 40 39 38 38 37 31 39 39 40 41 41 41 42 42 42 40 39 35 34 38 40 40 52 44 45 45 46 46 45 45 45 43 48 49 48 49 -193 -193 -193 60 60 60 63 65 67 67 68 70 70 71 73 74 73 74 74 75 75 76 82 85 87 -193 106 94 100 104 103 104 103 102 104 104 106 107 106 110 107 106 107 105 105 102 103 101 98 96 -193 -209 -209 -209 -209 -209 -209 114 107 100 100 98 98 99 97 95 96 93 97 -209 -209 -209 -209 -209 42 43 51 46 49 50 51 53 54 56 57 57 58 59 63 66 66 68 69 71 72 73 74 74 75 0 0 0 0 0
    0 0 0 0 0 0 0 0 0 0 0 0 0 0 0 0 0 0 0 0 0 0 0 0 0 0 0 0 0 0 0 0 0 0 0 0 0 0 0 0 0 0 0 0 0 0 0 0 0 0 0 0 0 0 0 0 0 0 0 0 0 0 0 0 0 0 0 0 0 39 43 40 40 40 44 40 40 40 40 37 39 39 38 29 36 35 34 35 34 34 31 33 32 30 29 31 29 30 29 29 28 27 29 30 34 38 39 40 40 41 40 39 39 39 38 38 39 38 36 37 38 36 36 36 35 36 32 36 39 38 40 38 38 38 37 39 39 35 36 29 36 26 -193 -193 -193 -209 -209 69 70 69 66 66 66 65 -193 -209 -209 -209 -209 -177 -177 -177 -177 -209 -193 -209 265 266 266 -209 -209 483 -209 -193 49 44 49 42 42 42 41 40 39 39 38 33 39 39 39 41 41 40 42 42 42 41 41 38 37 40 42 40 52 45 45 45 46 46 45 45 46 43 48 50 50 51 -209 -193 59 60 61 62 65 66 69 68 69 71 71 72 73 75 75 76 77 78 79 80 87 89 93 97 104 102 102 105 104 105 104 103 105 105 106 107 106 109 108 107 108 107 106 105 106 105 101 96 -209 -209 -209 -209 -209 -209 -209 112 108 100 100 98 98 98 98 95 96 93 95 92 98 -193 -209 -209 -209 46 55 49 49 48 51 53 54 55 57 56 57 59 63 67 68 70 71 73 75 78 81 81 82 0 0 0 0 0
    0 0 0 0 0 0 0 0 0 0 0 0 0 0 0 0 0 0 0 0 0 0 0 0 0 0 0 0 0 0 0 0 0 0 0 0 0 0 0 0 0 0 0 0 0 0 0 0 0 0 0 0 0 0 0 0 0 0 0 0 0 0 0 0 0 0 0 0 0 39 44 41 41 41 45 41 41 41 41 38 40 40 39 28 36 37 35 36 36 36 33 33 33 32 30 31 30 30 29 30 30 29 30 31 34 37 39 40 40 40 38 39 38 37 37 38 38 37 36 38 37 36 36 36 34 35 32 35 38 38 39 38 38 38 37 40 39 35 37 30 38 -193 29 -193 -209 -193 -209 -193 75 -209 -209 71 -209 -209 -209 -209 -209 -209 -209 198 205 204 -209 -209 -209 -209 -209 -209 -209 -209 -209 -193 -193 52 48 45 50 43 43 43 42 41 40 40 40 34 39 39 39 40 40 39 41 41 42 41 41 39 39 42 44 43 53 46 46 46 47 48 47 47 48 44 53 53 54 54 -209 58 60 63 66 66 68 69 71 70 71 73 73 73 75 79 79 79 83 85 85 86 91 94 96 99 103 103 103 105 105 105 105 104 105 105 107 107 106 108 107 108 108 107 106 104 105 104 97 90 -209 -209 -209 -209 -209 -209 -209 108 105 100 100 98 97 97 97 95 95 92 93 90 92 92 -209 -209 -209 71 71 -193 -193 53 54 56 55 55 57 56 57 59 62 65 67 70 72 75 77 83 87 87 86 0 0 0 0 0
    0 0 0 0 0 0 0 0 0 0 0 0 0 0 0 0 0 0 0 0 0 0 0 0 0 0 0 0 0 0 0 0 0 0 0 0 0 0 0 0 0 0 0 0 0 0 0 0 0 0 0 0 0 0 0 0 0 0 0 0 0 0 0 0 0 0 0 0 0 39 43 40 40 40 45 43 42 42 42 40 41 41 41 29 35 36 35 36 37 37 35 35 34 34 31 32 31 30 29 29 29 29 31 32 35 37 38 40 40 40 37 38 38 36 36 38 38 37 37 39 38 37 37 37 34 -193 32 35 38 38 39 38 38 39 38 40 40 36 37 30 38 -193 30 30 -209 -193 -193 77 83 86 88 88 -209 -209 -209 -209 -209 -209 -209 -193 -209 -209 -209 -209 -209 -209 -209 -209 -193 -209 -193 -193 -193 52 48 45 50 44 44 44 43 42 41 41 41 35 40 40 40 41 40 39 41 41 42 40 40 41 45 52 52 52 55 48 48 48 48 49 49 49 50 46 55 56 -193 57 -209 61 63 68 69 69 71 70 72 72 72 75 75 75 78 84 85 85 88 89 91 90 94 97 99 100 103 103 103 105 106 106 106 105 106 106 107 107 106 108 107 108 111 109 110 107 108 108 -209 -209 -209 70 -209 -209 -209 -209 -209 -193 104 99 99 97 97 97 97 95 96 92 95 -225 -225 95 93 89 -209 -209 73 75 -193 67 67 67 67 65 67 61 60 62 67 68 69 71 75 78 81 85 90 90 89 0 0 0 0 0
    0 0 0 0 0 0 0 0 0 0 0 0 0 0 0 0 0 0 0 0 0 0 0 0 0 0 0 0 0 0 0 0 0 0 0 0 0 0 0 0 0 0 0 0 0 0 0 0 0 0 0 0 0 0 0 0 0 0 0 0 0 0 0 0 0 0 0 0 0 38 43 40 40 40 46 43 43 43 42 41 42 42 42 30 36 37 35 36 37 37 36 35 35 35 33 33 32 31 30 31 30 30 31 33 35 36 36 38 38 38 36 36 36 35 36 39 38 37 37 39 38 38 38 37 33 -177 33 35 38 38 39 38 39 39 38 41 41 36 38 30 -209 -193 -193 -209 -209 76 77 79 -193 -209 91 94 -209 -209 -209 -209 -209 -209 -209 -209 -209 -209 -209 -209 -209 -193 -209 -209 -193 -209 495 -193 -193 53 48 45 51 45 44 44 44 43 42 42 42 36 40 40 -193 -193 40 40 41 40 41 39 39 44 50 55 53 53 55 50 50 49 48 51 51 52 52 50 57 60 72 64 65 62 63 69 71 72 73 72 75 74 76 79 79 82 84 87 88 88 91 94 95 93 100 102 102 103 104 104 104 106 106 106 105 104 105 104 106 106 105 105 105 106 108 107 107 90 -209 -209 -209 -193 66 66 61 60 64 -209 -209 -209 102 97 99 97 97 97 97 96 96 93 96 -225 -225 -225 -225 -225 -225 -225 -225 -225 -225 -225 -225 68 68 68 68 64 62 63 71 74 72 75 82 87 88 88 91 93 91 0 0 0 0 0
    0 0 0 0 0 0 0 0 0 0 0 0 0 0 0 0 0 0 0 0 0 0 0 0 0 0 0 0 0 0 0 0 0 0 0 0 0 0 0 0 0 0 0 0 0 0 0 0 0 0 0 0 0 0 0 0 0 0 0 0 0 0 0 0 0 0 0 0 0 38 42 40 40 40 46 43 43 43 43 41 42 43 43 34 37 37 36 36 37 37 36 36 35 35 33 33 33 32 30 32 31 31 32 32 34 35 34 36 36 36 34 34 34 33 35 38 38 36 37 39 38 37 38 37 33 -193 34 36 38 38 39 38 39 39 38 42 42 37 39 30 -209 -193 -193 -209 -209 -193 76 79 -209 -209 -209 -209 -209 -209 -193 -209 30 -193 -193 -209 -209 -209 -209 -209 -209 -177 -193 -209 -193 -193 499 499 498 -193 47 45 50 45 45 45 44 43 42 42 42 37 40 41 -209 -193 -193 41 42 38 34 34 33 39 42 44 43 45 54 50 49 50 50 52 53 55 54 54 60 68 73 70 70 65 65 70 73 75 75 75 80 79 80 84 86 88 89 90 92 -193 94 98 99 99 103 103 103 103 104 103 103 104 105 105 105 104 104 103 105 105 103 103 103 105 106 105 -193 -209 -209 69 67 60 59 59 56 57 60 -225 -225 -209 -193 97 99 96 97 97 98 96 97 93 96 -225 -225 -225 -225 -225 -225 -225 -225 -225 -225 -225 -225 -225 -225 -225 -225 -225 -225 65 72 74 72 76 85 92 92 91 95 95 94 0 0 0 0 0
    0 0 0 0 0 0 0 0 0 0 0 0 0 0 0 0 0 0 0 0 0 0 0 0 0 0 0 0 0 0 0 0 0 0 0 0 0 0 0 0 0 0 0 0 0 0 0 0 0 0 0 0 0 0 0 0 0 0 0 0 0 0 0 0 0 0 0 0 0 38 41 40 39 40 45 43 42 42 42 41 42 42 42 33 37 37 36 36 37 37 36 35 35 35 34 33 34 32 31 32 31 31 33 33 34 35 34 35 35 35 34 33 34 33 36 37 37 36 38 39 38 38 38 37 35 38 34 36 39 39 39 39 39 39 38 42 43 36 37 29 -209 -193 -193 -209 -209 -209 -209 -193 -209 -209 -209 -209 -209 -209 -209 -209 -209 -209 -209 -209 -209 -209 -209 -209 374 376 378 -193 -209 -209 -193 -209 502 -193 45 44 50 45 45 45 45 43 42 43 43 38 41 41 -209 -193 -193 40 41 35 28 30 30 34 37 39 39 41 54 51 50 51 52 53 55 57 56 57 64 71 74 72 72 69 66 71 75 78 79 78 83 84 84 86 88 89 90 91 93 93 95 99 100 101 103 102 102 102 103 101 101 102 102 103 103 101 99 96 102 101 99 99 95 97 93 -209 -209 -193 66 61 60 -225 -225 -225 -225 -225 -225 -225 -225 -209 -193 96 99 97 97 98 98 97 98 93 97 -225 -225 -225 -225 -225 -225 -225 -225 -225 -225 -225 -225 -225 -225 -225 -225 -225 -225 -225 -225 -225 79 83 87 96 95 94 98 98 97 0 0 0 0 0
    0 0 0 0 0 0 0 0 0 0 0 0 0 0 0 0 0 0 0 0 0 0 0 0 0 0 0 0 0 0 0 0 0 0 0 0 0 0 0 0 0 0 0 0 0 0 0 0 0 0 0 0 0 0 0 0 0 0 0 0 0 0 0 0 0 0 0 0 0 38 41 40 39 39 44 42 42 41 42 41 41 42 42 33 37 38 36 36 37 36 35 36 35 35 33 32 34 31 31 33 31 30 32 33 34 33 32 35 34 33 33 32 33 33 37 38 37 38 39 40 39 39 39 38 35 38 35 36 39 39 39 39 39 40 38 42 44 35 34 28 -209 10 -193 -209 -209 -209 -209 -193 -209 -209 -209 -209 -209 -209 -209 -209 -193 -209 -193 -209 -209 -209 -209 -193 -193 -193 -193 -209 -209 -193 -209 -209 -209 -193 44 43 50 45 45 45 45 44 42 44 44 39 42 43 -193 -193 42 40 42 37 30 32 30 34 37 38 39 41 54 53 52 53 54 55 58 68 61 62 67 71 74 72 73 71 67 72 77 80 82 81 85 86 86 87 88 90 91 92 93 94 96 99 99 101 102 102 101 101 102 100 100 100 99 99 100 100 99 95 99 101 97 98 97 95 92 -193 70 64 59 59 -225 -225 -225 -225 -225 -225 -225 -225 -225 -209 -193 96 98 96 97 98 98 97 98 94 97 -225 -225 -225 -225 -225 -225 -225 -225 -225 -225 -225 -225 -225 -225 -225 -225 -225 -225 -225 -225 -225 -225 -225 -225 -193 98 97 100 99 99 0 0 0 0 0
    0 0 0 0 0 0 0 0 0 0 0 0 0 0 0 0 0 0 0 0 0 0 0 0 0 0 0 0 0 0 0 0 0 0 0 0 0 0 0 0 0 0 0 0 0 0 0 0 0 0 0 0 0 0 0 0 0 0 0 0 0 0 0 0 0 0 0 0 0 37 40 39 38 38 42 41 41 40 40 39 40 41 41 33 36 37 36 36 37 35 35 37 36 37 34 32 34 31 32 33 31 30 31 32 35 34 33 36 34 33 34 33 34 34 37 38 36 38 39 39 38 38 38 38 35 38 34 36 38 39 39 39 38 40 38 43 45 33 -209 -209 -209 13 -209 -209 -193 21 -193 23 24 26 28 27 28 29 30 30 32 -193 -193 -209 -209 -193 -193 -193 -193 -209 -209 -209 -193 -193 -209 39 -209 -193 43 42 49 45 45 45 45 45 43 45 45 41 44 46 47 43 44 44 46 -209 34 34 31 34 37 38 39 41 54 55 54 55 56 56 63 73 70 68 69 72 75 73 73 73 69 74 78 81 83 83 85 87 87 89 90 91 92 93 94 96 97 99 99 101 101 100 100 100 100 99 98 97 96 95 97 97 96 93 93 96 96 96 95 94 -193 68 69 -225 -225 -225 -225 -225 -225 -225 56 56 -209 -225 -225 -209 -209 97 98 96 97 97 97 96 97 93 96 -225 -225 -225 -225 -225 -225 -225 -225 -225 -225 -225 -225 -225 -225 -225 -225 -225 -225 -225 -225 -225 -225 -225 -225 -209 101 100 101 100 100 0 0 0 0 0
    0 0 0 0 0 0 0 0 0 0 0 0 0 0 0 0 0 0 0 0 0 0 0 0 0 0 0 0 0 0 0 0 0 0 0 0 0 0 0 0 0 0 0 0 0 0 0 0 0 0 0 0 0 0 0 0 0 0 0 0 0 0 0 0 0 0 0 0 0 37 39 39 39 39 42 41 41 40 40 39 39 40 39 34 34 36 33 35 36 34 36 37 37 38 37 36 38 34 36 34 32 30 31 32 34 33 32 34 33 31 32 31 32 33 36 37 36 37 39 39 38 38 37 36 34 37 34 35 38 38 39 39 38 39 37 43 46 -209 -209 -209 -209 -193 -209 -209 -193 22 -193 24 27 29 29 30 30 31 32 32 34 34 34 -209 -209 -193 46 -193 -193 -209 -209 -209 -193 43 37 38 41 49 42 42 49 45 45 45 46 46 44 46 47 42 50 54 54 48 49 -209 -209 -209 -209 31 30 34 36 36 38 41 54 58 56 57 58 58 69 77 74 73 72 74 76 75 75 74 71 75 79 81 83 82 85 87 87 89 90 91 92 93 95 96 96 98 98 101 101 100 99 98 98 97 95 94 93 92 93 94 95 94 92 96 97 97 96 95 -193 66 67 -225 -225 -225 -225 -225 -225 56 56 -193 -209 -177 -193 -209 -209 -193 -193 95 96 96 97 96 96 92 93 -225 95 94 -225 -225 -225 -225 -225 -225 -225 -225 -225 -225 -225 -225 -225 -225 -225 -225 -225 -225 -225 -225 -225 366 100 100 101 100 99 0 0 0 0 0
    0 0 0 0 0 0 0 0 0 0 0 0 0 0 0 0 0 0 0 0 0 0 0 0 0 0 0 0 0 0 0 0 0 0 0 0 0 0 0 0 0 0 0 0 0 0 0 0 0 0 0 0 0 0 0 0 0 0 0 0 0 0 0 0 0 0 0 0 0 36 38 38 37 38 40 39 39 39 39 38 38 39 39 35 34 36 33 35 35 34 36 37 36 37 36 38 40 35 36 33 31 29 31 31 33 33 32 33 32 31 31 30 32 33 35 36 36 38 39 39 39 38 38 37 36 37 34 35 38 38 38 39 38 39 37 43 47 -209 -193 -209 -209 10 -209 -209 21 23 -193 25 33 32 31 32 32 33 34 34 35 33 35 38 -209 42 45 46 -193 -209 -209 -209 -209 40 32 35 37 46 41 41 48 44 45 46 47 46 45 48 49 44 54 56 57 54 53 -209 -209 -209 -209 29 29 33 36 35 37 41 54 59 59 59 61 62 72 82 76 75 75 75 77 76 76 75 73 76 79 80 83 83 85 87 87 90 90 91 92 93 94 95 95 98 98 100 100 99 98 97 97 96 94 93 93 91 92 94 94 93 92 95 96 95 94 94 -193 -209 67 67 59 60 -225 58 60 -193 53 53 -209 -209 -209 -209 -209 -209 -209 -209 -209 -193 96 95 -209 -209 -193 -209 -193 92 -209 -193 -225 -225 -225 -225 -225 -225 -225 -225 -225 -225 -225 -225 -225 -225 -225 -225 -209 -209 -209 -209 98 98 99 98 98 0 0 0 0 0
    0 0 0 0 0 0 0 0 0 0 0 0 0 0 0 0 0 0 0 0 0 0 0 0 0 0 0 0 0 0 0 0 0 0 0 0 0 0 0 0 0 0 0 0 0 0 0 0 0 0 0 0 0 0 0 0 0 0 0 0 0 0 0 0 0 0 0 0 0 37 38 38 38 38 39 39 38 38 38 37 37 38 38 35 34 36 32 35 34 34 35 36 35 36 34 38 41 37 37 32 29 28 30 31 32 32 31 34 32 32 32 32 33 34 36 37 36 38 39 39 39 39 38 37 37 38 35 35 38 39 39 39 38 39 37 43 47 -193 -193 -193 -193 16 -209 -209 20 24 -209 27 37 34 33 35 34 35 35 35 35 33 36 39 -193 42 44 -193 -209 -209 -209 -209 -209 36 30 33 35 43 40 40 46 44 44 46 47 47 45 49 50 44 55 57 58 57 -193 -193 94 98 -209 -209 -193 -193 -209 32 35 39 52 59 59 59 61 63 73 86 79 77 78 78 79 77 77 76 73 78 78 80 84 84 86 88 88 91 91 92 93 93 94 95 96 98 98 101 101 100 98 98 98 96 94 93 92 92 92 94 95 94 94 99 100 100 98 99 94 -209 -209 70 68 63 57 60 67 -209 54 -209 -209 -209 -209 245 -209 -209 -209 -209 -209 -209 96 -209 -209 -209 -193 -209 -209 -209 -209 -209 -209 -209 -193 468 -209 75 -193 -209 -209 -209 -193 -193 -193 -193 -193 -209 129 -209 -209 -209 99 99 98 98 98 0 0 0 0 0
    0 0 0 0 0 0 0 0 0 0 0 0 0 0 0 0 0 0 0 0 0 0 0 0 0 0 0 0 0 0 0 0 0 0 0 0 0 0 0 0 0 0 0 0 0 0 0 0 0 0 0 0 0 0 0 0 0 0 0 0 0 0 0 0 0 0 0 0 0 38 38 38 38 38 39 38 38 37 37 37 36 37 37 35 34 36 31 34 33 32 34 34 33 35 32 38 42 39 41 35 30 28 30 31 32 32 32 35 33 34 34 34 35 35 37 36 36 37 38 39 38 38 38 37 38 38 35 36 38 39 39 39 38 39 37 44 47 -209 -209 -209 -209 -209 -209 -209 18 -193 -209 32 39 35 35 36 35 36 36 35 35 32 36 38 -193 42 43 -209 -209 -209 -209 -177 -193 34 30 32 35 41 38 40 45 43 43 45 46 46 44 48 50 44 55 58 59 -177 -177 88 91 97 101 -209 -193 -209 25 26 28 33 40 -193 -209 58 61 68 75 86 77 75 76 76 76 75 75 74 71 74 77 83 87 87 88 89 88 92 91 92 93 93 94 95 96 98 97 103 101 100 99 98 99 96 94 94 93 92 93 95 96 94 96 103 103 103 102 102 102 -209 -209 -209 -209 70 -209 -209 -209 85 -209 -209 -193 -209 -209 245 -193 -193 -209 -209 -209 -193 95 -193 -193 -193 -193 -209 -209 -209 48 55 -209 -209 -209 -209 -209 -193 -209 -193 -209 -209 -193 -193 -193 -209 131 -209 123 -209 -209 -209 -193 101 99 98 99 0 0 0 0 0
    0 0 0 0 0 0 0 0 0 0 0 0 0 0 0 0 0 0 0 0 0 0 0 0 0 0 0 0 0 0 0 0 0 0 0 0 0 0 0 0 0 0 0 0 0 0 0 0 0 0 0 0 0 0 0 0 0 0 0 0 0 0 0 0 0 0 0 0 0 38 38 38 38 38 38 37 37 37 37 37 35 37 37 35 34 36 31 34 33 32 33 33 32 33 30 36 40 35 39 30 29 27 29 30 32 32 33 35 34 35 35 35 36 36 37 36 35 37 37 38 37 37 37 36 37 38 35 36 38 38 38 38 38 38 36 43 47 -209 -209 -209 -209 -209 -209 -209 19 -209 -209 35 40 36 35 36 35 36 36 35 36 32 36 38 -193 42 44 -209 -209 -209 355 -177 -193 34 29 31 34 40 37 39 44 42 42 44 44 44 43 48 50 -193 58 66 70 71 77 86 91 96 98 103 107 116 -209 24 25 26 -209 190 -209 -209 71 74 77 81 -225 -225 73 73 72 71 71 72 73 72 83 87 89 89 89 92 91 94 92 93 93 94 94 96 95 98 98 104 101 97 95 94 97 96 94 93 92 92 93 95 96 94 95 104 104 105 104 104 105 -209 -209 -209 -209 70 -209 -209 -209 88 104 -209 -209 -193 -193 -193 -193 94 95 92 93 94 94 96 -193 -193 -193 -209 -209 -193 47 54 -209 -209 -209 -209 20 -193 -193 17 -209 -209 -193 -193 -193 -209 -193 -209 115 -193 -193 104 103 102 101 99 100 0 0 0 0 0
    0 0 0 0 0 0 0 0 0 0 0 0 0 0 0 0 0 0 0 0 0 0 0 0 0 0 0 0 0 0 0 0 0 0 0 0 0 0 0 0 0 0 0 0 0 0 0 0 0 0 0 0 0 0 0 0 0 0 0 0 0 0 0 0 0 0 0 0 0 38 37 38 37 38 38 37 36 36 36 36 35 36 37 35 33 35 30 34 33 32 33 34 32 33 30 37 39 32 36 29 29 28 29 30 33 32 34 36 34 35 35 36 36 36 37 37 36 37 37 38 37 37 37 36 37 38 35 35 37 38 38 38 38 38 36 43 47 -209 -209 -209 -209 -209 -209 -225 -225 28 -209 35 39 36 35 36 35 36 36 35 36 31 36 38 -209 42 44 -209 -209 -209 354 -177 -193 34 29 31 34 39 36 38 43 42 42 43 43 44 43 49 -193 -209 61 72 74 74 79 85 90 94 93 98 103 104 104 104 98 97 96 93 93 89 88 88 -225 -225 -225 -225 -225 -225 -225 -225 -225 72 78 77 78 81 87 88 88 90 88 91 90 92 93 93 93 94 94 96 97 104 98 95 93 93 96 96 93 93 92 93 94 96 97 95 94 105 106 108 106 106 108 -209 -209 -209 -209 -209 -209 -209 -209 93 105 -209 -193 99 96 97 96 95 95 93 93 95 95 96 94 94 95 94 -193 -193 47 53 -209 -209 -209 -209 21 18 17 17 -209 -193 -209 -193 -193 -209 -193 -209 110 104 104 104 103 103 102 101 101 0 0 0 0 0
    0 0 0 0 0 0 0 0 0 0 0 0 0 0 0 0 0 0 0 0 0 0 0 0 0 0 0 0 0 0 0 0 0 0 0 0 0 0 0 0 0 0 0 0 0 0 0 0 0 0 0 0 0 0 0 0 0 0 0 0 0 0 0 0 0 0 0 0 0 38 37 38 37 37 37 37 37 37 37 36 35 36 37 36 33 35 30 34 33 33 34 35 33 34 31 41 40 36 35 31 30 28 28 30 32 31 33 35 34 35 35 36 36 37 37 37 37 38 38 38 37 37 37 36 37 38 35 35 37 38 38 38 38 37 35 43 47 -225 -225 -225 -225 -225 -225 -225 -225 -225 -225 36 39 36 36 36 36 36 36 36 36 32 37 39 37 42 43 -225 -225 -209 354 -177 -177 33 29 31 33 39 36 38 42 42 42 44 43 -193 -193 -193 -209 -193 67 74 77 76 81 84 90 93 91 94 101 98 97 101 95 96 94 93 93 91 91 -225 -225 -225 -225 -225 -225 -225 -225 -225 -225 -225 -225 -225 -225 -225 86 90 89 90 91 93 91 93 94 94 92 95 95 96 98 104 99 94 93 93 95 97 93 93 92 93 94 96 97 96 93 105 106 108 108 108 111 -209 -209 -209 -209 -209 -209 -209 -209 99 106 -193 96 100 96 99 96 96 97 95 94 96 96 97 95 95 96 95 -193 46 47 52 55 -209 -209 -209 20 -177 13 -193 -193 -193 -193 129 131 -209 -209 104 107 104 104 105 104 103 103 102 102 0 0 0 0 0
    0 0 0 0 0 0 0 0 0 0 0 0 0 0 0 0 0 0 0 0 0 0 0 0 0 0 0 0 0 0 0 0 0 0 0 0 0 0 0 0 0 0 0 0 0 0 0 0 0 0 0 0 0 0 0 0 0 0 0 0 0 0 0 0 0 0 0 0 0 37 37 37 36 37 37 37 37 37 37 37 36 37 37 36 33 35 30 34 33 34 35 35 34 35 34 42 47 35 36 31 31 29 29 30 31 33 35 36 35 36 36 37 37 37 37 37 36 37 37 38 37 36 36 36 37 38 35 35 37 37 37 38 37 37 33 43 47 -225 -225 -225 -225 -225 -225 -225 -225 -225 -225 37 40 36 36 36 36 36 36 36 36 32 38 40 -225 -225 -225 -225 -225 -225 352 350 357 32 29 31 33 38 35 38 42 42 42 44 -193 -177 -177 -209 -209 -193 -209 77 83 80 83 85 91 93 90 89 100 93 92 100 94 95 93 93 93 92 92 92 88 -225 -225 -225 -225 -225 -225 -225 -225 -225 -225 -225 -225 -225 -225 -225 -225 -225 -225 -225 92 93 95 95 94 95 96 98 100 106 101 94 92 92 94 97 93 93 93 94 95 97 97 97 94 105 106 108 109 111 -209 -209 -209 -209 -193 128 -209 -209 -209 102 105 103 97 99 98 100 98 98 98 96 96 98 98 98 96 97 98 96 -193 -193 46 51 52 -209 -209 -193 -177 -177 12 15 -193 128 128 129 130 -193 -193 103 103 103 103 103 103 103 102 103 102 0 0 0 0 0
    0 0 0 0 0 0 0 0 0 0 0 0 0 0 0 0 0 0 0 0 0 0 0 0 0 0 0 0 0 0 0 0 0 0 0 0 0 0 0 0 0 0 0 0 0 0 0 0 0 0 0 0 0 0 0 0 0 0 0 0 0 0 0 0 0 0 0 0 0 38 37 36 37 38 38 38 38 38 38 38 37 37 38 37 34 36 31 35 35 -193 -193 34 33 34 33 43 -193 -209 -209 27 31 28 28 30 30 30 33 33 34 36 35 37 37 37 37 37 37 36 36 37 36 36 36 36 37 38 35 35 37 37 37 37 37 36 31 43 -225 -225 -225 -225 -225 -225 -225 -225 -225 -225 -225 -225 40 36 36 37 37 37 36 36 37 31 40 -225 -225 -225 -225 -225 -225 -225 -225 351 -193 33 30 32 34 39 36 38 42 41 -193 -193 -177 -177 -177 -177 -209 -209 -209 79 85 82 84 86 91 92 89 -225 -225 91 91 99 94 95 94 93 93 92 93 93 89 -225 -225 -225 -225 -225 -225 -225 -225 -225 -225 -225 -225 -225 -225 -225 -225 -225 -225 -225 -225 93 95 95 94 95 96 99 102 112 100 96 94 94 96 98 94 93 93 94 95 97 97 97 94 105 106 107 -209 -209 -209 -209 -193 -209 125 128 -209 -209 -209 101 101 101 96 99 98 100 98 98 98 97 97 99 98 98 97 98 98 97 -193 48 47 50 50 43 -209 -209 25 -177 -209 14 -193 -193 -193 127 129 -193 100 103 103 103 103 103 103 103 102 103 102 0 0 0 0 0
    0 0 0 0 0 0 0 0 0 0 0 0 0 0 0 0 0 0 0 0 0 0 0 0 0 0 0 0 0 0 0 0 0 0 0 0 0 0 0 0 0 0 0 0 0 0 0 0 0 0 0 0 0 0 0 0 0 0 0 0 0 0 0 0 0 0 0 0 0 38 37 37 36 36 37 36 36 35 37 37 35 36 39 38 34 37 32 37 36 -193 -193 -225 -225 -225 -225 -225 -225 -225 -225 -225 -225 -225 -225 32 30 28 35 37 36 39 37 38 38 37 38 37 36 36 36 37 35 36 37 37 38 39 36 36 37 38 38 38 38 36 31 42 -225 -225 -225 -225 -225 -225 -225 -225 -225 -225 -225 -225 40 35 36 37 37 37 36 35 36 29 41 -225 -225 -225 -225 -225 -225 -225 -225 -225 30 35 32 34 35 39 36 38 41 41 -193 -177 -177 -177 -177 -177 -209 -209 -209 81 85 83 85 85 90 91 -225 -225 -225 91 91 99 94 95 94 93 93 92 93 93 89 -225 -225 -225 -225 -225 -225 -225 -225 -225 -225 -225 -225 -225 -225 -225 -225 -225 -225 -225 -225 -225 91 93 94 97 100 101 105 -193 100 96 96 97 98 99 95 95 94 96 97 98 97 96 94 104 104 104 -209 -209 -209 -209 -209 -209 125 129 136 -209 -209 98 97 99 94 97 97 99 98 98 98 98 98 99 99 99 98 99 99 -193 -193 51 50 52 50 44 -209 -209 -193 -177 16 -193 -209 -209 -209 124 126 -193 102 103 103 103 103 103 103 103 103 103 102 0 0 0 0 0
    0 0 0 0 0 0 0 0 0 0 0 0 0 0 0 0 0 0 0 0 0 0 0 0 0 0 0 0 0 0 0 0 0 0 0 0 0 0 0 0 0 0 0 0 0 0 0 0 0 0 0 0 0 0 0 0 0 0 0 0 0 0 0 0 0 0 0 0 0 40 39 38 38 38 39 37 38 34 39 40 -225 -225 -225 -225 -225 -225 -225 -225 -225 -225 -225 -225 -225 -225 -225 -225 -225 -225 -225 -225 -225 -225 -225 -225 -225 28 36 39 -193 -193 40 41 39 39 40 -193 35 34 34 35 33 35 36 35 37 40 37 37 38 38 38 38 38 36 30 -225 -225 -225 -225 -225 -225 -225 -225 -225 -225 -225 -225 -225 -225 35 36 36 36 36 -193 -193 -193 29 -225 -225 -225 -225 -225 -225 -225 -225 -225 -225 32 36 34 35 35 39 36 37 40 -193 -177 -177 -177 -177 -177 -193 -209 -209 -209 81 85 82 84 84 90 90 -225 -225 -225 91 91 99 94 95 94 93 93 92 93 93 90 -225 -225 -225 -225 -225 122 120 -209 92 93 91 91 91 90 90 91 90 90 86 86 90 90 92 -225 -225 -225 -225 -225 -225 100 96 96 96 99 100 96 96 94 96 98 98 98 96 94 104 104 105 107 112 -209 -209 -193 -209 124 129 136 -209 92 97 96 98 94 97 98 99 98 98 98 99 98 100 99 99 98 100 100 -193 -193 53 51 52 49 44 -209 18 27 20 22 -193 -209 -209 -209 122 -177 123 -209 104 103 103 103 104 104 103 103 103 103 0 0 0 0 0
    0 0 0 0 0 0 0 0 0 0 0 0 0 0 0 0 0 0 0 0 0 0 0 0 0 0 0 0 0 0 0 0 0 0 0 0 0 0 0 0 0 0 0 0 0 0 0 0 0 0 0 0 0 0 0 0 0 0 0 0 0 0 0 0 0 0 0 0 0 -225 -225 -225 -225 -225 -225 -225 -225 -225 -225 -225 -225 -225 -225 -225 -225 -225 -225 -225 -225 -225 -225 -225 -225 -225 -225 -225 -225 -225 -225 -225 -225 -225 -225 -225 -225 -225 -225 -225 -193 -193 42 43 42 42 42 -209 -193 33 33 33 31 31 33 32 36 41 37 37 38 38 37 37 37 36 -225 -225 -225 -225 -225 -225 -225 -225 -225 -225 -225 -225 -225 -225 -225 -225 -225 35 36 36 -193 401 -225 -225 -225 -225 -225 -225 -225 -225 -225 -225 -225 -225 -225 37 35 36 35 39 34 37 39 -209 -177 -177 -177 -177 -177 -209 -209 -209 83 84 86 85 84 83 90 90 -225 -225 -225 91 91 99 94 95 94 93 93 92 94 94 91 99 -225 106 116 121 121 120 101 97 93 92 92 92 92 92 91 90 90 79 79 78 80 82 -225 -225 -225 -225 -225 -225 97 95 95 95 97 100 96 96 94 96 97 98 98 96 92 101 101 102 -193 -193 -209 -193 50 -209 122 128 136 -209 92 97 95 98 95 97 97 99 98 98 99 99 99 100 100 100 99 100 101 100 100 -193 50 -193 -193 -193 -209 -209 28 22 24 -193 -209 -209 -209 121 -193 119 103 103 102 102 103 104 104 103 103 104 104 0 0 0 0 0
    0 0 0 0 0 0 0 0 0 0 0 0 0 0 0 0 0 0 0 0 0 0 0 0 0 0 0 0 0 0 0 0 0 0 0 0 0 0 0 0 0 0 0 0 0 0 0 0 0 0 0 0 0 0 0 0 0 0 0 0 0 0 0 0 0 0 0 0 0 -225 -225 -225 -225 -225 -225 -225 -225 -225 -225 -225 -225 -225 -225 -225 -225 -225 -225 -225 -225 -225 -225 -225 -225 -225 -225 -225 -225 -225 -225 -225 -225 -225 -225 -225 -225 -225 -225 -225 -225 -225 -225 -225 -225 -225 -225 -225 -225 36 37 35 34 -225 -225 -225 -225 -225 -225 -225 -225 -225 -225 -225 -225 -225 -225 -225 -225 -225 -225 -225 -225 -225 -225 -225 -225 -225 -225 -225 -225 -225 -225 -225 -225 -225 -225 -225 -225 -225 -225 -225 -225 -225 -225 -225 -225 -225 -225 -225 -225 -225 -225 -225 -225 -225 32 36 -193 -193 -177 -177 -177 -209 -209 80 83 85 84 85 86 86 85 83 90 92 -225 -225 -225 91 91 99 94 95 94 93 94 93 94 95 92 101 98 106 114 118 117 117 101 98 95 93 92 92 92 91 90 90 89 82 83 83 84 85 86 -225 -225 -225 -225 -225 96 94 94 94 95 100 95 96 94 96 97 98 97 96 91 98 96 94 -209 -209 -209 46 50 -209 122 127 136 -209 92 97 95 98 95 97 97 99 98 99 99 99 99 101 100 100 99 100 101 99 99 -209 -209 -209 -209 -209 -209 -209 30 -209 -209 -209 117 116 121 120 118 116 102 103 102 102 103 103 104 104 104 105 105 0 0 0 0 0
    0 0 0 0 0 0 0 0 0 0 0 0 0 0 0 0 0 0 0 0 0 0 0 0 0 0 0 0 0 0 0 0 0 0 0 0 0 0 0 0 0 0 0 0 0 0 0 0 0 0 0 0 0 0 0 0 0 0 0 0 0 0 0 0 0 0 0 0 0 -225 -225 -225 -225 -225 -225 -225 -225 -225 -225 -225 -225 -225 -225 -225 -225 -225 -225 -225 -225 0 -256 -1 881 -225 -225 -225 -225 -225 -225 -225 -225 -225 -225 -225 -225 -225 -225 -225 -225 -225 -225 -225 -225 -225 -225 -225 -225 -225 -225 -225 -225 -225 -225 -225 -225 -225 -225 -225 -225 -225 -225 -225 -225 -225 -225 -225 -225 -225 -225 -225 -225 -225 -225 -225 -225 -225 -225 -225 -225 -225 -225 -225 -225 -225 -225 -225 -225 -225 -225 -225 -225 -225 -225 -225 -225 -225 -225 -225 -225 -225 -225 -225 -225 -225 -225 -225 -225 -225 -225 -209 71 -193 87 80 83 85 85 84 85 86 85 83 91 92 -225 -225 -225 91 91 99 94 96 94 94 95 94 96 97 93 103 102 107 111 110 110 110 100 99 96 94 93 92 91 90 89 88 88 82 84 86 85 88 88 88 89 -225 -225 -225 95 95 95 95 95 101 96 96 94 97 98 98 98 97 92 98 98 -209 -193 -209 -193 46 49 -209 122 128 135 -209 94 99 96 98 95 97 98 100 99 100 100 100 100 101 101 101 100 101 101 -193 99 -209 -209 -193 -209 -209 -193 -209 35 -193 -209 -209 -193 118 121 119 115 113 103 103 102 101 103 104 104 105 105 106 107 0 0 0 0 0
    0 0 0 0 0 0 0 0 0 0 0 0 0 0 0 0 0 0 0 0 0 0 0 0 0 0 0 0 0 0 0 0 0 0 0 0 0 0 0 0 0 0 0 0 0 0 0 0 0 0 0 0 0 0 0 0 0 0 0 0 0 0 0 0 0 0 0 0 0 -225 -225 -225 -225 -225 -225 -225 -225 -225 -225 -225 -225 -225 -225 -225 -225 -225 -225 -225 -225 -225 -225 -225 -225 -225 -225 -225 -225 -225 -225 -225 -225 -225 -225 -225 -225 -225 -225 -225 -225 -225 -225 -225 -225 -225 -225 -225 -225 -225 -225 -225 -225 -225 -225 -225 -225 -225 -225 -225 -225 -225 -225 -225 -225 -225 -225 -225 -225 -225 -225 -225 -225 -225 -225 -225 -225 -225 -225 -225 -225 -225 -225 -225 -225 -225 -225 -225 -225 -225 -225 -225 -225 -225 -225 -225 -225 -225 -225 -225 -225 -225 -225 -225 -225 -225 -225 -225 -225 -225 -225 70 71 72 84 78 81 83 83 83 84 86 85 83 91 93 -225 -225 -225 -225 91 99 94 96 94 95 96 96 98 99 97 104 104 107 108 108 109 108 101 101 97 94 93 92 91 91 89 88 88 84 85 86 87 88 89 89 90 90 -225 -225 94 94 94 94 95 100 96 96 94 97 98 98 98 97 92 97 97 -193 51 52 47 47 49 51 122 131 -177 -209 93 99 96 97 96 97 99 101 100 101 101 102 102 103 102 102 102 102 102 -193 -193 -193 -209 -177 -193 24 -177 30 36 40 -209 -209 120 -177 117 115 109 108 103 103 101 101 102 104 105 105 106 106 106 0 0 0 0 0
    0 0 0 0 0 0 0 0 0 0 0 0 0 0 0 0 0 0 0 0 0 0 0 0 0 0 0 0 0 0 0 0 0 0 0 0 0 0 0 0 0 0 0 0 0 0 0 0 0 0 0 0 0 0 0 0 0 0 0 0 0 0 0 0 0 0 0 0 0 -225 -225 -225 -225 -225 -225 -225 -225 -225 -225 -225 -225 -225 -225 -225 -225 -225 -225 -225 -225 -225 -225 -225 -225 -225 -225 -225 -225 -225 -225 -225 -225 -225 -225 -225 -225 -225 -225 -225 -225 -225 -225 -225 -225 -225 -225 -225 -225 -225 -225 -225 -225 -225 -225 -225 -225 -225 -225 -225 -225 -225 -225 -225 -225 -225 -225 -225 -225 -225 -225 -225 -225 -225 -225 -225 -225 -225 -225 -225 -225 -225 -225 -225 -225 -225 -225 -225 -225 -225 -225 -225 -225 -225 -225 -225 -225 -225 -225 -225 -225 -225 -225 -225 -225 -225 -225 -225 -225 -225 -225 69 70 72 81 77 79 81 82 81 84 86 85 83 91 93 -225 -225 -225 -225 -225 98 93 96 96 96 97 98 99 101 101 104 104 107 108 108 109 108 102 100 97 94 92 91 90 90 89 87 86 84 85 86 87 87 88 88 89 90 92 98 93 93 93 94 94 99 95 95 94 97 98 98 97 96 93 98 98 -193 48 50 47 47 48 51 -209 -209 -209 -209 91 97 95 97 96 97 99 100 100 101 101 103 102 103 103 103 103 104 -193 -193 -193 -193 -193 -193 -209 21 29 28 34 37 37 -177 -209 -177 -177 -177 108 107 103 103 100 98 101 102 104 105 105 106 107 0 0 0 0 0
    0 0 0 0 0 0 0 0 0 0 0 0 0 0 0 0 0 0 0 0 0 0 0 0 0 0 0 0 0 0 0 0 0 0 0 0 0 0 0 0 0 0 0 0 0 0 0 0 0 0 0 0 0 0 0 0 0 0 0 0 0 0 0 0 0 0 0 0 0 -225 -225 -225 -225 -225 -225 -225 -225 -225 -225 -225 -225 -225 -225 -225 -225 -225 -225 -225 -225 -225 -225 -225 -225 -225 -225 -225 -225 -225 -225 -225 -225 -225 -225 -225 -225 -225 -225 -225 -225 -225 -225 -225 -225 -225 -225 -225 -225 -225 -225 -225 -225 -225 -225 -225 -225 -225 -225 -225 -225 -225 -225 -225 -225 -225 -225 -225 -225 -225 -225 -225 -225 -225 -225 -225 -225 -225 -225 -225 -225 -225 -225 -225 -225 -225 -225 -225 -225 -225 -225 -225 -225 -225 -225 -225 -225 -225 -225 -225 -225 -225 -225 -225 -225 -225 -225 -225 -225 -225 -225 69 70 71 79 77 78 80 82 81 84 87 87 87 91 93 92 90 -225 -225 89 -225 -225 94 -225 100 102 102 103 104 104 106 106 106 107 107 108 107 101 99 96 93 91 91 90 90 88 87 85 84 84 85 86 87 87 88 89 90 91 95 92 92 92 92 93 97 94 95 93 97 97 97 96 96 92 98 99 -193 -193 -209 -193 -193 -193 -209 -209 -209 -209 -209 89 93 94 95 95 96 98 98 99 101 101 103 102 103 103 104 105 105 -193 -193 -193 0 -193 -193 -193 -209 -193 28 33 36 37 -177 -193 111 115 114 108 108 105 104 101 100 103 104 108 108 108 109 110 0 0 0 0 0
    0 0 0 0 0 0 0 0 0 0 0 0 0 0 0 0 0 0 0 0 0 0 0 0 0 0 0 0 0 0 0 0 0 0 0 0 0 0 0 0 0 0 0 0 0 0 0 0 0 0 0 0 0 0 0 0 0 0 0 0 0 0 0 0 0 0 0 0 0 -225 -225 -225 -225 -225 -225 -225 -225 -225 -225 -225 -225 -225 -225 -225 -225 -225 -225 -225 -225 -225 -225 -225 -225 -225 -225 -225 -225 -225 -225 -225 -225 -225 -225 -225 -225 -225 -225 -225 -225 -225 -225 -225 -225 -225 -225 -225 -225 -225 -225 -225 -225 -225 -225 -225 -225 -225 -225 -225 -225 -225 -225 -225 -225 -225 -225 -225 -225 -225 -225 -225 -225 -225 -225 -225 -225 -225 -225 -225 -225 -225 -225 -225 -225 -225 -225 -225 -225 -225 -225 -225 -225 -225 -225 -225 -225 -225 -225 -225 -225 -225 -225 -225 -225 -225 -225 -225 -225 -225 -225 70 70 71 79 78 79 81 82 82 85 87 87 88 90 92 91 91 90 90 90 90 -225 -225 -225 -225 102 104 104 104 104 104 104 105 105 107 105 104 101 99 95 93 92 90 90 90 89 88 86 84 84 85 85 86 87 87 89 89 91 94 92 92 92 91 92 96 94 94 93 96 97 97 96 95 92 98 99 -209 -209 -209 -209 -209 -209 -209 -209 -209 -209 -209 92 92 95 93 96 94 96 97 97 100 102 105 104 104 104 105 106 106 107 -193 -193 -193 -193 0 -193 12 -193 -209 33 36 -177 -209 111 110 114 112 108 108 107 107 105 105 107 108 110 111 112 112 112 0 0 0 0 0
    0 0 0 0 0 0 0 0 0 0 0 0 0 0 0 0 0 0 0 0 0 0 0 0 0 0 0 0 0 0 0 0 0 0 0 0 0 0 0 0 0 0 0 0 0 0 0 0 0 0 0 0 0 0 0 0 0 0 0 0 0 0 0 0 0 0 0 0 0 -225 -225 -225 -225 -225 -225 -225 -225 -225 -225 -225 -225 -225 -225 -225 -225 -225 -225 -225 -225 -225 -225 -225 -225 -225 -225 -225 -225 -225 -225 -225 -225 -225 -225 -225 -225 -225 -225 -225 -225 -225 -225 -225 -225 -225 -225 -225 -225 -225 -225 -225 -225 -225 -225 -225 -225 -225 -225 -225 -225 -225 -225 -225 -225 -225 -225 -225 -225 -225 -225 -225 -225 -225 -225 -225 -225 -225 -225 -225 -225 -225 -225 -225 -225 -225 -225 -225 -225 -225 -225 -225 -225 -225 -225 -225 -225 -225 -225 -225 -225 -225 -225 -225 -225 -225 -225 -225 -225 -225 -225 70 71 72 79 79 79 81 82 82 85 87 87 87 90 92 91 91 89 90 90 91 90 91 95 98 99 102 103 103 102 102 102 103 103 103 101 101 99 98 96 94 92 91 90 91 90 88 87 86 86 87 87 87 88 89 90 90 91 93 92 92 92 91 92 95 93 93 92 96 97 97 95 94 92 -193 98 -209 59 -193 57 -209 -209 -193 -209 64 -209 -209 -209 97 100 100 102 99 100 99 95 101 102 105 104 104 104 106 106 106 107 107 106 -193 -193 0 11 13 23 -177 -177 -177 -209 -209 109 109 113 -209 106 107 107 107 107 107 109 109 113 115 116 115 115 0 0 0 0 0</data></disparity>
</opencv_storage>
