<?xml version="1.0"?>
<opencv_storage>
<gps_time_stamp>304101</gps_time_stamp>
<gps_x>-1.2426722526550293e+001</gps_x>
<gps_y>1.0978390693664551e+001</gps_y>
<gps_z>-2.0406470298767090e+000</gps_z>
<image_time_stamp>294959</image_time_stamp>
<disparity type_id="opencv-matrix">
  <rows>90</rows>
  <cols>320</cols>
  <dt>s</dt>
  <data>
    0 0 0 0 0 0 0 0 0 0 0 0 0 0 0 0 0 0 0 0 0 0 0 0 0 0 0 0 0 0 0 0 0 0 0 0 0 0 0 0 0 0 0 0 0 0 0 0 0 0 0 0 0 0 0 0 0 0 0 0 0 0 0 0 0 0 0 0 0 0 0 0 0 0 0 0 0 0 0 0 0 0 0 0 0 0 0 0 0 0 0 0 0 0 0 0 0 0 0 0 0 0 0 0 0 0 0 0 0 0 0 0 0 0 0 0 0 0 0 0 0 0 0 0 0 0 0 0 0 0 0 0 0 0 0 0 0 0 0 0 0 0 0 0 0 0 0 0 0 0 0 0 0 0 0 0 0 0 0 0 0 0 0 0 0 0 0 0 0 0 0 0 0 0 0 0 0 0 0 0 0 0 0 0 0 0 0 0 0 0 0 0 0 0 0 0 0 0 0 0 0 0 0 0 0 0 0 0 0 0 0 0 0 0 0 0 0 0 0 0 0 0 0 0 0 0 0 0 0 0 0 0 0 0 0 0 0 0 0 0 0 0 0 0 0 0 0 0 0 0 0 0 0 0 0 0 0 0 0 0 0 0 0 0 0 0 0 0 0 0 0 0 0 0 0 0 0 0 0 0 0 0 0 0 0 0 0 0 0 0 0 0 0 0 0 0 0 0 0 0 0 0 0 0 0 0 0 0 0 0 0 0 0 0 0 0 0 0 0 0
    0 0 0 0 0 0 0 0 0 0 0 0 0 0 0 0 0 0 0 0 0 0 0 0 0 0 0 0 0 0 0 0 0 0 0 0 0 0 0 0 0 0 0 0 0 0 0 0 0 0 0 0 0 0 0 0 0 0 0 0 0 0 0 0 0 0 0 0 0 57 57 57 57 55 55 54 56 56 -225 -225 -225 -225 -225 -225 -225 -225 -225 -225 -193 43 44 44 45 45 45 45 45 45 45 45 45 45 44 44 44 43 41 39 37 35 -193 36 -209 -209 -209 -209 -209 -209 37 34 30 30 30 30 27 26 26 25 24 24 25 22 19 23 22 23 22 23 -193 -193 959 957 961 958 -209 -193 -193 -209 -209 -209 -209 -193 -193 -209 -209 -209 -209 -193 -209 -209 -209 -209 -209 -209 -209 -209 -193 -209 -209 -209 -209 -209 -209 -209 -209 -193 -209 -209 -209 -209 -193 -193 322 325 324 324 324 -193 -209 -209 -209 -193 -193 -193 -193 33 -209 -209 -209 -209 -209 -209 -209 -209 -209 -209 -209 -209 -209 -209 53 52 52 53 51 50 50 50 51 51 53 53 -209 -209 -209 -209 -193 72 76 74 76 74 73 74 74 74 74 78 77 76 77 79 83 80 83 85 83 87 87 88 89 -193 93 95 92 96 97 98 98 100 101 101 102 103 106 109 108 109 110 111 112 112 112 110 109 119 123 122 122 126 130 130 132 130 130 128 132 131 129 127 -193 124 128 129 130 125 132 137 139 140 -225 -225 144 144 145 145 148 149 150 151 152 154 156 158 159 0 0 0 0 0
    0 0 0 0 0 0 0 0 0 0 0 0 0 0 0 0 0 0 0 0 0 0 0 0 0 0 0 0 0 0 0 0 0 0 0 0 0 0 0 0 0 0 0 0 0 0 0 0 0 0 0 0 0 0 0 0 0 0 0 0 0 0 0 0 0 0 0 0 0 57 57 57 57 55 55 54 56 56 -225 -225 -225 -225 -225 -225 -225 -225 -225 -225 -193 43 44 44 45 45 45 45 45 45 45 45 45 44 44 43 44 42 40 37 36 35 36 35 34 33 32 33 -193 -209 37 34 30 30 30 30 27 26 26 25 24 25 25 23 19 23 22 24 22 23 23 -209 959 959 962 -209 -209 -193 -193 -209 -209 -209 -193 -209 -209 -209 -209 -209 -209 -209 -209 -209 -209 -209 -209 -209 -209 -177 -193 -209 -209 -209 -209 -209 -209 -209 -209 -193 -209 -209 -209 -209 -193 -193 322 325 324 324 323 -193 -209 -209 -209 -193 -209 -193 -193 -193 -209 -209 -209 -209 -209 -209 -209 -209 -209 -193 -209 -193 -209 56 53 52 53 53 51 50 50 51 52 52 53 53 -193 -209 -193 -209 67 72 74 73 75 74 73 74 74 74 74 78 77 76 77 79 83 80 82 85 83 88 88 89 90 -193 93 95 92 96 97 97 98 100 101 101 101 103 106 109 108 109 109 111 112 112 112 110 109 119 124 122 122 126 130 130 132 130 130 128 132 131 129 127 -193 124 129 130 130 126 132 137 139 140 142 143 144 144 145 146 148 149 150 152 153 155 156 158 159 0 0 0 0 0
    0 0 0 0 0 0 0 0 0 0 0 0 0 0 0 0 0 0 0 0 0 0 0 0 0 0 0 0 0 0 0 0 0 0 0 0 0 0 0 0 0 0 0 0 0 0 0 0 0 0 0 0 0 0 0 0 0 0 0 0 0 0 0 0 0 0 0 0 0 57 57 57 57 55 55 55 56 57 49 -225 -225 -225 -225 -225 -225 -225 -225 -225 -225 45 44 45 45 46 46 46 46 45 45 45 45 45 44 43 43 41 39 37 36 35 36 35 34 34 33 35 38 -193 37 35 31 30 31 30 28 26 26 26 25 25 25 23 20 22 23 23 22 23 23 -193 -209 959 962 -209 953 -193 -193 -193 -193 -209 -193 -209 -209 -209 -209 -209 -209 -209 -209 -209 -193 -209 -209 -209 -209 -177 -177 -193 -193 -209 -209 -209 -209 -209 -209 -209 -209 -209 -193 -193 -209 -209 322 325 324 323 322 319 323 320 320 -209 -209 -209 -193 -193 -209 -209 -209 -209 -209 -209 -209 -209 -209 -209 -209 -193 -209 54 52 51 51 52 49 49 49 50 51 51 52 52 -193 -209 -209 -209 66 72 73 73 74 74 73 73 73 74 74 78 77 77 77 80 83 80 83 85 83 88 88 88 89 -193 93 95 92 95 96 96 98 99 100 101 102 103 107 110 109 109 110 111 112 112 111 110 109 119 123 122 122 125 130 130 132 130 130 128 132 131 130 127 -193 124 129 130 131 128 133 -193 138 141 143 144 145 145 146 147 149 149 150 152 153 155 157 159 159 0 0 0 0 0
    0 0 0 0 0 0 0 0 0 0 0 0 0 0 0 0 0 0 0 0 0 0 0 0 0 0 0 0 0 0 0 0 0 0 0 0 0 0 0 0 0 0 0 0 0 0 0 0 0 0 0 0 0 0 0 0 0 0 0 0 0 0 0 0 0 0 0 0 0 58 58 58 58 56 56 56 57 57 50 -225 -225 -225 -225 -225 -225 -225 -225 -225 -225 47 45 45 46 46 47 46 46 45 45 45 45 44 44 43 43 41 39 37 36 35 36 35 35 35 33 35 38 39 37 35 32 31 31 31 28 27 26 26 25 25 25 23 21 22 23 24 22 23 24 -193 -209 960 -209 954 953 -209 -209 -193 -193 -209 -209 -209 -209 -209 -209 -209 -209 -209 -209 -209 -209 -209 -209 -209 -209 -193 -193 -193 -209 -209 -209 -209 -209 -209 -209 -209 -209 -209 -193 -193 -209 -209 321 -193 -193 324 -193 -193 323 322 322 -209 -209 -209 -209 -209 -209 -209 -209 -209 -209 -209 -209 -209 -209 -209 -209 -209 -209 51 47 48 49 50 48 49 49 50 51 51 51 52 48 -193 53 -209 65 72 72 72 72 74 73 73 73 73 74 79 77 77 76 80 83 80 83 85 83 87 88 88 89 90 92 94 92 95 96 96 97 99 100 100 102 103 107 111 109 110 110 111 112 112 111 109 108 119 123 122 122 125 131 131 133 130 130 128 132 131 130 127 -193 -193 130 130 131 129 133 -193 -193 -193 144 145 146 146 147 147 149 149 150 152 154 156 158 159 160 0 0 0 0 0
    0 0 0 0 0 0 0 0 0 0 0 0 0 0 0 0 0 0 0 0 0 0 0 0 0 0 0 0 0 0 0 0 0 0 0 0 0 0 0 0 0 0 0 0 0 0 0 0 0 0 0 0 0 0 0 0 0 0 0 0 0 0 0 0 0 0 0 0 0 58 58 58 58 56 57 57 57 57 52 46 46 -225 -225 -225 -225 -225 -225 -225 -225 -225 45 44 46 45 46 46 45 45 44 44 45 44 44 43 42 41 40 38 36 35 36 35 34 34 32 34 37 38 36 34 32 32 31 31 29 27 26 26 25 24 24 23 21 21 23 23 21 22 23 24 -209 -193 -193 -209 953 -209 -209 -209 -193 -209 -209 -209 -209 -209 -193 -193 -209 -209 -209 -209 -209 -209 -209 -193 -209 -193 -193 -193 -209 -209 -209 -209 -209 -209 -209 -209 -193 -209 -209 -193 -209 -209 -209 -209 -193 325 -193 322 324 324 -193 -209 -209 -209 -209 -209 -209 -209 -209 -193 -193 -193 -209 -209 -209 -209 -193 -209 -193 49 46 48 48 50 48 48 49 50 51 51 51 52 -193 -193 54 59 67 71 70 70 72 74 73 73 73 73 74 79 78 78 76 81 83 80 83 84 83 87 88 88 89 90 92 94 92 95 96 96 97 98 99 101 102 103 107 112 110 111 111 112 112 112 111 110 108 119 123 122 122 125 132 131 133 131 130 128 132 131 130 127 -193 125 130 131 131 130 133 -209 -193 -193 144 145 146 146 147 147 149 149 149 151 153 155 156 159 161 0 0 0 0 0
    0 0 0 0 0 0 0 0 0 0 0 0 0 0 0 0 0 0 0 0 0 0 0 0 0 0 0 0 0 0 0 0 0 0 0 0 0 0 0 0 0 0 0 0 0 0 0 0 0 0 0 0 0 0 0 0 0 0 0 0 0 0 0 0 0 0 0 0 0 59 59 59 59 57 57 57 57 57 52 47 47 46 47 49 47 -193 -225 -225 -225 -225 44 45 45 45 46 45 45 44 44 44 44 44 44 43 42 41 40 38 37 36 36 35 34 35 33 35 37 39 37 34 33 33 30 30 28 26 26 25 24 24 23 23 22 21 23 23 21 21 23 24 -193 -209 -193 -209 957 957 -209 -209 999 -193 -209 -209 -209 -209 -209 -193 -209 -209 -209 -209 -209 44 -193 -193 -193 -193 -209 -193 -209 -209 -209 -209 -209 -209 -209 -209 -193 -209 -209 -193 -209 -209 -209 -209 -193 325 -193 322 324 325 326 -209 -209 -209 -209 26 -209 -209 -209 -209 -193 -193 -209 -209 -209 -209 -209 -209 49 47 46 47 48 49 47 48 48 50 51 51 52 54 -193 58 59 64 67 69 68 68 70 74 73 73 73 74 74 80 78 78 76 81 83 80 83 84 83 88 88 88 89 90 92 93 92 94 96 96 97 98 100 101 102 103 108 113 110 111 111 112 112 111 111 110 108 118 122 122 122 124 132 131 133 130 130 128 132 132 130 127 -193 125 131 131 132 130 132 135 -209 -193 143 145 145 145 146 146 148 148 148 150 152 153 156 161 163 0 0 0 0 0
    0 0 0 0 0 0 0 0 0 0 0 0 0 0 0 0 0 0 0 0 0 0 0 0 0 0 0 0 0 0 0 0 0 0 0 0 0 0 0 0 0 0 0 0 0 0 0 0 0 0 0 0 0 0 0 0 0 0 0 0 0 0 0 0 0 0 0 0 0 59 60 59 59 57 58 57 57 57 52 48 47 46 47 48 46 47 43 -225 -225 -225 43 46 44 44 45 45 45 43 43 44 44 43 43 43 42 41 40 38 37 36 37 36 35 35 34 36 39 42 39 -193 -193 35 30 29 29 25 25 25 24 23 23 23 22 20 22 22 20 20 22 24 -193 -209 -193 -209 -209 -209 -209 -209 994 1008 -209 -209 -209 -209 -209 -209 -209 -209 -209 -209 -209 -209 -209 -209 -209 -209 -209 -193 -209 -209 -193 -177 -209 -209 -209 90 -209 -209 -209 -209 -209 -209 -209 -209 324 324 325 321 323 325 325 -209 -193 180 -209 -209 -209 -209 -209 -209 -193 -193 -209 -209 -209 -209 -209 -209 47 45 46 46 48 48 47 48 48 50 51 51 53 55 56 61 61 64 66 68 67 67 69 73 72 73 73 74 74 80 78 78 76 80 82 80 83 84 83 88 88 89 89 90 92 93 92 95 95 96 97 98 100 101 102 103 108 113 110 110 110 111 112 111 111 110 108 118 122 121 121 124 132 130 132 130 130 128 132 131 131 127 130 126 132 132 132 130 131 135 -209 140 143 146 146 146 146 146 147 147 146 149 152 154 159 163 164 0 0 0 0 0
    0 0 0 0 0 0 0 0 0 0 0 0 0 0 0 0 0 0 0 0 0 0 0 0 0 0 0 0 0 0 0 0 0 0 0 0 0 0 0 0 0 0 0 0 0 0 0 0 0 0 0 0 0 0 0 0 0 0 0 0 0 0 0 0 0 0 0 0 0 59 60 59 59 57 57 57 57 57 53 50 49 47 48 48 47 48 44 46 -225 -225 46 48 46 44 45 44 45 43 43 43 43 43 43 42 42 41 40 38 37 36 37 36 35 35 35 37 40 42 41 -193 -209 38 31 29 30 26 26 26 25 24 23 23 22 19 22 21 19 20 22 24 24 -209 -193 -177 -209 -209 -209 -209 990 999 -209 -209 -193 -209 -193 -209 -209 -209 -209 -209 -209 -209 -209 -209 -209 -209 -209 -209 -193 -209 93 -177 -177 -193 -193 90 -209 -209 -209 -209 -209 -209 -209 -209 -193 323 324 320 322 -193 -193 -209 180 182 -209 -209 -209 -209 -209 -193 -193 68 67 -209 -209 -209 -209 50 46 44 46 45 47 47 46 48 48 50 51 51 54 57 58 63 62 63 65 67 66 65 68 72 71 73 73 74 74 80 78 79 76 80 82 80 83 85 83 89 89 89 90 91 93 93 92 94 95 96 97 99 101 102 103 104 109 114 110 110 110 111 113 112 111 110 108 118 122 121 121 123 132 130 132 130 129 128 132 131 131 127 130 127 132 132 132 131 132 135 138 141 145 147 147 147 147 146 147 147 145 148 152 155 158 162 165 0 0 0 0 0
    0 0 0 0 0 0 0 0 0 0 0 0 0 0 0 0 0 0 0 0 0 0 0 0 0 0 0 0 0 0 0 0 0 0 0 0 0 0 0 0 0 0 0 0 0 0 0 0 0 0 0 0 0 0 0 0 0 0 0 0 0 0 0 0 0 0 0 0 0 59 59 58 58 56 57 57 56 56 52 50 49 47 48 48 47 49 45 47 -225 -225 -225 52 49 44 44 44 44 42 42 43 43 42 42 42 42 41 40 38 37 36 37 36 35 35 34 36 39 41 40 37 -193 39 32 29 31 26 26 26 25 24 23 23 22 19 22 21 18 19 19 23 23 -193 -193 896 900 -209 -209 -209 989 997 -177 -177 -193 -193 170 173 -209 -209 -209 -209 -209 -209 -209 -209 -209 -209 -209 -209 -209 -209 90 -177 -177 -193 -193 90 -193 -209 -209 -209 -209 -209 -209 -209 -193 322 324 323 322 323 -193 -209 -209 -209 -193 -193 22 -209 -209 -193 67 66 65 66 -209 -209 -193 51 46 45 46 45 47 47 47 49 49 51 52 52 56 59 59 65 62 63 64 66 65 65 68 71 71 73 73 73 74 80 78 78 76 79 81 81 83 84 83 88 89 89 89 90 92 92 92 94 94 96 98 100 101 102 103 104 108 114 109 110 111 111 113 112 112 110 108 118 122 121 121 123 132 129 132 130 129 128 132 131 131 127 131 -193 132 132 132 131 132 135 138 142 145 147 147 147 147 146 147 146 144 148 152 155 157 162 165 0 0 0 0 0
    0 0 0 0 0 0 0 0 0 0 0 0 0 0 0 0 0 0 0 0 0 0 0 0 0 0 0 0 0 0 0 0 0 0 0 0 0 0 0 0 0 0 0 0 0 0 0 0 0 0 0 0 0 0 0 0 0 0 0 0 0 0 0 0 0 0 0 0 0 58 59 58 58 56 56 56 55 56 52 50 49 47 48 47 46 48 45 47 -225 -225 -225 54 50 45 43 43 42 41 42 42 42 42 42 42 41 41 40 38 37 36 37 36 35 35 34 35 37 38 38 36 41 41 33 29 33 26 26 26 25 24 23 23 22 19 22 21 18 19 18 21 22 20 -209 896 901 -209 -209 -209 988 997 -177 -177 -193 169 171 174 -209 -209 -209 -209 -209 14 -193 10 -193 -209 -209 -209 -209 -193 88 -177 -209 -209 -209 -193 -193 -177 -209 -209 -209 -209 -193 -209 -209 322 325 323 322 323 -193 -209 -209 -209 -193 18 19 -193 18 -193 -193 63 62 -193 -209 -209 49 47 44 45 46 45 46 47 47 49 49 51 51 53 -209 59 59 65 62 63 64 66 65 65 68 71 71 73 73 74 74 80 78 78 77 79 82 82 84 85 83 89 89 89 90 91 92 92 93 94 95 96 99 100 101 102 103 104 108 113 109 110 111 112 114 113 112 110 108 118 122 121 121 123 131 129 131 130 129 127 131 131 131 126 131 128 132 133 133 132 134 137 140 143 145 146 147 147 146 146 146 146 147 150 153 155 159 163 165 0 0 0 0 0
    0 0 0 0 0 0 0 0 0 0 0 0 0 0 0 0 0 0 0 0 0 0 0 0 0 0 0 0 0 0 0 0 0 0 0 0 0 0 0 0 0 0 0 0 0 0 0 0 0 0 0 0 0 0 0 0 0 0 0 0 0 0 0 0 0 0 0 0 0 59 59 58 58 56 56 56 55 55 52 50 49 47 48 47 46 48 45 47 49 -225 -225 55 51 45 44 43 42 41 42 42 42 42 42 42 41 41 40 39 38 37 37 36 35 35 34 34 36 36 36 34 38 42 34 28 35 26 26 26 25 24 23 23 22 20 22 21 18 19 18 21 22 21 -193 -177 -177 -209 -209 -209 987 994 995 -177 -193 -209 170 173 -209 -209 -209 -209 -209 14 -193 10 -209 -209 -209 -209 -193 -209 89 90 -209 -209 -209 -209 -193 -209 -209 -209 -209 -209 -177 -209 -209 -177 325 324 322 322 -193 -209 -209 -209 -193 18 19 22 19 17 -209 -209 -193 -209 -209 -209 46 45 43 44 45 44 45 46 46 48 49 50 51 53 -209 59 59 66 62 63 64 66 65 65 67 70 70 73 73 73 74 80 78 78 77 79 83 83 84 85 84 89 89 89 90 91 92 92 93 94 95 97 100 101 102 103 104 105 108 113 110 110 111 112 114 113 112 111 107 118 122 121 121 123 131 129 131 129 129 127 131 131 131 126 131 128 133 133 133 133 135 138 140 143 144 145 146 146 145 145 147 148 149 151 154 158 161 163 165 0 0 0 0 0
    0 0 0 0 0 0 0 0 0 0 0 0 0 0 0 0 0 0 0 0 0 0 0 0 0 0 0 0 0 0 0 0 0 0 0 0 0 0 0 0 0 0 0 0 0 0 0 0 0 0 0 0 0 0 0 0 0 0 0 0 0 0 0 0 0 0 0 0 0 59 59 58 58 55 56 56 55 55 52 50 50 48 48 47 46 48 45 47 49 -225 -225 55 52 44 43 43 41 41 41 41 41 41 42 41 41 41 41 40 38 38 38 37 36 35 33 33 34 34 34 32 33 39 34 28 36 27 25 26 25 24 23 23 22 20 21 21 18 19 17 20 22 21 -193 -209 -177 -193 -209 -209 985 988 -193 -177 -177 -209 -209 -209 -209 -209 0 -209 10 13 -193 11 -193 -209 -209 -209 -209 -193 -193 -209 -209 -209 -209 -209 -209 -209 -209 -209 -209 -209 -209 -209 -209 324 325 -193 -193 -193 -209 -209 -209 -209 -193 -209 20 -209 19 -209 -209 -209 59 -209 -209 -209 45 43 43 43 44 44 44 45 47 48 49 50 51 53 56 59 58 66 62 63 64 66 65 65 67 70 70 73 73 73 74 80 78 78 77 78 82 83 84 85 83 89 89 89 90 91 92 92 94 95 96 98 100 101 103 104 105 105 108 113 110 111 112 111 114 113 113 111 108 118 122 121 121 122 130 128 130 129 129 127 131 131 131 126 131 129 134 134 134 135 136 139 141 143 144 145 145 146 145 146 149 151 152 154 157 160 163 164 165 0 0 0 0 0
    0 0 0 0 0 0 0 0 0 0 0 0 0 0 0 0 0 0 0 0 0 0 0 0 0 0 0 0 0 0 0 0 0 0 0 0 0 0 0 0 0 0 0 0 0 0 0 0 0 0 0 0 0 0 0 0 0 0 0 0 0 0 0 0 0 0 0 0 0 59 58 57 57 55 56 56 55 55 52 51 50 48 49 48 47 48 45 47 49 -225 -225 56 53 45 43 42 41 40 41 41 41 41 41 41 41 41 41 39 38 38 37 37 36 35 33 33 33 33 33 31 32 35 32 28 35 27 25 26 24 24 23 22 22 20 21 21 17 19 16 18 21 20 -193 -209 901 -209 -177 -193 983 -177 -177 -177 -193 -209 -193 -209 -209 -209 -193 0 11 13 9 12 -193 -193 -193 -209 -209 -193 -209 -209 -193 -193 51 -209 -209 -209 -209 -209 -209 -209 -209 -209 -209 -193 323 -193 -193 -209 -209 -209 -193 -193 20 -193 20 -209 22 -209 -193 -209 -209 -193 -209 45 44 43 44 44 45 44 45 46 47 48 49 50 52 54 57 58 59 66 62 63 64 65 66 66 67 69 69 73 73 73 74 80 78 78 78 78 83 84 85 85 85 89 90 90 91 92 92 92 94 94 96 98 99 101 103 104 105 105 108 113 110 111 111 111 114 113 113 111 108 118 122 121 121 122 130 127 130 129 129 127 131 131 131 126 131 129 134 134 134 135 137 139 142 144 145 146 147 148 148 149 151 154 155 157 159 161 163 164 165 0 0 0 0 0
    0 0 0 0 0 0 0 0 0 0 0 0 0 0 0 0 0 0 0 0 0 0 0 0 0 0 0 0 0 0 0 0 0 0 0 0 0 0 0 0 0 0 0 0 0 0 0 0 0 0 0 0 0 0 0 0 0 0 0 0 0 0 0 0 0 0 0 0 0 59 58 57 57 55 56 55 54 55 52 51 50 48 49 48 47 49 45 47 49 -225 57 57 53 44 43 41 40 40 41 41 41 41 41 41 41 41 41 39 38 38 37 37 36 35 33 32 33 32 32 31 30 30 29 28 34 28 26 26 24 24 23 22 22 20 21 21 18 20 18 18 21 20 -193 -193 -209 -209 921 -209 -177 -177 -177 -193 -177 -177 -209 -209 -209 -193 0 10 12 13 10 12 -193 14 -209 -209 -209 -193 -209 -209 -193 47 50 -193 54 -193 -209 -209 -209 -209 -209 -209 -209 -209 -193 -209 -193 -209 -209 -209 -193 -193 20 -193 22 26 25 27 25 -209 -209 -193 50 45 43 43 44 44 45 44 45 46 47 48 49 50 52 54 58 60 60 66 62 63 64 65 66 65 66 69 69 73 73 73 74 79 78 78 79 78 83 84 84 85 83 89 90 90 91 92 92 92 93 94 96 98 99 101 104 104 105 105 108 113 110 111 111 111 114 114 113 112 109 118 122 121 121 122 129 127 129 128 129 126 130 131 130 126 132 129 134 135 135 136 138 141 144 145 146 146 148 149 150 151 153 156 158 159 160 162 163 164 164 0 0 0 0 0
    0 0 0 0 0 0 0 0 0 0 0 0 0 0 0 0 0 0 0 0 0 0 0 0 0 0 0 0 0 0 0 0 0 0 0 0 0 0 0 0 0 0 0 0 0 0 0 0 0 0 0 0 0 0 0 0 0 0 0 0 0 0 0 0 0 0 0 0 0 58 58 57 56 55 55 55 54 55 52 51 51 49 49 48 48 49 45 47 47 -225 -225 -225 53 45 43 40 40 40 40 41 41 41 41 40 41 41 41 39 38 38 37 37 36 35 33 32 32 31 31 31 29 29 29 28 33 29 27 27 24 24 23 22 22 21 21 21 18 21 18 19 21 21 20 17 -209 -209 -177 -193 -193 982 980 -177 -193 -193 -193 -209 -209 -193 0 8 10 11 9 12 14 15 -193 -209 -209 -209 -209 44 45 46 47 49 50 51 -193 -209 -209 -209 -209 -209 -209 -209 -209 -209 -209 -193 -209 -209 -209 -209 -193 -209 -193 -209 26 37 -209 -209 -193 59 53 46 44 43 44 44 44 44 44 45 47 48 49 51 53 55 58 60 59 66 62 62 63 65 65 65 66 68 69 73 73 73 74 79 78 79 80 78 82 84 84 85 82 88 88 89 90 91 91 92 92 94 96 97 99 101 104 104 105 105 108 113 110 111 111 111 115 114 114 112 109 118 123 122 122 122 129 127 129 128 128 126 130 130 130 126 132 129 134 135 136 137 138 141 144 145 146 146 148 149 151 152 155 157 159 160 161 162 163 163 164 0 0 0 0 0
    0 0 0 0 0 0 0 0 0 0 0 0 0 0 0 0 0 0 0 0 0 0 0 0 0 0 0 0 0 0 0 0 0 0 0 0 0 0 0 0 0 0 0 0 0 0 0 0 0 0 0 0 0 0 0 0 0 0 0 0 0 0 0 0 0 0 0 0 0 58 57 56 56 55 55 54 54 54 52 51 51 49 49 48 48 49 45 46 47 -225 -225 -225 -193 44 43 40 39 39 39 40 40 40 40 39 40 40 40 39 38 38 37 36 35 35 33 32 32 31 30 30 29 29 29 28 33 30 27 27 23 24 23 22 22 21 21 21 18 21 18 18 19 20 20 17 -209 -209 -177 -193 -193 980 978 980 -177 -209 -209 -193 -209 -193 -193 -209 13 14 -209 14 18 18 -209 -209 -209 -209 -209 44 46 45 46 48 50 -209 -209 -209 -209 -209 -209 -209 -209 -209 -209 -209 -209 -209 -209 -209 -209 -209 -209 -209 -209 -209 28 35 -209 -209 -193 -209 48 44 43 43 43 43 43 43 44 45 48 48 50 52 54 57 60 61 60 66 62 62 63 65 65 65 65 68 70 73 73 73 74 79 79 80 80 78 82 84 84 84 82 87 87 88 89 90 90 90 92 94 96 97 99 102 104 104 105 105 108 113 110 111 111 110 115 114 114 113 109 118 124 122 122 122 129 127 129 128 128 126 130 130 130 125 132 129 135 136 136 137 139 141 144 144 146 146 148 150 151 153 156 158 160 160 161 162 163 163 164 0 0 0 0 0
    0 0 0 0 0 0 0 0 0 0 0 0 0 0 0 0 0 0 0 0 0 0 0 0 0 0 0 0 0 0 0 0 0 0 0 0 0 0 0 0 0 0 0 0 0 0 0 0 0 0 0 0 0 0 0 0 0 0 0 0 0 0 0 0 0 0 0 0 0 57 57 56 56 55 55 54 54 54 52 51 51 49 50 48 48 49 44 46 46 47 55 55 47 41 43 40 40 39 39 39 40 39 39 39 39 39 39 39 38 38 37 36 35 35 33 32 32 31 31 30 29 29 28 28 30 28 26 26 23 23 23 23 22 22 21 22 19 21 18 17 17 19 19 17 -209 -209 -209 -193 -177 -177 -177 -177 -177 -209 -209 -193 -209 -209 -209 -209 -209 -209 13 18 -209 -193 -209 -209 124 -193 -193 -193 46 46 47 50 51 -209 -209 -193 -209 -209 -209 -209 -209 -209 -209 -209 -209 -209 -209 -209 -209 -209 -209 -209 -193 -209 -209 28 -193 37 52 46 44 42 41 42 43 43 43 43 44 45 48 49 51 53 55 58 59 61 60 65 62 62 63 65 64 65 65 68 70 73 73 73 73 79 79 80 80 78 82 84 83 84 81 86 87 88 88 89 89 90 91 92 94 96 99 101 103 104 105 105 108 113 110 110 111 110 115 114 114 113 109 119 124 122 122 122 129 127 129 128 128 126 130 130 130 125 132 129 135 136 137 137 139 141 143 145 147 147 149 150 151 154 157 159 160 160 161 162 163 163 164 0 0 0 0 0
    0 0 0 0 0 0 0 0 0 0 0 0 0 0 0 0 0 0 0 0 0 0 0 0 0 0 0 0 0 0 0 0 0 0 0 0 0 0 0 0 0 0 0 0 0 0 0 0 0 0 0 0 0 0 0 0 0 0 0 0 0 0 0 0 0 0 0 0 0 57 57 56 56 55 55 54 54 55 52 52 51 50 50 48 49 48 44 46 45 45 48 46 43 41 43 40 39 39 38 39 40 39 40 39 39 39 39 39 38 38 37 36 35 34 33 32 32 31 30 30 29 29 28 28 29 28 26 26 23 24 24 23 23 22 22 22 20 22 19 17 16 18 18 17 -193 -209 -209 -209 -193 -177 -177 -177 -177 -209 -209 -209 -209 -209 -193 0 -209 -193 -209 -209 -209 -209 -193 -209 -193 -193 -193 -209 -193 -193 -193 -209 -209 252 -193 250 246 -193 -209 -193 -193 -209 -209 -209 -209 -209 -209 -209 -209 -209 -209 -209 -193 -209 -209 26 27 36 44 41 42 41 41 41 42 42 42 42 44 45 48 50 52 54 56 58 59 61 60 64 62 62 63 64 64 65 65 68 69 73 73 73 73 78 78 79 80 77 82 83 84 84 82 86 87 88 89 89 89 90 91 92 94 95 99 101 103 104 105 106 108 113 111 111 111 110 115 114 114 113 109 119 124 122 122 122 129 127 129 128 128 126 130 130 130 125 132 129 135 136 137 138 139 141 144 146 148 148 150 150 152 155 157 158 160 160 160 162 163 164 163 0 0 0 0 0
    0 0 0 0 0 0 0 0 0 0 0 0 0 0 0 0 0 0 0 0 0 0 0 0 0 0 0 0 0 0 0 0 0 0 0 0 0 0 0 0 0 0 0 0 0 0 0 0 0 0 0 0 0 0 0 0 0 0 0 0 0 0 0 0 0 0 0 0 0 56 56 56 56 55 55 54 54 54 52 52 51 50 50 48 49 48 44 46 45 44 44 43 42 41 42 39 38 37 38 39 39 39 39 39 39 39 39 39 39 38 37 36 35 34 33 31 31 31 30 30 29 28 28 28 28 28 26 25 23 24 24 23 23 22 22 22 20 22 19 17 16 19 20 20 15 -209 -209 -209 -209 -209 -177 -209 -209 -209 -209 -209 -209 -209 -193 0 -193 -193 -209 -209 -193 -193 -193 -209 -209 -209 -209 -209 -209 -209 -209 -209 -209 250 -193 249 245 244 245 244 244 -209 389 -209 -209 -193 -193 -209 -209 -209 -209 -193 -209 -209 -209 25 -209 40 46 42 42 41 42 42 42 41 42 43 44 46 49 50 52 54 56 58 59 60 60 64 61 62 63 64 65 64 64 68 69 72 72 72 72 77 77 79 79 77 81 83 83 84 82 86 86 87 88 88 89 90 90 91 93 94 97 100 103 104 105 106 108 113 111 111 111 110 115 114 114 113 109 119 124 122 122 122 129 127 129 128 128 126 130 130 130 125 132 130 136 136 137 137 139 142 145 147 150 150 151 152 153 156 157 158 159 160 160 162 164 164 164 0 0 0 0 0
    0 0 0 0 0 0 0 0 0 0 0 0 0 0 0 0 0 0 0 0 0 0 0 0 0 0 0 0 0 0 0 0 0 0 0 0 0 0 0 0 0 0 0 0 0 0 0 0 0 0 0 0 0 0 0 0 0 0 0 0 0 0 0 0 0 0 0 0 0 56 56 56 56 55 55 54 54 54 52 52 51 50 50 48 49 49 44 45 44 44 43 42 42 41 42 39 38 35 37 39 39 39 39 39 39 39 39 39 38 38 37 36 35 34 32 32 31 31 30 29 29 28 28 28 28 28 26 26 24 24 25 24 23 22 22 23 21 23 20 18 16 18 22 21 20 -209 -209 -209 -209 -209 -209 -209 -209 -209 -177 -209 -209 -209 -209 0 0 -193 -209 -209 -209 -209 -193 -209 -209 -209 -209 -209 -209 -193 -209 -209 -209 -209 -193 -209 242 -193 -193 241 242 -193 -193 -193 -193 -209 -193 -209 -209 -209 -209 -209 -209 -209 -209 25 32 46 50 44 42 41 41 42 42 42 42 43 44 46 50 51 53 55 56 58 59 61 60 63 61 61 62 64 65 64 64 68 69 72 72 71 72 76 77 78 79 77 80 83 83 83 82 85 85 86 87 88 89 89 90 91 92 94 96 99 103 104 105 106 108 113 110 110 111 110 114 114 114 113 109 119 125 123 123 123 129 127 129 128 128 125 130 130 130 124 133 130 136 136 137 137 140 143 147 149 152 152 153 154 154 156 157 158 159 159 160 162 163 164 164 0 0 0 0 0
    0 0 0 0 0 0 0 0 0 0 0 0 0 0 0 0 0 0 0 0 0 0 0 0 0 0 0 0 0 0 0 0 0 0 0 0 0 0 0 0 0 0 0 0 0 0 0 0 0 0 0 0 0 0 0 0 0 0 0 0 0 0 0 0 0 0 0 0 0 56 56 56 56 55 55 54 54 54 52 52 51 50 50 48 49 48 44 45 45 45 43 43 44 42 42 39 38 36 37 39 39 39 40 39 39 39 39 38 38 37 37 35 35 35 33 32 32 31 30 29 29 28 27 28 27 27 26 26 24 25 25 25 24 23 23 23 22 24 21 18 17 18 22 21 21 19 -209 -209 -209 -209 -209 -209 -193 -209 -177 -209 -209 -209 -209 -209 -193 -193 -209 -209 -209 -209 -193 -193 -209 -209 -209 -209 -209 -209 -209 -209 -209 -209 -209 -209 -209 -209 -193 239 240 -193 -193 -193 241 -193 -209 -209 -209 -209 -209 -209 -209 -209 -209 -193 -209 49 48 44 42 41 40 41 41 41 41 42 44 45 49 50 53 56 57 58 59 61 60 63 62 62 62 64 65 64 64 68 68 71 71 71 71 74 76 78 78 76 80 83 83 84 82 85 85 86 87 88 89 89 90 90 92 93 95 98 102 103 105 106 108 113 110 110 111 110 114 114 114 113 109 119 126 123 123 123 129 127 129 128 128 125 130 130 130 124 133 130 135 135 136 137 139 142 147 150 151 152 152 153 154 155 156 157 158 159 159 162 162 163 164 0 0 0 0 0
    0 0 0 0 0 0 0 0 0 0 0 0 0 0 0 0 0 0 0 0 0 0 0 0 0 0 0 0 0 0 0 0 0 0 0 0 0 0 0 0 0 0 0 0 0 0 0 0 0 0 0 0 0 0 0 0 0 0 0 0 0 0 0 0 0 0 0 0 0 56 56 56 56 55 55 54 54 54 52 52 51 50 50 48 49 48 44 45 45 44 43 43 44 43 42 39 37 35 36 38 39 39 39 39 39 39 38 38 38 37 37 36 36 35 33 33 32 31 30 29 28 28 27 27 26 27 26 25 24 25 26 26 25 24 24 24 23 24 21 19 16 17 20 21 21 19 -209 -209 -209 -209 -209 -209 -209 -209 -177 -209 -209 -209 -209 -209 -209 -193 -209 -209 -209 -209 38 -193 -193 -209 -209 -209 -209 -209 -209 -209 -209 -209 -209 -209 -209 -209 -193 -193 239 -193 -193 -209 241 245 -209 -209 -209 -209 -209 -209 -209 -209 -209 27 40 45 44 42 41 42 41 42 41 41 41 42 44 46 49 51 54 56 56 58 59 61 60 63 62 62 62 64 65 65 63 68 69 71 71 71 71 74 76 77 78 76 79 83 83 83 82 84 84 85 87 88 89 90 90 91 92 93 94 98 102 103 105 106 108 113 110 110 111 109 114 113 113 113 109 119 126 123 123 123 129 127 129 128 128 125 130 130 130 124 133 131 135 136 138 138 140 143 147 149 150 151 151 152 153 154 155 156 157 158 160 161 162 164 164 0 0 0 0 0
    0 0 0 0 0 0 0 0 0 0 0 0 0 0 0 0 0 0 0 0 0 0 0 0 0 0 0 0 0 0 0 0 0 0 0 0 0 0 0 0 0 0 0 0 0 0 0 0 0 0 0 0 0 0 0 0 0 0 0 0 0 0 0 0 0 0 0 0 0 56 56 56 55 55 55 53 54 54 52 52 51 51 50 48 49 48 44 46 45 45 44 44 44 43 42 39 37 35 36 37 37 37 39 38 39 39 38 38 38 37 37 36 36 35 34 33 31 31 30 29 28 27 27 27 26 26 26 25 25 26 26 27 26 25 24 24 24 24 21 19 16 16 19 21 22 20 -209 -193 -209 -209 -209 -177 -193 -209 -209 -209 -209 -209 -209 -209 -209 -193 -209 -209 35 -209 36 -193 -193 -209 -209 -209 -209 -209 -209 -209 -193 -209 -193 -209 -209 -209 -209 -209 237 241 -193 -193 -193 244 -209 -209 -209 -209 -209 -209 -209 -209 -209 -209 -193 44 43 41 41 40 40 41 40 40 41 43 44 47 49 52 55 57 57 58 59 62 60 63 62 62 63 65 66 65 64 68 69 71 71 71 71 74 76 78 78 76 79 83 83 83 83 84 84 86 87 88 89 90 91 91 92 93 94 98 102 103 105 105 107 113 111 110 111 110 114 114 114 113 109 119 126 124 124 124 129 127 129 129 128 125 130 130 130 125 134 -193 -193 136 137 138 140 142 148 150 150 151 151 152 153 154 155 156 157 158 160 161 162 163 163 0 0 0 0 0
    0 0 0 0 0 0 0 0 0 0 0 0 0 0 0 0 0 0 0 0 0 0 0 0 0 0 0 0 0 0 0 0 0 0 0 0 0 0 0 0 0 0 0 0 0 0 0 0 0 0 0 0 0 0 0 0 0 0 0 0 0 0 0 0 0 0 0 0 0 56 56 56 55 55 55 54 54 54 52 52 51 51 50 48 49 48 44 46 45 45 44 44 45 44 42 41 38 38 38 37 37 37 38 38 39 39 38 38 37 37 37 36 36 35 33 33 31 31 30 28 28 27 27 27 27 26 26 26 26 27 27 28 27 26 25 25 25 24 22 19 17 16 18 21 22 21 -209 -209 -209 -209 -209 -209 -209 -209 -209 -209 -193 55 -209 -209 -209 -209 -209 -209 34 -193 35 -209 -193 -209 -209 -209 -209 -209 -209 -209 -193 -193 -193 -209 -209 -209 -209 -209 237 -193 -193 -209 -193 -209 -209 -209 -209 -209 -193 -209 -209 -209 -209 -209 -209 44 42 40 39 39 39 40 40 40 41 43 46 48 50 53 55 56 57 58 59 62 60 63 62 62 64 66 66 66 64 69 70 71 71 71 71 73 76 78 78 75 79 83 83 84 83 84 84 86 87 88 89 90 91 91 92 93 94 98 102 103 105 105 107 114 111 111 111 110 114 114 114 113 110 118 126 124 124 124 129 127 128 129 128 125 129 130 130 125 134 379 -193 137 138 139 140 143 148 149 150 151 151 152 153 154 155 156 156 158 159 160 161 162 163 0 0 0 0 0
    0 0 0 0 0 0 0 0 0 0 0 0 0 0 0 0 0 0 0 0 0 0 0 0 0 0 0 0 0 0 0 0 0 0 0 0 0 0 0 0 0 0 0 0 0 0 0 0 0 0 0 0 0 0 0 0 0 0 0 0 0 0 0 0 0 0 0 0 0 57 56 56 55 55 55 53 54 54 51 52 50 51 50 48 49 48 45 47 45 45 44 44 45 45 43 41 39 39 39 39 38 38 39 39 39 39 38 38 38 37 37 36 36 35 33 32 31 30 30 28 28 27 26 27 26 26 25 26 26 27 27 28 27 26 25 25 25 24 22 20 18 16 18 21 22 22 18 -209 -209 -209 -209 -209 -209 -209 -209 -209 -209 -193 -209 -209 -209 -209 -209 -209 34 -209 35 -209 -209 -209 -209 -209 -209 -209 -209 -209 -193 161 160 -209 -209 -209 -209 -209 -193 -193 -209 -193 -209 -209 -209 -209 -209 -209 -209 -209 -209 -209 -209 -209 -209 43 40 40 40 39 40 40 40 41 42 45 47 48 51 54 56 56 57 57 58 61 60 63 62 63 64 67 67 66 65 69 70 71 71 71 70 73 75 77 77 75 80 83 83 84 84 84 85 86 87 88 89 90 91 91 93 93 94 98 102 103 104 105 107 114 112 111 112 110 114 114 114 113 110 118 125 124 124 124 129 127 128 129 128 125 128 130 130 126 134 -177 -193 137 139 140 141 144 148 149 150 150 151 152 153 154 155 156 157 159 159 160 160 162 163 0 0 0 0 0
    0 0 0 0 0 0 0 0 0 0 0 0 0 0 0 0 0 0 0 0 0 0 0 0 0 0 0 0 0 0 0 0 0 0 0 0 0 0 0 0 0 0 0 0 0 0 0 0 0 0 0 0 0 0 0 0 0 0 0 0 0 0 0 0 0 0 0 0 0 57 56 56 54 54 54 53 54 53 51 51 50 50 49 47 48 48 45 47 45 45 44 45 45 45 43 41 40 39 40 40 39 39 40 39 40 40 39 38 37 37 37 36 36 34 33 32 31 30 30 28 28 27 26 27 27 27 26 27 27 28 27 28 27 26 26 25 24 24 22 20 19 17 19 21 23 23 20 -209 -209 -209 -193 -209 -209 -193 -193 -193 -209 -209 -209 -209 -209 0 -209 -209 -193 -209 -193 -209 -193 -209 -209 -209 -209 -209 -209 -209 -193 163 162 161 -209 -209 -209 -209 -193 -193 -193 -209 -209 -209 -209 -209 -209 -209 -209 -209 -209 -209 -209 -209 40 42 38 40 41 40 40 40 41 42 42 45 47 47 52 53 55 55 56 56 58 60 60 63 63 64 65 68 68 66 66 70 70 71 71 71 70 73 75 77 77 75 80 83 84 84 83 84 85 86 88 88 90 91 92 93 94 94 95 98 103 103 105 105 108 114 113 112 112 111 114 115 114 113 110 117 124 123 123 123 129 127 128 129 129 126 129 131 131 127 -193 -193 137 138 140 140 141 143 147 148 149 150 151 152 153 155 155 157 157 159 159 159 160 161 162 0 0 0 0 0
    0 0 0 0 0 0 0 0 0 0 0 0 0 0 0 0 0 0 0 0 0 0 0 0 0 0 0 0 0 0 0 0 0 0 0 0 0 0 0 0 0 0 0 0 0 0 0 0 0 0 0 0 0 0 0 0 0 0 0 0 0 0 0 0 0 0 0 0 0 57 55 55 54 54 54 53 53 53 50 51 49 50 49 47 48 47 45 47 46 46 45 45 45 46 43 41 40 40 40 40 39 40 39 39 39 39 38 37 37 36 37 35 36 34 33 32 31 31 30 28 27 26 26 27 26 26 25 27 27 28 27 27 27 26 25 25 23 23 21 21 20 18 19 21 23 23 21 22 19 -193 -193 10 -209 -193 -209 -193 -209 -209 -209 -209 -209 -193 -209 -225 -225 -225 -225 -225 -209 -209 -209 -209 -209 -209 -209 -209 -193 -193 -193 158 -193 156 -209 -209 -209 -193 -209 -209 -209 -209 -209 -209 -209 -209 -209 -209 -209 -209 -209 -209 39 40 37 39 39 39 40 40 41 42 43 45 46 47 52 53 54 55 55 56 58 60 59 63 63 65 66 69 68 67 67 71 72 71 71 71 71 73 76 78 77 76 80 83 83 83 83 84 85 86 88 89 90 92 93 94 95 95 95 99 103 103 105 106 108 115 113 112 112 110 113 114 114 113 110 117 123 123 123 123 129 127 129 129 129 126 129 132 132 129 135 137 137 139 141 141 141 143 147 148 149 149 151 152 154 155 155 157 157 159 159 159 159 160 161 0 0 0 0 0
    0 0 0 0 0 0 0 0 0 0 0 0 0 0 0 0 0 0 0 0 0 0 0 0 0 0 0 0 0 0 0 0 0 0 0 0 0 0 0 0 0 0 0 0 0 0 0 0 0 0 0 0 0 0 0 0 0 0 0 0 0 0 0 0 0 0 0 0 0 57 55 55 54 54 54 53 53 53 50 51 49 50 49 47 48 47 44 47 45 46 45 45 45 46 43 42 41 40 41 41 40 40 39 39 38 38 37 37 36 36 36 35 35 34 33 32 31 31 30 28 27 26 25 26 25 25 24 27 26 27 26 26 26 26 25 25 23 22 20 22 20 18 18 20 23 23 21 19 11 -193 20 -225 -209 -193 -193 -193 -193 51 -193 -209 -193 -225 -225 -225 -225 -225 -225 -225 -225 -209 -209 -209 -209 -209 -209 -209 -193 -193 -193 -193 -193 -193 -209 -209 -209 -209 -209 -209 -209 -209 0 -209 -209 -209 -209 -209 -193 -209 -209 34 37 37 36 39 39 39 39 40 41 43 44 46 46 48 51 53 54 54 54 55 57 59 59 62 64 66 67 70 69 68 68 72 73 71 71 72 72 74 77 79 77 77 81 83 83 83 83 83 85 86 88 89 90 92 94 94 95 96 96 99 103 104 105 106 109 115 113 112 112 110 113 114 114 113 110 116 123 123 123 123 129 127 129 130 130 127 130 133 132 130 136 138 139 141 141 141 141 143 147 148 149 149 151 152 154 155 155 157 157 158 158 158 158 159 160 0 0 0 0 0
    0 0 0 0 0 0 0 0 0 0 0 0 0 0 0 0 0 0 0 0 0 0 0 0 0 0 0 0 0 0 0 0 0 0 0 0 0 0 0 0 0 0 0 0 0 0 0 0 0 0 0 0 0 0 0 0 0 0 0 0 0 0 0 0 0 0 0 0 0 57 55 55 54 54 54 53 53 53 51 51 49 50 48 46 47 46 44 46 44 45 44 45 44 47 42 43 42 41 41 41 41 41 40 41 39 38 38 37 36 36 36 35 35 34 33 31 32 31 30 28 28 25 25 25 24 24 24 26 26 26 25 26 26 26 25 25 22 22 19 22 21 19 17 19 23 23 21 17 0 0 -225 -225 -225 -225 -193 -225 -225 50 -225 -225 -225 -225 -225 -225 -225 -225 -225 -225 -225 -225 -225 -225 -225 -193 -225 -225 -193 -225 -225 -225 -225 -225 -225 -225 -209 -209 -209 -209 -209 -193 -193 -209 -209 -209 -209 -209 -193 -209 -209 34 35 35 35 38 39 39 39 40 41 45 45 46 46 49 51 52 53 53 53 55 56 59 58 62 66 67 68 70 69 68 69 72 73 72 72 72 72 75 78 79 77 77 81 82 82 82 83 83 85 86 88 88 90 92 93 94 95 95 96 98 103 104 105 106 108 115 113 112 112 111 113 114 114 113 110 115 122 123 123 123 130 128 129 130 130 128 131 132 132 131 136 138 139 140 141 141 141 144 148 148 149 149 150 152 154 155 155 156 156 158 158 157 158 158 159 0 0 0 0 0
    0 0 0 0 0 0 0 0 0 0 0 0 0 0 0 0 0 0 0 0 0 0 0 0 0 0 0 0 0 0 0 0 0 0 0 0 0 0 0 0 0 0 0 0 0 0 0 0 0 0 0 0 0 0 0 0 0 0 0 0 0 0 0 0 0 0 0 0 0 57 55 55 53 54 54 53 54 53 51 51 49 50 49 47 47 46 44 46 44 45 44 44 44 47 42 43 42 41 41 41 41 41 39 41 39 38 38 37 37 37 36 35 35 34 33 32 32 31 30 28 28 25 25 25 24 24 24 26 26 26 25 26 25 26 25 25 21 21 19 23 21 20 18 20 24 24 23 19 0 -225 -225 -225 -225 -225 -225 -225 -225 -225 -225 -225 -225 -225 -225 -225 -225 -225 -225 -225 -225 -225 -225 -225 -225 -225 -225 -225 -225 -225 -225 -225 -225 -225 -225 -225 -225 -225 -225 -225 -193 -193 -193 -193 -209 -209 -209 -209 -209 -209 -209 34 35 35 36 38 39 39 40 41 42 47 46 47 47 50 51 52 53 53 53 55 56 58 57 62 66 67 69 71 69 69 70 73 74 72 72 73 -193 75 78 79 77 78 81 81 81 83 83 84 85 87 88 89 90 92 94 95 96 96 97 99 102 104 105 106 108 114 114 112 112 111 113 115 114 113 110 115 122 123 123 123 130 128 129 130 130 128 131 133 133 132 136 138 139 140 141 140 141 144 148 148 149 149 150 151 153 154 154 155 156 157 157 157 157 158 158 0 0 0 0 0
    0 0 0 0 0 0 0 0 0 0 0 0 0 0 0 0 0 0 0 0 0 0 0 0 0 0 0 0 0 0 0 0 0 0 0 0 0 0 0 0 0 0 0 0 0 0 0 0 0 0 0 0 0 0 0 0 0 0 0 0 0 0 0 0 0 0 0 0 0 57 55 55 53 54 54 53 54 53 51 51 49 50 49 47 48 46 45 46 44 45 45 45 44 48 43 43 42 41 41 41 41 41 39 41 38 38 38 37 37 37 36 35 35 34 33 32 33 32 31 29 29 26 25 25 25 24 24 27 26 26 26 26 25 26 25 25 21 20 18 23 22 22 21 22 25 25 25 24 -225 -225 -225 -225 -225 -225 -225 -225 -225 -225 -225 -225 -225 -225 -225 -225 -225 -225 -225 -225 -225 -225 -225 -225 -225 -225 -225 -225 -225 -225 -225 -225 -225 -225 -225 -225 -225 -225 -225 -225 -225 -209 -225 -225 -225 -225 -225 -225 -209 -209 -209 33 33 34 36 38 38 39 40 41 42 48 46 46 48 50 51 52 52 53 53 55 56 57 58 62 68 69 70 71 70 70 71 74 74 72 72 73 73 75 78 79 76 78 80 80 80 82 83 84 85 87 88 89 90 92 93 95 96 96 98 99 102 104 105 106 108 114 114 112 113 112 113 115 115 114 111 114 122 123 123 123 -193 128 129 130 130 128 131 132 132 131 136 138 139 140 140 141 141 145 147 148 150 150 151 152 153 154 154 155 156 156 156 156 157 157 158 0 0 0 0 0
    0 0 0 0 0 0 0 0 0 0 0 0 0 0 0 0 0 0 0 0 0 0 0 0 0 0 0 0 0 0 0 0 0 0 0 0 0 0 0 0 0 0 0 0 0 0 0 0 0 0 0 0 0 0 0 0 0 0 0 0 0 0 0 0 0 0 0 0 0 -209 -193 -193 53 54 54 53 54 53 51 51 49 50 48 47 48 46 45 47 44 46 45 45 44 49 43 44 43 42 42 42 42 41 40 42 39 38 38 37 37 37 36 36 35 35 34 33 34 33 31 30 29 25 25 25 25 24 24 27 26 26 26 26 25 25 25 25 20 19 17 23 22 23 23 24 26 27 26 26 -225 -225 -225 -225 -225 -225 -225 -225 -225 -225 -225 -225 -225 -225 -225 -225 -225 -225 -225 -225 -225 -225 -225 -225 -225 -225 -225 -225 -225 -225 -225 -225 -225 -225 -225 -225 -225 -225 -225 -225 -225 -225 -225 -225 -225 -225 -225 -225 -225 -225 35 34 33 34 36 37 38 38 39 40 42 48 46 46 48 50 51 52 52 52 52 55 56 56 57 61 68 69 70 71 71 70 71 75 74 72 73 73 73 75 77 78 76 78 79 80 80 83 83 84 85 87 87 88 90 91 92 94 95 95 96 98 102 104 105 106 107 113 114 112 113 112 113 115 115 114 111 113 121 124 123 123 -193 128 129 130 130 129 131 132 132 131 136 138 139 140 141 141 142 145 148 149 150 149 150 151 153 154 154 154 155 155 156 156 156 156 157 0 0 0 0 0
    0 0 0 0 0 0 0 0 0 0 0 0 0 0 0 0 0 0 0 0 0 0 0 0 0 0 0 0 0 0 0 0 0 0 0 0 0 0 0 0 0 0 0 0 0 0 0 0 0 0 0 0 0 0 0 0 0 0 0 0 0 0 0 0 0 0 0 0 0 -209 -193 -193 53 54 54 53 53 52 51 51 49 50 48 47 48 46 45 47 45 46 45 46 44 49 43 44 43 42 42 42 42 42 40 42 40 39 39 38 38 38 37 36 36 35 34 33 34 33 32 31 30 26 25 26 25 24 24 27 26 26 26 26 25 25 25 25 20 19 17 23 22 25 25 25 27 28 28 28 -225 -225 -225 -225 -225 -225 -225 -225 -225 -225 -225 -225 -225 -225 -225 -225 -225 -225 -225 -225 -225 -225 -225 -225 -225 -225 -225 -225 -225 -225 -225 -225 -225 -225 -225 -225 -225 -225 -225 -225 -225 -225 -225 -225 -225 -225 -225 -225 -225 -225 36 35 34 36 36 38 38 39 39 41 42 49 46 47 48 50 50 51 51 52 51 54 55 55 56 61 69 70 70 71 71 70 72 75 74 72 73 73 73 74 77 78 75 78 79 79 80 83 83 85 87 87 88 89 90 92 93 95 95 96 97 98 102 104 105 106 107 113 114 112 113 112 112 115 115 114 111 113 121 124 123 123 -193 128 130 131 130 129 131 132 133 131 137 138 139 141 142 142 144 146 147 148 149 149 150 151 152 153 153 154 154 154 155 155 156 156 157 0 0 0 0 0
    0 0 0 0 0 0 0 0 0 0 0 0 0 0 0 0 0 0 0 0 0 0 0 0 0 0 0 0 0 0 0 0 0 0 0 0 0 0 0 0 0 0 0 0 0 0 0 0 0 0 0 0 0 0 0 0 0 0 0 0 0 0 0 0 0 0 0 0 0 -193 -193 -193 53 54 54 53 54 52 51 51 49 50 48 47 48 46 45 46 45 46 45 46 45 49 43 44 43 42 42 42 42 42 40 42 40 39 39 38 38 38 37 36 36 35 34 34 35 34 32 31 30 27 26 27 26 25 24 27 27 27 26 26 25 25 25 25 19 19 17 22 22 25 26 26 28 29 29 29 -225 -225 -225 -225 -225 -225 -225 -225 -225 -225 -225 -225 -225 -225 -225 -225 -225 -225 -225 -225 -225 -225 -225 -225 -225 -225 -225 -225 -225 -225 -225 -225 -225 -225 -225 -225 -225 -225 -225 -225 -225 -225 -225 -225 -225 -225 -225 -225 -225 -225 36 34 35 36 36 37 37 38 39 41 41 49 45 47 48 49 50 49 50 51 50 53 54 54 55 60 69 69 69 71 71 71 72 76 75 72 73 74 73 75 77 78 75 77 78 79 80 83 84 85 87 87 88 89 90 91 93 94 95 97 98 99 102 105 106 106 108 113 114 112 113 112 112 115 115 114 111 112 121 125 124 124 -193 129 130 131 131 130 131 132 133 130 136 139 140 142 142 142 145 146 147 149 149 149 150 150 152 152 153 153 153 154 155 155 156 156 157 0 0 0 0 0
    0 0 0 0 0 0 0 0 0 0 0 0 0 0 0 0 0 0 0 0 0 0 0 0 0 0 0 0 0 0 0 0 0 0 0 0 0 0 0 0 0 0 0 0 0 0 0 0 0 0 0 0 0 0 0 0 0 0 0 0 0 0 0 0 0 0 0 0 0 -193 341 -193 53 54 54 53 54 53 52 52 50 50 48 48 48 46 45 46 45 46 46 46 45 49 43 45 44 43 42 42 42 42 40 41 39 39 38 38 38 38 37 36 36 34 34 34 35 34 33 32 31 28 27 27 27 25 24 27 27 27 26 26 25 24 25 24 19 19 17 21 22 23 26 26 27 28 28 28 -225 -225 -225 -225 -225 -225 -225 -225 -225 -225 -225 -225 -225 -225 -225 -225 -225 -225 -225 -225 -225 -225 -225 -225 -225 -225 -225 -225 -225 -225 -225 -225 -225 -225 -225 -225 -225 -225 -225 -225 -225 -225 -225 -225 -225 -225 -225 -225 -225 -225 36 34 35 36 36 36 36 37 38 39 40 49 45 47 48 50 49 50 50 52 49 53 53 54 55 60 70 68 68 70 71 71 72 75 74 72 74 74 73 75 77 78 75 77 78 78 79 83 84 85 86 86 87 88 89 91 92 94 95 97 99 100 103 107 107 107 108 113 115 112 112 112 111 114 114 114 111 112 121 125 124 124 131 129 129 130 130 130 131 132 132 130 137 139 141 141 142 143 145 146 147 148 149 148 149 150 151 151 152 152 152 153 154 155 157 156 158 0 0 0 0 0
    0 0 0 0 0 0 0 0 0 0 0 0 0 0 0 0 0 0 0 0 0 0 0 0 0 0 0 0 0 0 0 0 0 0 0 0 0 0 0 0 0 0 0 0 0 0 0 0 0 0 0 0 0 0 0 0 0 0 0 0 0 0 0 0 0 0 0 0 0 -193 339 -193 54 55 55 54 54 53 52 52 50 51 48 48 48 46 45 46 45 46 46 46 45 48 43 45 44 43 42 42 42 41 40 41 39 39 38 38 38 38 37 36 36 34 33 34 34 33 32 32 31 28 27 27 27 25 25 28 27 27 27 26 25 24 24 24 19 19 17 20 21 22 26 27 27 28 28 28 -225 -225 -225 -225 -225 -225 -225 -225 -225 -225 -225 -225 -225 -225 -225 -225 -225 -225 -225 -225 -225 -225 -225 -225 -225 -225 -225 -225 -225 -225 -225 -225 -225 -225 -225 -225 -225 -225 -225 -225 -225 -225 -225 -225 -225 -225 -225 -225 -225 -225 36 35 37 36 36 36 36 36 38 39 40 49 45 48 48 50 49 50 50 52 49 53 52 53 55 60 70 67 67 70 71 70 71 74 73 71 73 72 -193 -193 75 76 74 76 77 77 79 83 84 84 85 86 86 87 89 91 92 94 95 97 99 101 103 107 107 107 108 112 115 112 112 112 110 114 114 114 111 111 121 126 124 124 131 129 130 130 130 130 131 132 132 131 137 139 142 142 142 143 145 146 146 147 149 148 149 149 150 150 151 151 151 152 154 155 157 156 159 0 0 0 0 0
    0 0 0 0 0 0 0 0 0 0 0 0 0 0 0 0 0 0 0 0 0 0 0 0 0 0 0 0 0 0 0 0 0 0 0 0 0 0 0 0 0 0 0 0 0 0 0 0 0 0 0 0 0 0 0 0 0 0 0 0 0 0 0 0 0 0 0 0 0 -193 -193 -193 54 55 55 54 54 53 52 52 50 50 48 48 48 46 45 46 45 46 46 46 45 47 43 44 43 42 42 42 42 41 40 41 39 39 38 38 38 38 36 35 36 34 33 34 34 33 32 31 31 28 27 28 28 26 25 28 27 28 27 27 25 24 24 24 20 19 18 19 21 21 25 26 27 27 27 -225 -225 -225 -225 -225 -225 -225 -225 -225 -225 -225 -225 -225 -225 -225 -225 -225 -225 -225 -225 -225 -225 -225 -225 -225 -225 -225 -225 -225 -225 -225 -225 -225 -225 -225 -225 -225 -225 -225 -225 -225 -225 -225 -225 -225 -225 -225 -225 -225 -225 -225 37 36 38 37 37 36 36 36 37 38 40 47 45 48 48 50 49 50 50 52 49 53 52 54 55 60 69 67 66 69 71 70 71 73 73 71 73 72 -193 -193 75 76 74 76 77 77 79 83 84 84 85 85 86 87 89 90 92 94 94 97 99 101 103 107 107 107 108 112 115 111 112 111 110 114 114 113 111 110 121 126 124 124 131 129 130 130 130 130 131 132 132 131 137 140 142 141 142 143 145 145 145 146 148 147 148 148 149 149 151 151 151 152 154 156 158 157 160 0 0 0 0 0
    0 0 0 0 0 0 0 0 0 0 0 0 0 0 0 0 0 0 0 0 0 0 0 0 0 0 0 0 0 0 0 0 0 0 0 0 0 0 0 0 0 0 0 0 0 0 0 0 0 0 0 0 0 0 0 0 0 0 0 0 0 0 0 0 0 0 0 0 0 58 58 58 55 56 55 54 54 53 51 51 50 50 48 48 48 46 45 46 45 46 46 46 45 46 43 44 43 42 42 42 42 41 40 40 39 38 37 37 38 37 36 35 35 34 33 34 34 33 32 31 31 29 27 28 28 26 26 29 28 28 28 27 26 24 24 24 20 19 18 18 20 19 25 25 26 26 26 -225 -225 -225 -225 -225 -225 -225 -225 -225 -225 -225 -225 -225 -225 -225 -225 -225 -225 -225 -225 -225 -225 -225 -225 -225 -225 -225 -225 -225 -225 -225 -225 -225 -225 -225 -225 -225 -225 -225 -225 -225 -225 -225 -225 -225 -225 -225 -225 -225 -225 38 36 37 38 37 36 36 35 36 37 38 40 46 46 48 49 49 50 51 51 52 49 52 52 55 56 61 69 67 66 69 70 69 70 73 73 70 72 72 71 73 75 76 74 75 77 77 79 84 84 84 85 85 86 87 89 90 92 94 94 97 100 101 103 108 107 107 108 112 114 111 111 111 110 114 114 113 112 110 121 126 124 124 131 129 129 130 130 130 130 132 133 131 137 140 141 141 142 143 144 144 144 146 147 146 148 148 148 149 151 152 151 153 155 156 160 159 161 0 0 0 0 0
    0 0 0 0 0 0 0 0 0 0 0 0 0 0 0 0 0 0 0 0 0 0 0 0 0 0 0 0 0 0 0 0 0 0 0 0 0 0 0 0 0 0 0 0 0 0 0 0 0 0 0 0 0 0 0 0 0 0 0 0 0 0 0 0 0 0 0 0 0 59 58 58 55 56 55 54 54 52 51 51 50 50 48 48 48 46 46 47 46 46 46 46 46 46 43 44 43 43 42 42 42 41 40 40 39 38 37 37 38 37 36 35 35 34 33 33 34 33 32 31 32 29 28 29 29 27 26 30 28 29 28 27 25 24 24 24 20 19 18 17 19 17 22 24 24 24 24 -225 -225 -225 -225 -225 -225 -225 -225 -225 -225 -225 -225 -225 -225 -225 -225 -225 -225 -225 -225 -225 -225 -225 -225 -225 -225 -225 -225 -225 -225 -225 -225 -225 -225 -225 -225 -225 -225 -225 -225 -225 -225 -225 -225 -225 -225 -225 -225 -225 -225 37 36 37 37 36 36 36 35 36 37 39 40 46 46 48 48 49 49 51 50 52 49 52 53 56 57 62 69 68 67 69 70 69 70 72 73 70 73 72 71 73 75 76 74 75 77 77 80 84 85 85 85 85 86 87 88 90 91 93 94 97 99 101 104 108 107 107 108 111 114 111 111 110 109 113 113 113 112 109 120 126 124 124 131 128 129 130 130 130 130 132 133 130 137 139 141 140 141 143 144 143 144 145 146 146 147 147 148 149 152 153 153 154 157 157 160 159 162 0 0 0 0 0
    0 0 0 0 0 0 0 0 0 0 0 0 0 0 0 0 0 0 0 0 0 0 0 0 0 0 0 0 0 0 0 0 0 0 0 0 0 0 0 0 0 0 0 0 0 0 0 0 0 0 0 0 0 0 0 0 0 0 0 0 0 0 0 0 0 0 0 0 0 59 59 58 56 56 54 53 54 52 51 50 49 50 47 48 48 46 46 47 46 46 46 46 46 46 43 44 43 43 43 43 43 42 41 40 40 39 37 37 38 37 36 34 35 34 32 33 33 32 32 30 32 29 28 29 29 27 27 30 28 29 28 27 25 24 23 23 20 19 18 16 18 16 20 22 22 22 22 -225 -225 -225 -225 -225 -225 -225 -225 -225 -225 -225 -225 -225 -225 -225 -225 -225 -225 -225 -225 -225 -225 -225 -225 -225 -225 -225 -225 -225 -225 -225 -225 -225 -225 -225 -225 -225 -225 -225 -225 -225 -225 -225 -225 -225 -225 -225 -225 -225 -225 37 36 37 38 37 36 36 35 37 38 39 41 46 47 48 48 49 49 51 50 51 48 51 52 55 56 61 69 68 67 70 70 68 69 72 72 70 72 72 71 73 75 76 75 75 77 77 80 84 84 84 85 86 86 87 88 90 91 93 93 96 98 101 104 108 107 107 108 110 115 110 111 110 109 113 113 113 112 109 120 126 123 123 131 128 129 129 130 130 130 132 133 131 137 139 141 140 141 142 143 142 143 144 144 144 146 146 148 148 151 153 153 155 158 158 161 160 162 0 0 0 0 0
    0 0 0 0 0 0 0 0 0 0 0 0 0 0 0 0 0 0 0 0 0 0 0 0 0 0 0 0 0 0 0 0 0 0 0 0 0 0 0 0 0 0 0 0 0 0 0 0 0 0 0 0 0 0 0 0 0 0 0 0 0 0 0 0 0 0 0 0 0 59 59 59 56 56 54 53 54 52 51 50 49 50 47 48 48 47 46 47 47 46 45 46 46 46 43 44 43 43 43 43 43 42 41 40 40 39 37 37 38 37 36 34 35 34 32 33 33 32 32 29 32 29 28 30 29 27 27 30 28 29 28 26 25 24 23 23 20 19 18 16 18 15 17 20 20 20 20 -225 -225 -225 -225 -225 -225 -225 -225 -225 -225 -225 -225 -225 -225 -225 -225 -225 -225 -225 -225 -225 -225 -225 -225 -225 -225 -225 -225 -225 -225 -225 -225 -225 -225 -225 -225 -225 -225 -225 -225 -225 -225 -225 -225 -225 -225 -225 -225 -225 -225 36 36 38 38 37 37 36 36 38 39 40 42 47 48 48 48 48 49 51 50 50 48 50 52 56 56 62 68 69 67 69 69 68 68 71 72 70 72 71 71 73 75 76 75 75 77 78 81 84 84 84 85 86 86 87 89 90 92 94 94 97 98 102 105 108 107 108 108 110 115 110 110 110 109 113 112 112 112 108 120 125 123 123 130 128 128 129 130 129 129 132 133 131 136 138 140 139 140 141 142 141 142 142 143 142 146 146 147 149 152 155 155 157 159 159 162 161 162 0 0 0 0 0
    0 0 0 0 0 0 0 0 0 0 0 0 0 0 0 0 0 0 0 0 0 0 0 0 0 0 0 0 0 0 0 0 0 0 0 0 0 0 0 0 0 0 0 0 0 0 0 0 0 0 0 0 0 0 0 0 0 0 0 0 0 0 0 0 0 0 0 0 0 59 60 60 57 57 55 54 54 52 51 50 49 50 47 48 48 47 46 47 46 46 45 45 45 45 43 44 43 43 43 43 43 42 41 40 39 38 37 37 37 37 36 33 35 33 32 33 33 32 31 29 33 29 28 30 28 27 27 30 28 28 28 26 25 24 23 23 20 19 18 16 17 14 15 18 18 18 18 -225 -225 -225 -225 -225 -225 -225 -225 -225 -225 -225 -225 -225 -225 -225 -225 -225 -225 -225 -225 -225 -225 -225 -225 -225 -225 -225 -225 -225 -225 -225 -225 -225 -225 -225 -225 -225 -225 -225 -225 -225 -225 -225 -225 -225 -225 -225 -225 -225 37 35 36 37 37 37 37 36 37 39 40 41 43 47 48 48 48 48 49 51 50 50 48 50 53 56 56 64 67 69 67 69 69 67 68 70 71 70 72 71 71 73 76 77 76 75 78 78 80 83 83 83 83 84 85 86 88 90 92 93 93 96 98 102 105 109 108 108 109 111 115 110 110 110 109 112 112 112 111 108 119 123 122 122 129 127 127 128 130 129 129 132 133 131 136 138 140 138 140 141 141 141 141 142 142 141 147 147 148 151 153 156 156 158 160 160 163 162 163 0 0 0 0 0
    0 0 0 0 0 0 0 0 0 0 0 0 0 0 0 0 0 0 0 0 0 0 0 0 0 0 0 0 0 0 0 0 0 0 0 0 0 0 0 0 0 0 0 0 0 0 0 0 0 0 0 0 0 0 0 0 0 0 0 0 0 0 0 0 0 0 0 0 0 59 60 60 58 58 56 54 54 52 51 50 49 50 48 48 48 46 46 47 46 46 45 45 45 45 43 44 44 43 43 43 43 42 41 40 39 38 36 36 37 36 36 33 34 33 32 33 33 31 31 28 33 29 27 29 28 27 27 30 28 28 27 26 25 24 23 22 19 19 18 15 17 14 14 15 17 17 17 -225 -225 -225 -225 -225 -225 -225 -225 -225 -225 -225 -225 -225 -225 -225 -225 -225 -225 -225 -225 -225 -225 -225 -225 -225 -225 -225 -225 -225 -225 -225 -225 -225 -225 -225 -225 -225 -225 -225 -225 -225 -225 -225 -225 -225 -225 -225 -225 -225 37 35 37 38 38 37 37 37 38 39 40 41 44 47 48 48 48 49 50 52 51 50 49 50 54 56 56 65 67 69 68 69 68 66 67 69 -193 70 72 71 71 73 76 77 77 75 79 79 80 83 83 82 83 85 85 87 89 91 92 93 93 95 97 101 105 109 107 108 109 110 115 110 110 109 108 112 111 112 111 107 118 123 122 122 129 127 127 128 129 129 129 132 133 131 136 137 139 138 139 140 140 140 140 141 141 140 146 147 150 153 154 157 157 159 161 160 162 162 162 0 0 0 0 0
    0 0 0 0 0 0 0 0 0 0 0 0 0 0 0 0 0 0 0 0 0 0 0 0 0 0 0 0 0 0 0 0 0 0 0 0 0 0 0 0 0 0 0 0 0 0 0 0 0 0 0 0 0 0 0 0 0 0 0 0 0 0 0 0 0 0 0 0 0 60 60 61 59 58 56 55 55 53 52 51 50 50 48 49 49 47 46 46 46 45 45 45 45 45 43 44 44 43 44 43 43 42 40 40 39 38 36 36 37 36 36 33 34 33 32 33 33 31 31 28 34 29 27 29 28 27 26 29 27 27 27 26 24 23 23 22 19 19 19 15 16 14 14 15 16 16 16 -225 -225 -225 -225 -225 -225 -225 -225 -225 -225 -225 -225 -225 -225 -225 -225 -225 -225 -225 -225 -225 -225 -225 -225 -225 -225 -225 -225 -225 -225 -225 -225 -225 -225 -225 -225 -225 -225 -225 -225 -225 -225 -225 -225 -225 -225 -225 -225 -225 36 36 37 38 38 38 37 37 38 40 40 41 44 48 49 48 48 49 50 52 51 50 49 51 54 56 56 64 66 69 67 69 68 66 66 69 -193 70 72 71 71 73 76 78 78 75 80 80 81 83 84 83 84 86 87 88 89 91 91 93 92 94 95 100 104 108 107 107 108 109 115 110 109 109 108 111 111 111 111 107 118 122 122 122 129 126 127 127 129 129 128 131 133 130 136 136 139 137 139 139 140 139 140 140 141 139 146 149 151 154 155 158 158 160 161 160 162 162 162 0 0 0 0 0
    0 0 0 0 0 0 0 0 0 0 0 0 0 0 0 0 0 0 0 0 0 0 0 0 0 0 0 0 0 0 0 0 0 0 0 0 0 0 0 0 0 0 0 0 0 0 0 0 0 0 0 0 0 0 0 0 0 0 0 0 0 0 0 0 0 0 0 0 0 59 60 60 59 58 57 56 56 53 52 51 50 51 49 49 49 48 46 47 46 46 45 45 45 46 44 44 45 44 44 44 44 43 40 40 39 38 36 36 37 36 36 33 34 33 32 33 33 31 31 28 34 29 28 29 28 28 27 30 27 27 26 25 24 23 23 22 18 19 19 16 16 14 13 14 16 16 16 -225 -225 -225 -225 -225 -225 -225 -225 -225 -225 -225 -225 -225 -225 -225 -225 -225 -225 -225 -225 -225 -225 -225 -225 -225 -225 -225 -225 -225 -225 -225 -225 -225 -225 -225 -225 -225 -225 -225 -225 -225 -225 -225 -225 -225 -225 -225 -225 37 35 36 38 38 38 38 37 38 39 41 41 42 46 48 49 48 48 49 50 52 51 50 49 51 55 60 59 65 66 68 67 68 67 65 66 69 258 -193 72 73 72 74 78 80 81 76 81 81 82 83 83 84 84 86 87 89 89 91 90 91 91 92 93 98 103 106 106 106 106 107 114 109 108 108 107 110 110 110 110 106 117 122 122 122 130 126 127 127 130 128 128 131 133 129 135 136 137 136 138 139 139 138 140 140 141 139 147 151 153 155 156 160 159 161 161 161 162 162 162 0 0 0 0 0
    0 0 0 0 0 0 0 0 0 0 0 0 0 0 0 0 0 0 0 0 0 0 0 0 0 0 0 0 0 0 0 0 0 0 0 0 0 0 0 0 0 0 0 0 0 0 0 0 0 0 0 0 0 0 0 0 0 0 0 0 0 0 0 0 0 0 0 0 0 59 59 59 58 58 57 56 56 54 52 52 51 51 49 49 49 49 47 48 47 46 46 46 46 46 44 45 45 44 44 44 44 43 40 39 39 37 35 35 37 36 36 33 34 33 33 34 33 31 31 28 34 29 28 29 28 28 27 29 27 26 26 25 24 23 22 21 17 19 19 16 16 14 13 14 16 16 16 -225 -225 -225 -225 -225 -225 -225 -225 -225 -225 -225 -225 -225 -225 -225 -225 -225 -225 -225 -225 -225 -225 -225 -225 -225 -225 -225 -225 -225 -225 -225 -225 -225 -225 -225 -225 -225 -225 -225 -225 -225 -225 -225 -225 -225 -225 -225 -225 37 35 36 37 38 37 38 37 38 39 42 42 42 46 48 48 48 48 49 49 51 51 49 49 52 54 58 58 63 63 67 66 68 67 65 65 68 258 -193 73 73 73 75 79 81 81 76 81 81 82 82 82 84 85 86 89 90 90 91 91 92 91 92 93 97 102 104 105 105 105 106 112 108 107 108 107 109 109 109 109 106 116 122 122 122 130 126 127 127 130 129 128 131 133 129 135 135 -193 -193 138 139 139 138 139 140 141 138 147 152 154 157 157 161 160 162 162 161 162 162 162 0 0 0 0 0
    0 0 0 0 0 0 0 0 0 0 0 0 0 0 0 0 0 0 0 0 0 0 0 0 0 0 0 0 0 0 0 0 0 0 0 0 0 0 0 0 0 0 0 0 0 0 0 0 0 0 0 0 0 0 0 0 0 0 0 0 0 0 0 0 0 0 0 0 0 59 59 59 58 57 57 56 55 54 52 52 51 51 50 50 50 50 48 49 48 46 46 46 46 46 44 44 44 44 44 43 43 42 39 39 39 37 35 35 37 36 36 34 34 34 33 34 34 31 31 28 34 29 28 29 28 28 27 29 26 26 25 25 23 23 22 20 16 19 19 16 16 14 13 14 16 16 16 -225 -225 -225 -225 -225 -225 -225 -225 -225 -225 -225 -225 -225 -225 -225 -225 -225 -225 -225 -225 -225 -225 -225 -225 -225 -225 -225 -225 -225 -225 -225 -225 -225 -225 -225 -225 -225 -225 -225 -225 -225 -225 -225 -225 -225 -225 -225 -225 36 35 36 38 38 37 38 38 39 40 42 43 43 47 48 48 48 48 48 49 51 51 49 50 53 55 59 59 63 63 66 65 67 66 65 64 68 258 -193 73 73 73 76 79 81 81 77 80 81 81 81 81 83 84 86 88 89 90 91 90 91 91 92 92 96 101 103 104 104 105 106 111 107 107 107 106 109 109 109 108 105 115 122 121 121 129 127 128 128 131 130 128 131 134 130 134 135 -193 -193 138 139 -193 138 139 141 141 138 147 154 155 158 157 161 161 162 162 161 162 162 163 0 0 0 0 0
    0 0 0 0 0 0 0 0 0 0 0 0 0 0 0 0 0 0 0 0 0 0 0 0 0 0 0 0 0 0 0 0 0 0 0 0 0 0 0 0 0 0 0 0 0 0 0 0 0 0 0 0 0 0 0 0 0 0 0 0 0 0 0 0 0 0 0 0 0 58 59 -193 -209 57 -193 56 -193 54 52 52 52 52 50 51 51 50 48 49 49 46 46 45 45 45 44 44 44 43 43 43 43 42 40 39 39 38 35 35 37 36 36 34 34 34 33 34 34 31 32 28 33 29 28 29 28 28 26 27 25 25 24 23 23 22 21 19 15 18 19 16 16 13 14 13 16 16 16 -225 -225 -225 -225 -225 -225 -225 -225 -225 -225 -225 -225 -225 -225 -225 -225 -225 -225 -225 -225 -225 -225 -225 -225 -225 -225 -225 -225 -225 -225 -225 -225 -225 -225 -225 -225 -225 -225 -225 -225 -225 -225 -225 -225 -225 -225 -225 37 35 36 36 38 38 37 38 38 39 42 43 44 43 48 49 48 49 48 48 49 51 51 50 51 54 55 60 60 63 63 65 64 66 66 64 64 68 259 70 73 73 73 75 79 81 81 76 80 80 80 80 80 82 82 85 87 89 89 91 90 92 91 93 93 98 101 103 104 104 105 107 110 107 106 106 106 108 108 108 107 105 115 122 121 121 129 127 129 129 132 130 129 132 134 131 134 135 -193 -193 139 140 139 138 140 141 142 138 147 155 156 158 158 161 161 162 162 161 162 163 163 0 0 0 0 0
    0 0 0 0 0 0 0 0 0 0 0 0 0 0 0 0 0 0 0 0 0 0 0 0 0 0 0 0 0 0 0 0 0 0 0 0 0 0 0 0 0 0 0 0 0 0 0 0 0 0 0 0 0 0 0 0 0 0 0 0 0 0 0 0 0 0 0 0 0 58 58 -193 -193 -209 -193 -209 -193 55 53 53 52 52 51 51 51 50 49 49 49 47 46 46 45 45 44 44 44 43 43 42 42 41 40 39 39 38 36 35 37 36 36 34 34 34 33 34 34 31 32 28 33 29 28 29 28 27 26 26 24 24 24 23 22 22 21 19 14 18 20 16 16 14 14 13 16 16 16 -225 -225 -225 -225 -225 -225 -225 -225 -225 -225 -225 -225 -225 -225 -225 -225 -225 -225 -225 -225 -225 -225 -225 -225 -225 -225 -225 -225 -225 -225 -225 -225 -225 -225 -225 -225 -225 -225 -225 -225 -225 -225 -225 -225 -225 -225 -225 36 34 35 36 37 37 37 38 39 40 42 42 44 43 47 48 47 49 48 48 50 51 51 50 51 55 55 60 60 62 62 64 63 65 65 64 63 67 -193 70 73 73 73 75 79 81 81 76 80 80 80 80 80 82 83 85 88 90 90 92 91 93 93 96 96 100 101 103 104 104 105 107 109 106 106 106 105 107 107 107 105 104 113 121 121 121 129 128 130 131 133 131 130 133 -193 -193 134 135 -193 -193 139 140 139 138 140 141 142 139 148 155 156 158 158 161 161 161 162 161 162 163 163 0 0 0 0 0
    0 0 0 0 0 0 0 0 0 0 0 0 0 0 0 0 0 0 0 0 0 0 0 0 0 0 0 0 0 0 0 0 0 0 0 0 0 0 0 0 0 0 0 0 0 0 0 0 0 0 0 0 0 0 0 0 0 0 0 0 0 0 0 0 0 0 0 0 0 57 58 -209 -209 -209 -193 -193 -193 56 54 54 53 53 51 51 51 50 49 49 49 47 47 46 46 45 44 44 44 42 42 42 42 41 40 39 39 38 36 35 37 36 37 34 35 34 33 34 34 31 32 28 33 29 29 29 29 28 27 27 25 25 25 24 23 22 21 19 14 18 20 16 16 14 15 12 16 16 16 -225 -225 -225 -225 -225 -225 -225 -225 -225 -225 -225 -225 -225 -225 -225 -225 -225 -225 -225 -225 -225 -225 -225 -225 -225 -225 -225 -225 -225 -225 -225 -225 -225 -225 -225 -225 -225 -225 -225 -225 -225 -225 -225 -225 -225 -225 -225 35 34 35 35 37 37 37 38 38 40 41 41 44 43 47 48 47 49 48 48 50 50 51 50 51 55 55 60 60 61 62 63 63 65 65 64 63 68 70 70 73 73 73 75 78 81 81 76 80 81 81 80 81 83 84 85 89 90 90 93 91 93 94 97 98 100 101 103 104 104 105 107 109 106 105 106 105 107 107 107 104 103 111 121 121 121 129 130 131 132 133 131 130 134 -193 -193 -193 -193 -177 -193 138 140 -193 138 140 142 143 140 148 155 156 158 158 161 161 161 161 161 162 162 163 0 0 0 0 0
    0 0 0 0 0 0 0 0 0 0 0 0 0 0 0 0 0 0 0 0 0 0 0 0 0 0 0 0 0 0 0 0 0 0 0 0 0 0 0 0 0 0 0 0 0 0 0 0 0 0 0 0 0 0 0 0 0 0 0 0 0 0 0 0 0 0 0 0 0 57 57 -209 -209 -209 -209 -193 -193 56 54 54 54 53 52 52 52 50 50 49 50 47 48 46 46 45 43 43 43 42 42 41 41 41 40 40 39 38 36 36 38 36 37 34 35 34 34 35 35 31 33 28 33 29 29 29 30 28 27 27 25 25 24 24 23 22 22 19 14 18 20 16 16 14 15 12 16 16 16 -225 -225 -225 -225 -225 -225 -225 -225 -225 -225 -225 -225 -225 -225 -225 -225 -225 -225 -225 -225 -225 -225 -225 -225 -225 -225 -225 -225 -225 -225 -225 -225 -225 -225 -225 -225 -225 -225 -225 -225 -225 -225 -225 -225 -225 -225 36 34 34 35 35 37 37 37 38 39 40 40 41 44 43 47 47 46 49 47 48 50 50 52 51 52 55 55 60 60 60 63 63 63 65 65 64 63 68 70 69 73 73 73 75 78 81 81 76 81 81 82 82 82 85 85 87 90 91 90 92 91 93 94 98 98 101 101 103 103 104 105 107 108 106 106 106 106 107 107 106 104 102 110 121 121 121 129 131 132 132 134 132 131 -193 -177 -177 -193 -193 -177 -177 -193 -193 -193 138 140 142 143 141 148 155 156 157 157 161 160 160 161 160 161 161 162 0 0 0 0 0
    0 0 0 0 0 0 0 0 0 0 0 0 0 0 0 0 0 0 0 0 0 0 0 0 0 0 0 0 0 0 0 0 0 0 0 0 0 0 0 0 0 0 0 0 0 0 0 0 0 0 0 0 0 0 0 0 0 0 0 0 0 0 0 0 0 0 0 0 0 57 56 -209 -193 -209 -209 -193 -177 55 54 54 54 53 52 52 52 50 50 49 51 48 48 47 46 44 43 43 43 42 41 41 41 41 40 40 39 38 36 36 38 36 37 35 35 34 34 35 35 32 33 28 33 29 30 30 29 28 27 26 24 24 24 23 23 21 22 18 14 19 20 17 17 14 15 12 16 16 16 -225 -225 -225 -225 -225 -225 -225 -225 -225 -225 -225 -225 -225 -225 -225 -225 -225 -225 -225 -225 -225 -225 -225 -225 -225 -225 -225 -225 -225 -225 -225 -225 -225 -225 -225 -225 -225 -225 -225 -225 -225 -225 -225 -225 -225 -225 35 33 34 35 35 36 36 37 38 39 40 41 41 45 44 47 47 46 49 47 48 50 49 51 51 52 55 55 59 60 60 63 62 62 64 65 63 63 67 70 69 73 73 73 75 78 81 81 76 81 82 82 82 82 86 85 87 90 90 89 92 89 92 93 97 97 100 101 102 104 103 105 107 108 107 106 106 106 107 107 107 104 102 110 122 121 121 128 132 133 133 134 132 131 -193 -177 -177 -193 -193 -177 -177 -193 -193 -193 138 140 144 144 142 148 155 156 157 157 161 160 159 160 159 160 160 162 0 0 0 0 0
    0 0 0 0 0 0 0 0 0 0 0 0 0 0 0 0 0 0 0 0 0 0 0 0 0 0 0 0 0 0 0 0 0 0 0 0 0 0 0 0 0 0 0 0 0 0 0 0 0 0 0 0 0 0 0 0 0 0 0 0 0 0 0 0 0 0 0 0 0 57 57 -209 55 -193 -209 55 -193 54 53 53 53 53 52 51 52 50 50 50 51 48 47 47 47 44 43 42 43 41 41 41 41 41 40 40 39 38 37 36 38 37 37 35 35 35 34 35 35 31 33 28 33 28 29 30 29 28 27 26 24 24 24 23 23 22 22 18 15 19 20 17 17 15 16 12 16 16 16 -225 -225 -225 -225 -225 -225 -225 -225 -225 -225 -225 -225 -225 -225 -225 -225 -225 -225 -225 -225 -225 -225 -225 -225 -225 -225 -225 -225 -225 -225 -225 -225 -225 -225 -225 -225 -225 -225 -225 -225 -225 -225 -225 -225 -225 -225 34 33 34 36 35 36 36 37 38 39 40 41 41 46 44 47 47 46 48 47 48 49 49 51 51 52 55 55 60 60 60 63 62 62 64 64 63 63 67 70 69 73 73 74 75 78 81 81 76 80 81 81 81 81 85 84 86 89 90 89 92 90 92 94 97 97 100 102 102 104 104 106 108 109 108 106 106 107 108 107 107 103 102 109 122 121 121 127 133 132 133 134 132 132 -193 -177 -177 -193 -193 -177 -177 -193 -193 -193 139 141 145 146 144 149 155 156 157 157 161 160 159 161 160 161 160 162 0 0 0 0 0
    0 0 0 0 0 0 0 0 0 0 0 0 0 0 0 0 0 0 0 0 0 0 0 0 0 0 0 0 0 0 0 0 0 0 0 0 0 0 0 0 0 0 0 0 0 0 0 0 0 0 0 0 0 0 0 0 0 0 0 0 0 0 0 0 0 0 0 0 0 57 58 -209 55 56 55 55 54 53 53 52 52 53 51 51 52 49 50 49 51 48 47 46 47 43 42 41 42 40 40 40 40 40 40 40 39 39 38 37 39 37 38 35 35 35 34 35 35 31 33 28 33 28 27 29 28 27 27 25 23 24 24 23 23 22 22 18 15 19 20 17 17 15 16 12 16 16 16 -225 -225 -225 -225 -225 -225 -225 -225 -225 -225 -225 -225 -225 -225 -225 -225 -225 -225 -225 -225 -225 -225 -225 -225 -225 -225 -225 -225 -225 -225 -225 -225 -225 -225 -225 -225 -225 -225 -225 -225 -225 -225 -225 -225 -225 35 33 33 35 36 35 36 37 38 39 40 40 41 41 45 44 46 46 46 48 47 47 49 48 51 51 53 55 55 59 60 60 63 62 62 64 64 63 63 67 70 69 73 73 73 75 78 80 80 75 80 80 81 80 80 85 84 86 89 90 89 93 91 93 95 98 100 102 103 103 104 104 106 108 108 107 106 106 106 107 107 107 104 102 109 121 120 120 126 133 132 132 134 132 131 -193 -177 -177 -193 -193 -193 -177 138 139 -193 139 141 146 146 145 149 155 156 157 157 161 159 159 161 160 161 161 162 0 0 0 0 0
    0 0 0 0 0 0 0 0 0 0 0 0 0 0 0 0 0 0 0 0 0 0 0 0 0 0 0 0 0 0 0 0 0 0 0 0 0 0 0 0 0 0 0 0 0 0 0 0 0 0 0 0 0 0 0 0 0 0 0 0 0 0 0 0 0 0 0 0 0 58 59 58 56 57 56 55 54 53 53 52 52 52 51 51 52 49 50 49 50 48 47 45 47 42 42 41 41 40 40 40 40 40 40 40 39 39 38 38 39 37 38 35 36 35 34 35 35 31 33 28 33 28 27 29 28 27 26 25 23 23 23 23 22 22 22 18 16 19 20 17 17 16 16 11 16 16 16 -225 -225 -225 -225 -225 -225 -225 -225 -225 -225 -225 -225 -225 -225 -225 -225 -225 -225 -225 -225 -225 -225 -225 -225 -225 -225 -225 -225 -225 -225 -225 -225 -225 -225 -225 -225 -225 -225 -225 -225 -225 -225 -225 -225 -225 34 32 32 35 35 34 35 36 37 38 39 40 40 41 45 44 46 47 46 48 47 47 49 48 51 51 52 55 55 59 59 60 64 62 62 64 65 64 64 67 70 68 72 72 73 74 77 79 79 75 79 80 81 80 81 84 84 85 88 89 89 93 92 94 96 100 102 104 104 104 106 106 107 109 109 108 106 106 107 107 107 107 104 102 108 121 120 120 124 133 130 131 133 131 131 -193 -177 -177 -193 -193 -193 -177 138 139 -193 139 141 146 146 145 149 155 156 156 156 160 158 158 160 158 160 160 161 0 0 0 0 0
    0 0 0 0 0 0 0 0 0 0 0 0 0 0 0 0 0 0 0 0 0 0 0 0 0 0 0 0 0 0 0 0 0 0 0 0 0 0 0 0 0 0 0 0 0 0 0 0 0 0 0 0 0 0 0 0 0 0 0 0 0 0 0 0 0 0 0 0 0 59 60 58 57 57 56 55 55 53 53 52 52 52 51 50 51 48 49 49 49 49 48 46 48 43 42 42 43 41 40 40 40 41 40 41 39 39 38 38 39 37 38 36 36 35 35 35 35 31 33 29 33 28 27 28 27 25 26 25 23 23 23 23 23 22 23 18 16 18 19 17 17 16 16 11 16 16 16 -225 -225 -225 -225 -225 -225 -225 -225 -225 -225 -225 -225 -225 -225 -225 -225 -225 -225 -225 -225 -225 -225 -225 -225 -225 -225 -225 -225 -225 -225 -225 -225 -225 -225 -225 -225 -225 -225 -225 -225 -225 -225 -225 -225 -225 33 31 32 35 34 33 35 35 36 37 38 39 39 41 44 43 46 47 46 49 48 48 49 48 51 51 52 54 55 58 59 59 64 62 61 63 66 64 64 67 70 67 71 71 72 73 76 78 78 74 78 79 80 80 81 84 85 85 88 90 90 93 93 95 99 100 102 103 104 104 107 106 107 108 110 109 107 107 107 106 107 107 104 102 108 121 119 120 123 132 128 129 132 130 -193 -193 -177 -177 -193 -193 -193 254 138 139 -193 139 140 145 146 145 149 155 156 157 156 160 158 158 159 157 158 158 159 0 0 0 0 0
    0 0 0 0 0 0 0 0 0 0 0 0 0 0 0 0 0 0 0 0 0 0 0 0 0 0 0 0 0 0 0 0 0 0 0 0 0 0 0 0 0 0 0 0 0 0 0 0 0 0 0 0 0 0 0 0 0 0 0 0 0 0 0 0 0 0 0 0 0 58 60 58 57 57 56 55 55 53 53 52 52 52 50 50 51 48 49 48 48 49 48 47 49 44 43 43 44 41 41 41 40 41 40 40 39 38 38 37 39 37 38 35 36 35 35 35 35 31 34 29 34 28 28 27 27 25 26 25 24 24 24 24 23 23 23 18 17 18 19 17 17 16 16 11 16 16 16 -225 -225 -225 -225 -225 -225 -225 -225 -225 -225 -225 -225 -225 -225 -225 -225 -225 -225 -225 -225 -225 -225 -225 -225 -225 -225 -225 -225 -225 -225 -225 -225 -225 -225 -225 -225 -225 -225 -225 -225 -225 -225 -225 -225 35 32 31 33 35 34 33 35 35 36 37 38 38 38 40 42 42 45 46 46 48 47 48 48 48 51 51 52 53 54 57 58 58 64 61 61 64 66 64 64 67 69 66 70 71 71 72 75 76 77 73 77 80 81 81 82 85 85 87 89 92 92 94 97 100 101 102 103 104 105 105 108 107 107 108 110 110 107 107 107 106 107 107 104 103 108 121 119 119 122 131 127 127 131 128 -193 -193 -177 -193 -193 -193 -193 253 -193 139 -193 138 140 145 146 145 149 155 157 157 -193 162 -193 -193 -193 -193 -193 -193 -193 0 0 0 0 0
    0 0 0 0 0 0 0 0 0 0 0 0 0 0 0 0 0 0 0 0 0 0 0 0 0 0 0 0 0 0 0 0 0 0 0 0 0 0 0 0 0 0 0 0 0 0 0 0 0 0 0 0 0 0 0 0 0 0 0 0 0 0 0 0 0 0 0 0 0 59 60 58 56 57 55 55 54 53 53 52 52 52 49 50 50 48 48 48 47 49 47 47 48 44 43 42 44 41 41 41 40 40 39 40 39 38 38 37 39 36 37 35 36 35 35 35 35 31 34 29 34 28 29 27 29 27 28 26 25 25 25 25 25 23 24 19 17 18 20 17 17 16 16 11 16 16 16 -225 -225 -225 -225 -225 -225 -225 -225 -225 -225 -225 -225 -225 -225 -225 -225 -225 -225 -225 -225 -225 -225 -225 -225 -225 -225 -225 -225 -225 -225 -225 -225 -225 -225 -225 -225 -225 -225 -225 -225 -225 -225 -225 -225 34 31 31 33 35 33 32 35 34 35 36 37 37 37 39 41 41 44 45 46 48 47 47 48 48 51 50 52 53 53 57 57 57 64 61 61 64 66 64 65 67 69 66 70 70 70 70 74 75 76 73 77 80 82 82 83 85 86 87 89 91 91 94 98 100 102 102 103 104 105 106 108 106 107 108 109 108 106 106 106 105 106 106 104 103 107 121 119 119 121 130 126 126 130 128 -193 130 -193 -193 130 135 -193 -193 -193 139 -193 138 140 145 146 144 149 155 -193 -193 -193 -193 80 79 81 79 80 -193 -193 0 0 0 0 0
    0 0 0 0 0 0 0 0 0 0 0 0 0 0 0 0 0 0 0 0 0 0 0 0 0 0 0 0 0 0 0 0 0 0 0 0 0 0 0 0 0 0 0 0 0 0 0 0 0 0 0 0 0 0 0 0 0 0 0 0 0 0 0 0 0 0 0 0 0 60 60 58 57 57 55 55 54 53 53 52 52 52 49 50 50 48 47 47 46 48 46 46 46 43 42 42 43 40 40 40 40 40 39 39 38 38 37 37 38 36 37 35 36 35 34 34 35 31 34 29 34 28 29 27 27 27 27 25 25 24 24 24 24 23 23 19 17 18 20 17 17 16 15 11 16 16 16 -225 -225 -225 -225 -225 -225 -225 -225 -225 -225 -225 -225 -225 -225 -225 -225 -225 -225 -225 -225 -225 -225 -225 -225 -225 -225 -225 -225 -225 -225 -225 -225 -225 -225 -225 -225 -225 -225 -225 -225 -225 -225 -225 -225 32 30 30 32 35 32 32 35 34 35 35 36 36 36 38 39 39 44 45 45 47 46 46 47 49 51 50 52 54 54 57 58 58 65 61 62 64 66 64 65 66 69 65 69 69 69 69 73 74 75 72 77 81 83 83 84 86 86 87 89 91 92 95 99 100 101 102 104 105 105 106 108 107 107 108 109 107 106 105 105 104 105 106 104 103 108 121 119 119 120 129 125 126 129 127 -193 129 -193 -193 130 135 -193 -193 138 139 -193 138 140 145 146 144 149 154 -193 -193 -193 -193 81 80 83 79 80 83 -193 0 0 0 0 0
    0 0 0 0 0 0 0 0 0 0 0 0 0 0 0 0 0 0 0 0 0 0 0 0 0 0 0 0 0 0 0 0 0 0 0 0 0 0 0 0 0 0 0 0 0 0 0 0 0 0 0 0 0 0 0 0 0 0 0 0 0 0 0 0 0 0 0 0 0 60 60 59 57 57 55 55 54 53 53 52 51 51 49 49 49 47 46 47 46 47 45 45 45 43 42 42 42 41 40 40 40 40 39 39 38 38 37 37 38 36 37 35 35 34 34 34 34 31 34 29 34 28 30 27 26 27 26 25 25 24 24 23 24 24 23 19 18 17 20 17 17 16 15 11 16 16 16 -225 -225 -225 -225 -225 -225 -225 -225 -225 -225 -225 -225 -225 -225 -225 -225 -225 -225 -225 -225 -225 -225 -225 -225 -225 -225 -225 -225 -225 -225 -225 -225 -225 -225 -225 -225 -225 -225 -225 -225 -225 -225 -225 34 31 31 31 32 35 32 31 35 34 35 35 36 35 36 38 39 39 44 -193 45 46 46 46 47 49 51 49 52 54 54 57 57 57 65 61 62 64 66 64 65 66 68 64 68 68 68 67 72 73 74 71 76 80 82 82 84 86 86 88 90 92 94 97 99 100 101 103 104 105 105 106 107 106 106 107 108 105 105 104 103 103 104 105 104 103 108 120 119 119 120 128 125 126 129 127 -193 129 -193 -193 -193 -193 -193 -193 138 139 -193 138 139 144 144 142 148 154 -193 -193 79 82 83 82 85 81 80 83 83 0 0 0 0 0
    0 0 0 0 0 0 0 0 0 0 0 0 0 0 0 0 0 0 0 0 0 0 0 0 0 0 0 0 0 0 0 0 0 0 0 0 0 0 0 0 0 0 0 0 0 0 0 0 0 0 0 0 0 0 0 0 0 0 0 0 0 0 0 0 0 0 0 0 0 60 60 59 57 57 55 54 54 53 53 52 51 51 48 48 49 47 46 48 46 48 46 44 45 43 42 42 43 41 41 41 41 40 39 40 38 37 37 37 38 35 37 35 35 34 34 34 34 31 34 29 35 27 31 27 27 29 27 26 26 25 25 24 25 25 23 19 18 17 20 17 17 16 15 12 16 16 16 -225 -225 -225 -225 -225 -225 -225 -225 -225 -225 -225 -225 -225 -225 -225 -225 -225 -225 -225 -225 -225 -225 -225 -225 -225 -225 -225 0 0 0 0 0 0 0 -225 -225 -225 -225 -225 -225 -225 -225 -225 33 30 31 31 33 35 32 31 35 34 35 35 35 35 36 37 37 37 -193 -193 44 46 45 45 47 50 51 49 53 53 54 57 57 58 65 62 62 64 66 65 65 66 68 63 67 67 67 66 71 72 72 70 76 80 81 82 84 86 86 89 91 93 94 97 98 100 102 103 103 104 105 106 106 105 105 106 106 104 103 103 102 102 103 104 103 103 108 120 119 119 120 127 125 125 128 127 -193 128 -193 -193 -193 -193 -193 -209 138 139 -193 138 139 142 142 -193 147 -193 89 87 80 82 84 84 85 82 81 84 83 0 0 0 0 0
    0 0 0 0 0 0 0 0 0 0 0 0 0 0 0 0 0 0 0 0 0 0 0 0 0 0 0 0 0 0 0 0 0 0 0 0 0 0 0 0 0 0 0 0 0 0 0 0 0 0 0 0 0 0 0 0 0 0 0 0 0 0 0 0 0 0 0 0 0 61 60 59 57 57 56 55 54 54 53 52 51 51 48 47 48 47 46 48 47 50 48 45 46 44 42 43 43 42 41 42 41 41 40 40 38 37 37 37 38 35 37 34 35 34 34 34 34 31 35 29 36 27 32 27 28 28 26 26 26 25 25 24 25 24 23 20 18 17 20 17 17 16 15 12 16 16 16 -225 -225 -225 -225 -225 -225 -225 -225 -225 -225 -225 -225 -225 -225 -225 -225 -225 -225 -225 -225 -225 -225 -225 -225 -225 0 0 0 0 0 0 0 0 0 -225 -225 -225 -225 -225 -225 -225 -225 -225 30 29 30 30 32 34 31 31 36 35 35 35 36 35 37 38 37 37 42 -193 43 45 44 45 46 50 50 48 53 53 54 56 56 58 65 62 62 64 67 64 65 65 68 63 66 66 66 64 69 70 71 69 75 80 82 83 84 86 88 90 91 93 95 96 99 100 101 102 103 104 104 105 105 105 105 105 105 103 102 102 100 101 103 104 103 103 108 119 119 119 120 127 125 125 128 127 -193 127 -193 -193 -193 -193 -209 -209 138 139 -193 137 138 141 141 -209 -193 -193 90 89 83 84 85 85 86 83 82 84 83 0 0 0 0 0
    0 0 0 0 0 0 0 0 0 0 0 0 0 0 0 0 0 0 0 0 0 0 0 0 0 0 0 0 0 0 0 0 0 0 0 0 0 0 0 0 0 0 0 0 0 0 0 0 0 0 0 0 0 0 0 0 0 0 0 0 0 0 0 0 0 0 0 0 0 60 59 59 57 57 56 55 55 54 53 52 51 51 48 47 48 47 46 48 47 50 48 45 45 44 42 43 43 43 42 43 43 42 41 41 39 37 36 36 38 34 37 34 35 34 34 34 34 31 35 29 36 27 32 27 28 27 26 26 26 25 25 24 25 24 23 19 19 17 20 17 16 16 15 12 17 17 17 -225 -225 -225 -225 -225 -225 -225 -225 -225 -225 -225 -225 -225 -225 -225 -225 -225 -225 -225 -225 -225 -225 -225 -225 -225 0 0 0 0 0 0 0 0 0 0 -225 -225 -225 -225 -225 -225 -225 -193 30 29 30 30 33 33 30 31 36 35 35 35 35 35 37 37 37 36 42 42 43 44 44 45 47 50 50 48 52 53 54 56 56 58 65 62 62 64 67 64 65 65 68 62 65 65 65 63 68 69 70 67 75 80 82 83 85 88 89 91 92 94 96 98 99 100 101 102 103 103 104 105 104 104 104 105 105 103 102 102 100 102 103 104 103 103 108 120 120 120 120 128 125 125 128 126 -193 -193 -193 -193 -209 -209 -209 -209 -209 -193 -193 137 138 139 140 89 -193 90 91 90 86 86 87 86 86 84 83 85 83 0 0 0 0 0
    0 0 0 0 0 0 0 0 0 0 0 0 0 0 0 0 0 0 0 0 0 0 0 0 0 0 0 0 0 0 0 0 0 0 0 0 0 0 0 0 0 0 0 0 0 0 0 0 0 0 0 0 0 0 0 0 0 0 0 0 0 0 0 0 0 0 0 0 0 59 58 58 57 57 56 55 55 54 53 52 51 51 48 47 47 46 46 47 46 49 48 45 45 44 42 44 43 43 43 43 43 42 41 42 39 37 36 36 38 34 36 34 35 34 34 34 34 31 34 29 36 26 32 26 29 27 26 26 26 25 26 25 26 24 24 20 19 17 20 17 17 16 16 12 18 18 18 -225 -225 -225 -225 -225 -225 -225 -225 -225 -225 -225 -225 -225 -225 -225 -225 -225 -225 -225 -225 -225 -225 -225 -225 -225 0 0 0 0 0 0 0 0 0 0 0 -225 -225 -225 -225 -225 -225 -193 29 29 30 31 32 33 30 31 36 36 35 36 35 35 37 36 36 35 40 41 41 43 43 44 46 50 51 48 53 53 54 56 56 58 66 62 63 65 66 64 64 65 68 62 65 65 65 63 67 68 69 67 75 80 82 84 85 88 89 91 92 94 95 97 98 99 100 101 102 102 103 104 103 103 103 103 104 102 102 101 99 102 103 104 104 103 108 120 120 120 120 128 125 125 128 127 -193 -193 -193 -193 -209 -209 -209 -209 -209 -193 -193 137 138 140 140 90 94 92 92 91 87 87 88 87 87 84 83 85 85 0 0 0 0 0
    0 0 0 0 0 0 0 0 0 0 0 0 0 0 0 0 0 0 0 0 0 0 0 0 0 0 0 0 0 0 0 0 0 0 0 0 0 0 0 0 0 0 0 0 0 0 0 0 0 0 0 0 0 0 0 0 0 0 0 0 0 0 0 0 0 0 0 0 0 59 57 57 57 56 56 55 55 55 54 53 52 51 48 46 47 46 46 47 47 48 47 45 45 44 42 43 42 42 42 42 42 42 41 42 38 37 36 36 38 34 36 34 35 34 34 34 34 31 34 28 35 26 31 26 29 28 26 26 27 25 26 25 26 23 24 20 19 18 21 18 17 17 16 12 20 20 19 -225 -225 -225 -225 -225 -225 -225 -225 -225 -225 -225 -225 -225 -225 -225 -225 -225 -225 -225 -225 -225 -225 -225 -225 0 10 0 0 0 0 0 0 0 0 0 0 0 9 -225 -225 -225 -225 28 28 28 29 32 32 32 30 31 37 36 35 36 35 35 37 35 35 35 39 40 40 42 42 44 47 50 51 47 52 53 54 55 54 58 65 62 63 64 66 64 64 65 67 62 65 65 65 63 67 68 69 67 75 82 84 86 86 89 90 91 93 94 96 96 98 98 99 101 102 102 102 103 102 102 102 102 103 101 101 100 98 102 103 104 104 104 108 120 121 121 121 128 125 126 128 127 -177 -193 -193 -193 -193 -193 -193 -209 -209 -193 253 138 138 140 141 91 96 93 93 92 89 88 -193 87 87 84 83 86 85 0 0 0 0 0
    0 0 0 0 0 0 0 0 0 0 0 0 0 0 0 0 0 0 0 0 0 0 0 0 0 0 0 0 0 0 0 0 0 0 0 0 0 0 0 0 0 0 0 0 0 0 0 0 0 0 0 0 0 0 0 0 0 0 0 0 0 0 0 0 0 0 0 0 0 59 56 56 56 56 57 55 56 55 54 53 51 51 49 46 46 46 46 47 47 47 46 44 44 44 41 42 41 41 41 41 42 41 41 42 38 38 36 36 38 34 36 34 35 34 33 34 34 31 34 28 34 25 30 26 29 28 27 27 27 25 26 25 26 23 23 19 19 17 21 19 18 18 17 13 22 22 21 -225 -225 -225 -225 -225 -225 -225 -225 -225 -225 -225 -225 -225 -225 -225 -225 -225 -225 -225 -225 -225 -225 -225 -225 0 10 0 0 0 0 0 0 0 0 0 0 0 9 9 -225 -225 283 27 28 28 29 33 31 31 30 31 37 36 35 36 34 35 37 36 35 35 39 41 40 42 42 44 47 50 50 46 53 53 55 55 54 58 65 62 63 64 66 64 64 65 67 62 65 65 65 64 68 68 69 68 76 84 85 86 87 90 91 92 94 94 95 96 97 97 98 100 100 100 101 103 100 100 101 100 102 100 100 100 98 102 104 104 105 105 109 120 122 121 121 129 125 126 128 127 -193 -193 -193 -193 -193 -193 -193 -209 -209 -193 253 -193 138 140 141 91 96 93 94 93 89 89 -193 87 88 85 84 86 85 0 0 0 0 0
    0 0 0 0 0 0 0 0 0 0 0 0 0 0 0 0 0 0 0 0 0 0 0 0 0 0 0 0 0 0 0 0 0 0 0 0 0 0 0 0 0 0 0 0 0 0 0 0 0 0 0 0 0 0 0 0 0 0 0 0 0 0 0 0 0 0 0 0 0 58 56 57 57 56 58 56 56 55 55 53 52 51 50 45 46 46 47 47 47 47 45 44 45 45 41 42 41 41 41 41 42 41 41 42 38 38 35 36 38 34 36 34 35 34 33 34 34 31 34 28 33 25 29 26 29 27 26 26 26 24 25 24 25 22 22 19 19 17 22 20 19 19 18 14 24 24 23 -225 -225 -225 -225 -225 -225 -225 -225 -225 -225 -225 -225 -225 -225 -225 -225 -225 -225 -225 -225 -225 -225 -225 -225 0 9 0 0 0 0 0 0 0 0 0 0 0 9 9 -225 -225 -193 27 28 28 29 34 31 31 31 32 37 36 34 36 34 35 37 36 36 35 39 41 40 42 43 44 47 50 51 47 53 53 55 56 55 58 65 62 62 63 66 63 64 65 67 62 65 65 65 64 68 69 70 69 76 84 86 87 87 90 92 94 94 94 95 96 96 96 97 98 99 99 100 102 99 100 100 100 102 100 101 100 99 103 104 105 105 106 109 120 122 121 121 129 125 125 127 127 -193 -193 -193 -193 -193 -193 -177 -209 -209 -193 253 -193 138 140 140 -209 97 93 93 92 88 88 -193 87 88 85 85 86 85 0 0 0 0 0
    0 0 0 0 0 0 0 0 0 0 0 0 0 0 0 0 0 0 0 0 0 0 0 0 0 0 0 0 0 0 0 0 0 0 0 0 0 0 0 0 0 0 0 0 0 0 0 0 0 0 0 0 0 0 0 0 0 0 0 0 0 0 0 0 0 0 0 0 0 58 56 57 57 56 58 56 56 55 55 53 52 51 49 46 46 46 47 47 47 46 45 44 46 47 43 43 42 42 42 42 42 42 41 42 38 38 35 35 38 34 36 34 35 34 34 34 34 31 34 29 33 26 30 26 29 27 26 26 26 24 25 23 24 21 22 19 19 17 22 21 20 20 19 15 25 25 25 -225 -225 -225 -225 -225 -225 -225 -225 -225 -225 -225 -225 -225 -225 -225 -225 -225 -225 -225 -225 -225 -225 -225 -225 0 0 0 0 0 0 0 0 0 0 0 0 0 0 9 -225 -225 280 26 27 27 28 34 31 32 32 32 36 36 34 36 34 35 36 35 36 35 39 41 40 42 43 44 46 48 49 46 52 53 55 55 55 58 65 62 62 63 66 63 63 65 67 62 65 65 66 65 69 69 70 70 76 83 84 85 87 90 92 93 94 94 94 95 95 95 96 97 98 97 99 101 98 99 98 98 101 100 101 101 99 104 105 105 106 107 110 121 122 121 121 129 125 125 127 128 -177 -193 -193 -193 -193 -193 -193 -193 -209 251 253 -193 138 -193 140 -209 97 92 92 91 87 87 88 86 87 86 85 87 85 0 0 0 0 0
    0 0 0 0 0 0 0 0 0 0 0 0 0 0 0 0 0 0 0 0 0 0 0 0 0 0 0 0 0 0 0 0 0 0 0 0 0 0 0 0 0 0 0 0 0 0 0 0 0 0 0 0 0 0 0 0 0 0 0 0 0 0 0 0 0 0 0 0 0 58 57 57 57 56 58 56 56 55 55 52 52 52 49 46 46 46 48 47 48 46 45 45 48 50 44 44 42 43 43 43 43 43 41 42 38 38 35 35 38 34 36 34 35 34 34 34 34 31 34 29 33 27 30 27 30 27 27 26 26 24 24 23 23 21 22 19 19 17 22 21 21 21 20 17 26 27 27 -225 -225 -225 -225 -225 -225 -225 -225 -225 -225 -225 -225 -225 -225 -225 -225 -225 -225 -225 -225 -225 -225 -225 0 0 9 0 0 0 0 0 0 0 0 0 0 0 0 10 -225 275 -193 26 27 26 27 35 31 32 32 33 36 36 34 36 33 35 36 35 36 36 38 41 40 42 43 44 46 47 48 45 51 52 54 55 55 58 65 61 62 63 66 63 63 65 67 62 65 65 67 65 69 70 71 71 76 83 84 85 87 90 91 92 93 94 94 94 94 95 95 96 96 95 97 100 96 97 96 96 100 100 102 101 100 104 105 106 107 108 110 121 124 122 122 129 125 125 126 128 -193 -193 -193 -193 -193 -193 -193 -193 133 251 253 -193 138 139 140 -209 -193 -193 -193 90 87 87 88 86 87 86 86 88 86 0 0 0 0 0
    0 0 0 0 0 0 0 0 0 0 0 0 0 0 0 0 0 0 0 0 0 0 0 0 0 0 0 0 0 0 0 0 0 0 0 0 0 0 0 0 0 0 0 0 0 0 0 0 0 0 0 0 0 0 0 0 0 0 0 0 0 0 0 0 0 0 0 0 0 58 57 56 56 56 57 56 56 55 55 52 52 52 49 46 46 46 48 47 48 46 45 46 49 50 45 45 43 43 43 43 43 43 41 42 38 38 35 35 38 35 36 34 35 34 34 34 34 31 33 29 33 27 30 27 29 27 27 26 26 24 24 23 23 20 21 18 18 17 22 22 22 22 22 19 27 29 29 -225 -225 -225 -225 -225 -225 -225 -225 -225 -225 -225 -225 -225 -225 -225 -225 -225 -225 -225 -225 -225 -225 -225 0 0 11 0 0 0 0 0 0 0 0 0 0 0 0 10 19 -177 -193 26 27 27 27 35 31 31 33 33 36 36 34 36 33 35 36 35 37 36 39 40 40 42 43 44 45 46 47 44 50 52 54 55 55 58 65 62 62 63 66 63 64 65 68 62 65 66 67 66 70 70 71 71 76 83 84 85 87 89 91 92 93 93 93 94 94 94 95 95 96 94 96 99 95 95 95 96 101 101 102 102 101 105 106 107 108 108 110 121 125 123 123 130 126 126 127 129 126 -193 -193 -193 -193 -193 -193 -193 132 251 253 -193 138 139 139 -209 -193 -193 -193 -193 88 88 88 86 -209 -193 -193 -193 159 0 0 0 0 0
    0 0 0 0 0 0 0 0 0 0 0 0 0 0 0 0 0 0 0 0 0 0 0 0 0 0 0 0 0 0 0 0 0 0 0 0 0 0 0 0 0 0 0 0 0 0 0 0 0 0 0 0 0 0 0 0 0 0 0 0 0 0 0 0 0 0 0 0 0 57 57 55 55 55 56 55 55 54 54 52 52 52 49 47 46 46 48 47 47 46 45 46 49 50 45 44 43 43 43 42 42 42 41 41 38 38 35 35 38 35 36 34 35 34 34 34 34 31 33 29 32 26 30 27 29 27 27 26 26 24 24 22 22 20 21 18 18 16 23 22 23 23 24 23 28 31 31 -225 -225 -225 -225 -225 -225 -225 -225 -225 -225 -225 -225 -225 -225 -225 -225 -225 -225 -225 -225 -225 -225 -225 0 0 13 0 0 0 0 0 0 9 9 0 0 0 10 11 16 19 22 25 25 26 27 35 30 31 34 32 35 35 33 35 32 34 35 34 37 36 38 40 39 42 43 43 45 45 46 43 49 52 54 55 55 57 66 62 62 63 66 64 64 65 68 62 65 66 67 67 70 70 71 71 76 82 84 85 87 89 90 91 92 93 93 93 93 94 94 95 95 93 94 97 94 94 94 95 101 101 103 103 102 106 107 108 109 109 110 121 126 123 123 130 126 126 127 129 127 -193 -193 -193 -193 -193 -193 -193 132 251 253 137 137 138 139 -193 -193 -193 159 163 -193 -193 -209 160 160 160 159 162 160 0 0 0 0 0
    0 0 0 0 0 0 0 0 0 0 0 0 0 0 0 0 0 0 0 0 0 0 0 0 0 0 0 0 0 0 0 0 0 0 0 0 0 0 0 0 0 0 0 0 0 0 0 0 0 0 0 0 0 0 0 0 0 0 0 0 0 0 0 0 0 0 0 0 0 57 57 56 54 55 55 55 54 54 54 52 52 53 49 47 46 46 48 47 47 46 45 46 49 50 46 45 44 43 43 42 42 41 39 40 37 38 35 35 38 35 36 34 35 34 34 34 34 31 33 29 33 26 30 27 29 27 27 26 26 24 24 22 21 20 20 18 18 16 23 23 23 25 25 25 28 32 32 -225 -225 -225 -225 -225 -225 -225 -225 -225 -225 -225 -225 -225 -225 -225 -225 -225 -225 -225 -225 -225 -225 -225 0 0 14 9 9 9 10 9 10 11 11 0 9 9 12 12 15 15 20 23 24 25 26 34 30 31 34 32 34 34 32 34 31 33 34 33 37 36 38 39 38 42 42 -193 44 44 45 43 48 51 54 56 55 57 66 62 63 63 66 64 64 66 68 62 66 67 67 67 70 71 71 71 77 83 84 85 87 88 90 91 92 92 92 92 92 93 94 94 94 92 93 97 94 95 95 95 101 102 104 103 103 106 107 109 109 109 109 121 126 123 123 130 126 126 127 130 127 -193 -193 -177 -177 -177 -177 -193 -193 251 -193 137 137 138 138 140 -193 152 157 161 160 160 161 159 160 161 161 164 162 0 0 0 0 0
    0 0 0 0 0 0 0 0 0 0 0 0 0 0 0 0 0 0 0 0 0 0 0 0 0 0 0 0 0 0 0 0 0 0 0 0 0 0 0 0 0 0 0 0 0 0 0 0 0 0 0 0 0 0 0 0 0 0 0 0 0 0 0 0 0 0 0 0 0 57 57 56 54 55 55 55 54 54 54 52 52 53 49 47 46 46 48 47 47 47 45 45 50 50 47 45 45 44 43 42 42 41 39 39 36 37 35 35 38 35 36 35 36 35 34 35 35 32 33 30 33 26 30 27 29 27 27 26 26 24 24 22 20 19 19 18 18 15 23 23 23 25 26 26 28 31 31 -225 -225 -225 -225 -225 -225 -225 -225 -225 -225 -225 -225 -225 -225 -225 -225 -225 -225 -225 -225 -225 -225 -225 0 0 12 0 9 9 9 0 9 10 11 0 9 9 11 13 16 15 20 23 24 25 26 33 29 31 35 32 34 33 32 35 31 34 35 34 38 38 40 40 39 42 43 -193 43 43 44 42 47 51 54 57 57 58 66 62 63 63 66 64 -177 -177 68 62 66 67 67 66 70 71 71 71 77 83 85 86 87 88 90 91 92 92 92 92 92 92 94 93 93 92 95 98 95 96 96 95 101 103 104 104 104 106 108 109 110 110 109 121 127 123 123 130 126 126 127 130 128 975 977 978 -177 -177 -177 -177 -193 -193 -193 138 137 138 138 141 142 152 156 157 157 157 158 158 159 162 161 164 164 0 0 0 0 0
    0 0 0 0 0 0 0 0 0 0 0 0 0 0 0 0 0 0 0 0 0 0 0 0 0 0 0 0 0 0 0 0 0 0 0 0 0 0 0 0 0 0 0 0 0 0 0 0 0 0 0 0 0 0 0 0 0 0 0 0 0 0 0 0 0 0 0 0 0 57 56 56 54 55 55 55 54 53 54 52 51 52 49 46 45 46 48 47 47 47 45 45 50 51 48 46 46 45 44 42 42 41 39 39 36 37 35 35 38 35 35 35 36 35 35 35 35 32 34 31 34 27 31 28 30 27 27 26 26 24 23 22 20 19 19 18 19 15 22 22 22 25 26 26 28 30 30 -225 -225 -225 -225 -225 -225 -225 -225 -225 -225 -225 -225 -225 -225 -225 -225 -225 -225 -225 -225 -225 -225 -225 0 0 11 9 9 10 9 9 10 11 10 9 10 10 11 13 16 16 21 24 24 25 26 33 29 31 35 31 33 34 33 35 32 35 35 35 40 39 40 39 39 42 42 -193 42 42 43 42 46 50 54 58 58 58 67 62 63 63 67 64 64 66 68 62 66 67 67 66 70 71 71 71 77 83 84 85 86 87 89 90 91 91 91 91 91 91 93 93 93 94 97 100 97 97 98 97 101 103 104 104 104 107 108 110 110 110 108 120 127 123 123 130 126 126 127 131 128 -193 -193 -177 -177 -177 -177 -177 -193 -193 137 138 137 138 139 141 144 151 154 154 155 155 157 157 158 162 160 164 164 0 0 0 0 0
    0 0 0 0 0 0 0 0 0 0 0 0 0 0 0 0 0 0 0 0 0 0 0 0 0 0 0 0 0 0 0 0 0 0 0 0 0 0 0 0 0 0 0 0 0 0 0 0 0 0 0 0 0 0 0 0 0 0 0 0 0 0 0 0 0 0 0 0 0 58 57 56 54 55 54 54 53 53 53 51 50 51 48 46 45 45 47 46 47 47 45 45 49 51 49 47 47 47 46 44 43 42 39 39 36 37 35 35 38 36 35 35 36 35 35 35 35 32 33 33 35 27 31 28 30 27 26 26 26 24 23 22 20 18 19 18 19 15 22 21 21 24 25 26 27 28 28 -225 -225 -225 -225 -225 -225 -225 -225 -225 -225 -225 -225 -225 -225 -225 -225 -225 -225 -225 -225 -225 -225 0 0 0 11 9 10 10 10 10 11 11 10 9 10 10 11 13 15 17 20 22 23 24 25 30 28 30 34 31 33 34 33 35 32 35 36 36 41 41 40 39 39 -193 42 -193 42 42 42 42 46 49 53 58 58 58 67 62 63 63 67 65 65 -177 68 63 67 68 68 67 71 71 72 72 77 83 83 84 86 87 88 89 89 89 90 90 90 90 93 92 95 96 98 101 98 98 99 97 102 104 105 105 105 107 109 111 111 110 108 120 128 124 124 130 126 127 127 131 128 976 977 978 -177 -177 -177 -177 -193 -193 138 139 137 139 140 142 146 152 153 153 154 154 156 156 157 161 159 163 164 0 0 0 0 0
    0 0 0 0 0 0 0 0 0 0 0 0 0 0 0 0 0 0 0 0 0 0 0 0 0 0 0 0 0 0 0 0 0 0 0 0 0 0 0 0 0 0 0 0 0 0 0 0 0 0 0 0 0 0 0 0 0 0 0 0 0 0 0 0 0 0 0 0 0 59 57 56 54 54 54 54 53 52 53 51 50 51 47 46 44 45 47 46 46 47 46 45 49 51 50 48 48 48 47 45 45 44 40 40 37 37 35 35 38 36 35 35 36 35 34 35 35 32 33 34 35 27 31 27 30 27 26 25 25 24 23 23 20 18 19 18 19 15 21 20 20 23 25 25 27 27 27 -225 -225 -225 -225 -225 -225 -225 -225 -225 -225 -225 -225 -225 -225 -225 -225 -225 -225 -225 -225 -225 -225 0 0 0 12 11 11 11 11 11 12 12 11 10 11 11 13 14 16 19 21 23 23 25 25 29 28 29 33 30 32 34 34 36 33 36 37 36 42 42 40 38 38 -193 42 42 42 42 42 42 46 48 52 58 58 58 67 63 63 63 67 65 65 -177 -177 -177 -177 -177 -193 -193 72 72 73 72 76 82 83 84 86 86 87 88 88 89 89 89 89 90 93 93 96 97 98 100 99 98 99 98 102 105 105 105 105 107 109 111 111 111 108 120 129 124 124 130 126 127 128 131 128 976 978 979 974 977 978 979 -193 -193 139 140 137 140 141 145 148 152 153 153 153 153 155 156 157 160 158 162 164 0 0 0 0 0
    0 0 0 0 0 0 0 0 0 0 0 0 0 0 0 0 0 0 0 0 0 0 0 0 0 0 0 0 0 0 0 0 0 0 0 0 0 0 0 0 0 0 0 0 0 0 0 0 0 0 0 0 0 0 0 0 0 0 0 0 0 0 0 0 0 0 0 0 0 59 57 56 54 55 54 54 53 52 53 51 49 50 47 46 44 44 46 46 46 47 46 46 49 51 50 48 49 49 48 46 45 44 40 40 38 37 36 35 38 36 35 34 35 34 34 35 35 31 31 33 34 27 30 27 29 26 26 25 25 24 23 23 21 18 19 17 19 15 20 19 18 21 25 25 26 26 26 -225 -225 -225 -225 -225 -225 -225 -225 -225 -225 -225 -225 -225 -225 -225 -225 -225 -225 -225 -225 -225 -225 0 0 9 11 11 11 11 11 11 12 12 11 11 11 12 13 14 18 19 22 24 24 26 25 28 29 28 32 31 32 34 34 36 35 37 39 38 42 43 41 39 40 42 42 42 42 42 42 42 46 47 50 58 58 58 68 63 63 64 67 65 66 -177 -177 -177 -177 -177 69 68 71 72 72 71 76 81 83 84 85 86 87 89 88 89 90 90 91 92 94 95 98 99 99 101 100 99 100 98 102 106 105 106 106 107 110 112 111 111 108 120 130 124 124 131 126 127 128 131 128 976 978 980 975 979 980 980 -177 138 140 142 -193 141 142 147 149 152 153 153 154 153 156 156 157 159 158 161 164 0 0 0 0 0
    0 0 0 0 0 0 0 0 0 0 0 0 0 0 0 0 0 0 0 0 0 0 0 0 0 0 0 0 0 0 0 0 0 0 0 0 0 0 0 0 0 0 0 0 0 0 0 0 0 0 0 0 0 0 0 0 0 0 0 0 0 0 0 0 0 0 0 0 0 59 57 56 54 55 54 54 53 53 53 51 49 49 46 46 44 44 46 46 46 47 46 46 48 51 50 48 48 49 48 45 44 43 40 40 38 37 36 35 38 36 34 34 35 34 34 34 34 31 30 32 33 26 29 27 28 26 26 25 24 24 23 23 21 18 18 17 19 15 20 19 17 19 24 24 24 24 24 -225 -225 -225 -225 -225 -225 -225 -225 -225 -225 -225 -225 -225 -225 -225 -225 -225 -225 -225 -225 -225 -225 0 0 0 0 9 10 10 10 11 12 12 10 11 12 12 14 14 19 19 22 24 24 26 25 27 28 28 32 31 32 34 34 37 36 38 39 39 42 42 41 39 40 43 42 42 42 42 43 42 46 47 49 58 58 58 68 62 63 64 68 66 66 -177 69 65 69 69 69 67 71 71 71 70 75 79 81 82 82 83 86 88 87 90 90 90 92 93 96 96 98 99 99 101 100 100 100 99 102 106 105 106 106 107 110 112 111 111 108 120 129 124 124 131 127 127 128 131 128 976 979 981 -177 -177 -177 -177 -177 138 141 143 -193 142 143 148 150 153 154 154 154 154 156 156 157 159 158 160 164 0 0 0 0 0
    0 0 0 0 0 0 0 0 0 0 0 0 0 0 0 0 0 0 0 0 0 0 0 0 0 0 0 0 0 0 0 0 0 0 0 0 0 0 0 0 0 0 0 0 0 0 0 0 0 0 0 0 0 0 0 0 0 0 0 0 0 0 0 0 0 0 0 0 0 59 57 56 54 55 54 54 53 52 53 51 48 48 45 46 44 44 45 45 45 46 46 46 46 50 49 47 46 47 46 44 43 43 39 40 37 37 36 35 38 36 34 34 35 34 34 34 34 31 29 33 33 26 28 26 28 26 26 24 24 23 23 23 21 18 19 17 19 15 20 18 16 17 22 22 23 23 21 -225 -225 -225 -225 -225 -225 -225 -225 -225 -225 -225 -225 -225 -225 -225 -225 -225 -225 -225 -225 -225 0 0 0 0 0 0 9 10 10 10 11 11 10 11 12 13 15 14 19 19 22 23 23 25 25 26 28 27 31 31 33 35 35 37 36 38 40 -193 41 42 41 39 40 43 41 42 42 42 43 43 46 46 48 57 58 58 67 62 63 64 68 66 66 -177 69 65 69 69 69 67 70 71 71 71 75 77 79 79 79 82 84 87 87 90 90 91 93 93 96 96 99 100 99 101 100 100 100 100 102 107 105 106 106 107 110 112 112 112 108 121 130 125 125 131 127 128 129 132 129 977 979 982 -177 -177 -177 -177 -177 -193 141 144 -193 143 145 149 151 152 154 154 154 154 157 157 157 159 158 160 -193 0 0 0 0 0
    0 0 0 0 0 0 0 0 0 0 0 0 0 0 0 0 0 0 0 0 0 0 0 0 0 0 0 0 0 0 0 0 0 0 0 0 0 0 0 0 0 0 0 0 0 0 0 0 0 0 0 0 0 0 0 0 0 0 0 0 0 0 0 0 0 0 0 0 0 60 58 56 54 55 54 54 53 52 52 51 47 46 45 47 44 44 45 45 45 46 46 46 45 49 48 46 45 46 45 43 43 43 40 40 38 37 35 35 38 37 34 34 35 34 34 34 34 31 29 34 33 27 28 27 28 26 26 24 24 23 23 23 21 19 19 17 19 15 20 18 15 15 21 21 21 21 19 -225 -225 -225 -225 -225 -225 -225 -225 -225 -225 -225 -225 -225 -225 -225 -225 -225 -225 -225 -225 0 0 0 0 9 0 0 9 10 10 10 11 11 9 11 12 14 16 17 22 20 22 23 24 25 24 26 27 27 30 31 34 35 35 37 37 39 41 -193 41 41 41 38 40 42 41 41 42 43 43 43 46 46 48 58 58 58 67 62 63 64 68 66 66 68 68 65 69 69 69 67 71 71 71 72 74 76 77 78 77 79 81 85 86 90 90 91 93 93 96 96 99 100 100 101 100 100 100 100 102 106 105 106 106 107 110 112 112 112 108 121 130 125 125 131 128 129 130 132 129 -177 -177 -177 -177 -177 -177 -193 -177 -193 141 144 -193 143 146 149 151 152 154 154 154 154 -193 -193 -193 -193 -193 -193 -209 0 0 0 0 0
    0 0 0 0 0 0 0 0 0 0 0 0 0 0 0 0 0 0 0 0 0 0 0 0 0 0 0 0 0 0 0 0 0 0 0 0 0 0 0 0 0 0 0 0 0 0 0 0 0 0 0 0 0 0 0 0 0 0 0 0 0 0 0 0 0 0 0 0 0 62 58 57 55 55 54 53 52 52 52 51 47 45 44 48 44 44 45 46 45 46 46 46 44 48 47 45 43 44 44 43 43 43 40 41 39 38 36 35 38 37 33 34 35 34 34 34 34 30 29 34 32 27 28 27 28 26 27 24 23 23 22 23 22 19 19 16 19 15 19 17 15 14 19 19 19 19 18 -225 -225 -225 -225 -225 -225 -225 -225 -225 -225 -225 -225 -225 -225 -225 -225 -225 9 10 0 0 0 0 0 11 0 0 9 10 9 10 10 10 0 10 11 -193 13 16 22 20 22 23 23 25 24 25 27 26 30 31 33 35 35 37 38 39 41 -193 41 42 42 39 41 43 41 42 42 43 43 43 46 47 49 57 58 58 66 62 63 64 68 66 66 69 68 65 69 69 69 68 71 71 71 72 74 76 77 77 77 78 80 85 86 90 90 91 93 94 97 96 100 100 100 101 100 100 100 99 102 105 105 105 106 107 110 112 112 112 108 120 130 125 125 131 129 131 131 133 130 -177 -177 -193 -193 -193 -193 -193 -193 -193 140 144 -177 -193 146 149 151 152 153 153 153 154 -193 83 83 85 85 -193 -193 0 0 0 0 0
    0 0 0 0 0 0 0 0 0 0 0 0 0 0 0 0 0 0 0 0 0 0 0 0 0 0 0 0 0 0 0 0 0 0 0 0 0 0 0 0 0 0 0 0 0 0 0 0 0 0 0 0 0 0 0 0 0 0 0 0 0 0 0 0 0 0 0 0 0 63 58 56 55 55 53 52 52 52 52 51 47 44 43 49 44 44 46 46 45 46 46 46 44 47 46 44 42 43 43 42 42 42 41 41 39 38 36 36 38 37 33 33 34 33 33 34 34 30 29 34 32 27 28 27 28 26 27 23 23 23 22 23 22 19 19 16 19 15 19 17 15 13 18 18 19 19 18 -225 -225 -225 -225 -225 -225 -225 -225 -225 -225 -225 -225 -225 -225 -225 -225 9 0 0 0 0 0 0 0 11 0 10 10 10 10 12 12 11 -193 10 11 -193 13 14 20 18 21 22 23 25 23 25 27 26 30 32 33 36 35 37 38 39 41 41 40 41 41 39 40 42 41 41 42 43 43 43 46 47 50 57 57 57 66 62 63 64 68 67 67 69 68 65 70 69 70 68 71 71 71 73 74 75 77 77 77 77 81 85 86 90 90 91 93 94 96 96 99 99 99 100 100 100 100 99 102 105 104 105 106 107 109 112 111 112 108 120 129 124 124 131 131 132 133 134 131 -193 -193 -193 -193 -193 -193 -193 -193 -193 -193 -193 -177 -193 -193 149 150 151 152 -193 153 154 -193 81 82 83 83 85 86 0 0 0 0 0
    0 0 0 0 0 0 0 0 0 0 0 0 0 0 0 0 0 0 0 0 0 0 0 0 0 0 0 0 0 0 0 0 0 0 0 0 0 0 0 0 0 0 0 0 0 0 0 0 0 0 0 0 0 0 0 0 0 0 0 0 0 0 0 0 0 0 0 0 0 63 59 56 55 54 53 52 52 52 51 50 47 44 43 50 45 45 46 46 46 46 47 47 44 46 45 43 41 41 42 41 42 41 40 41 39 39 36 36 38 37 33 33 34 33 33 33 33 29 28 34 31 27 27 26 27 26 27 23 22 23 22 22 22 19 20 15 18 15 19 16 15 12 17 17 18 18 17 -225 -225 -225 -225 -225 -225 -225 -225 -225 -225 -225 -225 -225 -225 -225 0 0 0 9 10 9 0 0 10 12 9 10 11 10 10 12 12 10 9 10 12 15 14 14 20 18 20 22 22 24 23 24 27 26 29 32 33 35 35 37 39 39 42 42 41 42 42 39 40 42 41 41 42 43 43 43 46 48 50 57 57 57 66 62 63 64 68 67 67 69 68 65 70 69 70 69 71 70 70 73 74 75 77 77 77 78 82 86 86 90 90 91 93 94 95 95 97 97 97 99 99 99 99 98 103 105 105 105 107 107 109 112 111 111 108 120 129 124 124 131 132 133 133 134 132 -193 -193 -193 -193 -193 -193 -193 -193 -193 -177 -193 -177 -193 -193 149 150 151 152 -177 -209 154 -193 80 81 82 82 84 84 0 0 0 0 0
    0 0 0 0 0 0 0 0 0 0 0 0 0 0 0 0 0 0 0 0 0 0 0 0 0 0 0 0 0 0 0 0 0 0 0 0 0 0 0 0 0 0 0 0 0 0 0 0 0 0 0 0 0 0 0 0 0 0 0 0 0 0 0 0 0 0 0 0 0 61 58 56 54 54 53 52 52 52 51 50 47 45 44 51 46 46 47 47 47 47 48 48 44 46 45 42 40 40 41 40 41 40 39 40 39 38 36 36 38 37 33 33 34 33 32 33 33 29 28 33 30 26 27 26 27 26 28 23 22 23 22 23 22 20 20 14 18 14 18 16 14 12 14 16 18 18 17 -225 -225 -225 -225 -225 -225 -225 -225 -225 -225 -225 -225 -225 -225 -225 0 0 0 10 10 10 9 9 12 13 10 10 10 10 9 11 11 9 0 10 12 16 15 15 20 17 20 22 22 23 23 24 27 26 29 32 33 35 35 37 39 39 42 42 41 42 43 40 39 41 40 41 42 42 43 43 47 49 52 58 58 58 66 62 63 64 68 67 67 69 67 65 69 69 69 68 70 70 70 73 74 75 77 77 78 78 82 86 86 90 90 91 92 93 95 94 96 95 97 99 99 99 99 99 103 107 105 106 107 107 110 112 111 111 108 120 127 124 124 131 133 133 134 -193 133 130 -193 -193 -193 130 131 -193 -193 -193 -177 -193 -177 141 145 149 150 150 151 -177 -193 -193 157 -193 80 -193 81 83 84 0 0 0 0 0
    0 0 0 0 0 0 0 0 0 0 0 0 0 0 0 0 0 0 0 0 0 0 0 0 0 0 0 0 0 0 0 0 0 0 0 0 0 0 0 0 0 0 0 0 0 0 0 0 0 0 0 0 0 0 0 0 0 0 0 0 0 0 0 0 0 0 0 0 0 58 56 55 54 53 52 52 52 52 51 50 48 47 45 52 47 46 48 48 47 47 48 48 44 45 44 41 39 39 39 39 39 38 38 39 38 38 35 35 38 37 33 33 34 33 32 33 33 29 28 33 30 26 27 26 27 26 28 23 22 23 23 23 22 21 21 15 18 16 19 16 14 12 14 14 17 17 17 -225 -225 -225 -225 -225 -225 -225 -225 -225 -225 -225 -225 -225 -225 -225 0 0 0 10 10 11 10 10 12 12 10 11 10 9 9 10 10 9 0 10 12 17 16 16 21 18 20 22 22 23 23 24 27 26 30 32 33 34 35 37 39 39 42 42 41 42 43 40 39 -193 39 39 41 42 42 43 47 51 53 58 59 58 65 62 63 64 67 67 67 69 67 64 68 68 69 68 70 69 69 73 74 75 77 77 78 78 81 85 85 89 90 91 91 92 93 92 94 94 97 100 100 101 100 100 103 107 106 106 107 107 110 111 111 111 108 120 127 123 123 130 134 134 135 -193 133 131 -193 -193 -193 129 129 129 -193 -193 -177 -193 -177 141 144 149 149 149 151 -193 -193 -193 -193 -193 -193 -193 81 82 84 0 0 0 0 0
    0 0 0 0 0 0 0 0 0 0 0 0 0 0 0 0 0 0 0 0 0 0 0 0 0 0 0 0 0 0 0 0 0 0 0 0 0 0 0 0 0 0 0 0 0 0 0 0 0 0 0 0 0 0 0 0 0 0 0 0 0 0 0 0 0 0 0 0 0 56 55 54 53 52 51 51 52 52 51 50 47 47 46 52 47 47 48 48 47 48 47 47 44 44 43 41 39 39 39 39 38 37 37 38 38 37 35 34 37 37 33 33 34 33 32 33 33 29 28 34 30 26 27 26 27 26 27 23 22 23 23 23 23 21 21 16 18 16 19 16 14 12 14 13 17 17 17 -225 -225 -225 -225 -225 -225 -225 -225 -225 -225 -225 -225 -225 -225 -225 0 0 0 11 10 10 9 9 11 11 10 10 9 9 0 10 10 9 9 10 12 17 17 17 21 18 20 22 22 23 23 25 27 26 29 32 33 34 35 37 39 39 42 42 41 42 42 40 38 -193 38 38 -193 42 42 43 47 52 54 57 59 58 64 63 63 63 67 67 67 69 67 65 68 68 69 68 70 69 69 73 73 75 76 76 77 77 81 84 85 88 89 90 90 90 90 90 91 91 95 100 100 101 101 101 104 107 106 106 107 107 109 111 110 111 108 119 125 123 123 130 -193 134 135 -193 134 131 -193 -193 -193 127 128 128 -193 -193 -193 -177 -177 140 144 148 148 148 150 -193 -193 -177 454 454 -209 -209 79 82 85 0 0 0 0 0
    0 0 0 0 0 0 0 0 0 0 0 0 0 0 0 0 0 0 0 0 0 0 0 0 0 0 0 0 0 0 0 0 0 0 0 0 0 0 0 0 0 0 0 0 0 0 0 0 0 0 0 0 0 0 0 0 0 0 0 0 0 0 0 0 0 0 0 0 0 55 54 54 53 52 52 52 52 52 52 50 48 48 48 52 48 48 49 49 48 48 48 47 45 44 43 41 40 39 38 38 38 36 36 38 37 37 35 34 37 36 33 34 34 33 32 33 33 29 29 35 30 26 26 26 27 26 27 23 22 23 23 23 23 21 22 16 18 17 18 16 15 12 14 13 17 17 16 -225 -225 -225 -225 -225 -225 -225 -225 -225 -225 -225 -225 -225 -225 0 0 0 0 10 10 10 10 10 12 11 10 11 10 9 9 10 10 9 9 10 11 15 16 16 20 18 20 22 22 23 24 26 27 27 30 31 33 33 35 36 38 39 41 -193 41 42 42 39 37 -193 38 38 -193 -193 43 -193 48 53 55 58 59 58 63 64 63 63 67 67 67 69 67 65 68 68 69 69 70 69 69 73 73 -193 76 75 77 77 80 84 84 87 88 89 89 88 87 88 87 88 95 100 101 102 102 101 104 108 106 106 107 107 109 110 110 111 108 118 124 123 123 129 -193 134 134 -193 134 130 -193 -193 -193 126 127 127 -193 -193 -193 -193 -177 140 144 148 148 148 149 150 -193 450 453 453 -209 -209 78 82 85 0 0 0 0 0
    0 0 0 0 0 0 0 0 0 0 0 0 0 0 0 0 0 0 0 0 0 0 0 0 0 0 0 0 0 0 0 0 0 0 0 0 0 0 0 0 0 0 0 0 0 0 0 0 0 0 0 0 0 0 0 0 0 0 0 0 0 0 0 0 0 0 0 0 0 54 54 54 54 53 52 52 53 53 53 51 48 49 48 52 49 48 49 49 49 49 48 47 45 45 43 41 40 40 39 39 38 36 36 37 37 38 35 34 37 36 33 34 34 33 32 33 33 28 28 34 29 25 26 25 26 26 26 23 22 23 23 23 23 21 22 17 19 17 18 16 15 13 15 12 16 16 16 -225 -225 -225 -225 -225 -225 -225 -225 -225 -225 -225 -225 -225 -225 0 0 0 0 10 11 11 11 11 13 12 11 12 10 10 10 10 10 9 10 10 11 15 17 15 20 18 20 22 22 23 -193 26 28 27 30 31 32 33 35 36 38 39 40 -193 41 42 42 40 37 -193 38 -193 -177 -193 -193 -193 49 53 55 58 59 59 63 64 63 63 67 67 67 69 67 66 68 68 69 68 70 69 68 72 72 -193 75 75 76 77 80 84 84 87 87 88 88 87 84 86 83 86 96 100 102 103 103 102 104 108 107 107 108 107 109 110 110 110 108 117 123 123 123 128 -193 133 134 -193 133 130 -193 134 129 126 127 127 125 -193 -193 -193 -177 140 144 148 148 148 149 149 -193 448 451 453 -193 -177 77 81 85 0 0 0 0 0
    0 0 0 0 0 0 0 0 0 0 0 0 0 0 0 0 0 0 0 0 0 0 0 0 0 0 0 0 0 0 0 0 0 0 0 0 0 0 0 0 0 0 0 0 0 0 0 0 0 0 0 0 0 0 0 0 0 0 0 0 0 0 0 0 0 0 0 0 0 52 53 55 54 53 53 53 54 54 54 52 49 50 48 52 49 48 49 48 49 50 49 47 46 45 44 41 41 41 39 39 39 37 37 37 38 38 35 34 37 36 33 34 34 34 32 34 33 28 28 33 28 25 25 24 25 24 25 22 22 23 22 23 23 21 22 17 19 18 19 17 16 13 15 12 16 16 16 -225 -225 -225 -225 -225 -225 -225 -225 -225 -225 -225 -225 0 0 0 0 9 9 10 12 11 11 11 13 11 11 11 10 9 9 10 10 9 10 10 11 15 16 15 19 18 19 22 23 23 -193 27 28 28 30 31 32 32 34 35 37 38 40 40 42 43 42 41 38 -193 -193 -193 -177 -193 -193 -193 49 53 55 59 60 59 63 65 63 63 66 67 66 69 67 66 67 68 69 68 69 69 68 72 72 -193 75 -193 76 76 80 84 83 86 87 88 88 87 85 86 84 87 98 101 103 104 104 104 105 109 108 108 108 107 110 110 110 111 108 116 123 123 123 128 135 132 133 134 133 129 -193 133 128 125 127 127 125 -193 -193 -193 -193 140 144 148 148 148 148 149 -193 -193 450 452 -177 -193 76 81 85 0 0 0 0 0</data></disparity>
</opencv_storage>
