<?xml version="1.0"?>
<opencv_storage>
<gps_time_stamp>309510</gps_time_stamp>
<gps_x>-1.2406098365783691e+001</gps_x>
<gps_y>1.0961219787597656e+001</gps_y>
<gps_z>-2.0261943340301514e+000</gps_z>
<image_time_stamp>300358</image_time_stamp>
<disparity type_id="opencv-matrix">
  <rows>88</rows>
  <cols>320</cols>
  <dt>s</dt>
  <data>
    0 0 0 0 0 0 0 0 0 0 0 0 0 0 0 0 0 0 0 0 0 0 0 0 0 0 0 0 0 0 0 0 0 0 0 0 0 0 0 0 0 0 0 0 0 0 0 0 0 0 0 0 0 0 0 0 0 0 0 0 0 0 0 0 0 0 0 0 0 30 31 31 31 32 32 34 31 33 33 29 31 36 35 34 35 36 36 37 35 37 33 34 33 33 31 32 30 31 29 32 29 30 28 29 28 27 26 25 24 25 24 25 24 24 27 32 32 32 -225 -225 -225 -225 -225 -225 -225 -225 -225 -225 -225 -225 -225 -225 -225 -225 -225 -225 -225 -225 -225 -225 -225 19 18 12 12 11 11 10 10 10 13 12 11 11 11 10 10 10 11 0 0 9 9 0 11 12 11 14 18 23 25 28 28 29 30 33 35 35 35 36 37 40 41 42 41 42 44 45 47 49 48 51 53 51 52 -193 -193 -193 -177 275 -193 59 63 67 63 72 72 72 74 79 77 78 78 82 79 79 82 84 82 -177 86 86 85 -193 -193 -193 -193 -193 86 87 88 -209 90 -193 93 93 95 101 106 108 108 108 115 116 116 117 118 118 119 121 124 124 128 127 131 131 134 136 -193 138 -193 141 141 144 143 145 144 146 147 -193 -193 -177 151 153 152 154 155 156 155 157 157 158 157 161 163 162 166 168 168 168 169 170 171 172 174 177 180 180 181 182 182 183 184 185 186 188 189 191 192 195 195 198 198 197 -193 0 0 0 0 0
    0 0 0 0 0 0 0 0 0 0 0 0 0 0 0 0 0 0 0 0 0 0 0 0 0 0 0 0 0 0 0 0 0 0 0 0 0 0 0 0 0 0 0 0 0 0 0 0 0 0 0 0 0 0 0 0 0 0 0 0 0 0 0 0 0 0 0 0 0 29 31 31 31 32 32 35 31 33 34 30 31 35 35 34 35 36 35 36 34 37 33 34 33 33 32 32 30 31 30 32 30 31 29 30 29 28 27 25 24 26 25 25 24 24 27 32 32 32 -225 -225 -225 -225 -225 -225 -225 -225 -225 -225 -225 -225 -225 -225 -225 -225 -225 -225 -225 -225 -225 -225 -225 19 17 11 11 12 11 11 10 10 13 12 11 11 10 9 9 10 11 0 0 0 0 9 11 13 11 14 19 24 25 28 28 29 30 32 34 34 34 34 36 40 41 42 41 43 44 45 47 48 48 50 53 50 51 55 56 56 -177 -177 -193 59 62 67 62 71 71 71 73 78 77 77 77 82 79 79 82 84 82 -193 85 85 85 86 -193 -193 -193 -193 85 86 87 -193 88 -193 93 92 94 99 106 -193 107 108 115 116 116 117 118 118 120 122 124 -193 -193 126 131 131 133 136 -193 138 -193 140 141 144 143 145 145 146 148 -193 -193 -177 151 153 152 154 155 156 154 156 157 157 157 160 162 163 164 168 168 169 169 170 172 173 175 177 178 178 179 179 180 181 183 184 185 188 192 194 195 198 196 198 196 196 198 0 0 0 0 0
    0 0 0 0 0 0 0 0 0 0 0 0 0 0 0 0 0 0 0 0 0 0 0 0 0 0 0 0 0 0 0 0 0 0 0 0 0 0 0 0 0 0 0 0 0 0 0 0 0 0 0 0 0 0 0 0 0 0 0 0 0 0 0 0 0 0 0 0 0 31 32 31 31 33 34 36 34 34 35 31 32 35 35 35 34 35 35 36 34 37 33 33 33 33 32 32 30 31 30 33 30 31 29 31 30 29 28 26 25 27 25 25 25 25 27 31 32 32 -225 -225 -225 -225 -225 -225 -225 -225 -225 -225 -225 -225 -225 -225 -225 -225 -225 -225 -225 -225 -225 -225 -225 22 20 11 11 11 10 9 0 0 10 10 10 10 9 9 0 9 10 0 0 0 0 0 11 12 11 15 20 24 26 28 28 29 30 32 34 33 33 33 36 39 41 42 41 43 45 46 47 48 48 50 52 50 51 55 56 56 -193 -177 58 59 62 66 61 71 71 71 73 78 76 76 76 82 79 79 82 85 82 86 85 85 85 86 -193 84 -193 -193 -193 85 86 -193 85 -177 93 93 94 99 106 -193 107 108 116 118 117 118 119 119 121 123 125 -193 -193 -193 -193 131 -193 -193 -209 -209 -209 139 141 143 143 145 145 146 148 -193 -177 -177 151 153 152 154 155 156 154 156 157 157 157 159 163 163 164 169 169 170 171 171 172 173 174 177 177 177 178 179 180 180 183 184 186 190 197 196 197 198 196 197 194 195 197 0 0 0 0 0
    0 0 0 0 0 0 0 0 0 0 0 0 0 0 0 0 0 0 0 0 0 0 0 0 0 0 0 0 0 0 0 0 0 0 0 0 0 0 0 0 0 0 0 0 0 0 0 0 0 0 0 0 0 0 0 0 0 0 0 0 0 0 0 0 0 0 0 0 0 33 33 33 33 35 35 37 36 35 36 33 33 35 35 35 34 34 34 35 33 36 33 33 32 33 32 32 30 31 30 33 31 32 30 31 30 30 28 27 25 28 25 26 25 25 27 31 32 32 -225 -225 -225 -225 -225 -225 -225 -225 -225 -225 -225 -225 -225 -225 -225 -225 -225 -225 -225 -225 -225 -225 -225 21 20 10 10 10 10 9 0 0 10 10 10 10 10 9 9 10 10 0 0 0 0 0 10 12 11 16 21 24 26 27 28 29 29 31 33 32 32 32 35 39 40 42 41 43 44 46 47 48 48 49 52 50 51 54 56 56 56 -193 58 59 61 64 60 71 69 70 72 75 75 75 75 80 78 79 82 85 81 85 85 85 85 85 85 84 -193 -193 -193 84 85 -209 84 -177 94 94 97 100 106 -193 107 109 116 118 118 119 120 121 121 124 -193 -209 -193 -193 -193 -193 -193 -193 421 -209 -209 -193 141 143 143 145 145 146 148 -177 -193 -177 151 152 153 153 154 156 154 156 157 157 157 158 162 162 160 168 168 169 169 170 171 172 173 176 178 178 179 179 181 181 183 184 187 190 195 195 196 198 196 197 194 195 197 0 0 0 0 0
    0 0 0 0 0 0 0 0 0 0 0 0 0 0 0 0 0 0 0 0 0 0 0 0 0 0 0 0 0 0 0 0 0 0 0 0 0 0 0 0 0 0 0 0 0 0 0 0 0 0 0 0 0 0 0 0 0 0 0 0 0 0 0 0 0 0 0 0 0 35 34 34 32 34 34 36 35 34 36 33 33 35 34 34 33 33 33 35 33 36 33 32 32 33 32 32 30 31 30 33 31 32 30 31 31 30 29 27 26 28 25 25 24 24 26 29 31 31 -225 -225 -225 -225 -225 -225 -225 -225 -225 -225 -225 -225 -225 -225 -225 -225 -225 -225 -225 -225 -225 -225 16 15 14 0 9 9 10 10 9 9 11 10 10 10 10 9 9 9 9 0 0 0 0 0 10 11 12 16 21 24 26 27 28 29 29 31 33 32 32 31 35 38 39 41 41 42 44 46 47 48 47 48 51 50 51 54 55 56 56 -193 58 59 61 63 60 69 68 69 70 73 73 74 74 78 78 79 81 84 81 84 85 85 85 85 85 84 -193 -193 -193 84 85 -193 84 -177 96 97 100 102 106 107 107 109 115 118 118 119 120 121 122 124 -193 -193 80 77 81 -193 -193 -193 -209 -209 -193 -193 140 142 143 145 145 146 148 -177 -177 -177 -193 152 153 153 155 156 154 157 158 158 158 158 162 162 158 169 169 170 170 171 172 172 174 176 177 176 177 178 179 179 182 183 185 188 193 194 196 198 196 197 195 196 198 0 0 0 0 0
    0 0 0 0 0 0 0 0 0 0 0 0 0 0 0 0 0 0 0 0 0 0 0 0 0 0 0 0 0 0 0 0 0 0 0 0 0 0 0 0 0 0 0 0 0 0 0 0 0 0 0 0 0 0 0 0 0 0 0 0 0 0 0 0 0 0 0 0 0 32 32 31 29 31 32 33 31 31 34 31 31 34 33 34 33 33 33 34 33 36 33 32 32 34 32 31 30 31 30 33 31 32 29 31 31 31 29 27 26 28 25 25 24 23 25 27 29 29 -225 -225 -225 -225 -225 -225 -225 -225 -225 -225 -225 -225 -225 -225 -225 -225 -225 -225 -225 -225 -225 -225 13 12 10 0 9 9 11 10 10 9 11 10 10 10 10 9 9 9 9 0 0 0 9 9 11 12 12 17 21 24 26 27 28 29 30 31 32 31 32 31 35 38 39 41 41 42 44 46 47 47 47 47 51 50 52 54 55 56 55 -193 59 60 60 61 60 68 67 68 69 71 73 73 73 77 77 78 80 84 81 84 86 86 -193 86 86 86 -193 -193 -193 85 86 -193 -193 -193 96 -193 -193 103 106 107 106 108 112 117 117 119 -193 -209 121 -193 80 82 80 78 81 82 -193 -209 -177 -209 -209 -193 140 142 143 145 145 146 -193 -177 -177 207 -193 152 153 153 155 156 155 157 158 159 159 158 162 161 156 169 170 171 171 171 173 173 175 176 176 175 175 176 179 178 181 182 184 188 192 193 195 198 195 196 194 196 197 0 0 0 0 0
    0 0 0 0 0 0 0 0 0 0 0 0 0 0 0 0 0 0 0 0 0 0 0 0 0 0 0 0 0 0 0 0 0 0 0 0 0 0 0 0 0 0 0 0 0 0 0 0 0 0 0 0 0 0 0 0 0 0 0 0 0 0 0 0 0 0 0 0 0 30 32 31 -225 30 33 33 33 32 36 31 31 33 33 34 33 33 33 34 33 36 33 33 33 34 32 31 30 31 30 33 30 33 29 31 31 31 30 28 26 29 -193 25 23 22 22 26 27 27 -225 -225 -225 -225 -225 -225 -225 -225 -225 -225 -225 -225 -225 -225 -225 -225 -225 -225 -225 -225 0 0 0 0 0 10 11 9 11 11 10 10 11 10 10 10 10 9 9 9 9 0 0 0 9 9 11 12 13 17 22 23 26 26 28 29 30 31 32 31 32 31 35 37 39 41 41 42 44 46 47 47 47 47 51 50 52 54 56 56 56 -209 60 61 60 61 61 69 66 68 68 69 72 72 73 76 77 78 80 84 81 84 86 -193 -193 -193 87 87 -193 -193 -193 86 87 -193 -193 -193 97 100 102 102 105 106 105 107 110 115 116 -193 -209 -177 -209 -209 80 81 80 78 80 81 -193 -209 -177 -209 -193 -193 140 141 143 144 145 146 -193 -193 -177 207 -193 152 154 153 155 156 155 157 159 159 159 158 162 160 155 169 173 175 175 173 175 175 178 178 178 176 176 177 179 179 181 181 184 186 188 189 192 192 192 194 191 194 194 0 0 0 0 0
    0 0 0 0 0 0 0 0 0 0 0 0 0 0 0 0 0 0 0 0 0 0 0 0 0 0 0 0 0 0 0 0 0 0 0 0 0 0 0 0 0 0 0 0 0 0 0 0 0 0 0 0 0 0 0 0 0 0 0 0 0 0 0 0 0 0 0 0 0 32 34 33 -225 32 36 35 35 34 35 32 32 32 31 33 32 32 32 33 33 36 34 33 33 35 32 31 31 31 31 32 30 33 29 32 32 31 30 28 27 29 -193 24 22 21 20 25 26 26 -225 -225 -225 -225 -225 -225 -225 -225 -225 -225 -225 -225 -225 -225 -225 -225 0 0 0 0 0 0 0 0 0 0 10 0 10 10 10 9 10 10 10 9 10 9 9 9 9 0 0 9 9 10 10 11 13 17 22 23 26 26 28 29 30 31 32 32 33 31 35 38 -177 41 41 42 44 46 48 48 48 48 51 51 53 55 57 57 57 57 60 62 61 61 62 69 66 67 67 68 71 71 72 75 77 78 80 84 82 84 -193 674 676 675 -193 -193 -193 90 91 -193 89 -193 91 94 97 100 102 102 105 104 104 105 107 112 115 -193 -193 27 -193 -209 81 81 80 78 80 80 -193 -209 -177 -209 -193 135 139 -193 142 144 145 146 -193 -193 -177 -193 -193 152 154 153 155 156 156 157 160 160 160 158 162 160 155 169 173 175 174 173 174 174 178 178 177 175 175 176 178 178 181 180 182 183 185 186 189 189 191 193 192 193 194 0 0 0 0 0
    0 0 0 0 0 0 0 0 0 0 0 0 0 0 0 0 0 0 0 0 0 0 0 0 0 0 0 0 0 0 0 0 0 0 0 0 0 0 0 0 0 0 0 0 0 0 0 0 0 0 0 0 0 0 0 0 0 0 0 0 0 0 0 0 0 0 0 0 0 34 36 36 36 35 38 38 38 36 37 35 34 34 33 34 32 32 32 32 33 35 34 33 33 35 32 31 31 31 31 32 30 33 29 31 31 31 30 27 26 28 -193 23 20 20 19 25 27 28 24 27 -225 -225 -225 -225 -225 -225 -225 -225 -225 -225 -225 -225 -225 18 11 9 12 11 11 10 10 10 10 10 11 9 9 9 9 9 10 9 9 0 0 0 9 0 9 0 0 9 9 10 10 11 13 16 21 22 25 26 28 29 30 31 33 33 34 32 36 38 -177 41 41 43 44 46 47 47 48 48 51 51 54 56 57 57 57 58 61 63 61 61 63 68 65 66 66 66 70 70 71 73 77 78 80 83 82 84 -193 675 676 675 89 90 -193 91 92 -209 91 -193 92 96 97 101 102 102 104 103 103 105 -193 -193 115 21 -209 -177 -177 -193 81 81 80 78 79 80 79 -209 -177 -209 -193 134 139 -193 -193 143 145 146 -193 -193 -193 -193 -193 152 154 153 155 156 157 157 160 160 160 158 162 160 155 169 172 173 172 172 173 173 176 176 -193 175 175 176 178 179 182 181 183 184 186 186 189 190 191 193 191 194 194 0 0 0 0 0
    0 0 0 0 0 0 0 0 0 0 0 0 0 0 0 0 0 0 0 0 0 0 0 0 0 0 0 0 0 0 0 0 0 0 0 0 0 0 0 0 0 0 0 0 0 0 0 0 0 0 0 0 0 0 0 0 0 0 0 0 0 0 0 0 0 0 0 0 0 36 37 37 37 37 39 39 40 39 39 38 38 38 37 37 34 32 33 32 33 35 34 33 32 35 33 31 31 30 32 32 30 33 29 31 31 31 29 27 26 28 23 23 20 20 20 26 30 29 27 29 30 30 30 27 -225 -225 -225 -225 -225 -225 -225 -225 18 18 16 11 12 11 11 10 11 11 11 11 12 11 11 11 11 10 10 9 9 9 9 9 9 0 9 0 0 9 10 10 11 12 14 17 21 22 25 26 28 28 30 31 32 33 34 34 36 39 -177 41 41 44 45 46 48 48 48 48 51 52 54 56 57 58 58 58 62 63 61 61 64 68 64 65 65 64 69 69 70 72 76 78 80 83 83 84 -209 675 676 674 90 91 -193 92 93 -193 92 93 93 98 96 100 101 101 103 102 102 104 -209 -193 115 20 -209 -177 -209 -209 82 81 80 79 79 -193 -193 -209 -177 -209 -193 134 138 -193 -193 143 145 145 -193 -193 -193 -193 -193 151 154 153 156 156 157 158 160 160 160 -193 162 160 155 168 171 172 172 172 173 174 177 177 177 176 176 177 179 179 181 181 183 183 185 186 188 189 191 195 193 196 195 0 0 0 0 0
    0 0 0 0 0 0 0 0 0 0 0 0 0 0 0 0 0 0 0 0 0 0 0 0 0 0 0 0 0 0 0 0 0 0 0 0 0 0 0 0 0 0 0 0 0 0 0 0 0 0 0 0 0 0 0 0 0 0 0 0 0 0 0 0 0 0 0 0 0 41 42 41 42 41 41 41 42 40 40 40 40 39 39 39 36 32 33 32 34 34 34 32 32 34 33 31 31 30 32 31 30 33 29 30 31 30 29 27 26 27 22 23 19 20 21 26 31 29 28 30 30 30 30 27 28 21 -225 -225 -225 -225 -225 21 18 18 18 12 13 11 11 11 12 12 12 11 13 11 12 11 11 10 10 10 10 9 10 10 10 9 10 10 9 10 11 11 11 13 15 16 21 21 23 25 27 27 30 31 32 34 35 35 37 40 -177 42 42 44 45 46 48 48 48 48 51 53 55 56 57 58 58 59 62 63 61 60 63 67 63 64 63 62 67 67 69 71 76 77 79 82 83 85 -193 674 675 673 91 93 -193 92 94 -193 93 94 93 97 94 98 99 99 101 99 100 101 -209 -193 -193 18 -209 -177 -209 -209 82 81 80 79 79 80 -193 -209 -177 -209 133 133 138 -193 -193 142 144 145 -193 -193 -177 -193 -193 151 154 153 156 156 158 157 160 160 160 -193 162 161 157 164 169 169 169 169 171 173 176 176 177 177 178 178 180 180 181 180 182 183 185 185 187 189 190 196 195 198 197 0 0 0 0 0
    0 0 0 0 0 0 0 0 0 0 0 0 0 0 0 0 0 0 0 0 0 0 0 0 0 0 0 0 0 0 0 0 0 0 0 0 0 0 0 0 0 0 0 0 0 0 0 0 0 0 0 0 0 0 0 0 0 0 0 0 0 0 0 0 0 0 0 0 0 44 44 44 44 43 43 43 43 40 39 39 40 40 40 39 36 30 33 31 34 33 35 32 32 34 33 31 31 30 32 30 30 33 29 30 31 30 29 27 26 27 22 24 19 20 22 26 33 30 29 31 30 30 30 27 28 19 18 -225 -225 -225 -225 20 18 18 18 12 14 11 11 11 12 11 12 12 13 11 13 12 13 11 12 12 11 10 13 12 12 11 12 11 11 12 13 11 12 14 15 16 20 20 23 25 27 27 30 31 31 35 35 35 37 40 -177 42 42 44 45 45 49 48 48 49 52 53 55 55 57 57 58 58 61 63 60 59 63 66 62 63 62 61 -193 66 68 -193 76 77 78 81 83 85 -209 674 675 -177 92 95 -193 -193 95 92 95 95 93 97 92 94 95 -193 -193 96 96 97 -209 -209 -193 -193 -209 25 -209 -209 -193 81 80 80 79 81 -193 -193 -193 -193 133 133 -209 -193 -193 142 144 144 -193 -193 -193 -193 -193 -193 154 153 156 156 158 157 160 160 160 -177 161 160 157 158 163 165 166 167 170 172 176 176 178 179 179 179 181 180 180 180 181 182 185 186 189 192 195 198 198 200 198 0 0 0 0 0
    0 0 0 0 0 0 0 0 0 0 0 0 0 0 0 0 0 0 0 0 0 0 0 0 0 0 0 0 0 0 0 0 0 0 0 0 0 0 0 0 0 0 0 0 0 0 0 0 0 0 0 0 0 0 0 0 0 0 0 0 0 0 0 0 0 0 0 0 0 45 45 46 45 45 45 44 45 41 40 39 39 39 39 38 36 30 33 31 35 33 35 32 32 34 33 31 31 30 32 29 30 32 29 29 30 30 28 26 26 26 21 23 17 20 22 26 33 31 30 31 30 30 31 28 29 25 21 20 -225 20 20 17 16 17 16 12 13 11 11 11 12 11 12 11 13 11 12 12 12 11 12 12 11 10 13 12 12 12 12 12 11 12 12 11 12 13 15 16 19 20 23 25 27 27 30 31 31 34 35 36 38 40 -177 42 42 44 45 45 49 47 48 49 52 54 55 55 57 57 58 58 61 62 60 59 62 65 61 62 60 60 -193 -193 -193 -193 -193 76 78 81 83 85 -193 673 674 -177 93 96 94 -193 -193 93 96 96 93 97 90 91 -193 -193 -193 -193 -193 -209 -209 -209 113 -209 -209 -209 -209 -193 -193 81 80 80 79 -193 -193 -177 -193 132 133 133 -209 -209 -209 141 143 144 146 148 -193 -177 -193 -193 154 152 156 156 158 157 159 159 159 -177 161 160 159 158 165 166 166 167 169 171 174 174 176 177 177 178 180 180 180 179 181 182 184 186 191 194 197 199 200 201 199 0 0 0 0 0
    0 0 0 0 0 0 0 0 0 0 0 0 0 0 0 0 0 0 0 0 0 0 0 0 0 0 0 0 0 0 0 0 0 0 0 0 0 0 0 0 0 0 0 0 0 0 0 0 0 0 0 0 0 0 0 0 0 0 0 0 0 0 0 0 0 0 0 0 0 46 46 48 46 47 46 46 46 42 43 42 40 39 38 38 36 32 34 32 36 33 35 32 32 34 33 31 31 30 32 29 29 32 28 29 30 29 28 26 25 26 21 23 17 20 23 27 34 31 31 31 30 30 31 28 28 25 23 19 22 19 19 14 13 13 13 10 11 10 10 10 12 11 12 12 13 11 12 11 11 10 10 11 10 10 12 12 12 12 13 12 10 13 13 11 11 12 15 14 19 20 21 24 26 26 29 29 30 33 35 35 37 39 -177 41 42 44 44 44 48 47 48 50 52 54 55 55 56 56 57 58 60 61 59 58 61 65 61 61 59 59 -193 61 -193 -193 -193 76 78 81 84 85 -193 672 673 -177 92 96 94 175 -193 93 96 96 92 96 88 89 -193 -193 -193 -209 -209 -209 -209 -177 -193 -209 -209 -209 -193 125 127 -193 80 82 -177 -193 132 129 131 132 133 133 -209 -209 -209 141 143 143 145 147 -193 -193 -193 151 153 151 155 155 158 156 158 158 158 -177 161 161 161 158 166 166 167 167 168 169 172 173 175 176 176 178 180 180 180 180 181 182 183 185 190 193 196 198 199 200 198 0 0 0 0 0
    0 0 0 0 0 0 0 0 0 0 0 0 0 0 0 0 0 0 0 0 0 0 0 0 0 0 0 0 0 0 0 0 0 0 0 0 0 0 0 0 0 0 0 0 0 0 0 0 0 0 0 0 0 0 0 0 0 0 0 0 0 0 0 0 0 0 0 0 0 47 46 49 47 48 47 47 47 43 44 43 40 40 38 37 36 33 35 32 36 33 35 33 32 34 33 31 32 29 32 29 29 32 28 28 29 29 28 26 -193 25 21 23 18 20 24 28 35 32 33 32 30 30 31 28 28 26 25 19 22 20 19 13 13 13 11 10 11 9 9 10 11 11 11 12 13 11 12 11 11 10 10 11 10 10 12 12 12 12 13 12 10 12 11 10 10 11 13 13 17 18 20 23 26 26 28 28 29 32 35 35 37 39 41 41 41 43 44 44 48 47 48 51 53 55 55 55 55 55 57 57 59 60 58 58 61 65 61 61 60 59 -193 60 60 70 76 76 78 81 84 85 89 -193 -193 -177 92 96 94 174 -193 92 96 95 91 94 86 87 88 -209 -209 -209 -209 -209 -209 238 -193 -193 -193 -193 -193 -193 125 -193 80 -193 -193 -193 133 129 132 132 134 133 -209 -209 -209 141 143 143 145 147 -193 -193 -193 150 153 151 154 155 158 156 157 -193 -193 -177 161 161 162 157 166 166 167 167 168 169 172 173 176 177 178 178 180 180 180 179 181 181 183 185 190 194 196 198 198 199 198 0 0 0 0 0
    0 0 0 0 0 0 0 0 0 0 0 0 0 0 0 0 0 0 0 0 0 0 0 0 0 0 0 0 0 0 0 0 0 0 0 0 0 0 0 0 0 0 0 0 0 0 0 0 0 0 0 0 0 0 0 0 0 0 0 0 0 0 0 0 0 0 0 0 0 47 47 50 48 48 47 47 48 44 45 44 41 40 39 37 36 33 35 32 35 33 35 32 32 33 33 31 32 29 31 28 29 32 29 28 29 28 27 -193 -193 25 21 23 20 21 -193 30 35 32 34 32 30 30 31 29 28 26 25 20 22 20 19 14 13 13 13 10 10 9 10 10 12 11 12 11 13 11 12 12 11 11 11 12 11 11 13 12 12 12 12 12 10 12 11 10 11 11 14 13 17 18 20 23 25 25 27 28 28 31 34 34 36 38 40 40 41 43 44 44 48 48 48 51 53 54 54 54 54 54 56 56 57 59 58 59 61 65 62 62 61 59 62 60 61 70 76 76 78 81 84 85 88 -193 -193 -193 91 94 93 173 -193 91 94 93 90 91 84 85 86 87 87 -209 -209 -193 -193 237 -193 -193 -177 -177 -193 -193 123 123 -193 126 133 134 134 130 -193 -209 -193 -193 -209 -209 -209 140 142 142 144 146 -193 148 149 150 152 150 153 154 157 155 157 -193 -193 -177 160 161 162 157 165 166 167 167 167 169 171 173 175 176 178 177 179 181 181 180 182 183 -209 188 193 197 198 199 200 201 200 0 0 0 0 0
    0 0 0 0 0 0 0 0 0 0 0 0 0 0 0 0 0 0 0 0 0 0 0 0 0 0 0 0 0 0 0 0 0 0 0 0 0 0 0 0 0 0 0 0 0 0 0 0 0 0 0 0 0 0 0 0 0 0 0 0 0 0 0 0 0 0 0 0 0 48 47 50 48 49 48 48 48 45 46 45 42 41 40 37 36 33 35 33 35 33 35 32 32 33 33 31 31 29 30 28 29 32 29 28 29 28 27 -193 25 24 21 24 22 22 31 31 35 32 34 32 30 30 31 29 29 27 26 21 22 18 17 13 11 9 11 10 10 9 11 12 13 12 13 12 13 12 13 13 12 12 11 12 11 11 13 12 11 12 12 12 10 11 11 9 10 11 12 12 16 17 21 23 26 26 27 28 28 30 34 33 35 37 39 39 40 42 43 43 47 47 48 52 53 54 54 54 54 54 55 55 56 58 58 59 60 65 62 62 61 60 62 60 62 71 77 76 78 81 84 84 88 86 -177 -193 90 93 91 172 175 -193 92 91 88 89 83 84 84 85 86 -209 -209 -193 -193 235 -193 -193 -177 -177 -193 -193 121 120 -193 123 130 132 134 128 -193 -209 -209 -209 -209 -209 139 140 142 142 143 145 -193 148 148 149 151 149 153 154 157 155 156 -193 -193 -177 159 161 162 157 166 167 168 167 168 169 171 172 174 176 178 178 180 181 181 181 183 185 186 188 193 196 198 200 200 202 201 0 0 0 0 0
    0 0 0 0 0 0 0 0 0 0 0 0 0 0 0 0 0 0 0 0 0 0 0 0 0 0 0 0 0 0 0 0 0 0 0 0 0 0 0 0 0 0 0 0 0 0 0 0 0 0 0 0 0 0 0 0 0 0 0 0 0 0 0 0 0 0 0 0 0 48 48 50 49 49 48 48 48 45 46 45 42 41 41 37 35 33 35 33 35 33 35 32 31 33 33 31 31 29 30 27 29 32 29 27 29 28 27 25 26 24 22 24 25 24 34 33 35 32 34 32 31 31 32 29 29 26 26 21 20 15 12 10 9 0 0 0 0 0 0 10 12 12 13 12 12 12 14 14 12 12 11 12 12 12 14 12 11 13 12 12 10 12 11 9 10 11 13 12 16 17 20 23 26 26 27 27 28 29 33 31 35 36 39 38 39 41 42 42 46 47 47 52 52 54 54 53 54 54 55 55 55 58 58 59 60 64 62 62 62 60 62 60 65 72 78 77 78 81 84 84 87 86 86 -193 90 -193 90 -177 -177 752 91 90 87 88 82 83 83 84 85 -193 -177 -193 -193 234 -193 -193 -177 -177 -193 116 118 116 117 121 128 -193 -193 -193 -209 -209 -209 -209 -209 -209 139 140 142 142 142 144 146 147 147 147 150 149 152 153 157 155 156 156 156 -193 159 161 161 157 167 168 169 168 169 171 173 174 175 177 177 177 179 180 179 180 182 184 -209 186 191 196 198 199 200 202 201 0 0 0 0 0
    0 0 0 0 0 0 0 0 0 0 0 0 0 0 0 0 0 0 0 0 0 0 0 0 0 0 0 0 0 0 0 0 0 0 0 0 0 0 0 0 0 0 0 0 0 0 0 0 0 0 0 0 0 0 0 0 0 0 0 0 0 0 0 0 0 0 0 0 0 49 48 50 49 49 49 48 49 46 47 45 43 42 41 36 35 33 35 34 34 33 35 32 31 32 32 31 31 29 30 28 30 32 29 28 29 28 28 24 28 24 23 26 38 26 36 34 35 33 34 32 32 31 32 30 29 26 25 21 20 15 12 11 9 0 0 0 0 0 0 10 9 11 13 13 12 11 13 13 11 12 11 12 12 12 14 12 12 13 12 12 11 13 12 10 10 11 13 12 16 18 21 23 27 27 27 27 28 29 33 30 34 34 38 37 38 41 41 42 46 47 46 53 52 54 53 53 54 54 55 55 -193 58 58 59 60 64 63 62 63 60 65 62 71 74 79 77 79 81 84 83 87 85 86 -209 -193 -193 89 -193 -193 -177 90 -193 86 88 82 82 82 84 85 -209 -177 -193 -193 -193 -193 -193 -177 -177 -193 114 116 114 116 121 130 -193 -209 -209 -209 -209 -209 -209 -209 -209 139 141 142 141 142 144 145 146 145 146 149 148 151 153 157 155 156 157 157 157 158 161 160 157 167 169 169 169 169 171 173 174 175 175 175 175 178 180 178 180 182 184 -209 -193 193 197 199 200 200 202 202 0 0 0 0 0
    0 0 0 0 0 0 0 0 0 0 0 0 0 0 0 0 0 0 0 0 0 0 0 0 0 0 0 0 0 0 0 0 0 0 0 0 0 0 0 0 0 0 0 0 0 0 0 0 0 0 0 0 0 0 0 0 0 0 0 0 0 0 0 0 0 0 0 0 0 49 49 51 50 49 49 49 49 46 48 46 43 42 42 35 34 33 34 34 34 34 35 31 30 31 31 30 30 29 30 28 31 32 31 29 30 29 29 25 30 24 23 -193 39 30 37 36 35 34 35 33 33 31 33 31 30 27 25 21 19 15 13 11 9 0 0 0 0 0 0 0 0 10 11 11 10 9 11 12 10 12 11 11 11 12 13 12 11 12 11 11 10 11 11 9 9 10 13 12 15 18 22 23 27 27 27 27 28 29 32 30 34 34 37 -177 37 40 40 41 44 46 45 53 52 54 53 54 54 54 55 55 -193 59 60 61 60 65 64 64 65 62 68 70 73 75 81 79 80 82 85 83 86 85 86 -193 88 -209 -209 756 756 -177 -193 -193 86 88 82 82 82 83 85 -193 -193 -193 -193 -209 -193 -193 -177 -177 -193 114 117 115 117 122 134 161 -209 157 -209 -209 -209 -209 -209 -193 139 141 141 142 142 143 144 145 145 146 148 148 151 153 157 155 156 157 157 157 158 161 160 157 169 170 171 170 170 171 173 175 176 175 175 175 177 180 179 180 182 -193 -209 -193 194 198 199 199 200 201 201 0 0 0 0 0
    0 0 0 0 0 0 0 0 0 0 0 0 0 0 0 0 0 0 0 0 0 0 0 0 0 0 0 0 0 0 0 0 0 0 0 0 0 0 0 0 0 0 0 0 0 0 0 0 0 0 0 0 0 0 0 0 0 0 0 0 0 0 0 0 0 0 0 0 0 49 49 51 50 50 50 49 50 47 48 47 44 43 42 36 35 33 34 33 32 34 33 30 29 30 29 30 30 30 31 29 32 33 32 31 31 30 31 -193 39 -209 -193 -193 38 32 37 37 34 35 35 33 33 32 34 32 30 28 25 21 16 13 11 10 0 0 0 0 0 0 0 0 0 9 9 10 9 0 9 10 9 11 10 10 10 11 11 11 10 11 10 9 9 9 9 0 8 10 13 11 15 18 22 23 27 27 27 27 28 28 32 30 33 33 36 -177 36 40 40 41 43 45 44 52 51 53 53 54 54 55 55 56 -177 60 61 61 60 65 65 65 66 64 69 73 74 76 82 80 81 83 85 83 86 85 86 -193 86 87 87 756 755 -177 755 -193 -193 88 83 82 82 83 85 -193 -193 -193 -193 -209 -193 -193 -177 -177 238 -193 117 114 -193 123 -193 161 -193 158 -209 -209 -209 -209 -209 -193 138 141 141 142 142 143 144 145 144 146 147 148 151 154 157 156 157 157 157 158 159 162 159 157 169 171 171 170 170 170 172 174 175 174 173 172 176 181 180 181 -193 -193 -193 -193 -193 -193 197 197 198 200 200 0 0 0 0 0
    0 0 0 0 0 0 0 0 0 0 0 0 0 0 0 0 0 0 0 0 0 0 0 0 0 0 0 0 0 0 0 0 0 0 0 0 0 0 0 0 0 0 0 0 0 0 0 0 0 0 0 0 0 0 0 0 0 0 0 0 0 0 0 0 0 0 0 0 0 50 49 51 50 50 50 49 50 48 48 47 45 44 44 38 36 34 34 33 32 34 33 31 30 31 29 30 31 31 31 30 32 33 33 33 31 33 34 33 38 31 34 -193 36 31 34 36 34 33 35 33 33 32 33 32 29 27 26 21 14 13 12 10 9 0 0 0 0 0 0 0 0 9 9 10 9 9 9 10 9 11 9 10 10 11 11 11 10 10 9 9 9 9 9 9 9 10 13 12 14 17 22 23 27 27 28 27 28 28 32 29 33 33 35 -177 36 39 39 41 43 44 42 52 50 52 53 55 55 56 -177 -193 -193 61 62 62 61 65 66 66 67 66 70 73 74 76 82 81 82 84 86 83 85 85 86 -193 86 87 87 756 756 754 756 753 -193 -193 83 82 83 83 85 723 724 -193 -193 -209 -193 -193 -177 -177 238 -193 116 114 -193 122 -193 162 169 162 -209 -209 -193 141 -193 -193 138 141 141 141 141 143 144 145 145 146 147 149 151 155 157 156 157 158 158 159 159 162 159 157 169 171 171 170 170 171 172 174 174 175 175 174 176 181 180 182 -193 -193 -193 -177 -209 -193 194 194 197 198 199 0 0 0 0 0
    0 0 0 0 0 0 0 0 0 0 0 0 0 0 0 0 0 0 0 0 0 0 0 0 0 0 0 0 0 0 0 0 0 0 0 0 0 0 0 0 0 0 0 0 0 0 0 0 0 0 0 0 0 0 0 0 0 0 0 0 0 0 0 0 0 0 0 0 0 50 49 51 50 49 51 49 50 48 48 47 45 45 44 38 37 35 34 33 33 34 33 31 29 31 29 30 30 31 30 30 32 33 32 33 31 35 33 34 37 32 32 30 35 32 33 35 34 33 35 33 33 31 33 31 30 27 25 22 14 11 10 10 0 0 0 0 0 0 0 9 0 9 10 10 10 9 11 11 10 12 10 10 11 11 11 11 10 10 9 10 10 9 10 9 9 11 14 12 14 17 23 24 28 28 29 28 28 29 32 30 32 33 34 34 36 39 -177 41 42 43 42 51 50 52 53 -193 57 58 58 -193 -193 61 63 62 61 65 66 67 67 67 70 73 75 77 83 82 82 84 85 83 85 86 -193 671 -193 87 -193 -193 -193 -177 757 755 -193 751 85 83 83 83 85 -177 724 -193 -209 -193 -193 -193 -177 -177 238 -193 115 -193 -193 121 131 163 169 -209 -209 -209 -193 141 -193 139 138 141 140 141 141 143 144 145 145 146 147 150 151 155 157 157 158 159 159 159 159 162 159 157 168 170 171 170 170 172 172 175 176 178 178 178 178 182 181 182 -209 -209 -209 -193 -209 -193 194 195 197 198 201 0 0 0 0 0
    0 0 0 0 0 0 0 0 0 0 0 0 0 0 0 0 0 0 0 0 0 0 0 0 0 0 0 0 0 0 0 0 0 0 0 0 0 0 0 0 0 0 0 0 0 0 0 0 0 0 0 0 0 0 0 0 0 0 0 0 0 0 0 0 0 0 0 0 0 50 50 51 51 49 51 49 50 49 48 47 45 45 45 39 38 35 34 33 33 33 33 30 29 31 29 30 30 31 30 29 31 32 31 31 30 35 31 31 36 30 30 29 34 31 32 35 34 33 35 33 33 31 32 31 30 27 25 23 17 14 12 11 10 0 0 0 0 0 0 0 0 9 10 10 9 10 11 11 10 11 10 10 10 11 11 11 9 10 9 10 10 10 10 10 9 12 14 13 14 18 23 25 29 29 30 29 29 29 33 30 32 33 34 34 36 38 -177 40 41 42 41 50 50 53 53 -193 58 59 59 -193 60 62 64 62 61 65 66 67 68 68 70 74 76 78 83 83 82 83 85 83 85 86 -193 -177 -177 87 -209 173 90 91 758 756 -193 752 86 84 84 84 85 -177 725 -177 -193 -177 -193 -193 -177 -177 238 -193 113 -193 -209 120 127 164 170 -209 -209 -209 -193 141 -193 139 138 141 140 141 141 143 144 145 145 146 147 151 151 155 157 157 158 160 160 160 158 162 159 157 167 169 169 169 170 171 172 174 176 179 179 180 180 183 182 183 183 -193 -209 -209 -209 189 193 -193 -193 199 202 0 0 0 0 0
    0 0 0 0 0 0 0 0 0 0 0 0 0 0 0 0 0 0 0 0 0 0 0 0 0 0 0 0 0 0 0 0 0 0 0 0 0 0 0 0 0 0 0 0 0 0 0 0 0 0 0 0 0 0 0 0 0 0 0 0 0 0 0 0 0 0 0 0 0 51 50 51 51 49 51 49 50 49 48 48 46 45 45 40 39 36 33 32 34 32 33 30 29 31 30 31 31 32 30 29 31 32 30 30 28 34 29 30 34 29 29 29 33 31 31 33 33 32 34 33 33 31 31 30 29 26 25 23 18 17 14 13 11 0 0 0 0 0 0 0 0 9 10 10 9 9 11 10 10 10 9 10 10 10 10 10 9 10 9 10 9 0 9 0 0 10 11 10 11 17 24 26 31 30 31 30 30 30 33 30 31 33 33 33 35 38 38 39 41 41 40 49 51 53 55 -177 59 60 60 60 61 63 65 63 61 65 66 67 68 69 70 74 76 78 83 84 82 83 85 83 85 87 -193 -193 -177 88 -193 175 91 92 -193 -177 -193 753 -193 84 84 85 86 -193 -177 -177 -177 -177 -193 -193 -177 -177 -193 -193 111 -193 -209 118 -209 164 169 170 -209 -209 -193 -193 -193 140 138 141 140 141 141 143 144 145 145 147 148 151 151 155 157 157 158 160 160 160 157 162 159 157 165 167 168 168 169 171 172 174 177 180 181 182 182 183 183 184 185 183 -209 -209 186 188 191 -193 -193 198 201 0 0 0 0 0
    0 0 0 0 0 0 0 0 0 0 0 0 0 0 0 0 0 0 0 0 0 0 0 0 0 0 0 0 0 0 0 0 0 0 0 0 0 0 0 0 0 0 0 0 0 0 0 0 0 0 0 0 0 0 0 0 0 0 0 0 0 0 0 0 0 0 0 0 0 51 50 51 51 49 51 49 50 49 48 48 45 46 45 40 39 37 33 32 33 31 32 30 29 30 30 31 31 33 31 29 31 31 31 29 28 32 28 28 33 29 29 28 31 30 30 31 31 31 32 32 32 30 30 29 29 26 24 23 20 21 19 18 15 0 0 0 0 0 0 0 0 8 10 10 9 9 11 9 9 9 8 9 9 10 10 10 9 9 9 10 9 9 9 9 0 11 12 12 13 18 24 26 30 31 32 30 31 31 34 31 31 34 33 32 35 37 38 38 40 40 39 48 52 54 -193 -193 60 61 61 61 62 63 65 63 61 65 66 68 68 69 70 74 76 78 83 85 82 83 85 83 85 -193 -193 -193 -177 89 92 176 92 93 91 -177 -177 753 -193 85 -193 -193 86 -193 -193 -177 -177 -177 -193 -177 240 239 -193 -193 110 109 -209 116 -193 162 169 170 -193 -209 -193 142 -193 -193 -193 141 140 142 142 143 144 145 145 147 148 152 152 155 156 157 157 160 160 160 157 162 159 158 163 166 167 168 169 171 171 174 177 180 182 183 183 185 185 185 -209 -209 -209 -209 -209 189 191 -193 -193 -193 -209 0 0 0 0 0
    0 0 0 0 0 0 0 0 0 0 0 0 0 0 0 0 0 0 0 0 0 0 0 0 0 0 0 0 0 0 0 0 0 0 0 0 0 0 0 0 0 0 0 0 0 0 0 0 0 0 0 0 0 0 0 0 0 0 0 0 0 0 0 0 0 0 0 0 0 51 50 51 51 49 51 49 50 50 48 48 46 46 45 41 39 38 33 32 33 31 33 30 29 30 30 31 32 34 31 29 30 31 31 29 29 31 27 28 31 28 28 27 29 29 28 29 30 30 31 31 31 30 29 29 28 26 25 25 23 25 25 25 24 -193 0 0 9 0 0 0 0 0 9 10 9 9 10 9 9 10 9 9 9 10 10 10 9 9 9 10 9 9 9 9 9 11 12 12 13 19 23 26 30 31 33 31 32 32 35 32 32 35 33 33 35 37 38 37 39 39 39 47 53 54 -193 -193 60 61 62 62 62 63 65 62 61 64 65 67 68 68 69 73 76 77 82 85 82 83 85 84 85 -177 -193 -193 -177 90 93 -193 93 94 92 -177 -193 752 -193 86 -193 -193 86 -209 -193 -177 -177 -177 -193 242 242 241 -193 -193 109 109 -209 115 -193 -193 168 -209 -209 -209 -209 141 -209 -193 -193 141 -193 142 142 143 144 145 146 147 148 152 152 155 156 157 157 159 159 159 -193 161 160 159 160 164 165 166 168 170 170 174 179 182 184 185 186 188 188 188 -209 -209 -209 -209 -193 190 191 -193 -193 -193 -209 0 0 0 0 0
    0 0 0 0 0 0 0 0 0 0 0 0 0 0 0 0 0 0 0 0 0 0 0 0 0 0 0 0 0 0 0 0 0 0 0 0 0 0 0 0 0 0 0 0 0 0 0 0 0 0 0 0 0 0 0 0 0 0 0 0 0 0 0 0 0 0 0 0 0 51 50 51 51 50 51 49 50 50 47 48 45 45 45 40 39 37 33 31 32 30 33 30 29 29 30 31 32 34 31 29 29 31 30 29 29 31 26 27 29 27 27 27 27 28 27 28 29 29 30 30 29 29 29 29 28 27 26 27 24 27 26 27 26 -193 0 0 10 0 0 0 0 0 9 10 9 9 10 9 10 10 9 9 9 10 10 10 9 9 0 10 9 9 9 9 9 11 11 11 11 17 22 25 28 29 31 31 31 31 34 32 31 35 32 32 34 36 37 36 38 38 38 47 54 55 59 -193 61 62 63 63 63 63 65 62 60 64 65 67 68 68 67 72 74 76 80 85 81 82 84 84 85 -177 -193 -177 -177 91 94 -193 93 95 92 -193 -193 751 -193 86 -193 -193 -193 88 -193 -177 -177 -177 239 -193 244 -193 -193 -193 108 109 107 112 -193 -209 -193 -209 127 -209 -193 139 -209 -193 -193 141 140 142 142 143 144 -193 -193 147 148 152 152 155 155 157 156 158 158 158 -193 161 160 160 157 161 163 164 166 167 169 173 181 184 186 187 188 189 189 189 -193 -193 -193 -193 -193 189 190 -193 -193 -193 -193 0 0 0 0 0
    0 0 0 0 0 0 0 0 0 0 0 0 0 0 0 0 0 0 0 0 0 0 0 0 0 0 0 0 0 0 0 0 0 0 0 0 0 0 0 0 0 0 0 0 0 0 0 0 0 0 0 0 0 0 0 0 0 0 0 0 0 0 0 0 0 0 0 0 0 52 50 51 51 50 51 49 50 50 47 49 45 45 44 39 38 37 33 31 32 30 33 31 30 30 31 32 32 34 30 28 28 30 29 28 27 30 26 26 28 27 26 26 26 27 25 27 27 27 28 28 28 28 28 28 27 27 27 27 24 28 26 26 25 -193 0 9 10 0 9 9 9 9 10 11 9 9 10 10 10 10 9 9 9 9 9 9 0 0 0 9 9 9 9 9 9 10 10 10 10 16 22 25 27 27 30 31 30 30 34 31 30 34 32 32 33 36 36 36 39 39 39 47 55 56 -193 -193 61 62 63 63 63 63 65 62 60 63 65 67 67 68 67 71 74 75 79 84 79 80 83 84 85 -177 -193 -193 -177 92 95 -193 94 95 93 -193 91 750 -177 85 -193 -193 86 87 93 -177 -177 -177 240 -193 -193 -193 108 106 107 108 106 110 114 -193 -209 -209 125 -193 -193 -193 -193 -193 139 141 140 142 142 143 144 -193 -177 148 149 152 152 155 155 157 155 157 157 157 950 160 161 160 156 160 161 163 165 166 169 172 179 183 186 186 188 190 190 190 191 -193 -193 -193 192 190 189 191 -193 197 199 0 0 0 0 0
    0 0 0 0 0 0 0 0 0 0 0 0 0 0 0 0 0 0 0 0 0 0 0 0 0 0 0 0 0 0 0 0 0 0 0 0 0 0 0 0 0 0 0 0 0 0 0 0 0 0 0 0 0 0 0 0 0 0 0 0 0 0 0 0 0 0 0 0 0 52 50 51 51 50 52 49 50 50 47 48 45 44 44 39 38 37 33 32 33 31 35 32 31 32 31 32 32 34 30 27 28 29 28 27 27 28 25 25 26 26 25 25 26 26 24 25 26 25 27 27 27 27 26 27 27 26 26 26 24 27 26 26 25 -193 0 9 10 0 9 9 9 9 10 11 10 9 10 10 10 10 9 9 0 9 9 9 0 0 0 9 9 9 9 9 0 10 10 10 10 14 21 24 25 27 29 30 30 30 33 30 30 34 32 33 33 36 36 36 40 -177 40 47 56 56 60 -193 61 62 63 64 64 63 65 62 60 63 65 67 67 68 68 71 73 75 77 83 78 79 82 84 85 -177 -193 -193 -177 93 96 94 176 178 93 93 91 750 750 84 -193 -193 -193 86 92 -177 683 685 241 -193 -193 -193 108 106 106 108 -209 109 111 -193 -209 -193 125 -193 136 -209 -193 -193 139 141 141 142 142 143 144 -193 -177 -193 149 152 152 154 155 157 155 157 157 157 -177 159 161 160 155 159 160 162 165 167 170 172 178 182 185 186 188 191 191 193 194 195 -193 193 195 194 192 194 194 198 199 0 0 0 0 0
    0 0 0 0 0 0 0 0 0 0 0 0 0 0 0 0 0 0 0 0 0 0 0 0 0 0 0 0 0 0 0 0 0 0 0 0 0 0 0 0 0 0 0 0 0 0 0 0 0 0 0 0 0 0 0 0 0 0 0 0 0 0 0 0 0 0 0 0 0 52 50 51 51 50 51 49 49 50 47 48 45 44 43 38 37 36 32 32 33 30 35 32 31 32 32 32 32 34 31 28 28 29 28 27 26 27 24 23 24 24 24 24 24 25 22 24 24 24 25 25 26 25 25 26 26 24 24 23 23 25 25 25 25 -193 0 -193 10 0 9 9 9 9 10 12 10 9 10 10 10 10 10 10 9 9 10 9 0 0 0 9 0 9 9 9 0 10 10 10 10 13 20 24 24 27 28 31 30 30 33 31 30 34 32 33 33 36 37 36 41 -177 41 47 57 57 61 -193 61 62 63 64 64 62 65 -177 60 63 66 67 68 69 68 -193 73 74 76 82 78 78 81 84 85 -177 -193 -177 -177 92 96 94 176 178 92 -193 91 750 750 83 -193 -193 84 85 92 678 684 686 -193 107 -193 108 108 106 105 107 -209 108 -193 -193 -209 128 125 -193 136 -193 -193 -193 140 141 141 142 142 143 143 -177 -177 -193 149 152 151 154 155 156 155 156 156 156 -193 159 161 159 155 159 160 162 164 165 169 171 177 182 185 185 189 193 191 194 194 195 192 193 196 195 193 194 194 198 199 0 0 0 0 0
    0 0 0 0 0 0 0 0 0 0 0 0 0 0 0 0 0 0 0 0 0 0 0 0 0 0 0 0 0 0 0 0 0 0 0 0 0 0 0 0 0 0 0 0 0 0 0 0 0 0 0 0 0 0 0 0 0 0 0 0 0 0 0 0 0 0 0 0 0 52 50 51 51 49 51 48 49 49 47 48 45 44 43 37 37 36 32 32 32 30 34 31 31 32 32 33 33 35 31 28 29 29 28 27 27 27 23 22 23 23 23 23 23 23 20 23 23 23 24 23 24 23 22 24 23 21 21 20 21 23 24 24 25 27 -193 -193 11 9 9 9 9 9 10 11 9 9 9 10 10 10 9 10 0 9 9 9 0 0 0 9 0 9 9 9 8 10 10 10 10 13 19 23 24 27 28 31 31 31 34 31 31 34 33 34 33 37 37 37 -177 42 42 47 57 57 -193 -193 61 62 63 63 63 62 65 -177 60 63 67 68 68 69 69 71 -193 -193 76 82 78 78 81 84 85 571 -193 -177 -177 92 95 94 175 178 92 -193 -193 749 -177 82 -193 -193 83 84 91 -193 684 687 -193 107 109 108 107 105 105 107 -209 107 -193 -193 -209 131 127 -193 136 -193 259 -193 140 141 141 142 142 143 143 -177 -177 -193 148 151 150 153 -193 -193 154 156 156 156 -193 158 161 158 154 158 158 161 163 162 -193 -193 -193 -193 183 183 185 187 186 190 190 192 189 190 195 196 192 191 192 197 197 0 0 0 0 0
    0 0 0 0 0 0 0 0 0 0 0 0 0 0 0 0 0 0 0 0 0 0 0 0 0 0 0 0 0 0 0 0 0 0 0 0 0 0 0 0 0 0 0 0 0 0 0 0 0 0 0 0 0 0 0 0 0 0 0 0 0 0 0 0 0 0 0 0 0 52 50 50 51 49 51 48 49 49 46 48 45 44 43 37 36 36 32 32 32 30 34 31 31 31 31 33 32 34 31 28 30 30 28 28 27 27 23 22 23 22 22 22 22 22 18 22 22 22 22 20 22 21 19 22 21 18 19 18 20 20 23 21 23 23 11 -193 11 10 10 10 10 10 11 12 10 10 10 11 10 10 9 10 0 9 9 9 9 9 0 9 9 9 10 9 9 10 10 10 10 13 19 22 23 27 28 32 31 31 34 31 31 34 33 35 34 38 38 38 42 43 43 47 57 56 -193 372 60 61 62 62 62 61 65 -177 61 63 67 -193 69 70 70 -209 -193 -193 76 81 77 78 81 84 84 -177 -193 -193 -177 92 -177 93 175 178 91 -193 -193 -177 -177 80 81 81 82 83 -193 -193 684 688 240 107 109 108 107 105 104 106 -209 -177 -193 -209 -193 132 129 -193 -193 -193 258 260 -193 141 141 142 142 143 143 -177 -177 -193 148 150 150 153 -193 -193 155 156 156 156 156 158 161 158 154 159 160 164 165 165 -193 170 172 176 180 180 183 184 185 -193 189 191 189 190 194 197 191 190 190 194 194 0 0 0 0 0
    0 0 0 0 0 0 0 0 0 0 0 0 0 0 0 0 0 0 0 0 0 0 0 0 0 0 0 0 0 0 0 0 0 0 0 0 0 0 0 0 0 0 0 0 0 0 0 0 0 0 0 0 0 0 0 0 0 0 0 0 0 0 0 0 0 0 0 0 0 52 50 50 51 49 51 48 49 49 46 48 46 43 43 37 36 35 32 32 32 30 34 31 30 31 31 32 32 34 31 28 30 29 28 28 27 27 24 23 23 23 23 22 21 22 17 21 21 20 21 -193 -193 18 16 20 19 16 18 17 19 18 21 20 20 16 10 11 11 10 11 10 11 10 10 12 10 11 10 11 10 11 10 10 9 9 9 10 9 9 0 9 9 10 10 9 9 10 10 11 10 13 18 21 23 26 27 31 31 31 34 31 31 35 34 36 34 38 39 39 43 43 43 46 56 56 -177 372 -193 -193 61 61 61 60 64 -193 62 63 68 -193 70 -193 70 -209 -193 -193 76 81 77 78 80 84 84 -177 -193 -193 -177 -193 768 -193 -193 -193 -193 -193 -193 -177 -177 79 79 80 80 82 -193 -193 683 690 -193 107 108 108 107 105 104 106 102 -193 101 -209 -177 132 130 -193 -193 -193 258 260 -193 141 142 143 143 143 143 -177 -177 -193 147 150 150 152 -193 156 155 156 157 157 157 159 161 158 155 162 162 165 166 166 168 169 171 173 176 178 180 182 183 -193 -193 -193 -193 190 193 195 188 188 188 191 192 0 0 0 0 0
    0 0 0 0 0 0 0 0 0 0 0 0 0 0 0 0 0 0 0 0 0 0 0 0 0 0 0 0 0 0 0 0 0 0 0 0 0 0 0 0 0 0 0 0 0 0 0 0 0 0 0 0 0 0 0 0 0 0 0 0 0 0 0 0 0 0 0 0 0 52 50 50 51 49 51 48 48 49 47 48 46 44 43 37 36 34 31 32 32 30 34 31 30 31 31 32 31 33 30 28 30 29 28 28 27 28 24 24 23 23 23 22 21 21 16 20 21 -193 -193 -193 -193 16 14 17 17 14 16 15 16 13 16 13 12 9 8 10 10 10 10 10 11 11 10 12 10 11 10 11 11 11 11 10 9 9 10 10 9 9 0 9 9 9 10 9 9 11 11 11 11 13 17 21 22 25 26 31 31 31 33 32 31 35 34 37 34 38 39 39 43 43 43 45 55 55 -177 371 369 -177 -193 -193 60 59 63 -193 -193 64 68 -177 70 -193 -193 -209 74 74 76 81 78 78 80 84 83 -193 86 87 -177 765 767 -177 -177 -177 -193 -193 -193 -177 -193 78 79 79 79 81 87 -193 683 691 -193 107 108 108 107 106 104 106 102 -209 -193 -177 126 132 130 -193 -193 -193 258 260 -193 140 142 143 143 143 143 -193 -193 -193 147 149 150 152 155 157 156 157 158 158 158 159 162 158 155 162 162 165 166 165 168 -193 171 173 175 177 179 181 182 186 187 189 188 190 192 195 190 189 189 192 193 0 0 0 0 0
    0 0 0 0 0 0 0 0 0 0 0 0 0 0 0 0 0 0 0 0 0 0 0 0 0 0 0 0 0 0 0 0 0 0 0 0 0 0 0 0 0 0 0 0 0 0 0 0 0 0 0 0 0 0 0 0 0 0 0 0 0 0 0 0 0 0 0 0 0 52 50 49 50 49 51 48 48 49 47 47 46 44 43 37 35 34 31 32 32 30 34 30 30 31 30 31 30 32 30 27 30 29 27 28 27 28 25 24 24 23 23 23 21 21 16 19 19 -193 -193 -193 -193 13 12 13 14 12 13 12 13 9 10 9 9 0 0 0 9 10 10 10 10 10 10 12 10 11 11 11 11 11 10 10 9 9 9 10 9 9 0 9 9 9 10 9 9 11 11 12 11 12 18 22 23 -177 26 31 31 31 33 32 31 34 34 36 34 39 40 40 43 43 43 44 53 54 372 369 -177 -177 -177 -177 59 58 -193 -177 -193 64 69 -177 70 -193 -193 -193 74 74 76 82 78 78 80 84 82 87 85 86 -193 765 767 -177 -177 -177 -209 -209 -193 -193 -193 77 78 78 79 81 86 -193 -193 692 -193 107 -193 108 107 106 104 106 102 -209 -209 -209 126 132 130 132 -193 -193 -193 -193 -193 140 142 142 143 143 143 -193 -193 -193 147 149 150 152 156 157 156 158 159 159 159 159 162 158 155 162 162 165 167 166 169 170 171 173 174 176 178 179 181 183 186 187 186 190 193 197 192 190 192 195 193 0 0 0 0 0
    0 0 0 0 0 0 0 0 0 0 0 0 0 0 0 0 0 0 0 0 0 0 0 0 0 0 0 0 0 0 0 0 0 0 0 0 0 0 0 0 0 0 0 0 0 0 0 0 0 0 0 0 0 0 0 0 0 0 0 0 0 0 0 0 0 0 0 0 0 51 49 49 50 49 51 48 48 49 47 47 47 44 44 39 36 34 31 31 32 30 34 30 30 31 30 31 30 31 30 27 30 29 27 29 27 28 25 24 24 23 24 23 21 21 16 17 16 -193 -193 -193 -193 11 10 10 11 11 12 11 12 9 9 10 9 0 0 0 9 9 10 10 10 10 10 11 10 11 11 10 11 10 10 10 9 9 9 9 9 9 0 0 0 0 9 0 9 11 11 11 11 12 18 22 23 -177 28 32 31 32 34 33 31 35 35 37 35 39 40 41 43 43 43 43 52 53 371 369 -177 -177 -177 -177 -193 -209 116 -193 -193 64 69 -177 71 -177 -193 -177 74 74 77 82 79 79 80 84 82 86 85 85 -193 765 767 -177 -177 -177 -193 -209 -193 -193 -193 77 78 78 79 80 85 -193 -209 693 -193 -193 -193 -193 107 106 104 106 103 -209 -193 -209 126 132 131 133 135 136 -193 -193 140 140 142 142 144 143 144 145 145 -193 146 148 150 152 156 157 157 158 160 160 160 159 163 159 156 165 165 167 168 168 170 170 172 173 174 176 177 177 180 181 183 184 184 188 190 200 193 191 195 -209 194 0 0 0 0 0
    0 0 0 0 0 0 0 0 0 0 0 0 0 0 0 0 0 0 0 0 0 0 0 0 0 0 0 0 0 0 0 0 0 0 0 0 0 0 0 0 0 0 0 0 0 0 0 0 0 0 0 0 0 0 0 0 0 0 0 0 0 0 0 0 0 0 0 0 0 50 49 48 50 48 51 48 48 49 47 47 47 45 45 40 37 34 31 31 32 31 35 31 30 31 30 31 30 31 31 27 30 29 28 29 28 28 26 25 24 24 24 23 21 21 16 15 15 -193 -193 10 11 10 9 10 11 10 11 11 11 9 10 10 9 0 0 0 0 9 9 9 10 10 10 11 10 11 11 11 11 10 11 10 10 9 10 9 9 9 0 0 0 0 0 0 0 11 11 11 11 11 18 23 24 29 28 33 32 32 34 34 32 35 36 37 35 40 41 41 43 43 43 42 51 52 -193 368 369 -177 -177 -177 -193 -193 115 -193 -193 64 69 -193 71 -177 -177 -193 74 75 77 82 79 79 81 84 81 86 85 85 -193 87 -177 -177 -177 -177 -193 -193 84 -193 -193 78 78 78 79 81 84 90 -193 -193 101 -193 -193 -193 107 -193 -193 107 106 -209 210 -209 127 133 132 133 135 -193 136 138 140 139 142 142 144 143 143 144 145 145 146 148 151 151 156 157 158 158 160 160 160 159 163 159 157 165 165 168 169 169 170 170 172 172 174 175 175 176 180 181 183 183 183 187 189 199 195 192 -209 -209 195 0 0 0 0 0
    0 0 0 0 0 0 0 0 0 0 0 0 0 0 0 0 0 0 0 0 0 0 0 0 0 0 0 0 0 0 0 0 0 0 0 0 0 0 0 0 0 0 0 0 0 0 0 0 0 0 0 0 0 0 0 0 0 0 0 0 0 0 0 0 0 0 0 0 0 49 48 48 50 48 50 48 48 49 47 47 47 45 45 41 37 34 31 31 32 31 35 31 30 31 31 31 31 32 31 28 31 30 29 30 28 28 27 25 25 24 24 23 21 21 17 15 15 11 10 10 11 11 10 10 11 11 11 11 11 10 10 11 9 0 0 9 9 9 10 10 10 10 10 11 10 11 11 11 11 10 11 10 10 10 9 9 9 0 0 0 0 0 0 0 0 10 11 11 11 11 18 23 24 30 29 33 32 32 34 34 32 36 36 37 35 40 41 41 42 42 42 41 50 50 -193 368 369 -177 -177 -177 -193 -193 115 115 65 63 68 -177 70 -177 -177 -193 -193 75 77 83 80 80 81 84 81 85 85 85 -193 86 -177 -177 -177 -177 -193 88 84 -193 -193 80 79 79 80 81 84 90 92 -193 100 -193 -193 -193 -193 -193 -193 107 108 -209 -193 -209 129 133 133 134 135 -193 138 138 139 139 141 141 143 142 143 144 145 145 146 148 151 151 156 157 158 158 161 161 161 159 164 160 161 167 166 168 169 169 170 170 172 173 173 176 177 178 181 182 183 184 184 187 188 194 190 187 -209 -209 194 0 0 0 0 0
    0 0 0 0 0 0 0 0 0 0 0 0 0 0 0 0 0 0 0 0 0 0 0 0 0 0 0 0 0 0 0 0 0 0 0 0 0 0 0 0 0 0 0 0 0 0 0 0 0 0 0 0 0 0 0 0 0 0 0 0 0 0 0 0 0 0 0 0 0 49 47 47 49 47 50 48 48 49 48 47 47 45 46 41 37 35 32 31 32 31 36 31 30 32 31 31 31 32 31 28 31 31 29 30 28 29 28 26 25 25 25 24 22 21 18 15 15 11 10 10 11 11 10 10 11 11 12 12 12 10 11 11 9 9 9 10 9 9 10 10 10 10 10 11 10 11 11 11 11 10 10 10 10 9 9 9 9 0 0 0 0 0 0 0 9 10 11 11 11 11 18 24 25 31 29 33 32 32 34 35 33 36 36 37 35 39 41 41 41 41 41 40 48 48 52 369 370 -177 -177 -177 -177 -193 115 114 65 63 68 -177 70 -177 -177 -193 -193 -193 77 83 81 81 82 84 81 85 85 86 -193 85 -177 -177 -177 -177 88 87 84 -193 86 81 80 80 80 81 83 -193 91 -193 100 240 244 -177 -193 -193 -193 -193 -193 -193 -193 -193 130 134 134 135 136 -193 138 138 139 139 141 141 143 142 143 144 145 145 147 148 151 151 155 156 158 158 160 160 160 158 163 161 164 166 167 168 169 169 170 170 172 173 174 177 179 181 183 183 184 184 185 188 188 190 190 187 -209 -209 -209 0 0 0 0 0
    0 0 0 0 0 0 0 0 0 0 0 0 0 0 0 0 0 0 0 0 0 0 0 0 0 0 0 0 0 0 0 0 0 0 0 0 0 0 0 0 0 0 0 0 0 0 0 0 0 0 0 0 0 0 0 0 0 0 0 0 0 0 0 0 0 0 0 0 0 48 47 47 49 48 50 49 48 49 48 47 47 45 46 41 37 35 33 31 32 31 36 31 30 32 31 31 31 31 31 28 31 31 29 30 28 28 28 26 26 25 25 24 22 22 20 16 16 12 10 10 11 11 11 11 11 11 11 12 12 10 10 11 9 10 9 10 9 9 10 10 10 10 10 10 10 11 11 10 11 10 10 9 9 9 9 0 0 0 0 0 0 0 0 0 0 10 11 11 11 11 18 24 24 30 28 32 32 32 34 35 33 36 36 37 35 39 40 40 39 39 39 39 47 47 50 -193 -177 -177 -177 -177 -177 -193 115 114 65 62 67 -177 -193 -177 -177 -177 -177 -177 77 83 82 82 83 85 81 85 86 86 87 85 -193 -177 -177 -177 88 88 84 -177 86 82 80 80 80 81 82 -193 -209 -193 99 240 245 -177 -193 -193 238 -193 -193 -193 -193 123 132 134 135 135 136 -193 138 138 139 138 140 140 142 142 143 144 146 145 147 148 152 151 155 156 158 157 160 160 160 -193 163 162 166 165 167 168 169 169 170 170 172 172 174 178 180 182 184 184 185 187 186 190 189 191 192 -209 -209 -209 200 0 0 0 0 0
    0 0 0 0 0 0 0 0 0 0 0 0 0 0 0 0 0 0 0 0 0 0 0 0 0 0 0 0 0 0 0 0 0 0 0 0 0 0 0 0 0 0 0 0 0 0 0 0 0 0 0 0 0 0 0 0 0 0 0 0 0 0 0 0 0 0 0 0 0 47 46 46 49 47 50 48 48 49 47 47 46 44 45 41 37 35 33 32 32 31 36 31 30 32 32 31 31 31 31 28 31 30 29 29 28 28 29 27 26 26 26 25 23 22 21 17 17 14 11 11 11 11 11 11 11 11 11 12 12 11 11 11 10 10 9 9 0 9 10 9 9 9 9 10 10 11 11 10 11 10 10 9 9 9 0 0 0 0 0 0 0 0 0 0 0 10 11 11 11 11 17 23 24 29 28 32 31 32 34 35 32 35 36 36 34 38 39 39 38 38 38 38 46 46 50 -193 -177 -177 -177 -177 -177 -209 -193 -193 65 62 66 -177 -193 -193 -177 -177 -177 -177 76 83 83 82 84 85 82 86 87 -193 -193 86 -193 -177 -177 -193 90 88 85 -177 87 83 80 80 80 81 81 724 -209 692 99 241 245 -177 -193 -193 239 -193 -209 -193 -209 124 133 135 136 136 -193 -193 139 138 139 138 -193 140 142 141 143 144 146 146 148 149 152 151 154 155 158 156 159 159 159 -193 163 163 166 164 167 167 168 168 169 169 171 172 174 178 180 183 184 184 185 186 186 189 187 189 191 -209 -193 -193 199 0 0 0 0 0
    0 0 0 0 0 0 0 0 0 0 0 0 0 0 0 0 0 0 0 0 0 0 0 0 0 0 0 0 0 0 0 0 0 0 0 0 0 0 0 0 0 0 0 0 0 0 0 0 0 0 0 0 0 0 0 0 0 0 0 0 0 0 0 0 0 0 0 0 0 46 45 45 48 46 48 48 47 48 47 46 45 43 44 40 36 36 34 32 32 31 37 31 30 33 32 30 31 31 31 28 30 30 29 29 28 28 29 27 27 27 27 26 24 23 22 18 18 15 12 12 12 12 12 11 12 12 12 13 12 11 11 11 10 10 9 9 0 9 10 9 9 9 9 10 10 11 11 10 11 9 10 9 0 0 0 0 0 0 0 0 0 0 0 0 0 10 11 11 12 12 17 23 23 28 27 31 30 31 33 34 32 35 35 35 33 37 39 38 36 37 37 37 46 47 51 -193 -177 -177 -177 -177 -177 -193 61 62 64 61 65 -193 -193 -193 -177 -177 -177 -177 -193 83 84 83 84 86 83 86 -209 -193 -193 87 -193 -177 -177 90 91 89 86 274 -193 -193 80 80 80 81 80 725 -209 -177 -193 241 246 -177 -193 -193 -177 -193 -209 117 -209 124 134 136 137 137 137 139 140 139 140 139 -193 140 142 141 142 144 146 147 148 149 152 151 154 -209 157 156 157 157 158 -193 161 163 166 162 167 166 167 167 168 169 171 172 174 177 180 183 184 184 184 185 185 187 186 187 190 -209 -209 200 200 0 0 0 0 0
    0 0 0 0 0 0 0 0 0 0 0 0 0 0 0 0 0 0 0 0 0 0 0 0 0 0 0 0 0 0 0 0 0 0 0 0 0 0 0 0 0 0 0 0 0 0 0 0 0 0 0 0 0 0 0 0 0 0 0 0 0 0 0 0 0 0 0 0 0 45 44 44 47 45 47 47 46 46 45 44 44 42 42 38 35 35 34 32 32 31 37 32 31 33 32 30 31 31 31 28 30 30 29 29 29 29 30 28 28 28 27 26 24 24 23 19 18 16 13 13 12 12 12 12 12 12 12 13 12 12 12 12 11 11 10 9 9 9 10 10 9 9 9 10 10 10 11 10 10 9 9 9 0 0 0 0 0 0 0 0 0 0 0 0 9 10 11 11 12 12 16 23 23 28 27 31 30 30 32 34 31 34 35 35 32 37 38 38 35 37 37 37 46 48 52 -177 -177 -177 -177 -177 -177 59 62 62 64 61 63 -193 -193 -193 -177 -177 -177 -177 -193 82 84 82 84 86 84 87 -193 -193 -193 -209 -209 -177 -193 91 92 90 87 274 -177 -193 80 80 80 81 80 -193 -209 -177 -193 242 -193 -193 -193 -193 -177 -193 -193 116 119 123 134 136 137 137 138 140 140 140 140 140 140 140 142 141 142 144 146 147 148 149 152 151 153 -209 157 155 156 156 157 -193 160 162 164 160 167 166 167 167 168 169 171 172 174 177 180 183 184 185 184 186 186 187 186 186 189 -193 -193 198 199 0 0 0 0 0
    0 0 0 0 0 0 0 0 0 0 0 0 0 0 0 0 0 0 0 0 0 0 0 0 0 0 0 0 0 0 0 0 0 0 0 0 0 0 0 0 0 0 0 0 0 0 0 0 0 0 0 0 0 0 0 0 0 0 0 0 0 0 0 0 0 0 0 0 0 44 44 43 46 44 45 45 44 43 43 42 41 40 40 37 35 35 35 32 32 31 37 32 31 33 32 30 31 31 31 28 29 30 29 28 29 29 30 28 28 28 27 26 24 24 23 20 19 16 14 15 13 13 13 12 12 13 13 13 12 12 12 12 12 12 11 10 10 10 11 10 10 9 9 9 10 10 10 9 10 0 9 9 0 0 0 0 0 0 0 0 0 0 0 9 9 10 11 12 12 12 15 23 22 27 26 30 29 30 31 33 31 33 35 35 32 36 38 37 35 37 37 37 46 50 -193 -177 -177 -177 -177 -177 -193 60 62 63 64 60 62 64 -193 -193 -177 -177 -177 -177 -193 81 85 82 84 86 85 87 -193 90 90 -193 90 -193 91 92 93 91 -209 274 -177 -177 80 80 80 81 80 -209 -209 -177 693 242 -193 -193 -193 -193 -177 -193 -193 115 117 122 134 136 138 137 138 140 141 140 140 140 141 140 142 141 142 144 146 147 148 149 151 150 -193 -177 157 155 156 156 156 -193 159 162 163 159 167 166 166 166 167 168 170 171 173 177 180 184 185 186 185 187 187 188 187 187 189 187 189 196 197 0 0 0 0 0
    0 0 0 0 0 0 0 0 0 0 0 0 0 0 0 0 0 0 0 0 0 0 0 0 0 0 0 0 0 0 0 0 0 0 0 0 0 0 0 0 0 0 0 0 0 0 0 0 0 0 0 0 0 0 0 0 0 0 0 0 0 0 0 0 0 0 0 0 0 44 44 44 45 43 43 43 41 40 40 39 39 38 37 36 34 35 35 32 32 31 37 33 31 34 33 30 31 31 31 28 29 30 29 28 29 29 30 29 28 29 27 26 25 24 -193 20 19 17 16 16 14 15 15 13 13 14 13 13 13 12 12 12 12 12 11 10 10 11 12 11 10 10 9 9 9 10 10 9 10 9 10 9 9 9 9 0 9 0 0 0 0 9 0 9 9 9 11 11 12 12 15 22 22 25 25 29 28 28 29 32 29 32 34 34 31 35 37 37 34 37 37 37 46 51 -193 -177 -177 -177 -177 -193 -193 61 63 63 63 60 61 63 -193 66 -177 -177 -177 -177 -193 80 85 81 83 85 85 87 -193 91 91 -177 91 94 92 93 94 91 -209 -193 -177 -193 80 80 80 81 80 -209 -209 -177 693 243 -193 -193 -193 -193 -193 -193 110 113 115 121 131 135 138 138 139 141 141 141 141 140 141 140 142 141 142 144 -193 147 148 149 151 150 -193 -177 156 154 155 156 156 -193 158 162 161 158 166 165 165 165 165 166 167 168 170 177 181 186 187 187 187 188 188 188 188 187 188 187 187 193 196 0 0 0 0 0
    0 0 0 0 0 0 0 0 0 0 0 0 0 0 0 0 0 0 0 0 0 0 0 0 0 0 0 0 0 0 0 0 0 0 0 0 0 0 0 0 0 0 0 0 0 0 0 0 0 0 0 0 0 0 0 0 0 0 0 0 0 0 0 0 0 0 0 0 0 44 45 44 45 43 42 41 39 39 38 38 37 36 35 35 33 35 34 31 31 31 37 33 31 34 33 30 31 31 31 28 29 30 29 28 29 29 31 29 29 29 27 26 25 25 -193 21 20 18 18 18 15 16 16 14 14 14 14 14 13 12 12 11 11 11 10 10 10 11 12 11 10 10 10 10 9 10 10 10 11 10 10 10 9 10 9 9 9 0 9 0 0 9 9 9 9 9 11 11 12 12 14 22 21 24 24 27 27 27 27 30 28 30 32 32 31 34 37 36 34 38 38 38 46 53 -193 -177 374 60 -193 61 62 62 63 64 -177 59 60 62 -177 65 -193 -177 -177 -177 -177 78 85 81 82 85 86 87 -193 91 91 -177 91 95 93 93 94 92 -193 -193 -193 -209 81 81 81 82 81 -209 -209 690 694 243 107 107 107 108 -193 -193 109 112 113 119 125 135 137 138 139 141 141 141 141 140 -193 140 142 141 142 144 -193 147 148 148 150 149 152 -177 156 154 155 156 156 156 158 162 160 158 165 165 164 164 164 165 166 168 169 175 181 186 186 187 187 187 188 188 188 187 187 187 187 190 195 0 0 0 0 0
    0 0 0 0 0 0 0 0 0 0 0 0 0 0 0 0 0 0 0 0 0 0 0 0 0 0 0 0 0 0 0 0 0 0 0 0 0 0 0 0 0 0 0 0 0 0 0 0 0 0 0 0 0 0 0 0 0 0 0 0 0 0 0 0 0 0 0 0 0 45 45 44 45 43 41 40 37 37 37 36 36 34 34 34 32 34 34 31 31 30 37 33 32 34 34 30 31 31 31 29 30 30 30 29 29 29 31 29 29 29 27 26 25 25 -193 21 20 19 18 18 16 16 17 14 13 14 14 13 12 11 11 10 11 10 9 9 10 11 12 11 10 10 10 10 10 10 10 10 12 11 11 11 10 11 10 10 9 0 9 0 0 0 0 9 9 9 11 11 12 13 14 22 21 24 24 26 26 26 26 29 28 29 31 32 31 33 36 36 34 39 39 39 47 55 -193 -193 -193 61 61 62 63 63 64 64 -177 59 60 61 -177 -193 -193 -177 -177 -177 -177 77 84 80 81 84 86 86 -177 90 90 -177 92 95 93 93 94 92 91 -193 -193 -193 82 82 82 83 83 -193 -209 690 694 243 107 108 107 108 -193 106 108 110 112 117 122 134 137 137 139 141 141 141 140 140 -193 140 142 142 142 144 -177 -193 147 148 150 149 151 -177 156 155 156 156 156 156 158 161 160 157 166 166 165 165 165 166 166 167 169 174 180 185 186 187 187 -193 187 188 187 187 187 188 -193 188 -209 0 0 0 0 0
    0 0 0 0 0 0 0 0 0 0 0 0 0 0 0 0 0 0 0 0 0 0 0 0 0 0 0 0 0 0 0 0 0 0 0 0 0 0 0 0 0 0 0 0 0 0 0 0 0 0 0 0 0 0 0 0 0 0 0 0 0 0 0 0 0 0 0 0 0 45 45 44 45 43 41 39 36 36 36 35 35 34 33 34 32 33 33 31 32 31 37 33 32 33 34 30 31 31 31 29 29 30 30 29 29 29 31 29 29 29 27 26 25 24 -193 22 20 19 18 19 16 15 16 14 13 13 13 13 12 11 11 10 10 10 9 9 9 10 11 10 10 10 10 10 10 10 11 11 12 12 12 12 12 13 11 10 9 0 0 0 0 0 0 0 0 9 11 11 12 13 13 21 20 24 23 25 25 25 26 28 27 28 31 32 31 33 37 37 35 39 39 39 46 56 -193 -193 -193 62 62 63 64 64 64 65 -177 59 59 61 -177 -193 -209 -177 -177 -177 398 76 84 79 80 84 85 86 573 -193 -193 -177 92 95 93 92 94 92 92 91 -193 -193 82 83 83 83 84 -193 -209 689 693 242 107 108 108 108 106 105 106 108 111 115 120 132 136 137 139 143 141 142 140 140 -193 140 142 142 142 143 -177 -193 147 148 149 149 151 -177 157 156 156 157 157 157 158 161 159 156 166 165 165 164 165 165 166 167 168 173 179 185 186 188 187 187 188 188 188 188 188 189 186 189 -209 0 0 0 0 0
    0 0 0 0 0 0 0 0 0 0 0 0 0 0 0 0 0 0 0 0 0 0 0 0 0 0 0 0 0 0 0 0 0 0 0 0 0 0 0 0 0 0 0 0 0 0 0 0 0 0 0 0 0 0 0 0 0 0 0 0 0 0 0 0 0 0 0 0 0 45 45 44 44 42 39 39 36 36 36 35 35 34 33 34 32 33 33 31 31 31 37 33 32 33 35 30 31 31 31 29 29 30 30 29 30 30 31 30 29 30 27 25 -209 24 24 21 19 19 18 20 16 15 16 14 12 13 14 13 12 11 11 10 10 10 9 9 9 10 11 10 10 10 10 10 10 11 11 11 13 13 13 13 13 14 12 11 10 9 9 0 0 0 0 9 9 10 11 11 12 12 12 20 20 24 23 25 26 26 26 28 27 28 31 32 32 33 37 37 36 -177 -177 40 46 57 -193 374 -193 62 63 63 64 64 63 64 -177 58 58 60 -177 -193 -209 -177 -177 -177 -193 76 83 79 79 83 85 85 573 -193 -193 -177 92 -193 93 -193 93 92 92 91 755 754 83 83 83 84 85 -193 -193 688 693 -193 107 108 108 108 107 105 106 107 110 111 119 130 134 137 140 144 142 142 140 140 -193 -193 142 142 142 143 -177 -193 147 147 149 149 151 -193 157 156 157 158 158 158 158 161 158 156 166 165 165 165 166 166 166 167 168 173 179 185 187 188 187 187 188 189 188 188 188 191 187 189 -209 0 0 0 0 0
    0 0 0 0 0 0 0 0 0 0 0 0 0 0 0 0 0 0 0 0 0 0 0 0 0 0 0 0 0 0 0 0 0 0 0 0 0 0 0 0 0 0 0 0 0 0 0 0 0 0 0 0 0 0 0 0 0 0 0 0 0 0 0 0 0 0 0 0 0 45 45 45 45 43 40 39 37 37 36 35 35 34 34 34 32 32 33 31 31 31 37 34 32 33 35 31 31 31 31 30 29 31 31 29 30 30 31 30 29 30 27 -193 -209 24 23 21 19 19 18 20 17 15 16 15 13 13 14 13 12 11 11 11 10 10 10 9 9 10 10 10 10 10 10 10 10 11 11 12 13 13 13 14 13 15 12 12 11 10 10 9 0 9 0 10 9 10 11 11 12 12 12 20 21 24 -177 25 26 26 26 28 28 28 31 32 33 34 38 39 38 -177 -177 41 46 57 -193 374 372 62 63 63 64 64 63 64 -177 57 57 -193 -177 -193 -193 -177 -193 -193 -193 76 83 79 79 82 85 84 574 -193 -193 -177 91 769 92 172 -193 91 91 90 755 755 83 84 84 85 85 -193 -193 687 693 -193 107 108 108 108 107 104 105 106 109 110 118 128 131 136 139 143 141 142 139 -177 -193 -193 142 -193 142 143 256 256 147 147 149 150 152 -193 158 157 158 159 159 159 158 161 158 156 166 166 166 166 167 167 168 169 170 174 180 185 186 188 188 188 189 189 189 189 189 194 189 192 -209 0 0 0 0 0
    0 0 0 0 0 0 0 0 0 0 0 0 0 0 0 0 0 0 0 0 0 0 0 0 0 0 0 0 0 0 0 0 0 0 0 0 0 0 0 0 0 0 0 0 0 0 0 0 0 0 0 0 0 0 0 0 0 0 0 0 0 0 0 0 0 0 0 0 0 45 46 45 45 43 40 40 38 37 37 36 36 35 34 34 32 32 33 31 31 31 37 34 32 33 36 31 32 32 32 30 30 31 31 29 30 30 31 30 29 30 26 -193 24 23 23 20 19 19 18 20 17 15 16 15 13 13 14 14 12 12 11 11 10 11 10 10 9 10 10 10 10 10 10 10 10 12 11 12 13 13 13 14 14 15 12 12 11 10 11 10 9 9 0 10 10 10 11 11 12 12 12 20 20 24 23 25 26 25 25 28 28 28 31 33 34 35 39 40 39 -177 -177 42 46 57 57 -193 371 62 62 63 63 63 62 63 -177 57 56 -209 -177 -193 -193 -177 -193 -193 -193 76 83 79 79 82 84 82 574 86 86 -177 90 769 -193 -193 -193 -193 90 -193 755 755 83 85 -193 -193 86 -193 -193 686 691 -209 108 108 108 107 107 104 104 105 108 109 118 127 130 135 138 142 140 141 139 -193 31 -193 141 -193 142 143 256 256 147 147 149 150 152 -193 158 158 158 159 159 159 158 161 158 156 166 166 166 166 167 167 168 169 170 177 182 186 188 190 190 190 191 191 191 191 192 199 -209 -193 -209 0 0 0 0 0
    0 0 0 0 0 0 0 0 0 0 0 0 0 0 0 0 0 0 0 0 0 0 0 0 0 0 0 0 0 0 0 0 0 0 0 0 0 0 0 0 0 0 0 0 0 0 0 0 0 0 0 0 0 0 0 0 0 0 0 0 0 0 0 0 0 0 0 0 0 45 46 45 44 43 40 40 38 38 37 36 36 35 34 34 32 32 33 31 31 31 37 34 32 32 36 31 32 32 32 31 30 32 32 29 30 30 31 30 29 29 26 23 23 22 22 20 19 19 17 20 17 15 16 15 14 14 15 16 13 14 12 12 11 10 11 10 0 9 10 10 9 10 10 10 10 13 12 13 14 14 14 15 15 16 12 12 12 11 11 10 9 9 8 11 10 10 11 11 12 12 13 19 19 23 22 24 26 25 25 29 28 28 31 33 35 35 39 40 39 42 42 42 46 56 57 -193 370 61 62 62 62 63 61 62 -177 57 55 -193 -177 -193 -177 -193 -209 -209 73 76 83 79 80 82 84 81 573 85 86 -177 89 768 -177 -193 -193 -193 -193 -209 -193 755 84 85 -193 -193 87 -193 -177 684 690 105 108 107 107 107 106 103 103 104 107 108 118 129 132 135 138 141 140 141 139 -193 31 -193 141 -193 142 142 256 255 147 148 149 151 152 -193 158 158 158 160 160 160 158 161 158 157 167 167 167 167 167 168 169 170 171 178 -193 186 188 191 192 190 192 191 192 192 192 -193 -209 -193 -193 0 0 0 0 0
    0 0 0 0 0 0 0 0 0 0 0 0 0 0 0 0 0 0 0 0 0 0 0 0 0 0 0 0 0 0 0 0 0 0 0 0 0 0 0 0 0 0 0 0 0 0 0 0 0 0 0 0 0 0 0 0 0 0 0 0 0 0 0 0 0 0 0 0 0 45 46 45 44 43 40 40 39 38 38 37 36 35 34 34 33 32 33 31 30 31 36 34 32 32 36 32 32 32 32 32 30 32 32 29 30 30 31 30 29 29 25 23 23 22 22 20 19 19 18 20 18 15 17 17 15 17 18 19 15 16 13 13 11 10 10 9 0 0 9 9 9 10 10 10 10 13 12 14 14 14 14 15 15 16 12 12 12 11 11 11 10 10 9 11 10 9 11 11 11 11 12 18 19 24 23 25 27 27 27 30 29 28 32 34 35 35 39 40 40 42 42 42 46 55 56 -193 368 60 60 61 61 61 60 61 58 56 54 56 -177 -193 -193 -193 -209 -209 74 76 83 80 80 81 84 80 85 84 85 -177 88 768 -177 -177 -193 -209 -193 -193 -193 -177 86 87 -193 -193 87 92 -193 -193 -193 106 108 108 108 108 107 103 103 103 106 107 119 130 135 135 138 140 139 140 138 138 31 -177 140 -193 141 142 -193 255 147 148 149 151 152 157 159 158 158 160 160 160 158 162 158 157 167 168 168 168 168 169 170 172 173 179 185 186 188 191 192 191 192 191 191 191 191 -209 -209 -193 -209 0 0 0 0 0
    0 0 0 0 0 0 0 0 0 0 0 0 0 0 0 0 0 0 0 0 0 0 0 0 0 0 0 0 0 0 0 0 0 0 0 0 0 0 0 0 0 0 0 0 0 0 0 0 0 0 0 0 0 0 0 0 0 0 0 0 0 0 0 0 0 0 0 0 0 44 45 44 44 43 40 41 39 39 38 37 37 36 35 35 34 32 34 31 31 31 36 35 32 32 36 32 32 32 33 32 30 32 32 29 31 30 31 30 28 28 25 23 23 22 23 21 20 19 18 20 19 16 18 18 16 18 18 19 15 16 14 14 12 11 10 0 0 0 0 9 9 9 10 10 10 13 12 14 14 14 14 15 15 16 13 13 14 12 12 12 12 11 10 12 11 10 11 11 11 10 11 18 19 25 25 26 30 28 28 31 31 30 33 34 36 35 39 40 40 41 42 42 45 53 55 -193 368 60 60 60 60 60 59 60 58 57 55 56 -193 57 58 60 -193 75 75 77 84 80 80 81 83 79 84 84 84 -193 87 769 -193 -209 -193 -193 -193 88 -193 -193 88 88 -209 -193 88 93 -193 105 106 108 109 109 108 109 108 104 104 104 107 110 -193 129 134 135 137 139 139 139 137 137 -193 -193 139 -193 -193 141 -193 253 148 148 149 152 153 158 159 159 158 160 160 160 157 162 158 158 167 168 168 168 169 170 172 175 178 181 186 187 188 191 193 191 192 191 191 192 192 -193 -209 -193 -209 0 0 0 0 0
    0 0 0 0 0 0 0 0 0 0 0 0 0 0 0 0 0 0 0 0 0 0 0 0 0 0 0 0 0 0 0 0 0 0 0 0 0 0 0 0 0 0 0 0 0 0 0 0 0 0 0 0 0 0 0 0 0 0 0 0 0 0 0 0 0 0 0 0 0 43 44 43 43 42 40 41 39 -193 -193 38 37 37 36 36 34 32 34 31 31 32 36 35 32 32 36 32 32 32 32 32 30 32 32 28 30 30 31 29 28 28 25 23 23 22 23 22 21 20 19 21 20 17 19 19 17 19 20 21 18 19 15 17 14 13 11 9 0 0 9 10 9 9 9 10 10 13 12 14 14 14 15 15 15 15 13 13 14 13 13 13 12 12 10 12 11 10 11 11 11 10 11 17 20 25 26 28 32 30 30 33 32 31 34 35 37 35 39 40 40 41 41 42 44 -193 53 -193 -177 58 59 59 59 59 58 59 57 58 57 57 58 58 58 61 -209 75 75 77 84 80 81 81 83 79 84 84 84 85 86 87 -193 -193 -193 -193 -193 88 87 -193 88 -193 -209 -209 89 95 -193 106 107 109 110 110 109 109 109 105 105 105 108 110 116 122 131 134 136 138 138 138 136 136 136 -193 137 138 -209 -193 -193 -193 -193 149 150 157 154 158 159 159 158 159 159 160 157 161 159 159 167 168 168 168 169 170 171 175 179 182 187 189 189 191 194 192 193 191 190 -193 -209 -209 -209 -209 -209 0 0 0 0 0
    0 0 0 0 0 0 0 0 0 0 0 0 0 0 0 0 0 0 0 0 0 0 0 0 0 0 0 0 0 0 0 0 0 0 0 0 0 0 0 0 0 0 0 0 0 0 0 0 0 0 0 0 0 0 0 0 0 0 0 0 0 0 0 0 0 0 0 0 0 42 43 43 43 -193 39 40 39 -193 -193 38 38 37 37 37 35 33 35 32 31 32 36 35 32 32 36 32 32 32 32 31 29 32 32 28 30 30 30 29 28 28 25 24 24 23 23 23 23 22 20 22 21 20 21 21 19 21 21 22 19 20 17 19 16 15 12 10 9 9 9 10 9 9 9 10 10 14 13 14 14 14 14 14 14 14 13 13 14 13 13 14 13 13 12 13 12 11 12 12 11 10 11 17 19 25 27 30 33 30 30 33 33 32 35 36 37 35 39 40 40 40 41 41 43 47 51 55 -193 57 58 58 58 59 58 58 58 58 57 57 58 57 57 60 -193 75 75 77 84 80 81 81 84 79 83 84 84 85 86 87 87 -193 -193 -193 -193 87 86 90 -193 -193 -209 -193 90 99 -193 107 109 110 111 110 110 110 110 106 107 106 107 109 109 119 126 131 134 136 137 137 136 136 135 135 135 136 -193 -209 -193 -193 149 149 151 161 154 158 158 159 158 159 159 160 157 161 160 160 167 168 169 169 169 171 172 176 180 182 187 190 191 193 195 194 194 191 190 -193 -209 -209 -209 -209 -209 0 0 0 0 0
    0 0 0 0 0 0 0 0 0 0 0 0 0 0 0 0 0 0 0 0 0 0 0 0 0 0 0 0 0 0 0 0 0 0 0 0 0 0 0 0 0 0 0 0 0 0 0 0 0 0 0 0 0 0 0 0 0 0 0 0 0 0 0 0 0 0 0 0 0 43 -193 44 45 43 41 41 40 -193 -193 39 39 38 37 37 36 34 35 32 31 32 36 36 32 32 36 32 32 32 32 31 28 32 31 28 29 29 30 29 28 28 26 24 24 23 24 23 24 22 21 23 23 22 23 23 22 23 23 24 22 22 20 22 19 18 13 11 10 10 10 11 9 9 9 10 10 14 13 13 13 13 14 14 14 14 12 14 15 14 15 15 15 15 14 15 13 11 13 11 11 10 11 17 18 25 29 32 33 31 31 33 33 33 35 35 36 35 39 40 39 39 40 40 42 46 49 54 53 57 57 58 58 58 57 58 58 58 57 57 57 56 56 61 73 76 76 78 84 81 81 81 84 79 83 85 85 85 86 87 87 -193 89 90 88 87 87 90 -193 -193 -193 -209 94 102 -193 108 110 110 111 111 110 110 110 107 108 107 107 109 108 117 122 126 127 134 136 136 136 136 134 135 134 134 134 -209 -209 -209 -193 148 -193 163 155 157 158 158 157 158 158 159 156 160 160 160 166 168 169 169 170 172 173 177 179 180 -209 -209 -193 191 195 194 194 191 191 -209 -209 -209 -209 -209 -209 0 0 0 0 0
    0 0 0 0 0 0 0 0 0 0 0 0 0 0 0 0 0 0 0 0 0 0 0 0 0 0 0 0 0 0 0 0 0 0 0 0 0 0 0 0 0 0 0 0 0 0 0 0 0 0 0 0 0 0 0 0 0 0 0 0 0 0 0 0 0 0 0 0 0 45 47 47 49 47 43 44 43 42 41 40 40 38 37 37 36 34 35 32 31 31 36 36 32 32 35 32 32 31 32 31 28 31 31 28 29 29 30 28 27 28 26 24 24 24 24 24 25 23 23 24 25 25 26 25 24 26 25 26 24 24 22 24 22 21 15 12 11 11 11 11 9 9 9 10 10 13 13 13 14 14 14 14 14 14 13 14 16 14 15 16 16 15 15 15 13 11 14 12 12 11 12 19 19 25 29 33 31 29 29 31 31 32 35 34 36 35 39 40 39 39 40 40 42 45 48 53 53 56 57 58 58 58 57 58 58 58 56 56 56 55 54 60 73 76 76 78 84 81 81 81 84 79 83 85 85 85 86 87 87 -193 90 90 88 87 87 91 91 -193 -193 -193 -193 -193 109 108 110 111 112 111 111 111 111 108 109 108 108 111 110 116 120 122 122 127 133 133 135 135 134 134 134 134 134 -193 -193 -209 -209 148 153 162 154 156 157 158 157 157 157 158 156 160 160 161 166 168 169 169 170 172 173 178 180 181 -193 -193 -193 -193 193 193 -193 -209 -193 -193 -209 -209 -209 -209 -209 0 0 0 0 0
    0 0 0 0 0 0 0 0 0 0 0 0 0 0 0 0 0 0 0 0 0 0 0 0 0 0 0 0 0 0 0 0 0 0 0 0 0 0 0 0 0 0 0 0 0 0 0 0 0 0 0 0 0 0 0 0 0 0 0 0 0 0 0 0 0 0 0 0 0 49 50 51 53 51 45 46 45 42 42 41 40 38 37 37 36 34 35 31 30 31 36 36 32 32 35 31 32 31 31 31 27 30 30 28 29 29 29 28 27 28 26 25 24 24 25 24 25 24 24 24 26 29 30 30 29 30 28 28 27 26 25 27 25 24 17 14 12 12 12 11 10 10 10 10 10 12 12 13 15 15 15 14 15 15 14 15 16 14 15 15 16 15 15 14 13 12 14 12 12 12 14 20 19 24 26 30 30 28 29 30 30 31 33 33 34 33 37 38 37 39 39 40 42 45 48 53 52 56 57 57 58 58 57 58 58 58 56 56 55 53 53 60 72 75 75 77 84 81 80 80 84 79 83 85 86 85 86 87 88 -193 90 91 89 88 89 92 92 93 -193 -193 -193 105 110 109 111 111 112 111 111 112 112 109 112 110 111 113 113 116 119 120 120 123 128 129 133 134 133 133 133 133 134 135 137 -193 -209 145 153 162 152 155 155 157 156 156 156 157 155 160 161 162 165 168 169 169 169 171 172 176 179 181 -193 -193 -193 -193 -193 -193 -193 -209 -209 -209 -209 -209 -209 -209 -209 0 0 0 0 0
    0 0 0 0 0 0 0 0 0 0 0 0 0 0 0 0 0 0 0 0 0 0 0 0 0 0 0 0 0 0 0 0 0 0 0 0 0 0 0 0 0 0 0 0 0 0 0 0 0 0 0 0 0 0 0 0 0 0 0 0 0 0 0 0 0 0 0 0 0 53 53 54 55 53 47 48 46 42 41 40 39 37 36 37 36 34 35 32 31 31 36 36 32 32 34 31 32 31 31 30 27 29 29 27 28 28 28 28 27 28 27 26 26 26 26 26 27 25 26 26 28 32 31 32 32 33 30 29 29 28 27 29 27 25 20 16 15 15 14 11 10 10 11 11 10 11 12 13 15 15 15 14 15 15 15 15 16 14 15 16 16 15 14 14 13 11 13 11 11 11 12 21 20 24 26 28 29 27 29 30 30 31 32 32 33 32 36 36 36 38 39 40 42 45 48 53 52 56 57 57 58 58 58 58 59 58 57 57 57 55 55 61 71 73 74 76 83 79 79 80 84 80 83 86 86 86 87 88 88 89 91 92 89 89 90 94 94 95 -193 -193 -193 106 110 109 111 111 113 112 112 113 113 111 114 112 113 115 114 116 118 119 118 120 124 125 130 132 131 132 132 133 134 134 136 136 -193 140 154 162 152 154 155 156 155 155 155 156 155 159 162 162 165 168 169 169 170 171 172 175 179 181 184 -193 -193 187 -193 -193 190 -193 -193 -193 -209 -209 -209 -209 -209 0 0 0 0 0
    0 0 0 0 0 0 0 0 0 0 0 0 0 0 0 0 0 0 0 0 0 0 0 0 0 0 0 0 0 0 0 0 0 0 0 0 0 0 0 0 0 0 0 0 0 0 0 0 0 0 0 0 0 0 0 0 0 0 0 0 0 0 0 0 0 0 0 0 0 55 55 55 55 54 48 49 47 43 42 40 39 37 37 38 37 34 36 33 31 32 36 36 32 32 34 31 31 31 31 29 26 28 28 27 27 27 28 27 28 29 28 28 27 27 27 27 28 26 27 27 28 32 31 33 32 33 32 29 29 29 28 30 27 26 22 18 18 18 16 13 10 11 11 11 10 10 11 13 14 15 15 14 14 15 15 15 15 14 15 16 16 15 14 14 12 11 13 10 12 11 13 21 21 24 25 27 28 27 29 30 30 31 32 32 34 33 36 36 37 38 40 40 42 45 47 52 53 56 57 57 57 58 57 59 59 58 57 58 58 57 57 61 69 72 73 75 81 78 78 79 83 80 83 86 86 86 87 88 89 89 92 93 91 92 94 97 98 100 104 106 106 107 110 109 111 111 112 112 112 113 115 113 116 115 115 115 114 116 117 118 117 119 122 124 129 132 132 132 133 133 135 135 136 136 -193 -177 156 162 152 153 154 155 155 155 155 156 154 158 162 161 162 167 168 169 170 172 172 176 180 183 185 187 -193 187 -193 -193 -193 -193 -193 187 -209 -193 -193 -193 -209 0 0 0 0 0
    0 0 0 0 0 0 0 0 0 0 0 0 0 0 0 0 0 0 0 0 0 0 0 0 0 0 0 0 0 0 0 0 0 0 0 0 0 0 0 0 0 0 0 0 0 0 0 0 0 0 0 0 0 0 0 0 0 0 0 0 0 0 0 0 0 0 0 0 0 55 55 55 55 54 50 51 49 45 45 42 40 39 40 39 38 35 36 34 32 33 36 36 33 32 33 31 31 31 30 29 26 27 27 26 26 26 27 27 29 30 29 29 29 29 28 29 29 27 28 28 29 32 31 34 32 33 33 29 29 29 28 30 27 26 24 20 21 19 18 13 11 12 12 13 12 12 13 14 16 16 15 14 14 15 15 16 15 14 15 16 15 15 14 14 13 12 14 11 13 14 16 21 21 23 24 25 27 26 28 29 29 30 31 32 34 33 36 36 37 38 40 41 42 46 47 52 53 57 57 57 58 58 58 59 60 58 57 57 58 57 56 59 63 68 71 73 78 77 77 78 83 80 82 85 86 86 87 88 89 89 92 94 91 92 95 97 99 101 105 107 107 108 110 109 110 110 111 111 111 112 114 113 116 115 116 115 114 115 117 117 116 118 121 123 129 131 132 132 133 133 135 136 136 136 139 139 153 158 151 152 153 155 155 155 155 155 154 157 162 160 161 166 167 168 169 171 170 175 180 183 185 188 -193 -193 -193 -193 -193 -209 -209 -209 -209 -193 186 185 185 0 0 0 0 0
    0 0 0 0 0 0 0 0 0 0 0 0 0 0 0 0 0 0 0 0 0 0 0 0 0 0 0 0 0 0 0 0 0 0 0 0 0 0 0 0 0 0 0 0 0 0 0 0 0 0 0 0 0 0 0 0 0 0 0 0 0 0 0 0 0 0 0 0 0 56 56 55 55 54 52 52 50 46 47 44 42 41 41 40 39 36 36 34 32 33 35 36 33 32 33 31 31 31 30 28 25 26 27 26 26 26 27 27 30 30 29 28 29 29 28 29 29 27 27 28 29 32 31 34 32 33 33 30 30 30 29 31 28 27 25 21 21 19 18 13 11 13 14 16 15 16 17 17 18 18 16 14 14 16 15 16 15 14 14 15 15 14 14 14 13 12 14 12 16 16 17 19 21 22 23 25 26 26 28 30 29 30 31 32 34 33 37 36 38 39 41 41 43 47 47 52 54 57 57 57 57 58 57 59 59 57 54 57 58 56 55 57 60 63 68 71 75 75 76 77 83 80 82 85 85 85 87 87 88 88 91 92 90 91 94 96 98 102 -193 -193 108 108 109 109 110 110 111 110 110 110 112 111 113 114 115 115 115 116 117 118 117 119 121 123 128 131 132 133 134 134 136 137 138 138 140 140 149 154 151 152 152 155 155 155 155 155 155 157 162 160 161 167 167 168 169 170 170 172 175 180 183 -193 -193 -209 -193 -193 -193 -209 -209 -209 -209 -193 -193 185 185 0 0 0 0 0
    0 0 0 0 0 0 0 0 0 0 0 0 0 0 0 0 0 0 0 0 0 0 0 0 0 0 0 0 0 0 0 0 0 0 0 0 0 0 0 0 0 0 0 0 0 0 0 0 0 0 0 0 0 0 0 0 0 0 0 0 0 0 0 0 0 0 0 0 0 58 57 56 56 55 53 53 50 47 48 46 44 43 43 41 39 37 36 34 33 33 35 36 33 32 32 32 32 31 30 29 26 26 28 27 27 27 27 28 31 32 29 28 30 30 28 29 29 27 27 28 28 32 30 34 32 33 34 30 31 30 29 31 28 28 26 23 23 20 20 15 13 15 18 19 18 19 19 19 19 19 16 14 15 16 15 16 15 14 14 15 15 14 14 14 13 12 13 11 16 17 18 18 20 21 23 25 27 26 29 30 30 30 31 32 34 33 37 35 38 40 42 42 43 48 47 52 54 57 56 -193 -193 -193 57 58 59 54 48 54 55 50 52 54 56 58 63 68 73 73 74 75 82 80 81 84 84 84 86 86 86 86 90 90 89 90 92 95 97 102 106 107 107 108 109 108 109 110 110 108 108 108 110 110 112 114 116 118 118 119 119 119 118 119 122 124 128 131 -193 134 135 135 138 140 141 141 143 142 148 152 151 152 153 155 155 155 155 156 155 156 161 158 159 167 167 169 169 170 170 172 174 179 182 -193 -193 -193 -193 -193 -193 -209 -209 -193 -193 -193 -193 -193 -193 0 0 0 0 0
    0 0 0 0 0 0 0 0 0 0 0 0 0 0 0 0 0 0 0 0 0 0 0 0 0 0 0 0 0 0 0 0 0 0 0 0 0 0 0 0 0 0 0 0 0 0 0 0 0 0 0 0 0 0 0 0 0 0 0 0 0 0 0 0 0 0 0 0 0 58 57 56 55 55 53 53 50 48 49 48 46 44 44 42 39 37 36 35 33 33 35 36 34 31 32 32 32 32 30 29 26 27 29 28 27 28 28 28 31 32 30 29 31 31 29 29 30 27 27 28 28 33 31 33 32 32 34 31 32 31 29 31 29 29 28 25 25 22 23 18 15 19 21 22 21 22 21 21 20 20 17 14 15 17 16 17 17 15 15 16 16 15 14 14 13 12 13 11 16 17 18 18 20 21 24 25 28 27 30 31 31 31 32 33 34 33 36 35 39 41 43 42 44 49 48 52 54 56 56 56 -193 -193 55 57 58 51 46 51 53 50 54 55 56 57 62 68 72 73 74 74 82 80 81 82 83 84 86 86 86 86 90 91 90 91 93 96 97 102 106 106 106 107 107 107 107 108 108 106 106 106 108 109 112 116 118 121 120 122 120 120 120 120 122 124 128 -193 -193 135 137 138 140 142 143 143 145 144 147 151 151 152 153 155 155 155 156 156 155 155 159 157 155 162 163 166 168 168 169 171 173 180 182 184 -193 186 -193 -193 192 -193 192 194 190 192 193 190 190 0 0 0 0 0
    0 0 0 0 0 0 0 0 0 0 0 0 0 0 0 0 0 0 0 0 0 0 0 0 0 0 0 0 0 0 0 0 0 0 0 0 0 0 0 0 0 0 0 0 0 0 0 0 0 0 0 0 0 0 0 0 0 0 0 0 0 0 0 0 0 0 0 0 0 57 57 55 55 54 53 53 50 48 50 49 48 46 45 43 39 37 36 35 33 33 35 36 34 31 31 32 31 32 30 29 26 27 29 28 27 28 28 28 32 31 30 29 31 31 29 29 30 27 27 28 27 33 31 33 31 31 34 31 32 31 29 30 29 29 28 25 26 21 23 19 17 21 23 23 22 23 22 22 21 20 17 14 16 18 16 18 17 15 15 16 16 15 14 14 13 11 12 11 17 17 18 17 20 21 23 25 28 26 31 31 31 31 32 33 35 33 36 34 39 41 43 43 44 50 48 52 54 55 55 54 55 55 54 57 56 49 46 51 53 50 53 55 56 57 61 68 72 73 74 74 81 79 80 81 82 82 85 86 86 86 89 91 91 92 94 96 96 101 104 105 105 105 105 104 103 106 106 103 96 94 101 106 113 117 120 123 123 125 122 121 122 121 123 126 130 -193 -177 137 139 140 141 144 144 144 146 145 148 150 152 152 154 155 156 156 156 156 156 155 159 157 154 160 160 164 166 165 166 170 172 182 184 186 186 187 189 190 190 190 189 190 189 190 191 191 191 0 0 0 0 0
    0 0 0 0 0 0 0 0 0 0 0 0 0 0 0 0 0 0 0 0 0 0 0 0 0 0 0 0 0 0 0 0 0 0 0 0 0 0 0 0 0 0 0 0 0 0 0 0 0 0 0 0 0 0 0 0 0 0 0 0 0 0 0 0 0 0 0 0 0 56 56 54 54 53 52 53 50 49 50 50 49 47 46 44 40 38 36 35 33 33 34 35 34 31 31 31 31 31 30 29 27 26 29 28 27 28 28 28 32 31 30 30 31 31 29 30 30 27 28 28 27 33 31 33 32 31 34 30 32 31 29 30 29 29 28 26 27 21 23 22 21 23 24 25 24 24 24 22 21 20 16 14 14 17 16 17 17 16 15 16 17 15 14 14 13 11 11 10 15 16 16 16 20 22 24 25 29 28 32 32 33 32 33 34 35 33 36 34 39 41 43 43 44 50 47 51 54 54 54 53 54 54 52 55 55 49 48 53 55 53 56 57 56 57 61 69 74 73 74 75 82 80 80 81 82 81 85 86 86 86 90 92 93 94 95 97 96 101 103 103 103 103 102 100 97 104 90 91 87 87 88 92 -193 112 119 123 123 127 123 122 123 122 124 128 132 -193 -193 137 140 140 141 144 144 143 146 146 148 150 -193 153 155 156 157 157 157 158 157 154 158 155 152 156 155 159 164 163 165 171 173 181 184 186 185 186 188 189 188 189 188 188 187 188 191 190 192 0 0 0 0 0
    0 0 0 0 0 0 0 0 0 0 0 0 0 0 0 0 0 0 0 0 0 0 0 0 0 0 0 0 0 0 0 0 0 0 0 0 0 0 0 0 0 0 0 0 0 0 0 0 0 0 0 0 0 0 0 0 0 0 0 0 0 0 0 0 0 0 0 0 0 55 55 53 53 52 52 53 51 50 52 51 51 49 48 45 40 38 36 35 34 33 34 35 34 31 31 31 31 31 30 29 27 26 30 28 27 28 28 28 32 31 30 30 31 31 29 30 30 27 28 28 27 31 30 32 31 31 34 30 32 31 29 30 29 29 29 26 27 22 24 23 23 25 26 27 25 26 25 23 21 21 16 13 14 17 15 18 18 16 14 16 17 15 14 14 12 10 10 11 16 16 16 16 21 23 25 27 31 29 33 33 34 33 34 34 36 34 36 35 40 41 43 43 43 50 46 50 53 53 52 52 53 52 50 54 54 49 51 56 58 57 60 61 60 61 64 69 74 73 74 76 82 80 81 81 81 81 86 87 86 85 90 92 93 95 96 97 96 101 102 103 103 104 103 101 98 105 91 92 88 87 86 86 86 -177 111 -193 121 125 123 122 123 124 126 132 135 135 -193 139 142 141 142 145 145 143 146 146 148 151 155 154 156 157 158 158 159 160 159 154 157 155 152 157 156 162 167 167 168 172 173 179 184 185 185 187 190 192 189 190 190 188 188 189 191 190 191 0 0 0 0 0
    0 0 0 0 0 0 0 0 0 0 0 0 0 0 0 0 0 0 0 0 0 0 0 0 0 0 0 0 0 0 0 0 0 0 0 0 0 0 0 0 0 0 0 0 0 0 0 0 0 0 0 0 0 0 0 0 0 0 0 0 0 0 0 0 0 0 0 0 0 54 54 52 53 52 52 54 52 52 53 53 53 51 50 46 41 38 36 35 34 34 35 35 35 30 30 31 30 31 30 29 27 27 31 28 27 28 28 28 31 30 29 29 31 31 29 30 30 27 28 28 27 30 29 32 30 31 34 31 33 31 29 30 29 30 29 26 27 22 25 23 24 27 27 28 27 27 26 24 22 22 17 14 14 17 15 18 19 17 14 15 16 14 15 14 13 10 11 11 17 18 18 17 22 24 27 28 33 32 34 34 35 34 34 35 36 35 36 36 40 41 42 42 42 48 46 49 53 52 52 51 52 52 49 53 53 49 53 57 59 58 61 64 62 65 66 69 74 74 75 77 83 81 81 81 81 81 85 87 86 85 91 93 93 95 95 97 95 100 102 102 103 104 104 103 98 105 93 94 87 87 86 86 87 -177 111 -193 120 125 123 123 124 126 128 133 136 137 138 140 144 143 143 146 146 143 147 147 149 151 157 156 156 158 159 159 160 161 160 154 157 156 156 163 160 164 167 167 168 173 171 172 180 183 182 186 -193 -209 -209 187 190 186 187 188 189 188 189 0 0 0 0 0
    0 0 0 0 0 0 0 0 0 0 0 0 0 0 0 0 0 0 0 0 0 0 0 0 0 0 0 0 0 0 0 0 0 0 0 0 0 0 0 0 0 0 0 0 0 0 0 0 0 0 0 0 0 0 0 0 0 0 0 0 0 0 0 0 0 0 0 0 0 54 53 53 53 53 53 54 53 53 54 54 54 52 52 48 42 39 36 36 34 34 35 35 35 30 30 31 30 32 31 29 28 27 32 28 28 29 28 28 31 30 29 29 31 32 30 30 31 28 28 29 27 30 29 31 30 31 34 30 33 31 29 29 29 30 29 27 28 23 30 26 27 30 29 30 29 29 26 25 23 23 19 14 15 18 15 21 22 19 14 15 16 13 16 13 13 10 11 11 15 18 17 17 22 24 28 30 34 33 35 34 35 35 35 35 36 35 36 36 40 41 42 42 42 48 46 49 53 51 51 51 52 52 50 53 53 49 56 58 61 60 63 67 65 68 68 70 75 75 76 78 83 81 82 82 82 81 84 86 85 83 89 90 90 92 92 92 92 96 94 95 97 101 97 95 92 90 88 90 88 88 87 87 -193 107 111 119 120 124 123 123 124 127 128 133 136 136 137 140 145 143 141 145 145 143 146 147 148 151 157 156 157 157 159 159 160 161 160 153 155 157 161 164 160 162 165 164 166 170 167 169 -193 174 175 185 -193 -209 -209 186 191 186 187 187 187 186 -193 0 0 0 0 0
    0 0 0 0 0 0 0 0 0 0 0 0 0 0 0 0 0 0 0 0 0 0 0 0 0 0 0 0 0 0 0 0 0 0 0 0 0 0 0 0 0 0 0 0 0 0 0 0 0 0 0 0 0 0 0 0 0 0 0 0 0 0 0 0 0 0 0 0 0 53 53 53 53 53 53 54 53 54 54 54 54 53 53 50 45 39 37 36 35 34 35 36 35 31 30 31 30 32 31 30 28 28 33 29 29 31 29 28 31 31 30 30 31 32 30 31 31 29 29 29 27 30 29 30 29 31 34 30 33 30 29 29 29 29 28 27 29 24 31 35 33 34 33 34 32 31 28 26 26 25 19 12 15 16 -209 27 27 -209 -193 -193 -193 9 14 10 11 9 10 10 13 17 17 18 22 25 30 31 35 35 36 34 36 35 35 35 36 35 36 36 40 40 42 42 42 48 47 50 53 51 51 51 53 52 50 53 53 50 57 59 61 60 64 68 66 68 69 70 75 76 76 79 83 81 82 82 81 81 84 86 85 83 88 89 90 93 93 93 91 94 92 94 93 99 -193 89 90 -193 -193 -193 -193 -193 -193 -193 -193 108 112 119 120 124 123 123 125 128 129 133 136 137 137 139 144 142 140 143 144 141 145 146 148 151 159 157 157 158 159 159 159 160 159 152 150 152 154 156 155 161 165 165 166 169 167 169 170 171 172 181 184 -209 -209 185 191 186 187 188 189 186 -209 0 0 0 0 0
    0 0 0 0 0 0 0 0 0 0 0 0 0 0 0 0 0 0 0 0 0 0 0 0 0 0 0 0 0 0 0 0 0 0 0 0 0 0 0 0 0 0 0 0 0 0 0 0 0 0 0 0 0 0 0 0 0 0 0 0 0 0 0 0 0 0 0 0 0 53 53 53 53 53 53 54 54 54 55 55 55 54 54 52 47 40 37 36 35 34 35 36 35 31 30 31 30 32 31 30 28 28 33 30 30 31 30 29 31 30 30 30 31 32 30 31 32 29 30 29 27 30 30 30 29 30 34 30 34 31 29 29 29 30 29 28 32 26 36 37 36 35 34 34 32 31 29 28 27 26 13 10 12 -225 -225 -225 -225 -225 -225 -225 -225 -225 -225 -225 -225 -225 -225 -225 -225 -225 -225 -209 27 29 35 33 36 37 37 35 36 35 36 35 36 35 35 36 39 39 42 42 42 49 48 51 53 51 52 52 54 53 52 53 54 51 57 59 60 59 62 67 65 67 68 70 74 75 76 79 82 81 82 82 81 81 83 86 86 84 89 90 91 94 94 94 91 93 92 94 -193 -209 -193 92 93 93 92 99 -193 -193 101 -193 106 110 112 118 118 122 120 120 123 127 128 133 138 138 138 140 144 142 140 143 144 142 146 147 148 151 159 158 158 158 160 159 160 161 159 153 153 156 156 157 156 158 163 165 165 168 166 167 167 167 169 174 172 -209 -209 179 186 183 186 187 188 185 -209 0 0 0 0 0
    0 0 0 0 0 0 0 0 0 0 0 0 0 0 0 0 0 0 0 0 0 0 0 0 0 0 0 0 0 0 0 0 0 0 0 0 0 0 0 0 0 0 0 0 0 0 0 0 0 0 0 0 0 0 0 0 0 0 0 0 0 0 0 0 0 0 0 0 0 52 52 53 53 53 54 55 55 55 56 56 55 55 55 54 49 40 36 36 35 34 35 36 35 31 30 31 30 31 31 29 28 29 32 30 31 30 29 29 31 30 30 31 31 31 31 33 34 31 33 31 28 32 31 31 29 31 33 30 33 31 29 28 30 31 30 31 37 33 41 41 39 37 35 34 32 31 29 28 -225 -225 -225 -225 -225 -225 -225 -225 -225 -225 -225 -225 -225 -225 -225 -225 -225 -225 -225 -225 -225 -225 -225 -225 -225 36 37 36 37 39 38 36 37 36 36 36 36 36 35 36 38 38 41 41 41 48 49 51 54 52 53 53 55 55 54 54 54 53 58 59 60 59 62 67 65 66 68 70 73 74 75 78 80 80 82 82 81 81 83 85 85 85 89 90 92 97 97 96 93 96 94 97 98 102 89 93 94 94 95 96 -193 90 91 91 105 108 109 114 114 118 118 -209 122 128 127 133 139 138 138 140 142 141 139 142 143 140 144 144 146 150 158 158 158 158 160 160 160 162 159 155 155 158 157 157 157 159 160 165 165 169 166 167 167 166 168 172 171 172 171 175 180 180 185 185 186 183 183 0 0 0 0 0
    0 0 0 0 0 0 0 0 0 0 0 0 0 0 0 0 0 0 0 0 0 0 0 0 0 0 0 0 0 0 0 0 0 0 0 0 0 0 0 0 0 0 0 0 0 0 0 0 0 0 0 0 0 0 0 0 0 0 0 0 0 0 0 0 0 0 0 0 0 53 53 54 54 54 55 55 56 56 57 56 56 56 56 55 52 40 37 36 35 34 35 36 35 31 31 32 30 31 31 30 28 29 31 30 32 31 30 30 32 30 30 31 31 31 31 34 34 32 34 32 30 34 32 33 30 32 31 28 33 30 30 30 32 34 34 36 40 40 43 43 39 37 36 34 32 30 -225 -225 -225 -225 -225 -225 -225 -225 -225 -225 -225 -225 -225 -225 -225 -225 -225 -225 -225 -225 -225 -225 -225 -225 -225 -225 -225 -225 38 37 37 38 37 35 37 35 36 36 36 36 34 36 37 38 41 42 42 48 50 52 54 54 54 54 56 56 56 55 55 55 58 60 60 60 62 67 65 66 68 69 71 73 74 77 79 80 81 82 81 81 82 85 84 84 87 90 91 96 95 96 94 98 98 99 103 105 102 100 100 98 95 98 -193 91 93 97 106 109 111 115 113 117 117 116 121 127 126 131 137 135 137 137 139 139 137 140 140 138 140 140 145 150 157 157 158 159 160 161 160 163 159 156 156 158 156 157 158 159 159 164 164 168 167 167 -193 167 168 172 171 172 173 175 180 182 185 185 187 183 184 0 0 0 0 0
    0 0 0 0 0 0 0 0 0 0 0 0 0 0 0 0 0 0 0 0 0 0 0 0 0 0 0 0 0 0 0 0 0 0 0 0 0 0 0 0 0 0 0 0 0 0 0 0 0 0 0 0 0 0 0 0 0 0 0 0 0 0 0 0 0 0 0 0 0 54 54 55 55 55 55 56 56 57 57 57 56 56 56 55 54 44 38 37 36 35 36 37 36 32 32 32 31 32 32 30 28 30 31 31 35 32 31 31 33 32 31 33 33 31 32 35 35 34 35 35 32 34 33 37 28 34 31 28 34 33 35 36 37 39 39 42 44 44 45 43 39 39 37 36 34 31 -225 -225 -225 -225 -225 -225 -225 -225 -225 -225 -225 -225 -225 -225 -225 -225 -225 -225 -225 -225 -225 -225 -225 -225 -225 -225 -225 -225 -225 37 37 38 36 36 37 35 36 36 36 37 35 37 39 38 41 43 42 48 52 53 55 55 55 56 57 58 58 56 56 57 58 61 61 61 63 67 66 66 67 68 70 72 73 76 78 79 81 82 81 82 83 85 84 85 86 89 90 93 92 92 92 97 100 101 106 107 106 105 105 104 -193 -193 -193 100 98 102 106 110 112 116 114 117 118 119 120 123 123 122 125 124 127 129 134 132 127 132 -209 118 -193 124 140 149 156 156 157 160 159 159 160 163 159 157 157 158 156 157 158 159 158 162 162 166 165 166 169 168 167 170 -193 172 173 175 183 184 186 187 188 183 183 0 0 0 0 0
    0 0 0 0 0 0 0 0 0 0 0 0 0 0 0 0 0 0 0 0 0 0 0 0 0 0 0 0 0 0 0 0 0 0 0 0 0 0 0 0 0 0 0 0 0 0 0 0 0 0 0 0 0 0 0 0 0 0 0 0 0 0 0 0 0 0 0 0 0 55 55 56 56 56 56 56 57 57 57 57 56 56 56 55 55 51 40 38 37 36 37 38 36 33 33 34 32 33 33 31 29 31 32 32 36 34 33 34 34 34 34 35 35 30 32 36 36 37 37 37 36 35 35 41 40 -193 -193 -193 40 42 45 44 48 49 49 49 49 49 46 42 41 40 39 37 34 -225 -225 -225 -225 -225 -225 -225 -225 -225 -225 -225 -225 -225 -225 -225 -225 -225 -225 -225 -225 -225 -225 -225 -225 -225 -225 -225 -225 -225 -225 -225 39 40 38 38 39 36 37 36 36 37 35 38 39 39 41 43 43 48 53 53 55 56 57 57 58 59 59 57 57 58 58 61 61 61 63 67 66 67 67 68 69 71 72 75 76 79 80 82 81 83 83 85 85 87 88 89 90 91 89 89 89 92 95 98 105 106 106 105 103 102 105 106 107 106 106 106 107 113 115 118 115 116 117 118 120 122 122 120 123 123 126 126 125 123 123 125 -209 117 -193 125 138 144 151 151 153 157 156 157 159 163 159 157 157 159 157 157 158 159 157 162 161 165 162 164 167 165 163 168 -209 -209 177 178 187 187 189 190 191 188 188 0 0 0 0 0
    0 0 0 0 0 0 0 0 0 0 0 0 0 0 0 0 0 0 0 0 0 0 0 0 0 0 0 0 0 0 0 0 0 0 0 0 0 0 0 0 0 0 0 0 0 0 0 0 0 0 0 0 0 0 0 0 0 0 0 0 0 0 0 0 0 0 0 0 0 56 56 57 56 57 57 56 57 57 57 56 56 56 55 54 56 52 44 41 40 38 39 40 39 37 36 36 35 35 35 34 30 33 33 34 37 35 35 35 35 35 35 36 35 30 31 35 35 36 37 37 38 37 38 42 -193 -193 42 45 46 47 47 47 52 52 52 52 51 49 46 43 42 42 41 39 -225 -225 -225 -225 -225 -225 -225 -225 -225 -225 -225 -225 -225 -225 -225 -225 -225 -225 -225 -225 -225 -225 -225 -225 -225 -225 -225 -225 -225 -225 -225 -225 -225 -225 -225 -225 -225 38 39 37 37 38 37 39 40 40 42 44 44 48 53 53 55 57 57 57 58 59 59 57 57 58 57 61 62 62 64 67 67 67 68 68 69 70 72 75 76 79 80 82 82 84 84 86 86 87 88 89 89 89 88 87 88 90 91 91 96 90 101 101 101 101 103 105 -193 105 106 106 108 114 116 119 116 117 118 120 123 127 126 120 126 125 130 130 133 133 128 132 134 127 135 135 139 144 150 150 152 157 155 156 157 162 158 158 157 159 157 158 158 159 157 163 163 166 165 166 169 -209 -209 -209 -209 -209 -209 177 188 -209 192 195 196 196 199 0 0 0 0 0
    0 0 0 0 0 0 0 0 0 0 0 0 0 0 0 0 0 0 0 0 0 0 0 0 0 0 0 0 0 0 0 0 0 0 0 0 0 0 0 0 0 0 0 0 0 0 0 0 0 0 0 0 0 0 0 0 0 0 0 0 0 0 0 0 0 0 0 0 0 56 56 57 56 57 57 56 56 57 56 55 55 55 55 54 56 54 50 43 44 42 42 43 42 41 40 39 40 39 39 38 35 37 35 36 39 37 37 36 36 37 36 36 36 30 30 34 35 36 37 38 40 39 41 44 44 45 47 51 51 49 49 49 52 53 52 52 50 49 46 45 44 44 43 -225 -225 -225 -225 -225 -225 -225 -225 -225 -225 -225 -225 -225 -225 -225 -225 -225 -225 -225 -225 -225 -225 -225 -225 -225 -225 -225 -225 -225 -225 -225 -225 -225 -225 -225 -225 -225 -225 -225 -225 35 36 38 38 40 41 41 43 45 45 49 53 53 55 57 57 57 58 59 59 57 58 58 58 60 61 62 64 67 67 67 68 69 69 71 72 74 75 78 79 82 81 84 84 85 86 88 89 89 90 90 89 89 90 91 92 91 94 93 99 100 100 99 100 101 101 102 104 105 107 111 114 116 114 116 117 120 128 135 137 132 138 134 136 133 135 137 133 136 137 134 137 -193 138 141 146 147 151 156 155 155 157 162 158 158 158 159 156 158 159 159 157 164 163 167 -193 -209 711 717 -209 -209 -209 -209 -209 -209 187 192 192 195 196 196 -193 0 0 0 0 0
    0 0 0 0 0 0 0 0 0 0 0 0 0 0 0 0 0 0 0 0 0 0 0 0 0 0 0 0 0 0 0 0 0 0 0 0 0 0 0 0 0 0 0 0 0 0 0 0 0 0 0 0 0 0 0 0 0 0 0 0 0 0 0 0 0 0 0 0 0 57 57 58 57 57 57 56 56 56 56 55 54 55 54 54 55 53 52 44 46 45 45 45 45 45 45 43 45 44 44 44 41 39 37 37 40 38 37 37 36 37 36 36 35 28 30 33 36 38 39 40 43 43 45 47 48 48 53 52 52 50 50 49 52 52 52 51 50 48 47 47 46 45 -225 -225 -225 -225 -225 -225 -225 -225 -225 -225 -225 -225 -225 -225 -225 -225 -225 -225 -225 -225 -225 -225 -225 -225 -225 -225 -225 -225 -225 -225 -225 -225 -225 -225 -225 -225 -225 -225 -225 -225 -225 36 37 38 39 42 42 42 44 45 46 49 53 53 54 57 57 57 58 59 60 58 59 59 58 60 62 62 64 67 67 67 68 68 69 70 71 73 74 77 78 80 80 83 83 84 86 88 89 90 91 91 90 90 91 92 95 92 99 101 105 105 104 101 102 103 101 103 105 104 105 109 114 115 112 115 116 116 123 133 -193 -209 139 138 140 137 138 141 141 141 142 138 138 -193 140 141 143 146 151 157 155 156 157 163 158 159 158 158 156 158 159 160 157 164 164 166 166 -209 -209 -209 -209 -209 -209 -209 -209 -209 -209 -209 -209 193 195 194 196 0 0 0 0 0
    0 0 0 0 0 0 0 0 0 0 0 0 0 0 0 0 0 0 0 0 0 0 0 0 0 0 0 0 0 0 0 0 0 0 0 0 0 0 0 0 0 0 0 0 0 0 0 0 0 0 0 0 0 0 0 0 0 0 0 0 0 0 0 0 0 0 0 0 0 57 58 59 58 58 58 57 56 56 56 54 54 54 54 53 53 52 50 43 45 44 45 45 46 45 45 44 46 46 45 47 46 43 39 38 -193 39 39 38 36 37 37 37 37 27 29 31 37 41 42 43 47 50 50 50 52 52 53 52 52 51 50 50 52 52 51 51 50 49 49 49 48 -225 -225 -225 -225 -225 -225 -225 -225 -225 -225 -225 -225 -225 -225 -225 -225 -225 -225 -225 -225 -225 -225 -225 -225 -225 -225 -225 -225 -225 -225 -225 -225 -225 -225 -225 -225 -225 -225 -225 -225 -225 -225 -225 37 39 40 44 43 43 44 46 46 50 53 52 54 56 57 57 58 59 60 58 59 59 60 61 62 63 64 66 66 66 67 67 69 70 71 73 74 76 77 79 80 82 83 84 85 87 89 90 90 91 90 90 92 92 96 94 100 103 105 106 106 105 105 105 103 104 104 103 104 107 110 111 110 114 115 115 -193 124 -209 -209 -193 136 139 138 139 144 147 149 150 -209 145 141 142 143 143 146 150 158 155 156 159 165 158 159 158 159 157 159 159 159 157 163 163 165 165 -209 -209 -209 -209 -209 -209 -209 -193 -209 -209 -209 -209 -193 -193 190 192 0 0 0 0 0
    0 0 0 0 0 0 0 0 0 0 0 0 0 0 0 0 0 0 0 0 0 0 0 0 0 0 0 0 0 0 0 0 0 0 0 0 0 0 0 0 0 0 0 0 0 0 0 0 0 0 0 0 0 0 0 0 0 0 0 0 0 0 0 0 0 0 0 0 0 58 58 59 58 58 57 57 56 56 55 54 53 53 53 51 51 50 48 44 46 44 45 45 46 45 45 45 46 47 49 52 53 50 53 -193 58 44 44 42 39 42 43 42 44 -209 -209 -209 36 -209 -209 -209 49 45 49 51 51 52 53 52 51 52 51 50 51 52 51 50 50 50 49 -225 -225 -225 -225 -225 -225 -225 -225 -225 -225 -225 -225 -225 -225 -225 -225 -225 -225 -225 -225 -225 -225 -225 -225 -225 -225 -225 -225 -225 -225 -225 -225 -225 -225 -225 -225 -225 -225 -225 -225 -225 -225 -225 -225 -225 38 40 41 45 44 44 45 46 47 50 52 52 54 56 57 57 58 58 60 59 60 60 61 63 63 64 65 66 66 67 67 66 69 70 70 72 74 76 77 79 81 83 83 84 85 86 88 89 89 90 90 90 92 92 97 95 99 102 104 105 105 104 105 105 104 104 104 104 104 105 109 109 110 115 117 118 122 126 -209 -209 -209 -209 -193 -209 138 144 147 149 151 154 149 148 147 149 148 149 152 162 155 156 158 165 158 158 158 158 156 158 159 159 156 163 165 167 168 -209 -209 -209 -209 -209 -209 -209 -177 -177 -209 -209 -209 -209 -209 -193 -193 0 0 0 0 0
    0 0 0 0 0 0 0 0 0 0 0 0 0 0 0 0 0 0 0 0 0 0 0 0 0 0 0 0 0 0 0 0 0 0 0 0 0 0 0 0 0 0 0 0 0 0 0 0 0 0 0 0 0 0 0 0 0 0 0 0 0 0 0 0 0 0 0 0 0 58 57 58 57 56 55 55 54 54 54 53 52 51 52 50 50 50 49 46 48 46 47 45 47 46 46 45 47 49 51 54 54 54 58 66 68 -193 53 53 47 51 53 52 50 -209 -193 -209 -209 -209 44 -209 -209 -193 42 47 46 49 51 49 49 51 51 51 51 51 51 51 51 50 -225 -225 -225 -225 -225 -225 -225 -225 -225 -225 -225 -225 -225 -225 -225 -225 -225 -225 -225 -225 -225 -225 -225 -225 -225 -225 -225 -225 -225 -225 -225 -225 -225 -225 -225 -225 -225 -225 -225 -225 -225 -225 -225 -225 -225 -225 38 40 43 47 45 45 47 48 49 51 53 52 54 56 57 57 58 59 60 61 62 62 65 65 65 66 66 67 67 67 67 66 69 70 71 73 75 77 78 81 82 84 84 85 86 87 88 89 89 90 90 90 91 92 95 94 97 100 103 105 105 105 106 106 106 106 106 106 105 107 109 111 111 115 116 117 120 122 120 122 -209 124 136 131 136 140 142 146 148 150 148 147 147 149 149 150 152 159 155 156 158 164 158 158 158 157 156 158 159 159 156 164 166 167 168 169 -209 -209 -209 -193 -209 -209 -193 -193 -209 -193 -193 -193 -193 185 187 0 0 0 0 0
    0 0 0 0 0 0 0 0 0 0 0 0 0 0 0 0 0 0 0 0 0 0 0 0 0 0 0 0 0 0 0 0 0 0 0 0 0 0 0 0 0 0 0 0 0 0 0 0 0 0 0 0 0 0 0 0 0 0 0 0 0 0 0 0 0 0 0 0 0 57 56 56 55 54 54 52 52 52 52 52 51 50 51 49 51 51 49 46 49 0 -256 -1 -11468 46 46 46 48 49 52 55 55 55 59 68 68 57 55 56 54 54 56 55 51 59 65 -209 -209 -209 -209 -209 -209 -193 40 44 44 48 51 49 49 51 51 50 50 51 51 50 49 -225 -225 -225 -225 -225 -225 -225 -225 -225 -225 -225 -225 -225 -225 -225 -225 -225 -225 -225 -225 -225 -225 -225 -225 -225 -225 -225 -225 -225 -225 -225 -225 -225 -225 -225 -225 -225 -225 -225 -225 -225 -225 -225 -225 -225 -225 -225 38 40 44 48 47 46 48 48 51 52 53 53 54 55 57 57 58 59 61 62 64 64 68 67 67 68 68 68 68 68 68 66 70 72 72 74 76 78 79 82 83 85 85 86 87 88 89 90 90 90 90 90 91 92 95 94 97 101 104 105 106 106 106 107 106 107 106 107 106 107 108 110 111 113 111 111 112 116 111 117 114 121 132 128 135 138 139 142 145 146 144 145 147 150 150 151 155 159 156 156 158 163 157 157 157 157 157 159 159 159 157 165 166 167 167 -209 -209 -193 171 -193 -193 -209 -193 -193 -209 179 181 -193 183 184 186 0 0 0 0 0
    0 0 0 0 0 0 0 0 0 0 0 0 0 0 0 0 0 0 0 0 0 0 0 0 0 0 0 0 0 0 0 0 0 0 0 0 0 0 0 0 0 0 0 0 0 0 0 0 0 0 0 0 0 0 0 0 0 0 0 0 0 0 0 0 0 0 0 0 0 55 54 55 54 54 53 51 52 53 52 52 52 50 51 49 51 51 48 46 49 46 48 47 49 47 47 47 50 50 53 56 56 56 59 64 62 57 56 57 56 56 57 56 50 60 -209 -209 26 31 -193 -209 38 37 40 42 43 47 50 49 49 51 51 51 51 51 51 -225 -225 -225 -225 -225 -225 -225 -225 -225 -225 -225 -225 -225 -225 -225 -225 -225 -225 -225 -225 -225 -225 -225 -225 -225 -225 -225 -225 -225 -225 -225 -225 -225 -225 -225 -225 -225 -225 -225 -225 -225 -225 -225 -225 -225 -225 -225 -225 -225 37 39 42 48 46 47 49 49 52 53 54 54 54 55 57 57 58 60 61 64 66 67 69 68 69 70 69 69 69 69 69 66 71 73 73 74 76 79 79 82 84 85 86 87 87 88 89 90 91 91 91 90 92 92 95 94 96 100 104 105 106 106 105 106 105 106 106 106 105 106 108 110 111 113 110 109 107 116 109 112 -193 -193 -209 130 135 138 139 142 144 146 142 144 147 150 150 151 156 159 156 157 158 163 157 157 157 157 157 159 159 159 156 166 167 167 167 -209 -209 -193 173 174 173 -193 -193 -193 -193 180 182 -193 184 186 189 0 0 0 0 0
    0 0 0 0 0 0 0 0 0 0 0 0 0 0 0 0 0 0 0 0 0 0 0 0 0 0 0 0 0 0 0 0 0 0 0 0 0 0 0 0 0 0 0 0 0 0 0 0 0 0 0 0 0 0 0 0 0 0 0 0 0 0 0 0 0 0 0 0 0 54 53 53 53 53 52 50 52 53 53 53 53 51 53 52 53 52 48 47 49 47 50 48 51 48 49 49 51 52 54 56 57 57 60 65 63 59 58 59 60 57 59 57 -209 60 -209 -209 28 31 37 38 36 36 39 40 42 46 50 49 49 51 51 52 51 52 -225 -225 -225 -225 -225 -225 -225 -225 -225 -225 -225 -225 -225 -225 -225 -225 -225 -225 -225 -225 -225 -225 -225 -225 -225 -225 -225 -225 -225 -225 -225 -225 -225 -225 -225 -225 -225 -225 -225 -225 -225 -225 -225 -225 -225 -225 -225 -225 -225 -225 36 38 40 51 47 48 52 51 53 54 54 55 55 55 57 57 58 61 62 67 69 68 71 69 70 71 70 70 70 70 70 67 72 74 74 75 76 79 80 82 83 84 85 86 87 88 89 90 90 90 90 90 92 92 95 95 97 101 103 105 105 105 105 105 105 106 105 106 106 107 109 111 113 115 114 115 116 120 118 121 116 119 121 123 130 133 135 136 140 -209 139 141 146 150 152 151 158 158 157 158 158 163 158 157 158 157 157 159 159 159 157 165 166 166 167 -209 -209 172 174 175 174 179 180 181 182 181 182 -193 185 187 188 0 0 0 0 0
    0 0 0 0 0 0 0 0 0 0 0 0 0 0 0 0 0 0 0 0 0 0 0 0 0 0 0 0 0 0 0 0 0 0 0 0 0 0 0 0 0 0 0 0 0 0 0 0 0 0 0 0 0 0 0 0 0 0 0 0 0 0 0 0 0 0 0 0 0 54 53 53 53 52 51 51 53 54 54 55 55 53 55 53 54 53 48 47 48 48 52 50 53 51 51 51 53 54 55 57 59 59 62 66 65 62 60 61 60 58 59 57 45 59 -209 -209 31 34 36 37 34 36 38 40 41 45 49 48 47 50 50 50 49 -225 -225 -225 -225 -225 -225 -225 -225 -225 -225 -225 -225 -225 -225 -225 -225 -225 -225 -225 -225 -225 -225 -225 -225 -225 -225 -225 -225 -225 -225 -225 -225 -225 -225 -225 -225 -225 -225 -225 -225 -225 -225 -225 -225 -225 -225 -225 -225 -225 -225 -225 -225 39 43 53 51 51 53 54 54 55 56 57 57 57 60 60 60 63 64 67 69 69 71 69 70 71 71 71 70 70 70 66 73 75 75 76 77 78 79 80 81 83 84 85 86 88 89 90 90 91 91 90 92 92 94 94 97 101 102 104 105 105 104 104 105 105 105 106 105 107 110 114 115 117 117 118 119 121 122 122 122 122 123 123 126 127 129 133 -209 -209 -209 -209 -209 -209 150 151 158 157 156 157 157 162 157 157 158 157 158 159 159 159 157 163 164 165 165 168 171 172 175 176 174 179 180 181 182 180 181 184 184 185 186 0 0 0 0 0
    0 0 0 0 0 0 0 0 0 0 0 0 0 0 0 0 0 0 0 0 0 0 0 0 0 0 0 0 0 0 0 0 0 0 0 0 0 0 0 0 0 0 0 0 0 0 0 0 0 0 0 0 0 0 0 0 0 0 0 0 0 0 0 0 0 0 0 0 0 54 53 53 53 53 52 51 54 55 54 55 56 53 55 54 54 52 46 47 47 48 53 52 55 54 54 55 56 59 59 60 62 62 65 67 66 62 59 60 59 57 57 54 45 58 67 -209 28 -209 32 35 30 34 37 39 40 44 46 45 46 49 49 49 -225 -225 -225 -225 -225 -225 -225 -225 -225 -225 -225 -225 -225 -225 -225 -225 -225 -225 -225 -225 -225 -225 -225 -225 -225 -225 -225 -225 -225 -225 -225 -225 -225 -225 -225 -225 -225 -225 -225 -225 -225 -225 -225 -225 -225 -225 -225 -225 -225 -225 -225 -225 -225 -225 47 54 53 53 54 55 56 57 58 58 58 58 62 61 61 65 66 68 70 70 71 70 71 71 71 71 71 71 70 66 73 75 75 76 77 78 79 80 81 83 84 85 86 88 89 90 90 91 91 90 92 92 94 95 97 102 103 105 105 105 104 105 105 105 105 106 105 106 110 114 115 118 120 121 121 123 125 125 127 126 129 127 128 127 129 131 -193 -209 -209 -209 132 -209 144 151 157 156 155 156 156 159 157 157 157 157 158 159 159 159 157 163 162 164 164 167 171 172 175 176 175 179 180 181 182 180 180 182 183 184 185 0 0 0 0 0</data></disparity>
</opencv_storage>
