<?xml version="1.0"?>
<opencv_storage>
<gps_time_stamp>299621</gps_time_stamp>
<gps_x>-1.2404817581176758e+001</gps_x>
<gps_y>1.0979240417480469e+001</gps_y>
<gps_z>-2.0350558757781982e+000</gps_z>
<image_time_stamp>290457</image_time_stamp>
<disparity type_id="opencv-matrix">
  <rows>92</rows>
  <cols>320</cols>
  <dt>s</dt>
  <data>
    0 0 0 0 0 0 0 0 0 0 0 0 0 0 0 0 0 0 0 0 0 0 0 0 0 0 0 0 0 0 0 0 0 0 0 0 0 0 0 0 0 0 0 0 0 0 0 0 0 0 0 0 0 0 0 0 0 0 0 0 0 0 0 0 0 0 0 0 0 70 70 69 66 64 62 62 60 59 59 60 60 60 61 61 60 61 61 61 62 59 59 57 57 57 56 56 56 55 53 54 50 50 48 47 48 47 46 47 45 46 44 43 42 41 41 40 39 40 39 37 38 36 35 37 33 36 32 32 31 31 30 29 29 28 28 26 25 27 26 26 23 23 21 20 21 19 17 15 10 10 0 0 0 0 0 -225 -225 -225 -225 -225 -225 -225 -225 -225 -225 -225 -225 -225 -225 -225 -225 -225 -225 -225 -225 -225 -225 -225 -225 -225 -225 -225 -225 -225 -225 -225 -225 -225 -225 -225 -225 -225 -225 -225 -225 -225 -225 -225 -225 -225 -225 -225 -225 -225 34 33 32 32 32 33 33 33 35 37 39 41 42 43 43 46 45 44 48 45 45 46 48 47 48 49 52 -193 -209 -193 -193 -193 -193 -193 163 163 -193 60 60 63 63 65 65 64 66 67 64 68 66 71 71 71 72 74 75 75 75 75 75 75 75 75 75 75 78 82 85 87 89 91 90 90 93 92 90 90 90 90 91 91 94 95 95 101 103 110 107 -193 108 113 109 111 111 111 109 110 110 114 109 112 112 114 116 116 118 118 117 122 125 125 126 0 0 0 0 0
    0 0 0 0 0 0 0 0 0 0 0 0 0 0 0 0 0 0 0 0 0 0 0 0 0 0 0 0 0 0 0 0 0 0 0 0 0 0 0 0 0 0 0 0 0 0 0 0 0 0 0 0 0 0 0 0 0 0 0 0 0 0 0 0 0 0 0 0 0 70 70 69 66 65 62 62 61 60 60 60 59 60 61 61 60 60 60 60 62 60 58 57 57 57 56 56 56 55 54 54 50 50 48 48 48 48 47 47 45 46 44 43 42 41 40 40 39 40 39 37 38 37 36 37 32 37 32 32 30 30 30 29 29 28 28 26 26 28 26 26 23 23 21 21 21 19 17 15 10 11 0 0 0 0 0 -225 -225 -225 -225 -225 -225 -225 -225 -225 -225 -225 -225 -225 -225 -225 -225 -225 -225 -225 -225 -225 -225 -225 -225 -225 -225 -225 -225 -225 -225 -225 -225 -225 -225 -225 -225 -225 -225 -225 -225 -225 -225 -225 -225 -225 -225 -225 -225 33 32 32 31 32 32 32 32 33 35 37 40 43 43 45 45 46 45 45 48 46 46 46 48 47 48 49 51 -177 -209 -193 -177 -177 -193 -193 163 163 -193 60 60 63 63 65 65 64 66 66 64 68 65 70 71 71 72 75 75 75 75 74 76 75 75 76 76 77 81 83 86 87 88 91 90 90 93 92 90 90 90 89 90 91 93 94 94 100 103 110 107 -193 108 113 109 111 111 111 109 110 110 114 109 112 112 114 115 115 117 118 117 122 125 125 126 0 0 0 0 0
    0 0 0 0 0 0 0 0 0 0 0 0 0 0 0 0 0 0 0 0 0 0 0 0 0 0 0 0 0 0 0 0 0 0 0 0 0 0 0 0 0 0 0 0 0 0 0 0 0 0 0 0 0 0 0 0 0 0 0 0 0 0 0 0 0 0 0 0 0 69 69 69 67 66 63 62 61 61 60 59 59 59 60 60 59 60 60 60 61 60 58 57 56 56 56 56 55 55 54 55 51 51 49 48 49 48 47 47 45 46 44 43 42 41 40 40 39 39 38 37 38 36 35 37 30 37 30 32 30 30 30 29 29 29 28 26 26 28 26 26 23 23 21 21 21 19 17 15 10 11 0 0 0 0 0 -225 -225 -225 -225 -225 -225 -225 -225 -225 -225 -225 -225 -225 -225 -225 -225 -225 -225 -225 -225 -225 -225 -225 -225 -225 -225 -225 -225 -225 -225 -225 -225 -225 -225 -225 -225 -225 -225 -225 -225 -225 -225 -225 -225 -225 -225 -225 -225 33 32 32 32 32 32 31 32 33 36 39 41 43 44 47 45 47 46 45 48 46 46 46 48 48 49 48 51 46 -193 -193 -193 -193 -193 -193 -177 -193 56 60 60 63 64 65 65 64 66 66 64 68 65 69 71 71 71 75 75 75 74 74 75 75 75 76 76 78 82 84 86 86 88 90 89 90 92 92 89 89 89 89 90 90 92 93 93 99 103 109 107 -193 -193 112 109 111 111 111 109 110 110 114 109 112 112 114 115 115 118 118 117 123 125 126 126 0 0 0 0 0
    0 0 0 0 0 0 0 0 0 0 0 0 0 0 0 0 0 0 0 0 0 0 0 0 0 0 0 0 0 0 0 0 0 0 0 0 0 0 0 0 0 0 0 0 0 0 0 0 0 0 0 0 0 0 0 0 0 0 0 0 0 0 0 0 0 0 0 0 0 68 69 69 67 66 63 62 61 61 60 59 58 58 59 60 59 60 59 60 61 59 58 56 55 55 55 55 55 55 54 55 52 52 50 49 50 49 48 48 45 46 44 43 43 42 40 40 39 39 38 36 38 36 35 36 29 36 29 31 29 30 30 29 29 29 28 26 26 28 26 26 23 23 21 20 21 19 17 15 10 11 0 0 0 0 0 -225 -225 -225 -225 -225 -225 -225 -225 -225 -225 -225 -225 -225 -225 -225 -225 -225 -225 -225 -225 -225 -225 -225 -225 -225 -225 -225 -225 -225 -225 -225 -225 -225 -225 -225 -225 -225 -225 -225 -225 -225 -225 -225 -225 -225 -225 -225 31 31 31 32 31 32 31 31 33 34 37 38 41 43 44 48 45 46 47 45 48 46 46 47 49 47 49 48 51 47 -193 -193 50 -193 48 50 -193 58 56 61 60 63 64 65 65 64 66 66 64 68 65 68 71 71 71 74 74 74 74 74 75 74 73 77 78 80 83 85 86 87 87 90 90 90 92 92 89 89 89 89 90 90 92 93 93 98 102 109 107 -193 -193 -193 108 111 111 111 109 110 110 113 109 112 112 114 116 115 118 119 118 123 126 126 127 0 0 0 0 0
    0 0 0 0 0 0 0 0 0 0 0 0 0 0 0 0 0 0 0 0 0 0 0 0 0 0 0 0 0 0 0 0 0 0 0 0 0 0 0 0 0 0 0 0 0 0 0 0 0 0 0 0 0 0 0 0 0 0 0 0 0 0 0 0 0 0 0 0 0 68 68 68 68 67 63 63 61 61 59 58 58 58 59 60 59 59 59 59 60 59 58 56 54 55 55 54 54 55 54 54 52 52 51 49 51 49 48 48 46 46 45 43 43 42 40 40 39 39 38 36 37 35 34 36 29 35 29 31 28 30 30 29 29 29 27 26 25 28 26 26 23 23 22 21 21 19 17 15 10 12 9 0 0 0 0 -225 -225 -225 -225 -225 -225 -225 -225 -225 -225 -225 -225 -225 -225 -225 -225 -225 -225 -225 -225 -225 -225 -225 -225 -225 -225 -225 -225 -225 -225 -225 -225 -225 -225 -225 -225 -225 -225 -225 -225 -225 -225 -225 -225 -225 -225 -225 31 31 32 32 32 32 31 32 34 35 37 38 41 43 44 48 45 45 47 45 48 46 46 46 48 47 49 48 51 47 -193 -193 51 46 50 51 59 58 57 61 61 63 64 65 65 64 66 66 63 67 66 67 71 70 70 74 74 74 74 73 74 -193 72 77 -209 78 84 85 87 87 87 91 90 90 93 92 90 89 89 89 90 90 91 93 93 97 102 108 106 -193 107 111 108 110 111 110 108 109 109 113 109 112 112 114 115 115 118 119 118 123 126 126 127 0 0 0 0 0
    0 0 0 0 0 0 0 0 0 0 0 0 0 0 0 0 0 0 0 0 0 0 0 0 0 0 0 0 0 0 0 0 0 0 0 0 0 0 0 0 0 0 0 0 0 0 0 0 0 0 0 0 0 0 0 0 0 0 0 0 0 0 0 0 0 0 0 0 0 68 68 69 68 69 65 65 63 62 60 58 57 57 58 59 58 58 58 58 60 58 57 56 53 54 54 54 54 54 53 54 52 52 51 49 51 49 48 48 46 46 45 43 43 41 40 40 38 39 38 37 37 35 34 35 30 34 29 30 28 30 29 28 28 28 27 26 25 28 26 26 23 23 22 21 21 19 17 15 10 12 10 0 0 0 0 -225 -225 -225 -225 -225 -225 -225 -225 -225 -225 -225 -225 -225 -225 -225 -225 -225 -225 -225 -225 -225 -225 -225 -225 -225 -225 -225 -225 -225 -225 -225 -225 -225 -225 -225 -225 -225 -225 -225 -225 -225 -225 -225 -225 -225 -225 30 30 31 32 32 32 32 32 33 35 37 38 39 42 44 43 46 44 44 46 44 47 45 45 46 47 47 49 47 51 48 51 -193 52 49 53 -193 60 59 58 62 61 63 64 64 65 64 66 66 63 67 66 66 70 70 70 73 74 74 74 73 75 74 71 75 -209 76 82 83 85 85 86 90 89 90 93 92 90 89 90 90 90 90 92 93 93 97 102 108 106 -193 107 111 108 110 111 110 108 109 109 113 109 112 112 113 115 115 118 119 118 123 127 126 127 0 0 0 0 0
    0 0 0 0 0 0 0 0 0 0 0 0 0 0 0 0 0 0 0 0 0 0 0 0 0 0 0 0 0 0 0 0 0 0 0 0 0 0 0 0 0 0 0 0 0 0 0 0 0 0 0 0 0 0 0 0 0 0 0 0 0 0 0 0 0 0 0 0 0 68 68 68 68 69 66 68 66 64 61 58 58 58 58 59 58 58 58 58 60 58 57 56 53 54 54 54 54 54 52 54 51 52 51 49 51 49 47 48 45 46 45 42 43 41 40 40 38 39 37 37 37 35 34 35 30 33 29 31 28 30 29 28 28 28 27 25 25 27 25 25 22 22 22 20 20 19 16 15 11 12 10 0 0 0 0 -225 -225 -225 -225 -225 -225 -225 -225 -225 -225 -225 -225 -225 -225 -225 -225 -225 -225 -225 -225 -225 -225 -225 -225 -225 -225 -225 -225 -225 -225 -225 -225 -225 -225 -225 -225 -225 -225 -225 -225 -225 -225 -225 -225 -225 -225 31 30 31 32 32 32 32 32 34 35 37 38 39 40 42 42 44 42 42 44 43 46 45 44 45 47 47 50 47 51 49 51 52 52 51 54 -193 61 60 59 63 61 63 65 64 65 63 66 66 63 67 66 64 70 70 70 73 74 74 74 73 76 75 72 77 78 79 84 85 86 86 87 90 89 89 92 92 90 89 90 90 90 91 92 93 93 97 102 108 106 106 107 111 107 110 110 110 108 109 109 112 109 111 112 -193 115 115 118 119 118 123 127 125 126 0 0 0 0 0
    0 0 0 0 0 0 0 0 0 0 0 0 0 0 0 0 0 0 0 0 0 0 0 0 0 0 0 0 0 0 0 0 0 0 0 0 0 0 0 0 0 0 0 0 0 0 0 0 0 0 0 0 0 0 0 0 0 0 0 0 0 0 0 0 0 0 0 0 0 67 68 68 68 69 67 69 69 67 64 59 58 58 58 60 58 58 58 58 60 59 58 57 54 54 54 53 54 53 52 53 50 51 50 49 50 48 47 47 45 45 44 42 42 41 39 39 38 38 37 36 37 35 34 35 30 33 29 32 29 31 29 28 28 28 27 26 25 27 25 24 22 22 22 20 20 18 16 15 11 13 11 0 0 0 0 -225 -225 -225 -225 -225 -225 -225 -225 -225 -225 -225 -225 -225 -225 -225 -225 -225 -225 -225 -225 -225 -225 -225 -225 -225 -225 -225 -225 -225 -225 -225 -225 -225 -225 -225 -225 -225 -225 -225 -225 -225 -225 -225 -225 -225 30 30 30 31 32 32 32 32 34 35 36 37 38 39 41 42 41 43 42 42 44 43 45 45 44 45 47 47 50 47 51 50 52 53 53 53 56 -193 62 61 60 64 62 63 65 64 65 63 66 66 63 67 66 63 70 70 70 73 73 74 73 74 76 76 73 78 82 81 85 86 87 86 87 90 89 90 92 92 90 90 90 90 90 91 92 93 92 96 102 108 106 106 107 110 107 109 110 109 108 108 108 112 109 111 112 308 115 115 118 118 116 123 127 125 125 0 0 0 0 0
    0 0 0 0 0 0 0 0 0 0 0 0 0 0 0 0 0 0 0 0 0 0 0 0 0 0 0 0 0 0 0 0 0 0 0 0 0 0 0 0 0 0 0 0 0 0 0 0 0 0 0 0 0 0 0 0 0 0 0 0 0 0 0 0 0 0 0 0 0 67 67 68 68 69 67 70 70 69 66 60 59 59 59 60 59 58 58 58 60 59 58 58 55 55 55 54 54 54 52 53 50 51 50 49 50 48 46 47 45 45 44 42 42 41 39 39 38 38 37 36 37 36 34 35 31 33 30 32 29 31 29 28 28 28 27 26 25 26 24 24 21 22 22 19 19 18 16 16 11 14 13 0 0 0 0 -225 -225 -225 -225 -225 -225 -225 -225 -225 -225 -225 -225 -225 -225 -225 -225 -225 -225 -225 -225 -225 -225 -225 -225 -225 -225 -225 -225 -225 -225 -225 -225 -225 -225 -225 -225 -225 -225 -225 -225 -225 -225 -225 -225 -225 30 30 30 32 33 33 32 33 35 35 36 37 38 39 40 41 39 41 41 41 45 43 45 45 45 46 48 47 50 47 51 50 51 53 53 53 56 56 62 61 60 64 62 63 65 64 65 63 65 65 62 66 66 61 69 70 70 72 73 74 74 75 77 77 74 78 82 82 86 86 88 87 88 90 90 90 92 92 90 90 90 90 90 91 92 93 92 96 102 108 106 106 107 109 107 109 109 109 107 108 108 111 108 111 112 307 115 115 118 118 115 122 127 125 125 0 0 0 0 0
    0 0 0 0 0 0 0 0 0 0 0 0 0 0 0 0 0 0 0 0 0 0 0 0 0 0 0 0 0 0 0 0 0 0 0 0 0 0 0 0 0 0 0 0 0 0 0 0 0 0 0 0 0 0 0 0 0 0 0 0 0 0 0 0 0 0 0 0 0 68 68 68 68 70 68 71 71 70 67 61 60 59 59 61 59 59 58 58 60 60 59 58 55 55 55 53 54 53 52 53 50 51 50 49 50 47 46 47 44 44 43 41 41 40 39 39 38 38 37 36 37 36 34 35 31 33 30 33 29 31 29 29 29 28 27 26 25 26 23 24 21 21 21 19 19 18 17 16 12 14 13 9 9 9 9 -225 -225 -225 -225 -225 -225 -225 -225 -225 -225 -225 -225 -225 -225 -225 -225 -225 -225 -225 -225 -225 -225 -225 -225 -225 -225 -225 -225 -225 -225 -225 -225 -225 -225 -225 -225 -225 -225 -225 -225 -225 -225 -225 -225 30 29 30 30 32 33 33 32 33 36 35 35 37 37 38 39 40 39 40 41 41 45 44 45 46 45 46 48 47 50 47 50 50 51 53 53 53 56 56 62 61 61 65 62 63 66 64 65 62 66 65 62 66 66 60 69 70 71 72 74 75 75 75 76 76 73 75 79 78 85 86 88 88 89 91 90 90 93 92 91 90 90 90 90 91 92 93 92 96 102 108 106 106 107 109 106 108 109 109 107 107 107 111 108 110 112 307 115 114 118 118 115 122 125 124 123 0 0 0 0 0
    0 0 0 0 0 0 0 0 0 0 0 0 0 0 0 0 0 0 0 0 0 0 0 0 0 0 0 0 0 0 0 0 0 0 0 0 0 0 0 0 0 0 0 0 0 0 0 0 0 0 0 0 0 0 0 0 0 0 0 0 0 0 0 0 0 0 0 0 0 69 69 70 69 71 69 71 71 70 68 62 60 60 60 62 60 60 59 59 60 60 60 58 56 55 55 54 53 53 52 53 50 50 50 48 49 47 45 46 43 43 42 40 40 39 38 38 38 38 37 36 37 37 34 35 32 34 30 33 30 31 29 29 29 28 26 26 24 25 23 23 21 21 21 19 19 19 18 16 12 15 14 9 11 11 11 -225 -225 -225 -225 -225 -225 -225 -225 -225 -225 -225 -225 -225 -225 -225 -225 -225 -225 -225 -225 -225 -225 -225 -225 -225 -225 -225 -225 -225 -225 -225 -225 -225 -225 -225 -225 -225 -225 -225 -225 -225 -225 -225 -225 29 29 31 31 32 32 32 32 33 36 35 35 37 37 38 39 40 39 40 42 42 44 44 45 46 45 46 49 47 50 47 51 51 51 53 54 54 57 57 62 61 61 65 63 63 66 64 64 62 65 65 61 65 65 60 69 70 71 70 73 74 74 74 73 73 71 70 72 71 76 82 87 88 89 91 90 89 92 92 90 90 90 90 91 92 93 94 93 97 102 108 106 106 -193 -193 106 108 109 108 107 107 107 111 108 110 112 306 115 115 118 118 115 122 125 123 123 0 0 0 0 0
    0 0 0 0 0 0 0 0 0 0 0 0 0 0 0 0 0 0 0 0 0 0 0 0 0 0 0 0 0 0 0 0 0 0 0 0 0 0 0 0 0 0 0 0 0 0 0 0 0 0 0 0 0 0 0 0 0 0 0 0 0 0 0 0 0 0 0 0 0 70 70 70 70 71 70 71 71 71 68 63 61 61 61 63 60 60 59 59 60 60 59 58 56 55 55 54 54 53 52 52 50 50 49 48 48 46 45 46 43 43 41 39 40 39 38 38 38 38 37 37 37 37 35 35 34 34 31 33 30 31 29 29 29 28 27 26 25 25 24 24 21 21 22 20 19 19 18 17 13 16 15 10 13 13 13 -225 -225 -225 -225 -225 -225 -225 -225 -225 -225 -225 -225 -225 -225 -225 -225 -225 -225 -225 -225 -225 -225 -225 -225 -225 -225 -225 -225 -225 -225 -225 -225 -225 -225 -225 -225 -225 -225 -225 -225 -225 -225 -225 30 29 29 30 31 31 31 31 31 33 37 36 36 37 38 38 39 40 39 39 41 41 44 43 44 46 45 46 49 47 50 47 51 51 51 54 54 54 57 57 62 61 61 65 63 63 66 64 64 62 65 65 61 65 66 60 70 70 71 70 73 74 74 73 73 72 71 70 73 71 77 83 88 89 89 91 89 89 92 92 90 90 90 90 91 92 93 94 93 97 102 107 106 -193 -193 -193 106 108 108 108 106 107 107 111 108 110 112 305 115 114 118 118 115 122 124 123 122 0 0 0 0 0
    0 0 0 0 0 0 0 0 0 0 0 0 0 0 0 0 0 0 0 0 0 0 0 0 0 0 0 0 0 0 0 0 0 0 0 0 0 0 0 0 0 0 0 0 0 0 0 0 0 0 0 0 0 0 0 0 0 0 0 0 0 0 0 0 0 0 0 0 0 70 69 70 70 71 70 71 71 71 69 64 62 62 62 63 60 60 59 58 59 59 59 58 56 55 54 54 53 53 51 52 49 48 49 48 48 46 45 46 44 43 -193 39 39 39 38 38 38 38 37 37 38 37 35 35 34 34 31 34 30 31 29 29 30 28 27 27 25 25 23 23 21 21 22 20 19 19 19 17 14 16 15 11 14 14 14 -225 -225 -225 -225 -225 -225 -225 -225 -225 -225 -225 -225 -225 -225 -225 -225 -225 -225 -225 -225 -225 -225 -225 -225 -225 -225 -225 -225 -225 -225 -225 -225 -225 -225 -225 -225 -225 -225 -225 -225 -225 -225 -225 28 27 29 30 30 31 31 31 31 34 37 36 37 38 38 39 40 41 39 39 41 41 44 44 44 46 45 46 49 47 50 47 51 51 50 54 54 55 57 57 62 61 61 65 63 63 66 64 64 62 65 65 61 66 66 60 71 71 72 71 74 75 74 74 73 73 72 71 74 72 79 85 89 89 89 90 89 88 91 91 90 89 90 90 91 92 93 94 93 97 102 107 106 -193 -193 -193 105 107 108 108 106 107 107 110 108 110 112 304 115 -193 -193 -193 114 121 124 122 122 0 0 0 0 0
    0 0 0 0 0 0 0 0 0 0 0 0 0 0 0 0 0 0 0 0 0 0 0 0 0 0 0 0 0 0 0 0 0 0 0 0 0 0 0 0 0 0 0 0 0 0 0 0 0 0 0 0 0 0 0 0 0 0 0 0 0 0 0 0 0 0 0 0 0 70 69 69 69 70 70 70 70 70 68 64 63 62 62 63 60 60 58 58 59 59 59 58 57 55 54 54 54 53 51 51 49 48 49 49 48 46 45 46 44 43 -193 -193 40 39 39 38 38 38 37 37 38 37 35 35 35 34 31 34 31 31 29 30 30 28 27 27 25 25 24 23 22 22 22 20 20 20 19 17 15 16 16 11 15 15 15 -225 -225 -225 -225 -225 -225 -225 -225 -225 -225 -225 -225 -225 -225 -225 -225 -225 -225 -225 -225 -225 -225 -225 -225 -225 -225 -225 -225 -225 -225 -225 -225 -225 -225 -225 -225 -225 -225 -225 -225 -225 -225 25 26 26 28 29 30 31 30 31 31 34 37 36 36 37 37 39 39 40 38 39 41 41 44 43 44 46 45 46 49 46 50 47 51 52 50 54 55 55 57 57 63 61 61 65 63 63 66 64 64 62 65 65 62 66 67 61 71 72 72 72 74 75 74 75 73 73 73 72 76 75 84 85 89 89 88 88 88 88 91 90 89 89 89 89 90 92 93 93 92 96 102 107 105 -193 -193 -193 -193 107 107 107 106 106 106 110 108 109 112 304 115 -193 -193 -193 114 121 123 122 121 0 0 0 0 0
    0 0 0 0 0 0 0 0 0 0 0 0 0 0 0 0 0 0 0 0 0 0 0 0 0 0 0 0 0 0 0 0 0 0 0 0 0 0 0 0 0 0 0 0 0 0 0 0 0 0 0 0 0 0 0 0 0 0 0 0 0 0 0 0 0 0 0 0 0 70 69 69 68 69 69 69 69 70 67 63 63 62 62 62 60 60 59 59 61 60 60 58 58 55 55 54 54 53 51 52 49 47 49 49 48 46 45 46 43 43 -193 -193 40 40 39 38 38 38 37 36 37 38 35 35 35 35 32 34 31 31 29 30 30 28 27 27 25 25 23 23 22 22 23 21 20 20 20 17 15 16 16 11 16 16 16 -225 -225 -225 -225 -225 -225 -225 -225 -225 -225 -225 -225 -225 -225 -225 -225 -225 -225 -225 -225 -225 -225 -225 -225 -225 -225 -225 -225 -225 -225 -225 -225 -225 -225 -225 -225 -225 -225 -225 -225 -225 23 24 24 25 27 29 30 30 31 31 31 34 36 35 36 36 37 38 38 39 38 39 41 41 45 44 44 47 46 47 49 47 50 47 51 51 49 54 54 54 57 56 63 61 61 66 63 63 66 64 64 62 65 65 62 66 67 61 71 71 72 71 73 75 74 75 73 73 74 74 79 79 86 87 89 90 89 89 89 89 91 90 89 89 -177 89 90 91 92 92 92 94 101 106 105 -193 286 286 104 106 107 106 105 106 106 110 108 109 112 303 115 113 117 -193 113 121 122 121 121 0 0 0 0 0
    0 0 0 0 0 0 0 0 0 0 0 0 0 0 0 0 0 0 0 0 0 0 0 0 0 0 0 0 0 0 0 0 0 0 0 0 0 0 0 0 0 0 0 0 0 0 0 0 0 0 0 0 0 0 0 0 0 0 0 0 0 0 0 0 0 0 0 0 0 70 69 68 68 69 68 68 68 69 66 64 63 62 63 63 60 60 59 59 62 61 61 58 58 56 55 55 54 53 51 52 49 47 48 49 48 46 45 46 44 44 -193 -193 41 40 39 38 38 38 37 36 37 38 35 35 35 35 32 34 31 31 29 30 30 28 27 27 25 26 24 24 23 22 23 21 20 20 20 17 15 16 16 11 16 16 16 -225 -225 -225 -225 -225 -225 -225 -225 -225 -225 -225 -225 -225 -225 -225 -225 -225 -225 -225 -225 -225 -225 -225 -225 -225 -225 -225 -225 -225 -225 -225 -225 -225 -225 -225 -225 -225 -225 -225 -225 19 22 23 23 24 26 28 29 30 31 31 32 34 35 35 35 36 37 38 38 39 38 39 42 42 45 44 45 48 46 47 49 47 50 47 51 51 49 54 54 54 56 56 63 61 61 66 63 63 66 64 64 62 65 65 62 66 67 61 71 71 72 71 73 75 75 75 73 74 75 75 81 79 85 86 -193 -193 -193 91 90 89 92 90 89 89 -177 89 90 91 92 91 92 93 101 106 104 -193 285 285 103 106 106 106 105 106 106 110 108 109 112 -193 114 113 117 -193 112 120 122 121 121 0 0 0 0 0
    0 0 0 0 0 0 0 0 0 0 0 0 0 0 0 0 0 0 0 0 0 0 0 0 0 0 0 0 0 0 0 0 0 0 0 0 0 0 0 0 0 0 0 0 0 0 0 0 0 0 0 0 0 0 0 0 0 0 0 0 0 0 0 0 0 0 0 0 0 71 69 69 68 69 68 67 68 68 66 64 63 62 63 63 61 60 59 60 63 62 61 58 58 56 55 54 54 53 51 51 50 47 48 48 48 46 45 45 44 44 43 41 41 40 39 39 38 38 37 36 37 38 35 35 35 35 32 34 30 31 29 30 31 29 27 27 25 26 24 24 24 22 23 21 21 21 20 17 16 15 16 11 16 16 16 -225 -225 -225 -225 -225 -225 -225 -225 -225 -225 -225 -225 -225 -225 -225 -225 -225 -225 -225 -225 -225 -225 -225 -225 -225 -225 -225 -225 -225 -225 -225 -225 -225 -225 -225 -225 -225 -225 -225 -225 19 22 22 22 24 26 27 27 29 30 30 31 34 34 34 34 35 36 37 37 38 37 39 41 41 45 44 45 47 46 47 48 47 50 47 51 51 49 54 54 53 55 55 62 60 61 66 63 63 67 64 64 62 65 65 62 66 67 61 72 72 72 72 74 76 75 75 75 75 77 78 84 83 87 -209 -193 -193 -193 92 90 89 93 91 90 89 89 90 90 91 92 91 92 93 101 105 104 -193 -193 -177 103 -193 106 106 105 106 106 110 108 109 112 114 114 112 116 -193 112 120 121 121 121 0 0 0 0 0
    0 0 0 0 0 0 0 0 0 0 0 0 0 0 0 0 0 0 0 0 0 0 0 0 0 0 0 0 0 0 0 0 0 0 0 0 0 0 0 0 0 0 0 0 0 0 0 0 0 0 0 0 0 0 0 0 0 0 0 0 0 0 0 0 0 0 0 0 0 71 70 69 68 69 68 67 66 67 64 63 62 62 63 62 60 60 59 60 62 61 60 57 57 55 54 54 53 53 50 51 49 47 48 48 49 46 45 45 44 44 43 42 41 41 39 39 38 38 38 36 37 37 35 35 35 35 32 34 30 31 30 30 31 29 27 27 25 26 24 24 24 22 23 21 21 20 20 16 15 15 16 11 16 16 16 -225 -225 -225 -225 -225 -225 -225 -225 -225 -225 -225 -225 -225 -225 -225 -225 -225 -225 -225 -225 -225 -225 -225 -225 -225 -225 -225 -225 -225 -225 -225 -225 -225 -225 -225 -225 -225 -225 -225 18 19 21 21 21 23 24 25 26 28 29 29 30 34 33 33 34 35 36 36 37 37 37 39 40 40 44 44 45 47 46 47 48 47 51 48 52 51 50 54 54 54 56 56 64 61 61 66 63 64 67 64 64 62 65 65 61 66 67 61 72 72 72 72 74 75 75 74 75 75 79 80 87 85 88 -193 -193 -193 91 93 90 90 95 91 90 90 90 90 90 92 93 91 92 94 100 105 103 103 -193 -193 103 -193 106 106 105 106 106 110 108 109 112 114 114 112 116 116 112 120 121 121 121 0 0 0 0 0
    0 0 0 0 0 0 0 0 0 0 0 0 0 0 0 0 0 0 0 0 0 0 0 0 0 0 0 0 0 0 0 0 0 0 0 0 0 0 0 0 0 0 0 0 0 0 0 0 0 0 0 0 0 0 0 0 0 0 0 0 0 0 0 0 0 0 0 0 0 72 70 69 68 68 67 66 66 66 63 62 62 61 63 62 60 60 58 59 62 61 59 56 56 55 54 53 53 52 50 51 49 47 47 48 49 46 45 45 44 44 44 42 42 41 40 39 39 39 38 37 37 37 35 35 35 35 32 34 31 32 30 30 30 29 26 26 25 25 24 24 24 23 24 21 21 20 20 16 15 14 15 11 16 16 16 -225 -225 -225 -225 -225 -225 -225 -225 -225 -225 -225 -225 -225 -225 -225 -225 -225 -225 -225 -225 -225 -225 -225 -225 -225 -225 -225 -225 -225 -225 -225 -225 -225 -225 -225 -225 -225 -225 -225 19 19 20 21 21 22 23 24 26 27 28 28 29 33 32 33 34 34 36 36 37 37 36 39 39 40 43 43 44 47 46 47 47 47 50 48 51 51 52 55 55 56 57 57 64 61 61 66 63 64 66 64 64 62 65 65 62 66 66 60 71 71 71 72 73 74 74 74 75 76 82 83 88 87 89 -193 91 92 91 92 90 90 95 92 91 90 90 90 91 93 93 92 93 94 100 104 102 102 -193 103 102 -193 105 105 105 106 107 110 108 109 112 113 114 112 116 116 112 119 121 121 121 0 0 0 0 0
    0 0 0 0 0 0 0 0 0 0 0 0 0 0 0 0 0 0 0 0 0 0 0 0 0 0 0 0 0 0 0 0 0 0 0 0 0 0 0 0 0 0 0 0 0 0 0 0 0 0 0 0 0 0 0 0 0 0 0 0 0 0 0 0 0 0 0 0 0 72 70 69 68 68 67 66 66 66 63 62 62 61 63 62 60 60 58 59 61 61 59 56 56 55 53 53 53 52 49 50 49 47 47 48 50 46 45 45 44 44 44 43 42 41 41 40 39 40 39 37 37 37 35 35 35 35 32 33 30 32 30 30 30 29 26 26 25 25 23 23 24 22 23 20 20 20 20 16 15 14 15 11 16 16 16 -225 -225 -225 -225 -225 -225 -225 -225 -225 -225 -225 -225 -225 -225 -225 -225 -225 -225 -225 0 0 0 0 0 0 0 0 -225 -225 -225 -225 -225 -225 -225 -225 -225 -225 -225 -225 19 19 20 21 21 22 23 23 25 27 28 28 29 34 31 32 34 33 36 35 36 35 33 38 37 38 42 42 44 46 46 46 46 47 50 47 50 51 51 54 55 57 57 57 64 61 62 66 63 63 66 64 64 62 65 65 62 66 67 60 71 71 72 72 74 75 74 75 77 78 84 85 88 -193 89 91 92 92 91 93 91 91 96 93 91 91 90 91 91 93 93 92 92 93 99 103 101 101 100 102 101 104 104 105 105 106 107 110 108 109 112 113 113 112 116 116 111 119 121 121 121 0 0 0 0 0
    0 0 0 0 0 0 0 0 0 0 0 0 0 0 0 0 0 0 0 0 0 0 0 0 0 0 0 0 0 0 0 0 0 0 0 0 0 0 0 0 0 0 0 0 0 0 0 0 0 0 0 0 0 0 0 0 0 0 0 0 0 0 0 0 0 0 0 0 0 72 71 69 68 68 67 65 65 65 62 62 61 61 62 61 60 59 58 59 61 61 58 56 56 55 53 53 53 52 48 50 49 47 47 48 50 45 45 45 44 44 45 43 43 42 41 41 40 40 39 37 37 37 35 35 35 35 32 33 30 32 30 30 30 29 27 26 25 25 22 23 24 22 23 19 19 19 20 16 15 14 15 11 16 16 16 -225 -225 -225 -225 -225 -225 -225 -225 -225 -225 -225 -225 -225 -225 -225 -225 -225 -225 0 0 0 0 0 0 0 0 0 0 -225 -225 -225 -225 -225 -225 -225 -225 -225 -225 21 18 17 19 20 20 22 23 23 25 27 29 29 30 33 30 32 32 32 36 34 34 34 32 38 36 38 41 42 44 45 45 46 46 47 50 47 50 50 52 54 56 57 57 57 64 61 62 66 63 63 66 64 64 62 65 65 62 66 66 60 71 71 71 -193 73 75 74 75 78 79 85 86 88 89 89 90 91 92 92 94 93 93 97 95 93 92 91 91 91 93 93 92 92 93 99 103 100 100 99 102 100 103 104 104 -209 106 107 110 108 109 112 113 113 111 115 115 111 119 120 121 121 0 0 0 0 0
    0 0 0 0 0 0 0 0 0 0 0 0 0 0 0 0 0 0 0 0 0 0 0 0 0 0 0 0 0 0 0 0 0 0 0 0 0 0 0 0 0 0 0 0 0 0 0 0 0 0 0 0 0 0 0 0 0 0 0 0 0 0 0 0 0 0 0 0 0 73 73 70 69 69 67 65 65 65 62 62 61 61 62 61 60 60 59 60 61 62 58 56 56 55 54 53 53 52 48 50 49 48 46 46 49 45 45 44 44 45 45 44 43 42 42 41 40 40 39 37 36 36 35 35 34 34 33 32 30 31 30 29 29 29 27 26 25 25 22 24 24 22 23 19 19 19 19 15 15 13 14 11 16 16 16 -225 -225 -225 -225 -225 -225 -225 -225 -225 -225 -225 -225 -225 -225 -225 -225 -225 -225 0 0 0 0 0 0 0 0 0 0 0 -225 -225 -225 -225 -225 -225 -225 -225 -225 21 17 17 20 21 21 23 24 25 26 28 30 30 30 33 31 32 31 32 35 33 33 33 31 37 34 37 39 40 43 45 45 45 45 47 50 47 50 49 52 53 55 56 57 57 64 61 62 66 63 63 66 64 64 62 66 65 62 66 66 60 70 70 71 70 73 74 73 74 77 78 84 84 87 87 88 90 90 91 91 93 95 94 98 96 93 92 92 92 92 92 93 92 92 93 99 102 99 99 98 101 100 103 103 104 -209 106 107 110 109 109 111 112 113 111 115 115 111 119 120 120 121 0 0 0 0 0
    0 0 0 0 0 0 0 0 0 0 0 0 0 0 0 0 0 0 0 0 0 0 0 0 0 0 0 0 0 0 0 0 0 0 0 0 0 0 0 0 0 0 0 0 0 0 0 0 0 0 0 0 0 0 0 0 0 0 0 0 0 0 0 0 0 0 0 0 0 73 73 70 69 69 68 65 65 66 63 63 62 61 62 61 61 60 59 61 61 62 58 -193 56 56 54 53 53 52 48 50 49 48 45 45 47 44 44 44 44 44 45 43 43 42 42 41 40 39 38 37 36 36 35 35 34 34 33 32 30 31 30 29 29 29 27 26 25 25 22 23 23 21 22 18 17 18 18 15 14 13 13 11 14 15 15 -225 -225 -225 -225 -225 -225 -225 -225 -225 -225 -225 -225 -225 -225 -225 -225 -225 0 0 0 0 0 0 0 0 0 0 0 0 0 -225 -225 -225 -225 -225 -225 -225 21 20 18 19 21 23 22 23 25 27 28 29 30 31 30 32 31 32 32 33 36 34 33 34 33 38 35 37 39 40 44 44 45 45 45 47 50 47 49 49 52 52 55 57 57 57 64 62 62 66 63 63 66 64 64 62 66 65 62 66 66 60 71 71 72 72 74 75 75 76 79 80 84 85 88 88 89 90 90 91 91 94 94 93 96 95 93 92 92 91 91 91 93 93 92 94 99 102 99 98 98 101 100 102 103 103 -209 106 107 111 109 109 112 112 113 -193 115 -193 111 119 120 121 121 0 0 0 0 0
    0 0 0 0 0 0 0 0 0 0 0 0 0 0 0 0 0 0 0 0 0 0 0 0 0 0 0 0 0 0 0 0 0 0 0 0 0 0 0 0 0 0 0 0 0 0 0 0 0 0 0 0 0 0 0 0 0 0 0 0 0 0 0 0 0 0 0 0 0 73 73 71 70 70 68 66 65 66 63 63 62 61 63 61 61 61 60 61 61 61 58 -193 -193 -193 54 53 52 51 48 50 50 48 44 44 46 43 44 44 44 44 45 43 43 42 42 42 40 39 38 37 37 36 35 35 34 33 33 32 29 30 30 29 28 28 27 26 25 25 22 22 22 20 21 16 16 16 16 14 14 12 12 10 13 13 13 -225 -225 -225 -225 -225 -225 -225 -225 -225 -225 -225 -225 -225 -225 -225 -225 -225 0 0 0 0 0 0 0 0 0 0 0 0 0 0 -225 -225 -225 -225 -225 -225 21 20 19 20 22 23 22 23 25 26 27 29 30 31 30 32 31 32 32 34 36 33 32 34 34 38 35 37 39 40 44 45 45 46 45 47 50 47 49 48 53 53 55 57 57 58 64 62 62 65 63 63 66 64 64 62 66 65 62 66 66 60 72 72 73 73 74 76 77 78 80 80 83 86 88 89 88 90 90 91 92 94 94 93 96 95 93 92 92 91 91 91 92 93 92 94 99 102 99 99 98 101 100 102 103 103 -209 107 107 111 109 109 112 112 112 -193 115 -193 111 119 121 121 122 0 0 0 0 0
    0 0 0 0 0 0 0 0 0 0 0 0 0 0 0 0 0 0 0 0 0 0 0 0 0 0 0 0 0 0 0 0 0 0 0 0 0 0 0 0 0 0 0 0 0 0 0 0 0 0 0 0 0 0 0 0 0 0 0 0 0 0 0 0 0 0 0 0 0 72 72 71 71 70 69 67 66 66 64 64 62 62 63 61 61 60 60 61 60 60 57 -193 54 -193 53 53 52 51 48 50 50 49 44 44 44 42 43 44 44 44 44 43 42 42 42 41 40 39 38 38 37 36 35 36 35 33 33 32 29 30 30 28 28 28 28 26 25 26 24 23 23 20 21 17 16 15 16 13 13 11 11 10 11 11 -225 -225 -225 -225 -225 -225 -225 -225 -225 -225 -225 -225 -225 -225 -225 -225 -225 -225 0 0 0 0 0 0 0 0 0 0 0 0 0 0 -225 -225 -225 -225 -225 20 21 19 19 20 22 23 22 24 25 27 28 28 29 31 30 33 32 34 34 35 37 34 33 34 34 38 34 36 39 -193 44 44 45 45 45 47 50 47 49 48 53 53 55 57 57 58 64 61 62 65 63 63 66 64 64 62 66 65 62 66 66 60 72 72 73 73 75 76 77 78 80 82 85 87 88 88 89 90 90 91 91 93 94 93 95 95 92 91 91 91 90 91 91 93 92 94 99 102 99 99 98 101 100 102 103 104 -209 107 108 111 109 109 112 112 112 -193 115 -193 110 119 121 121 122 0 0 0 0 0
    0 0 0 0 0 0 0 0 0 0 0 0 0 0 0 0 0 0 0 0 0 0 0 0 0 0 0 0 0 0 0 0 0 0 0 0 0 0 0 0 0 0 0 0 0 0 0 0 0 0 0 0 0 0 0 0 0 0 0 0 0 0 0 0 0 0 0 0 0 72 73 72 71 70 70 69 67 66 64 63 63 62 63 61 61 60 60 60 59 59 56 53 54 55 53 53 52 51 48 51 50 49 44 44 44 43 43 45 45 45 44 43 42 42 42 42 40 40 38 38 38 37 36 36 35 33 33 32 29 29 30 28 28 28 27 26 25 26 24 22 23 20 21 16 15 14 15 12 12 10 10 9 9 9 -225 -225 -225 -225 -225 -225 -225 -225 -225 -225 -225 -225 -225 -225 -225 -225 -225 -225 0 0 0 0 0 0 0 0 0 0 0 0 0 0 -225 -225 -225 -225 -225 19 20 19 19 20 22 22 22 24 26 27 28 29 30 31 31 33 32 35 34 35 37 34 34 36 35 38 34 37 39 -193 44 44 45 45 45 47 50 47 49 48 53 52 55 57 57 57 63 61 61 65 63 63 66 64 64 62 66 65 62 66 66 60 72 73 74 74 75 76 78 80 81 83 84 85 87 87 88 90 90 91 92 94 94 93 95 95 92 91 90 90 89 90 90 93 91 94 99 102 99 99 98 101 100 102 103 104 -193 107 108 112 109 110 112 112 112 -193 -193 -177 -193 119 -193 121 122 0 0 0 0 0
    0 0 0 0 0 0 0 0 0 0 0 0 0 0 0 0 0 0 0 0 0 0 0 0 0 0 0 0 0 0 0 0 0 0 0 0 0 0 0 0 0 0 0 0 0 0 0 0 0 0 0 0 0 0 0 0 0 0 0 0 0 0 0 0 0 0 0 0 0 72 72 71 71 70 70 69 67 66 64 63 62 61 63 61 61 60 60 60 60 59 57 54 54 55 53 53 52 51 48 51 50 49 44 45 44 43 43 45 45 45 45 43 42 42 42 42 40 40 38 38 38 37 36 36 35 33 33 32 29 29 29 28 28 27 27 26 25 26 24 22 23 20 21 17 16 14 14 11 11 9 0 0 0 0 -225 -225 -225 -225 -225 -225 -225 -225 -225 -225 -225 -225 -225 -225 -225 -225 -225 -225 0 0 0 0 0 0 0 0 0 0 0 0 0 0 -225 -225 -225 -225 -225 19 19 20 20 20 22 21 22 25 26 28 28 29 30 31 31 33 32 35 34 35 37 34 34 36 35 38 35 37 40 -193 44 44 45 45 45 47 49 46 49 48 52 52 55 56 56 57 63 61 61 65 63 63 66 64 64 62 66 66 62 67 67 61 73 74 75 75 76 78 80 81 81 82 84 85 86 87 87 89 90 90 91 94 94 93 94 95 91 90 90 89 88 89 89 92 91 94 100 102 99 99 99 102 100 102 103 103 104 107 108 112 109 110 112 112 112 -193 -193 -177 -193 119 121 121 122 0 0 0 0 0
    0 0 0 0 0 0 0 0 0 0 0 0 0 0 0 0 0 0 0 0 0 0 0 0 0 0 0 0 0 0 0 0 0 0 0 0 0 0 0 0 0 0 0 0 0 0 0 0 0 0 0 0 0 0 0 0 0 0 0 0 0 0 0 0 0 0 0 0 0 71 72 71 71 70 70 69 67 67 66 63 63 61 63 62 61 61 60 61 60 60 57 54 54 55 53 53 52 51 48 52 51 49 44 44 44 43 44 46 45 45 45 43 43 43 42 42 40 39 38 38 38 37 35 36 35 32 32 31 29 29 29 28 28 27 27 26 25 25 24 21 22 20 20 18 16 14 13 11 11 9 0 0 0 0 -225 -225 -225 -225 -225 -225 -225 -225 -225 -225 -225 -225 -225 -225 -225 -225 -225 0 0 0 0 0 0 0 0 0 0 0 0 0 0 0 0 -225 -225 -225 19 17 18 20 19 20 22 21 22 26 27 28 28 29 31 32 31 33 32 36 34 35 37 34 34 37 36 38 36 39 41 42 45 45 45 46 46 47 49 46 49 47 52 52 54 55 56 56 63 61 61 66 63 63 66 64 64 62 66 66 62 67 67 62 73 75 75 75 78 79 80 80 80 81 83 84 85 85 87 89 89 90 91 94 94 93 93 95 90 90 89 89 87 88 88 91 90 94 100 102 99 98 98 102 100 102 103 103 104 106 107 111 108 110 112 112 112 -193 -177 -177 -193 119 121 121 122 0 0 0 0 0
    0 0 0 0 0 0 0 0 0 0 0 0 0 0 0 0 0 0 0 0 0 0 0 0 0 0 0 0 0 0 0 0 0 0 0 0 0 0 0 0 0 0 0 0 0 0 0 0 0 0 0 0 0 0 0 0 0 0 0 0 0 0 0 0 0 0 0 0 0 71 71 71 70 70 70 69 67 67 67 63 64 62 63 62 62 61 61 61 60 59 56 54 54 54 53 53 52 51 49 52 51 50 45 45 44 44 44 47 46 46 46 44 44 44 43 42 40 39 38 38 38 37 36 36 35 33 33 32 29 29 29 27 27 27 27 26 25 25 24 21 21 19 20 17 16 13 12 10 9 0 0 0 0 0 -225 -225 -225 -225 -225 -225 -225 -225 -225 -225 -225 -225 -225 -225 -225 -225 -225 0 0 0 0 0 0 0 0 0 0 0 0 0 0 0 0 -209 -225 14 18 16 17 19 19 19 21 20 22 26 27 28 28 29 31 32 32 33 32 36 34 35 36 33 35 38 37 39 37 40 43 42 46 45 46 46 46 47 49 46 49 46 51 51 54 55 56 56 64 62 62 66 63 63 66 64 64 62 66 65 62 67 67 62 73 74 76 75 78 78 79 80 79 81 82 82 84 85 87 88 89 90 91 94 93 93 93 94 89 89 89 89 87 87 88 90 89 93 100 102 99 98 99 102 100 102 103 103 104 106 107 111 108 110 112 112 112 -193 -177 -177 -193 119 121 121 121 0 0 0 0 0
    0 0 0 0 0 0 0 0 0 0 0 0 0 0 0 0 0 0 0 0 0 0 0 0 0 0 0 0 0 0 0 0 0 0 0 0 0 0 0 0 0 0 0 0 0 0 0 0 0 0 0 0 0 0 0 0 0 0 0 0 0 0 0 0 0 0 0 0 0 71 71 71 70 70 70 70 67 67 67 64 64 62 64 63 62 62 62 62 61 60 56 53 53 54 53 52 52 51 49 52 51 50 46 46 44 44 44 47 46 46 46 44 44 44 43 43 41 40 38 39 39 38 36 37 36 34 34 32 30 29 29 28 28 27 27 26 25 -209 24 21 21 19 19 17 15 12 10 0 0 0 0 0 0 0 -225 -225 -225 -225 -225 -225 -225 -225 -225 -225 -225 -225 -225 -225 -225 -225 -225 0 0 0 0 0 0 0 0 0 0 0 0 0 0 0 9 10 11 14 16 15 18 20 20 21 21 21 23 28 28 29 28 29 31 32 32 33 32 36 35 36 37 34 37 39 39 39 38 41 44 43 47 46 46 47 47 47 49 46 49 46 51 51 53 54 55 57 65 62 62 67 64 64 66 64 64 62 66 66 62 67 67 63 74 75 77 76 78 79 80 80 80 80 82 82 84 85 87 88 88 89 89 93 92 92 92 93 88 88 -193 88 86 87 87 90 89 93 100 103 99 98 99 102 100 102 103 103 104 107 107 112 109 110 112 113 112 -193 -177 -177 108 119 121 121 -193 0 0 0 0 0
    0 0 0 0 0 0 0 0 0 0 0 0 0 0 0 0 0 0 0 0 0 0 0 0 0 0 0 0 0 0 0 0 0 0 0 0 0 0 0 0 0 0 0 0 0 0 0 0 0 0 0 0 0 0 0 0 0 0 0 0 0 0 0 0 0 0 0 0 0 71 71 70 70 70 70 70 67 68 68 64 65 62 64 63 63 62 62 62 61 60 56 53 52 53 52 52 51 51 48 52 51 50 46 46 44 44 44 47 45 46 45 44 44 44 43 43 41 40 39 40 39 38 36 37 37 35 35 32 30 29 29 28 28 27 27 25 25 -209 24 21 21 19 18 17 16 12 10 0 0 0 0 0 0 0 -225 -225 -225 -225 -225 -225 -225 -225 -225 -225 -225 -225 -225 -225 -225 -225 -225 0 0 0 0 0 0 0 0 0 0 0 0 9 9 9 10 12 12 15 16 16 19 20 21 22 22 21 23 28 28 29 28 29 31 31 32 33 32 36 34 36 36 34 37 39 38 39 39 41 45 43 47 46 46 47 47 47 49 46 49 45 50 51 52 54 56 57 66 62 62 67 64 64 66 64 64 62 66 66 63 68 68 65 74 76 77 76 78 80 80 80 80 80 83 83 85 86 88 88 88 89 90 93 91 91 91 92 88 88 -193 87 85 87 87 90 89 93 100 103 99 99 99 102 100 102 103 103 104 107 107 112 109 110 112 113 112 112 -193 -193 108 119 121 121 -193 0 0 0 0 0
    0 0 0 0 0 0 0 0 0 0 0 0 0 0 0 0 0 0 0 0 0 0 0 0 0 0 0 0 0 0 0 0 0 0 0 0 0 0 0 0 0 0 0 0 0 0 0 0 0 0 0 0 0 0 0 0 0 0 0 0 0 0 0 0 0 0 0 0 0 71 71 71 71 70 70 71 68 68 69 64 65 62 64 63 63 62 62 62 61 60 56 53 52 53 52 51 51 51 48 51 51 50 47 46 44 44 43 48 45 46 45 44 44 44 43 42 40 40 39 40 39 39 36 37 37 35 35 32 31 30 29 28 28 27 26 -193 -193 -209 24 21 21 19 18 17 16 12 10 0 0 0 0 0 0 0 -225 -225 -225 -225 -225 -225 -225 -225 -225 -225 -225 -225 -225 -225 -225 -225 -225 0 0 9 0 0 0 0 0 0 9 9 0 9 9 9 10 12 12 15 15 16 19 20 21 22 22 21 23 28 27 28 28 28 31 31 32 34 31 36 33 35 36 33 36 38 37 39 38 40 44 43 46 45 45 47 47 47 49 46 49 45 50 51 52 54 56 57 66 62 62 67 64 63 66 64 64 62 66 66 63 67 68 65 73 74 75 75 77 79 79 80 80 80 83 83 85 85 88 88 88 89 90 93 91 91 91 92 88 88 -193 87 85 86 87 89 89 93 101 103 99 99 -193 102 -193 102 103 103 104 107 108 112 109 110 112 113 112 112 -193 -193 108 118 120 120 -193 0 0 0 0 0
    0 0 0 0 0 0 0 0 0 0 0 0 0 0 0 0 0 0 0 0 0 0 0 0 0 0 0 0 0 0 0 0 0 0 0 0 0 0 0 0 0 0 0 0 0 0 0 0 0 0 0 0 0 0 0 0 0 0 0 0 0 0 0 0 0 0 0 0 0 71 71 71 70 70 70 71 68 69 69 64 64 62 63 63 62 62 62 61 60 60 57 53 52 53 52 51 51 51 47 49 49 49 46 45 44 43 43 47 45 46 45 43 43 44 43 42 40 40 40 40 39 39 36 37 37 35 35 32 31 30 29 27 27 27 26 -209 -209 -209 -209 21 21 19 18 18 17 13 10 0 0 0 0 0 0 0 -225 -225 -225 -225 -225 -225 -225 -225 -225 -225 -225 -225 -225 -225 -225 -225 -225 0 0 0 0 0 0 0 0 9 9 9 0 9 10 9 11 13 13 15 15 16 19 20 22 21 21 21 23 28 27 29 28 28 32 31 32 34 31 36 33 35 35 32 36 37 36 38 38 40 44 43 46 45 45 46 47 46 49 46 49 45 50 50 52 54 56 57 66 62 62 67 64 63 66 64 64 63 66 66 63 68 68 65 73 73 74 75 77 78 79 80 81 81 84 83 85 85 88 88 88 89 89 92 91 91 91 91 87 88 -193 87 85 86 87 89 89 93 101 103 99 99 -193 102 -193 102 103 103 104 107 108 112 109 110 112 113 113 112 -193 -193 108 117 119 119 -209 0 0 0 0 0
    0 0 0 0 0 0 0 0 0 0 0 0 0 0 0 0 0 0 0 0 0 0 0 0 0 0 0 0 0 0 0 0 0 0 0 0 0 0 0 0 0 0 0 0 0 0 0 0 0 0 0 0 0 0 0 0 0 0 0 0 0 0 0 0 0 0 0 0 0 71 71 70 70 70 70 70 67 68 68 63 63 61 62 62 61 61 62 61 60 61 58 54 52 52 52 51 51 51 47 48 48 48 46 44 44 43 43 47 45 46 45 43 44 44 43 42 40 40 39 39 39 39 36 36 36 35 35 32 31 30 29 27 27 26 26 -209 -193 -209 -193 21 21 19 18 18 17 13 11 0 0 0 0 0 0 0 -225 -225 -225 -225 -225 -225 -225 -225 -225 -225 -225 -225 -225 -225 -225 -225 -225 0 0 0 0 0 0 0 0 0 9 0 0 9 9 9 11 13 13 15 16 16 19 21 22 22 22 23 24 28 27 30 29 29 33 32 32 35 32 35 32 34 34 31 37 38 36 39 38 40 44 43 46 45 45 46 47 46 49 46 49 44 49 50 52 54 57 58 67 62 63 67 64 64 66 64 64 63 66 66 63 68 68 65 73 73 74 75 77 78 79 80 81 80 82 81 84 84 88 88 87 88 89 92 91 91 91 91 87 87 -193 86 84 86 87 89 88 93 100 102 99 98 99 101 -193 102 103 103 105 107 108 112 110 110 112 114 113 112 -193 -193 108 116 119 118 -209 0 0 0 0 0
    0 0 0 0 0 0 0 0 0 0 0 0 0 0 0 0 0 0 0 0 0 0 0 0 0 0 0 0 0 0 0 0 0 0 0 0 0 0 0 0 0 0 0 0 0 0 0 0 0 0 0 0 0 0 0 0 0 0 0 0 0 0 0 0 0 0 0 0 0 70 70 70 70 69 69 70 66 68 67 63 62 60 61 62 61 61 62 62 60 61 59 54 52 52 52 51 51 50 47 47 47 47 46 44 44 43 43 47 45 46 45 43 43 43 43 42 39 40 39 39 38 38 36 36 36 35 36 32 32 30 29 27 27 26 26 24 -193 -209 -193 21 20 20 18 18 17 13 11 9 0 0 0 0 0 0 -225 -225 -225 -225 -225 -225 -225 -225 -225 -225 -225 -225 -225 -225 -225 -225 0 0 9 9 9 9 9 0 0 9 9 9 9 9 9 9 11 13 13 15 16 17 20 21 23 22 22 25 25 28 27 30 29 29 33 32 32 35 32 35 33 34 35 31 37 38 36 39 39 40 44 43 47 45 45 46 46 46 48 45 48 44 48 48 51 54 58 59 68 63 63 67 64 64 66 64 64 63 66 66 63 67 68 65 73 73 73 74 77 78 79 79 80 79 81 81 84 83 88 88 87 88 89 91 90 90 90 90 86 87 -193 86 84 85 87 89 88 93 100 102 99 98 98 101 -193 102 103 103 105 107 108 112 110 110 113 114 113 112 -193 -193 109 115 118 117 -209 0 0 0 0 0
    0 0 0 0 0 0 0 0 0 0 0 0 0 0 0 0 0 0 0 0 0 0 0 0 0 0 0 0 0 0 0 0 0 0 0 0 0 0 0 0 0 0 0 0 0 0 0 0 0 0 0 0 0 0 0 0 0 0 0 0 0 0 0 0 0 0 0 0 0 71 71 70 70 70 69 70 65 68 67 63 63 60 61 62 61 61 62 61 60 60 60 55 53 52 52 51 50 50 46 46 46 47 46 44 44 44 43 47 46 46 45 43 43 43 43 41 39 39 38 38 38 38 35 35 35 34 36 32 32 30 29 28 27 26 26 24 -193 -193 23 21 20 20 17 18 17 13 11 10 9 0 0 0 0 0 -225 -225 -225 -225 -225 -225 -225 -225 -225 -225 -225 -225 -225 -225 -225 -225 0 0 10 0 0 0 0 0 0 9 9 0 9 9 10 10 12 14 13 16 18 19 22 22 23 21 22 25 25 27 27 29 29 29 33 32 32 35 32 34 32 34 34 31 36 37 35 40 38 39 43 43 46 45 45 46 46 46 48 45 48 43 48 48 51 55 59 60 69 64 64 67 64 64 66 64 64 63 66 66 63 67 68 64 72 72 73 74 77 78 78 79 79 78 80 79 83 80 89 88 87 88 89 91 90 90 90 90 86 87 86 85 84 85 86 88 87 93 99 102 98 98 98 101 -177 102 104 104 105 107 109 112 110 110 113 114 113 112 -193 -193 109 115 117 117 -209 0 0 0 0 0
    0 0 0 0 0 0 0 0 0 0 0 0 0 0 0 0 0 0 0 0 0 0 0 0 0 0 0 0 0 0 0 0 0 0 0 0 0 0 0 0 0 0 0 0 0 0 0 0 0 0 0 0 0 0 0 0 0 0 0 0 0 0 0 0 0 0 0 0 0 71 71 70 70 70 69 70 65 69 66 63 63 60 61 61 60 61 61 61 60 59 60 56 54 53 52 51 51 50 46 45 45 46 46 44 44 43 43 47 46 46 45 42 43 42 43 41 38 38 37 37 37 37 35 35 34 34 36 32 31 30 29 28 28 27 27 24 24 22 23 21 20 20 17 17 18 14 11 10 10 9 0 0 0 0 -225 -225 -225 -225 -225 -225 -225 -225 -225 -225 -225 -225 -225 -225 16 15 10 0 11 0 0 0 0 0 0 9 9 0 9 9 10 -193 15 15 17 21 22 22 23 23 23 22 22 26 25 26 27 29 30 29 33 33 31 35 33 33 32 34 34 32 35 36 34 39 37 38 41 42 45 44 44 45 45 46 48 45 48 43 48 49 52 56 59 60 68 64 64 67 64 64 66 64 64 63 66 66 63 67 67 64 72 72 73 75 77 78 78 79 80 78 79 79 83 82 89 88 87 89 89 91 90 91 90 90 86 87 85 85 83 85 86 -193 87 93 99 102 99 98 98 101 -177 103 104 104 106 108 109 112 111 110 113 114 113 112 -193 -193 110 115 117 116 -193 0 0 0 0 0
    0 0 0 0 0 0 0 0 0 0 0 0 0 0 0 0 0 0 0 0 0 0 0 0 0 0 0 0 0 0 0 0 0 0 0 0 0 0 0 0 0 0 0 0 0 0 0 0 0 0 0 0 0 0 0 0 0 0 0 0 0 0 0 0 0 0 0 0 0 71 71 71 70 70 69 70 65 69 65 62 63 60 60 61 60 60 61 60 59 59 60 57 55 53 52 51 52 51 48 45 45 46 46 45 44 43 43 46 46 46 44 42 42 42 42 41 37 38 37 37 37 37 34 34 32 32 35 31 31 29 29 28 28 27 27 24 24 23 23 21 21 20 18 17 18 15 12 11 11 9 0 0 0 0 -225 -225 -225 -225 -225 -225 -225 -225 -225 -225 -225 -225 -225 15 0 9 0 0 9 0 0 0 0 0 0 9 9 0 10 10 12 14 16 16 20 21 22 23 23 23 23 22 23 26 26 27 27 29 30 29 33 33 31 35 33 33 32 33 34 32 35 35 32 38 36 37 39 40 -193 43 44 44 44 46 48 45 49 43 49 50 53 57 59 60 69 63 63 67 64 65 65 64 64 63 66 66 63 67 67 65 72 73 73 75 78 78 79 80 80 79 80 80 83 81 89 88 87 88 89 90 90 90 90 90 86 86 85 84 83 85 86 -193 87 93 99 102 99 99 99 101 -177 104 105 105 107 108 110 113 112 110 113 115 113 113 -193 -193 111 115 116 116 114 0 0 0 0 0
    0 0 0 0 0 0 0 0 0 0 0 0 0 0 0 0 0 0 0 0 0 0 0 0 0 0 0 0 0 0 0 0 0 0 0 0 0 0 0 0 0 0 0 0 0 0 0 0 0 0 0 0 0 0 0 0 0 0 0 0 0 0 0 0 0 0 0 0 0 71 71 71 70 70 69 70 65 69 64 62 63 60 60 60 60 60 60 60 59 58 59 57 55 53 53 52 53 52 50 46 46 46 47 45 45 44 43 46 45 45 44 42 41 42 42 40 37 37 36 36 36 36 34 34 31 32 35 31 30 29 29 28 29 28 27 24 25 24 24 22 22 21 18 18 18 16 13 11 11 10 0 0 0 0 -225 -225 -225 -225 -225 -225 -225 -225 -225 -225 -225 22 0 9 0 0 0 0 9 0 0 0 0 9 10 10 10 9 11 12 14 17 19 17 21 21 22 24 24 24 24 23 24 26 26 26 26 28 29 28 31 33 30 35 34 33 32 33 34 32 33 34 31 37 34 36 38 40 -177 43 43 44 -193 46 48 45 49 43 50 51 54 56 59 59 68 63 63 67 64 65 65 64 65 63 65 66 63 67 66 65 71 71 71 74 77 77 79 79 79 80 80 80 83 82 88 87 87 88 88 90 90 90 89 89 85 86 85 84 83 85 86 -193 87 93 99 102 99 99 99 101 -177 104 106 106 107 109 110 113 112 111 114 115 114 113 116 -193 112 115 116 116 115 0 0 0 0 0
    0 0 0 0 0 0 0 0 0 0 0 0 0 0 0 0 0 0 0 0 0 0 0 0 0 0 0 0 0 0 0 0 0 0 0 0 0 0 0 0 0 0 0 0 0 0 0 0 0 0 0 0 0 0 0 0 0 0 0 0 0 0 0 0 0 0 0 0 0 72 72 71 71 70 69 70 65 69 62 61 62 60 59 60 60 60 60 60 59 58 59 58 56 54 53 53 53 52 51 47 46 47 47 46 45 44 43 45 44 44 43 42 41 41 41 40 37 37 35 36 36 36 35 34 31 32 35 31 30 29 29 28 29 28 28 25 25 24 24 22 22 22 18 18 19 17 13 11 11 10 0 0 0 0 -225 -225 -225 -225 -225 -225 -225 -225 -225 -225 -225 12 0 9 0 0 0 9 10 0 0 9 0 9 10 10 9 9 11 12 15 19 19 17 21 20 22 23 23 24 23 23 23 25 25 26 26 27 28 27 30 32 29 34 34 32 32 33 34 31 33 34 31 36 34 36 38 39 -193 43 43 43 -193 46 48 45 49 44 52 53 54 56 59 59 68 63 63 67 64 65 65 64 65 63 65 65 62 66 64 63 69 69 68 72 75 76 78 79 79 80 79 80 83 81 88 87 86 87 88 89 89 89 89 89 84 85 84 84 83 85 86 -193 87 93 99 102 100 100 99 101 -177 105 107 106 108 109 111 114 113 111 114 116 114 114 116 -193 113 115 117 117 115 0 0 0 0 0
    0 0 0 0 0 0 0 0 0 0 0 0 0 0 0 0 0 0 0 0 0 0 0 0 0 0 0 0 0 0 0 0 0 0 0 0 0 0 0 0 0 0 0 0 0 0 0 0 0 0 0 0 0 0 0 0 0 0 0 0 0 0 0 0 0 0 0 0 0 72 72 71 71 70 69 70 65 68 62 60 63 60 59 60 60 60 60 60 60 58 59 59 57 54 54 53 54 53 52 49 47 47 47 46 46 44 44 45 44 44 43 42 41 41 41 40 37 36 35 35 36 36 35 34 31 31 35 31 30 29 29 28 30 28 28 25 25 25 24 23 22 22 18 18 18 17 13 11 11 11 0 0 0 0 -225 -225 -225 -225 -225 -225 -225 -225 -225 -225 -225 9 0 0 0 0 0 0 0 0 0 0 0 0 0 9 0 9 10 12 16 19 19 18 22 20 22 22 23 24 23 23 23 25 25 25 25 26 26 26 29 30 28 32 34 32 33 33 34 32 33 34 32 36 34 36 38 39 -193 43 43 43 44 46 49 45 49 44 52 53 54 57 59 60 68 63 64 68 64 66 65 64 65 62 65 66 62 66 63 62 68 68 69 71 75 76 79 79 79 80 79 80 82 80 87 86 85 87 87 88 89 89 88 88 84 85 84 83 83 85 86 -209 87 92 99 102 100 100 100 102 -177 105 107 107 108 109 111 114 114 111 115 116 115 115 117 117 115 116 117 117 116 0 0 0 0 0
    0 0 0 0 0 0 0 0 0 0 0 0 0 0 0 0 0 0 0 0 0 0 0 0 0 0 0 0 0 0 0 0 0 0 0 0 0 0 0 0 0 0 0 0 0 0 0 0 0 0 0 0 0 0 0 0 0 0 0 0 0 0 0 0 0 0 0 0 0 72 72 71 71 70 69 70 65 69 62 61 64 61 60 60 61 61 61 61 61 58 59 60 58 55 55 54 55 54 53 51 48 48 48 47 46 45 44 45 44 44 43 42 41 41 41 40 37 36 35 35 35 35 34 34 31 30 34 31 30 29 29 29 31 29 28 25 25 25 25 23 22 21 18 18 18 17 13 10 11 10 0 0 0 0 -225 -225 -225 -225 -225 -225 -225 -225 -225 -225 -193 0 0 9 0 0 0 9 0 0 0 0 0 0 0 0 0 8 10 10 15 19 18 18 22 20 22 22 22 23 23 23 23 24 25 25 26 26 26 26 28 30 28 31 33 32 33 32 33 32 33 34 32 35 34 36 38 39 43 42 43 43 44 46 49 46 50 44 53 55 56 58 61 61 68 63 64 67 64 66 65 64 65 62 64 65 61 65 61 61 67 67 69 71 75 76 79 79 79 80 79 79 82 79 87 85 85 86 86 88 88 88 87 87 83 84 83 83 83 84 86 -193 87 92 98 102 100 100 100 102 -177 106 108 107 108 109 111 114 114 112 116 117 115 115 118 117 116 116 117 117 116 0 0 0 0 0
    0 0 0 0 0 0 0 0 0 0 0 0 0 0 0 0 0 0 0 0 0 0 0 0 0 0 0 0 0 0 0 0 0 0 0 0 0 0 0 0 0 0 0 0 0 0 0 0 0 0 0 0 0 0 0 0 0 0 0 0 0 0 0 0 0 0 0 0 0 71 71 71 71 71 70 70 66 69 63 62 65 62 60 61 62 61 61 61 61 58 59 61 58 56 56 55 56 54 53 52 49 49 49 48 47 45 45 45 43 44 43 41 40 40 41 41 38 36 35 35 35 35 34 34 31 29 34 31 30 29 29 29 32 30 29 25 26 26 25 23 22 21 18 17 18 17 13 10 10 10 0 0 0 0 -225 -225 -225 -225 -225 -225 -225 -225 -225 12 -193 0 0 10 0 9 9 10 9 9 9 0 0 0 0 0 0 0 9 10 14 17 18 17 22 19 21 21 22 23 23 23 22 23 25 -193 26 26 26 26 27 30 28 30 33 31 32 32 33 32 33 34 33 35 34 36 38 39 43 42 43 43 44 46 49 46 50 45 54 55 56 58 60 60 67 62 62 67 63 66 64 64 64 62 64 65 61 65 61 63 67 67 69 71 75 76 79 78 79 80 79 80 82 80 87 85 85 86 86 87 87 87 86 87 82 83 83 83 83 85 86 -177 86 92 98 102 101 101 101 102 -177 106 108 107 109 109 111 114 115 112 117 -193 116 116 118 -193 117 116 117 117 116 0 0 0 0 0
    0 0 0 0 0 0 0 0 0 0 0 0 0 0 0 0 0 0 0 0 0 0 0 0 0 0 0 0 0 0 0 0 0 0 0 0 0 0 0 0 0 0 0 0 0 0 0 0 0 0 0 0 0 0 0 0 0 0 0 0 0 0 0 0 0 0 0 0 0 71 72 72 71 71 70 70 67 71 65 64 65 62 61 61 62 61 61 61 61 58 59 61 58 -193 -193 56 56 55 54 52 50 49 49 48 47 45 45 45 43 44 42 41 40 40 40 40 38 36 34 35 34 34 34 34 31 29 34 31 30 29 29 29 33 30 29 26 27 27 26 23 23 21 17 17 18 17 13 10 10 10 0 0 0 0 -225 -225 -225 -225 -225 -225 -225 -225 -225 11 0 0 0 9 0 9 9 10 9 9 9 0 0 0 0 0 0 0 9 10 14 16 17 18 22 19 22 21 22 23 23 23 22 23 24 -209 -193 25 25 26 27 29 28 29 32 31 32 32 32 32 33 33 33 34 33 36 38 39 42 42 43 44 44 46 49 46 51 46 54 55 56 59 60 60 66 62 62 66 63 66 63 63 64 62 64 66 61 65 61 64 67 67 69 71 74 76 79 78 79 80 80 80 82 80 87 84 84 85 85 86 86 85 85 86 82 84 83 83 84 85 -193 -177 -193 92 98 102 101 101 101 103 -177 107 109 108 109 109 112 115 116 113 118 -193 117 -193 119 -193 118 117 117 118 116 0 0 0 0 0
    0 0 0 0 0 0 0 0 0 0 0 0 0 0 0 0 0 0 0 0 0 0 0 0 0 0 0 0 0 0 0 0 0 0 0 0 0 0 0 0 0 0 0 0 0 0 0 0 0 0 0 0 0 0 0 0 0 0 0 0 0 0 0 0 0 0 0 0 0 71 72 72 71 71 70 71 68 71 66 65 65 63 61 62 62 61 61 61 61 59 59 60 -193 -193 -193 -193 56 55 54 53 50 50 50 49 47 46 45 45 43 43 42 41 40 40 40 40 38 36 34 35 34 34 34 34 31 28 34 30 29 29 29 29 33 30 29 26 27 27 27 23 23 21 17 17 17 17 13 9 10 9 0 0 0 0 -225 -225 -225 -225 -225 -225 -225 0 0 0 0 0 0 0 0 9 9 11 9 9 9 0 0 0 0 0 0 0 9 9 14 15 17 16 21 18 20 20 20 22 22 22 21 22 24 -177 -209 25 24 25 25 28 27 27 31 30 31 31 32 33 34 34 34 34 34 36 -193 39 42 42 43 44 45 47 50 47 51 47 55 55 56 59 60 60 66 62 62 66 63 66 63 63 64 62 64 66 61 65 60 65 67 67 69 71 74 76 78 78 79 80 80 80 82 80 86 84 84 84 84 85 85 83 84 86 83 85 85 85 85 86 -177 -177 -177 92 99 102 102 102 102 103 283 107 109 109 110 110 112 115 117 115 119 -193 117 -193 119 -193 119 117 117 118 -193 0 0 0 0 0
    0 0 0 0 0 0 0 0 0 0 0 0 0 0 0 0 0 0 0 0 0 0 0 0 0 0 0 0 0 0 0 0 0 0 0 0 0 0 0 0 0 0 0 0 0 0 0 0 0 0 0 0 0 0 0 0 0 0 0 0 0 0 0 0 0 0 0 0 0 72 72 72 71 71 70 71 68 71 67 67 65 63 62 62 62 62 61 62 61 59 59 60 -193 -193 -193 56 56 55 55 53 50 50 50 49 48 46 45 45 42 43 41 41 40 40 40 40 39 36 34 35 34 35 34 34 32 29 35 31 29 29 29 29 32 30 29 26 27 27 27 23 23 20 17 17 17 17 14 9 10 0 0 0 0 0 -225 -225 -225 -225 10 13 11 9 10 9 9 0 0 0 0 9 9 10 9 9 9 0 0 0 0 0 0 0 9 9 14 15 16 15 19 17 19 19 19 21 21 22 21 22 23 -177 -193 -193 23 25 25 27 27 27 31 30 31 31 32 33 35 34 34 34 35 37 -177 39 43 42 43 44 44 47 50 47 51 47 55 55 56 59 60 60 65 62 61 66 62 65 63 63 64 62 64 66 62 65 61 65 66 66 68 70 73 75 78 78 79 80 80 80 82 80 86 83 83 84 83 84 84 82 84 86 84 86 86 86 86 87 -177 -177 -177 93 99 103 103 103 103 104 -193 108 110 109 110 110 112 115 117 115 120 302 118 -193 120 -177 120 118 118 -193 -193 0 0 0 0 0
    0 0 0 0 0 0 0 0 0 0 0 0 0 0 0 0 0 0 0 0 0 0 0 0 0 0 0 0 0 0 0 0 0 0 0 0 0 0 0 0 0 0 0 0 0 0 0 0 0 0 0 0 0 0 0 0 0 0 0 0 0 0 0 0 0 0 0 0 0 72 72 72 72 72 71 71 68 71 67 67 65 63 62 63 63 62 62 62 61 59 59 59 57 56 56 56 55 54 54 53 50 50 50 49 48 46 46 45 43 44 41 41 40 40 40 39 39 36 34 35 34 35 34 35 33 29 35 31 29 29 29 29 31 30 29 26 27 27 27 23 22 20 17 17 17 17 14 9 10 0 0 0 0 0 -225 -225 15 18 11 14 12 10 10 9 10 9 9 11 9 11 11 12 10 10 10 0 0 0 0 0 0 0 9 9 13 15 16 16 19 16 19 18 19 21 20 22 21 21 23 -193 24 -193 23 25 25 27 27 26 31 29 31 32 32 33 35 35 35 35 35 37 -177 40 43 42 43 44 44 47 49 47 51 46 55 56 56 59 60 60 65 61 60 65 62 65 62 63 64 62 64 66 62 65 61 64 66 65 67 69 71 75 77 78 79 80 80 80 81 80 86 83 83 83 83 84 84 83 84 87 86 87 87 87 86 88 -177 -177 -177 93 100 103 104 104 104 105 110 108 110 110 110 109 112 115 118 116 121 -177 118 -193 -193 -177 121 118 118 -193 -177 0 0 0 0 0
    0 0 0 0 0 0 0 0 0 0 0 0 0 0 0 0 0 0 0 0 0 0 0 0 0 0 0 0 0 0 0 0 0 0 0 0 0 0 0 0 0 0 0 0 0 0 0 0 0 0 0 0 0 0 0 0 0 0 0 0 0 0 0 0 0 0 0 0 0 72 72 72 72 72 71 71 68 71 68 68 65 63 63 63 63 62 62 62 61 59 59 59 -193 55 56 55 55 53 54 53 50 50 50 49 49 47 46 45 43 44 41 41 41 40 40 39 39 36 35 36 35 35 34 34 33 29 34 31 29 29 29 28 31 29 28 26 27 26 27 22 22 20 17 17 17 17 14 9 10 0 0 0 0 0 -225 10 16 18 12 15 13 11 10 9 11 9 11 12 11 12 12 13 12 11 11 9 0 0 0 0 0 0 0 0 13 15 16 16 18 18 18 18 18 20 20 21 20 21 22 23 24 24 23 25 26 27 27 27 31 29 30 32 32 32 36 35 35 35 35 37 -177 40 -193 42 43 44 44 47 49 46 51 46 55 56 57 60 60 60 64 61 60 64 61 64 62 62 63 61 64 66 62 65 61 64 66 65 67 69 71 74 77 77 78 80 80 80 81 79 86 82 82 83 83 85 85 84 85 88 86 88 87 88 87 88 -177 -177 -177 94 101 103 105 105 105 105 111 109 110 110 110 109 112 115 118 117 121 -177 -193 -193 -209 -177 121 -193 -193 -193 596 0 0 0 0 0
    0 0 0 0 0 0 0 0 0 0 0 0 0 0 0 0 0 0 0 0 0 0 0 0 0 0 0 0 0 0 0 0 0 0 0 0 0 0 0 0 0 0 0 0 0 0 0 0 0 0 0 0 0 0 0 0 0 0 0 0 0 0 0 0 0 0 0 0 0 72 72 72 71 72 70 71 68 70 68 69 64 62 63 64 62 62 62 62 60 59 59 -193 56 55 55 55 54 53 54 52 49 50 50 49 48 47 46 45 43 43 41 40 40 39 40 39 39 36 36 37 36 35 34 34 34 29 34 30 28 29 28 28 30 29 28 25 27 26 26 22 22 20 18 17 17 17 14 9 9 0 0 0 0 0 0 10 14 16 12 15 12 11 10 9 11 10 11 12 10 11 11 13 11 10 11 0 0 0 0 0 0 0 9 9 13 15 16 16 19 18 17 18 18 20 19 20 20 20 22 23 23 24 23 26 27 28 27 27 31 30 30 32 32 32 36 35 35 35 35 37 -177 40 -193 42 43 44 44 47 50 47 51 46 55 57 58 60 60 60 64 60 59 64 61 63 62 62 63 61 63 66 62 65 61 65 66 65 67 69 70 74 77 77 78 79 79 80 81 79 85 81 82 83 84 86 85 85 86 88 87 88 88 88 87 88 -177 -177 -177 95 102 103 106 105 105 106 111 109 110 110 111 109 112 115 -193 117 122 -193 -193 -193 -209 -177 122 -193 -193 -177 597 0 0 0 0 0
    0 0 0 0 0 0 0 0 0 0 0 0 0 0 0 0 0 0 0 0 0 0 0 0 0 0 0 0 0 0 0 0 0 0 0 0 0 0 0 0 0 0 0 0 0 0 0 0 0 0 0 0 0 0 0 0 0 0 0 0 0 0 0 0 0 0 0 0 0 72 72 72 71 71 70 70 68 69 67 69 64 62 64 63 62 62 61 61 59 59 59 -193 55 55 55 54 53 52 53 52 49 50 50 49 48 46 45 44 43 42 40 40 40 39 40 39 39 36 36 37 36 35 34 34 33 30 34 30 28 29 28 28 29 29 28 25 27 26 26 23 23 20 18 18 17 18 15 10 9 0 0 0 0 0 0 9 9 11 10 13 12 11 10 9 12 10 11 12 11 13 12 14 13 11 12 10 9 9 0 0 0 9 9 10 13 15 16 16 18 18 17 19 18 20 20 21 21 21 22 24 24 25 24 27 27 28 28 27 31 30 30 32 32 33 36 36 36 36 36 37 -177 -193 -193 42 43 44 44 47 50 47 51 47 56 58 59 60 60 60 63 59 58 63 60 63 61 62 62 61 63 66 62 65 61 64 66 65 66 68 69 73 76 76 77 79 79 80 80 78 85 81 83 84 85 87 86 86 87 89 87 88 88 88 87 88 -177 -193 -177 95 103 104 108 106 106 107 112 109 111 111 111 109 112 116 -193 117 122 -193 -193 -193 -193 -177 122 418 -193 -177 597 0 0 0 0 0
    0 0 0 0 0 0 0 0 0 0 0 0 0 0 0 0 0 0 0 0 0 0 0 0 0 0 0 0 0 0 0 0 0 0 0 0 0 0 0 0 0 0 0 0 0 0 0 0 0 0 0 0 0 0 0 0 0 0 0 0 0 0 0 0 0 0 0 0 0 73 72 72 71 71 70 70 68 69 67 70 63 62 63 63 61 61 61 61 59 59 58 -193 55 54 54 54 52 51 53 51 48 49 49 48 47 46 44 43 42 42 40 39 40 39 40 39 39 36 36 37 36 35 34 34 33 30 34 30 28 28 28 27 29 28 28 25 26 26 26 23 23 20 19 19 18 18 16 10 10 0 0 0 0 0 0 0 0 0 0 11 10 11 10 9 12 11 11 12 12 12 11 13 12 11 12 10 9 9 9 9 0 10 10 10 13 15 16 17 18 19 18 20 19 21 21 22 22 23 23 25 25 26 25 27 28 28 27 27 31 30 30 32 33 33 37 36 36 36 37 38 -177 -193 -193 43 44 44 44 47 50 46 50 47 56 56 58 59 59 58 62 -193 -177 -193 59 -193 61 62 62 61 63 66 62 65 61 64 65 64 66 67 68 72 74 75 77 78 78 80 80 78 85 82 83 84 85 88 87 87 87 90 87 88 88 88 87 88 -177 -193 -177 96 103 104 109 107 107 108 113 109 111 111 111 109 113 116 -193 117 122 -193 -193 -193 -193 -177 122 418 -193 -177 597 0 0 0 0 0
    0 0 0 0 0 0 0 0 0 0 0 0 0 0 0 0 0 0 0 0 0 0 0 0 0 0 0 0 0 0 0 0 0 0 0 0 0 0 0 0 0 0 0 0 0 0 0 0 0 0 0 0 0 0 0 0 0 0 0 0 0 0 0 0 0 0 0 0 0 73 72 72 72 72 70 70 69 68 66 69 62 61 63 62 61 61 61 61 59 59 58 -209 54 54 53 53 52 50 53 51 48 50 49 48 46 45 44 43 43 42 41 40 40 40 40 39 39 36 37 38 36 35 34 34 33 31 34 30 28 28 27 27 28 28 27 25 26 25 26 23 23 20 20 20 19 19 17 12 10 0 0 0 0 0 0 8 0 9 9 11 10 11 11 10 12 11 11 12 12 12 11 13 12 11 12 10 9 9 9 9 9 10 11 11 14 16 16 17 19 20 19 21 20 22 21 23 22 24 24 25 25 26 25 27 28 28 27 27 32 30 29 32 33 32 36 36 36 36 37 38 -177 -177 -177 43 44 44 44 47 50 46 49 46 55 56 57 59 58 58 61 -193 -177 -193 -193 623 61 61 62 61 63 66 62 65 61 64 65 64 65 66 67 70 73 75 76 77 78 79 79 77 85 81 83 84 85 88 87 88 87 90 87 88 88 88 87 88 -177 -193 -177 97 104 104 110 107 107 108 113 110 112 112 112 109 113 116 119 117 122 -193 -193 -193 -193 -177 122 419 -193 -177 598 0 0 0 0 0
    0 0 0 0 0 0 0 0 0 0 0 0 0 0 0 0 0 0 0 0 0 0 0 0 0 0 0 0 0 0 0 0 0 0 0 0 0 0 0 0 0 0 0 0 0 0 0 0 0 0 0 0 0 0 0 0 0 0 0 0 0 0 0 0 0 0 0 0 0 73 72 72 72 72 71 70 68 67 65 68 61 60 63 62 61 61 61 62 60 60 59 -209 54 53 53 52 51 49 52 51 47 50 49 48 47 45 44 43 43 42 41 40 40 40 40 39 39 37 37 38 36 35 35 34 33 31 33 29 27 27 27 26 28 28 27 25 26 25 26 23 24 21 20 20 20 20 19 13 11 0 0 0 0 0 0 0 0 0 0 9 9 11 10 10 12 11 11 12 12 12 11 12 12 11 11 9 9 9 9 9 9 10 10 11 13 15 16 16 18 20 19 21 20 22 22 24 23 25 24 25 26 27 26 28 29 29 27 28 33 30 29 33 34 32 36 36 36 36 37 38 -193 -177 -177 43 44 44 45 47 49 46 47 45 54 56 57 56 56 56 60 55 55 -177 621 621 61 61 61 60 63 66 62 65 61 63 65 64 65 66 65 69 71 74 76 77 78 80 80 78 84 81 84 84 85 88 88 88 88 91 87 87 87 87 86 88 -177 -177 -177 97 104 104 111 108 108 109 114 110 112 112 112 109 112 115 118 116 121 -209 -193 -193 -193 -177 -193 -177 -193 -177 -177 0 0 0 0 0
    0 0 0 0 0 0 0 0 0 0 0 0 0 0 0 0 0 0 0 0 0 0 0 0 0 0 0 0 0 0 0 0 0 0 0 0 0 0 0 0 0 0 0 0 0 0 0 0 0 0 0 0 0 0 0 0 0 0 0 0 0 0 0 0 0 0 0 0 0 73 72 72 72 72 71 70 68 67 64 67 61 60 63 62 61 61 62 62 60 60 59 -193 54 53 52 52 50 48 52 50 47 49 49 48 47 45 44 43 43 42 41 40 40 40 40 40 39 37 38 39 37 35 35 33 32 31 32 29 27 27 26 26 27 27 27 25 26 25 26 24 -193 21 21 21 20 21 20 15 12 0 0 0 0 0 0 0 0 0 0 9 9 11 10 10 12 10 11 12 12 12 11 12 12 10 12 9 9 9 9 9 0 10 10 10 13 15 16 16 18 20 19 21 21 23 23 -209 24 27 26 27 27 29 27 29 30 30 28 30 34 31 30 34 34 32 36 37 36 36 38 39 -193 -193 44 44 44 44 45 46 49 45 46 46 53 55 55 53 55 55 58 53 55 -177 621 621 60 61 61 60 62 66 62 65 61 63 64 63 64 65 64 67 70 73 75 76 78 80 80 78 84 82 84 84 85 88 87 88 88 90 86 86 86 86 85 87 -177 -177 -177 96 104 104 111 108 108 109 114 110 112 112 112 109 112 115 118 115 121 -209 118 -193 -193 -177 -193 -177 -193 -193 -177 0 0 0 0 0
    0 0 0 0 0 0 0 0 0 0 0 0 0 0 0 0 0 0 0 0 0 0 0 0 0 0 0 0 0 0 0 0 0 0 0 0 0 0 0 0 0 0 0 0 0 0 0 0 0 0 0 0 0 0 0 0 0 0 0 0 0 0 0 0 0 0 0 0 0 73 72 72 72 72 71 69 68 66 64 67 61 60 63 62 61 62 62 62 60 60 59 794 53 53 52 52 50 48 52 50 47 49 49 47 47 45 44 43 43 42 41 41 40 40 41 40 39 37 38 39 37 35 34 33 32 31 32 29 27 27 26 26 27 27 27 26 26 26 26 24 -193 22 21 22 21 21 21 17 13 0 0 10 9 9 0 9 0 0 0 0 0 10 9 10 11 10 11 11 12 12 11 13 12 11 12 10 9 9 9 9 0 9 9 10 12 14 15 15 17 19 19 20 21 23 23 26 25 28 27 28 28 30 28 30 31 31 28 31 34 32 30 34 35 32 37 37 37 37 39 39 43 44 44 44 44 45 46 46 49 46 46 48 52 54 54 52 53 53 56 52 54 -193 621 622 60 61 60 60 62 66 62 65 61 63 63 62 64 64 64 66 68 73 75 76 78 80 80 78 83 82 84 83 84 87 86 87 87 89 84 84 85 85 84 86 -177 -177 -177 96 104 104 111 108 -193 109 114 110 112 112 112 109 113 115 118 114 120 -193 117 -193 -193 -177 -209 420 122 -193 -193 0 0 0 0 0
    0 0 0 0 0 0 0 0 0 0 0 0 0 0 0 0 0 0 0 0 0 0 0 0 0 0 0 0 0 0 0 0 0 0 0 0 0 0 0 0 0 0 0 0 0 0 0 0 0 0 0 0 0 0 0 0 0 0 0 0 0 0 0 0 0 0 0 0 0 72 71 72 72 71 71 70 68 66 64 67 61 60 63 62 61 62 62 63 61 61 59 794 53 53 52 52 50 48 52 50 47 49 49 48 46 45 43 43 43 42 41 40 40 40 40 40 39 37 38 39 36 35 34 33 32 30 31 29 26 27 26 26 27 27 27 26 26 25 26 25 26 22 22 22 21 22 22 18 14 9 10 12 10 10 9 9 0 0 9 0 0 9 0 9 9 9 9 10 11 11 10 12 11 10 11 9 0 0 0 0 0 9 0 9 12 13 14 15 16 19 18 20 21 23 23 26 25 28 27 28 29 31 28 30 31 31 28 31 34 32 30 34 35 32 37 38 37 37 40 40 43 45 45 45 45 45 46 46 49 46 46 50 52 53 53 51 52 52 56 51 53 -193 621 622 60 61 60 60 62 65 62 65 61 64 63 62 64 64 63 64 66 71 74 75 77 79 79 78 82 82 82 81 82 84 83 84 85 87 82 82 83 83 83 85 -193 -177 -177 96 104 104 111 108 -193 109 114 110 112 112 112 109 113 115 118 113 118 -193 116 116 117 -177 -193 421 122 123 -193 0 0 0 0 0
    0 0 0 0 0 0 0 0 0 0 0 0 0 0 0 0 0 0 0 0 0 0 0 0 0 0 0 0 0 0 0 0 0 0 0 0 0 0 0 0 0 0 0 0 0 0 0 0 0 0 0 0 0 0 0 0 0 0 0 0 0 0 0 0 0 0 0 0 0 72 71 71 71 71 71 70 68 67 64 67 61 61 64 62 62 63 63 63 61 61 59 -209 53 53 52 52 51 49 53 50 47 50 49 48 46 44 43 42 43 42 41 40 40 40 40 40 38 37 38 39 36 34 35 33 32 31 31 29 26 28 26 26 28 27 27 26 26 25 25 25 26 23 22 23 22 23 23 19 14 10 12 13 11 10 10 9 9 9 9 0 0 9 0 9 9 0 0 9 11 10 9 10 9 9 9 0 0 0 0 0 0 0 0 0 11 11 12 13 15 18 17 20 21 23 23 27 26 29 28 29 29 32 29 30 30 30 28 31 33 31 30 33 34 32 37 38 37 38 41 41 45 46 45 45 45 46 47 46 50 46 46 51 52 53 53 50 52 51 55 50 53 -193 621 622 59 61 61 60 62 65 62 65 61 64 63 62 63 63 63 62 64 68 73 75 76 78 79 79 82 82 82 80 80 81 80 82 82 86 81 81 82 82 82 84 86 -193 -177 95 104 104 112 108 -193 109 114 110 112 112 112 109 113 114 117 111 117 -193 116 115 117 -177 -193 420 122 123 -193 0 0 0 0 0
    0 0 0 0 0 0 0 0 0 0 0 0 0 0 0 0 0 0 0 0 0 0 0 0 0 0 0 0 0 0 0 0 0 0 0 0 0 0 0 0 0 0 0 0 0 0 0 0 0 0 0 0 0 0 0 0 0 0 0 0 0 0 0 0 0 0 0 0 0 72 71 71 71 71 71 70 68 67 65 67 61 61 64 62 62 63 63 63 62 61 59 -193 53 52 51 52 51 49 53 50 46 50 49 48 46 44 43 43 43 42 41 41 41 40 41 40 39 38 38 38 36 34 35 33 32 31 31 29 26 28 26 26 28 27 26 25 26 25 25 25 26 23 22 23 22 23 23 19 15 11 13 14 12 11 11 10 10 10 10 0 0 9 0 9 0 0 0 0 10 10 0 9 9 9 9 9 0 0 0 0 0 0 0 0 10 10 11 12 15 18 17 20 21 23 24 28 27 30 28 29 30 32 29 31 30 30 28 31 33 31 30 34 34 32 37 38 37 39 42 42 45 47 45 46 46 47 48 47 50 46 46 52 52 52 53 49 51 50 55 50 53 -193 621 622 59 61 60 60 62 65 62 65 61 65 63 62 64 63 63 62 63 65 69 74 75 78 80 80 83 83 81 80 79 79 79 79 79 85 80 81 82 82 83 84 86 -193 -177 95 103 104 112 108 -193 109 113 110 112 112 112 109 112 114 117 111 116 118 115 114 116 -177 119 421 122 124 123 0 0 0 0 0
    0 0 0 0 0 0 0 0 0 0 0 0 0 0 0 0 0 0 0 0 0 0 0 0 0 0 0 0 0 0 0 0 0 0 0 0 0 0 0 0 0 0 0 0 0 0 0 0 0 0 0 0 0 0 0 0 0 0 0 0 0 0 0 0 0 0 0 0 0 71 71 71 71 71 71 70 69 68 66 67 61 61 65 63 62 63 63 63 62 61 59 -193 52 51 51 51 51 49 53 50 47 50 49 48 46 44 44 43 43 43 41 41 41 41 41 40 39 38 38 39 36 34 35 33 32 31 31 30 26 28 27 26 27 27 26 25 26 26 25 24 26 23 22 23 22 22 22 20 17 13 16 17 15 14 13 12 12 12 12 10 9 11 10 10 0 0 0 0 10 10 0 9 9 9 9 9 0 0 0 0 0 0 0 0 0 9 10 11 14 17 17 20 21 -193 25 28 27 30 28 29 29 32 29 31 29 30 28 32 33 31 30 34 34 33 37 38 36 39 43 43 46 47 46 46 46 47 49 47 50 46 46 51 51 52 52 49 51 50 55 49 52 -193 -193 622 59 61 60 60 62 65 63 65 62 65 63 63 64 64 63 61 62 64 65 73 75 77 80 81 83 82 81 79 78 77 77 77 77 85 80 81 83 83 84 85 87 -193 -209 95 103 104 111 108 -193 108 113 110 111 112 112 108 111 113 116 110 115 117 114 113 116 -177 119 421 122 124 123 0 0 0 0 0
    0 0 0 0 0 0 0 0 0 0 0 0 0 0 0 0 0 0 0 0 0 0 0 0 0 0 0 0 0 0 0 0 0 0 0 0 0 0 0 0 0 0 0 0 0 0 0 0 0 0 0 0 0 0 0 0 0 0 0 0 0 0 0 0 0 0 0 0 0 72 71 71 71 71 71 70 69 69 67 67 62 61 65 63 63 63 63 63 62 60 59 -193 51 50 50 51 51 49 53 50 47 50 49 49 47 45 44 43 44 43 42 41 42 41 41 40 39 38 38 38 36 34 35 33 32 31 30 30 27 28 27 26 27 26 27 26 26 26 25 25 26 24 23 23 23 22 22 20 18 14 17 18 17 16 16 15 15 14 15 12 11 12 11 11 0 9 9 0 9 9 9 9 9 10 9 9 0 0 0 0 0 0 0 0 0 0 9 10 13 16 15 19 21 23 24 27 -193 29 28 29 29 31 29 31 30 31 28 33 33 32 31 35 34 33 37 37 35 38 43 42 46 47 46 46 46 47 49 46 50 46 46 51 51 52 52 49 52 50 55 49 52 56 -193 622 59 61 60 -193 62 65 63 65 62 66 63 63 65 64 64 62 64 64 64 73 74 77 80 80 82 82 80 78 77 76 76 76 75 84 80 82 84 84 84 86 87 91 91 95 103 104 111 108 108 108 113 110 111 111 111 108 111 111 116 109 113 116 114 113 115 -177 119 -177 122 124 123 0 0 0 0 0
    0 0 0 0 0 0 0 0 0 0 0 0 0 0 0 0 0 0 0 0 0 0 0 0 0 0 0 0 0 0 0 0 0 0 0 0 0 0 0 0 0 0 0 0 0 0 0 0 0 0 0 0 0 0 0 0 0 0 0 0 0 0 0 0 0 0 0 0 0 72 71 71 71 71 72 71 69 69 68 68 62 61 65 63 63 63 63 62 61 59 58 -193 50 49 50 50 50 48 52 49 46 49 48 49 47 45 45 44 44 43 42 42 42 40 41 40 38 38 37 38 36 34 35 34 33 32 30 31 27 28 27 26 27 26 27 26 27 27 26 26 27 25 25 24 23 22 22 20 19 15 19 19 18 17 17 17 16 15 16 13 12 12 12 11 9 9 10 9 9 10 9 9 10 10 10 10 9 9 0 0 0 0 0 0 0 0 0 9 12 15 14 18 20 22 23 -193 -177 28 28 29 29 31 29 31 30 31 28 34 32 32 31 35 34 33 37 37 35 39 45 43 47 48 46 46 47 48 50 46 50 46 47 51 52 52 53 50 52 51 55 50 53 56 56 -177 59 61 60 -193 62 65 64 66 63 67 63 64 65 65 65 62 64 64 63 71 73 76 79 80 82 81 79 78 76 75 75 75 75 84 80 82 84 84 85 86 87 91 91 96 103 104 112 108 108 108 113 109 111 111 111 108 110 110 115 108 112 116 113 112 115 -177 118 -177 121 124 123 0 0 0 0 0
    0 0 0 0 0 0 0 0 0 0 0 0 0 0 0 0 0 0 0 0 0 0 0 0 0 0 0 0 0 0 0 0 0 0 0 0 0 0 0 0 0 0 0 0 0 0 0 0 0 0 0 0 0 0 0 0 0 0 0 0 0 0 0 0 0 0 0 0 0 72 71 71 71 71 72 71 69 70 68 68 61 61 65 63 63 63 62 61 60 58 -193 -193 49 49 49 50 50 48 52 49 46 49 48 49 46 45 45 44 44 43 42 42 42 41 41 40 38 38 37 38 36 34 35 34 33 32 30 32 27 28 27 27 27 26 28 26 27 27 26 26 26 25 25 23 23 21 22 19 19 17 20 19 19 18 18 18 17 17 17 14 13 13 13 12 10 10 10 9 9 10 9 10 10 11 10 11 10 10 9 9 0 0 0 0 0 0 0 0 12 15 14 18 20 22 23 -193 -177 28 27 29 29 31 29 31 30 31 28 34 31 32 31 34 34 32 37 37 34 40 47 44 48 49 47 46 47 48 50 47 50 46 47 52 52 53 53 51 52 51 55 50 53 56 56 -193 59 61 61 -193 63 65 64 66 64 68 63 65 66 65 66 62 64 63 63 70 71 74 77 78 81 81 79 77 76 75 75 75 75 83 80 82 84 84 85 86 87 91 91 95 104 104 112 108 108 109 113 109 110 111 110 107 109 109 114 108 111 115 113 112 114 -193 118 -177 -193 123 122 0 0 0 0 0
    0 0 0 0 0 0 0 0 0 0 0 0 0 0 0 0 0 0 0 0 0 0 0 0 0 0 0 0 0 0 0 0 0 0 0 0 0 0 0 0 0 0 0 0 0 0 0 0 0 0 0 0 0 0 0 0 0 0 0 0 0 0 0 0 0 0 0 0 0 72 71 71 71 71 71 70 69 70 69 67 62 61 66 63 63 63 62 61 60 57 57 -193 48 48 49 50 50 49 52 49 47 49 48 49 47 45 45 44 45 43 42 42 42 41 41 40 38 38 37 38 36 34 36 34 34 33 32 33 28 30 28 28 28 26 28 27 27 27 26 26 26 25 25 23 23 21 22 19 20 17 20 19 19 19 18 18 17 17 18 14 14 14 13 13 10 10 10 9 9 10 9 10 10 11 11 11 10 10 9 10 0 0 0 0 0 0 0 9 13 15 14 19 20 22 23 -209 -177 28 28 29 29 31 29 31 29 30 27 34 30 32 32 34 33 33 37 37 33 40 48 44 48 49 47 47 47 48 50 47 50 47 47 52 52 53 53 51 52 52 56 50 53 56 56 -193 59 61 61 -193 63 65 65 66 65 68 64 66 66 66 66 62 65 63 63 69 70 74 76 77 80 80 78 77 75 74 75 75 74 83 80 82 84 84 85 86 87 90 91 95 104 104 112 108 -193 108 112 109 109 110 110 107 108 108 114 108 111 115 113 112 114 -193 117 421 120 122 122 0 0 0 0 0
    0 0 0 0 0 0 0 0 0 0 0 0 0 0 0 0 0 0 0 0 0 0 0 0 0 0 0 0 0 0 0 0 0 0 0 0 0 0 0 0 0 0 0 0 0 0 0 0 0 0 0 0 0 0 0 0 0 0 0 0 0 0 0 0 0 0 0 0 0 71 71 71 70 70 71 69 69 69 69 67 62 61 66 63 63 63 62 60 60 58 57 -193 49 49 49 50 51 50 53 49 48 50 49 50 47 46 45 44 45 43 42 42 42 41 41 40 38 38 37 38 36 35 36 35 35 35 32 34 29 30 28 28 28 26 28 27 27 27 26 26 26 25 25 23 23 21 21 19 20 18 20 19 20 19 18 18 17 17 18 15 15 14 14 13 11 11 10 10 10 10 10 10 10 11 10 11 10 10 9 10 0 0 0 0 0 0 0 9 14 17 15 20 20 23 24 -193 -193 28 28 29 29 30 29 30 29 30 27 34 30 31 31 34 33 33 36 36 31 40 47 44 48 48 47 46 48 48 50 47 50 47 47 52 52 52 53 51 52 52 56 51 53 57 57 60 59 61 61 -193 63 66 65 67 66 69 65 66 66 66 66 63 65 64 64 69 70 73 76 77 80 80 78 77 76 75 75 75 74 83 80 82 84 84 85 86 87 90 91 95 104 104 111 108 -193 108 111 108 108 109 108 106 107 107 113 108 110 115 112 112 114 117 117 421 119 122 121 0 0 0 0 0
    0 0 0 0 0 0 0 0 0 0 0 0 0 0 0 0 0 0 0 0 0 0 0 0 0 0 0 0 0 0 0 0 0 0 0 0 0 0 0 0 0 0 0 0 0 0 0 0 0 0 0 0 0 0 0 0 0 0 0 0 0 0 0 0 0 0 0 0 0 71 70 70 70 69 70 68 68 69 69 65 62 61 66 63 62 62 62 59 60 58 57 -193 -193 50 50 51 51 51 53 50 48 50 49 50 47 46 46 45 45 43 43 43 42 41 41 40 38 38 37 38 37 35 36 36 35 35 33 35 30 31 29 29 28 26 29 27 27 27 27 26 26 26 26 23 23 21 21 19 20 18 20 18 19 20 18 18 17 17 18 16 16 15 14 14 12 12 11 11 10 11 10 11 11 11 11 11 10 10 9 10 0 9 0 0 0 0 0 0 15 17 15 20 21 24 24 -193 -193 -193 28 29 29 30 28 30 29 30 27 34 30 30 31 33 32 33 36 36 31 40 47 44 48 49 47 46 48 48 49 47 50 47 47 51 51 52 52 51 51 51 56 51 54 58 57 60 59 62 61 -193 63 66 66 67 66 69 66 67 66 67 67 64 66 64 64 69 70 74 76 77 80 80 79 78 76 75 75 76 75 83 80 82 84 84 84 86 87 90 91 95 103 104 111 107 -193 108 -193 106 107 107 107 105 106 106 111 107 110 115 113 112 113 117 117 421 119 -209 -209 0 0 0 0 0
    0 0 0 0 0 0 0 0 0 0 0 0 0 0 0 0 0 0 0 0 0 0 0 0 0 0 0 0 0 0 0 0 0 0 0 0 0 0 0 0 0 0 0 0 0 0 0 0 0 0 0 0 0 0 0 0 0 0 0 0 0 0 0 0 0 0 0 0 0 71 70 70 70 69 69 67 68 68 68 64 62 61 66 63 62 62 61 59 59 58 57 -193 -193 -193 -193 52 -193 51 53 50 49 50 49 50 47 46 46 45 46 44 43 43 43 42 41 40 38 38 37 38 37 35 36 36 36 36 34 36 32 31 29 29 27 26 29 27 27 27 27 26 26 26 26 23 22 21 20 18 20 17 19 18 19 20 18 18 17 17 18 16 17 16 14 14 13 13 12 12 11 12 11 12 11 11 11 11 10 10 10 10 0 9 9 9 9 9 9 9 16 17 16 20 21 24 24 -193 -193 -193 28 29 29 30 28 29 29 31 28 34 30 31 32 34 33 33 36 36 32 40 48 44 48 49 47 47 48 48 49 48 50 47 47 51 51 51 52 51 50 50 55 51 54 58 57 61 59 62 -193 -193 64 67 66 68 67 69 67 67 66 67 67 65 66 64 65 69 70 73 75 77 80 80 80 78 77 76 76 77 76 84 81 83 84 84 84 86 86 89 -193 95 103 104 110 107 -193 107 -193 106 106 107 107 104 105 105 111 107 110 114 113 112 113 117 116 -193 118 -193 120 0 0 0 0 0
    0 0 0 0 0 0 0 0 0 0 0 0 0 0 0 0 0 0 0 0 0 0 0 0 0 0 0 0 0 0 0 0 0 0 0 0 0 0 0 0 0 0 0 0 0 0 0 0 0 0 0 0 0 0 0 0 0 0 0 0 0 0 0 0 0 0 0 0 0 71 71 70 70 69 69 67 68 68 69 64 62 62 66 63 62 62 61 59 60 58 58 -193 -193 -193 -193 -193 -193 52 53 50 49 50 49 50 48 47 47 46 46 44 44 44 43 42 42 40 38 38 37 38 37 36 36 37 37 37 35 38 33 31 30 29 27 26 29 28 27 28 28 27 27 26 26 22 22 21 20 19 19 17 18 17 18 19 17 17 16 16 17 17 17 16 15 15 14 15 14 13 11 12 11 12 11 11 11 11 10 10 10 10 0 9 0 9 9 9 9 10 15 17 16 19 20 24 24 -193 24 -193 28 29 29 29 28 29 30 31 28 34 30 30 32 34 33 33 36 36 32 40 48 44 48 49 47 47 48 48 49 48 50 47 47 51 50 50 51 51 49 49 55 51 54 58 58 61 59 62 -193 63 64 67 66 68 67 69 67 67 66 67 67 66 67 65 66 69 69 73 75 76 80 81 80 79 79 78 78 80 79 85 81 83 83 84 84 85 86 89 -193 95 103 104 110 107 -193 107 -193 106 106 107 107 105 106 106 111 107 110 114 113 112 113 117 116 -193 117 119 119 0 0 0 0 0
    0 0 0 0 0 0 0 0 0 0 0 0 0 0 0 0 0 0 0 0 0 0 0 0 0 0 0 0 0 0 0 0 0 0 0 0 0 0 0 0 0 0 0 0 0 0 0 0 0 0 0 0 0 0 0 0 0 0 0 0 0 0 0 0 0 0 0 0 0 72 71 70 70 69 68 66 67 67 68 63 62 61 66 63 63 63 62 59 61 59 59 -193 -193 -193 -193 54 -193 52 53 50 49 50 50 51 48 48 47 47 47 44 44 44 43 42 42 40 37 37 37 37 37 37 37 38 38 38 37 39 35 32 30 30 28 26 30 28 27 28 28 27 27 26 26 22 22 22 21 19 19 17 18 16 16 17 15 14 14 14 15 15 16 15 14 14 14 15 14 13 11 12 11 12 11 10 10 10 10 10 9 10 0 9 0 9 9 9 9 10 14 16 16 18 19 23 23 23 23 -193 27 28 29 29 28 29 30 31 28 34 30 30 32 33 32 33 37 36 32 40 48 44 48 49 47 47 48 48 49 48 50 47 47 50 50 50 50 50 47 47 55 50 54 58 58 61 59 62 -193 64 64 66 66 68 67 69 67 67 66 68 68 66 67 65 67 69 69 73 74 76 80 81 80 81 80 81 80 83 83 86 82 83 83 83 83 84 86 -193 -193 95 103 104 110 107 -193 107 -193 106 107 108 107 105 106 107 112 107 110 114 113 112 113 116 115 115 117 119 118 0 0 0 0 0
    0 0 0 0 0 0 0 0 0 0 0 0 0 0 0 0 0 0 0 0 0 0 0 0 0 0 0 0 0 0 0 0 0 0 0 0 0 0 0 0 0 0 0 0 0 0 0 0 0 0 0 0 0 0 0 0 0 0 0 0 0 0 0 0 0 0 0 0 0 72 71 71 70 68 67 65 66 67 68 62 62 62 66 63 64 63 63 59 62 60 59 -209 -193 -193 -193 54 -193 52 53 50 49 50 50 50 48 48 48 47 47 44 44 44 43 43 42 40 37 36 37 37 37 38 37 39 39 39 38 39 35 32 30 29 28 26 30 28 27 28 28 27 27 25 26 22 22 22 21 20 19 16 17 14 15 16 13 12 12 12 12 13 14 13 12 13 13 14 13 13 11 12 11 12 11 10 10 10 9 10 9 9 0 0 0 9 9 9 9 11 14 16 16 17 19 22 23 23 23 25 26 28 29 29 27 29 30 30 28 33 30 29 31 32 32 33 37 37 33 41 49 45 49 49 48 47 48 48 49 48 50 47 47 50 50 49 49 50 46 46 55 50 54 58 58 62 59 61 -193 -193 64 66 66 67 66 68 67 67 66 68 68 66 67 66 67 69 69 72 74 76 80 82 81 82 82 83 -193 85 85 87 82 84 83 84 83 84 85 -193 -193 95 103 104 110 107 -193 107 -193 107 107 108 108 106 107 107 112 108 110 114 113 112 113 116 115 115 116 118 118 0 0 0 0 0
    0 0 0 0 0 0 0 0 0 0 0 0 0 0 0 0 0 0 0 0 0 0 0 0 0 0 0 0 0 0 0 0 0 0 0 0 0 0 0 0 0 0 0 0 0 0 0 0 0 0 0 0 0 0 0 0 0 0 0 0 0 0 0 0 0 0 0 0 0 71 71 70 69 67 66 64 65 66 68 62 62 63 67 64 65 64 63 60 62 60 59 -209 -193 -193 -193 54 -193 52 53 51 50 51 50 50 49 48 48 47 47 44 44 44 43 44 43 41 38 37 37 38 38 39 38 40 40 39 38 39 36 32 30 29 28 26 29 28 27 27 27 26 26 25 25 21 22 22 21 20 19 16 16 13 13 14 12 11 11 11 11 12 12 12 11 12 12 13 12 12 11 12 11 12 10 11 10 10 9 9 0 9 0 0 0 9 9 9 9 11 14 16 16 17 19 22 23 22 22 24 25 27 28 28 27 29 30 30 28 33 30 29 30 32 31 33 37 37 34 41 50 45 49 49 48 47 48 48 49 48 50 47 47 50 50 49 49 50 46 45 55 50 54 59 58 62 60 61 -193 -193 64 66 66 67 66 68 67 67 65 68 68 67 67 66 67 69 69 72 74 76 80 82 81 82 82 84 -193 85 86 87 84 86 85 85 83 84 86 -193 -209 95 104 104 111 107 -193 107 -193 106 107 108 108 106 107 107 112 108 111 114 114 113 113 116 114 114 116 118 118 0 0 0 0 0
    0 0 0 0 0 0 0 0 0 0 0 0 0 0 0 0 0 0 0 0 0 0 0 0 0 0 0 0 0 0 0 0 0 0 0 0 0 0 0 0 0 0 0 0 0 0 0 0 0 0 0 0 0 0 0 0 0 0 0 0 0 0 0 0 0 0 0 0 0 71 70 69 69 67 66 65 65 66 68 62 63 64 67 64 65 64 64 60 63 60 59 58 -193 -193 -193 54 -193 52 53 51 50 51 50 50 49 48 49 47 47 44 44 44 43 44 43 41 38 37 37 38 38 39 39 40 40 39 38 38 36 33 30 29 27 26 29 28 26 27 26 26 26 25 25 21 21 22 20 19 19 16 14 13 12 13 11 10 10 10 10 12 11 12 10 12 12 13 12 12 11 12 10 12 10 10 9 9 9 9 0 9 0 9 0 9 9 9 9 11 14 16 17 17 19 21 22 21 22 23 25 26 28 28 27 29 30 30 28 33 30 28 30 32 31 34 37 37 34 41 50 46 50 49 48 48 48 48 49 48 50 47 47 50 50 49 49 50 46 45 55 52 55 60 59 63 60 61 63 64 64 66 65 67 66 68 67 66 65 68 67 67 68 66 68 69 69 72 74 76 80 81 80 82 82 84 -193 86 87 88 86 -193 87 87 85 86 87 90 92 96 104 104 111 107 107 107 -193 106 107 108 108 105 106 107 112 108 110 115 114 113 113 116 114 114 116 118 117 0 0 0 0 0
    0 0 0 0 0 0 0 0 0 0 0 0 0 0 0 0 0 0 0 0 0 0 0 0 0 0 0 0 0 0 0 0 0 0 0 0 0 0 0 0 0 0 0 0 0 0 0 0 0 0 0 0 0 0 0 0 0 0 0 0 0 0 0 0 0 0 0 0 0 70 70 69 69 67 67 65 65 67 69 63 63 65 67 64 65 64 64 60 63 60 59 -193 -177 -193 -193 54 -193 51 53 50 49 50 50 49 48 47 49 47 47 45 44 44 43 44 43 40 38 37 37 37 38 40 38 40 39 38 37 38 36 32 30 29 26 25 28 27 26 26 26 25 26 25 25 21 21 22 20 19 18 15 13 12 11 12 10 10 9 10 9 11 11 12 10 12 12 13 12 12 11 12 10 12 10 10 9 9 0 0 0 9 0 0 0 9 8 9 9 11 14 17 17 17 19 21 22 21 21 23 24 25 28 28 28 29 30 31 28 34 31 28 30 32 31 34 38 38 35 42 51 46 50 50 48 48 48 48 49 48 51 47 48 51 50 50 49 51 47 -193 56 54 56 61 60 63 60 62 63 64 63 66 65 66 66 68 67 66 65 68 67 67 68 67 68 70 70 72 73 76 79 80 80 82 82 84 -193 86 87 88 88 89 89 88 86 87 87 92 94 96 104 104 111 108 107 108 -193 106 107 108 107 105 106 106 112 107 110 115 114 113 113 116 114 114 115 117 117 0 0 0 0 0
    0 0 0 0 0 0 0 0 0 0 0 0 0 0 0 0 0 0 0 0 0 0 0 0 0 0 0 0 0 0 0 0 0 0 0 0 0 0 0 0 0 0 0 0 0 0 0 0 0 0 0 0 0 0 0 0 0 0 0 0 0 0 0 0 0 0 0 0 0 71 70 70 70 68 68 66 66 68 70 63 64 65 66 63 65 64 63 60 63 60 59 -193 -177 -193 -193 53 -193 51 52 50 48 49 49 49 48 47 49 46 46 44 44 44 43 44 43 40 37 37 37 37 38 40 38 40 40 38 37 38 36 32 29 29 26 25 27 26 25 25 25 25 25 24 -193 21 21 21 19 19 18 15 13 12 11 11 10 9 9 9 9 11 10 11 10 12 12 13 13 12 11 12 10 12 10 10 9 9 0 0 0 0 0 0 0 0 0 9 0 11 14 17 17 17 19 20 21 20 21 22 23 25 28 27 28 30 30 31 28 34 31 28 30 32 31 34 38 38 35 42 51 46 50 50 48 48 48 48 49 48 51 47 48 51 51 50 50 51 47 -193 56 56 57 61 61 64 61 62 63 64 63 65 65 66 65 67 66 66 65 67 67 66 68 67 68 70 70 72 73 75 78 79 79 81 81 84 -193 86 87 88 89 90 90 89 87 87 88 93 96 97 105 105 112 108 108 108 110 107 107 108 108 105 106 106 112 107 110 114 114 113 112 116 113 113 115 117 116 0 0 0 0 0
    0 0 0 0 0 0 0 0 0 0 0 0 0 0 0 0 0 0 0 0 0 0 0 0 0 0 0 0 0 0 0 0 0 0 0 0 0 0 0 0 0 0 0 0 0 0 0 0 0 0 0 0 0 0 0 0 0 0 0 0 0 0 0 0 0 0 0 0 0 71 71 71 71 69 69 67 67 69 71 64 64 66 66 63 64 63 62 60 62 59 58 -193 -193 -193 -193 53 -193 50 51 49 48 49 49 48 47 46 48 46 46 44 44 44 44 44 43 40 37 37 37 38 38 40 39 40 40 39 38 37 36 33 29 28 26 25 27 26 25 25 24 24 24 24 -193 21 22 21 18 19 18 16 14 12 11 10 9 9 9 9 9 10 10 11 10 11 11 13 12 12 11 11 10 12 10 10 9 9 9 0 0 9 0 0 0 0 0 0 0 11 15 18 18 17 19 20 21 20 21 22 23 24 27 27 28 30 30 31 28 34 31 28 30 32 30 34 37 37 34 42 51 46 50 50 48 48 48 48 49 48 51 48 48 52 51 51 51 52 48 -193 57 58 58 62 61 64 61 62 64 64 63 65 65 65 64 66 65 65 65 67 66 66 68 67 68 71 70 71 73 75 77 78 78 80 79 83 -193 85 87 88 89 90 90 90 88 88 88 93 97 97 105 105 113 109 109 109 111 107 108 109 108 106 106 106 112 108 110 114 114 113 112 116 113 113 115 117 116 0 0 0 0 0
    0 0 0 0 0 0 0 0 0 0 0 0 0 0 0 0 0 0 0 0 0 0 0 0 0 0 0 0 0 0 0 0 0 0 0 0 0 0 0 0 0 0 0 0 0 0 0 0 0 0 0 0 0 0 0 0 0 0 0 0 0 0 0 0 0 0 0 0 0 72 72 72 72 70 70 68 67 70 -193 65 65 66 66 63 64 63 62 60 62 59 58 -193 -193 -193 55 53 51 50 51 49 48 49 49 47 47 46 49 46 46 44 44 44 44 44 43 39 37 37 37 38 38 40 39 40 40 38 38 37 36 33 29 28 26 25 26 25 24 24 24 24 24 24 24 21 22 21 18 19 18 17 14 12 12 10 9 9 9 9 9 10 9 10 10 11 11 12 12 11 11 11 10 11 10 10 9 9 9 0 0 9 0 0 0 0 0 0 0 11 14 18 18 17 19 19 20 20 21 22 22 24 27 27 28 31 30 31 28 34 31 28 30 32 30 34 37 37 34 42 51 46 50 50 48 48 48 48 49 49 51 48 49 52 52 52 51 53 50 -193 58 60 59 63 62 65 61 62 64 64 63 65 65 64 63 66 65 64 65 66 66 65 68 68 68 71 71 71 72 74 76 77 77 78 78 82 83 85 86 87 90 91 91 91 89 89 90 94 98 97 105 105 113 109 109 109 111 107 108 109 108 106 106 106 111 108 110 114 114 113 112 116 113 113 115 116 116 0 0 0 0 0
    0 0 0 0 0 0 0 0 0 0 0 0 0 0 0 0 0 0 0 0 0 0 0 0 0 0 0 0 0 0 0 0 0 0 0 0 0 0 0 0 0 0 0 0 0 0 0 0 0 0 0 0 0 0 0 0 0 0 0 0 0 0 0 0 0 0 0 0 0 72 72 72 -193 71 71 69 -193 70 -193 65 65 67 66 62 63 62 61 59 61 59 57 -193 -193 54 54 53 51 50 51 49 48 48 49 47 47 45 49 46 45 44 44 43 44 44 43 39 36 37 37 37 38 40 38 40 39 38 37 37 36 33 29 28 26 24 25 24 23 24 23 23 23 23 23 21 22 21 19 20 18 18 16 13 12 10 9 10 9 9 9 9 0 9 9 10 10 11 11 11 11 11 10 11 10 10 9 9 9 0 0 0 0 0 0 0 0 0 0 10 14 18 18 17 19 18 20 20 20 21 22 24 27 27 29 31 30 31 28 34 31 28 30 32 30 34 37 37 34 42 51 46 50 50 48 47 48 48 49 49 52 48 49 53 53 53 52 54 51 -193 58 62 60 64 63 65 62 63 64 64 62 65 65 63 62 66 64 64 65 66 66 65 67 67 68 71 71 70 72 74 76 76 76 77 77 81 83 84 85 87 90 91 92 92 91 90 91 96 99 97 105 105 113 109 109 109 111 107 107 108 108 105 105 105 110 107 110 114 114 113 112 116 113 113 114 116 115 0 0 0 0 0
    0 0 0 0 0 0 0 0 0 0 0 0 0 0 0 0 0 0 0 0 0 0 0 0 0 0 0 0 0 0 0 0 0 0 0 0 0 0 0 0 0 0 0 0 0 0 0 0 0 0 0 0 0 0 0 0 0 0 0 0 0 0 0 0 0 0 0 0 0 72 -193 -193 -193 72 72 70 -193 71 76 66 65 67 65 62 63 62 60 59 61 59 57 -193 -193 54 55 53 51 50 51 49 48 48 49 47 47 45 48 45 45 44 44 43 44 45 43 38 36 37 37 38 38 40 38 40 39 37 37 36 36 32 29 28 25 24 24 23 22 23 23 23 22 23 23 21 22 21 18 19 18 18 16 13 13 10 10 10 10 10 9 9 0 0 0 9 9 10 10 10 10 11 10 11 10 10 9 9 9 0 0 0 0 0 0 0 0 0 0 9 15 18 18 17 19 18 20 20 20 21 -193 24 27 27 29 31 30 31 28 34 31 28 30 32 30 34 37 37 34 42 52 46 50 50 48 47 48 48 49 49 52 48 50 53 53 53 53 55 53 -193 58 64 61 65 65 66 62 64 64 64 62 65 65 63 62 66 64 64 65 66 65 65 67 67 68 71 71 70 72 74 76 76 76 77 76 80 82 83 84 86 90 92 92 92 92 92 93 97 100 97 105 105 113 109 109 109 110 -193 106 107 107 105 105 105 110 107 110 114 115 113 112 116 113 113 114 116 115 0 0 0 0 0
    0 0 0 0 0 0 0 0 0 0 0 0 0 0 0 0 0 0 0 0 0 0 0 0 0 0 0 0 0 0 0 0 0 0 0 0 0 0 0 0 0 0 0 0 0 0 0 0 0 0 0 0 0 0 0 0 0 0 0 0 0 0 0 0 0 0 0 0 0 72 -193 72 72 71 -193 70 -193 72 77 66 66 68 65 62 62 62 60 59 61 59 -193 -193 -193 54 54 53 52 50 51 49 48 49 49 47 46 45 48 45 45 44 44 44 44 45 44 38 36 37 37 38 38 40 38 40 39 37 37 36 36 32 28 27 25 23 24 22 22 23 22 22 22 23 23 21 22 21 18 19 18 18 16 13 13 11 11 11 10 10 9 10 0 9 0 9 10 10 10 10 10 11 10 11 10 10 10 9 9 0 0 0 0 0 0 0 0 0 0 9 15 19 18 17 19 18 19 19 20 21 -193 -193 -193 27 29 31 30 31 28 34 31 28 30 31 29 33 37 37 34 42 52 46 50 50 48 47 48 48 50 49 53 49 51 54 54 54 54 56 54 -193 59 65 62 66 66 66 63 64 65 65 63 66 66 63 62 66 64 64 65 66 65 65 67 67 68 72 72 71 73 75 76 77 76 77 77 80 83 83 84 86 90 91 93 92 92 92 94 97 100 97 105 105 113 109 109 109 110 -193 106 107 107 104 104 104 109 107 109 113 115 113 112 116 113 113 114 116 115 0 0 0 0 0
    0 0 0 0 0 0 0 0 0 0 0 0 0 0 0 0 0 0 0 0 0 0 0 0 0 0 0 0 0 0 0 0 0 0 0 0 0 0 0 0 0 0 0 0 0 0 0 0 0 0 0 0 0 0 0 0 0 0 0 0 0 0 0 0 0 0 0 0 0 71 71 71 -193 71 -193 70 70 72 77 66 66 68 65 62 62 61 59 59 61 58 -193 -193 -193 53 54 53 52 51 51 49 49 49 49 47 46 45 49 45 45 44 44 44 45 46 44 38 36 37 37 37 38 39 38 40 39 38 37 37 36 32 29 27 -209 23 -209 22 22 23 22 22 21 23 23 21 23 20 19 19 18 19 16 14 14 11 11 11 10 10 10 10 0 9 9 9 10 10 11 11 11 12 11 11 11 10 10 10 9 0 0 0 0 0 0 0 0 0 0 0 15 18 18 16 19 17 19 19 20 21 -177 -177 -177 -193 28 31 29 30 28 33 30 28 30 31 29 33 37 37 34 42 51 46 50 50 48 47 48 48 50 49 53 49 51 54 54 54 54 56 54 -193 59 66 62 66 66 67 63 65 65 65 63 66 67 63 62 67 64 65 65 66 65 65 68 68 69 73 73 72 74 75 77 78 77 78 77 81 83 83 84 86 90 91 92 92 92 92 94 97 100 96 104 104 112 108 108 109 109 -193 106 107 106 104 104 104 109 107 109 113 115 113 112 116 113 113 115 116 115 0 0 0 0 0
    0 0 0 0 0 0 0 0 0 0 0 0 0 0 0 0 0 0 0 0 0 0 0 0 0 0 0 0 0 0 0 0 0 0 0 0 0 0 0 0 0 0 0 0 0 0 0 0 0 0 0 0 0 0 0 0 0 0 0 0 0 0 0 0 0 0 0 0 0 71 -193 71 -193 71 -193 70 70 72 77 65 65 68 65 62 62 61 59 59 60 58 55 -193 -193 53 54 53 52 51 52 49 48 49 49 46 46 44 48 45 45 44 44 44 45 46 45 38 36 37 37 37 39 39 38 40 40 39 38 37 37 31 28 27 -209 23 -209 21 22 23 22 22 21 22 23 21 23 20 19 19 18 19 17 14 14 11 12 10 10 9 9 9 0 0 0 0 10 10 10 10 11 12 12 12 11 11 11 10 10 9 0 0 0 0 0 0 0 0 0 0 14 18 17 16 19 17 19 19 20 20 -177 -177 -177 -177 28 30 29 30 27 32 30 28 30 31 29 33 37 37 33 42 51 46 50 50 48 47 48 48 50 50 53 49 51 54 54 54 54 56 54 57 59 66 62 66 67 67 63 65 65 66 63 66 67 63 62 67 64 65 65 66 65 64 68 68 69 73 73 73 74 76 78 79 78 78 78 82 84 84 84 86 89 91 92 92 92 92 94 97 99 96 104 104 112 108 108 -193 288 -177 106 107 107 104 105 105 109 107 109 113 115 113 112 116 113 113 115 116 115 0 0 0 0 0
    0 0 0 0 0 0 0 0 0 0 0 0 0 0 0 0 0 0 0 0 0 0 0 0 0 0 0 0 0 0 0 0 0 0 0 0 0 0 0 0 0 0 0 0 0 0 0 0 0 0 0 0 0 0 0 0 0 0 0 0 0 0 0 0 0 0 0 0 0 71 71 71 71 71 -193 70 70 72 76 64 64 67 64 62 62 61 59 59 60 58 55 -193 -193 53 54 53 52 51 52 50 49 49 49 46 45 44 48 44 44 44 44 44 45 46 45 38 36 37 37 38 39 40 38 41 40 39 38 37 -193 29 -193 -193 -209 22 -193 21 21 22 21 22 21 22 23 21 23 20 19 20 19 19 17 14 15 11 12 11 10 9 9 9 0 0 0 0 10 10 10 11 11 13 12 13 12 12 12 12 11 9 9 0 0 0 0 0 0 0 0 0 13 17 17 15 18 16 19 19 20 20 -177 867 867 -177 27 29 29 29 27 32 29 28 30 31 28 32 37 37 33 42 51 46 49 50 48 47 48 48 50 50 53 49 51 54 54 54 54 56 54 57 59 67 63 66 67 67 63 65 65 66 63 66 67 63 62 66 64 64 65 66 65 64 68 68 69 73 73 73 74 76 78 80 79 79 79 82 85 84 85 86 89 91 92 92 92 91 94 96 99 95 103 104 111 108 107 -193 288 -177 106 107 107 105 105 105 110 108 109 113 115 113 112 116 113 113 115 116 114 0 0 0 0 0
    0 0 0 0 0 0 0 0 0 0 0 0 0 0 0 0 0 0 0 0 0 0 0 0 0 0 0 0 0 0 0 0 0 0 0 0 0 0 0 0 0 0 0 0 0 0 0 0 0 0 0 0 0 0 0 0 0 0 0 0 0 0 0 0 0 0 0 0 0 71 70 71 71 71 -193 69 69 71 74 63 63 66 63 61 62 61 59 59 60 58 55 -193 54 54 54 53 52 52 52 50 49 49 48 46 45 44 47 44 44 43 44 44 45 46 45 38 37 37 38 38 39 40 38 41 40 40 38 37 -193 -193 -193 -193 -193 22 -193 20 21 22 21 22 21 22 23 21 23 21 19 20 19 20 17 14 15 11 13 11 10 10 9 10 9 0 0 9 9 9 10 11 11 13 12 13 12 12 12 12 11 10 8 0 0 0 0 0 0 0 0 0 13 17 18 15 18 16 19 18 19 20 -177 867 867 -177 27 29 29 29 26 31 29 28 30 30 28 32 38 38 34 42 51 46 50 50 48 46 48 48 50 49 54 49 51 54 53 54 54 56 54 57 59 67 63 66 67 67 63 65 65 66 63 66 67 63 63 67 65 65 65 66 65 64 68 68 70 73 74 74 75 77 79 81 80 80 81 84 85 85 86 87 89 91 92 92 92 92 94 96 99 95 103 104 110 107 -193 -193 287 -177 106 107 107 105 106 106 -193 108 109 113 115 113 112 116 114 114 115 116 114 0 0 0 0 0
    0 0 0 0 0 0 0 0 0 0 0 0 0 0 0 0 0 0 0 0 0 0 0 0 0 0 0 0 0 0 0 0 0 0 0 0 0 0 0 0 0 0 0 0 0 0 0 0 0 0 0 0 0 0 0 0 0 0 0 0 0 0 0 0 0 0 0 0 0 71 70 70 71 70 70 68 69 70 72 62 61 66 62 61 62 60 59 59 61 58 55 -193 54 54 54 53 53 52 52 50 49 48 48 46 45 44 47 44 44 43 44 43 45 46 45 38 37 37 38 38 40 39 38 41 40 40 38 38 -193 -193 -193 -193 21 21 -193 19 20 22 21 23 22 23 23 22 23 21 20 20 19 20 17 15 15 11 13 12 10 10 10 10 9 9 9 9 9 10 10 11 11 13 12 13 12 12 11 11 11 9 0 0 0 0 0 0 0 0 0 0 12 16 18 15 18 16 19 18 19 20 -193 868 867 -177 -193 28 28 29 26 31 28 28 30 30 28 32 38 38 35 42 51 47 50 50 48 46 48 48 50 49 54 49 51 53 53 54 54 55 54 56 59 67 63 66 67 66 63 65 65 66 63 66 67 63 64 68 66 66 66 67 66 65 69 69 70 73 74 74 75 77 80 82 81 81 83 84 86 86 86 87 89 91 92 92 92 92 95 97 99 94 102 104 110 106 -193 -193 287 -177 106 107 107 106 106 107 -193 109 109 113 114 113 113 116 114 114 115 117 114 0 0 0 0 0
    0 0 0 0 0 0 0 0 0 0 0 0 0 0 0 0 0 0 0 0 0 0 0 0 0 0 0 0 0 0 0 0 0 0 0 0 0 0 0 0 0 0 0 0 0 0 0 0 0 0 0 0 0 0 0 0 0 0 0 0 0 0 0 0 0 0 0 0 0 71 70 70 70 70 69 67 68 69 70 61 61 65 62 61 62 61 59 60 60 58 55 -193 54 53 54 53 52 52 52 49 49 48 48 46 45 44 47 43 44 43 43 43 44 46 44 38 38 38 38 39 40 39 37 40 39 39 37 37 -193 24 -193 22 21 21 -193 -193 21 23 22 23 23 23 23 22 23 21 20 20 19 20 17 15 15 11 12 12 11 10 10 11 10 10 10 10 10 10 11 11 11 13 12 13 12 12 11 11 11 9 0 0 0 0 0 0 0 0 0 0 12 15 18 15 18 16 19 18 19 20 20 -177 -177 -193 26 27 29 29 26 31 28 28 30 30 29 32 38 38 35 43 51 47 50 50 48 46 48 48 51 50 54 49 51 53 53 53 54 55 54 56 59 67 63 65 67 67 63 65 66 66 63 66 68 63 65 68 67 66 66 67 66 65 69 69 70 73 74 74 75 77 80 83 82 82 84 85 86 86 86 87 89 91 92 92 93 92 96 97 99 94 101 103 109 106 -193 -193 287 -177 107 108 107 106 107 107 -193 109 109 113 114 113 113 116 114 114 116 117 114 0 0 0 0 0
    0 0 0 0 0 0 0 0 0 0 0 0 0 0 0 0 0 0 0 0 0 0 0 0 0 0 0 0 0 0 0 0 0 0 0 0 0 0 0 0 0 0 0 0 0 0 0 0 0 0 0 0 0 0 0 0 0 0 0 0 0 0 0 0 0 0 0 0 0 71 70 70 70 69 68 66 67 68 69 61 61 65 62 61 62 60 59 59 59 58 54 -193 53 53 53 52 51 51 52 49 49 48 48 46 45 44 47 43 44 43 43 43 44 46 44 39 39 38 39 39 40 39 36 39 38 38 36 35 -209 24 22 21 21 21 -193 20 21 23 22 24 23 24 23 22 23 21 20 20 18 19 16 15 15 11 12 11 11 11 10 12 11 12 11 12 11 11 12 12 12 13 12 13 12 12 11 12 11 9 0 0 0 0 0 0 0 0 0 0 10 13 18 15 19 16 19 17 19 20 21 -193 -193 -193 26 27 29 29 27 32 28 29 30 30 29 32 38 38 36 43 51 47 50 50 47 46 -193 48 51 50 54 49 51 53 53 53 54 55 54 55 59 66 63 65 67 67 63 65 66 -193 63 66 68 64 65 69 67 67 66 68 67 65 69 69 70 73 74 74 75 77 80 83 82 82 84 85 86 86 86 87 89 91 92 92 93 92 96 97 99 94 101 103 108 105 -177 -193 287 -177 107 108 108 106 108 108 -193 110 109 114 114 113 113 117 115 114 116 118 115 0 0 0 0 0
    0 0 0 0 0 0 0 0 0 0 0 0 0 0 0 0 0 0 0 0 0 0 0 0 0 0 0 0 0 0 0 0 0 0 0 0 0 0 0 0 0 0 0 0 0 0 0 0 0 0 0 0 0 0 0 0 0 0 0 0 0 0 0 0 0 0 0 0 0 71 70 70 70 69 67 65 66 67 68 61 61 65 61 61 61 60 59 59 57 57 53 -193 53 52 52 51 50 51 51 48 48 48 48 46 45 44 47 43 44 43 43 43 44 46 44 40 40 39 39 40 40 39 36 39 37 38 36 34 -209 23 21 21 21 21 22 21 22 23 22 25 24 24 23 22 23 21 20 19 18 19 16 15 15 12 12 13 13 12 12 13 13 14 13 13 12 12 13 12 12 13 12 12 12 12 11 11 10 9 0 0 0 0 0 0 0 0 0 0 9 11 18 14 19 16 19 18 19 20 21 -193 -193 -193 25 27 28 29 27 32 28 29 31 31 29 33 39 38 36 43 51 47 49 50 47 45 -177 48 51 49 54 49 50 53 53 53 54 55 54 55 59 66 62 65 67 66 63 65 66 -193 63 66 68 63 65 69 67 67 66 68 67 65 69 68 70 72 74 74 75 77 79 83 83 82 84 85 86 86 86 87 89 91 92 91 93 92 95 96 98 93 100 103 107 -193 -177 -193 287 -177 107 108 107 -193 108 109 -193 110 109 114 113 113 113 116 115 115 117 118 115 0 0 0 0 0
    0 0 0 0 0 0 0 0 0 0 0 0 0 0 0 0 0 0 0 0 0 0 0 0 0 0 0 0 0 0 0 0 0 0 0 0 0 0 0 0 0 0 0 0 0 0 0 0 0 0 0 0 0 0 0 0 0 0 0 0 0 0 0 0 0 0 0 0 0 71 71 70 70 69 66 64 65 66 66 61 60 64 61 60 61 60 59 59 56 56 53 53 52 52 52 51 50 51 51 48 48 48 48 46 45 44 46 43 44 43 43 43 44 46 44 41 40 39 40 40 41 40 36 40 37 38 36 34 23 23 21 21 21 21 23 21 22 24 23 26 24 24 23 22 22 21 20 19 18 19 16 15 15 12 13 15 14 13 13 14 14 15 14 14 12 13 13 12 13 13 11 12 11 11 11 11 10 8 9 0 0 0 0 0 0 0 0 0 0 9 19 15 19 17 20 18 20 21 22 -193 24 -177 25 27 28 29 27 31 28 29 30 31 29 32 38 39 37 43 51 47 50 50 47 46 -177 48 50 48 54 48 50 53 52 53 53 55 54 56 59 65 61 64 66 66 62 64 65 -193 63 66 67 63 65 68 67 67 66 68 67 65 69 68 69 72 73 74 75 77 79 83 83 83 84 85 86 86 86 87 89 91 92 -177 93 92 95 96 98 92 99 102 106 103 -177 285 287 -177 107 108 107 -193 108 109 -193 110 109 114 113 113 113 116 115 115 118 119 116 0 0 0 0 0
    0 0 0 0 0 0 0 0 0 0 0 0 0 0 0 0 0 0 0 0 0 0 0 0 0 0 0 0 0 0 0 0 0 0 0 0 0 0 0 0 0 0 0 0 0 0 0 0 0 0 0 0 0 0 0 0 0 0 0 0 0 0 0 0 0 0 0 0 0 71 70 70 69 68 65 63 65 65 66 61 60 63 60 60 60 59 58 59 56 55 53 53 52 52 52 51 50 51 51 48 48 48 48 47 45 44 45 43 43 42 42 42 43 45 44 41 41 40 40 40 41 40 37 40 37 37 36 33 23 23 20 20 21 22 23 21 22 24 23 26 25 24 23 22 22 20 20 20 17 19 16 15 16 13 14 17 15 15 14 15 15 17 15 15 12 12 12 12 12 12 11 11 11 11 10 10 10 0 9 0 0 0 0 0 0 0 9 0 9 10 21 16 20 19 20 19 20 22 22 -193 25 -193 26 28 29 29 27 31 28 30 31 31 29 33 38 39 38 42 50 46 49 49 46 45 46 46 48 46 53 46 49 52 52 53 53 56 55 57 59 63 61 63 65 65 62 64 64 65 63 66 67 63 65 68 67 67 67 68 67 66 70 69 69 72 73 74 74 76 78 84 83 83 85 85 86 86 86 87 89 91 92 -177 93 93 95 96 98 92 99 101 105 102 -177 285 287 -177 107 108 107 -193 108 109 113 110 109 114 113 113 113 116 115 115 -193 119 117 0 0 0 0 0
    0 0 0 0 0 0 0 0 0 0 0 0 0 0 0 0 0 0 0 0 0 0 0 0 0 0 0 0 0 0 0 0 0 0 0 0 0 0 0 0 0 0 0 0 0 0 0 0 0 0 0 0 0 0 0 0 0 0 0 0 0 0 0 0 0 0 0 0 0 70 70 70 69 68 65 63 65 66 67 61 61 63 61 60 60 59 58 58 56 55 53 52 52 51 51 51 50 51 51 48 49 48 48 47 46 44 45 43 43 42 42 41 42 44 43 41 41 40 41 41 42 40 37 40 37 37 36 33 23 23 21 21 21 22 23 22 23 25 25 27 26 24 23 22 22 20 20 20 18 19 16 16 16 15 15 19 16 17 15 17 17 18 17 17 13 13 12 13 12 12 10 11 11 11 10 10 9 0 9 0 0 0 0 0 9 9 10 9 10 11 23 18 21 20 21 20 21 23 23 24 25 25 27 28 29 30 27 32 28 30 31 32 30 33 38 39 38 41 47 45 48 48 46 44 45 46 47 46 52 46 48 51 52 52 53 56 56 57 59 62 60 62 64 65 61 63 64 64 63 66 67 64 65 69 68 67 67 69 68 67 70 70 70 73 74 74 74 76 78 84 84 84 85 85 86 86 86 87 89 90 91 -177 92 93 96 97 98 92 98 101 104 101 -193 285 287 -177 107 107 107 -193 109 110 114 111 109 114 113 113 113 116 116 -193 -193 120 -193 0 0 0 0 0
    0 0 0 0 0 0 0 0 0 0 0 0 0 0 0 0 0 0 0 0 0 0 0 0 0 0 0 0 0 0 0 0 0 0 0 0 0 0 0 0 0 0 0 0 0 0 0 0 0 0 0 0 0 0 0 0 0 0 0 0 0 0 0 0 0 0 0 0 0 71 70 70 69 69 65 64 65 66 67 62 61 63 60 60 60 59 58 58 55 55 54 52 51 50 51 50 50 51 51 48 49 48 48 47 46 44 45 42 42 41 41 41 41 43 42 41 40 40 40 40 41 40 37 40 37 37 37 33 23 23 21 21 22 23 24 23 24 26 26 28 27 25 24 22 22 21 20 20 18 19 17 16 17 16 16 19 16 18 15 17 17 18 17 17 13 14 12 12 12 12 9 9 10 10 10 9 9 0 0 0 9 8 0 9 9 10 11 10 11 13 24 19 21 21 21 21 22 24 24 25 26 26 27 29 30 30 28 32 29 31 32 33 31 33 37 38 37 40 45 44 47 47 46 45 45 46 47 46 52 45 48 51 51 52 53 57 56 57 59 61 60 61 63 64 61 63 63 64 63 66 67 64 65 69 68 68 68 70 69 69 72 71 71 74 74 75 74 76 78 85 84 85 85 86 86 86 86 87 89 90 91 -177 92 93 96 97 98 92 97 100 103 100 100 285 287 -177 106 107 107 -193 109 111 114 111 109 114 113 113 113 116 116 -193 -177 -193 -193 0 0 0 0 0
    0 0 0 0 0 0 0 0 0 0 0 0 0 0 0 0 0 0 0 0 0 0 0 0 0 0 0 0 0 0 0 0 0 0 0 0 0 0 0 0 0 0 0 0 0 0 0 0 0 0 0 0 0 0 0 0 0 0 0 0 0 0 0 0 0 0 0 0 0 70 70 70 69 69 66 65 66 67 68 62 61 63 61 60 60 59 58 58 56 55 54 52 51 50 51 50 49 51 51 48 49 48 48 47 46 44 44 42 42 41 41 41 41 43 42 41 40 40 40 40 40 40 37 40 37 38 37 32 24 24 22 22 23 23 24 25 25 27 27 28 28 26 25 23 22 21 21 21 18 20 17 16 18 17 17 19 16 19 16 17 18 19 18 18 15 16 13 13 13 12 9 9 9 9 9 9 0 0 0 0 9 9 9 9 10 11 12 11 13 15 23 19 21 21 21 21 22 24 24 26 27 27 28 30 30 31 29 33 30 31 32 33 31 33 36 36 36 39 43 43 46 47 46 45 46 47 48 48 52 47 49 51 51 51 53 56 56 57 59 59 59 60 62 64 61 62 63 63 63 66 67 64 65 69 68 68 68 71 70 70 72 72 73 74 75 76 74 77 79 86 85 85 85 86 85 86 86 86 89 90 -193 91 92 93 97 97 98 92 97 99 102 99 99 -193 287 -177 106 107 107 -193 109 111 115 112 109 114 114 114 113 116 -193 -193 -177 122 -209 0 0 0 0 0
    0 0 0 0 0 0 0 0 0 0 0 0 0 0 0 0 0 0 0 0 0 0 0 0 0 0 0 0 0 0 0 0 0 0 0 0 0 0 0 0 0 0 0 0 0 0 0 0 0 0 0 0 0 0 0 0 0 0 0 0 0 0 0 0 0 0 0 0 0 70 70 70 68 69 66 65 66 67 68 63 61 63 61 61 61 60 59 58 56 56 55 52 52 51 51 50 49 50 51 47 48 48 48 47 46 44 44 42 42 41 41 41 41 43 42 41 39 40 39 40 40 39 36 39 37 38 37 32 -193 24 23 23 23 24 25 26 27 27 28 28 28 26 25 24 21 21 20 21 18 20 18 16 18 17 17 19 16 18 16 17 19 19 19 19 16 17 14 14 14 13 10 10 10 10 10 9 9 0 0 0 9 0 9 9 10 11 12 11 14 16 23 19 20 21 21 22 22 24 25 26 27 28 29 30 30 31 30 32 30 31 32 33 32 33 36 36 36 38 42 42 45 46 46 45 46 46 47 47 51 46 49 50 50 49 53 57 56 57 59 59 58 60 62 63 61 62 62 63 63 65 66 64 64 69 68 68 69 71 70 70 73 73 73 75 75 76 74 77 79 86 85 86 85 86 85 85 85 86 89 90 91 91 -177 94 97 98 98 92 97 99 102 99 99 -193 288 286 106 107 106 -193 109 111 115 112 109 115 114 114 114 117 -193 -193 -193 123 -209 0 0 0 0 0</data></disparity>
</opencv_storage>
