<?xml version="1.0"?>
<opencv_storage>
<gps_time_stamp>280043</gps_time_stamp>
<gps_x>-1.3983270645141602e+001</gps_x>
<gps_y>1.1276431083679199e+001</gps_y>
<gps_z>-2.2922122478485107e+000</gps_z>
<image_time_stamp>270771</image_time_stamp>
<disparity type_id="opencv-matrix">
  <rows>94</rows>
  <cols>320</cols>
  <dt>s</dt>
  <data>
    0 0 0 0 0 0 0 0 0 0 0 0 0 0 0 0 0 0 0 0 0 0 0 0 0 0 0 0 0 0 0 0 0 0 0 0 0 0 0 0 0 0 0 0 0 0 0 0 0 0 0 0 0 0 0 0 0 0 0 0 0 0 0 0 0 0 0 0 0 37 37 35 36 33 28 27 25 24 24 25 25 26 26 26 28 28 29 29 28 28 28 29 31 26 27 27 27 28 28 29 29 28 28 29 31 -193 -193 -193 29 29 31 35 30 33 22 22 23 28 -193 28 28 28 28 30 32 31 29 31 31 33 34 30 28 27 27 26 25 24 26 27 26 30 29 31 34 33 33 34 33 36 36 37 37 32 36 34 34 37 36 29 34 33 38 37 39 33 29 31 31 31 31 31 31 29 32 34 35 36 38 37 37 36 36 34 35 34 33 32 32 32 31 31 32 31 33 32 31 32 31 33 33 33 31 30 32 30 30 32 33 32 33 37 36 35 37 38 38 39 38 40 35 37 34 34 34 34 33 33 30 33 27 34 34 30 27 28 29 32 -209 -209 -193 -209 -193 60 -209 -209 -209 -209 -209 -193 -209 79 -193 82 -193 -209 -209 -209 36 38 39 38 39 38 39 39 39 39 40 39 42 40 41 -193 -177 -177 42 41 42 41 42 43 42 43 41 42 42 41 38 33 -193 27 36 -193 -193 53 56 55 55 55 57 56 56 56 56 55 56 56 56 55 56 -193 -193 58 58 0 0 0 0 0
    0 0 0 0 0 0 0 0 0 0 0 0 0 0 0 0 0 0 0 0 0 0 0 0 0 0 0 0 0 0 0 0 0 0 0 0 0 0 0 0 0 0 0 0 0 0 0 0 0 0 0 0 0 0 0 0 0 0 0 0 0 0 0 0 0 0 0 0 0 36 36 34 34 31 27 26 26 25 25 26 26 27 26 26 29 28 29 29 28 28 28 29 31 26 27 27 27 27 28 29 30 28 29 29 -193 -193 -193 -193 29 29 30 33 28 31 -193 22 -193 -193 -193 -193 27 27 27 29 31 30 27 29 29 31 34 33 31 29 29 28 26 26 26 28 26 29 27 29 32 32 32 34 32 37 36 37 36 33 34 33 31 35 32 29 32 30 34 35 39 31 28 29 29 29 28 29 28 27 30 32 33 35 38 36 36 36 37 34 35 34 33 34 33 32 32 30 32 32 33 32 31 32 32 32 34 33 31 31 32 30 31 32 33 32 34 36 35 34 36 37 38 38 37 40 34 37 34 34 34 33 33 33 30 33 27 34 34 29 28 28 31 33 37 -209 53 60 -209 -209 -209 34 -209 -209 -209 -209 -209 -193 -209 -193 -209 -209 -193 -209 36 39 39 38 40 39 39 39 39 39 40 39 41 39 -193 -193 -177 -177 -193 41 42 41 42 42 42 43 41 42 42 41 37 31 -193 26 34 -209 -193 54 56 55 55 56 57 56 56 57 56 56 57 57 57 56 57 57 57 59 60 0 0 0 0 0
    0 0 0 0 0 0 0 0 0 0 0 0 0 0 0 0 0 0 0 0 0 0 0 0 0 0 0 0 0 0 0 0 0 0 0 0 0 0 0 0 0 0 0 0 0 0 0 0 0 0 0 0 0 0 0 0 0 0 0 0 0 0 0 0 0 0 0 0 0 35 34 33 32 29 26 25 27 26 26 27 27 27 26 26 29 28 28 28 28 28 28 29 31 26 28 28 28 28 29 30 31 29 30 30 31 -193 -193 30 29 29 29 31 28 31 -209 -193 -193 -193 -193 -193 -193 27 26 29 30 29 26 27 28 29 35 34 32 30 30 29 28 28 28 29 26 28 27 28 30 30 30 33 31 36 35 36 35 33 34 33 31 34 30 29 31 29 30 32 37 29 26 28 27 27 26 27 26 24 28 30 -193 -193 -193 35 35 35 37 34 35 34 34 34 32 32 32 30 32 32 32 32 31 32 32 32 36 33 31 31 33 32 35 35 36 35 36 37 36 34 36 36 37 36 36 39 34 36 33 33 34 33 33 33 30 33 28 34 34 28 28 28 31 33 36 38 46 -209 38 37 39 34 35 -193 -209 -193 -193 -209 -209 -209 -209 -209 -193 -209 38 40 39 39 40 39 39 39 39 39 40 39 41 -193 -193 -177 -177 -177 -193 40 41 40 41 42 41 42 41 41 41 41 41 37 32 28 -209 -209 -193 55 56 56 55 55 57 56 56 57 56 56 57 58 58 57 57 58 58 60 61 0 0 0 0 0
    0 0 0 0 0 0 0 0 0 0 0 0 0 0 0 0 0 0 0 0 0 0 0 0 0 0 0 0 0 0 0 0 0 0 0 0 0 0 0 0 0 0 0 0 0 0 0 0 0 0 0 0 0 0 0 0 0 0 0 0 0 0 0 0 0 0 0 0 0 34 32 31 30 29 26 26 28 26 27 27 27 27 26 26 29 27 28 28 28 28 28 29 31 27 29 29 29 29 30 31 31 29 30 30 30 30 30 29 28 29 28 29 26 29 -193 -193 -193 -193 -193 -193 -193 -193 -193 28 29 29 25 26 26 29 37 35 32 31 30 30 29 30 30 31 28 29 27 27 29 29 29 33 32 37 35 36 36 35 34 33 31 33 28 28 28 27 27 28 34 26 23 25 24 25 24 25 23 23 26 -209 -209 -193 37 35 35 33 36 34 35 34 33 34 32 32 33 30 31 32 32 32 31 32 33 32 36 34 31 32 34 33 36 36 36 36 36 37 36 33 36 36 37 36 35 39 34 36 33 34 34 33 33 33 30 34 28 35 34 28 28 28 31 34 37 37 43 -193 37 37 39 36 37 -193 -209 -209 -193 -193 -209 -209 -193 -209 -209 -209 39 -209 40 39 40 39 39 39 39 40 40 39 40 -193 -177 -177 -177 -177 -193 39 41 39 41 41 41 42 40 40 40 41 40 39 41 36 -209 -209 55 55 56 56 55 55 57 56 56 56 56 57 57 58 58 57 58 59 59 60 61 0 0 0 0 0
    0 0 0 0 0 0 0 0 0 0 0 0 0 0 0 0 0 0 0 0 0 0 0 0 0 0 0 0 0 0 0 0 0 0 0 0 0 0 0 0 0 0 0 0 0 0 0 0 0 0 0 0 0 0 0 0 0 0 0 0 0 0 0 0 0 0 0 0 0 34 32 31 30 28 26 26 28 26 28 28 27 27 27 26 30 28 29 27 28 28 -193 29 31 27 29 29 29 29 30 31 31 29 30 29 29 28 28 28 26 27 27 27 26 28 25 25 -193 -193 -193 -193 691 -193 -193 29 30 29 25 26 26 28 36 35 33 32 31 31 31 31 32 33 29 29 27 27 28 28 27 33 33 38 36 36 36 36 35 34 32 33 27 27 25 25 24 25 29 23 21 23 22 23 22 24 21 21 24 -193 -209 31 37 34 34 33 36 34 35 34 34 34 32 32 34 31 33 34 34 34 33 34 35 34 38 36 31 31 33 32 35 35 35 34 36 36 36 33 35 36 37 36 35 39 34 37 34 34 35 34 33 34 30 34 28 35 33 27 27 27 28 33 39 -193 45 -193 37 -193 39 40 -193 -209 -209 -209 -193 -193 -209 -193 -193 -209 -193 -209 -209 -209 39 39 41 39 39 39 39 39 40 39 40 -177 -177 -177 -177 -177 -193 39 41 39 41 41 41 41 40 40 40 41 40 40 42 41 46 -193 -193 55 56 56 55 55 57 56 56 56 56 57 58 59 59 58 59 60 60 62 63 0 0 0 0 0
    0 0 0 0 0 0 0 0 0 0 0 0 0 0 0 0 0 0 0 0 0 0 0 0 0 0 0 0 0 0 0 0 0 0 0 0 0 0 0 0 0 0 0 0 0 0 0 0 0 0 0 0 0 0 0 0 0 0 0 0 0 0 0 0 0 0 0 0 0 32 31 30 28 27 26 26 28 26 28 28 27 27 26 26 29 27 28 27 28 27 -193 29 31 26 29 29 29 29 30 31 31 29 29 28 27 27 27 26 26 26 26 27 26 28 26 25 26 31 28 29 691 -193 -193 29 30 30 25 26 26 28 33 33 32 32 30 31 31 31 32 33 30 30 28 28 29 29 27 34 36 40 36 36 36 36 36 35 33 33 27 26 24 23 22 23 28 22 21 23 22 22 21 22 18 18 22 22 -209 30 36 34 33 33 36 33 34 33 34 34 32 32 35 32 34 35 35 35 35 36 37 35 39 36 31 30 31 30 33 34 33 31 33 32 33 31 33 34 36 35 34 39 34 37 34 34 35 34 34 34 31 34 29 35 33 27 26 -193 25 -209 -209 -209 -193 -209 -209 -209 -209 43 -193 -209 -209 -209 -193 -209 -209 -193 -209 -209 257 256 -209 -209 40 40 41 39 39 39 39 38 39 38 40 -177 -193 -193 -193 -177 40 39 41 39 41 41 41 41 40 41 40 41 41 42 46 45 53 57 -193 56 56 56 55 55 57 56 56 56 56 57 58 59 59 58 59 60 60 62 63 0 0 0 0 0
    0 0 0 0 0 0 0 0 0 0 0 0 0 0 0 0 0 0 0 0 0 0 0 0 0 0 0 0 0 0 0 0 0 0 0 0 0 0 0 0 0 0 0 0 0 0 0 0 0 0 0 0 0 0 0 0 0 0 0 0 0 0 0 0 0 0 0 0 0 29 29 28 26 26 25 26 27 26 28 27 27 27 26 26 29 27 28 27 28 27 -193 29 31 26 30 29 30 28 30 31 31 30 29 28 27 27 27 27 27 27 27 27 26 28 26 26 26 31 28 29 691 29 -193 29 30 30 25 26 26 28 31 31 31 31 30 30 31 31 32 33 31 31 29 30 32 32 30 37 -193 41 37 37 37 37 36 36 34 33 27 28 26 25 23 24 28 24 23 24 23 24 22 23 18 19 22 22 -209 30 34 33 32 32 34 31 33 31 32 34 31 32 35 34 35 36 36 36 36 38 39 38 39 37 31 31 32 32 35 35 34 32 33 31 33 32 -193 -193 -193 34 33 38 34 37 34 35 35 34 34 34 31 35 30 36 33 27 -193 -193 -209 -209 -209 -209 -193 -209 -209 -209 43 43 43 -209 43 -193 45 -193 -193 -193 -193 259 258 258 -209 -209 40 40 41 39 39 39 39 38 39 38 39 -193 -193 -193 39 -193 40 39 41 40 41 41 41 42 40 41 41 42 42 43 50 52 55 58 58 56 56 56 55 55 57 56 56 56 56 57 58 59 59 58 60 61 61 63 63 0 0 0 0 0
    0 0 0 0 0 0 0 0 0 0 0 0 0 0 0 0 0 0 0 0 0 0 0 0 0 0 0 0 0 0 0 0 0 0 0 0 0 0 0 0 0 0 0 0 0 0 0 0 0 0 0 0 0 0 0 0 0 0 0 0 0 0 0 0 0 0 0 0 0 28 28 27 26 26 25 25 26 25 28 27 26 26 24 24 28 27 28 26 28 28 28 29 31 26 30 30 30 27 29 30 31 30 29 29 28 27 29 28 28 28 27 27 26 28 27 26 26 31 28 29 690 -193 -193 29 29 29 25 25 25 26 29 30 30 31 30 30 31 32 33 34 34 33 32 34 36 37 35 39 -193 41 38 37 37 37 36 36 34 32 27 29 27 27 24 27 30 28 26 27 26 27 25 26 19 20 23 23 -193 30 33 32 31 31 32 30 32 30 32 33 31 32 36 35 36 37 37 37 37 39 40 39 39 37 28 29 32 32 35 35 35 34 36 31 -193 -193 -193 -193 -193 32 32 38 34 37 34 35 35 35 35 35 32 35 30 36 33 28 -193 -193 23 -209 -209 -209 77 -193 80 -209 43 44 44 -193 45 -193 47 48 -193 -209 -209 -193 258 258 -209 -209 39 39 40 38 39 39 38 38 39 38 39 -193 -193 39 39 -193 40 39 41 40 41 41 41 41 40 41 41 42 42 42 49 52 55 58 58 57 56 -193 55 55 57 56 56 56 56 57 58 59 60 59 60 61 61 63 63 0 0 0 0 0
    0 0 0 0 0 0 0 0 0 0 0 0 0 0 0 0 0 0 0 0 0 0 0 0 0 0 0 0 0 0 0 0 0 0 0 0 0 0 0 0 0 0 0 0 0 0 0 0 0 0 0 0 0 0 0 0 0 0 0 0 0 0 0 0 0 0 0 0 0 27 27 27 26 26 25 26 28 26 29 27 27 27 -193 25 29 27 28 26 29 28 28 29 31 27 30 31 30 28 29 30 30 30 29 29 28 28 29 29 29 29 27 28 26 28 27 26 26 29 27 29 690 -193 687 -193 28 28 -193 24 23 25 27 29 29 30 30 31 32 33 34 35 35 34 34 35 36 36 34 38 41 -193 37 36 36 37 35 35 34 32 27 30 29 29 25 29 30 30 28 29 28 27 26 27 22 22 24 23 34 30 33 32 31 31 32 30 32 29 32 33 31 32 37 37 38 39 39 38 38 41 41 41 38 33 24 23 27 28 31 32 34 -193 -193 -193 -193 -193 -193 -193 -193 30 30 38 34 37 34 36 36 35 35 35 32 36 31 36 32 28 27 -193 25 26 23 27 -209 -209 -209 -209 44 45 45 -193 46 45 48 48 55 -209 -209 -193 259 258 -209 -209 38 38 40 38 39 38 38 37 39 38 39 -193 39 39 39 40 39 39 41 40 41 41 41 41 39 41 41 41 42 42 51 53 56 58 59 57 56 56 55 55 56 56 56 56 56 57 57 59 60 59 60 61 61 63 62 0 0 0 0 0
    0 0 0 0 0 0 0 0 0 0 0 0 0 0 0 0 0 0 0 0 0 0 0 0 0 0 0 0 0 0 0 0 0 0 0 0 0 0 0 0 0 0 0 0 0 0 0 0 0 0 0 0 0 0 0 0 0 0 0 0 0 0 0 0 0 0 0 0 0 27 27 27 26 26 25 27 27 26 29 27 27 27 -193 25 29 27 28 26 29 28 28 30 31 27 31 31 31 28 29 29 30 29 28 29 27 28 29 28 29 29 28 28 27 29 27 27 27 28 27 -193 689 -193 687 -193 27 27 -193 25 24 25 27 28 29 29 30 31 33 34 35 35 35 35 35 36 36 35 34 38 41 -193 36 36 36 37 35 35 34 32 27 31 29 30 25 29 30 30 29 29 28 28 27 28 26 24 25 24 35 31 34 33 32 31 31 31 31 27 31 32 31 32 37 39 39 40 40 40 40 42 42 41 37 32 26 24 27 28 30 31 33 31 34 29 -209 -193 -193 26 33 29 29 38 34 37 35 36 36 36 36 36 33 36 31 36 32 29 27 28 27 27 -193 26 -209 -209 -193 -209 44 44 45 -193 46 45 48 48 54 -193 -193 -193 259 -193 -209 -209 38 38 40 38 38 38 38 38 39 38 39 -193 39 39 39 40 40 39 41 40 41 41 41 41 39 41 41 41 43 46 54 55 57 58 61 58 57 57 55 55 56 55 55 55 56 57 57 59 59 59 60 61 61 64 62 0 0 0 0 0
    0 0 0 0 0 0 0 0 0 0 0 0 0 0 0 0 0 0 0 0 0 0 0 0 0 0 0 0 0 0 0 0 0 0 0 0 0 0 0 0 0 0 0 0 0 0 0 0 0 0 0 0 0 0 0 0 0 0 0 0 0 0 0 0 0 0 0 0 0 27 27 27 26 26 25 28 27 26 29 -177 -177 27 -193 26 28 27 28 26 29 28 28 30 31 28 31 32 31 28 29 29 29 29 27 28 26 27 28 28 28 29 28 28 27 29 27 27 27 -193 -193 -193 689 689 687 -193 27 -193 26 26 25 25 27 27 28 28 29 31 33 35 36 35 36 36 36 36 37 35 34 38 41 -193 36 36 36 37 35 35 34 32 27 31 29 30 25 29 30 29 30 30 29 29 28 29 27 26 26 25 36 31 33 32 31 31 30 30 31 26 30 30 30 32 37 40 40 41 41 41 41 42 43 42 37 33 27 24 27 27 29 29 30 30 31 27 -209 -209 -209 -193 -193 28 28 38 34 37 35 36 36 36 36 36 33 37 32 36 32 30 28 -193 -209 -209 -193 23 -209 -193 144 -193 -209 45 45 -193 47 45 48 47 53 -193 -193 0 -209 -209 -193 -209 38 38 39 38 38 38 38 38 39 39 40 -193 40 40 40 41 40 39 41 41 41 41 41 41 39 42 42 42 44 48 54 55 57 59 61 58 57 58 55 55 56 56 55 55 56 57 57 58 59 59 60 61 61 64 62 0 0 0 0 0
    0 0 0 0 0 0 0 0 0 0 0 0 0 0 0 0 0 0 0 0 0 0 0 0 0 0 0 0 0 0 0 0 0 0 0 0 0 0 0 0 0 0 0 0 0 0 0 0 0 0 0 0 0 0 0 0 0 0 0 0 0 0 0 0 0 0 0 0 0 27 27 27 26 26 25 29 27 26 28 28 -177 27 -193 26 28 28 29 27 29 29 29 30 32 28 31 33 31 28 29 29 29 29 27 28 26 28 28 28 29 29 28 28 27 29 27 27 27 -193 -193 -177 -177 689 688 -193 26 -193 26 27 26 25 28 27 28 29 30 33 35 37 37 36 37 36 36 36 -193 35 35 38 41 -193 35 35 35 36 35 35 33 32 27 31 29 31 25 29 31 30 31 30 30 30 29 30 28 26 27 25 36 31 33 32 31 31 30 29 30 26 29 29 29 31 37 41 41 41 41 41 41 43 43 42 36 34 27 24 26 27 28 27 29 29 30 27 -209 -209 29 -209 -193 30 29 39 35 38 36 37 37 36 36 36 34 37 32 36 32 31 -193 -209 -209 -209 -209 -209 -209 136 -209 -209 -209 -193 46 -209 50 47 50 46 52 -209 -193 0 -209 -209 -209 -209 37 37 39 38 38 38 38 38 40 39 40 40 40 41 41 42 41 40 42 41 41 42 42 42 40 42 43 42 44 50 54 56 58 59 61 58 58 59 56 56 56 56 56 55 56 57 56 58 60 59 60 61 61 64 61 0 0 0 0 0
    0 0 0 0 0 0 0 0 0 0 0 0 0 0 0 0 0 0 0 0 0 0 0 0 0 0 0 0 0 0 0 0 0 0 0 0 0 0 0 0 0 0 0 0 0 0 0 0 0 0 0 0 0 0 0 0 0 0 0 0 0 0 0 0 0 0 0 0 0 28 27 27 26 26 25 30 27 26 28 28 27 27 -193 26 28 28 29 27 30 29 29 30 31 29 31 33 31 29 30 30 30 29 27 29 26 29 29 29 29 29 28 29 27 30 27 27 27 -193 -193 -177 -177 -193 688 -193 26 26 26 28 26 26 29 28 29 31 32 34 37 39 38 36 37 36 36 36 -193 -193 35 38 -193 39 34 34 34 36 34 34 32 32 27 31 30 32 24 29 31 30 31 30 30 31 29 30 28 26 27 25 36 31 32 31 30 30 30 29 29 25 28 28 29 31 37 40 41 41 41 41 41 42 42 42 36 34 29 26 28 28 29 -193 32 33 34 31 -193 35 40 40 42 35 34 40 35 39 36 37 37 37 37 36 34 38 32 36 32 32 28 -193 -193 -209 -209 -209 -209 133 -209 -209 -209 -209 -209 -209 51 46 50 43 47 -209 -209 -209 -209 -209 -209 -209 36 37 39 38 39 39 38 39 40 40 41 40 41 41 41 42 41 40 42 42 42 42 42 43 41 44 45 43 47 53 55 56 58 59 61 59 58 60 56 56 56 56 55 55 56 57 56 58 59 58 59 61 60 63 61 0 0 0 0 0
    0 0 0 0 0 0 0 0 0 0 0 0 0 0 0 0 0 0 0 0 0 0 0 0 0 0 0 0 0 0 0 0 0 0 0 0 0 0 0 0 0 0 0 0 0 0 0 0 0 0 0 0 0 0 0 0 0 0 0 0 0 0 0 0 0 0 0 0 0 27 27 27 26 26 24 31 26 26 28 27 -177 -177 26 26 28 28 29 27 30 29 30 31 32 29 31 33 31 29 30 30 30 29 27 29 27 29 29 29 29 29 29 29 27 30 27 27 28 -177 -177 -177 -177 689 688 691 -193 25 26 28 26 26 29 28 30 33 35 37 37 40 38 36 36 36 36 36 37 35 35 38 37 38 33 33 33 35 33 33 31 31 27 30 29 30 24 29 30 29 30 30 30 31 30 30 28 27 28 26 36 31 32 30 30 30 29 29 29 25 26 27 28 30 37 39 40 40 40 40 40 42 42 41 34 33 28 27 29 30 31 -193 -193 -193 35 35 36 35 38 39 39 35 34 40 35 39 37 37 37 37 37 37 34 38 32 36 31 32 29 -193 -193 -193 -209 -209 -209 133 -193 -209 -209 -209 -209 -209 -209 -209 -209 36 -193 -209 -209 31 36 -209 -193 -209 36 37 39 39 39 39 39 40 40 41 41 41 41 41 41 42 41 41 42 42 42 43 43 43 42 45 47 45 49 53 55 56 58 58 61 58 58 60 56 56 56 56 55 55 55 57 55 58 59 58 59 60 60 62 60 0 0 0 0 0
    0 0 0 0 0 0 0 0 0 0 0 0 0 0 0 0 0 0 0 0 0 0 0 0 0 0 0 0 0 0 0 0 0 0 0 0 0 0 0 0 0 0 0 0 0 0 0 0 0 0 0 0 0 0 0 0 0 0 0 0 0 0 0 0 0 0 0 0 0 28 27 28 26 26 24 32 27 27 29 28 28 -177 27 28 28 29 29 28 30 30 30 31 31 30 31 33 31 29 30 29 29 29 27 29 27 29 29 29 29 30 29 30 28 30 27 27 28 -177 -177 -177 -177 -177 688 690 -193 24 26 28 26 26 30 30 34 38 40 41 39 41 39 36 36 37 36 35 36 35 35 38 36 37 32 32 32 34 33 32 30 30 26 28 26 27 23 27 28 29 30 30 30 30 30 30 28 28 28 26 35 30 31 30 29 29 28 28 28 24 25 26 26 27 35 37 38 39 39 39 38 41 41 39 35 34 28 29 32 32 34 -193 37 37 36 36 36 35 37 37 38 36 35 40 36 39 36 37 37 37 37 36 34 38 32 36 31 32 28 -193 -193 -193 -209 -209 -209 132 -209 -209 -193 -193 24 -209 -209 -209 -209 34 -193 -209 -193 35 -193 -209 -193 -209 37 37 39 39 39 39 39 40 41 41 42 41 41 42 41 42 41 41 42 42 42 43 43 44 43 46 47 45 50 54 55 56 57 57 60 58 57 59 56 56 56 56 55 55 55 57 56 58 59 59 59 61 61 63 61 0 0 0 0 0
    0 0 0 0 0 0 0 0 0 0 0 0 0 0 0 0 0 0 0 0 0 0 0 0 0 0 0 0 0 0 0 0 0 0 0 0 0 0 0 0 0 0 0 0 0 0 0 0 0 0 0 0 0 0 0 0 0 0 0 0 0 0 0 0 0 0 0 0 0 28 28 28 27 27 25 34 29 28 30 29 29 29 28 29 29 29 30 28 31 30 31 32 31 30 31 33 31 29 30 29 29 29 27 29 27 29 29 29 29 30 29 30 28 30 27 28 29 -177 -177 -177 -177 -177 688 690 -193 22 26 28 24 23 25 32 38 41 45 49 42 43 40 37 37 38 37 35 36 35 36 37 34 36 31 31 31 33 32 31 29 29 25 25 24 24 22 26 27 28 29 29 29 30 30 30 27 26 26 24 31 28 29 28 28 28 28 28 28 24 24 25 25 26 34 35 36 37 38 37 37 39 40 36 34 33 27 28 31 31 33 -193 36 36 35 35 35 34 35 35 36 35 35 39 35 38 36 37 37 36 36 36 34 37 31 36 30 31 27 -209 -193 -209 -193 -193 -209 -193 -209 -209 14 18 22 -209 -209 -209 -209 -209 -209 -193 -209 -193 -209 -193 -193 -193 37 38 39 39 39 39 40 40 41 42 42 42 41 42 42 42 41 41 42 42 42 44 44 44 44 47 48 46 51 54 54 55 56 56 59 57 57 59 56 56 56 -193 -193 55 55 56 55 58 59 59 60 61 61 64 62 0 0 0 0 0
    0 0 0 0 0 0 0 0 0 0 0 0 0 0 0 0 0 0 0 0 0 0 0 0 0 0 0 0 0 0 0 0 0 0 0 0 0 0 0 0 0 0 0 0 0 0 0 0 0 0 0 0 0 0 0 0 0 0 0 0 0 0 0 0 0 0 0 0 0 28 28 28 27 27 25 35 30 29 32 30 30 29 29 31 29 30 30 28 30 30 31 31 30 30 31 33 31 29 30 29 29 29 27 29 26 29 28 29 29 30 29 30 28 30 27 28 29 -177 -177 -177 -177 -177 688 690 -193 21 26 28 24 25 30 36 37 37 40 -193 -193 41 40 35 36 37 36 34 35 34 36 38 32 35 30 30 31 32 31 30 28 29 25 24 23 22 21 25 26 27 28 28 28 30 30 29 27 26 25 23 29 27 28 27 28 27 27 28 28 24 24 25 26 26 34 34 35 37 37 37 35 38 39 34 34 34 27 28 32 32 34 -193 36 37 36 36 37 36 36 36 36 36 35 39 35 38 36 37 36 36 36 36 33 37 31 37 29 31 28 -209 -193 -209 -209 -209 -209 -209 -209 -209 13 17 21 -193 -209 -209 -209 -193 -209 -209 -209 -209 -193 -209 40 45 37 38 40 39 40 40 40 41 41 42 42 42 42 42 42 42 42 41 43 43 42 44 44 45 45 48 49 47 51 54 54 54 56 56 58 57 57 59 55 55 -193 -193 -193 55 55 56 55 58 60 59 60 61 61 63 62 0 0 0 0 0
    0 0 0 0 0 0 0 0 0 0 0 0 0 0 0 0 0 0 0 0 0 0 0 0 0 0 0 0 0 0 0 0 0 0 0 0 0 0 0 0 0 0 0 0 0 0 0 0 0 0 0 0 0 0 0 0 0 0 0 0 0 0 0 0 0 0 0 0 0 28 28 29 27 28 25 36 30 30 32 31 30 29 29 31 29 29 29 27 29 29 31 31 30 30 30 33 31 30 30 29 29 29 27 29 26 29 28 28 28 29 29 31 29 30 27 28 30 -177 -177 -177 -177 -177 689 691 -193 22 26 29 25 27 34 37 38 37 38 -193 -193 -193 -193 -193 34 36 36 33 -193 34 36 38 -193 34 29 29 30 31 30 29 28 29 24 24 22 21 21 24 25 27 28 28 28 30 30 29 26 25 25 23 27 26 27 26 27 27 26 27 28 23 23 25 26 26 34 33 34 36 36 36 34 38 38 33 35 35 28 30 36 35 37 38 38 38 37 37 -193 38 38 37 36 36 35 39 35 38 35 36 36 36 36 36 -193 -193 31 37 30 32 28 -193 -193 -193 -193 -209 -193 -209 -209 -209 14 17 22 24 -209 -193 26 33 37 -193 40 42 44 44 40 43 38 39 40 39 40 40 40 41 42 42 42 43 42 42 42 42 42 42 43 43 42 44 45 45 45 48 49 47 51 53 54 54 55 55 57 56 56 59 55 55 -193 -193 -193 55 55 56 55 58 60 59 60 61 61 63 62 0 0 0 0 0
    0 0 0 0 0 0 0 0 0 0 0 0 0 0 0 0 0 0 0 0 0 0 0 0 0 0 0 0 0 0 0 0 0 0 0 0 0 0 0 0 0 0 0 0 0 0 0 0 0 0 0 0 0 0 0 0 0 0 0 0 0 0 0 0 0 0 0 0 0 29 29 30 28 28 26 36 30 29 32 30 29 29 28 31 28 29 29 27 28 29 30 31 29 31 30 33 31 30 30 30 30 29 27 29 26 29 28 28 28 29 29 30 29 30 27 27 30 -177 -177 -177 -177 -177 689 692 -193 23 26 30 24 28 33 38 39 36 36 -209 -209 -193 -193 -193 32 35 35 32 -193 34 37 -193 -193 32 28 28 29 30 29 28 27 29 23 23 22 20 20 24 25 27 28 28 28 30 30 29 25 24 24 22 -193 25 26 26 26 26 26 26 28 23 23 26 26 26 33 32 33 35 35 35 32 37 37 31 36 36 -193 31 39 38 39 40 39 39 -193 -193 -193 -193 -193 37 35 35 34 39 34 37 35 36 36 36 36 36 -193 -193 30 38 29 30 -193 0 0 -193 0 -193 -193 -193 -209 -209 12 15 20 21 20 -209 26 32 -193 38 40 42 44 42 39 41 38 39 39 39 39 39 40 41 41 42 42 43 42 42 42 42 42 42 43 43 42 44 45 45 45 48 48 46 50 52 53 53 54 55 56 56 56 58 55 55 -193 -193 -193 55 56 56 55 58 59 59 60 61 61 62 61 0 0 0 0 0
    0 0 0 0 0 0 0 0 0 0 0 0 0 0 0 0 0 0 0 0 0 0 0 0 0 0 0 0 0 0 0 0 0 0 0 0 0 0 0 0 0 0 0 0 0 0 0 0 0 0 0 0 0 0 0 0 0 0 0 0 0 0 0 0 0 0 0 0 0 29 29 31 28 28 25 35 29 28 30 29 -177 28 27 30 28 29 29 27 28 28 30 31 28 30 29 31 30 30 30 30 30 30 28 30 27 30 29 29 29 30 30 30 29 30 26 27 31 -177 -177 -177 -177 688 690 -193 28 23 27 30 21 -209 -209 40 -209 -209 -209 -209 -209 -209 -209 -209 -209 -209 -193 -193 -193 -193 -193 37 -193 31 28 28 28 29 28 27 -193 28 22 23 21 19 20 24 25 26 28 28 28 29 30 29 25 24 24 22 -193 -193 26 25 26 25 26 26 28 23 24 27 26 26 33 31 32 34 34 34 31 36 36 29 36 36 -193 -193 -209 -193 41 43 41 40 -193 -193 -193 -193 -193 35 33 35 34 39 34 37 34 35 36 36 35 35 -193 -193 30 38 29 30 -209 -193 -193 -193 -193 -193 -193 -193 -209 -209 13 15 20 19 20 -209 27 32 35 38 39 42 42 40 37 39 37 39 39 39 39 39 40 41 41 42 42 43 42 42 41 42 41 42 43 43 42 44 45 45 46 48 48 46 50 52 53 53 54 54 55 55 55 57 55 55 -193 -193 -193 55 56 56 55 58 59 59 60 61 61 62 61 0 0 0 0 0
    0 0 0 0 0 0 0 0 0 0 0 0 0 0 0 0 0 0 0 0 0 0 0 0 0 0 0 0 0 0 0 0 0 0 0 0 0 0 0 0 0 0 0 0 0 0 0 0 0 0 0 0 0 0 0 0 0 0 0 0 0 0 0 0 0 0 0 0 0 29 30 32 28 28 25 33 27 27 29 -177 -177 -193 26 29 27 28 28 27 27 28 30 31 27 29 29 30 30 30 30 29 30 30 28 30 27 30 30 30 29 30 30 31 30 30 27 27 33 -193 -193 -193 689 688 690 -193 29 25 27 30 22 -209 -209 -209 -209 -209 30 -209 -193 -209 -209 -209 -209 37 -193 -193 -193 36 -193 37 -193 31 28 28 28 29 28 27 -193 28 23 24 22 20 21 26 25 27 28 28 29 30 30 29 25 24 24 22 -193 24 25 25 26 25 26 26 28 24 24 28 26 26 33 31 31 33 33 33 31 35 36 28 35 35 -193 -193 -209 -193 43 46 43 43 41 -193 -193 -193 -193 33 31 33 34 39 34 37 34 35 36 36 35 35 31 35 29 38 30 29 27 -209 -193 43 -193 -209 -209 -193 11 16 17 18 21 20 21 21 26 29 29 35 38 40 41 39 36 37 37 39 39 39 39 39 40 41 41 41 41 43 41 41 41 42 41 42 43 43 42 44 45 44 45 47 47 46 51 53 54 52 54 54 55 54 55 57 55 55 -193 -193 -193 55 56 56 55 58 59 59 60 61 61 62 62 0 0 0 0 0
    0 0 0 0 0 0 0 0 0 0 0 0 0 0 0 0 0 0 0 0 0 0 0 0 0 0 0 0 0 0 0 0 0 0 0 0 0 0 0 0 0 0 0 0 0 0 0 0 0 0 0 0 0 0 0 0 0 0 0 0 0 0 0 0 0 0 0 0 0 28 30 33 28 28 26 29 26 26 27 -177 -177 -209 25 28 27 28 28 -193 -193 28 30 31 26 29 28 29 30 31 29 29 29 29 27 29 27 29 28 29 29 30 31 32 31 30 27 27 34 -193 -193 -193 689 688 690 -193 29 -193 27 31 -209 -209 -209 -209 -209 28 29 34 -209 -193 -209 -209 35 36 -193 -193 -193 36 -193 37 27 31 28 28 28 29 28 27 -193 28 23 24 23 21 22 27 26 27 29 29 30 31 31 30 25 25 25 22 -193 24 25 25 26 25 26 25 28 24 25 28 26 26 33 30 31 32 32 32 30 35 35 27 33 32 22 21 -209 -209 43 46 43 45 40 40 -193 38 36 32 30 32 34 39 34 37 34 35 36 36 35 35 31 35 29 38 31 28 -209 -209 -209 -193 -209 -209 -209 13 17 21 21 23 25 25 26 27 29 31 32 36 37 37 40 39 35 36 38 39 38 38 39 39 39 42 41 41 40 43 41 41 41 42 41 42 43 43 41 43 44 44 45 47 47 46 51 53 54 52 53 53 55 53 54 56 54 55 -193 -193 -193 55 56 57 56 58 59 59 60 61 61 62 62 0 0 0 0 0
    0 0 0 0 0 0 0 0 0 0 0 0 0 0 0 0 0 0 0 0 0 0 0 0 0 0 0 0 0 0 0 0 0 0 0 0 0 0 0 0 0 0 0 0 0 0 0 0 0 0 0 0 0 0 0 0 0 0 0 0 0 0 0 0 0 0 0 0 0 27 29 35 28 27 26 27 25 25 26 -177 -193 -193 24 28 26 28 -193 164 164 -193 29 31 26 28 28 27 29 31 28 27 27 29 26 26 26 27 26 29 30 30 29 32 30 30 27 27 34 29 28 -193 -177 688 690 -193 29 -193 26 29 -209 -209 -209 -209 -209 -209 -193 -193 -209 -193 -209 -209 33 34 36 -193 -193 35 -193 37 27 31 28 28 28 29 28 27 -193 28 25 26 24 23 23 28 27 28 30 30 31 31 32 31 26 25 26 23 25 24 25 25 26 25 26 25 29 25 27 28 25 26 33 30 30 32 31 31 30 34 34 26 30 30 -193 22 -209 -209 -209 -209 -209 46 -209 -193 -193 -193 -193 31 30 32 35 39 35 37 34 35 36 36 36 35 32 35 30 39 35 29 -209 -209 -209 -209 -209 -209 -209 14 19 23 24 28 31 30 31 31 32 34 35 36 37 37 40 39 36 36 38 39 38 38 38 38 38 41 40 40 40 44 41 41 41 41 41 42 42 42 41 43 44 43 44 46 46 45 51 53 54 52 53 53 54 53 54 56 55 55 56 55 56 55 56 57 -193 58 59 59 60 61 61 61 61 0 0 0 0 0
    0 0 0 0 0 0 0 0 0 0 0 0 0 0 0 0 0 0 0 0 0 0 0 0 0 0 0 0 0 0 0 0 0 0 0 0 0 0 0 0 0 0 0 0 0 0 0 0 0 0 0 0 0 0 0 0 0 0 0 0 0 0 0 0 0 0 0 0 0 -193 33 39 28 28 28 26 25 25 -177 -177 -177 -193 23 -193 26 27 164 165 165 -177 29 31 25 27 27 26 28 31 28 -193 -193 -209 -209 -193 23 -209 25 27 30 28 29 32 31 33 28 28 36 30 29 -193 -193 -193 -193 -193 -193 -193 -193 27 -193 -209 23 -193 -209 -209 -209 -209 -209 -209 -209 -209 -193 31 32 30 31 34 38 36 27 31 28 28 28 29 28 27 -193 29 26 28 28 27 25 29 28 29 30 31 31 31 31 31 28 26 27 23 25 24 26 26 26 25 26 25 30 30 32 32 27 28 35 31 32 32 32 32 30 34 34 26 28 29 25 22 27 31 -209 -209 -209 41 -193 -209 40 41 -209 32 31 33 37 39 35 37 34 35 36 36 36 35 32 35 30 40 -209 31 -209 -209 -209 -209 -209 -193 -209 13 19 23 24 29 31 30 32 32 33 34 34 35 36 36 39 37 35 35 37 38 37 37 37 37 37 41 40 40 39 43 41 41 41 41 41 42 42 42 41 43 44 43 44 45 45 45 50 53 54 53 54 54 55 54 54 56 55 55 56 56 56 56 57 57 -193 58 59 58 59 60 60 60 60 0 0 0 0 0
    0 0 0 0 0 0 0 0 0 0 0 0 0 0 0 0 0 0 0 0 0 0 0 0 0 0 0 0 0 0 0 0 0 0 0 0 0 0 0 0 0 0 0 0 0 0 0 0 0 0 0 0 0 0 0 0 0 0 0 0 0 0 0 0 0 0 0 0 0 -209 35 41 29 28 30 26 25 26 26 25 -177 -177 -193 -193 26 27 -193 165 -193 -177 29 30 25 26 27 26 27 34 -209 -209 -209 -209 -209 -209 -209 -209 -209 28 32 31 32 36 36 37 29 30 37 31 31 30 29 29 28 30 30 -193 27 27 -193 -193 30 32 -209 -193 27 -209 -209 -209 -193 31 29 30 30 29 30 33 37 36 27 31 28 28 28 28 28 27 -193 29 26 30 31 30 27 30 30 31 31 32 32 31 31 32 29 28 29 26 27 25 27 27 26 25 26 24 32 37 35 35 28 28 36 31 32 32 31 31 30 33 34 26 28 30 27 25 31 36 36 38 39 40 40 41 40 41 39 32 30 31 37 39 35 38 34 35 36 36 36 35 33 36 31 40 -209 39 -193 46 47 49 46 50 -193 -193 19 24 24 30 31 31 33 32 34 34 34 35 35 36 38 37 34 33 36 38 36 36 37 37 36 40 39 39 39 44 41 40 41 41 41 42 43 42 41 43 44 43 44 45 45 44 50 53 55 54 54 54 56 54 55 56 55 55 56 56 56 56 57 57 -193 57 58 58 59 59 60 59 59 0 0 0 0 0
    0 0 0 0 0 0 0 0 0 0 0 0 0 0 0 0 0 0 0 0 0 0 0 0 0 0 0 0 0 0 0 0 0 0 0 0 0 0 0 0 0 0 0 0 0 0 0 0 0 0 0 0 0 0 0 0 0 0 0 0 0 0 0 0 0 0 0 0 0 -209 35 41 30 29 33 26 25 26 26 25 -177 -177 -193 -193 27 28 -193 -193 -193 -177 29 31 25 27 27 26 28 36 -209 -209 -209 -209 -209 -209 -193 -209 -209 28 32 32 33 37 37 39 31 32 37 32 32 31 30 29 28 30 30 -193 -193 27 -193 -193 35 36 -209 31 30 -193 -209 -193 32 32 30 31 30 29 30 32 36 35 28 31 28 27 28 28 28 27 -177 28 25 30 33 32 28 31 31 32 32 33 34 32 32 34 32 30 31 28 28 26 28 27 27 25 26 22 31 39 35 34 25 25 35 30 30 30 30 29 29 32 33 25 28 30 27 26 33 37 38 38 41 40 41 -209 39 37 35 30 28 29 37 38 35 38 34 35 36 36 36 35 34 36 32 40 39 41 49 49 52 52 51 53 52 -209 19 24 24 31 32 32 34 33 35 35 35 35 35 36 37 36 33 33 35 37 36 36 36 36 36 40 39 39 39 43 40 40 41 41 41 42 43 42 41 43 44 43 44 45 44 44 49 53 55 54 55 55 56 55 55 57 56 56 57 56 56 56 57 57 57 57 58 58 58 59 60 58 59 0 0 0 0 0
    0 0 0 0 0 0 0 0 0 0 0 0 0 0 0 0 0 0 0 0 0 0 0 0 0 0 0 0 0 0 0 0 0 0 0 0 0 0 0 0 0 0 0 0 0 0 0 0 0 0 0 0 0 0 0 0 0 0 0 0 0 0 0 0 0 0 0 0 0 -193 -209 -209 30 30 35 26 25 27 26 25 -193 -177 -193 -193 27 28 28 28 29 -177 29 31 25 28 28 27 29 34 -209 -209 -209 -209 -209 -209 -193 -209 -209 -193 32 33 34 37 37 40 32 33 38 33 32 32 30 29 28 30 30 -193 -193 -209 -193 -193 35 36 -209 34 33 -193 -193 30 33 33 31 30 29 29 29 31 34 35 28 30 27 27 28 28 28 27 -177 27 25 30 34 33 29 31 32 33 32 33 34 33 33 35 34 31 33 30 30 28 30 29 28 27 28 25 31 32 33 29 23 24 33 28 29 29 29 28 28 31 32 25 29 30 28 25 35 38 38 38 41 41 40 -209 36 31 32 29 28 29 38 37 35 38 34 35 36 36 36 35 35 36 33 40 39 43 52 52 54 54 53 55 55 -209 16 -193 23 -193 32 31 34 33 35 35 35 35 34 35 36 36 33 32 35 37 36 36 36 37 36 40 39 39 39 43 40 40 41 41 41 42 43 42 41 43 44 43 45 46 46 45 51 53 55 54 55 55 56 56 55 56 56 56 57 56 56 56 57 57 57 57 58 58 58 59 60 58 59 0 0 0 0 0
    0 0 0 0 0 0 0 0 0 0 0 0 0 0 0 0 0 0 0 0 0 0 0 0 0 0 0 0 0 0 0 0 0 0 0 0 0 0 0 0 0 0 0 0 0 0 0 0 0 0 0 0 0 0 0 0 0 0 0 0 0 0 0 0 0 0 0 0 0 187 -209 -209 -193 30 37 26 25 27 26 26 27 -193 -193 -193 28 28 28 28 29 -193 29 31 -193 -193 -193 -193 28 31 -209 -209 -209 -209 -209 -193 22 -209 22 -193 31 -193 32 36 37 -209 32 33 37 33 33 32 30 29 28 30 29 -193 -193 -209 -193 -209 37 36 -209 37 36 -193 -193 32 33 33 31 29 28 28 29 30 34 36 29 31 28 27 28 28 28 27 -177 27 25 30 34 33 29 30 31 32 32 33 34 33 33 35 35 33 34 33 32 30 32 31 32 29 30 27 30 30 31 26 20 23 32 28 28 28 28 28 28 30 32 25 29 30 28 25 34 -209 -209 36 -209 43 -209 -209 36 31 32 30 29 29 38 37 35 37 34 35 36 36 36 35 36 37 35 41 41 45 53 54 55 56 54 56 56 -193 15 -193 21 -209 -193 31 34 33 34 35 35 34 34 34 36 35 33 32 35 37 36 36 36 37 36 40 39 39 39 43 40 40 41 41 41 42 43 43 41 43 45 44 47 48 48 48 53 55 57 55 55 55 56 56 55 56 56 55 57 56 56 56 57 57 57 57 58 58 58 59 59 58 59 0 0 0 0 0
    0 0 0 0 0 0 0 0 0 0 0 0 0 0 0 0 0 0 0 0 0 0 0 0 0 0 0 0 0 0 0 0 0 0 0 0 0 0 0 0 0 0 0 0 0 0 0 0 0 0 0 0 0 0 0 0 0 0 0 0 0 0 0 0 0 0 0 0 0 -209 -209 -209 -193 31 38 28 27 29 28 27 28 -193 26 27 28 29 28 29 29 -193 29 31 -193 -193 28 -193 28 30 -209 -209 -209 -209 -209 17 -193 -193 -209 -209 31 -193 33 36 37 -193 32 33 37 33 32 32 30 29 28 29 29 23 24 -209 -193 -193 37 36 37 37 36 34 34 32 31 32 29 28 27 27 28 29 31 35 29 31 28 27 28 28 28 27 -177 27 25 29 34 33 30 31 32 33 33 34 35 34 34 36 36 36 36 35 34 33 33 33 34 31 30 27 27 28 27 24 18 22 30 27 28 27 27 27 29 31 33 26 33 33 31 31 36 31 -209 34 39 -193 38 -209 36 34 33 31 32 31 39 36 35 37 34 35 36 36 36 35 37 38 36 42 44 48 54 55 56 57 56 57 58 59 13 -193 20 -209 -193 31 34 33 34 35 35 34 34 34 36 36 33 33 35 37 36 37 36 37 36 40 40 39 39 44 41 41 41 41 41 42 44 43 41 44 46 46 50 51 51 52 55 57 58 56 56 56 57 58 56 57 57 56 57 57 56 56 57 57 57 57 58 58 58 59 59 58 58 0 0 0 0 0
    0 0 0 0 0 0 0 0 0 0 0 0 0 0 0 0 0 0 0 0 0 0 0 0 0 0 0 0 0 0 0 0 0 0 0 0 0 0 0 0 0 0 0 0 0 0 0 0 0 0 0 0 0 0 0 0 0 0 0 0 0 0 0 0 0 0 0 0 0 -209 35 45 33 34 39 30 29 31 29 28 29 28 27 28 28 29 28 29 29 27 29 31 -193 -193 -193 -193 26 -209 -209 -209 -209 -209 -193 14 -193 -193 -209 -209 32 35 35 37 37 -209 32 33 37 32 32 31 29 28 27 29 29 23 24 -209 -193 35 38 37 38 38 37 36 36 34 33 32 29 29 28 27 29 29 30 35 29 31 28 27 28 28 28 27 -177 -193 24 28 33 33 30 32 33 35 34 35 36 36 36 37 38 37 37 37 35 35 33 34 34 33 30 29 26 26 23 23 18 22 29 27 28 28 28 28 30 33 35 28 36 36 35 35 37 32 32 33 37 38 35 33 36 34 35 33 35 34 39 36 35 37 34 35 36 36 37 36 38 39 38 43 46 50 55 56 57 57 57 58 59 59 -193 -193 -193 -209 -193 31 34 33 35 36 35 35 36 36 39 38 36 34 36 37 37 37 37 37 36 40 40 40 39 44 41 41 42 41 41 42 44 44 42 45 49 48 53 53 53 55 57 58 59 57 56 55 55 58 55 56 56 55 56 57 56 56 57 57 57 57 58 58 58 58 59 57 57 0 0 0 0 0
    0 0 0 0 0 0 0 0 0 0 0 0 0 0 0 0 0 0 0 0 0 0 0 0 0 0 0 0 0 0 0 0 0 0 0 0 0 0 0 0 0 0 0 0 0 0 0 0 0 0 0 0 0 0 0 0 0 0 0 0 0 0 0 0 0 0 0 0 0 33 36 44 33 35 39 31 30 33 30 29 30 29 28 28 29 29 28 29 29 27 29 31 -193 -193 -193 -193 -209 -209 -209 18 17 20 18 -193 -193 -193 -209 -209 32 -193 -193 -209 -209 -209 -193 -193 -193 -193 -193 -193 -193 27 27 28 28 23 23 -193 26 33 37 37 37 37 37 37 36 35 34 33 30 30 29 28 29 29 30 34 30 32 28 27 28 28 28 27 -177 -177 -193 28 33 33 32 33 35 36 35 36 37 37 37 37 37 37 36 37 35 35 33 34 34 34 30 30 26 28 23 23 18 22 29 27 29 29 29 29 31 33 35 30 36 35 36 33 35 29 31 29 36 35 33 31 35 33 34 34 37 36 40 36 35 37 34 36 36 37 38 38 40 41 41 45 49 51 55 55 55 56 56 57 59 59 -209 -193 -193 -209 -193 31 33 34 36 36 36 35 37 39 41 40 38 35 36 37 37 37 36 37 36 40 41 40 40 44 41 41 42 41 41 42 45 45 43 47 51 51 54 54 54 55 56 57 57 56 56 53 55 58 55 57 57 55 57 57 56 56 57 57 57 57 58 58 57 58 58 57 57 0 0 0 0 0
    0 0 0 0 0 0 0 0 0 0 0 0 0 0 0 0 0 0 0 0 0 0 0 0 0 0 0 0 0 0 0 0 0 0 0 0 0 0 0 0 0 0 0 0 0 0 0 0 0 0 0 0 0 0 0 0 0 0 0 0 0 0 0 0 0 0 0 0 0 27 32 41 31 33 39 31 31 33 31 30 32 31 29 29 29 30 29 29 30 -193 29 31 -193 -193 -193 -193 -209 -209 -209 -209 -193 -193 -209 -209 -193 -193 -209 -209 -209 -209 -209 -209 -209 -209 -193 -193 -177 -177 -177 -177 -193 -193 26 27 27 22 23 -209 27 34 37 36 37 37 37 37 37 35 35 34 31 31 30 30 30 30 31 35 31 33 29 27 28 28 28 27 564 564 -193 29 34 35 34 35 37 37 36 37 37 38 36 37 37 37 36 37 34 35 33 34 34 34 31 31 27 29 23 -209 19 22 30 27 29 29 31 31 33 34 36 31 37 36 37 33 34 27 29 27 36 36 33 32 36 34 34 35 38 38 41 35 35 37 35 37 38 38 39 -209 42 44 44 46 50 51 54 54 53 55 55 57 59 60 -209 58 -193 -193 -209 32 32 34 37 -193 37 34 -193 -209 -209 44 -209 25 29 33 33 33 33 37 33 40 41 40 40 44 42 41 42 41 41 43 46 46 45 50 53 54 55 55 54 55 55 55 54 53 52 47 50 56 52 56 -193 55 57 56 56 56 57 57 57 57 58 58 58 58 59 57 58 0 0 0 0 0
    0 0 0 0 0 0 0 0 0 0 0 0 0 0 0 0 0 0 0 0 0 0 0 0 0 0 0 0 0 0 0 0 0 0 0 0 0 0 0 0 0 0 0 0 0 0 0 0 0 0 0 0 0 0 0 0 0 0 0 0 0 0 0 0 0 0 0 0 0 23 25 37 28 29 38 30 30 33 31 30 31 30 29 30 30 30 29 30 30 -177 29 31 -193 -193 -193 -209 -209 -209 -209 -209 -209 -209 -209 -209 572 578 -209 -209 -209 -209 -209 -209 -209 -209 -193 -193 -177 -177 -177 -177 -177 -193 25 26 26 22 23 -209 27 36 39 38 38 38 38 -193 38 36 36 34 33 32 32 31 31 31 31 35 31 33 29 28 29 28 28 28 564 563 -193 29 35 36 35 36 38 37 37 37 37 38 36 37 37 36 36 37 34 35 33 34 34 33 31 32 27 29 23 -209 20 22 30 27 30 30 32 32 34 34 36 32 37 36 38 33 34 27 31 26 -193 38 34 32 36 34 33 33 36 34 40 35 37 38 37 38 40 40 40 -193 45 47 46 48 51 51 53 53 51 54 54 56 58 59 -209 59 62 61 -209 -209 -209 -209 -209 -209 -209 -209 -209 -209 -209 -193 61 -193 -193 -209 -209 -209 -209 -209 -209 39 -209 41 41 45 42 42 42 41 41 43 49 49 49 54 55 55 56 55 55 54 54 53 51 49 49 44 45 48 46 55 -209 55 57 57 57 57 57 57 57 58 59 59 58 59 59 58 58 0 0 0 0 0
    0 0 0 0 0 0 0 0 0 0 0 0 0 0 0 0 0 0 0 0 0 0 0 0 0 0 0 0 0 0 0 0 0 0 0 0 0 0 0 0 0 0 0 0 0 0 0 0 0 0 0 0 0 0 0 0 0 0 0 0 0 0 0 0 0 0 0 0 0 23 24 30 27 28 36 28 28 31 29 29 31 29 28 30 30 30 30 30 30 -177 30 -193 -193 -193 -193 -209 -209 -209 -193 -209 -209 -209 -209 -209 -177 -209 -209 -209 -209 -209 -209 -193 -209 -209 -193 -193 -193 -177 -177 -177 -193 -209 25 26 25 22 23 -209 26 36 40 38 38 38 38 -193 37 36 35 34 33 31 32 31 32 31 31 35 31 33 30 28 29 29 29 29 564 -193 -193 31 36 36 37 37 38 37 37 37 37 38 36 36 37 37 37 38 35 35 33 35 35 33 31 32 27 31 25 -193 22 23 31 28 31 31 33 33 35 35 37 34 38 37 40 36 36 27 32 -193 -193 38 32 31 36 33 34 34 37 36 40 38 39 40 39 40 43 43 43 46 47 49 49 50 51 50 52 52 49 52 52 56 58 59 -209 60 63 63 -193 -193 -209 -209 -209 -209 -209 -209 -209 -209 59 59 61 61 61 -193 -193 -193 -193 -209 -209 -209 -209 -209 -193 45 42 41 42 41 44 46 -193 54 54 57 57 56 57 55 54 53 53 52 49 47 48 43 43 44 43 54 -209 55 57 57 57 57 58 57 58 58 59 59 58 59 59 58 58 0 0 0 0 0
    0 0 0 0 0 0 0 0 0 0 0 0 0 0 0 0 0 0 0 0 0 0 0 0 0 0 0 0 0 0 0 0 0 0 0 0 0 0 0 0 0 0 0 0 0 0 0 0 0 0 0 0 0 0 0 0 0 0 0 0 0 0 0 0 0 0 0 0 0 24 25 28 27 27 32 27 27 29 28 28 30 28 28 30 30 30 30 30 -193 -177 -193 -193 -193 -193 -193 23 -193 -209 -193 26 25 28 -193 -209 -209 -209 -209 -209 -209 -209 775 774 775 774 -193 -209 -193 -177 -177 -193 -193 24 25 25 25 22 24 -193 27 37 39 38 38 38 38 38 38 37 36 35 34 32 32 32 33 31 32 35 32 34 31 30 31 30 30 30 -193 28 26 32 35 35 37 37 38 37 37 37 37 38 36 35 36 36 37 38 35 35 32 35 34 33 31 32 28 31 26 33 24 24 32 29 32 32 34 35 35 36 37 34 38 37 40 36 35 28 33 25 -193 39 34 32 36 35 36 36 39 42 44 41 42 42 43 45 48 47 46 51 50 52 51 51 51 51 52 52 47 52 51 56 59 61 -193 62 -193 -193 -193 -193 -209 -209 -209 -209 -209 -209 -209 -193 59 59 60 60 60 -193 -193 -193 -193 -209 -193 -209 -209 -209 -209 62 -193 -193 -209 -209 58 -193 62 59 58 59 58 57 57 55 54 53 53 51 48 46 47 43 44 44 43 52 -193 54 56 57 57 57 57 57 57 58 59 59 58 59 59 57 58 0 0 0 0 0
    0 0 0 0 0 0 0 0 0 0 0 0 0 0 0 0 0 0 0 0 0 0 0 0 0 0 0 0 0 0 0 0 0 0 0 0 0 0 0 0 0 0 0 0 0 0 0 0 0 0 0 0 0 0 0 0 0 0 0 0 0 0 0 0 0 0 0 0 0 26 27 28 27 27 31 27 27 29 28 28 30 28 28 30 30 30 30 30 -193 -177 29 29 24 24 24 21 19 21 23 24 24 25 27 29 33 32 -209 -209 32 -193 -193 -209 -193 773 773 -193 -209 -177 -177 -193 -193 23 25 25 24 23 24 25 27 36 38 38 38 39 39 39 38 38 36 36 34 33 33 33 33 32 33 36 33 35 32 31 32 30 31 30 -193 29 26 32 34 34 36 37 38 36 37 37 37 38 35 35 36 36 37 38 35 35 32 35 35 34 31 32 28 31 27 34 27 26 33 29 33 33 34 35 36 36 37 34 38 37 39 36 35 29 35 27 41 41 38 36 37 37 37 39 42 45 45 44 45 45 48 50 52 51 50 53 52 53 52 52 52 51 52 52 47 53 51 56 58 61 61 62 64 65 63 -209 -209 -209 -209 -193 -193 -193 60 60 60 60 60 60 59 58 -193 -193 -193 -193 -193 -209 -209 -209 63 65 61 62 61 66 64 66 65 62 60 61 60 58 58 55 54 52 52 51 48 46 47 43 45 45 45 53 -193 55 56 57 57 57 57 57 57 58 59 59 58 59 59 58 59 0 0 0 0 0
    0 0 0 0 0 0 0 0 0 0 0 0 0 0 0 0 0 0 0 0 0 0 0 0 0 0 0 0 0 0 0 0 0 0 0 0 0 0 0 0 0 0 0 0 0 0 0 0 0 0 0 0 0 0 0 0 0 0 0 0 0 0 0 0 0 0 0 0 0 28 -193 28 27 26 29 27 27 28 28 29 30 28 29 30 30 30 30 30 -193 -177 29 28 24 24 24 21 19 22 23 24 23 24 24 24 28 27 -193 -193 -193 -193 -193 30 -193 772 -193 28 -209 -177 -177 -209 24 22 24 24 22 23 25 25 27 34 38 38 38 39 38 39 38 38 36 36 34 34 33 34 34 33 33 35 33 35 32 31 32 31 31 30 28 30 27 31 32 33 36 36 37 36 36 37 36 38 35 34 36 36 36 38 35 35 32 35 35 34 32 33 28 32 28 36 28 28 34 30 33 34 35 35 35 36 37 34 37 36 38 36 35 30 35 29 41 41 39 38 38 38 39 40 42 43 44 45 47 47 49 51 52 51 51 53 52 52 52 52 51 50 51 51 46 53 50 55 57 59 59 59 59 60 58 56 -193 55 56 58 63 63 60 60 60 59 60 59 58 57 57 -209 -193 -193 -193 -193 67 65 62 65 61 62 61 66 63 66 64 62 60 61 60 58 58 55 54 52 52 50 48 46 47 43 46 46 46 52 -193 55 57 57 57 57 58 57 57 58 59 58 58 58 59 58 59 0 0 0 0 0
    0 0 0 0 0 0 0 0 0 0 0 0 0 0 0 0 0 0 0 0 0 0 0 0 0 0 0 0 0 0 0 0 0 0 0 0 0 0 0 0 0 0 0 0 0 0 0 0 0 0 0 0 0 0 0 0 0 0 0 0 0 0 0 0 0 0 0 0 0 -193 -193 30 29 28 30 27 27 28 27 29 30 28 29 30 31 31 31 30 28 -193 28 27 24 24 24 22 21 25 25 25 25 25 24 23 27 25 -193 -193 26 -193 -193 28 33 771 -209 27 -209 -209 -193 23 23 21 23 23 21 24 25 25 27 34 38 38 38 39 38 38 38 38 36 36 33 33 34 34 34 33 34 35 33 36 33 32 33 31 31 31 29 30 27 31 31 32 36 35 37 36 36 36 36 38 35 34 35 35 36 37 34 35 32 35 35 34 33 33 29 35 30 38 31 30 36 31 34 34 35 35 35 36 36 34 37 35 36 35 34 30 34 30 42 42 40 39 39 39 40 40 41 42 43 45 47 47 49 50 51 50 50 53 51 52 51 51 50 50 51 51 46 53 49 55 55 57 57 56 57 57 56 55 53 55 57 59 63 63 60 60 60 59 60 59 58 57 57 -193 -193 62 63 64 63 63 61 65 62 63 62 -193 64 67 65 62 60 61 59 58 57 55 54 51 51 49 47 46 47 43 46 46 45 51 54 54 57 57 57 57 57 57 57 58 58 58 58 58 58 57 59 0 0 0 0 0
    0 0 0 0 0 0 0 0 0 0 0 0 0 0 0 0 0 0 0 0 0 0 0 0 0 0 0 0 0 0 0 0 0 0 0 0 0 0 0 0 0 0 0 0 0 0 0 0 0 0 0 0 0 0 0 0 0 0 0 0 0 0 0 0 0 0 0 0 0 -193 129 -193 28 26 28 27 27 27 27 28 29 28 30 30 31 31 31 31 28 -193 28 25 22 22 23 21 19 24 24 24 24 24 22 21 24 24 23 23 24 24 -193 27 31 -209 -193 26 23 23 23 22 22 20 22 22 19 24 25 25 28 36 39 39 40 40 39 39 38 37 35 35 32 31 33 34 34 34 34 35 33 36 33 32 33 32 31 31 29 31 27 32 31 31 36 35 36 35 35 35 35 37 34 32 35 34 36 37 34 35 32 35 35 34 33 34 29 35 32 38 32 32 36 31 34 34 34 35 34 36 36 33 36 35 35 35 34 31 34 32 42 43 42 41 40 40 41 40 40 41 42 44 45 47 47 49 50 49 50 53 50 52 51 51 50 50 52 52 47 53 50 54 54 56 55 55 55 55 55 54 52 52 55 58 61 61 60 60 60 59 60 59 58 57 56 58 59 60 62 62 62 64 61 65 62 64 63 -193 65 67 64 62 60 60 59 58 57 55 53 50 51 48 47 46 46 44 46 45 46 51 54 54 57 57 57 57 57 56 57 57 58 58 57 57 57 57 59 0 0 0 0 0
    0 0 0 0 0 0 0 0 0 0 0 0 0 0 0 0 0 0 0 0 0 0 0 0 0 0 0 0 0 0 0 0 0 0 0 0 0 0 0 0 0 0 0 0 0 0 0 0 0 0 0 0 0 0 0 0 0 0 0 0 0 0 0 0 0 0 0 0 0 -193 -193 -193 26 24 26 26 27 27 27 28 29 28 31 29 31 31 31 31 28 -193 26 23 21 20 21 20 17 22 23 22 21 22 21 21 24 23 23 23 24 24 24 26 29 -209 -193 25 23 22 23 23 23 20 22 22 18 24 25 25 27 37 39 40 41 41 39 39 38 37 34 33 30 30 32 34 34 34 33 34 32 36 33 32 33 32 31 31 30 32 27 31 30 30 36 34 35 34 34 35 35 37 34 32 34 34 36 37 34 34 32 35 35 34 33 33 29 35 32 37 32 32 35 31 33 34 34 34 33 35 35 33 36 35 35 36 35 33 35 36 43 44 42 41 40 40 41 40 39 41 41 43 44 46 46 49 48 49 49 52 50 51 51 51 50 51 52 52 47 54 51 54 54 55 55 55 55 55 55 54 53 53 55 58 60 61 60 60 60 59 60 59 58 57 56 -193 59 60 61 62 62 64 62 65 62 63 62 67 64 67 63 62 60 60 59 58 57 55 53 50 51 48 47 46 47 45 46 45 47 50 52 53 56 57 56 57 57 56 56 57 58 57 57 57 57 56 58 0 0 0 0 0
    0 0 0 0 0 0 0 0 0 0 0 0 0 0 0 0 0 0 0 0 0 0 0 0 0 0 0 0 0 0 0 0 0 0 0 0 0 0 0 0 0 0 0 0 0 0 0 0 0 0 0 0 0 0 0 0 0 0 0 0 0 0 0 0 0 0 0 0 0 -193 -193 142 25 24 26 26 27 27 28 28 29 28 31 29 31 31 31 30 27 -193 -193 22 20 19 20 19 15 20 20 20 16 20 20 20 24 23 23 23 24 24 24 25 28 -193 -193 -193 23 22 24 23 23 21 22 22 18 25 27 26 27 37 39 40 41 40 39 37 36 -193 33 31 30 29 31 32 34 34 33 34 32 36 33 32 33 32 31 32 30 32 27 31 30 30 35 33 35 34 33 34 34 37 34 31 34 34 35 36 34 34 32 34 35 35 34 33 30 35 33 37 32 32 35 31 33 34 33 34 32 35 35 32 36 34 35 36 35 35 35 38 44 44 41 40 40 38 40 39 38 40 40 42 44 45 45 48 47 48 48 52 49 51 51 52 50 52 52 52 49 55 52 55 54 55 55 55 55 55 55 55 53 54 56 58 60 61 60 59 59 59 59 59 57 56 55 57 59 60 60 62 62 64 62 64 62 62 61 66 63 67 62 62 60 60 59 58 57 55 53 50 51 48 48 47 47 45 46 45 47 49 51 53 55 56 56 56 57 56 56 57 57 57 56 57 57 55 57 0 0 0 0 0
    0 0 0 0 0 0 0 0 0 0 0 0 0 0 0 0 0 0 0 0 0 0 0 0 0 0 0 0 0 0 0 0 0 0 0 0 0 0 0 0 0 0 0 0 0 0 0 0 0 0 0 0 0 0 0 0 0 0 0 0 0 0 0 0 0 0 0 0 0 -209 -209 143 -209 24 26 27 28 27 30 29 30 29 32 29 31 31 31 30 -193 -177 -193 21 20 19 20 19 15 20 18 20 15 19 19 20 24 24 24 23 24 24 25 26 28 -193 -193 -193 23 22 -193 -193 24 21 23 23 19 25 28 27 28 36 39 38 40 38 38 35 36 -193 35 32 30 29 30 32 34 34 33 33 32 36 33 33 33 32 31 32 31 32 27 30 29 30 34 33 34 34 33 34 35 36 34 32 34 34 35 35 34 33 32 34 35 35 34 32 30 35 33 37 33 33 35 32 34 34 33 34 31 35 34 32 35 33 33 36 35 35 34 38 44 44 41 39 39 39 40 38 38 40 40 42 43 45 44 47 47 48 48 52 49 51 51 52 50 53 53 53 51 57 55 57 56 56 55 55 55 55 55 55 54 54 56 57 59 60 59 59 59 59 59 59 58 56 56 58 59 60 61 62 61 64 62 64 61 62 61 66 63 67 62 62 60 60 59 58 57 55 54 51 51 49 48 47 48 46 46 46 48 48 50 51 55 56 55 55 56 55 55 56 57 56 56 57 57 55 56 0 0 0 0 0
    0 0 0 0 0 0 0 0 0 0 0 0 0 0 0 0 0 0 0 0 0 0 0 0 0 0 0 0 0 0 0 0 0 0 0 0 0 0 0 0 0 0 0 0 0 0 0 0 0 0 0 0 0 0 0 0 0 0 0 0 0 0 0 0 0 0 0 0 0 -209 -209 143 -209 23 -193 27 28 28 31 30 30 30 33 29 31 31 31 29 -177 -177 -177 21 20 19 20 19 15 21 -193 21 17 20 20 20 24 24 24 24 24 24 25 26 28 -193 -193 -193 22 22 -193 -193 23 21 22 23 19 26 28 27 28 33 36 37 39 37 37 34 35 -193 37 32 29 29 30 32 35 35 33 32 32 37 33 33 33 32 31 31 31 32 27 29 29 31 33 32 33 34 33 34 35 36 34 32 33 33 34 34 33 33 32 32 34 34 34 31 30 35 34 37 33 34 35 32 34 34 32 33 30 34 32 30 33 30 30 34 33 34 32 39 45 44 42 40 40 40 42 39 39 40 41 42 43 44 44 47 46 47 48 52 49 51 51 52 50 53 54 54 51 57 56 57 56 56 56 55 55 55 54 55 54 54 55 57 59 60 59 59 59 59 59 59 58 57 57 59 60 60 61 62 61 63 61 63 61 61 61 66 64 67 62 63 60 60 59 58 57 56 54 51 51 49 49 48 48 46 46 46 48 47 48 50 54 55 54 55 55 55 55 56 57 56 56 57 57 56 56 0 0 0 0 0
    0 0 0 0 0 0 0 0 0 0 0 0 0 0 0 0 0 0 0 0 0 0 0 0 0 0 0 0 0 0 0 0 0 0 0 0 0 0 0 0 0 0 0 0 0 0 0 0 0 0 0 0 0 0 0 0 0 0 0 0 0 0 0 0 0 0 0 0 0 -209 -209 -193 -209 22 -193 28 29 29 32 31 31 31 34 29 31 31 31 29 -177 -177 -177 21 20 19 20 19 15 20 18 20 15 19 18 20 24 24 24 24 24 24 25 25 28 -193 23 24 22 22 -193 -193 23 21 23 23 19 26 29 26 27 30 35 39 43 -193 -209 -209 -209 -209 -193 31 28 28 29 30 35 34 32 31 31 37 32 32 33 31 30 31 31 32 26 29 28 32 33 32 33 34 34 34 36 35 34 32 33 34 34 34 33 32 32 32 34 34 34 31 31 36 35 38 33 34 34 32 34 33 32 32 30 33 31 30 33 29 29 -193 -193 32 30 40 46 44 42 41 40 40 42 39 40 40 41 42 42 44 44 46 46 47 48 52 49 52 51 52 50 53 54 53 51 57 55 57 56 56 55 55 55 55 54 54 54 54 55 57 59 60 59 59 59 59 60 59 58 57 57 59 60 60 60 61 60 62 60 62 60 61 61 66 64 68 62 63 61 60 59 59 57 56 54 51 51 49 49 48 48 46 46 45 47 46 47 50 54 55 54 55 56 55 55 56 57 56 56 57 57 55 55 0 0 0 0 0
    0 0 0 0 0 0 0 0 0 0 0 0 0 0 0 0 0 0 0 0 0 0 0 0 0 0 0 0 0 0 0 0 0 0 0 0 0 0 0 0 0 0 0 0 0 0 0 0 0 0 0 0 0 0 0 0 0 0 0 0 0 0 0 0 0 0 0 0 0 -209 -209 -209 -193 22 -193 27 29 29 33 31 31 31 34 28 30 30 30 28 -177 -193 -193 21 20 19 20 18 14 19 -193 19 15 20 18 20 25 25 24 25 25 24 25 26 28 22 23 24 21 21 -177 -193 -193 22 23 23 20 26 30 27 -193 31 36 39 46 -209 -209 -209 -209 -193 34 30 28 28 28 30 35 34 31 31 31 37 32 32 32 31 30 31 31 31 26 28 29 32 32 32 32 34 33 34 35 34 34 32 33 34 34 34 33 32 32 31 33 34 33 30 31 37 36 39 33 35 34 32 34 33 32 32 30 33 30 30 33 29 29 -193 -193 -193 -193 41 48 44 42 40 40 40 40 39 39 39 40 41 42 43 43 46 46 47 48 51 49 52 51 52 50 53 54 54 52 57 55 57 55 56 55 55 55 55 55 55 54 54 56 57 59 60 59 59 60 59 60 60 59 58 58 60 60 60 60 61 59 61 60 61 60 61 61 -193 65 68 62 63 61 60 59 58 57 56 54 51 51 49 49 48 48 47 46 46 47 46 47 51 55 55 55 55 56 56 56 56 57 56 56 57 57 54 54 0 0 0 0 0
    0 0 0 0 0 0 0 0 0 0 0 0 0 0 0 0 0 0 0 0 0 0 0 0 0 0 0 0 0 0 0 0 0 0 0 0 0 0 0 0 0 0 0 0 0 0 0 0 0 0 0 0 0 0 0 0 0 0 0 0 0 0 0 0 0 0 0 0 0 -209 -209 -209 21 22 -209 27 28 28 33 31 31 31 34 28 30 30 30 27 -193 -193 -209 21 19 18 19 18 13 18 -193 -193 17 21 21 22 27 26 26 26 26 26 26 27 28 23 23 24 22 21 -177 -193 23 22 23 23 19 26 31 27 -193 -209 -209 -193 47 -209 -209 -209 -209 -193 34 29 28 28 28 31 34 33 31 31 32 37 33 33 32 31 30 32 31 32 26 28 31 33 32 32 33 34 33 34 35 34 34 33 33 34 34 34 33 32 32 31 33 33 32 29 31 35 34 38 33 35 32 31 34 33 32 32 30 33 30 31 33 28 29 -193 -193 -193 -209 42 53 47 42 41 40 40 40 38 38 39 40 41 41 43 43 46 46 47 48 51 49 52 51 52 50 54 54 54 53 57 55 57 56 56 55 55 55 55 55 56 55 55 56 58 59 59 59 59 60 60 60 60 60 59 59 61 60 60 60 60 58 61 60 61 59 61 63 -193 67 69 62 62 61 60 59 58 57 56 53 51 51 49 48 47 47 47 45 45 47 46 47 52 55 55 54 55 56 56 56 56 57 56 57 58 57 56 54 0 0 0 0 0
    0 0 0 0 0 0 0 0 0 0 0 0 0 0 0 0 0 0 0 0 0 0 0 0 0 0 0 0 0 0 0 0 0 0 0 0 0 0 0 0 0 0 0 0 0 0 0 0 0 0 0 0 0 0 0 0 0 0 0 0 0 0 0 0 0 0 0 0 0 -209 -209 21 19 21 -209 26 27 28 32 30 31 31 33 28 30 30 30 27 -193 26 -193 20 18 17 16 15 11 13 -193 20 17 20 22 23 -193 27 -193 -193 27 -193 28 28 28 24 24 25 22 21 -193 22 22 22 22 22 18 26 30 -193 -209 -209 -209 43 48 53 -209 -209 -209 36 34 29 28 28 28 32 34 33 31 31 32 37 33 33 32 31 31 32 32 32 26 29 32 32 31 31 33 34 33 34 35 33 34 33 33 34 33 33 33 32 32 31 32 33 30 28 30 32 31 36 31 34 31 31 34 33 32 32 31 33 30 32 33 27 -193 335 -193 -193 10 44 56 51 43 42 41 41 39 38 38 39 40 41 41 43 42 46 46 47 48 51 49 52 51 52 50 54 54 54 53 57 55 57 56 57 56 56 56 56 56 56 55 54 55 57 58 59 58 59 59 60 60 60 60 58 59 60 60 59 59 59 58 61 61 60 -193 60 -193 -193 67 -193 62 62 61 61 59 58 57 56 53 51 50 49 47 47 47 47 45 45 47 46 47 52 55 55 55 55 57 56 56 56 57 57 57 58 58 56 54 0 0 0 0 0
    0 0 0 0 0 0 0 0 0 0 0 0 0 0 0 0 0 0 0 0 0 0 0 0 0 0 0 0 0 0 0 0 0 0 0 0 0 0 0 0 0 0 0 0 0 0 0 0 0 0 0 0 0 0 0 0 0 0 0 0 0 0 0 0 0 0 0 0 0 23 22 21 20 22 -209 26 27 28 32 30 31 31 32 28 30 29 29 26 25 26 -193 21 19 18 18 16 12 14 14 23 21 23 25 25 -193 28 -193 -193 -193 -193 28 28 28 25 25 25 22 21 -193 22 22 21 21 21 16 25 27 21 -193 -209 -209 34 -193 -209 -209 26 27 34 33 29 29 28 29 34 34 32 31 31 33 37 33 33 32 31 32 32 32 31 26 29 33 32 30 -193 33 34 33 34 35 33 33 33 33 34 34 33 33 32 32 31 33 33 30 -177 30 32 31 36 31 34 31 32 35 33 32 32 31 33 30 33 -193 25 333 337 -193 -209 14 -193 56 48 42 42 40 42 39 38 39 39 40 41 42 43 42 46 47 47 49 51 50 52 51 53 50 53 54 54 53 57 56 57 57 58 58 58 57 57 57 57 56 55 55 57 59 59 58 59 59 59 60 60 60 58 59 60 60 59 60 59 58 -193 -193 -193 -193 -209 -193 -209 68 -193 62 62 62 62 60 59 58 57 53 51 51 49 47 47 47 47 45 46 47 45 47 52 55 55 55 55 57 57 57 56 57 57 58 58 59 57 55 0 0 0 0 0
    0 0 0 0 0 0 0 0 0 0 0 0 0 0 0 0 0 0 0 0 0 0 0 0 0 0 0 0 0 0 0 0 0 0 0 0 0 0 0 0 0 0 0 0 0 0 0 0 0 0 0 0 0 0 0 0 0 0 0 0 0 0 0 0 0 0 0 0 0 24 22 22 20 23 26 26 27 28 32 30 32 31 31 28 29 29 29 26 -209 -193 -193 23 21 20 19 18 15 17 17 24 22 24 25 25 -193 28 -193 -193 -193 -193 29 30 29 25 25 26 22 21 22 22 20 21 21 21 16 25 26 22 12 -209 28 31 37 35 -209 28 28 33 31 30 30 29 30 34 34 32 31 31 33 36 33 32 32 31 33 32 32 31 26 30 34 32 30 -193 33 33 32 34 34 32 33 33 33 34 33 34 33 33 33 32 33 33 30 30 33 34 33 38 33 35 31 33 36 34 33 34 33 34 -193 -193 -193 25 -193 -193 -193 21 17 -193 51 44 41 41 40 42 39 39 -193 39 41 42 42 43 42 46 47 46 49 51 49 52 51 53 51 54 54 55 53 57 57 58 59 60 59 59 58 58 58 58 57 56 55 57 60 59 58 59 59 59 60 60 60 58 59 60 60 59 59 58 57 -193 -193 -193 -193 -193 -209 -209 69 -193 62 62 62 63 61 59 58 56 52 51 51 48 47 46 47 46 45 46 47 45 48 53 55 55 56 55 57 -193 -193 -193 57 57 58 59 59 57 55 0 0 0 0 0
    0 0 0 0 0 0 0 0 0 0 0 0 0 0 0 0 0 0 0 0 0 0 0 0 0 0 0 0 0 0 0 0 0 0 0 0 0 0 0 0 0 0 0 0 0 0 0 0 0 0 0 0 0 0 0 0 0 0 0 0 0 0 0 0 0 0 0 0 0 -193 23 23 22 25 27 27 28 28 31 31 31 31 30 28 29 28 28 -193 -193 -193 -193 23 23 22 21 20 21 21 21 25 24 25 26 26 30 28 -193 -193 -193 -193 31 31 29 25 25 26 22 21 21 21 19 21 21 21 16 25 26 23 -193 -209 30 33 37 -209 -209 31 29 33 32 30 31 30 32 34 33 32 31 31 32 36 33 32 32 32 33 32 32 31 26 31 34 31 30 31 33 33 32 34 33 32 33 33 33 33 33 33 33 32 32 32 33 33 31 33 35 35 35 39 35 35 32 33 36 35 34 35 34 34 -193 -193 -193 26 28 -193 26 22 -209 -193 46 43 41 41 40 42 39 -193 -177 40 41 42 42 43 42 46 47 46 49 50 49 52 51 52 50 53 54 54 52 57 57 58 59 60 60 59 58 58 58 58 57 56 55 57 60 59 59 59 59 60 60 60 60 58 59 59 60 59 -177 58 -193 -193 -193 146 146 -193 -193 -209 70 -193 62 62 62 63 61 60 58 57 52 52 51 48 46 45 46 45 45 46 46 45 48 52 53 53 54 54 -209 -209 -193 -193 56 56 58 58 58 56 55 0 0 0 0 0
    0 0 0 0 0 0 0 0 0 0 0 0 0 0 0 0 0 0 0 0 0 0 0 0 0 0 0 0 0 0 0 0 0 0 0 0 0 0 0 0 0 0 0 0 0 0 0 0 0 0 0 0 0 0 0 0 0 0 0 0 0 0 0 0 0 0 0 0 0 -193 24 24 24 27 28 27 28 28 31 31 31 32 29 28 29 28 28 -193 671 -193 -193 23 23 22 22 21 23 22 22 25 24 25 26 26 30 28 28 -193 29 31 31 32 29 26 26 27 23 21 21 21 19 21 21 21 17 25 26 22 -193 -209 -209 -209 -209 -209 -193 28 27 31 31 30 32 30 33 34 33 32 32 32 33 36 33 32 32 33 34 33 32 31 26 33 34 31 30 31 33 33 32 34 33 32 33 32 33 33 33 33 33 33 32 32 33 32 31 35 35 35 36 38 35 35 31 33 36 35 35 36 36 35 -193 -193 -193 27 30 30 27 23 -193 -193 44 43 41 42 40 41 38 -193 -177 39 41 41 42 42 42 46 46 46 48 51 49 52 51 52 50 53 53 53 50 55 54 57 58 60 59 59 -193 58 59 58 57 55 55 57 61 59 59 58 59 60 60 60 59 58 59 58 59 -177 -177 57 -193 -193 145 145 145 -193 -193 -209 69 -193 62 62 62 63 61 60 58 57 53 52 52 48 45 45 46 45 44 46 46 45 48 51 52 50 52 52 55 -193 -193 -193 55 55 58 57 56 56 57 0 0 0 0 0
    0 0 0 0 0 0 0 0 0 0 0 0 0 0 0 0 0 0 0 0 0 0 0 0 0 0 0 0 0 0 0 0 0 0 0 0 0 0 0 0 0 0 0 0 0 0 0 0 0 0 0 0 0 0 0 0 0 0 0 0 0 0 0 0 0 0 0 0 0 26 24 25 24 28 28 27 29 29 31 31 31 32 29 28 29 28 28 -193 671 -193 -193 24 24 23 22 21 23 22 22 25 24 24 25 26 29 28 -193 -193 29 32 32 33 29 26 26 28 24 22 22 21 20 22 22 22 19 25 26 22 23 -209 26 27 29 20 23 28 28 29 29 29 31 30 33 34 32 32 32 32 33 36 33 32 32 34 34 33 32 31 26 33 34 30 29 30 33 33 32 34 32 31 32 32 33 33 33 33 33 33 31 33 33 32 30 36 35 35 36 37 36 36 31 33 37 36 36 37 37 36 -193 -193 -193 28 32 32 27 26 30 39 40 41 39 40 40 40 37 38 39 39 40 41 41 42 42 46 46 45 48 51 49 52 51 52 50 53 53 53 50 55 53 57 59 61 60 60 -193 59 60 59 -193 -193 55 57 61 59 58 58 58 59 59 59 59 57 58 57 -177 -177 -177 57 -209 140 141 141 140 -209 -193 -209 68 -193 61 61 62 63 61 60 58 57 53 52 51 47 44 44 45 44 44 45 45 45 48 50 50 50 52 52 -209 -193 -193 -193 54 55 57 57 56 56 -209 0 0 0 0 0
    0 0 0 0 0 0 0 0 0 0 0 0 0 0 0 0 0 0 0 0 0 0 0 0 0 0 0 0 0 0 0 0 0 0 0 0 0 0 0 0 0 0 0 0 0 0 0 0 0 0 0 0 0 0 0 0 0 0 0 0 0 0 0 0 0 0 0 0 0 -193 23 24 24 28 28 27 29 29 30 31 31 33 28 28 29 28 28 -193 671 -193 25 24 25 -193 22 22 24 23 23 25 24 24 25 26 28 27 -193 -193 -193 31 31 32 29 27 27 28 25 23 22 22 20 -193 -193 23 20 25 26 23 -193 25 26 26 27 24 25 28 28 28 29 29 31 30 33 34 31 32 33 32 33 35 32 31 31 33 32 31 30 30 27 33 33 29 29 30 33 33 32 34 31 31 32 32 33 33 32 33 32 32 31 32 32 31 30 36 35 35 36 36 36 36 31 34 37 36 36 37 37 36 -193 40 39 29 33 32 28 28 37 41 41 41 39 40 40 39 36 38 38 38 39 40 40 41 41 45 46 45 47 51 49 51 51 52 51 53 53 53 51 56 56 58 60 62 61 61 59 59 59 59 58 -209 54 55 59 58 58 58 58 59 59 59 59 57 58 57 58 -177 -177 -177 -209 -193 141 140 139 139 140 -209 66 -209 60 61 62 62 61 60 59 57 53 53 52 46 44 43 44 44 44 45 45 45 47 50 49 49 51 51 53 53 -193 53 54 55 58 59 57 58 67 0 0 0 0 0
    0 0 0 0 0 0 0 0 0 0 0 0 0 0 0 0 0 0 0 0 0 0 0 0 0 0 0 0 0 0 0 0 0 0 0 0 0 0 0 0 0 0 0 0 0 0 0 0 0 0 0 0 0 0 0 0 0 0 0 0 0 0 0 0 0 0 0 0 0 -193 23 23 23 28 27 27 29 29 29 31 31 33 28 29 29 28 28 -193 -193 27 24 25 26 -193 23 23 25 24 24 26 24 24 24 25 27 -193 -193 -193 -193 31 31 32 28 27 27 29 25 24 23 23 -193 -177 -193 23 21 25 26 24 25 27 27 26 26 24 26 28 27 27 28 28 30 30 33 33 31 33 33 32 33 34 31 30 31 32 31 30 30 30 27 33 32 29 29 30 33 32 32 34 31 31 32 32 33 32 32 32 32 32 31 33 32 30 31 37 36 35 35 36 36 36 32 34 37 36 37 37 37 36 36 40 -193 29 34 32 29 34 39 42 42 41 40 40 40 38 36 37 38 38 39 39 39 40 41 45 45 45 47 51 49 51 51 52 51 53 53 53 50 57 56 58 60 63 62 61 60 59 60 59 -209 -209 54 55 58 57 57 57 57 58 59 59 59 57 58 58 59 -177 -177 -177 -193 -193 142 142 141 141 142 146 63 -209 60 60 61 62 61 60 59 58 54 54 53 46 43 43 43 44 44 45 45 44 45 48 46 46 48 47 51 51 53 52 54 55 58 58 58 59 67 0 0 0 0 0
    0 0 0 0 0 0 0 0 0 0 0 0 0 0 0 0 0 0 0 0 0 0 0 0 0 0 0 0 0 0 0 0 0 0 0 0 0 0 0 0 0 0 0 0 0 0 0 0 0 0 0 0 0 0 0 0 0 0 0 0 0 0 0 0 0 0 0 0 0 -209 23 23 23 29 27 28 30 29 29 32 31 33 28 29 29 28 28 27 -193 27 24 25 27 25 25 24 26 -193 25 28 25 24 24 -209 -193 -193 -193 -193 -193 30 30 32 28 27 27 29 26 25 24 -177 -177 -177 -177 -193 22 26 27 25 26 28 28 26 25 24 26 28 27 27 28 28 30 31 33 33 31 33 34 32 32 33 29 30 30 31 30 29 29 29 28 34 31 29 29 30 33 32 32 33 30 31 31 32 33 32 32 32 32 32 31 34 32 30 35 38 37 36 37 37 36 36 33 34 37 36 37 37 37 36 37 39 -193 30 36 33 32 38 40 42 41 41 39 39 40 37 36 37 38 38 38 39 39 39 41 45 45 44 46 51 49 51 51 52 51 53 53 53 50 57 56 58 60 64 62 61 -193 -193 -193 -209 -209 -209 54 54 58 57 58 58 57 58 58 58 58 57 58 58 58 59 60 -177 -177 -193 -193 -193 142 143 144 146 60 -193 59 60 61 61 60 60 59 58 55 55 54 46 43 43 44 44 46 46 46 45 46 47 46 46 47 46 49 49 52 52 53 54 56 56 56 56 60 0 0 0 0 0
    0 0 0 0 0 0 0 0 0 0 0 0 0 0 0 0 0 0 0 0 0 0 0 0 0 0 0 0 0 0 0 0 0 0 0 0 0 0 0 0 0 0 0 0 0 0 0 0 0 0 0 0 0 0 0 0 0 0 0 0 0 0 0 0 0 0 0 0 0 -209 -193 24 24 30 28 29 31 30 30 32 31 34 28 29 29 29 28 28 -193 28 24 25 28 26 -193 25 -193 -193 -193 29 27 -193 -209 -209 -193 -193 -193 -193 -193 30 30 32 28 27 27 30 -193 -193 -193 -177 -177 -177 -177 26 25 27 28 26 26 27 26 25 24 23 26 28 27 27 28 28 30 32 33 32 31 33 34 32 32 32 28 29 29 30 29 28 28 28 28 34 30 30 29 31 33 33 33 34 30 31 31 32 34 31 33 33 32 33 33 35 33 31 40 40 38 38 -193 37 36 36 34 34 37 36 37 37 36 36 37 38 39 32 38 35 36 40 41 41 41 40 39 38 40 37 36 37 38 37 38 39 39 38 41 45 44 44 46 52 50 52 52 52 52 54 54 54 51 57 56 58 60 63 61 61 -193 -193 -209 -193 -209 -209 54 56 60 58 58 58 58 59 59 58 58 57 58 57 58 59 59 -177 -177 -193 -193 -193 141 142 143 145 58 -209 59 59 60 60 60 60 59 58 55 56 55 46 43 43 44 45 47 49 48 48 47 47 47 46 47 46 47 47 49 50 52 53 55 56 56 -225 -225 0 0 0 0 0
    0 0 0 0 0 0 0 0 0 0 0 0 0 0 0 0 0 0 0 0 0 0 0 0 0 0 0 0 0 0 0 0 0 0 0 0 0 0 0 0 0 0 0 0 0 0 0 0 0 0 0 0 0 0 0 0 0 0 0 0 0 0 0 0 0 0 0 0 0 -193 -193 25 25 31 28 29 31 31 30 33 31 35 28 30 30 29 29 29 28 29 25 26 29 27 -193 26 -193 -193 28 31 28 -193 -193 -193 -193 27 27 28 28 30 31 32 28 27 27 30 27 -193 -193 -177 -177 -177 -193 28 26 28 30 27 26 27 27 26 24 24 26 29 27 27 29 29 30 33 33 32 31 33 34 32 32 31 27 28 28 29 28 27 28 28 28 34 29 31 29 30 34 34 34 34 30 30 31 32 35 30 32 32 32 32 33 34 32 29 41 40 38 37 38 37 36 36 35 34 37 36 37 37 36 36 36 37 39 33 39 36 38 41 42 41 41 39 39 38 41 36 36 37 37 37 38 38 38 37 41 45 44 44 46 52 50 52 52 53 52 54 54 54 52 57 57 59 61 64 62 61 60 -193 -193 -193 -193 -209 -209 57 61 59 59 59 59 59 59 59 58 58 58 58 58 58 59 58 58 61 60 62 -193 -193 -193 -193 58 -193 59 59 60 60 60 59 59 58 56 56 56 46 44 44 45 46 48 50 50 50 49 48 49 48 48 48 48 46 47 48 51 51 53 56 -225 -225 -225 0 0 0 0 0
    0 0 0 0 0 0 0 0 0 0 0 0 0 0 0 0 0 0 0 0 0 0 0 0 0 0 0 0 0 0 0 0 0 0 0 0 0 0 0 0 0 0 0 0 0 0 0 0 0 0 0 0 0 0 0 0 0 0 0 0 0 0 0 0 0 0 0 0 0 -193 -193 25 25 31 28 29 31 31 30 33 32 35 29 32 31 31 30 29 29 30 25 27 31 29 27 28 30 30 29 32 29 -193 -193 -193 -193 27 27 28 28 30 30 32 27 27 27 30 27 -193 -193 -177 -177 28 29 29 26 29 30 28 26 24 27 25 22 24 27 30 28 27 30 28 30 34 33 31 32 34 35 32 33 30 26 28 28 28 27 27 27 27 29 34 28 31 29 29 33 34 35 33 29 29 30 32 35 30 32 31 32 32 33 33 31 28 40 38 36 34 34 36 35 36 36 34 37 36 37 36 36 36 36 36 38 32 39 36 38 40 40 39 40 39 39 38 42 36 35 36 37 37 37 38 38 36 41 46 44 44 47 53 51 52 52 53 52 54 55 55 52 58 58 59 61 65 62 61 60 -193 -193 -193 -193 -193 -209 59 62 60 59 59 59 59 59 59 58 57 58 57 57 58 58 57 58 60 60 63 -193 -193 -193 -193 58 -193 59 59 60 59 59 59 59 58 56 57 57 47 45 45 45 47 48 50 51 51 50 49 50 49 50 50 50 47 46 47 51 52 53 56 -225 -225 -225 0 0 0 0 0
    0 0 0 0 0 0 0 0 0 0 0 0 0 0 0 0 0 0 0 0 0 0 0 0 0 0 0 0 0 0 0 0 0 0 0 0 0 0 0 0 0 0 0 0 0 0 0 0 0 0 0 0 0 0 0 0 0 0 0 0 0 0 0 0 0 0 0 0 0 -209 -193 24 25 30 28 30 31 31 31 33 32 35 29 32 31 31 30 29 29 30 26 29 33 31 29 30 32 32 32 34 31 -193 -193 -193 -193 28 28 28 28 30 30 31 27 27 27 29 27 -193 -193 -193 -177 28 30 30 26 29 30 27 26 24 27 26 23 25 28 29 28 27 28 27 29 34 33 31 32 34 36 33 33 29 26 28 28 28 27 26 27 -193 29 33 28 32 28 28 31 31 -209 -209 -209 -193 29 -193 -193 30 32 32 33 33 33 35 -193 -193 -209 36 36 33 31 36 33 36 37 35 37 35 36 36 35 36 36 34 37 31 38 35 38 39 38 38 38 37 38 38 42 36 35 37 37 37 37 38 38 36 42 48 45 45 49 54 52 53 53 53 53 55 55 55 53 58 58 60 62 65 63 62 60 -193 -193 -193 -193 -193 -193 57 62 59 59 59 58 59 59 58 58 57 57 57 57 58 57 50 -193 58 58 60 -193 -193 -193 -193 58 -209 59 59 60 59 59 59 58 58 56 56 57 48 51 48 48 50 50 51 52 51 51 50 50 51 51 52 52 48 48 50 53 53 54 57 -225 -225 -225 0 0 0 0 0
    0 0 0 0 0 0 0 0 0 0 0 0 0 0 0 0 0 0 0 0 0 0 0 0 0 0 0 0 0 0 0 0 0 0 0 0 0 0 0 0 0 0 0 0 0 0 0 0 0 0 0 0 0 0 0 0 0 0 0 0 0 0 0 0 0 0 0 0 0 -209 -193 23 24 30 27 30 31 31 30 33 32 34 29 31 30 30 30 29 29 30 27 30 34 33 30 32 34 34 34 35 31 29 29 32 30 29 28 29 29 30 30 31 27 26 26 29 -193 -193 -193 -193 -177 28 29 29 26 28 29 27 26 24 28 29 25 28 29 30 29 28 28 26 29 33 31 30 32 34 36 33 33 27 25 28 -193 -193 26 26 26 -193 29 33 27 -193 -193 -193 -209 -209 -193 -209 -193 -193 -193 64 64 -209 -209 33 35 35 36 -209 -209 -209 -209 -209 38 37 34 38 33 36 38 35 37 35 36 36 35 36 35 32 35 30 37 34 37 38 37 37 37 35 36 37 41 36 36 37 38 38 38 38 38 36 42 48 45 45 50 54 53 53 53 54 53 56 56 56 54 59 59 62 63 67 65 64 62 60 61 60 59 58 57 57 62 59 59 59 58 59 59 58 58 57 57 57 57 58 57 -193 -193 59 -193 60 -209 -209 -193 57 56 65 59 59 60 59 59 59 58 58 56 56 56 46 52 49 48 50 50 51 52 52 51 51 51 52 52 53 54 49 52 54 56 56 56 58 -225 -225 -225 0 0 0 0 0
    0 0 0 0 0 0 0 0 0 0 0 0 0 0 0 0 0 0 0 0 0 0 0 0 0 0 0 0 0 0 0 0 0 0 0 0 0 0 0 0 0 0 0 0 0 0 0 0 0 0 0 0 0 0 0 0 0 0 0 0 0 0 0 0 0 0 0 0 0 -193 23 23 24 29 27 30 31 31 30 32 31 34 29 32 30 30 30 29 30 30 27 32 35 34 32 33 35 35 35 36 32 30 29 32 31 29 29 29 29 30 30 31 27 26 26 29 -193 -177 -193 -193 -177 27 29 29 25 28 29 27 26 26 30 34 -193 28 29 29 28 28 28 27 31 33 31 31 32 35 36 33 33 26 24 28 -193 -193 -193 25 26 -193 29 33 27 34 -209 -193 -209 -193 69 70 69 69 67 67 68 -209 -209 -209 -209 -209 -209 -209 -209 -209 -209 -209 -209 -209 -209 38 33 36 38 36 37 35 36 35 35 36 35 31 35 31 37 36 38 39 38 37 38 36 37 38 40 37 36 38 38 38 38 39 38 37 42 48 45 45 50 54 53 53 54 54 54 56 57 58 56 59 59 62 62 66 64 63 61 60 62 60 59 59 58 57 61 59 59 59 58 58 59 58 58 58 58 57 58 58 59 -193 58 60 58 61 -193 -209 58 58 57 65 59 59 60 59 59 59 58 58 56 56 56 46 52 49 50 50 50 51 52 52 52 51 52 52 53 54 55 51 57 58 58 57 58 -225 -225 -225 -225 0 0 0 0 0
    0 0 0 0 0 0 0 0 0 0 0 0 0 0 0 0 0 0 0 0 0 0 0 0 0 0 0 0 0 0 0 0 0 0 0 0 0 0 0 0 0 0 0 0 0 0 0 0 0 0 0 0 0 0 0 0 0 0 0 0 0 0 0 0 0 0 0 0 0 -193 24 24 24 29 27 30 30 30 30 31 31 33 29 32 30 31 31 29 31 31 28 33 36 35 33 34 35 35 35 36 33 31 30 33 32 30 30 30 30 31 30 31 27 26 26 29 -177 -177 -193 -193 -193 27 28 28 25 27 28 26 26 -193 31 36 -193 26 28 29 28 28 28 27 33 34 31 32 33 35 36 33 33 26 24 29 -193 -193 27 26 26 -193 30 33 28 35 -193 -177 -209 67 71 70 70 -193 68 69 -209 -209 -209 -193 38 38 -209 -209 0 -209 -209 -193 -209 -209 -209 -209 31 36 39 36 37 36 36 36 35 37 36 30 35 32 38 36 38 40 38 36 36 34 34 38 40 37 36 38 39 38 39 39 39 39 42 48 45 45 50 -193 54 54 54 54 54 57 58 59 57 60 60 62 62 64 63 62 60 63 63 62 61 61 60 60 63 60 59 59 58 58 59 58 59 58 58 57 58 58 -193 -209 -209 -209 -209 -209 -193 -209 57 57 56 63 59 59 60 59 58 58 58 58 55 56 56 51 54 52 52 52 52 52 53 52 52 52 52 52 53 54 55 51 57 58 57 56 -225 -225 -225 -225 -225 0 0 0 0 0
    0 0 0 0 0 0 0 0 0 0 0 0 0 0 0 0 0 0 0 0 0 0 0 0 0 0 0 0 0 0 0 0 0 0 0 0 0 0 0 0 0 0 0 0 0 0 0 0 0 0 0 0 0 0 0 0 0 0 0 0 0 0 0 0 0 0 0 0 0 25 24 24 25 29 -177 29 29 29 30 30 30 33 29 32 30 32 32 29 32 33 30 35 37 35 33 34 34 35 34 35 33 31 31 34 34 32 31 31 31 31 30 31 28 26 26 28 704 705 -193 -193 -209 26 27 28 24 26 28 25 26 -193 31 35 25 25 28 28 28 28 28 29 34 33 32 32 33 35 36 33 33 26 25 29 27 -193 27 26 26 -193 30 34 28 35 -193 27 -193 69 72 -193 71 -193 -193 69 -209 -209 -209 -193 37 36 -209 -209 0 -209 -193 -209 -209 -209 -209 -209 31 37 39 36 37 36 36 36 36 38 36 29 35 32 37 36 37 38 36 34 34 31 31 38 39 37 37 39 39 39 39 39 39 39 42 48 45 45 50 -193 54 54 54 55 55 58 59 60 58 61 61 63 63 65 65 66 64 70 68 67 67 66 66 62 64 61 60 59 59 59 60 59 59 58 58 57 58 59 59 -209 -209 -209 -209 -209 -209 -209 -209 -193 54 58 57 58 58 57 57 57 57 58 55 56 55 52 54 53 53 52 52 53 53 53 52 52 53 53 54 55 55 53 57 58 58 -225 -225 -225 -225 -225 -225 0 0 0 0 0
    0 0 0 0 0 0 0 0 0 0 0 0 0 0 0 0 0 0 0 0 0 0 0 0 0 0 0 0 0 0 0 0 0 0 0 0 0 0 0 0 0 0 0 0 0 0 0 0 0 0 0 0 0 0 0 0 0 0 0 0 0 0 0 0 0 0 0 0 0 25 24 24 25 28 26 29 29 29 29 29 30 32 29 31 30 31 31 29 33 34 31 36 37 36 32 34 34 35 35 35 33 32 31 35 35 32 31 31 31 31 30 31 28 25 25 28 -193 706 25 25 -209 26 27 27 23 25 27 25 26 -193 33 35 -209 28 29 29 29 28 29 31 34 33 32 32 33 34 36 33 32 27 25 30 28 28 28 26 27 -193 30 34 28 35 26 28 -193 69 72 71 -193 -193 -193 69 -193 -209 -209 -209 -209 -209 -209 -209 0 -209 -209 -209 -209 -209 -209 -209 32 37 40 37 37 36 36 37 36 38 37 28 35 33 37 38 38 39 36 34 34 32 31 38 39 38 38 39 39 39 40 40 39 40 42 48 45 45 51 -193 54 54 55 55 55 59 61 62 59 62 62 65 66 68 68 69 69 74 71 71 71 69 67 64 65 62 61 61 59 60 61 60 60 59 59 58 59 61 62 -209 -209 -209 -209 -209 -209 -209 31 38 52 58 56 57 57 56 56 56 56 56 53 54 54 53 55 53 53 53 52 53 54 53 53 53 54 54 55 56 57 56 59 59 59 58 -225 -225 -225 -225 -225 0 0 0 0 0
    0 0 0 0 0 0 0 0 0 0 0 0 0 0 0 0 0 0 0 0 0 0 0 0 0 0 0 0 0 0 0 0 0 0 0 0 0 0 0 0 0 0 0 0 0 0 0 0 0 0 0 0 0 0 0 0 0 0 0 0 0 0 0 0 0 0 0 0 0 24 24 24 25 27 26 29 29 29 29 29 29 32 29 31 29 31 31 29 33 34 31 36 37 36 32 33 35 35 35 35 33 33 31 36 36 32 31 30 31 31 30 30 28 25 25 28 -193 -177 25 24 -193 26 27 27 22 25 26 24 27 42 -193 38 33 35 30 30 30 29 29 33 34 32 32 32 33 34 36 33 32 27 26 30 29 29 28 27 28 28 30 34 28 33 26 27 -209 -209 74 71 72 70 70 70 -193 -209 -209 -209 -209 -209 -209 -209 0 -209 -209 -209 -209 -209 -209 -209 32 37 39 37 37 37 36 37 36 39 38 28 36 36 38 39 39 39 36 35 35 34 33 39 38 38 38 39 39 40 40 40 39 41 43 50 45 45 51 -193 54 54 55 55 56 59 62 64 60 65 65 68 68 70 70 71 72 76 75 72 72 72 70 68 67 65 62 63 60 61 62 61 62 60 60 60 60 67 68 71 -209 -209 -209 -209 -209 -209 31 37 50 57 56 57 57 56 55 55 55 55 53 54 54 53 54 53 53 53 53 54 54 54 54 54 55 55 56 57 57 57 60 59 59 58 -225 -225 -225 -225 -225 0 0 0 0 0
    0 0 0 0 0 0 0 0 0 0 0 0 0 0 0 0 0 0 0 0 0 0 0 0 0 0 0 0 0 0 0 0 0 0 0 0 0 0 0 0 0 0 0 0 0 0 0 0 0 0 0 0 0 0 0 0 0 0 0 0 0 0 0 0 0 0 0 0 0 25 25 24 25 27 25 29 28 29 28 28 29 31 29 30 29 31 30 29 34 34 31 36 37 37 33 33 35 36 37 36 35 34 31 36 38 32 30 29 30 30 29 30 28 24 25 27 26 -193 25 24 24 25 26 26 22 25 27 24 28 43 -193 41 35 35 29 29 29 28 28 34 33 31 32 32 33 34 36 33 32 27 27 31 29 30 29 28 28 28 31 34 28 31 24 24 -193 -209 -193 -209 73 -193 -193 70 72 -209 -209 -209 -209 -209 -209 -209 -209 -209 -209 -209 -209 -209 -209 -209 32 37 39 37 36 37 36 37 36 39 38 27 36 37 38 39 39 38 36 35 36 34 34 39 38 38 38 40 39 39 40 40 39 41 43 51 46 46 52 55 55 55 55 -193 -193 61 66 67 64 68 67 69 70 71 71 72 73 78 80 74 75 74 71 70 67 66 63 65 60 61 63 63 65 63 62 62 62 68 68 69 72 -209 -209 -209 -209 -209 29 36 44 51 51 54 55 54 54 54 55 54 52 53 53 52 53 52 53 52 53 55 55 54 54 54 55 55 56 56 57 57 61 59 59 58 59 -193 45 -225 -225 0 0 0 0 0
    0 0 0 0 0 0 0 0 0 0 0 0 0 0 0 0 0 0 0 0 0 0 0 0 0 0 0 0 0 0 0 0 0 0 0 0 0 0 0 0 0 0 0 0 0 0 0 0 0 0 0 0 0 0 0 0 0 0 0 0 0 0 0 0 0 0 0 0 0 25 25 24 25 26 25 28 28 28 28 27 28 31 29 30 29 30 29 29 34 34 31 35 37 36 33 33 36 36 37 36 37 35 31 37 39 32 30 29 30 29 29 30 29 24 25 27 26 -193 25 24 -193 25 26 26 24 25 27 26 29 41 39 41 38 33 28 28 28 28 28 33 32 30 32 33 33 33 36 33 31 27 28 31 30 31 30 28 29 29 31 35 28 30 24 24 -193 -209 77 -209 74 -193 -193 70 73 -209 -209 -209 -209 -209 -209 -209 -209 -209 -209 -209 -209 -209 -209 -209 31 36 39 36 35 36 35 36 35 38 36 28 36 36 36 38 38 38 36 35 35 34 35 39 38 38 38 40 39 39 39 39 38 41 44 52 47 47 53 56 56 56 56 58 58 62 68 68 65 68 68 70 70 72 72 75 75 81 84 77 81 79 72 71 66 66 63 68 64 66 67 67 68 67 67 66 64 68 68 67 69 -209 48 -209 -209 -209 30 35 41 43 46 52 54 53 53 53 54 54 52 53 53 53 53 53 54 53 54 55 55 54 55 55 55 55 56 57 57 58 62 61 61 59 61 -193 45 -225 -225 0 0 0 0 0
    0 0 0 0 0 0 0 0 0 0 0 0 0 0 0 0 0 0 0 0 0 0 0 0 0 0 0 0 0 0 0 0 0 0 0 0 0 0 0 0 0 0 0 0 0 0 0 0 0 0 0 0 0 0 0 0 0 0 0 0 0 0 0 0 0 0 0 0 0 -193 28 25 25 27 25 27 27 28 27 27 28 30 29 30 29 31 29 29 34 34 31 34 36 35 31 31 35 37 38 37 39 37 31 37 39 31 29 29 29 29 29 30 30 25 26 28 28 26 26 25 25 26 26 27 25 24 26 26 29 42 -209 42 39 33 28 28 28 28 29 33 32 30 32 33 32 33 35 33 31 28 28 31 30 32 30 28 29 29 31 35 29 30 24 -209 20 -209 -193 -209 -209 -209 -193 71 74 -209 -209 -209 -209 -209 -209 -209 203 -209 206 -209 267 -209 276 -209 30 35 38 35 34 35 34 35 33 36 35 28 36 36 34 38 38 38 37 36 36 35 36 40 38 38 38 39 39 39 39 39 39 42 47 53 50 51 55 58 57 58 58 60 60 64 68 68 66 69 69 70 70 73 74 77 77 82 85 78 82 82 -193 71 66 67 65 71 70 70 70 70 71 70 70 69 67 69 69 69 70 59 -209 -209 -209 -209 29 34 39 41 42 48 52 53 53 54 56 55 53 55 55 54 54 53 54 52 54 56 55 55 55 55 56 56 56 57 57 58 63 62 63 61 63 63 -209 -209 -225 0 0 0 0 0
    0 0 0 0 0 0 0 0 0 0 0 0 0 0 0 0 0 0 0 0 0 0 0 0 0 0 0 0 0 0 0 0 0 0 0 0 0 0 0 0 0 0 0 0 0 0 0 0 0 0 0 0 0 0 0 0 0 0 0 0 0 0 0 0 0 0 0 0 0 -193 31 26 26 27 25 26 26 28 27 27 28 30 29 30 30 31 30 30 34 33 30 33 34 33 29 29 35 37 38 38 41 40 33 38 40 31 29 29 29 29 29 31 31 25 27 29 30 28 27 26 26 26 27 27 25 23 25 24 26 30 -209 -209 39 32 28 -193 28 28 31 33 31 30 32 33 32 33 36 33 32 31 30 32 32 33 31 29 29 29 31 36 28 28 23 -209 14 -209 -209 -209 -209 -209 -193 73 76 -209 -209 -193 -209 -209 -209 -209 203 202 205 -209 -177 -209 -193 -209 29 33 37 33 33 34 33 34 32 35 34 28 37 37 33 38 39 39 37 37 36 35 36 40 38 38 39 40 39 39 40 40 40 42 53 57 54 55 57 61 60 61 61 63 61 66 69 69 67 69 69 69 70 72 73 76 76 82 85 79 84 85 -193 71 67 68 67 71 72 72 71 72 72 72 72 70 67 70 69 68 68 57 53 52 52 -209 34 36 39 40 41 45 50 53 53 54 58 57 56 58 58 57 56 56 57 54 56 57 56 56 56 56 57 56 56 57 57 58 61 60 61 61 63 63 -209 -225 -225 0 0 0 0 0
    0 0 0 0 0 0 0 0 0 0 0 0 0 0 0 0 0 0 0 0 0 0 0 0 0 0 0 0 0 0 0 0 0 0 0 0 0 0 0 0 0 0 0 0 0 0 0 0 0 0 0 0 0 0 0 0 0 0 0 0 0 0 0 0 0 0 0 0 0 35 -193 27 28 28 26 26 26 30 27 27 27 30 29 30 30 31 29 30 34 33 31 32 33 32 29 29 35 37 37 37 41 41 35 39 40 32 30 30 30 30 30 32 32 26 28 31 33 30 28 27 27 27 27 27 26 24 25 24 26 28 -193 -193 38 34 30 30 29 29 34 34 31 30 32 33 32 33 36 33 34 34 31 34 34 35 33 29 30 29 31 36 28 27 23 19 -209 -209 -209 -209 -209 -209 -209 73 75 -193 -193 -193 -209 -193 -209 -209 203 202 204 209 -209 -209 -209 -209 30 33 37 33 32 34 33 33 31 34 34 28 37 37 33 39 40 39 38 36 34 34 36 40 39 39 40 40 40 40 41 42 42 46 56 61 57 59 61 66 65 69 68 66 65 68 71 70 69 69 68 69 71 73 74 77 76 81 83 82 88 89 89 76 69 70 70 74 74 73 72 72 73 72 72 71 67 69 68 67 66 56 52 50 51 45 36 36 38 39 41 44 49 54 54 55 60 61 59 60 61 60 58 58 59 56 57 58 57 56 57 56 57 57 57 57 57 58 59 58 59 57 59 60 44 -225 -225 0 0 0 0 0
    0 0 0 0 0 0 0 0 0 0 0 0 0 0 0 0 0 0 0 0 0 0 0 0 0 0 0 0 0 0 0 0 0 0 0 0 0 0 0 0 0 0 0 0 0 0 0 0 0 0 0 0 0 0 0 0 0 0 0 0 0 0 0 0 0 0 0 0 0 38 -193 30 29 31 30 27 26 32 27 27 27 29 28 28 30 30 28 30 34 33 31 32 32 31 29 28 34 37 37 38 41 41 35 39 40 32 30 30 30 30 30 33 33 26 30 32 36 32 30 28 28 27 27 26 25 22 23 23 23 -209 -193 1008 -193 33 30 -193 30 31 35 34 31 31 33 32 32 33 36 34 35 37 32 35 36 36 34 29 30 29 31 37 28 24 23 20 -209 -209 12 -209 -209 -209 -209 74 76 -193 -193 -193 205 -193 -209 -209 204 203 204 -193 -209 -209 -209 -209 30 33 37 33 32 34 33 33 31 34 34 29 38 38 34 42 45 40 38 37 36 36 38 40 39 40 41 42 41 41 43 45 46 52 58 63 63 63 66 68 68 70 70 69 68 69 71 71 70 70 69 69 71 74 76 79 78 81 84 85 90 92 93 89 -209 -193 -209 74 74 73 72 73 72 72 71 70 66 69 67 64 63 57 56 53 54 47 37 37 37 39 41 44 51 55 56 56 62 66 62 63 63 62 61 60 60 58 58 59 59 58 58 57 58 58 58 59 58 58 59 57 57 55 56 -209 40 -209 -225 0 0 0 0 0
    0 0 0 0 0 0 0 0 0 0 0 0 0 0 0 0 0 0 0 0 0 0 0 0 0 0 0 0 0 0 0 0 0 0 0 0 0 0 0 0 0 0 0 0 0 0 0 0 0 0 0 0 0 0 0 0 0 0 0 0 0 0 0 0 0 0 0 0 0 38 -209 31 29 31 33 28 28 33 28 27 27 29 28 28 29 30 27 29 33 33 31 31 31 31 29 29 35 37 38 38 41 41 35 39 40 33 30 30 30 30 31 34 34 26 31 34 37 36 33 32 31 29 29 28 26 23 23 23 23 24 -193 1008 -177 -193 31 -193 31 35 36 34 31 31 33 32 32 34 36 35 37 38 34 36 38 38 35 29 29 -193 30 -193 -193 11 20 -209 14 -209 13 -209 -209 0 -209 -209 -209 -209 -209 -209 -193 -193 -209 -209 206 -193 205 -193 -209 -209 -209 -209 30 32 37 32 32 34 33 33 31 34 34 30 39 39 36 46 57 -209 41 39 37 38 40 42 40 41 43 43 43 43 46 51 52 56 60 66 67 66 68 70 70 71 71 70 70 70 71 71 71 70 70 70 72 74 77 78 77 78 82 85 91 97 100 -209 -209 -209 -209 -193 73 74 72 73 73 72 71 70 64 67 64 61 60 56 55 54 55 52 45 43 42 43 46 50 54 59 60 59 64 67 66 65 66 65 64 63 63 60 59 60 60 59 59 58 59 59 59 60 59 58 58 57 57 55 55 43 42 43 -193 0 0 0 0 0
    0 0 0 0 0 0 0 0 0 0 0 0 0 0 0 0 0 0 0 0 0 0 0 0 0 0 0 0 0 0 0 0 0 0 0 0 0 0 0 0 0 0 0 0 0 0 0 0 0 0 0 0 0 0 0 0 0 0 0 0 0 0 0 0 0 0 0 0 0 31 -193 28 28 30 33 28 29 34 30 28 29 30 29 28 30 30 27 29 32 31 31 30 30 31 30 29 34 37 38 38 41 41 35 38 40 32 30 30 30 30 31 34 34 26 31 33 36 35 33 32 32 29 29 28 27 23 23 24 24 25 25 -193 -193 31 32 32 30 36 35 34 31 32 33 32 33 34 36 36 39 39 36 38 40 39 -193 28 28 -193 -193 -193 -193 0 12 -209 11 10 12 16 -209 -209 -209 -209 -209 -209 -209 -209 -209 -209 -209 -193 209 -193 -193 -209 29 -209 -209 -209 29 32 37 32 32 34 32 32 31 34 34 29 38 38 35 48 60 -209 -209 39 36 37 40 42 40 42 43 44 44 44 49 54 55 58 62 67 68 68 69 70 70 71 70 70 70 68 70 69 69 68 69 70 71 72 75 76 73 73 74 -193 -209 -209 51 53 55 60 -209 70 71 72 71 73 73 72 71 69 63 65 62 60 59 56 55 54 54 52 46 44 42 41 44 53 57 66 66 64 68 70 69 67 67 67 65 65 65 62 60 61 62 60 60 59 60 60 60 60 60 58 57 57 57 55 54 51 50 57 58 0 0 0 0 0
    0 0 0 0 0 0 0 0 0 0 0 0 0 0 0 0 0 0 0 0 0 0 0 0 0 0 0 0 0 0 0 0 0 0 0 0 0 0 0 0 0 0 0 0 0 0 0 0 0 0 0 0 0 0 0 0 0 0 0 0 0 0 0 0 0 0 0 0 0 28 36 28 28 31 32 29 29 34 30 29 30 30 29 29 31 31 28 31 33 32 32 30 31 30 30 29 33 36 36 35 39 38 30 34 39 31 29 29 29 30 31 34 34 26 30 32 36 34 32 31 31 29 29 28 27 24 24 25 25 25 25 30 30 29 30 30 29 35 35 33 31 32 33 33 33 35 36 37 40 39 37 38 40 39 34 27 27 0 -193 0 0 0 0 -209 -209 -209 13 18 13 12 -209 -209 -209 -209 -209 -209 -209 -209 -209 -209 -193 -193 -193 -209 -193 -209 -209 -209 29 32 37 33 33 35 32 32 31 34 34 29 38 38 -177 47 62 72 -209 -209 30 35 39 41 40 43 44 46 46 46 51 56 57 60 63 68 69 69 70 71 71 71 71 70 69 68 68 68 68 66 67 67 69 70 74 74 70 61 54 52 48 44 44 44 48 51 54 -193 64 71 72 73 74 73 72 69 63 64 62 59 59 57 57 56 56 51 42 41 38 37 41 48 56 65 66 67 69 71 70 68 68 68 67 66 65 62 61 61 63 61 60 60 61 61 61 62 61 59 58 57 56 54 54 54 54 60 60 0 0 0 0 0
    0 0 0 0 0 0 0 0 0 0 0 0 0 0 0 0 0 0 0 0 0 0 0 0 0 0 0 0 0 0 0 0 0 0 0 0 0 0 0 0 0 0 0 0 0 0 0 0 0 0 0 0 0 0 0 0 0 0 0 0 0 0 0 0 0 0 0 0 0 27 32 27 28 32 32 29 30 33 31 29 30 30 29 30 32 31 28 33 34 33 34 31 31 30 30 29 32 35 35 32 35 32 27 29 37 30 28 28 29 30 30 33 34 27 29 30 35 33 32 31 31 29 29 28 27 24 25 25 25 25 25 30 30 29 30 30 30 34 34 32 31 32 33 33 34 35 36 37 40 38 37 39 40 39 33 26 26 0 0 0 0 0 -193 -209 -209 -209 22 25 27 31 33 36 -209 -209 -209 -209 -209 -209 -209 -209 -193 -193 -209 -209 -209 -209 -209 -209 29 33 38 34 34 36 34 33 31 35 34 30 38 38 33 48 64 73 -209 -209 -209 36 39 42 41 44 45 47 49 49 53 57 58 61 64 68 69 70 70 71 71 71 71 70 69 67 66 65 66 64 65 65 66 67 72 70 64 57 52 50 46 44 44 43 45 43 48 -209 -209 70 72 74 75 75 74 71 68 67 64 61 59 56 56 55 -193 46 39 41 40 -209 -209 -209 62 70 70 71 71 72 71 70 69 69 68 67 67 64 62 61 64 62 61 61 62 62 63 63 63 60 61 60 58 58 58 58 58 63 62 0 0 0 0 0
    0 0 0 0 0 0 0 0 0 0 0 0 0 0 0 0 0 0 0 0 0 0 0 0 0 0 0 0 0 0 0 0 0 0 0 0 0 0 0 0 0 0 0 0 0 0 0 0 0 0 0 0 0 0 0 0 0 0 0 0 0 0 0 0 0 0 0 0 0 24 26 25 27 33 32 29 30 33 31 30 31 31 29 30 32 31 29 33 32 32 33 30 30 30 30 29 30 35 35 33 35 34 28 29 35 30 28 28 29 30 30 33 34 27 29 29 33 31 31 31 31 29 28 27 27 25 25 25 26 26 26 29 28 27 28 28 29 31 32 31 30 32 33 33 33 34 36 37 39 37 37 38 39 39 33 27 27 0 0 0 0 0 -209 -209 -209 23 27 29 30 34 33 33 34 34 -193 -209 -209 -209 -209 -209 -177 -209 -209 -209 -193 -209 -209 -209 31 35 39 35 35 37 35 34 32 36 35 30 38 38 36 52 65 73 73 -209 -209 38 41 43 43 45 47 50 52 52 54 59 59 63 64 67 70 70 71 71 71 71 71 71 70 68 66 65 66 65 66 67 68 68 72 70 65 58 52 48 45 45 44 43 45 -193 -209 -209 -193 72 73 75 75 76 75 -193 70 68 66 63 59 55 56 53 51 41 38 40 -193 -209 -209 -209 -209 74 74 73 72 73 72 71 70 71 70 69 68 66 63 63 67 64 62 62 64 64 65 66 65 62 65 66 62 62 64 62 62 66 64 0 0 0 0 0
    0 0 0 0 0 0 0 0 0 0 0 0 0 0 0 0 0 0 0 0 0 0 0 0 0 0 0 0 0 0 0 0 0 0 0 0 0 0 0 0 0 0 0 0 0 0 0 0 0 0 0 0 0 0 0 0 0 0 0 0 0 0 0 0 0 0 0 0 0 22 23 23 25 31 31 28 29 32 30 30 30 30 29 29 31 30 29 32 31 31 32 29 31 30 31 30 31 34 34 34 33 33 29 29 33 30 29 28 29 30 30 33 34 27 29 29 32 30 30 31 31 29 27 26 26 26 26 26 26 26 27 30 29 28 28 29 29 31 31 31 30 32 32 33 33 34 35 36 39 37 37 39 39 38 35 28 29 0 -193 -193 0 -193 -209 37 26 24 31 29 30 34 32 32 33 33 34 -193 28 -193 -209 339 340 341 -209 -209 32 39 -209 43 35 37 40 37 37 38 36 36 34 37 37 34 41 46 -193 60 68 72 72 69 69 -193 -193 48 45 48 50 53 54 54 56 61 61 64 64 67 69 70 71 71 71 71 70 71 70 67 66 65 66 65 66 67 67 65 71 69 64 58 51 47 44 44 44 42 41 36 -209 -209 -193 74 74 76 76 77 76 74 72 70 70 67 61 56 57 55 -209 -209 39 42 -209 -209 -209 -209 -209 75 75 74 73 72 72 71 70 71 70 69 69 68 66 66 69 67 64 66 65 65 66 66 66 63 67 66 62 63 64 63 63 66 64 0 0 0 0 0
    0 0 0 0 0 0 0 0 0 0 0 0 0 0 0 0 0 0 0 0 0 0 0 0 0 0 0 0 0 0 0 0 0 0 0 0 0 0 0 0 0 0 0 0 0 0 0 0 0 0 0 0 0 0 0 0 0 0 0 0 0 0 0 0 0 0 0 0 0 21 22 23 24 30 30 28 29 31 30 30 30 30 29 29 30 29 28 31 31 0 -256 -1 -722 31 32 31 31 34 34 34 32 32 29 29 32 30 29 28 28 30 29 33 33 27 28 27 29 28 29 28 29 28 27 26 27 27 26 27 26 27 27 31 30 28 28 30 30 32 32 32 31 32 32 33 32 34 35 36 39 37 37 39 39 38 35 29 30 -193 -209 -193 -193 -193 33 38 28 26 34 31 32 34 32 32 32 33 34 28 29 31 -209 338 338 -209 -209 -209 33 40 41 43 38 38 41 39 39 40 38 37 36 39 39 38 47 58 61 62 67 70 69 67 68 60 66 -193 43 52 53 55 56 57 57 63 62 66 65 66 69 70 70 71 71 70 69 70 70 66 65 64 65 65 67 68 68 66 72 71 67 60 51 46 43 44 44 42 38 37 -209 -209 74 75 75 76 76 77 76 74 74 73 73 73 70 60 60 59 -193 -209 -209 -209 -209 -209 77 82 78 76 76 75 74 73 72 71 71 71 70 70 69 69 68 68 71 69 66 68 67 68 67 66 66 63 67 68 62 62 63 62 62 65 64 0 0 0 0 0
    0 0 0 0 0 0 0 0 0 0 0 0 0 0 0 0 0 0 0 0 0 0 0 0 0 0 0 0 0 0 0 0 0 0 0 0 0 0 0 0 0 0 0 0 0 0 0 0 0 0 0 0 0 0 0 0 0 0 0 0 0 0 0 0 0 0 0 0 0 21 22 22 24 30 30 28 29 30 30 30 30 30 29 29 30 29 29 31 30 30 31 29 32 32 33 32 31 34 34 33 32 31 29 29 31 30 28 27 28 29 28 33 33 27 27 26 28 26 28 28 28 27 26 26 27 27 27 28 27 27 27 31 29 29 28 30 30 32 32 32 31 32 32 32 32 33 34 36 38 36 36 38 38 37 35 30 31 -193 -209 -209 -193 -209 34 38 29 28 35 31 33 35 33 33 33 33 34 28 29 30 -193 -193 336 -209 -209 -209 34 40 40 43 39 40 42 -193 41 42 39 39 37 40 40 41 54 59 62 62 65 68 68 65 67 62 70 63 -193 55 63 67 66 62 59 63 65 68 66 66 67 68 69 70 69 64 62 68 69 64 64 65 65 66 69 69 68 67 73 72 70 63 53 48 45 46 45 41 -193 -209 74 73 74 75 75 75 75 76 75 74 74 74 73 74 73 69 65 65 -209 -209 -209 -193 -209 -209 76 77 76 74 76 75 74 73 72 71 71 72 72 71 69 70 69 70 74 72 69 70 68 69 69 69 67 63 68 68 63 65 65 63 63 66 65 0 0 0 0 0
    0 0 0 0 0 0 0 0 0 0 0 0 0 0 0 0 0 0 0 0 0 0 0 0 0 0 0 0 0 0 0 0 0 0 0 0 0 0 0 0 0 0 0 0 0 0 0 0 0 0 0 0 0 0 0 0 0 0 0 0 0 0 0 0 0 0 0 0 0 21 22 21 24 30 29 28 29 30 30 30 31 31 29 29 30 29 29 31 30 30 30 29 33 32 34 32 31 34 34 34 32 31 29 28 30 29 28 27 27 29 28 31 32 27 26 25 26 25 26 26 27 27 27 27 30 30 30 31 29 29 29 33 30 29 29 31 30 32 32 32 31 32 32 32 31 33 33 35 38 35 36 38 37 37 35 31 32 -193 -209 -209 -209 -209 36 38 30 28 36 32 33 35 33 33 33 33 33 28 28 29 -193 -209 334 -209 -193 -209 34 39 40 42 41 41 43 43 44 44 -193 40 38 41 42 44 57 61 64 63 65 67 67 66 68 64 72 -225 -225 -225 72 71 70 68 63 63 65 66 65 63 64 64 64 69 67 61 60 64 68 64 64 65 65 67 69 69 69 67 73 73 71 63 54 50 46 48 48 43 -193 67 73 72 73 74 74 75 75 75 75 74 74 74 74 75 75 73 -209 -209 -209 -209 -209 -193 -193 -209 -209 -193 72 72 76 75 75 74 73 71 72 73 73 72 70 71 71 72 76 75 71 71 69 70 70 69 68 67 69 69 66 67 68 66 66 67 66 0 0 0 0 0
    0 0 0 0 0 0 0 0 0 0 0 0 0 0 0 0 0 0 0 0 0 0 0 0 0 0 0 0 0 0 0 0 0 0 0 0 0 0 0 0 0 0 0 0 0 0 0 0 0 0 0 0 0 0 0 0 0 0 0 0 0 0 0 0 0 0 0 0 0 22 22 21 24 31 29 28 29 30 30 31 32 32 30 30 31 30 30 32 30 30 30 29 33 32 34 32 31 33 34 33 31 30 29 27 29 28 27 25 26 27 26 29 30 26 25 24 25 23 25 25 26 27 26 27 31 32 34 35 31 31 29 33 31 29 29 31 30 32 32 32 31 32 32 32 31 32 33 34 37 34 35 37 37 36 35 31 33 27 38 34 -193 -193 37 37 30 28 36 32 34 35 34 33 33 34 34 28 29 30 -209 -209 333 -193 -193 -209 35 40 41 43 43 43 47 50 50 -193 -193 -193 -193 -209 -209 55 61 65 67 65 67 68 68 68 69 67 73 74 85 91 74 73 72 70 69 67 67 62 58 58 59 59 60 65 62 59 60 63 67 64 64 64 64 67 69 69 69 68 74 74 72 63 54 52 49 51 53 54 60 69 73 72 73 74 74 74 74 75 74 73 74 -193 74 75 76 77 -209 -209 -209 -209 -209 -193 179 -209 -209 -193 72 73 77 76 76 75 74 73 73 74 74 73 70 71 70 73 78 77 73 74 71 72 72 71 70 69 70 69 66 67 68 66 66 68 66 0 0 0 0 0
    0 0 0 0 0 0 0 0 0 0 0 0 0 0 0 0 0 0 0 0 0 0 0 0 0 0 0 0 0 0 0 0 0 0 0 0 0 0 0 0 0 0 0 0 0 0 0 0 0 0 0 0 0 0 0 0 0 0 0 0 0 0 0 0 0 0 0 0 0 25 23 22 24 34 29 28 30 30 29 31 31 31 29 30 30 29 30 33 30 30 31 30 33 33 34 32 31 33 34 34 31 31 29 28 28 28 27 26 26 26 25 28 29 27 24 22 23 22 25 25 25 27 26 28 -193 -193 35 35 33 32 29 33 30 29 28 30 31 31 31 32 31 32 31 32 31 31 33 32 36 33 34 36 36 36 35 32 34 27 38 35 34 34 37 35 28 27 36 32 33 35 33 32 33 34 34 28 30 30 -193 -193 -177 -193 -177 -193 37 41 42 45 48 51 53 55 55 56 57 58 58 60 59 58 63 65 68 67 68 68 69 69 70 69 74 78 84 -193 72 71 70 69 67 66 66 59 57 57 57 58 59 66 62 61 63 66 68 66 66 66 66 69 70 70 70 69 74 74 73 66 55 53 52 54 56 59 66 71 74 73 74 74 74 74 74 74 74 73 74 74 74 75 76 76 -209 -209 -209 -209 -209 -209 179 -209 -193 72 -209 74 77 77 77 76 75 75 75 75 76 74 72 71 71 76 85 80 74 75 72 74 72 72 70 71 71 70 67 68 68 67 66 68 67 0 0 0 0 0
    0 0 0 0 0 0 0 0 0 0 0 0 0 0 0 0 0 0 0 0 0 0 0 0 0 0 0 0 0 0 0 0 0 0 0 0 0 0 0 0 0 0 0 0 0 0 0 0 0 0 0 0 0 0 0 0 0 0 0 0 0 0 0 0 0 0 0 0 0 24 18 18 23 33 28 27 29 28 28 30 31 31 28 29 29 27 30 31 29 28 29 29 32 34 35 33 31 33 35 35 32 33 30 28 29 30 29 27 27 29 23 28 32 32 25 23 25 23 26 25 25 26 24 25 -193 -177 35 35 34 35 30 33 31 29 28 31 31 31 31 32 31 31 31 32 30 30 33 31 35 32 33 35 35 35 36 32 34 27 35 34 33 31 34 32 27 27 37 32 33 35 33 33 33 34 34 29 30 31 28 31 -209 -177 -177 -177 37 40 43 46 51 55 56 57 58 58 59 60 60 62 60 60 63 64 69 68 69 69 70 70 71 71 76 82 84 89 74 73 71 69 66 62 62 56 53 55 57 59 60 68 63 62 62 66 68 66 66 67 66 69 71 71 70 69 74 75 73 73 -193 57 58 60 67 70 71 73 75 74 74 75 74 74 74 74 74 73 73 -193 -193 -193 75 76 -193 -209 -209 -209 -209 -209 -209 -209 69 72 -209 74 76 77 77 77 76 75 76 76 76 75 73 72 71 76 85 77 73 75 71 72 68 67 67 69 70 69 67 68 68 68 67 68 67 0 0 0 0 0
    0 0 0 0 0 0 0 0 0 0 0 0 0 0 0 0 0 0 0 0 0 0 0 0 0 0 0 0 0 0 0 0 0 0 0 0 0 0 0 0 0 0 0 0 0 0 0 0 0 0 0 0 0 0 0 0 0 0 0 0 0 0 0 0 0 0 0 0 0 -225 -225 14 22 30 26 26 28 27 27 30 31 31 28 28 28 27 29 29 27 26 26 26 30 31 36 33 32 33 35 36 33 34 33 31 31 33 33 30 28 33 23 29 31 36 27 24 26 24 26 25 24 24 21 24 -177 848 -177 35 34 35 32 33 31 29 28 31 31 31 32 32 31 31 31 31 29 31 33 30 35 33 33 36 36 36 37 32 34 -225 -225 -225 -225 -225 -225 -225 -225 28 38 32 33 34 33 32 33 34 34 29 31 31 28 30 34 -193 -193 -193 37 40 44 48 53 58 58 59 60 60 60 61 62 64 60 62 64 63 69 68 69 69 70 70 72 73 77 80 83 85 74 74 72 68 62 60 59 52 50 53 54 57 59 67 63 62 63 64 69 66 67 67 66 70 71 71 71 68 74 76 75 75 76 60 -193 72 74 76 73 73 75 74 74 75 74 74 73 74 73 73 73 -209 -209 -209 -193 -209 -209 -209 -209 -209 -209 -209 -209 -209 -209 -209 -209 74 77 77 78 77 76 76 76 76 76 75 72 71 71 76 84 -193 71 71 66 67 61 59 61 64 66 66 64 68 68 68 67 67 67 0 0 0 0 0
    0 0 0 0 0 0 0 0 0 0 0 0 0 0 0 0 0 0 0 0 0 0 0 0 0 0 0 0 0 0 0 0 0 0 0 0 0 0 0 0 0 0 0 0 0 0 0 0 0 0 0 0 0 0 0 0 0 0 0 0 0 0 0 0 0 0 0 0 0 30 -225 -225 -225 -225 -225 -225 -225 23 24 27 28 28 27 27 27 28 29 29 28 28 27 27 31 31 36 32 33 32 34 35 32 33 33 31 33 32 33 32 28 -225 -225 -225 -225 -225 -225 -225 -225 -225 -225 -225 -225 -225 -225 -225 -225 -225 -225 -193 30 28 32 34 34 32 31 35 32 34 34 33 32 32 31 32 29 32 34 30 38 34 34 37 37 37 37 31 -225 -225 -225 -225 -225 -225 -225 -225 -225 -225 38 32 33 34 33 32 32 33 33 28 31 30 -225 -225 -225 -225 27 27 37 40 46 -193 55 61 60 61 62 62 61 63 63 65 60 62 63 63 67 68 68 69 70 72 74 74 78 80 83 82 74 73 70 67 62 59 59 53 50 52 55 57 59 64 63 63 63 63 68 65 66 67 65 69 70 70 70 65 74 75 74 74 76 57 -193 72 74 74 72 72 75 73 74 75 74 74 73 73 73 73 73 -193 -209 -209 -209 -209 69 -209 -209 -193 -209 -209 -209 -209 -209 -193 75 75 77 78 79 78 77 76 77 77 77 75 73 71 71 75 77 72 71 69 61 60 57 57 58 60 60 60 60 64 66 67 66 66 66 0 0 0 0 0
    0 0 0 0 0 0 0 0 0 0 0 0 0 0 0 0 0 0 0 0 0 0 0 0 0 0 0 0 0 0 0 0 0 0 0 0 0 0 0 0 0 0 0 0 0 0 0 0 0 0 0 0 0 0 0 0 0 0 0 0 0 0 0 0 0 0 0 0 0 41 41 -225 -225 -225 -225 -225 -225 -225 -225 -225 -225 -225 -225 -225 -225 -225 -225 -225 -225 -225 -225 -225 -225 -225 -225 -225 -225 -225 -225 -225 -225 33 -225 -225 -225 -225 -225 -225 -225 -225 -225 -225 -225 -225 -225 -225 -225 -225 -225 -225 -225 -225 -225 -225 -225 -225 -225 -225 -225 -225 -225 35 32 33 32 35 33 35 35 34 33 33 31 31 28 32 33 31 37 34 34 37 37 37 36 -225 -225 -225 -225 -225 -225 -225 -225 -225 -225 -225 -225 33 35 34 33 33 33 33 33 28 -225 -225 -225 -225 -225 -225 -225 26 37 41 49 -193 56 63 61 62 63 63 62 64 64 65 61 62 63 63 64 67 65 69 71 72 74 76 77 79 79 76 72 71 69 66 62 60 59 56 51 53 55 58 59 63 62 63 65 65 68 66 66 68 66 70 71 71 71 68 74 79 76 76 79 72 74 73 73 72 72 71 74 72 73 74 74 73 73 72 72 71 72 -193 69 -209 -193 -209 -209 -209 -209 -209 -209 -209 -209 -209 -209 76 76 77 79 80 80 80 78 78 78 79 78 77 74 72 72 75 76 72 71 68 62 60 57 57 58 59 59 59 59 62 66 68 69 69 69 0 0 0 0 0
    0 0 0 0 0 0 0 0 0 0 0 0 0 0 0 0 0 0 0 0 0 0 0 0 0 0 0 0 0 0 0 0 0 0 0 0 0 0 0 0 0 0 0 0 0 0 0 0 0 0 0 0 0 0 0 0 0 0 0 0 0 0 0 0 0 0 0 0 0 41 42 43 44 -225 -225 -225 -225 -225 -225 -225 -225 -225 -225 -225 -225 -225 -225 -225 -225 -225 -225 -225 -225 -225 -225 -225 -225 -225 -225 -225 -225 -225 -225 -225 -225 -225 -225 -225 -225 -225 -225 -225 -225 -225 -225 -225 -225 -225 -225 -225 -225 -225 -225 -225 -225 -225 -225 -225 -225 -225 -225 -225 -225 -225 -225 -225 -225 -225 33 33 32 31 29 -225 -225 -225 -225 29 35 -225 -225 -225 -225 -225 -225 -225 -225 -225 -225 -225 -225 -225 -225 -225 -225 -225 -225 -225 -225 -225 -225 -225 -225 -225 -225 -225 -225 -225 -225 -225 -225 -225 -225 -225 38 40 52 -209 57 65 63 62 63 65 63 65 64 66 63 63 65 65 66 69 69 71 72 73 75 77 77 76 74 72 71 70 69 67 63 61 60 57 52 54 56 59 60 63 62 63 65 66 68 66 66 68 67 72 72 72 72 72 75 86 -209 77 -193 -209 74 74 73 72 72 71 73 72 73 74 73 72 72 72 71 70 70 -193 68 -193 66 -193 -209 -209 -209 105 -193 -209 -209 -209 -209 74 76 78 79 80 80 80 79 79 80 81 81 79 77 75 76 80 78 72 70 67 62 61 59 58 59 60 60 60 61 66 68 70 72 72 72 0 0 0 0 0
    0 0 0 0 0 0 0 0 0 0 0 0 0 0 0 0 0 0 0 0 0 0 0 0 0 0 0 0 0 0 0 0 0 0 0 0 0 0 0 0 0 0 0 0 0 0 0 0 0 0 0 0 0 0 0 0 0 0 0 0 0 0 0 0 0 0 0 0 0 42 44 47 49 50 -225 -225 -225 -225 -225 -225 -225 -225 -225 -225 -225 -225 -225 -225 -225 -225 -225 -225 -225 -225 -225 -225 -225 -225 -225 -225 -225 -225 -225 -225 -225 -225 -225 -225 -225 -225 -225 -225 -225 -225 -225 -225 -225 -225 -225 -225 -225 -225 -225 -225 -225 -225 -225 -225 -225 -225 -225 -225 -225 -225 -225 -225 -225 -225 -225 -225 -225 -225 -225 -225 -225 -225 -225 -225 -225 -225 -225 -225 -225 -225 -225 -225 -225 -225 -225 -225 -225 -225 -225 -225 -225 -225 -225 -225 -225 -225 -225 -225 -225 -225 -225 -225 -225 -225 -225 -225 -225 -225 -225 -225 -225 -225 -225 -209 59 67 65 64 64 65 63 65 64 66 64 63 65 66 65 70 70 72 73 74 76 78 76 76 73 72 70 69 68 67 63 63 61 59 55 56 58 60 60 63 62 63 64 66 67 66 64 69 67 73 72 72 72 -209 -209 91 -193 -209 -209 -209 -209 76 74 72 72 72 73 72 74 73 73 72 72 71 70 70 70 -193 68 -193 65 -193 -209 -209 106 106 109 -209 -209 -209 -209 76 79 80 80 82 82 82 82 82 83 84 83 83 81 78 80 80 78 71 69 65 62 61 60 59 60 61 61 61 63 66 69 70 73 73 73 0 0 0 0 0
    0 0 0 0 0 0 0 0 0 0 0 0 0 0 0 0 0 0 0 0 0 0 0 0 0 0 0 0 0 0 0 0 0 0 0 0 0 0 0 0 0 0 0 0 0 0 0 0 0 0 0 0 0 0 0 0 0 0 0 0 0 0 0 0 0 0 0 0 0 44 47 52 54 54 56 -225 -225 -225 -225 -225 -225 -225 -225 -225 -225 -225 -225 -225 -225 -225 -225 -225 -225 -225 -225 -225 -225 -225 -225 -225 -225 -225 -225 -225 -225 -225 -225 -225 -225 -225 -225 -225 -225 -225 -225 -225 -225 -225 -225 -225 -225 -225 -225 -225 -225 -225 -225 -225 -225 -225 -225 -225 -225 -225 -225 -225 -225 -225 -225 -225 -225 -225 -225 -225 -225 -225 -225 -225 -225 -225 -225 -225 -225 -225 -225 -225 -225 -225 -225 -225 -225 -225 -225 -225 -225 -225 -225 -225 -225 -225 -225 -225 -225 -225 -225 -225 -225 -225 -225 -225 -225 -225 -225 -225 -225 -225 -225 -225 60 68 65 64 63 64 62 64 63 64 63 62 64 65 64 69 69 70 72 72 74 76 75 74 71 71 69 68 68 67 63 63 61 61 58 59 60 62 61 63 62 63 64 66 67 66 62 69 68 74 75 75 75 -209 -193 -193 -193 -209 -209 -209 -209 78 76 76 76 74 75 75 77 76 76 74 73 71 71 70 70 -193 69 -193 65 -193 -209 -209 106 105 108 -209 -209 -193 82 80 82 82 81 82 82 83 82 83 84 84 84 84 82 79 80 80 76 70 68 65 62 61 60 60 60 61 61 61 62 64 67 68 71 74 74 0 0 0 0 0
    0 0 0 0 0 0 0 0 0 0 0 0 0 0 0 0 0 0 0 0 0 0 0 0 0 0 0 0 0 0 0 0 0 0 0 0 0 0 0 0 0 0 0 0 0 0 0 0 0 0 0 0 0 0 0 0 0 0 0 0 0 0 0 0 0 0 0 0 0 44 51 55 56 57 58 58 -225 -225 -225 -225 -225 -225 -225 -225 -225 -225 -225 -225 -225 -225 -225 -225 -225 -225 -225 -225 -225 -225 -225 -225 -225 -225 -225 -225 -225 -225 -225 -225 -225 -225 -225 -225 -225 -225 -225 -225 -225 -225 -225 -225 -225 -225 -225 -225 -225 -225 -225 -225 -225 -225 -225 -225 -225 -225 -225 -225 -225 -225 -225 -225 -225 -225 -225 -225 -225 -225 -225 -225 -225 -225 -225 -225 -225 -225 -225 -225 -225 -225 -225 -225 -225 -225 -225 -225 -225 -225 -225 -225 -225 -225 -225 -225 -225 -225 -225 -225 -225 -225 -225 -225 -225 -225 -225 -225 -225 -225 -225 -225 59 66 64 62 62 63 61 62 62 63 62 61 63 64 64 68 69 69 70 70 72 74 74 72 70 70 68 67 67 65 62 62 61 61 58 58 60 63 61 63 62 63 63 65 66 65 60 69 68 75 75 77 -209 -209 -193 -193 -193 -193 -209 -209 -209 79 -193 76 76 75 76 75 77 78 83 78 75 72 -209 -209 -209 -209 70 -193 64 -193 -193 -209 106 105 107 -209 -209 -193 83 82 83 82 81 83 83 83 83 83 84 84 84 84 80 77 79 77 74 70 68 66 63 61 60 60 61 61 61 62 62 64 67 68 70 73 76 0 0 0 0 0
    0 0 0 0 0 0 0 0 0 0 0 0 0 0 0 0 0 0 0 0 0 0 0 0 0 0 0 0 0 0 0 0 0 0 0 0 0 0 0 0 0 0 0 0 0 0 0 0 0 0 0 0 0 0 0 0 0 0 0 0 0 0 0 0 0 0 0 0 0 47 56 58 58 58 59 60 59 -225 -225 -225 -225 -225 -225 -225 -225 -225 -225 -225 -225 -225 -225 -225 -225 -225 -225 -225 -225 -225 -225 -225 -225 -225 -225 -225 -225 -225 -225 -225 -225 -225 -225 -225 -225 -225 -225 -225 -225 -225 -225 -225 -225 -225 -225 -225 -225 -225 -225 -225 -225 -225 -225 -225 -225 -225 -225 -225 -225 -225 -225 -225 -225 -225 -225 -225 -225 -225 -225 -225 -225 -225 -225 -225 -225 -225 -225 -225 -225 -225 -225 -225 -225 -225 -225 -225 -225 -225 -225 -225 -225 -225 -225 -225 -225 -225 -225 -225 -225 -225 -225 -225 -225 -225 -225 -225 -225 -225 -225 -225 59 65 64 61 62 63 60 61 61 62 61 61 63 63 62 67 69 68 69 69 71 71 71 71 69 69 67 67 66 65 62 62 61 61 58 58 59 63 62 64 64 63 64 66 68 67 60 69 67 75 -193 -193 -209 -209 -193 -193 51 -193 -193 -209 -209 -193 -209 74 75 74 75 73 -193 -209 -209 -193 76 75 -209 -209 -209 -209 -193 -193 66 -193 -209 -209 105 103 -193 102 -193 -209 86 85 84 83 82 84 83 83 83 83 83 83 83 82 77 76 76 76 73 71 69 67 65 62 61 60 61 62 62 62 62 64 67 67 70 72 75 0 0 0 0 0
    0 0 0 0 0 0 0 0 0 0 0 0 0 0 0 0 0 0 0 0 0 0 0 0 0 0 0 0 0 0 0 0 0 0 0 0 0 0 0 0 0 0 0 0 0 0 0 0 0 0 0 0 0 0 0 0 0 0 0 0 0 0 0 0 0 0 0 0 0 58 59 61 61 60 60 60 59 -225 -225 -225 -225 -225 -225 -225 -225 -225 -225 -225 -225 -225 -225 -225 -225 -225 -225 -225 -225 -225 -225 -225 -225 -225 -225 -225 -225 -225 -225 -225 -225 -225 -225 -225 -225 -225 -225 -225 -225 -225 -225 -225 -225 -225 -225 -225 -225 -225 -225 -225 -225 -225 -225 -225 -225 -225 -225 -225 -225 -225 -225 -225 -225 -225 -225 -225 -225 -225 -225 -225 -225 -225 -225 -225 -225 -225 -225 -225 -225 -225 -225 -225 -225 -225 -225 -225 -225 -225 -225 -225 -225 -225 -225 -225 -225 -225 -225 -225 -225 -225 -225 -225 -225 -225 -225 -225 -225 -225 -225 -225 59 62 63 61 61 62 60 61 61 61 61 60 63 63 62 66 68 67 68 69 70 70 70 70 68 67 66 66 65 64 62 62 61 61 58 59 60 63 63 65 65 65 66 67 70 69 60 69 69 -193 -209 -209 -209 -209 -193 -193 -209 -193 -193 -193 -209 -209 66 72 73 73 74 73 -193 -209 -193 82 77 76 -193 -209 -209 -209 -193 70 69 -193 -209 -209 105 102 102 102 104 97 90 87 85 85 83 84 83 83 82 83 82 83 80 79 76 75 75 75 73 72 71 69 67 65 63 61 62 63 63 63 64 65 67 68 70 73 75 0 0 0 0 0
    0 0 0 0 0 0 0 0 0 0 0 0 0 0 0 0 0 0 0 0 0 0 0 0 0 0 0 0 0 0 0 0 0 0 0 0 0 0 0 0 0 0 0 0 0 0 0 0 0 0 0 0 0 0 0 0 0 0 0 0 0 0 0 0 0 0 0 0 0 66 66 66 65 63 62 61 60 58 -225 -225 -225 -225 -225 -225 -225 -225 -225 -225 -225 -225 -225 -225 -225 -225 -225 -225 -225 -225 -225 -225 -225 -225 -225 -225 -225 -225 -225 -225 -225 -225 -225 -225 -225 -225 -225 -225 -225 -225 -225 -225 -225 -225 -225 -225 -225 -225 -225 -225 -225 -225 -225 -225 -225 -225 -225 -225 -225 -225 -225 -225 -225 -225 -225 -225 -225 -225 -225 -225 -225 -225 -225 -225 -225 -225 -225 -225 -225 -225 -225 -225 -225 -225 -225 -225 -225 -225 -225 -225 -225 -225 -225 -225 -225 -225 -225 -225 -225 -225 -225 -225 -225 -225 -225 -225 -225 -225 -225 58 57 58 62 60 59 62 59 60 61 61 61 60 63 63 61 65 67 66 68 68 69 68 69 69 67 66 65 64 64 64 62 62 62 62 60 60 60 64 63 65 66 65 66 68 71 71 63 70 76 -193 -193 -209 108 108 108 -193 -209 -209 -193 -209 -209 -209 64 71 73 74 75 75 -193 -193 86 82 78 77 75 -209 -193 -193 73 70 70 -193 -209 101 105 104 103 104 106 103 94 87 85 85 83 84 82 82 80 81 79 80 78 77 75 74 74 74 73 73 72 71 69 68 67 64 65 65 65 65 66 67 68 69 72 75 77 0 0 0 0 0
    0 0 0 0 0 0 0 0 0 0 0 0 0 0 0 0 0 0 0 0 0 0 0 0 0 0 0 0 0 0 0 0 0 0 0 0 0 0 0 0 0 0 0 0 0 0 0 0 0 0 0 0 0 0 0 0 0 0 0 0 0 0 0 0 0 0 0 0 0 69 69 69 68 66 65 63 62 59 -225 -225 -225 -225 -225 -225 -225 -225 -225 -225 -225 -225 -225 -225 -225 -225 -225 -225 -225 -225 -225 -225 -225 -225 -225 -225 -225 -225 -225 -225 -225 -225 -225 -225 -225 -225 -225 -225 -225 -225 -225 -225 -225 -225 -225 -225 -225 -225 -225 -225 -225 -225 -225 -225 -225 -225 -225 -225 -225 -225 -225 -225 -225 -225 -225 -225 -225 -225 -225 -225 -225 -225 -225 -225 -225 -225 -225 -225 -225 -225 -225 -225 -225 -225 -225 -225 -225 -225 -225 -225 -225 -225 -225 -225 -225 -225 -225 -225 -225 -225 -225 -225 -225 -225 -225 -225 -225 -225 56 56 55 55 60 58 58 61 59 60 60 60 61 60 63 63 61 65 67 66 67 68 68 67 67 68 66 66 64 64 64 64 63 63 62 63 61 62 62 65 64 67 67 66 67 67 71 71 64 71 80 -193 -193 -209 109 108 108 109 -193 -193 45 -209 -209 -209 -193 70 73 74 74 -193 -193 -193 85 82 78 77 76 75 75 74 74 72 71 -193 -209 99 105 104 103 104 105 102 98 88 84 83 83 82 81 80 79 79 78 78 76 75 75 74 74 74 73 72 71 71 70 69 68 66 66 67 67 68 68 69 70 70 73 76 78 0 0 0 0 0</data></disparity>
</opencv_storage>
