<?xml version="1.0"?>
<opencv_storage>
<gps_time_stamp>318508</gps_time_stamp>
<gps_x>-1.2407622337341309e+001</gps_x>
<gps_y>1.0947917938232422e+001</gps_y>
<gps_z>-1.9976075887680054e+000</gps_z>
<image_time_stamp>309360</image_time_stamp>
<disparity type_id="opencv-matrix">
  <rows>88</rows>
  <cols>320</cols>
  <dt>s</dt>
  <data>
    0 0 0 0 0 0 0 0 0 0 0 0 0 0 0 0 0 0 0 0 0 0 0 0 0 0 0 0 0 0 0 0 0 0 0 0 0 0 0 0 0 0 0 0 0 0 0 0 0 0 0 0 0 0 0 0 0 0 0 0 0 0 0 0 0 0 0 0 0 42 43 45 43 45 -193 -209 -209 -209 -209 -209 -209 -193 41 41 41 40 39 37 34 41 41 37 39 40 39 -209 -209 -193 -209 -209 45 -209 -209 -209 -193 -193 116 117 114 112 111 -193 -209 -209 -209 -209 -209 -209 -209 -193 -209 -209 -209 -209 -209 -209 -209 -209 -209 370 -209 -209 -193 -209 -209 -209 -209 -209 -209 -209 -193 110 109 109 113 -209 -209 -209 -209 -209 -209 0 0 0 0 0 0 0 0 0 0 0 0 0 0 0 0 0 0 0 11 9 -225 -225 -225 -225 61 67 70 -193 32 34 37 37 39 41 42 42 44 47 49 50 50 50 50 53 53 53 53 54 54 57 58 58 62 70 73 73 73 74 74 73 75 -193 74 77 78 78 78 83 84 83 77 89 90 90 90 93 97 99 101 -193 104 106 107 108 109 111 113 113 115 116 117 119 120 123 123 123 125 126 130 129 130 130 129 134 134 134 134 132 137 139 139 145 -193 151 153 154 163 158 158 159 163 160 164 163 164 163 165 164 164 164 168 168 172 174 179 -193 -193 -209 115 111 108 190 98 -193 -193 99 -193 -193 -193 -193 -177 -177 -177 -193 202 203 204 206 207 207 207 210 212 0 0 0 0 0
    0 0 0 0 0 0 0 0 0 0 0 0 0 0 0 0 0 0 0 0 0 0 0 0 0 0 0 0 0 0 0 0 0 0 0 0 0 0 0 0 0 0 0 0 0 0 0 0 0 0 0 0 0 0 0 0 0 0 0 0 0 0 0 0 0 0 0 0 0 43 43 45 44 47 -193 -209 -209 -209 -209 -209 -193 -193 -193 41 41 40 39 37 33 41 40 36 39 39 38 -193 -209 -193 -209 -209 -209 -209 -209 110 -193 -209 113 114 111 110 110 -193 -209 -209 -209 -209 -209 -209 -193 0 -209 -193 -209 -193 -209 -209 -209 -209 -209 -209 -209 -209 -209 -209 -209 -209 -209 -209 -209 -209 -193 111 110 110 -193 -209 -209 -209 -209 -193 -209 0 0 0 0 0 0 0 0 0 0 0 0 0 0 0 0 0 0 9 13 -225 -225 -225 -225 -225 62 68 -193 -209 32 33 37 37 39 41 42 42 44 47 48 50 49 50 50 52 53 53 54 54 55 57 60 60 63 69 72 72 72 74 74 73 -193 270 75 77 78 79 77 83 83 83 76 89 90 91 91 93 97 98 101 -193 103 -209 107 108 109 112 114 114 116 117 118 119 121 123 123 124 124 126 129 129 129 130 128 133 134 133 134 133 137 138 139 144 -193 150 153 154 163 158 159 159 163 160 163 162 164 162 165 164 164 163 167 168 172 174 177 -193 -177 -193 115 112 -193 189 -193 -193 -193 100 -193 -193 -193 -193 -193 -177 -193 -193 202 203 204 206 207 207 207 210 212 0 0 0 0 0
    0 0 0 0 0 0 0 0 0 0 0 0 0 0 0 0 0 0 0 0 0 0 0 0 0 0 0 0 0 0 0 0 0 0 0 0 0 0 0 0 0 0 0 0 0 0 0 0 0 0 0 0 0 0 0 0 0 0 0 0 0 0 0 0 0 0 0 0 0 43 44 46 46 50 -209 -193 -209 -193 -209 63 -209 -209 44 42 42 40 39 37 31 39 39 35 37 37 37 33 -209 -209 -193 34 -193 -209 -209 -209 -209 -209 -209 110 109 110 -193 -193 -209 -209 -209 -209 -209 -209 0 0 0 0 0 0 0 10 14 19 22 -209 20 -193 -193 -193 -209 -193 -209 -209 -209 -209 -209 -193 -209 -193 -193 43 -193 -193 -209 -193 -209 -193 0 0 0 0 0 0 0 0 0 0 0 0 0 0 -193 -193 0 11 -225 -225 -225 -225 -225 -225 -225 -225 -225 74 35 36 38 38 40 42 43 43 45 47 49 50 50 49 49 52 53 53 54 54 56 58 61 62 64 68 70 70 71 74 74 73 -193 -193 75 77 79 79 77 82 82 82 75 89 90 90 91 93 95 98 101 -193 -209 107 108 109 111 113 114 113 115 117 118 119 120 123 123 123 124 125 128 128 129 129 128 134 134 134 134 134 137 139 139 144 -193 149 152 153 163 158 158 159 163 159 162 162 163 161 165 164 164 162 167 168 172 175 177 -193 -177 -193 115 -193 -209 188 -209 -193 -193 -209 -193 193 197 198 -193 -193 202 203 203 204 205 206 208 207 207 210 212 0 0 0 0 0
    0 0 0 0 0 0 0 0 0 0 0 0 0 0 0 0 0 0 0 0 0 0 0 0 0 0 0 0 0 0 0 0 0 0 0 0 0 0 0 0 0 0 0 0 0 0 0 0 0 0 0 0 0 0 0 0 0 0 0 0 0 0 0 0 0 0 0 0 0 43 44 48 -193 -209 -209 -177 -177 -193 -193 -193 -209 -209 46 44 44 41 39 38 31 39 38 35 36 36 36 34 -209 -209 32 36 -193 -193 -193 -209 -209 -209 -209 -209 -209 112 -193 -193 -209 -209 -209 -209 -209 -209 0 0 -193 0 0 10 9 11 16 19 21 14 18 -193 -209 21 -209 -193 -209 -193 -209 -209 -209 -209 -209 -193 -193 42 40 -193 -193 -193 -209 -209 0 0 0 0 0 0 0 0 0 9 10 11 11 11 11 13 10 -225 -225 -225 -225 -225 -225 -225 -225 -225 -225 -225 -193 39 39 39 42 43 44 44 45 47 49 49 50 49 49 52 54 54 55 55 57 59 62 63 64 67 69 68 71 73 73 73 73 77 75 77 79 79 77 82 81 82 75 89 90 90 91 93 95 98 101 -209 -209 107 108 110 111 113 113 113 115 117 118 119 120 123 123 123 124 125 128 128 129 129 128 134 135 134 134 134 137 139 140 143 149 149 151 153 162 158 158 159 163 159 162 161 163 160 164 163 163 162 167 169 172 175 -193 -209 -177 -177 -193 -209 -209 188 -193 -193 -193 -193 189 193 197 198 199 -193 203 204 203 205 205 207 209 208 208 210 212 0 0 0 0 0
    0 0 0 0 0 0 0 0 0 0 0 0 0 0 0 0 0 0 0 0 0 0 0 0 0 0 0 0 0 0 0 0 0 0 0 0 0 0 0 0 0 0 0 0 0 0 0 0 0 0 0 0 0 0 0 0 0 0 0 0 0 0 0 0 0 0 0 0 0 -209 -209 -193 -209 -209 -209 -193 -193 -209 -209 -209 -193 -209 50 47 46 42 40 39 33 39 39 36 37 38 37 35 -209 -193 36 39 -193 -193 -193 -209 43 -209 -209 -209 -209 -193 -209 -209 -209 -209 -209 -209 -209 -209 -193 0 0 0 0 10 9 11 15 18 19 12 15 -193 -209 -209 -209 0 -193 -193 -209 -193 -193 -209 -193 -209 -193 41 40 41 -193 -193 -209 -209 -193 -225 -225 -225 -225 0 0 -177 12 14 14 14 14 13 13 15 11 -225 -225 -225 -225 -225 -225 -225 -225 -225 -225 -225 -209 41 41 40 44 44 44 45 45 46 48 49 50 49 49 52 54 55 56 56 58 60 62 63 64 66 67 67 70 73 73 73 74 78 76 77 80 80 77 82 82 82 76 89 90 91 91 92 93 96 101 -209 -209 107 108 109 110 112 112 113 115 117 118 119 120 123 123 123 124 124 127 128 129 129 128 134 135 134 134 135 137 140 141 144 149 149 151 153 162 158 158 158 162 159 161 161 162 159 164 163 163 161 167 169 172 176 -193 -193 -177 -193 -209 -209 -209 188 -193 -193 -193 -193 -193 193 197 198 -193 201 203 205 204 206 206 207 210 209 209 211 212 0 0 0 0 0
    0 0 0 0 0 0 0 0 0 0 0 0 0 0 0 0 0 0 0 0 0 0 0 0 0 0 0 0 0 0 0 0 0 0 0 0 0 0 0 0 0 0 0 0 0 0 0 0 0 0 0 0 0 0 0 0 0 0 0 0 0 0 0 0 0 0 0 0 0 210 -193 -209 -193 -209 -193 -193 75 75 -193 -193 -193 -209 56 51 51 43 41 41 35 38 39 37 38 38 37 35 -193 -193 -193 40 -193 -193 -193 -209 -193 -209 -209 -209 -209 -209 -209 -209 -209 -209 -209 -209 -209 -209 -193 0 0 0 0 9 0 9 13 14 15 9 12 -193 -193 -209 0 0 0 -193 -225 -225 -225 -225 -225 -225 -225 -225 -225 -225 -225 -225 -225 -225 -225 -225 -225 -225 -225 -225 12 21 15 16 16 15 15 14 14 15 10 -225 -225 -225 -225 -225 -225 -225 -225 -225 -225 -225 48 42 42 42 44 45 45 46 45 46 48 48 50 49 50 53 55 55 -193 57 59 60 62 63 63 66 67 67 70 73 73 73 74 78 76 78 80 80 77 82 82 83 76 89 90 91 91 91 92 97 102 103 105 108 109 109 110 111 112 113 115 117 118 118 120 122 122 123 123 124 127 128 129 129 128 133 134 134 134 134 137 140 141 143 148 148 150 152 161 157 157 158 161 159 160 160 161 158 -193 163 163 161 166 170 172 176 -193 -193 -193 -209 -193 -209 -209 188 -193 -177 -193 -193 -193 194 -193 -193 -193 201 203 205 204 206 207 208 211 210 210 211 213 0 0 0 0 0
    0 0 0 0 0 0 0 0 0 0 0 0 0 0 0 0 0 0 0 0 0 0 0 0 0 0 0 0 0 0 0 0 0 0 0 0 0 0 0 0 0 0 0 0 0 0 0 0 0 0 0 0 0 0 0 0 0 0 0 0 0 0 0 0 0 0 0 0 0 -193 -193 -193 -193 -193 79 77 77 76 76 75 75 73 64 57 56 50 43 43 36 37 38 36 37 36 36 34 -193 -193 -193 40 -193 -193 -193 -193 -193 -209 -209 -209 -209 -209 -209 -209 -193 -209 -209 -209 -209 -209 0 0 0 0 0 0 0 0 11 11 12 0 10 -193 -193 -209 -225 -225 -225 -225 -225 -225 -225 -225 -225 -225 -225 -225 -225 -225 -225 -225 -225 -225 -225 -225 -225 -225 -225 -225 15 21 14 15 15 14 14 13 14 14 11 15 -225 -225 -225 -225 -225 -225 -225 -225 -225 -225 -225 42 42 42 44 45 44 46 45 46 47 47 50 49 50 53 55 56 -193 57 59 60 62 63 64 66 67 67 70 73 74 74 75 79 77 78 81 81 77 83 83 83 76 89 90 90 91 91 92 97 102 104 105 108 108 109 110 111 112 113 114 115 116 117 119 121 121 122 122 123 127 128 129 129 129 133 135 134 134 134 136 139 140 142 147 147 149 152 160 157 157 157 161 159 160 160 161 158 -193 163 163 161 166 171 172 176 177 177 182 -209 -193 -209 -209 188 -193 -177 -193 -193 -193 -193 -193 -193 -193 -193 203 204 204 206 206 207 210 210 210 212 -193 0 0 0 0 0
    0 0 0 0 0 0 0 0 0 0 0 0 0 0 0 0 0 0 0 0 0 0 0 0 0 0 0 0 0 0 0 0 0 0 0 0 0 0 0 0 0 0 0 0 0 0 0 0 0 0 0 0 0 0 0 0 0 0 0 0 0 0 0 0 0 0 0 0 0 -193 -193 -193 -193 80 80 78 78 77 77 75 75 73 67 59 57 56 47 45 37 35 35 34 36 34 34 32 26 36 -193 41 -193 -193 -193 -193 43 40 -209 -209 -209 -209 -209 -209 -209 -209 -209 -209 -209 -193 0 0 0 0 0 0 0 -225 -225 -225 -225 -225 -225 -225 -225 -225 -225 -225 -225 -225 -225 -225 -225 -225 -225 -225 -225 -225 -225 -225 -225 -225 -225 -225 -225 -225 -225 -225 -225 -225 14 19 12 14 14 13 13 12 12 13 11 15 -225 -225 -225 -225 -225 -225 -225 -225 -225 -225 -225 43 43 43 43 45 44 46 45 45 46 47 49 49 50 52 54 56 -193 58 59 60 61 63 64 66 68 67 70 74 74 74 75 79 77 78 81 81 77 84 84 84 77 88 89 89 90 90 91 95 101 103 106 108 108 109 110 111 112 113 114 115 116 117 119 120 120 121 122 122 126 127 128 128 129 134 135 134 134 133 135 138 140 141 145 146 148 152 159 157 157 157 160 160 159 160 161 158 12 163 163 162 166 171 172 176 177 177 182 -193 -193 -193 -193 -193 -193 -193 -193 -193 -193 -193 -193 -193 -193 -193 202 204 204 205 206 207 210 210 210 212 -193 0 0 0 0 0
    0 0 0 0 0 0 0 0 0 0 0 0 0 0 0 0 0 0 0 0 0 0 0 0 0 0 0 0 0 0 0 0 0 0 0 0 0 0 0 0 0 0 0 0 0 0 0 0 0 0 0 0 0 0 0 0 0 0 0 0 0 0 0 0 0 0 0 0 0 -193 82 81 81 81 80 78 79 77 77 76 75 74 69 62 58 57 45 43 35 32 31 33 34 32 31 30 25 34 -193 42 -193 -193 -193 -193 45 -193 -209 -209 -209 35 36 39 37 -209 -209 -209 -209 -193 0 0 0 0 0 0 -225 -225 -225 -225 -225 -225 -225 -225 -225 -225 -225 -225 -225 -225 -225 -225 -225 -225 -225 -225 -225 -225 -225 -225 -225 -225 -225 -225 -225 -225 -225 -225 -225 16 17 18 13 14 14 13 13 12 13 12 11 14 -225 -225 -225 -225 -225 -225 -225 -225 -225 -225 -225 44 44 44 45 45 44 47 45 45 46 46 48 49 49 51 53 55 56 57 58 59 60 62 63 66 68 68 70 74 74 75 75 79 78 78 81 81 77 84 85 85 79 88 89 89 90 91 92 95 101 104 106 107 108 108 110 111 112 113 113 114 116 117 117 119 119 120 121 121 125 127 127 128 129 133 134 134 134 133 133 137 139 139 144 145 148 151 158 157 157 157 160 160 159 160 160 158 12 164 164 163 -193 172 172 176 177 177 182 15 -193 13 -177 -193 -193 -193 -193 -193 -177 -193 -193 -193 -193 -193 202 204 204 205 207 207 210 211 211 212 -193 0 0 0 0 0
    0 0 0 0 0 0 0 0 0 0 0 0 0 0 0 0 0 0 0 0 0 0 0 0 0 0 0 0 0 0 0 0 0 0 0 0 0 0 0 0 0 0 0 0 0 0 0 0 0 0 0 0 0 0 0 0 0 0 0 0 0 0 0 0 0 0 0 0 0 81 83 82 82 82 80 79 79 77 78 76 75 74 72 68 60 58 50 45 34 28 29 32 32 30 29 28 22 28 -209 42 -209 -193 -193 -193 46 43 -209 -209 -209 35 35 39 -193 -193 -193 -209 -209 -193 0 0 0 0 0 -225 -225 -225 -225 -225 -225 -225 -225 -225 -225 -225 -225 -225 -225 -225 -225 -225 -225 -225 -225 -225 -225 -225 -225 -225 -225 -225 -225 -225 -225 -225 -225 -225 -225 16 19 18 14 15 15 14 13 13 13 12 11 15 -225 -225 -225 -225 -225 -225 -225 -225 -225 -225 -225 46 46 46 46 45 45 48 46 45 46 46 48 49 49 50 51 54 55 56 57 59 59 61 62 65 68 68 71 75 74 75 75 79 78 77 80 80 77 84 85 85 80 86 89 89 90 91 92 96 102 104 106 107 107 109 111 112 113 112 113 114 116 116 117 118 119 119 121 121 124 127 127 129 128 133 134 133 133 132 131 137 137 138 143 145 148 151 157 158 157 157 159 161 158 160 160 159 -193 165 165 165 -193 173 173 177 177 177 182 15 16 14 -177 -193 -193 -193 -193 -193 -177 -193 -193 -193 -193 -193 203 204 205 207 208 209 211 212 211 212 -193 0 0 0 0 0
    0 0 0 0 0 0 0 0 0 0 0 0 0 0 0 0 0 0 0 0 0 0 0 0 0 0 0 0 0 0 0 0 0 0 0 0 0 0 0 0 0 0 0 0 0 0 0 0 0 0 0 0 0 0 0 0 0 0 0 0 0 0 0 0 0 0 0 0 0 81 83 82 83 82 81 80 80 78 79 77 76 75 73 73 65 60 55 47 34 26 29 34 33 29 27 26 18 22 12 -209 -209 -193 -209 -193 44 43 47 -209 -209 32 33 38 -193 -193 -193 -209 -209 -193 0 0 -225 -225 -225 -225 -225 -225 -225 -225 -225 -225 -225 -225 -225 -225 -225 -225 -225 -225 -225 -225 -225 -225 -225 -225 -225 -225 -225 -225 -225 -225 -225 -225 -225 -225 -225 -225 -225 16 19 18 14 15 15 14 13 14 14 12 12 15 13 11 15 -225 -225 -225 -225 -225 -225 -225 -225 46 46 46 45 45 45 49 46 45 46 46 48 50 49 50 49 54 56 -193 57 58 58 61 62 66 69 69 71 -193 74 75 76 79 78 76 79 79 76 83 85 85 81 85 89 90 91 91 92 97 102 103 105 106 107 109 110 111 111 112 113 114 116 115 116 117 118 119 120 121 123 126 128 129 128 133 134 134 134 133 131 137 138 138 143 146 147 151 155 158 156 157 158 162 158 160 160 159 -193 165 165 165 -177 -193 173 176 177 177 -193 15 17 14 -177 -177 -193 -193 -193 -193 -193 -193 197 -177 -193 -193 203 204 205 207 209 210 211 212 212 213 -193 0 0 0 0 0
    0 0 0 0 0 0 0 0 0 0 0 0 0 0 0 0 0 0 0 0 0 0 0 0 0 0 0 0 0 0 0 0 0 0 0 0 0 0 0 0 0 0 0 0 0 0 0 0 0 0 0 0 0 0 0 0 0 0 0 0 0 0 0 0 0 0 0 0 0 81 83 82 83 83 82 80 81 79 80 78 77 76 74 74 69 62 -193 47 33 26 29 37 37 29 25 23 12 11 9 -209 -209 -193 -193 -193 44 43 -193 -209 -209 31 32 38 34 -193 -209 -209 -209 -209 -225 -225 -225 -225 -225 -225 -225 -225 -225 -225 -225 -225 -225 -225 -225 -225 -225 -225 -225 -225 -225 -225 -225 -225 -225 -225 -225 -225 -225 -225 -225 -225 -225 -225 -225 -225 -225 -225 -225 16 20 17 14 16 16 14 14 14 14 13 13 15 13 12 16 12 13 -225 -225 -225 -225 -225 -225 45 44 44 43 44 44 49 46 45 46 46 48 51 50 51 49 55 56 57 58 59 57 60 61 66 70 70 72 -193 75 75 76 79 79 76 79 79 -193 82 85 85 82 83 89 90 91 91 93 98 102 103 104 106 106 108 109 110 110 111 112 113 114 114 115 117 117 118 120 -193 123 127 128 129 129 133 134 134 134 133 131 136 137 137 143 147 147 151 154 158 156 157 158 162 158 160 159 160 -193 164 164 164 -177 -177 -193 175 176 176 -193 16 17 15 -177 -177 -193 -193 -193 -193 -193 -193 197 -177 -193 -193 203 205 205 208 210 210 211 213 213 213 -193 0 0 0 0 0
    0 0 0 0 0 0 0 0 0 0 0 0 0 0 0 0 0 0 0 0 0 0 0 0 0 0 0 0 0 0 0 0 0 0 0 0 0 0 0 0 0 0 0 0 0 0 0 0 0 0 0 0 0 0 0 0 0 0 0 0 0 0 0 0 0 0 0 0 0 -193 83 82 83 83 82 81 82 79 81 78 77 76 75 74 71 66 -193 54 36 25 27 38 39 24 -193 20 12 10 9 -209 -193 0 -193 -193 -193 43 -193 -209 -209 31 32 36 33 -193 -209 -193 -225 -225 -225 -225 -225 -225 -225 -225 -225 -225 -225 -225 -225 -225 -225 -225 -225 -225 -225 -225 -225 -225 -225 -225 -225 -225 -225 -225 -225 -225 -225 -225 -225 -225 -225 -225 -225 -225 -225 -225 -225 15 20 17 14 16 16 15 14 14 14 12 14 15 13 12 13 12 12 15 -225 -225 -225 -225 -225 406 -177 -193 40 43 42 49 45 44 46 46 48 52 51 52 49 55 56 57 58 58 57 59 60 66 70 70 73 -193 75 76 76 78 80 76 78 78 77 81 85 85 83 81 89 90 91 92 94 98 101 103 104 106 107 108 109 109 110 111 112 112 113 113 114 116 116 117 118 -193 122 126 129 130 130 133 134 134 134 133 131 136 136 137 143 147 148 151 153 159 157 157 158 162 158 160 159 160 160 163 163 164 -177 -177 -193 174 175 175 181 17 19 17 11 11 -193 -193 -193 -193 -193 -193 -193 -193 -193 -209 -193 -193 -193 -193 -193 210 211 213 213 213 -193 0 0 0 0 0
    0 0 0 0 0 0 0 0 0 0 0 0 0 0 0 0 0 0 0 0 0 0 0 0 0 0 0 0 0 0 0 0 0 0 0 0 0 0 0 0 0 0 0 0 0 0 0 0 0 0 0 0 0 0 0 0 0 0 0 0 0 0 0 0 0 0 0 0 0 -193 82 82 83 83 82 81 82 79 80 79 77 77 75 74 72 69 61 58 -209 25 27 -193 -193 -193 -193 20 14 14 11 -209 -209 0 0 -193 -209 -193 -209 -193 -193 29 29 33 -225 -225 -225 -225 -225 -225 -225 -225 -225 -225 -225 -225 -225 -225 -225 -225 -225 -225 -225 -225 -225 -225 -225 -225 -225 -225 -225 -225 -225 -225 -225 -225 -225 -225 -225 -225 -225 -225 -225 -225 -225 -225 -225 -225 18 16 21 16 14 17 16 15 14 14 15 12 15 15 13 12 14 12 13 15 -225 -225 -225 -225 -225 -177 -177 -177 38 41 41 49 45 44 46 47 48 52 50 51 48 55 56 56 58 58 57 60 62 67 71 71 72 -193 75 75 76 78 80 76 78 78 77 80 85 85 84 81 89 90 92 94 96 99 101 103 104 106 107 108 108 109 110 110 110 111 113 112 113 115 115 115 117 119 120 126 130 131 131 134 134 134 134 134 131 135 135 136 143 146 147 150 152 160 157 157 158 162 158 160 160 161 161 163 163 164 -177 -177 -177 173 -193 174 180 -193 -193 18 12 12 -193 -193 -193 -193 -193 -193 -193 -209 -193 -177 -177 -177 99 99 -193 209 210 212 213 213 -193 0 0 0 0 0
    0 0 0 0 0 0 0 0 0 0 0 0 0 0 0 0 0 0 0 0 0 0 0 0 0 0 0 0 0 0 0 0 0 0 0 0 0 0 0 0 0 0 0 0 0 0 0 0 0 0 0 0 0 0 0 0 0 0 0 0 0 0 0 0 0 0 0 0 0 -193 82 82 83 83 82 80 82 79 80 79 77 77 75 75 73 70 63 58 -209 24 25 -193 46 -193 -193 -193 17 18 16 -209 -209 0 0 -209 -209 37 35 34 -193 -193 -225 -225 -225 -225 -225 -225 -225 -225 -225 -225 -225 -225 -225 -225 -225 -225 -225 -225 -225 -225 -225 -225 -225 -225 -225 -225 -225 -225 -225 -225 -225 -225 -225 -225 -225 -225 -225 -225 -225 -225 -225 -225 -225 -225 -225 -225 17 16 21 16 14 16 15 15 14 14 14 12 14 15 13 13 14 13 14 16 -225 -225 -225 -225 -225 -177 -177 -177 36 38 40 50 45 44 47 47 48 52 50 50 47 54 54 55 57 57 57 60 61 66 70 71 72 74 75 75 75 77 80 75 78 78 77 79 85 85 85 81 89 91 94 95 97 99 101 103 104 106 106 107 107 109 109 109 109 109 111 111 112 112 112 112 114 117 119 126 131 132 133 134 135 134 134 134 132 134 135 136 143 146 147 150 152 161 157 157 158 163 159 160 160 162 161 163 163 164 -177 -177 -177 172 -193 173 179 183 -193 -193 13 -193 -193 -193 190 -193 -193 193 -193 -193 102 -177 -177 99 98 99 100 208 209 212 213 -177 -193 0 0 0 0 0
    0 0 0 0 0 0 0 0 0 0 0 0 0 0 0 0 0 0 0 0 0 0 0 0 0 0 0 0 0 0 0 0 0 0 0 0 0 0 0 0 0 0 0 0 0 0 0 0 0 0 0 0 0 0 0 0 0 0 0 0 0 0 0 0 0 0 0 0 0 81 82 82 83 83 82 80 82 80 80 79 77 77 76 76 73 72 64 60 -209 21 24 -193 50 47 50 -193 -193 -193 19 -193 -209 0 0 0 -193 -193 -225 -225 -225 -225 -225 -225 -225 -225 -225 -225 -225 -225 -225 -225 -225 -225 -225 -225 -225 -225 -225 -225 -225 -225 -225 -225 -225 -225 -225 -225 -225 -225 -225 -225 -225 -225 -225 -225 -225 -225 -225 -225 -225 -225 -225 -225 -225 -225 -225 -225 16 16 21 16 16 17 16 15 14 15 15 12 14 14 13 13 14 12 12 15 -225 -225 -225 -225 -225 -177 -177 -193 31 33 39 50 44 44 48 48 49 51 50 50 48 54 55 55 57 58 58 60 61 65 70 71 72 74 75 74 75 76 80 75 77 77 77 78 85 86 85 81 90 93 95 96 97 98 101 103 104 105 105 106 107 109 109 108 108 108 111 110 110 110 109 110 112 116 118 125 132 133 134 135 135 -193 135 135 133 133 135 136 143 146 146 149 152 161 157 157 158 162 159 161 161 162 162 163 164 164 -177 -177 559 -193 -193 173 179 183 183 -193 14 -193 188 -193 188 -193 189 190 -193 -193 101 101 100 98 98 98 100 -193 -193 211 212 -177 -177 0 0 0 0 0
    0 0 0 0 0 0 0 0 0 0 0 0 0 0 0 0 0 0 0 0 0 0 0 0 0 0 0 0 0 0 0 0 0 0 0 0 0 0 0 0 0 0 0 0 0 0 0 0 0 0 0 0 0 0 0 0 0 0 0 0 0 0 0 0 0 0 0 0 0 81 82 82 82 82 82 80 81 80 79 78 77 77 76 76 74 74 -209 -193 -209 13 21 -193 -193 49 56 54 -209 -209 -209 -209 -209 0 0 -225 -225 -225 -225 -225 -225 -225 -225 -225 -225 -225 -225 -225 -225 -225 -225 -225 -225 -225 -225 -225 -225 -225 -225 -225 -225 -225 -225 -225 -225 -225 -225 -225 -225 -225 -225 -225 -225 -225 -225 -225 -225 -225 -225 -225 -225 -225 -225 -225 -225 -225 -225 -225 16 16 21 17 17 17 17 16 15 16 15 13 14 14 13 13 14 12 12 15 -225 -225 -225 -225 405 -177 -177 27 27 27 38 50 44 44 49 48 49 51 50 50 48 54 54 55 57 58 59 60 61 65 70 70 71 73 73 73 74 75 79 75 76 77 77 78 84 85 85 82 90 93 95 96 97 99 101 103 104 104 105 106 107 108 108 108 107 107 110 109 109 110 109 109 112 116 118 124 133 134 135 134 135 -193 -193 135 133 133 136 137 143 147 147 149 151 160 157 157 158 162 159 161 161 162 162 164 164 164 -177 -177 559 -193 -193 173 179 183 183 185 -193 -193 187 -209 187 -193 -193 188 -193 -193 -193 100 100 98 98 98 100 -193 -193 211 212 -177 -177 0 0 0 0 0
    0 0 0 0 0 0 0 0 0 0 0 0 0 0 0 0 0 0 0 0 0 0 0 0 0 0 0 0 0 0 0 0 0 0 0 0 0 0 0 0 0 0 0 0 0 0 0 0 0 0 0 0 0 0 0 0 0 0 0 0 0 0 0 0 0 0 0 0 0 81 81 82 82 82 81 79 81 80 79 78 77 77 77 76 75 75 -209 -193 -193 11 19 21 36 47 58 58 58 -209 -209 -209 -209 0 0 -225 -225 -225 -225 -225 -225 -225 -225 -225 -225 -225 -225 -225 -225 -225 -225 -225 -225 -225 -225 -225 -225 -225 -225 -225 -225 -225 -225 -225 -225 -225 -225 -225 -225 -225 -225 -225 -225 -225 -225 -225 -225 -225 -225 -225 -225 -225 -225 -225 -225 -225 -225 -225 16 16 21 17 16 17 16 16 14 15 15 13 14 14 13 14 13 12 12 15 -225 -225 -225 -225 403 -177 -177 26 26 26 37 47 43 44 49 48 49 50 50 51 49 54 55 55 58 59 60 60 60 64 69 69 70 72 73 73 74 75 79 75 76 77 77 78 84 84 85 83 90 93 94 95 97 98 101 102 103 104 104 105 106 106 107 106 106 106 110 109 109 111 110 111 114 118 119 124 134 134 134 134 135 -193 135 135 134 133 137 138 143 147 146 148 151 158 156 157 157 162 159 160 161 161 161 163 164 164 -177 560 558 -209 -209 -193 178 183 183 185 184 184 186 -193 185 -209 -193 185 -193 -209 -193 100 100 99 98 98 100 -193 -193 210 212 -177 -177 0 0 0 0 0
    0 0 0 0 0 0 0 0 0 0 0 0 0 0 0 0 0 0 0 0 0 0 0 0 0 0 0 0 0 0 0 0 0 0 0 0 0 0 0 0 0 0 0 0 0 0 0 0 0 0 0 0 0 0 0 0 0 0 0 0 0 0 0 0 0 0 0 0 0 81 81 81 81 81 81 79 80 79 79 78 77 77 76 75 75 75 67 64 61 -209 -209 -193 37 47 59 64 62 60 61 60 57 0 0 -225 -225 -225 -225 -225 -225 -225 -225 -225 -225 -225 -225 -225 -225 -225 -225 -225 -225 -225 -225 -225 -225 -225 -225 -225 -225 -225 -225 -225 -225 -225 -225 -225 -225 -225 -225 -225 -225 -225 -225 -225 -225 -225 -225 -225 -225 -225 -225 -225 -225 -225 -225 -225 16 16 21 17 16 17 16 16 14 15 15 13 14 14 13 13 13 11 12 15 -225 -225 -225 -225 401 -177 -177 26 26 26 37 45 42 43 49 47 48 50 50 51 50 55 55 55 58 60 61 61 60 64 69 69 70 71 73 73 74 75 79 75 77 78 78 78 84 85 86 85 91 94 94 96 97 99 100 101 102 103 104 104 104 105 105 106 106 104 108 108 109 110 -193 115 116 119 119 123 134 133 133 134 135 -193 135 135 135 132 137 139 143 147 145 147 150 157 155 156 156 160 158 160 160 160 161 163 163 164 -177 560 558 -193 -209 -193 177 183 183 184 183 183 185 183 184 -193 -193 183 183 -209 -193 100 101 99 98 98 100 -193 -193 210 212 -177 -177 0 0 0 0 0
    0 0 0 0 0 0 0 0 0 0 0 0 0 0 0 0 0 0 0 0 0 0 0 0 0 0 0 0 0 0 0 0 0 0 0 0 0 0 0 0 0 0 0 0 0 0 0 0 0 0 0 0 0 0 0 0 0 0 0 0 0 0 0 0 0 0 0 0 0 81 81 81 81 81 81 79 80 80 79 79 77 77 76 74 75 76 68 67 66 62 -193 -209 -193 49 59 66 63 62 61 61 59 58 58 -225 -225 -225 -225 -225 -225 -225 -225 -225 -225 -225 -225 -225 -225 -225 -225 -225 -225 -225 -225 -225 -225 -225 -225 -225 -225 -225 -225 -225 -225 -225 -225 -225 -225 -225 -225 -225 -225 -225 -225 -225 -225 -225 -225 -225 -225 -225 -225 -225 -225 -225 -225 -225 16 16 21 17 16 17 16 16 14 15 15 12 14 14 13 13 12 11 12 13 -225 -225 -225 -225 -177 -177 -177 -193 26 26 37 44 42 44 50 47 48 48 50 52 50 55 55 -193 59 60 62 61 60 63 68 68 69 71 73 73 75 75 79 76 77 78 79 78 83 85 86 85 90 92 94 95 96 98 99 101 102 103 103 103 104 104 105 105 104 102 107 107 109 110 111 114 116 119 119 122 134 133 133 133 134 135 135 135 134 131 137 138 143 147 145 146 150 156 155 155 155 -193 158 159 160 160 160 163 163 164 -193 -177 -177 -193 -177 -209 175 182 182 183 182 -193 183 181 183 182 -193 -193 183 -209 -193 100 101 99 98 98 100 100 -193 209 212 -177 -177 0 0 0 0 0
    0 0 0 0 0 0 0 0 0 0 0 0 0 0 0 0 0 0 0 0 0 0 0 0 0 0 0 0 0 0 0 0 0 0 0 0 0 0 0 0 0 0 0 0 0 0 0 0 0 0 0 0 0 0 0 0 0 0 0 0 0 0 0 0 0 0 0 0 0 81 81 82 82 81 81 80 80 80 79 78 77 77 76 74 75 76 70 70 69 68 68 -193 -193 47 58 66 64 62 62 61 60 60 59 -225 -225 -225 -225 -225 -225 -225 -225 -225 -225 -225 -225 -225 -225 -225 -225 -225 -225 -225 -225 -225 -225 -225 -225 -225 -225 -225 -225 -225 -225 -225 -225 -225 -225 -225 -225 -225 -225 -225 -225 -225 -225 -225 -225 -225 -225 -225 -225 -225 -225 -225 -225 -225 16 16 21 17 16 16 16 16 14 15 14 12 13 13 12 12 11 10 10 11 0 -225 -225 -225 -177 -177 -177 -193 26 26 37 44 42 44 49 48 47 47 49 51 50 55 55 55 58 60 62 62 60 63 68 68 69 70 73 73 75 75 79 76 78 79 81 79 84 85 86 86 90 92 93 94 96 97 98 100 101 102 102 103 103 104 104 104 103 102 106 106 108 110 -193 114 117 120 119 122 133 133 133 133 134 134 134 135 134 130 137 140 145 148 146 147 150 156 154 154 155 -193 158 159 159 159 159 163 163 164 -193 -177 -177 -177 -177 -193 174 181 182 183 182 -193 -193 181 183 182 -193 -193 -209 -193 -193 101 101 100 98 98 100 100 -193 208 212 -177 -177 0 0 0 0 0
    0 0 0 0 0 0 0 0 0 0 0 0 0 0 0 0 0 0 0 0 0 0 0 0 0 0 0 0 0 0 0 0 0 0 0 0 0 0 0 0 0 0 0 0 0 0 0 0 0 0 0 0 0 0 0 0 0 0 0 0 0 0 0 0 0 0 0 0 0 81 82 82 82 81 81 80 80 80 79 78 77 77 76 75 75 77 71 71 71 70 70 68 66 51 59 70 68 67 66 66 65 65 62 62 -225 -225 -225 -225 -225 -225 -225 -225 -225 -225 -225 -225 -225 -225 -225 -225 -225 -225 -225 -225 -225 -225 -225 -225 -225 -225 -225 -225 -225 -225 -225 -225 -225 -225 -225 -225 -225 -225 -225 -225 -225 -225 -225 -225 -225 -225 -225 -225 -225 -225 -225 -225 16 16 21 17 16 16 16 15 14 15 15 12 13 13 13 13 12 11 11 11 9 9 -225 -225 402 -177 -177 27 27 27 37 44 42 44 49 48 47 47 48 51 49 53 54 53 57 59 62 61 60 63 68 69 69 71 74 74 75 76 80 77 78 80 82 81 86 87 88 88 91 94 95 94 96 97 99 100 101 101 101 101 102 103 103 103 102 100 105 106 108 109 -193 113 116 119 119 121 132 132 131 132 133 133 133 134 134 128 138 140 145 148 147 148 150 155 154 154 154 156 158 158 159 159 159 163 163 164 -193 -177 -177 -177 -177 -193 174 181 182 -193 -193 -193 -209 182 184 183 -193 -193 -193 -193 -193 101 101 -177 98 98 100 100 -193 208 211 212 -177 0 0 0 0 0
    0 0 0 0 0 0 0 0 0 0 0 0 0 0 0 0 0 0 0 0 0 0 0 0 0 0 0 0 0 0 0 0 0 0 0 0 0 0 0 0 0 0 0 0 0 0 0 0 0 0 0 0 0 0 0 0 0 0 0 0 0 0 0 0 0 0 0 0 0 81 82 83 82 82 81 81 80 80 80 79 77 77 76 75 75 77 72 72 72 71 70 70 68 59 61 70 69 68 68 67 67 67 63 64 -225 -225 -225 -225 -225 -225 -225 -225 -225 -225 -225 -225 -225 -225 -225 -225 -225 -225 -225 -225 -225 -225 -225 -225 -225 -225 -225 -225 -225 -225 -225 -225 -225 -225 -225 -225 -225 -225 -225 -225 -225 -225 -225 -225 -225 -225 -225 -225 -225 -225 -225 -225 17 17 21 17 16 16 15 16 14 15 15 12 13 13 13 14 12 11 11 11 9 10 21 -225 404 -193 -193 27 27 27 37 44 42 43 48 48 47 47 48 51 48 53 53 53 56 58 62 61 59 62 69 70 70 72 75 74 75 76 79 77 77 81 82 81 86 87 -193 88 91 94 94 94 95 96 98 99 100 100 100 100 101 102 102 102 101 100 105 107 108 109 -193 113 114 119 119 121 131 131 130 131 132 132 133 133 133 127 138 141 145 148 147 148 150 154 154 154 154 156 158 158 158 158 159 163 163 164 -193 -177 -177 -177 -177 -209 173 180 -193 -193 862 -193 -209 -193 185 184 -209 185 187 -193 -193 101 101 -177 98 98 100 100 -193 208 211 212 -177 0 0 0 0 0
    0 0 0 0 0 0 0 0 0 0 0 0 0 0 0 0 0 0 0 0 0 0 0 0 0 0 0 0 0 0 0 0 0 0 0 0 0 0 0 0 0 0 0 0 0 0 0 0 0 0 0 0 0 0 0 0 0 0 0 0 0 0 0 0 0 0 0 0 0 81 82 82 82 82 81 82 80 81 80 79 78 77 76 76 75 78 72 71 72 71 70 69 67 61 61 70 69 68 67 67 67 67 64 64 61 -225 -225 -225 -225 -225 -225 -225 -225 -225 -225 -225 -225 -225 -225 -225 -225 -225 -225 -225 -225 -225 -225 -225 -225 -225 -225 -225 -225 -225 -225 -225 -225 -225 -225 -225 -225 -225 -225 -225 -225 -225 -225 -225 -225 -225 -225 -225 -225 -225 -225 -225 18 18 22 17 16 16 15 16 14 15 15 12 13 12 13 14 12 10 11 10 10 10 20 -225 -225 26 26 26 26 26 37 44 42 43 47 48 47 47 48 51 48 53 53 53 55 59 62 61 59 63 69 70 71 72 75 73 74 75 79 77 77 80 82 81 86 87 -193 88 91 93 93 93 94 96 98 98 99 99 99 100 100 101 101 102 102 101 107 108 110 111 -193 114 114 118 120 121 131 130 130 130 131 132 132 133 133 128 138 141 145 148 148 148 150 153 154 154 155 156 159 158 158 158 159 162 163 163 163 -177 -177 -177 -177 -209 -193 179 181 -193 864 -193 -209 -209 185 -193 -209 186 189 -193 191 -193 101 -177 98 98 100 100 -193 208 211 212 -177 0 0 0 0 0
    0 0 0 0 0 0 0 0 0 0 0 0 0 0 0 0 0 0 0 0 0 0 0 0 0 0 0 0 0 0 0 0 0 0 0 0 0 0 0 0 0 0 0 0 0 0 0 0 0 0 0 0 0 0 0 0 0 0 0 0 0 0 0 0 0 0 0 0 0 81 81 82 82 82 81 82 80 80 80 79 78 77 76 76 74 77 72 71 71 71 69 69 67 63 61 70 69 68 67 67 67 66 64 63 61 -225 -225 -225 -225 -225 -225 -225 -225 -225 -225 -225 -225 -225 -225 -225 -225 -225 -225 -225 -225 -225 -225 -225 -225 -225 -225 -225 -225 -225 -225 -225 -225 -225 -225 -225 -225 -225 -225 -225 -225 -225 -225 -225 -225 -225 -225 -225 -225 -225 -225 -225 18 18 21 16 16 15 15 15 14 14 14 12 13 13 13 13 11 11 11 10 10 10 20 -225 -225 26 26 26 26 26 37 44 42 43 46 49 47 47 48 51 47 52 53 52 53 57 60 61 59 62 68 70 71 72 75 73 74 75 78 78 76 80 82 81 86 87 -193 89 90 92 93 93 94 95 97 96 98 98 99 99 99 100 100 102 102 102 107 109 110 111 -193 115 116 119 120 120 131 130 129 130 131 131 132 133 133 127 138 141 144 148 148 148 149 152 154 154 155 156 159 157 159 159 159 162 162 163 163 -177 -177 -193 -177 -177 -209 178 181 -193 -193 -177 -209 -193 186 186 -193 187 190 190 193 -193 -193 -177 98 98 100 100 -193 207 211 212 -177 0 0 0 0 0
    0 0 0 0 0 0 0 0 0 0 0 0 0 0 0 0 0 0 0 0 0 0 0 0 0 0 0 0 0 0 0 0 0 0 0 0 0 0 0 0 0 0 0 0 0 0 0 0 0 0 0 0 0 0 0 0 0 0 0 0 0 0 0 0 0 0 0 0 0 80 81 82 82 82 81 82 80 80 80 79 78 77 77 76 74 76 72 71 71 71 69 69 67 67 62 71 69 68 67 67 67 67 64 64 61 -225 -225 -225 -225 -225 -225 -225 -225 -225 -225 -225 -225 -225 -225 -225 -225 -225 -225 -225 -225 -225 -225 -225 -225 -225 -225 -225 -225 -225 -225 -225 -225 -225 -225 -225 -225 -225 -225 -225 -225 -225 -225 -225 -225 -225 -225 -225 -225 -225 -225 -225 18 19 21 16 16 15 14 14 13 14 14 11 13 12 13 13 12 11 11 10 10 10 19 -225 -225 27 26 27 27 27 37 45 42 43 45 49 47 48 48 50 47 52 53 52 53 57 61 62 60 63 68 71 72 73 75 73 74 75 78 79 76 80 82 81 85 88 88 89 90 92 93 93 94 95 96 96 97 98 98 99 100 101 101 103 104 103 107 110 111 110 -193 116 116 119 121 120 131 130 129 129 130 131 132 132 132 127 138 141 144 148 148 149 150 152 155 154 155 155 160 157 159 159 159 161 162 162 162 -177 -177 -193 -177 -177 -193 177 -193 -193 -193 -177 -209 -193 186 186 187 188 192 191 195 -193 -193 -177 98 99 100 -193 -193 207 211 212 -177 0 0 0 0 0
    0 0 0 0 0 0 0 0 0 0 0 0 0 0 0 0 0 0 0 0 0 0 0 0 0 0 0 0 0 0 0 0 0 0 0 0 0 0 0 0 0 0 0 0 0 0 0 0 0 0 0 0 0 0 0 0 0 0 0 0 0 0 0 0 0 0 0 0 0 80 81 82 82 82 80 82 80 80 80 79 78 77 76 76 74 75 72 70 70 70 69 69 67 69 62 71 69 68 67 66 66 66 63 63 61 -225 -225 -225 -225 -225 -225 -225 -225 -225 -225 -225 -225 -225 -225 -225 -225 -225 -225 -225 -225 -225 -225 -225 -225 -225 -225 -225 -225 -225 -225 -225 -225 -225 -225 -225 -225 -225 -225 -225 -225 -225 -225 -225 -225 -225 -225 -225 -225 -225 -225 21 18 20 20 16 16 16 14 14 13 14 13 11 12 12 12 13 12 11 11 10 10 10 17 -225 -225 27 27 27 27 27 37 45 42 42 44 48 47 48 48 49 47 51 52 52 52 56 59 62 61 63 69 72 73 74 76 74 74 75 79 79 76 80 82 81 86 88 89 89 90 92 92 93 93 94 96 95 97 98 98 99 100 102 103 104 105 104 108 111 111 109 -193 113 113 118 120 120 130 130 129 130 130 131 132 132 132 126 138 142 145 148 149 150 151 153 157 155 155 156 160 158 160 160 159 161 162 163 164 -177 -177 -193 -177 -177 -209 -193 -193 -193 -193 -177 -193 -193 187 187 188 189 193 192 196 197 -193 -177 98 99 100 -193 -193 207 210 212 -177 0 0 0 0 0
    0 0 0 0 0 0 0 0 0 0 0 0 0 0 0 0 0 0 0 0 0 0 0 0 0 0 0 0 0 0 0 0 0 0 0 0 0 0 0 0 0 0 0 0 0 0 0 0 0 0 0 0 0 0 0 0 0 0 0 0 0 0 0 0 0 0 0 0 0 80 81 82 82 82 80 82 80 80 80 79 78 77 76 76 74 75 72 70 71 71 70 69 68 68 61 69 68 67 65 64 65 65 63 62 60 -225 -225 -225 -225 -225 -225 -225 -225 -225 -225 -225 -225 -225 -225 -225 -225 -225 -225 -225 -225 -225 -225 -225 -225 -225 -225 -225 -225 -225 -225 -225 -225 -225 -225 -225 -225 -225 -225 -225 -225 -225 -225 -225 -225 -225 -225 -225 -225 -225 -225 21 18 21 20 17 16 15 14 14 14 14 13 12 12 12 12 13 12 11 11 10 10 10 14 -225 -225 27 27 26 27 27 36 45 42 43 43 48 47 49 48 49 47 51 51 52 51 55 58 62 62 64 69 73 73 74 75 74 74 75 78 79 76 80 82 81 85 88 88 88 89 91 92 92 93 93 95 95 96 97 98 100 101 102 103 105 105 105 107 110 109 108 -193 110 109 115 119 119 130 131 130 130 131 131 132 132 133 127 138 143 146 149 151 151 152 153 159 156 156 156 161 158 160 160 160 161 163 163 164 -177 -177 -193 -177 -177 -193 -209 -193 861 862 -177 -193 -193 187 188 188 189 194 193 197 197 -193 -193 98 99 100 -193 -193 206 210 212 -193 0 0 0 0 0
    0 0 0 0 0 0 0 0 0 0 0 0 0 0 0 0 0 0 0 0 0 0 0 0 0 0 0 0 0 0 0 0 0 0 0 0 0 0 0 0 0 0 0 0 0 0 0 0 0 0 0 0 0 0 0 0 0 0 0 0 0 0 0 0 0 0 0 0 0 80 81 81 82 82 80 82 80 79 80 78 77 77 76 76 74 74 72 70 70 70 69 68 68 67 61 68 68 67 64 63 64 64 62 61 60 -225 -225 -225 -225 -225 -225 -225 -225 -225 -225 -225 -225 -225 -225 -225 -225 -225 -225 -225 -225 -225 -225 -225 -225 -225 -225 -225 -225 -225 -225 -225 -225 -225 -225 -225 -225 -225 -225 -225 -225 -225 -225 -225 -225 -225 -225 -225 -225 -225 -225 20 18 21 19 15 15 14 13 13 13 13 12 12 12 12 12 14 12 11 11 9 9 11 -225 -225 -225 -225 27 28 29 29 37 44 42 43 43 48 48 49 48 49 47 50 50 51 50 54 56 61 62 64 68 73 73 73 74 74 74 75 78 79 75 79 82 82 85 89 89 89 90 92 92 92 93 92 94 94 96 98 99 101 101 103 104 105 105 105 -193 -193 -177 107 -193 108 -193 113 118 119 129 131 131 131 131 131 132 133 133 128 138 143 145 149 151 151 151 153 160 157 157 157 162 158 161 161 161 161 163 164 165 -177 -177 -193 -177 -177 -209 -209 -193 861 862 -177 -193 188 188 188 189 189 194 193 197 198 -193 -193 97 98 99 -193 -193 206 210 -193 -193 0 0 0 0 0
    0 0 0 0 0 0 0 0 0 0 0 0 0 0 0 0 0 0 0 0 0 0 0 0 0 0 0 0 0 0 0 0 0 0 0 0 0 0 0 0 0 0 0 0 0 0 0 0 0 0 0 0 0 0 0 0 0 0 0 0 0 0 0 0 0 0 0 0 0 79 80 81 81 81 80 82 80 79 80 78 77 77 76 75 74 73 71 69 70 70 68 68 67 66 62 68 68 67 64 63 62 63 61 60 59 58 -225 -225 -225 -225 -225 -225 -225 -225 -225 -225 -225 -225 -225 -225 -225 -225 -225 -225 -225 -225 -225 -225 -225 -225 -225 -225 -225 -225 -225 -225 -225 -225 -225 -225 -225 -225 -225 -225 -225 -225 -225 -225 -225 -225 -225 -225 -225 -225 18 16 15 19 17 14 14 14 13 13 13 13 12 12 13 12 13 15 14 13 13 11 16 -225 -225 -225 -225 -225 28 29 31 32 37 43 41 43 42 47 47 50 47 48 47 49 49 51 50 53 55 61 63 64 68 73 72 72 73 73 73 74 77 78 75 78 81 82 84 88 88 88 90 91 92 92 92 92 94 94 95 98 99 101 102 103 105 106 106 106 -209 -209 108 107 -193 107 -209 111 117 118 127 131 131 131 131 132 133 133 134 130 137 141 143 148 150 149 150 152 160 157 157 158 162 158 161 161 161 161 164 165 166 -177 -177 -209 -177 -177 -209 174 -209 861 862 -193 -193 188 188 188 188 188 193 193 197 197 199 -193 -193 98 99 100 -193 -193 209 -193 -193 0 0 0 0 0
    0 0 0 0 0 0 0 0 0 0 0 0 0 0 0 0 0 0 0 0 0 0 0 0 0 0 0 0 0 0 0 0 0 0 0 0 0 0 0 0 0 0 0 0 0 0 0 0 0 0 0 0 0 0 0 0 0 0 0 0 0 0 0 0 0 0 0 0 0 79 79 80 80 81 79 81 80 78 80 77 76 77 75 75 74 72 71 68 69 69 67 67 67 65 62 65 67 66 62 61 60 60 59 58 57 56 -225 -225 -225 -225 -225 -225 -225 -225 -225 -225 -225 -225 -225 -225 -225 -225 -225 -225 -225 -225 -225 -225 -225 -225 -225 -225 -225 -225 -225 -225 -225 -225 -225 -225 -225 -225 -225 -225 -225 -225 -225 -225 -225 -225 -225 -225 -225 -225 17 15 14 17 16 14 14 13 12 12 13 13 12 11 12 12 12 14 12 12 11 11 -225 -225 -225 -225 -225 -225 29 30 32 34 37 42 42 43 42 46 47 50 47 48 47 49 49 52 52 54 56 61 64 64 67 72 70 70 71 72 73 74 77 77 75 78 80 80 80 86 86 86 88 89 89 91 90 91 93 93 95 98 99 102 -193 -193 -193 107 107 -209 -209 -209 -193 107 -193 106 -193 110 115 118 125 132 132 132 132 132 133 133 134 131 137 140 142 147 150 148 149 151 160 156 157 157 162 158 161 161 161 161 165 165 167 -193 -193 -209 -193 -193 -209 174 -209 862 863 -193 -193 188 187 187 188 187 191 193 197 197 199 -193 -193 97 99 100 99 -193 208 -193 101 0 0 0 0 0
    0 0 0 0 0 0 0 0 0 0 0 0 0 0 0 0 0 0 0 0 0 0 0 0 0 0 0 0 0 0 0 0 0 0 0 0 0 0 0 0 0 0 0 0 0 0 0 0 0 0 0 0 0 0 0 0 0 0 0 0 0 0 0 0 0 0 0 0 0 78 78 78 79 80 79 80 79 78 80 77 76 76 75 74 73 72 71 68 68 69 67 68 67 65 62 62 65 64 61 60 58 58 58 57 56 54 52 -225 -225 -225 -225 -225 -225 -225 -225 -225 -225 -225 -225 -225 -225 -225 -225 -225 -225 -225 -225 -225 -225 -225 -225 -225 -225 -225 -225 -225 -225 -225 -225 -225 -225 -225 -225 -225 -225 -225 -225 -225 -225 -225 -225 -225 11 17 15 14 13 16 16 13 14 13 12 12 13 13 12 11 12 11 12 13 13 11 -225 -225 -225 -225 -225 -225 -225 -225 31 31 34 35 37 41 42 43 43 46 47 50 48 48 47 49 50 52 53 55 56 61 64 64 66 71 69 69 70 -193 72 73 76 76 75 77 80 80 79 85 86 84 87 88 88 89 90 91 92 93 95 99 100 102 -193 -209 -209 -193 -193 -209 -209 -209 -193 -209 -209 -209 -209 109 114 117 123 132 132 132 132 132 133 134 134 132 135 139 142 147 150 148 149 151 159 156 156 156 160 158 160 161 161 161 165 166 -193 -209 -209 -209 109 -209 -209 174 -209 -193 862 -193 -193 187 187 186 187 187 190 192 196 197 199 -209 -193 97 98 99 99 99 -193 101 100 0 0 0 0 0
    0 0 0 0 0 0 0 0 0 0 0 0 0 0 0 0 0 0 0 0 0 0 0 0 0 0 0 0 0 0 0 0 0 0 0 0 0 0 0 0 0 0 0 0 0 0 0 0 0 0 0 0 0 0 0 0 0 0 0 0 0 0 0 0 0 0 0 0 0 77 77 78 79 80 80 79 78 78 79 77 76 75 74 73 73 71 70 68 68 69 68 68 67 65 63 62 64 63 60 60 58 57 56 55 54 53 52 51 -225 -225 -225 -225 -225 -225 -225 -225 -225 -225 -225 -225 -225 -225 -225 -225 -225 -225 -225 -225 -225 -225 -225 -225 -225 -225 -225 -225 -225 -225 -225 -225 -225 -225 -225 -225 -225 -225 -225 -225 -225 15 20 12 11 15 14 13 13 15 14 12 13 12 12 12 13 13 12 12 13 13 14 13 13 12 -225 -225 -225 -225 -225 -225 -225 -225 32 32 34 35 37 40 42 43 43 45 47 50 48 48 48 49 50 53 54 55 57 61 64 64 66 70 68 68 70 -193 -193 73 77 76 75 78 80 81 79 85 85 84 87 88 88 89 90 91 92 93 96 99 100 102 -193 -209 -209 -193 -209 -209 -193 -209 -193 -209 -209 -209 -209 108 114 117 122 132 132 132 132 133 133 134 134 132 133 138 142 146 149 147 148 151 157 155 155 155 159 157 160 160 161 161 165 166 -193 -193 -193 -209 109 -209 172 174 -209 -209 862 -193 -209 187 186 186 186 186 188 191 195 196 199 -209 -193 98 98 99 99 98 -193 101 99 0 0 0 0 0
    0 0 0 0 0 0 0 0 0 0 0 0 0 0 0 0 0 0 0 0 0 0 0 0 0 0 0 0 0 0 0 0 0 0 0 0 0 0 0 0 0 0 0 0 0 0 0 0 0 0 0 0 0 0 0 0 0 0 0 0 0 0 0 0 0 0 0 0 0 76 77 77 79 80 80 79 78 77 78 76 76 74 73 72 72 71 70 68 68 68 68 68 68 65 63 63 64 62 60 59 58 57 56 55 54 53 52 52 51 -225 -225 -225 -225 -225 -225 -225 -225 -225 -225 -225 -225 -225 -225 -225 -225 -225 -225 -225 -225 -225 -225 -225 -225 -225 -225 -225 -225 -225 -225 -225 -225 -225 -225 -225 -225 -225 20 22 19 18 20 14 13 14 14 14 12 14 14 12 12 12 12 12 12 12 12 12 12 13 13 14 13 14 15 -225 -225 -225 -225 -225 -225 -225 30 30 33 35 36 39 -193 42 42 44 46 49 47 47 48 48 50 53 54 55 57 61 63 63 65 70 67 67 69 -177 -193 73 77 76 75 78 81 81 79 85 85 82 87 87 88 89 90 91 91 94 97 100 100 102 -209 -209 -209 -209 -209 -209 -193 -209 -177 -209 -209 -209 -209 110 115 117 121 131 131 131 131 132 133 133 134 133 132 138 143 146 149 147 147 150 156 154 154 154 157 157 159 159 160 161 165 167 -193 113 -193 -193 109 172 173 174 -193 -209 -193 -193 -209 186 186 185 185 185 187 190 193 195 199 -209 -193 98 99 100 99 98 100 100 98 0 0 0 0 0
    0 0 0 0 0 0 0 0 0 0 0 0 0 0 0 0 0 0 0 0 0 0 0 0 0 0 0 0 0 0 0 0 0 0 0 0 0 0 0 0 0 0 0 0 0 0 0 0 0 0 0 0 0 0 0 0 0 0 0 0 0 0 0 0 0 0 0 0 0 75 78 77 78 80 80 79 78 77 78 75 75 74 73 71 71 70 70 68 68 68 68 67 67 65 64 63 63 62 60 59 58 57 56 55 54 53 52 52 51 51 -225 -225 -225 -225 -225 -225 -225 -225 -225 -225 -225 -225 -225 -225 -225 -225 -225 -225 -225 -225 -225 -225 -225 -225 -225 -225 -225 -225 -225 -225 -225 -225 -225 -225 -225 23 20 22 17 13 17 12 11 12 12 12 11 12 12 11 11 11 11 11 11 11 12 11 12 12 14 14 14 15 19 17 23 23 24 23 -225 -225 28 28 -193 34 36 39 41 42 -193 44 46 48 47 47 47 48 51 54 55 55 57 60 62 62 63 69 66 66 69 -177 -193 73 77 76 75 78 81 81 78 84 84 80 87 87 88 88 90 91 91 94 98 101 101 103 -209 -209 -209 -209 -209 -209 -193 -209 919 -209 -209 -209 -193 -193 116 117 120 131 130 131 131 132 133 133 134 133 131 138 143 145 148 145 146 149 154 153 153 153 156 156 158 159 160 162 166 168 -193 -193 -193 173 -193 173 174 174 181 -209 -193 -193 -193 186 185 184 184 184 186 189 191 194 197 199 201 -193 99 100 99 98 -193 -193 97 0 0 0 0 0
    0 0 0 0 0 0 0 0 0 0 0 0 0 0 0 0 0 0 0 0 0 0 0 0 0 0 0 0 0 0 0 0 0 0 0 0 0 0 0 0 0 0 0 0 0 0 0 0 0 0 0 0 0 0 0 0 0 0 0 0 0 0 0 0 0 0 0 0 0 73 76 76 77 79 81 79 78 77 77 75 75 74 72 71 71 70 69 67 68 68 68 67 67 65 63 62 62 62 60 59 58 57 55 55 54 53 52 51 52 52 51 -225 -225 -225 -225 -225 -225 -225 -225 -225 -225 -225 -225 -225 -225 -225 -225 -225 -225 -225 -225 -225 -225 -225 -225 -225 -225 -225 -225 -225 -225 -225 -225 -225 -225 22 19 21 18 14 16 12 12 11 12 12 11 12 12 11 11 11 12 12 12 12 12 12 13 13 14 13 13 15 18 16 20 19 18 17 20 31 27 26 -193 32 36 39 41 42 -193 44 46 47 47 47 47 49 51 54 55 55 57 59 61 61 60 68 65 65 69 -193 -193 73 77 76 76 78 81 81 77 83 83 80 87 87 88 88 90 91 91 95 98 101 101 -193 -209 -209 -209 -209 -209 -209 -209 -209 -209 -209 -193 -209 -193 -193 117 117 120 131 130 131 131 132 133 133 134 133 129 138 141 143 147 144 144 148 152 152 152 153 155 156 157 158 159 161 166 168 170 171 172 173 174 173 174 174 180 -193 -193 -193 -193 185 184 183 183 182 185 188 189 193 196 198 200 -193 -193 -193 -193 -193 -193 -193 97 0 0 0 0 0
    0 0 0 0 0 0 0 0 0 0 0 0 0 0 0 0 0 0 0 0 0 0 0 0 0 0 0 0 0 0 0 0 0 0 0 0 0 0 0 0 0 0 0 0 0 0 0 0 0 0 0 0 0 0 0 0 0 0 0 0 0 0 0 0 0 0 0 0 0 71 74 74 77 79 81 80 78 77 78 76 76 74 72 71 71 70 69 67 67 68 67 68 67 66 64 62 63 63 60 58 57 56 55 54 53 53 52 50 52 52 52 51 -225 -225 -225 -225 -225 -225 -225 -225 -225 -225 -225 -225 -225 -225 -225 -225 -225 -225 -225 -225 -225 -225 -225 -225 -225 -225 -225 -225 -225 -225 -225 -225 -225 22 18 20 17 15 16 13 13 12 12 12 12 12 12 11 11 11 13 12 12 12 12 12 14 14 14 13 13 16 18 16 18 15 17 15 19 28 25 25 27 30 36 38 40 41 -193 -193 46 46 46 46 47 50 51 54 55 54 57 59 60 60 59 68 66 66 69 -193 72 73 77 76 76 77 80 80 77 82 83 80 87 87 88 89 90 91 91 95 98 100 101 -193 -209 -209 -209 -209 -209 -209 -209 -209 -209 -193 -193 -193 -193 -193 -193 117 119 131 130 131 131 132 133 134 134 134 129 138 141 142 147 145 144 148 152 152 152 152 154 156 157 157 158 161 165 168 170 -193 172 173 174 173 174 173 180 177 -193 -193 -209 184 184 183 183 182 184 187 189 192 195 197 199 200 -193 -193 -193 -193 205 -193 -193 0 0 0 0 0
    0 0 0 0 0 0 0 0 0 0 0 0 0 0 0 0 0 0 0 0 0 0 0 0 0 0 0 0 0 0 0 0 0 0 0 0 0 0 0 0 0 0 0 0 0 0 0 0 0 0 0 0 0 0 0 0 0 0 0 0 0 0 0 0 0 0 0 0 0 69 71 72 75 79 79 80 79 78 79 77 77 75 73 71 71 70 70 67 67 67 68 68 68 67 65 62 63 63 60 58 57 56 55 55 54 53 52 51 52 52 52 52 51 -225 -225 -225 -225 -225 -225 -225 -225 -225 -225 -225 -225 -225 -225 -225 -225 -225 -225 -225 -225 -225 -225 -225 -225 -225 -225 -225 -225 -225 -225 -225 -225 22 19 19 16 15 14 11 13 11 12 12 11 12 12 12 12 12 14 13 13 13 13 13 14 14 14 14 14 17 18 16 17 16 19 18 19 27 23 22 -209 26 36 37 39 39 -193 -193 45 44 45 45 46 50 52 53 54 53 57 58 59 59 58 67 67 67 70 73 72 73 77 76 76 77 79 79 77 82 83 80 87 87 88 88 90 91 91 96 98 100 101 -209 -209 -209 -193 -209 -209 -209 -209 -193 -209 110 -193 -193 -193 -177 -193 118 120 131 130 130 131 132 132 133 133 134 130 138 142 144 148 146 146 148 152 152 153 153 154 -193 157 157 158 161 164 167 -193 -193 -193 173 173 173 173 173 179 177 -193 -193 -209 184 183 182 182 182 184 187 189 192 195 196 199 200 -193 -193 -193 -193 204 -193 -193 0 0 0 0 0
    0 0 0 0 0 0 0 0 0 0 0 0 0 0 0 0 0 0 0 0 0 0 0 0 0 0 0 0 0 0 0 0 0 0 0 0 0 0 0 0 0 0 0 0 0 0 0 0 0 0 0 0 0 0 0 0 0 0 0 0 0 0 0 0 0 0 0 0 0 67 69 70 73 78 79 80 79 78 80 78 77 75 73 72 71 70 70 67 67 67 67 68 68 67 66 62 62 63 60 59 58 57 55 55 54 53 51 51 51 52 52 52 52 51 -225 -225 -225 -225 -225 -225 -225 -225 -225 -225 -225 -225 -225 -225 -225 -225 -225 -225 -225 -225 -225 -225 -225 -225 -225 -225 -225 -225 -225 -225 -225 22 19 19 16 14 15 12 13 12 11 12 11 13 12 11 12 12 13 13 12 13 12 13 14 14 13 13 14 17 18 16 16 16 18 17 17 23 19 17 18 23 34 36 38 38 -193 -193 45 44 45 45 46 49 52 53 53 51 56 58 59 59 58 67 68 69 70 74 72 73 77 76 76 76 78 78 76 81 83 80 86 86 88 87 90 91 91 96 98 100 101 -209 -193 -193 -193 -193 -209 -209 -209 -193 -209 114 -193 -193 -193 -193 -193 120 121 130 129 128 130 131 132 133 133 133 130 137 142 145 149 147 147 149 152 152 153 153 154 -193 157 157 158 161 163 167 -193 -209 -193 172 173 172 173 172 179 178 -193 -193 -209 184 184 183 183 183 184 188 189 192 195 196 199 200 200 201 -193 -193 204 -193 -193 0 0 0 0 0
    0 0 0 0 0 0 0 0 0 0 0 0 0 0 0 0 0 0 0 0 0 0 0 0 0 0 0 0 0 0 0 0 0 0 0 0 0 0 0 0 0 0 0 0 0 0 0 0 0 0 0 0 0 0 0 0 0 0 0 0 0 0 0 0 0 0 0 0 0 65 67 68 72 77 78 79 78 77 79 78 77 75 74 72 71 70 70 68 67 68 67 67 67 66 65 62 61 62 60 59 58 57 56 54 54 53 51 51 51 51 51 51 52 51 51 -225 -225 -225 -225 -225 -225 -225 -225 -225 -225 -225 -225 -225 -225 -225 -225 -225 -225 -225 -225 -225 -225 -225 -225 -225 -225 -225 -225 -225 -225 22 19 20 16 14 14 12 13 12 11 11 11 13 11 11 11 10 12 13 12 12 12 13 14 13 13 14 14 17 18 17 16 15 16 17 15 20 16 14 14 23 31 34 35 35 35 39 43 43 44 44 45 49 51 51 51 48 55 57 58 58 58 67 70 71 71 74 72 73 77 76 76 75 78 78 76 81 83 80 86 86 87 87 90 90 91 97 98 100 102 -209 -209 -193 -193 -177 -177 -209 -209 -209 -209 -193 119 120 121 122 122 121 122 128 129 127 128 130 131 132 132 133 130 137 141 144 148 147 147 148 151 153 153 153 154 -193 157 156 157 161 163 166 -193 298 -193 172 172 171 172 172 179 179 -193 -209 -209 184 184 183 184 184 185 188 190 192 194 196 198 200 200 200 -209 -193 204 -193 -193 0 0 0 0 0
    0 0 0 0 0 0 0 0 0 0 0 0 0 0 0 0 0 0 0 0 0 0 0 0 0 0 0 0 0 0 0 0 0 0 0 0 0 0 0 0 0 0 0 0 0 0 0 0 0 0 0 0 0 0 0 0 0 0 0 0 0 0 0 0 0 0 0 0 0 65 66 68 70 75 76 78 77 77 78 77 77 75 74 73 72 71 71 69 68 68 68 66 66 66 64 61 61 62 59 59 58 57 56 55 54 53 51 51 51 52 51 50 51 51 51 50 -225 -225 -225 -225 -225 -225 -225 -225 -225 -225 -225 -225 -225 -225 -225 -225 -225 -225 -225 -225 -225 -225 -225 -225 -225 -225 -225 -225 -225 23 22 21 18 16 15 14 14 12 12 12 11 13 11 11 10 9 11 11 11 11 10 12 13 12 13 13 14 16 18 18 16 16 18 18 15 18 15 15 17 23 30 33 34 35 36 39 43 43 44 44 45 48 50 50 51 47 54 55 58 59 59 67 71 71 72 74 72 73 77 76 76 75 77 77 76 80 83 80 86 86 87 87 90 90 91 96 98 100 102 -209 -209 -193 -193 -177 -177 -209 -209 -193 -209 -193 120 122 122 123 123 123 123 127 129 127 127 130 131 132 132 133 131 136 140 143 147 147 146 147 151 153 153 154 154 -193 157 156 157 160 162 166 -193 -193 -193 172 172 -193 172 172 179 -193 -193 -209 -209 185 184 184 184 185 185 188 189 191 193 195 198 199 200 200 -209 -209 204 -193 -193 0 0 0 0 0
    0 0 0 0 0 0 0 0 0 0 0 0 0 0 0 0 0 0 0 0 0 0 0 0 0 0 0 0 0 0 0 0 0 0 0 0 0 0 0 0 0 0 0 0 0 0 0 0 0 0 0 0 0 0 0 0 0 0 0 0 0 0 0 0 0 0 0 0 0 65 66 67 69 74 74 76 77 76 78 77 77 76 75 74 73 72 72 70 69 69 68 67 67 65 64 61 60 61 59 58 57 57 56 55 53 52 51 51 51 52 51 50 49 51 51 50 50 -225 -225 -225 -225 -225 -225 -225 -225 -225 -225 -225 -225 -225 -225 -225 -225 -225 -225 -225 -225 -225 -225 -225 -225 -225 -225 -225 -225 -225 21 21 18 15 14 14 14 12 12 12 11 13 11 11 10 10 11 11 11 11 10 11 12 11 12 13 14 15 17 18 16 16 17 16 14 16 14 12 14 23 30 34 36 37 37 39 44 43 44 44 45 48 50 50 50 47 53 56 58 60 60 66 70 71 71 73 72 73 77 76 76 75 77 77 77 80 83 80 86 86 87 86 90 90 91 97 98 101 103 -193 -193 -177 -177 -177 -177 -209 -209 -193 -209 119 120 122 122 123 124 123 124 128 130 127 127 130 131 132 132 133 132 135 140 143 147 147 146 147 150 154 154 154 155 157 156 156 157 159 161 165 167 -193 -193 -193 -193 -209 172 -193 179 -193 -209 -209 -209 185 185 184 185 185 185 188 189 191 192 193 196 199 199 199 -209 -209 203 -209 -209 0 0 0 0 0
    0 0 0 0 0 0 0 0 0 0 0 0 0 0 0 0 0 0 0 0 0 0 0 0 0 0 0 0 0 0 0 0 0 0 0 0 0 0 0 0 0 0 0 0 0 0 0 0 0 0 0 0 0 0 0 0 0 0 0 0 0 0 0 0 0 0 0 0 0 63 64 65 67 72 72 74 76 76 78 76 77 76 75 74 73 72 72 71 70 69 69 68 67 66 63 61 60 61 59 58 57 57 55 54 53 52 51 50 51 51 50 50 48 50 50 50 49 48 -225 -225 -225 -225 -225 -225 -225 -225 -225 -225 -225 -225 -225 -225 -225 -225 -225 -225 -225 -225 -225 -225 -225 -225 -225 -225 -225 14 16 17 15 14 13 13 14 12 13 12 12 14 12 11 11 11 12 11 12 12 10 11 12 12 12 13 14 15 16 19 16 16 16 16 15 16 14 13 13 22 29 33 36 37 38 39 45 44 45 45 46 48 50 50 51 48 54 57 59 61 60 65 70 70 70 72 71 72 76 76 76 75 77 78 78 80 84 80 85 86 87 86 90 90 92 96 98 100 103 -209 -209 -177 -177 -177 -209 -193 120 -193 120 118 119 121 121 123 124 123 124 128 132 128 127 130 131 132 133 133 133 134 139 143 147 148 146 147 150 155 154 155 155 157 156 156 157 158 160 164 166 -193 -177 -193 -193 -209 -193 -193 178 -193 -193 -209 -209 185 185 185 185 185 185 188 189 190 191 192 194 198 198 198 -193 -209 -209 128 -193 0 0 0 0 0
    0 0 0 0 0 0 0 0 0 0 0 0 0 0 0 0 0 0 0 0 0 0 0 0 0 0 0 0 0 0 0 0 0 0 0 0 0 0 0 0 0 0 0 0 0 0 0 0 0 0 0 0 0 0 0 0 0 0 0 0 0 0 0 0 0 0 0 0 0 63 64 63 65 70 70 72 74 74 77 75 76 75 75 74 74 73 73 72 71 70 69 68 67 67 64 61 60 61 59 58 57 57 55 54 54 52 50 50 50 51 49 50 48 48 49 48 48 46 -225 -225 -225 -225 -225 -225 -225 -225 -225 -225 -225 -225 -225 -225 -225 -225 -225 -225 -225 -225 -225 -225 -225 -225 -225 -225 -225 11 13 15 15 15 13 14 14 12 13 12 11 13 11 11 11 11 12 11 13 13 10 12 13 13 12 13 14 14 15 18 15 15 15 16 15 15 14 12 12 20 26 30 34 36 37 39 45 45 45 46 46 48 51 51 51 50 55 58 60 63 61 65 70 70 70 71 72 72 75 76 76 75 77 78 78 79 83 80 84 85 86 86 90 89 91 94 96 99 102 -209 -209 -193 -177 -193 -193 115 118 119 119 117 119 121 121 122 123 123 124 127 133 128 128 130 131 133 133 133 133 133 140 145 148 149 146 147 150 156 154 155 155 157 156 155 156 157 157 162 166 -193 -177 -209 -193 -209 -193 -193 177 -193 -193 -209 -209 186 185 185 185 185 185 187 188 189 190 191 192 197 198 -193 -193 124 -209 126 -209 0 0 0 0 0
    0 0 0 0 0 0 0 0 0 0 0 0 0 0 0 0 0 0 0 0 0 0 0 0 0 0 0 0 0 0 0 0 0 0 0 0 0 0 0 0 0 0 0 0 0 0 0 0 0 0 0 0 0 0 0 0 0 0 0 0 0 0 0 0 0 0 0 0 0 64 65 64 65 69 69 71 72 73 75 74 76 75 75 74 74 73 73 72 72 70 70 69 68 67 64 61 59 60 58 58 57 57 55 54 54 53 51 51 50 51 49 49 47 48 47 46 46 45 44 -225 -225 -225 -225 -225 -225 -225 -225 -225 -225 -225 -225 -225 -225 -225 -225 -225 -225 -225 -225 -225 -225 -225 -225 -225 11 10 12 14 13 14 12 12 13 11 12 11 11 13 11 11 11 10 11 11 13 12 10 12 13 12 12 13 15 13 15 18 15 15 16 16 15 14 14 12 11 18 24 29 34 37 38 39 45 46 46 46 47 48 51 51 52 51 55 58 60 63 62 64 69 69 69 71 71 72 75 76 76 75 78 79 79 79 83 79 81 84 85 84 88 88 90 93 95 98 101 -209 -209 -177 -177 -193 115 114 117 118 118 117 119 121 121 122 123 123 124 125 132 128 127 130 131 132 132 133 133 131 139 145 148 149 146 147 150 156 154 154 154 156 -193 155 156 156 156 160 165 -193 -177 -193 -193 -209 -193 -193 176 182 -193 -209 -209 186 186 186 186 185 185 187 187 188 188 189 189 196 197 -193 123 -209 134 -209 -193 0 0 0 0 0
    0 0 0 0 0 0 0 0 0 0 0 0 0 0 0 0 0 0 0 0 0 0 0 0 0 0 0 0 0 0 0 0 0 0 0 0 0 0 0 0 0 0 0 0 0 0 0 0 0 0 0 0 0 0 0 0 0 0 0 0 0 0 0 0 0 0 0 0 0 63 63 63 63 66 67 68 70 71 74 74 75 75 75 75 75 74 74 73 73 71 71 69 68 68 64 61 59 59 58 58 57 57 55 55 54 52 52 51 50 50 49 49 47 47 47 45 45 44 43 42 -225 -225 -225 -225 -225 -225 -225 -225 -225 -225 -225 -225 -225 -225 -225 -225 -225 -225 -225 -225 -225 -225 -225 13 13 12 14 15 16 13 12 12 12 11 12 10 10 11 10 10 10 10 11 10 12 12 10 11 11 11 11 12 14 13 14 18 16 17 17 16 14 13 14 11 10 13 22 28 -193 39 40 40 47 46 46 47 47 48 51 52 52 52 56 58 60 63 62 64 69 68 68 70 71 72 74 76 76 75 78 80 80 78 83 78 78 82 84 82 86 87 89 92 95 98 101 -209 -209 -193 -177 -193 115 114 116 117 118 116 118 121 121 122 123 123 123 124 132 128 127 129 130 131 132 132 133 128 139 145 147 148 145 146 150 155 153 154 153 -193 -177 154 155 155 156 161 165 -193 -177 -193 172 -209 -193 173 176 183 -209 -209 -209 187 186 187 186 185 185 187 186 187 187 188 187 193 194 115 -209 -209 -209 -193 110 0 0 0 0 0
    0 0 0 0 0 0 0 0 0 0 0 0 0 0 0 0 0 0 0 0 0 0 0 0 0 0 0 0 0 0 0 0 0 0 0 0 0 0 0 0 0 0 0 0 0 0 0 0 0 0 0 0 0 0 0 0 0 0 0 0 0 0 0 0 0 0 0 0 0 62 62 61 61 62 64 66 68 70 72 73 75 75 76 76 76 75 75 74 74 73 71 69 66 67 62 60 58 58 58 57 57 57 55 54 53 52 51 51 50 50 48 48 45 45 45 44 43 42 42 41 39 -225 -225 -225 -225 -225 -225 -225 -225 -225 -225 -225 -225 -225 -225 -225 -225 -225 17 17 18 16 14 14 14 11 13 15 16 12 14 13 13 11 12 11 11 11 10 9 9 9 11 10 12 11 9 10 11 11 12 11 13 12 14 18 17 17 16 16 14 14 14 12 12 14 21 28 38 40 41 41 47 47 46 48 48 49 51 52 53 53 56 59 60 62 61 63 68 67 67 69 71 72 74 76 76 75 79 81 81 78 83 78 76 80 82 81 84 87 89 91 94 97 101 -193 -209 -193 -193 110 114 114 115 116 118 116 118 121 121 122 123 123 123 123 132 128 126 129 129 131 131 132 132 126 138 142 144 147 143 143 148 153 151 152 152 -177 -177 154 154 154 155 162 165 -209 -177 -193 172 -209 173 174 176 182 -193 -209 -209 -193 186 187 186 185 185 186 186 186 186 186 186 190 190 108 -193 101 -209 -193 104 0 0 0 0 0
    0 0 0 0 0 0 0 0 0 0 0 0 0 0 0 0 0 0 0 0 0 0 0 0 0 0 0 0 0 0 0 0 0 0 0 0 0 0 0 0 0 0 0 0 0 0 0 0 0 0 0 0 0 0 0 0 0 0 0 0 0 0 0 0 0 0 0 0 0 61 61 60 60 61 62 64 67 69 71 73 75 76 76 76 77 76 75 75 74 73 72 70 67 67 61 60 58 57 57 56 56 56 55 54 53 51 51 51 50 50 48 46 45 44 44 43 42 41 41 41 38 38 -225 -225 -225 -225 -225 -225 -225 -225 -225 -225 -225 -225 -225 -225 21 18 17 17 19 16 15 16 16 14 14 16 17 13 15 14 13 12 13 12 11 11 10 9 9 9 11 9 11 10 9 10 12 12 12 12 14 13 15 18 17 17 17 16 15 15 15 13 14 18 22 27 37 39 40 41 46 47 46 48 48 49 51 53 54 53 56 59 61 63 62 63 68 67 67 69 71 72 73 77 -193 76 79 82 81 78 83 79 76 80 83 83 86 88 90 91 94 97 101 102 -193 -209 109 110 113 114 114 116 118 116 118 121 121 122 123 123 122 122 133 129 126 129 129 131 131 131 132 126 138 141 142 147 143 143 148 152 150 151 151 -177 -177 153 154 154 155 162 165 -209 -177 -177 172 -193 173 174 176 182 -193 -209 183 -193 185 186 185 184 184 185 185 185 185 185 184 187 187 99 89 100 -193 102 103 0 0 0 0 0
    0 0 0 0 0 0 0 0 0 0 0 0 0 0 0 0 0 0 0 0 0 0 0 0 0 0 0 0 0 0 0 0 0 0 0 0 0 0 0 0 0 0 0 0 0 0 0 0 0 0 0 0 0 0 0 0 0 0 0 0 0 0 0 0 0 0 0 0 0 62 61 60 61 62 63 65 68 70 72 74 75 77 76 77 77 76 76 76 75 74 73 71 68 68 61 60 57 56 56 55 55 55 54 54 53 51 51 51 50 49 48 47 44 43 43 43 42 41 40 40 39 38 37 -225 -225 -225 -225 -225 -225 -225 -225 -225 -225 -225 -225 13 19 17 17 16 18 16 15 16 16 15 15 15 17 13 15 14 13 12 13 12 12 11 11 10 10 10 12 10 11 11 10 11 12 12 12 11 13 13 14 17 16 16 16 16 15 16 16 14 16 -193 22 26 38 41 41 42 47 47 46 49 49 50 51 53 54 54 56 59 61 63 62 63 68 66 66 68 71 71 73 77 -193 76 80 83 81 78 82 79 75 80 83 83 85 89 90 91 94 96 100 101 103 -209 108 110 113 113 113 115 117 115 117 121 121 121 122 121 120 121 133 129 126 129 130 131 132 132 132 126 138 142 142 147 143 143 147 151 150 150 150 -193 -177 153 154 154 155 -193 165 167 -177 -177 172 -193 -193 174 176 181 -193 -193 -193 -193 185 185 184 184 184 184 184 184 184 184 183 187 187 94 91 98 -193 100 101 0 0 0 0 0
    0 0 0 0 0 0 0 0 0 0 0 0 0 0 0 0 0 0 0 0 0 0 0 0 0 0 0 0 0 0 0 0 0 0 0 0 0 0 0 0 0 0 0 0 0 0 0 0 0 0 0 0 0 0 0 0 0 0 0 0 0 0 0 0 0 0 0 0 0 61 61 60 61 61 64 67 70 71 73 75 75 77 76 77 77 76 76 75 75 74 73 72 70 69 63 61 57 55 55 55 55 54 53 53 52 51 51 51 50 49 48 47 44 43 42 42 41 40 40 40 38 39 38 38 -225 -225 -225 -225 -225 -225 -225 -225 -225 -225 15 14 19 17 19 16 18 16 15 16 16 15 15 14 16 13 14 13 13 12 12 12 11 11 11 10 10 11 14 12 13 13 12 13 14 14 13 12 13 13 14 16 15 15 16 16 14 16 16 13 13 15 19 24 38 42 42 42 47 48 46 50 50 50 51 54 55 54 56 59 60 62 62 63 68 65 66 68 70 71 73 -193 -193 -193 80 83 82 78 82 80 76 81 83 82 86 90 91 91 94 96 99 100 103 -209 108 109 112 112 112 114 116 114 115 120 119 118 120 119 118 120 133 129 127 129 130 131 131 132 132 125 138 142 143 148 144 144 148 151 150 150 150 151 -177 154 154 154 -193 -209 165 167 -177 -177 172 -193 -193 174 175 180 181 -209 -193 -193 184 185 183 183 -193 183 183 184 183 183 182 187 190 92 92 -193 -193 -193 -193 0 0 0 0 0
    0 0 0 0 0 0 0 0 0 0 0 0 0 0 0 0 0 0 0 0 0 0 0 0 0 0 0 0 0 0 0 0 0 0 0 0 0 0 0 0 0 0 0 0 0 0 0 0 0 0 0 0 0 0 0 0 0 0 0 0 0 0 0 0 0 0 0 0 0 60 60 59 62 62 67 69 71 72 73 75 75 77 77 77 77 76 75 75 75 74 72 72 68 68 62 59 56 55 55 54 54 54 53 53 52 50 50 50 49 48 47 46 44 43 43 42 41 40 41 40 39 39 38 38 38 -225 -225 -225 -225 -225 -225 -225 -225 22 17 16 19 19 18 16 18 17 16 16 16 15 14 14 15 13 14 13 13 13 13 12 11 11 12 11 11 10 13 12 13 13 13 13 14 14 14 12 14 14 14 16 15 15 16 15 15 17 17 14 13 16 18 22 33 -209 41 42 47 48 46 50 50 50 50 54 55 55 56 59 60 62 63 63 68 66 66 68 71 72 73 77 76 76 80 83 81 78 81 81 76 82 84 84 86 90 91 92 94 95 98 98 102 -193 107 109 111 111 111 112 115 113 114 119 -193 116 119 118 117 119 131 128 126 128 129 131 131 131 132 124 138 142 143 148 144 144 147 151 150 150 150 151 -177 154 155 155 156 -193 165 167 -193 -177 -193 -193 -193 -193 173 179 181 -193 -193 -193 184 184 183 182 183 183 183 183 183 183 181 187 198 -193 -193 -193 -193 -193 -193 0 0 0 0 0
    0 0 0 0 0 0 0 0 0 0 0 0 0 0 0 0 0 0 0 0 0 0 0 0 0 0 0 0 0 0 0 0 0 0 0 0 0 0 0 0 0 0 0 0 0 0 0 0 0 0 0 0 0 0 0 0 0 0 0 0 0 0 0 0 0 0 0 0 0 62 61 62 66 65 69 71 73 74 74 76 76 78 77 77 76 76 75 75 74 74 71 70 61 60 56 56 55 54 54 54 54 54 53 53 52 50 50 50 49 48 47 46 45 43 43 43 42 41 40 40 38 38 38 38 38 -225 -225 -225 -225 -225 -225 -225 -225 21 17 16 20 19 18 16 17 17 15 16 16 15 14 14 15 13 14 14 13 12 11 11 10 10 11 10 10 10 12 12 13 13 13 12 14 14 14 12 14 13 15 15 15 15 16 15 15 17 16 12 13 14 16 21 32 -209 -193 42 46 48 46 50 50 51 50 54 55 55 56 59 61 62 63 64 69 67 67 69 72 73 73 77 76 76 79 82 80 77 80 81 77 83 85 84 86 90 92 92 93 95 97 97 102 104 107 109 111 111 110 -193 114 112 -193 -209 -209 116 118 117 116 119 130 127 126 128 129 130 131 131 131 125 137 141 141 147 143 143 146 150 150 150 151 151 -177 155 156 156 157 163 164 166 -193 -177 -193 -177 -193 -193 -193 178 180 -193 -193 -193 184 184 183 182 182 182 182 183 183 183 181 188 -193 90 -193 -193 -193 -209 -193 0 0 0 0 0
    0 0 0 0 0 0 0 0 0 0 0 0 0 0 0 0 0 0 0 0 0 0 0 0 0 0 0 0 0 0 0 0 0 0 0 0 0 0 0 0 0 0 0 0 0 0 0 0 0 0 0 0 0 0 0 0 0 0 0 0 0 0 0 0 0 0 0 0 0 61 60 63 67 67 71 73 74 75 76 77 76 78 77 77 76 76 75 75 73 73 67 64 55 54 53 52 53 53 53 53 53 53 53 52 52 51 50 50 50 48 47 46 45 44 43 43 42 41 40 40 39 38 37 37 37 37 -225 -225 -225 -225 -225 -225 18 20 16 15 19 19 17 16 17 17 15 16 16 15 14 14 14 13 14 13 13 13 12 13 11 11 13 11 11 11 13 12 12 13 13 12 13 14 13 13 14 14 14 15 14 15 16 15 13 17 16 12 12 13 14 20 -193 -193 -193 42 46 48 46 50 50 50 48 54 54 54 55 59 61 62 62 64 69 68 68 69 72 72 73 77 76 76 79 82 80 77 80 81 78 83 84 83 85 90 91 92 93 94 97 96 102 -193 107 109 112 -193 -193 -193 -193 -193 -193 -209 -209 116 117 117 115 119 129 127 127 128 129 130 131 131 131 124 137 139 139 146 143 143 145 150 151 151 151 152 -177 155 156 156 157 162 163 165 -193 -177 -193 -177 -177 -193 -209 177 180 -209 -193 -193 183 184 182 182 182 182 182 183 183 183 181 188 202 90 91 -193 -193 -193 -193 0 0 0 0 0
    0 0 0 0 0 0 0 0 0 0 0 0 0 0 0 0 0 0 0 0 0 0 0 0 0 0 0 0 0 0 0 0 0 0 0 0 0 0 0 0 0 0 0 0 0 0 0 0 0 0 0 0 0 0 0 0 0 0 0 0 0 0 0 0 0 0 0 0 0 56 56 60 66 67 72 75 76 77 77 78 77 79 78 77 76 76 75 74 72 71 59 -193 52 51 49 48 52 52 52 52 53 52 52 51 51 50 49 48 48 47 46 45 45 44 44 43 43 41 41 41 40 39 37 36 36 35 32 -225 -225 -225 -225 -225 18 19 16 15 18 18 16 15 17 16 15 16 15 14 13 13 14 12 13 13 13 13 13 13 12 11 14 11 12 12 13 13 13 13 13 12 13 13 14 13 14 14 14 15 14 16 16 15 13 19 16 12 12 13 13 20 -193 -193 -193 43 46 49 -193 50 49 50 47 53 54 54 54 59 61 62 63 64 69 69 69 70 72 72 73 77 76 76 78 81 79 77 80 82 78 83 84 83 85 90 91 91 92 93 96 94 99 -209 -193 -193 -209 -209 -209 -193 -193 -193 -209 -209 -193 115 -193 116 115 119 128 127 127 128 129 130 131 131 131 124 137 139 140 146 144 144 145 150 152 152 152 153 -177 156 157 157 157 161 162 164 -193 -177 -193 -193 -177 -193 -209 176 179 -193 -193 -193 183 184 182 182 182 182 182 183 183 183 182 190 202 -193 92 -193 -193 212 -193 0 0 0 0 0
    0 0 0 0 0 0 0 0 0 0 0 0 0 0 0 0 0 0 0 0 0 0 0 0 0 0 0 0 0 0 0 0 0 0 0 0 0 0 0 0 0 0 0 0 0 0 0 0 0 0 0 0 0 0 0 0 0 0 0 0 0 0 0 0 0 0 0 0 0 54 54 58 67 69 73 77 77 78 78 79 78 80 78 77 76 75 74 73 68 55 54 50 50 51 48 47 50 52 51 51 52 51 51 50 50 48 47 47 47 46 45 44 44 44 43 43 43 41 41 41 39 38 35 33 31 29 28 26 -225 -225 -225 -225 18 19 16 16 18 18 15 14 16 16 14 15 14 13 12 13 12 11 12 12 12 12 12 12 11 11 13 11 11 11 12 12 12 12 13 11 13 13 13 13 13 13 13 14 12 13 13 12 12 18 15 11 11 13 13 20 -193 -209 43 43 47 51 47 50 50 51 47 54 54 55 55 60 61 63 65 66 69 70 70 70 73 73 73 77 76 76 78 80 79 77 80 82 79 83 84 82 84 89 90 90 91 92 94 -193 92 -193 -193 51 -209 -209 -209 -193 -193 190 -209 -209 -193 113 -209 114 114 119 127 127 127 128 130 130 131 131 132 125 137 140 140 146 145 145 146 150 153 153 153 153 -177 156 157 157 157 160 160 164 -193 -177 -193 -193 -177 -193 -209 175 178 173 -193 -193 183 183 182 182 182 182 182 183 183 184 183 190 203 -193 93 -193 -193 213 -193 0 0 0 0 0
    0 0 0 0 0 0 0 0 0 0 0 0 0 0 0 0 0 0 0 0 0 0 0 0 0 0 0 0 0 0 0 0 0 0 0 0 0 0 0 0 0 0 0 0 0 0 0 0 0 0 0 0 0 0 0 0 0 0 0 0 0 0 0 0 0 0 0 0 0 51 53 59 70 70 74 80 77 79 78 79 77 79 78 77 75 75 73 72 62 54 53 50 50 50 48 46 49 51 50 50 51 50 50 49 48 47 46 46 46 45 45 44 44 44 43 43 44 42 41 41 40 38 33 32 29 28 26 25 -225 -225 -225 -225 18 18 15 16 16 19 14 13 15 15 13 14 13 12 12 12 12 10 11 12 12 11 11 11 10 10 12 11 10 10 10 11 11 12 12 11 12 12 13 13 12 12 12 12 10 10 11 10 10 14 13 0 9 10 10 19 -209 -209 44 44 47 51 47 50 49 49 46 52 53 53 54 60 63 65 67 67 70 71 71 72 74 73 73 77 76 76 77 79 79 77 80 82 79 82 83 80 82 -193 89 89 90 90 92 -209 -209 -193 -209 52 -209 -209 -209 -193 -193 189 -193 -209 -193 -193 -193 113 113 118 126 126 128 128 130 130 131 131 132 125 137 140 141 147 146 146 147 151 156 154 155 155 -193 156 157 157 157 159 159 163 -193 -177 -193 -193 -193 -193 -209 174 177 173 -193 181 183 183 182 182 182 182 182 184 184 184 -193 191 203 -193 -193 208 212 213 211 0 0 0 0 0
    0 0 0 0 0 0 0 0 0 0 0 0 0 0 0 0 0 0 0 0 0 0 0 0 0 0 0 0 0 0 0 0 0 0 0 0 0 0 0 0 0 0 0 0 0 0 0 0 0 0 0 0 0 0 0 0 0 0 0 0 0 0 0 0 0 0 0 0 0 45 50 58 70 69 75 81 77 78 78 78 77 78 77 76 74 73 72 65 57 52 51 49 49 49 46 44 47 50 48 49 50 50 49 48 47 46 46 46 46 45 45 44 44 44 44 44 44 43 42 41 40 39 32 31 29 28 27 26 -225 -225 -225 -225 17 16 15 16 16 17 14 12 14 14 12 12 11 11 11 10 10 0 10 10 11 11 10 10 9 9 12 11 11 10 11 11 12 12 13 11 11 11 12 12 11 11 11 11 9 9 11 10 10 11 11 0 0 0 0 15 -209 -209 45 45 48 52 47 48 48 48 45 51 52 53 54 60 63 65 66 66 69 72 72 72 74 73 73 77 76 76 77 79 78 77 79 82 79 81 82 79 80 -193 -193 88 89 89 89 -209 -209 -209 -209 53 -209 -209 -209 -193 -209 -193 -193 -193 -193 -193 -193 113 113 118 125 126 129 128 130 131 132 132 132 126 137 140 141 147 147 146 147 151 158 155 156 156 -193 157 157 157 157 158 159 163 -193 -177 -193 -209 -193 -193 -209 173 175 -193 -193 180 182 183 182 182 182 182 183 184 184 185 -209 -193 203 205 -193 209 212 212 211 0 0 0 0 0
    0 0 0 0 0 0 0 0 0 0 0 0 0 0 0 0 0 0 0 0 0 0 0 0 0 0 0 0 0 0 0 0 0 0 0 0 0 0 0 0 0 0 0 0 0 0 0 0 0 0 0 0 0 0 0 0 0 0 0 0 0 0 0 0 0 0 0 0 0 46 48 56 65 63 73 78 76 78 77 77 76 77 77 75 73 71 64 56 53 50 48 48 48 48 45 44 46 49 48 49 48 48 48 46 45 45 44 45 44 44 44 44 44 44 44 44 44 43 42 41 40 39 32 31 29 29 28 27 25 -225 -225 17 15 16 16 15 14 14 11 11 13 12 10 10 10 9 9 9 0 0 9 9 10 10 10 9 9 9 11 11 10 10 10 11 12 12 12 11 11 11 11 12 11 12 12 12 10 10 12 10 10 11 10 0 0 0 0 11 -209 -209 46 47 48 52 48 48 48 48 46 51 51 53 54 61 64 66 66 66 69 73 73 73 75 73 73 77 76 76 76 78 78 77 79 82 79 80 81 79 78 -193 -193 -193 -193 87 -209 -193 175 -193 -209 54 -193 -193 -209 -209 -209 -193 -193 -193 -193 -193 -193 112 114 118 124 127 129 128 130 131 132 132 132 126 136 139 140 146 147 146 147 151 159 156 156 156 159 156 156 157 157 157 159 163 -193 -177 -193 -193 -193 -193 -209 172 174 -193 -193 179 182 183 182 182 182 183 183 185 184 186 -209 -193 203 206 -193 209 211 212 211 0 0 0 0 0
    0 0 0 0 0 0 0 0 0 0 0 0 0 0 0 0 0 0 0 0 0 0 0 0 0 0 0 0 0 0 0 0 0 0 0 0 0 0 0 0 0 0 0 0 0 0 0 0 0 0 0 0 0 0 0 0 0 0 0 0 0 0 0 0 0 0 0 0 0 45 46 55 61 60 72 77 75 77 76 76 76 76 76 71 64 58 55 52 50 49 47 48 47 47 45 44 45 48 47 48 47 45 46 45 44 44 44 44 44 43 44 43 44 44 43 43 43 42 41 41 40 38 31 31 29 29 28 27 25 23 20 16 14 16 16 14 13 14 9 11 11 9 9 9 0 0 0 9 0 0 9 0 9 10 10 9 9 0 10 11 11 10 10 11 12 12 12 12 11 11 12 12 12 12 12 12 10 10 11 10 10 11 10 0 0 0 0 10 -209 -193 46 48 48 52 48 47 47 48 46 50 50 53 54 61 66 67 66 66 69 75 74 74 76 73 73 77 77 76 -193 77 78 76 79 81 78 79 80 -193 -193 256 -193 -193 -193 -193 -193 -193 176 177 -193 -193 180 -193 -193 -193 -209 -209 -193 -177 -193 -193 -193 -193 115 119 125 127 129 128 130 130 132 132 132 127 134 138 138 144 146 145 146 151 159 155 155 155 157 155 155 156 156 156 159 163 -193 -193 -193 -193 -193 -193 169 172 174 -193 175 177 181 183 182 182 -193 -193 183 -193 -193 186 -193 -193 -193 205 -193 209 211 212 211 0 0 0 0 0
    0 0 0 0 0 0 0 0 0 0 0 0 0 0 0 0 0 0 0 0 0 0 0 0 0 0 0 0 0 0 0 0 0 0 0 0 0 0 0 0 0 0 0 0 0 0 0 0 0 0 0 0 0 0 0 0 0 0 0 0 0 0 0 0 0 0 0 0 0 43 44 52 56 56 69 75 75 76 75 74 74 74 -209 44 49 52 52 50 49 48 47 48 47 48 45 43 44 47 46 47 46 45 45 43 43 43 43 43 43 43 43 43 43 43 43 42 43 42 40 40 40 38 31 30 29 28 28 27 25 24 20 19 18 19 20 17 17 16 9 10 10 0 0 0 0 0 0 0 0 0 0 0 0 9 9 0 0 0 10 10 10 10 10 11 12 12 12 12 12 12 12 12 12 12 12 12 11 10 11 11 10 10 9 0 0 0 0 11 -209 -193 -193 46 46 51 46 45 46 47 46 49 50 53 53 61 66 67 66 66 69 75 74 74 76 73 73 76 77 76 75 77 78 76 78 80 78 77 78 78 -193 -193 -193 -209 -209 -193 181 182 177 177 177 176 180 182 -193 -193 -193 -209 -193 -177 -193 -193 -177 -193 116 120 125 127 129 128 129 131 132 131 132 127 131 137 136 142 146 143 145 150 157 154 154 154 -193 154 154 155 155 156 159 163 -193 -193 -193 -193 -193 -193 170 172 173 171 174 175 181 182 182 182 -193 -193 183 -193 -193 -193 -193 -193 -193 205 206 208 209 211 211 0 0 0 0 0
    0 0 0 0 0 0 0 0 0 0 0 0 0 0 0 0 0 0 0 0 0 0 0 0 0 0 0 0 0 0 0 0 0 0 0 0 0 0 0 0 0 0 0 0 0 0 0 0 0 0 0 0 0 0 0 0 0 0 0 0 0 0 0 0 0 0 0 0 0 44 43 50 53 55 59 65 -193 -209 48 46 41 45 43 41 43 47 50 49 47 47 46 47 47 47 45 43 44 48 45 46 45 44 44 43 43 43 42 42 42 42 42 42 42 42 42 42 42 40 39 39 39 38 32 30 28 28 28 26 25 24 20 19 18 19 20 14 13 11 0 0 0 0 0 0 0 0 0 0 0 0 0 0 0 9 9 0 0 9 10 11 11 10 10 11 12 12 12 13 12 12 12 12 12 13 12 12 11 10 11 11 11 10 9 0 0 9 0 12 -209 -193 -193 45 45 50 46 45 47 48 47 50 52 54 54 61 66 67 65 66 69 75 74 75 76 73 73 75 77 76 74 77 78 76 78 80 78 76 77 77 -193 -193 -209 -209 -209 -209 181 181 177 177 177 176 179 182 -193 -193 -193 -193 -193 -177 -193 -193 -193 -193 118 120 124 127 129 128 129 130 132 131 132 127 126 135 136 142 147 143 145 150 156 153 153 153 -193 -193 154 154 154 155 159 163 -193 -193 -193 -193 -193 169 170 171 174 172 174 175 180 182 182 182 -193 -193 -193 -193 -177 -193 -209 -193 -193 204 205 207 208 210 210 0 0 0 0 0
    0 0 0 0 0 0 0 0 0 0 0 0 0 0 0 0 0 0 0 0 0 0 0 0 0 0 0 0 0 0 0 0 0 0 0 0 0 0 0 0 0 0 0 0 0 0 0 0 0 0 0 0 0 0 0 0 0 0 0 0 0 0 0 0 0 0 0 0 0 45 44 49 52 54 55 53 51 46 44 43 41 42 42 41 42 44 47 48 47 46 46 46 46 47 45 43 44 49 45 45 44 44 43 43 42 42 41 42 41 41 41 41 40 41 41 41 41 40 38 38 38 38 32 29 28 27 27 25 24 24 19 19 18 19 20 13 13 10 0 0 0 0 0 0 0 0 0 0 0 0 0 0 0 0 0 0 0 0 9 10 10 10 11 11 12 12 12 13 12 12 12 11 12 12 12 12 12 11 11 11 12 10 10 9 0 10 10 14 -193 -209 -193 43 44 49 46 45 47 49 49 50 52 55 55 60 65 67 65 65 69 74 73 74 74 72 73 75 77 76 74 77 78 76 78 80 78 76 77 78 -193 -193 -209 -193 -177 -177 -193 182 178 177 177 176 178 181 174 -193 -193 -193 -209 -193 413 -193 -193 -193 118 120 124 127 128 127 128 130 131 131 131 128 126 136 136 141 147 143 145 150 155 153 153 153 -193 -193 153 153 153 155 159 163 -193 -193 -193 170 -193 170 170 171 174 173 174 174 180 182 182 181 -193 -193 -193 -177 -177 -193 -209 -193 -193 204 205 -193 -193 209 -193 0 0 0 0 0
    0 0 0 0 0 0 0 0 0 0 0 0 0 0 0 0 0 0 0 0 0 0 0 0 0 0 0 0 0 0 0 0 0 0 0 0 0 0 0 0 0 0 0 0 0 0 0 0 0 0 0 0 0 0 0 0 0 0 0 0 0 0 0 0 0 0 0 0 0 45 44 50 53 52 52 51 48 46 44 43 41 41 42 41 41 42 43 46 46 45 45 45 46 46 44 43 44 50 44 44 43 44 43 42 42 42 41 42 41 41 41 41 40 40 40 40 40 39 37 37 36 38 32 30 28 27 25 24 24 23 17 17 17 18 20 13 13 11 9 10 10 0 0 0 0 0 0 0 0 0 0 0 0 0 0 0 0 0 9 11 10 10 11 11 12 12 12 14 12 13 12 11 12 12 12 13 12 11 12 12 12 11 11 10 9 11 13 17 25 33 -209 41 42 47 46 45 47 49 49 49 52 54 54 59 63 67 64 65 69 74 72 73 73 73 73 75 77 76 74 78 79 77 78 79 78 76 77 77 -193 -193 -193 -193 -193 -177 -193 -193 179 179 179 178 178 181 174 -193 -193 -209 -193 -209 414 -193 -193 -193 119 120 123 126 128 127 128 130 131 130 131 129 125 135 136 140 146 143 144 149 153 152 153 153 -193 -177 153 153 -193 155 160 163 -193 -209 -193 170 -193 170 170 171 174 174 174 174 179 181 182 181 -193 -193 -193 -177 -177 -177 -193 -193 -193 204 205 207 -193 -193 -193 0 0 0 0 0
    0 0 0 0 0 0 0 0 0 0 0 0 0 0 0 0 0 0 0 0 0 0 0 0 0 0 0 0 0 0 0 0 0 0 0 0 0 0 0 0 0 0 0 0 0 0 0 0 0 0 0 0 0 0 0 0 0 0 0 0 0 0 0 0 0 0 0 0 0 44 44 51 53 51 49 51 48 45 44 43 42 41 42 41 41 40 41 43 44 44 44 42 44 43 42 40 43 50 43 43 43 43 42 42 41 42 41 41 41 41 40 41 40 39 38 39 39 39 37 37 36 38 35 32 30 27 25 24 23 23 16 16 16 17 19 12 13 12 10 11 10 0 0 0 0 0 0 0 0 0 9 9 11 11 10 9 10 10 10 12 11 11 12 12 13 12 12 15 13 14 12 12 13 13 13 13 13 12 12 12 12 11 11 11 10 12 15 18 25 31 -209 40 41 44 45 44 46 48 48 48 51 53 53 58 62 66 64 64 69 73 72 72 72 73 73 74 77 76 74 79 79 77 77 79 78 76 76 78 76 -193 -193 -193 -193 -177 -177 -193 181 180 180 179 179 182 174 -193 -209 -193 163 -209 -193 -193 -193 -193 120 120 122 126 127 127 127 129 130 130 130 129 124 134 135 138 146 143 144 148 152 152 153 153 153 -177 154 154 -193 155 160 163 166 -209 -177 -193 -193 170 170 170 173 174 173 173 178 181 182 180 -193 -177 -193 -177 -177 -177 -177 -193 -193 204 205 206 -193 207 -193 0 0 0 0 0
    0 0 0 0 0 0 0 0 0 0 0 0 0 0 0 0 0 0 0 0 0 0 0 0 0 0 0 0 0 0 0 0 0 0 0 0 0 0 0 0 0 0 0 0 0 0 0 0 0 0 0 0 0 0 0 0 0 0 0 0 0 0 0 0 0 0 0 0 0 43 44 51 52 48 46 48 46 45 43 43 41 41 42 42 41 41 41 41 42 43 41 39 41 39 36 32 39 44 41 42 40 41 40 40 40 -193 39 40 39 40 38 40 38 34 34 34 34 37 35 33 31 36 34 29 29 27 25 23 23 22 14 14 13 15 18 12 12 11 9 10 10 9 9 0 0 0 0 0 0 0 9 9 10 11 10 10 11 11 10 12 12 12 13 13 14 13 13 15 13 15 13 13 15 15 14 14 14 13 13 13 13 12 12 12 12 14 18 19 24 30 -193 39 40 43 45 44 47 48 49 48 51 53 53 57 62 66 64 65 69 73 71 71 72 73 73 74 78 76 75 80 80 78 77 79 79 76 76 78 76 -193 -193 -193 -177 -177 -177 -177 182 181 -193 181 180 183 177 -209 -209 -193 158 -193 -193 -193 -193 -177 121 121 122 126 126 126 126 128 130 130 130 129 124 134 135 136 146 144 145 148 152 153 153 153 153 -177 154 154 914 155 161 163 166 -209 -177 -193 -193 -193 169 169 173 174 173 172 178 181 182 180 179 -177 -177 -177 -177 -177 -177 -193 -209 204 205 206 206 207 207 0 0 0 0 0
    0 0 0 0 0 0 0 0 0 0 0 0 0 0 0 0 0 0 0 0 0 0 0 0 0 0 0 0 0 0 0 0 0 0 0 0 0 0 0 0 0 0 0 0 0 0 0 0 0 0 0 0 0 0 0 0 0 0 0 0 0 0 0 0 0 0 0 0 0 42 44 50 51 45 43 46 45 44 43 42 41 41 42 42 41 41 41 40 41 41 39 37 39 38 -209 25 37 -193 40 -193 38 39 37 37 39 -193 34 37 37 38 -193 -209 -209 25 27 26 26 29 29 28 26 33 31 27 28 25 23 22 21 21 13 13 12 13 16 10 11 11 9 11 9 10 9 0 0 0 0 0 0 9 0 9 11 11 10 10 11 11 10 12 12 12 13 14 14 13 14 15 14 15 14 13 15 15 14 15 15 14 13 13 13 12 13 13 14 16 19 21 24 -193 -177 40 40 43 45 45 47 49 48 48 51 53 53 55 61 67 65 66 69 73 72 72 72 74 73 74 78 76 75 79 80 78 77 78 79 76 76 78 76 76 -193 -177 -177 -177 -177 -193 -193 182 -193 -193 -193 -193 -209 -209 -193 -209 -209 -193 -193 -193 -193 -193 121 121 122 125 126 126 126 128 129 129 130 128 123 132 134 135 145 144 145 148 152 154 153 153 153 -177 154 154 913 156 160 162 165 -193 -177 -193 -193 -193 -193 169 173 174 172 172 178 181 182 180 179 -193 -177 -177 -177 -177 -177 -193 200 204 205 206 206 207 207 0 0 0 0 0
    0 0 0 0 0 0 0 0 0 0 0 0 0 0 0 0 0 0 0 0 0 0 0 0 0 0 0 0 0 0 0 0 0 0 0 0 0 0 0 0 0 0 0 0 0 0 0 0 0 0 0 0 0 0 0 0 0 0 0 0 0 0 0 0 0 0 0 0 0 44 45 50 50 43 42 45 44 44 42 42 41 41 42 42 41 41 41 40 40 40 39 36 39 -209 -209 -209 -209 -193 -209 -193 30 34 29 32 36 -209 -193 -193 32 -209 -209 -209 12 17 22 21 21 25 25 -209 23 28 27 24 26 24 22 20 20 20 12 12 12 13 16 11 12 12 10 11 10 11 10 9 9 0 0 0 0 10 0 9 10 11 11 10 12 11 11 12 12 12 13 14 14 13 14 14 14 15 14 13 15 14 14 14 15 14 13 13 13 13 14 13 15 17 21 22 25 33 -193 40 40 42 45 45 47 48 48 47 52 53 53 53 60 67 66 66 69 72 72 72 73 75 73 74 78 76 75 79 79 78 77 78 79 76 77 78 76 77 -193 -193 -193 -177 -177 -193 -209 182 -193 -209 -209 -209 -209 -193 98 -209 -209 -193 -193 -177 117 -193 121 121 121 125 126 126 126 128 129 129 129 129 123 132 133 135 146 145 146 148 152 156 154 154 154 -177 155 155 913 156 160 161 165 -193 -177 -177 -177 -177 -193 -193 173 175 172 172 179 181 183 180 180 -193 -177 -177 -177 -177 -177 -193 199 204 205 205 205 206 207 0 0 0 0 0
    0 0 0 0 0 0 0 0 0 0 0 0 0 0 0 0 0 0 0 0 0 0 0 0 0 0 0 0 0 0 0 0 0 0 0 0 0 0 0 0 0 0 0 0 0 0 0 0 0 0 0 0 0 0 0 0 0 0 0 0 0 0 0 0 0 0 0 0 0 46 48 51 51 43 42 45 45 44 42 42 42 42 42 43 41 41 40 39 39 39 37 34 37 -209 0 -193 -177 -177 119 -209 24 -209 24 27 31 -209 23 26 -193 -193 10 -209 0 9 13 11 13 17 17 -193 15 -193 24 21 25 21 20 19 19 19 12 11 10 11 14 10 11 12 10 11 11 12 11 10 9 9 0 0 0 9 0 9 10 11 10 10 11 11 11 12 12 12 13 13 14 13 14 14 15 14 14 13 15 14 14 14 15 14 13 13 13 13 14 14 16 18 21 23 25 32 -193 38 38 41 45 45 47 48 47 47 52 53 53 52 59 67 66 66 68 72 73 72 73 75 73 73 77 76 75 78 79 78 77 79 80 77 77 79 77 77 -193 -193 -193 -177 -177 -177 -193 183 -193 -209 87 -209 -209 87 92 103 -209 -193 -193 -177 116 -193 -193 120 121 125 126 126 126 128 128 129 129 129 123 134 135 136 147 147 147 149 152 158 155 155 155 -193 156 155 913 157 159 160 164 -193 -177 -177 -177 -177 -193 -209 173 175 171 171 179 182 183 180 180 -193 -177 -177 -177 -177 -177 -209 197 203 204 204 205 206 206 0 0 0 0 0
    0 0 0 0 0 0 0 0 0 0 0 0 0 0 0 0 0 0 0 0 0 0 0 0 0 0 0 0 0 0 0 0 0 0 0 0 0 0 0 0 0 0 0 0 0 0 0 0 0 0 0 0 0 0 0 0 0 0 0 0 0 0 0 0 0 0 0 0 0 50 52 53 52 43 42 45 45 44 42 42 41 41 42 43 41 41 40 38 39 38 36 -193 -193 0 0 0 -193 -193 -193 -209 -193 16 19 23 -193 18 15 18 9 0 0 0 0 0 9 9 9 10 11 -193 11 20 21 17 20 17 18 17 17 17 10 0 0 8 9 0 9 11 10 11 11 12 11 10 10 9 0 0 0 10 0 9 10 10 10 10 11 11 11 12 13 12 13 13 14 13 14 14 15 14 14 13 15 14 14 14 15 13 13 13 13 14 14 15 16 18 21 22 24 31 -193 38 38 41 46 46 47 48 48 47 53 53 54 51 59 67 67 67 69 72 73 72 72 75 72 72 76 75 75 78 78 79 77 79 80 77 77 79 77 77 -193 -193 83 -193 -193 -177 -193 -209 -209 -193 86 -193 -209 87 91 101 -193 -193 -193 -193 114 -193 118 119 119 123 125 126 126 127 128 129 130 130 124 135 136 137 148 149 149 150 152 160 156 156 156 159 156 156 913 -193 158 159 163 -193 -177 -177 -177 -177 -193 -193 172 175 -193 171 179 182 183 180 180 178 -193 -193 -177 -177 -177 -209 195 202 204 204 204 205 205 0 0 0 0 0
    0 0 0 0 0 0 0 0 0 0 0 0 0 0 0 0 0 0 0 0 0 0 0 0 0 0 0 0 0 0 0 0 0 0 0 0 0 0 0 0 0 0 0 0 0 0 0 0 0 0 0 0 0 0 0 0 0 0 0 0 0 0 0 0 0 0 0 0 0 48 51 53 51 43 42 45 45 44 42 42 41 41 42 43 41 41 41 38 38 38 36 -193 -193 0 0 0 0 0 0 0 -193 9 13 16 13 11 12 11 0 0 0 0 0 0 0 0 0 0 9 9 9 14 16 12 13 14 14 14 14 13 8 0 0 0 0 0 9 12 11 12 12 13 11 11 11 10 9 9 8 10 9 9 10 10 10 10 11 11 10 12 12 12 13 13 14 13 14 13 14 13 14 13 15 14 14 13 15 14 14 13 13 14 15 15 17 18 21 22 24 31 35 37 38 40 45 45 47 47 46 46 51 52 53 50 60 68 68 68 69 71 72 71 71 75 71 72 75 74 74 77 78 79 77 79 80 77 77 79 77 77 77 -193 81 -193 -193 -193 -193 -193 -193 -193 86 -193 -209 86 90 100 -193 109 -193 -193 112 -193 117 118 119 122 125 126 126 127 128 129 130 130 125 135 137 137 146 149 148 149 152 161 157 157 157 160 157 156 912 -193 158 160 164 -193 -177 -177 -177 -177 -193 -193 172 175 -193 171 178 182 183 180 180 178 178 180 -193 -193 -193 -209 192 202 202 202 203 204 204 0 0 0 0 0
    0 0 0 0 0 0 0 0 0 0 0 0 0 0 0 0 0 0 0 0 0 0 0 0 0 0 0 0 0 0 0 0 0 0 0 0 0 0 0 0 0 0 0 0 0 0 0 0 0 0 0 0 0 0 0 0 0 0 0 0 0 0 0 0 0 0 0 0 0 44 47 50 48 43 42 44 44 44 42 42 42 42 42 43 41 41 42 38 38 37 36 -193 -193 0 0 0 0 0 0 0 0 0 10 11 9 0 9 0 0 0 0 0 0 0 0 0 0 0 9 0 0 11 12 9 10 11 11 11 11 10 0 0 0 0 9 0 0 14 11 12 13 13 11 11 11 10 9 9 0 10 0 9 10 10 10 10 11 11 11 12 12 12 13 13 14 13 14 13 14 13 14 13 15 14 14 14 16 14 14 13 12 14 14 15 16 18 20 22 25 32 36 37 37 39 44 44 46 46 45 45 50 52 53 49 60 69 70 69 69 71 74 71 71 74 71 71 75 74 74 77 78 79 77 79 81 78 77 79 77 77 76 79 80 79 82 84 -193 -193 -193 86 85 -193 -209 85 89 98 -193 108 -193 -193 112 -193 -193 117 118 122 125 125 126 127 128 129 130 130 125 134 136 137 145 148 147 148 151 161 157 157 157 159 156 156 912 -193 157 161 164 -177 -177 -177 -177 -177 -193 -193 171 175 -209 -209 -193 182 183 180 180 178 178 179 180 181 181 -209 189 201 202 202 202 203 204 0 0 0 0 0
    0 0 0 0 0 0 0 0 0 0 0 0 0 0 0 0 0 0 0 0 0 0 0 0 0 0 0 0 0 0 0 0 0 0 0 0 0 0 0 0 0 0 0 0 0 0 0 0 0 0 0 0 0 0 0 0 0 0 0 0 0 0 0 0 0 0 0 0 0 44 46 47 45 43 42 44 44 44 42 42 42 42 42 43 42 42 42 39 38 37 35 -193 -193 0 0 0 0 0 0 0 0 0 0 0 0 0 0 0 0 0 0 0 0 0 0 0 0 0 0 0 0 9 9 0 0 9 10 10 10 10 0 0 0 0 9 0 0 16 11 12 12 12 11 11 10 10 0 9 0 10 0 9 10 10 11 10 11 11 10 12 12 11 12 12 13 13 14 13 14 14 14 13 15 14 15 14 15 14 13 12 12 12 13 14 15 18 20 22 25 32 35 36 36 39 44 44 45 46 45 45 50 52 53 50 60 69 70 69 70 71 75 71 71 73 70 71 74 74 74 -193 77 80 77 79 82 78 77 79 76 76 75 77 78 77 81 83 82 82 84 84 83 -193 -209 83 88 97 -193 108 -193 -193 112 -193 -193 118 119 122 125 125 126 127 128 129 129 130 126 132 136 137 145 149 147 148 151 161 156 156 157 158 156 155 911 915 156 -193 165 -177 -177 -177 -177 -177 -177 -177 -193 175 -209 -209 -193 182 183 181 180 179 178 179 180 180 181 175 188 201 201 201 202 204 205 0 0 0 0 0
    0 0 0 0 0 0 0 0 0 0 0 0 0 0 0 0 0 0 0 0 0 0 0 0 0 0 0 0 0 0 0 0 0 0 0 0 0 0 0 0 0 0 0 0 0 0 0 0 0 0 0 0 0 0 0 0 0 0 0 0 0 0 0 0 0 0 0 0 0 45 45 45 44 42 42 43 44 44 42 42 43 43 43 43 42 42 42 39 38 37 36 0 0 0 0 0 0 0 0 0 0 0 0 0 0 0 0 0 0 0 0 0 0 0 0 0 0 0 0 0 0 0 0 0 0 9 10 10 10 10 9 0 0 0 9 0 0 -177 11 12 11 12 11 11 10 10 0 0 0 10 0 9 9 10 10 10 11 11 10 12 12 11 12 13 13 13 14 13 14 14 15 13 15 14 15 14 15 14 13 12 12 13 13 14 14 18 20 22 25 32 34 35 35 39 43 43 45 45 44 45 50 52 53 51 61 70 70 69 69 71 75 70 70 72 70 70 73 74 73 -193 77 81 78 80 82 79 77 79 76 76 74 76 77 76 79 81 80 79 82 82 81 80 -193 80 88 -193 -193 109 -193 -193 112 -193 -193 118 119 122 125 125 126 126 128 129 129 130 126 132 137 138 146 149 148 148 151 159 156 155 156 157 155 154 911 915 155 -193 -193 -177 -177 -177 -193 -177 -177 -177 -209 -209 -193 -209 178 183 184 181 180 179 179 179 180 180 181 175 186 200 -193 -193 201 203 204 0 0 0 0 0
    0 0 0 0 0 0 0 0 0 0 0 0 0 0 0 0 0 0 0 0 0 0 0 0 0 0 0 0 0 0 0 0 0 0 0 0 0 0 0 0 0 0 0 0 0 0 0 0 0 0 0 0 0 0 0 0 0 0 0 0 0 0 0 0 0 0 0 0 0 45 46 44 44 43 42 43 45 44 43 43 43 43 42 42 42 42 42 39 38 37 37 -193 0 0 0 0 0 0 0 0 0 0 0 0 0 0 0 0 0 0 0 0 0 0 0 0 0 0 0 0 0 0 0 0 0 9 10 10 10 10 10 9 9 9 0 0 0 -177 12 12 12 12 11 11 10 10 0 0 0 10 0 9 9 10 10 10 11 11 10 12 12 11 12 13 13 13 14 13 14 14 15 13 14 14 15 14 15 13 13 11 11 12 12 13 13 17 21 23 26 32 34 35 35 38 43 43 44 45 44 45 50 52 53 51 61 70 70 69 69 70 75 69 70 71 69 70 72 73 73 -177 77 81 79 80 83 80 -193 79 76 76 73 75 76 75 78 80 80 79 81 82 80 78 -193 78 88 -193 -193 109 114 -193 113 -193 -193 119 119 122 124 125 126 126 128 129 129 131 127 132 138 138 144 148 146 146 150 157 154 154 154 155 -193 -193 911 915 155 -193 -193 -193 -177 -177 -177 -193 -177 -193 -193 -209 -209 -209 178 183 184 181 181 180 180 180 180 180 181 176 186 194 -193 -193 -193 -193 -193 0 0 0 0 0
    0 0 0 0 0 0 0 0 0 0 0 0 0 0 0 0 0 0 0 0 0 0 0 0 0 0 0 0 0 0 0 0 0 0 0 0 0 0 0 0 0 0 0 0 0 0 0 0 0 0 0 0 0 0 0 0 0 0 0 0 0 0 0 0 0 0 0 0 0 45 47 45 44 44 43 44 45 44 43 43 43 42 42 42 41 42 42 39 38 37 39 -209 -193 0 0 0 0 0 0 0 0 0 0 0 0 0 0 0 0 0 0 0 0 0 0 0 0 0 0 0 0 0 0 0 0 10 11 10 10 10 10 9 10 9 9 0 -177 21 13 13 12 12 11 11 11 10 0 0 0 10 9 9 9 11 10 10 11 11 10 12 12 12 12 13 13 13 14 14 14 14 15 13 14 14 15 14 15 13 14 12 12 12 13 13 12 17 22 24 26 32 33 33 35 38 42 42 44 45 44 44 50 53 54 53 61 71 71 69 70 70 73 68 68 70 69 70 72 73 -193 -177 78 82 80 80 83 81 78 79 76 76 73 75 76 76 78 81 81 80 83 83 81 78 84 78 -193 -193 -193 110 115 -193 114 -193 -177 -193 119 122 124 125 126 126 128 129 130 131 127 132 138 140 144 147 145 145 149 154 153 153 154 154 -193 153 911 915 155 -193 166 -193 -177 -177 -177 -193 -177 -193 -193 -209 -209 -209 179 -193 184 182 181 180 181 181 181 181 182 179 186 191 192 195 198 96 98 0 0 0 0 0
    0 0 0 0 0 0 0 0 0 0 0 0 0 0 0 0 0 0 0 0 0 0 0 0 0 0 0 0 0 0 0 0 0 0 0 0 0 0 0 0 0 0 0 0 0 0 0 0 0 0 0 0 0 0 0 0 0 0 0 0 0 0 0 0 0 0 0 0 0 43 46 44 43 44 43 44 45 44 43 43 43 42 42 42 41 41 42 39 38 37 39 -209 -193 0 0 0 0 0 0 0 0 0 0 0 0 0 9 10 9 0 0 0 0 0 0 0 0 0 0 0 0 0 0 0 9 12 13 12 11 10 11 10 10 9 0 0 0 -177 13 13 12 11 11 11 11 10 0 0 0 10 10 10 10 11 10 11 12 12 11 13 12 12 13 13 13 13 14 14 13 14 15 13 15 14 16 15 16 14 15 13 13 12 14 13 12 18 23 24 26 31 32 32 34 38 42 42 44 46 44 45 51 54 55 57 61 71 71 70 70 70 72 67 67 70 69 70 72 74 -193 -177 78 83 80 80 83 81 77 78 77 75 73 75 77 76 -193 82 83 81 84 85 83 79 84 78 -193 -209 -193 111 116 115 -193 -193 -177 -193 119 122 124 125 126 126 128 129 130 131 128 131 138 139 142 147 144 145 149 153 153 153 153 154 -193 154 911 915 155 -193 166 -209 -177 -177 -177 -193 -177 -193 -193 -209 -193 -193 178 -193 183 182 181 181 182 -193 183 182 183 182 186 190 191 194 196 -193 97 0 0 0 0 0
    0 0 0 0 0 0 0 0 0 0 0 0 0 0 0 0 0 0 0 0 0 0 0 0 0 0 0 0 0 0 0 0 0 0 0 0 0 0 0 0 0 0 0 0 0 0 0 0 0 0 0 0 0 0 0 0 0 0 0 0 0 0 0 0 0 0 0 0 0 43 46 43 44 45 43 44 45 44 43 43 43 42 41 41 41 41 41 39 38 37 39 -209 11 0 0 0 0 0 0 0 0 0 0 0 0 0 10 11 10 9 0 9 0 0 0 0 0 0 0 0 0 0 0 10 10 13 14 12 11 10 10 10 9 9 0 0 -177 21 13 13 11 11 10 11 11 11 9 9 9 11 11 11 11 12 11 11 12 12 11 13 12 13 13 14 13 13 14 15 13 14 15 13 15 15 16 15 16 14 15 13 13 12 13 12 12 17 23 24 26 31 32 32 34 38 41 41 44 46 44 45 52 54 55 57 61 71 71 69 69 69 71 67 67 70 70 71 -193 -193 -193 -193 79 83 81 80 83 82 77 78 -177 75 73 76 78 -193 -193 83 -193 83 85 -193 -193 -193 86 80 -193 -209 -193 -193 116 116 -193 -177 -177 -193 -193 122 124 125 126 125 127 129 130 131 129 130 138 139 140 146 144 144 148 152 153 153 153 154 -193 154 911 914 156 -193 166 -193 -177 -177 -193 315 -193 -193 -177 -209 -193 -193 -193 -193 183 182 182 181 182 -193 184 183 184 184 186 190 191 194 196 -193 98 0 0 0 0 0
    0 0 0 0 0 0 0 0 0 0 0 0 0 0 0 0 0 0 0 0 0 0 0 0 0 0 0 0 0 0 0 0 0 0 0 0 0 0 0 0 0 0 0 0 0 0 0 0 0 0 0 0 0 0 0 0 0 0 0 0 0 0 0 0 0 0 0 0 0 42 47 43 44 45 44 44 45 45 43 43 44 43 41 41 41 41 42 40 38 36 39 26 24 0 0 0 0 0 0 0 0 0 0 0 0 0 11 11 11 11 9 10 9 0 0 0 0 0 0 0 0 0 0 9 9 12 12 10 10 9 9 9 9 9 0 0 10 19 14 14 11 11 11 11 11 11 9 10 9 11 11 11 11 12 11 12 12 12 11 13 13 13 13 14 13 13 14 15 13 14 15 13 14 15 16 15 16 14 14 13 13 12 13 12 12 17 23 24 26 31 32 33 35 37 40 41 44 46 45 46 51 54 55 56 59 70 72 69 69 69 71 68 67 70 -193 71 -193 -193 75 -193 80 83 81 79 82 82 76 77 -177 75 73 76 -193 -193 -193 85 -193 -193 -193 -209 -193 -193 -193 81 84 -209 -193 -193 117 116 -193 -193 -177 -193 -193 123 124 125 126 125 127 129 129 130 128 129 137 138 139 146 144 145 148 152 154 153 154 154 -193 155 911 914 157 164 165 166 -177 -177 -193 314 -193 -193 -177 -193 -209 -193 -209 -209 182 182 182 182 183 -193 185 185 185 185 187 191 193 195 197 -193 100 0 0 0 0 0
    0 0 0 0 0 0 0 0 0 0 0 0 0 0 0 0 0 0 0 0 0 0 0 0 0 0 0 0 0 0 0 0 0 0 0 0 0 0 0 0 0 0 0 0 0 0 0 0 0 0 0 0 0 0 0 0 0 0 0 0 0 0 0 0 0 0 0 0 0 43 50 43 43 45 44 44 45 45 43 43 44 43 42 41 41 41 41 40 38 36 38 27 25 21 0 0 0 0 0 0 0 0 0 0 0 9 11 11 11 11 10 11 9 0 0 0 0 0 0 0 0 0 0 0 0 10 10 9 9 0 0 0 0 0 0 0 9 16 13 14 11 10 11 11 11 11 9 10 9 11 12 11 11 12 11 12 12 12 11 14 13 13 14 14 14 14 14 15 13 15 15 13 14 15 15 15 16 13 13 12 12 12 12 11 12 16 23 24 26 31 32 33 35 37 40 40 44 46 45 46 51 53 54 55 58 68 71 68 68 69 71 68 67 70 -193 72 -193 -193 76 77 81 83 82 79 82 82 76 77 77 -193 -193 -193 -193 -193 -193 -209 -193 -193 -193 -209 -193 -193 -209 82 82 -193 -193 -193 117 117 -193 -193 764 -193 -193 123 124 125 126 126 127 129 129 130 128 128 137 137 138 146 145 146 148 152 154 154 154 154 -193 156 -193 913 158 163 164 166 -193 -177 -177 -193 -209 -193 -177 -193 -193 -209 -209 -209 182 -193 182 182 184 -193 186 186 186 186 187 191 195 197 197 -193 101 0 0 0 0 0
    0 0 0 0 0 0 0 0 0 0 0 0 0 0 0 0 0 0 0 0 0 0 0 0 0 0 0 0 0 0 0 0 0 0 0 0 0 0 0 0 0 0 0 0 0 0 0 0 0 0 0 0 0 0 0 0 0 0 0 0 0 0 0 0 0 0 0 0 0 47 52 46 45 46 44 44 45 45 43 43 43 43 42 41 41 41 41 40 38 37 37 28 26 25 0 0 0 0 0 0 0 0 0 9 9 10 11 12 12 13 11 12 10 9 0 0 0 0 0 0 0 0 0 0 0 9 9 0 9 0 0 0 9 0 0 0 9 14 12 13 10 10 10 10 10 11 9 10 9 11 11 11 11 12 10 12 12 12 11 14 13 13 14 14 13 14 14 16 14 15 15 13 13 16 15 14 15 13 13 12 13 12 12 11 12 16 23 24 26 30 32 33 35 37 39 40 44 46 45 46 51 53 54 54 57 64 70 66 66 68 71 68 68 70 -193 73 74 78 76 77 81 83 82 79 81 81 76 76 77 -193 -193 -193 -193 -193 -193 -177 -193 -209 -193 -193 -193 -193 -193 84 81 -193 -193 -193 118 117 -193 -193 764 -209 -193 124 124 126 126 126 127 128 129 130 128 128 136 137 138 147 147 147 149 152 156 154 155 155 157 156 -193 913 -193 162 165 166 -209 -177 -193 -193 313 -193 -177 973 -193 -209 -209 -209 -193 -193 182 182 184 -193 186 186 187 187 187 191 195 197 197 -193 102 0 0 0 0 0
    0 0 0 0 0 0 0 0 0 0 0 0 0 0 0 0 0 0 0 0 0 0 0 0 0 0 0 0 0 0 0 0 0 0 0 0 0 0 0 0 0 0 0 0 0 0 0 0 0 0 0 0 0 0 0 0 0 0 0 0 0 0 0 0 0 0 0 0 0 46 53 47 46 46 45 43 45 45 44 43 43 43 42 42 42 41 41 40 39 38 37 29 27 26 21 0 0 0 0 0 0 0 0 10 10 11 12 12 11 12 12 12 11 10 10 9 0 0 0 0 0 0 0 0 0 9 9 9 9 0 9 0 9 9 0 0 9 13 12 13 10 10 11 11 11 11 9 10 9 11 11 11 11 12 10 12 12 12 12 14 13 13 14 14 13 14 14 15 14 15 15 13 13 15 14 13 15 12 12 12 12 12 12 12 12 16 23 25 26 31 33 34 35 37 39 41 44 46 45 47 50 52 53 53 53 61 67 62 62 67 71 69 70 71 -193 74 75 79 77 78 81 82 82 78 80 81 76 76 78 -193 -193 -193 -193 -193 -193 -177 -193 -209 -193 92 92 91 92 90 84 -193 -193 -193 117 117 -209 -193 765 -193 -193 126 125 127 127 126 128 128 129 130 127 128 135 137 137 146 148 148 148 152 157 155 155 155 158 157 157 912 -193 162 165 166 -193 -177 -193 -177 313 970 -209 974 -193 -193 -209 -209 181 -193 182 182 184 -193 186 186 187 187 186 189 195 196 196 197 -193 0 0 0 0 0
    0 0 0 0 0 0 0 0 0 0 0 0 0 0 0 0 0 0 0 0 0 0 0 0 0 0 0 0 0 0 0 0 0 0 0 0 0 0 0 0 0 0 0 0 0 0 0 0 0 0 0 0 0 0 0 0 0 0 0 0 0 0 0 0 0 0 0 0 0 42 54 47 46 45 44 43 45 45 44 43 42 43 42 42 42 41 41 40 39 39 38 30 27 27 -193 9 0 9 0 0 0 0 9 12 13 13 13 13 12 13 13 13 12 11 11 11 9 9 9 9 9 9 10 9 9 9 10 9 10 9 9 0 9 9 9 9 9 12 12 13 10 10 11 11 11 12 10 10 10 11 11 11 11 12 10 12 12 12 12 14 13 13 14 14 13 14 14 15 14 14 14 12 12 14 14 13 14 12 12 12 12 12 12 12 12 16 24 25 27 31 33 35 36 37 39 41 44 46 46 47 50 51 52 53 51 59 61 59 59 65 71 71 71 72 -193 75 75 80 77 78 80 81 82 78 80 81 76 76 78 -193 -193 -177 82 -193 -193 -193 -193 -193 91 93 94 93 94 94 88 -193 108 115 116 116 -193 -193 766 -193 -193 127 125 128 127 126 127 128 129 130 127 128 133 136 137 145 148 147 148 152 159 156 156 156 160 157 158 912 -193 161 165 166 -193 -177 -177 -177 314 972 -209 -177 -193 -193 -209 -209 180 183 182 182 183 -193 186 186 186 187 186 189 195 196 196 197 -193 0 0 0 0 0
    0 0 0 0 0 0 0 0 0 0 0 0 0 0 0 0 0 0 0 0 0 0 0 0 0 0 0 0 0 0 0 0 0 0 0 0 0 0 0 0 0 0 0 0 0 0 0 0 0 0 0 0 0 0 0 0 0 0 0 0 0 0 0 0 0 0 0 0 0 -193 53 46 46 45 44 42 44 45 44 42 42 44 43 43 42 42 42 41 40 40 38 31 27 27 -209 0 0 9 9 0 0 9 9 13 16 15 14 14 13 15 13 13 12 12 11 11 10 10 9 9 10 10 11 10 9 10 10 10 10 9 9 9 10 9 9 9 10 11 11 12 10 10 11 11 11 12 10 11 10 11 11 11 10 11 10 12 12 12 13 14 13 13 14 14 13 14 13 14 14 14 14 12 12 14 13 13 15 12 12 12 13 12 12 12 12 16 24 25 27 31 34 35 36 37 39 41 44 47 47 47 50 51 52 52 48 58 56 56 56 62 71 72 73 73 76 75 75 -193 77 77 80 80 81 77 79 80 76 76 78 -193 -193 -177 82 -193 365 -193 -177 -193 92 95 95 95 95 95 90 -193 107 115 114 114 -193 -193 -193 -193 -193 125 124 128 127 127 127 128 129 129 126 127 130 134 136 144 149 149 150 152 161 157 158 158 161 158 159 911 -193 161 166 166 -193 -177 -177 -177 316 973 -193 -177 -209 -209 -209 -209 178 182 181 181 183 -209 -209 186 185 186 -209 187 194 196 196 197 -193 0 0 0 0 0
    0 0 0 0 0 0 0 0 0 0 0 0 0 0 0 0 0 0 0 0 0 0 0 0 0 0 0 0 0 0 0 0 0 0 0 0 0 0 0 0 0 0 0 0 0 0 0 0 0 0 0 0 0 0 0 0 0 0 0 0 0 0 0 0 0 0 0 0 0 41 52 45 47 46 44 42 44 45 44 42 42 45 43 43 43 42 42 41 41 41 39 32 29 28 26 12 9 12 11 10 10 11 11 14 17 15 14 14 13 15 13 13 12 12 12 12 11 11 10 11 11 11 12 11 10 10 11 10 11 10 10 9 10 10 10 10 10 10 11 12 10 10 11 11 11 12 11 11 10 11 11 10 10 11 9 11 12 12 12 13 13 12 14 14 13 13 13 14 14 14 14 12 12 14 13 13 15 12 12 12 12 12 11 11 12 15 24 26 27 32 35 36 36 37 39 41 44 46 46 46 48 49 50 51 46 57 55 55 55 59 70 73 73 73 76 75 75 -193 77 77 79 79 81 77 79 80 76 76 78 -193 -193 -193 82 -209 365 369 -177 -193 93 96 97 96 95 97 91 91 106 -193 113 113 -193 -193 -193 -193 119 123 123 127 127 127 127 128 129 129 127 129 131 136 137 145 149 149 150 152 161 157 158 158 162 159 159 911 -193 160 167 167 167 -177 -209 -177 318 973 -193 -209 -193 -193 -209 -209 177 182 180 180 181 -193 -193 185 184 184 181 186 194 197 197 197 -193 0 0 0 0 0
    0 0 0 0 0 0 0 0 0 0 0 0 0 0 0 0 0 0 0 0 0 0 0 0 0 0 0 0 0 0 0 0 0 0 0 0 0 0 0 0 0 0 0 0 0 0 0 0 0 0 0 0 0 0 0 0 0 0 0 0 0 0 0 0 0 0 0 0 0 43 53 47 50 48 44 42 44 45 44 42 42 45 44 44 43 42 42 42 42 42 39 35 32 30 28 22 15 16 16 14 13 12 12 15 17 15 14 14 14 16 13 14 13 13 12 13 12 11 11 11 11 11 12 12 10 10 11 10 11 10 10 9 10 10 10 10 10 10 11 11 10 11 12 12 11 12 11 11 10 10 10 10 10 10 9 10 11 11 12 13 12 12 13 13 13 13 13 13 14 14 14 12 13 14 13 13 14 12 11 11 11 11 10 10 11 14 24 26 27 32 36 37 37 37 38 42 43 45 46 45 47 47 48 49 45 56 55 55 54 59 70 73 -193 73 -193 -193 -193 -193 76 76 78 78 80 77 79 80 -193 -193 78 -193 76 75 81 -209 -193 369 -193 -193 93 96 97 96 96 98 93 95 -193 -209 -193 -193 -193 -193 -193 115 118 123 122 127 127 127 127 128 129 129 127 130 132 137 138 145 148 149 149 151 159 157 157 158 161 158 158 910 -193 160 168 168 168 -177 -209 -177 319 -193 -209 -209 -193 -193 -209 -209 176 181 180 179 180 182 182 183 182 182 176 185 191 196 197 198 -193 0 0 0 0 0
    0 0 0 0 0 0 0 0 0 0 0 0 0 0 0 0 0 0 0 0 0 0 0 0 0 0 0 0 0 0 0 0 0 0 0 0 0 0 0 0 0 0 0 0 0 0 0 0 0 0 0 0 0 0 0 0 0 0 0 0 0 0 0 0 0 0 0 0 0 -193 53 47 49 48 44 42 45 46 44 42 42 46 44 44 44 43 42 42 42 42 39 37 35 33 32 28 24 21 21 18 18 16 15 17 17 15 15 15 15 16 13 14 13 13 13 13 13 12 12 13 12 13 14 13 11 11 11 10 11 10 10 9 10 11 11 11 11 11 11 12 11 11 12 12 11 13 11 11 10 10 10 9 9 10 9 11 11 11 12 12 12 12 13 13 13 13 13 13 13 14 14 12 13 14 13 13 14 12 11 12 12 11 10 10 10 13 24 28 28 33 36 38 37 37 39 42 43 45 46 45 46 47 48 49 45 57 55 55 55 58 69 72 -193 -193 -193 -177 -193 -193 76 76 78 79 81 78 79 81 -193 -193 78 76 76 75 80 -209 -193 369 -193 -193 93 96 97 97 95 98 93 97 -193 -209 -193 -193 -193 -193 -193 114 118 123 122 127 127 127 127 127 128 128 127 130 130 137 139 145 148 149 149 151 159 157 157 158 161 158 157 910 -193 158 -193 168 -209 -177 -193 -177 -177 -209 -209 -209 -193 -193 -209 -193 175 180 179 178 179 181 181 182 180 180 173 182 186 190 195 197 -193 0 0 0 0 0
    0 0 0 0 0 0 0 0 0 0 0 0 0 0 0 0 0 0 0 0 0 0 0 0 0 0 0 0 0 0 0 0 0 0 0 0 0 0 0 0 0 0 0 0 0 0 0 0 0 0 0 0 0 0 0 0 0 0 0 0 0 0 0 0 0 0 0 0 0 -193 -209 46 49 49 45 43 45 46 45 42 42 46 44 44 44 43 42 42 43 43 40 38 37 36 36 34 29 25 25 21 22 18 17 19 17 15 15 15 16 16 14 15 13 14 14 13 13 13 13 14 13 14 16 16 13 13 14 13 13 12 11 10 11 11 11 11 10 11 11 12 11 11 12 12 11 13 11 11 11 10 10 9 9 11 9 11 11 11 12 12 11 11 12 12 12 12 13 13 13 14 14 12 13 13 12 12 13 12 11 11 12 11 9 9 9 12 23 28 28 32 37 38 38 38 39 42 43 45 46 45 46 46 48 48 44 56 55 55 -193 58 68 71 70 -193 -193 -193 -193 -193 75 75 78 79 82 79 80 82 -193 -193 78 76 77 74 80 -209 -193 368 -193 -193 93 95 97 97 95 98 94 100 -193 -209 -193 -193 -193 -193 -193 114 118 124 122 127 127 127 127 127 128 128 126 130 128 138 139 144 148 149 149 151 158 156 156 157 160 156 156 910 -193 157 -193 169 -209 -177 -193 -177 319 -209 -209 -209 -209 -209 -209 -193 175 180 178 177 177 179 179 180 178 178 172 176 183 184 191 195 -193 0 0 0 0 0
    0 0 0 0 0 0 0 0 0 0 0 0 0 0 0 0 0 0 0 0 0 0 0 0 0 0 0 0 0 0 0 0 0 0 0 0 0 0 0 0 0 0 0 0 0 0 0 0 0 0 0 0 0 0 0 0 0 0 0 0 0 0 0 0 0 0 0 0 0 -209 -209 -209 52 50 45 43 45 47 45 42 42 46 44 44 44 43 42 42 43 43 40 39 39 38 39 38 35 31 30 -209 -209 20 18 19 17 16 16 16 17 16 14 15 14 14 14 13 14 13 13 14 13 15 17 18 16 15 16 16 15 14 14 12 12 13 12 13 11 12 12 12 11 12 12 13 12 13 12 12 11 11 11 11 10 12 9 12 12 12 12 12 11 11 11 11 11 12 12 12 13 14 13 12 12 12 12 12 12 11 11 11 11 11 9 9 0 11 22 28 27 32 37 37 38 38 39 42 43 45 46 45 45 46 47 48 44 56 55 55 54 57 66 72 69 -193 71 -193 72 -193 76 75 78 79 82 79 80 82 -193 -193 78 76 77 74 79 -209 364 368 365 -193 93 95 97 97 95 99 95 101 106 -193 -193 -193 -193 -193 -193 112 118 124 121 126 126 126 126 127 127 127 126 130 129 138 140 145 149 149 149 151 157 155 155 156 158 155 154 910 -193 156 -177 -193 -209 -177 -193 -177 319 -209 178 -209 -209 -209 -209 173 175 179 178 177 176 178 177 178 176 177 172 172 179 177 187 192 -193 0 0 0 0 0</data></disparity>
</opencv_storage>
