<?xml version="1.0"?>
<opencv_storage>
<gps_time_stamp>283423</gps_time_stamp>
<gps_x>-1.3627388000488281e+001</gps_x>
<gps_y>1.1267839431762695e+001</gps_y>
<gps_z>-2.2590401172637939e+000</gps_z>
<image_time_stamp>274258</image_time_stamp>
<disparity type_id="opencv-matrix">
  <rows>90</rows>
  <cols>320</cols>
  <dt>s</dt>
  <data>
    0 0 0 0 0 0 0 0 0 0 0 0 0 0 0 0 0 0 0 0 0 0 0 0 0 0 0 0 0 0 0 0 0 0 0 0 0 0 0 0 0 0 0 0 0 0 0 0 0 0 0 0 0 0 0 0 0 0 0 0 0 0 0 0 0 0 0 0 0 33 31 34 34 35 34 35 35 33 32 29 29 35 33 36 35 36 37 37 38 38 37 37 25 29 26 26 38 31 31 33 33 32 32 32 33 28 34 34 29 36 43 44 44 45 41 38 36 36 38 36 35 36 37 39 41 43 41 40 41 41 41 41 39 40 40 37 38 35 35 36 36 36 35 32 35 29 37 35 29 24 25 25 27 30 28 27 28 27 28 29 30 29 22 20 20 -193 -209 -209 -209 -209 37 37 37 38 38 39 39 35 39 40 42 41 40 40 39 41 36 37 38 37 36 36 -193 -193 31 41 42 38 45 45 49 49 47 47 48 47 47 46 46 46 43 -193 -193 -193 -193 -193 38 39 39 41 52 46 50 46 46 47 46 46 46 43 44 41 42 42 41 38 32 -193 -193 28 26 -209 -209 -209 -209 -209 -209 -209 -209 -209 -209 -209 -209 -209 -193 -193 -209 -193 -209 -209 -209 -209 -193 -209 -209 -209 -193 -193 44 42 43 47 47 46 47 46 46 46 48 52 47 48 48 48 48 48 50 50 46 53 51 53 53 53 53 53 54 54 51 56 54 -209 -193 -193 -209 -209 -209 -209 -209 62 66 75 74 74 78 0 0 0 0 0
    0 0 0 0 0 0 0 0 0 0 0 0 0 0 0 0 0 0 0 0 0 0 0 0 0 0 0 0 0 0 0 0 0 0 0 0 0 0 0 0 0 0 0 0 0 0 0 0 0 0 0 0 0 0 0 0 0 0 0 0 0 0 0 0 0 0 0 0 0 33 31 34 34 34 34 34 34 33 32 29 29 35 33 37 35 37 37 37 38 38 38 38 26 30 25 26 38 31 31 33 33 32 32 33 33 28 34 34 30 36 42 42 41 43 39 38 36 36 38 36 35 37 38 41 42 43 42 41 41 42 42 41 40 40 40 37 38 34 34 35 36 35 34 31 35 28 37 36 25 22 24 24 28 33 29 30 30 30 30 30 30 29 23 19 18 21 -193 -209 41 36 37 36 36 37 37 37 37 30 37 31 40 39 36 36 36 39 33 34 36 35 34 35 36 36 30 41 42 37 43 43 46 45 44 45 45 46 46 45 46 45 44 45 -193 -209 37 38 39 40 41 41 53 46 50 46 46 46 45 45 45 42 43 41 41 41 41 38 -193 31 -193 28 -193 -209 -193 -209 -209 -209 -209 -209 -209 -209 -209 -209 -209 66 -193 -193 -193 -193 -209 -209 -209 -209 -193 -209 -209 -209 -193 47 44 42 43 47 47 45 46 46 46 46 47 51 46 48 48 48 48 48 50 49 46 53 51 53 53 53 54 53 55 54 51 56 53 -209 -193 -193 -209 -209 64 -193 62 66 67 73 72 72 74 0 0 0 0 0
    0 0 0 0 0 0 0 0 0 0 0 0 0 0 0 0 0 0 0 0 0 0 0 0 0 0 0 0 0 0 0 0 0 0 0 0 0 0 0 0 0 0 0 0 0 0 0 0 0 0 0 0 0 0 0 0 0 0 0 0 0 0 0 0 0 0 0 0 0 33 32 34 34 34 34 34 34 32 33 29 30 35 33 36 35 36 37 37 38 38 37 38 27 31 25 26 37 30 30 33 32 32 33 33 33 28 34 34 30 35 40 40 40 42 39 38 -193 -193 40 39 37 39 39 41 41 42 41 41 41 42 42 42 40 41 40 37 38 34 34 35 35 35 34 31 35 28 39 38 21 20 23 22 -193 -193 30 32 32 31 32 30 30 29 24 21 19 21 24 27 40 36 37 36 35 36 36 36 35 28 33 26 32 38 35 35 34 39 33 34 35 35 34 35 36 36 30 41 42 -193 -193 42 43 43 42 43 44 44 45 45 45 45 44 45 44 40 39 41 41 45 41 42 53 47 50 46 46 46 44 45 45 42 42 40 40 38 40 37 -193 27 -193 -193 22 -209 -193 -209 -209 -209 -209 -209 -209 -209 -209 -209 -209 63 -193 -193 -209 -193 -209 -209 -209 -209 -193 -209 -209 -193 -193 49 47 43 44 48 47 46 46 46 46 46 47 51 46 48 48 48 48 48 50 49 46 53 50 53 53 53 54 53 55 54 51 56 54 -225 62 69 65 60 62 58 60 62 63 69 69 69 71 0 0 0 0 0
    0 0 0 0 0 0 0 0 0 0 0 0 0 0 0 0 0 0 0 0 0 0 0 0 0 0 0 0 0 0 0 0 0 0 0 0 0 0 0 0 0 0 0 0 0 0 0 0 0 0 0 0 0 0 0 0 0 0 0 0 0 0 0 0 0 0 0 0 0 33 33 34 34 34 34 34 34 32 33 29 30 35 33 36 35 36 36 36 37 38 36 37 29 32 26 27 37 31 30 33 32 32 33 33 33 28 34 34 30 34 39 39 39 42 40 -193 -209 -209 -209 -209 -193 41 40 42 41 42 41 41 42 42 43 42 40 41 40 36 37 34 34 34 35 35 34 31 36 28 41 41 18 18 22 21 -193 -193 30 32 32 33 33 32 32 30 25 25 23 23 26 31 39 35 37 35 35 35 35 35 34 27 31 25 27 38 35 35 35 39 33 34 35 35 34 35 35 35 29 41 42 -193 -177 -193 42 43 43 44 45 44 45 45 45 46 45 45 46 42 41 45 43 49 42 42 54 47 49 46 45 45 44 44 44 41 41 39 39 32 40 36 -177 -177 -193 -193 -193 109 -193 -209 -209 -209 -209 -209 -209 -209 -209 -209 -209 64 60 -193 -193 356 -193 -209 -209 -193 -193 -193 -209 -193 -193 51 49 44 45 49 48 46 46 46 46 46 48 51 46 48 48 48 48 48 50 49 46 52 50 53 53 53 53 52 54 53 51 56 55 -225 63 67 65 62 63 62 64 65 63 68 68 68 70 0 0 0 0 0
    0 0 0 0 0 0 0 0 0 0 0 0 0 0 0 0 0 0 0 0 0 0 0 0 0 0 0 0 0 0 0 0 0 0 0 0 0 0 0 0 0 0 0 0 0 0 0 0 0 0 0 0 0 0 0 0 0 0 0 0 0 0 0 0 0 0 0 0 0 33 33 33 34 34 33 34 34 32 33 29 31 35 33 36 35 36 36 36 37 37 36 37 31 34 28 28 37 31 31 33 33 32 33 33 33 28 35 34 31 35 40 40 39 43 40 42 -209 -209 -209 -209 41 45 42 43 42 42 41 42 42 42 43 41 40 41 40 35 37 34 33 34 35 35 34 31 36 29 42 42 18 19 23 22 25 36 31 33 33 34 34 33 33 31 27 29 26 27 29 32 39 35 37 34 34 34 34 34 34 27 31 24 24 37 35 35 35 39 33 34 35 35 34 35 35 35 28 40 41 -193 -193 -193 43 42 44 44 45 44 45 45 45 46 46 46 47 45 44 49 46 52 42 42 54 47 49 45 45 44 43 44 43 41 41 38 38 30 40 36 27 34 -193 -209 -209 111 -209 -209 -209 -209 -209 -209 -209 -193 -209 -209 -209 71 65 -193 -209 -193 -193 -209 -209 -193 190 -193 -193 -193 -193 52 51 45 46 50 48 46 46 46 46 46 48 52 46 48 48 48 48 48 50 49 46 52 50 52 53 53 53 52 54 53 51 55 55 58 62 66 64 62 63 64 66 67 64 68 67 68 69 0 0 0 0 0
    0 0 0 0 0 0 0 0 0 0 0 0 0 0 0 0 0 0 0 0 0 0 0 0 0 0 0 0 0 0 0 0 0 0 0 0 0 0 0 0 0 0 0 0 0 0 0 0 0 0 0 0 0 0 0 0 0 0 0 0 0 0 0 0 0 0 0 0 0 32 34 33 33 34 33 34 34 32 34 29 32 35 34 37 35 36 37 37 38 38 37 38 33 37 31 30 38 31 31 34 33 33 33 33 33 29 35 35 31 35 40 41 39 44 -193 45 -209 -209 -209 -209 -209 45 42 42 42 42 41 41 42 42 42 40 39 40 39 35 37 34 33 34 35 35 35 32 37 30 42 43 -193 21 24 24 28 38 32 35 34 34 35 34 33 32 27 31 28 30 31 34 39 35 37 34 34 34 34 34 33 27 31 23 24 37 35 36 36 39 34 34 36 35 34 35 35 35 28 41 43 -209 -193 -209 43 43 45 45 45 -193 -193 45 46 47 46 47 48 48 -193 52 -209 -209 42 42 54 47 48 45 44 44 43 43 43 40 39 38 38 29 40 36 -177 -177 -193 -209 -209 -193 -209 -209 157 162 -209 -209 -209 -193 -209 -209 -209 -209 -209 -209 -209 -209 -209 -209 -209 -193 -193 -193 -209 -193 -193 53 52 46 46 51 48 47 47 46 46 46 48 52 46 49 49 49 48 48 50 49 46 52 50 52 52 52 53 51 53 52 50 55 54 58 62 66 64 63 64 66 67 67 64 67 66 68 68 0 0 0 0 0
    0 0 0 0 0 0 0 0 0 0 0 0 0 0 0 0 0 0 0 0 0 0 0 0 0 0 0 0 0 0 0 0 0 0 0 0 0 0 0 0 0 0 0 0 0 0 0 0 0 0 0 0 0 0 0 0 0 0 0 0 0 0 0 0 0 0 0 0 0 33 34 33 34 35 34 34 34 33 35 30 34 35 34 37 36 37 37 37 38 38 37 38 35 37 33 34 39 33 33 35 34 34 34 34 34 29 35 34 30 33 39 39 37 41 -193 -209 -209 -209 -193 -209 -209 49 42 42 41 42 40 41 41 41 41 39 38 40 39 35 37 34 33 34 35 35 35 32 37 31 42 42 -193 22 25 26 31 40 34 36 35 35 36 35 34 33 28 32 29 31 32 34 39 35 37 34 34 33 33 34 33 27 30 23 24 36 35 36 36 39 34 35 36 36 35 35 35 35 28 41 44 -209 -193 -209 43 41 45 -193 -193 -193 -193 -193 -193 -193 -193 45 45 -209 -193 -193 -193 -209 41 41 54 47 46 44 44 43 42 43 42 39 37 38 38 30 40 37 32 38 43 -209 -209 -209 -209 -209 -209 -209 -209 -209 -209 -209 -209 -209 -209 -209 -193 -209 -209 -209 -209 -209 -209 -209 -209 -209 -209 -209 -193 54 53 46 47 51 48 47 47 46 46 46 48 52 46 49 49 49 49 49 50 49 46 52 49 52 52 52 52 51 52 52 50 54 53 57 60 64 63 63 64 66 67 67 66 68 66 67 68 0 0 0 0 0
    0 0 0 0 0 0 0 0 0 0 0 0 0 0 0 0 0 0 0 0 0 0 0 0 0 0 0 0 0 0 0 0 0 0 0 0 0 0 0 0 0 0 0 0 0 0 0 0 0 0 0 0 0 0 0 0 0 0 0 0 0 0 0 0 0 0 0 0 0 33 35 34 34 35 34 35 34 34 35 32 35 36 35 37 36 37 37 37 39 38 38 38 36 38 34 36 39 33 33 36 35 34 34 34 34 29 35 34 29 32 37 37 34 37 34 -209 -209 -209 -209 -209 -209 -193 -193 41 39 41 38 40 40 40 41 38 38 40 39 35 37 34 33 34 35 35 35 32 36 31 41 40 -193 23 26 26 32 40 35 36 36 36 36 35 35 33 27 31 28 28 29 30 37 32 35 33 32 32 33 32 32 27 29 25 25 34 35 35 36 39 34 35 37 37 36 36 36 36 29 41 45 41 45 49 51 -209 -209 -209 -209 -193 -193 -209 -209 -209 -193 -193 -209 -209 -193 -193 38 41 39 40 53 46 45 44 43 42 42 42 42 38 36 38 38 31 41 39 38 39 43 -209 -209 -209 -209 -209 -209 -209 -209 -209 -193 -209 -209 -193 -209 -193 76 76 -193 -209 -209 -209 -209 -209 -209 -193 -193 -209 -193 55 54 47 48 51 49 47 47 47 47 47 49 52 47 50 50 50 49 49 50 49 46 51 49 52 52 52 52 51 53 52 51 54 54 57 61 63 61 62 63 65 66 66 66 68 67 68 68 0 0 0 0 0
    0 0 0 0 0 0 0 0 0 0 0 0 0 0 0 0 0 0 0 0 0 0 0 0 0 0 0 0 0 0 0 0 0 0 0 0 0 0 0 0 0 0 0 0 0 0 0 0 0 0 0 0 0 0 0 0 0 0 0 0 0 0 0 0 0 0 0 0 0 34 36 34 34 36 35 35 35 34 36 32 36 36 35 37 36 38 37 38 39 38 38 38 36 38 35 37 39 34 34 -193 35 35 35 35 34 29 35 35 30 33 38 39 35 39 36 -209 -209 -209 -209 -209 -193 -209 -193 37 37 38 35 38 38 39 41 38 38 40 39 34 37 34 33 34 35 35 34 32 36 30 38 37 24 24 26 25 31 39 35 36 36 36 37 36 36 34 27 29 25 25 27 27 35 30 33 31 31 31 33 31 31 27 28 24 25 32 34 33 36 39 34 36 37 37 37 37 37 36 30 41 45 41 43 -193 44 -209 -209 -209 -209 -193 -193 -193 -209 -209 -209 -193 37 -193 34 34 37 39 38 40 53 46 45 43 43 42 42 42 42 38 35 38 38 30 41 41 41 40 46 50 -209 -209 -209 -209 -209 -209 -209 -209 -193 -209 -209 -193 -209 -193 -209 -209 -209 -209 -209 -209 -209 -209 -209 -193 -193 92 -209 54 53 47 48 51 49 47 47 47 47 47 50 52 47 51 50 50 49 49 50 49 47 51 49 52 52 52 53 51 53 53 52 55 55 57 61 63 62 62 63 65 65 66 65 67 67 68 68 0 0 0 0 0
    0 0 0 0 0 0 0 0 0 0 0 0 0 0 0 0 0 0 0 0 0 0 0 0 0 0 0 0 0 0 0 0 0 0 0 0 0 0 0 0 0 0 0 0 0 0 0 0 0 0 0 0 0 0 0 0 0 0 0 0 0 0 0 0 0 0 0 0 0 34 36 34 34 36 35 36 35 34 36 33 36 36 36 37 36 38 38 38 39 38 38 38 37 38 36 38 39 35 -193 -193 35 35 35 35 34 30 36 35 31 34 39 42 38 42 39 -209 -193 -193 -193 -209 -193 38 37 36 36 38 35 37 39 40 42 40 41 42 40 35 37 34 33 35 35 34 34 31 35 30 35 34 25 24 25 24 29 38 34 36 36 36 37 38 37 34 26 28 23 24 26 26 32 29 32 30 30 30 32 30 31 27 28 24 25 31 34 31 35 39 34 36 38 38 38 37 37 37 31 42 44 40 41 38 42 -209 -193 -209 -209 -209 -209 -209 -193 -209 -209 -193 38 -193 35 35 37 38 36 39 52 45 43 42 42 41 41 41 41 38 34 38 38 29 41 42 43 44 53 -193 -209 -209 -193 -193 -209 -209 -209 -209 -193 -209 -209 -209 -193 -209 -209 -209 -209 -209 -209 -209 -193 -193 -209 -209 -193 91 56 53 52 47 49 51 49 48 48 47 48 48 51 52 47 51 50 50 49 49 51 49 47 51 49 52 52 52 53 52 53 53 53 56 56 57 60 61 60 61 61 63 63 65 64 66 66 67 67 0 0 0 0 0
    0 0 0 0 0 0 0 0 0 0 0 0 0 0 0 0 0 0 0 0 0 0 0 0 0 0 0 0 0 0 0 0 0 0 0 0 0 0 0 0 0 0 0 0 0 0 0 0 0 0 0 0 0 0 0 0 0 0 0 0 0 0 0 0 0 0 0 0 0 34 36 34 34 36 35 36 35 34 36 33 36 36 36 37 36 38 37 38 39 38 38 38 37 39 37 38 39 35 -193 -193 -193 35 35 35 34 30 36 36 32 36 41 44 41 45 43 43 46 46 -209 -209 37 39 37 36 36 37 36 38 40 41 42 41 42 43 40 34 37 33 33 35 34 34 34 31 35 30 34 32 26 25 26 24 28 36 33 36 36 36 37 38 38 34 25 26 23 24 26 26 31 28 31 30 30 30 32 30 30 27 26 22 24 28 32 28 32 38 33 35 38 38 38 36 37 37 31 41 43 38 39 37 40 40 45 -193 -193 -209 -209 -193 -193 -209 -209 38 38 37 34 35 37 36 35 39 50 44 42 42 42 40 40 40 40 37 33 37 38 27 41 42 44 -209 55 -209 -209 -209 -209 -209 -209 -209 -209 -209 -209 -209 -209 -209 69 -209 -209 -209 -209 -209 -209 -193 258 -193 -209 -209 -209 -209 55 53 53 48 49 51 49 48 48 48 48 48 51 52 48 52 51 51 50 49 51 49 48 51 50 52 52 52 53 52 54 54 54 56 57 58 61 60 60 60 59 61 61 62 62 64 64 66 65 0 0 0 0 0
    0 0 0 0 0 0 0 0 0 0 0 0 0 0 0 0 0 0 0 0 0 0 0 0 0 0 0 0 0 0 0 0 0 0 0 0 0 0 0 0 0 0 0 0 0 0 0 0 0 0 0 0 0 0 0 0 0 0 0 0 0 0 0 0 0 0 0 0 0 35 36 34 34 36 35 36 35 34 36 33 36 36 36 37 36 38 38 38 39 38 38 38 38 39 37 39 40 36 -193 -193 -193 35 35 35 34 29 36 36 32 38 42 46 42 45 44 44 47 45 43 -193 39 40 39 38 38 39 38 40 41 41 42 42 44 43 40 34 37 33 33 35 34 34 34 31 35 29 33 30 26 25 25 24 28 35 33 36 37 37 38 39 40 34 24 25 22 23 25 26 30 28 31 30 30 30 32 30 30 26 25 22 23 26 30 27 30 37 32 35 37 38 37 36 37 37 31 41 43 37 38 36 39 39 44 -193 -193 -193 -209 -193 -209 -209 -209 36 36 36 32 33 35 33 33 39 46 43 40 40 40 39 39 39 39 36 32 37 37 26 41 43 -193 -209 58 -193 60 63 61 -193 62 -209 -193 -209 -209 -193 -209 -209 69 -209 -209 -209 -209 -209 -209 257 258 -193 -209 -209 -209 52 53 51 52 48 49 51 48 48 48 48 49 48 52 52 48 52 51 51 50 49 51 49 49 51 50 52 52 52 53 52 54 54 55 57 57 58 60 60 59 59 58 60 60 60 62 62 63 66 63 0 0 0 0 0
    0 0 0 0 0 0 0 0 0 0 0 0 0 0 0 0 0 0 0 0 0 0 0 0 0 0 0 0 0 0 0 0 0 0 0 0 0 0 0 0 0 0 0 0 0 0 0 0 0 0 0 0 0 0 0 0 0 0 0 0 0 0 0 0 0 0 0 0 0 35 36 35 34 36 35 36 35 34 36 33 36 36 36 38 37 38 38 38 40 39 39 39 38 39 38 39 40 36 -193 -193 -193 35 35 36 34 29 36 36 30 -193 43 47 42 45 43 43 44 42 -193 38 38 39 38 38 37 38 38 39 40 41 42 42 44 43 40 34 37 33 34 35 35 34 34 31 35 29 32 29 26 24 25 24 28 34 34 37 38 37 39 41 41 36 23 24 22 23 24 25 29 28 31 30 29 30 32 30 29 26 25 22 23 25 28 26 28 36 31 35 37 37 37 35 37 37 32 42 43 38 38 36 38 38 42 -193 -193 -209 -209 -193 -209 -209 -209 33 35 35 30 31 35 31 33 39 43 41 39 39 39 38 38 38 37 36 31 37 37 26 41 44 50 -209 59 63 62 64 62 62 65 -209 56 64 56 -193 -193 -209 68 -209 -209 -209 -209 -209 -209 -209 257 -193 -209 -193 -193 49 51 50 52 47 48 50 48 48 48 49 50 48 52 52 49 52 51 51 50 49 51 50 50 51 50 52 52 53 53 53 55 55 56 57 56 57 59 59 58 58 56 58 57 58 60 60 60 65 62 0 0 0 0 0
    0 0 0 0 0 0 0 0 0 0 0 0 0 0 0 0 0 0 0 0 0 0 0 0 0 0 0 0 0 0 0 0 0 0 0 0 0 0 0 0 0 0 0 0 0 0 0 0 0 0 0 0 0 0 0 0 0 0 0 0 0 0 0 0 0 0 0 0 0 35 37 35 34 36 35 36 35 35 36 34 36 36 36 38 37 39 39 39 41 40 40 39 39 40 39 39 40 36 -193 -193 -193 -193 36 -193 -193 29 36 37 -193 -209 43 48 43 46 44 42 43 42 -193 38 38 38 37 35 35 36 35 36 38 38 41 43 45 43 42 33 37 33 34 35 35 34 35 31 35 29 32 28 26 25 25 24 29 -193 36 38 39 39 41 42 42 -193 22 24 22 23 25 25 28 28 31 30 29 30 32 30 29 26 24 21 22 24 28 25 28 36 31 34 37 37 37 35 37 37 32 42 44 38 38 36 37 37 39 -193 -193 -193 -193 -193 -209 -209 -209 30 34 33 29 29 33 28 33 40 41 41 38 38 39 37 37 37 36 36 31 37 37 26 41 45 50 -209 59 -209 62 64 62 63 66 -209 59 66 59 -193 -209 67 68 -209 -209 -209 -209 -209 -209 -209 -209 -209 -209 -193 -209 45 47 48 51 47 48 49 48 48 48 49 50 48 53 52 50 53 51 51 50 49 51 50 50 51 51 53 53 53 54 54 55 56 56 58 56 57 59 58 57 57 54 56 55 57 60 59 60 65 62 0 0 0 0 0
    0 0 0 0 0 0 0 0 0 0 0 0 0 0 0 0 0 0 0 0 0 0 0 0 0 0 0 0 0 0 0 0 0 0 0 0 0 0 0 0 0 0 0 0 0 0 0 0 0 0 0 0 0 0 0 0 0 0 0 0 0 0 0 0 0 0 0 0 0 36 37 36 35 37 36 37 35 35 36 34 36 36 36 38 37 39 38 -209 41 40 40 39 39 40 39 40 40 36 -193 -193 -193 -193 36 -193 -193 29 36 37 -193 -193 -193 50 49 49 46 44 47 43 -209 39 38 38 37 34 35 37 36 37 38 38 42 44 45 43 45 33 37 33 34 36 35 34 35 32 36 29 32 27 26 25 25 24 29 -193 37 39 40 40 41 43 43 -193 22 24 22 -193 -193 25 28 28 31 30 29 30 32 29 29 26 24 22 23 25 28 26 29 36 32 35 37 37 37 35 37 37 33 42 44 39 39 38 38 38 -193 -193 -193 -209 -193 36 -193 34 -193 29 32 31 30 30 33 27 35 40 40 40 38 38 38 37 37 37 35 35 30 36 37 26 41 45 51 53 59 62 62 64 61 -209 -193 -209 67 71 67 61 67 69 69 -209 -209 -209 -209 -209 -209 38 -209 -193 -209 459 -209 45 46 47 51 47 48 48 48 47 48 50 50 48 53 52 50 52 51 51 50 49 51 50 51 52 51 53 53 54 55 55 56 57 57 59 57 58 59 58 56 55 53 55 54 57 60 59 63 68 64 0 0 0 0 0
    0 0 0 0 0 0 0 0 0 0 0 0 0 0 0 0 0 0 0 0 0 0 0 0 0 0 0 0 0 0 0 0 0 0 0 0 0 0 0 0 0 0 0 0 0 0 0 0 0 0 0 0 0 0 0 0 0 0 0 0 0 0 0 0 0 0 0 0 0 37 37 37 35 37 36 37 35 36 36 35 36 36 36 -209 -209 -193 -193 -193 -209 39 40 39 39 41 40 41 40 36 -193 -193 -193 35 35 -193 -193 -193 38 38 -193 43 -193 -193 -209 -193 52 48 51 45 42 40 39 38 37 34 34 36 35 36 36 37 -193 42 44 42 46 31 37 32 34 36 35 33 34 31 35 29 31 27 26 25 25 24 29 33 36 38 39 39 41 42 43 -193 23 24 23 -193 -193 26 28 28 31 30 29 30 32 29 29 25 24 22 23 25 -193 -209 29 36 32 35 37 37 37 34 37 36 33 42 43 39 40 39 39 39 41 -193 -209 -209 -193 36 -209 -209 -193 28 30 -193 32 34 36 29 37 43 40 40 38 37 38 36 37 36 34 35 30 36 37 27 42 47 56 59 62 67 70 70 69 70 72 72 72 73 73 68 71 70 69 68 60 58 -209 42 39 40 42 44 44 -193 48 45 46 46 51 47 47 48 48 48 49 51 51 48 53 52 50 52 50 51 50 49 51 50 51 52 52 54 54 54 55 55 57 58 58 60 57 59 60 58 57 57 53 56 55 58 60 59 63 67 65 0 0 0 0 0
    0 0 0 0 0 0 0 0 0 0 0 0 0 0 0 0 0 0 0 0 0 0 0 0 0 0 0 0 0 0 0 0 0 0 0 0 0 0 0 0 0 0 0 0 0 0 0 0 0 0 0 0 0 0 0 0 0 0 0 0 0 0 0 0 0 0 0 0 0 37 37 36 34 36 36 35 34 35 35 35 -193 -209 -209 -209 -209 -209 -209 -209 -209 39 40 40 41 42 42 42 40 37 36 37 -193 35 35 35 -193 -193 -193 -193 -209 -209 -193 -209 -209 -209 54 51 51 47 44 41 40 39 37 35 34 36 35 35 35 36 38 -209 42 40 -209 -193 36 31 32 35 33 32 33 31 35 29 32 28 27 26 26 25 30 33 36 38 39 39 40 42 42 25 24 26 24 -193 26 26 28 28 31 31 29 30 32 29 29 25 24 22 22 24 -193 -193 30 36 32 35 37 37 37 35 37 37 33 42 43 41 41 41 41 40 41 40 -209 -193 -209 -209 -193 -209 -209 -209 -209 -209 -193 41 41 41 40 47 41 41 38 37 38 36 36 36 33 35 30 36 37 29 43 54 60 66 69 71 72 72 71 71 72 71 71 72 73 69 71 69 68 66 62 60 -209 -209 -209 41 43 45 44 46 48 45 45 45 51 47 47 48 48 48 50 52 52 46 54 51 48 51 49 50 50 49 51 50 51 52 52 54 54 55 55 56 57 59 -193 60 57 59 60 59 58 58 55 57 56 59 60 59 61 63 61 0 0 0 0 0
    0 0 0 0 0 0 0 0 0 0 0 0 0 0 0 0 0 0 0 0 0 0 0 0 0 0 0 0 0 0 0 0 0 0 0 0 0 0 0 0 0 0 0 0 0 0 0 0 0 0 0 0 0 0 0 0 0 0 0 0 0 0 0 0 0 0 0 0 0 36 35 34 32 33 33 33 34 36 35 -193 -209 -209 -193 -209 -209 -209 -193 781 -209 -209 43 41 44 45 43 43 40 37 36 37 36 35 34 34 33 -193 -193 -193 661 -193 -193 -193 -209 -209 -209 -193 -193 -193 -209 -193 41 40 38 36 35 36 35 36 36 36 -193 -209 -193 39 -209 -193 34 30 32 33 33 31 -193 31 35 30 34 29 28 27 27 26 31 34 36 38 39 38 40 41 41 32 25 27 25 26 27 27 29 29 32 32 30 31 32 30 29 25 24 22 22 24 -193 26 31 36 33 35 37 37 37 35 38 37 33 42 43 42 42 42 41 39 40 40 -209 -209 -209 -209 -209 43 -193 -209 -193 -193 43 43 42 42 41 49 42 41 38 37 38 36 36 36 32 34 30 36 37 -177 43 57 64 69 71 72 73 73 73 72 73 71 71 72 73 70 71 69 68 67 66 64 -209 -209 -209 -209 45 48 47 50 50 47 45 45 51 46 46 48 47 46 49 52 52 44 53 50 46 50 48 50 50 49 51 50 51 52 52 54 54 55 56 56 58 59 -193 61 57 60 61 59 59 58 56 57 57 59 59 58 60 61 59 0 0 0 0 0
    0 0 0 0 0 0 0 0 0 0 0 0 0 0 0 0 0 0 0 0 0 0 0 0 0 0 0 0 0 0 0 0 0 0 0 0 0 0 0 0 0 0 0 0 0 0 0 0 0 0 0 0 0 0 0 0 0 0 0 0 0 0 0 0 0 0 0 0 0 35 35 34 32 32 33 32 33 36 34 -193 -209 -209 -193 -209 -209 -209 781 782 790 -209 44 42 45 46 44 44 40 37 37 -193 37 36 34 34 31 -193 -177 670 663 -209 -193 -193 -209 -209 -193 -193 -193 47 45 43 42 40 39 36 36 37 36 36 36 36 -193 -209 39 38 -209 28 32 29 31 32 32 30 -193 32 36 32 37 34 31 28 28 27 33 36 37 38 38 39 40 42 41 36 27 31 28 28 28 28 30 30 33 33 31 31 32 31 29 25 25 22 22 24 30 27 32 37 34 36 37 38 37 36 39 38 33 42 43 43 43 43 40 39 39 39 -209 -209 37 38 39 40 -209 -209 -193 -193 -193 42 41 41 42 50 43 42 38 38 38 36 37 36 32 34 30 37 37 -177 44 58 67 71 72 73 74 73 73 73 73 72 72 73 74 72 72 71 70 70 70 69 -193 -193 -209 -209 -209 -209 -193 50 49 46 44 45 51 46 46 47 46 45 47 50 50 42 51 49 45 49 48 50 50 49 51 50 51 52 52 55 55 55 56 -193 58 -193 -193 61 57 61 62 60 60 59 57 57 57 59 59 58 60 62 63 0 0 0 0 0
    0 0 0 0 0 0 0 0 0 0 0 0 0 0 0 0 0 0 0 0 0 0 0 0 0 0 0 0 0 0 0 0 0 0 0 0 0 0 0 0 0 0 0 0 0 0 0 0 0 0 0 0 0 0 0 0 0 0 0 0 0 0 0 0 0 0 0 0 0 34 33 33 32 30 31 30 30 34 32 34 -209 -209 -193 -209 -209 -209 -193 -193 -193 41 44 43 45 47 44 44 39 -193 -193 -193 -193 -193 34 34 31 -177 672 670 664 -193 -193 -193 -193 -193 -193 -193 -193 46 44 43 42 39 38 35 35 36 35 35 35 35 -193 -193 39 37 -209 28 30 29 30 30 31 30 679 32 36 35 40 40 34 31 31 30 35 36 37 38 38 38 39 41 41 37 31 35 30 31 29 29 31 31 34 34 31 33 32 34 30 26 27 24 24 27 34 29 35 39 36 37 39 39 39 38 40 39 34 42 44 44 44 45 42 40 39 -209 -209 -209 39 39 40 41 42 -193 -193 -193 -193 41 41 41 41 51 43 42 38 38 39 37 37 36 32 34 30 37 38 33 45 59 69 71 72 73 73 73 73 73 73 71 72 73 74 73 73 72 71 71 72 71 67 -193 -209 -209 -209 -209 -209 52 49 46 43 45 51 46 45 46 46 44 46 49 49 -193 51 50 44 48 48 50 50 48 50 50 51 53 53 55 55 55 56 -193 58 59 -193 61 57 62 62 60 61 60 58 58 58 60 61 59 62 67 72 0 0 0 0 0
    0 0 0 0 0 0 0 0 0 0 0 0 0 0 0 0 0 0 0 0 0 0 0 0 0 0 0 0 0 0 0 0 0 0 0 0 0 0 0 0 0 0 0 0 0 0 0 0 0 0 0 0 0 0 0 0 0 0 0 0 0 0 0 0 0 0 0 0 0 34 33 33 32 30 31 30 30 34 33 34 -193 -209 -209 -209 -209 35 -209 -209 -209 40 43 42 44 48 45 44 39 -193 -193 677 -193 -193 35 35 30 -177 671 669 -193 -193 -193 -193 -193 -193 -193 -193 -193 46 44 42 40 38 37 34 35 36 35 35 35 36 37 36 38 37 -193 28 30 29 29 30 31 -193 -193 33 36 37 41 41 37 35 35 34 36 37 36 38 37 38 39 40 39 36 34 37 34 34 32 31 33 32 35 34 31 33 32 35 32 27 29 25 25 31 38 35 38 41 39 39 40 40 40 39 41 40 35 41 42 43 44 44 42 40 40 -209 -193 43 41 42 43 43 45 -193 -193 -193 41 41 41 41 41 50 44 43 39 38 39 37 37 36 33 34 30 37 38 34 45 59 70 71 72 73 73 73 73 73 73 71 72 74 73 73 73 72 72 71 73 72 69 -193 -209 -209 -209 -209 -209 -209 50 49 44 47 52 47 46 48 48 46 47 52 51 -193 -209 -209 43 47 47 50 50 48 50 51 51 53 53 56 55 56 57 -193 59 60 -193 62 -209 64 63 62 63 63 60 60 60 62 62 60 65 69 76 0 0 0 0 0
    0 0 0 0 0 0 0 0 0 0 0 0 0 0 0 0 0 0 0 0 0 0 0 0 0 0 0 0 0 0 0 0 0 0 0 0 0 0 0 0 0 0 0 0 0 0 0 0 0 0 0 0 0 0 0 0 0 0 0 0 0 0 0 0 0 0 0 0 0 33 -193 32 32 31 31 31 -193 34 33 34 -193 -209 -209 -209 -209 -209 -209 -209 -209 38 -193 -193 -193 -193 45 45 -193 -193 674 675 674 674 34 -193 -193 -177 670 -193 -209 -209 -193 -193 -193 -193 -193 -193 -193 45 43 40 38 37 36 33 35 36 35 35 36 36 37 37 38 37 29 29 31 29 29 30 31 -193 -193 32 35 36 40 41 37 37 37 36 37 37 36 37 36 37 37 39 39 36 36 37 36 36 35 34 35 34 36 35 32 34 32 35 33 29 33 29 31 36 40 38 39 43 41 41 42 42 41 40 41 41 35 40 40 40 43 43 41 40 41 43 43 45 43 44 45 45 47 45 43 -193 42 41 41 41 41 50 44 44 39 39 39 38 38 36 34 34 30 38 39 35 47 61 71 72 72 73 73 73 73 72 73 71 73 74 73 73 73 73 73 73 74 72 69 -193 -209 -209 -209 -209 -209 -209 53 55 48 53 54 52 52 54 -193 -193 55 -209 -209 -209 -209 -209 -193 48 47 50 51 49 50 51 51 54 54 57 -193 58 59 -193 61 -193 -193 64 -209 66 65 63 66 66 63 63 62 63 64 61 66 70 81 0 0 0 0 0
    0 0 0 0 0 0 0 0 0 0 0 0 0 0 0 0 0 0 0 0 0 0 0 0 0 0 0 0 0 0 0 0 0 0 0 0 0 0 0 0 0 0 0 0 0 0 0 0 0 0 0 0 0 0 0 0 0 0 0 0 0 0 0 0 0 0 0 0 0 34 -209 -193 32 31 31 31 -193 33 32 34 -193 -193 -209 -209 -209 -193 -209 -209 -209 -193 -209 -209 -209 -193 45 45 -193 671 672 674 672 672 -193 -193 -193 -193 -193 -193 -193 -209 588 586 -177 -209 -193 -193 43 45 44 41 38 37 36 35 37 38 36 36 36 37 38 37 38 37 30 30 31 29 30 30 30 29 -193 32 34 35 39 40 38 38 38 37 38 37 36 37 36 37 37 38 38 37 37 38 38 38 37 37 37 37 38 37 35 36 34 37 35 33 37 36 38 38 42 40 40 44 42 42 42 42 42 41 42 42 36 39 38 38 42 43 44 43 43 45 45 47 46 47 46 46 47 45 43 43 42 41 40 41 41 50 44 44 39 39 40 38 38 37 35 35 31 39 40 -193 50 63 72 71 72 73 73 73 73 72 72 71 73 74 73 73 73 73 73 73 75 72 70 70 -209 -209 -209 -209 -209 -193 -209 57 57 58 59 59 59 60 64 67 69 72 -209 -209 -209 -209 -209 48 47 51 51 50 51 52 50 56 56 61 -209 -209 -209 -209 -209 -209 -209 -209 -209 -209 66 64 67 67 64 64 63 64 65 62 69 71 84 0 0 0 0 0
    0 0 0 0 0 0 0 0 0 0 0 0 0 0 0 0 0 0 0 0 0 0 0 0 0 0 0 0 0 0 0 0 0 0 0 0 0 0 0 0 0 0 0 0 0 0 0 0 0 0 0 0 0 0 0 0 0 0 0 0 0 0 0 0 0 0 0 0 0 -193 -193 -193 -193 -193 -193 31 -193 32 32 -193 -193 986 -209 -209 -209 -209 -209 -209 -209 -193 -209 -209 -209 -209 44 44 38 670 671 672 671 671 34 -193 28 -193 -193 33 -193 -209 -193 589 -177 -193 46 44 43 46 46 42 39 39 38 38 38 39 37 36 37 38 38 37 37 37 30 31 32 30 29 30 30 29 29 32 33 34 39 40 38 39 39 38 38 37 36 36 35 36 36 37 38 37 38 39 40 40 40 -193 -193 -193 -193 -209 -209 41 40 41 39 39 38 38 39 39 42 39 40 45 42 42 43 42 42 41 43 43 35 37 37 36 42 44 45 45 44 46 45 48 46 47 46 45 46 45 43 43 42 41 41 41 42 50 44 44 39 39 40 39 39 38 35 36 32 40 -193 -209 54 66 71 71 72 73 73 73 73 72 72 71 73 74 73 73 73 73 73 73 75 72 71 -193 0 -209 -193 -193 -193 -193 -209 -193 58 59 60 61 63 64 -193 -209 -209 -193 -209 -209 -209 -209 -209 -209 -209 -209 -193 -209 -209 -209 -209 75 -209 -209 -193 -209 -209 -209 -209 -209 -209 -209 -209 -209 65 64 66 66 63 63 64 65 66 63 70 -193 87 0 0 0 0 0
    0 0 0 0 0 0 0 0 0 0 0 0 0 0 0 0 0 0 0 0 0 0 0 0 0 0 0 0 0 0 0 0 0 0 0 0 0 0 0 0 0 0 0 0 0 0 0 0 0 0 0 0 0 0 0 0 0 0 0 0 0 0 0 0 0 0 0 0 0 -209 -193 -193 -193 -193 -193 -193 -193 -193 -209 31 -193 985 -193 -209 -209 -209 -209 -209 -209 -193 -193 -209 -209 -209 44 44 37 -193 -193 672 671 671 34 34 28 35 35 32 -193 -209 -193 -193 -193 -193 43 41 43 45 47 43 42 41 41 41 42 42 39 38 39 40 39 38 37 37 31 32 33 31 30 31 31 30 29 32 33 34 39 40 38 39 39 38 38 37 36 37 35 36 36 37 38 38 38 40 40 40 41 42 42 43 43 43 44 43 44 44 42 42 40 40 40 40 42 38 39 45 42 43 43 43 42 42 44 44 37 39 38 36 40 43 44 44 44 45 44 46 45 45 44 44 45 45 43 44 42 42 41 42 43 50 44 44 39 39 40 39 39 38 36 36 32 41 -209 -193 58 69 73 72 72 74 73 73 73 72 72 71 73 74 72 73 73 73 74 75 76 74 72 -209 0 -209 -193 -193 -193 -193 -193 -209 -193 60 60 61 63 63 -193 -209 -209 -193 -209 -209 -209 -209 -209 -209 -193 -209 173 -209 -193 -209 -209 -209 -209 -209 -209 -209 -209 -209 -209 -209 -209 -209 -209 -209 -193 64 65 65 62 65 69 71 72 75 82 89 88 0 0 0 0 0
    0 0 0 0 0 0 0 0 0 0 0 0 0 0 0 0 0 0 0 0 0 0 0 0 0 0 0 0 0 0 0 0 0 0 0 0 0 0 0 0 0 0 0 0 0 0 0 0 0 0 0 0 0 0 0 0 0 0 0 0 0 0 0 0 0 0 0 0 0 -209 -193 -209 -193 620 621 -193 -209 -209 -209 28 -193 -193 -209 -209 -209 -209 -209 991 929 931 927 -209 -209 -209 44 44 38 -193 -193 -193 -193 671 34 34 28 35 35 32 -193 -193 28 -209 -193 37 40 39 41 43 45 42 41 41 42 42 43 43 41 39 41 41 40 39 39 38 33 34 35 32 32 32 32 31 29 33 33 33 39 40 39 40 39 39 39 38 37 37 36 36 37 37 39 39 39 40 41 41 42 42 42 43 44 43 44 44 44 44 43 43 42 40 40 40 42 37 39 44 42 42 43 43 42 41 44 44 40 41 40 39 41 44 46 43 44 44 44 45 44 44 43 43 44 44 43 43 42 42 42 42 43 49 44 44 38 39 39 38 39 37 36 36 33 41 -209 -209 59 70 73 72 73 74 73 73 73 73 73 71 73 74 72 73 73 74 75 77 78 76 74 75 -193 -193 -209 -209 -209 -193 -209 -209 -193 63 62 62 64 -193 -193 -209 -209 78 81 -209 -209 -209 -209 -209 -209 -209 174 -193 175 -193 -193 -209 172 -193 -209 -209 -209 -209 -209 -209 364 -209 -225 -225 -225 -225 -225 -193 58 71 81 82 84 84 85 86 87 0 0 0 0 0
    0 0 0 0 0 0 0 0 0 0 0 0 0 0 0 0 0 0 0 0 0 0 0 0 0 0 0 0 0 0 0 0 0 0 0 0 0 0 0 0 0 0 0 0 0 0 0 0 0 0 0 0 0 0 0 0 0 0 0 0 0 0 0 0 0 0 0 0 0 -209 -193 -209 -209 -193 -193 -209 -209 -209 -209 -209 -209 -209 -209 -209 -193 -209 -193 991 929 931 -193 -209 -209 -193 44 44 38 -193 -193 -193 -193 671 34 34 29 35 35 32 -193 -193 29 -193 34 36 38 38 40 42 43 -193 40 -193 41 42 43 42 40 38 39 40 40 40 39 39 35 35 37 34 33 34 32 32 30 33 33 31 39 40 39 39 39 39 39 38 37 37 36 36 37 37 38 39 39 40 41 42 42 42 43 43 44 44 44 44 44 44 43 43 43 40 40 40 42 37 39 44 -193 -193 -193 -193 -193 41 44 44 42 42 42 40 42 45 48 44 46 44 45 45 44 43 43 42 43 44 42 43 42 42 41 42 43 48 43 43 38 38 39 38 39 38 37 37 35 43 56 -193 63 71 73 72 73 74 73 73 73 73 72 72 73 74 71 73 73 74 75 77 78 77 75 77 79 78 77 79 -209 67 69 -209 67 66 65 -193 67 -209 -209 80 -193 80 83 80 -209 -193 -193 77 -209 -209 175 -193 -193 179 -193 -193 176 178 179 -193 -193 -193 187 188 -193 -209 -225 -225 -209 -225 -225 -225 -225 -225 -193 84 85 84 84 85 85 0 0 0 0 0
    0 0 0 0 0 0 0 0 0 0 0 0 0 0 0 0 0 0 0 0 0 0 0 0 0 0 0 0 0 0 0 0 0 0 0 0 0 0 0 0 0 0 0 0 0 0 0 0 0 0 0 0 0 0 0 0 0 0 0 0 0 0 0 0 0 0 0 0 0 -209 -209 -209 -209 -209 -193 618 -209 -209 -209 -209 -209 -209 -209 -209 -193 -209 -209 -177 -193 930 928 -193 -209 -193 44 44 38 -193 -193 -193 671 671 34 34 29 36 35 33 -193 -193 29 32 34 36 38 39 41 43 44 41 40 40 41 41 41 41 39 38 38 39 39 39 39 39 35 35 37 34 34 34 33 32 30 34 33 30 38 40 39 39 39 40 39 39 38 38 36 36 37 37 37 38 39 40 41 43 43 43 44 44 45 44 45 45 44 45 44 43 44 41 42 42 45 38 39 44 -193 -193 -177 -193 -193 41 43 43 42 43 44 42 44 45 48 44 47 43 45 44 44 43 43 43 44 44 43 44 43 42 42 43 43 45 42 42 38 38 39 39 39 38 38 39 37 45 57 61 67 71 73 72 72 74 73 73 73 72 72 72 73 74 70 73 72 73 74 76 77 77 76 77 78 77 76 77 73 71 72 73 72 70 71 74 73 78 -193 81 80 80 82 79 77 79 75 77 74 72 -193 -193 -193 -193 -193 -193 -193 -193 180 181 -193 -193 -193 -193 -209 -209 -225 -209 -209 -209 -225 -225 -225 86 85 83 84 84 83 83 84 0 0 0 0 0
    0 0 0 0 0 0 0 0 0 0 0 0 0 0 0 0 0 0 0 0 0 0 0 0 0 0 0 0 0 0 0 0 0 0 0 0 0 0 0 0 0 0 0 0 0 0 0 0 0 0 0 0 0 0 0 0 0 0 0 0 0 0 0 0 0 0 0 0 0 -209 -209 -209 -209 -209 -209 -209 -209 -209 -209 -209 -209 -209 -209 -209 -209 -209 -209 -177 -209 931 -193 -193 -209 -193 45 45 -193 -209 -209 -209 -193 671 34 34 29 36 35 33 26 28 28 30 34 36 39 39 41 42 43 40 40 40 41 41 41 41 40 39 39 39 40 39 39 39 36 36 38 35 34 35 34 33 30 34 34 28 36 39 39 40 40 41 40 40 40 39 38 37 38 38 37 38 38 39 40 43 43 43 44 43 46 44 45 45 44 45 44 44 46 43 45 45 47 39 40 43 -193 -193 -177 -193 -193 40 43 42 42 43 43 42 44 44 46 43 45 42 43 41 41 41 41 41 42 43 42 43 43 43 43 44 44 45 42 42 38 38 39 39 39 40 39 40 40 49 59 64 67 71 72 72 72 75 73 73 73 73 72 72 73 74 70 72 71 73 73 75 76 76 76 76 77 77 75 77 75 75 75 74 74 -193 74 76 75 79 78 81 80 80 81 79 77 78 75 75 74 73 74 73 -177 77 76 -193 -193 -193 181 181 -193 -193 -193 -209 -209 -209 -209 -209 -193 -209 -225 85 86 85 85 83 84 83 83 83 83 0 0 0 0 0
    0 0 0 0 0 0 0 0 0 0 0 0 0 0 0 0 0 0 0 0 0 0 0 0 0 0 0 0 0 0 0 0 0 0 0 0 0 0 0 0 0 0 0 0 0 0 0 0 0 0 0 0 0 0 0 0 0 0 0 0 0 0 0 0 0 0 0 0 0 -209 -209 -209 -193 -209 -209 -209 -209 -209 -209 -209 -177 -209 -193 -209 -209 -209 -193 -177 -209 -193 -209 -209 -209 51 45 45 -193 -193 -193 -209 -193 672 34 34 29 36 35 32 25 26 26 28 31 34 38 38 39 41 41 40 40 40 41 41 41 42 40 40 40 40 40 39 39 40 36 37 38 36 36 36 -193 -193 30 34 34 28 36 38 39 41 41 42 41 41 41 40 39 38 38 38 37 38 38 38 40 42 42 44 44 43 46 45 45 45 45 45 44 45 46 43 46 46 47 39 40 41 -193 -193 815 -193 -193 40 42 41 42 42 42 42 43 43 44 41 43 40 39 29 29 31 33 32 37 41 41 43 43 44 43 44 44 45 42 42 38 39 40 40 40 41 41 43 45 54 60 65 67 70 72 72 72 75 73 73 73 73 73 73 74 74 70 73 72 74 73 75 75 75 76 75 76 76 75 77 75 76 76 75 75 74 75 77 76 81 78 82 80 80 81 80 78 79 76 76 75 75 76 75 75 76 76 -177 -193 -193 -177 180 -193 181 181 -193 -209 -209 -209 -209 -209 -209 84 85 85 84 85 82 83 83 82 82 82 0 0 0 0 0
    0 0 0 0 0 0 0 0 0 0 0 0 0 0 0 0 0 0 0 0 0 0 0 0 0 0 0 0 0 0 0 0 0 0 0 0 0 0 0 0 0 0 0 0 0 0 0 0 0 0 0 0 0 0 0 0 0 0 0 0 0 0 0 0 0 0 0 0 0 -209 -209 -209 -177 -209 -209 -209 -209 -209 -209 -209 -209 -209 -209 -209 -209 -209 -209 -177 -193 -193 -193 -209 -193 51 45 45 852 -193 -177 -193 -209 673 35 34 29 36 35 33 25 25 25 27 30 34 38 -193 39 41 41 41 42 41 42 42 43 43 42 40 40 39 39 39 39 40 36 37 38 36 36 37 687 687 -193 -193 35 28 36 38 40 42 42 45 42 42 43 42 40 39 39 39 38 39 39 39 41 42 42 44 44 43 46 44 45 45 45 45 44 45 47 43 46 46 46 39 40 40 40 40 -193 40 -193 39 41 41 41 41 42 42 43 43 45 41 43 39 39 25 26 26 27 27 33 38 41 41 42 43 43 44 44 45 42 42 39 40 41 41 41 43 43 49 53 56 60 65 67 70 71 71 72 75 73 74 74 74 73 74 74 75 71 74 73 74 73 75 75 75 76 75 -193 -193 -193 -193 -193 76 -193 75 76 -193 -193 77 -193 80 78 81 80 80 81 80 79 79 77 77 76 76 77 -177 -177 -177 -177 -193 -193 181 180 179 180 180 180 -209 -193 -193 -209 -209 -209 -193 85 85 85 85 85 82 83 83 82 82 82 0 0 0 0 0
    0 0 0 0 0 0 0 0 0 0 0 0 0 0 0 0 0 0 0 0 0 0 0 0 0 0 0 0 0 0 0 0 0 0 0 0 0 0 0 0 0 0 0 0 0 0 0 0 0 0 0 0 0 0 0 0 0 0 0 0 0 0 0 0 0 0 0 0 0 29 -209 -209 -193 -193 19 -193 -209 -209 -209 -193 -209 -209 -193 -193 -209 -209 -209 -209 -209 -209 -209 -209 -209 51 46 46 -177 -193 -177 -193 -209 674 35 35 29 38 37 36 26 28 26 28 32 35 38 -193 40 41 41 42 42 42 43 42 43 43 42 40 40 39 39 39 39 39 36 37 38 37 37 -193 687 687 -193 -193 -193 29 36 38 40 41 42 46 43 42 44 42 41 40 40 40 39 39 40 39 41 42 42 44 44 43 46 44 44 44 44 45 44 44 46 43 46 45 47 40 40 39 39 39 39 39 38 38 40 40 41 41 -193 42 42 43 44 41 42 35 34 24 27 27 26 26 30 36 40 40 41 43 43 44 43 45 44 44 40 40 42 42 44 46 48 54 57 57 62 67 68 70 71 71 72 75 73 74 74 74 74 74 75 75 72 74 74 75 74 76 75 76 76 75 -193 76 75 75 74 75 75 75 75 74 75 76 77 80 78 81 79 80 81 80 79 80 77 78 76 76 77 -177 -177 -177 75 -193 -193 180 180 179 180 -193 -193 -209 -193 -193 -193 -193 78 82 85 85 85 85 85 82 83 83 82 82 81 0 0 0 0 0
    0 0 0 0 0 0 0 0 0 0 0 0 0 0 0 0 0 0 0 0 0 0 0 0 0 0 0 0 0 0 0 0 0 0 0 0 0 0 0 0 0 0 0 0 0 0 0 0 0 0 0 0 0 0 0 0 0 0 0 0 0 0 0 0 0 0 0 0 0 27 -193 -193 -209 -193 -193 -209 -209 -209 -209 -209 -209 -193 36 36 -193 -209 -209 -209 -209 -209 -209 -209 -209 52 46 46 -193 -193 -193 -193 -209 -193 35 35 30 40 39 38 28 32 30 32 36 37 38 39 40 40 40 41 42 41 42 41 42 43 42 40 40 39 39 38 38 39 36 37 39 37 37 -193 687 686 684 -177 -193 30 36 37 39 41 42 45 42 -193 -193 -193 -193 -193 40 40 39 40 41 39 41 41 41 43 43 42 45 43 44 44 44 45 43 44 46 42 46 44 48 42 41 38 38 39 38 39 38 38 -193 39 41 41 -193 42 42 43 43 40 41 32 29 25 27 27 26 26 30 35 39 40 40 42 42 43 43 47 45 46 44 43 44 46 48 51 53 57 58 59 63 68 68 70 71 72 72 76 73 74 74 75 74 74 75 75 72 75 74 75 74 76 75 76 76 75 76 76 75 75 74 75 74 74 75 74 75 76 76 79 77 80 79 80 81 80 79 80 78 79 77 77 79 76 77 77 76 -193 -193 -193 -193 -193 -193 -209 -193 -193 -193 -193 76 77 79 81 84 85 85 84 84 82 83 82 82 81 81 0 0 0 0 0
    0 0 0 0 0 0 0 0 0 0 0 0 0 0 0 0 0 0 0 0 0 0 0 0 0 0 0 0 0 0 0 0 0 0 0 0 0 0 0 0 0 0 0 0 0 0 0 0 0 0 0 0 0 0 0 0 0 0 0 0 0 0 0 0 0 0 0 0 0 26 22 22 22 21 22 24 24 -193 -193 30 -193 -193 33 30 -209 -193 -209 -209 -209 -209 -209 -209 -209 52 46 46 -193 -177 -177 -177 -193 -193 36 35 30 40 39 38 30 34 32 35 37 38 39 39 40 40 39 -193 40 39 39 38 40 42 42 40 40 39 39 39 39 39 36 37 39 37 38 -193 -193 686 684 -177 -193 31 36 37 38 41 41 44 41 42 -193 42 -193 -193 40 40 39 40 40 39 41 41 41 43 43 42 45 43 44 44 44 45 43 44 45 41 45 43 48 43 43 38 38 39 38 39 38 38 -193 -193 41 41 -193 43 43 43 43 40 41 32 29 25 27 27 26 26 32 38 40 41 40 43 44 46 45 49 48 50 50 47 49 51 52 54 56 58 59 61 64 68 68 70 70 71 71 76 73 74 74 75 74 75 75 75 72 75 74 74 73 75 74 76 76 75 76 75 75 75 74 75 74 74 75 74 75 76 77 79 77 80 79 80 81 81 80 80 78 79 78 78 80 77 78 78 77 77 77 75 -193 -193 75 74 75 75 74 75 75 76 78 79 83 84 84 84 84 82 83 82 82 81 81 0 0 0 0 0
    0 0 0 0 0 0 0 0 0 0 0 0 0 0 0 0 0 0 0 0 0 0 0 0 0 0 0 0 0 0 0 0 0 0 0 0 0 0 0 0 0 0 0 0 0 0 0 0 0 0 0 0 0 0 0 0 0 0 0 0 0 0 0 0 0 0 0 0 0 25 23 22 22 22 22 24 24 24 25 27 -193 28 29 28 31 -209 -209 -209 -209 -209 -209 -209 -193 -209 45 45 -177 -177 -177 -177 -209 -193 36 35 31 40 39 38 30 37 34 37 39 39 40 41 42 41 40 41 40 39 36 34 37 41 41 40 40 39 39 39 38 39 36 37 39 37 38 -193 -193 686 684 -177 -193 32 36 37 37 41 41 44 42 42 43 42 42 41 40 40 40 40 41 40 42 42 41 43 43 42 45 43 44 43 44 44 43 44 45 41 44 43 47 44 44 38 38 38 37 38 38 38 39 38 41 41 41 42 42 42 42 39 40 30 28 25 27 26 26 27 31 36 38 40 40 45 45 46 45 49 50 52 53 52 52 54 56 57 58 59 60 62 64 67 67 69 69 69 71 75 72 74 74 75 74 75 76 76 72 75 74 74 73 75 74 76 76 75 76 75 74 75 75 76 75 75 76 75 76 77 77 79 78 81 80 80 81 81 80 80 78 79 78 78 80 77 78 78 77 78 78 76 76 -193 76 75 75 76 75 75 76 76 79 79 82 83 83 83 84 81 82 82 81 81 80 0 0 0 0 0
    0 0 0 0 0 0 0 0 0 0 0 0 0 0 0 0 0 0 0 0 0 0 0 0 0 0 0 0 0 0 0 0 0 0 0 0 0 0 0 0 0 0 0 0 0 0 0 0 0 0 0 0 0 0 0 0 0 0 0 0 0 0 0 0 0 0 0 0 0 24 23 22 22 24 23 25 25 25 26 27 -193 28 28 28 33 -209 -209 -193 -209 -193 -209 -209 -193 -209 43 44 -193 -193 -177 -177 -193 -177 36 36 31 40 40 39 26 35 32 37 40 42 42 42 43 42 41 42 41 39 36 32 37 40 41 40 40 39 39 38 38 38 35 36 38 37 38 39 -193 687 685 -177 -193 32 36 37 37 41 41 43 42 42 43 42 42 41 41 41 41 41 41 40 42 41 41 44 43 42 45 44 44 44 44 44 42 43 44 41 43 42 45 43 43 37 37 38 37 37 37 37 38 37 40 40 40 42 42 41 41 38 37 30 28 26 27 26 26 26 34 -193 41 42 43 46 46 46 45 49 51 53 54 54 54 56 58 59 60 60 61 63 63 66 66 67 67 67 70 74 72 74 74 75 75 76 76 76 73 75 74 75 74 75 74 76 76 75 76 75 75 76 76 77 75 76 77 76 77 78 77 79 78 80 80 79 81 80 80 80 78 78 78 77 80 77 78 78 77 78 78 76 77 74 76 75 76 76 75 75 76 76 79 79 82 83 83 83 83 81 82 81 81 81 80 0 0 0 0 0
    0 0 0 0 0 0 0 0 0 0 0 0 0 0 0 0 0 0 0 0 0 0 0 0 0 0 0 0 0 0 0 0 0 0 0 0 0 0 0 0 0 0 0 0 0 0 0 0 0 0 0 0 0 0 0 0 0 0 0 0 0 0 0 0 0 0 0 0 0 24 23 23 24 25 24 25 26 26 25 25 26 27 27 29 34 -193 -193 35 -209 -193 -209 -209 -209 -209 42 42 -193 -193 -193 -193 -193 -177 36 36 31 41 40 39 28 37 35 39 40 41 41 40 42 41 40 -193 39 38 35 32 39 41 41 41 42 40 39 39 38 38 35 37 39 37 38 39 -193 687 685 -193 40 33 36 37 37 41 41 44 42 42 43 42 42 41 41 41 41 41 41 40 41 40 40 44 42 42 45 43 43 43 44 44 41 43 43 39 41 41 44 42 42 37 36 38 37 37 37 37 38 37 40 40 40 41 41 41 39 37 36 30 29 27 28 25 27 -209 39 44 43 43 46 48 46 47 46 50 51 53 54 54 55 57 60 60 62 61 62 64 63 65 65 67 67 66 70 74 72 74 75 76 75 76 77 77 73 76 75 75 74 75 75 76 76 75 76 75 75 76 76 77 76 76 77 76 77 77 77 79 78 80 80 79 80 80 80 80 78 78 77 77 79 77 78 77 77 77 77 76 77 75 76 75 76 77 75 76 76 76 79 79 81 83 83 82 83 81 81 81 80 80 79 0 0 0 0 0
    0 0 0 0 0 0 0 0 0 0 0 0 0 0 0 0 0 0 0 0 0 0 0 0 0 0 0 0 0 0 0 0 0 0 0 0 0 0 0 0 0 0 0 0 0 0 0 0 0 0 0 0 0 0 0 0 0 0 0 0 0 0 0 0 0 0 0 0 0 23 23 24 25 25 24 25 26 26 23 24 24 26 27 28 32 31 31 33 31 31 -193 -193 -209 -209 34 40 34 36 -193 -193 -193 -177 36 36 30 41 40 39 29 37 37 39 41 41 41 39 41 40 -193 -193 38 38 35 33 41 42 42 41 42 40 39 39 38 38 35 36 39 37 38 39 687 687 685 -177 -193 34 37 38 37 41 41 43 40 40 41 41 41 41 40 40 41 41 42 41 42 40 40 43 42 41 44 43 43 43 43 43 41 42 41 35 39 40 43 41 41 36 35 37 37 37 37 37 38 37 40 40 40 41 41 41 40 39 37 34 34 33 32 30 38 47 43 46 46 46 50 49 47 47 46 50 51 52 53 53 55 57 60 60 62 61 62 64 63 64 65 66 67 65 70 -193 72 74 75 76 75 77 77 77 73 76 75 75 74 75 75 77 76 75 76 76 76 76 76 77 76 76 77 77 78 78 78 80 79 81 80 80 81 81 80 80 78 78 78 78 80 78 78 78 77 78 78 77 77 75 76 75 76 77 75 76 75 76 78 79 81 83 82 82 83 81 81 80 80 80 79 0 0 0 0 0
    0 0 0 0 0 0 0 0 0 0 0 0 0 0 0 0 0 0 0 0 0 0 0 0 0 0 0 0 0 0 0 0 0 0 0 0 0 0 0 0 0 0 0 0 0 0 0 0 0 0 0 0 0 0 0 0 0 0 0 0 0 0 0 0 0 0 0 0 0 22 23 25 25 25 24 25 25 26 22 23 23 25 25 26 29 29 29 30 29 29 28 29 -193 -209 24 38 32 35 37 -193 -177 -177 36 35 30 40 40 39 30 37 39 41 42 41 41 40 42 40 41 -193 38 37 36 35 39 40 40 39 39 38 38 39 37 37 35 36 39 37 38 39 687 688 686 -177 -193 34 37 38 36 41 41 43 40 40 41 41 -193 41 41 41 41 42 42 41 41 40 40 41 41 40 42 42 42 41 42 42 40 41 40 32 37 38 42 39 40 35 35 37 37 37 36 36 37 37 41 40 -193 41 41 43 42 41 39 37 37 37 37 38 42 50 45 49 50 50 53 49 47 47 46 50 51 52 52 52 55 56 59 59 62 61 62 63 63 64 65 65 67 64 70 -209 73 75 75 76 76 77 77 77 73 76 75 75 75 76 75 77 76 76 76 75 76 76 76 77 76 76 77 77 78 78 78 80 79 81 80 80 80 81 80 80 78 78 78 78 80 78 79 78 77 79 78 78 78 76 77 76 77 78 76 76 75 76 78 79 81 83 82 82 82 80 81 80 80 80 79 0 0 0 0 0
    0 0 0 0 0 0 0 0 0 0 0 0 0 0 0 0 0 0 0 0 0 0 0 0 0 0 0 0 0 0 0 0 0 0 0 0 0 0 0 0 0 0 0 0 0 0 0 0 0 0 0 0 0 0 0 0 0 0 0 0 0 0 0 0 0 0 0 0 0 18 19 20 22 24 23 25 25 26 23 23 23 25 25 26 28 28 28 30 28 29 27 28 27 22 23 35 30 33 36 37 -177 -177 35 35 30 40 40 39 30 37 40 41 42 -193 -209 -193 42 41 41 -193 37 37 37 36 38 39 38 39 39 38 39 39 37 37 35 37 39 37 38 -193 688 688 687 -177 -193 34 38 38 36 40 40 41 39 39 40 -193 -177 41 41 41 41 41 41 41 41 40 40 41 -193 -193 42 42 -193 -193 42 42 40 41 40 33 37 38 42 38 39 35 35 37 36 37 36 36 37 -193 -193 -193 -193 41 41 42 40 40 38 35 34 36 36 37 42 51 46 49 52 53 54 49 47 46 45 49 50 51 51 51 54 55 59 59 61 60 61 63 62 63 65 65 66 63 70 -209 73 75 75 76 76 77 77 77 73 76 75 75 75 76 75 78 76 76 76 75 76 76 76 77 76 76 77 77 79 78 78 80 80 81 81 80 80 81 80 80 78 78 78 78 80 78 79 79 78 79 79 78 79 76 78 77 78 80 77 78 76 77 79 80 81 83 82 82 82 80 81 80 80 80 78 0 0 0 0 0
    0 0 0 0 0 0 0 0 0 0 0 0 0 0 0 0 0 0 0 0 0 0 0 0 0 0 0 0 0 0 0 0 0 0 0 0 0 0 0 0 0 0 0 0 0 0 0 0 0 0 0 0 0 0 0 0 0 0 0 0 0 0 0 0 0 0 0 0 0 18 17 16 -193 -193 -193 -193 -193 26 22 23 23 25 26 27 29 29 29 31 29 30 28 28 26 20 23 33 29 32 35 -193 -177 35 35 35 30 39 39 36 29 37 40 42 42 41 -209 -193 42 42 41 -193 38 38 38 37 38 38 38 39 38 38 39 38 36 37 35 37 39 37 38 -193 689 690 -177 -177 -193 34 37 37 36 39 40 40 38 39 39 39 -193 40 40 41 41 41 41 41 41 41 41 42 41 -193 -193 -193 -193 -193 42 41 40 41 40 36 38 38 42 37 39 35 35 37 37 37 37 36 37 388 -193 -193 -193 41 41 41 39 -209 -193 34 31 32 34 31 41 48 44 46 50 53 53 47 46 46 45 48 48 50 50 51 54 55 59 58 61 60 61 63 62 63 65 64 66 63 70 -209 73 75 75 76 75 77 77 77 73 76 75 75 75 76 75 78 76 76 76 75 76 76 77 77 76 77 78 78 79 79 78 81 80 81 81 80 80 81 80 80 78 78 78 78 80 79 79 79 78 80 79 78 79 76 77 77 78 80 77 78 77 78 80 81 81 84 81 81 82 80 80 80 79 79 78 0 0 0 0 0
    0 0 0 0 0 0 0 0 0 0 0 0 0 0 0 0 0 0 0 0 0 0 0 0 0 0 0 0 0 0 0 0 0 0 0 0 0 0 0 0 0 0 0 0 0 0 0 0 0 0 0 0 0 0 0 0 0 0 0 0 0 0 0 0 0 0 0 0 0 17 16 15 -193 -193 -193 -193 24 26 22 23 23 26 26 27 30 30 30 30 29 30 27 27 25 19 22 31 29 31 35 -193 -177 34 34 34 29 38 37 33 30 38 40 41 41 -193 -209 -209 41 42 -193 -193 39 39 39 39 38 38 38 39 38 39 40 39 37 37 36 37 40 38 38 -193 690 690 690 -177 -193 34 37 37 36 38 39 39 38 38 38 38 39 39 40 40 41 41 41 41 42 41 41 42 41 41 -177 -193 -193 42 42 41 41 41 39 38 38 39 42 36 38 34 35 37 37 37 37 35 38 -193 387 -193 -193 40 41 41 -193 -209 -209 33 30 33 35 31 41 45 42 43 46 52 51 46 46 46 45 47 47 50 50 50 54 55 58 58 61 60 61 62 62 63 64 64 66 62 69 -193 73 75 75 76 75 77 77 77 74 76 75 76 75 76 76 78 76 76 76 75 76 77 77 78 76 77 79 78 80 80 79 82 81 82 81 80 80 80 79 80 78 77 77 77 79 78 79 79 77 79 78 77 78 76 77 77 77 79 77 79 77 79 81 81 82 84 81 81 82 80 80 79 79 79 77 0 0 0 0 0
    0 0 0 0 0 0 0 0 0 0 0 0 0 0 0 0 0 0 0 0 0 0 0 0 0 0 0 0 0 0 0 0 0 0 0 0 0 0 0 0 0 0 0 0 0 0 0 0 0 0 0 0 0 0 0 0 0 0 0 0 0 0 0 0 0 0 0 0 0 18 18 17 -193 -193 20 -193 24 25 21 23 23 26 26 29 30 30 29 30 28 29 27 27 23 19 21 30 29 31 35 -193 -177 34 34 34 28 37 37 32 30 38 40 40 37 -193 -177 -193 -209 -209 -209 -209 37 38 -193 -193 -193 39 38 39 37 39 40 39 37 37 37 38 41 38 38 -193 690 691 691 -177 -177 34 38 38 37 39 40 39 38 38 38 38 39 40 40 40 40 41 41 41 41 41 41 41 41 -193 -177 605 -209 41 40 40 39 39 38 38 38 38 40 35 38 33 34 37 37 37 36 34 38 -193 -193 -193 38 37 39 39 39 -209 -193 35 30 37 -193 37 41 43 41 42 44 51 49 46 46 45 45 47 47 50 49 50 54 55 58 58 61 60 61 62 62 62 64 63 66 61 69 -193 73 75 75 76 75 77 77 77 74 76 76 76 75 76 76 78 76 76 76 75 76 77 77 78 77 77 79 79 81 80 80 83 82 82 81 80 80 80 79 79 77 77 76 76 78 77 77 77 76 77 77 76 76 75 76 76 77 80 78 81 78 81 82 83 83 84 82 82 81 80 79 79 79 78 77 0 0 0 0 0
    0 0 0 0 0 0 0 0 0 0 0 0 0 0 0 0 0 0 0 0 0 0 0 0 0 0 0 0 0 0 0 0 0 0 0 0 0 0 0 0 0 0 0 0 0 0 0 0 0 0 0 0 0 0 0 0 0 0 0 0 0 0 0 0 0 0 0 0 0 19 18 17 -193 -193 20 20 24 26 22 24 23 27 27 30 31 30 29 29 28 29 26 26 23 20 21 30 29 31 34 -193 -177 34 34 34 28 37 36 30 29 36 36 38 34 -193 -177 -193 -209 -209 -193 -209 -209 39 -209 -193 40 39 38 38 37 39 39 38 36 36 36 38 -193 38 38 690 691 691 691 -177 -177 34 38 38 38 39 41 40 38 38 39 39 40 40 40 39 39 41 40 40 41 41 40 40 40 -193 -177 -193 -209 41 39 39 39 38 36 34 34 34 40 33 37 33 34 37 37 37 36 35 39 950 -193 -193 39 38 39 40 39 -209 35 36 -209 38 -193 39 42 43 41 42 44 52 48 45 46 45 44 46 46 49 48 49 54 55 58 58 61 60 61 62 62 62 64 62 66 61 69 -193 73 75 75 76 75 77 77 77 74 76 76 76 75 77 76 78 77 76 77 76 76 77 77 78 77 77 79 79 80 80 80 83 82 82 81 80 79 80 79 79 77 76 76 76 77 77 76 76 74 76 75 75 75 74 75 76 76 80 78 83 80 83 83 84 83 85 82 82 81 80 79 79 79 78 77 0 0 0 0 0
    0 0 0 0 0 0 0 0 0 0 0 0 0 0 0 0 0 0 0 0 0 0 0 0 0 0 0 0 0 0 0 0 0 0 0 0 0 0 0 0 0 0 0 0 0 0 0 0 0 0 0 0 0 0 0 0 0 0 0 0 0 0 0 0 0 0 0 0 0 19 19 18 13 -193 19 21 24 26 22 24 23 27 28 30 30 30 29 30 28 29 26 26 23 21 22 31 29 31 34 -177 -177 34 34 34 28 36 36 30 30 36 37 37 33 -193 126 134 -209 -209 -209 -209 -209 -209 -209 -193 40 40 38 39 37 39 39 37 35 36 36 38 41 39 38 689 690 691 692 -177 -177 35 39 39 38 40 41 40 38 38 38 39 39 39 40 39 39 41 40 40 40 41 40 40 40 -209 -177 -193 -209 41 39 39 40 39 37 33 34 33 39 33 36 33 34 37 37 37 37 35 39 951 42 43 39 39 39 40 -193 -209 36 36 -209 -193 -193 39 42 43 41 41 43 52 46 44 45 44 44 46 46 49 48 50 -193 55 -193 -193 -193 60 61 62 62 62 64 62 66 60 69 -193 74 75 75 76 75 77 76 76 74 76 76 77 75 77 76 78 77 76 77 76 76 77 76 77 77 77 78 78 79 80 81 83 82 82 81 80 79 80 79 79 77 76 76 76 77 76 75 75 74 75 -193 74 75 74 75 76 77 80 78 83 81 -193 84 84 84 85 82 82 82 80 79 79 79 78 76 0 0 0 0 0
    0 0 0 0 0 0 0 0 0 0 0 0 0 0 0 0 0 0 0 0 0 0 0 0 0 0 0 0 0 0 0 0 0 0 0 0 0 0 0 0 0 0 0 0 0 0 0 0 0 0 0 0 0 0 0 0 0 0 0 0 0 0 0 0 0 0 0 0 0 22 23 21 -193 -193 21 -193 26 30 23 27 24 29 29 32 31 31 29 30 28 30 27 27 25 23 23 33 30 31 34 -177 -177 33 33 33 28 35 35 28 29 37 -209 36 30 -193 127 136 -209 -209 -209 -209 -209 -209 -209 -209 39 40 38 39 37 39 38 36 36 37 37 38 42 40 39 688 690 691 692 -177 -193 36 39 39 38 40 40 39 38 38 38 39 39 39 40 40 40 41 40 40 41 41 41 39 40 -209 -177 -193 -209 40 39 39 41 41 41 42 42 39 40 33 36 33 35 37 36 36 36 35 39 -193 42 42 38 39 39 -193 -209 -209 -193 36 -193 -193 -209 41 41 42 40 41 42 48 43 43 44 43 43 45 45 49 48 51 -177 -193 -193 -193 61 60 61 62 62 62 64 62 65 60 69 72 73 74 74 75 75 76 76 76 74 76 76 77 76 78 76 77 77 76 77 76 75 75 75 76 76 76 77 78 79 80 81 83 82 81 80 79 79 79 78 78 77 76 76 76 76 76 74 75 73 74 -193 74 75 75 76 77 77 -193 79 -193 -193 -193 84 84 84 86 82 82 82 80 79 79 79 78 77 0 0 0 0 0
    0 0 0 0 0 0 0 0 0 0 0 0 0 0 0 0 0 0 0 0 0 0 0 0 0 0 0 0 0 0 0 0 0 0 0 0 0 0 0 0 0 0 0 0 0 0 0 0 0 0 0 0 0 0 0 0 0 0 0 0 0 0 0 0 0 0 0 0 0 25 -193 -193 -193 -193 23 27 29 36 28 33 27 32 31 34 32 32 30 31 29 31 28 28 26 25 25 34 31 31 -193 -193 33 33 33 33 28 35 35 28 29 -193 -209 -209 30 -209 -193 -209 -209 -209 -209 -209 -209 -209 -193 -209 40 40 38 39 38 40 39 36 37 39 38 39 43 41 40 687 689 691 -177 -193 -193 36 38 38 37 40 40 38 38 38 -193 39 39 40 40 40 40 41 40 40 40 41 40 40 40 -209 -193 -193 -193 40 40 40 42 41 41 43 43 40 40 34 37 33 35 37 36 36 36 35 38 -193 41 42 37 39 39 -193 -193 -209 -209 -209 37 39 -209 40 40 42 40 40 43 46 42 42 44 43 43 -193 45 49 49 51 -177 -193 -193 59 60 60 61 62 62 61 64 61 65 60 68 72 73 73 74 75 74 75 75 75 74 76 76 77 76 78 77 78 78 77 77 76 75 75 74 75 76 75 77 77 78 80 81 82 82 81 80 78 78 79 78 78 76 75 76 75 75 75 73 74 72 72 -193 -193 75 75 76 77 78 -193 -193 -193 -193 -193 83 83 83 85 82 82 81 80 79 79 78 78 76 0 0 0 0 0
    0 0 0 0 0 0 0 0 0 0 0 0 0 0 0 0 0 0 0 0 0 0 0 0 0 0 0 0 0 0 0 0 0 0 0 0 0 0 0 0 0 0 0 0 0 0 0 0 0 0 0 0 0 0 0 0 0 0 0 0 0 0 0 0 0 0 0 0 0 26 -193 -193 -193 -193 24 29 33 38 34 37 32 35 35 37 35 35 33 33 30 33 29 29 27 27 26 35 31 31 -193 -193 32 33 33 33 28 35 35 28 31 -193 -209 -209 36 -209 -209 -209 -209 -193 -209 -193 52 55 57 51 42 42 40 41 40 40 39 36 37 38 36 38 42 41 41 686 688 691 -177 -193 43 37 38 38 37 40 40 39 38 -193 -193 40 40 40 39 39 40 41 40 40 40 40 40 -193 41 -193 -193 -193 -193 41 41 41 42 41 42 43 43 41 40 34 37 33 35 36 36 36 36 35 38 -193 41 41 37 39 39 39 -193 -209 -193 -193 38 40 -209 39 40 41 40 40 44 45 42 42 44 -193 -193 -193 45 49 49 52 -177 -193 -193 58 60 60 60 62 62 61 64 62 65 60 69 72 72 73 74 75 73 74 74 75 73 75 76 77 76 77 77 78 78 77 77 76 -193 76 75 75 76 75 77 76 78 80 80 82 82 80 79 78 78 78 77 77 76 75 75 74 -193 -193 -193 -209 71 71 -193 -193 -193 75 76 77 77 -193 -193 -193 -193 -193 83 83 83 85 82 82 81 80 79 79 78 78 76 0 0 0 0 0
    0 0 0 0 0 0 0 0 0 0 0 0 0 0 0 0 0 0 0 0 0 0 0 0 0 0 0 0 0 0 0 0 0 0 0 0 0 0 0 0 0 0 0 0 0 0 0 0 0 0 0 0 0 0 0 0 0 0 0 0 0 0 0 0 0 0 0 0 0 27 -193 -193 -193 27 27 32 -193 39 37 38 35 37 37 38 37 36 34 34 31 33 30 30 27 28 27 35 31 31 -193 -193 32 33 33 33 28 35 35 28 36 44 -209 43 -193 44 -209 -193 -193 48 -209 51 54 56 57 51 43 42 40 41 40 40 38 36 37 39 36 38 42 41 41 -193 687 690 -177 -193 43 37 38 37 37 41 40 38 38 -193 -193 40 40 40 39 39 40 40 40 40 40 40 40 40 41 -193 -193 -193 41 40 40 42 42 41 42 43 43 41 41 34 37 33 35 36 36 36 36 35 38 638 -193 41 39 39 39 40 37 -209 43 42 -193 -193 -209 41 41 41 40 40 46 46 42 43 44 -193 44 -193 46 49 49 53 -177 -193 -193 59 60 60 60 62 62 61 64 62 65 61 69 72 72 72 73 74 73 74 74 75 73 75 76 76 75 77 77 77 78 77 -193 -193 -193 -193 -193 -193 -193 -193 -193 77 79 80 80 81 81 79 79 77 77 77 76 76 75 74 75 -193 -193 -193 70 -193 70 70 -193 -193 -193 -193 -193 77 77 -193 80 -193 82 -193 83 83 83 85 82 82 81 80 79 79 78 78 76 0 0 0 0 0
    0 0 0 0 0 0 0 0 0 0 0 0 0 0 0 0 0 0 0 0 0 0 0 0 0 0 0 0 0 0 0 0 0 0 0 0 0 0 0 0 0 0 0 0 0 0 0 0 0 0 0 0 0 0 0 0 0 0 0 0 0 0 0 0 0 0 0 0 0 28 29 28 28 30 29 34 37 39 38 39 37 38 38 39 37 36 34 34 30 32 30 30 28 29 28 35 31 31 33 31 32 33 33 33 27 35 35 28 38 45 -209 46 45 46 -209 -193 45 48 -209 52 56 57 57 51 43 43 40 40 40 39 37 36 38 39 36 38 42 41 42 43 -177 -177 -177 43 43 37 38 37 38 40 40 39 38 39 -193 40 40 40 40 39 40 40 40 39 40 40 39 39 40 -193 -193 -193 41 40 40 42 42 41 41 42 43 40 40 34 37 33 35 35 35 35 36 34 38 -193 -209 -193 40 41 40 41 39 41 44 43 42 45 40 43 43 42 41 41 48 46 43 43 45 44 44 46 46 48 49 53 -177 -193 -193 59 60 60 60 62 62 61 64 62 66 61 69 72 72 72 73 74 73 74 75 75 74 75 76 76 75 76 76 76 77 -193 -193 -193 -193 76 -193 -193 -193 -193 77 76 78 80 80 80 80 78 78 77 77 77 76 76 75 74 74 -193 -193 71 69 -193 70 70 -193 -193 -193 -193 -193 78 78 -193 81 83 83 83 83 83 82 85 81 82 81 80 79 79 78 78 76 0 0 0 0 0
    0 0 0 0 0 0 0 0 0 0 0 0 0 0 0 0 0 0 0 0 0 0 0 0 0 0 0 0 0 0 0 0 0 0 0 0 0 0 0 0 0 0 0 0 0 0 0 0 0 0 0 0 0 0 0 0 0 0 0 0 0 0 0 0 0 0 0 0 0 31 32 31 31 32 31 35 38 38 38 39 38 39 38 39 38 35 34 34 31 32 30 30 29 30 30 35 31 31 33 31 32 33 33 33 28 35 35 29 38 46 53 51 52 51 -193 48 47 49 48 50 57 55 55 49 44 45 42 42 42 40 38 37 38 39 36 38 42 41 42 44 -177 -177 -177 43 44 36 37 37 38 40 39 39 39 39 -193 40 40 41 40 40 40 40 40 39 39 40 38 39 -193 -193 -193 40 41 41 41 42 43 41 41 41 42 40 40 34 37 33 35 35 35 35 35 34 37 -193 -193 -193 41 41 41 41 41 41 44 44 43 45 43 44 44 42 42 41 51 46 43 43 45 44 45 46 46 47 50 53 -193 -193 59 59 60 60 60 62 62 61 64 62 66 61 70 72 72 72 73 74 74 74 75 75 73 75 75 76 75 76 76 76 77 76 -193 77 76 77 76 76 -193 -193 -193 76 78 80 80 79 79 77 77 76 76 77 76 75 75 73 75 -193 -193 72 70 -193 71 70 -193 -193 -193 -193 -193 -193 78 -193 81 83 83 82 83 83 82 85 81 82 81 80 79 79 78 78 76 0 0 0 0 0
    0 0 0 0 0 0 0 0 0 0 0 0 0 0 0 0 0 0 0 0 0 0 0 0 0 0 0 0 0 0 0 0 0 0 0 0 0 0 0 0 0 0 0 0 0 0 0 0 0 0 0 0 0 0 0 0 0 0 0 0 0 0 0 0 0 0 0 0 0 33 34 32 32 34 32 35 38 38 38 39 38 39 38 39 39 35 34 35 33 33 31 31 30 30 30 34 30 31 33 31 32 33 33 33 28 36 36 32 39 45 49 50 52 52 51 51 51 51 51 50 -193 50 51 47 44 45 43 43 43 40 39 38 38 40 36 38 42 40 41 44 -177 -177 -177 43 43 32 33 34 38 39 38 38 39 40 -193 41 40 41 40 41 41 40 40 39 39 39 39 39 -193 -193 285 -177 41 41 42 43 43 41 41 42 43 40 40 35 37 34 36 35 35 34 35 34 37 398 398 -193 -193 42 41 41 41 42 44 44 44 46 46 46 45 43 44 43 53 45 43 43 45 44 44 45 46 46 50 54 -193 55 59 59 60 60 60 62 62 61 64 62 66 62 70 -193 -193 72 73 74 74 74 75 75 73 75 75 75 75 76 76 76 77 -193 -193 78 76 77 77 77 78 76 78 76 78 80 80 79 79 77 77 76 76 77 76 75 75 74 75 -193 -193 73 71 -209 72 -193 -193 -193 -193 -193 -193 -193 -193 -193 -193 -193 -193 -193 82 82 81 85 81 82 81 80 79 79 79 79 76 0 0 0 0 0
    0 0 0 0 0 0 0 0 0 0 0 0 0 0 0 0 0 0 0 0 0 0 0 0 0 0 0 0 0 0 0 0 0 0 0 0 0 0 0 0 0 0 0 0 0 0 0 0 0 0 0 0 0 0 0 0 0 0 0 0 0 0 0 0 0 0 0 0 0 32 32 31 31 32 31 34 37 38 38 39 38 39 38 39 39 36 35 36 34 34 32 33 31 31 31 35 31 30 33 -193 32 33 33 33 28 36 36 33 39 44 49 51 52 53 52 52 53 52 49 48 -209 45 44 45 42 42 41 41 41 39 38 38 38 39 36 38 42 41 42 44 -193 -177 -177 43 43 31 31 32 37 39 37 37 38 39 40 40 40 40 40 41 41 40 40 40 39 39 39 39 -193 -193 -193 41 41 41 43 43 43 42 42 42 43 40 40 35 38 35 36 35 35 34 35 33 36 -193 -193 -193 -193 42 42 41 42 44 46 46 46 48 49 48 45 44 45 44 53 44 43 43 45 44 44 45 45 45 50 54 55 55 59 59 60 60 60 61 61 61 64 62 66 63 71 73 -193 72 73 74 74 75 75 75 73 75 75 75 74 74 75 75 76 -193 -193 77 77 78 78 78 78 77 78 77 78 80 80 78 79 77 77 76 76 77 76 75 75 74 75 73 -193 73 72 -193 73 74 -193 -193 -193 -193 79 -193 78 -193 -193 -193 -193 -193 80 82 81 85 81 82 81 80 80 79 79 79 76 0 0 0 0 0
    0 0 0 0 0 0 0 0 0 0 0 0 0 0 0 0 0 0 0 0 0 0 0 0 0 0 0 0 0 0 0 0 0 0 0 0 0 0 0 0 0 0 0 0 0 0 0 0 0 0 0 0 0 0 0 0 0 0 0 0 0 0 0 0 0 0 0 0 0 30 30 29 29 31 30 32 36 37 38 39 38 39 38 39 39 36 35 36 34 34 32 33 32 32 32 35 31 30 33 -193 32 33 33 33 28 36 36 33 39 43 46 50 51 53 51 51 52 48 -193 42 -209 41 40 43 41 42 41 41 40 39 38 38 38 39 36 38 40 41 43 43 -193 -177 -193 42 42 32 30 29 37 38 36 37 38 39 40 40 40 40 40 41 41 41 40 40 40 39 38 39 -193 -193 -193 40 40 41 43 42 42 41 41 42 42 40 40 36 38 35 37 35 35 34 35 33 36 33 37 32 41 42 42 42 43 45 46 46 46 47 48 47 45 43 45 44 53 44 44 43 45 44 44 45 46 45 51 54 55 55 58 59 59 59 60 61 61 61 64 63 66 64 71 74 72 72 73 74 74 75 75 75 73 75 75 74 73 73 74 74 76 -193 -193 77 77 78 79 79 79 78 79 78 79 80 80 78 79 77 77 76 76 77 76 75 75 74 75 74 75 74 73 74 74 76 77 76 79 78 79 79 78 79 79 80 -193 78 79 81 81 85 81 82 81 80 80 80 79 79 76 0 0 0 0 0
    0 0 0 0 0 0 0 0 0 0 0 0 0 0 0 0 0 0 0 0 0 0 0 0 0 0 0 0 0 0 0 0 0 0 0 0 0 0 0 0 0 0 0 0 0 0 0 0 0 0 0 0 0 0 0 0 0 0 0 0 0 0 0 0 0 0 0 0 0 29 30 29 29 30 30 30 35 35 37 39 37 39 37 38 38 35 35 36 34 34 33 33 32 32 32 35 31 30 33 -193 31 33 33 33 28 36 36 34 39 42 45 49 50 53 51 51 51 46 -193 40 -193 40 39 42 40 41 41 41 40 38 38 38 38 38 36 38 39 40 42 42 -209 -177 -193 42 41 35 31 29 37 38 37 38 38 40 41 41 40 41 40 41 41 41 40 40 40 39 38 39 -193 -193 -193 40 39 40 43 42 41 40 40 40 41 39 40 36 38 35 37 35 35 35 36 34 36 34 38 33 41 43 42 42 44 44 46 45 45 46 46 45 44 43 45 45 53 45 44 44 46 45 45 46 46 46 52 54 55 55 58 58 59 59 60 60 61 61 64 64 67 66 72 74 73 72 73 74 74 74 75 75 73 75 74 74 73 73 74 74 -193 -193 -193 78 78 79 79 80 80 79 80 78 80 80 80 78 79 77 77 76 76 77 76 76 76 74 76 75 76 75 74 75 75 77 78 76 79 77 79 78 77 78 78 79 -193 78 79 81 80 85 81 82 81 80 80 80 79 79 76 0 0 0 0 0
    0 0 0 0 0 0 0 0 0 0 0 0 0 0 0 0 0 0 0 0 0 0 0 0 0 0 0 0 0 0 0 0 0 0 0 0 0 0 0 0 0 0 0 0 0 0 0 0 0 0 0 0 0 0 0 0 0 0 0 0 0 0 0 0 0 0 0 0 0 28 29 29 29 29 29 28 32 31 35 38 36 39 36 37 38 35 35 36 35 34 33 34 32 32 32 35 31 30 32 30 31 33 33 33 28 35 35 33 37 40 43 46 47 52 49 47 47 43 -193 39 -193 40 39 41 40 40 40 42 40 38 38 38 38 37 36 38 37 38 41 41 -193 39 40 41 40 37 34 29 37 37 37 38 38 40 41 41 40 41 41 42 41 41 41 40 40 39 38 -193 -193 -193 -193 40 39 41 43 42 41 40 39 39 40 39 40 37 38 36 37 36 36 36 37 35 37 35 39 36 41 43 42 41 43 43 44 44 44 46 45 45 44 44 45 47 52 45 45 45 47 46 46 46 46 46 52 54 55 55 58 58 60 59 60 60 61 62 64 64 67 67 72 73 73 72 73 73 74 74 75 75 73 74 74 74 73 73 74 73 -193 -193 -193 78 78 79 79 80 80 79 80 78 79 79 79 78 78 77 76 76 76 77 76 76 76 75 76 75 77 76 75 76 76 77 78 77 79 77 79 79 77 79 79 79 -193 78 80 82 81 85 81 82 81 80 80 80 79 79 76 0 0 0 0 0
    0 0 0 0 0 0 0 0 0 0 0 0 0 0 0 0 0 0 0 0 0 0 0 0 0 0 0 0 0 0 0 0 0 0 0 0 0 0 0 0 0 0 0 0 0 0 0 0 0 0 0 0 0 0 0 0 0 0 0 0 0 0 0 0 0 0 0 0 0 28 29 28 28 28 27 26 28 -193 -193 -193 33 38 35 36 38 35 35 36 35 34 33 34 32 32 33 35 31 30 32 30 31 33 32 32 28 34 33 31 34 37 41 44 44 49 43 43 41 39 36 37 -209 38 38 40 40 40 40 41 40 38 38 39 38 37 36 38 37 38 -193 40 39 38 40 40 38 38 37 29 37 35 35 36 37 38 39 39 39 40 40 42 41 41 41 41 40 40 39 -193 -193 -193 -193 41 40 42 44 42 41 40 39 39 39 39 41 37 39 36 37 37 37 37 38 36 38 37 40 40 42 44 42 42 44 44 44 43 44 45 45 45 44 43 44 48 51 45 45 45 47 46 46 46 45 46 52 54 55 -193 59 59 61 60 61 61 61 62 64 63 66 66 72 72 73 72 73 73 74 74 75 75 74 74 74 74 73 73 74 73 -193 -193 -193 78 77 79 78 79 79 79 80 78 78 78 80 78 79 77 76 76 76 77 76 76 76 74 75 75 77 77 75 77 76 78 79 77 80 77 79 78 77 79 79 80 79 78 80 82 81 85 81 82 81 80 80 80 79 79 76 0 0 0 0 0
    0 0 0 0 0 0 0 0 0 0 0 0 0 0 0 0 0 0 0 0 0 0 0 0 0 0 0 0 0 0 0 0 0 0 0 0 0 0 0 0 0 0 0 0 0 0 0 0 0 0 0 0 0 0 0 0 0 0 0 0 0 0 0 0 0 0 0 0 0 28 28 28 27 28 27 25 -209 -193 -193 -209 30 37 34 35 37 36 36 37 36 35 34 35 33 32 33 35 30 30 32 30 31 32 32 32 27 33 32 30 30 32 36 -193 -193 46 39 40 36 36 32 36 -209 38 38 40 40 41 40 41 39 38 39 39 38 37 36 38 36 38 -193 39 39 38 40 40 38 39 39 29 37 34 34 34 35 37 38 37 37 38 40 41 41 41 41 42 41 41 39 -209 -209 -193 40 40 37 42 44 41 41 40 39 39 39 39 42 38 39 37 38 38 38 38 39 37 39 38 41 42 42 44 42 43 45 44 44 43 44 44 44 44 43 42 43 48 50 44 44 45 47 46 46 46 45 45 52 54 54 -209 60 60 61 61 62 61 61 63 63 63 65 64 71 71 72 71 73 73 74 74 74 74 74 74 74 74 73 73 74 73 -193 -193 -193 77 77 78 78 78 79 78 79 78 78 78 79 78 79 77 77 76 76 77 76 76 76 74 75 75 77 77 76 77 76 79 80 78 80 78 78 78 -193 79 79 79 79 -193 79 81 80 85 81 82 80 80 80 80 79 79 76 0 0 0 0 0
    0 0 0 0 0 0 0 0 0 0 0 0 0 0 0 0 0 0 0 0 0 0 0 0 0 0 0 0 0 0 0 0 0 0 0 0 0 0 0 0 0 0 0 0 0 0 0 0 0 0 0 0 0 0 0 0 0 0 0 0 0 0 0 0 0 0 0 0 0 29 29 29 28 29 28 26 -193 -193 -193 -209 -193 37 34 36 37 37 36 37 36 36 34 35 33 32 33 35 30 30 32 30 30 32 32 32 27 33 32 30 30 30 33 38 -193 46 -193 42 -209 37 34 37 -209 38 38 41 40 41 41 41 39 38 39 39 39 36 36 37 36 38 -193 39 38 37 40 39 37 40 41 29 37 35 35 35 36 38 38 38 38 39 40 41 41 41 41 43 40 -193 39 -193 -193 39 39 39 35 42 44 42 40 41 40 40 40 39 43 39 40 37 38 39 39 39 40 38 40 40 42 43 42 44 42 43 46 44 44 43 45 45 44 43 42 42 42 49 47 43 44 45 46 46 45 45 44 45 51 53 54 -209 60 60 61 61 62 61 61 63 63 63 65 64 71 70 72 71 72 72 74 74 74 74 74 74 74 74 73 72 73 73 -193 -193 -193 77 76 78 78 78 78 78 79 78 -193 -193 -193 78 79 78 77 76 76 77 76 76 75 74 74 75 76 77 76 77 77 80 80 79 80 78 79 79 -193 -193 79 79 79 -193 79 82 80 85 81 82 80 80 80 80 79 79 76 0 0 0 0 0
    0 0 0 0 0 0 0 0 0 0 0 0 0 0 0 0 0 0 0 0 0 0 0 0 0 0 0 0 0 0 0 0 0 0 0 0 0 0 0 0 0 0 0 0 0 0 0 0 0 0 0 0 0 0 0 0 0 0 0 0 0 0 0 0 0 0 0 0 0 30 29 29 28 30 28 27 -193 -193 -193 -209 31 36 34 36 37 37 36 38 36 36 34 36 33 33 33 35 30 31 32 31 30 32 32 32 28 33 32 31 31 31 35 39 -193 46 41 44 42 39 37 38 40 39 38 40 39 40 40 40 38 37 38 38 39 36 36 37 34 37 -177 -193 38 36 39 39 37 41 41 30 36 35 35 36 36 38 39 38 39 39 40 42 41 42 42 45 41 41 41 43 42 42 42 42 38 43 45 43 41 42 41 40 40 39 45 40 40 37 38 40 40 41 41 39 41 41 43 44 42 44 41 43 45 43 42 43 44 44 43 43 42 42 42 50 46 43 43 45 46 45 45 45 44 46 51 52 53 -209 60 60 61 61 62 61 61 63 63 63 64 64 71 69 71 70 71 71 73 73 73 73 74 74 74 74 73 72 73 72 -193 -193 -193 76 76 78 77 77 78 77 78 78 -193 -193 -193 -193 79 -193 77 76 76 77 76 76 76 74 75 75 76 76 76 77 77 79 79 78 80 78 78 79 78 80 79 80 79 -193 -193 83 80 85 81 82 80 80 80 80 79 79 75 0 0 0 0 0
    0 0 0 0 0 0 0 0 0 0 0 0 0 0 0 0 0 0 0 0 0 0 0 0 0 0 0 0 0 0 0 0 0 0 0 0 0 0 0 0 0 0 0 0 0 0 0 0 0 0 0 0 0 0 0 0 0 0 0 0 0 0 0 0 0 0 0 0 0 30 30 30 29 30 28 27 27 -193 -193 -193 30 35 33 36 37 37 37 38 37 36 35 36 33 33 33 35 30 31 33 31 30 32 32 31 27 31 30 29 29 28 34 37 38 -193 39 42 39 38 38 38 39 38 38 39 37 38 39 39 36 35 37 38 39 36 36 37 34 37 -177 -193 -193 36 -193 39 -193 41 42 31 35 34 35 35 35 37 37 37 38 39 39 43 -193 45 46 53 -209 44 44 47 45 44 45 46 41 45 45 44 42 44 41 40 39 39 48 41 41 37 38 40 40 41 41 40 41 41 44 45 42 44 42 44 44 42 41 41 42 42 41 42 41 41 41 51 45 43 43 45 46 46 46 46 44 47 52 53 53 -209 60 60 61 61 62 61 61 63 63 63 64 64 71 68 71 70 71 71 72 72 73 73 74 73 74 74 73 73 74 73 -193 -193 -193 76 -193 77 77 76 77 77 -193 77 -193 -193 -193 -193 -193 -193 76 76 76 76 76 76 75 74 75 75 76 76 75 76 76 78 79 77 79 78 78 80 78 81 80 80 79 -193 -193 -193 80 85 81 82 80 80 80 79 78 78 75 0 0 0 0 0
    0 0 0 0 0 0 0 0 0 0 0 0 0 0 0 0 0 0 0 0 0 0 0 0 0 0 0 0 0 0 0 0 0 0 0 0 0 0 0 0 0 0 0 0 0 0 0 0 0 0 0 0 0 0 0 0 0 0 0 0 0 0 0 0 0 0 0 0 0 32 31 32 30 32 29 29 27 29 28 29 30 35 33 36 37 38 37 39 37 36 35 36 34 33 34 35 30 32 33 32 30 32 32 31 27 31 30 29 28 28 33 36 37 37 38 41 38 38 38 38 39 39 39 39 39 40 40 39 37 36 38 39 39 36 36 37 34 36 -177 -193 -193 36 39 39 -193 42 42 31 34 33 35 34 33 36 36 35 37 -209 -209 -209 -209 -209 -209 -209 -209 -209 -209 54 52 50 51 54 51 48 47 47 -193 45 -209 40 37 39 48 41 41 36 38 40 40 41 41 40 41 41 44 47 43 45 42 44 42 41 39 38 39 39 38 39 37 39 40 51 45 43 44 46 47 46 46 46 44 48 53 54 53 -209 -193 -193 61 61 62 61 62 63 63 63 65 65 71 68 71 70 71 70 71 71 72 71 74 73 74 75 74 74 74 73 74 75 -193 76 76 77 76 -193 -193 76 -193 77 -193 -193 -193 -193 -193 -193 76 75 75 76 76 75 75 74 75 75 75 76 75 76 76 77 78 76 78 77 77 79 78 81 80 79 79 -193 -193 82 79 85 80 81 80 79 79 79 78 78 75 0 0 0 0 0
    0 0 0 0 0 0 0 0 0 0 0 0 0 0 0 0 0 0 0 0 0 0 0 0 0 0 0 0 0 0 0 0 0 0 0 0 0 0 0 0 0 0 0 0 0 0 0 0 0 0 0 0 0 0 0 0 0 0 0 0 0 0 0 0 0 0 0 0 0 34 33 34 32 33 30 30 28 30 29 30 31 35 34 36 36 38 38 39 37 36 35 37 34 33 34 36 30 33 34 32 31 33 33 32 27 31 30 29 28 27 33 36 -193 -193 39 41 38 38 38 39 40 39 39 39 39 41 39 38 37 37 38 39 39 36 35 37 34 36 -177 37 37 36 39 39 -193 42 42 31 34 31 35 35 35 37 38 36 38 -209 -209 -209 -209 -209 -209 -209 -193 -209 -193 54 53 52 52 54 50 49 49 50 46 50 49 -209 -193 39 51 42 41 35 37 40 40 41 41 40 41 41 44 47 42 43 41 42 40 39 37 36 38 38 36 37 35 37 39 51 44 43 44 46 47 46 46 46 44 49 52 54 53 -209 -193 60 61 62 62 62 62 64 64 64 65 66 71 68 71 70 70 70 71 71 72 70 74 73 75 76 75 75 76 74 74 75 -193 -193 -193 77 -193 -193 -193 -193 -193 -193 180 180 180 175 -193 -193 75 75 75 75 75 75 75 73 74 74 75 76 75 76 75 77 78 76 77 78 77 79 77 81 80 80 80 78 79 82 78 84 80 81 80 79 79 79 78 78 75 0 0 0 0 0
    0 0 0 0 0 0 0 0 0 0 0 0 0 0 0 0 0 0 0 0 0 0 0 0 0 0 0 0 0 0 0 0 0 0 0 0 0 0 0 0 0 0 0 0 0 0 0 0 0 0 0 0 0 0 0 0 0 0 0 0 0 0 0 0 0 0 0 0 0 35 34 35 32 34 30 32 29 31 30 31 32 36 34 36 36 37 37 39 37 36 34 37 34 33 35 36 31 34 35 34 32 35 34 32 27 31 30 27 27 26 30 33 -193 36 38 39 36 37 39 39 40 39 40 40 40 42 39 38 37 37 38 39 39 36 35 37 35 36 -177 37 37 35 38 39 -193 41 42 31 33 29 33 33 35 37 39 37 39 -209 -193 -193 -209 -209 -209 -209 -193 -193 -193 55 54 54 -193 -209 -209 50 50 52 51 54 -209 -209 -209 -193 -209 42 42 35 37 39 40 40 41 40 40 40 44 47 42 42 -193 40 37 37 36 35 36 36 35 35 33 37 39 50 44 43 44 46 47 46 46 46 43 48 52 53 52 -209 60 61 62 62 63 62 63 64 64 64 65 66 71 68 71 70 71 70 71 71 71 70 74 73 75 76 75 75 76 75 76 76 -193 77 76 78 77 75 76 76 -193 -193 -193 -193 179 175 -193 -193 76 75 75 75 75 75 75 73 74 74 74 75 75 75 74 76 78 76 78 80 78 81 80 84 82 81 80 -193 78 81 78 84 79 80 79 78 79 78 78 78 74 0 0 0 0 0
    0 0 0 0 0 0 0 0 0 0 0 0 0 0 0 0 0 0 0 0 0 0 0 0 0 0 0 0 0 0 0 0 0 0 0 0 0 0 0 0 0 0 0 0 0 0 0 0 0 0 0 0 0 0 0 0 0 0 0 0 0 0 0 0 0 0 0 0 0 36 35 35 33 35 31 33 30 32 30 31 32 36 34 36 36 37 37 38 37 36 34 37 34 34 35 37 32 34 36 35 32 36 35 33 28 32 30 27 26 25 31 -209 -209 -193 37 -209 -193 36 -193 39 40 39 40 41 41 45 40 38 37 38 38 39 39 36 35 37 35 36 -193 37 37 35 38 38 37 41 42 31 32 28 31 32 34 36 39 37 -193 -193 -193 -193 -209 -209 -193 -209 51 -193 53 54 52 52 -193 -193 -193 51 51 52 54 55 60 61 -193 66 69 41 40 34 36 38 39 39 39 39 39 36 43 46 41 39 38 39 37 36 36 35 36 36 34 35 32 37 39 50 44 43 44 46 46 45 45 45 43 48 51 51 51 -209 60 61 62 63 63 63 63 64 64 64 66 66 70 68 70 70 71 70 71 71 71 70 74 73 74 76 75 75 77 76 76 77 76 78 76 79 78 75 76 76 77 78 -193 -193 -193 -193 81 77 77 75 75 75 75 75 74 73 74 73 74 74 74 73 73 75 77 75 77 79 77 81 79 83 81 80 79 77 77 81 77 84 79 80 79 79 78 78 77 77 74 0 0 0 0 0
    0 0 0 0 0 0 0 0 0 0 0 0 0 0 0 0 0 0 0 0 0 0 0 0 0 0 0 0 0 0 0 0 0 0 0 0 0 0 0 0 0 0 0 0 0 0 0 0 0 0 0 0 0 0 0 0 0 0 0 0 0 0 0 0 0 0 0 0 0 37 36 37 35 36 33 35 31 34 31 32 32 36 34 36 35 37 36 38 37 35 33 37 34 34 35 37 33 35 37 36 33 37 37 35 29 34 32 27 27 26 33 -209 -209 -193 36 -209 -193 36 -193 40 40 41 41 41 41 45 40 38 38 38 38 39 40 36 35 37 35 36 -193 37 37 35 39 39 37 41 42 32 32 28 31 33 35 37 40 39 -193 -193 -193 -193 -193 -209 -193 -209 -193 52 50 -193 -193 -193 -193 -209 -209 -193 -193 51 55 -209 62 65 65 68 70 36 40 32 35 37 37 37 37 37 38 31 43 45 41 38 38 38 37 36 37 36 36 36 33 34 31 37 39 50 44 44 44 46 46 45 45 45 43 48 50 51 50 -209 59 61 62 63 62 62 63 64 64 64 65 66 70 68 70 70 70 70 70 71 71 69 74 72 74 76 75 75 77 76 77 78 77 78 77 80 79 75 77 77 78 79 -193 -193 78 78 82 77 77 76 75 76 76 75 74 -209 74 73 74 -209 -193 -209 -193 75 77 74 76 79 77 80 77 83 80 79 -193 -209 75 79 76 83 78 79 79 78 78 78 77 77 74 0 0 0 0 0
    0 0 0 0 0 0 0 0 0 0 0 0 0 0 0 0 0 0 0 0 0 0 0 0 0 0 0 0 0 0 0 0 0 0 0 0 0 0 0 0 0 0 0 0 0 0 0 0 0 0 0 0 0 0 0 0 0 0 0 0 0 0 0 0 0 0 0 0 0 38 37 38 36 37 34 36 32 34 32 32 32 36 34 36 35 36 36 38 37 35 32 37 34 34 36 37 34 36 38 37 34 38 37 35 30 35 32 26 27 26 33 -209 35 31 -209 -193 33 36 -193 41 40 40 40 40 40 42 39 37 37 38 38 39 40 36 35 38 35 36 38 37 37 35 38 38 37 41 41 32 31 27 30 32 36 38 41 -193 46 50 47 -193 45 -193 -193 -209 -193 -193 -193 -193 -193 -193 -193 -209 -209 -193 -193 47 53 -193 62 65 66 69 69 32 39 32 34 35 36 36 36 36 37 28 42 44 37 37 38 37 37 35 36 36 35 36 33 33 32 39 40 50 44 44 45 46 46 45 45 45 43 48 50 51 50 -209 59 60 60 63 -193 62 62 63 63 63 64 65 70 67 70 69 70 69 70 70 70 68 73 71 74 76 75 75 78 77 78 78 78 79 77 80 78 75 77 77 79 79 78 81 84 -209 -193 -193 -193 -193 -193 -193 -193 -209 74 -209 75 74 74 73 75 -209 73 76 80 -209 -209 -193 -209 -209 76 82 80 78 -209 -209 -209 -193 76 83 77 78 78 77 77 77 76 76 73 0 0 0 0 0
    0 0 0 0 0 0 0 0 0 0 0 0 0 0 0 0 0 0 0 0 0 0 0 0 0 0 0 0 0 0 0 0 0 0 0 0 0 0 0 0 0 0 0 0 0 0 0 0 0 0 0 0 0 0 0 0 0 0 0 0 0 0 0 0 0 0 0 0 0 38 37 38 36 37 33 36 32 33 31 31 31 36 34 35 34 35 35 37 36 35 31 37 35 34 36 37 35 36 38 37 35 38 38 36 31 35 34 25 26 26 33 -209 33 26 -193 -193 32 36 -193 40 39 39 39 39 40 40 38 37 37 38 38 39 40 36 35 38 35 36 37 37 37 35 38 38 -193 41 41 32 30 25 26 27 34 35 41 -209 -209 52 49 49 45 -209 -193 -209 -209 -209 -209 -193 -193 99 -193 -193 -209 -193 -209 44 50 -209 -209 -209 66 69 -193 31 38 32 33 34 34 34 34 35 36 26 41 43 36 36 38 37 37 35 36 36 35 36 34 33 33 39 40 50 45 45 45 46 47 45 45 45 43 49 51 52 50 -209 59 -193 -209 -209 -193 61 61 62 63 64 64 66 70 67 69 69 70 69 70 70 70 67 73 71 75 76 76 77 80 79 80 80 79 80 79 83 81 77 81 81 84 83 84 87 -209 -177 118 121 -193 -193 -193 -193 -209 -209 -193 -209 76 -193 75 75 78 -209 -209 -209 -209 -209 -209 -209 -209 -209 74 83 81 78 76 74 74 77 75 83 77 78 77 77 77 76 76 75 72 0 0 0 0 0
    0 0 0 0 0 0 0 0 0 0 0 0 0 0 0 0 0 0 0 0 0 0 0 0 0 0 0 0 0 0 0 0 0 0 0 0 0 0 0 0 0 0 0 0 0 0 0 0 0 0 0 0 0 0 0 0 0 0 0 0 0 0 0 0 0 0 0 0 0 38 38 38 36 37 33 36 31 34 30 30 30 36 33 34 34 35 34 37 36 35 31 38 35 35 37 38 36 37 39 38 36 39 38 38 31 36 36 20 17 14 -209 -209 28 26 29 29 33 37 39 40 40 39 40 40 41 40 38 38 38 38 38 39 40 35 35 38 34 36 37 37 36 35 38 38 -193 41 41 34 30 23 24 -209 35 34 39 -209 -209 -193 -193 -193 44 -209 -193 -209 -209 -209 -209 101 98 98 97 97 -193 -193 -193 -193 47 -193 -209 -209 -209 -209 -193 31 38 32 33 34 34 34 33 35 35 26 41 41 37 37 39 38 38 36 37 37 36 37 35 33 33 40 41 50 45 45 45 46 47 45 45 45 43 50 52 53 -193 -209 59 -193 -209 -209 -193 -193 61 62 63 65 65 67 70 68 70 70 70 70 70 70 70 68 74 73 76 78 77 78 83 81 82 82 82 84 83 86 85 82 86 86 -209 122 123 -193 122 117 121 123 124 122 121 121 121 122 130 -209 -209 -209 -209 -209 -209 -209 -209 117 102 103 103 102 -209 -209 75 86 85 -209 75 -193 72 74 74 81 76 77 77 76 76 75 75 75 70 0 0 0 0 0
    0 0 0 0 0 0 0 0 0 0 0 0 0 0 0 0 0 0 0 0 0 0 0 0 0 0 0 0 0 0 0 0 0 0 0 0 0 0 0 0 0 0 0 0 0 0 0 0 0 0 0 0 0 0 0 0 0 0 0 0 0 0 0 0 0 0 0 0 0 38 38 39 36 37 35 36 32 36 31 31 29 37 34 34 34 34 33 36 36 35 30 39 36 36 37 38 37 37 39 38 37 39 39 38 32 36 36 21 19 9 13 -193 27 26 30 30 35 39 40 41 41 40 40 40 41 40 38 38 38 38 38 39 39 34 34 38 34 36 36 36 36 34 37 37 35 40 39 35 30 20 22 -209 -209 -193 40 -209 -209 -193 -193 -193 -193 -193 -193 -193 106 -209 -209 -193 98 99 98 98 97 97 -193 -193 -193 -209 -209 -209 -209 -209 30 32 38 32 33 33 33 33 33 35 35 27 40 40 38 38 39 39 39 37 38 38 38 39 37 35 35 40 41 51 45 45 45 46 46 45 45 46 43 50 52 53 -209 779 59 -193 -209 -209 -193 -193 61 62 63 65 65 68 71 69 70 71 71 71 72 72 72 70 75 75 79 79 78 80 84 84 85 85 85 87 87 88 88 87 100 107 107 110 112 109 116 114 119 121 121 121 121 121 120 122 129 134 134 -193 -209 -209 -209 -209 -209 -209 103 103 103 102 101 -193 -193 -193 -193 83 77 -209 -209 -209 74 80 75 76 76 75 74 74 74 74 68 0 0 0 0 0
    0 0 0 0 0 0 0 0 0 0 0 0 0 0 0 0 0 0 0 0 0 0 0 0 0 0 0 0 0 0 0 0 0 0 0 0 0 0 0 0 0 0 0 0 0 0 0 0 0 0 0 0 0 0 0 0 0 0 0 0 0 0 0 0 0 0 0 0 0 38 37 39 36 37 36 36 35 38 33 32 30 38 34 34 34 34 32 36 36 35 30 39 38 37 38 39 39 38 40 39 38 39 39 39 34 36 34 21 20 9 11 19 -209 24 30 31 37 -209 41 41 -193 -193 -193 40 40 39 37 38 38 38 38 39 39 35 35 38 34 36 36 36 35 34 37 37 34 39 37 35 29 21 23 -209 37 32 39 -209 -209 -193 -193 -193 -193 109 -193 106 106 106 -209 -193 98 100 98 99 98 99 -209 -209 -209 -209 -209 -209 -209 -209 31 34 38 33 33 34 34 34 33 36 36 27 41 41 40 38 42 42 42 39 39 41 41 42 42 37 37 41 43 51 44 45 45 46 46 45 45 46 43 49 51 52 -193 777 59 60 -193 -193 -193 -193 61 61 63 65 65 68 71 69 -193 72 72 72 73 73 73 71 75 75 79 80 79 82 86 86 88 88 89 92 94 96 102 106 106 108 109 109 110 110 112 113 115 119 120 120 120 120 120 121 126 126 123 -193 -209 -193 141 142 -209 -209 104 103 103 102 102 101 96 93 91 -193 76 -209 -209 -209 -209 -209 74 74 74 74 73 72 72 72 60 0 0 0 0 0
    0 0 0 0 0 0 0 0 0 0 0 0 0 0 0 0 0 0 0 0 0 0 0 0 0 0 0 0 0 0 0 0 0 0 0 0 0 0 0 0 0 0 0 0 0 0 0 0 0 0 0 0 0 0 0 0 0 0 0 0 0 0 0 0 0 0 0 0 0 36 36 38 36 36 36 35 35 39 34 33 30 38 34 34 34 34 32 35 36 35 30 39 39 38 39 40 40 39 40 39 38 39 39 38 36 35 34 22 23 10 11 19 -209 24 31 33 37 -209 41 -209 -193 -193 -193 40 39 38 37 38 38 37 38 39 39 35 35 37 34 35 35 36 35 33 37 37 34 39 36 37 30 22 24 -193 34 30 37 -209 -193 -193 -193 -193 -193 -209 -193 -193 105 -209 -209 -209 98 99 98 99 -193 99 -209 -209 -209 -209 -209 -209 -193 -209 31 35 39 34 34 35 35 35 34 37 37 28 41 42 42 40 44 44 45 41 43 44 44 46 46 38 39 43 45 52 45 45 45 46 47 45 45 46 43 49 50 52 -193 -209 60 61 62 -193 -193 -193 62 62 63 65 63 67 71 69 71 71 72 72 73 73 73 72 76 76 80 82 84 87 93 91 95 99 100 102 105 105 105 107 107 110 110 110 111 111 111 112 114 118 118 119 119 119 118 120 125 125 122 -209 -209 -209 -209 142 -209 -209 103 102 102 102 101 100 97 94 93 -193 -209 -209 -209 -209 -209 -209 -209 -209 -209 -209 60 61 60 57 57 0 0 0 0 0
    0 0 0 0 0 0 0 0 0 0 0 0 0 0 0 0 0 0 0 0 0 0 0 0 0 0 0 0 0 0 0 0 0 0 0 0 0 0 0 0 0 0 0 0 0 0 0 0 0 0 0 0 0 0 0 0 0 0 0 0 0 0 0 0 0 0 0 0 0 36 36 39 36 37 36 36 37 39 35 34 30 38 34 34 34 34 32 35 36 36 30 40 39 39 39 40 40 39 40 39 38 38 38 38 35 33 33 25 25 -209 -209 -209 -209 -193 32 34 39 -193 40 -209 -209 -193 40 41 39 38 37 38 38 38 38 39 39 34 36 37 33 35 35 35 34 32 36 36 33 39 35 38 31 23 -209 -193 -193 -193 35 -209 -209 -209 -193 -209 51 -209 -209 -209 -209 213 214 215 -209 -193 -193 99 -193 99 -209 -209 -209 -209 -209 -209 -209 -209 31 35 39 35 35 36 36 36 35 38 39 31 41 43 43 41 44 44 45 42 44 45 47 47 48 42 43 48 47 53 45 45 45 47 47 46 46 46 43 50 51 53 -193 -209 60 62 63 -193 64 63 -193 64 66 69 69 70 72 70 71 72 73 72 73 74 74 73 77 80 85 86 88 99 -193 104 101 103 105 105 106 106 106 108 108 110 111 109 112 111 112 112 113 117 116 118 118 118 117 119 124 123 120 -209 -209 -209 -209 -209 -209 -209 102 101 101 101 100 99 96 93 92 -193 -209 -209 -209 -209 -209 27 33 34 -193 46 54 56 55 55 55 0 0 0 0 0
    0 0 0 0 0 0 0 0 0 0 0 0 0 0 0 0 0 0 0 0 0 0 0 0 0 0 0 0 0 0 0 0 0 0 0 0 0 0 0 0 0 0 0 0 0 0 0 0 0 0 0 0 0 0 0 0 0 0 0 0 0 0 0 0 0 0 0 0 0 35 36 39 37 38 37 37 38 40 36 35 31 38 35 34 34 35 32 36 36 36 29 40 40 40 40 40 41 39 40 39 38 37 36 36 33 29 29 26 25 -193 -193 17 -209 -193 33 35 40 41 -193 -209 -209 -193 40 41 39 37 37 38 37 37 38 38 38 34 35 37 33 35 35 35 34 31 36 36 32 39 35 39 32 16 -209 -209 -209 -193 33 -209 -209 -209 -209 -209 -209 -209 -209 -209 -209 213 215 213 -209 -193 -193 99 -193 -209 -193 -209 -209 -209 -209 -193 -193 -209 31 36 39 36 36 37 37 37 36 39 40 35 42 43 43 41 43 44 44 42 42 43 45 44 44 42 43 47 47 53 45 45 45 47 48 46 46 47 44 51 52 54 54 -209 60 62 -193 -193 65 64 -193 66 -193 73 73 72 73 71 73 73 74 73 74 75 76 75 82 87 90 93 102 107 108 111 106 105 107 106 107 107 107 108 108 111 112 111 115 114 114 114 115 117 117 118 118 117 116 117 122 118 117 -209 -209 -209 -209 -209 -209 -209 100 101 100 100 98 98 96 94 93 95 -193 -209 -209 -209 -209 30 36 36 -193 48 54 57 56 55 55 0 0 0 0 0
    0 0 0 0 0 0 0 0 0 0 0 0 0 0 0 0 0 0 0 0 0 0 0 0 0 0 0 0 0 0 0 0 0 0 0 0 0 0 0 0 0 0 0 0 0 0 0 0 0 0 0 0 0 0 0 0 0 0 0 0 0 0 0 0 0 0 0 0 0 35 35 39 36 38 37 37 39 41 37 35 32 39 35 35 35 35 32 36 37 36 29 40 42 41 41 41 42 40 40 39 38 36 36 35 32 29 31 28 27 27 23 -209 -209 31 37 38 40 42 -193 -209 -209 40 40 40 39 37 37 37 37 37 38 38 38 33 35 37 33 35 34 34 33 31 35 36 31 38 33 40 -209 -209 -209 -209 -209 -209 35 -209 -209 -209 -209 -209 -209 -209 -209 -209 -193 212 214 -193 -209 -209 -209 -209 -193 -209 29 30 -209 -209 -209 -209 -193 -193 31 36 40 -193 36 37 38 37 37 40 40 36 41 42 42 41 42 43 43 43 42 43 45 44 44 43 44 45 44 53 45 45 45 46 47 46 46 47 44 50 52 54 55 -209 -209 -209 -209 -193 66 66 -193 -193 -193 74 75 74 76 74 75 74 75 75 77 79 81 80 86 90 99 104 105 111 111 112 110 108 109 108 109 109 108 110 109 112 113 112 116 117 117 116 117 119 118 120 120 118 115 111 -193 -209 -209 89 -209 -209 -209 -209 -193 -209 100 100 99 98 98 97 96 95 93 95 -225 92 95 96 92 -209 -209 -209 -209 52 55 57 56 55 55 0 0 0 0 0
    0 0 0 0 0 0 0 0 0 0 0 0 0 0 0 0 0 0 0 0 0 0 0 0 0 0 0 0 0 0 0 0 0 0 0 0 0 0 0 0 0 0 0 0 0 0 0 0 0 0 0 0 0 0 0 0 0 0 0 0 0 0 0 0 0 0 0 0 0 35 35 39 37 39 38 39 41 42 37 36 33 39 35 35 35 35 33 37 37 37 29 40 41 40 40 40 41 39 39 38 37 35 35 35 33 30 33 32 30 32 31 35 39 38 39 40 40 42 -193 -193 -209 41 41 40 38 37 37 38 37 37 37 37 38 34 34 36 32 34 34 34 33 30 35 35 30 38 32 40 -209 -209 -209 -209 -209 -209 -193 -209 -209 -209 -209 -209 -209 -209 -209 -209 -209 213 -209 -209 -209 -209 -209 -209 -193 -209 29 29 -209 -209 -209 -209 -193 -193 32 36 -193 -193 37 37 38 38 37 40 41 36 41 41 42 41 41 43 44 43 43 44 47 46 45 45 47 46 45 53 45 45 45 46 47 46 47 48 45 52 54 55 58 -209 -193 -193 -193 67 68 -193 -193 71 75 76 77 76 79 76 77 76 78 79 82 85 86 86 89 96 104 106 104 107 108 110 109 108 109 108 109 110 109 112 110 113 113 112 116 116 117 116 115 115 114 117 116 111 107 100 94 -209 -209 82 74 -209 -209 -209 -193 -193 99 99 98 98 98 97 96 96 93 95 -225 93 95 94 91 90 86 88 86 -209 57 59 56 55 55 0 0 0 0 0
    0 0 0 0 0 0 0 0 0 0 0 0 0 0 0 0 0 0 0 0 0 0 0 0 0 0 0 0 0 0 0 0 0 0 0 0 0 0 0 0 0 0 0 0 0 0 0 0 0 0 0 0 0 0 0 0 0 0 0 0 0 0 0 0 0 0 0 0 0 34 35 39 37 40 40 40 41 44 38 37 34 39 36 36 36 36 33 37 38 37 29 40 41 40 40 40 41 39 38 38 37 35 35 34 33 31 32 31 30 31 31 34 38 37 39 40 40 41 40 40 41 40 41 40 38 38 38 38 37 37 38 37 -193 34 34 35 32 34 33 33 32 29 35 35 29 38 31 40 -209 -209 -209 -209 -209 -209 36 -209 -209 -193 -209 -193 -209 -209 -209 -209 -209 215 -209 -209 -209 -209 -209 -209 35 -209 -193 28 -209 -209 -209 -209 -193 -193 32 37 -193 -193 37 38 38 38 38 41 41 37 42 42 43 41 42 43 44 44 44 45 47 46 47 51 55 53 52 55 49 49 47 48 48 48 50 50 47 53 55 58 63 65 66 67 67 69 71 71 -193 74 77 77 78 77 81 78 80 81 83 84 86 88 89 90 94 103 107 108 107 109 110 111 110 109 110 108 109 111 110 113 110 113 113 111 115 116 116 117 115 118 116 120 121 -209 99 93 -209 -209 -209 77 72 72 -209 -209 -193 -209 98 99 98 98 98 98 98 98 94 -225 -225 -225 98 -225 -209 -209 -209 -209 -209 -209 56 56 56 55 55 0 0 0 0 0
    0 0 0 0 0 0 0 0 0 0 0 0 0 0 0 0 0 0 0 0 0 0 0 0 0 0 0 0 0 0 0 0 0 0 0 0 0 0 0 0 0 0 0 0 0 0 0 0 0 0 0 0 0 0 0 0 0 0 0 0 0 0 0 0 0 0 0 0 0 34 35 39 38 41 41 41 42 45 39 38 35 39 36 36 36 36 34 38 38 37 30 40 40 39 39 40 40 39 38 37 37 35 35 33 32 30 32 31 31 32 31 33 37 36 37 38 38 38 38 38 38 39 41 40 38 38 39 39 38 38 38 37 -193 34 34 35 32 33 33 33 31 28 34 34 27 39 30 38 -209 -209 -209 -209 -193 33 35 37 34 36 32 34 35 -209 -209 -209 -209 -209 -209 -209 -209 -193 -209 -209 35 -209 -193 27 -209 -209 -209 -209 -193 -209 33 37 -177 -193 37 38 39 38 38 41 42 38 42 43 43 41 42 43 43 44 43 44 45 44 44 45 50 50 47 54 49 49 48 48 49 49 52 52 50 54 56 61 68 69 69 70 69 70 72 73 76 77 83 82 84 83 85 85 87 88 88 89 89 92 96 99 102 105 109 110 109 110 111 113 112 109 111 109 109 111 109 111 108 110 110 108 109 109 108 109 106 105 104 106 107 103 90 87 75 73 71 72 69 71 -193 70 -209 -209 98 99 99 99 99 99 99 99 95 98 -225 -225 -225 -225 -225 -225 -225 -225 -225 -225 -225 -225 -225 -225 55 0 0 0 0 0
    0 0 0 0 0 0 0 0 0 0 0 0 0 0 0 0 0 0 0 0 0 0 0 0 0 0 0 0 0 0 0 0 0 0 0 0 0 0 0 0 0 0 0 0 0 0 0 0 0 0 0 0 0 0 0 0 0 0 0 0 0 0 0 0 0 0 0 0 0 33 35 39 39 41 42 42 43 45 40 40 36 39 36 36 36 36 34 38 38 37 30 39 40 39 39 39 40 38 38 37 36 35 34 33 33 31 33 32 32 34 33 34 37 36 37 37 38 37 36 37 38 38 40 39 37 37 38 38 37 38 37 36 -193 34 33 35 32 33 32 32 31 28 33 33 -193 -209 31 -209 -209 35 -193 -209 -193 36 36 37 34 36 31 34 35 -193 -209 -209 -209 -209 -209 -209 -209 -209 -193 -209 -193 -209 -193 -193 -209 -209 -209 -209 -209 -209 33 37 -177 -193 38 38 39 38 38 41 42 38 42 43 43 41 42 42 43 44 42 42 42 39 38 40 41 41 40 51 48 48 47 48 50 51 54 54 52 56 59 65 70 70 70 71 69 71 73 76 80 82 85 85 87 87 88 89 91 91 90 92 -193 96 102 103 104 107 111 113 111 111 111 112 113 109 111 109 108 110 108 109 106 107 109 107 108 108 106 107 105 103 108 105 106 -209 80 75 70 70 70 72 69 71 -193 -209 -193 -193 98 100 99 99 99 100 99 100 96 100 -225 -225 -225 -225 -225 -225 -225 -225 -225 -225 -225 -225 -225 -225 -225 0 0 0 0 0
    0 0 0 0 0 0 0 0 0 0 0 0 0 0 0 0 0 0 0 0 0 0 0 0 0 0 0 0 0 0 0 0 0 0 0 0 0 0 0 0 0 0 0 0 0 0 0 0 0 0 0 0 0 0 0 0 0 0 0 0 0 0 0 0 0 0 0 0 0 33 35 40 40 41 42 42 43 44 40 40 37 39 36 36 36 36 35 38 38 36 30 39 40 39 38 39 40 38 38 37 36 35 35 33 33 32 33 33 32 34 35 34 36 36 37 36 36 36 35 35 37 38 39 37 36 37 38 38 37 38 37 36 39 34 33 34 32 32 31 31 30 27 32 32 22 -209 -209 -209 -209 36 -193 -193 37 37 36 37 31 34 29 32 31 -193 -209 -209 -209 -209 0 -209 -209 -209 -209 -209 -193 -193 28 30 -209 -209 -209 -209 -209 -209 33 36 -177 37 37 38 38 38 38 41 41 38 42 42 -193 -209 -193 41 41 41 36 30 27 27 29 35 36 37 39 50 49 49 48 50 52 52 55 55 55 57 62 67 71 71 71 72 70 71 75 77 83 84 86 86 88 88 88 90 91 91 92 96 -193 103 106 106 107 109 115 114 112 111 112 113 113 110 111 108 108 110 108 106 104 104 106 104 104 103 101 100 102 99 -193 98 -209 75 74 73 71 71 72 74 72 73 80 -209 96 101 98 101 99 100 100 100 100 100 96 101 -225 -225 -225 -225 -225 -225 -225 -225 -225 -225 -225 -225 -225 -225 -225 0 0 0 0 0
    0 0 0 0 0 0 0 0 0 0 0 0 0 0 0 0 0 0 0 0 0 0 0 0 0 0 0 0 0 0 0 0 0 0 0 0 0 0 0 0 0 0 0 0 0 0 0 0 0 0 0 0 0 0 0 0 0 0 0 0 0 0 0 0 0 0 0 0 0 34 36 40 40 41 41 42 42 43 41 39 37 39 36 35 35 35 33 36 38 35 28 37 39 38 37 38 38 36 37 37 36 35 35 33 32 33 34 33 32 33 33 34 35 35 36 34 35 35 34 34 34 38 38 36 38 39 39 39 38 38 37 36 39 33 32 34 31 32 31 31 30 27 32 32 21 -209 -209 -209 -209 36 -193 -193 37 36 34 33 31 35 31 34 34 35 -193 -209 -209 -209 -209 -193 -209 -209 -209 -193 44 -209 -193 36 -209 -209 -209 -209 -209 -209 33 36 -177 37 37 38 38 38 38 41 42 39 42 43 43 -193 41 41 40 40 36 31 28 28 29 34 34 35 39 49 50 51 49 50 52 53 56 57 57 59 66 70 73 73 72 73 71 72 77 80 85 85 87 87 88 88 89 91 92 92 93 99 101 104 106 107 109 110 116 113 112 111 112 113 113 109 110 107 107 108 106 105 101 102 103 101 101 100 100 96 93 92 -209 -209 -209 73 72 72 70 -193 72 74 71 73 -209 -209 97 -193 100 -193 101 102 101 101 101 101 98 103 -225 -225 -225 -225 -225 -225 -225 -225 -225 -225 -225 -225 -225 -225 -225 0 0 0 0 0
    0 0 0 0 0 0 0 0 0 0 0 0 0 0 0 0 0 0 0 0 0 0 0 0 0 0 0 0 0 0 0 0 0 0 0 0 0 0 0 0 0 0 0 0 0 0 0 0 0 0 0 0 0 0 0 0 0 0 0 0 0 0 0 0 0 0 0 0 0 34 36 40 40 41 42 42 41 43 41 40 38 39 38 36 37 36 35 37 38 36 31 37 39 37 37 37 36 35 37 37 36 35 35 33 33 35 35 35 33 34 34 35 36 36 37 34 34 35 34 33 34 37 38 36 39 39 39 39 38 38 37 36 39 33 31 34 31 31 31 30 29 27 32 32 21 -209 -209 -209 -209 35 37 -193 37 35 31 31 33 36 34 36 37 36 38 40 -209 -209 41 42 -209 -209 -209 -193 -193 -209 -193 38 -193 36 35 -193 -193 40 33 36 -177 37 37 37 38 38 38 42 42 39 43 45 46 43 43 42 42 43 -209 -209 30 29 29 33 32 33 39 48 51 52 50 51 53 54 58 68 64 63 68 71 74 74 74 75 73 75 83 84 86 87 88 88 90 90 90 92 93 94 95 100 102 104 107 107 108 109 115 111 110 109 110 111 111 108 108 106 106 107 106 105 100 99 101 101 101 100 100 94 89 -209 -225 -225 69 71 71 70 68 -209 70 73 70 73 87 -209 -193 103 102 104 103 104 103 103 103 104 100 105 -225 -225 -225 -225 -225 -225 -225 -225 -225 -225 -225 -225 -225 -225 -225 0 0 0 0 0
    0 0 0 0 0 0 0 0 0 0 0 0 0 0 0 0 0 0 0 0 0 0 0 0 0 0 0 0 0 0 0 0 0 0 0 0 0 0 0 0 0 0 0 0 0 0 0 0 0 0 0 0 0 0 0 0 0 0 0 0 0 0 0 0 0 0 0 0 0 35 36 39 39 40 41 40 40 41 40 39 39 40 38 36 37 37 36 38 39 37 34 37 39 37 36 36 35 35 36 36 35 33 35 34 34 36 36 37 34 35 35 36 37 37 37 35 35 35 35 35 36 38 38 36 38 38 38 38 37 37 35 35 38 32 31 33 31 31 31 30 29 27 32 32 20 -209 -209 -209 -209 36 37 36 37 36 31 30 36 35 34 36 37 37 37 39 40 -193 41 41 -209 -209 -209 -209 -209 -209 -209 40 -209 39 38 43 42 40 33 36 -193 -193 37 38 38 38 38 42 43 40 45 51 51 49 48 45 -209 -209 94 -209 -209 -193 29 31 30 30 38 45 53 54 50 52 54 55 63 73 72 72 70 72 75 76 77 76 73 77 84 84 87 87 88 89 90 91 91 93 94 95 97 101 103 104 107 107 108 109 114 111 109 108 108 108 109 106 106 105 104 105 104 103 100 97 101 100 100 100 99 91 88 -225 -225 -225 -225 -209 -193 -193 -193 -209 -193 -193 70 74 -225 -225 -193 105 104 106 105 106 105 105 104 105 102 105 -225 -225 -225 -225 -225 -225 -225 -225 -225 -225 -225 -225 -225 -225 -225 0 0 0 0 0
    0 0 0 0 0 0 0 0 0 0 0 0 0 0 0 0 0 0 0 0 0 0 0 0 0 0 0 0 0 0 0 0 0 0 0 0 0 0 0 0 0 0 0 0 0 0 0 0 0 0 0 0 0 0 0 0 0 0 0 0 0 0 0 0 0 0 0 0 0 36 37 38 38 39 41 40 39 40 39 39 40 40 38 36 38 37 37 38 39 37 36 37 40 36 35 34 31 33 35 34 34 31 34 35 34 37 36 37 35 35 35 36 36 37 37 36 35 36 36 37 38 39 39 38 40 40 40 40 38 38 36 36 38 32 31 33 30 31 30 30 29 27 32 31 15 -209 -209 -209 -209 -209 36 35 37 37 31 32 37 36 36 37 38 37 38 40 41 40 41 42 -209 -209 -209 -209 -209 -209 -209 -193 40 38 37 41 41 40 33 36 -193 -193 37 38 39 39 39 43 45 42 50 55 -193 -193 -193 -209 -193 93 94 98 -209 -193 -193 29 28 29 37 43 56 62 53 54 57 56 69 78 74 74 73 73 76 78 78 77 74 77 84 84 86 87 87 88 90 90 92 93 95 96 98 101 102 104 105 105 107 108 114 110 108 106 106 107 107 104 104 102 101 102 103 102 100 96 101 101 101 101 101 92 90 -225 -225 -209 -209 -209 -209 -209 -209 -209 -193 75 74 81 -225 -225 103 108 106 108 107 107 107 107 105 106 101 105 -225 -225 -225 -225 -225 -225 -225 -225 -225 -225 -225 -225 -225 -225 -225 0 0 0 0 0
    0 0 0 0 0 0 0 0 0 0 0 0 0 0 0 0 0 0 0 0 0 0 0 0 0 0 0 0 0 0 0 0 0 0 0 0 0 0 0 0 0 0 0 0 0 0 0 0 0 0 0 0 0 0 0 0 0 0 0 0 0 0 0 0 0 0 0 0 0 36 37 38 38 39 40 39 39 40 39 38 39 40 38 36 38 38 37 38 39 37 36 37 40 37 37 35 34 36 37 35 34 30 34 34 32 36 36 36 34 35 35 35 36 37 38 36 37 38 38 39 40 40 41 40 41 41 41 41 40 39 38 37 38 33 32 33 31 31 31 31 30 27 32 32 9 -209 -209 -209 -209 -209 35 35 37 38 31 33 38 36 37 38 38 38 38 40 41 40 41 42 -209 -209 -209 -209 -209 -209 -209 -193 40 39 37 40 40 40 33 36 -193 37 37 38 39 39 39 44 47 44 53 59 72 -193 -193 85 92 93 93 96 -209 -209 -193 28 26 27 35 42 -209 69 55 56 60 61 70 84 77 76 75 74 77 80 80 79 74 77 84 83 86 87 87 88 90 91 93 94 96 96 98 101 102 103 105 105 107 107 112 109 108 106 106 106 106 104 104 101 101 101 102 101 99 95 101 101 101 100 100 93 92 -193 -209 -209 -193 -209 -209 -193 -209 -209 -209 -193 -225 -225 -225 -225 106 112 109 111 -193 110 109 109 106 106 100 102 -193 -225 -225 -225 -225 -225 -225 -225 -225 -225 -225 -225 -225 -225 -225 0 0 0 0 0
    0 0 0 0 0 0 0 0 0 0 0 0 0 0 0 0 0 0 0 0 0 0 0 0 0 0 0 0 0 0 0 0 0 0 0 0 0 0 0 0 0 0 0 0 0 0 0 0 0 0 0 0 0 0 0 0 0 0 0 0 0 0 0 0 0 0 0 0 0 38 38 38 39 39 40 39 39 39 39 39 40 40 38 36 38 38 37 38 39 38 37 37 40 38 38 36 37 37 39 36 34 30 34 36 33 37 37 38 35 36 36 35 35 37 38 37 37 38 38 39 40 40 41 40 41 41 41 41 40 39 38 37 38 34 32 34 31 31 31 31 30 27 32 32 -193 -209 -209 -209 -209 -209 36 35 38 39 31 33 38 36 37 38 39 38 38 40 41 40 42 42 -209 -209 -209 -209 -209 -209 -193 -209 40 39 38 39 39 40 33 35 39 37 37 39 39 39 39 44 49 45 55 62 72 73 77 85 91 93 93 97 -193 -209 -209 25 22 24 28 34 37 -209 -209 53 67 74 77 84 80 78 74 74 75 77 78 76 73 75 81 84 88 89 88 90 92 92 95 96 96 96 98 101 102 103 105 105 107 108 111 109 107 106 105 105 105 103 103 102 101 102 103 102 101 98 103 104 103 103 102 96 95 98 -209 -209 -209 -209 -209 175 -209 -209 -209 -193 -193 99 101 -193 106 112 -193 -193 -193 -193 -209 -209 -209 -209 -193 -193 -193 -209 93 -209 -209 -209 -209 0 0 0 -209 -209 -209 -209 -225 0 0 0 0 0
    0 0 0 0 0 0 0 0 0 0 0 0 0 0 0 0 0 0 0 0 0 0 0 0 0 0 0 0 0 0 0 0 0 0 0 0 0 0 0 0 0 0 0 0 0 0 0 0 0 0 0 0 0 0 0 0 0 0 0 0 0 0 0 0 0 0 0 0 0 39 39 38 38 39 40 39 39 39 39 38 40 40 39 36 39 38 37 38 39 38 37 37 41 38 38 36 37 37 40 38 35 30 36 40 36 38 39 39 35 37 36 35 35 37 38 37 38 39 39 39 40 41 41 40 41 40 40 40 39 38 37 37 38 34 32 34 32 32 32 31 30 27 33 33 -193 -209 -209 -209 -209 -209 -193 36 39 40 30 33 38 36 37 39 39 38 39 40 41 40 42 42 -209 -209 -209 -209 -209 -209 -209 -209 39 39 39 39 39 40 33 35 39 37 37 38 39 38 38 43 47 -193 56 68 75 77 80 85 89 93 94 97 102 101 -209 16 14 19 23 26 30 -209 -209 57 71 77 84 86 85 79 74 73 74 74 76 75 -193 -193 79 87 99 92 90 90 92 92 96 96 96 94 98 101 103 103 105 105 107 108 111 108 106 105 104 104 104 103 102 101 101 101 102 103 102 101 104 105 105 104 104 99 96 100 93 -209 -209 -209 -209 -209 -209 -193 82 85 -193 92 -193 -209 -209 -193 -209 -193 -193 -193 -209 -209 -209 -209 -193 -209 -193 -209 92 -209 -209 -209 -209 -209 -193 -209 -209 -209 -209 -209 -209 0 0 0 0 0
    0 0 0 0 0 0 0 0 0 0 0 0 0 0 0 0 0 0 0 0 0 0 0 0 0 0 0 0 0 0 0 0 0 0 0 0 0 0 0 0 0 0 0 0 0 0 0 0 0 0 0 0 0 0 0 0 0 0 0 0 0 0 0 0 0 0 0 0 0 39 39 38 39 39 40 39 39 39 38 38 40 41 39 36 39 38 38 38 39 39 38 37 40 37 37 35 35 37 39 39 36 32 39 42 38 39 39 40 35 36 37 35 35 37 39 37 38 39 39 39 40 41 41 40 41 41 40 40 39 38 37 37 38 34 32 34 32 32 32 32 30 27 33 33 -225 -225 -225 -225 -225 -225 -225 -225 -225 39 29 32 38 36 37 39 39 38 38 40 41 40 42 42 41 42 -209 45 -209 -209 -209 -209 -193 39 39 39 39 40 33 35 38 37 37 38 38 38 38 43 -193 -209 -193 73 78 79 81 85 87 92 94 94 100 99 101 103 105 104 -209 -209 -209 190 -209 -209 -225 -225 -225 -225 -225 -225 -225 -225 -225 -225 80 77 -193 -193 77 83 88 88 87 86 86 88 94 92 94 95 99 103 106 106 106 106 108 109 110 105 104 102 102 103 102 101 101 100 100 101 102 103 101 103 106 107 107 106 105 103 101 104 -209 -209 -209 -209 -209 -209 -209 -193 85 -209 94 99 99 100 102 105 -209 106 -209 108 -209 -209 -209 -209 -193 -209 -209 -209 94 -209 -209 -209 -209 -209 0 -209 -209 -209 -209 -209 -209 0 0 0 0 0
    0 0 0 0 0 0 0 0 0 0 0 0 0 0 0 0 0 0 0 0 0 0 0 0 0 0 0 0 0 0 0 0 0 0 0 0 0 0 0 0 0 0 0 0 0 0 0 0 0 0 0 0 0 0 0 0 0 0 0 0 0 0 0 0 0 0 0 0 0 40 39 38 38 39 40 39 39 39 38 38 40 41 39 37 40 39 38 39 40 39 39 37 40 35 36 33 32 36 37 37 36 30 38 42 37 39 40 41 35 35 36 35 35 37 39 37 38 39 39 40 40 41 42 41 42 41 41 41 39 39 38 37 38 34 32 34 32 32 33 32 30 27 33 33 -225 -225 -225 -225 -225 -225 -225 -225 -225 -225 28 32 38 36 37 39 39 38 38 40 -193 -193 42 42 41 42 43 46 -209 -209 -193 -177 -193 39 39 39 39 40 33 35 38 37 37 39 -193 -193 -209 -193 -209 -193 -193 75 81 81 83 85 86 91 93 92 99 102 102 103 104 101 102 101 101 99 98 96 -225 -225 -225 -225 -225 -225 -225 -225 -225 -225 -225 -225 -225 -225 84 86 87 88 87 86 86 88 100 95 98 98 100 102 104 104 103 103 106 -193 104 102 101 101 101 102 102 101 100 100 100 101 102 103 103 104 107 109 110 108 108 106 104 108 -209 -209 -193 -193 -209 140 142 -193 -193 -193 100 102 102 101 102 104 -193 -209 -193 -209 -209 -193 -193 -193 103 -193 -209 -209 -193 -209 -209 -209 -209 -209 -193 -209 -209 -209 -209 -209 -209 0 0 0 0 0
    0 0 0 0 0 0 0 0 0 0 0 0 0 0 0 0 0 0 0 0 0 0 0 0 0 0 0 0 0 0 0 0 0 0 0 0 0 0 0 0 0 0 0 0 0 0 0 0 0 0 0 0 0 0 0 0 0 0 0 0 0 0 0 0 0 0 0 0 0 40 39 37 38 40 40 38 38 39 38 39 40 41 40 38 41 40 40 41 41 40 39 38 40 35 36 32 31 -193 -193 -193 -209 24 -193 40 29 38 39 40 36 36 37 35 37 38 40 39 39 41 41 41 41 41 43 42 42 41 41 41 40 39 38 37 38 34 33 35 32 33 33 33 31 27 33 33 -225 -225 -225 -225 -225 -225 -225 -225 -225 -225 30 34 39 36 37 39 38 38 38 40 -193 -193 42 42 40 41 41 44 -225 -225 -225 -177 -193 40 39 39 39 40 34 36 38 37 38 39 -193 -193 -209 -209 -209 -177 74 77 83 82 84 86 85 91 93 91 99 103 101 101 104 100 100 100 99 98 96 96 96 91 -225 -225 -225 -225 -225 -225 -225 -225 -225 -225 -225 -225 -225 -225 -225 -225 -225 -225 -225 -225 -225 99 100 99 99 100 100 101 100 95 103 102 102 100 99 98 99 100 101 99 99 99 100 101 102 103 103 104 108 111 112 110 109 107 105 114 -209 -209 -209 -193 -193 140 141 -193 -209 -193 102 102 102 103 104 106 106 106 105 -193 106 107 106 106 104 -193 -209 -209 -209 -209 -209 -209 -209 -209 -209 -209 -209 -209 -193 -209 -209 0 0 0 0 0</data></disparity>
</opencv_storage>
